-0.405528 -0.0841182 0.910204 0
-0.403814 -0.0851201 0.910872 0
-0.420825 -0.0858925 0.903066 0
-0.412118 -0.0894921 0.906725 0
-0.42448 -0.0856208 0.90138 0
-0.429812 -0.0851834 0.898891 0
-0.431082 -0.08261 0.898523 0
-0.440324 -0.0892012 0.893397 0
-0.442456 -0.0902755 0.892235 0.00135869
-0.449502 -0.0868041 0.889052 0.00521379
-0.453589 -0.0840384 0.88724 0.0117316
-0.475614 -0.0799116 0.876017 0.020339
-0.474243 -0.0776223 0.876966 0.0238403
-0.477448 -0.0903307 0.874005 0.0173798
-0.46885 -0.0905467 0.878625 0.0170982
-0.469683 -0.0907027 0.878163 0.0151469
-0.460569 -0.0924783 0.882793 0.0149837
-0.443984 -0.0940872 0.891081 0.00188998
-0.445269 -0.0943049 0.890417 0.00415358
-0.452995 -0.106127 0.885174 0.00496124
-0.451363 -0.108174 0.885759 0.00482738
-0.456512 -0.108784 0.883042 0
-0.448197 -0.109307 0.887227 0
-0.457968 -0.113725 0.881664 0
-0.465245 -0.112722 0.877975 0
-0.464513 -0.105727 0.879232 0
-0.493124 -0.108964 0.863108 0.00518672
-0.482815 -0.11111 0.868645 0.00209593
-0.516548 -0.113137 0.848751 0.0124706
-0.501423 -0.117496 0.857187 0.00395485
-0.486186 -0.098304 0.868308 0
-0.486524 -0.106357 0.867169 0
-0.484908 -0.091138 0.869804 0
-0.470978 -0.0905935 0.877481 0
-0.484715 -0.0873287 0.870302 0
-0.479496 -0.0917431 0.872735 0
-0.500042 -0.0964305 0.860615 0.00253633
-0.505889 -0.10046 0.856729 0.00889595
-0.516463 -0.10249 0.850154 0.00700553
-0.511655 -0.102613 0.853042 0.00874958
-0.515516 -0.0969403 0.851379 0.00699801
-0.505283 -0.0981346 0.857355 0.00498157
-0.52629 -0.0941128 0.845081 0.00986155
-0.529284 -0.0964341 0.842946 0.0168123
-0.561858 -0.0814406 0.823215 0.0193904
-0.550477 -0.0935549 0.829592 0.0214587
-0.520458 -0.0656547 0.85136 0.00118693
-0.534608 -0.0499503 0.843623 0.00616979
-0.53299 -0.0543236 0.844376 0.00542026
-0.517085 -0.0357465 0.855187 0
-0.527366 -0.0221148 0.84935 0.00222528
-0.52777 -0.0287821 0.8489 0.00446825
-0.52606 -0.0185558 0.850245 0
-0.536037 -0.0183903 0.843994 0.0053329
-0.549109 -0.0166227 0.835586 0.00753091
-0.538811 -0.0149048 0.842295 0.00544324
-0.54068 -0.0127849 0.841131 0.00762702
-0.568186 -0.0172484 0.822719 0.0195157
-0.537795 -0.00284776 0.843071 0.00890326
-0.522853 -0.00246828 0.852419 0.00487661
-0.520438 0.00624268 0.853877 0.00498043
-0.536584 0.00158568 0.843845 0.0136889
-0.511367 0.0182458 0.859169 0.00167179
-0.507301 0.0247767 0.861413 0.00194929
-0.509452 0.0321009 0.8599 0
-0.499912 0.0341457 0.865403 0
-0.505612 0.0509992 0.861253 0
-0.507923 0.0613042 0.859218 0
-0.502855 0.0606204 0.862242 0
-0.504817 0.0698622 0.860394 0
-0.494311 0.069392 0.866511 0
-0.499155 0.0725876 0.863467 0.00091985
-0.494509 0.0776328 0.865698 0
-0.489828 0.0749151 0.868595 0
-0.505972 0.0733982 0.859421 0.0039164
-0.492172 0.093854 0.865424 0
-0.506907 0.0792623 0.858349 0.0156211
-0.493348 0.0835941 0.865806 0.0042778
-0.485717 0.0851706 0.869957 0.00592902
-0.500537 0.0866419 0.861369 0.011285
-0.498686 0.0948356 0.861579 0.0128791
-0.497737 0.0932327 0.862302 0.015532
-0.493951 0.0963883 0.86413 0.0139684
-0.502656 0.0978205 0.858934 0.0173237
-0.494252 0.105554 0.862887 0.0200341
-0.502915 0.0934635 0.859268 0.022356
-0.491757 0.106092 0.864245 0.01994
-0.500523 0.106897 0.859098 0.0233543
-0.505675 0.0993232 0.856988 0.0309536
-0.505507 0.112588 0.855445 0.0281588
-0.495092 0.124219 0.859915 0.0289847
-0.520722 0.130527 0.843689 0.038494
-0.491546 0.122761 0.862156 0.0324062
-0.509859 0.120374 0.851794 0.0399274
-0.493126 0.12666 0.860688 0.0403328
-0.48966 0.150687 0.858793 0.0378995
-0.456028 0.130057 0.880411 0.0242464
-0.449519 0.151414 0.880344 0.0156028
-0.441074 0.160714 0.882964 0.0120018
-0.440285 0.161728 0.883172 0.0103132
-0.4244 0.166412 0.890052 0
-0.419506 0.165428 0.892551 0
-0.404415 0.178384 0.89701 0
-0.398956 0.181142 0.8989 0
-0.402487 0.169522 0.899593 0
-0.399134 0.178892 0.899272 0
0.39178 -0.29199 0.872497 0.00195186
0.402064 -0.28584 0.86985 0
-0.274024 -0.299498 0.913899 0.0015645
-0.259921 -0.318848 0.91147 0
-0.251866 -0.302603 0.919236 0
-0.244814 -0.289637 0.925298 0
0.391825 -0.282035 0.875745 0.000954985
0.394019 -0.264977 0.880077 0
-0.302733 -0.289639 0.907999 0.0114445
-0.301855 -0.318042 0.89874 0.0191278
-0.284651 -0.304785 0.908889 0.011171
-0.272894 -0.281103 0.92006 0.00413146
-0.269507 -0.312059 0.911036 0.0102054
-0.255742 -0.294656 0.920746 0.000717744
0.396023 -0.267622 0.878376 0
0.399836 -0.266849 0.876883 0
-0.334879 -0.237199 0.911917 0.0315856
-0.319689 -0.26174 0.910654 0.0189867
-0.306279 -0.264648 0.914415 0.016725
-0.303223 -0.295299 0.90601 0.0183326
-0.294571 -0.313396 0.90278 0.0186823
0.399836 -0.26862 0.876342 0.00497912
0.412061 -0.274891 0.8687 0.00977211
-0.338135 -0.21204 0.916899 0.0198899
-0.335573 -0.238782 0.911249 0.0303163
-0.321688 -0.239752 0.915989 0.0231851
0.402136 -0.259305 0.878093 0.00101199
0.414501 -0.256747 0.873081 0.00882404
-0.338729 -0.151344 0.928632 0.017584
-0.343057 -0.186186 0.920677 0.0208694
-0.343127 -0.215314 0.914278 0.0302974
-0.342603 -0.239583 0.908418 0.0312236
0.399886 -0.241028 0.884306 0
0.419998 -0.253181 0.871494 0.00985742
-0.341778 -0.126779 0.93119 0.0211018
-0.335002 -0.134372 0.932587 0.0159435
-0.33036 -0.156209 0.930839 0.0123429
0.418241 -0.234566 0.877527 0.00639969
-0.336126 -0.101568 0.936324 0.00934544
-0.338176 -0.105535 0.935147 0.0122717
-0.333904 -0.11288 0.935824 0.0108508
0.421543 -0.23167 0.876716 0.00560053
-0.346117 -0.107423 0.932021 0.00886769
-0.330882 -0.0883748 0.939525 0.00938511
-0.342239 -0.112322 0.932875 0.0200625
-0.376206 -0.116127 0.91923 0.0262128
-0.369864 -0.116644 0.921735 0.0295016
-0.393931 -0.129508 0.90997 0.0317625
-0.376109 -0.111806 0.919805 0.0222168
-0.401861 -0.0953434 0.910724 0.0210888
-0.396551 -0.123975 0.909603 0.0243314
-0.385084 -0.109374 0.916377 0.0211455
-0.39274 -0.0708139 0.916919 0.0133841
-0.396451 -0.0904561 0.913589 0.0176097
-0.386564 -0.0996737 0.916861 0.0208973
0.47595 -0.18684 0.859397 0.0126166
-0.3939 -0.0736408 0.916199 0.00894482
-0.395931 -0.0795913 0.914824 0.0152907
0.474488 -0.178319 0.862011 0.0137885
0.500826 -0.181727 0.846256 0.0201373
0.547038 -0.187885 0.81575 0.0363094
-0.408664 -0.055917 0.91097 0.019519
-0.405117 -0.0697136 0.911603 0.0207573
0.500483 -0.184705 0.845814 0.0298044
0.515293 -0.18215 0.837433 0.0277793
0.537149 -0.172914 0.825574 0.0345555
-0.432282 -0.064972 0.899395 0.0308846
-0.435032 -0.0686434 0.897795 0.0373852
0.508858 -0.165373 0.844816 0.0283531
0.536253 -0.162642 0.828239 0.0361883
0.568443 -0.170817 0.804795 0.0403736
-0.436516 -0.062782 0.897503 0.0327796
-0.435291 -0.0533347 0.898708 0.0369413
0.509941 -0.151245 0.846809 0.0301434
0.52038 -0.151469 0.840394 0.0275498
0.54547 -0.161266 0.82247 0.0317538
-0.461922 -0.0694204 0.884199 0.03711
-0.439695 -0.058262 0.896255 0.0329845
0.525976 -0.147002 0.837699 0.0299759
0.529618 -0.148359 0.835161 0.0259758
-0.468769 -0.0448703 0.88218 0.0379287
-0.45082 -0.0502266 0.891201 0.0312284
0.521562 -0.142271 0.841268 0.0210807
-0.444162 -0.0345311 0.895281 0.0187943
-0.425427 -0.0365742 0.904254 0.0131589
0.530413 -0.145535 0.835154 0.0253809
-0.429934 -0.0288392 0.9024 0.0111833
-0.419439 -0.0284233 0.907338 0.0132968
-0.473598 -0.025788 0.880363 0.0274103
-0.446527 -0.0185707 0.894578 0.0236603
-0.517446 -0.00390163 0.855707 0.0472902
-0.46472 -0.00419563 0.885448 0.0277901
-0.469382 0.000705878 0.882995 0.0198367
-0.452054 -0.00623984 0.891968 0.0178956
0.49282 -0.121257 0.861641 0.0100536
-0.505415 -0.00771958 0.862842 0.0322763
-0.484398 -0.0030266 0.874842 0.0299511
0.487888 -0.120662 0.864526 0.00771163
-0.485625 -0.00253276 0.874164 0.0295595
-0.434078 0.0180199 0.900695 0.0167737
0.476213 -0.117322 0.871468 0.00413514
-0.463674 0.0271423 0.88559 0.0254144
-0.452652 0.0252428 0.89133 0.0249822
0.476034 -0.114301 0.871968 0.00807775
-0.520939 0.0269697 0.853167 0.0440832
-0.491747 0.0222394 0.870454 0.0397673
0.470716 -0.0924836 0.877424 0.004094
-0.500166 0.0312306 0.865366 0.0388465
-0.459584 0.0357693 0.887414 0.0280995
0.463865 -0.0869549 0.881628 0.000971747
-0.491483 0.0516974 0.869352 0.0375173
-0.504104 0.0441351 0.862514 0.0451875
-0.477046 0.0459535 0.877676 0.0372366
0.479462 -0.0919112 0.872736 0.0101334
-0.508715 0.0501081 0.859475 0.0414875
-0.47581 0.0619106 0.877367 0.0295899
-0.456724 0.0621609 0.887434 0.0275947
0.466172 -0.0872115 0.880385 0.0104722
0.46064 -0.0869246 0.88332 0
-0.474026 0.0780507 0.877045 0.0290508
-0.452051 0.0792654 0.888463 0.0250883
0.463607 -0.0821566 0.882224 0.0111384
0.46199 -0.0836553 0.882931 0.0100274
-0.453306 0.0853917 0.887255 0.0213351
-0.44172 0.086473 0.892976 0.0224017
0.432462 -0.0654398 0.899274 0
0.443404 -0.0688968 0.89367 1.51176e-05
-0.47632 0.102113 0.873322 0.0313762
-0.46406 0.100632 0.880069 0.030322
0.431155 -0.0697963 0.899575 0
0.439388 -0.0632764 0.896066 0
-0.468786 0.105768 0.876957 0.0271806
-0.448094 0.102344 0.888109 0.0229252
0.427164 -0.0593711 0.902223 0
-0.461477 0.11722 0.879374 0.0276809
-0.44278 0.113225 0.889453 0.0228256
0.428558 -0.0546485 0.90186 0
-0.446189 0.122165 0.886562 0.023362
-0.450961 0.118421 0.884653 0.0291006
0.423753 -0.0484448 0.904481 0
0.427042 -0.0487868 0.902915 0
-0.437298 0.130067 0.889861 0.0191259
-0.456798 0.117728 0.881746 0.0338029
0.415096 -0.0451265 0.908658 0
0.42001 -0.0450641 0.9064 0
-0.448384 0.13266 0.883942 0.0228724
-0.444167 0.119565 0.88793 0.026816
-0.440484 0.115287 0.890327 0.0316226
0.402609 -0.0544147 0.913753 0
0.41618 -0.0552718 0.907601 0.0054738
-0.453116 0.126032 0.882497 0.0260753
-0.421632 0.129981 0.897402 0.0102874
-0.40698 0.11541 0.906117 0.0110983
0.444164 -0.0700695 0.893201 0.0198425
-0.435112 0.109414 0.893703 0.0210029
-0.409001 0.113055 0.905504 0.010685
-0.4067 0.121196 0.905487 0.017428
0.428236 -0.0657607 0.901271 0.0156693
-0.409903 0.116461 0.904664 0.00766471
-0.403411 0.119889 0.907131 0.0165743
-0.388106 0.123507 0.913302 0.00277687
0.405302 -0.0534556 0.912619 0.00736571
-0.398846 0.125404 0.908403 0.00371775
-0.389087 0.120248 0.913319 0.00592608
-0.394972 0.124091 0.910274 0.0136351
0.399862 -0.0552579 0.914908 0.013533
0.402679 -0.0533115 0.913787 0.00471822
-0.411509 0.120988 0.90334 0.0104031
-0.391706 0.126605 0.911338 0.00552985
-0.376096 0.133897 0.916855 0
0.379021 -0.055094 0.923747 0.00270626
0.389454 -0.0499216 0.919692 0
-0.384459 0.133176 0.913485 0
-0.377132 0.126603 0.917466 0
0.379888 -0.0558461 0.923345 0
0.386595 -0.0551451 0.920599 0
-0.383499 0.13539 0.913563 0
-0.374312 0.135906 0.917289 0
-0.372608 0.126865 0.919276 0.00162623
0.377271 -0.0544989 0.924498 0
0.381715 -0.0554214 0.922617 0
-0.383966 0.135093 0.913411 0.00105426
-0.372312 0.138446 0.917723 0
-0.365581 0.124338 0.922438 0
0.378905 -0.0618041 0.92337 0
0.386083 -0.0571763 0.92069 0
-0.408957 0.12579 0.903842 0.0140109
-0.402891 0.127439 0.906332 0.0193494
-0.379495 0.129932 0.916025 0.011414
0.379663 -0.0614646 0.923081 0
-0.383552 0.127955 0.914612 0.00410589
-0.368282 0.13081 0.920466 0
0.373554 -0.0635707 0.925428 0
-0.380824 0.125079 0.916149 0.00454687
-0.368507 0.126945 0.920917 0
0.371818 -0.0717531 0.925529 0
0.375232 -0.0737134 0.923995 0
-0.386033 0.123852 0.914133 0.00996483
-0.373532 0.129775 0.918495 0.00479907
0.364756 -0.0779649 0.927833 0
0.36678 -0.0809757 0.926777 0
-0.382969 0.125929 0.915137 0.00315622
-0.381554 0.120853 0.916412 0.00580952
0.360551 -0.066268 0.930383 0
0.359982 -0.0725108 0.930137 0
-0.375952 0.111019 0.919964 0
0.353947 -0.0763324 0.932145 0
-0.389688 0.115512 0.913674 0.00655858
-0.387505 0.115652 0.914584 0.00799488
-0.363117 0.119257 0.92408 0
0.346992 -0.0800288 0.934447 0
-0.398338 0.122166 0.909067 0.0120922
-0.379145 0.113378 0.918365 0.0101284
-0.400005 0.113468 0.909462 0.0156853
-0.383364 0.0990507 0.918271 0.0161466
-0.385396 0.0971047 0.917628 0.0189201
-0.402021 0.0797779 0.912148 0.0243569
-0.387041 0.08456 0.918177 0.0168999
-0.41338 0.0844867 0.906631 0.0298148
-0.395564 0.0810323 0.914857 0.0260848
-0.414953 0.0848082 0.905882 0.0322001
-0.390125 0.089814 0.916371 0.0205009
-0.36508 0.0903675 0.92658 0.000484986
-0.379601 0.0918684 0.920578 0.0155122
-0.368207 0.0986973 0.924491 0.0113659
-0.363421 0.0983998 0.926414 0.0117484
-0.355672 0.0947804 0.929793 0.00106666
-0.357652 0.093529 0.929159 0.00457208
-0.352108 0.0947101 0.931155 0.00468742
-0.372861 0.0942339 0.92309 0.00609419
-0.375628 0.0825625 0.923086 0.0113362
-0.354688 0.0943213 0.930215 0.00671171
-0.346096 0.090093 0.933863 0.00627286
-0.368068 0.0862097 0.925794 0
-0.359093 0.0828657 0.929616 0.00192529
-0.345794 0.0844056 0.934507 0.000126842
-0.352383 0.0773431 0.932654 0.0101081
-0.365721 0.0732587 0.927837 0.0102899
-0.358695 0.0701107 0.930818 0.0119425
-0.346304 0.0699707 0.935509 0.0100454
-0.370169 0.0692757 0.926378 0.0200666
-0.350359 0.0695494 0.93403 0.0100042
-0.344724 0.0649779 0.936453 0.0113741
-0.35987 0.0601145 0.931064 0.00796561
-0.35114 0.0598845 0.934406 0.00459049
-0.340006 0.0520115 0.938984 0.00550754
-0.367921 0.0536144 0.92831 0.0152101
-0.353357 0.0483668 0.934237 0.0109076
-0.347807 0.0450028 0.936485 0.0119545
-0.346038 0.0432088 0.937225 0.0126927
-0.386086 0.051495 0.921025 0.0274239
-0.368395 0.0468931 0.928486 0.0207439
-0.3468 0.0515972 0.936519 0.0119777
-0.346174 0.0525538 0.936697 0.0168874
-0.391646 0.0482027 0.918853 0.0337263
-0.356298 0.0601414 0.932435 0.0203201
-0.346463 0.0683938 0.935567 0.0199078
-0.393202 0.0503396 0.918073 0.0367601
-0.35943 0.0587853 0.931319 0.0268379
-0.338945 0.0667109 0.938438 0.0114824
-0.389517 0.0410671 0.920103 0.038914
-0.367844 0.0583776 0.928053 0.0309159
-0.365131 0.0618063 0.928902 0.0338188
-0.3802 0.0529532 0.923387 0.0265188
-0.360765 0.055626 0.930996 0.0231143
-0.366231 0.0633548 0.928365 0.0300279
-0.355538 0.0578204 0.932872 0.0268232
-0.366693 0.0631577 0.928196 0.0150925
-0.359606 0.0498122 0.931774 0.0175274
-0.360007 0.0501478 0.931601 0.0261375
-0.36077 0.0468463 0.931478 0.0326727
-0.35644 0.0472437 0.933123 0.014102
-0.36894 0.0381821 0.928669 0.0290514
-0.368462 0.0373417 0.928892 0.0335378
-0.367202 0.0449305 0.929055 0.0227144
-0.363698 0.0414684 0.930594 0.0248657
-0.37639 0.0355243 0.92578 0.0361901
-0.37767 0.0399999 0.925076 0.0249328
-0.393299 0.0315144 0.91887 0.0403631
-0.368449 0.0372524 0.928901 0.0279553
-0.38235 0.0115173 0.923946 0.0264552
-0.375355 0.0178643 0.926709 0.0288418
-0.349202 0.0242559 0.936733 0.0138627
-0.369796 0.0170479 0.928957 0.0203921
-0.360197 0.0103645 0.932819 0.0214196
-0.34727 0.0253088 0.937424 0.0109635
-0.357264 0.02146 0.933757 0.00636236
-0.358079 0.0197956 0.933482 0.0098193
-0.345176 0.0214022 0.938294 0.00961606
-0.345577 0.0206205 0.938164 0.0166837
-0.350445 0.0294942 0.936119 0
-0.344545 0.0292508 0.938314 0
-0.338207 0.0245327 0.940752 0
-0.324406 0.0308701 0.945414 0
-0.348457 0.0165836 0.937178 0
-0.339538 0.0185065 0.94041 0
-0.330204 0.0246597 0.943587 0
-0.324011 0.0250376 0.945722 0
-0.345219 0.0174483 0.93836 0
-0.336273 0.0180598 0.941591 0
-0.329067 0.0131763 0.944215 0
-0.318215 0.0223196 0.947756 0
-0.339941 0.0205593 0.940222 0
-0.330841 0.0164668 0.943543 0
-0.323712 0.0202272 0.94594 0
-0.320132 0.0175601 0.94721 0
-0.344341 -0.00391152 0.938836 0
-0.335476 0.00759473 0.942018 0
-0.329149 0.0107889 0.944216 0
-0.324467 0.0147039 0.945783 0
-0.3497 -0.0160867 0.936724 0
-0.339535 0.000226957 0.940593 0
-0.331251 0.0042327 0.943533 0
-0.350505 -0.0103316 0.936504 0
-0.336989 -0.00816201 0.941473 0
-0.348922 -0.0147492 0.937036 0
-0.34267 -0.0213338 0.939213 0
-0.348998 -0.0235271 0.936828 0
-0.339674 -0.0365155 0.939834 0
-0.368129 -0.0506636 0.928393 0.00300907
-0.358857 -0.0479255 0.932161 0.00218651
-0.354001 -0.0456611 0.93413 0.00848136
-0.364028 -0.053458 0.929853 0
-0.354832 -0.0585021 0.933098 7.94363e-05
-0.344992 -0.0546459 0.937014 0
-0.364574 -0.0551995 0.929537 0.00449164
-0.348736 -0.0575949 0.93545 0
-0.341211 -0.0655356 0.937699 0
-0.361407 -0.0499532 0.931069 0
-0.346269 -0.0593706 0.936255 0
-0.342896 -0.065014 0.937121 0
-0.363108 -0.0516961 0.930312 0
-0.356035 -0.0520294 0.933023 0
-0.348871 -0.0607176 0.935202 0
-0.371555 -0.0493651 0.927098 0
-0.365079 -0.0560988 0.929285 0
-0.355788 -0.0511584 0.933165 0
-0.353516 -0.055924 0.933755 0
-0.376194 -0.0616335 0.924489 0
-0.367952 -0.0636785 0.927662 0
-0.352438 -0.0561172 0.934151 0
-0.384436 -0.0722304 0.920322 0
-0.366748 -0.0652748 0.928027 0
-0.355704 -0.0573767 0.932836 0
-0.387154 -0.0776573 0.918739 0
-0.382566 -0.0867258 0.919849 0
-0.370531 -0.0828232 0.92512 0
-0.392225 -0.0935627 0.915098 0
-0.389676 -0.092357 0.916309 0
-0.375347 -0.086813 0.92281 0
-0.397835 -0.0953615 0.912488 0
-0.390891 -0.0960245 0.915414 0
-0.401397 -0.0861588 0.911843 0
-0.398657 -0.0917515 0.912499 0.00279978
-0.411508 -0.0905943 0.906893 0
-0.407184 -0.0898887 0.908912 0
-0.412505 -0.102154 0.90521 0.0098789
-0.423479 -0.0898985 0.901434 0.00478428
-0.424018 -0.100296 0.900083 0.00933683
-0.400096 -0.0955739 0.911476 0
-0.420077 -0.0885113 0.903162 0.00190421
-0.418691 -0.0937286 0.903279 0.0051352
-0.444661 -0.0971851 0.890411 0.012824
-0.431294 -0.0968191 0.897002 0.0130069
-0.439043 -0.0939065 0.893545 0.0131007
-0.423251 -0.0812444 0.902362 0.00688053
-0.47268 -0.0855616 0.87707 0.0267977
-0.465176 -0.0891294 0.880719 0.0207213
-0.446387 -0.0933091 0.889962 0.0107074
-0.453808 -0.102111 0.88523 0.0174176
-0.444462 -0.107702 0.8893 0.00956963
-0.452008 -0.107865 0.885468 0.0159004
-0.45358 -0.110464 0.884343 0.00991794
-0.440959 -0.115391 0.890079 0.00649559
-0.444139 -0.115568 0.888473 0
-0.438765 -0.118166 0.890798 0.000789686
-0.454498 -0.108254 0.884145 0
-0.455997 -0.109106 0.883268 0.00118341
-0.459142 -0.11307 0.881138 0
-0.452055 -0.107072 0.88554 0
-0.459619 -0.104078 0.881996 0
-0.466369 -0.123697 0.875899 0.00245589
-0.470045 -0.110002 0.875761 0
-0.474951 -0.118406 0.87201 0.00431255
-0.476972 -0.104052 0.872737 0.00108708
-0.476305 -0.114139 0.87184 0.0031942
-0.473881 -0.103909 0.874437 0
-0.470251 -0.102757 0.87653 0
-0.468114 -0.0993347 0.878067 0
-0.464998 -0.104844 0.879081 0
-0.459502 -0.0948814 0.883094 0
-0.459103 -0.101663 0.882547 0
-0.473529 -0.0909051 0.876075 0
-0.461173 -0.0922998 0.882496 0
-0.493179 -0.100898 0.864057 0.00627491
-0.494469 -0.0979036 0.863664 0.0039669
-0.50918 -0.101791 0.854619 0.012343
-0.508083 -0.0956637 0.855979 0.00966523
-0.514996 -0.102257 0.851072 0.0148497
-0.537292 -0.102587 0.837134 0.0200387
-0.524867 -0.0974952 0.845582 0.0173078
-0.503192 -0.0838581 0.860096 0.00475413
-0.514968 -0.0854621 0.852939 0.0135236
-0.509082 -0.0575365 0.858793 0
-0.518185 -0.0690409 0.852477 0.00737518
-0.491695 -0.0709873 0.867869 0
-0.507981 -0.0532369 0.859722 0.00139829
-0.502729 -0.0572979 0.862543 0.00286197
-0.495922 -0.0319198 0.86778 0
-0.52705 -0.0337808 0.849162 0.0116015
-0.543605 -0.0182355 0.839143 0.0109357
-0.519178 -0.0191032 0.854453 0.00710078
-0.562364 -0.0206262 0.826632 0.0156507
-0.549283 -0.021844 0.835351 0.0179108
-0.554766 -0.0211368 0.831738 0.0150192
-0.513325 -0.00790209 0.858158 0.00510934
-0.524651 -0.00365492 0.851309 0.00738399
-0.538983 -0.00187664 0.842315 0.0167128
-0.539347 0.00247707 0.84208 0.0168268
-0.526976 0.0225838 0.84958 0.0143576
-0.498376 0.0350118 0.866254 0
-0.500625 0.054632 0.863939 0.00166946
-0.492166 0.0647764 0.868088 0
-0.487576 0.0658036 0.870597 0
-0.475371 0.0640023 0.877454 0
-0.487367 0.0734614 0.870102 0.00325299
-0.47548 0.064849 0.877333 0
-0.494341 0.0897458 0.864623 0.0101499
-0.48483 0.0800407 0.870938 0.00884336
-0.499062 0.0955519 0.861282 0.0154453
-0.494729 0.0932607 0.864029 0.0138539
-0.49563 0.0959289 0.86322 0.0178826
-0.481924 0.106627 0.869701 0.0175755
-0.488638 0.113795 0.865034 0.0211754
-0.499689 0.125193 0.85711 0.0297444
-0.488854 0.13066 0.862525 0.0245326
-0.497362 0.129225 0.857865 0.0247123
-0.48011 0.124963 0.868262 0.0219086
-0.468776 0.12971 0.873741 0.022985
-0.481055 0.127574 0.867358 0.0286679
-0.464809 0.123624 0.876738 0.027289
-0.467605 0.130244 0.874289 0.0322811
-0.455546 0.129292 0.880773 0.0223694
-0.44109 0.134876 0.88727 0.0135579
-0.431841 0.143318 0.890491 0.00690187
-0.413708 0.155667 0.897002 0.00323314
-0.420893 0.153813 0.893975 0
-0.410354 0.172723 0.89542 0
-0.415975 0.166952 0.893919 0.0126217
-0.402971 0.170578 0.899176 0
-0.406648 0.167368 0.898123 0.0109259
-0.390769 0.166538 0.905298 0
0.383883 -0.338622 0.859051 0.0259027
0.388827 -0.325621 0.861849 0.0211528
0.384624 -0.290462 0.876183 0.00232452
-0.166385 -0.299947 0.939334 0.00890706
-0.158967 -0.304121 0.939276 0.00504978
0.390535 -0.334031 0.857849 0.0239217
0.389666 -0.291165 0.873718 0.00719337
-0.271566 -0.275036 0.922284 0.00253741
-0.265507 -0.30726 0.913837 0.00689654
-0.251684 -0.28892 0.923678 0
-0.248508 -0.297091 0.921944 0.00954304
0.390851 -0.272139 0.879304 0.00457329
0.392876 -0.28278 0.875034 0.000600114
-0.30524 -0.259671 0.916187 0.0193382
-0.301485 -0.273617 0.913367 0.0203219
-0.290277 -0.290942 0.911643 0.0221928
-0.276299 -0.267072 0.923218 0.0124078
-0.26784 -0.295943 0.916886 0.0108203
-0.255695 -0.278599 0.925744 0.00228826
0.391379 -0.276805 0.877611 0.00853002
0.39361 -0.259172 0.881987 0.00191469
-0.318605 -0.221247 0.921705 0.0187422
-0.312261 -0.264061 0.91256 0.0249352
-0.30319 -0.266339 0.914953 0.0226092
-0.29676 -0.270977 0.915699 0.0204792
0.395266 -0.256036 0.882162 0.00523113
0.400827 -0.245699 0.882593 0.00575611
-0.346168 -0.212119 0.913878 0.0323042
-0.33873 -0.225892 0.913364 0.0330831
-0.324817 -0.21248 0.9216 0.0247815
-0.317702 -0.242397 0.916684 0.0294124
-0.304081 -0.248841 0.919572 0.0198016
0.395186 -0.22878 0.889656 0
-0.342758 -0.201435 0.917573 0.0285126
-0.332071 -0.20808 0.920017 0.0238597
-0.323141 -0.212688 0.922141 0.0220171
0.39902 -0.234362 0.886486 0.00230921
0.417035 -0.23952 0.876762 0.012596
-0.338778 -0.126083 0.93238 0.0165415
-0.333349 -0.133894 0.933247 0.0166654
-0.336802 -0.175901 0.924999 0.0263948
-0.330705 -0.187779 0.924864 0.023288
0.412439 -0.235614 0.879989 0.0129694
0.422339 -0.240725 0.873888 0.0147908
-0.3376 -0.107864 0.935089 0.0158667
-0.331889 -0.13189 0.934053 0.0144212
-0.332352 -0.151048 0.930982 0.0193108
0.426262 -0.220497 0.877315 0.0215473
-0.344604 -0.109777 0.932307 0.0170818
-0.337487 -0.110241 0.934853 0.0140539
-0.333505 -0.129295 0.93384 0.0163499
0.434416 -0.220553 0.873292 0.0245718
-0.372507 -0.119092 0.920356 0.0256493
-0.354296 -0.112393 0.928355 0.0186159
-0.341672 -0.109796 0.933383 0.0133051
-0.328249 -0.109535 0.938219 0.0090858
0.430493 -0.198623 0.880468 0.0249224
-0.374679 -0.113691 0.920158 0.0154922
-0.369168 -0.109563 0.922882 0.0230123
-0.356063 -0.10446 0.928605 0.0233748
-0.394494 -0.0996483 0.913479 0.0288532
-0.39116 -0.113471 0.913301 0.0326744
-0.375799 -0.118392 0.919107 0.0303664
-0.392807 -0.0784437 0.916269 0.0169463
-0.39843 -0.0960339 0.912157 0.0233144
-0.394594 -0.117138 0.911358 0.030517
-0.399989 -0.079103 0.9131 0.0211325
-0.423286 -0.0967975 0.90081 0.0400572
-0.394302 -0.0907509 0.914489 0.030088
0.487275 -0.173284 0.855883 0.0283214
-0.416892 -0.0703925 0.906226 0.0313323
-0.43666 -0.101741 0.893855 0.0426096
-0.407158 -0.0915565 0.908757 0.0360806
0.496086 -0.164744 0.852501 0.0354208
0.500147 -0.152025 0.852491 0.0238276
-0.425027 -0.0545168 0.903537 0.0377306
-0.412074 -0.0602107 0.909159 0.033571
-0.429253 -0.0880872 0.898879 0.0465478
-0.408858 -0.0753224 0.909484 0.0360701
0.509304 -0.162879 0.845032 0.0425607
-0.424966 -0.0456789 0.904056 0.0290392
-0.418134 -0.0275817 0.907967 0.0314838
-0.402143 -0.0335243 0.914963 0.026917
-0.385046 -0.044334 0.921832 0.0190653
0.521709 -0.162434 0.837517 0.0460937
0.542078 -0.16162 0.824639 0.0470997
0.542922 -0.159592 0.824479 0.0400266
-0.432472 -0.0427882 0.900631 0.0243732
-0.391309 -0.0230261 0.919971 0.0112558
-0.390835 -0.023908 0.92015 0.0126177
0.521554 -0.161082 0.837875 0.0438501
0.500046 -0.151379 0.852666 0.0242751
0.518359 -0.143875 0.842973 0.0264129
0.526394 -0.14882 0.837115 0.0247825
-0.416952 -0.0307088 0.90841 0.0108721
-0.380263 -0.00885121 0.924836 0
-0.375312 -0.0118165 0.926823 0
0.505663 -0.14658 0.850188 0.0269816
0.517856 -0.140984 0.84377 0.0246061
0.526474 -0.139865 0.838608 0.0251695
-0.416717 -0.0312984 0.908497 0.0144503
-0.39722 -0.0223933 0.91745 0.00761293
0.49639 -0.136707 0.857268 0.0188729
0.494137 -0.125851 0.860227 0.0101403
-0.408883 -0.00882868 0.912544 0.0106236
-0.383541 -0.00094934 0.923523 0
0.492926 -0.134748 0.859573 0.0162267
0.501287 -0.135151 0.854661 0.0168364
-0.427173 -0.00718171 0.904141 0.015679
-0.394343 -0.00524881 0.918948 0.00143785
0.491545 -0.135713 0.860212 0.0137524
0.504854 -0.137434 0.852194 0.0142948
-0.421146 0.0021544 0.90699 0.0112761
-0.403038 -0.00225398 0.91518 0.00337655
0.48741 -0.128225 0.863707 0.0149893
0.48791 -0.129584 0.863221 0.0086147
-0.433568 -0.000557572 0.901121 0.0163128
-0.428897 -0.00850591 0.903313 0.0172439
0.476592 -0.122266 0.870581 0.0116105
0.4916 -0.123549 0.862012 0.0151023
-0.440347 0.00390013 0.897819 0.0207157
-0.414765 0.0106457 0.909866 0.0117154
0.479813 -0.124549 0.868486 0.0161632
0.484224 -0.125523 0.865893 0.01304
-0.429695 0.0274893 0.902556 0.0137283
-0.420229 0.0217498 0.907158 0.0128648
0.456744 -0.104188 0.883476 0.00826349
0.453333 -0.102196 0.885464 0.00167384
-0.453432 0.024028 0.890967 0.0271954
-0.428916 0.0308914 0.902816 0.0204841
0.461452 -0.0965402 0.881897 0.011824
0.453314 -0.0944943 0.886328 0.00130237
-0.447063 0.0366674 0.893751 0.0271953
-0.429455 0.0356923 0.902383 0.0170681
0.453214 -0.0874678 0.8871 0.0110318
0.448819 -0.0887163 0.889208 0.000525262
-0.468523 0.0434238 0.882384 0.0344136
-0.425471 0.0410986 0.904038 0.0212732
0.474185 -0.094867 0.875299 0.0231698
0.457955 -0.0869996 0.884708 0.0089404
-0.459212 0.061264 0.886212 0.0338669
-0.433582 0.0637888 0.898853 0.024352
0.472738 -0.0852336 0.877071 0.0240159
0.46472 -0.0807991 0.881763 0.0133446
-0.463547 0.0767469 0.882742 0.0327602
-0.451079 0.0653473 0.890088 0.0337712
-0.430559 0.0686985 0.899944 0.0271074
0.441155 -0.0740943 0.894367 0.00957426
0.445054 -0.0689904 0.892842 0.0097199
-0.440019 0.082246 0.894214 0.0213058
-0.44775 0.0777985 0.890768 0.0279964
-0.441491 0.0749788 0.894127 0.0362119
0.426117 -0.0657151 0.902278 0.00393741
0.42774 -0.0648106 0.901575 0
-0.438066 0.101069 0.893243 0.0203348
-0.447905 0.0983606 0.888654 0.032963
-0.458295 0.0899696 0.884235 0.0405513
0.393068 -0.0612005 0.91747 0
0.408093 -0.0632052 0.91075 0
0.417826 -0.0592662 0.906592 0
-0.427443 0.103175 0.898135 0.018203
-0.41992 0.099682 0.90207 0.0203185
0.3946 -0.0615839 0.916787 0
0.397908 -0.0509625 0.916009 0
0.406948 -0.0493769 0.912116 0
-0.453753 0.113117 0.883919 0.0281827
-0.416962 0.103969 0.902958 0.0245202
-0.405536 0.101454 0.908431 0.0234708
0.385111 -0.0406157 0.921976 0
0.40277 -0.045259 0.914181 0
-0.436322 0.108126 0.89327 0.0354258
-0.427913 0.10797 0.897348 0.033962
0.380273 -0.0354068 0.924196 0
0.387498 -0.0358267 0.921174 0
0.410682 -0.0444684 0.910694 0
-0.422221 0.1148 0.899194 0.0246925
-0.414787 0.112315 0.90296 0.0259232
0.383838 -0.0351457 0.922731 0.00683479
0.380522 -0.0338525 0.924152 0.000986483
0.406928 -0.049148 0.912137 0.0066
-0.42829 0.121445 0.895444 0.0320522
-0.426313 0.115839 0.897128 0.031746
0.382116 -0.0463076 0.922954 0.00969689
0.385131 -0.038189 0.922071 0.00587938
0.395249 -0.0480408 0.917317 0.00235462
-0.397929 0.105595 0.911319 0.0139918
-0.40457 0.106506 0.908284 0.0208006
0.38104 -0.0370256 0.923817 0.0146807
0.383536 -0.0363852 0.922809 0.00907764
0.399011 -0.0555197 0.915264 0.00584063
-0.396675 0.121777 0.909846 0.00715804
-0.402473 0.118243 0.907763 0.0179246
-0.382357 0.106894 0.917811 0.00868301
0.368069 -0.0358501 0.929107 0.00781687
0.383908 -0.0397465 0.922516 0.0151335
0.386453 -0.0513999 0.920876 0
0.413859 -0.0610602 0.908291 0.0127235
-0.394635 0.120381 0.910918 0.00925396
-0.368767 0.117535 0.922061 0
0.369055 -0.0408007 0.928512 0.0138567
0.384075 -0.0460384 0.922153 0.0167047
0.390325 -0.0505166 0.91929 0.00903508
0.394323 -0.0548744 0.917332 0.00516469
-0.382085 0.121064 0.916163 0.00828533
-0.370538 0.124987 0.920369 0.00020774
0.384281 -0.0520103 0.92175 0.0249436
0.397723 -0.0568879 0.91574 0.028825
0.388862 -0.0478956 0.92005 0.0164032
0.395465 -0.055634 0.916795 0.0137757
-0.373366 0.130402 0.918473 0
-0.371603 0.122003 0.920341 0
0.386059 -0.0429318 0.921475 0.0301181
0.394294 -0.0435258 0.917953 0.0316203
0.390922 -0.0516549 0.918973 0.020736
0.393927 -0.055437 0.917468 0.0156315
-0.371441 0.133579 0.918797 0
-0.370153 0.13013 0.919811 0.00224966
0.357999 -0.0375224 0.932968 0.00782876
0.363076 -0.0489663 0.930472 0.0029854
0.373464 -0.0586108 0.925791 0.00185719
-0.382406 0.118904 0.916312 0.0130716
-0.356154 0.118456 0.926889 0.000538323
0.345585 -0.0304194 0.937894 0
0.356395 -0.0351145 0.933675 0
0.362193 -0.0332207 0.931511 0
-0.359883 0.125692 0.924492 0
-0.351368 0.112432 0.929462 0
0.341274 -0.0340048 0.939349 0
0.354071 -0.0405184 0.934341 0
0.36874 -0.0496219 0.928207 0
-0.359553 0.121749 0.925148 0.00270063
-0.359753 0.120302 0.92526 0.00439791
-0.356306 0.120354 0.926586 0.00386378
0.336323 -0.0446788 0.940686 0
0.350425 -0.0450003 0.935509 0
0.364401 -0.0526724 0.929751 0
0.369256 -0.0578171 0.927527 0
-0.361858 0.126485 0.923613 0.00539972
-0.358317 0.117699 0.926151 0.0056849
0.343041 -0.0479143 0.938097 0
0.351563 -0.0549041 0.934553 0
0.363761 -0.059741 0.929574 0
-0.36133 0.119886 0.924699 0.00416161
-0.34517 0.11259 0.931763 0
0.340324 -0.0577916 0.938531 0
0.350995 -0.0596623 0.934475 0
0.360601 -0.0608078 0.930736 0
-0.366985 0.119489 0.922521 0.0122964
-0.354039 0.119082 0.927619 0.00665095
-0.343368 0.12254 0.931173 0
0.339273 -0.0510649 0.939301 0
0.346941 -0.0659803 0.935563 0
0.361177 -0.0733482 0.929608 0
-0.363736 0.121154 0.92359 0.002858
-0.354631 0.121937 0.927021 0.00346862
-0.350238 0.11968 0.928983 0.00468694
0.33428 -0.0582593 0.940672 0
0.33758 -0.0695914 0.938721 0
0.350024 -0.067352 0.934316 0
-0.364646 0.123692 0.922894 0
-0.352602 0.11766 0.928347 0
-0.348526 0.114174 0.930319 0
0.328347 -0.0684985 0.94207 0
0.343655 -0.069244 0.93654 0
-0.356529 0.111861 0.927564 0.00275321
-0.360183 0.107062 0.926718 0.00680159
-0.378602 0.0956171 0.920607 0.0257285
0.325964 -0.0670909 0.942998 0
0.333195 -0.0750573 0.939866 0
0.346721 -0.086002 0.934017 0.00533382
-0.372522 0.114857 0.920888 0.0119698
-0.382803 0.100611 0.918335 0.0274729
-0.37518 0.104409 0.921053 0.0237504
0.317675 -0.0703402 0.945587 0
0.324731 -0.0707273 0.943158 0.0028467
0.334274 -0.0780109 0.939242 0.00375588
-0.376587 0.103052 0.920632 0.0191746
-0.37263 0.0980655 0.922784 0.0200758
-0.357797 0.101303 0.928288 0.0149884
0.310015 -0.0700569 0.948147 0
0.316442 -0.0783643 0.945369 0
0.325993 -0.0858729 0.941464 0.00404035
-0.391154 0.0982217 0.915069 0.0255752
-0.390052 0.0936785 0.916015 0.0269632
-0.368542 0.0866335 0.925565 0.017075
-0.345176 0.0986034 0.933344 0.00340425
0.30989 -0.0714584 0.948083 0
0.320498 -0.0740308 0.944352 0
-0.378781 0.0878899 0.921304 0.0127578
-0.354128 0.091156 0.930744 0.000355967
-0.345575 0.106543 0.932323 0
0.338245 -0.0854562 0.93717 0.0208776
0.341598 -0.0862287 0.935882 0.0195743
-0.388761 0.0828661 0.917605 0.0219767
-0.367638 0.092067 0.9254 0.0109666
-0.349129 0.102451 0.931457 0
-0.343282 0.102379 0.933636 0
0.331288 -0.0887752 0.939344 0.0206069
0.335861 -0.0880158 0.93779 0.0188457
-0.373228 0.0927004 0.923097 0.0164275
-0.343924 0.0994044 0.933721 0.00155712
-0.341171 0.101329 0.934524 0.00266005
0.32673 -0.0932493 0.940506 0.023767
0.335776 -0.0966655 0.936969 0.0254757
-0.358819 0.0942667 0.928635 0.00694366
-0.354043 0.0930904 0.930585 0.00861419
-0.342305 0.0945694 0.934818 0.00552329
-0.335795 0.0901873 0.937607 0.00858227
0.328417 -0.0973866 0.939499 0.0316753
-0.350887 0.0926224 0.931826 0.00494726
-0.347606 0.0906148 0.933252 0.0105261
-0.339925 0.0899619 0.93614 0.00881073
-0.326187 0.0919616 0.940822 0.00607195
0.302621 -0.0899152 0.94886 0.0179392
-0.347655 0.0963445 0.93266 0.00876333
-0.350066 0.0964058 0.931751 0.0170845
-0.325342 0.0962441 0.940686 0.00308614
-0.353979 0.0919939 0.930718 0.00857956
-0.348125 0.089599 0.933156 0.00882573
-0.33722 0.0861505 0.937476 0.0152562
-0.330758 0.0829164 0.940066 0.0212911
-0.348066 0.0787322 0.934158 0.0100731
-0.339114 0.0790483 0.937418 0.0164276
-0.321172 0.0756336 0.943996 0.0121281
-0.342927 0.0756336 0.936312 0.00939629
-0.338315 0.0740482 0.938115 0.0132837
-0.336102 0.0746166 0.938865 0.0230643
-0.34364 0.06159 0.93708 0.0127658
-0.344596 0.0657685 0.936444 0.0179413
-0.32746 0.0673163 0.942464 0.0117355
-0.321604 0.0670569 0.944497 0.010211
-0.346025 0.0558213 0.936563 0.0129598
-0.328227 0.0558319 0.942948 0.00485123
-0.322982 0.0593812 0.94454 0.00592172
-0.323056 0.0602409 0.944461 0.0131723
-0.356359 0.0442492 0.933301 0.0195602
-0.328723 0.0506467 0.943067 0.00749733
-0.3339 0.0580535 0.940819 0.0172037
-0.332442 0.0617514 0.9411 0.0191771
-0.355635 0.0493824 0.933319 0.021012
-0.343047 0.062111 0.937262 0.0208036
-0.338243 0.063715 0.938899 0.0208718
-0.331492 0.0684374 0.940973 0.016862
-0.340634 0.0775903 0.936989 0.0134516
-0.343775 0.0672587 0.93664 0.0250442
-0.337328 0.0638467 0.93922 0.023499
-0.351993 0.0651075 0.933735 0.0257046
-0.343186 0.0741439 0.936336 0.0213525
-0.345659 0.065709 0.936057 0.0275862
-0.357749 0.063115 0.931682 0.0308291
-0.349421 0.0677598 0.934513 0.0277862
-0.343748 0.0649463 0.936813 0.0270282
-0.343278 0.0595663 0.937343 0.0203439
-0.347074 0.053786 0.936294 0.0286611
-0.33435 0.0506584 0.941087 0.0267782
-0.3517 0.0463942 0.934962 0.0295724
-0.353163 0.0421808 0.93461 0.0368792
-0.33694 0.0378388 0.940766 0.0259998
-0.356158 0.0407579 0.933536 0.0261366
-0.351401 0.0333331 0.935631 0.0283064
-0.344281 0.0311968 0.938348 0.0318309
-0.365677 0.0341224 0.930116 0.0324379
-0.359327 0.0371531 0.932472 0.0299709
-0.343 0.0222808 0.939071 0.0240408
-0.356488 0.0288422 0.933855 0.0254545
-0.362206 0.019097 0.931902 0.0339182
-0.334081 0.0274905 0.942143 0.016457
-0.357941 0.0150741 0.933623 0.0272773
-0.35805 0.0152757 0.933577 0.0304298
-0.349647 0.0138937 0.936778 0.0309593
-0.354317 0.0227237 0.934849 0.0219877
-0.340453 0.0314597 0.939735 0.0140149
-0.333176 0.0321779 0.942315 0.0148124
-0.329032 0.0264183 0.943949 0.00384059
-0.322775 0.0241686 0.946167 0.00578243
-0.311205 0.0174776 0.950182 0
-0.319256 0.0310916 0.947158 0
-0.314219 0.0210568 0.949117 0
-0.308873 0.00593775 0.951085 0
-0.320102 0.0236863 0.947087 0
-0.312003 0.018183 0.949907 0
-0.307167 0.0110884 0.951591 0
-0.317137 0.019365 0.948182 0
-0.311325 0.00982084 0.950253 0
-0.305428 0.0100948 0.952162 0
-0.32233 0.00461644 0.946616 0
-0.315525 0.0064182 0.948896 0
-0.309008 0.00283289 0.951055 0
-0.323229 0.00768507 0.946289 0
-0.318381 -0.00669081 0.947939 0
-0.31535 -0.00711918 0.948949 0
-0.323917 0.00570165 0.946068 0
-0.31912 -0.000819768 0.947714 0
-0.314169 -0.0192068 0.949173 0
-0.324531 0.000838403 0.945875 0
-0.317329 -0.00436489 0.948306 0
-0.314946 -0.0130353 0.94902 0
-0.325318 -0.0284243 0.945177 0
-0.322879 -0.0275771 0.946038 0
-0.316742 -0.0381718 0.947743 0
-0.329814 -0.0360517 0.943357 0
-0.32703 -0.0425741 0.944054 0
-0.343063 -0.0523786 0.937851 0.00385576
-0.338804 -0.0457602 0.939743 0.00482337
-0.332765 -0.0494559 0.941712 0.00321126
-0.34065 -0.0590161 0.938336 0
-0.335991 -0.0602378 0.939937 0.00184508
-0.337579 -0.058196 0.939496 0.00747172
-0.338211 -0.0651955 0.938809 0
-0.330475 -0.0713436 0.941114 0
-0.327003 -0.0683578 0.942548 0
-0.332992 -0.0701972 0.940313 0
-0.328734 -0.0604727 0.942484 0
-0.336522 -0.0620754 0.939627 0
-0.332871 -0.0643454 0.940774 0
-0.348398 -0.0579771 0.935552 0
-0.336601 -0.0602418 0.939719 0
-0.329732 -0.0550099 0.942471 0
-0.351877 -0.05659 0.934334 0
-0.347058 -0.06192 0.935797 0
-0.336852 -0.0636362 0.939405 0
-0.329757 -0.0631839 0.941949 0
-0.358597 -0.063486 0.931331 0
-0.351456 -0.0649763 0.933947 0
-0.33517 -0.0773718 0.938975 0
-0.361979 -0.0861409 0.928198 0
-0.360655 -0.0808277 0.929191 0
-0.345881 -0.077121 0.935104 0
-0.370141 -0.0809852 0.925439 0
-0.364014 -0.0928675 0.926752 0
-0.367441 -0.0868999 0.925978 0.00675737
-0.377318 -0.0937141 0.92133 0
-0.374129 -0.095734 0.922422 0.00502703
-0.379103 -0.0952094 0.920443 0.0159068
-0.405006 -0.10115 0.908702 0.0105431
-0.393335 -0.102819 0.913628 0.00622956
-0.391267 -0.0992751 0.914907 0.0141801
-0.379451 -0.09547 0.920273 0.0163059
-0.428508 -0.118372 0.895751 0.023549
-0.420055 -0.115111 0.900168 0.0270524
-0.412485 -0.111922 0.904063 0.029729
-0.423629 -0.104675 0.899768 0.0128347
-0.417524 -0.114328 0.901445 0.0241269
-0.408538 -0.107511 0.906387 0.0257684
-0.427514 -0.0974426 0.898742 0.0144742
-0.420839 -0.0983947 0.901783 0.0142855
-0.432846 -0.104404 0.895402 0.0347436
-0.422865 -0.100745 0.900575 0.0308915
-0.431739 -0.0985525 0.896598 0.0155553
-0.42112 -0.091314 0.902397 0.0117924
-0.429419 -0.101568 0.897376 0.0263322
-0.425973 -0.0872674 0.900517 0.00868777
-0.427788 -0.0892236 0.899465 0.0162055
-0.421233 -0.0829263 0.903153 0.00746779
-0.432968 -0.089077 0.896997 0.0178133
-0.437952 -0.0845055 0.895018 0.0158867
-0.439055 -0.093531 0.893579 0.022464
-0.433418 -0.0926184 0.896421 0.0239694
-0.431402 -0.0846088 0.898184 0.0122856
-0.434593 -0.104201 0.894579 0.0181398
-0.43722 -0.10591 0.893097 0.0262669
-0.420765 -0.0933968 0.902349 0.00488137
-0.424498 -0.103405 0.899505 0.00778815
-0.418194 -0.104485 0.902328 0.00986981
-0.427095 -0.12222 0.895909 0.0137862
-0.43043 -0.121256 0.894442 0.0167831
-0.437431 -0.125862 0.8904 0.0120211
-0.43523 -0.110658 0.893493 0
-0.438282 -0.121863 0.890538 0.00519476
-0.440269 -0.111083 0.890968 0.00140608
-0.446739 -0.105328 0.888443 0
-0.442988 -0.107524 0.890056 0
-0.454531 -0.11916 0.882725 0
-0.458816 -0.125932 0.879562 0.00637957
-0.465194 -0.119635 0.877087 0.000863952
-0.456276 -0.116877 0.882129 0
-0.46242 -0.107716 0.880094 0
-0.461664 -0.117972 0.879175 0.0043553
-0.479093 -0.111126 0.870701 0.00721536
-0.457266 -0.113909 0.882005 0
-0.455488 -0.0983519 0.884793 0
-0.458487 -0.0953738 0.883568 0
-0.458538 -0.105443 0.882397 0
-0.463099 -0.0989895 0.880761 0
-0.460902 -0.104244 0.881307 0
-0.474263 -0.0989325 0.874807 0.00032373
-0.465329 -0.100909 0.879367 0
-0.495411 -0.0975109 0.863169 0.0116766
-0.487657 -0.104086 0.866808 0.0101179
-0.517169 -0.100718 0.849937 0.0189354
-0.518933 -0.108885 0.847852 0.023726
-0.512884 -0.0949454 0.853191 0.0167156
-0.488438 -0.0879226 0.868158 0.00839446
-0.481968 -0.0787642 0.872642 0.00233194
-0.479972 -0.081441 0.873495 0.00273677
-0.491357 -0.0533639 0.869322 0
-0.499716 -0.0590153 0.864177 0.00745823
-0.492824 -0.0642009 0.867757 0.00900327
-0.484075 -0.0490649 0.87365 0
-0.479171 -0.0497277 0.876312 0.00331518
-0.479074 -0.0259845 0.87739 0
-0.47925 -0.029738 0.877175 0.000231173
-0.524154 -0.0350869 0.8509 0.012852
-0.503174 -0.0308297 0.863635 0.00658668
-0.501002 -0.0365284 0.864675 0.00971258
-0.525152 -0.0245975 0.850653 0.0136429
-0.516407 -0.0308022 0.855789 0.0141166
-0.517422 -0.0178634 0.855544 0.00590664
-0.504207 -0.0186839 0.86338 0.00781638
-0.519096 -0.00510564 0.854701 0.0102389
-0.528067 -0.0114025 0.849126 0.0187162
-0.525597 -0.00155463 0.850732 0.0149915
-0.508637 0.002533 0.860977 0.0124051
-0.504626 0.00486319 0.863324 0.011196
-0.497022 0.000387826 0.867738 0.00999306
-0.497485 0.026489 0.867068 0.00840609
-0.498185 0.0206404 0.866825 0.0125038
-0.493563 0.0398511 0.868797 0.00879644
-0.485475 0.0387837 0.87339 0.00857866
-0.483036 0.04608 0.874387 0.00384979
-0.472799 0.0553234 0.879432 0.00103326
-0.476913 0.0671304 0.876383 0
-0.471272 0.0593403 0.87999 0
-0.472013 0.0600908 0.879541 0
-0.462783 0.0581665 0.884561 0
-0.459643 0.0745522 0.884969 0
-0.470445 0.0809162 0.878711 0.00557971
-0.487211 0.0829506 0.869336 0.0145895
-0.492757 0.0780806 0.866657 0.0210701
-0.480139 0.0842644 0.873136 0.0168881
-0.496527 0.0913814 0.863198 0.0213446
-0.500282 0.0911123 0.861055 0.027452
-0.490128 0.0805122 0.867924 0.0148541
-0.490204 0.0887018 0.867083 0.0238629
-0.487835 0.106398 0.866428 0.022014
-0.473247 0.125461 0.87195 0.0160982
-0.464266 0.111364 0.878667 0.0198342
-0.48358 0.118437 0.867251 0.0288326
-0.471307 0.120579 0.873688 0.0254693
-0.456547 0.12645 0.880667 0.0157788
-0.462354 0.128322 0.877361 0.0275477
-0.463569 0.130128 0.876454 0.0247974
-0.464405 0.132369 0.875675 0.0320433
-0.468486 0.140673 0.8722 0.0302056
-0.447843 0.132457 0.884246 0.020577
-0.425646 0.137415 0.894395 0.0100798
-0.426581 0.129 0.895202 0
-0.413541 0.138256 0.899927 0.00441147
-0.406998 0.136156 0.903225 0.00171846
-0.407871 0.144614 0.901514 0.0023094
-0.421004 0.161015 0.892653 0.0190111
-0.398395 0.143881 0.905859 0.00958297
-0.408979 0.160394 0.898337 0.0100092
-0.398663 0.160801 0.90289 0.00676946
-0.388732 0.161743 0.907043 0
-0.355323 0.170421 0.919077 0
-0.356211 0.182794 0.916352 0.00184171
-0.359059 0.215852 0.908011 0.013196
-0.355248 0.214365 0.90986 0.0181212
-0.334307 0.282628 0.899088 0.0124661
-0.334477 0.289607 0.896802 0.0268767
-0.326347 0.28868 0.90009 0.0264035
-0.0726636 -0.189105 0.979265 0
-0.0708326 -0.18104 0.980922 0
-0.177047 -0.324932 0.929018 0.00570952
-0.168948 -0.299455 0.939033 0.0112162
-0.157228 -0.314899 0.936012 0.00204488
-0.131745 -0.292514 0.947142 0.00127237
-0.129936 -0.2807 0.95096 0.0026837
-0.126437 -0.272362 0.953851 0.00753161
-0.118232 -0.245913 0.962054 0.0054137
-0.115695 -0.26263 0.957935 0.019245
-0.0780994 -0.226353 0.970909 0
-0.0715352 -0.159653 0.984578 0
-0.0729041 -0.174657 0.981927 0
0.381617 -0.331273 0.862918 0.0246318
0.38365 -0.309228 0.870167 0.0190058
-0.245539 -0.277517 0.928814 0.00744397
-0.222648 -0.269948 0.936779 0.00400993
-0.219234 -0.294068 0.930301 0.0033016
-0.194762 -0.321293 0.926735 0
-0.188946 -0.32033 0.928272 0.00169442
-0.177649 -0.302269 0.936522 0.00897482
-0.164327 -0.316007 0.934418 0.0124176
-0.15664 -0.291891 0.943538 0.00278755
-0.149529 -0.285796 0.946553 0
-0.135864 -0.291213 0.946961 0.00734511
-0.130022 -0.289695 0.948246 0.00046116
0.386803 -0.332287 0.860214 0.0313152
0.38774 -0.298155 0.872216 0.0254498
0.390932 -0.292138 0.872827 0.0202507
-0.261879 -0.272309 0.925887 0.00357573
-0.255703 -0.280108 0.925287 0.00558638
-0.249524 -0.292266 0.923211 0.0129238
-0.228874 -0.24569 0.941941 0.00352327
-0.225248 -0.265408 0.937455 0.00568653
-0.217983 -0.268804 0.938205 0
-0.198187 -0.285911 0.937538 0
0.385384 -0.304997 0.870894 0.0224421
0.386345 -0.267149 0.882819 0.00713624
-0.287821 -0.270222 0.91877 0.0267492
-0.283161 -0.27638 0.918387 0.0186393
-0.263426 -0.257028 0.929808 0.00797719
-0.25661 -0.260389 0.930779 0.00750701
-0.250015 -0.294185 0.922468 0.0099505
0.376083 -0.232279 0.896999 0
0.381304 -0.235542 0.893939 0
-0.314568 -0.225608 0.922035 0.0258975
-0.301377 -0.222694 0.927135 0.0178328
-0.283564 -0.227328 0.931619 0.0132848
-0.281871 -0.25432 0.925132 0.0188649
-0.258044 -0.218116 0.94119 0.000151648
0.380688 -0.227898 0.89618 0.00838918
0.384507 -0.223461 0.895667 0.000964564
0.388935 -0.2183 0.895028 0
-0.328194 -0.212386 0.920424 0.0293924
-0.307979 -0.195359 0.93112 0.0180408
-0.296239 -0.185712 0.936885 0.0145468
-0.294029 -0.21813 0.930573 0.0208068
-0.281675 -0.218588 0.93428 0.0122945
0.387799 -0.207836 0.898007 0.00703423
0.396758 -0.225027 0.889913 0.00889337
-0.327216 -0.175881 0.928437 0.0231419
-0.326502 -0.186726 0.926569 0.0294018
-0.311713 -0.201669 0.928528 0.0180753
-0.308165 -0.191308 0.931899 0.0243055
0.398477 -0.211894 0.892366 0.00944955
-0.32972 -0.155794 0.931135 0.0232453
-0.329182 -0.162869 0.930114 0.027796
-0.320946 -0.161227 0.933274 0.024804
-0.313937 -0.175726 0.93304 0.0267605
0.414143 -0.226487 0.881584 0.0226995
0.422891 -0.219826 0.879113 0.0244674
-0.338446 -0.151713 0.928675 0.033285
-0.326296 -0.13519 0.935551 0.0296588
-0.314902 -0.136667 0.939233 0.0165632
0.409776 -0.208955 0.887931 0.0200035
0.423904 -0.213501 0.880183 0.026112
-0.332701 -0.104873 0.937183 0.0213437
-0.33702 -0.156022 0.92848 0.029114
-0.329125 -0.145419 0.933022 0.0311294
0.420173 -0.179958 0.889421 0.026683
-0.342342 -0.096824 0.934573 0.0132928
-0.35527 -0.140554 0.924136 0.0297801
-0.329348 -0.135935 0.934372 0.0182806
-0.340016 -0.151147 0.928194 0.0337902
0.416241 -0.165583 0.89405 0.0223985
-0.371669 -0.128765 0.919392 0.0293157
-0.368637 -0.136215 0.919539 0.0337473
-0.382996 -0.117639 0.916229 0.0321824
-0.389257 -0.132349 0.911571 0.0469656
-0.380213 -0.104353 0.918993 0.0210586
-0.391767 -0.106419 0.913889 0.0350946
-0.37272 -0.0897685 0.923592 0.0326159
-0.401089 -0.0973153 0.910855 0.0342355
-0.369912 -0.0675509 0.926608 0.0200718
-0.367917 -0.0684832 0.927333 0.0279462
-0.3876 -0.0743246 0.918826 0.0295476
-0.375547 -0.0746653 0.923791 0.0300191
-0.39063 -0.0309925 0.920026 0.0208413
-0.392515 -0.0556016 0.918064 0.0288159
-0.370363 -0.0589274 0.927016 0.0226285
-0.394667 -0.0288337 0.918371 0.0185206
-0.367703 -0.0374198 0.92919 0.0109376
-0.353134 -0.0208343 0.935341 0.00948291
0.496284 -0.151672 0.854809 0.0318264
-0.367313 -0.00423955 0.930088 0
-0.352382 -0.00891975 0.935814 0
-0.346015 -0.0213336 0.937986 0
0.486913 -0.145325 0.861276 0.0272526
0.499829 -0.145908 0.853746 0.0259575
-0.372447 -0.0135599 0.927954 0.000159287
-0.357609 -0.0132583 0.933777 0
-0.352314 -0.0141245 0.935775 0
0.491505 -0.149412 0.857962 0.0283148
0.478889 -0.132869 0.867762 0.0127095
-0.374857 -0.00617297 0.927062 0
-0.371281 -0.00956819 0.928471 0.00637815
-0.359681 -0.00722609 0.933047 0
0.478856 -0.144699 0.865886 0.0199085
0.470821 -0.133462 0.872075 0.0092648
-0.369172 -0.0116739 0.929288 0
-0.358683 -0.00661381 0.933436 0
0.475008 -0.147401 0.867548 0.0248922
0.477426 -0.147175 0.866258 0.019072
0.481795 -0.138003 0.865349 0.0118235
-0.368765 0.00237303 0.92952 0
-0.36492 0.00276408 0.931035 0
0.45158 -0.130242 0.882674 0.0139195
0.469485 -0.135972 0.872408 0.0162953
0.474027 -0.131344 0.870659 0.0110179
-0.385471 -0.00346478 0.922713 0.00184504
-0.377535 -0.00829463 0.925958 3.91633e-05
0.451525 -0.11806 0.884414 0.0143137
0.454027 -0.123153 0.882436 0.0128924
0.462828 -0.126645 0.877355 0.0108156
-0.396486 -0.0036836 0.918034 0.0109918
-0.393717 0.000666069 0.919231 0.0107945
0.450078 -0.112057 0.885931 0.0121825
0.469451 -0.123824 0.874233 0.0159596
-0.402255 0.00916375 0.915482 0.0135337
-0.39674 0.00996212 0.917877 0.00929547
0.43693 -0.0953526 0.894427 0.0105669
-0.410207 0.0205991 0.91176 0.0154592
-0.396155 0.0217191 0.917927 0.00931656
-0.390732 0.0207684 0.92027 0.0111246
0.434967 -0.0921968 0.895714 0.0110624
-0.412852 0.0263246 0.910418 0.0168344
-0.411999 0.0287873 0.91073 0.0204616
-0.405477 0.0296369 0.913625 0.0211426
0.427216 -0.0792817 0.900667 0.00560264
-0.425189 0.0364555 0.90437 0.0212429
-0.408465 0.0425014 0.911784 0.0156492
-0.399795 0.0356686 0.91591 0.0171705
0.455559 -0.0842405 0.886211 0.027391
0.474996 -0.0920669 0.875159 0.0301356
-0.40932 0.0563173 0.910651 0.0157619
-0.392947 0.0527256 0.918048 0.00923373
0.435505 -0.0757671 0.896992 0.0197642
0.451361 -0.0858389 0.888203 0.019058
-0.414315 0.0742031 0.907104 0.0198619
-0.404397 0.069374 0.911949 0.0150878
0.413925 -0.0740209 0.907297 0.0130185
0.43474 -0.0766672 0.897287 0.0121758
-0.431127 0.0712004 0.899478 0.034001
-0.411567 0.0730039 0.908451 0.0225855
0.404234 -0.0678543 0.912135 0.00916936
0.408143 -0.0644048 0.910643 0.00446774
0.414031 -0.0626027 0.908108 0.00220799
-0.428534 0.090141 0.899018 0.0268672
-0.408434 0.0868311 0.908648 0.0195979
0.39228 -0.0630286 0.917684 0.00941606
0.401182 -0.0661841 0.913604 0
0.406219 -0.0627732 0.911617 0
-0.411554 0.0992848 0.905961 0.0187848
-0.420145 0.087718 0.903207 0.0277844
0.388513 -0.0530798 0.919913 0
0.396278 -0.0506016 0.916735 0
-0.398547 0.107742 0.910798 0.0181765
-0.388712 0.101445 0.915758 0.0160559
0.373746 -0.0441166 0.926481 0
0.384831 -0.0426805 0.922 0
-0.404934 0.103255 0.908497 0.0258014
-0.381342 0.106241 0.918309 0.0117577
0.364509 -0.0292987 0.930739 0
0.372608 -0.0381025 0.927206 0
-0.400463 0.108373 0.909882 0.0222614
