# .PCD v0.7 - Point Cloud Data file format
VERSION 0.7
FIELDS x y z
SIZE 4 4 4
TYPE F F F
COUNT 1 1 1
WIDTH 1322
HEIGHT 1
VIEWPOINT 0 0 0 1 0 0 0
POINTS 1322
DATA ascii
-0.053815335 -0.244726 -0.390221
-0.0537058 -0.244698 -0.39021841
-0.053512774 -0.24467768 -0.39024311
-0.053299889 -0.24468721 -0.39026132
-0.053093061 -0.24470158 -0.39026415
-0.05291 -0.24471301 -0.39027902
-0.052712601 -0.24472609 -0.39028159
-0.052505247 -0.24469687 -0.390311
-0.061822999 -0.24450798 -0.39038864
-0.061439 -0.244535 -0.39039999
-0.061287001 -0.24454001 -0.390398
-0.061070096 -0.24450348 -0.39039075
-0.060952198 -0.2445024 -0.39038262
-0.060665667 -0.24449898 -0.39034152
-0.060486998 -0.24450751 -0.39033583
-0.060304854 -0.24452099 -0.39032313
-0.060114 -0.24451068 -0.39034367
-0.059902575 -0.2444893 -0.39033428
-0.059642669 -0.24448033 -0.39031199
-0.059469499 -0.24449563 -0.39032534
-0.059295695 -0.2444924 -0.39031193
-0.059134558 -0.24450833 -0.39029044
-0.058936 -0.24451651 -0.39027134
-0.058690198 -0.24451621 -0.39024159
-0.058516555 -0.24451078 -0.39022547
-0.058327399 -0.24446318 -0.39022741
-0.058103334 -0.24449317 -0.39024985
-0.057902314 -0.24450867 -0.39022738
-0.057716377 -0.24450225 -0.39022261
-0.05746875 -0.24450749 -0.39022076
-0.057265144 -0.24448785 -0.39023444
-0.057101555 -0.24447444 -0.39022532
-0.05695517 -0.24445766 -0.39021364
-0.056271501 -0.24448401 -0.39021552
-0.055654 -0.244406 -0.390203
-0.054264251 -0.24449049 -0.39021444
-0.054094668 -0.24449867 -0.39021912
-0.053805001 -0.244546 -0.39023352
-0.053701811 -0.24451369 -0.39023557
-0.053503003 -0.24449684 -0.39024684
-0.053277858 -0.24449269 -0.39028555
-0.053080667 -0.24448539 -0.3902795
-0.052897334 -0.244497 -0.39030099
-0.052712776 -0.24450223 -0.3902961
-0.052528892 -0.24451287 -0.39029753
-0.052379496 -0.24450901 -0.39037198
-0.060975 -0.24430799 -0.39039052
-0.060653333 -0.24428301 -0.39035848
-0.060481999 -0.24429755 -0.3903493
-0.060316697 -0.244294 -0.3903341
-0.060110915 -0.24430992 -0.39035293
-0.059908312 -0.24431467 -0.39035505
-0.059632499 -0.24430101 -0.39032602
-0.05948025 -0.244306 -0.39034098
-0.059313919 -0.24428655 -0.3903313
-0.059135631 -0.24428588 -0.39031526
-0.058923502 -0.24430133 -0.39029399
-0.058668669 -0.24431717 -0.39026883
-0.058520913 -0.2443269 -0.39024234
-0.058329999 -0.2442975 -0.39022875
-0.058091331 -0.24427783 -0.39026383
-0.057897832 -0.24428825 -0.39025965
-0.05771333 -0.24429634 -0.39025155
-0.057474669 -0.24431099 -0.3902593
-0.057269875 -0.24431498 -0.39026365
-0.057091001 -0.24429566 -0.3902497
-0.056899335 -0.244293 -0.39021885
-0.056728665 -0.24425584 -0.39021036
-0.056475498 -0.24426423 -0.39020663
-0.056262333 -0.24430199 -0.39020833
-0.055920251 -0.24424925 -0.39020473
-0.055647999 -0.244298 -0.39020699
-0.055535998 -0.244204 -0.39020199
-0.055321999 -0.24424499 -0.3902095
-0.0551675 -0.2442915 -0.39020199
-0.054997001 -0.24422801 -0.390201
-0.054253876 -0.2442915 -0.39020851
-0.054115832 -0.24428117 -0.39023498
-0.053998999 -0.244215 -0.390239
-0.053700939 -0.24430111 -0.39025703
-0.053492557 -0.24431732 -0.39026603
-0.053300861 -0.24432643 -0.39029869
-0.053085271 -0.24429479 -0.39030191
-0.052929599 -0.24426579 -0.39030179
-0.052700777 -0.24428613 -0.39031088
-0.052516557 -0.24429756 -0.3903175
-0.052354168 -0.24431133 -0.39037347
-0.060643248 -0.24410351 -0.39037201
-0.060478576 -0.24409516 -0.39035574
-0.060315799 -0.24408366 -0.39035669
-0.060098588 -0.244094 -0.39037171
-0.059889331 -0.24410868 -0.39036903
-0.059622001 -0.24412133 -0.3903527
-0.059470832 -0.24412517 -0.39034215
-0.059312999 -0.24410175 -0.390351
-0.059121799 -0.24409132 -0.39033371
-0.058910832 -0.24408567 -0.39031669
-0.058656503 -0.24410117 -0.3902823
-0.058508754 -0.24411134 -0.39025864
-0.058319669 -0.24411784 -0.39025268
-0.05808175 -0.24409649 -0.39026651
-0.057880368 -0.24407957 -0.39028347
-0.057701223 -0.24408013 -0.39026678
-0.057462331 -0.2440948 -0.39027667
-0.057280004 -0.24410601 -0.39026618
-0.057109501 -0.24411447 -0.39026272
-0.056902185 -0.24411865 -0.39024326
-0.056694668 -0.24410067 -0.39022052
-0.056486875 -0.24410139 -0.39021528
-0.056308597 -0.2440702 -0.39022601
-0.056077663 -0.24409966 -0.39022267
-0.055911753 -0.24410625 -0.39021993
-0.055682 -0.2441157 -0.39023566
-0.055528998 -0.2440955 -0.39021999
-0.055313997 -0.24410126 -0.39022276
-0.055119373 -0.24406901 -0.39021978
-0.054942667 -0.24406399 -0.39021385
-0.054729 -0.24402851 -0.39021099
-0.054283392 -0.24411249 -0.39021617
-0.054172002 -0.24409851 -0.39025301
-0.053993002 -0.24410701 -0.39024699
-0.053688388 -0.24408595 -0.39028272
-0.053480107 -0.24410169 -0.39028668
-0.053304661 -0.24410899 -0.39031717
-0.05310493 -0.24411705 -0.39032966
-0.052932002 -0.24409951 -0.39031023
-0.052690331 -0.24410601 -0.39032719
-0.052503668 -0.24408211 -0.39034694
-0.052341998 -0.24409468 -0.39038634
-0.0606215 -0.24394226 -0.39038524
-0.060488001 -0.24391988 -0.39037177
-0.060297001 -0.24389528 -0.39037469
-0.060088105 -0.2438924 -0.39038187
-0.059882179 -0.24389635 -0.39037833
-0.059657499 -0.24388625 -0.390369
-0.059458166 -0.24391001 -0.39036834
-0.059302494 -0.24392165 -0.390367
-0.059128098 -0.24391702 -0.3903434
-0.0588888 -0.24388559 -0.3903386
-0.058694001 -0.24387933 -0.39030036
-0.058515862 -0.24389486 -0.39028281
-0.058307663 -0.2439025 -0.39026532
-0.058071166 -0.243918 -0.39028716
-0.05788289 -0.24390446 -0.39028764
-0.057709403 -0.24390721 -0.39028439
-0.057471715 -0.24387716 -0.39027932
-0.057267334 -0.24389082 -0.3902967
-0.057097498 -0.24389885 -0.39027715
-0.05688417 -0.24391007 -0.39026597
-0.056684665 -0.24392022 -0.39023155
-0.056504123 -0.24391949 -0.39022186
-0.056314498 -0.24390374 -0.39023075
-0.056065332 -0.24388367 -0.39023867
-0.055899668 -0.24389048 -0.39023542
-0.055670168 -0.24389951 -0.39023969
-0.055519331 -0.24391532 -0.39023066
-0.055304002 -0.243922 -0.3902365
-0.055110168 -0.24389799 -0.39023352
-0.054917283 -0.24389286 -0.39022201
-0.054688666 -0.24388658 -0.39022276
-0.054570001 -0.24389233 -0.39022866
-0.054273337 -0.24391101 -0.39022985
-0.054162834 -0.24391817 -0.39024678
-0.053982001 -0.24392734 -0.39028433
-0.053688001 -0.24389547 -0.39030054
-0.053500082 -0.24388242 -0.39029458
-0.053293496 -0.24389166 -0.39030883
-0.053087659 -0.24390694 -0.39034837
-0.052921668 -0.243919 -0.39032435
-0.052680332 -0.24392547 -0.39033723
-0.052494332 -0.24390052 -0.39034399
-0.052358501 -0.243838 -0.39039099
-0.060555149 -0.24371886 -0.390389
-0.060325187 -0.24372287 -0.39038464
-0.0601152 -0.24371719 -0.39039022
-0.0598602 -0.2436914 -0.3903833
-0.059744 -0.2437035 -0.39038351
-0.059497163 -0.24370432 -0.390385
-0.059301801 -0.24369779 -0.39037871
-0.059108749 -0.24371618 -0.39036176
-0.058900796 -0.2437108 -0.39033896
-0.058683999 -0.2437 -0.390324
-0.058503389 -0.24367979 -0.39030856
-0.058294997 -0.24368833 -0.39029837
-0.058089249 -0.24372 -0.39031327
-0.057897758 -0.24371193 -0.39031944
-0.057743751 -0.24370936 -0.39031535
-0.057503998 -0.24371086 -0.3903057
-0.057248402 -0.24368998 -0.39031181
-0.057092633 -0.24368945 -0.39030364
-0.056881923 -0.243688 -0.39028552
-0.05671167 -0.24370448 -0.39026055
-0.056512166 -0.24371134 -0.39024201
-0.056303997 -0.24372517 -0.39025465
-0.056056 -0.24370301 -0.390239
-0.055887669 -0.24367458 -0.39024463
-0.055659499 -0.24368215 -0.39023301
-0.055508003 -0.24369933 -0.39022532
-0.055292334 -0.24370484 -0.39024135
-0.055099666 -0.24371767 -0.39025024
-0.054923378 -0.24371774 -0.39022776
-0.054668713 -0.24369273 -0.39023516
-0.054557998 -0.24367635 -0.39024004
-0.054267183 -0.24370065 -0.39024055
-0.054157574 -0.24369071 -0.39025953
-0.053970665 -0.24371134 -0.39028099
-0.053688221 -0.24371871 -0.39031601
-0.053489998 -0.24370264 -0.39031026
-0.053280499 -0.2436765 -0.39034534
-0.053081214 -0.24369444 -0.39036107
-0.052921858 -0.24369273 -0.3903521
-0.05266811 -0.24370967 -0.3903589
-0.052484445 -0.24372 -0.39034989
-0.052321002 -0.24369599 -0.39038727
-0.060587998 -0.243563 -0.39039901
-0.060346197 -0.24356338 -0.39039478
-0.060047001 -0.24359199 -0.39039999
-0.059843998 -0.24355866 -0.39039865
-0.059587501 -0.24351001 -0.39039701
-0.059271138 -0.24353157 -0.39038828
-0.059089303 -0.24351549 -0.3903769
-0.058877837 -0.2435105 -0.39037216
-0.058672998 -0.24352066 -0.39035067
-0.058493204 -0.24349999 -0.390324
-0.058271199 -0.243488 -0.39032739
-0.058106001 -0.243487 -0.39033866
-0.057901669 -0.24349487 -0.39034179
-0.057738226 -0.24350221 -0.39033166
-0.057521001 -0.24351449 -0.39032948
-0.057306748 -0.2435175 -0.39031559
-0.057101499 -0.24350266 -0.390322
-0.056901906 -0.24348211 -0.3903057
-0.056731336 -0.24348722 -0.39028534
-0.05650017 -0.24349494 -0.39025369
-0.056291834 -0.24350883 -0.390264
-0.056045335 -0.24352433 -0.39026466
-0.055888861 -0.24349913 -0.39025801
-0.055679601 -0.24349339 -0.39024219
-0.055495668 -0.24348301 -0.39024767
-0.055280503 -0.24348833 -0.39024982
-0.055087999 -0.24350166 -0.39025968
-0.054903891 -0.24351178 -0.39025277
-0.054687142 -0.24352573 -0.390248
-0.054565329 -0.24348433 -0.39025101
-0.054270223 -0.24347623 -0.39023465
-0.054155108 -0.24348545 -0.39028427
-0.053959001 -0.24349467 -0.39028934
-0.05367187 -0.24350861 -0.3903338
-0.053507224 -0.24352176 -0.39033797
-0.053322997 -0.24350987 -0.3903603
-0.053076778 -0.24349611 -0.39036858
-0.052928668 -0.24348477 -0.39036223
-0.052686665 -0.24349284 -0.39036882
-0.052502755 -0.24350135 -0.39036486
-0.052310999 -0.24351566 -0.39039266
-0.060183503 -0.24326099 -0.39039001
-0.058884334 -0.24331832 -0.39039564
-0.058660001 -0.24330501 -0.390376
-0.058495998 -0.24332601 -0.39035228
-0.058316141 -0.24330571 -0.39034271
-0.0580955 -0.24330801 -0.39035249
-0.057882454 -0.24328591 -0.39035502
-0.057725891 -0.24328701 -0.39035469
-0.057508498 -0.24329883 -0.39035618
-0.057309568 -0.2433203 -0.39033642
-0.057109725 -0.24331617 -0.39034274
-0.056908891 -0.24330623 -0.39032167
-0.056710999 -0.24329259 -0.39030084
-0.056487422 -0.24328025 -0.39028525
-0.056279663 -0.24329285 -0.39028117
-0.056033 -0.24330901 -0.390286
-0.055892885 -0.24331445 -0.39027664
-0.055737168 -0.2433185 -0.39027449
-0.055550795 -0.24331579 -0.39026439
-0.055270251 -0.24330875 -0.39026275
-0.055087797 -0.24327679 -0.39028233
-0.054891553 -0.24329577 -0.39027631
-0.054688003 -0.24330901 -0.39027536
-0.054564998 -0.243315 -0.39025831
-0.054259166 -0.24329633 -0.39026549
-0.054144662 -0.24330533 -0.39030433
-0.053945664 -0.24327934 -0.39032969
-0.053669691 -0.24329653 -0.39034981
-0.053513635 -0.24329735 -0.39034832
-0.053313501 -0.24332201 -0.39036277
-0.053101502 -0.2433254 -0.390385
-0.05291833 -0.24330467 -0.39038232
-0.052674666 -0.24327582 -0.39038467
-0.052497499 -0.24329898 -0.39038548
-0.052313715 -0.24328701 -0.39038855
-0.058651999 -0.24316099 -0.39039701
-0.058503203 -0.24311149 -0.39038739
-0.058314502 -0.24311987 -0.39037639
-0.058113247 -0.24310701 -0.39038277
-0.057880126 -0.24311689 -0.39037776
-0.057706714 -0.24309185 -0.39038301
-0.057496499 -0.243083 -0.39037147
-0.057314664 -0.24309234 -0.39036098
-0.057105336 -0.24310589 -0.39035532
-0.05688867 -0.24311499 -0.39033481
-0.056718498 -0.24311762 -0.39032
-0.056504335 -0.24309884 -0.39030316
-0.056362402 -0.2430878 -0.39031583
-0.056107331 -0.24308515 -0.39029932
-0.055880114 -0.24309789 -0.3903029
-0.055724334 -0.24310285 -0.39029911
-0.055528332 -0.24311601 -0.39028502
-0.055324662 -0.24312834 -0.39029101
-0.055131003 -0.243101 -0.39030015
-0.054900274 -0.2430851 -0.39029753
-0.054676667 -0.24309199 -0.39028034
-0.054552663 -0.24309951 -0.39028785
-0.054248672 -0.2431168 -0.39028767
-0.054134887 -0.24312489 -0.39030975
-0.053935498 -0.243099 -0.39034349
-0.053658452 -0.24308072 -0.39036357
-0.053508911 -0.2430871 -0.39035845
-0.053337499 -0.24309467 -0.39036119
-0.053091582 -0.24311393 -0.39038733
-0.0529176 -0.24311559 -0.39038301
-0.052676331 -0.24310632 -0.39038932
-0.052450001 -0.24310701 -0.390398
-0.052391 -0.243109 -0.390394
-0.058330666 -0.24294133 -0.39039397
-0.058144398 -0.24291959 -0.39038801
-0.057855334 -0.24294533 -0.39039433
-0.057741139 -0.24291399 -0.39038783
-0.057485998 -0.24290299 -0.3903915
-0.057302833 -0.24287651 -0.3903757
-0.057086088 -0.24289764 -0.39038277
-0.056892104 -0.2429049 -0.3903659
-0.056715813 -0.24290353 -0.39034936
-0.056494117 -0.24291965 -0.39031923
-0.056363799 -0.24291201 -0.39032039
-0.056077998 -0.2428854 -0.39032978
-0.055867553 -0.24288188 -0.39032891
-0.055711668 -0.24288733 -0.39033198
-0.055515502 -0.24290051 -0.39031884
-0.055312335 -0.24291165 -0.39030734
-0.055120334 -0.24292111 -0.39032644
-0.054907337 -0.24290933 -0.39031488
-0.054663833 -0.24287666 -0.39030716
-0.054539841 -0.242884 -0.39031652
-0.05425733 -0.24289982 -0.39031053
-0.054140836 -0.24290675 -0.39031759
-0.053924996 -0.24291933 -0.39036
-0.053660218 -0.24290508 -0.39037848
-0.053485595 -0.24288571 -0.39037818
-0.053325668 -0.24287768 -0.39037347
-0.053062167 -0.24291617 -0.39039469
-0.052927572 -0.24293672 -0.39039043
-0.052687664 -0.24291265 -0.39037168
-0.052476399 -0.242938 -0.39039761
-0.058297001 -0.242714 -0.3903985
-0.057835001 -0.242778 -0.39039999
-0.057745833 -0.242743 -0.39038482
-0.057449751 -0.24274224 -0.39038926
-0.057292748 -0.24269626 -0.3903895
-0.057078332 -0.24272466 -0.39039865
-0.056880999 -0.24270634 -0.39039218
-0.056704089 -0.24270073 -0.39036989
-0.05648078 -0.24270423 -0.39036146
-0.056346163 -0.24271166 -0.39034864
-0.056172337 -0.24271899 -0.39034832
-0.055892125 -0.24270099 -0.39035174
-0.055701502 -0.24270651 -0.39034426
-0.0555025 -0.24268518 -0.390349
-0.055299331 -0.24269633 -0.390342
-0.055107776 -0.24270532 -0.39035341
-0.0549048 -0.24272311 -0.3903327
-0.054701 -0.24269468 -0.3903445
-0.054529 -0.24270375 -0.39034149
-0.0542445 -0.24268414 -0.39033902
-0.054127585 -0.24269141 -0.39035866
-0.053912003 -0.24270232 -0.39038697
-0.053660221 -0.24271165 -0.39038476
-0.05352075 -0.24271683 -0.39039013
-0.053315748 -0.242697 -0.39038402
-0.052912999 -0.242763 -0.39039499
-0.052682001 -0.24268651 -0.39039263
-0.052515797 -0.24272962 -0.390396
-0.057413001 -0.24258199 -0.390389
-0.056853 -0.24253801 -0.39039898
-0.056666125 -0.24248862 -0.39037937
-0.056468777 -0.24248801 -0.39037344
-0.056334 -0.24249518 -0.39036617
-0.056159999 -0.242503 -0.39036632
-0.055910885 -0.24251968 -0.39036834
-0.055725448 -0.24252599 -0.3903712
-0.055480201 -0.2424856 -0.39037761
-0.055286665 -0.24248065 -0.39037001
-0.055095553 -0.24248868 -0.39036778
-0.054902777 -0.24249935 -0.39036822
-0.054717999 -0.2425237 -0.39036015
-0.054539122 -0.24251302 -0.39034539
-0.054234501 -0.24250349 -0.39035377
-0.054111276 -0.2424811 -0.39036447
-0.053901002 -0.242486 -0.39038363
-0.053648446 -0.242494 -0.39038557
-0.053554751 -0.24249324 -0.39038685
-0.053348001 -0.24253948 -0.3903887
-0.052635498 -0.242552 -0.39039898
-0.052542001 -0.242516 -0.3903915
-0.056674499 -0.24233451 -0.3903935
-0.056478143 -0.24230215 -0.39039114
-0.056315664 -0.242329 -0.39039066
-0.056148004 -0.242287 -0.39037701
-0.055902202 -0.24233301 -0.39039281
-0.05572075 -0.24236375 -0.39039052
-0.055426002 -0.242296 -0.390396
-0.055275999 -0.2423 -0.39038599
-0.055098198 -0.24231561 -0.39038879
-0.054874003 -0.24230783 -0.39038369
-0.054724831 -0.24229585 -0.39037564
-0.054533333 -0.24230565 -0.39037499
-0.054255664 -0.24232399 -0.39038166
-0.054132417 -0.24231024 -0.39037415
-0.053893 -0.24234 -0.39039001
-0.053641498 -0.24234951 -0.39039952
-0.053505998 -0.24233 -0.39039156
-0.05333 -0.24237099 -0.39039999
-0.055822998 -0.242126 -0.39039952
-0.055138499 -0.242158 -0.39039201
-0.054830998 -0.24214 -0.39039099
-0.054698333 -0.242128 -0.39038765
-0.054513332 -0.24211331 -0.39038864
-0.054243337 -0.24210668 -0.39039531
-0.054130901 -0.24211863 -0.3903816
-0.055516001 -0.241956 -0.39039999
-0.054233998 -0.241926 -0.39039451
-0.0541314 -0.24193659 -0.39038283
-0.052037001 -0.2358315 -0.39039651
-0.051809002 -0.235845 -0.39039999
-0.052976001 -0.23563901 -0.39039999
-0.052237999 -0.23560201 -0.390396
-0.052157998 -0.23562799 -0.39038634
-0.051877569 -0.23570614 -0.39039072
-0.051796999 -0.235627 -0.39039499
-0.053066999 -0.23541801 -0.39039999
-0.052941602 -0.23548019 -0.39039162
-0.052694201 -0.235484 -0.3903904
-0.052578334 -0.23546799 -0.39039001
-0.052264251 -0.23549175 -0.39039126
-0.052171499 -0.23549201 -0.39039201
-0.051913749 -0.23548412 -0.39037922
-0.051790331 -0.23548202 -0.39037701
-0.051332667 -0.23545332 -0.390394
-0.051133998 -0.235477 -0.39039898
-0.050930999 -0.235451 -0.39039901
-0.050767999 -0.235459 -0.390398
-0.054400999 -0.235204 -0.390394
-0.053734999 -0.2352625 -0.39039066
-0.053520001 -0.235248 -0.390385
-0.053263001 -0.235256 -0.39039901
-0.053062502 -0.23528138 -0.39038762
-0.05292533 -0.23527749 -0.39037248
-0.052699249 -0.23528777 -0.3903605
-0.052558117 -0.2353012 -0.39036375
-0.052255169 -0.23531216 -0.39038348
-0.052089665 -0.23529434 -0.39038715
-0.051923148 -0.23530987 -0.3903707
-0.051782001 -0.23530251 -0.39035898
-0.051286362 -0.23527838 -0.39039126
-0.051147666 -0.23524533 -0.39038065
-0.050950501 -0.235287 -0.39039397
-0.050761998 -0.235351 -0.39039749
-0.050578497 -0.235287 -0.39039648
-0.054639 -0.23504201 -0.39039701
-0.054521002 -0.23507699 -0.3903926
-0.054344751 -0.235098 -0.39039326
-0.054097667 -0.23507302 -0.39039266
-0.0538482 -0.2350736 -0.39037922
-0.053726673 -0.23509401 -0.39037228
-0.053513002 -0.23510401 -0.39036965
-0.053259779 -0.23511201 -0.39038157
-0.053110544 -0.2350979 -0.390367
-0.05291675 -0.23509775 -0.390349
-0.05268155 -0.23509619 -0.39033958
-0.052547216 -0.23508433 -0.39035115
-0.052282751 -0.23508388 -0.39036423
-0.052090444 -0.23509997 -0.39036301
-0.051904224 -0.23511288 -0.39035037
-0.051773667 -0.23512034 -0.39033067
-0.051283251 -0.23510288 -0.39037785
-0.05115233 -0.2350765 -0.3903648
-0.050914448 -0.23508912 -0.3903811
-0.050718334 -0.23504932 -0.39038566
-0.050569337 -0.23510599 -0.39038768
-0.054687373 -0.23488611 -0.39036775
-0.054502111 -0.23490389 -0.39037988
-0.054316428 -0.23492786 -0.39038828
-0.054143004 -0.23490545 -0.39038372
-0.053845331 -0.234919 -0.39035067
-0.053722538 -0.23487702 -0.39035276
-0.053502332 -0.23488666 -0.39035568
-0.053249106 -0.23489454 -0.39036402
-0.053125415 -0.23490544 -0.39034435
-0.052938223 -0.23491579 -0.39032999
-0.052688632 -0.2349198 -0.39031917
-0.052538663 -0.2349035 -0.39033267
-0.052296877 -0.23488501 -0.39033538
-0.052092303 -0.2348756 -0.39033541
-0.051893335 -0.23489624 -0.3903349
-0.051763002 -0.23490368 -0.39031866
-0.051274333 -0.23492233 -0.39036202
-0.051142752 -0.23489575 -0.39035851
-0.050905 -0.234908 -0.390378
-0.050696332 -0.23488049 -0.390367
-0.050521001 -0.23488849 -0.39038065
-0.050331499 -0.23482251 -0.39039952
-0.050031997 -0.23484001 -0.39039052
-0.055026501 -0.23470101 -0.39038998
-0.054876499 -0.234705 -0.39037699
-0.054679126 -0.23468712 -0.39032614
-0.054492109 -0.23468733 -0.39035279
-0.054324668 -0.23469967 -0.39037585
-0.054133113 -0.23470899 -0.39037287
-0.053856999 -0.23472567 -0.39034668
-0.05373 -0.2347043 -0.39035738
-0.0534935 -0.234705 -0.39033601
-0.053243998 -0.23468611 -0.39034399
-0.053120848 -0.23468201 -0.39033312
-0.052928448 -0.23469867 -0.39029366
-0.05269666 -0.23470789 -0.39030892
-0.0525475 -0.23472069 -0.39028847
-0.052319501 -0.2346945 -0.39030477
-0.052102625 -0.23470175 -0.39030826
-0.051883444 -0.23467988 -0.39030465
-0.051752668 -0.23468733 -0.39029202
-0.051269457 -0.23471111 -0.39034936
-0.05114343 -0.23470286 -0.39034072
-0.050895996 -0.23472711 -0.39036402
-0.050687749 -0.23469949 -0.39034751
-0.050471429 -0.23469557 -0.39037138
-0.050325334 -0.23467951 -0.39037231
-0.050098572 -0.23470213 -0.39038584
-0.049890552 -0.2346929 -0.39038944
-0.049758662 -0.23471099 -0.39038232
-0.055262998 -0.2344275 -0.3903915
-0.05504375 -0.23449951 -0.39036676
-0.054867666 -0.23452501 -0.39036167
-0.054685712 -0.23451199 -0.39033771
-0.05447543 -0.23449199 -0.39033332
-0.054314002 -0.2344835 -0.39035568
-0.054122556 -0.23449291 -0.3903549
-0.053846002 -0.23450933 -0.39033866
-0.053715266 -0.23451528 -0.39032647
-0.053485334 -0.23452599 -0.39031503
-0.053248003 -0.234496 -0.39034802
-0.053113364 -0.23449755 -0.39032051
-0.052917443 -0.23448245 -0.39028421
-0.052686777 -0.2344919 -0.39027655
-0.052536249 -0.23450434 -0.39028132
-0.05230983 -0.23451348 -0.39029947
-0.05210264 -0.23452663 -0.39029199
-0.051892716 -0.23449215 -0.39028803
-0.0517435 -0.234506 -0.39028299
-0.051274445 -0.23448798 -0.39031136
-0.051146775 -0.23449557 -0.3903209
-0.050887331 -0.23451087 -0.39031112
-0.050678998 -0.234519 -0.39033398
-0.050479997 -0.23451987 -0.39034462
-0.050317001 -0.23449826 -0.39034802
-0.050092399 -0.23448858 -0.390358
-0.049900997 -0.23448701 -0.39036572
-0.049689665 -0.23449551 -0.39037216
-0.049520873 -0.23449412 -0.39038798
-0.0493965 -0.23447749 -0.390394
-0.056611001 -0.234218 -0.390394
-0.056173999 -0.23424099 -0.39038599
-0.055913497 -0.23426975 -0.39039025
-0.055726498 -0.2342965 -0.39038801
-0.055475667 -0.23427612 -0.39038986
-0.055302251 -0.2342905 -0.39038011
-0.055080425 -0.23428513 -0.39035171
-0.054857999 -0.23430835 -0.39033365
-0.054667 -0.23431645 -0.39033097
-0.054481 -0.23431689 -0.39031002
-0.054305252 -0.234302 -0.39034477
-0.054106377 -0.23428512 -0.39032513
-0.053835332 -0.23429199 -0.39032266
-0.053704269 -0.23429774 -0.39031553
-0.053474996 -0.23430867 -0.39029098
-0.053240001 -0.23431499 -0.39031497
-0.053121291 -0.23431978 -0.3902981
-0.05291 -0.23430218 -0.39024398
-0.052678432 -0.23429629 -0.39023489
-0.052526996 -0.23428808 -0.39023599
-0.052300166 -0.23429716 -0.39027134
-0.052113779 -0.23430198 -0.39027521
-0.051906999 -0.23432209 -0.39026687
-0.051750753 -0.23430726 -0.390264
-0.051265668 -0.23430665 -0.39029703
-0.051136669 -0.23427844 -0.39028603
-0.050877113 -0.234294 -0.390286
-0.050669167 -0.234302 -0.39029884
-0.05047125 -0.23432051 -0.39031163
-0.050322 -0.23430702 -0.39030758
-0.050109603 -0.23431301 -0.39034319
-0.0498835 -0.23428892 -0.39032736
-0.049678832 -0.23427851 -0.39035401
-0.049504332 -0.2342872 -0.39036432
-0.049365602 -0.23428258 -0.39039141
-0.049130332 -0.23423333 -0.39039734
-0.056627601 -0.23408599 -0.39037862
-0.056469001 -0.23407519 -0.39038563
-0.056310166 -0.23408599 -0.39037719
-0.056131501 -0.23407924 -0.39037874
-0.055902716 -0.234097 -0.39037642
-0.055717334 -0.234116 -0.39038202
-0.055480402 -0.23410241 -0.39037099
-0.055340998 -0.23409279 -0.39036742
-0.055117164 -0.2340975 -0.39032933
-0.0549074 -0.23407499 -0.39029923
-0.05468883 -0.23409666 -0.39028183
-0.054497495 -0.23410785 -0.39028394
-0.054297332 -0.23412216 -0.39030969
-0.054112576 -0.23411043 -0.39030245
-0.053825002 -0.23407532 -0.39029503
-0.053694066 -0.23408152 -0.39028949
-0.053464334 -0.234092 -0.39026734
-0.053231165 -0.23409933 -0.39026368
-0.053105202 -0.23410921 -0.39025417
-0.052901104 -0.23412143 -0.39022887
-0.052730002 -0.234162 -0.390214
-0.052530002 -0.23411241 -0.39021179
-0.052290168 -0.23408101 -0.39023301
-0.052104 -0.23408556 -0.39024168
-0.051919334 -0.23409711 -0.3902458
-0.05175817 -0.23410802 -0.39024782
-0.051257331 -0.23412623 -0.39026889
-0.051128671 -0.23409717 -0.39025533
-0.050866444 -0.23407644 -0.39026585
-0.050659332 -0.23408467 -0.39026669
-0.050483335 -0.23409314 -0.39029321
-0.050329 -0.23410045 -0.39029524
-0.050087672 -0.2341125 -0.39031252
-0.049891848 -0.23411475 -0.39031631
-0.049670752 -0.23409826 -0.39032924
-0.049486857 -0.23409157 -0.39034075
-0.049309399 -0.2340591 -0.39038217
-0.049132362 -0.23409463 -0.39039019
-0.056915998 -0.23383549 -0.3903895
-0.056701254 -0.23391189 -0.3903721
-0.056511201 -0.2339143 -0.39036253
-0.056293666 -0.23389466 -0.39033055
-0.056081004 -0.23388165 -0.39036432
-0.055908222 -0.23388945 -0.39035809
-0.055707663 -0.23389865 -0.39034501
-0.055492003 -0.23391382 -0.39033499
-0.055343553 -0.23391856 -0.39033079
-0.055149604 -0.2339116 -0.39031559
-0.054898601 -0.233888 -0.39026961
-0.054679334 -0.233881 -0.39024869
-0.054487746 -0.23389192 -0.39024773
-0.054287668 -0.23390549 -0.39027134
-0.054095447 -0.23391499 -0.39028808
-0.053817 -0.23389551 -0.39026999
-0.053685896 -0.23390079 -0.39025921
-0.053455666 -0.23387535 -0.39022335
-0.053233001 -0.2339 -0.39023352
-0.053130712 -0.23388456 -0.39023122
-0.052967995 -0.2339308 -0.39020938
-0.052221 -0.23390301 -0.39021149
-0.0521084 -0.2339118 -0.39022082
-0.051901374 -0.23389027 -0.39023012
-0.051756203 -0.23390619 -0.39021578
-0.051273834 -0.23390985 -0.39023516
-0.051138416 -0.23391609 -0.39024827
-0.050859004 -0.23389751 -0.39022669
-0.050649997 -0.23390551 -0.39025852
-0.050474167 -0.23387717 -0.39025167
-0.050318558 -0.23388365 -0.3902759
-0.050077498 -0.233895 -0.39028898
-0.049873471 -0.23390879 -0.39030322
-0.049674202 -0.23393121 -0.3903116
-0.049505666 -0.23390777 -0.39032188
-0.049286999 -0.23389968 -0.39036959
-0.0491414 -0.23391399 -0.39039502
-0.057278667 -0.23369499 -0.3903923
-0.0571208 -0.2336638 -0.39038244
-0.056910332 -0.23369099 -0.3903552
-0.056700554 -0.23370412 -0.3903299
-0.056502834 -0.23371275 -0.39032218
-0.05629991 -0.2337181 -0.39033374
-0.056073334 -0.23370081 -0.39032504
-0.055892285 -0.23369387 -0.39031985
-0.055698335 -0.23368199 -0.39030167
-0.055482004 -0.23369668 -0.39030364
-0.055333998 -0.23370165 -0.39029396
-0.05513167 -0.23370934 -0.39028582
-0.0549208 -0.23371319 -0.39024562
-0.054670502 -0.23370025 -0.39023
-0.05449757 -0.23369546 -0.39021471
-0.054307751 -0.23369573 -0.39022249
-0.054086223 -0.23369823 -0.39024022
-0.053808998 -0.23371466 -0.39023629
-0.053677734 -0.23372008 -0.39023235
-0.053446501 -0.233695 -0.39021301
-0.053236999 -0.23373599 -0.39020801
-0.053144753 -0.23374325 -0.39021251
-0.052988999 -0.23375601 -0.39020401
-0.052214999 -0.23379301 -0.390205
-0.05215 -0.233758 -0.39021501
-0.051832497 -0.233703 -0.39021802
-0.051773001 -0.23371001 -0.3902095
-0.051263332 -0.23369251 -0.39021948
-0.051127672 -0.23369867 -0.39022908
-0.050865289 -0.23372599 -0.390214
-0.050707832 -0.23372166 -0.39023414
-0.050509334 -0.23369332 -0.39023498
-0.050310332 -0.23370284 -0.39024901
-0.050080001 -0.23369201 -0.39027739
-0.049889844 -0.23368524 -0.39027685
-0.049752165 -0.233697 -0.39027849
-0.04950567 -0.23370706 -0.39030525
-0.049278602 -0.23371935 -0.39034191
-0.049120203 -0.233668 -0.39039201
-0.057806998 -0.233426 -0.390396
-0.057496335 -0.23346667 -0.39038333
-0.057304997 -0.23351462 -0.39037678
-0.057103001 -0.23349926 -0.39035225
-0.056900334 -0.23347516 -0.39033136
-0.056690998 -0.23348846 -0.39028978
-0.056493163 -0.23349701 -0.39028552
-0.056282997 -0.23350924 -0.39030683
-0.056083284 -0.23353043 -0.39031357
-0.055918299 -0.23351319 -0.3902995
-0.055689499 -0.233502 -0.39029098
-0.055472001 -0.23348099 -0.39027151
-0.055323776 -0.23348588 -0.39026511
-0.055121664 -0.23349367 -0.39025053
-0.0548824 -0.23352739 -0.39022097
-0.054636002 -0.233597 -0.39020801
-0.054221999 -0.233548 -0.390201
-0.0541315 -0.23351499 -0.390212
-0.053739 -0.23357201 -0.390203
-0.051826999 -0.233595 -0.39021
-0.051208999 -0.233548 -0.39020601
-0.051142287 -0.23348956 -0.39021069
-0.050732747 -0.23354027 -0.39021152
-0.050489333 -0.23353684 -0.39021766
-0.050301775 -0.23352231 -0.39023048
-0.050121501 -0.23349249 -0.39026099
-0.04988477 -0.2334846 -0.39024591
-0.049742166 -0.23347984 -0.39024815
-0.049494918 -0.23348999 -0.39028731
-0.04927877 -0.23350708 -0.39032891
-0.049114566 -0.23350404 -0.39036033
-0.048930801 -0.23350319 -0.39037982
-0.048743665 -0.23352534 -0.39038801
-0.058557499 -0.2332385 -0.39039201
-0.058338501 -0.23328625 -0.39039049
-0.0580718 -0.23328261 -0.39037982
-0.057909999 -0.23327231 -0.39037064
-0.057713751 -0.23326826 -0.39036399
-0.057508498 -0.233298 -0.39035717
-0.057292867 -0.23330933 -0.39034623
-0.057094499 -0.23331833 -0.39032984
-0.05689225 -0.233294 -0.390304
-0.056672875 -0.23328087 -0.39026776
-0.056490909 -0.23328628 -0.39025524
-0.056309499 -0.23328289 -0.39026001
-0.056123555 -0.233301 -0.39027047
-0.055908669 -0.23331068 -0.39028177
-0.055681001 -0.23332132 -0.39026165
-0.055464 -0.23330025 -0.39024299
-0.055315834 -0.23330534 -0.390237
-0.055115998 -0.2333495 -0.390214
-0.050235 -0.23337799 -0.39022201
-0.050114002 -0.23331232 -0.39021835
-0.04990311 -0.23331898 -0.390212
-0.0496925 -0.2333 -0.3902075
-0.049494624 -0.23329914 -0.39023712
-0.04929221 -0.23327737 -0.3903043
-0.049110398 -0.23329125 -0.39032948
-0.048909336 -0.23330002 -0.39034417
-0.048688199 -0.2332944 -0.39037439
-0.058684796 -0.23305841 -0.39038271
-0.058529895 -0.2330979 -0.39036202
-0.058330998 -0.23310633 -0.39035368
-0.058084 -0.2331074 -0.390351
-0.057924248 -0.23309799 -0.39034966
-0.057735249 -0.23310499 -0.39033452
-0.057498496 -0.23308218 -0.39032349
-0.057305247 -0.23309284 -0.39031658
-0.057122 -0.233101 -0.39028576
-0.056884497 -0.23311467 -0.39026451
-0.056682859 -0.23310672 -0.39024058
-0.056502502 -0.23309982 -0.39022031
-0.056306295 -0.23308888 -0.3902356
-0.056112781 -0.23308557 -0.39024878
-0.055898752 -0.23309542 -0.3902494
-0.055674501 -0.2331425 -0.39021
-0.055456001 -0.23312099 -0.39021417
-0.055311501 -0.233198 -0.39020652
-0.049862999 -0.23318601 -0.39020601
-0.049571 -0.233197 -0.39020401
-0.049258433 -0.23310928 -0.3902674
-0.049101401 -0.23307584 -0.39028195
-0.048899833 -0.23308432 -0.39030668
-0.048668165 -0.2330935 -0.39034304
-0.048479002 -0.2330894 -0.39036462
-0.048371501 -0.23307151 -0.39038002
-0.058865998 -0.23288167 -0.39039204
-0.058707308 -0.2328994 -0.39035919
-0.058534097 -0.23287429 -0.39032337
-0.058320999 -0.23289101 -0.39031887
-0.058064997 -0.23290716 -0.39032051
-0.057916086 -0.23291814 -0.39032066
-0.057727333 -0.23292518 -0.39030632
-0.057489999 -0.23290175 -0.39030775
-0.057294916 -0.23287617 -0.39029178
-0.05711133 -0.23288411 -0.39026767
-0.056874167 -0.23289865 -0.39024082
-0.056680717 -0.23292157 -0.39022174
-0.056458998 -0.23296766 -0.39021897
-0.056316502 -0.23296601 -0.39020801
-0.056104999 -0.23290466 -0.39021364
-0.055891335 -0.23292583 -0.39021149
-0.049234997 -0.23293188 -0.39022937
-0.049093895 -0.23289569 -0.39023751
-0.048891999 -0.232904 -0.39027774
-0.048670199 -0.2328908 -0.39030838
-0.048479285 -0.23287615 -0.39033985
-0.048319004 -0.23288201 -0.39036274
-0.059409998 -0.23261601 -0.39039701
-0.059232 -0.23264751 -0.39039201
-0.059018668 -0.23270802 -0.39038801
-0.058868829 -0.23271267 -0.39035735
-0.05871655 -0.23271856 -0.39032099
-0.058530629 -0.23269951 -0.39030811
-0.058300801 -0.23268899 -0.39030081
-0.058056165 -0.23269133 -0.39026415
-0.057907417 -0.23270243 -0.39026681
-0.057717163 -0.23270868 -0.39028081
-0.057482332 -0.23272185 -0.39026916
-0.057287376 -0.23269662 -0.3902545
-0.057089288 -0.23268972 -0.39023775
-0.056868002 -0.2327545 -0.39021152
-0.04908713 -0.23276976 -0.39021212
-0.048884001 -0.23272334 -0.39023864
-0.048705999 -0.232694 -0.3902595
-0.0485196 -0.23271041 -0.390297
-0.048339125 -0.23268312 -0.39034262
-0.060803998 -0.232476 -0.390385
-0.060700338 -0.23243167 -0.39038634
-0.060442425 -0.23245473 -0.39039427
-0.060373597 -0.2324882 -0.3903752
-0.059803501 -0.232491 -0.39038751
-0.059762996 -0.23248824 -0.39038476
-0.059475858 -0.2324973 -0.39039043
-0.059288178 -0.23247926 -0.39036277
-0.059056498 -0.23247375 -0.39035499
-0.058858499 -0.2324975 -0.39033449
-0.058704499 -0.23250967 -0.39029834
-0.058522839 -0.23252042 -0.39027524
-0.058314603 -0.23251601 -0.3902604
-0.058095999 -0.23250499 -0.39027798
-0.057917066 -0.23248594 -0.39023912
-0.057707328 -0.23249333 -0.39024869
-0.057472665 -0.23250683 -0.3902308
-0.05727445 -0.23252429 -0.39022353
-0.0571445 -0.232595 -0.39020848
-0.048812501 -0.23254299 -0.390223
-0.048698336 -0.23251432 -0.39021969
-0.048540164 -0.232521 -0.39027464
-0.048308499 -0.23251429 -0.39033449
-0.060867336 -0.23230016 -0.39039066
-0.060719002 -0.23229925 -0.39037776
-0.060438 -0.23228654 -0.39035627
-0.060326558 -0.23228604 -0.39035928
-0.060047001 -0.232297 -0.39036298
-0.059953857 -0.23228785 -0.39036354
-0.059711497 -0.23231255 -0.39037323
-0.059506331 -0.23231977 -0.39036602
-0.059302162 -0.23229742 -0.3903358
-0.059130669 -0.23232134 -0.39033231
-0.058886874 -0.23227112 -0.3902885
-0.058694828 -0.23229341 -0.3902652
-0.058528401 -0.2323622 -0.39022478
-0.058270004 -0.232335 -0.39021975
-0.058088332 -0.23232533 -0.39023933
-0.057915289 -0.23232029 -0.39021802
-0.057680666 -0.23232533 -0.39021501
-0.057526 -0.232362 -0.39020601
-0.057232 -0.232373 -0.39020449
-0.048691001 -0.23237 -0.39020401
-0.0485305 -0.23230433 -0.39023933
-0.048309162 -0.23231231 -0.3903015
-0.048084665 -0.23231934 -0.39038634
-0.062482998 -0.232032 -0.39039898
-0.062169001 -0.232042 -0.390394
-0.061794002 -0.23205601 -0.390394
-0.061427001 -0.23201001 -0.39039201
-0.061279666 -0.232015 -0.39039433
-0.061002001 -0.232026 -0.39039299
-0.060871005 -0.23210655 -0.39036345
-0.060711 -0.232118 -0.39034787
-0.0604752 -0.2321146 -0.39031643
-0.060350101 -0.23210481 -0.39033332
-0.060036335 -0.23208033 -0.39034534
-0.05992467 -0.23208277 -0.39032641
-0.059715062 -0.23209989 -0.39033657
-0.059514817 -0.23209657 -0.39032996
-0.05929406 -0.2321171 -0.39030826
-0.059186999 -0.23212732 -0.39029369
-0.058891833 -0.23210017 -0.39025965
-0.058679368 -0.23208471 -0.39022169
-0.058235999 -0.23217399 -0.390201
-0.057982001 -0.23219299 -0.39021301
-0.048478998 -0.232163 -0.39020601
-0.048299249 -0.23209624 -0.39027008
-0.048075002 -0.23210268 -0.39034596
-0.0479795 -0.23207 -0.39039302
-0.062471364 -0.23187917 -0.39038593
-0.062307503 -0.23188099 -0.39037687
-0.062114332 -0.23189901 -0.39037767
-0.061900903 -0.23189512 -0.39038563
-0.061751001 -0.23190543 -0.39038199
-0.061458331 -0.23188601 -0.39038932
-0.061289698 -0.2319068 -0.39037952
-0.061145574 -0.23186429 -0.3903771
-0.060895327 -0.23188959 -0.39032769
-0.060701668 -0.231903 -0.39031115
-0.060463667 -0.23191451 -0.39027265
-0.06034233 -0.23192574 -0.39030141
-0.060029499 -0.231902 -0.39029801
-0.059916001 -0.23190351 -0.3903105
-0.059713669 -0.23188025 -0.39028928
-0.059512917 -0.23188841 -0.39028358
-0.059284672 -0.23190229 -0.39027008
-0.059177667 -0.23191233 -0.39025632
-0.058894377 -0.23192987 -0.39022762
-0.058749497 -0.23196399 -0.390205
-0.048266124 -0.23189762 -0.39023817
-0.048065003 -0.23188598 -0.39032531
-0.047928821 -0.23187537 -0.39038324
-0.062861003 -0.231645 -0.39039999
-0.062705003 -0.231653 -0.39039999
-0.062479857 -0.23171115 -0.39036855
-0.062298775 -0.23168346 -0.39034575
-0.062103998 -0.23168384 -0.39035597
-0.061897337 -0.23169464 -0.39035323
-0.061703082 -0.23170269 -0.39036119
-0.061469335 -0.23171617 -0.39036617
-0.061302673 -0.2317269 -0.39034495
-0.061150834 -0.23169483 -0.39034817
-0.060876273 -0.23168148 -0.39030027
-0.060692165 -0.23168834 -0.39026737
-0.060453001 -0.231699 -0.39025569
-0.060333196 -0.23171099 -0.3902581
-0.060021669 -0.23172267 -0.39025936
-0.059908669 -0.23172466 -0.39026478
-0.059705902 -0.23170099 -0.39025101
-0.059501633 -0.23167981 -0.39024562
-0.059285183 -0.23169044 -0.39022899
-0.059172001 -0.231769 -0.390214
-0.058977999 -0.231775 -0.39020401
-0.048223663 -0.23170932 -0.39024267
-0.0480575 -0.23170599 -0.390277
-0.04789431 -0.23168021 -0.3903625
-0.047779001 -0.231611 -0.39039499
-0.063491002 -0.23140299 -0.39039648
-0.063110672 -0.23145817 -0.39038333
-0.062922724 -0.23149408 -0.39037868
-0.062698998 -0.23150967 -0.39037168
-0.062484782 -0.23152679 -0.39033633
-0.0623217 -0.23151591 -0.39033219
-0.062096503 -0.23150475 -0.39031327
-0.061887328 -0.23147891 -0.39032543
-0.061693583 -0.23148692 -0.39032233
-0.06146 -0.23150085 -0.39032519
-0.061292917 -0.23151131 -0.39031065
-0.061142664 -0.23151523 -0.3903195
-0.060888886 -0.23150566 -0.39027482
-0.060667403 -0.23148701 -0.39024162
-0.060445748 -0.23152 -0.39021501
-0.0603255 -0.23154087 -0.39021647
-0.060013503 -0.231543 -0.3902235
-0.059899449 -0.23150866 -0.39022145
-0.059692636 -0.23154745 -0.39022264
-0.059498779 -0.23150413 -0.39021444
-0.0593375 -0.231537 -0.3902095
-0.048200998 -0.23159 -0.39023399
-0.048107602 -0.23150781 -0.39024457
-0.047891464 -0.23150787 -0.39033654
-0.047773 -0.231501 -0.39039251
-0.064418495 -0.23124149 -0.39035901
-0.06425789 -0.23126279 -0.39036798
-0.064110249 -0.23125988 -0.39038637
-0.063949339 -0.23125632 -0.39037967
-0.063699998 -0.23124401 -0.39039099
-0.063494429 -0.23128884 -0.39037973
-0.063258998 -0.2313 -0.39037901
-0.063117094 -0.23128174 -0.3903712
-0.062919669 -0.2312838 -0.39034769
-0.062689997 -0.23129468 -0.39031434
-0.062475666 -0.23131135 -0.39028847
-0.062303424 -0.23131607 -0.39027703
-0.062088668 -0.23132499 -0.39027917
-0.061879497 -0.23129901 -0.39028764
-0.061675202 -0.23128588 -0.39028418
-0.061505999 -0.23127867 -0.39027968
-0.061305471 -0.23129414 -0.39027888
-0.061133113 -0.23129924 -0.39027697
-0.060894106 -0.23131378 -0.39023224
-0.060779203 -0.231336 -0.39022097
-0.060600001 -0.23133001 -0.39020199
-0.048112672 -0.23130466 -0.3902235
-0.047877386 -0.23131905 -0.39031345
-0.047741503 -0.23132168 -0.3903757
-0.064684346 -0.23110521 -0.39037949
-0.064477757 -0.231095 -0.39036822
-0.064253882 -0.23108201 -0.39031336
-0.064116858 -0.23108409 -0.3903304
-0.06392733 -0.23108751 -0.39036047
-0.063711539 -0.23109841 -0.3903735
-0.063501112 -0.23111323 -0.39035213
-0.063324168 -0.2311195 -0.39034715
-0.063119002 -0.23110723 -0.39033204
-0.062912501 -0.23110563 -0.39029852
-0.062680334 -0.23107867 -0.39027801
-0.062466666 -0.23109667 -0.39024532
-0.062292639 -0.23110808 -0.39022672
-0.062080164 -0.2311105 -0.39022699
-0.061879002 -0.23112617 -0.39024642
-0.061706603 -0.2311115 -0.39025694
-0.061531667 -0.231086 -0.39025298
-0.06129979 -0.23108436 -0.39023271
-0.061124783 -0.23108479 -0.39022398
-0.060965002 -0.23116501 -0.390205
-0.048027664 -0.23109202 -0.39022303
-0.047881003 -0.23110184 -0.39029104
-0.047729749 -0.23110627 -0.39034817
-0.065278001 -0.230802 -0.390396
-0.065183505 -0.2308425 -0.39038998
-0.064880595 -0.2308768 -0.3903648
-0.064690724 -0.2309045 -0.39034328
-0.064470507 -0.23091598 -0.3903285
-0.064258285 -0.23090886 -0.39028713
-0.064112164 -0.23089986 -0.3902818
-0.063927993 -0.23088701 -0.39030498
-0.063710503 -0.2308882 -0.39031991
-0.063503101 -0.2308908 -0.39029941
-0.063314162 -0.23090468 -0.39031467
-0.063105591 -0.23091649 -0.39029884
-0.062903836 -0.23092534 -0.39028025
-0.062671497 -0.23089901 -0.39025652
-0.062490668 -0.23092835 -0.39021134
-0.062235501 -0.23096 -0.39021149
-0.062023498 -0.2309325 -0.39020899
-0.061888333 -0.23094018 -0.39021
-0.061715998 -0.23091646 -0.39022273
-0.061552405 -0.230932 -0.39022642
-0.061330497 -0.2309175 -0.39020574
-0.061117001 -0.230942 -0.390201
-0.048021 -0.230949 -0.39020401
-0.047870804 -0.23088492 -0.39026496
-0.047719415 -0.2308891 -0.39032736
-0.066275001 -0.230625 -0.39038375
-0.066098332 -0.23061167 -0.39038932
-0.065932833 -0.23065533 -0.39038017
-0.065642506 -0.2306785 -0.39038199
-0.065467671 -0.23067398 -0.39039066
-0.06533771 -0.23068501 -0.39038429
-0.065177999 -0.23069951 -0.39035299
-0.064872801 -0.2306906 -0.39032701
-0.064681396 -0.2306897 -0.39029846
-0.064528339 -0.2307 -0.39028898
-0.064287812 -0.2307159 -0.39027035
-0.064127281 -0.23071198 -0.39027062
-0.063919 -0.2307055 -0.39028084
-0.063720256 -0.23070225 -0.39028838
-0.063510746 -0.2306826 -0.39025137
-0.063306332 -0.23069017 -0.39024782
-0.063092902 -0.23070884 -0.39024484
-0.062894337 -0.23071033 -0.39024404
-0.062666506 -0.230756 -0.39021999
-0.047855336 -0.23068792 -0.39023468
-0.0477097 -0.23068757 -0.39030069
-0.066501498 -0.23044351 -0.390396
-0.06629613 -0.230499 -0.3903541
-0.066095337 -0.23050566 -0.39034066
-0.065897577 -0.230479 -0.39034525
-0.065694503 -0.23049568 -0.39034304
-0.065470666 -0.23050733 -0.39033768
-0.065328576 -0.2305115 -0.39034569
-0.065169998 -0.23052032 -0.39032033
-0.064923249 -0.2305305 -0.39030775
-0.064683393 -0.23048852 -0.39025176
-0.064551398 -0.23046939 -0.39021239
-0.064320497 -0.23051125 -0.3902185
-0.064131275 -0.23052849 -0.39022449
-0.063925371 -0.23052314 -0.39024439
-0.0637125 -0.23052327 -0.39025077
-0.063502871 -0.2305035 -0.39021966
-0.063298747 -0.23051101 -0.39021447
-0.063031003 -0.2305285 -0.39021251
-0.062923744 -0.23054875 -0.39021525
-0.047865 -0.23055948 -0.39021084
-0.047711268 -0.23050852 -0.3902683
-0.067019001 -0.23020101 -0.39039499
-0.066924334 -0.23020966 -0.39039433
-0.066603668 -0.23029633 -0.39036199
-0.066513442 -0.23029882 -0.3903757
-0.06628833 -0.2303205 -0.39031407
-0.066087224 -0.23032676 -0.39030701
-0.065889381 -0.23029964 -0.39031786
-0.065686166 -0.2302825 -0.3902775
-0.065461166 -0.23029251 -0.39029154
-0.065319583 -0.23029691 -0.39029169
-0.065162003 -0.23030633 -0.39026001
-0.064955659 -0.23031467 -0.39025998
-0.064714707 -0.23031735 -0.39023799
-0.064514004 -0.230344 -0.390201
-0.063854001 -0.230371 -0.39021599
-0.063697286 -0.2303493 -0.39021486
-0.063473001 -0.230398 -0.390201
-0.047695998 -0.23032409 -0.39025357
-0.047473002 -0.23031734 -0.39037701
-0.068138666 -0.23000365 -0.39039233
-0.067087397 -0.23007059 -0.39038679
-0.066917874 -0.230102 -0.3903816
-0.066527255 -0.23008351 -0.39031723
-0.06630867 -0.23010612 -0.39024803
-0.06610775 -0.2301126 -0.39025402
-0.065891184 -0.23012872 -0.39025107
-0.065702401 -0.2300946 -0.39023462
-0.065453 -0.23007832 -0.39023149
-0.065310754 -0.23008232 -0.39024103
-0.065151997 -0.23009102 -0.39022133
-0.064945668 -0.23009932 -0.39022836
-0.064675003 -0.23018734 -0.39020899
-0.047660224 -0.23009545 -0.39023823
-0.047463667 -0.23010068 -0.39033833
-0.068481997 -0.22984099 -0.39039701
-0.068257406 -0.22987659 -0.39038879
-0.068124086 -0.22990191 -0.39037836
-0.067915834 -0.22990532 -0.39038101
-0.06765645 -0.22988221 -0.39035165
-0.067523122 -0.2298805 -0.39036337
-0.067280248 -0.22988938 -0.39038187
-0.067099668 -0.22991247 -0.39035651
-0.066910081 -0.22992311 -0.39034274
-0.066513337 -0.22989376 -0.39026982
-0.066290498 -0.22990027 -0.39021689
-0.066118598 -0.22995479 -0.39021501
-0.065928504 -0.22997651 -0.390212
-0.065612495 -0.229964 -0.39021099
-0.065474004 -0.229937 -0.39020801
-0.065273672 -0.22991832 -0.39021197
-0.064939 -0.229956 -0.39020601
-0.047651142 -0.22989985 -0.39021403
-0.047489002 -0.22986451 -0.39030752
-0.04734325 -0.22986875 -0.39038876
-0.068484001 -0.22968 -0.39038378
-0.068290569 -0.22971329 -0.39037532
-0.068116352 -0.22971305 -0.39035553
-0.067963667 -0.22972549 -0.390342
-0.067697451 -0.22971132 -0.3903437
-0.067514256 -0.22968312 -0.39033639
-0.067271441 -0.22968343 -0.39033544
-0.067121662 -0.22969699 -0.39031011
-0.066939078 -0.22971147 -0.39030153
-0.066797495 -0.22967499 -0.39026952
-0.066524103 -0.2297267 -0.39022699
-0.066246666 -0.22972566 -0.39021
-0.047518998 -0.22970249 -0.39026275
-0.047325749 -0.22970675 -0.39038649
-0.068617001 -0.229472 -0.39039499
-0.068518572 -0.22948034 -0.39035949
-0.068296663 -0.22948898 -0.39032337
-0.068111241 -0.22950184 -0.3903133
-0.067954332 -0.22951134 -0.39030316
-0.067676328 -0.22952116 -0.39031413
-0.067522712 -0.22950874 -0.39032143
-0.067264497 -0.22950484 -0.39028752
-0.067112222 -0.22948255 -0.39027178
-0.0669415 -0.22949135 -0.3902564
-0.066791996 -0.229533 -0.39023101
-0.066520996 -0.229582 -0.390201
-0.047495399 -0.22953519 -0.39026624
-0.047316495 -0.22952498 -0.39037868
-0.069054835 -0.22926749 -0.39038613
-0.068935856 -0.22928858 -0.39037842
-0.068693332 -0.22932202 -0.39037117
-0.068511374 -0.22930212 -0.390311
-0.068274394 -0.22928981 -0.3902854
-0.068102941 -0.2292888 -0.39025003
-0.06794516 -0.22929768 -0.39025965
-0.067691334 -0.22930701 -0.39025676
-0.067528419 -0.22931401 -0.39027157
-0.067263752 -0.229335 -0.39025387
-0.067118287 -0.22929814 -0.39022785
-0.066935748 -0.22934875 -0.390221
-0.047424335 -0.22930433 -0.39029202
-0.047291663 -0.22930866 -0.39037055
-0.06985233 -0.22904266 -0.39039668
-0.069684498 -0.229054 -0.39039052
-0.069484495 -0.22908668 -0.3903912
-0.069332995 -0.22910476 -0.39038122
-0.06907025 -0.22908683 -0.39035845
-0.06892655 -0.22909433 -0.39034504
-0.068702206 -0.229121 -0.39031297
-0.068510845 -0.22911675 -0.39028043
-0.068294205 -0.2291172 -0.39024019
-0.06809625 -0.22909601 -0.39022553
-0.067939498 -0.2291545 -0.390223
-0.067639247 -0.22913125 -0.39023051
-0.06755989 -0.22909734 -0.39023101
-0.067319334 -0.229182 -0.39021733
-0.067171 -0.2291885 -0.39021
-0.047413666 -0.229087 -0.39026937
-0.047281221 -0.22909167 -0.39035031
-0.070072003 -0.228819 -0.39039701
-0.069858603 -0.2288918 -0.3903771
-0.069678001 -0.22891051 -0.39037231
-0.069498084 -0.22891863 -0.39036098
-0.069325335 -0.22892548 -0.39034736
-0.069055006 -0.22887927 -0.39031544
-0.068917438 -0.22888023 -0.39029944
-0.068756998 -0.22888632 -0.39029035
-0.068513662 -0.2289075 -0.39025056
-0.068340495 -0.22894999 -0.39021051
-0.068152994 -0.228994 -0.39021149
-0.047405001 -0.228907 -0.39025599
-0.047270555 -0.22887434 -0.39033422
-0.047158331 -0.22888 -0.390389
-0.070232496 -0.2286655 -0.390394
-0.070092499 -0.22867399 -0.39037976
-0.069869578 -0.22868323 -0.3903366
-0.069669165 -0.22869603 -0.39032316
-0.069519669 -0.22870289 -0.39031699
-0.069342561 -0.22870967 -0.39031133
-0.069079995 -0.22870742 -0.39028445
-0.068931744 -0.22870062 -0.39026198
-0.068747997 -0.22867334 -0.390237
-0.068529628 -0.22872676 -0.39021674
-0.047305778 -0.22870377 -0.39030412
-0.047148999 -0.22869849 -0.39038497
-0.070253544 -0.22851548 -0.39037302
-0.070124194 -0.2285146 -0.39034778
-0.069884166 -0.22850549 -0.39028618
-0.069705665 -0.22847992 -0.39027447
-0.069510549 -0.22848956 -0.39027455
-0.069333553 -0.22849645 -0.39026314
-0.069064438 -0.22851512 -0.39024276
-0.068924502 -0.2285367 -0.39022481
-0.047284916 -0.22851117 -0.39030424
-0.047139663 -0.22851765 -0.39037967
-0.070418499 -0.22825751 -0.39039248
-0.070288375 -0.22830768 -0.39035729
-0.070127629 -0.22830488 -0.39031661
-0.069876432 -0.22832632 -0.39025646
-0.069697671 -0.22830068 -0.39024767
-0.069500893 -0.22827466 -0.39024031
-0.069334671 -0.22830601 -0.39021766
-0.069049709 -0.22832072 -0.39021727
-0.068981498 -0.22833949 -0.39021
-0.047273833 -0.22829308 -0.39029896
-0.047129001 -0.22829968 -0.390365
-0.070409663 -0.22807966 -0.39036867
-0.070284732 -0.22808808 -0.39032218
-0.070126563 -0.22809856 -0.39027846
-0.069866337 -0.22811143 -0.39022511
-0.069727398 -0.22814779 -0.39021978
-0.069464505 -0.2281325 -0.39020801
-0.069371 -0.228137 -0.390205
-0.047268819 -0.22808179 -0.39028561
-0.047137752 -0.22806326 -0.39035049
-0.070603505 -0.227963 -0.3903845
-0.070468999 -0.22788699 -0.39032665
-0.070269078 -0.22788586 -0.39027974
-0.070127875 -0.22789289 -0.39024752
-0.069889501 -0.2279665 -0.39020401
-0.047274169 -0.2278945 -0.39026931
-0.047150247 -0.22789849 -0.39033675
-0.070849426 -0.22765443 -0.39038211
-0.070758894 -0.22770479 -0.39038199
-0.070593998 -0.22771467 -0.39031932
-0.070307277 -0.22771944 -0.39024049
-0.070153996 -0.22773901 -0.39021802
-0.047243144 -0.22772415 -0.39027029
-0.047140833 -0.22771734 -0.39032817
-0.070860066 -0.22747925 -0.39035904
-0.070749886 -0.22749056 -0.39033777
-0.070584998 -0.22750133 -0.39026999
-0.070335664 -0.22753717 -0.39020702
-0.047233999 -0.22749667 -0.39025965
-0.047124997 -0.227493 -0.39032686
-0.071066 -0.2272875 -0.39038849
-0.070885748 -0.22731018 -0.39034179
-0.070746899 -0.22727671 -0.3902826
-0.070575006 -0.22728699 -0.39023635
-0.047222 -0.22727734 -0.39027235
-0.047139999 -0.22728035 -0.39031398
-0.046995331 -0.227284 -0.39039865
-0.071413003 -0.22701401 -0.390396
-0.07127367 -0.22707377 -0.39038759
-0.071058333 -0.22710867 -0.39034966
-0.070877738 -0.22711965 -0.39030749
-0.070753559 -0.22710943 -0.39025003
-0.070566997 -0.227108 -0.39020899
-0.0472125 -0.22709599 -0.39026099
-0.047130499 -0.22709833 -0.39031601
-0.046987999 -0.227138 -0.39039999
-0.071461171 -0.22690465 -0.39038101
-0.071320169 -0.22687857 -0.39036176
-0.071122169 -0.22689234 -0.39032483
-0.070873789 -0.22691102 -0.3902615
-0.070744075 -0.22691314 -0.39022398
-0.047263402 -0.2269274 -0.39022762
-0.047128603 -0.2269088 -0.390311
-0.0469785 -0.22695599 -0.390394
-0.071627997 -0.226716 -0.39037433
-0.071468867 -0.22673544 -0.39035702
-0.071329698 -0.2266988 -0.39032909
-0.071112834 -0.22667849 -0.39028382
-0.070876256 -0.22669102 -0.390228
-0.070778169 -0.22672315 -0.39021516
-0.047289997 -0.22669367 -0.39020833
