# .PCD v0.7 - Point Cloud Data file format
VERSION 0.7
FIELDS x y z
SIZE 4 4 4
TYPE F F F
COUNT 1 1 1
WIDTH 1396
HEIGHT 1
VIEWPOINT 0 0 0 1 0 0 0
POINTS 1396
DATA ascii
-0.056150001 0.011444 -0.258324
-0.056146 0.01152 -0.25832999
-0.056143001 0.011595 -0.258342
-0.056139998 0.011671 -0.25834799
-0.056136999 0.011747 -0.25834799
-0.056134 0.01182 -0.25834301
-0.056131002 0.011896 -0.25834101
-0.056127999 0.011972 -0.25833499
-0.056125 0.012046 -0.25833699
-0.056120999 0.012122 -0.25835001
-0.056118 0.012198 -0.25835001
-0.056116 0.012272 -0.25834
-0.056113001 0.012348 -0.25833401
-0.056109998 0.012424 -0.25833401
-0.056107 0.0125 -0.25833699
-0.056104001 0.012574 -0.25834101
-0.056101002 0.01265 -0.25834301
-0.056097999 0.012726 -0.25834301
-0.056095 0.0128 -0.258338
-0.056092001 0.012876 -0.258338
-0.056088999 0.012952 -0.258342
-0.056086 0.013026 -0.25834599
-0.056081999 0.013102 -0.25834599
-0.056079999 0.013178 -0.25834501
-0.056077 0.013254 -0.25834301
-0.056072999 0.013328 -0.258347
-0.05607 0.013402 -0.25835699
-0.056067001 0.013478 -0.258362
-0.056063998 0.013554 -0.258356
-0.056062002 0.01363 -0.25834399
-0.056058999 0.013705 -0.25834
-0.056056 0.01378 -0.25834399
-0.056051999 0.013856 -0.25835299
-0.056049 0.01393 -0.25836101
-0.056046002 0.014006 -0.25835699
-0.056042999 0.014082 -0.25835299
-0.05604 0.014156 -0.25836
-0.056035999 0.014232 -0.25837401
-0.056033 0.014308 -0.25838
-0.056030001 0.014382 -0.258376
-0.056026999 0.014458 -0.25837201
-0.056024 0.014534 -0.258371
-0.056021001 0.014608 -0.25837299
-0.056017999 0.014684 -0.258371
-0.056014001 0.01476 -0.25838301
-0.056010999 0.014834 -0.258387
-0.056008998 0.01491 -0.258376
-0.056005999 0.014986 -0.25837401
-0.056003001 0.01506 -0.25838
-0.056000002 0.015136 -0.25838
-0.055996001 0.015212 -0.258389
-0.055992998 0.015286 -0.25839701
-0.055989999 0.015362 -0.25840101
-0.055985998 0.015436 -0.25840899
-0.055983 0.015512 -0.258421
-0.055978999 0.015586 -0.25843
-0.055976 0.015663 -0.25844201
-0.055971999 0.015737001 -0.25846201
-0.055968001 0.015813001 -0.25848001
-0.055964001 0.015888 -0.25850201
-0.055959001 0.015961999 -0.25852901
-0.055955 0.016039001 -0.25856099
-0.055950001 0.016114 -0.25859499
-0.055946 0.016187999 -0.25861901
-0.055941999 0.016264999 -0.258645
-0.055937 0.016339 -0.25867999
-0.055932 0.016414 -0.258724
-0.055927001 0.016491 -0.25876799
-0.055922002 0.016566001 -0.258802
-0.055916 0.016641 -0.258858
-0.055909999 0.016717 -0.25893599
-0.055904001 0.016791999 -0.258995
-0.055897001 0.016868001 -0.259069
-0.055890001 0.016943 -0.25914899
-0.056185 -0.002785 -0.25915101
-0.056184001 -0.0027030001 -0.25909501
-0.056182999 -0.0026209999 -0.25905499
-0.056180999 -0.002544 -0.259036
-0.056178 -0.0024659999 -0.259018
-0.056175999 -0.002387 -0.25899401
-0.056173999 -0.0023080001 -0.258968
-0.056173 -0.002228 -0.25893
-0.056171 -0.0021490001 -0.25890201
-0.056169 -0.0020709999 -0.25888699
-0.056166999 -0.001994 -0.258867
-0.056164 -0.001914 -0.25884899
-0.056162 -0.001839 -0.25884101
-0.056159001 -0.001763 -0.25883499
-0.056155998 -0.001687 -0.25882801
-0.056154002 -0.001609 -0.25882
-0.056150999 -0.001533 -0.25882
-0.056147002 -0.0014590001 -0.25882399
-0.056145001 -0.0013830001 -0.258818
-0.056141999 -0.0013070001 -0.25881499
-0.056139 -0.0012309999 -0.25881699
-0.056134999 -0.001157 -0.25882301
-0.056132 -0.001081 -0.258827
-0.056129001 -0.001007 -0.25883001
-0.056125998 -0.00093099999 -0.25882801
-0.056123 -0.00085499999 -0.25883001
-0.056120001 -0.00077899999 -0.25883001
-0.056116998 -0.000703 -0.25883001
-0.056113999 -0.00062900002 -0.25883099
-0.056111 -0.00055400003 -0.258827
-0.056108002 -0.000478 -0.25882301
-0.056104999 -0.00039999999 -0.25881499
-0.056102999 -0.00032399999 -0.258809
-0.0561 -0.000248 -0.25880799
-0.056097001 -0.000172 -0.25880399
-0.056093998 -9.6000003e-05 -0.2588
-0.056090999 -1.9999999e-05 -0.258798
-0.056088001 5.5e-05 -0.25879401
-0.056085002 0.00013099999 -0.258791
-0.056081999 0.000207 -0.258793
-0.056079 0.000283 -0.258793
-0.056076001 0.000359 -0.258791
-0.056074001 0.00043499999 -0.25878301
-0.056070998 0.00051300001 -0.25876799
-0.056069002 0.00059000001 -0.25875399
-0.056065999 0.00066600001 -0.25874799
-0.056063 0.000742 -0.25874799
-0.056060001 0.000818 -0.25874799
-0.056056999 0.00089199998 -0.25874701
-0.056054 0.00096999999 -0.25874099
-0.056051999 0.001046 -0.25873101
-0.056049 0.0011230001 -0.25872299
-0.056046002 0.001197 -0.25872001
-0.056042999 0.001275 -0.25871399
-0.056040999 0.001351 -0.25870201
-0.056038 0.001428 -0.25869
-0.056035001 0.001504 -0.25869
-0.056031998 0.001579 -0.258697
-0.056028999 0.001655 -0.258697
-0.056026001 0.00173 -0.25869101
-0.056023002 0.001806 -0.25868899
-0.056019999 0.001882 -0.25869101
-0.056017 0.001958 -0.258688
-0.056015 0.0020339999 -0.25867999
-0.056012001 0.00211 -0.258672
-0.056008998 0.0021860001 -0.25866801
-0.056005999 0.002263 -0.25866199
-0.056003999 0.0023370001 -0.258661
-0.056001 0.002413 -0.258661
-0.055996999 0.0024890001 -0.258661
-0.055994 0.002563 -0.25866899
-0.055991001 0.0026400001 -0.25867501
-0.055987999 0.002715 -0.25866801
-0.055985 0.0027910001 -0.25866601
-0.055982001 0.0028669999 -0.25867
-0.055978999 0.002941 -0.25867599
-0.055975001 0.0030179999 -0.25868201
-0.055971999 0.003092 -0.25869301
-0.055969 0.0031659999 -0.258697
-0.055966001 0.003242 -0.258697
-0.055962998 0.0033179999 -0.25869501
-0.055959001 0.003394 -0.25870001
-0.055955999 0.0034680001 -0.25870401
-0.055953 0.003544 -0.25871
-0.055950001 0.0036180001 -0.25871399
-0.055946998 0.003694 -0.25871101
-0.055943999 0.0037720001 -0.25870299
-0.055941001 0.0038459999 -0.25870699
-0.055938002 0.0039220001 -0.25870901
-0.055934999 0.0039969999 -0.258699
-0.055932 0.004073 -0.25870401
-0.055929001 0.0041499999 -0.25871399
-0.055925999 0.0042249998 -0.258706
-0.055923 0.0043009999 -0.25869599
-0.055920999 0.004377 -0.25869
-0.055918001 0.0044530001 -0.25868499
-0.055915002 0.0045289998 -0.258683
-0.055911999 0.0046049999 -0.258683
-0.055909 0.004681 -0.258681
-0.055906001 0.0047559999 -0.25867301
-0.055904001 0.004834 -0.25865999
-0.055902001 0.0049120001 -0.25864401
-0.055899002 0.004987 -0.25862399
-0.055897001 0.0050650002 -0.25860801
-0.055895001 0.0051409998 -0.258598
-0.055892002 0.0052180002 -0.25858101
-0.055890001 0.0052959998 -0.25856701
-0.055888001 0.0053710002 -0.258551
-0.055884998 0.0054469998 -0.25853699
-0.055883002 0.0055249999 -0.25852701
-0.055879999 0.0055999998 -0.25851199
-0.055877998 0.0056779999 -0.25849
-0.055876002 0.005754 -0.25847599
-0.055872999 0.0058289999 -0.25846601
-0.055870999 0.005907 -0.25845
-0.055868998 0.0059839999 -0.25843099
-0.055865999 0.00606 -0.258425
-0.055863 0.0061360002 -0.258423
-0.055861 0.0062119998 -0.25841299
-0.055858001 0.0062879999 -0.25839901
-0.055856001 0.0063649998 -0.25838
-0.055854 0.0064429999 -0.25836399
-0.055851001 0.006519 -0.25835201
-0.055849001 0.0065939999 -0.25834
-0.055845998 0.00667 -0.25833201
-0.055844001 0.0067460001 -0.25832501
-0.055840999 0.0068219998 -0.25831899
-0.055838 0.0068970001 -0.258311
-0.055835001 0.0069729998 -0.25830501
-0.055831999 0.0070489999 -0.258306
-0.055829 0.007125 -0.258302
-0.055826999 0.0072010001 -0.25829601
-0.055824 0.0072770002 -0.258288
-0.055821002 0.0073529999 -0.258284
-0.055819001 0.0074280002 -0.258275
-0.055815998 0.0075039999 -0.25827301
-0.055813 0.00758 -0.258275
-0.055810001 0.0076540001 -0.25826901
-0.055806998 0.0077300002 -0.258259
-0.055803999 0.0078059998 -0.25825799
-0.055801 0.0078800004 -0.25827199
-0.055798002 0.007956 -0.25827599
-0.055794999 0.0080319997 -0.258266
-0.055792 0.0081080003 -0.258261
-0.055789001 0.0081839999 -0.25827101
-0.055785 0.008258 -0.258279
-0.055782001 0.0083339997 -0.258277
-0.055780001 0.0084079998 -0.25827101
-0.055776998 0.0084840003 -0.25827399
-0.055773001 0.00856 -0.25827801
-0.055769999 0.0086340001 -0.258286
-0.055767 0.0087099997 -0.258288
-0.055764001 0.0087839998 -0.25828499
-0.055760998 0.0088600004 -0.25828499
-0.055757999 0.0089360001 -0.25828701
-0.055755001 0.0090100002 -0.25828499
-0.055752002 0.0090880003 -0.25828099
-0.055748999 0.0091620004 -0.25827801
-0.055746 0.009238 -0.25828201
-0.055743001 0.0093120001 -0.25828999
-0.055739 0.0093879998 -0.25829399
-0.055736002 0.0094619999 -0.25829601
-0.055732999 0.0095380004 -0.25830299
-0.05573 0.0096119996 -0.25830901
-0.055727001 0.0096880002 -0.258311
-0.055723 0.0097620003 -0.25831699
-0.055720001 0.0098379999 -0.258324
-0.055716999 0.0099139996 -0.25832
-0.055714 0.0099879997 -0.258322
-0.055711001 0.010064 -0.25833401
-0.055707 0.010139 -0.25834799
-0.055704001 0.010215 -0.258351
-0.055700999 0.010288 -0.258347
-0.055698 0.010364 -0.25834501
-0.055695001 0.01044 -0.25834101
-0.055691998 0.010516 -0.258347
-0.055689 0.01059 -0.25835201
-0.055686001 0.010666 -0.25834599
-0.055682998 0.010742 -0.25834
-0.055679999 0.010818 -0.25834399
-0.055677 0.010892 -0.258349
-0.055674002 0.010968 -0.25834301
-0.055670999 0.011044 -0.25834101
-0.055668 0.011118 -0.258347
-0.055663999 0.011194 -0.25835899
-0.055661 0.011268 -0.25836599
-0.055658001 0.011344 -0.25836399
-0.055654999 0.01142 -0.258362
-0.055652 0.011494 -0.25836399
-0.055649001 0.01157 -0.258371
-0.055645999 0.011646 -0.25836101
-0.055644002 0.011722 -0.258349
-0.055640999 0.011798 -0.258349
-0.055636998 0.011872 -0.25836101
-0.055633999 0.011948 -0.258358
-0.055631001 0.012024 -0.258356
-0.055627 0.012098 -0.25837201
-0.055624001 0.012172 -0.258378
-0.055622 0.012248 -0.258369
-0.055619001 0.012324 -0.258367
-0.055615 0.0124 -0.258371
-0.055612002 0.012476 -0.258369
-0.055610001 0.01255 -0.258369
-0.055606 0.012626 -0.25837001
-0.055603001 0.012702 -0.25837001
-0.055599999 0.012776 -0.25837401
-0.055597 0.012852 -0.25838801
-0.055592999 0.012926 -0.258394
-0.05559 0.013002 -0.25839901
-0.055587001 0.013076 -0.258407
-0.055583999 0.013152 -0.25840899
-0.055580001 0.013228 -0.25841099
-0.055576999 0.013302 -0.25841799
-0.055574 0.013378 -0.25842199
-0.055571001 0.013454 -0.258416
-0.055569001 0.013528 -0.25840801
-0.055565 0.013604 -0.25841001
-0.055562001 0.01368 -0.25841901
-0.055558998 0.013754 -0.25841299
-0.055557001 0.01383 -0.258405
-0.055553999 0.013906 -0.258405
-0.055551 0.013982 -0.25839901
-0.055548001 0.014058 -0.258398
-0.055544998 0.014132 -0.258398
-0.055542 0.014208 -0.25840199
-0.055539001 0.014284 -0.25840399
-0.055535998 0.01436 -0.258403
-0.055532001 0.014434 -0.25840899
-0.055528998 0.014508 -0.25841901
-0.055526 0.014584 -0.258421
-0.055523001 0.01466 -0.258423
-0.055519 0.014736 -0.25842601
-0.055516999 0.01481 -0.25842401
-0.055514 0.014885 -0.258412
-0.055512 0.014961 -0.25840199
-0.055509001 0.015037 -0.258403
-0.055505 0.015111 -0.25840899
-0.055502001 0.015187 -0.25841501
-0.055498999 0.015262 -0.258423
-0.055495001 0.015338 -0.258425
-0.055491999 0.015414 -0.25843
-0.055489 0.015488 -0.25843999
-0.055486001 0.015564 -0.25844201
-0.055482 0.015637999 -0.258452
-0.055477999 0.015714001 -0.25847
-0.055475 0.015789 -0.25848299
-0.055470999 0.015865 -0.258495
-0.055466998 0.015938999 -0.258513
-0.055461999 0.016014 -0.258549
-0.055458002 0.016091 -0.25858101
-0.055454001 0.016164999 -0.25860399
-0.05545 0.016240999 -0.25862199
-0.055445999 0.016316 -0.25864801
-0.055441 0.016391 -0.25869
-0.055435002 0.016468 -0.25873601
-0.055431001 0.016542001 -0.258773
-0.055424999 0.016617 -0.25881901
-0.055419002 0.016693 -0.258883
-0.055413 0.016767999 -0.25894701
-0.05573 -0.002257 -0.25898901
-0.055728 -0.0021800001 -0.25896701
-0.055725999 -0.0020999999 -0.25894499
-0.055723999 -0.002023 -0.25892499
-0.055721 -0.001947 -0.25892001
-0.055718001 -0.001871 -0.25892001
-0.055714998 -0.001795 -0.25891399
-0.055713002 -0.0017190001 -0.258908
-0.055709999 -0.0016430001 -0.25890601
-0.055707 -0.001566 -0.258901
-0.055704001 -0.001492 -0.25889701
-0.055700999 -0.001416 -0.258899
-0.055698 -0.00134 -0.258903
-0.055695001 -0.001266 -0.25890601
-0.055691 -0.00119 -0.25891
-0.055689 -0.001114 -0.25890401
-0.055686001 -0.001038 -0.25889599
-0.055682998 -0.00096199999 -0.25889799
-0.055679999 -0.00088599999 -0.258903
-0.055677 -0.00081 -0.258903
-0.055672999 -0.00073600002 -0.25890899
-0.055670001 -0.00066000002 -0.25890899
-0.055667002 -0.00058400002 -0.25890699
-0.055663999 -0.00050999998 -0.25891399
-0.055661 -0.00043399999 -0.25891399
-0.055658001 -0.00035799999 -0.258908
-0.055654999 -0.00028199999 -0.25890601
-0.055652 -0.000206 -0.25890601
-0.05565 -0.00013 -0.258901
-0.055647001 -5.1999999e-05 -0.25889501
-0.055644002 2.2e-05 -0.25889501
-0.055640999 9.6999996e-05 -0.25889301
-0.055638 0.00017299999 -0.25889099
-0.055635002 0.000249 -0.258892
-0.055631999 0.00032699999 -0.25888601
-0.055629 0.00040300001 -0.25887799
-0.055626001 0.00047900001 -0.258876
-0.055622999 0.00055499998 -0.25887799
-0.055620998 0.00063099997 -0.25887099
-0.055617999 0.00070700003 -0.258865
-0.055615 0.00078200002 -0.25885901
-0.055612002 0.00085800001 -0.25885499
-0.055608999 0.00093400001 -0.258854
-0.055606 0.00101 -0.258854
-0.055603001 0.001086 -0.25885001
-0.055601001 0.001162 -0.25884601
-0.055597998 0.00124 -0.25883999
-0.055594999 0.001316 -0.25883299
-0.055592 0.001391 -0.25883099
-0.055589002 0.001467 -0.258829
-0.055585999 0.001543 -0.258825
-0.055583 0.001619 -0.25882301
-0.055581 0.001695 -0.25882
-0.055578001 0.001771 -0.258818
-0.055574998 0.001847 -0.258818
-0.055571999 0.001923 -0.25881201
-0.055569001 0.0019990001 -0.25881201
-0.055566002 0.002075 -0.25881299
-0.055562999 0.0021500001 -0.25880501
-0.05556 0.002228 -0.25879499
-0.055558 0.0023040001 -0.25878701
-0.055553999 0.0023779999 -0.258793
-0.055551 0.0024540001 -0.25879601
-0.055548999 0.0025299999 -0.25878799
-0.055546001 0.0026060001 -0.25878599
-0.055542 0.0026799999 -0.258798
-0.055539001 0.002756 -0.25880599
-0.055535998 0.0028319999 -0.258807
-0.055532999 0.002908 -0.25880501
-0.05553 0.0029839999 -0.25879499
-0.055527002 0.00306 -0.258789
-0.055523999 0.0031340001 -0.258802
-0.055520002 0.00321 -0.25881401
-0.055516999 0.0032840001 -0.25881401
-0.055514 0.00336 -0.25882
-0.055511001 0.0034340001 -0.25882801
-0.055507999 0.00351 -0.258825
-0.055505 0.0035860001 -0.258825
-0.055500999 0.0036619999 -0.25883499
-0.055497002 0.0037370001 -0.25885099
-0.055493999 0.0038109999 -0.25886101
-0.055491 0.003887 -0.25886601
-0.055488002 0.0039630001 -0.25886199
-0.055484999 0.0040389998 -0.258858
-0.055482 0.0041149999 -0.25885999
-0.055479001 0.004189 -0.258863
-0.055475999 0.0042650001 -0.25886101
-0.055473 0.00434 -0.25885701
-0.055470001 0.0044180001 -0.25884899
-0.055468 0.0044959998 -0.25883299
-0.055466 0.0045719999 -0.25882199
-0.055463001 0.004648 -0.25882
-0.055459999 0.0047229999 -0.258816
-0.055457 0.004801 -0.258802
-0.055454999 0.0048770001 -0.25878999
-0.055452 0.004954 -0.25877899
-0.05545 0.0050300001 -0.25876701
-0.055447001 0.0051060002 -0.25876299
-0.055445001 0.0051819999 -0.258751
-0.055442002 0.0052590002 -0.258737
-0.055440001 0.0053349999 -0.258728
-0.055436999 0.005411 -0.25871801
-0.055435002 0.0054890001 -0.25870401
-0.055431999 0.005564 -0.25869399
-0.055429 0.0056420001 -0.25869
-0.055427 0.0057179998 -0.25867301
-0.055424999 0.0057950001 -0.25865099
-0.055422999 0.0058729998 -0.258625
-0.055420998 0.0059500001 -0.25859299
-0.055419002 0.006027 -0.258571
-0.055417001 0.0061050002 -0.25855601
-0.055415001 0.0061809998 -0.25853601
-0.055411998 0.0062580002 -0.258526
-0.055410001 0.0063339998 -0.258508
-0.055408001 0.0064110002 -0.258488
-0.055404998 0.0064869998 -0.258479
-0.055403002 0.0065629999 -0.25846899
-0.055401001 0.0066399998 -0.25845101
-0.055397999 0.0067159999 -0.25843501
-0.055396002 0.006794 -0.258425
-0.055392999 0.0068689999 -0.258412
-0.055390999 0.006945 -0.258398
-0.055388 0.0070210001 -0.25839201
-0.055385999 0.0070969998 -0.25838199
-0.055383001 0.0071749999 -0.25837401
-0.055380002 0.0072499998 -0.258371
-0.055376999 0.0073239999 -0.258369
-0.055374 0.007402 -0.25836301
-0.055372 0.0074760001 -0.25835699
-0.055369001 0.0075520002 -0.25835699
-0.055365998 0.0076279999 -0.25835001
-0.055364002 0.0077030002 -0.25833601
-0.055360001 0.0077800001 -0.258342
-0.055357002 0.0078560002 -0.25834399
-0.055355001 0.0079309996 -0.258333
-0.055351999 0.0080070002 -0.25832301
-0.055349 0.0080829998 -0.25832099
-0.055346001 0.0081590004 -0.25831699
-0.055342998 0.0082350001 -0.258315
-0.055339999 0.0083109997 -0.25831601
-0.055337001 0.0083849998 -0.25831601
-0.055334002 0.0084610004 -0.25831601
-0.055330999 0.008537 -0.25831401
-0.055328 0.0086110001 -0.25831899
-0.055325001 0.0086869998 -0.25832501
-0.055321999 0.0087609999 -0.258329
-0.055319 0.0088369995 -0.258329
-0.055316001 0.0089130001 -0.258329
-0.055312999 0.0089870002 -0.25833201
-0.055309001 0.0090629999 -0.25833401
-0.055305999 0.009137 -0.25833601
-0.055303 0.0092129996 -0.258338
-0.055300001 0.0092890002 -0.258342
-0.055296998 0.0093630003 -0.25834301
-0.055294 0.0094389999 -0.25834101
-0.055291001 0.0095149996 -0.25833699
-0.055287998 0.0095899999 -0.25833499
-0.055284999 0.0096659996 -0.25833601
-0.055282 0.0097399997 -0.25834
-0.055279002 0.0098169995 -0.25835001
-0.055275999 0.0098909996 -0.25834799
-0.055273 0.009966 -0.25834399
-0.055268999 0.010043 -0.25835499
-0.055266 0.010117 -0.25836301
-0.055263001 0.010191 -0.258371
-0.055259001 0.010267 -0.25838301
-0.055256002 0.010341 -0.25838599
-0.055252999 0.010417 -0.258378
-0.05525 0.010493 -0.25838
-0.055247001 0.010569 -0.25838599
-0.055243999 0.010643 -0.25838599
-0.055240002 0.010719 -0.25839299
-0.055236999 0.010795 -0.25839901
-0.055234 0.010869 -0.25839901
-0.055231001 0.010945 -0.25839701
-0.055227999 0.011021 -0.25839901
-0.055225 0.011095 -0.258398
-0.055222001 0.011171 -0.25840399
-0.055218 0.011245 -0.258414
-0.055215001 0.011321 -0.258412
-0.055213001 0.011397 -0.258405
-0.055210002 0.011473 -0.258405
-0.055206999 0.011549 -0.258405
-0.055202998 0.011623 -0.25841501
-0.055199999 0.011699 -0.258423
-0.055197001 0.011773 -0.25841999
-0.055194002 0.011849 -0.258416
-0.055190999 0.011925 -0.258416
-0.055188 0.011999 -0.25841799
-0.055183999 0.012075 -0.25843599
-0.055179998 0.01215 -0.25845501
-0.055176999 0.012224 -0.25845501
-0.055174999 0.012301 -0.258441
-0.055172 0.012375 -0.25843501
-0.055169001 0.012451 -0.258448
-0.055165 0.012526 -0.25845999
-0.055162001 0.012602 -0.25846201
-0.055158999 0.012677 -0.25845399
-0.055156 0.012753 -0.25845399
-0.055153001 0.012828 -0.25846899
-0.055149 0.012904 -0.258481
-0.055146001 0.012978 -0.25848299
-0.055142999 0.013054 -0.25847501
-0.05514 0.01313 -0.25847399
-0.055137001 0.013206 -0.25848001
-0.055133998 0.01328 -0.258488
-0.055130001 0.013356 -0.25849399
-0.055126999 0.01343 -0.25849599
-0.055124 0.013506 -0.25850901
-0.055119999 0.01358 -0.25852501
-0.055117 0.013656 -0.25852099
-0.055114001 0.013732 -0.25851101
-0.055110998 0.013808 -0.258517
-0.055108 0.013882 -0.258524
-0.055105001 0.013958 -0.25851199
-0.055103 0.014034 -0.258504
-0.055098999 0.01411 -0.258508
-0.055096999 0.014186 -0.25850701
-0.055094 0.014262 -0.258499
-0.055091001 0.014337 -0.258495
-0.055087999 0.014412 -0.25850099
-0.055085 0.014487 -0.25850099
-0.055082001 0.014563 -0.25849801
-0.055078998 0.014637 -0.25849199
-0.055077001 0.014713 -0.25848401
-0.055073999 0.014789 -0.25847399
-0.055071 0.014865 -0.258472
-0.055068001 0.014939 -0.25847501
-0.055064999 0.015015 -0.25847301
-0.055062 0.015091 -0.25847101
-0.055059001 0.015167 -0.25847301
-0.055055998 0.015241 -0.25848001
-0.055052001 0.015317 -0.25850001
-0.055048 0.015391 -0.25851801
-0.055043999 0.015468 -0.25852999
-0.055041 0.015542 -0.25853801
-0.055036999 0.015616 -0.25856099
-0.055032 0.015693 -0.258587
-0.055029001 0.015767001 -0.25859499
-0.055025999 0.015843 -0.25860101
-0.055022001 0.015919 -0.25862101
-0.055018 0.015993999 -0.25864601
-0.055013999 0.016070001 -0.25866401
-0.055009998 0.016144 -0.25867599
-0.055006001 0.016221 -0.25869399
-0.055002 0.016295001 -0.25872001
-0.053261001 -0.0031930001 -0.25964701
-0.053261999 -0.0031039999 -0.25955299
-0.053259999 -0.003024 -0.25951701
-0.053261999 -0.002935 -0.25940901
-0.053261001 -0.0028520001 -0.25934699
-0.053259999 -0.0027709999 -0.259307
-0.053259 -0.002688 -0.25925899
-0.053258002 -0.0026090001 -0.25922301
-0.053256001 -0.0025279999 -0.25918001
-0.053254999 -0.002447 -0.25913399
-0.053252999 -0.0023680001 -0.25910801
-0.053250998 -0.00229 -0.25909001
-0.053249002 -0.0022120001 -0.259074
-0.053247001 -0.0021329999 -0.259056
-0.053243998 -0.002055 -0.259036
-0.053242002 -0.0019779999 -0.25901499
-0.053240001 -0.0019 -0.25900301
-0.053236999 -0.001824 -0.25900099
-0.053234 -0.001748 -0.25900501
-0.053231001 -0.001672 -0.25899899
-0.053227998 -0.0015970001 -0.25898999
-0.053224999 -0.0015210001 -0.25899401
-0.053222001 -0.001446 -0.259004
-0.053218 -0.00137 -0.25900999
-0.053215001 -0.001294 -0.25900701
-0.053213 -0.001219 -0.25899699
-0.053210001 -0.001143 -0.258995
-0.053206999 -0.001067 -0.25900099
-0.053203002 -0.00099199999 -0.25901499
-0.053199999 -0.00091800001 -0.25902
-0.053197 -0.000841 -0.25900999
-0.053194001 -0.000765 -0.259004
-0.053190999 -0.00068900001 -0.25900599
-0.053188 -0.00061300001 -0.25900599
-0.053185001 -0.00053700001 -0.25900301
-0.053183001 -0.00046099999 -0.258993
-0.053180002 -0.00038300001 -0.25898501
-0.053176999 -0.00030700001 -0.25898099
-0.053174 -0.00023200001 -0.25897899
-0.053172 -0.00015599999 -0.25897399
-0.053169001 -7.7999997e-05 -0.258966
-0.053165998 -2e-06 -0.258964
-0.053162999 7.2000003e-05 -0.258968
-0.053160001 0.00015000001 -0.258966
-0.053157002 0.000226 -0.258955
-0.053153999 0.000302 -0.25895101
-0.053151 0.000378 -0.258955
-0.053148001 0.00045200001 -0.25896299
-0.053144 0.000528 -0.25897101
-0.053141002 0.000604 -0.25897399
-0.053137999 0.00067799998 -0.25897601
-0.053135 0.00075399998 -0.25898001
-0.053132001 0.00082999998 -0.258982
-0.053128 0.00090599997 -0.25898701
-0.053125001 0.00098000001 -0.258991
-0.053121999 0.001056 -0.25898901
-0.053119998 0.001134 -0.25897899
-0.053117 0.00121 -0.258977
-0.053114001 0.001286 -0.25897801
-0.053111002 0.001362 -0.25897801
-0.053107001 0.001436 -0.258986
-0.053103998 0.001512 -0.25898999
-0.053100999 0.001588 -0.258982
-0.053098001 0.001665 -0.25897899
-0.053095002 0.001739 -0.25898099
-0.053091999 0.001816 -0.25898501
-0.053089 0.001892 -0.25898901
-0.053086001 0.0019660001 -0.258993
-0.053082999 0.0020419999 -0.25899801
-0.05308 0.0021180001 -0.25899601
-0.053077001 0.0021939999 -0.25899601
-0.053073 0.002268 -0.259002
-0.053070001 0.0023439999 -0.25900701
-0.053066999 0.00242 -0.259009
-0.053064 0.0024959999 -0.25900501
-0.053061001 0.002571 -0.25899699
-0.053057998 0.0026469999 -0.25900301
-0.053055 0.002724 -0.25900999
-0.053052001 0.0027989999 -0.25900799
-0.053049002 0.002874 -0.25901201
-0.053045001 0.0029500001 -0.25901601
-0.053041998 0.003026 -0.259022
-0.053038001 0.0031000001 -0.25903499
-0.053034998 0.003176 -0.25904101
-0.053032 0.0032520001 -0.25903901
-0.053029001 0.0033259999 -0.25904301
-0.053025998 0.0034020001 -0.259049
-0.053022999 0.0034779999 -0.25905001
-0.05302 0.0035540001 -0.25904801
-0.053017002 0.0036299999 -0.25905001
-0.053013999 0.003706 -0.25905001
-0.053011 0.0037819999 -0.25904801
-0.053006999 0.003858 -0.259051
-0.053004 0.0039340002 -0.259049
-0.053002 0.0040099998 -0.259047
-0.052999001 0.0040859999 -0.25904301
-0.052995998 0.0041629998 -0.25903699
-0.052993 0.0042369999 -0.259038
-0.052990001 0.004315 -0.25903401
-0.052988 0.0043910001 -0.25901601
-0.052985001 0.0044689998 -0.259002
-0.052981999 0.0045440001 -0.259
-0.052979 0.0046199998 -0.25900301
-0.052976001 0.0046959999 -0.25900701
-0.052972998 0.004772 -0.25900701
-0.05297 0.0048480001 -0.25899899
-0.052967001 0.0049239998 -0.25899699
-0.052965 0.0049999999 -0.25899199
-0.052962001 0.005078 -0.25898001
-0.052958999 0.0051540001 -0.25897801
-0.052956 0.0052299998 -0.25898001
-0.052953001 0.0053050001 -0.25897199
-0.052951001 0.0053829998 -0.258955
-0.052949 0.0054589999 -0.25894499
-0.052946001 0.005537 -0.258937
-0.052942999 0.0056119999 -0.25892299
-0.052940998 0.00569 -0.25891101
-0.052937999 0.0057660001 -0.25890601
-0.052935001 0.0058419998 -0.25890201
-0.052933 0.0059170001 -0.258894
-0.052930001 0.0059930002 -0.25889
-0.052926999 0.0060689999 -0.258885
-0.052924 0.006147 -0.25887701
-0.052921001 0.0062230001 -0.25887701
-0.052917998 0.0062970002 -0.258881
-0.052914999 0.0063729999 -0.25887501
-0.052912999 0.006451 -0.25886601
-0.05291 0.0065259999 -0.25886399
-0.052907001 0.006602 -0.25885999
-0.052905001 0.0066780001 -0.25884601
-0.052901998 0.0067560002 -0.258836
-0.052898999 0.0068319999 -0.25883299
-0.052896999 0.0069070002 -0.25881901
-0.052894 0.0069849999 -0.258809
-0.052891001 0.007061 -0.258809
-0.052887999 0.0071350001 -0.25880501
-0.052886002 0.0072130002 -0.25879201
-0.052882999 0.0072880001 -0.25878
-0.05288 0.0073660002 -0.25877401
-0.052878 0.0074419999 -0.25876799
-0.052875001 0.007518 -0.25876001
-0.052871998 0.0075940001 -0.25876299
-0.052869 0.0076700002 -0.25876701
-0.052866001 0.0077450001 -0.258755
-0.052864 0.0078210002 -0.25874299
-0.052861001 0.0078969998 -0.25873899
-0.052857999 0.0079730004 -0.25873601
-0.052855 0.0080509996 -0.258726
-0.052852999 0.0081259999 -0.25872001
-0.052850001 0.0082019996 -0.25871599
-0.052847002 0.0082780002 -0.25871
-0.052843999 0.0083539998 -0.25870699
-0.052841 0.0084300004 -0.258701
-0.052838001 0.008506 -0.258701
-0.052836001 0.0085819997 -0.25869501
-0.052832998 0.0086580003 -0.25869
-0.052829999 0.0087339999 -0.258692
-0.052827001 0.008808 -0.25869599
-0.052823 0.0088839997 -0.25870401
-0.052820001 0.0089579998 -0.258708
-0.052816998 0.0090340003 -0.25870699
-0.052813999 0.00911 -0.25871101
-0.052811 0.0091859996 -0.25870901
-0.052808002 0.009261 -0.258697
-0.052806001 0.0093369996 -0.25869301
-0.052802 0.0094130002 -0.25870401
-0.052799001 0.0094879996 -0.25871599
-0.052795 0.0095640002 -0.258728
-0.052792002 0.0096399998 -0.258726
-0.052788999 0.0097160004 -0.25872001
-0.052786998 0.0097909998 -0.25870901
-0.052784 0.0098670004 -0.25870499
-0.052779999 0.0099419998 -0.25872099
-0.052777 0.010018 -0.25872499
-0.052774001 0.010093 -0.25871599
-0.052772 0.010169 -0.258708
-0.052767999 0.010245 -0.25871199
-0.052765001 0.010319 -0.25872001
-0.052762002 0.010395 -0.25872201
-0.052758999 0.010471 -0.25872099
-0.052756 0.010547 -0.258715
-0.052753001 0.010623 -0.258715
-0.052749999 0.010699 -0.25872299
-0.052747 0.010775 -0.25872499
-0.052744001 0.010851 -0.25872001
-0.052740999 0.010925 -0.25871399
-0.052738 0.011003 -0.25871399
-0.052735001 0.011077 -0.25872001
-0.052731998 0.011153 -0.25871801
-0.052728999 0.011229 -0.25870901
-0.052726999 0.011304 -0.258697
-0.052724998 0.011382 -0.25867501
-0.052722 0.011458 -0.25866899
-0.052717999 0.011532 -0.258692
-0.052714001 0.011606 -0.258706
-0.052712001 0.011682 -0.25869399
-0.052708998 0.01176 -0.25868401
-0.052707002 0.011834 -0.25867599
-0.052703999 0.011911 -0.25867099
-0.052701 0.011985 -0.25867501
-0.052698001 0.012062 -0.25867701
-0.052694999 0.012137 -0.25867099
-0.052692 0.012213 -0.258665
-0.052689001 0.012289 -0.25865999
-0.052687 0.012365 -0.258652
-0.052684002 0.012439 -0.258654
-0.052680001 0.012515 -0.25866401
-0.052677002 0.012591 -0.25866899
-0.052673999 0.012667 -0.25866699
-0.052671 0.012743 -0.25866699
-0.052668002 0.012817 -0.258665
-0.052664999 0.012893 -0.258661
-0.052662 0.012969 -0.25866401
-0.052659001 0.013045 -0.25867
-0.052655999 0.013121 -0.25866801
-0.052653 0.013196 -0.258654
-0.052650999 0.013272 -0.25864401
-0.052648 0.013348 -0.258645
-0.052645002 0.013424 -0.25864699
-0.052641999 0.013498 -0.25864699
-0.052638002 0.013574 -0.25864899
-0.052634999 0.01365 -0.258654
-0.052632 0.013724 -0.258654
-0.052629001 0.013802 -0.25864801
-0.052627001 0.013876 -0.25864401
-0.052623998 0.013952 -0.258636
-0.052621 0.014027 -0.25863099
-0.052618001 0.014104 -0.25863901
-0.052614 0.01418 -0.258643
-0.052611999 0.014254 -0.258641
-0.052609 0.014329 -0.25863701
-0.052606001 0.014405 -0.258632
-0.052604001 0.014481 -0.258618
-0.052600998 0.014557 -0.25861001
-0.052598 0.014633 -0.25861001
-0.052595001 0.014709 -0.25861099
-0.052592002 0.014783 -0.25861901
-0.052588999 0.014859 -0.25861701
-0.052586 0.014934 -0.258605
-0.052583002 0.015011 -0.258609
-0.052579999 0.015085 -0.258616
-0.052577 0.015161 -0.258618
-0.052572999 0.015237 -0.25861999
-0.05257 0.015313 -0.25862199
-0.052567001 0.015387 -0.25862801
-0.052563 0.015463 -0.258645
-0.052559 0.015539 -0.25866699
-0.052554999 0.015614 -0.258683
-0.052552 0.015690001 -0.25869301
-0.052547999 0.015764 -0.25870499
-0.052544001 0.015841 -0.258724
-0.052540001 0.015915001 -0.25875199
-0.052536 0.015992001 -0.25877601
-0.052531999 0.016068 -0.25879201
-0.052528001 0.016142 -0.25880799
-0.052524 0.016217001 -0.25883099
-0.052519001 0.016293 -0.258863
-0.052515 0.01637 -0.25889099
-0.052510999 0.016445 -0.258921
-0.052505001 0.016519999 -0.258977
-0.052499 0.016595 -0.259036
-0.052494001 0.016672 -0.25907999
-0.052487999 0.016747 -0.25913799
-0.052480999 0.016825 -0.25921401
-0.052475002 0.016899999 -0.259278
-0.052469999 0.016975001 -0.25932401
-0.052464999 0.017052 -0.259368
-0.053011999 -0.003208 -0.259644
-0.053011999 -0.003124 -0.25957599
-0.053013001 -0.0030360001 -0.259482
-0.053013001 -0.0029519999 -0.259408
-0.053013001 -0.002869 -0.25935
-0.053013001 -0.002783 -0.25926599
-0.053013001 -0.0026980001 -0.259202
-0.053011999 -0.0026169999 -0.25916401
-0.053010002 -0.002538 -0.25912899
-0.053009 -0.0024570001 -0.259087
-0.053006999 -0.0023779999 -0.25905499
-0.053006001 -0.002298 -0.25902301
-0.053002998 -0.0022189999 -0.25900301
-0.053001001 -0.002141 -0.25898501
-0.052999001 -0.0020639999 -0.258968
-0.052997001 -0.001986 -0.25895
-0.052995 -0.001907 -0.258928
-0.052992001 -0.001831 -0.25891399
-0.052990001 -0.001753 -0.25890401
-0.052987002 -0.001677 -0.25889799
-0.052983999 -0.001602 -0.25889099
-0.052981 -0.001524 -0.258883
-0.052978002 -0.001448 -0.258885
-0.052974999 -0.001374 -0.25889099
-0.052972 -0.001298 -0.25889599
-0.052969001 -0.001224 -0.258894
-0.052965999 -0.001148 -0.25889599
-0.052963 -0.001072 -0.25889999
-0.052960001 -0.00099600002 -0.25889999
-0.052956998 -0.00092000002 -0.25889701
-0.052953999 -0.00084400002 -0.25889501
-0.052951001 -0.00076800003 -0.25889301
-0.052948002 -0.00069199997 -0.25888699
-0.052944999 -0.00061400002 -0.258881
-0.052942 -0.00053999998 -0.25888199
-0.052939001 -0.00046400001 -0.25888601
-0.052935999 -0.00038799999 -0.25889
-0.052933 -0.000313 -0.25887999
-0.052930001 -0.000235 -0.258872
-0.052928001 -0.000159 -0.25886899
-0.052925002 -8.5e-05 -0.258867
-0.052921999 -9.0000003e-06 -0.25886899
-0.052917998 6.7000001e-05 -0.25887099
-0.052916002 0.000143 -0.25886899
-0.052912999 0.00021899999 -0.25886801
-0.052909002 0.00029500001 -0.25887001
-0.052905999 0.000371 -0.258872
-0.052903 0.00044500001 -0.258872
-0.052901 0.00052300002 -0.25886399
-0.052898001 0.00059900002 -0.25885901
-0.052894998 0.00067500002 -0.258863
-0.052891001 0.00075100001 -0.258867
-0.052887999 0.000825 -0.258867
-0.052885 0.00090099999 -0.258874
-0.052882001 0.00097499997 -0.25888199
-0.052878998 0.001051 -0.25888401
-0.052875999 0.001127 -0.25888401
-0.052871998 0.001203 -0.25888601
-0.052869 0.001279 -0.258885
-0.052866001 0.001355 -0.258885
-0.052863002 0.0014290001 -0.25888699
-0.052859999 0.0015050001 -0.25888699
-0.052857 0.001581 -0.258885
-0.052854002 0.001657 -0.25889
-0.052850999 0.001733 -0.25889599
-0.052848 0.001807 -0.258894
-0.052845001 0.001885 -0.25889
-0.052841999 0.001959 -0.25889599
-0.052838001 0.0020349999 -0.258903
-0.052834999 0.002111 -0.25890499
-0.052832998 0.0021869999 -0.25889701
-0.052829999 0.002262 -0.25889501
-0.052825999 0.0023370001 -0.25890401
-0.052823 0.002413 -0.25891599
-0.052820001 0.0024890001 -0.25891599
-0.052816998 0.002565 -0.25891
-0.052813999 0.0026410001 -0.25891399
-0.052809998 0.002715 -0.25892299
-0.052807 0.0027910001 -0.25892699
-0.052804001 0.0028649999 -0.25893101
-0.052801002 0.002941 -0.25892901
-0.052797999 0.0030169999 -0.25893301
-0.052793998 0.003093 -0.25894001
-0.052790999 0.0031689999 -0.25894201
-0.052788001 0.003243 -0.258948
-0.052785002 0.0033189999 -0.25895399
-0.052781001 0.003393 -0.25896001
-0.052777998 0.0034690001 -0.25896701
-0.052774999 0.003545 -0.25896299
-0.052772 0.0036210001 -0.25896099
-0.052769002 0.003695 -0.258975
-0.052765001 0.0037720001 -0.258982
-0.052763 0.003847 -0.25897399
-0.052760001 0.0039249999 -0.258968
-0.052756999 0.0039989999 -0.25896999
-0.052753001 0.0040750001 -0.25897801
-0.052749999 0.0041510002 -0.258975
-0.052747998 0.0042289998 -0.25896499
-0.052745 0.004305 -0.25896901
-0.052740999 0.004379 -0.25898299
-0.052738 0.0044550002 -0.25897899
-0.052735999 0.0045309998 -0.258968
-0.052733 0.0046089999 -0.25895599
-0.052730002 0.0046839998 -0.25895199
-0.052726999 0.0047599999 -0.25895
-0.052724998 0.004836 -0.258944
-0.052722 0.0049140002 -0.258935
-0.052719001 0.0049899998 -0.25892499
-0.052717 0.0050679999 -0.258919
-0.052714001 0.005142 -0.258919
-0.052710999 0.0052169999 -0.25891101
-0.052708 0.005295 -0.25890401
-0.052705999 0.0053710002 -0.25889599
-0.052703001 0.0054489998 -0.25888401
-0.052701 0.0055240002 -0.258872
-0.052698001 0.0055999998 -0.258872
-0.052694999 0.0056759999 -0.25887299
-0.052692 0.005752 -0.258865
-0.052689001 0.0058280001 -0.25885901
-0.052685998 0.0059039998 -0.25885499
-0.052684002 0.0059810001 -0.25883701
-0.052680999 0.0060589998 -0.25882801
-0.052678 0.0061329999 -0.25883001
-0.052675001 0.006209 -0.25883001
-0.052671999 0.0062850001 -0.25882801
-0.052669 0.0063609998 -0.25882599
-0.052666999 0.0064369999 -0.25882101
-0.052664001 0.0065139998 -0.258811
-0.052661002 0.0065899999 -0.25880101
-0.052659001 0.006666 -0.25879699
-0.052655 0.0067420001 -0.25879899
-0.052653 0.0068180002 -0.25878799
-0.052650999 0.0068950001 -0.25876799
-0.052648 0.0069729998 -0.25875801
-0.052646 0.0070489999 -0.25874999
-0.052643001 0.007123 -0.25874799
-0.052639998 0.0072010001 -0.25874901
-0.052637 0.0072770002 -0.25874299
-0.052634001 0.0073520001 -0.25873899
-0.052630998 0.0074280002 -0.25873101
-0.052629001 0.0075039999 -0.25872001
-0.052625999 0.00758 -0.25872001
-0.052623 0.0076560001 -0.25871801
-0.052620001 0.0077320002 -0.25871199
-0.052616999 0.0078070001 -0.258706
-0.052615002 0.0078830002 -0.258699
-0.052611999 0.0079610003 -0.25869101
-0.052609 0.008037 -0.25869101
-0.052606001 0.0081129996 -0.25868899
-0.052602999 0.0081890002 -0.258683
-0.052600998 0.0082649998 -0.25867599
-0.052598 0.0083400002 -0.25866601
-0.052595999 0.0084159998 -0.258656
-0.052593 0.0084920004 -0.258654
-0.052588999 0.008568 -0.258656
-0.052586 0.0086420001 -0.258663
-0.052583002 0.0087179998 -0.258665
-0.052579999 0.0087940004 -0.25865901
-0.052577 0.00887 -0.25865701
-0.052574001 0.0089459997 -0.25865501
-0.052570999 0.0090220002 -0.258654
-0.052568 0.0090979999 -0.25865799
-0.052565001 0.009172 -0.25866401
-0.052561998 0.0092479996 -0.25866199
-0.052559 0.0093240002 -0.25865901
-0.052556001 0.0093999999 -0.258663
-0.052553002 0.0094760004 -0.258663
-0.052549999 0.0095499996 -0.258665
-0.052547 0.0096260002 -0.25866899
-0.052542999 0.0097019998 -0.258672
-0.052540001 0.0097759999 -0.25867799
-0.052537002 0.0098519996 -0.25867799
-0.052535001 0.0099290004 -0.25866199
-0.052531999 0.010005 -0.258652
-0.052529 0.010081 -0.25865701
-0.052526001 0.010155 -0.258661
-0.052522998 0.010231 -0.258665
-0.052519999 0.010307 -0.258665
-0.052517001 0.010383 -0.25865701
-0.052514002 0.010459 -0.258652
-0.052510999 0.010535 -0.258652
-0.052508 0.010611 -0.258654
-0.052505001 0.010685 -0.258652
-0.052501999 0.010763 -0.25865
-0.052499 0.010837 -0.25865099
-0.052496001 0.010913 -0.25864899
-0.052494001 0.010988 -0.258641
-0.052491002 0.011064 -0.25863299
-0.052487999 0.01114 -0.25863799
-0.052483998 0.011216 -0.25864801
-0.052480999 0.01129 -0.25864199
-0.052478999 0.011366 -0.25863799
-0.052476 0.011442 -0.25863999
-0.052473001 0.011518 -0.25863099
-0.052469999 0.011594 -0.258625
-0.052467 0.01167 -0.258625
-0.052464001 0.011746 -0.258623
-0.052462 0.011821 -0.25861299
-0.052459002 0.011897 -0.25860399
-0.052455999 0.011973 -0.25860399
-0.052453 0.012047 -0.258614
-0.052450001 0.012123 -0.258614
-0.052446999 0.012199 -0.258607
-0.052444 0.012275 -0.258607
-0.052441001 0.012351 -0.258609
-0.052437998 0.012425 -0.258609
-0.052434999 0.012501 -0.25861099
-0.052432001 0.012577 -0.25860801
-0.052429002 0.012653 -0.2586
-0.052425999 0.012729 -0.25860199
-0.052423 0.012803 -0.25860399
-0.052420001 0.01288 -0.25859401
-0.052418001 0.012954 -0.258589
-0.052414998 0.013032 -0.25858301
-0.052412 0.013106 -0.25857499
-0.052409001 0.013182 -0.25857899
-0.052406002 0.013258 -0.25858799
-0.052402999 0.013334 -0.25858799
-0.0524 0.01341 -0.25858599
-0.052397002 0.013484 -0.258578
-0.052393999 0.01356 -0.258582
-0.052391 0.013636 -0.25858501
-0.052388001 0.013712 -0.25857699
-0.052384999 0.013787 -0.258571
-0.052382 0.013863 -0.258571
-0.052379001 0.013938 -0.25857699
-0.052375998 0.014014 -0.25858399
-0.052372999 0.01409 -0.258582
-0.052370001 0.014165 -0.25858
-0.052367002 0.014239 -0.258578
-0.052363999 0.014315 -0.258573
-0.052361999 0.014393 -0.258553
-0.052359 0.014467 -0.25854301
-0.052356001 0.014543 -0.25854701
-0.052352998 0.014618 -0.25854501
-0.052351002 0.014694 -0.25853199
-0.052347999 0.01477 -0.258524
-0.052345999 0.014846 -0.25851801
-0.052343 0.014922 -0.25850999
-0.052340001 0.014996 -0.25851101
-0.052336 0.015072 -0.25852099
-0.052333001 0.015148 -0.25852299
-0.052329998 0.015222 -0.25852501
-0.052326001 0.015298 -0.25853899
-0.052322999 0.015372 -0.25855601
-0.052319001 0.015448 -0.25856599
-0.052315999 0.015525 -0.25857201
-0.052313 0.015599 -0.258578
-0.052308999 0.015675001 -0.25859201
-0.052305002 0.015749 -0.25861901
-0.052301001 0.015826 -0.25863701
-0.052297 0.015902 -0.25864899
-0.052292999 0.015976001 -0.25866899
-0.052289002 0.016053 -0.25868699
-0.052285001 0.016127 -0.258706
-0.052281 0.016204 -0.25873199
-0.052276 0.016279001 -0.25877199
-0.052271001 0.016354 -0.258818
-0.052266002 0.01643 -0.25886199
-0.05226 0.016504999 -0.25891
-0.052255001 0.016580001 -0.258957
-0.052250002 0.016657 -0.259009
-0.052244 0.016732 -0.25905499
-0.052239001 0.01681 -0.259105
-0.052232999 0.016884999 -0.259175
-0.052225001 0.016959 -0.25926301
-0.052219 0.017036 -0.25932601
-0.052212 0.017112 -0.259406
-0.052760001 -0.0032329999 -0.259738
-0.052761 -0.003143 -0.25963801
-0.052761 -0.003059 -0.25956401
-0.052761 -0.0029740001 -0.259496
-0.052761 -0.0028880001 -0.25941399
-0.052762002 -0.0028019999 -0.259334
-0.052761 -0.002719 -0.25928199
-0.052760001 -0.0026400001 -0.25924
-0.052758001 -0.0025589999 -0.259206
-0.052756999 -0.002478 -0.25916401
-0.052756 -0.0023990001 -0.25913101
-0.052754 -0.002319 -0.259103
-0.052751999 -0.0022420001 -0.25908101
-0.052749999 -0.0021599999 -0.25905299
-0.052747998 -0.002081 -0.25902101
-0.052747 -0.0020020001 -0.25898501
-0.052745 -0.001921 -0.25894701
-0.052742999 -0.0018429999 -0.25892401
-0.052740999 -0.0017659999 -0.258912
-0.052738 -0.0016899999 -0.25891
-0.052735001 -0.0016139999 -0.25890401
-0.052733 -0.0015360001 -0.25888401
-0.052731 -0.0014590001 -0.258863
-0.052728001 -0.001381 -0.25885299
-0.052726001 -0.001303 -0.258843
-0.052723002 -0.001228 -0.25883701
-0.052719999 -0.001152 -0.25883901
-0.052717 -0.001076 -0.258834
-0.052715 -0.00099800003 -0.258818
-0.052712001 -0.00092199998 -0.25880799
-0.052708998 -0.00084599998 -0.25880599
-0.052705999 -0.00077099999 -0.25880599
-0.052703001 -0.000695 -0.25880101
-0.052700002 -0.00061699998 -0.25879699
-0.052696999 -0.000543 -0.25880101
-0.052694 -0.00046800001 -0.25881499
-0.052689999 -0.000394 -0.25882399
-0.052687 -0.00031800001 -0.25882199
-0.052684002 -0.000241 -0.258818
-0.052680999 -0.00016700001 -0.25882
-0.052678 -9.0000001e-05 -0.25882399
-0.052675001 -1.4e-05 -0.25882599
-0.052671999 6.0999999e-05 -0.25881901
-0.052669 0.000137 -0.25881699
-0.052666001 0.00021300001 -0.25882101
-0.052662998 0.000287 -0.25882301
-0.05266 0.000363 -0.25882599
-0.052657001 0.000439 -0.258818
-0.052655 0.00051699998 -0.25881001
-0.052650999 0.00059100002 -0.258816
-0.052648 0.000665 -0.25882801
-0.052645002 0.000741 -0.25883299
-0.052641999 0.00081900001 -0.25881699
-0.052639998 0.000895 -0.258809
-0.052636001 0.000971 -0.258811
-0.052632999 0.0010470001 -0.25881299
-0.05263 0.0011230001 -0.25881401
-0.052627001 0.001199 -0.25881201
-0.052623998 0.001273 -0.25882
-0.052620001 0.001347 -0.25883201
-0.052618001 0.001423 -0.25882801
-0.052615002 0.001499 -0.258827
-0.052611001 0.001575 -0.25883499
-0.052607998 0.001651 -0.25883701
-0.052604999 0.001725 -0.258843
-0.052600998 0.001799 -0.258854
-0.052598 0.001875 -0.258856
-0.052595999 0.001951 -0.25884601
-0.052592002 0.0020290001 -0.25884601
-0.052588999 0.0021029999 -0.25885201
-0.052586 0.002177 -0.25885901
-0.052583002 0.0022529999 -0.25886101
-0.052579999 0.002329 -0.258863
-0.052577 0.0024049999 -0.258865
-0.052572999 0.002479 -0.25887299
-0.05257 0.0025549999 -0.25888199
-0.052567001 0.002631 -0.25888601
-0.052563999 0.0027050001 -0.25888401
-0.052561 0.002781 -0.25888601
-0.052556999 0.0028560001 -0.258901
-0.052553002 0.00293 -0.25891501
-0.052549999 0.0030060001 -0.258921
-0.052545998 0.003082 -0.25892901
-0.052544001 0.0031580001 -0.25892699
-0.052540999 0.0032339999 -0.25892001
-0.052538 0.0033100001 -0.25892201
-0.052533999 0.0033859999 -0.258926
-0.052531 0.00346 -0.25893
-0.052528001 0.0035359999 -0.25894001
-0.052524 0.00361 -0.258957
-0.052521002 0.0036849999 -0.25896099
-0.052517999 0.003762 -0.258959
-0.052515 0.0038360001 -0.258957
-0.052512001 0.003912 -0.25896001
-0.052508999 0.0039880001 -0.258964
-0.052505001 0.004063 -0.25897199
-0.052501999 0.0041390001 -0.258982
-0.052499 0.0042150002 -0.258984
-0.052496001 0.0042909998 -0.25898099
-0.052492999 0.0043660002 -0.258975
-0.05249 0.0044419998 -0.258977
-0.052485999 0.0045190002 -0.25898701
-0.052483998 0.0045949998 -0.25898099
-0.052480999 0.0046700002 -0.25897399
-0.052478001 0.0047459998 -0.25897199
-0.052475002 0.0048219999 -0.25897601
-0.052471999 0.004898 -0.25897199
-0.052469999 0.0049760002 -0.25895599
-0.052467 0.0050530001 -0.25894099
-0.052464999 0.0051290002 -0.25892901
-0.052462 0.0052049998 -0.258919
-0.052459002 0.0052829999 -0.258917
-0.052455999 0.0053590001 -0.25891301
-0.052453998 0.0054339999 -0.25890601
-0.052451 0.00551 -0.25890201
-0.052448001 0.0055860002 -0.25889799
-0.052444998 0.0056619998 -0.25889799
-0.052441999 0.0057379999 -0.25889
-0.052439 0.005816 -0.258885
-0.052437 0.0058909999 -0.25887299
-0.052434999 0.005967 -0.25885701
-0.052432001 0.0060450002 -0.25885099
-0.052429002 0.0061189998 -0.25885499
-0.052425999 0.0061969999 -0.25885201
-0.052423 0.006273 -0.25884399
-0.052421 0.0063479999 -0.25883201
-0.052418001 0.006426 -0.25882199
-0.052414998 0.0065020001 -0.25881401
-0.052413002 0.0065779998 -0.258809
-0.052409999 0.0066539999 -0.25880501
-0.052407 0.0067289998 -0.25879699
-0.052405 0.0068069999 -0.25878501
-0.052402001 0.006883 -0.258773
-0.0524 0.0069590001 -0.25876799
-0.052395999 0.0070349998 -0.25876799
-0.052393001 0.0071109999 -0.25876799
-0.052391 0.0071859998 -0.258764
-0.052388001 0.0072619999 -0.25875399
-0.052384999 0.00734 -0.25874701
-0.052382 0.0074160001 -0.25874501
-0.052379001 0.0074900002 -0.25874299
-0.052377 0.0075679999 -0.25873899
-0.052374002 0.007642 -0.258737
-0.052370999 0.0077189999 -0.258726
-0.052368999 0.007797 -0.25870201
-0.052367002 0.0078720003 -0.25869
-0.052363999 0.007948 -0.258692
-0.052359998 0.0080249999 -0.25869599
-0.052358001 0.0081000002 -0.25869301
-0.052354999 0.0081759999 -0.25869101
-0.052351002 0.00825 -0.25869501
-0.052349001 0.0083259996 -0.25868899
-0.052345999 0.0084020002 -0.25867799
-0.052343 0.0084800003 -0.25867799
-0.052340001 0.0085540004 -0.25867999
-0.052336998 0.0086300001 -0.25867799
-0.052333999 0.0087059997 -0.258674
-0.052331001 0.0087820003 -0.25867501
-0.052328002 0.0088579999 -0.25867501
-0.052324999 0.008932 -0.25867501
-0.052322 0.0090070004 -0.25867099
-0.05232 0.0090849996 -0.258665
-0.052315999 0.0091599999 -0.25868201
-0.052312002 0.009234 -0.258692
-0.052308999 0.0093099996 -0.258688
-0.052306 0.0093860002 -0.25869
-0.052304 0.0094619999 -0.25868201
-0.052301001 0.0095370002 -0.25867301
-0.052297998 0.0096129999 -0.25867701
-0.052294001 0.009687 -0.25868699
-0.052290998 0.0097629996 -0.25868699
-0.052289002 0.0098390002 -0.25868401
-0.052285999 0.0099149998 -0.25867599
-0.052283 0.009993 -0.258672
-0.052280001 0.010067 -0.25867
-0.052276999 0.010143 -0.25867
-0.052274 0.010219 -0.25867099
-0.052271001 0.010295 -0.25867301
-0.052267998 0.010371 -0.25867501
-0.052265 0.010447 -0.25866699
-0.052262001 0.010521 -0.258663
-0.052258998 0.010599 -0.25866401
-0.052257001 0.010672 -0.25865799
-0.052253999 0.01075 -0.258654
-0.052251 0.010824 -0.258652
-0.052248001 0.0109 -0.258656
-0.052244999 0.010976 -0.25865501
-0.052242 0.011052 -0.25865099
-0.052239001 0.011128 -0.258645
-0.052235998 0.011204 -0.25863901
-0.052232999 0.01128 -0.25864199
-0.05223 0.011356 -0.25863999
-0.052228 0.011431 -0.25863001
-0.052225001 0.011507 -0.25862399
-0.052221999 0.011583 -0.258618
-0.052219 0.011657 -0.25861701
-0.052216001 0.011733 -0.25861299
-0.052214 0.011809 -0.25860301
-0.052211002 0.011884 -0.25859699
-0.052207999 0.01196 -0.25859699
-0.052205 0.012036 -0.258598
-0.052202001 0.012112 -0.2586
-0.052198999 0.012186 -0.258598
-0.052196 0.012262 -0.258596
-0.052193001 0.012338 -0.25859699
-0.052189998 0.012414 -0.25859299
-0.052186999 0.01249 -0.258587
-0.052184999 0.012566 -0.25857899
-0.052182 0.012642 -0.25857899
-0.052177999 0.012716 -0.25858799
-0.052175 0.012792 -0.25859201
-0.052173 0.012868 -0.258582
-0.052170001 0.012943 -0.25857201
-0.052166998 0.013019 -0.25857201
-0.052164 0.013093 -0.25857899
-0.052161001 0.013169 -0.25857499
-0.052158002 0.013247 -0.25856301
-0.052154999 0.013321 -0.25856501
-0.052150998 0.013397 -0.25858101
-0.052147999 0.013471 -0.25858599
-0.052145999 0.013547 -0.25857601
-0.052143 0.013625 -0.25856
-0.052141 0.0137 -0.25854799
-0.052138001 0.013776 -0.25854501
-0.052134998 0.01385 -0.25854701
-0.052131999 0.013926 -0.25854701
-0.052129 0.014002 -0.258553
-0.052124999 0.014076 -0.25855899
-0.052122001 0.014153 -0.25856599
-0.052119002 0.014229 -0.25856799
-0.052115999 0.014302 -0.258562
-0.052113999 0.01438 -0.25855401
-0.052111 0.014454 -0.25854501
-0.052108001 0.01453 -0.25854301
-0.052104998 0.014606 -0.25854501
-0.052102 0.014682 -0.25854099
-0.052099001 0.014758 -0.258535
-0.052097 0.014831 -0.25852799
-0.052094001 0.014909 -0.258524
-0.052090999 0.014983 -0.258526
-0.052088 0.015059 -0.25852799
-0.052085001 0.015135 -0.25852799
-0.052081 0.015209 -0.258535
-0.052078001 0.015285 -0.25854099
-0.052074999 0.015361 -0.25854501
-0.052072 0.015435 -0.25853899
-0.052069001 0.015511 -0.25853899
-0.052065998 0.015587 -0.25854799
-0.052062001 0.015664 -0.258564
-0.052058 0.015737999 -0.25858599
-0.052053999 0.015813001 -0.25861001
-0.052049998 0.015889 -0.25862399
-0.052046001 0.015962999 -0.258643
-0.052042 0.016039999 -0.25866699
-0.052037999 0.016116001 -0.25868899
-0.052034002 0.016191 -0.258715
-0.052028999 0.016266 -0.258757
-0.052023999 0.016341999 -0.25879401
-0.052019 0.016417 -0.25882801
-0.052012999 0.016492 -0.25888601
-0.052007999 0.016566999 -0.25894001
-0.052003 0.016643999 -0.258984
-0.051996998 0.016719 -0.25903401
-0.051991999 0.016796 -0.25907499
-0.051986001 0.016872 -0.25914299
-0.051979002 0.016946999 -0.25921899
-0.051972002 0.017023001 -0.25930899
-0.051964998 0.017099001 -0.25938299
-0.052423 -0.0031709999 -0.25970799
-0.052423 -0.003086 -0.25963801
-0.052423999 -0.002997 -0.259534
-0.052423999 -0.0029140001 -0.25947401
-0.052423 -0.0028309999 -0.25941801
-0.052423 -0.0027449999 -0.25934201
-0.052421 -0.002666 -0.259312
-0.052418999 -0.0025879999 -0.25930199
-0.052416999 -0.002511 -0.25928101
-0.052416001 -0.0024300001 -0.259231
-0.052414 -0.002349 -0.259193
-0.052412 -0.002269 -0.25916901
-0.052409999 -0.0021909999 -0.25915501
-0.052407999 -0.002114 -0.25913501
