# .PCD v0.7 - Point Cloud Data file format
VERSION 0.7
FIELDS x y z
SIZE 4 4 4
TYPE F F F
COUNT 1 1 1
WIDTH 1553
HEIGHT 1
VIEWPOINT 0 0 0 1 0 0 0
POINTS 1553
DATA ascii
-0.176612 0.159725 -0.23453499
-0.17660899 0.159798 -0.234539
-0.176606 0.159872 -0.234547
-0.17660201 0.159944 -0.23455399
-0.17659999 0.160016 -0.234552
-0.176597 0.16009 -0.23455
-0.176594 0.160162 -0.234556
-0.17659099 0.160234 -0.234559
-0.176588 0.16030701 -0.234547
-0.176586 0.160381 -0.23452701
-0.17658401 0.160455 -0.234521
-0.176581 0.16052701 -0.234524
-0.176577 0.16059899 -0.23453601
-0.17657401 0.160671 -0.234542
-0.176572 0.16074499 -0.23452599
-0.17657 0.16082001 -0.23449899
-0.176568 0.16089199 -0.234497
-0.17656399 0.160964 -0.23450699
-0.176561 0.161037 -0.234521
-0.176558 0.161109 -0.234524
-0.17655601 0.161184 -0.23449799
-0.17655499 0.161257 -0.234468
-0.176553 0.161331 -0.234449
-0.17655 0.161404 -0.23443501
-0.17654701 0.161476 -0.234437
-0.176544 0.161551 -0.23444501
-0.176541 0.161622 -0.23444401
-0.176539 0.161696 -0.234442
-0.176535 0.161769 -0.23445199
-0.176532 0.16183899 -0.234466
-0.17652901 0.16191299 -0.23447099
-0.176526 0.16198701 -0.234457
-0.176524 0.162058 -0.234449
-0.176521 0.162131 -0.234455
-0.17651799 0.162204 -0.234456
-0.176515 0.162277 -0.23446
-0.176512 0.162349 -0.23446
-0.17651001 0.162424 -0.23444
-0.17650799 0.162498 -0.234423
-0.176505 0.162569 -0.23441701
-0.176502 0.162642 -0.234423
-0.17649899 0.162716 -0.234423
-0.176497 0.162789 -0.23440801
-0.176495 0.162861 -0.2344
-0.17649201 0.16293301 -0.2344
-0.176489 0.16300701 -0.23439901
-0.176486 0.16307899 -0.23439901
-0.17648301 0.16315299 -0.23439901
-0.17648 0.163225 -0.234403
-0.176477 0.163297 -0.2344
-0.176475 0.16337 -0.234382
-0.17647301 0.163444 -0.234364
-0.17647 0.163518 -0.234366
-0.176467 0.163588 -0.234383
-0.17646401 0.16366 -0.234387
-0.176461 0.163734 -0.234377
-0.176459 0.163808 -0.234363
-0.176456 0.163881 -0.234358
-0.17645299 0.16395301 -0.234358
-0.176451 0.16402499 -0.234356
-0.176448 0.16409899 -0.234358
-0.17644501 0.16417199 -0.234365
-0.176441 0.164244 -0.234377
-0.176438 0.164316 -0.23438101
-0.17643499 0.164388 -0.234384
-0.176432 0.164462 -0.234392
-0.176429 0.164534 -0.234392
-0.17642701 0.164608 -0.23438001
-0.176424 0.16467901 -0.234367
-0.176422 0.164753 -0.234355
-0.176419 0.16482501 -0.23435099
-0.17641599 0.16489699 -0.234355
-0.176414 0.16497099 -0.23435
-0.176411 0.165043 -0.234348
-0.17640699 0.165115 -0.23436999
-0.176404 0.165189 -0.23438001
-0.176401 0.165261 -0.23437101
-0.17639799 0.165335 -0.23436899
-0.176395 0.165407 -0.23438101
-0.17639101 0.16547801 -0.23440801
-0.176387 0.16554999 -0.23443
-0.176385 0.16562399 -0.23442
-0.176384 0.16569699 -0.234368
-0.17638101 0.16577099 -0.23436899
-0.176377 0.165841 -0.23439699
-0.176373 0.165914 -0.234429
-0.17636999 0.165986 -0.23443501
-0.176368 0.16606 -0.234414
-0.176365 0.166134 -0.234414
-0.17636199 0.166206 -0.234418
-0.176358 0.166278 -0.234428
-0.17635401 0.16635001 -0.234459
-0.17635 0.16642299 -0.23448101
-0.176346 0.166495 -0.234497
-0.17634299 0.166568 -0.234513
-0.176339 0.16664 -0.23452801
-0.17633601 0.166712 -0.23453601
-0.176332 0.166784 -0.234558
-0.176329 0.166859 -0.234566
-0.17632499 0.166931 -0.234577
-0.176321 0.16700301 -0.234607
-0.17631701 0.16707399 -0.23464499
-0.176312 0.16714901 -0.234671
-0.176309 0.16722099 -0.23468199
-0.17630599 0.167293 -0.23468
-0.176303 0.167367 -0.23468401
-0.1763 0.167439 -0.23469
-0.17629699 0.167511 -0.234699
-0.176293 0.167584 -0.234721
-0.17628901 0.167656 -0.234745
-0.176286 0.16773 -0.23474699
-0.176283 0.16780201 -0.23475599
-0.176278 0.16787501 -0.234788
-0.176274 0.16794799 -0.23481999
-0.176268 0.16802099 -0.234872
-0.176263 0.16809399 -0.234919
-0.176258 0.168167 -0.23495901
-0.17625301 0.16824 -0.235007
-0.176247 0.168313 -0.23506901
-0.17624301 0.168386 -0.235111
-0.176238 0.168459 -0.23514999
-0.17623299 0.168531 -0.23518801
-0.176227 0.168605 -0.235254
-0.17622 0.168679 -0.235332
-0.17621399 0.16875 -0.235402
-0.17620701 0.168824 -0.235489
-0.176202 0.168897 -0.235541
-0.176194 0.168971 -0.235645
-0.176186 0.169045 -0.235745
-0.17617799 0.169118 -0.235853
-0.17616899 0.169192 -0.235975
-0.17689499 0.14857 -0.236766
-0.17689499 0.148655 -0.2367
-0.17689399 0.14873201 -0.23666599
-0.176891 0.148808 -0.236656
-0.176888 0.148882 -0.236655
-0.17688701 0.148959 -0.236625
-0.17688601 0.149041 -0.23656499
-0.17688701 0.14912599 -0.236489
-0.17688701 0.149206 -0.23642699
-0.176884 0.14928199 -0.236417
-0.176882 0.149359 -0.236385
-0.176882 0.149442 -0.23632
-0.17688 0.149519 -0.236296
-0.17687801 0.149593 -0.236296
-0.17687599 0.149672 -0.23625199
-0.17687599 0.149753 -0.23619001
-0.176874 0.149829 -0.23617999
-0.176873 0.14990801 -0.23613501
-0.176872 0.149987 -0.236091
-0.176869 0.15006 -0.23608699
-0.17686599 0.150134 -0.23608699
-0.176864 0.150212 -0.236057
-0.176864 0.15029299 -0.236008
-0.176862 0.15037 -0.235976
-0.17686 0.150444 -0.235966
-0.17685699 0.150518 -0.235964
-0.176855 0.15059499 -0.235938
-0.176853 0.150672 -0.23591299
-0.176852 0.15075099 -0.235863
-0.176852 0.150832 -0.235809
-0.17684899 0.150906 -0.235805
-0.176847 0.15098 -0.23579501
-0.176846 0.151058 -0.23574699
-0.176844 0.151136 -0.235716
-0.176842 0.15121301 -0.23569199
-0.176842 0.151292 -0.235642
-0.17684001 0.15136901 -0.235616
-0.176838 0.151445 -0.235588
-0.176836 0.151518 -0.235577
-0.176834 0.15159599 -0.23555499
-0.176834 0.151676 -0.235489
-0.17683201 0.151752 -0.235469
-0.17682999 0.15182801 -0.235449
-0.176828 0.151903 -0.235422
-0.176826 0.15198 -0.23540001
-0.176824 0.152054 -0.235386
-0.17682201 0.15213101 -0.23536
-0.17682099 0.152208 -0.23531599
-0.176819 0.152284 -0.235295
-0.176817 0.15236001 -0.23527899
-0.176815 0.152435 -0.235255
-0.176814 0.152512 -0.235219
-0.17681199 0.15258799 -0.235193
-0.17681 0.15266301 -0.23517799
-0.176807 0.15273701 -0.235174
-0.17680401 0.15280899 -0.23517001
-0.17680199 0.152885 -0.235162
-0.176799 0.15295801 -0.235155
-0.176797 0.153032 -0.235137
-0.17679501 0.153108 -0.235119
-0.17679299 0.153183 -0.235093
-0.176792 0.15325999 -0.23505899
-0.176789 0.15333401 -0.23505799
-0.17678601 0.15340599 -0.235062
-0.17678399 0.15348201 -0.23504201
-0.176782 0.15355501 -0.23502401
-0.176779 0.153629 -0.235025
-0.17677601 0.15370101 -0.235027
-0.176774 0.153777 -0.23501299
-0.176772 0.153852 -0.23498701
-0.176769 0.153926 -0.23497599
-0.17676701 0.154 -0.23497
-0.17676499 0.154074 -0.234954
-0.176763 0.154149 -0.234934
-0.17676 0.154223 -0.234929
-0.17675699 0.15429699 -0.23492301
-0.176755 0.15437201 -0.234905
-0.176753 0.15444399 -0.234897
-0.17675 0.15451799 -0.2349
-0.17674699 0.15459201 -0.23488601
-0.176745 0.15466601 -0.234878
-0.176742 0.15473901 -0.234872
-0.17674001 0.154815 -0.234853
-0.17673799 0.154889 -0.234837
-0.176735 0.154962 -0.23483101
-0.176733 0.15503401 -0.234827
-0.17673001 0.155108 -0.234828
-0.176727 0.155182 -0.234824
-0.176724 0.15525401 -0.23481999
-0.17672201 0.15532801 -0.234818
-0.17671899 0.15539999 -0.234817
-0.176716 0.15547401 -0.234817
-0.176714 0.15554699 -0.23480099
-0.17671201 0.155623 -0.234773
-0.17670999 0.155698 -0.234752
-0.176708 0.155772 -0.23473801
-0.176705 0.155846 -0.23474
-0.17670199 0.155918 -0.23474801
-0.176699 0.15599 -0.23475499
-0.176696 0.156064 -0.23473901
-0.176695 0.156139 -0.234713
-0.17669199 0.156213 -0.234697
-0.176689 0.156285 -0.234712
-0.17668501 0.15635601 -0.23474
-0.176682 0.15642799 -0.23474801
-0.176679 0.15650199 -0.234742
-0.176677 0.15657499 -0.234721
-0.17667501 0.15665101 -0.234699
-0.176672 0.156725 -0.234695
-0.176669 0.156795 -0.23470899
-0.17666601 0.156867 -0.23471799
-0.176663 0.156941 -0.234716
-0.17666 0.157013 -0.234722
-0.17665701 0.157087 -0.234714
-0.17665499 0.15716 -0.234703
-0.176652 0.157234 -0.234699
-0.176649 0.157306 -0.23470099
-0.17664599 0.15738 -0.234699
-0.176644 0.157454 -0.23468401
-0.176642 0.157528 -0.234672
-0.17663901 0.1576 -0.23467
-0.176636 0.157674 -0.234672
-0.176633 0.157746 -0.234677
-0.17663001 0.157818 -0.23467501
-0.17662799 0.157893 -0.23466299
-0.176625 0.157965 -0.23465399
-0.176623 0.158039 -0.23465
-0.17662001 0.158113 -0.234642
-0.176617 0.15818501 -0.234644
-0.176613 0.15825699 -0.23466299
-0.17660999 0.158327 -0.234677
-0.176607 0.158402 -0.234687
-0.176604 0.158473 -0.234685
-0.17660201 0.158547 -0.23466
-0.17659999 0.158622 -0.23463801
-0.176597 0.158696 -0.234634
-0.176595 0.158768 -0.234634
-0.17659201 0.15884 -0.23463701
-0.176589 0.158914 -0.23463701
-0.176586 0.158986 -0.23463701
-0.17658301 0.159058 -0.234641
-0.17658 0.159132 -0.23463801
-0.176578 0.159208 -0.23461799
-0.176576 0.159281 -0.234594
-0.17657401 0.159355 -0.234588
-0.176571 0.159427 -0.234589
-0.176568 0.159501 -0.23459101
-0.17656501 0.159573 -0.234585
-0.17656299 0.159646 -0.234569
-0.17656 0.15972 -0.23457
-0.176557 0.15979201 -0.234578
-0.17655399 0.15986399 -0.23458
-0.176551 0.15993799 -0.23458
-0.176548 0.16001 -0.23458099
-0.17654499 0.16008399 -0.234579
-0.176542 0.160156 -0.234579
-0.17654 0.160228 -0.23458
-0.17653701 0.160302 -0.23456401
-0.17653599 0.160377 -0.234534
-0.176533 0.160449 -0.23453601
-0.17653 0.160521 -0.234543
-0.17652699 0.160595 -0.234543
-0.176524 0.160667 -0.234541
-0.176521 0.160741 -0.234541
-0.17651799 0.160813 -0.23454399
-0.176515 0.16088501 -0.23454601
-0.176513 0.16095901 -0.234542
-0.17651001 0.161033 -0.234532
-0.17650799 0.16110601 -0.234515
-0.176506 0.16118 -0.234493
-0.176504 0.16125301 -0.234477
-0.17650101 0.16132499 -0.234473
-0.17649899 0.16139901 -0.23446999
-0.176496 0.16147301 -0.234456
-0.176494 0.16154701 -0.234442
-0.17649101 0.16161899 -0.234448
-0.176488 0.161691 -0.23446099
-0.176485 0.161763 -0.23446301
-0.17648201 0.161837 -0.234457
-0.176479 0.161909 -0.234459
-0.176476 0.161981 -0.23446
-0.17647301 0.162055 -0.234466
-0.17647 0.162127 -0.23447201
-0.176467 0.16219901 -0.23446301
-0.17646401 0.162273 -0.23446301
-0.176461 0.16234501 -0.234475
-0.176458 0.16241901 -0.234469
-0.176456 0.16249 -0.234458
-0.17645299 0.162563 -0.234468
-0.176449 0.162637 -0.234476
-0.176447 0.162708 -0.23446
-0.17644601 0.162784 -0.234433
-0.176443 0.162857 -0.234419
-0.176441 0.162929 -0.23441499
-0.176439 0.163003 -0.234395
-0.17643701 0.163076 -0.23438001
-0.176433 0.163149 -0.23439001
-0.17643 0.163221 -0.23439801
-0.17642801 0.163294 -0.234384
-0.17642599 0.163368 -0.23436899
-0.176423 0.16344 -0.23436099
-0.17642 0.163514 -0.234365
-0.17641699 0.16358601 -0.234368
-0.176414 0.16365799 -0.234366
-0.176411 0.16373 -0.23436999
-0.17640799 0.163802 -0.23438799
-0.176404 0.163874 -0.23439901
-0.176401 0.163948 -0.23439699
-0.17639901 0.16402 -0.234391
-0.176396 0.164094 -0.234383
-0.176394 0.164166 -0.234372
-0.17639101 0.16424 -0.234366
-0.176388 0.16431201 -0.23436999
-0.176385 0.16438399 -0.234382
-0.17638201 0.16445801 -0.23438901
-0.176379 0.16452999 -0.23438901
-0.176376 0.164602 -0.23438901
-0.176373 0.164676 -0.234385
-0.17637099 0.164748 -0.234382
-0.176368 0.164822 -0.23438001
-0.176365 0.164893 -0.234376
-0.17636301 0.164967 -0.234367
-0.17636 0.165039 -0.23436099
-0.176357 0.16511101 -0.234375
-0.17635299 0.16518401 -0.23438901
-0.17635 0.16525599 -0.234392
-0.176347 0.16532999 -0.23438799
-0.17634501 0.16540299 -0.234372
-0.176342 0.165475 -0.23436999
-0.176339 0.165547 -0.234385
-0.17633601 0.16562 -0.234395
-0.176333 0.165693 -0.234387
-0.176331 0.165767 -0.23437101
-0.176328 0.165839 -0.23438001
-0.17632399 0.165912 -0.23440599
-0.17632 0.165984 -0.234428
-0.176318 0.16605701 -0.234396
-0.17631701 0.166131 -0.234363
-0.176314 0.16620301 -0.23436899
-0.176309 0.16627499 -0.234401
-0.176305 0.166346 -0.23444
-0.176301 0.166418 -0.23445
-0.17629801 0.166491 -0.234468
-0.176294 0.166563 -0.23448201
-0.176291 0.166637 -0.23449101
-0.176287 0.16670901 -0.234503
-0.176283 0.16678201 -0.234525
-0.17628001 0.16685399 -0.234533
-0.176277 0.166926 -0.234552
-0.176272 0.166999 -0.234588
-0.176268 0.167072 -0.234612
-0.176264 0.167144 -0.234624
-0.17626099 0.167218 -0.234633
-0.176258 0.16729 -0.23463701
-0.176255 0.167362 -0.234641
-0.17625199 0.16743401 -0.23465499
-0.176247 0.167509 -0.23468401
-0.17624401 0.16758101 -0.23469999
-0.176241 0.16765299 -0.234704
-0.176238 0.167725 -0.234706
-0.17623299 0.167798 -0.23473699
-0.176228 0.167871 -0.23478501
-0.17622399 0.167944 -0.234815
-0.176217 0.168017 -0.234891
-0.176213 0.16809 -0.234925
-0.176209 0.168162 -0.234938
-0.176204 0.168235 -0.234982
-0.17619801 0.168309 -0.235054
-0.176193 0.168382 -0.23510601
-0.17618801 0.16845401 -0.235139
-0.176183 0.16852801 -0.23518901
-0.176176 0.16860101 -0.235273
-0.17616899 0.16867299 -0.235349
-0.176164 0.16874599 -0.23540699
-0.176158 0.16881999 -0.23547
-0.17614999 0.16889399 -0.23556601
-0.17614301 0.16896801 -0.235662
-0.176136 0.16904201 -0.235752
-0.17612401 0.16911601 -0.235928
-0.176117 0.16919 -0.23602401
-0.17655399 0.148562 -0.236698
-0.17655399 0.148645 -0.236632
-0.17655399 0.148729 -0.23655
-0.176553 0.148808 -0.236518
-0.176552 0.14888699 -0.23647
-0.176551 0.148968 -0.236422
-0.176549 0.14904401 -0.236413
-0.17654601 0.14911599 -0.236413
-0.176543 0.149189 -0.236413
-0.176541 0.149267 -0.236393
-0.176539 0.149344 -0.236358
-0.17653701 0.14941999 -0.236348
-0.176534 0.149496 -0.23633599
-0.176534 0.14957599 -0.236276
-0.176535 0.14966001 -0.236194
-0.176534 0.14974301 -0.23613
-0.176532 0.149819 -0.23611
-0.17653 0.149892 -0.236105
-0.17652801 0.149968 -0.23608699
-0.176526 0.150047 -0.236055
-0.176525 0.150124 -0.236021
-0.17652 0.15044001 -0.23584799
-0.17652 0.150521 -0.235792
-0.17651699 0.15059499 -0.23578399
-0.176514 0.15066899 -0.23578399
-0.176511 0.150741 -0.235789
-0.176511 0.150823 -0.235717
-0.17651001 0.150903 -0.235681
-0.17650799 0.150978 -0.235661
-0.176506 0.15105499 -0.23562901
-0.176505 0.151133 -0.235596
-0.176503 0.151206 -0.23558401
-0.17649999 0.15128 -0.23558199
-0.176498 0.151356 -0.23556399
-0.176496 0.15143099 -0.235542
-0.176493 0.15150499 -0.235533
-0.17649101 0.151583 -0.235515
-0.176489 0.151658 -0.235493
-0.176488 0.151733 -0.23546299
-0.176486 0.151811 -0.235431
-0.176484 0.151886 -0.235404
-0.17648301 0.15196501 -0.23537201
-0.17648099 0.152041 -0.235348
-0.176479 0.152116 -0.23533
-0.176477 0.152192 -0.23530801
-0.176475 0.15226699 -0.235283
-0.17647301 0.152343 -0.235267
-0.17647099 0.15241601 -0.235249
-0.17647 0.152493 -0.235213
-0.176468 0.15257099 -0.235174
-0.176466 0.152648 -0.23514999
-0.17646401 0.152722 -0.235144
-0.176461 0.152794 -0.235146
-0.176458 0.152868 -0.23514
-0.176456 0.152942 -0.235137
-0.17645299 0.153015 -0.235119
-0.176451 0.153091 -0.235099
-0.176449 0.153164 -0.235089
-0.176447 0.15324 -0.235074
-0.17644399 0.15331601 -0.23506001
-0.176442 0.15338901 -0.23504201
-0.17644 0.15346301 -0.235036
-0.17643701 0.15353701 -0.23503099
-0.17643499 0.153611 -0.235021
-0.176432 0.15368401 -0.235011
-0.17643 0.153758 -0.234999
-0.17642801 0.153834 -0.23498601
-0.176425 0.153908 -0.23497599
-0.176423 0.153981 -0.23496801
-0.17642 0.154055 -0.23495799
-0.17641801 0.154129 -0.23494899
-0.176415 0.154203 -0.234943
-0.176412 0.154276 -0.234935
-0.17641 0.15435199 -0.234919
-0.17640799 0.15442599 -0.234907
-0.176406 0.15449899 -0.234896
-0.176403 0.15457299 -0.23488601
-0.176401 0.15464699 -0.234872
-0.17639901 0.154723 -0.23485801
-0.176396 0.15479399 -0.23485699
-0.176392 0.15486699 -0.23487701
-0.17638899 0.154939 -0.234883
-0.176387 0.15501399 -0.234859
-0.176385 0.15509 -0.234834
-0.176383 0.155163 -0.23482201
-0.17637999 0.155237 -0.234814
-0.176378 0.155311 -0.23480199
-0.176375 0.155385 -0.23479301
-0.176373 0.155458 -0.23478299
-0.17636999 0.155532 -0.234781
-0.176367 0.155604 -0.23478299
-0.176365 0.155678 -0.23477601
-0.17636301 0.155752 -0.23475599
-0.17636 0.155826 -0.23474801
-0.176357 0.1559 -0.23474801
-0.17635401 0.15597101 -0.234749
-0.176351 0.156045 -0.234749
-0.176348 0.15611801 -0.234753
-0.17634501 0.15618999 -0.23475701
-0.17634299 0.15626401 -0.23475599
-0.17634 0.156335 -0.23475
-0.176337 0.156409 -0.234752
-0.17633399 0.156482 -0.234761
-0.176331 0.156554 -0.23476499
-0.176328 0.156628 -0.23476499
-0.17632499 0.156699 -0.234763
-0.176322 0.156773 -0.234758
-0.17632 0.156847 -0.23475599
-0.17631701 0.156919 -0.234754
-0.176314 0.156993 -0.23475
-0.176311 0.157067 -0.234745
-0.176309 0.157141 -0.23473901
-0.17630599 0.157213 -0.23473901
-0.176303 0.157285 -0.234743
-0.1763 0.157359 -0.234744
-0.17629699 0.15743101 -0.234744
-0.176294 0.15750299 -0.23474801
-0.176291 0.15757699 -0.23474
-0.17628901 0.15765201 -0.234727
-0.176287 0.15772399 -0.234721
-0.176284 0.157796 -0.234725
-0.17628001 0.157868 -0.234735
-0.176277 0.15794 -0.234742
-0.176274 0.158014 -0.23473801
-0.176272 0.158088 -0.23473001
-0.17626899 0.158162 -0.234722
-0.176267 0.158236 -0.234713
-0.176265 0.158309 -0.234697
-0.17626201 0.158383 -0.234685
-0.17625999 0.158455 -0.23468301
-0.176256 0.158529 -0.234686
-0.17625301 0.158601 -0.23469201
-0.17625 0.158673 -0.234698
-0.176247 0.158747 -0.234694
-0.17624401 0.158819 -0.234697
-0.17624199 0.15889101 -0.234697
-0.176239 0.158967 -0.234687
-0.176237 0.15903801 -0.23468
-0.17623401 0.15911201 -0.23468199
-0.176231 0.15918399 -0.23468
-0.176229 0.15925799 -0.234668
-0.176226 0.15933201 -0.234657
-0.17622299 0.15940399 -0.234661
-0.17622 0.15947799 -0.23466299
-0.176218 0.15955199 -0.234649
-0.17621601 0.15962499 -0.234632
-0.176213 0.15969899 -0.234624
-0.176211 0.159771 -0.23461799
-0.176208 0.159844 -0.23460799
-0.17620499 0.159918 -0.234605
-0.176202 0.159991 -0.234613
-0.176199 0.160063 -0.234621
-0.17619599 0.160135 -0.23462901
-0.176193 0.160209 -0.234626
-0.176191 0.160282 -0.234612
-0.17618901 0.160356 -0.23458999
-0.17618699 0.160431 -0.234568
-0.176184 0.160503 -0.234565
-0.176181 0.160575 -0.234575
-0.17617799 0.160647 -0.234575
-0.176176 0.160721 -0.23456299
-0.176173 0.160795 -0.234558
-0.17617001 0.16086701 -0.234558
-0.176167 0.160941 -0.23456199
-0.176164 0.16101301 -0.23456
-0.176162 0.16108499 -0.234559
-0.17615899 0.16115899 -0.234557
-0.176156 0.161231 -0.23455299
-0.176153 0.161304 -0.23455
-0.17615101 0.161378 -0.23454
-0.176148 0.16145 -0.234534
-0.176146 0.161524 -0.234522
-0.176144 0.161597 -0.234501
-0.17614201 0.16167299 -0.234483
-0.176139 0.161745 -0.234487
-0.176136 0.161817 -0.23448899
-0.17613401 0.161891 -0.234478
-0.176131 0.161964 -0.23446999
-0.176128 0.162037 -0.23448201
-0.176125 0.162109 -0.234488
-0.17612199 0.16218001 -0.234477
-0.17612 0.162256 -0.23446099
-0.176118 0.162329 -0.23443501
-0.176116 0.162403 -0.23442499
-0.176112 0.16247401 -0.234442
-0.176108 0.16254599 -0.234464
-0.17610499 0.162618 -0.234474
-0.176102 0.162692 -0.23447201
-0.1761 0.162764 -0.23447099
-0.17609701 0.162838 -0.234467
-0.176094 0.16291 -0.23447099
-0.176091 0.162982 -0.23447099
-0.17608801 0.163056 -0.234468
-0.17608599 0.163129 -0.23445401
-0.176084 0.163203 -0.23443601
-0.176082 0.163275 -0.234423
-0.17607901 0.163349 -0.234421
-0.17607599 0.16342101 -0.23441701
-0.176075 0.16349401 -0.234391
-0.176072 0.16356701 -0.234374
-0.17606901 0.16364001 -0.234386
-0.176065 0.16371199 -0.234404
-0.176063 0.163784 -0.234402
-0.17606001 0.163858 -0.234393
-0.176057 0.16393 -0.234405
-0.176053 0.164002 -0.23441701
-0.17605101 0.164076 -0.234405
-0.17604899 0.16415 -0.234392
-0.176046 0.164222 -0.23439001
-0.176043 0.164295 -0.234384
-0.17604101 0.16436701 -0.23437899
-0.176037 0.16444001 -0.234395
-0.17603301 0.16451199 -0.23441701
-0.17603 0.164584 -0.23442701
-0.176027 0.164656 -0.234432
-0.176024 0.16473 -0.234428
-0.17602099 0.164802 -0.234424
-0.176018 0.164874 -0.23444
-0.176015 0.164948 -0.23444299
-0.17601299 0.16502 -0.23442701
-0.17601 0.165094 -0.234413
-0.176007 0.16516601 -0.234413
-0.17600399 0.16523799 -0.234422
-0.176001 0.16531201 -0.23443601
-0.175997 0.16538399 -0.23444401
-0.17599501 0.165456 -0.234442
-0.175992 0.16553 -0.234439
-0.175989 0.165602 -0.234431
-0.17598601 0.165676 -0.234431
-0.175983 0.165748 -0.234441
-0.17598 0.16582 -0.234446
-0.17597701 0.165894 -0.23445199
-0.175973 0.165966 -0.234468
-0.175969 0.166039 -0.234488
-0.17596599 0.16611101 -0.234497
-0.175963 0.16618299 -0.234503
-0.17595901 0.166255 -0.234521
-0.175956 0.166328 -0.234538
-0.175953 0.166401 -0.234524
-0.175951 0.166473 -0.234512
-0.175947 0.166546 -0.234538
-0.175943 0.166618 -0.234569
-0.17593899 0.16669101 -0.234585
-0.175936 0.166765 -0.234595
-0.175933 0.16683701 -0.23459101
-0.17592999 0.16690899 -0.23459201
-0.175927 0.16698299 -0.234596
-0.175924 0.167055 -0.234602
-0.17591999 0.167127 -0.234626
-0.175915 0.1672 -0.23466299
-0.17591199 0.167272 -0.23467501
-0.175908 0.167345 -0.234689
-0.17590401 0.167417 -0.234723
-0.1759 0.16749001 -0.23475
-0.175896 0.16756199 -0.23477
-0.175891 0.16763499 -0.234808
-0.175887 0.16770899 -0.23483001
-0.17588399 0.167781 -0.23483101
-0.175881 0.167854 -0.234845
-0.175877 0.167926 -0.234871
-0.175872 0.167999 -0.234909
-0.17586701 0.168072 -0.234962
-0.175862 0.168145 -0.23499399
-0.17585801 0.168219 -0.23501
-0.175855 0.168291 -0.23502401
-0.175851 0.168364 -0.235038
-0.175833 0.16851 -0.235309
-0.17582899 0.168584 -0.23532499
-0.175824 0.168657 -0.235367
-0.17581899 0.16873001 -0.235421
-0.175813 0.16880301 -0.23547
-0.175805 0.16887701 -0.23558
-0.176369 0.148458 -0.23682199
-0.176368 0.148535 -0.236792
-0.176366 0.148615 -0.23676801
-0.176374 0.14872301 -0.23650999
-0.176374 0.14880501 -0.236442
-0.17637201 0.148883 -0.236416
-0.17636999 0.14895999 -0.23638999
-0.17636999 0.149041 -0.23633
-0.176368 0.14912 -0.236288
-0.176366 0.149195 -0.236269
-0.176364 0.14927299 -0.236251
-0.17636199 0.14934701 -0.23624299
-0.176359 0.149423 -0.236239
-0.176356 0.149497 -0.23623499
-0.176355 0.149575 -0.236186
-0.17635401 0.149653 -0.236158
-0.17635199 0.14973 -0.23612601
-0.176351 0.149809 -0.236086
-0.17635 0.14988799 -0.236046
-0.17635 0.14997099 -0.235974
-0.176349 0.15005 -0.235934
-0.176347 0.150125 -0.235917
-0.17634401 0.15020099 -0.235909
-0.176342 0.150278 -0.23587701
-0.176342 0.15035699 -0.235819
-0.17634 0.150435 -0.235799
-0.176338 0.15051 -0.235778
-0.17633601 0.15058701 -0.235752
-0.17633399 0.15066101 -0.235746
-0.176331 0.15073501 -0.23573799
-0.176329 0.150812 -0.235706
-0.17632701 0.15088999 -0.23568501
-0.17632601 0.15096501 -0.23565701
-0.17632399 0.151043 -0.235633
-0.176322 0.15112001 -0.23560099
-0.17632 0.151195 -0.235579
-0.176318 0.151271 -0.23556399
-0.17631599 0.151346 -0.23553599
-0.17631499 0.15142401 -0.23551001
-0.176312 0.15149701 -0.235498
-0.17631 0.151573 -0.235488
-0.17630801 0.15165 -0.23545299
-0.17630599 0.15172599 -0.235433
-0.176304 0.15179899 -0.23541901
-0.176302 0.151875 -0.235395
-0.176301 0.151952 -0.235365
-0.17629901 0.15203001 -0.235338
-0.17629699 0.152107 -0.23530599
-0.176296 0.152182 -0.235276
-0.176295 0.152261 -0.23523
-0.176293 0.152335 -0.23521601
-0.17629001 0.152409 -0.235211
-0.17628799 0.152484 -0.235191
-0.176286 0.15256 -0.23517101
-0.176284 0.152633 -0.235157
-0.176282 0.15270901 -0.23514
-0.17627899 0.152784 -0.23512401
-0.176277 0.15286 -0.235108
-0.176275 0.152934 -0.235094
-0.176273 0.153007 -0.235081
-0.17626999 0.153083 -0.235065
-0.176268 0.153157 -0.235057
-0.176265 0.15323099 -0.235045
-0.176264 0.15330601 -0.23502301
-0.17626099 0.153382 -0.235008
-0.176259 0.153455 -0.23499399
-0.176257 0.153529 -0.234984
-0.17625301 0.153603 -0.234988
-0.17625 0.153675 -0.234993
-0.176248 0.153749 -0.23498499
-0.176246 0.153823 -0.234973
-0.17624301 0.153897 -0.234971
-0.17624 0.153971 -0.23497
-0.176237 0.154044 -0.23496
-0.17623501 0.154116 -0.23495799
-0.176232 0.15419 -0.234954
-0.17623 0.154265 -0.234925
-0.176228 0.154341 -0.234909
-0.17622501 0.154413 -0.234907
-0.17622299 0.154487 -0.23490299
-0.17622 0.154561 -0.23490199
-0.176217 0.154633 -0.23490199
-0.17621499 0.154708 -0.23488601
-0.176213 0.154782 -0.23486599
-0.176211 0.15485699 -0.234845
-0.176209 0.15493099 -0.23482899
-0.17620599 0.15500499 -0.234827
-0.176204 0.15508001 -0.234805
-0.176202 0.155156 -0.23478
-0.1762 0.155228 -0.234772
-0.17619701 0.155302 -0.23477399
-0.176194 0.15537301 -0.234772
-0.176191 0.155449 -0.23476499
-0.17618901 0.15552101 -0.23475499
-0.176186 0.155595 -0.234753
-0.176184 0.155669 -0.234745
-0.176181 0.155743 -0.23473801
-0.17617799 0.15581501 -0.234744
-0.176175 0.15588699 -0.234752
-0.176172 0.155959 -0.23475599
-0.17616899 0.15603299 -0.23475701
-0.176166 0.156105 -0.234753
-0.176163 0.156179 -0.23474699
-0.17615999 0.156251 -0.234753
-0.176157 0.156323 -0.234762
-0.176154 0.156397 -0.234762
-0.17615201 0.15647 -0.23475
-0.176149 0.156544 -0.234744
-0.176146 0.156616 -0.234745
-0.17614301 0.15669 -0.234745
-0.17614 0.156762 -0.23474699
-0.176138 0.156836 -0.234741
-0.176135 0.15691 -0.234736
-0.17613199 0.156982 -0.234736
-0.176129 0.15705401 -0.23474599
-0.176125 0.15712599 -0.23476
-0.17612199 0.157198 -0.234763
-0.17612 0.157272 -0.23475499
-0.176117 0.157346 -0.234749
-0.17611399 0.157418 -0.23474801
-0.176112 0.157492 -0.234742
-0.176109 0.157566 -0.234732
-0.176107 0.157639 -0.234724
-0.17610399 0.157713 -0.234722
-0.176101 0.157785 -0.23472901
-0.176098 0.157857 -0.234735
-0.17609499 0.157929 -0.234733
-0.176091 0.158002 -0.23474599
-0.17608801 0.15807401 -0.23475599
-0.17608599 0.15814701 -0.234742
-0.176083 0.15822101 -0.234732
-0.17608 0.15829501 -0.234735
-0.17607699 0.15836699 -0.23473699
-0.176075 0.15844101 -0.234721
-0.176073 0.15851399 -0.234707
-0.17607 0.15858801 -0.234704
-0.17606799 0.15865999 -0.23470201
-0.176065 0.15873399 -0.23470201
-0.176062 0.15880799 -0.234698
-0.17606001 0.15888201 -0.23468301
-0.176057 0.15895601 -0.23467501
-0.176054 0.15902799 -0.234677
-0.17605101 0.15910199 -0.234677
-0.17604899 0.159173 -0.23466399
-0.176047 0.15924899 -0.23464601
-0.176044 0.159321 -0.23464
-0.17604101 0.15939499 -0.234642
-0.176038 0.159467 -0.23464499
-0.176035 0.159539 -0.234649
-0.17603201 0.159613 -0.234649
-0.17603 0.159687 -0.23464499
-0.176027 0.159759 -0.234652
-0.17602301 0.159831 -0.23465601
-0.17602099 0.159904 -0.23464601
-0.176018 0.159978 -0.23463801
-0.176016 0.16005 -0.234641
-0.17601299 0.16012201 -0.234641
-0.176011 0.160198 -0.234623
-0.176009 0.160271 -0.23459999
-0.176007 0.160345 -0.234584
-0.17600399 0.160419 -0.23458201
-0.176001 0.160491 -0.234586
-0.175998 0.16056301 -0.234585
-0.17599501 0.16063701 -0.234587
-0.175992 0.16070899 -0.234589
-0.175989 0.16078299 -0.234585
-0.17598701 0.160854 -0.23457199
-0.17598499 0.160928 -0.23456199
-0.175982 0.161002 -0.234556
-0.175979 0.161074 -0.234552
-0.17597701 0.161148 -0.234541
-0.17597499 0.161221 -0.23452701
-0.175972 0.161295 -0.234515
-0.17597 0.161369 -0.23450699
-0.17596801 0.16144 -0.234496
-0.175965 0.161514 -0.234492
-0.175962 0.161586 -0.234502
-0.17595799 0.161659 -0.23451599
-0.175955 0.161731 -0.234515
-0.175953 0.16180401 -0.234501
-0.175951 0.161878 -0.234483
-0.17594901 0.161952 -0.234467
-0.175946 0.162025 -0.23446
-0.175943 0.162099 -0.234456
-0.17594001 0.16217101 -0.234464
-0.175937 0.16224299 -0.234473
-0.175934 0.16231599 -0.234477
-0.17593101 0.162389 -0.23447099
-0.175929 0.162461 -0.234465
-0.175925 0.162533 -0.234474
-0.17592201 0.162606 -0.23449001
-0.175919 0.16268 -0.234492
-0.175916 0.162753 -0.23447999
-0.175915 0.162827 -0.234459
-0.17591199 0.162899 -0.234451
-0.175909 0.162973 -0.23445299
-0.175906 0.163045 -0.234451
-0.17590401 0.163119 -0.23445
-0.175901 0.16319001 -0.23444401
-0.175899 0.16326401 -0.23443
-0.175896 0.16333801 -0.234418
-0.17589401 0.16340999 -0.234411
-0.175891 0.16348299 -0.234405
-0.175888 0.16355599 -0.234413
-0.17588501 0.163628 -0.234421
-0.175882 0.163701 -0.234414
-0.17588 0.163773 -0.234404
-0.175878 0.163847 -0.23439001
-0.17587499 0.163919 -0.23438901
-0.175872 0.163991 -0.23439901
-0.175868 0.164065 -0.234411
-0.17586499 0.16413701 -0.234411
-0.175863 0.164211 -0.234394
-0.175861 0.16428301 -0.234384
-0.17585801 0.16435499 -0.23438799
-0.175854 0.16442899 -0.2344
-0.175851 0.164501 -0.234409
-0.17584801 0.164573 -0.23441499
-0.175845 0.164645 -0.234421
-0.175842 0.164717 -0.234423
-0.17583901 0.164791 -0.234414
-0.175836 0.164865 -0.23441
-0.175833 0.164937 -0.234422
-0.17583001 0.16500901 -0.234432
-0.175827 0.16508099 -0.23442701
-0.175825 0.16515499 -0.23441701
-0.175822 0.16522899 -0.23440699
-0.17581999 0.1653 -0.234396
-0.175818 0.165374 -0.234386
-0.175814 0.165446 -0.234392
-0.17581099 0.165519 -0.234412
-0.175807 0.165591 -0.234433
-0.17580301 0.165663 -0.23444501
-0.1758 0.165737 -0.23444501
-0.175797 0.16580901 -0.234447
-0.17579401 0.16588099 -0.23446
-0.17579 0.16595399 -0.234478
-0.175787 0.166026 -0.234496
-0.17578299 0.166098 -0.234512
-0.17578 0.16617 -0.234515
-0.175777 0.166244 -0.234515
-0.17577399 0.166317 -0.23452701
-0.17577 0.166389 -0.234539
-0.17576601 0.16646101 -0.234556
-0.175763 0.16653401 -0.23457
-0.17576 0.16660801 -0.23457199
-0.17575701 0.16667899 -0.23457
-0.175754 0.16675401 -0.23458099
-0.17575 0.16682599 -0.234605
-0.17574599 0.166897 -0.234623
-0.175743 0.166971 -0.234633
-0.17574 0.167043 -0.23464
-0.175736 0.167117 -0.23465399
-0.175732 0.167189 -0.23467
-0.17572901 0.167262 -0.234686
-0.175724 0.16733401 -0.234717
-0.17572001 0.16740701 -0.23473901
-0.175717 0.16747899 -0.23475499
-0.175713 0.167551 -0.234773
-0.17570999 0.167624 -0.234782
-0.175707 0.167698 -0.23478401
-0.175703 0.16777 -0.234806
-0.175697 0.167843 -0.234864
-0.17569201 0.167917 -0.23492099
-0.175688 0.167989 -0.234947
-0.17568301 0.168062 -0.23498701
-0.175677 0.168135 -0.23504101
-0.17567299 0.168208 -0.235074
-0.175668 0.168281 -0.23512401
-0.175661 0.16835199 -0.235194
-0.17565601 0.16842701 -0.23524199
-0.175652 0.16850001 -0.23527201
-0.175648 0.16857301 -0.235301
-0.175641 0.16864599 -0.235385
-0.175634 0.168718 -0.235467
-0.17562801 0.16879401 -0.23553699
-0.175621 0.16886599 -0.235625
-0.175615 0.16894101 -0.23567501
-0.175606 0.16901299 -0.235806
-0.175597 0.16908699 -0.235946
-0.175589 0.16916101 -0.236044
-0.17627899 0.14845701 -0.23677
-0.176277 0.148534 -0.236745
-0.176275 0.14861199 -0.23672099
-0.17628001 0.148708 -0.236553
-0.17627899 0.14878701 -0.236509
-0.17627899 0.148873 -0.236421
-0.17627899 0.148955 -0.236359
-0.176278 0.14903601 -0.236303
-0.176278 0.14911699 -0.236249
-0.176277 0.149196 -0.23620901
-0.176275 0.14927299 -0.23617899
-0.176273 0.149349 -0.23616201
-0.17627101 0.149426 -0.23613399
-0.17626899 0.14950199 -0.23612
-0.176266 0.14957599 -0.236118
-0.176263 0.14964999 -0.236118
-0.17626201 0.149729 -0.236077
-0.17625999 0.14980599 -0.23605099
-0.176259 0.149885 -0.23600499
-0.176258 0.149964 -0.235963
-0.176257 0.150043 -0.23591501
-0.176255 0.15011901 -0.235893
-0.17625301 0.150196 -0.235872
-0.17625099 0.15027399 -0.23584799
-0.17625 0.15034901 -0.23582201
-0.176249 0.15042999 -0.23576801
-0.176248 0.15051 -0.23571201
-0.176246 0.150584 -0.23570099
-0.17624301 0.150658 -0.235699
-0.176241 0.150732 -0.235695
-0.176238 0.15080699 -0.235677
-0.176237 0.150885 -0.235641
-0.17623501 0.150962 -0.235616
-0.17623299 0.15103801 -0.23559999
-0.176231 0.15111101 -0.235586
-0.176229 0.151189 -0.23556601
-0.176227 0.15126599 -0.235526
-0.176227 0.151345 -0.23548099
-0.17622399 0.151421 -0.23546501
-0.176222 0.15149599 -0.235443
-0.17622 0.151572 -0.235429
-0.176218 0.151645 -0.235413
-0.17621499 0.151721 -0.235404
-0.176213 0.151795 -0.235394
-0.176211 0.15187 -0.23537201
-0.17621 0.15194701 -0.23533
-0.176209 0.152026 -0.23529001
-0.17620701 0.15210199 -0.235265
-0.17620499 0.152179 -0.23523299
-0.17620499 0.152256 -0.23518699
-0.176203 0.15233301 -0.235163
-0.1762 0.15240601 -0.23517001
-0.17619599 0.15247799 -0.235176
-0.176194 0.152551 -0.23517001
-0.176191 0.15262499 -0.235156
-0.17618901 0.15270101 -0.23514099
-0.17618699 0.152776 -0.235119
-0.176186 0.152852 -0.235093
-0.176183 0.152927 -0.23507901
-0.176181 0.153001 -0.23506901
-0.17617901 0.15307599 -0.23503999
-0.176177 0.15315001 -0.23503201
-0.176174 0.15322401 -0.235028
-0.176172 0.1533 -0.23501
-0.17617001 0.153375 -0.23498499
-0.17616799 0.153451 -0.234969
-0.176165 0.153523 -0.23496699
-0.176162 0.153596 -0.234965
-0.17615999 0.153668 -0.234964
-0.176156 0.153742 -0.23496599
-0.176153 0.153814 -0.23497
-0.17615101 0.153888 -0.234964
-0.176149 0.153964 -0.234947
-0.176146 0.154038 -0.234935
-0.176144 0.154111 -0.23493101
-0.17614099 0.154185 -0.23492301
-0.176138 0.154259 -0.234915
-0.176136 0.154333 -0.23490199
-0.176135 0.15440799 -0.23487
-0.17613301 0.15448301 -0.23485
-0.17613 0.15455601 -0.234854
-0.176127 0.15463001 -0.23485699
-0.17612401 0.15470099 -0.234855
-0.176121 0.15477499 -0.234845
-0.176119 0.15484899 -0.23483101
-0.176117 0.15492401 -0.234816
-0.17611501 0.154998 -0.234804
-0.176112 0.155074 -0.234786
-0.176111 0.155149 -0.234762
-0.176108 0.155221 -0.234753
-0.17610499 0.155295 -0.23475701
-0.176102 0.155367 -0.234761
-0.176099 0.155441 -0.23475701
-0.17609701 0.155515 -0.23474801
-0.176094 0.155587 -0.23474599
-0.176091 0.155661 -0.234742
-0.176089 0.155734 -0.234734
-0.17608599 0.155808 -0.234727
-0.176084 0.155882 -0.234723
-0.176081 0.155954 -0.23471899
-0.17607801 0.156028 -0.234713
-0.17607599 0.156102 -0.234708
-0.176073 0.156174 -0.234714
-0.17606901 0.15624601 -0.23473001
-0.176066 0.156316 -0.23473901
-0.176063 0.15639 -0.234735
-0.176061 0.156464 -0.234723
-0.17605799 0.15653799 -0.234721
-0.176054 0.15661 -0.234732
-0.176052 0.156682 -0.23473001
-0.17604899 0.156756 -0.234726
-0.176046 0.156828 -0.234736
-0.17604201 0.1569 -0.23474699
-0.176039 0.15697201 -0.234753
-0.176036 0.15704601 -0.234753
-0.176034 0.15712 -0.234745
-0.17603099 0.157194 -0.234736
-0.176029 0.15726499 -0.23473001
-0.176026 0.15734001 -0.234734
-0.17602199 0.15741199 -0.23474
-0.17602 0.15748499 -0.234735
-0.176017 0.157557 -0.23472901
-0.17601401 0.157629 -0.23473901
-0.176011 0.157702 -0.234743
-0.176008 0.157775 -0.234742
-0.17600501 0.157849 -0.234736
-0.17600299 0.157921 -0.234732
-0.175999 0.157995 -0.23474
-0.17599601 0.158066 -0.234751
-0.175993 0.15813901 -0.23474699
-0.175991 0.158213 -0.234733
-0.175989 0.158289 -0.23471101
-0.17598701 0.158362 -0.23469201
-0.175984 0.158436 -0.23469
-0.175982 0.158508 -0.234686
-0.175979 0.158582 -0.234676
-0.17597599 0.158656 -0.23467501
-0.175973 0.158728 -0.234677
-0.175971 0.15880001 -0.234677
-0.17596801 0.15887301 -0.23467501
-0.175965 0.15894701 -0.234668
-0.175963 0.15902101 -0.234652
-0.17596 0.159095 -0.234648
-0.17595699 0.15916499 -0.23466299
-0.175953 0.159237 -0.23468301
-0.175951 0.159311 -0.23467501
-0.17594799 0.159385 -0.23466299
-0.175946 0.15945899 -0.23465399
-0.175943 0.159532 -0.234644
-0.17594001 0.159604 -0.234648
-0.175937 0.159677 -0.234652
-0.175935 0.15975 -0.23464701
-0.17593201 0.159824 -0.234635
-0.17592999 0.159898 -0.23461901
-0.175928 0.159971 -0.234607
-0.175925 0.160043 -0.23460799
-0.17592201 0.160117 -0.234606
-0.175919 0.160191 -0.23459999
-0.175917 0.160263 -0.234598
-0.175914 0.160335 -0.234603
-0.17591099 0.160409 -0.234605
-0.175908 0.16048101 -0.23459899
-0.175905 0.16055501 -0.234589
-0.17590301 0.16062801 -0.234576
-0.175901 0.16070201 -0.23456401
-0.175898 0.16077401 -0.23456199
-0.17589501 0.16084599 -0.23456401
-0.175892 0.16091999 -0.234569
-0.175889 0.160992 -0.234575
-0.175887 0.161066 -0.23456299
-0.17588501 0.161139 -0.23454399
-0.175882 0.161213 -0.234534
-0.175879 0.161285 -0.234532
-0.17587601 0.161359 -0.234534
-0.17587399 0.161431 -0.234533
-0.175871 0.161505 -0.23451699
-0.17587 0.161578 -0.234497
-0.17586701 0.161652 -0.234485
-0.17586499 0.161725 -0.234466
-0.175863 0.161799 -0.23444401
-0.17586 0.161873 -0.234446
-0.17585699 0.161943 -0.234466
-0.175853 0.162018 -0.234477
-0.175851 0.16208901 -0.234465
-0.17584801 0.162163 -0.234457
-0.175845 0.16223501 -0.23446099
-0.175842 0.16230699 -0.234476
-0.17583799 0.16237999 -0.234486
-0.175835 0.162452 -0.23449001
-0.175832 0.162526 -0.23449001
-0.17583001 0.162597 -0.234487
-0.175827 0.162671 -0.234487
-0.175824 0.162743 -0.234483
-0.175822 0.162817 -0.234468
-0.17581999 0.162891 -0.23445199
-0.175817 0.162965 -0.23445401
-0.175813 0.16303501 -0.234466
-0.17580999 0.163109 -0.23448101
-0.175807 0.16318101 -0.234485
-0.175806 0.16325399 -0.234449
-0.175804 0.16333 -0.23441499
-0.17580099 0.16340099 -0.23441599
-0.175798 0.16347399 -0.23442
-0.175795 0.163546 -0.23442601
-0.17579199 0.163618 -0.23443601
-0.175789 0.163692 -0.234441
-0.175786 0.163764 -0.234429
-0.17578401 0.163837 -0.234419
-0.175781 0.163909 -0.234419
-0.175778 0.163983 -0.234418
-0.175776 0.164057 -0.23440801
-0.17577399 0.164129 -0.234394
-0.175771 0.164203 -0.23439001
-0.175768 0.16427401 -0.234385
-0.17576601 0.16434599 -0.23438101
-0.175763 0.16441999 -0.234385
-0.175759 0.164492 -0.234392
-0.17575601 0.164566 -0.234394
-0.175754 0.164638 -0.234396
-0.175751 0.16471 -0.23439801
-0.17574801 0.164784 -0.23439901
-0.175744 0.164857 -0.234409
-0.175741 0.164929 -0.234411
-0.17573901 0.165001 -0.234409
-0.175736 0.165075 -0.234412
-0.175733 0.16514599 -0.2344
-0.175731 0.16522001 -0.234386
-0.17572799 0.16529401 -0.23438799
-0.175725 0.16536599 -0.23439699
-0.175722 0.165438 -0.234403
-0.17571799 0.16551 -0.234409
-0.175715 0.165583 -0.23442601
-0.17571101 0.165655 -0.23444
-0.175708 0.165729 -0.234442
-0.175706 0.165801 -0.23444
-0.17570201 0.16587301 -0.23445299
-0.175698 0.16594601 -0.234477
-0.175694 0.16601799 -0.23450699
-0.17569 0.166091 -0.234525
-0.175687 0.166163 -0.23452599
-0.175685 0.166236 -0.23452
-0.17568199 0.166308 -0.234522
-0.175678 0.166383 -0.23453
-0.175675 0.166453 -0.234547
-0.175671 0.16652501 -0.23457099
-0.175667 0.1666 -0.234589
-0.17566299 0.16666999 -0.234615
-0.175659 0.16674501 -0.234642
-0.17565501 0.16681699 -0.23465399
-0.175653 0.166889 -0.23464
-0.175651 0.166962 -0.23461799
-0.175649 0.167034 -0.234615
-0.175644 0.167109 -0.234643
-0.175639 0.16718 -0.234689
-0.175635 0.167252 -0.23471899
-0.175631 0.167325 -0.234734
-0.17562801 0.167399 -0.23475
-0.175624 0.16747101 -0.234772
-0.17562 0.16754401 -0.234786
-0.17561699 0.16761599 -0.234799
-0.175613 0.16768999 -0.23482101
-0.17560899 0.167761 -0.23484901
-0.175604 0.167836 -0.234889
-0.17560001 0.167908 -0.234916
-0.175595 0.167979 -0.234956
-0.17558999 0.168054 -0.234988
-0.175587 0.168126 -0.235008
-0.17558201 0.168199 -0.235046
-0.175576 0.168272 -0.23511501
-0.17557 0.168346 -0.235167
-0.175566 0.16841801 -0.235203
-0.17556199 0.16849101 -0.235229
-0.175557 0.16856401 -0.23527201
-0.175549 0.16863801 -0.235378
-0.175542 0.16870999 -0.23546401
-0.175534 0.16878401 -0.235562
-0.17552701 0.16885801 -0.23565599
-0.17552 0.16893201 -0.23573001
-0.17550901 0.169006 -0.235908
-0.175503 0.16907901 -0.23597901
-0.175497 0.169153 -0.236047
-0.176194 0.14844599 -0.236816
-0.176193 0.148527 -0.236764
-0.176194 0.14861199 -0.23669
-0.176195 0.148699 -0.23659
-0.176195 0.148784 -0.236514
-0.176199 0.148876 -0.236368
-0.17619801 0.148957 -0.236314
-0.17619599 0.14903501 -0.236293
-0.176194 0.14911 -0.236277
-0.176194 0.149193 -0.23620699
-0.176194 0.149275 -0.23613501
-0.176191 0.149351 -0.23612501
-0.17618901 0.149425 -0.236119
-0.17618699 0.14950199 -0.236086
-0.176184 0.14957599 -0.23608799
-0.176182 0.14964999 -0.236084
-0.176181 0.14973199 -0.23602
-0.17617901 0.149808 -0.23600399
-0.176177 0.149885 -0.23598
-0.17617799 0.149968 -0.235901
-0.176176 0.150047 -0.23586901
-0.176174 0.150122 -0.235847
-0.176172 0.150198 -0.23583101
-0.176171 0.15027501 -0.23579299
-0.17616899 0.150352 -0.23576
-0.17616799 0.15042999 -0.235732
-0.176166 0.150509 -0.23569401
-0.176164 0.150584 -0.235682
-0.17616101 0.150656 -0.23568401
-0.176158 0.15073 -0.235679
-0.176157 0.15080801 -0.235651
-0.176155 0.150885 -0.235623
-0.176153 0.150961 -0.235605
-0.17614999 0.151034 -0.23559301
-0.176148 0.15110999 -0.23557401
-0.176147 0.151187 -0.235542
-0.176146 0.15126599 -0.23549999
-0.176144 0.151343 -0.235466
-0.17614201 0.151419 -0.23544399
-0.17614 0.151494 -0.235425
-0.176138 0.15157001 -0.23539899
-0.176136 0.151645 -0.235385
-0.17613401 0.151721 -0.23537301
-0.176131 0.151795 -0.235359
-0.176129 0.15187 -0.235342
-0.176127 0.15194599 -0.23532
-0.176125 0.15201899 -0.23530599
-0.17612299 0.152097 -0.235278
-0.17612299 0.15217599 -0.23522399
-0.176121 0.152253 -0.235193
-0.176119 0.152328 -0.23516899
-0.176117 0.152402 -0.23515899
-0.17611399 0.152476 -0.23515899
-0.176112 0.15255 -0.235148
-0.17611 0.15262499 -0.23513
-0.176108 0.15270101 -0.235108
-0.17610601 0.152776 -0.23508801
-0.176103 0.15285 -0.235082
-0.176101 0.152924 -0.235071
-0.176099 0.153001 -0.23503099
-0.17609701 0.15307599 -0.23501299
-0.17609499 0.15315001 -0.235007
-0.176092 0.15322401 -0.23499601
-0.17609 0.15329801 -0.234982
-0.176089 0.153375 -0.23495001
-0.17608701 0.15345199 -0.234918
-0.176084 0.153524 -0.234917
-0.176082 0.153598 -0.23491301
-0.17607801 0.15367 -0.23492301
-0.176075 0.153742 -0.234929
-0.176073 0.153816 -0.23492
-0.17607 0.15389 -0.234906
-0.17606799 0.153964 -0.23490199
-0.176065 0.154037 -0.234896
-0.176062 0.154111 -0.23489299
-0.17605899 0.154185 -0.23489299
-0.176057 0.154257 -0.23488501
-0.176055 0.154333 -0.234871
-0.176052 0.154406 -0.23485599
-0.17605001 0.15448 -0.234852
-0.176047 0.15455399 -0.234846
-0.176045 0.15462799 -0.234832
-0.17604201 0.15470099 -0.23482101
-0.17603999 0.15477499 -0.234817
-0.176037 0.154847 -0.234815
-0.176034 0.154921 -0.234809
-0.17603201 0.15499499 -0.234798
-0.17603 0.15507001 -0.234782
-0.176027 0.15514401 -0.23477
-0.176025 0.15521599 -0.234768
-0.17602199 0.15528999 -0.234761
-0.17602 0.15536501 -0.234745
-0.176017 0.155439 -0.234733
-0.176015 0.155513 -0.234727
-0.17601199 0.15558501 -0.234724
-0.17601 0.15565901 -0.234716
-0.176007 0.15573201 -0.23470999
-0.17600399 0.15580601 -0.234708
-0.176002 0.15587801 -0.234703
-0.175999 0.15595201 -0.234697
-0.17599601 0.15602601 -0.234699
-0.175993 0.15609799 -0.234705
-0.17599 0.15617 -0.234704
-0.17598701 0.15624399 -0.234706
-0.175984 0.156314 -0.23471799
-0.175981 0.156388 -0.23471799
-0.175978 0.156462 -0.23471101
-0.17597499 0.156534 -0.234715
-0.175971 0.15660501 -0.234735
-0.17596801 0.15667699 -0.234745
-0.17596599 0.15675201 -0.23472799
-0.175964 0.156826 -0.234716
-0.17596 0.15689801 -0.234726
-0.17595699 0.15696999 -0.234732
-0.175954 0.157042 -0.23473699
-0.175951 0.157116 -0.234741
-0.17594799 0.157188 -0.23473901
-0.175945 0.157262 -0.23473699
-0.175942 0.157334 -0.23474599
-0.17593899 0.157406 -0.23474599
-0.175937 0.15748 -0.23474
-0.175934 0.157552 -0.234741
-0.17593101 0.157626 -0.23473901
-0.175928 0.1577 -0.23472901
-0.175926 0.157774 -0.23471899
-0.175923 0.157848 -0.234715
-0.17591999 0.15792 -0.23472001
-0.175917 0.15799201 -0.23471799
-0.175915 0.15806501 -0.234714
-0.17591199 0.15813699 -0.23471101
-0.175909 0.15821099 -0.23470899
-0.175906 0.15828501 -0.234705
-0.17590401 0.15835901 -0.234687
-0.17590199 0.15843201 -0.234668
-0.1759 0.158508 -0.23464601
-0.175899 0.158583 -0.23461799
-0.175897 0.158657 -0.234604
-0.17589299 0.158729 -0.23461699
-0.17589 0.15879899 -0.23462901
-0.175887 0.158871 -0.234635
-0.175883 0.15894499 -0.23464499
-0.175879 0.159016 -0.234666
-0.17587601 0.159088 -0.23468199
-0.175873 0.159162 -0.234672
-0.175871 0.159236 -0.23465601
-0.175869 0.159309 -0.23464701
-0.17586599 0.159383 -0.234635
-0.175864 0.159457 -0.234633
-0.17586 0.159529 -0.234641
-0.17585801 0.159601 -0.23463599
-0.17585599 0.159675 -0.23462
-0.175853 0.159748 -0.23461001
-0.17585 0.159822 -0.234612
-0.17584801 0.159894 -0.234607
-0.175845 0.159968 -0.234593
-0.175843 0.160042 -0.234585
-0.17584001 0.16011401 -0.234587
-0.175837 0.160188 -0.234594
-0.175834 0.16026001 -0.23459201
-0.175832 0.16033299 -0.23458
-0.17582899 0.16040701 -0.23457199
-0.175826 0.16047899 -0.23457301
-0.175823 0.16055299 -0.23457301
-0.17581999 0.160625 -0.23457099
-0.175818 0.16069899 -0.234556
-0.175816 0.160772 -0.23454399
-0.175813 0.160844 -0.23454601
-0.17580999 0.160918 -0.234548
-0.175807 0.16099 -0.234549
-0.175805 0.161064 -0.234539
-0.17580201 0.161138 -0.23452701
-0.175799 0.16121 -0.234531
-0.175796 0.161282 -0.234534
-0.175795 0.161355 -0.23450799
-0.17579301 0.161431 -0.23448201
-0.17579 0.161504 -0.234474
-0.175788 0.161576 -0.234469
-0.17578501 0.16165 -0.23447099
-0.175782 0.161722 -0.234479
-0.175779 0.16179401 -0.234477
-0.175776 0.16186801 -0.23447201
-0.17577399 0.16193999 -0.23446199
-0.175771 0.16201399 -0.23446
-0.175768 0.162086 -0.23446999
-0.17576399 0.162158 -0.234483
-0.175761 0.16223 -0.234487
-0.175758 0.162302 -0.23448899
-0.17575499 0.162376 -0.234496
-0.175752 0.162448 -0.23449799
-0.175749 0.162522 -0.234492
-0.17574701 0.16259401 -0.234484
-0.175744 0.162668 -0.234479
-0.175741 0.162742 -0.234475
-0.17573901 0.16281401 -0.234475
-0.175736 0.16288599 -0.234475
-0.175733 0.16295999 -0.234474
-0.17573 0.163032 -0.234474
-0.17572799 0.163105 -0.234466
-0.175725 0.163177 -0.23446
-0.175722 0.163249 -0.234469
-0.17571899 0.163323 -0.234465
-0.175717 0.163397 -0.234439
-0.175716 0.16347 -0.234411
-0.175713 0.163544 -0.23440599
-0.17570999 0.163616 -0.234412
-0.175707 0.163688 -0.234412
-0.175705 0.163762 -0.234395
-0.175703 0.163835 -0.23438101
-0.17569999 0.16390701 -0.23437899
-0.175697 0.16397899 -0.234385
-0.17569301 0.16405299 -0.234396
-0.17569 0.16412599 -0.234404
-0.175687 0.164198 -0.23440801
-0.17568401 0.16427 -0.23440801
-0.17568199 0.164343 -0.234403
-0.175679 0.164417 -0.234393
-0.175676 0.164489 -0.234391
-0.17567299 0.164561 -0.23439699
-0.17567 0.164635 -0.234402
-0.175667 0.16470701 -0.23440599
-0.17566399 0.16477901 -0.23440599
-0.175662 0.16485301 -0.234394
-0.175659 0.16492499 -0.234395
-0.17565601 0.164997 -0.234405
-0.175653 0.165071 -0.234411
-0.175649 0.165143 -0.234422
-0.17564701 0.165215 -0.234418
-0.175644 0.165289 -0.234414
-0.17564 0.165362 -0.23443
-0.17563599 0.165434 -0.234449
-0.175633 0.16550601 -0.234457
-0.17563 0.16557799 -0.23446099
-0.17562699 0.16565201 -0.23447099
-0.175623 0.16572499 -0.23448201
-0.17562 0.165797 -0.234488
-0.17561699 0.165869 -0.23449799
-0.175613 0.165941 -0.23451
-0.17561001 0.166015 -0.234515
-0.175607 0.166087 -0.234523
-0.175603 0.16616 -0.234549
-0.17559899 0.166232 -0.234577
-0.175596 0.16630401 -0.23458201
-0.175593 0.16637801 -0.23458201
-0.175589 0.166449 -0.234598
-0.175585 0.166521 -0.23461799
-0.175583 0.166595 -0.234615
-0.17557999 0.166669 -0.234605
-0.175577 0.166741 -0.23461901
-0.17557199 0.166814 -0.234653
-0.175569 0.166886 -0.234666
-0.175566 0.166958 -0.23466
-0.17556299 0.167032 -0.234666
-0.175559 0.16710401 -0.23469201
-0.17555501 0.16717701 -0.234715
-0.175552 0.16724899 -0.234725
-0.175548 0.167321 -0.23473699
-0.17554501 0.167394 -0.23475
-0.175541 0.167468 -0.234768
-0.17553701 0.16754 -0.234786
-0.175533 0.167613 -0.234814
-0.175529 0.167685 -0.23484001
-0.17552499 0.167758 -0.23486701
-0.175521 0.167832 -0.23488501
-0.17551801 0.167905 -0.23489501
-0.175513 0.16797701 -0.234933
-0.17550801 0.16805001 -0.23498
-0.175504 0.16812301 -0.235006
-0.17549901 0.16819599 -0.23503999
-0.175494 0.16826899 -0.235094
-0.17548899 0.168341 -0.235127
-0.175485 0.16841599 -0.23515099
-0.17547899 0.168487 -0.23522501
-0.17546999 0.168562 -0.235349
-0.17546301 0.168634 -0.235441
-0.175456 0.168708 -0.235521
-0.17545 0.168781 -0.235586
-0.17544299 0.168855 -0.235682
-0.175432 0.168929 -0.23585001
-0.17542601 0.169002 -0.235908
-0.175421 0.169075 -0.235956
-0.17541499 0.169149 -0.236018
-0.176129 0.148445 -0.23682401
-0.176128 0.148526 -0.23676801
-0.176128 0.14861 -0.236696
-0.176129 0.14869399 -0.236618
-0.176129 0.14877699 -0.236544
-0.176128 0.148858 -0.23649999
-0.176128 0.14894199 -0.236422
-0.176129 0.149028 -0.236324
-0.17613 0.149114 -0.23623601
-0.17613 0.149195 -0.23617999
-0.176128 0.14927199 -0.236149
-0.176126 0.149349 -0.23612501
-0.176126 0.14943001 -0.236073
-0.176125 0.149509 -0.236029
-0.17612299 0.14958601 -0.235993
-0.176121 0.149664 -0.23596901
-0.176119 0.149738 -0.235964
-0.176116 0.149811 -0.23596001
-0.17611399 0.14988901 -0.235938
-0.17611299 0.149968 -0.235892
-0.176112 0.150047 -0.235854
-0.17611 0.150122 -0.235827
-0.176109 0.15020099 -0.235783
-0.176107 0.150279 -0.235761
-0.17610399 0.150353 -0.235753
-0.176102 0.150428 -0.23573899
-0.1761 0.150506 -0.23571
