0.21983 -0.0876814 0.97159 0
0.226551 -0.0939982 0.969453 0
0.23978 -0.0915662 0.9665 0
0.243238 -0.0928881 0.965509 0
0.236799 -0.0773624 0.968474 0
0.246414 -0.0685842 0.966735 0
0.241887 -0.0749109 0.967408 0
0.235984 -0.0662152 0.969498 0
0.226536 -0.0675925 0.971655 0
0.193834 -0.0639558 0.978947 0
0.186949 -0.0706218 0.979828 0
0.187778 -0.0652443 0.980042 0
0.181392 -0.0572395 0.981744 0
0.189701 -0.0593456 0.980047 0
0.20113 -0.0580896 0.977841 0
0.206689 -0.0571056 0.976739 0
0.211524 -0.0516609 0.976007 0.0012616
0.199759 -0.0542575 0.978342 0.00674619
0.184498 -0.0547714 0.981306 0.00729812
0.18368 -0.0539483 0.981505 0.0120448
0.187584 -0.0511324 0.980917 0.00761602
0.192193 -0.054867 0.979822 0
0.199772 -0.0461359 0.978756 0
0.208828 -0.061168 0.976037 0
0.203125 -0.0565865 0.977516 0
0.213468 -0.0605759 0.97507 0
0.21776 -0.0614552 0.974066 0
0.211182 -0.0566631 0.975803 0
0.198301 -0.0590627 0.97836 0
0.185709 -0.0530357 0.981172 0
0.176673 -0.0500508 0.982996 0
0.177293 -0.0445941 0.983147 0
0.166818 -0.0414959 0.985114 0
0.154882 -0.0453263 0.986893 0
0.171612 -0.0344477 0.984562 0
0.185033 -0.0283798 0.982322 0
0.18032 -0.0278118 0.983215 0
0.170627 -0.024317 0.985036 0
0.161946 -0.0169174 0.986655 0.00743503
0.152885 -0.00816187 0.98821 0.0153373
0.154672 -0.00527999 0.987952 0.0225794
0.15164 -0.000133152 0.988436 0.0285494
0.143355 0.000363197 0.989671 0.0236236
0.152617 0.00112362 0.988285 0.0224319
0.158199 0.00195458 0.987405 0.0243913
0.167957 -0.00570268 0.985778 0.0148647
0.148767 -0.000273553 0.988872 0.0121821
0.143515 0.00273163 0.989644 0.00928372
0.146286 0.000602654 0.989242 0.00937242
0.134574 0.00346258 0.990898 0.0158754
0.150057 0.00263446 0.988674 0.0158195
0.158498 0.00947883 0.987314 0.0190172
0.167973 0.0155948 0.985668 0.0222002
0.174267 0.0213414 0.984467 0.032631
0.19659 0.0291261 0.980053 0.0257909
0.195348 0.0218526 0.98049 0.027472
0.180765 0.0164073 0.983389 0.0270916
0.178805 0.0244158 0.983582 0.0223807
0.173156 0.0262386 0.984545 0.0167572
0.185617 0.0296268 0.982175 0.0157152
0.169144 0.0269603 0.985223 0.0183134
0.16829 0.0302947 0.985272 0.0163677
0.165482 0.035413 0.985577 0.0186601
0.174308 0.0385597 0.983936 0.0192792
0.18066 0.0490147 0.982324 0.0240326
0.163389 0.049899 0.985299 0.0224724
0.146844 0.0483427 0.987978 0.0246474
0.137811 0.0500424 0.989193 0.0226083
0.136785 0.0462282 0.989521 0.016522
0.140977 0.0581237 0.988305 0.015247
0.152459 0.0578513 0.986615 0.0177441
0.157622 0.0597331 0.985691 0.0205428
0.157262 0.0567188 0.985927 0.0195111
0.147838 0.0497422 0.98776 0.0105681
0.143331 0.0539271 0.988205 0.0104567
0.148171 0.0632883 0.986935 0.010562
0.148418 0.0706702 0.986396 0.0121773
0.146293 0.0752677 0.986374 0.0164089
0.146879 0.0792113 0.985978 0.0160967
0.137749 0.080148 0.987219 0.0141917
0.134738 0.0865884 0.987091 0.0195751
0.14534 0.0948012 0.984829 0.0226401
0.156301 0.0977479 0.982861 0.0111377
0.161773 0.0933566 0.982402 0.00768987
0.161765 0.0918021 0.98255 0.00561484
0.161021 0.0966082 0.982211 0.013053
0.160639 0.0940265 0.982524 0.00560543
0.165274 0.0916746 0.981978 0
0.1647 0.0917729 0.982065 0
0.163681 0.0912833 0.982281 0
0.165036 0.0914434 0.982039 0
0.168257 0.0935948 0.98129 0
0.174083 0.0918766 0.980436 0
0.171 0.0891121 0.981233 0
0.165471 0.0883712 0.982247 0
0.164292 0.0916951 0.982141 0
0.162081 0.0931003 0.982376 0
0.163732 0.104816 0.980921 0.00143242
0.169595 0.11431 0.978862 0.00112447
0.175181 0.123069 0.976814 0
0.176311 0.136041 0.974888 0.00745
0.165944 0.140608 0.976059 0.00166185
0.167839 0.141465 0.975611 0
0.163289 0.14632 0.975667 0
0.163004 0.155869 0.974235 0
0.154696 0.15712 0.975388 0.00580486
0.155979 0.152685 0.975888 0.0101202
0.153374 0.150028 0.976713 0.00959263
0.154327 0.158427 0.975235 0.0151745
0.151557 0.155592 0.976126 0.0143396
0.155022 0.152213 0.976114 0.0123674
0.162159 0.162123 0.973355 0.0126885
0.164934 0.157686 0.973618 0.0127584
0.169234 0.161917 0.972184 0.0146093
0.170936 0.165768 0.971237 0.0154853
0.133522 -0.212838 0.967922 0
0.119402 -0.205773 0.971288 0.00176639
0.127451 -0.209254 0.96952 0
0.119589 -0.200715 0.972323 0
0.120379 -0.195331 0.973321 0
0.102968 -0.18568 0.9772 0.00110233
0.0910314 -0.179612 0.979517 0
0.0950077 -0.183924 0.978338 0
0.114056 -0.193139 0.97452 0
0.124194 -0.192435 0.973419 0
0.158225 -0.209163 0.964995 0
0.167989 -0.20093 0.965094 0
0.193096 -0.210734 0.958282 0
0.181427 -0.198554 0.963151 0
0.204329 -0.206916 0.956784 0
0.196046 -0.204182 0.959102 0
0.20003 -0.201192 0.958911 0
0.179733 -0.192744 0.964648 0
0.162378 -0.18173 0.969849 0
0.127418 -0.157075 0.979332 0.000343869
0.128892 -0.155192 0.97944 0.00339596
0.131711 -0.154665 0.979148 0.00392671
0.128624 -0.157028 0.979182 0
0.118016 -0.154538 0.980913 0.00163668
0.125035 -0.15793 0.979502 0
0.151713 -0.170945 0.97353 0
0.153486 -0.165004 0.974277 0
0.166392 -0.1623 0.972611 0
0.174403 -0.159676 0.971641 0
0.18786 -0.157362 0.969508 0
0.205674 -0.158815 0.965648 0
0.173721 -0.145038 0.974056 0
0.160269 -0.140619 0.977006 0
0.148946 -0.13882 0.979053 0.000220715
0.147242 -0.132039 0.980248 0.000852145
0.147284 -0.132955 0.980118 0
0.157621 -0.137716 0.97785 0
0.171185 -0.142286 0.974911 0
0.177871 -0.139731 0.974083 0
0.17726 -0.131497 0.97534 0
0.195437 -0.141058 0.970519 0
0.198553 -0.139918 0.970051 0
0.215893 -0.143274 0.965848 0
0.205443 -0.136819 0.969058 0
0.205306 -0.137728 0.968958 0
0.203178 -0.135211 0.969761 0
0.194205 -0.127762 0.972605 0
0.189344 -0.119883 0.974565 0
0.187597 -0.112272 0.975809 0
0.186209 -0.110844 0.976238 0
0.191864 -0.112049 0.975004 0
0.188132 -0.106203 0.976385 0
0.195079 -0.106731 0.974963 0
0.186366 -0.103347 0.97703 0
0.170294 -0.0865391 0.981586 0.00467277
0.158118 -0.0792746 0.984233 0.010986
0.152864 -0.0768552 0.985254 0.0113429
0.15562 -0.0791201 0.984643 0.0156102
0.157726 -0.0799031 0.984245 0.0118885
0.155135 -0.0735812 0.985149 0.015056
0.139456 -0.0656373 0.98805 0.0255476
0.138694 -0.0639164 0.988271 0.0295439
0.135901 -0.0635311 0.988683 0.0316769
0.142569 -0.061815 0.987853 0.0287679
0.146583 -0.0635066 0.987158 0.0264748
0.139033 -0.0590464 0.988526 0.0335746
0.139262 -0.0635538 0.988214 0.0350385
0.13701 -0.0638632 0.988509 0.0364683
0.146034 -0.0594497 0.987492 0.0422814
0.149635 -0.0632908 0.986714 0.0351493
0.161483 -0.0618874 0.984933 0.0293654
0.168197 -0.0632989 0.983719 0.0260238
0.177994 -0.0666061 0.981775 0.0200971
0.182104 -0.0707574 0.98073 0.0137613
0.178637 -0.0739189 0.981135 0.00774966
0.188992 -0.0836798 0.978407 0
0.190012 -0.0860686 0.978002 0.00134796
0.20071 -0.0890894 0.975591 0
0.202948 -0.0914235 0.974912 0
0.201218 -0.0880385 0.975582 0
0.192901 -0.0868199 0.97737 0
0.198332 -0.0789072 0.976953 0
0.201506 -0.0793415 0.976269 0
0.196926 -0.0755986 0.977499 0
0.189879 -0.0796275 0.978573 0
0.206296 -0.0866676 0.974644 0
0.208946 -0.0880102 0.973959 0
0.227371 -0.0936631 0.969293 0
0.233968 -0.0929854 0.967788 0
0.230152 -0.0907806 0.968911 0
0.201644 -0.0835183 0.975892 0
0.19144 -0.0765457 0.978515 0
0.200632 -0.0828241 0.976159 0
0.201914 -0.079738 0.976152 0
0.195702 -0.0786212 0.977507 0
0.19244 -0.0768695 0.978293 0
0.189644 -0.0724168 0.979179 0
0.193942 -0.0762168 0.978048 0
0.198583 -0.0656091 0.977886 0
0.205723 -0.0647249 0.976467 0
0.200372 -0.0707144 0.977165 0
0.200379 -0.0619044 0.977761 0
0.203558 -0.0701796 0.976544 0
0.19532 -0.0693997 0.978281 0
0.183511 -0.0679827 0.980664 0
0.18424 -0.0769603 0.979864 0
0.183302 -0.0719248 0.980422 0
0.174102 -0.0752683 0.981847 0
0.168189 -0.0808479 0.982434 0
0.19304 -0.0824965 0.977717 0
0.2111 -0.0899226 0.973319 0
0.207176 -0.0879375 0.974343 0
0.210156 -0.093572 0.97318 0
0.207962 -0.0893655 0.974046 0
0.220563 -0.0845933 0.971697 0
0.233368 -0.0927411 0.967956 0
0.233615 -0.0884217 0.9683 0
0.227364 -0.0910924 0.96954 0
0.224778 -0.0899629 0.970248 0
0.234192 -0.0938238 0.967652 0
0.239453 -0.0953356 0.966216 0
0.234858 -0.0854665 0.968265 0
0.240458 -0.0807963 0.967291 0
0.237276 -0.0743343 0.968594 0
0.246283 -0.0766554 0.966162 0
0.260704 -0.0822486 0.961909 0
0.236486 -0.0698977 0.969117 0
0.22176 -0.0647329 0.97295 0
0.210599 -0.0672877 0.975254 0
0.198693 -0.0680968 0.977693 0
0.205634 -0.0649337 0.976472 0
0.207825 -0.0627461 0.976151 0
0.212667 -0.0603988 0.975256 0
0.217556 -0.0633462 0.97399 0
0.216729 -0.0662866 0.973979 0
0.198953 -0.0580696 0.978287 0
0.186844 -0.0601283 0.980548 0
0.17305 -0.0533472 0.983467 0
0.179864 -0.05382 0.982218 0
0.196366 -0.0558809 0.978937 0
0.21093 -0.0559768 0.975897 0
0.220601 -0.0635896 0.973289 0
0.222014 -0.060448 0.973168 0
0.229039 -0.0613654 0.971481 0
0.247162 -0.0669018 0.966662 0
0.23394 -0.0614605 0.970306 0
0.232434 -0.0660312 0.970368 0
0.219585 -0.0541875 0.974087 0
0.203465 -0.0523083 0.977684 0
0.190807 -0.0510231 0.980301 0
0.17546 -0.0377818 0.983761 0
0.183331 -0.045951 0.981977 0
0.174043 -0.0315938 0.984231 0
0.191721 -0.0298753 0.980995 0
0.195763 -0.0305134 0.980177 0
0.181471 -0.0267288 0.983033 0
0.164492 -0.0244926 0.986074 0.00237778
0.153055 -0.0125987 0.988137 0.0156994
0.139032 -0.0084197 0.990252 0.0223397
0.138659 -0.00597836 0.990322 0.0228817
0.135596 -0.000468181 0.990764 0.0262961
0.13457 -0.00776793 0.990874 0.0305969
0.144813 -0.000418514 0.989459 0.0285586
0.168181 0.00150477 0.985755 0.0282124
0.158932 0.00470427 0.987278 0.0208209
0.164972 0.00729669 0.986271 0.0133797
0.157729 0.00681091 0.987459 0.0177145
0.155674 0.00495156 0.987796 0.0184132
0.16014 0.00802461 0.987062 0.0228852
0.165358 0.0100039 0.986183 0.025258
0.145924 0.0174025 0.989143 0.0275738
0.153427 0.0151661 0.988044 0.0319199
0.16866 0.0230501 0.985405 0.0275638
0.17332 0.0209612 0.984643 0.0256709
0.177562 0.015596 0.983986 0.0188355
0.187088 0.0173187 0.98219 0.0148824
0.168831 0.0258669 0.985305 0.0192588
0.164124 0.0251791 0.986118 0.0232032
0.1605 0.0305263 0.986564 0.0277932
0.159298 0.0327309 0.986688 0.0292552
0.166756 0.0370148 0.985303 0.0297906
0.170277 0.0417619 0.984511 0.0361355
0.179107 0.0537887 0.982358 0.0334511
0.17719 0.0545368 0.982664 0.0231886
0.165743 0.0566358 0.984541 0.0239815
0.139321 0.0550962 0.988713 0.0237189
0.134926 0.055832 0.989281 0.0223695
0.148093 0.0566029 0.987352 0.0211167
0.15617 0.0591534 0.985957 0.0248345
0.166902 0.0573508 0.984304 0.0199752
0.16815 0.0563617 0.984149 0.0203398
0.165333 0.0526093 0.984834 0.007965
0.153529 0.0583591 0.986419 0.00742754
0.162714 0.060867 0.984794 0.00173784
0.151113 0.0735193 0.985779 0.0137621
0.155904 0.07739 0.984736 0.0136616
0.153583 0.0755608 0.985243 0.00788011
0.144945 0.0769636 0.986442 0.00722262
0.136912 0.0788272 0.987442 0.00761903
0.143212 0.0793336 0.986507 0.000255874
0.155505 0.0808026 0.984525 0.00315883
0.158946 0.0804431 0.984005 0.00315839
0.166106 0.0902085 0.981973 0.00196317
0.172093 0.0811541 0.981732 0
0.170338 0.0852631 0.98169 0
0.177965 0.0874172 0.980146 0
0.181851 0.0864895 0.979515 0
0.186229 0.0932948 0.978067 0
0.184175 0.0908934 0.978682 0
0.185998 0.0880948 0.978593 0
0.187253 0.097854 0.977426 0
0.185128 0.0956932 0.978044 0
0.173642 0.0893269 0.980749 0
0.171653 0.0943722 0.980627 0
0.172656 0.0995492 0.979939 0
0.171962 0.115269 0.978336 0.0119127
0.175762 0.122585 0.976771 0.0144994
0.173833 0.12213 0.977173 0
0.183161 0.129756 0.974482 0
0.168178 0.134423 0.976548 6.06404e-05
0.16514 0.140786 0.97617 0
0.16881 0.143127 0.975201 0
0.156583 0.140692 0.977593 0
0.151097 0.144476 0.977904 0.00172816
0.147715 0.144557 0.978409 0.0105357
0.152611 0.140548 0.978241 0.00591042
0.148515 0.146205 0.978043 0.0105454
0.145371 0.14471 0.978737 0.0110993
0.156028 0.148462 0.976532 0.00968516
0.171089 0.160777 0.972049 0.00845945
0.179077 0.169753 0.96908 0.0115748
0.166527 0.15309 0.97408 0.0154874
0.168273 0.152912 0.973808 0.0185307
0.172093 0.155912 0.972664 0.0234121
0.109125 -0.188099 0.976069 0
0.119135 -0.195678 0.973405 0
0.130886 -0.197318 0.971563 0
0.1299 -0.19725 0.971709 0
0.162359 -0.207178 0.964737 0
0.17654 -0.205413 0.962621 0
0.180432 -0.205029 0.961981 0
0.194606 -0.204341 0.959361 0
0.195803 -0.204735 0.959033 0
0.19355 -0.201871 0.960097 0
0.186277 -0.196924 0.96256 0
0.17423 -0.190192 0.966163 0
0.152087 -0.177623 0.972275 0
0.133777 -0.161207 0.977812 0
0.123034 -0.152764 0.980574 0
0.127364 -0.15696 0.979358 0
0.123504 -0.160087 0.979346 0.000134426
0.130679 -0.157508 0.978833 0
0.14217 -0.164679 0.976048 0
0.161973 -0.171358 0.971803 0
0.176075 -0.172206 0.969197 0
0.17495 -0.162707 0.97104 0
0.186478 -0.162734 0.968888 0
0.191687 -0.158966 0.968497 0
0.19765 -0.153374 0.9682 0
0.182134 -0.146449 0.972306 0
0.163222 -0.137229 0.976999 0.00669084
0.145744 -0.132018 0.980474 0.0128758
0.147343 -0.128918 0.980648 0.0103164
0.130611 -0.123853 0.983667 0.0180442
0.148248 -0.128885 0.980516 0
0.148608 -0.131188 0.980156 0
0.171933 -0.137843 0.975417 0
0.180784 -0.134193 0.974325 0
0.197047 -0.138962 0.970496 0
0.202719 -0.143231 0.968705 0
0.214063 -0.143197 0.966267 0
0.22069 -0.145302 0.96446 0
0.21018 -0.138007 0.967873 0
0.209494 -0.134446 0.968523 0
0.209305 -0.129003 0.969304 0
0.206993 -0.122838 0.9706 0
0.210282 -0.12112 0.970109 0
0.210543 -0.119506 0.970252 0
0.215661 -0.117714 0.969347 0
0.197301 -0.107371 0.974445 0
0.20597 -0.111656 0.972167 0
0.197154 -0.101132 0.975142 0
0.178715 -0.0905493 0.979725 0
0.177123 -0.0858201 0.98044 0.00139274
0.175484 -0.0841884 0.980876 0.000701719
0.172242 -0.0862834 0.981268 0
0.16821 -0.0842727 0.982142 0.00533145
0.160925 -0.0773581 0.98393 0.00719811
0.155245 -0.0710326 0.985319 0.0193842
0.150178 -0.0648232 0.986532 0.0219837
0.142512 -0.0631454 0.987777 0.0247641
0.142943 -0.0613982 0.987825 0.0220708
0.144809 -0.0634853 0.987421 0.017506
0.146349 -0.0610645 0.987347 0.021076
0.155883 -0.0652266 0.98562 0.0246864
0.153813 -0.0655521 0.985923 0.02879
0.164095 -0.0633441 0.984409 0.0329823
0.174725 -0.065628 0.982428 0.0285055
0.176101 -0.0665202 0.982122 0.0283918
0.16909 -0.0611339 0.983703 0.0262624
0.178131 -0.0655799 0.981819 0.0188318
0.179864 -0.0672781 0.981388 0.0149443
0.181636 -0.0768062 0.980362 0.00538227
0.185575 -0.0806051 0.979318 0.00364234
0.202919 -0.086173 0.975396 0.000854614
0.214071 -0.0914117 0.972531 0
0.222196 -0.092591 0.970596 0
0.236835 -0.0984848 0.966545 0
0.221876 -0.0929906 0.970631 0
0.202791 -0.0868229 0.975365 0
0.208886 -0.0897608 0.973812 0
0.198452 -0.0829818 0.976591 0
0.19661 -0.0855572 0.976742 0
0.203111 -0.0846981 0.975486 0
0.212671 -0.0929641 0.972691 0
0.218995 -0.0927939 0.971303 0
0.219841 -0.0890468 0.971463 0
0.227929 -0.0895528 0.969551 0
0.200662 -0.0797127 0.976412 0
0.18301 -0.0773108 0.980066 0
0.167148 -0.071699 0.983321 0
0.164307 -0.0764879 0.983439 0
0.159911 -0.0750138 0.984277 0
0.161868 -0.0721949 0.984168 0
0.162524 -0.0677831 0.984374 0
0.175073 -0.066681 0.982295 0
0.178998 -0.0626328 0.981854 0
0.193417 -0.0632282 0.979077 0
0.206133 -0.0673376 0.976204 0
0.219388 -0.0652506 0.973453 0
0.2163 -0.0664378 0.974064 0
0.209936 -0.071504 0.975097 0
0.194263 -0.0727481 0.978248 0
0.182381 -0.0719915 0.980589 0
0.179133 -0.0767082 0.98083 0
0.180053 -0.0784684 0.980522 0
0.182598 -0.0788578 0.98002 0
0.200553 -0.0937335 0.975188 0
0.223941 -0.0918416 0.970266 0
0.22362 -0.0917247 0.970351 0
0.217656 -0.0870383 0.972137 0
0.228384 -0.0917537 0.969238 0
0.244496 -0.0958755 0.964899 0
0.267591 -0.0965299 0.958685 0
0.258797 -0.0958296 0.961166 0
0.246961 -0.0922593 0.964624 0
0.242136 -0.0992988 0.965147 0
0.242379 -0.0997511 0.96504 0
0.250564 -0.0975084 0.963177 0
0.262373 -0.0947975 0.960299 0
0.26902 -0.0849613 0.95938 0
0.274573 -0.0864965 0.957668 0
0.273351 -0.0804037 0.958548 0
0.274708 -0.0788404 0.95829 0
0.271048 -0.074614 0.95967 0
0.259446 -0.0735408 0.962954 0
0.237651 -0.0724611 0.968644 0
0.219822 -0.0693398 0.973072 0
0.226699 -0.0688991 0.971525 0
0.219595 -0.0686829 0.97317 0
0.224045 -0.07088 0.971998 0
0.231269 -0.0673868 0.970553 0
0.225035 -0.0642306 0.972231 0
0.21873 -0.0685593 0.973374 0
0.19901 -0.0606147 0.978121 0
0.189512 -0.0574444 0.980197 0
0.175865 -0.0562823 0.982804 0
0.179155 -0.0554953 0.982254 0
0.190401 -0.0606885 0.979829 0
0.21724 -0.0704776 0.973571 0
0.224522 -0.0666549 0.972187 0
0.238611 -0.0682936 0.968711 0
0.258179 -0.0597683 0.964247 0
0.255761 -0.0658419 0.964495 0
0.253245 -0.0692783 0.964918 0
0.230208 -0.062497 0.971133 0
0.213229 -0.0521014 0.975612 0
0.202923 -0.0493938 0.977948 0
0.200305 -0.0452454 0.978688 0
0.195065 -0.0535288 0.979329 0
0.19627 -0.0439843 0.979563 0
0.188908 -0.0303787 0.981525 0
0.197429 -0.0329031 0.979765 0
0.189809 -0.0307816 0.981338 0
0.187484 -0.0281918 0.981863 0
0.172526 -0.0206518 0.984788 0.00794224
0.15087 -0.00721567 0.988527 0.0191205
0.152946 -0.0118195 0.988164 0.0162893
0.149068 -0.00958929 0.98878 0.0221482
0.13975 -0.0108791 0.990127 0.0246263
0.151108 -0.00135154 0.988516 0.0294331
0.159661 0.00826666 0.987137 0.0338146
0.146309 0.0100541 0.989188 0.0278915
0.14231 0.0153866 0.989702 0.0315537
0.145248 0.0111034 0.989333 0.0318182
0.147524 0.0118739 0.988987 0.0265235
0.154705 0.0136364 0.987867 0.0251736
0.15939 0.0088789 0.987176 0.0291244
0.157706 0.014754 0.987376 0.0310411
0.159053 0.0144347 0.987164 0.0277151
0.178138 0.0173766 0.983852 0.0246966
0.173477 0.0236956 0.984553 0.0296661
0.171211 0.0189031 0.985053 0.0217477
0.172003 0.0261882 0.984748 0.0233502
0.178724 0.0170115 0.983752 0.0215448
0.177344 0.022348 0.983895 0.0212082
0.162693 0.0295694 0.986234 0.0279385
0.159022 0.0366556 0.986594 0.0326631
0.160474 0.04618 0.985959 0.0333817
0.15999 0.0428837 0.986187 0.0369612
0.168163 0.0513069 0.984423 0.0384072
0.167574 0.0599856 0.984033 0.0326477
0.158189 0.0526428 0.986005 0.0247567
0.131297 0.0603712 0.989503 0.0294733
0.138361 0.0556736 0.988816 0.0284254
0.153755 0.0573453 0.986444 0.0228033
0.159101 0.0631317 0.985242 0.0252555
0.162448 0.0633285 0.984683 0.0242348
0.157077 0.0613534 0.985679 0.0278715
0.161192 0.0573888 0.985253 0.0163993
0.163215 0.0638778 0.98452 0.0130428
0.167363 0.0660309 0.983682 0.00989042
0.160432 0.0720174 0.984416 0.0128394
0.160835 0.0765688 0.984007 0.0116053
0.164442 0.0768283 0.98339 0.0101795
0.164294 0.0763237 0.983454 0.00178699
0.1486 0.0776851 0.985841 0.00822157
0.14969 0.0787935 0.985588 0.00629808
0.164031 0.0808798 0.983134 0
0.162989 0.0774489 0.983583 0.00198418
0.166691 0.0820214 0.982592 0.00252443
0.177566 0.0884179 0.980129 0
0.17752 0.0863954 0.980317 0
0.18602 0.0870192 0.978685 0
0.187311 0.0906638 0.978108 0
0.190693 0.0890523 0.977602 0
0.196601 0.0921528 0.976143 0
0.194081 0.090602 0.976793 0
0.201379 0.0941367 0.974979 0
0.196158 0.097161 0.975747 0
0.187469 0.0942766 0.977736 0
0.184073 0.0967441 0.97814 0
0.18048 0.0957904 0.978903 0
0.178653 0.106515 0.97813 0
0.176647 0.11633 0.977376 0.00859892
0.169232 0.127885 0.977244 0.0059714
0.175407 0.129709 0.975914 0.00226908
0.172999 0.133839 0.975786 0
0.170817 0.140457 0.97524 0
0.161792 0.139969 0.976848 0
0.162838 0.140328 0.976623 0
0.152467 0.135053 0.979038 0.00207788
0.152006 0.142044 0.978119 0.0103157
0.156679 0.146095 0.976785 0.00707938
0.148874 0.142326 0.97856 0.0128448
0.15213 0.14822 0.977183 0.0147642
0.159489 0.154677 0.975007 0.0112817
0.176394 0.153969 0.972203 0.00523415
0.187879 0.166239 0.968022 0.010031
0.184146 0.165816 0.968811 0.0117714
0.182887 0.15942 0.970122 0.0224906
0.126633 -0.19141 0.973307 0
0.13142 -0.190023 0.972944 0
0.145817 -0.203035 0.968253 0
0.168062 -0.206384 0.96393 0
0.176594 -0.198578 0.964044 0
0.185356 -0.201816 0.961724 0
0.19574 -0.203123 0.959389 0
0.184464 -0.200753 0.962118 0
0.188239 -0.201835 0.96116 0
0.177534 -0.192513 0.965101 0
0.17655 -0.196876 0.964401 0
0.151064 -0.181469 0.971724 0
0.133511 -0.168769 0.976571 0
0.129498 -0.16502 0.977752 0
0.109566 -0.153031 0.982129 0
0.110713 -0.157314 0.981323 0
0.125689 -0.160867 0.97894 0
0.144945 -0.166565 0.975319 0
0.166828 -0.17455 0.970413 0
0.169051 -0.169379 0.970944 0
0.175346 -0.163349 0.970861 0
0.191518 -0.166597 0.967247 0
0.203075 -0.163581 0.965402 0
0.202453 -0.151964 0.967429 0
0.183905 -0.142462 0.972565 0.00093445
0.169487 -0.133556 0.976441 0.0142044
0.147931 -0.127115 0.980795 0.0229683
0.150424 -0.124234 0.980785 0.0235139
0.140775 -0.123225 0.982343 0.0265726
0.159438 -0.128209 0.978847 0.0067243
0.162949 -0.127407 0.978374 0
0.186643 -0.139254 0.972508 0
0.175957 -0.134711 0.975137 0
0.186157 -0.13499 0.973203 0
0.202093 -0.139878 0.969326 0
0.215118 -0.145842 0.965637 0
0.210232 -0.142904 0.967151 0
0.210643 -0.137642 0.967825 0
0.212107 -0.135395 0.967822 0
0.212458 -0.129818 0.968509 0
0.218799 -0.123593 0.967911 0
0.220876 -0.124594 0.967311 0
0.220207 -0.118343 0.968248 0
0.219273 -0.114782 0.968888 0
0.2082 -0.107958 0.97211 0
0.219637 -0.113652 0.968939 0
0.212231 -0.109197 0.971099 0
0.196933 -0.0961895 0.975687 0
0.188716 -0.0881429 0.978068 0
0.185588 -0.0872311 0.978748 0
0.182068 -0.0850743 0.979599 0
0.172838 -0.0818706 0.981542 0.00635955
0.164403 -0.0777356 0.983325 0.0101459
0.161264 -0.0722368 0.984264 0.0175596
0.155371 -0.0696117 0.9854 0.0201742
0.158669 -0.065116 0.985182 0.0225632
0.15243 -0.0648604 0.986184 0.0233714
0.160584 -0.0652011 0.984866 0.0159724
0.157229 -0.0622682 0.985597 0.0195628
0.169141 -0.0679155 0.983249 0.024281
0.161132 -0.0655443 0.984754 0.0271765
0.165093 -0.0636916 0.984219 0.0296914
0.166328 -0.0679828 0.983724 0.0261797
0.170072 -0.0638379 0.983362 0.0301459
0.161977 -0.0593688 0.985007 0.0304799
0.16805 -0.0608941 0.983896 0.0232971
0.16593 -0.0646961 0.984013 0.0211429
0.172073 -0.07609 0.982141 0.0111502
0.183781 -0.0819799 0.979543 0.00466164
0.19358 -0.0855093 0.977351 0.00525722
0.198874 -0.0898317 0.975899 0
0.21062 -0.0951926 0.972922 0
0.216084 -0.0966978 0.971575 0
0.21799 -0.0934818 0.971464 0
0.214097 -0.0900353 0.972654 0
0.212143 -0.0900406 0.973082 0
0.201455 -0.0879124 0.975545 0
0.197811 -0.0854889 0.976505 0
0.203263 -0.0867602 0.975273 0
0.205903 -0.0956613 0.973885 0
0.211955 -0.0936529 0.972782 0
0.220751 -0.0910273 0.971073 0
0.231299 -0.087135 0.968973 0
0.202928 -0.0772991 0.976138 0
0.18457 -0.0757235 0.979898 0
0.180389 -0.0717111 0.980978 0
0.180666 -0.0771827 0.980511 0
0.177392 -0.0732159 0.981413 0
0.186467 -0.0758298 0.97953 0
0.180559 -0.0732553 0.980832 0
0.17975 -0.0626943 0.981712 0
0.190647 -0.0663552 0.979413 0
0.201346 -0.0653512 0.977338 0
0.214651 -0.0677112 0.974341 0
0.227224 -0.0676434 0.97149 0
0.221672 -0.062778 0.973098 0
0.217501 -0.0727619 0.973344 0
0.202108 -0.0785413 0.976209 0
0.196278 -0.0766823 0.977545 0
0.190053 -0.0763781 0.978798 0
0.180167 -0.0758761 0.980705 0
0.194308 -0.0852311 0.977231 0
0.198617 -0.0941287 0.975547 0
0.223752 -0.0954048 0.969965 0
0.23141 -0.0925163 0.968447 0
0.229306 -0.0922075 0.968977 0
0.242283 -0.0988743 0.965154 0
0.259054 -0.106774 0.959943 0
0.272549 -0.0999712 0.956934 0
0.267234 -0.0995764 0.958473 0
0.25355 -0.0989932 0.962244 0
0.243778 -0.103513 0.964291 0
0.237583 -0.103769 0.965809 0
0.254699 -0.10023 0.961812 0
0.258654 -0.0982404 0.960961 0
0.258281 -0.0905568 0.961816 0
0.257349 -0.0886043 0.962248 0
0.260776 -0.085509 0.961605 0
0.25104 -0.0812713 0.964559 0
0.259389 -0.0770125 0.962697 0
0.257208 -0.0782107 0.963186 0
0.241908 -0.0764903 0.96728 0
0.227045 -0.0718453 0.971231 0
0.230045 -0.0753163 0.970261 0
0.236627 -0.0737812 0.968795 0
0.239591 -0.0735514 0.968084 0
0.250229 -0.0699193 0.965659 0
0.236571 -0.0677252 0.969251 0
0.2304 -0.0699069 0.970582 0
0.215856 -0.0628495 0.9744 0
0.194267 -0.0597065 0.97913 0
0.183641 -0.0571662 0.98133 0
0.198908 -0.0610931 0.978112 0
0.213114 -0.0690132 0.974587 0
0.2328 -0.0697233 0.970022 0
0.244566 -0.0723187 0.966932 0
0.266279 -0.071878 0.961212 0
0.270383 -0.0613596 0.960796 0
0.270829 -0.0684526 0.960191 0
0.26559 -0.0737578 0.961261 0
0.238266 -0.0588858 0.969413 0
0.222455 -0.0562396 0.973319 0
0.215866 -0.0474835 0.975268 0
0.208006 -0.0552105 0.976568 0
0.200102 -0.0475701 0.97862 0
0.19999 -0.0400453 0.978979 0
0.190527 -0.036967 0.980986 0
0.186325 -0.0325442 0.981949 0
0.188429 -0.0390551 0.98131 0
0.189265 -0.0319559 0.981406 0
0.183369 -0.0239371 0.982753 0.00309763
0.155456 -0.00766744 0.987813 0.0176812
0.155281 -0.00889287 0.98783 0.0174974
0.160541 -0.0166352 0.986889 0.0178032
0.149888 -0.00709203 0.988678 0.0230497
0.156281 -0.000662509 0.987712 0.0334172
0.141583 0.0104953 0.989871 0.0354705
0.138936 0.0127825 0.990219 0.0328884
0.129328 0.0093041 0.991558 0.0361306
0.144427 0.0122561 0.98944 0.0334332
0.144519 0.0133362 0.989412 0.0269883
0.137066 0.0137422 0.990467 0.0321909
0.146785 0.0131019 0.989082 0.0348706
0.148592 0.0150731 0.988784 0.038847
0.150486 0.0155433 0.98849 0.0336987
0.158894 0.0165703 0.987157 0.0337889
0.164484 0.0180941 0.986214 0.0306458
0.167816 0.0231238 0.985547 0.030388
0.170978 0.0273165 0.984896 0.0277195
0.18162 0.0258398 0.983029 0.0234789
0.183214 0.0217224 0.982833 0.0237494
0.17737 0.0329847 0.983591 0.0311372
0.157832 0.0344199 0.986866 0.0366672
0.159577 0.0499416 0.985921 0.0383906
0.164139 0.0503947 0.985149 0.0425451
0.177841 0.0565915 0.982431 0.0402275
0.169148 0.0584586 0.983855 0.0323731
0.153502 0.0568732 0.98651 0.0280187
0.140067 0.058441 0.988416 0.0279672
0.142375 0.0534556 0.988368 0.0251499
0.15328 0.0577286 0.986495 0.0281755
0.160973 0.0638001 0.984894 0.0259169
0.171023 0.066424 0.983025 0.0239335
0.166802 0.0633159 0.983955 0.025091
0.170312 0.0588303 0.983633 0.0131361
0.173738 0.0675376 0.982473 0.0174038
0.172546 0.0665931 0.982748 0.0088157
0.163393 0.0737769 0.983799 0.0156184
0.164479 0.0776507 0.983319 0.0166219
0.164172 0.078947 0.983267 0.0128873
0.164932 0.0789357 0.983141 0.0112407
0.159042 0.077923 0.984192 0.00543407
0.163569 0.0767067 0.983545 0.00204268
0.174796 0.0757755 0.981685 0
0.17685 0.0813703 0.980868 0
0.169735 0.0822083 0.982055 0.00385215
0.176004 0.085445 0.980674 0.00356521
0.178575 0.0893894 0.979857 0.00158147
0.184579 0.0924109 0.978464 0
0.19156 0.10077 0.976294 0
0.192595 0.0901327 0.97713 0
0.195257 0.096869 0.975957 0
0.202172 0.096013 0.974632 0
0.196319 0.0893226 0.976463 0
0.196992 0.0949856 0.975793 0
0.193573 0.0985328 0.976125 0
0.192325 0.101918 0.976024 0
0.186654 0.107945 0.976477 0
0.183029 0.105383 0.977443 0
0.177152 0.115034 0.977438 0.00479951
0.18127 0.125262 0.975423 0.00434545
0.183575 0.133039 0.973961 0
0.175429 0.129469 0.975942 0
0.162892 0.12788 0.978321 0
0.159978 0.133178 0.978095 0
0.15063 0.132168 0.979715 0.0036695
0.160176 0.137418 0.977476 0
0.156519 0.133988 0.978544 0.00584386
0.158011 0.137486 0.977819 0.00320794
0.155357 0.135846 0.978473 0.00965494
0.154443 0.143729 0.977491 0.0111074
0.170221 0.151864 0.973633 0.00667496
0.184057 0.156058 0.970448 0.00231778
0.183178 0.159535 0.970049 0.00900686
0.178668 0.159923 0.970826 0.0131512
0.104847 -0.177491 0.978521 0.000828719
0.116371 -0.184378 0.975942 0
0.144083 -0.193748 0.970413 0
0.162335 -0.205938 0.965006 0
0.167249 -0.201776 0.965046 0
0.155865 -0.183762 0.970535 0
0.180879 -0.194794 0.964022 0
0.1698 -0.184054 0.968138 0
0.169383 -0.187088 0.96763 0
0.180172 -0.192242 0.964666 0
0.187036 -0.193861 0.963035 0
0.170713 -0.188852 0.967053 0
0.163578 -0.1863 0.96878 0
0.140834 -0.170574 0.975228 0
0.14181 -0.171713 0.974887 0
0.113499 -0.15605 0.981207 0
0.113152 -0.153626 0.981629 0
0.113124 -0.156097 0.981242 0
0.144192 -0.166005 0.975526 0
0.149195 -0.161718 0.975494 0
0.170445 -0.15948 0.972376 0
0.163793 -0.154296 0.974353 0
0.167286 -0.152087 0.974107 0.00172304
0.18298 -0.150575 0.971517 6.79085e-05
0.194674 -0.150287 0.969286 0.00391835
0.195948 -0.143455 0.970064 0.00921023
0.162748 -0.125873 0.978606 0.0215381
0.147099 -0.119556 0.98187 0.0299686
0.156688 -0.125793 0.979604 0.0348706
0.160619 -0.125253 0.979037 0.0340743
0.163599 -0.128439 0.97813 0.0169245
0.180352 -0.131344 0.974793 0.00245135
0.192763 -0.138015 0.971491 0
0.172049 -0.128941 0.976613 0
0.184856 -0.132124 0.973844 0
0.209525 -0.144733 0.967032 0
0.208311 -0.141477 0.967776 0
0.202803 -0.132848 0.970166 0
0.196421 -0.134596 0.971238 0
0.204204 -0.128859 0.97041 0
0.225309 -0.133815 0.965054 0
0.23275 -0.130778 0.963704 0
0.223435 -0.127368 0.966361 0
0.209577 -0.11845 0.970591 0
0.217203 -0.11731 0.969052 0
0.22316 -0.115768 0.967883 0
0.239756 -0.115734 0.96391 0
0.231726 -0.112478 0.966256 0
0.205299 -0.100053 0.973572 0
0.200001 -0.0931553 0.975357 0
0.195738 -0.0888614 0.976622 0
0.194138 -0.0894362 0.976889 0
0.178506 -0.0901019 0.979805 0
0.180553 -0.0879413 0.979626 0
0.17893 -0.0818411 0.980452 0.000508089
0.162843 -0.071738 0.98404 0.0113656
0.170354 -0.0702539 0.982875 0.0203625
0.156175 -0.0688925 0.985324 0.0200055
0.154245 -0.0657847 0.98584 0.0182649
0.157603 -0.0631726 0.98548 0.0168993
0.170167 -0.0629199 0.983404 0.019038
0.168932 -0.0603021 0.983781 0.0232686
0.175273 -0.0663464 0.982282 0.0201096
0.174781 -0.0659453 0.982397 0.015051
0.175257 -0.0618039 0.982581 0.0211357
0.174784 -0.0596204 0.9828 0.0187375
0.177544 -0.0642024 0.982016 0.0219522
0.1743 -0.0706891 0.982152 0.0206138
0.169522 -0.075069 0.982663 0.0188469
0.177959 -0.0773181 0.980996 0.0136622
0.188849 -0.0826265 0.978524 0.00553478
0.212204 -0.0935373 0.972739 0
0.209817 -0.09584 0.973032 0
0.212097 -0.0994875 0.972171 0
0.207983 -0.0975836 0.973253 0
0.203694 -0.0946299 0.974451 0
0.196143 -0.0937273 0.976086 0
0.189007 -0.095173 0.977353 0
0.191123 -0.0917827 0.977265 0
0.191326 -0.0899666 0.977395 0
0.194069 -0.0891594 0.976928 0
0.198499 -0.0894385 0.976012 0
0.204328 -0.0856032 0.975152 0
0.216993 -0.0854087 0.97243 0
0.20634 -0.0759538 0.975528 0
0.198334 -0.0755147 0.977221 0
0.191964 -0.0729505 0.978687 0
0.181179 -0.07322 0.980721 0
0.181755 -0.0721018 0.980697 0
0.188773 -0.0744913 0.979191 0
0.198275 -0.0757039 0.977218 0
0.185887 -0.0718627 0.97994 0
0.196373 -0.0720312 0.97788 0
0.19945 -0.0723567 0.977233 0
0.205954 -0.0690887 0.97612 0
0.218643 -0.0681251 0.973424 0
0.226104 -0.0698703 0.971594 0.000407586
0.218737 -0.0741315 0.972964 0.00700233
0.207296 -0.0746235 0.975428 0.00467875
0.200811 -0.0746391 0.976782 0
0.182529 -0.0728692 0.980496 0.00157719
0.187219 -0.0755969 0.979405 0
0.199101 -0.0837198 0.976396 0
0.215442 -0.0910577 0.972262 0
0.242181 -0.094022 0.965665 0
0.247904 -0.0970104 0.963915 0
0.256565 -0.0933941 0.962004 0
0.274738 -0.102894 0.955998 0
0.286999 -0.108541 0.951762 0
0.28831 -0.110049 0.951192 0
0.285342 -0.109361 0.952166 0
0.280069 -0.0981971 0.954944 0
0.284134 -0.105856 0.952923 0
0.280386 -0.107234 0.953879 0
0.281775 -0.108297 0.953349 0
0.28499 -0.10893 0.952321 0
0.284128 -0.0919551 0.954367 0
0.275291 -0.0933022 0.956823 0
0.265368 -0.0922419 0.959724 0
0.260043 -0.0809527 0.962198 0
0.257264 -0.0821302 0.962845 0
0.247749 -0.0694986 0.966328 0
0.238317 -0.0799289 0.967893 0
0.228073 -0.0798984 0.97036 0
0.234726 -0.0792328 0.968827 0
0.240548 -0.0798128 0.96735 0
0.23907 -0.0696224 0.968503 0
0.238125 -0.0694869 0.968746 0
0.236513 -0.0684995 0.969211 0
0.221454 -0.0693098 0.972705 0
0.203123 -0.0634653 0.977094 0
0.190478 -0.053717 0.980221 0
0.195169 -0.0586166 0.979016 0
0.197563 -0.0609963 0.978391 0
0.208814 -0.0689053 0.975525 0
0.256018 -0.078094 0.963512 0
0.267432 -0.0715873 0.960914 0
0.281545 -0.0669302 0.957211 0
0.274936 -0.0699724 0.958913 0
0.279848 -0.076139 0.95702 0
0.266903 -0.073675 0.960903 0
0.248447 -0.0585899 0.966872 0
0.234906 -0.0476994 0.970847 0
0.212338 -0.0479829 0.976018 0
0.203681 -0.0502193 0.977749 0
0.206644 -0.0495189 0.977162 0
0.213335 -0.0403151 0.976147 0
0.215406 -0.0343011 0.975922 0
0.209858 -0.030931 0.977242 0
0.209233 -0.0407367 0.977017 0
0.210228 -0.039756 0.976844 0
0.185223 -0.0208264 0.982476 0
0.172759 -0.00976845 0.984916 0.0165792
0.160892 -0.00826934 0.986937 0.01822
0.169074 -0.0185577 0.985429 0.0150685
0.172131 -0.0135005 0.984982 0.0222758
0.154623 0.00266834 0.98797 0.0361781
0.140547 0.0109311 0.990014 0.0398401
0.133633 0.0154557 0.99091 0.0416802
0.132174 0.0159161 0.991099 0.0448156
0.134316 0.0109615 0.990878 0.0400617
0.120776 0.0196533 0.992485 0.0370147
0.127398 0.0157113 0.991727 0.0372959
0.136682 0.0111698 0.990552 0.036995
0.148508 0.0112838 0.988847 0.0371469
0.138283 0.0114319 0.990327 0.0438866
0.14996 0.020092 0.988488 0.0404391
0.159656 0.0193552 0.986983 0.0350824
0.162354 0.0196698 0.986537 0.0298549
0.165791 0.0233399 0.985885 0.0312082
0.176645 0.0234639 0.983995 0.0315835
0.175256 0.0251875 0.984201 0.0286655
0.166486 0.0346824 0.985434 0.0353888
0.177678 0.0381738 0.983348 0.039448
0.192693 0.037338 0.980548 0.031162
0.192912 0.045475 0.980162 0.0328992
0.187612 0.0573004 0.98057 0.039554
0.170418 0.0567054 0.983739 0.0408837
0.157997 0.0554932 0.985879 0.0340787
0.14176 0.0494663 0.988664 0.0247464
0.147463 0.0527012 0.987663 0.0255722
0.156333 0.0568325 0.986068 0.0259518
0.176989 0.0626704 0.982215 0.0258188
0.175934 0.0611629 0.9825 0.0271809
0.185739 0.0627333 0.980595 0.0181462
0.179349 0.0599232 0.981959 0.0148799
0.19046 0.0658705 0.979483 0.017548
0.186464 0.0731594 0.979734 0.014561
0.185544 0.0756153 0.979722 0.0148
0.185818 0.0801054 0.979313 0.00726495
0.170009 0.0809089 0.982116 0.0104771
0.169921 0.0736691 0.9827 0.00707527
0.162133 0.0715094 0.984174 0.00428984
0.171682 0.0784042 0.982028 0.00595375
0.183682 0.0866953 0.979155 0.0104429
0.181813 0.0875013 0.979432 0.00734142
0.185715 0.0854428 0.978882 0.00608342
0.183797 0.0837835 0.979387 0.00387168
0.194314 0.0846192 0.977283 0
0.203488 0.0983584 0.974124 0.00100551
0.194812 0.0948128 0.976247 0
0.210768 0.0927878 0.973122 0
0.216526 0.0899453 0.972125 0
0.215943 0.0904366 0.972209 0
0.210228 0.0982267 0.972705 0
0.208599 0.0949516 0.973381 0
0.205433 0.0957184 0.973979 0
0.210092 0.100468 0.972506 0
0.205964 0.109849 0.972374 0
0.190762 0.11636 0.974716 0
0.196292 0.125966 0.972421 0
0.188304 0.122465 0.974445 0
0.184316 0.122551 0.975197 0
0.177777 0.12706 0.975834 0
0.159962 0.12106 0.979672 0
0.157436 0.125687 0.979498 0
0.16616 0.131755 0.977257 0
0.157625 0.124723 0.979591 0
0.157581 0.120414 0.980137 0
0.159761 0.122893 0.979476 0
0.162551 0.120898 0.979266 0
0.162206 0.131587 0.977944 0
0.171114 0.133522 0.976162 0
0.180463 0.149127 0.972211 0.000816004
0.18919 0.168512 0.967373 0.000147224
0.202653 0.164951 0.965258 0
0.16019 -0.170644 0.972224 0
0.180345 -0.184354 0.966172 0
0.167523 -0.17742 0.969772 0
0.178774 -0.181284 0.967045 0
0.174539 -0.178018 0.968424 0
0.158428 -0.163523 0.973736 0
0.159187 -0.163931 0.973543 0
0.152863 -0.154264 0.976133 0
0.140923 -0.140646 0.979979 0
0.166008 -0.152215 0.974306 0
0.152901 -0.14026 0.978237 0
0.175245 -0.147887 0.973354 0
0.162229 -0.136361 0.977286 0.00311876
0.158295 -0.135244 0.978086 0.00742468
0.15335 -0.132586 0.979237 0.00955567
0.147257 -0.126425 0.980985 0.0206022
0.154779 -0.123286 0.980227 0.0194461
0.157705 -0.122388 0.979872 0.0130307
0.169565 -0.118481 0.978371 0.0245225
0.173411 -0.116979 0.977878 0.0272544
0.192334 -0.122601 0.973641 0.0139535
0.198988 -0.126355 0.971822 0
0.218394 -0.129385 0.967245 0
0.241834 -0.139134 0.960291 0
0.253059 -0.148111 0.956046 0
0.265725 -0.154002 0.951669 0
0.260394 -0.143277 0.954812 0
0.235459 -0.136201 0.962293 0
0.238185 -0.131624 0.962259 0
0.231476 -0.13216 0.963822 0
0.232274 -0.133847 0.963397 0
0.226842 -0.128685 0.965393 0
0.222267 -0.121624 0.96737 0
0.21671 -0.117603 0.969127 0
0.217788 -0.117074 0.968949 0
0.235033 -0.126594 0.963708 0
0.249037 -0.130082 0.959718 0
0.249149 -0.125544 0.960294 0
0.266836 -0.128286 0.955166 0
0.260753 -0.123851 0.957428 0
0.240007 -0.114778 0.963962 0
0.232347 -0.110095 0.966382 0
0.229832 -0.101033 0.967972 0
0.227462 -0.0967576 0.968968 0
0.213141 -0.0919347 0.972686 0
0.192632 -0.0837369 0.977692 0
0.201225 -0.0774832 0.976476 0.00442305
0.202016 -0.0744086 0.976552 0.0137554
0.198399 -0.0734034 0.977369 0.0193065
0.193322 -0.0735509 0.978375 0.0158174
0.183942 -0.0697909 0.980456 0.0245787
0.178512 -0.0671071 0.981647 0.0201286
0.179025 -0.060454 0.981985 0.0221825
0.178958 -0.060137 0.982017 0.0266073
0.171822 -0.0609773 0.983239 0.0352611
0.173533 -0.0689657 0.98241 0.024398
0.185054 -0.076427 0.979752 0.0129835
0.195182 -0.0841023 0.977155 0.00588659
0.202833 -0.0864515 0.97539 0.0018717
0.203338 -0.0892873 0.975029 0
0.210212 -0.0948524 0.973044 0
0.209263 -0.0937402 0.973356 0
0.213017 -0.0959921 0.972322 0
0.220142 -0.0978322 0.97055 0
0.21892 -0.104419 0.97014 0
0.204791 -0.104211 0.973242 0
0.200993 -0.106622 0.973773 0
0.188181 -0.0993365 0.977098 0
0.193941 -0.0927425 0.976619 0
0.213861 -0.0961871 0.972117 0
0.210132 -0.0930469 0.973235 0
0.200281 -0.0906092 0.975539 0
0.195109 -0.0806345 0.977461 0
0.206095 -0.0800949 0.975248 0
0.209966 -0.075768 0.974769 0
0.222627 -0.0778203 0.971793 0
0.218383 -0.0782018 0.972725 0
0.220635 -0.0723606 0.972668 0
0.224855 -0.0772186 0.971328 0
0.218115 -0.0712708 0.973317 0
0.221568 -0.0723123 0.97246 0.00153912
0.225114 -0.0699542 0.971818 0.0145477
0.231213 -0.0684962 0.970489 0.02531
0.230595 -0.0663546 0.970785 0.0321079
0.226114 -0.0634672 0.972031 0.0317627
0.224728 -0.0617591 0.972462 0.0338874
0.227896 -0.0640415 0.971577 0.0283543
0.227341 -0.067559 0.971469 0.0296548
0.212387 -0.0671972 0.974872 0.0315864
0.210954 -0.0671343 0.975188 0.0301784
0.20593 -0.0677006 0.976222 0.0199444
0.200258 -0.0688266 0.977323 0.0132063
0.208719 -0.0776127 0.974891 0.0109867
0.204146 -0.0768263 0.975921 0.00060409
0.210889 -0.0813159 0.974122 0
0.221879 -0.083092 0.971527 0
0.239922 -0.0914805 0.966472 0
0.25185 -0.0970923 0.962884 0
0.271051 -0.103652 0.956968 0
0.294032 -0.112838 0.949112 0
0.300822 -0.111399 0.947152 0
0.303276 -0.111307 0.94638 0
0.301512 -0.113186 0.94672 0
0.310453 -0.111493 0.944028 0
0.310909 -0.113135 0.943682 0
0.313769 -0.10626 0.943535 0
0.315228 -0.103912 0.94331 0
0.319996 -0.103452 0.941754 0
0.312588 -0.0995449 0.944658 0
0.309713 -0.100001 0.945557 0
0.293323 -0.0929606 0.951483 0
0.287003 -0.0923465 0.953468 0
0.268931 -0.0902185 0.958925 0
0.252705 -0.0840354 0.963887 0
0.216892 -0.0740125 0.973386 0
0.212972 -0.0701507 0.974537 0
0.20779 -0.062104 0.9762 0
0.224132 -0.0697657 0.972059 0
0.233282 -0.0681546 0.970018 0
0.241495 -0.065238 0.968207 0
0.241168 -0.0644036 0.968344 0
0.241176 -0.0645671 0.968331 0
0.238867 -0.0682975 0.968648 0
0.234955 -0.0683338 0.969601 0
0.24023 -0.0682115 0.968316 0
0.246177 -0.0641311 0.967101 0
0.25425 -0.0625329 0.965115 0
0.273941 -0.0650661 0.959543 0
0.289669 -0.0683947 0.95468 0
0.292461 -0.0733103 0.953463 0
0.281122 -0.0660078 0.957399 0
0.275035 -0.0612281 0.959483 0
0.259088 -0.0639402 0.963735 0
0.240735 -0.0599839 0.968736 0
0.224815 -0.0535285 0.97293 0
0.210015 -0.0471554 0.97656 0
0.204679 -0.0416517 0.977943 0
0.199102 -0.0452531 0.978933 0
0.187653 -0.0432344 0.981283 0
0.168892 -0.0351854 0.985006 0
0.170304 -0.0269401 0.985023 0
0.169204 -0.0208105 0.985361 0.000438822
0.169755 -0.0147408 0.985376 0.0195479
0.17199 -0.0122424 0.985023 0.0307827
0.171799 -0.0040155 0.985124 0.0413863
0.170184 0.00477823 0.985401 0.0491207
0.168093 0.00821375 0.985737 0.0456609
0.151614 0.00548704 0.988424 0.0531543
0.143756 0.000961348 0.989613 0.0545028
0.14896 0.00641431 0.988822 0.0506842
0.141368 0.0122105 0.989882 0.0466914
0.141797 0.00940287 0.989851 0.0448683
0.15144 0.00812392 0.988433 0.0402654
0.138886 0.0114601 0.990242 0.0443203
0.132024 0.0128219 0.991164 0.0376982
0.139191 0.0183051 0.990096 0.0347796
0.153406 0.0207772 0.987945 0.0345381
0.164912 0.0174807 0.986153 0.0385621
0.174551 0.0145556 0.984541 0.0388395
0.172143 0.0172207 0.984921 0.0364916
0.167951 0.0244592 0.985492 0.0430799
0.162227 0.0295786 0.98631 0.0491329
0.171768 0.0259646 0.984795 0.0451933
0.186978 0.0371654 0.981661 0.0407138
0.198551 0.0523014 0.978694 0.0452899
0.21887 0.0541241 0.974252 0.0417573
0.22713 0.0547843 0.972322 0.0385049
0.233532 0.0520862 0.970953 0.0291054
0.227679 0.0527163 0.972308 0.0282481
0.21632 0.061702 0.974371 0.0315792
0.21241 0.0678369 0.974823 0.0357235
0.209376 0.0662652 0.975587 0.0376419
0.192426 0.0654352 0.979127 0.0495733
0.19687 0.0565268 0.978799 0.0322771
0.20257 0.0567021 0.977625 0.0232308
0.195572 0.0562878 0.979073 0.014314
0.19964 0.0654063 0.977684 0.00372724
0.199517 0.0716921 0.977268 0.010369
0.206111 0.0713731 0.975922 0.00684785
0.215848 0.0844717 0.972766 0.0207114
0.220903 0.084247 0.97165 0.0109884
0.217097 0.0905703 0.971939 0.0185133
0.209484 0.0929529 0.973384 0.0174982
0.199357 0.0936518 0.975441 0.022483
0.200698 0.0907956 0.975437 0.00461978
0.199281 0.0887328 0.975917 0.00233561
0.209328 0.0835695 0.974268 0
0.221928 0.0851534 0.971338 0.00083962
0.224912 0.0794294 0.971136 0
0.240349 0.0880959 0.966681 0
0.268243 0.0895866 0.959177 0
0.256225 0.100925 0.961334 0
0.256146 0.0994738 0.961506 0
0.266315 0.107045 0.957924 0
0.255389 0.114999 0.959975 0
0.245714 0.10408 0.963739 0
0.227645 0.109395 0.96758 0
0.2024 0.102679 0.973905 0.000346895
0.188836 0.0994946 0.976955 0.00208442
0.194489 0.103059 0.975476 0
0.192992 0.0971115 0.976383 0
0.18482 0.0985417 0.97782 0
0.176137 0.0900951 0.980234 0
0.173881 0.0968502 0.979993 0
0.162754 0.0855311 0.982952 0
0.176525 0.105162 0.978662 0
0.167629 0.0970706 0.98106 0
0.149357 0.0892496 0.984747 0
0.129047 0.0895319 0.987588 0
0.141679 0.108622 0.983935 0
0.159647 0.11762 0.980142 0
0.173637 0.128563 0.976382 0
0.192702 -0.187098 0.963255 0
0.173259 -0.175034 0.969198 0
0.163644 -0.167502 0.972195 0
0.169411 -0.165844 0.971491 0
0.172945 -0.165482 0.97093 0
0.156928 -0.148135 0.976437 0
0.14984 -0.140938 0.978613 0
0.166901 -0.145239 0.975218 0
0.175814 -0.147321 0.973337 0
0.140374 -0.12929 0.981621 0.00192587
0.129472 -0.12299 0.983926 0.0140022
0.139747 -0.130447 0.981557 0.0130887
0.135491 -0.128104 0.982462 0.00813456
0.146047 -0.128327 0.980919 0.0135772
0.144371 -0.124568 0.981652 0.0167077
0.140021 -0.114647 0.983489 0.0182993
0.152565 -0.113869 0.981712 0.0214776
0.178268 -0.119663 0.976679 0.0172836
0.204862 -0.128541 0.970314 0.00432946
0.225405 -0.128439 0.965762 0.0023686
0.239249 -0.130332 0.962171 0
0.271432 -0.149426 0.950787 0
0.275717 -0.151 0.949304 0
0.274999 -0.151183 0.949484 0
0.285276 -0.152812 0.946185 0
0.269149 -0.140994 0.952722 0
0.253239 -0.131587 0.958413 0
0.238287 -0.132165 0.96216 0
0.236369 -0.13694 0.961965 0
0.227609 -0.12898 0.965173 0
0.218677 -0.11975 0.968422 0
0.219336 -0.116883 0.968623 0
0.233516 -0.124996 0.964285 0
0.238358 -0.126835 0.962859 0
0.243242 -0.126686 0.961657 0
0.244224 -0.119574 0.962318 0
0.240385 -0.11586 0.963738 0
0.251959 -0.121184 0.960121 0
0.232442 -0.115273 0.965755 0
0.22045 -0.101374 0.970116 0
0.227827 -0.0984179 0.968715 0
0.235712 -0.0995897 0.966707 0
0.228885 -0.0904351 0.969244 0
0.206383 -0.0860608 0.974679 0
0.209547 -0.0810609 0.974433 0
0.209302 -0.0736569 0.975073 0.0100081
0.218769 -0.0776065 0.972686 0.0124346
0.209539 -0.0777697 0.974703 0.00741709
0.198809 -0.0770132 0.977008 0.0103608
0.209569 -0.075022 0.974912 0.0126924
0.19062 -0.0681855 0.979293 0.0249468
0.191994 -0.064677 0.979263 0.0273323
0.187196 -0.069512 0.97986 0.0265638
0.179578 -0.0755714 0.980837 0.0135967
0.193678 -0.0785134 0.977918 0.00706712
0.195842 -0.0804885 0.977327 0
0.188893 -0.0839838 0.9784 0.00251495
0.194335 -0.0899308 0.976804 0
0.188404 -0.0890248 0.978048 0
0.18555 -0.0905964 0.97845 0
0.183564 -0.0896554 0.978911 0
0.18548 -0.0941545 0.978127 0
0.18125 -0.0952403 0.978814 0
0.199606 -0.101936 0.97456 0
0.206533 -0.103715 0.972927 0
0.201587 -0.0964295 0.974712 0
0.214122 -0.0940972 0.972264 0
0.220504 -0.0925693 0.970983 0
0.224723 -0.0934772 0.969929 0
0.212474 -0.0872312 0.973265 0
0.214156 -0.0823426 0.973323 0
0.220146 -0.0800942 0.972173 0
0.224915 -0.079246 0.971151 0
0.218157 -0.0787352 0.972732 0
0.222833 -0.0776552 0.971759 0
0.219665 -0.0729444 0.972845 0
0.222801 -0.0743704 0.972023 0
0.226725 -0.0768801 0.97092 0
0.220179 -0.0767791 0.972433 0
0.225881 -0.0701856 0.971623 0.0104375
0.232745 -0.0687572 0.970104 0.0219228
0.227541 -0.0662942 0.971509 0.0319317
0.217191 -0.0663181 0.973874 0.0327401
0.215514 -0.064674 0.974357 0.0370521
0.219734 -0.0661821 0.973312 0.0289537
0.224497 -0.0639593 0.972373 0.0311976
0.223147 -0.069838 0.97228 0.0311696
0.224339 -0.0678847 0.972144 0.0341549
0.227563 -0.0696152 0.971272 0.0244945
0.226711 -0.0714436 0.971338 0.0237789
0.221998 -0.0707429 0.972477 0.0155921
0.212215 -0.0760427 0.97426 0.0167408
0.208447 -0.0785623 0.974873 0.00336968
0.218277 -0.0778887 0.972774 0
0.229959 -0.0850605 0.969476 0
0.252587 -0.0927041 0.963123 0
0.263511 -0.0986029 0.959604 0
0.277475 -0.103954 0.955092 0
0.297051 -0.110474 0.948449 0
0.297313 -0.109474 0.948483 0
0.30867 -0.110619 0.944715 0
0.293227 -0.112292 0.949425 0
0.295644 -0.111473 0.948772 0
0.309791 -0.108208 0.944627 0
0.312206 -0.106664 0.944007 0
0.304109 -0.101742 0.947189 0
0.306061 -0.0979817 0.946956 0
0.303382 -0.0994368 0.947666 0
0.298548 -0.093542 0.9498 0
0.290538 -0.0926036 0.952372 0
0.280039 -0.0888344 0.95587 0
0.26212 -0.0819262 0.961552 0
0.240291 -0.077973 0.967564 0
0.222043 -0.0694441 0.972561 0
0.218853 -0.0661662 0.973512 0
0.223806 -0.065635 0.972421 0
0.247693 -0.069262 0.966359 0
0.25355 -0.067119 0.964991 0
0.240845 -0.0631716 0.968506 0
0.251337 -0.0687774 0.965453 0
0.248151 -0.0715707 0.966074 0
0.229955 -0.069102 0.970745 0
0.23754 -0.0644526 0.969237 0
0.236377 -0.0578442 0.969938 0
0.241858 -0.0563836 0.968672 0
0.264458 -0.0639669 0.962273 0
0.274233 -0.0654726 0.959432 0
0.277369 -0.0653201 0.95854 0
0.272414 -0.0587065 0.960387 0
0.265518 -0.0600141 0.962236 0
0.256482 -0.0587346 0.964763 0
0.251156 -0.0562061 0.966314 0
0.234253 -0.0542563 0.970661 0
0.216472 -0.0455469 0.975226 0
0.214046 -0.0406945 0.975976 0
0.204517 -0.046799 0.977744 0
0.190509 -0.0407262 0.98084 0
0.17572 -0.0354282 0.983802 0
0.170972 -0.0255451 0.984945 0
0.163115 -0.019735 0.98641 0.00802708
0.158159 -0.014712 0.987304 0.0198148
0.155927 -0.0100457 0.987718 0.0306115
0.16225 -0.00367148 0.986743 0.0451091
0.164375 0.00286129 0.986394 0.0528716
0.168779 0.00446875 0.985644 0.0540998
0.153511 0.00392329 0.988139 0.0560302
0.152668 0.00641002 0.988257 0.0518933
0.156289 -0.000773432 0.987711 0.0460261
0.147598 0.00577786 0.98903 0.0483345
0.144736 0.00970871 0.989423 0.045481
0.142161 0.00776253 0.989813 0.044305
0.141666 0.00991604 0.989865 0.0458296
0.132545 0.0148247 0.991066 0.0461654
0.134069 0.0177697 0.990813 0.0420672
0.147732 0.0184979 0.988854 0.0413953
0.168569 0.0163364 0.985555 0.0384792
0.180648 0.0231287 0.983276 0.0486687
0.1958 0.0223345 0.980389 0.0409215
0.188844 0.0218921 0.981763 0.0392491
0.182432 0.0267117 0.982855 0.0437222
0.18189 0.0271876 0.982943 0.0464206
0.182772 0.0351236 0.982528 0.0468055
0.202155 0.0456599 0.978289 0.0438944
0.226348 0.0499581 0.972765 0.036012
0.232819 0.0501164 0.971228 0.0307423
0.236263 0.0505262 0.970375 0.0252414
0.242329 0.0574047 0.968494 0.0281901
0.247121 0.0589586 0.967189 0.027982
0.221639 0.0610966 0.973213 0.0339064
0.211759 0.0584344 0.975573 0.0288473
0.199893 0.0594727 0.978011 0.0344991
0.201942 0.0606357 0.977519 0.0291329
0.194573 0.0541186 0.979394 0.0121857
0.193176 0.0529008 0.979737 0.011188
0.190709 0.0575491 0.979958 0.0049197
0.211714 0.074114 0.974517 0.00919754
0.211839 0.079011 0.974105 0.0181427
0.213728 0.0805219 0.973569 0.0209632
0.224879 0.0814336 0.970978 0.0156655
0.224333 0.0910746 0.970247 0.024139
0.226655 0.0957629 0.969256 0.0237731
0.212689 0.0939855 0.972589 0.0175544
0.203128 0.0952354 0.97451 0.0137471
0.208778 0.088386 0.973961 0.00256664
0.212977 0.0784245 0.973905 0
0.229838 0.0796488 0.969964 0
0.2425 0.080122 0.966837 0
0.251213 0.0805881 0.964571 0
0.247339 0.0885054 0.964878 0
0.234132 0.0913735 0.967901 0
0.226981 0.105285 0.968192 0.0028912
0.230669 0.0963187 0.968253 0
0.237738 0.105788 0.965551 0
0.223551 0.101328 0.969411 0
0.216886 0.0975475 0.971311 0
0.216399 0.101962 0.970966 0
0.200992 0.0970685 0.974772 0
0.192419 0.0967416 0.976533 0
0.198637 0.0961834 0.975342 0
0.205466 0.0954911 0.973994 0
