0.081258 -0.21779 0.972607 0.00516479
0.104198 -0.245944 0.963667 0.0230616
0.107321 -0.237892 0.965344 0.0188222
0.11683 -0.235435 0.964843 0.0198997
0.123355 -0.230962 0.965111 0.0210856
0.127917 -0.22631 0.96562 0.0112214
-0.0572009 -0.126821 0.990275 0.00152775
-0.0550186 -0.119043 0.991363 0.0013959
-0.0532787 -0.117297 0.991667 0
-0.051824 -0.125305 0.990764 0
-0.0506585 -0.130304 0.990179 0.00631407
-0.0478739 -0.129695 0.990398 0
-0.0446165 -0.133303 0.990071 0
-0.0424058 -0.137193 0.989636 0
-0.0400815 -0.150202 0.987843 0.0120894
-0.038364 -0.137845 0.989711 0.0130539
-0.0369875 -0.141765 0.989209 0.0127709
-0.0338727 -0.141795 0.989316 0.0133559
-0.0312212 -0.139513 0.989728 0.0145793
-0.0273769 -0.139841 0.989795 0.0142272
-0.0249589 -0.144651 0.989168 0.0137729
-0.0222925 -0.129473 0.991332 0.0165878
-0.0194735 -0.134923 0.990665 0.0186384
-0.0148407 -0.162255 0.986637 0.0249252
-0.0116907 -0.15922 0.987174 0.0188623
-0.00394713 -0.1825 0.983198 0.0245429
0.000570189 -0.173945 0.984755 0.0160471
0.00394975 -0.173322 0.984857 0.00792831
0.0135699 -0.16665 0.985923 0.00832365
0.0174033 -0.164435 0.986234 0.0078636
0.0189032 -0.172828 0.984771 0.0139982
0.0394208 -0.213392 0.976171 0.00994727
0.0432924 -0.190278 0.980775 0
0.0730236 -0.213738 0.974158 0.0111653
0.11524 -0.24139 0.963561 0.0344196
0.12282 -0.23643 0.963855 0.032221
0.121395 -0.22452 0.966879 0.0219967
0.124725 -0.217771 0.967998 0.0151584
0.130713 -0.227395 0.96499 0.0211675
-0.0565735 -0.108689 0.992465 0
-0.0555136 -0.104774 0.992945 0
-0.0539714 -0.110079 0.992456 0.00118238
-0.0518122 -0.12455 0.99086 0
-0.0503366 -0.126629 0.990672 0
-0.0484709 -0.129035 0.990455 0
-0.0468347 -0.127818 0.990691 0
-0.0446385 -0.129626 0.990558 0
-0.0424764 -0.134114 0.990055 0.00304379
-0.0402519 -0.126049 0.991207 0.00161266
-0.039592 -0.134784 0.990084 0.00860168
-0.0365257 -0.133682 0.990351 0.00734823
-0.0330924 -0.129266 0.991058 0.00641988
-0.0307281 -0.121308 0.992139 0.00892676
-0.0292608 -0.12173 0.992132 0.0102214
-0.0256341 -0.128032 0.991439 0.0117213
-0.0208056 -0.151319 0.988266 0.0252885
-0.0191119 -0.152108 0.988179 0.0270997
-0.0161141 -0.152786 0.988128 0.0234272
0.116931 -0.216045 0.969356 0.0145412
0.124124 -0.215625 0.968555 0.0205403
0.128935 -0.222081 0.966465 0.0226868
-0.0562903 -0.101582 0.993233 0
-0.0554332 -0.102753 0.993161 0
-0.0548942 -0.108537 0.992576 0.00181136
-0.0539726 -0.114276 0.991982 0
-0.0527989 -0.109082 0.99263 0
-0.0509996 -0.119272 0.991551 0
-0.049616 -0.122763 0.991195 0
-0.0475662 -0.128061 0.990625 0
-0.0466704 -0.131508 0.990216 0
-0.0442007 -0.126093 0.991033 0
-0.0428418 -0.13354 0.990117 0.00716698
-0.0406974 -0.125213 0.991295 0
-0.038908 -0.127702 0.991049 0
-0.0360314 -0.126282 0.99134 0
-0.0331225 -0.126978 0.991352 0.00436501
-0.0312105 -0.121245 0.992132 0.00614369
-0.0294849 -0.123146 0.99195 0.00285213
-0.0256884 -0.132661 0.990828 0.0180379
0.11542 -0.208668 0.971152 0.0179095
0.128289 -0.221002 0.966799 0.0172678
0.138725 -0.231789 0.962823 0.0139335
0.142198 -0.230633 0.962594 0.00820688
-0.0567004 -0.105532 0.992798 0.00371263
-0.0551581 -0.114449 0.991897 0
-0.0535007 -0.106219 0.992902 0
-0.0530522 -0.105123 0.993043 0
-0.051972 -0.110319 0.992536 0.000350588
-0.0512585 -0.11843 0.991638 0.00440405
-0.0499362 -0.113854 0.992242 0
-0.0480126 -0.12275 0.991276 0
-0.0466842 -0.121703 0.991468 0
-0.0449045 -0.122457 0.991457 0
-0.0438201 -0.116054 0.992276 0
-0.0424938 -0.121089 0.991732 0
-0.0386895 -0.125645 0.991321 0
-0.0352124 -0.119064 0.992262 0.00623958
-0.0343148 -0.11784 0.992439 0.00744678
-0.0325896 -0.115785 0.992739 0.00771055
-0.0300477 -0.128641 0.991236 0.0161184
-0.0264393 -0.1606 0.986665 0.033016
0.124484 -0.212039 0.9693 0.0133428
0.12761 -0.209411 0.969465 0.00736301
0.136906 -0.222666 0.965234 0.00279506
0.137757 -0.221808 0.96531 0
-0.0565355 -0.0903677 0.994302 0
-0.0566836 -0.0988059 0.993491 0.00666571
-0.0554926 -0.105377 0.992883 0
-0.0538597 -0.102395 0.993285 0
-0.0537848 -0.0967718 0.993852 0
-0.0533558 -0.0947193 0.994073 0
-0.0528608 -0.0988341 0.993699 0.00329991
-0.0512177 -0.108994 0.992722 0
-0.0498619 -0.115538 0.992051 0
-0.049044 -0.108044 0.992936 0
-0.0469768 -0.113106 0.992472 0
-0.0461638 -0.107845 0.993095 0
-0.0435339 -0.105766 0.993438 0
-0.0414053 -0.103624 0.993754 0
-0.0380608 -0.114708 0.99267 0
-0.0362412 -0.118808 0.992256 0.0151467
-0.0345552 -0.107335 0.993622 0
-0.0329384 -0.129088 0.991086 0.0126194
-0.028076 -0.157169 0.987173 0.0289131
0.123864 -0.206769 0.970518 0.00417426
0.131562 -0.216088 0.96747 0
0.134928 -0.211593 0.968 0
0.136843 -0.204721 0.969208 0
0.145709 -0.206891 0.967453 0
0.158239 -0.206924 0.965475 0.00537902
0.163656 -0.201921 0.965632 0.00438741
0.159214 -0.184313 0.969886 0.00043619
-0.0562991 -0.0728142 0.995755 0
-0.0565283 -0.0820646 0.995023 0.00465656
-0.0548491 -0.0888317 0.994535 0
-0.0553255 -0.0925383 0.994171 0
-0.0546768 -0.0920897 0.994248 0
-0.0541913 -0.0913652 0.994342 0
-0.0536317 -0.0844665 0.994982 0
-0.0533722 -0.0832264 0.9951 0
-0.0511429 -0.097465 0.993924 0
-0.0497406 -0.105291 0.993197 0
-0.0487566 -0.110561 0.992673 0
-0.0471856 -0.103104 0.993551 0
-0.0452567 -0.107295 0.993197 0
-0.0431621 -0.107959 0.993218 0
-0.03991 -0.10846 0.993299 0
-0.0389422 -0.106625 0.993536 0.00351445
-0.037592 -0.108452 0.993391 0.00217195
-0.0352912 -0.12167 0.991943 0.00880955
0.129926 -0.205185 0.970061 0.00426759
0.133083 -0.203997 0.969884 0
0.139244 -0.203238 0.969178 0
0.155515 -0.216665 0.96378 0.0104327
0.157786 -0.205113 0.965936 0.00495062
0.157763 -0.186914 0.969626 0.00461803
0.158872 -0.179821 0.970785 0
-0.0557086 -0.0802849 0.995214 0.00778558
-0.0550971 -0.0716548 0.995907 0
-0.0556465 -0.0604793 0.996617 0
-0.0558501 -0.0683978 0.996094 0.00206789
-0.0552699 -0.0789639 0.995344 0
-0.0547811 -0.0812489 0.995187 0
-0.0548718 -0.0840716 0.994948 0
-0.0548558 -0.088061 0.994604 0
-0.0544247 -0.081183 0.995212 0
-0.0539373 -0.0755316 0.995684 0
-0.0528101 -0.0831029 0.995141 0
-0.0506628 -0.101019 0.993594 0
-0.0498448 -0.117063 0.991873 0.00398363
-0.0473519 -0.108185 0.993002 0
-0.0459984 -0.104801 0.993429 0
-0.043933 -0.111979 0.992739 0
-0.0429464 -0.105393 0.993503 0
-0.0412801 -0.110197 0.993052 0.00365578
-0.0394673 -0.108136 0.993352 0.000296372
0.125085 -0.19388 0.973018 0
0.130142 -0.197385 0.971649 0
0.139938 -0.202873 0.969154 0.00571003
0.155069 -0.206761 0.966025 0.0153051
0.15473 -0.190591 0.969399 0.0112988
0.150868 -0.171692 0.97353 0
0.157034 -0.168422 0.973126 0
-0.0549585 -0.0663925 0.996279 0.00199112
-0.0547746 -0.0633349 0.996488 0
-0.0548826 -0.0627242 0.996521 0
-0.0552709 -0.066766 0.996237 0.00353478
-0.0542769 -0.061867 0.996607 0
-0.0553818 -0.0645698 0.996375 0
-0.0549929 -0.0788394 0.995369 0
-0.0547982 -0.0826205 0.995073 0
-0.0549029 -0.0896435 0.99446 0.0020509
-0.0536147 -0.0787619 0.995451 0
-0.0534375 -0.089342 0.994566 0.00234742
-0.052598 -0.106116 0.992962 0.00619192
-0.0506686 -0.104222 0.993262 0.00623782
-0.0493575 -0.0973515 0.994025 0.00669918
-0.0466874 -0.0987416 0.994017 0.00297837
-0.0457886 -0.10468 0.993451 0
-0.0441925 -0.108943 0.993065 0.00234071
-0.0426534 -0.104776 0.993581 0
-0.0421722 -0.101584 0.993933 0
0.130134 -0.185974 0.973899 0.00828156
0.142239 -0.196542 0.970123 0.0164629
0.147877 -0.186765 0.971211 0.0155379
0.14767 -0.171875 0.973988 0.00403696
0.148777 -0.162824 0.975374 0
0.157009 -0.166622 0.97344 0
-0.0534858 -0.0720433 0.995966 0
-0.054207 -0.0798788 0.99533 0
-0.0542067 -0.0716159 0.995958 0.00233701
-0.0549028 -0.060433 0.996661 0.000185869
-0.0549245 -0.0480217 0.997335 0
-0.0552278 -0.0542681 0.996998 0
-0.0551882 -0.0540263 0.997013 0
-0.0547147 -0.059614 0.996721 5.26915e-05
-0.0551051 -0.0670735 0.996225 0
-0.0548781 -0.0788299 0.995376 0
-0.0550631 -0.0815847 0.995144 0
-0.0546489 -0.0865784 0.994745 0
-0.0541739 -0.0877328 0.99467 0.00234674
-0.0533565 -0.0859054 0.994874 0
-0.0533008 -0.0969399 0.993862 0.0130792
-0.0515526 -0.0958847 0.994057 0.0154325
-0.0483504 -0.0965723 0.994151 0.00960118
-0.0464753 -0.110593 0.992779 0
-0.0456437 -0.105266 0.993396 0
-0.0437813 -0.0952089 0.994494 0
-0.0434727 -0.0961149 0.99442 0
-0.0430131 -0.0910356 0.994918 0
-0.0532268 -0.0717457 0.996002 0
-0.0533213 -0.08084 0.9953 0
-0.0537612 -0.0800145 0.995343 0.000815856
-0.0543544 -0.0641133 0.996461 0
-0.0547171 -0.0634354 0.996485 0.0040782
-0.0552077 -0.0566362 0.996867 0
-0.0552776 -0.0533657 0.997044 0
-0.0553719 -0.0516653 0.997128 0
-0.0548566 -0.0573512 0.996846 0
-0.0548672 -0.0628173 0.996516 0
-0.0549264 -0.0728579 0.995829 0
-0.0545783 -0.0749959 0.995689 0
-0.054247 -0.0825963 0.995106 0
-0.0546919 -0.0795114 0.995332 0
-0.0545766 -0.0904288 0.994406 0.0141709
-0.053282 -0.0881303 0.994683 0.0132185
-0.0530863 -0.0898137 0.994543 0.0119335
-0.0492431 -0.0856856 0.995105 0.000589552
-0.0490219 -0.103997 0.993369 0
-0.0449593 -0.0909026 0.994844 0
-0.045116 -0.0906403 0.994861 0
-0.0435272 -0.0934553 0.994672 0.00373198
0.19868 -0.17493 0.964327 0.0147322
-0.0523028 -0.0821002 0.995251 0
-0.0521828 -0.0876073 0.994787 0.000200936
-0.0528245 -0.0822271 0.995213 0.00208881
-0.0540681 -0.0830949 0.995074 0.00705714
-0.0540648 -0.0712511 0.995992 0.000967885
-0.0538885 -0.0523396 0.997174 0
-0.0549423 -0.0540719 0.997024 0
-0.0548781 -0.0468105 0.997395 0
-0.0551978 -0.0557024 0.99692 0
-0.0555422 -0.0696414 0.996025 0
-0.0549729 -0.0670967 0.996231 0
-0.0544065 -0.0776588 0.995494 0
-0.0545302 -0.0878884 0.994637 0.00409106
-0.0545891 -0.0830316 0.995051 0
-0.0546223 -0.0757509 0.99563 0
-0.0544969 -0.0815484 0.995178 0
-0.0540685 -0.0915821 0.994329 0.0077547
-0.0539881 -0.0877279 0.99468 0.0171978
0.200324 -0.177729 0.963474 0.0145121
-0.0497219 -0.0842601 0.995202 0
-0.050496 -0.0793558 0.995567 0.000358862
-0.0505053 -0.0796043 0.995546 0
-0.050637 -0.0814545 0.99539 0.000365698
-0.0521692 -0.0916918 0.99442 0
-0.0523352 -0.0814488 0.995303 0
-0.0533394 -0.0717053 0.995999 0.00222067
-0.0538832 -0.0599672 0.996745 0
-0.0539932 -0.0609338 0.99668 0.001434
-0.0547366 -0.0639432 0.996451 0.00212905
-0.0547249 -0.0567713 0.996886 0
-0.0551807 -0.065796 0.996306 0
-0.0552195 -0.0724007 0.995846 0
-0.0548883 -0.0838654 0.994964 0
-0.0539988 -0.0790959 0.995403 0
-0.0542189 -0.0861841 0.994803 0
-0.054871 -0.0953952 0.993926 0.00206844
-0.0552271 -0.0943089 0.99401 0.0038576
-0.0544748 -0.0836572 0.995004 0.00462806
-0.0541068 -0.0721995 0.995922 0.000421925
0.206952 -0.184418 0.960813 0.0176284
-0.0430284 -0.0873346 0.995249 0.00273878
-0.0489592 -0.0836666 0.99529 0
-0.0496138 -0.0826549 0.995343 0
-0.0501757 -0.082776 0.995304 0
-0.0500794 -0.0867272 0.994973 0
-0.0515271 -0.0845349 0.995087 0
-0.0524826 -0.082643 0.995196 0.00486686
-0.0520202 -0.0779506 0.995599 0
-0.0529601 -0.0659799 0.996414 0
-0.0537516 -0.0697045 0.996118 0.0021802
-0.0547845 -0.0694455 0.99608 0.00565927
-0.0542735 -0.0552056 0.996999 0
-0.0548455 -0.0659973 0.996311 0
-0.0546398 -0.0818001 0.99515 0
-0.0547086 -0.0822495 0.995109 0
-0.0549381 -0.0906609 0.994365 0
-0.0555323 -0.0940584 0.994017 0
-0.0551437 -0.0979271 0.993665 0.00593455
-0.0556065 -0.0947085 0.993951 0.00905275
0.20365 -0.18188 0.962001 0.0115968
-0.0437011 -0.107862 0.993205 0.0044894
-0.0448152 -0.101824 0.993792 0.0167998
-0.0443018 -0.0991033 0.99409 0.0158107
-0.0423369 -0.0779011 0.996062 0
-0.0422718 -0.0835873 0.995604 0
-0.0425618 -0.0942573 0.994638 0.00421948
-0.0441477 -0.0989623 0.994111 0.0117145
-0.044841 -0.101295 0.993845 0.00966703
-0.0455136 -0.0863759 0.995222 0
-0.0483481 -0.0678184 0.996525 0
-0.0492753 -0.0690962 0.996392 0
-0.049751 -0.0777006 0.995735 0
-0.0499993 -0.084347 0.995181 0
-0.0509066 -0.0825259 0.995288 0
-0.0510866 -0.0770427 0.995718 0
-0.0510392 -0.0897928 0.994652 0.00310099
-0.0515976 -0.0826371 0.995243 0
-0.0530201 -0.0796642 0.995411 0
-0.0535393 -0.0735365 0.995854 0.000740367
-0.0546407 -0.0626958 0.996536 0.00286937
-0.0544935 -0.073131 0.995833 0
-0.0544066 -0.0805024 0.995268 0
-0.0547669 -0.0888129 0.994542 0
-0.0559535 -0.104292 0.992971 0.00433073
-0.0549829 -0.0965893 0.993805 0.00256619
-0.0547513 -0.0945208 0.994016 0.00442323
0.199543 -0.172396 0.964605 0.0133091
0.210824 -0.172941 0.962104 0.0214195
-0.0465344 -0.100691 0.993829 0
-0.0445686 -0.110793 0.992844 0
-0.0435947 -0.117383 0.992129 0
-0.0426907 -0.101058 0.993964 0.0014232
-0.0425185 -0.0898891 0.995044 0.00133317
-0.0432652 -0.08692 0.995275 0.0146745
-0.0427031 -0.075892 0.996201 0.00627301
-0.0426325 -0.0801367 0.995872 0.00891143
-0.0424518 -0.0956862 0.994506 0.00609285
-0.0429486 -0.0984013 0.99422 0.00874933
-0.0443245 -0.108595 0.993097 0.0239958
-0.0442 -0.0938353 0.994606 0.0111094
-0.0454638 -0.0949629 0.994442 0.0195377
-0.0455292 -0.0823316 0.995565 0.0145158
-0.0460467 -0.074589 0.996151 0.000247746
-0.0466587 -0.0736676 0.996191 0
-0.0477664 -0.0691074 0.996465 0.00144351
-0.0486858 -0.0753972 0.995964 0
-0.0486291 -0.0742861 0.996051 0
-0.0492049 -0.0810675 0.995493 0
-0.0504941 -0.0793718 0.995565 0
-0.0513326 -0.0868482 0.994898 0
-0.0513351 -0.0957613 0.99408 0.0059442
-0.0520296 -0.0840318 0.995104 0.00775975
-0.0533006 -0.0723924 0.995951 0.00425214
-0.053843 -0.06747 0.996267 0
-0.0544824 -0.0619042 0.996594 0.00259049
-0.054628 -0.0714874 0.995944 0.00484017
-0.0546425 -0.0761739 0.995596 0
0.210802 -0.179466 0.960913 0.0265787
0.206967 -0.174084 0.962735 0.0154126
-0.0462397 -0.0911179 0.994766 0
-0.0447015 -0.0934235 0.994622 0
-0.0439291 -0.0993555 0.994082 0
-0.0426394 -0.0980143 0.994271 0
-0.0419608 -0.0962391 0.994473 0
-0.0417528 -0.0834288 0.995639 0
-0.0414529 -0.079021 0.996011 0
-0.0415306 -0.0684551 0.996789 8.53478e-05
-0.0414014 -0.0716738 0.996569 0.0013831
-0.0422146 -0.0813612 0.99579 0.0147364
-0.0426609 -0.0977605 0.994295 0.0142694
-0.0440901 -0.108995 0.993064 0.026832
-0.0438305 -0.0934903 0.994655 0.0158923
-0.0444068 -0.0970953 0.994284 0.0178425
-0.0453294 -0.0952501 0.994421 0.020085
-0.0449295 -0.0800904 0.995775 0
-0.046616 -0.0818018 0.995558 0.00651235
-0.0470491 -0.0694609 0.996475 0
-0.047777 -0.0726635 0.996212 0
-0.0482376 -0.0648773 0.996727 0
-0.0488851 -0.0612751 0.996923 0
-0.0502209 -0.0807999 0.995464 0
-0.0504261 -0.0880568 0.994838 0
-0.0506072 -0.0876445 0.994865 0.00503363
-0.0515559 -0.0817082 0.995322 0.00934597
-0.0525537 -0.0627348 0.996646 0
-0.0533997 -0.0507814 0.997281 0
-0.0538726 -0.0527526 0.997153 0
0.198804 -0.164278 0.966173 0.0170332
0.211019 -0.1707 0.962462 0.017911
-0.0602811 -0.115907 0.991429 0.0159972
-0.05819 -0.116045 0.991538 0.01983
-0.0541939 -0.107944 0.992679 0.0121097
-0.0516613 -0.106254 0.992996 0.0110401
-0.0489931 -0.0900698 0.99473 0.00277654
-0.0471358 -0.0803566 0.995651 0
-0.0455285 -0.0789262 0.99584 0
-0.0439988 -0.0870881 0.995229 0
-0.0428255 -0.106013 0.993442 0
-0.0422338 -0.0978193 0.994308 0
-0.0425569 -0.110499 0.992965 0.013118
-0.0418502 -0.0936112 0.994729 0.00481013
-0.0415991 -0.0798238 0.995941 0.00627923
-0.0407854 -0.083033 0.995712 0
-0.0406441 -0.0824585 0.995765 0.00325402
-0.0418216 -0.0890678 0.995147 0.0209942
-0.0430536 -0.0942572 0.994616 0.0271997
-0.0433357 -0.0938339 0.994644 0.0254252
-0.0438668 -0.096565 0.99436 0.0215752
-0.0441101 -0.0982936 0.994179 0.0193876
-0.0445277 -0.0978488 0.994205 0.0200605
-0.0455318 -0.0843808 0.995393 0.0140753
-0.0458135 -0.0768022 0.995993 0
-0.0461661 -0.0754015 0.996084 0
-0.0475494 -0.0614698 0.996976 0
-0.0479741 -0.0642669 0.996779 0
-0.0483796 -0.0640442 0.996774 0
-0.0506822 -0.0750963 0.995887 0.0112318
-0.0501565 -0.0786926 0.995636 0.00811674
-0.0506918 -0.084012 0.995174 0.0126851
-0.0514968 -0.0894692 0.994657 0.013217
-0.0535089 -0.0428257 0.997649 0
0.200986 -0.160746 0.966315 0.0221638
0.204728 -0.153288 0.966742 0.0186247
-0.0917801 -0.107021 0.990012 0.0119275
-0.0883719 -0.109564 0.990044 0.00934578
-0.0628906 -0.11933 0.990861 0.0293088
-0.0600564 -0.120838 0.990854 0.0265781
-0.0563924 -0.11924 0.991263 0.0199446
-0.0528901 -0.106184 0.992939 0.0120221
-0.0490295 -0.0970753 0.994069 0
-0.047787 -0.0843363 0.995291 0
-0.0462234 -0.0831988 0.99546 0
-0.0441733 -0.0806148 0.995766 0
-0.0430491 -0.0853691 0.995419 0
-0.0421036 -0.0878507 0.995243 0
-0.0417448 -0.0900617 0.995061 0
-0.0409086 -0.0843472 0.995596 0
-0.0404718 -0.0785346 0.99609 0.000117935
-0.0419043 -0.0854193 0.995463 0.0116139
-0.0414751 -0.0863727 0.995399 0.00879934
-0.0409693 -0.0844526 0.995585 0.00545142
-0.0424853 -0.0873256 0.995273 0.0256168
-0.0426437 -0.0918148 0.994863 0.0285509
-0.042434 -0.0870799 0.995297 0.0187585
-0.0428296 -0.0940454 0.994646 0.018539
-0.0433318 -0.0943772 0.994593 0.0197002
-0.0447058 -0.0930002 0.994662 0.0227115
-0.0449376 -0.0703678 0.996508 0.0129239
-0.0446551 -0.0702906 0.996527 0.00244161
-0.0454049 -0.0756789 0.996098 0
-0.0464638 -0.067916 0.996608 0
-0.0479866 -0.0530193 0.99744 0
-0.0486756 -0.0622038 0.996876 0.00835286
-0.0506188 -0.0641803 0.996654 0.0128801
-0.0500313 -0.0694588 0.996329 0.0112505
0.198517 -0.141055 0.969894 0.0120222
0.204905 -0.127442 0.97045 0.012983
-0.10939 -0.0919892 0.989733 0
-0.105342 -0.0887002 0.990472 0
-0.0871945 -0.0899086 0.992126 0
-0.0829537 -0.0991988 0.991604 0
-0.071082 -0.0971671 0.992726 0.012895
-0.0674341 -0.103961 0.992293 0.0175012
-0.0616774 -0.110394 0.991972 0.0123981
-0.0578998 -0.114149 0.991775 0.0173222
-0.0534551 -0.100757 0.993474 0.00509752
-0.0509794 -0.102908 0.993384 0.00617598
-0.0474251 -0.0922733 0.994604 0
-0.046793 -0.0830899 0.995443 0
-0.0449619 -0.0714831 0.996428 0
-0.0432133 -0.0805697 0.995812 0
-0.0422002 -0.0812457 0.9958 0
-0.041616 -0.0744073 0.996359 0
-0.041295 -0.0653055 0.997011 0
-0.041033 -0.0648418 0.997052 0.00107119
-0.0407093 -0.0704608 0.996684 0.00406338
-0.041653 -0.0798809 0.995934 0.0154402
-0.041191 -0.0868192 0.995372 0.0068775
-0.0414495 -0.0828943 0.995696 0.00865514
-0.0425455 -0.0932639 0.994732 0.0279627
-0.0425072 -0.102192 0.993856 0.0245061
-0.0428851 -0.0890099 0.995107 0.0202261
-0.0427859 -0.0970153 0.994363 0.0257787
-0.0426129 -0.0811632 0.995789 0.0149997
-0.0434858 -0.0831611 0.995587 0.0154244
-0.0448464 -0.0726471 0.996349 0.0185404
-0.0457115 -0.0730355 0.996281 0.0187131
-0.0451381 -0.0798188 0.995787 0.00776745
-0.045978 -0.0667616 0.996709 0.00283655
-0.0472554 -0.0570422 0.997253 0
-0.0484598 -0.0632324 0.996822 0.0116669
0.197974 -0.118752 0.972987 0.012176
0.217247 -0.123115 0.968322 0.0217598
0.214732 -0.112849 0.970132 0.0112236
-0.106309 -0.0775976 0.991301 0
-0.100683 -0.0784539 0.991821 0
-0.0912447 -0.0830179 0.992362 0
-0.0868025 -0.0886066 0.992277 0
-0.0812457 -0.092637 0.99238 0
-0.073424 -0.0857259 0.99361 0
-0.0682342 -0.0843474 0.994097 0.000728336
-0.0648311 -0.0991304 0.99296 0.011554
-0.0586182 -0.104936 0.99275 0.00319154
-0.0553346 -0.105208 0.992909 0.00514478
-0.0530217 -0.105419 0.993013 0.013689
-0.0490481 -0.092299 0.994523 0
-0.0467952 -0.0812409 0.995595 0
-0.045271 -0.0666422 0.996749 0
-0.0435538 -0.0628833 0.99707 0
-0.0423781 -0.0749226 0.996288 0
-0.0417131 -0.0752819 0.996289 0.00448496
-0.0414354 -0.0570261 0.997512 0
-0.0410381 -0.054289 0.997682 0
-0.0415382 -0.0584162 0.997428 0.00796168
-0.0410081 -0.0622873 0.997215 0.012095
-0.0400999 -0.0631221 0.9972 0.0012239
-0.0400952 -0.0680793 0.996874 0.00071841
-0.0412229 -0.0774057 0.996147 0.0112397
-0.0412723 -0.0798679 0.995951 0.0177911
-0.041989 -0.0867616 0.995344 0.0206755
-0.0414233 -0.0774267 0.996137 0.0131281
-0.0419366 -0.0664772 0.996906 0.0144668
-0.0420961 -0.064017 0.997061 0.0113455
-0.0420864 -0.0589271 0.997375 0.00340948
-0.0438161 -0.0686984 0.996675 0.00800196
-0.0450916 -0.0752051 0.996148 0.016312
-0.0467965 -0.0797507 0.995716 0.0201645
0.211688 -0.118045 0.970182 0.0272117
0.203735 -0.0991428 0.973993 0.00870849
0.22533 -0.110507 0.967995 0.0206542
0.2316 -0.0992945 0.96773 0.0137918
-0.104174 -0.0702015 0.992078 0
-0.0992702 -0.0721947 0.992438 0
-0.0900303 -0.0749235 0.993117 0
-0.0847003 -0.0757126 0.993526 0
-0.0786058 -0.0705636 0.994405 0
-0.0723216 -0.0704268 0.994892 0
-0.0668057 -0.0750518 0.994939 0.00115372
-0.0632706 -0.0797747 0.994803 0.0105513
-0.0567963 -0.0868657 0.9946 0.00140367
-0.0536192 -0.0722369 0.995945 0
-0.0509342 -0.0836484 0.995193 0.00368938
-0.0476378 -0.0723358 0.996242 0
-0.0457755 -0.0663428 0.996746 0
-0.0442408 -0.0582871 0.997319 0
-0.0429739 -0.0593244 0.997313 0
-0.0419296 -0.0618751 0.997203 0
-0.0414498 -0.0567528 0.997527 0.00186045
-0.0415838 -0.0563245 0.997546 0.00910071
-0.0418829 -0.0610367 0.997256 0.0174263
-0.0410526 -0.0594659 0.997386 0.0127837
-0.0398575 -0.0551705 0.997681 0.0100122
-0.0402603 -0.0601939 0.997374 0.0133924
-0.0405669 -0.0671779 0.996916 0.0146729
-0.0403482 -0.0635019 0.997166 0.005923
-0.0405138 -0.0637088 0.997146 0.00902986
-0.0411657 -0.0703759 0.996671 0.00854403
-0.0409163 -0.0732252 0.996476 0.0106234
-0.0417011 -0.0637831 0.997092 0.0221019
-0.0411021 -0.048982 0.997954 0
-0.0417525 -0.0515717 0.997796 0
-0.0437485 -0.0612851 0.997161 0.00378636
-0.0449005 -0.0729506 0.996324 0.00946839
0.212825 -0.0799253 0.973816 0.0247243
0.217384 -0.0827238 0.972574 0.0136346
0.239432 -0.0897374 0.966757 0.0193947
0.253686 -0.0890155 0.963182 0.02056
0.279999 -0.0950622 0.955282 0.026633
0.280037 -0.0950646 0.955271 0.0202585
-0.10245 -0.0559123 0.993166 0
-0.0994007 -0.0568797 0.99342 0
-0.0907705 -0.0696323 0.993434 0
-0.0824984 -0.0609016 0.994729 0
-0.0766916 -0.0600753 0.995243 0
-0.0708185 -0.0554099 0.995949 0
-0.0664928 -0.0570942 0.996152 0.00773645
-0.0617691 -0.0575325 0.996431 0.00286446
-0.0562309 -0.064632 0.996324 0
-0.0527058 -0.0571943 0.996971 0
-0.0494771 -0.052129 0.997414 0
-0.0468888 -0.0471366 0.997787 0
-0.0446082 -0.0529125 0.997602 0
-0.0434869 -0.0518387 0.997708 0
-0.0423292 -0.0479735 0.997951 0
-0.0413608 -0.0498739 0.997899 0
-0.0410093 -0.0561836 0.997578 0
-0.0406881 -0.0578373 0.997497 0
-0.0404925 -0.0695685 0.996755 0.00622429
-0.0408055 -0.0649555 0.997054 0.0179473
-0.0401284 -0.0575464 0.997536 0.0109895
-0.0398378 -0.0470467 0.998098 0.0075517
-0.0404694 -0.0473051 0.99806 0.0084235
-0.0413026 -0.0505524 0.997867 0.0110132
-0.0411999 -0.0583187 0.997448 0.0176455
-0.0410039 -0.0554962 0.997617 0.0155081
-0.0414356 -0.054737 0.997641 0.0216117
-0.0403704 -0.0498208 0.997942 0.0103908
-0.04111 -0.0397737 0.998363 0
-0.0411886 -0.0363572 0.99849 0
-0.0433847 -0.0367419 0.998383 0
0.214268 -0.0755847 0.973846 0.0165605
0.230263 -0.0781839 0.969983 0.0262833
0.242009 -0.0770769 0.967208 0.023717
0.26182 -0.0795984 0.961829 0.0274079
0.273977 -0.0801986 0.958386 0.0257301
0.29483 -0.0826972 0.951964 0.0316193
-0.117664 -0.0833648 0.989548 0
-0.107134 -0.0651028 0.992111 0
-0.099726 -0.0535056 0.993575 0
-0.0962102 -0.0511527 0.994046 0
-0.0887161 -0.0469604 0.994949 0
-0.0816797 -0.0439498 0.995689 0
-0.075826 -0.0461483 0.996053 0.00254291
-0.0699575 -0.0368609 0.996869 0.0106783
-0.063881 -0.038451 0.997217 0.00298833
-0.0598876 -0.0437312 0.997247 0
-0.0544886 -0.0482847 0.997346 0
-0.0517123 -0.0446689 0.997663 0
-0.0491304 -0.0359118 0.998147 0
-0.0457924 -0.0322549 0.99843 0
-0.0438717 -0.0294322 0.998604 0
-0.0430273 -0.0435307 0.998125 0
-0.0418755 -0.0470874 0.998013 0
-0.0410099 -0.0446408 0.998161 0
-0.0405311 -0.0457493 0.99813 0
-0.0400253 -0.0371573 0.998508 0
-0.0401654 -0.0465821 0.998107 0.00187486
-0.040011 -0.0476779 0.998061 0
-0.0397374 -0.0444875 0.998219 0
-0.0397777 -0.0487484 0.998019 0.00568041
-0.0408854 -0.049212 0.997951 0.0143277
-0.0419042 -0.0559098 0.997556 0.0257929
-0.0416005 -0.0554607 0.997594 0.0227011
-0.0423449 -0.0504278 0.99783 0.0258863
0.235072 -0.0675793 0.969626 0.029322
0.241182 -0.0578515 0.968754 0.0224037
0.260304 -0.0718439 0.96285 0.0243619
0.272712 -0.0750749 0.959162 0.0226653
0.284083 -0.0708499 0.956178 0.022631
-0.127102 -0.0747313 0.98907 0
-0.117547 -0.0674925 0.990771 0
-0.107993 -0.0614125 0.992253 0
-0.099138 -0.0465879 0.993982 0
-0.0942948 -0.0471328 0.994428 0
-0.0860074 -0.0403323 0.995478 0
-0.0791458 -0.0393732 0.996085 0
-0.0740324 -0.0345464 0.996657 0
-0.0679224 -0.0249498 0.997379 0
-0.0627347 -0.0227318 0.997771 0
-0.0585736 -0.028366 0.99788 0
-0.0539137 -0.0329333 0.998002 0
-0.0507178 -0.0265917 0.998359 0
-0.0472771 -0.0173848 0.998731 0
-0.045222 -0.0186105 0.998804 0
-0.0439547 -0.0211135 0.99881 0
-0.0429395 -0.0174768 0.998925 0
-0.0416464 -0.031772 0.998627 0.00362453
-0.040248 -0.032281 0.998668 0
-0.039884 -0.0311115 0.99872 0.00469155
-0.0393607 -0.0345513 0.998628 0
-0.0392121 -0.0314538 0.998736 5.46997e-05
-0.039637 -0.0308849 0.998737 0
-0.0398939 -0.0340746 0.998623 0
-0.0393558 -0.0390938 0.99846 0
-0.0401285 -0.0453751 0.998164 0.00763295
-0.0404774 -0.0426482 0.99827 0.0130082
-0.0415525 -0.0408479 0.998301 0.0245373
-0.0422806 -0.0389641 0.998346 0.0299916
0.255402 -0.0565316 0.965181 0.0246456
0.260627 -0.0520129 0.964037 0.0168402
0.281576 -0.0647903 0.957349 0.022617
-0.154881 -0.0485978 0.986737 0.00420639
-0.133728 -0.0556585 0.989454 0
-0.123928 -0.0486479 0.991098 0
-0.115326 -0.0454017 0.99229 0
-0.108012 -0.0532754 0.992721 0.00984179
-0.0966479 -0.0407019 0.994486 0
-0.0919168 -0.0353835 0.995138 0
-0.0839988 -0.0214011 0.996236 0
-0.0772963 -0.01179 0.996938 0
-0.0722966 -0.0130325 0.997298 0
-0.0667432 -0.0113527 0.997706 0
-0.0622441 -0.00689866 0.998037 0
-0.0575328 -0.0146479 0.998236 0
-0.0525661 -0.0170192 0.998472 0
-0.049876 -0.0138676 0.998659 0
-0.0472693 -0.0144603 0.998778 0
-0.0443143 -0.00271765 0.999014 0
-0.043934 -0.00794078 0.999003 0
-0.0420668 -0.00206381 0.999113 0
-0.0403439 -0.0121158 0.999112 0
-0.0397597 -0.00649399 0.999188 0.00242141
-0.0395183 -0.0150324 0.999106 0
-0.0391699 -0.0154929 0.999112 0
-0.0387923 -0.0224448 0.998995 0
-0.0392566 -0.0205795 0.999017 0
-0.0397064 -0.0331906 0.99866 0
0.261099 -0.0457917 0.964225 0.0198993
0.275841 -0.0513192 0.959832 0.0255251
0.276608 -0.0474599 0.95981 0.0172465
-0.165625 -0.0231179 0.985918 0.0103431
-0.157763 -0.0285468 0.987064 0.00530119
-0.13796 -0.0469643 0.989324 0.0049365
-0.134292 -0.0459635 0.989875 0.00731397
-0.122608 -0.0344452 0.991857 0.00515717
-0.115269 -0.0348204 0.992724 0.00843862
-0.103867 -0.0317566 0.994084 0.000788294
-0.0972218 -0.0352445 0.994639 0.00165366
-0.0905804 -0.0243357 0.995592 0.000314175
-0.0821041 -0.0165158 0.996487 0.00543577
-0.0756241 -0.00556996 0.997121 0.00165714
-0.0713949 -0.00102654 0.997448 0.00406369
-0.0653786 -0.00905078 0.99782 0
-0.0608299 -0.00823145 0.998114 0
-0.0574815 -0.00671467 0.998324 0
-0.0519731 -0.00925343 0.998606 0
-0.0494379 0.00177418 0.998776 0
-0.0476179 -0.00350227 0.998859 0
-0.044414 -0.00342275 0.999007 0
-0.0430221 0.00224261 0.999072 0
-0.0401806 -0.00353368 0.999186 0
-0.0392921 -0.00704273 0.999203 0
0.254004 -0.0368441 0.966501 0.0136609
0.256009 -0.0339 0.96608 0.00937546
0.279186 -0.0444564 0.959207 0.0220367
-0.176424 -0.00333026 0.984309 0
-0.173506 -0.0136852 0.984738 0.0111908
-0.166073 -0.0105479 0.986057 0.0167374
-0.156588 -0.0157998 0.987538 0.0124701
-0.141342 -0.0258273 0.989624 0.00881907
-0.134074 -0.0303826 0.990506 0.0150909
-0.121367 -0.0246103 0.992303 0.0132918
-0.113236 -0.0326573 0.993031 0.012915
-0.102476 -0.0318242 0.994226 0.00573307
-0.0974596 -0.0297294 0.994795 0.0136341
-0.090817 -0.0233398 0.995594 0.0118671
-0.0811582 -0.0109474 0.996641 0.0018322
-0.0752766 -0.00331827 0.997157 0.00641087
-0.0716377 -0.00949182 0.997386 0.0123499
-0.0638685 -0.00219392 0.997956 0
-0.0603681 -0.00158524 0.998175 0
-0.0562497 -0.0107463 0.998359 0
-0.0513751 -0.00766593 0.99865 0
-0.0490852 0.00423548 0.998786 0
-0.0472817 -0.00416792 0.998873 0
-0.0420243 0.00480056 0.999105 0
0.259441 -0.0316021 0.965242 0.0175668
0.269568 -0.0341763 0.962375 0.0179514
-0.179483 -0.00173126 0.98376 0.00897813
-0.171327 0.00190528 0.985212 0.0133215
-0.161114 0.00557327 0.98692 0.0117272
-0.150979 0.00576836 0.98852 0.00187053
-0.140054 -0.00876794 0.990105 0.00853345
-0.134467 -0.0192615 0.990731 0.0197125
-0.123942 -0.0223488 0.992038 0.0234561
-0.115298 -0.0275053 0.99295 0.0239427
-0.101724 -0.0327927 0.994272 0.00830599
-0.0947138 -0.027156 0.995134 0.00857412
-0.0882573 -0.0134952 0.996006 0
-0.0794328 0.00216393 0.996838 0
-0.073784 0.00400523 0.997266 0.00403486
-0.0688251 -0.00644851 0.997608 0.012419
-0.0625817 -0.000543778 0.99804 0.00049212
-0.0595543 -0.00488639 0.998213 0
-0.0562844 -0.00355829 0.998408 0
-0.0516253 0.00646966 0.998646 0
-0.0468866 0.00277304 0.998896 0
0.268323 -0.0285487 0.962906 0.0269484
0.265468 -0.0262791 0.963761 0.016369
0.275286 -0.0359987 0.960688 0.0217204
-0.175818 0.0149428 0.984309 0.000665693
-0.169372 0.00900959 0.985511 0.00622964
-0.155795 0.00727627 0.987763 0.0026844
-0.153633 0.00793017 0.988096 0.0195378
-0.139131 -0.00625667 0.990254 0.0131134
-0.131273 -0.00106556 0.991346 0.0158916
-0.121097 -0.0168486 0.992498 0.0190108
-0.116407 -0.0229029 0.992938 0.0252991
-0.100428 -0.0122628 0.994869 0.00357013
-0.0926377 -0.00491329 0.995688 0
-0.086945 -0.00436432 0.996204 0
-0.0782709 0.00954514 0.996886 0
-0.0737228 0.00728939 0.997252 0
-0.0683962 0.0135808 0.997566 0.0028255
-0.0623689 0.0113606 0.997989 0
-0.0592206 0.00847397 0.998209 0
-0.0552296 0.00898064 0.998433 0
-0.0525141 0.000432847 0.99862 0
0.264175 -0.0227747 0.964206 0.0180436
-0.174695 0.0207015 0.984405 0.00100868
-0.166855 0.0161716 0.985849 0
-0.16367 0.0172327 0.986365 0.0207905
-0.150652 0.0165544 0.988448 0.014941
-0.136535 0.0016071 0.990634 0.0112755
-0.12862 -0.000348173 0.991694 0.0100972
-0.123762 -0.00956906 0.992266 0.0300449
-0.113868 -0.00609608 0.993477 0.0206444
-0.0998011 0.0107207 0.99495 0.00217565
-0.0931849 0.00395978 0.995641 0
-0.0868405 0.00648022 0.996201 0
-0.0758663 0.015712 0.996994 0
-0.071324 0.020641 0.99724 0
-0.0673344 0.0195565 0.997539 0
-0.062049 0.00929693 0.99803 0
-0.0583221 0.00729356 0.998271 0
-0.0564746 0.0104265 0.99835 0
0.259553 -0.00766382 0.965698 0.0202855
-0.183071 0.0129322 0.983015 0.00366877
-0.177078 0.0114408 0.98413 0.0042217
-0.170551 0.00961927 0.985302 0.0138722
-0.153923 0.0249209 0.987769 0
-0.148012 0.0318182 0.988474 0.00800377
-0.137046 0.00881928 0.990525 0.0124816
-0.127621 0.00228015 0.99182 0.0149002
-0.11727 0.00670313 0.993077 0.00932977
-0.108885 0.0115389 0.993987 0.00129765
-0.099426 0.017016 0.994899 0.00596692
-0.0924271 0.0172751 0.99557 0
-0.0867171 0.0257474 0.9959 0
-0.0710295 0.0252475 0.997155 0
-0.0671747 0.0199935 0.997541 0
-0.0622754 0.0183484 0.99789 0
-0.0584327 0.0135768 0.998199 0
-0.0557966 0.0108716 0.998383 0
0.247587 0.0119458 0.968792 0.00865729
-0.18225 0.0256273 0.982918 0
-0.174501 0.0228348 0.984392 0
-0.163848 0.0220612 0.986239 0
-0.154018 0.0371518 0.987369 0
-0.145051 0.0284675 0.989015 0.00363065
-0.134548 0.00852511 0.99087 0.00787644
-0.126797 0.0153898 0.991809 0.00619521
-0.1152 0.00585105 0.993325 0.00111404
-0.108486 0.0197132 0.993903 0.0032886
-0.0975704 0.0302919 0.994767 0
-0.0924756 0.0338043 0.995141 0
-0.085366 0.0366184 0.995677 0
-0.0794491 0.0460104 0.995777 0
-0.0719225 0.0349384 0.996798 0
-0.0670677 0.0358069 0.997106 0
-0.0615714 0.0314931 0.997606 0
-0.0581407 0.0138059 0.998213 0
-0.0553429 0.0186674 0.998293 0
-0.18246 0.0282749 0.982807 0
-0.174545 0.031323 0.984151 0
-0.163785 0.0350302 0.985874 0
-0.153975 0.0352062 0.987447 0
-0.14491 0.0308391 0.988964 0
-0.13285 0.0226038 0.990878 0
-0.125022 0.0188318 0.991975 0
-0.114879 0.0228585 0.993116 0
-0.109581 0.0224343 0.993725 0.00690569
-0.096849 0.0405407 0.994473 0
-0.0905881 0.0606162 0.994042 0
-0.0835858 0.0583223 0.994792 0
-0.0786072 0.0599237 0.995103 0
-0.0716515 0.0523775 0.996054 0
-0.0672657 0.0506946 0.996446 0
-0.0622046 0.0453644 0.997032 0
-0.0585653 0.0327324 0.997747 0
-0.0552999 0.0282651 0.99807 0
-0.181632 0.0391969 0.982585 0
-0.173995 0.0367613 0.98406 0
-0.162695 0.0396096 0.985881 0
-0.154708 0.0330951 0.987406 0
-0.144278 0.0309237 0.989054 0
-0.132772 0.02646 0.990793 0
-0.125928 0.026114 0.991696 0
-0.115438 0.0407676 0.992478 0
-0.107905 0.0338111 0.993586 0
-0.0966511 0.0384029 0.994577 0
-0.0908909 0.0528099 0.99446 0
-0.0837102 0.0758549 0.993599 0
-0.0777262 0.0870498 0.993167 0
-0.0710566 0.0601952 0.995654 0
-0.0670459 0.0626315 0.995782 0
-0.062682 0.0499289 0.996784 0
-0.0592843 0.0482945 0.997072 0
-0.0566221 0.0402765 0.997583 0
-0.0554171 0.0287841 0.998048 0
-0.183292 0.0422618 0.98215 0
-0.173646 0.0498416 0.983546 0.0015277
-0.161381 0.0393009 0.986109 0
-0.154039 0.0441321 0.987079 0
-0.143891 0.040178 0.988778 0
-0.133455 0.0355984 0.990415 0
-0.124637 0.0452729 0.991169 0
-0.11481 0.0533672 0.991953 0
-0.108075 0.0543254 0.992657 0
-0.0972518 0.0488058 0.994062 0
-0.0916389 0.0565509 0.994185 0
-0.0837218 0.0828428 0.99304 0
-0.0775069 0.10483 0.991465 0
-0.0706918 0.0727001 0.994845 0
-0.0669086 0.0684079 0.995411 0
-0.0627697 0.0560415 0.996453 0
-0.0600453 0.0551518 0.996671 0
-0.057906 0.0484856 0.997144 0
-0.054839 0.0350026 0.997881 0.00316485
-0.0364998 0.05054 0.998055 0.00326878
-0.181161 0.062452 0.981469 0
-0.174715 0.0635831 0.982564 0.00799907
-0.161205 0.0555311 0.985357 0.00124226
-0.154071 0.0513584 0.986724 0
-0.143371 0.0532053 0.988238 0
-0.132006 0.0674404 0.988952 0
-0.124611 0.0664575 0.989977 0
-0.11308 0.0724761 0.990939 0
-0.106722 0.0687003 0.991913 0
-0.096892 0.0671529 0.993027 0
-0.0912634 0.0641939 0.993756 0
-0.083492 0.0865386 0.992744 0
-0.0768054 0.0944098 0.992566 0
-0.0709432 0.0782714 0.994405 0
-0.0675779 0.0612703 0.995831 0
-0.0632863 0.0559853 0.996424 0
-0.0607966 0.0578275 0.996474 0
-0.0582929 0.0647809 0.996195 0
-0.0548272 0.0560844 0.99692 0
-0.0525889 0.0539407 0.997158 0
-0.0363788 0.0607554 0.99749 0
-0.0366599 0.0389008 0.99857 0.0156658
-0.0237615 0.0813333 0.996404 0.00428339
0.234165 0.0808858 0.968826 0.00306282
-0.182303 0.0638844 0.981165 0.00857893
-0.176538 0.0802705 0.981015 0.012957
-0.162948 0.0682752 0.984269 0.00403542
-0.152974 0.06613 0.986015 0
-0.143202 0.0676165 0.987381 0
-0.130942 0.0605367 0.98954 0
-0.124022 0.0749124 0.989448 0
-0.103176 0.0814794 0.99132 0
-0.0978529 0.0708781 0.992674 0
-0.0931981 0.0725844 0.992998 0
-0.0830556 0.109729 0.990485 0
-0.0772307 0.0822253 0.993617 0
-0.071383 0.0746681 0.99465 0
-0.0677379 0.0615244 0.995804 0
-0.0639635 0.0628734 0.99597 0
-0.061755 0.0767402 0.995137 0
-0.0597805 0.0560652 0.996636 0.00810594
-0.0554785 0.0682618 0.996124 0
-0.0529062 0.0807467 0.995329 0
-0.0501441 0.0796129 0.995564 0
-0.0360148 0.0628973 0.99737 0.00120427
-0.0343773 0.0724724 0.996778 0
-0.0335301 0.075599 0.996574 0
-0.022696 0.0788475 0.996628 0.0240218
-0.0225634 0.073148 0.997066 0.0214307
0.231065 0.0913727 0.968638 0.00809777
0.233871 0.0814078 0.968853 0.00621681
-0.174943 0.0848757 0.980913 0.0173988
-0.161747 0.0815054 0.983461 0.00212025
-0.151984 0.0768609 0.98539 0.00109461
-0.141572 0.0859467 0.98619 0
-0.131844 0.0818237 0.987888 0
-0.124636 0.06833 0.989847 0
-0.0969141 0.081599 0.991942 0
-0.0930443 0.0887867 0.991695 0
-0.0833928 0.102647 0.991216 0
-0.0782031 0.0703924 0.994449 0
-0.072117 0.0684291 0.995046 0
-0.0678317 0.0760383 0.994795 0
-0.0651062 0.05982 0.996084 0.000332151
-0.0627994 0.0733113 0.99533 0
-0.0587916 0.0668921 0.996027 0
-0.0560131 0.0870826 0.994625 0
-0.0541072 0.0791327 0.995395 0
-0.0506865 0.0945793 0.994226 0
-0.0352849 0.075786 0.9965 0.0138332
-0.0334158 0.0914381 0.99525 0
-0.0327893 0.08093 0.99618 0.00644971
-0.0210961 0.0698289 0.997336 0.0213544
-0.0216123 0.0709813 0.997243 0.0304988
-0.0223979 0.102845 0.994445 0.0242096
-0.0298967 0.116542 0.992736 0
0.183923 0.0888993 0.978912 0.0148766
0.228846 0.0960611 0.968711 0.00931342
-0.166461 0.102603 0.980695 0
-0.160275 0.104379 0.981538 0.00135793
-0.150425 0.0881979 0.984679 0
-0.140094 0.106953 0.984345 0
-0.131951 0.101151 0.986082 0
-0.0962045 0.102045 0.990117 0
-0.0924366 0.0994247 0.990742 0
-0.0841021 0.113832 0.989934 0
-0.0785134 0.0842433 0.993347 0
-0.0729937 0.06304 0.995338 0.00227354
-0.0683605 0.0706516 0.995156 0
-0.0652547 0.0691541 0.99547 0.00509053
-0.0621544 0.0744739 0.995284 0
-0.0565614 0.0863072 0.994662 0
-0.0543248 0.107561 0.992713 0
-0.0517195 0.108436 0.992757 0
-0.0489529 0.0945171 0.994319 0.00160362
-0.0368974 0.0756233 0.996454 0.0180417
-0.03396 0.0781956 0.996359 0.00915136
-0.0333333 0.0929898 0.995109 0.00639318
-0.0332577 0.0794168 0.996287 0.0154635
-0.0317914 0.0725324 0.996859 0.0188684
-0.0197753 0.0944591 0.995332 0.0151628
-0.0190998 0.085472 0.996158 0.0171766
-0.0198542 0.10173 0.994614 0.0256325
-0.0217253 0.0982141 0.994928 0.034999
-0.0286699 0.134267 0.99053 0.00986816
-0.0295709 0.132938 0.990683 0.00280711
0.182474 0.0974706 0.978367 0.0264696
0.184346 0.0972522 0.978038 0.0176322
0.190445 0.0982422 0.97677 0.0155902
0.218741 0.102219 0.970414 0.0141547
0.229488 0.106031 0.967519 0.0157284
-0.166346 0.104489 0.980516 0.00502704
-0.160118 0.102976 0.981712 0.00404366
-0.151273 0.0888029 0.984495 0.00818654
-0.139029 0.104857 0.984721 0
-0.130728 0.108118 0.985505 0
-0.121186 0.1072 0.986824 0
-0.0950302 0.113132 0.989025 0
-0.092634 0.110067 0.989598 0
-0.0846731 0.11279 0.990005 0
-0.0788519 0.0820044 0.993508 0
-0.0731075 0.0758018 0.994439 0.00687419
-0.0706827 0.0689062 0.995116 0.013588
-0.065185 0.0732534 0.995181 0
-0.0544134 0.106837 0.992786 0
-0.0519218 0.127831 0.990436 0
-0.0485005 0.111026 0.992633 0
-0.0397244 0.107097 0.993455 0.0163611
-0.0373507 0.104856 0.993786 0.0143648
-0.0359469 0.0879913 0.995472 0.0189066
-0.0334312 0.0862262 0.995715 0.0110167
-0.0328329 0.0898175 0.995417 0.0155643
-0.0319977 0.0948071 0.994981 0.0118823
-0.0316642 0.0746677 0.996706 0.0185954
-0.0193659 0.113651 0.993332 0.0281223
-0.0183566 0.103231 0.994488 0.0353054
-0.0199288 0.0927223 0.995493 0.039078
-0.0222515 0.0980317 0.994934 0.036771
-0.024147 0.094219 0.995259 0.0335219
-0.0274794 0.139516 0.989838 0.00289067
-0.0306664 0.137643 0.990007 0.0182669
-0.0304291 0.149402 0.988308 0.0117598
-0.0384218 0.138281 0.989648 0.00229959
-0.0398809 0.131705 0.990486 0.00981744
0.183641 0.0914319 0.978732 0.0462554
0.185457 0.0751594 0.979774 0.0275863
0.191206 0.107777 0.975615 0.0209239
0.198424 0.115854 0.973245 0.0248974
0.208155 0.125005 0.970075 0.034606
0.212349 0.120651 0.969717 0.0276045
0.223621 0.110513 0.968391 0.0303827
0.234118 0.111899 0.965747 0.0293651
0.239802 0.120035 0.963372 0.0299418
-0.162861 0.104646 0.981084 0.0169804
-0.148033 0.12654 0.980854 0
-0.138294 0.116518 0.983513 0
-0.128883 0.126513 0.983557 0
-0.120744 0.113289 0.986198 0
-0.0921882 0.109341 0.98972 0
-0.0849338 0.111108 0.990172 0
-0.0780609 0.114729 0.990325 0
-0.0728856 0.0929207 0.993002 0.00604408
-0.0705764 0.0786791 0.994399 0.011906
-0.0658697 0.0761241 0.99492 0
-0.0526564 0.118233 0.991589 0
-0.0485265 0.120891 0.991479 6.20702e-05
-0.0462362 0.126287 0.990916 0.00458871
-0.0409461 0.102828 0.993856 0.024057
-0.0385641 0.0957421 0.994659 0.0312761
-0.034382 0.116083 0.992644 0.0148843
-0.0316534 0.107939 0.993654 0.00792254
-0.0322926 0.107172 0.993716 0.0131582
-0.0312337 0.100553 0.994441 0.0024411
-0.0301679 0.0930995 0.9952 0.0155846
-0.0286776 0.0904746 0.995486 0.0197214
-0.0179306 0.108163 0.993971 0.0427617
-0.0198457 0.111799 0.993533 0.0365151
-0.0218904 0.116148 0.992991 0.033339
-0.0242636 0.118777 0.992624 0.0219262
-0.0262927 0.151103 0.988168 0.0256
-0.0288962 0.153985 0.987651 0.0200577
-0.030416 0.158187 0.986941 0.0102546
-0.0316682 0.156222 0.987214 0.00685173
-0.03677 0.144605 0.988806 0.0134378
-0.0376839 0.15613 0.987017 0.0166359
-0.0382005 0.149003 0.988099 0.0109593
0.0693945 0.151848 0.985965 0.00503699
0.0746368 0.147388 0.986259 0
0.0798435 0.171842 0.981884 0
0.0833318 0.169539 0.981994 0
0.187714 0.109817 0.976065 0.0560592
0.186967 0.103792 0.976868 0.0315361
0.196002 0.0992959 0.975563 0.0340392
0.198579 0.11764 0.972999 0.0261404
0.205812 0.124652 0.97062 0.0332979
0.210849 0.1326 0.968483 0.02249
0.229857 0.136012 0.963674 0.0398403
0.233741 0.128896 0.963717 0.0334462
-0.161153 0.11522 0.980181 0.0139808
-0.145454 0.131299 0.980614 0
-0.139978 0.118906 0.982989 0
-0.128509 0.133372 0.982699 0
-0.0844459 0.127712 0.98821 0
-0.0781006 0.120853 0.989593 0
-0.0728889 0.108156 0.991458 0
-0.0702799 0.0894939 0.993505 0.00310549
-0.0669721 0.0839934 0.994213 0
-0.0523758 0.123824 0.990921 0
-0.0490163 0.124595 0.990996 0.00574675
-0.0442828 0.140988 0.98902 0
-0.0410547 0.107672 0.993338 0.016037
-0.0382532 0.121118 0.991901 0.0280144
-0.0323187 0.123655 0.991799 0.0119471
-0.0313814 0.123656 0.991829 0.0158651
-0.0306308 0.10507 0.993993 0.0120838
-0.0308512 0.0950256 0.994997 0.0173623
-0.0288929 0.092064 0.995334 0.0232552
-0.0269808 0.0730574 0.996963 0.0333801
-0.0232649 0.0734345 0.997029 0.0379589
-0.0135775 0.0881385 0.996016 0.0457325
-0.0151184 0.0943086 0.995428 0.0474705
-0.0163911 0.106859 0.994139 0.0545332
-0.0196505 0.102692 0.994519 0.0562254
-0.0214242 0.131008 0.99115 0.0469747
-0.0240028 0.132481 0.990895 0.0166299
-0.023448 0.178108 0.983732 0.0221841
-0.0250229 0.160199 0.986767 0.0139671
-0.0275008 0.171066 0.984876 0.00934248
-0.0295758 0.167572 0.985416 0.0145289
-0.0321079 0.165522 0.985683 0.0131471
-0.0333761 0.154624 0.987409 0.0142955
-0.032998 0.166259 0.98553 0.0073007
-0.0355134 0.152545 0.987658 0.0153319
-0.0362975 0.170203 0.98474 0
-0.0367042 0.177563 0.983425 0.0173554
-0.037731 0.17995 0.982952 0.0197525
-0.0216022 0.167613 0.985616 0
0.0116293 0.133902 0.990926 0.0250181
0.0143875 0.129112 0.991526 0.0240642
0.0191459 0.14382 0.989419 0.0151567
0.0221121 0.126633 0.991703 0.0242305
0.0667477 0.154729 0.9857 0.00212388
0.0730124 0.156155 0.98503 0
0.0778742 0.169538 0.982442 0
0.0847107 0.179706 0.980066 0
0.109241 0.176974 0.978134 0
0.143061 0.165474 0.975783 0.0127461
0.184192 0.119659 0.975579 0.047956
0.188014 0.112703 0.975679 0.0447802
0.199281 0.11509 0.973161 0.0398938
0.200277 0.120731 0.972272 0.0318235
0.207564 0.129208 0.969651 0.0358088
0.214194 0.129231 0.968205 0.0335474
0.224849 0.131911 0.965423 0.0409367
-0.0848799 0.141177 0.986339 0
-0.0805001 0.122474 0.989202 0.0152052
-0.0728108 0.117179 0.990438 0
-0.070359 0.101328 0.992362 0.00272545
-0.047334 0.160263 0.985939 0
-0.0443602 0.151605 0.987445 0
-0.0399325 0.138669 0.989533 0.00642997
-0.0360967 0.14329 0.989022 0.018467
-0.0324798 0.117258 0.99257 0.0282546
-0.0308363 0.128604 0.991217 0.0160845
-0.0296255 0.128467 0.991271 0.00292016
-0.0295307 0.094335 0.995102 0.0125848
-0.0271721 0.0864457 0.995886 0.014691
-0.0265055 0.0722656 0.997033 0.033574
-0.0219118 0.0884786 0.995837 0.0419752
-0.0180264 0.0848835 0.996228 0.0320773
-0.0133937 0.0798913 0.996714 0.0299368
-0.0119344 0.0822438 0.996541 0.0453003
-0.0123437 0.0983848 0.995072 0.0525604
-0.0154512 0.111078 0.993692 0.0464111
-0.0187972 0.125526 0.991912 0.0430744
-0.0216932 0.136495 0.990403 0.038641
-0.0229901 0.126714 0.991673 0.0287924
-0.0223588 0.13832 0.990135 0.0157064
-0.0208048 0.154538 0.987768 0.00601208
-0.0207447 0.156711 0.987427 0.014286
-0.0200744 0.166483 0.98584 0.012777
-0.0204245 0.168237 0.985535 0.021092
-0.0222641 0.180711 0.983284 0.032799
-0.0237348 0.176685 0.983981 0.0299021
-0.0269733 0.172905 0.984569 0.0291965
-0.0281385 0.181163 0.98305 0.00913755
-0.0312367 0.169423 0.985048 0.00518388
-0.0325298 0.160415 0.986513 0.0130173
-0.0325284 0.149119 0.988284 0.00716842
-0.0318069 0.168897 0.98512 0.0210349
-0.0322575 0.173331 0.984335 0.0322681
-0.0321694 0.169413 0.98502 0.0160602
-0.0345348 0.174177 0.984109 0.00896089
-0.035422 0.184506 0.982193 0.00110962
-0.0360776 0.195128 0.980114 0.014423
-0.0374684 0.197924 0.979501 0.00477567
-0.0367559 0.21123 0.976745 0
-0.0383186 0.202337 0.978566 0
-0.0392472 0.186291 0.98171 0
-0.0391496 0.195396 0.979943 0
-0.0267521 0.148043 0.988619 0.014114
-0.0257528 0.143142 0.989367 0
-0.0231905 0.14741 0.988804 0
0.0121424 0.148007 0.988912 0.0102837
0.013617 0.131424 0.991233 0.0234691
0.018876 0.145278 0.989211 0.0217225
0.0255716 0.153186 0.987866 0.0232573
0.0303067 0.133755 0.990551 0.0281943
0.0418393 0.121739 0.99168 0.0367706
0.0455222 0.123064 0.991354 0.0371243
0.0679943 0.176946 0.981869 0.0105007
0.0732056 0.178346 0.981241 0.0101478
0.0765688 0.184875 0.979775 0
0.0835267 0.192618 0.977713 0
0.0976679 0.1897 0.976972 0
0.110625 0.187808 0.975956 0.00131584
0.125617 0.195966 0.972531 0.00198111
0.143154 0.175887 0.973946 0.0143254
-0.0844249 0.14331 0.98607 0
-0.0812674 0.124278 0.988914 0.0191652
-0.0740329 0.123819 0.989539 0
-0.0484579 0.174361 0.983489 0
-0.0448261 0.18254 0.982176 0
-0.0400327 0.154215 0.987226 0.00131226
-0.0346029 0.154346 0.987411 0.00750468
-0.0321057 0.125355 0.991592 0.0212192
-0.0303977 0.144716 0.989006 0.0214673
-0.0258054 0.103793 0.994264 0.0161032
-0.024839 0.110686 0.993545 0.0331013
-0.0202495 0.0864513 0.99605 0.0516681
-0.0161124 0.0742091 0.997113 0.0495937
-0.012607 0.0770492 0.996948 0.0219275
-0.0104366 0.0916271 0.995739 0.0457154
-0.00956458 0.0895768 0.995934 0.0487407
-0.0138592 0.13042 0.991362 0.0422808
-0.0173068 0.133031 0.990961 0.0410547
-0.021402 0.152144 0.988127 0.0383978
-0.0219122 0.152159 0.988113 0.0312679
-0.0212658 0.163198 0.986364 0.00227753
-0.0204533 0.160936 0.986753 0.00901895
-0.0204546 0.153898 0.987875 0.0191829
-0.0195275 0.173179 0.984697 0.0217991
-0.0199829 0.173035 0.984713 0.0272024
-0.0216681 0.185996 0.982312 0.0324911
-0.0226851 0.182242 0.982992 0.0451232
-0.0273745 0.204602 0.978462 0.0100054
-0.0294549 0.189055 0.981525 0.0118245
-0.0310843 0.183148 0.982594 0
-0.0315627 0.177421 0.983629 0.00937751
-0.031661 0.182554 0.982686 0.0239743
-0.0319295 0.177145 0.983667 0.0340299
-0.0316597 0.181906 0.982806 0.0381685
-0.0322187 0.182417 0.982693 0.0307719
-0.034073 0.187726 0.98163 0.0031801
-0.0354343 0.19601 0.979961 0.01368
-0.0353088 0.205322 0.978057 0.0110216
-0.0362123 0.21744 0.975402 0
-0.0384585 0.231434 0.97209 0.0187368
-0.0369319 0.246571 0.968421 0.0225565
-0.0352011 0.25735 0.965677 0.0204936
-0.0354094 0.229012 0.972779 0.00315353
-0.0346974 0.230542 0.972444 0
-0.0340482 0.239427 0.970317 0
-0.0351331 0.24215 0.969603 0
-0.0356619 0.229233 0.972718 0
-0.037851 0.23115 0.972182 0
-0.0320214 0.174643 0.984111 0.0352045
-0.0324551 0.144913 0.988912 0.0248459
-0.0298453 0.147068 0.988676 0.0295818
-0.0265518 0.139158 0.989914 0.0199186
-0.0225606 0.146603 0.988938 0.00908887
-0.0189277 0.158249 0.987218 0.0213106
-0.0173153 0.143762 0.989461 0.0226221
-0.00730951 0.158037 0.987406 0.00681612
-0.00253232 0.168192 0.985751 0
0.00256109 0.180604 0.983552 0.00379585
0.00656721 0.18427 0.982854 0
0.0147019 0.166615 0.985913 0.00476888
0.0145539 0.157337 0.987438 0.0187334
0.021273 0.172154 0.98484 0.0203439
0.0270457 0.168982 0.985248 0.0225123
0.0324859 0.178262 0.983447 0.0256705
0.0335995 0.134099 0.990398 0.0352111
0.0408262 0.159468 0.986359 0.0393297
0.0421946 0.146346 0.988333 0.0286377
0.043645 0.13969 0.989233 0.0341391
0.0720774 0.194298 0.978291 0.00345458
0.0763584 0.202768 0.976245 0
0.0835669 0.212721 0.973533 0
0.0968995 0.213939 0.972029 0
0.109388 0.201187 0.973426 0
0.115566 0.198847 0.973193 0
0.146564 0.171862 0.974157 0.0222856
-0.043378 0.19165 0.980504 0
-0.0233766 0.116693 0.992893 0.0318732
-0.0198441 0.0946835 0.99531 0.0546007
-0.0152212 0.0743002 0.99712 0.04353
-0.0103883 0.082144 0.996566 0.0447437
-0.00852938 0.0872002 0.996154 0.0529015
-0.00806066 0.0881904 0.996071 0.0480039
-0.0212378 0.170596 0.985112 0.0314951
-0.0196777 0.179632 0.983537 0.00870808
-0.0199312 0.187629 0.982038 0.015614
-0.0192627 0.173822 0.984589 0.020407
-0.0190925 0.172173 0.984882 0.0238861
-0.0189962 0.17486 0.98441 0.0174857
-0.0290984 0.204504 0.978433 0.000471899
-0.0303117 0.186155 0.982053 0.00273994
-0.0307353 0.190871 0.981134 0.0105684
-0.0320152 0.194967 0.980287 0.0312712
-0.031116 0.206839 0.97788 0.0338633
-0.0306133 0.208921 0.977453 0.0397014
-0.0353311 0.230422 0.972449 0
-0.0371863 0.238467 0.970438 0.0067282
-0.0349409 0.259594 0.965086 0.013863
