# .PCD v0.7 - Point Cloud Data file format
VERSION 0.7
FIELDS x y z
SIZE 4 4 4
TYPE F F F
COUNT 1 1 1
WIDTH 1359
HEIGHT 1
VIEWPOINT 0 0 0 1 0 0 0
POINTS 1359
DATA ascii
0.0080637997 -0.18987982 -0.35689259
0.0082940003 -0.18991266 -0.35689482
0.0084968172 -0.18991655 -0.35690343
0.0086803325 -0.18990399 -0.35689443
0.0088892505 -0.18990175 -0.35688624
0.0091192229 -0.18987979 -0.3568626
0.0093053328 -0.18988705 -0.35688445
0.0094677778 -0.18990067 -0.35687059
0.0097156661 -0.18991044 -0.35686648
0.0099189999 -0.18991832 -0.35687765
0.0100851 -0.18991259 -0.35685036
0.0103105 -0.18989849 -0.35685268
0.010580833 -0.18988167 -0.35682499
0.010701572 -0.18989301 -0.35680959
0.011045 -0.189978 -0.35681
0.022931332 -0.18989933 -0.35684383
0.023054501 -0.1899025 -0.35694599
0.0035073336 -0.18967533 -0.35699335
0.0037450001 -0.18968511 -0.35696748
0.0038749999 -0.18966219 -0.35697222
0.0041379998 -0.18968783 -0.35696664
0.004282875 -0.18969174 -0.35698637
0.0045189997 -0.18969586 -0.35698774
0.0047113998 -0.18971239 -0.35698172
0.0049059996 -0.18971321 -0.35696793
0.0051375004 -0.18969926 -0.35694826
0.0053223129 -0.18968581 -0.35694125
0.005494833 -0.18968458 -0.3569282
0.0057029999 -0.18969433 -0.35691068
0.0058833337 -0.1897068 -0.35691342
0.0060875001 -0.18971533 -0.35691521
0.0062852502 -0.18972424 -0.35692775
0.0065276665 -0.18968184 -0.35689914
0.0067339996 -0.18967932 -0.35689545
0.0069229999 -0.18969001 -0.35687685
0.0070870006 -0.18970165 -0.35686076
0.0072961673 -0.18971042 -0.35684025
0.0075020008 -0.18971676 -0.35684994
0.0076848753 -0.18971658 -0.35685113
0.0079082493 -0.18968226 -0.35685578
0.0080563324 -0.18967818 -0.35684368
0.008299333 -0.18969552 -0.35688183
0.0085084168 -0.18970685 -0.35688427
0.0086917505 -0.18971206 -0.35686824
0.0088936677 -0.18972117 -0.35687414
0.0091239996 -0.18969934 -0.35684869
0.0093185836 -0.18968934 -0.35686684
0.0094733341 -0.18968421 -0.35685986
0.0097216666 -0.18969399 -0.35686445
0.0099240001 -0.18970199 -0.35686401
0.010082299 -0.18971771 -0.35682783
0.010297 -0.18972857 -0.35681745
0.010567 -0.18973701 -0.35680199
0.010763 -0.189752 -0.35680199
0.022949835 -0.18974316 -0.35682133
0.023058498 -0.189721 -0.35691598
0.0032639999 -0.189428 -0.35699001
0.0034946667 -0.18950567 -0.35698998
0.0037370003 -0.1895099 -0.35697669
0.0038932499 -0.18949576 -0.35697377
0.0041432502 -0.1895065 -0.35697249
0.0043008127 -0.18948337 -0.35698542
0.0045066369 -0.18948017 -0.35696882
0.0047166003 -0.18949527 -0.35696313
0.0049038003 -0.18950981 -0.35695106
0.0050954442 -0.18951635 -0.35694546
0.0053090709 -0.18950914 -0.35693359
0.0054997499 -0.18950351 -0.3569299
0.0057096668 -0.18947701 -0.35691068
0.0058887331 -0.18949018 -0.35689479
0.0060931668 -0.1894985 -0.35690951
0.0062536667 -0.18950599 -0.35692167
0.0064710006 -0.18952043 -0.35689816
0.0067185718 -0.189494 -0.35687271
0.0069388337 -0.1894929 -0.35685894
0.0070916 -0.18948555 -0.35683408
0.0073019159 -0.18949391 -0.35683015
0.0075069177 -0.18950082 -0.35683176
0.0076945 -0.18951067 -0.35682058
0.0078977142 -0.18950656 -0.35683647
0.0080610001 -0.1894975 -0.35682672
0.0083480002 -0.18949975 -0.35685325
0.0085131675 -0.18949001 -0.35685733
0.0086969165 -0.18949498 -0.35684493
0.0088983336 -0.18950433 -0.35684597
0.0091280006 -0.18951865 -0.35683143
0.0093060005 -0.18951376 -0.35684797
0.0094781658 -0.18950216 -0.35685384
0.0097274445 -0.1894761 -0.35685781
0.0099306665 -0.189484 -0.35686168
0.01006157 -0.18948071 -0.35681042
0.0103542 -0.18951759 -0.35681018
0.023087749 -0.18949513 -0.35689223
0.0031509998 -0.189227 -0.35699233
0.00330025 -0.18930274 -0.35698223
0.0034816368 -0.1892817 -0.35696271
0.0037484998 -0.18930833 -0.35695782
0.0038971666 -0.18931584 -0.35694584
0.0041485 -0.18932617 -0.35696968
0.004297235 -0.18931358 -0.35694772
0.0045124441 -0.18929523 -0.35695735
0.0047093844 -0.18928517 -0.35693786
0.0048963525 -0.18928851 -0.35693485
0.0051005553 -0.18930066 -0.35692641
0.005308067 -0.18931375 -0.35692519
0.0054846671 -0.18932205 -0.35692528
0.005713 -0.189298 -0.35688698
0.0059000771 -0.18928644 -0.35686779
0.0060986667 -0.18928182 -0.35689387
0.0062573333 -0.189291 -0.35686997
0.0064551667 -0.18930084 -0.35688666
0.0067075831 -0.18931824 -0.35685575
0.0069077271 -0.18932718 -0.35685408
0.0070803333 -0.18929742 -0.35682854
0.0073146373 -0.189284 -0.35681719
0.0075127007 -0.18929771 -0.35682306
0.0076506003 -0.18933299 -0.35681379
0.0078904545 -0.18931554 -0.356819
0.0080385003 -0.18933427 -0.35683
0.0083379997 -0.18928801 -0.35683334
0.0085271001 -0.18928921 -0.35682839
0.0087019997 -0.189279 -0.35683045
0.0089164004 -0.189303 -0.35682201
0.009132334 -0.18933801 -0.35681763
0.0093189338 -0.18930933 -0.35683054
0.0094698751 -0.18933111 -0.35684189
0.0097308336 -0.18929683 -0.35682318
0.0099340007 -0.18930501 -0.35682949
0.0100685 -0.1893295 -0.3568075
0.010381 -0.189362 -0.35680801
0.023132497 -0.18928565 -0.35692084
0.0027439999 -0.189042 -0.35699999
0.0029363334 -0.18907367 -0.35699067
0.0030914617 -0.1891153 -0.35698158
0.003272 -0.189105 -0.35696602
0.0034883337 -0.18909644 -0.3569496
0.0037432001 -0.18909919 -0.35692129
0.0038767499 -0.18908975 -0.35691974
0.0041521667 -0.18911034 -0.35691917
0.0043096668 -0.18911521 -0.35692134
0.0045021814 -0.1891188 -0.35693797
0.0047058752 -0.18909888 -0.35691398
0.0049009998 -0.18907994 -0.35691008
0.0050937505 -0.18909225 -0.35690361
0.0053057494 -0.1890918 -0.35689995
0.0054892004 -0.18910547 -0.35689482
0.0057173334 -0.189117 -0.35686365
0.0058904998 -0.18911059 -0.35687003
0.0061014998 -0.18910199 -0.35683903
0.0062623336 -0.18907367 -0.3568503
0.0064593335 -0.18908584 -0.35684732
0.0067040916 -0.18910837 -0.35681954
0.0068922215 -0.18910998 -0.35682741
0.0070549371 -0.1891394 -0.35682115
0.0073232851 -0.18911271 -0.35680944
0.0075021996 -0.18912479 -0.3568064
0.0076160002 -0.189107 -0.35680401
0.0079153338 -0.1891305 -0.35682118
0.0080150003 -0.189173 -0.35680699
0.0083105005 -0.18919101 -0.3568185
0.0085199997 -0.189165 -0.35681149
0.0086820005 -0.18913233 -0.35681298
0.0089745 -0.189109 -0.3568055
0.0093293013 -0.18910711 -0.35680771
0.0094399992 -0.18911819 -0.35681063
0.0097340001 -0.189188 -0.35680199
0.0099375006 -0.18915901 -0.35681349
0.010037 -0.1892 -0.356803
0.02313525 -0.18910575 -0.35687149
0.002752091 -0.18887563 -0.35698402
0.0029268332 -0.18890302 -0.3569788
0.0031063333 -0.18890913 -0.35697737
0.0032753332 -0.18892367 -0.35693598
0.0034765454 -0.18891954 -0.35693738
0.0037468751 -0.188885 -0.35688123
0.0038722223 -0.18888211 -0.35688055
0.0041571665 -0.18889366 -0.35689414
0.0043144287 -0.18889859 -0.35689387
0.0045123333 -0.18891017 -0.35689175
0.0047098338 -0.18891841 -0.35689124
0.0048919236 -0.18890285 -0.35687816
0.0050634998 -0.18890226 -0.356886
0.0052986671 -0.18887949 -0.35687307
0.0054937997 -0.18889007 -0.35686341
0.005721333 -0.18890135 -0.3568227
0.0059023332 -0.18891333 -0.35684332
0.0061054998 -0.18892266 -0.356823
0.0062675001 -0.1888935 -0.3568455
0.0064737997 -0.188885 -0.35683781
0.0066779996 -0.18889514 -0.35680699
0.0068662004 -0.18893643 -0.35680661
0.0079770004 -0.18880901 -0.35680801
0.023174332 -0.18892567 -0.35685167
0.023272 -0.18890274 -0.35695499
0.0019030001 -0.18862499 -0.35699901
0.002327 -0.18865401 -0.35699099
0.0024816666 -0.18865733 -0.35699067
0.0027343635 -0.18868455 -0.35696599
0.0028885554 -0.18868533 -0.35695255
0.0031101997 -0.18869402 -0.35692975
0.0032803335 -0.18870801 -0.35690799
0.0034874997 -0.18871169 -0.35689566
0.0037374287 -0.18871029 -0.35684857
0.0038755003 -0.18870266 -0.35684732
0.0041608331 -0.18867867 -0.35685036
0.0043050554 -0.18868232 -0.35685384
0.0044942666 -0.18869227 -0.35687333
0.0047146669 -0.18870175 -0.35686216
0.0049027777 -0.18871526 -0.35684633
0.005066833 -0.18872149 -0.35685232
0.0053022499 -0.18869819 -0.35684431
0.0055048335 -0.18869118 -0.35682702
0.0058984286 -0.18873613 -0.3568193
0.0060534999 -0.188738 -0.35681301
0.006269 -0.188784 -0.35681099
0.0064190002 -0.18879101 -0.35681501
0.0067070001 -0.18874 -0.356803
0.0232985 -0.18870418 -0.35689804
0.023444001 -0.188637 -0.356994
0.023644499 -0.18864501 -0.35699749
0.024278 -0.1886055 -0.35698
0.024484999 -0.188613 -0.35698
0.001718 -0.188403 -0.356998
0.00192 -0.18847561 -0.35698441
0.002104 -0.18844067 -0.35698333
0.002320125 -0.18849863 -0.35697287
0.0024841109 -0.18851201 -0.35695657
0.0027268887 -0.18850777 -0.35695267
0.0028921666 -0.18850501 -0.35692286
0.0031249998 -0.18848875 -0.35691363
0.0032860001 -0.18849166 -0.35689768
0.0034933332 -0.18849449 -0.35688397
0.003749667 -0.18851455 -0.35684434
0.0038804444 -0.18852167 -0.35683978
0.0041654999 -0.18849701 -0.35684049
0.0042707999 -0.18852021 -0.35680503
0.004528455 -0.18848409 -0.35684064
0.0047190837 -0.18848599 -0.35682786
0.0049080555 -0.1884986 -0.35682842
0.0050711669 -0.18850566 -0.35681102
0.0053007058 -0.18852259 -0.35681725
0.0054817777 -0.18852833 -0.3568168
0.023325 -0.18850777 -0.35683674
0.023484498 -0.1884955 -0.35692599
0.023685889 -0.18850155 -0.35694733
0.023909461 -0.18850176 -0.35696235
0.024083717 -0.18850355 -0.35696316
0.024278998 -0.18849801 -0.356929
0.024485499 -0.1885055 -0.35692501
0.024661001 -0.188407 -0.356985
0.0017515001 -0.18829851 -0.356987
0.0019101 -0.1883018 -0.35695601
0.0021239999 -0.18829159 -0.35695601
0.0023133336 -0.188292 -0.35693768
0.0024892224 -0.18829612 -0.35693985
0.0027372502 -0.18831693 -0.35692453
0.0028965557 -0.18832445 -0.3569071
0.0030902002 -0.1883162 -0.35690251
0.0032547999 -0.1882872 -0.35687119
0.0034972501 -0.18827891 -0.35684013
0.0037617499 -0.18835399 -0.356812
0.0038991426 -0.18832657 -0.35681358
0.0041696667 -0.18831734 -0.35682234
0.0042764 -0.1883257 -0.3568103
0.0045410004 -0.1883052 -0.35682359
0.0047235 -0.188306 -0.35681489
0.0049153334 -0.18833044 -0.35680833
0.023505248 -0.18830049 -0.35682601
0.023688223 -0.18828589 -0.35686713
0.023902733 -0.18829601 -0.35690418
0.024086334 -0.18830855 -0.35689157
0.024281835 -0.18831731 -0.35688701
0.024541 -0.18832384 -0.35694048
0.024662999 -0.18829849 -0.35698101
0.001577 -0.18805534 -0.35699368
0.0017407272 -0.18811063 -0.35696557
0.0018918334 -0.18812107 -0.35692915
0.002073 -0.18811913 -0.35693914
0.0023292499 -0.18808526 -0.35691828
0.0024941112 -0.18807966 -0.35691398
0.0027424165 -0.18810044 -0.35690054
0.0029016668 -0.18810801 -0.35688496
0.0031034166 -0.188114 -0.35688135
0.0032419998 -0.1881128 -0.35686216
0.0035017501 -0.18809874 -0.35683191
0.0037593336 -0.18810666 -0.35680568
0.0038740002 -0.188089 -0.35680452
0.0041469997 -0.188136 -0.35681099
0.0041999999 -0.18817499 -0.35680199
0.0045445999 -0.18815941 -0.35681099
0.0047022854 -0.18815485 -0.35680613
0.0048230002 -0.188198 -0.356801
0.023529999 -0.18810201 -0.35680801
0.02369 -0.18811299 -0.3568126
0.0239064 -0.18807968 -0.35685143
0.024089554 -0.18809199 -0.35682809
0.024285832 -0.18810083 -0.35684517
0.024544833 -0.18810749 -0.35688916
0.024667 -0.18811767 -0.35695001
0.0015286363 -0.18787855 -0.35699001
0.0017185333 -0.18789707 -0.35696217
0.0018975834 -0.18790393 -0.35691917
0.0020867777 -0.18791233 -0.35692063
0.0023100001 -0.18791012 -0.35690528
0.0024975 -0.18789999 -0.35687885
0.0027475001 -0.18788381 -0.35688302
0.0029066668 -0.18789178 -0.35686511
0.00310825 -0.18789817 -0.3568562
0.0032553331 -0.18791167 -0.35683751
0.0035065834 -0.18791775 -0.35682401
0.0037465 -0.18789899 -0.35680401
0.023898249 -0.1879355 -0.35682076
0.024061501 -0.18791051 -0.35680652
0.024356335 -0.187887 -0.35681501
0.02452475 -0.18790725 -0.35687175
0.024644401 -0.18788099 -0.35691899
0.001328 -0.18768267 -0.35698816
0.001525 -0.18770412 -0.35696763
0.001724 -0.18769263 -0.3569372
0.001894769 -0.18768285 -0.35690123
0.0020924443 -0.18769644 -0.35691002
0.002327 -0.18771532 -0.35688201
0.002502111 -0.18771976 -0.35687053
0.0027562222 -0.18769322 -0.35684907
0.0029219999 -0.1876855 -0.35683963
0.0031129166 -0.18768282 -0.35682568
0.0032606667 -0.18769516 -0.35682735
0.0035125001 -0.18770124 -0.35681859
0.024359999 -0.187741 -0.356805
0.024505999 -0.18770599 -0.35688102
0.0246494 -0.18769181 -0.3569122
0.0011540001 -0.18743899 -0.356989
0.0012983999 -0.18751355 -0.35697445
0.0015290832 -0.18752401 -0.35694718
0.0017008889 -0.18750991 -0.35693386
0.0018945455 -0.18749838 -0.35689303
0.002097222 -0.18747999 -0.35688424
0.0023232501 -0.18750876 -0.35685778
0.0024964001 -0.1874969 -0.35684559
0.0027514547 -0.18751755 -0.35683563
0.0028868336 -0.187519 -0.35682783
0.0031044446 -0.18749878 -0.35681343
0.0032220001 -0.18747632 -0.35680833
0.0034743336 -0.1875065 -0.35680601
0.024511335 -0.18752301 -0.35688534
0.024639999 -0.1875146 -0.3569048
0.00097399997 -0.18725467 -0.356994
0.0011021249 -0.18725926 -0.35698876
0.0012793333 -0.18729633 -0.356969
0.0015076665 -0.18730699 -0.35692316
0.0017126667 -0.18731861 -0.35690305
0.0018847857 -0.18732207 -0.35687527
0.0021124284 -0.18728542 -0.35687143
0.0023036667 -0.18728149 -0.35683751
0.0024856667 -0.18728592 -0.35683957
0.0027463334 -0.18730569 -0.35682276
0.0028536664 -0.18731232 -0.35681596
0.0031218333 -0.18735735 -0.35680464
0.024513667 -0.187307 -0.356812
0.024650835 -0.18731368 -0.35687199
0.000994 -0.187135 -0.35699999
0.0011073333 -0.18709368 -0.35698164
0.0012849168 -0.18707918 -0.35695615
0.0014810909 -0.18710208 -0.35691845
0.0016891875 -0.18709122 -0.35689718
0.0018960667 -0.18711147 -0.3568601
0.0020968749 -0.18711014 -0.35684615
0.0023079999 -0.1871015 -0.35682049
0.0024698332 -0.18711717 -0.3568157
0.0027369999 -0.18708113 -0.35681683
0.0028186666 -0.18714367 -0.35680935
0.024518 -0.187161 -0.35680699
0.024648 -0.18711039 -0.35683459
0.00095150003 -0.1868795 -0.35699052
0.0010843078 -0.18691199 -0.35697934
0.0012893749 -0.18689901 -0.3569451
0.001467 -0.18689258 -0.35691643
0.0016844445 -0.18688244 -0.35688093
0.0019013999 -0.18689516 -0.35684547
0.0021105555 -0.18690456 -0.35682476
0.0023114998 -0.186958 -0.35681352
0.00265825 -0.18689999 -0.35681
0.024626501 -0.18690801 -0.35684299
0.00093183323 -0.18669833 -0.35698381
0.0010890666 -0.18670672 -0.35696253
0.001294 -0.18671866 -0.35693422
0.001459125 -0.18671839 -0.35691065
0.0017012857 -0.18668829 -0.35686526
0.0018692221 -0.18669377 -0.35684323
0.002114 -0.18675967 -0.35680434
0.002716 -0.186795 -0.356805
0.024631666 -0.18672533 -0.35684833
0.00077099999 -0.186408 -0.356985
0.00090966665 -0.18646456 -0.35698068
0.0010948667 -0.18649022 -0.35695782
0.0012994168 -0.18650167 -0.35691857
0.0014702223 -0.18651001 -0.35689592
0.0016824375 -0.18651344 -0.35684502
0.0018689999 -0.1864918 -0.35681599
0.024634 -0.186582 -0.356812
0.00077400001 -0.186298 -0.35698998
0.00089525001 -0.18629876 -0.35696748
0.0011088334 -0.18629341 -0.35692629
0.0013051666 -0.18628533 -0.35691392
0.0014750001 -0.18629435 -0.35687289
0.0016978891 -0.18630654 -0.35682601
0.0018791428 -0.18633942 -0.35680458
0.00073562504 -0.18612251 -0.35699463
0.00090050005 -0.18611856 -0.35697106
0.0010951539 -0.18611702 -0.35693169
0.001310125 -0.18610424 -0.35690749
0.0014807777 -0.186078 -0.35686123
0.0016840666 -0.18608807 -0.35682553
0.0018208333 -0.18609999 -0.35680819
0.00071925001 -0.185912 -0.356996
0.00090641662 -0.18590076 -0.35696959
0.0011098 -0.1859123 -0.35692936
0.0013149166 -0.18592376 -0.35690048
0.001486 -0.18589665 -0.35686836
0.0016838999 -0.18589988 -0.3568196
0.001807 -0.185954 -0.356803
0.00074600003 -0.185679 -0.35699701
0.00091283326 -0.18568426 -0.35697278
0.001103 -0.18569854 -0.35693133
0.0013036429 -0.18570121 -0.35690263
0.0014907778 -0.18571623 -0.35685933
0.0016589001 -0.1857238 -0.35681528
0.001833 -0.18566599 -0.35680801
0.00093383325 -0.18551467 -0.35698381
0.0011073637 -0.18548135 -0.35694277
0.0012955714 -0.18549415 -0.35690501
0.0014872999 -0.1854907 -0.35685858
0.001652875 -0.18551537 -0.35681799
0.000978 -0.18537033 -0.35699096
0.0011215 -0.18531685 -0.3569735
0.0012922222 -0.18529569 -0.35692298
0.0014851819 -0.185287 -0.35686409
0.0016468331 -0.18528919 -0.35681567
0.0028619999 -0.185215 -0.35680199
0.0011539999 -0.185183 -0.3569985
0.0012914999 -0.18512371 -0.35695741
0.0014763334 -0.18510856 -0.35688803
0.0016947143 -0.1850543 -0.35681
0.0028959999 -0.185105 -0.35680503
0.0030700001 -0.185003 -0.35680801
0.0013287142 -0.18492687 -0.3569797
0.00149075 -0.18491559 -0.35690269
0.0016582001 -0.1849122 -0.35682958
0.0029548001 -0.184911 -0.35681337
0.0030893332 -0.184883 -0.35681033
0.001372 -0.184764 -0.356987
0.0014982499 -0.18469667 -0.35693035
0.0016885999 -0.18470219 -0.35683578
0.001879 -0.18465699 -0.356801
0.0027036667 -0.18464135 -0.356805
0.002961 -0.1847216 -0.35683361
0.0031295556 -0.18471187 -0.35683557
0.003259222 -0.18471989 -0.35681957
0.0048929998 -0.18464901 -0.35680801
0.0050459998 -0.18466499 -0.35680598
0.0015204001 -0.184479 -0.35695663
0.0017086667 -0.18449141 -0.35687315
0.0018507499 -0.18449715 -0.35681137
0.0027824999 -0.1844435 -0.35681099
0.0028961666 -0.18446468 -0.35681352
0.0031040832 -0.18449141 -0.35686967
0.0032981669 -0.18450469 -0.35683537
0.0049226363 -0.18450065 -0.35683039
0.0050667855 -0.18451464 -0.35681781
0.005233 -0.184451 -0.35680601
0.0015273333 -0.18432017 -0.35698101
0.0017222222 -0.18429789 -0.35689345
0.0018567778 -0.18428823 -0.35682556
0.00275 -0.18430667 -0.3568193
0.0028795553 -0.18429534 -0.35681203
0.0031122002 -0.184288 -0.35688987
0.0032865 -0.18429092 -0.3568652
0.0034024999 -0.18425849 -0.356839
0.0049363002 -0.1842813 -0.35685271
0.0050772666 -0.18429901 -0.35686561
0.0053042853 -0.18428729 -0.35683569
0.0054365001 -0.1842645 -0.356812
0.001588 -0.18419001 -0.35699901
0.0017193001 -0.1841253 -0.35692871
0.0018927777 -0.18410222 -0.35685799
0.0025533333 -0.18410134 -0.35680699
0.0027650001 -0.1840955 -0.35681799
0.0028763749 -0.1841255 -0.3568075
0.00309275 -0.184118 -0.35689703
0.003260375 -0.18409812 -0.35688975
0.0034977144 -0.18405643 -0.35684171
0.0047690002 -0.18406899 -0.356801
0.0049162726 -0.18409763 -0.35684755
0.0050842669 -0.18408087 -0.35687909
0.0053228885 -0.18408789 -0.35687688
0.0054569999 -0.1840957 -0.3568255
0.0017608 -0.1839374 -0.35695797
0.0019079335 -0.18392326 -0.35688037
0.0020495001 -0.18385601 -0.3568165
0.002269 -0.18380199 -0.356801
0.0025559999 -0.18386675 -0.3568075
0.0027417499 -0.18393174 -0.35680628
0.0028812496 -0.18389542 -0.35681307
0.0030935556 -0.18391043 -0.35689634
0.0032661662 -0.18391609 -0.35690364
0.0035179995 -0.18389501 -0.35685334
0.003643 -0.183865 -0.35680601
0.00476025 -0.18390325 -0.35681126
0.004890834 -0.18392299 -0.35683858
0.0050759166 -0.18389702 -0.35690233
0.0053293332 -0.18390466 -0.35690716
0.0055061672 -0.18388541 -0.3568452
0.00563 -0.18381999 -0.356812
0.02447 -0.183873 -0.35682401
0.024611499 -0.18391299 -0.35684699
0.001798 -0.183727 -0.356998
0.0019083124 -0.18369888 -0.3569147
0.002072375 -0.18370125 -0.35684687
0.0022529999 -0.18369867 -0.35681346
0.0025364286 -0.18369758 -0.35680905
0.002695 -0.183671 -0.35681999
0.0028791332 -0.18368658 -0.35685077
0.003099889 -0.18369268 -0.35689944
0.0032737504 -0.18369633 -0.35693642
0.0035149998 -0.18372026 -0.35688999
0.003665857 -0.18370901 -0.35683727
0.0047118184 -0.18369408 -0.35681656
0.0048985002 -0.18370424 -0.35686663
0.005082 -0.18371449 -0.35692024
0.0053358888 -0.18372144 -0.35693476
0.0055127502 -0.18370308 -0.35687253
0.0056469999 -0.1836575 -0.35682723
0.0071673333 -0.18363667 -0.35680637
0.0072150002 -0.183617 -0.356801
0.023109399 -0.183669 -0.356837
0.023340713 -0.183676 -0.35683218
0.023484999 -0.183607 -0.356803
0.023967501 -0.18362999 -0.35681051
0.024113333 -0.18363667 -0.35683069
0.024286 -0.18370825 -0.35684937
0.024479335 -0.18372101 -0.35693035
0.0019160834 -0.18349634 -0.35695243
0.0020702728 -0.18348373 -0.35688576
0.002283111 -0.18350631 -0.3568432
0.0025184997 -0.1835272 -0.35682851
0.0026623998 -0.18350878 -0.35686842
0.0028853999 -0.1835036 -0.35687631
0.0031063333 -0.18350983 -0.35692298
0.003286273 -0.18348382 -0.35695782
0.0034950001 -0.1834905 -0.35692903
0.0036589999 -0.18349777 -0.35688043
0.0038719999 -0.18344501 -0.356803
0.0045179999 -0.18347317 -0.35681775
0.004713167 -0.18348025 -0.3568579
0.0049073333 -0.18348241 -0.3569212
0.0050851172 -0.18349823 -0.3569577
0.0052976664 -0.18354601 -0.35698631
0.0055099442 -0.183524 -0.35694072
0.0056754281 -0.18348756 -0.35684729
0.0071613337 -0.18348867 -0.35681832
0.007289778 -0.18350244 -0.35682902
0.0074434998 -0.183441 -0.35681301
0.011116333 -0.18344766 -0.35680401
0.020967999 -0.183419 -0.356805
0.02309425 -0.18351783 -0.35689077
0.023272224 -0.183516 -0.35689935
0.023508999 -0.18348739 -0.35685763
0.023702249 -0.18350524 -0.35688102
0.023919625 -0.18351087 -0.35688388
0.024094228 -0.1834757 -0.35693043
0.0242736 -0.18353479 -0.35694361
0.001952 -0.18331432 -0.35698533
0.0020720002 -0.18330488 -0.35693961
0.0023003749 -0.18329524 -0.35690078
0.0025196665 -0.18329622 -0.35690612
0.0026606666 -0.18330234 -0.35691568
0.0028931333 -0.18331891 -0.35692686
0.003105375 -0.18333462 -0.35695902
0.0032744003 -0.1833436 -0.35698581
0.0035025 -0.1833065 -0.35697323
0.0036733747 -0.18328725 -0.35691887
0.0039260001 -0.18329795 -0.35683277
0.0041295001 -0.183277 -0.35681099
0.0043425718 -0.18329827 -0.35683542
0.0044939998 -0.18331558 -0.35685775
0.004720625 -0.18329576 -0.35690439
0.0049011665 -0.18331051 -0.35696504
0.0050499998 -0.18334635 -0.35697898
0.0055360002 -0.1833121 -0.3569777
0.0056731664 -0.18330757 -0.35690126
0.0058800001 -0.18325 -0.356812
0.0063220002 -0.183201 -0.35680199
0.0065009999 -0.1832085 -0.35680598
0.0067376667 -0.18325101 -0.35681269
0.0069263335 -0.18330501 -0.35682777
0.0071197506 -0.18331356 -0.35685307
0.0073000006 -0.18331769 -0.35686725
0.0074928002 -0.18328962 -0.35682601
0.0091399997 -0.18326899 -0.356814
0.009286833 -0.18325584 -0.35683265
0.0094345007 -0.183212 -0.35681
0.010768 -0.18320751 -0.3568055
0.0108948 -0.18323079 -0.35682982
0.011095833 -0.18329699 -0.35685703
0.011303 -0.18326357 -0.35684425
0.01143 -0.183245 -0.35683101
0.012543 -0.18321601 -0.35681
0.01269225 -0.18323949 -0.35682225
0.012902274 -0.18326689 -0.35684893
0.013094637 -0.1833076 -0.35684854
0.0132746 -0.18330678 -0.35682702
0.019097166 -0.183285 -0.35683265
0.019224999 -0.183259 -0.35683301
0.020362999 -0.183239 -0.356803
0.021151001 -0.18329768 -0.35684064
0.021314332 -0.18325667 -0.35685468
0.0214794 -0.18323979 -0.35682023
0.021685001 -0.18325 -0.35685927
0.021873334 -0.18327649 -0.35683584
0.022108402 -0.18328159 -0.35686919
0.022250166 -0.183294 -0.35687265
0.023103001 -0.18329509 -0.35694256
0.02325825 -0.18335426 -0.35697651
0.023453001 -0.18337449 -0.3569735
0.023709999 -0.18338901 -0.35697049
0.023901001 -0.18339501 -0.35694733
0.0021076002 -0.18316641 -0.3569684
0.0023004001 -0.183135 -0.35696399
0.0025281666 -0.18311 -0.35697198
0.00266875 -0.183116 -0.35697621
0.0028981429 -0.18314958 -0.35697788
0.0030884999 -0.1831775 -0.35698652
0.003573 -0.18319701 -0.35698301
0.0036741665 -0.18311633 -0.35697016
0.0039329999 -0.18309309 -0.35689735
0.0040856004 -0.1830714 -0.35691679
0.0043462226 -0.1830942 -0.35693181
0.0044945553 -0.18309893 -0.35694131
0.0046780002 -0.18314424 -0.35696125
0.0048289998 -0.1831865 -0.35698301
0.0055800001 -0.18315101 -0.35699099
0.0056950995 -0.18309459 -0.35694662
0.0058889999 -0.183098 -0.35689798
0.0060589998 -0.1830961 -0.35684499
0.0062592002 -0.18310741 -0.3568418
0.0065060002 -0.18309699 -0.35684651
0.0067369998 -0.1830934 -0.3568494
0.0069201109 -0.18308201 -0.35689092
0.0071101999 -0.18309107 -0.35690048
0.0072758668 -0.18310021 -0.3569195
0.0074833333 -0.18311156 -0.35686111
0.00764025 -0.18308325 -0.35681874
0.008140333 -0.18300599 -0.35682797
0.0083459998 -0.1830155 -0.356821
0.0085719991 -0.1830675 -0.356821
0.0087169996 -0.18307941 -0.35683471
0.0088770837 -0.18311191 -0.35685024
0.0090798326 -0.183119 -0.35687366
0.0093108332 -0.18309651 -0.35686401
0.0094787134 -0.18307872 -0.35682869
0.010561 -0.183046 -0.35683101
0.010774749 -0.18309249 -0.35688299
0.010890124 -0.18309924 -0.35693175
0.011105375 -0.18310888 -0.35694525
0.011327909 -0.1830882 -0.35693467
0.011494 -0.18308853 -0.35688475
0.011674001 -0.18305333 -0.35684001
0.011869334 -0.18303967 -0.35681701
0.0121265 -0.18305425 -0.35683548
0.0122885 -0.18306801 -0.356814
0.012494999 -0.1830956 -0.35688499
0.0126718 -0.18311219 -0.3569048
0.0129035 -0.18315084 -0.35698351
0.013098001 -0.18314099 -0.356971
0.013261332 -0.18309689 -0.35690257
0.013469666 -0.18306465 -0.35683265
0.013602 -0.18305101 -0.35680801
0.014176 -0.183001 -0.356848
0.0142935 -0.1830155 -0.35680848
0.014467333 -0.18302099 -0.35681435
0.014696 -0.18302649 -0.356837
0.014893999 -0.18303449 -0.35687649
0.015088334 -0.18304932 -0.35682631
0.016733 -0.183055 -0.35682601
0.016891001 -0.18306249 -0.35681248
0.017084001 -0.183074 -0.35680199
0.017290499 -0.18300751 -0.35682648
0.017520666 -0.18302234 -0.35681334
0.017901668 -0.18304032 -0.35680667
0.018152334 -0.18304999 -0.35682264
0.018309249 -0.18306175 -0.35682249
0.0185045 -0.18306449 -0.356911
0.019117251 -0.18310687 -0.35691229
0.019296667 -0.18311077 -0.35688123
0.019460399 -0.18310601 -0.35686502
0.019642999 -0.18306001 -0.35684001
0.019870667 -0.18309797 -0.35685447
0.0200915 -0.18308836 -0.35688353
0.020291429 -0.18310414 -0.35691056
0.020440999 -0.183167 -0.35684901
0.021136001 -0.183189 -0.35695401
0.021289 -0.18314019 -0.35696259
0.02150175 -0.18314473 -0.35694426
0.021675998 -0.18315066 -0.35695568
0.021881999 -0.18315966 -0.35694733
0.022066001 -0.1831685 -0.356971
0.003733 -0.182987 -0.35698199
0.003916 -0.1829422 -0.35697782
0.0040099998 -0.182934 -0.356976
0.0043020002 -0.182945 -0.35697699
0.0045285001 -0.182953 -0.356994
0.0057100002 -0.18293966 -0.35697699
0.0058980002 -0.1829115 -0.35697851
0.0060767001 -0.18292579 -0.35695347
0.0062926002 -0.18291219 -0.35695601
0.00651475 -0.182945 -0.35693872
0.0067357505 -0.18292576 -0.35694024
0.0068960004 -0.18290567 -0.35696268
0.007158 -0.18291749 -0.35698617
0.0072802221 -0.18291824 -0.35698158
0.0074933339 -0.18288867 -0.35693976
0.0077162669 -0.18289857 -0.35689777
0.0079009337 -0.18291047 -0.35686949
0.0081103332 -0.18290289 -0.35687903
0.0083035007 -0.1828945 -0.35688001
0.0085102003 -0.18288942 -0.35691181
0.0087016253 -0.18292037 -0.35692564
0.0089005996 -0.1829444 -0.35695359
0.0091040004 -0.18290779 -0.35697341
0.0093183331 -0.18291099 -0.356915
0.009502667 -0.18291306 -0.35685629
0.009718 -0.18289132 -0.35683632
0.0098992493 -0.18289125 -0.3568235
0.010117001 -0.182878 -0.35687003
0.010302726 -0.18288018 -0.35687599
0.010509834 -0.18292783 -0.35690466
0.010891001 -0.18298434 -0.35699832
0.01111 -0.18299726 -0.35697877
0.0113126 -0.18294461 -0.35699001
0.011480667 -0.182943 -0.35697165
0.0116504 -0.18291941 -0.356953
0.011878666 -0.18292117 -0.356938
0.012110701 -0.1829363 -0.35694027
0.012284571 -0.18295372 -0.35691884
0.012489334 -0.18298768 -0.35697699
0.013328 -0.182945 -0.35698399
0.013493001 -0.18292651 -0.35690776
0.013606 -0.182974 -0.35685199
0.013985001 -0.182955 -0.35685599
0.014145801 -0.1829064 -0.35689721
0.014297445 -0.18289554 -0.35688835
0.014476166 -0.18290401 -0.35692564
0.014626999 -0.18292099 -0.35691833
0.014931333 -0.18293066 -0.35696635
0.015113626 -0.1829365 -0.35688925
0.015291888 -0.18289934 -0.35689032
0.015496001 -0.18288249 -0.35683849
0.015701748 -0.1828725 -0.3568275
0.015889499 -0.1828655 -0.35682774
0.01613575 -0.18285775 -0.35685498
0.016321 -0.182881 -0.35687101
0.016505923 -0.1828787 -0.35691217
0.016705222 -0.18290313 -0.35688132
0.016897833 -0.18291301 -0.35686767
0.017093556 -0.182919 -0.35692313
0.017293375 -0.18290687 -0.35693151
0.017500874 -0.1829015 -0.35693374
0.017673999 -0.18291101 -0.35692102
0.017909499 -0.18292433 -0.35690132
0.018098751 -0.182951 -0.35691702
0.018265251 -0.18297775 -0.35692149
0.018476 -0.1829855 -0.35697001
0.019652 -0.18297701 -0.35698599
0.01989175 -0.18299499 -0.35694051
0.020012001 -0.182999 -0.35694501
0.0075810002 -0.18274599 -0.356967
0.0077047497 -0.18274724 -0.35697898
0.0078997146 -0.18274686 -0.35696331
0.0081013329 -0.18277501 -0.35695764
0.0082569998 -0.18278 -0.35696751
0.0084100002 -0.18279199 -0.35697699
0.0093790004 -0.18276 -0.356987
0.009509 -0.1827704 -0.35694581
0.0096728327 -0.18274784 -0.35693717
0.0099204993 -0.18275701 -0.35693154
0.010127 -0.182724 -0.35698801
0.010249499 -0.18272901 -0.35698551
0.015505 -0.182763 -0.356971
0.015726665 -0.18277167 -0.35697934
0.015897 -0.18278499 -0.35693675
0.016088501 -0.182789 -0.356969
0.016517667 -0.18272699 -0.35696885
0.016702624 -0.18269125 -0.35690862
0.016893668 -0.18273532 -0.35695329
0.013878601 -0.1938362 -0.35679358
0.01408 -0.1938546 -0.35675019
0.014219 -0.193841 -0.35676301
0.015347 -0.193821 -0.356792
0.0154828 -0.19384539 -0.35678545
0.015603 -0.193839 -0.356776
0.013916573 -0.19368528 -0.35677621
0.014087416 -0.19369467 -0.35670868
0.014273001 -0.19368771 -0.35676131
0.014501 -0.193639 -0.35679901
0.0149014 -0.193675 -0.35678563
0.015093399 -0.1936958 -0.3567616
0.015348666 -0.19367532 -0.35675168
0.015481084 -0.1936854 -0.35673991
0.015668999 -0.19369678 -0.3567678
0.015845999 -0.1936685 -0.35679024
0.013876 -0.19351226 -0.35678926
0.014083288 -0.19348156 -0.35677144
0.014299111 -0.19348121 -0.35677877
0.014474399 -0.19347581 -0.35677856
0.014740749 -0.19349538 -0.35677513
0.014890082 -0.19351409 -0.35674974
0.015092666 -0.19352089 -0.3567313
0.015353 -0.19349399 -0.35673702
0.015484875 -0.19350438 -0.35671574
0.015674224 -0.19347921 -0.3567512
0.01585 -0.19348682 -0.35676718
0.016132999 -0.19344279 -0.35678819
0.0162476 -0.1934956 -0.35677978
0.01798 -0.19345701 -0.35678801
0.0133185 -0.19325 -0.356785
0.013898584 -0.19331431 -0.35678017
0.014074999 -0.19330472 -0.35674781
0.014303667 -0.19330001 -0.35676348
0.0144786 -0.19328701 -0.35676542
0.014747445 -0.19328721 -0.35675406
0.014895332 -0.19329725 -0.35673025
0.015098333 -0.193304 -0.35671943
0.015357333 -0.19331266 -0.35671735
0.0154895 -0.193323 -0.35670415
0.015678 -0.19329782 -0.35672101
0.015861601 -0.19328502 -0.35673502
0.016121751 -0.19328175 -0.35676694
0.016283553 -0.19329435 -0.35676187
0.016481332 -0.193304 -0.35677147
0.016758 -0.19324699 -0.35679752
0.017300665 -0.19320233 -0.35677466
0.017538 -0.193216 -0.35677201
0.017686835 -0.19325866 -0.35678253
0.017901331 -0.19330619 -0.35676706
0.018104335 -0.19332044 -0.35676157
0.018247999 -0.193252 -0.35678801
0.013397 -0.193148 -0.356783
0.013401 -0.193039 -0.35679197
0.013903501 -0.19309734 -0.35675871
0.014085999 -0.19311349 -0.35672578
0.014307555 -0.19311923 -0.35673922
0.0144676 -0.19311219 -0.3567408
0.014758 -0.19309156 -0.35673055
0.014900751 -0.19307999 -0.35671571
0.015075999 -0.19309542 -0.35671228
0.015299 -0.1930794 -0.35670778
0.015495083 -0.19310574 -0.356691
0.015682444 -0.19311678 -0.35670602
0.015850198 -0.1931088 -0.3566992
0.016125251 -0.19310112 -0.35672951
0.016287666 -0.19307722 -0.35672456
0.016485445 -0.19308713 -0.35673165
0.016721446 -0.19309933 -0.35675058
0.016924001 -0.19309813 -0.35675025
0.017095599 -0.19310148 -0.35675359
0.017301833 -0.19309498 -0.35673368
0.01754 -0.19310699 -0.35674453
0.017699251 -0.19308725 -0.35674548
0.017907467 -0.19308874 -0.35676527
0.018110888 -0.19310321 -0.35676897
0.018251667 -0.19310766 -0.35677531
0.013321999 -0.19295999 -0.35679501
0.013438 -0.19288367 -0.356776
0.013909751 -0.19287974 -0.35676026
0.014092798 -0.19289675 -0.35674095
0.014313443 -0.19290222 -0.35673055
0.014479834 -0.19291036 -0.35672116
0.014742858 -0.19292414 -0.35670915
0.014893111 -0.19289444 -0.35669363
0.01506025 -0.19290274 -0.35670623
0.0152875 -0.19287634 -0.35668948
0.015501 -0.19288833 -0.35668668
0.015688112 -0.19289988 -0.35669646
0.015861666 -0.19290717 -0.35666814
0.016114097 -0.19292559 -0.3566952
0.016268501 -0.19289538 -0.35668463
0.016488831 -0.19290583 -0.3566995
0.016686 -0.19287984 -0.35669449
0.016900333 -0.19288941 -0.35668966
0.017098835 -0.19289868 -0.35669157
0.017304556 -0.19291346 -0.35668722
0.017542999 -0.19292568 -0.35670134
0.017682713 -0.19291113 -0.35671371
0.017922251 -0.19289024 -0.35674068
0.018116444 -0.192885 -0.3567518
0.018255666 -0.19289033 -0.35672966
0.0184724 -0.1928864 -0.3567704
0.013163 -0.192766 -0.35679799
0.013331 -0.192635 -0.35678801
0.01346 -0.19271486 -0.3567805
0.013706 -0.19272399 -0.35676932
0.013915 -0.19269824 -0.35676101
0.0140994 -0.19267918 -0.35674781
0.014318557 -0.19268489 -0.35671332
0.014484999 -0.19269352 -0.35670018
0.014738833 -0.19270651 -0.35668883
0.014888334 -0.19271715 -0.35668418
0.015064168 -0.19272165 -0.35668567
0.0152915 -0.1926955 -0.35666177
0.015512365 -0.19267865 -0.35667399
0.015692666 -0.19268279 -0.35666698
0.015867332 -0.19269051 -0.35665917
0.016110335 -0.19269967 -0.356686
0.016272167 -0.19271427 -0.35665917
0.016492447 -0.19272476 -0.35666355
0.016689749 -0.19269949 -0.35666323
0.016913332 -0.19269721 -0.35665822
0.017102918 -0.19268157 -0.35664985
0.017308887 -0.19269623 -0.35664734
0.017547 -0.19270901 -0.35666564
0.017697334 -0.19271566 -0.35668197
0.017905539 -0.19271468 -0.35670182
0.018119501 -0.19270433 -0.35670766
0.018259 -0.19267333 -0.35667202
0.018492835 -0.19268449 -0.35673067
0.018737499 -0.192663 -0.35677549
0.0188515 -0.19267049 -0.3567895
0.019369001 -0.19266599 -0.35678899
0.01956925 -0.19264276 -0.35676849
0.019678144 -0.19266343 -0.35676911
0.019889373 -0.19268376 -0.35676759
0.02008125 -0.19264376 -0.35679099
0.013299834 -0.19248684 -0.35678852
0.013465167 -0.19249833 -0.35676217
0.013711333 -0.19250701 -0.35676098
0.013918833 -0.19251794 -0.35673741
0.014103301 -0.1924984 -0.35672218
0.014323168 -0.19250368 -0.35669971
0.0144976 -0.19249061 -0.35668796
0.014744666 -0.19248851 -0.35667953
0.014893732 -0.19249953 -0.35666624
0.015067999 -0.19250517 -0.35664019
0.015295667 -0.19251466 -0.35664701
0.015502444 -0.19250178 -0.35664478
0.015696499 -0.19250166 -0.35663784
0.0158788 -0.1924884 -0.3566266
0.01611411 -0.19248234 -0.3566412
0.016277498 -0.19249678 -0.35664034
0.016497333 -0.19250754 -0.35663611
0.016693665 -0.19251783 -0.3566387
0.016901091 -0.19252028 -0.35664222
0.017106751 -0.19250099 -0.35661948
0.017313555 -0.192479 -0.35662279
0.017551668 -0.19249099 -0.35662469
0.017701667 -0.19249843 -0.35664189
0.017912285 -0.19251397 -0.35664919
0.018122444 -0.19252279 -0.35666895
0.018263001 -0.1924915 -0.3566415
0.0184955 -0.19250374 -0.35668024
0.01874 -0.19248132 -0.35672298
0.018905999 -0.19249468 -0.35673931
0.019084999 -0.19249363 -0.356767
0.019302001 -0.19251651 -0.35675967
0.0195715 -0.19249876 -0.35672751
0.019681334 -0.19250417 -0.35671934
0.019892251 -0.19248524 -0.35671011
0.020102002 -0.19248088 -0.35676411
0.020339001 -0.1924818 -0.35677919
0.012691 -0.192313 -0.35679999
0.0129132 -0.19233461 -0.35679659
0.0133122 -0.19228479 -0.35678041
0.013470667 -0.19228052 -0.35675216
0.013715667 -0.19228899 -0.35672331
0.013924583 -0.19230001 -0.35672677
0.014108333 -0.19231695 -0.35671929
0.014327999 -0.19232222 -0.35669565
0.014487199 -0.19231519 -0.35668018
0.014757399 -0.19228561 -0.356677
0.014899268 -0.19228193 -0.3566539
0.015075167 -0.19228667 -0.35665369
0.015301167 -0.192297 -0.35663453
0.015514418 -0.19230884 -0.35662559
0.015700556 -0.19232024 -0.35661614
0.015862333 -0.19234999 -0.35660699
0.016118335 -0.19230102 -0.35662067
0.0162878 -0.1922867 -0.35661688
0.016492376 -0.19228975 -0.35661501
0.016706001 -0.192316 -0.35662201
0.016911197 -0.1923254 -0.3566176
0.017116999 -0.192313 -0.356612
0.017332399 -0.19230659 -0.3566086
0.017555 -0.192348 -0.35660601
0.0177055 -0.19233599 -0.35662127
0.017901167 -0.19233917 -0.356617
0.018127443 -0.19230589 -0.35664243
0.018266667 -0.19231068 -0.35662103
0.018498832 -0.19232284 -0.35664353
0.018742502 -0.19230101 -0.356677
0.018915124 -0.1922875 -0.35666624
0.01909522 -0.19228633 -0.35668367
0.019304333 -0.19229966 -0.35667968
0.019573001 -0.19231766 -0.35664853
0.019683555 -0.19232267 -0.35665965
0.019875428 -0.19230928 -0.35667673
0.0201045 -0.19230032 -0.35670781
0.020351499 -0.19227934 -0.35675266
0.012008 -0.192102 -0.35679549
0.0127155 -0.1920235 -0.35679799
0.013031 -0.1921065 -0.3567985
0.0133026 -0.19210939 -0.3567766
0.01347575 -0.19209926 -0.35675323
0.013721 -0.19210851 -0.356722
0.013929668 -0.19208376 -0.35670626
0.014091752 -0.1921 -0.35670856
0.014267112 -0.19210312 -0.35669088
0.01446711 -0.19211245 -0.35667279
0.0147476 -0.1921116 -0.35667619
0.014903799 -0.19210188 -0.35664231
0.0150805 -0.19210652 -0.35665703
0.015306999 -0.19208033 -0.35663235
0.015520251 -0.19209234 -0.35661849
0.015717836 -0.19210351 -0.35661849
0.015888799 -0.19209722 -0.35660762
0.016137 -0.19216481 -0.35661119
0.016334999 -0.1921005 -0.35661802
0.0165205 -0.19209766 -0.3566092
0.016742 -0.19208567 -0.35660699
0.016865 -0.19211 -0.356612
0.017103445 -0.19213367 -0.35661098
0.017251 -0.19207799 -0.35660702
0.018140126 -0.19209863 -0.35661548
0.018486399 -0.19211981 -0.35661203
0.018745333 -0.19212033 -0.35662368
0.018911334 -0.19212134 -0.35662767
0.019097833 -0.19210617 -0.35662517
0.019307001 -0.19211949 -0.35662049
0.0195734 -0.19211462 -0.35662359
0.019694285 -0.19212671 -0.35661587
0.019898625 -0.19212301 -0.3566345
0.020108443 -0.19211932 -0.3566834
0.02035475 -0.19209851 -0.356718
0.012011 -0.191994 -0.35679501
0.012297 -0.191891 -0.35679001
0.012557 -0.19186699 -0.356787
0.012714668 -0.19186582 -0.35679117
0.012872 -0.191865 -0.356785
0.013096999 -0.19188237 -0.35678649
0.013315167 -0.19190665 -0.35677135
0.013479666 -0.19191851 -0.35672367
0.013726 -0.19192733 -0.35672033
0.013934624 -0.19190212 -0.35669911
0.0140955 -0.19188298 -0.35665882
0.014272556 -0.19188544 -0.35667676
0.014473223 -0.19189465 -0.35667026
0.014760501 -0.191909 -0.35666814
0.014902001 -0.19192502 -0.35663724
0.015072857 -0.19191457 -0.35664272
0.0152325 -0.1918965 -0.35665148
0.015521857 -0.19191585 -0.35661271
0.015712287 -0.19188643 -0.35661745
0.016084665 -0.191926 -0.35660434
0.016337499 -0.19199151 -0.35660452
0.016512999 -0.191929 -0.35660201
0.016962999 -0.191911 -0.35660303
0.017198 -0.19189 -0.356603
0.017227001 -0.1918935 -0.35660151
0.018136 -0.191944 -0.356612
0.018424001 -0.191956 -0.35660401
0.019099001 -0.19199599 -0.356601
0.019742999 -0.191962 -0.35660499
0.019966001 -0.191971 -0.35662201
0.020113446 -0.19190198 -0.35666144
0.02033725 -0.19193375 -0.35668275
0.020401001 -0.19188499 -0.35668901
0.011982 -0.191631 -0.35679799
0.012235 -0.19163799 -0.35679799
0.012511125 -0.19171911 -0.35679138
0.012703501 -0.19169649 -0.35678291
0.0128595 -0.19170199 -0.35677502
0.013106143 -0.19169629 -0.35677227
0.0133215 -0.19169001 -0.35677204
0.013486001 -0.19170201 -0.3567293
0.013732 -0.19171034 -0.35672402
0.013919 -0.19172022 -0.35670856
0.014075547 -0.19170827 -0.35670084
0.014278167 -0.19170482 -0.35668683
0.014479111 -0.19167756 -0.35666674
0.014729001 -0.19168967 -0.35665035
0.014874334 -0.19170021 -0.35664323
0.015061889 -0.19170789 -0.35663587
0.015342 -0.19176699 -0.35661468
0.015462 -0.191761 -0.35660899
0.015674332 -0.191715 -0.35661033
0.020138143 -0.19169614 -0.35663599
0.020320999 -0.19169633 -0.35663033
0.020403998 -0.19170433 -0.356648
0.011988 -0.191413 -0.35679501
0.012174 -0.19152799 -0.35679701
0.012357 -0.19144534 -0.35679135
0.012473666 -0.19149916 -0.35678682
0.012720231 -0.19152139 -0.35678762
0.012895999 -0.19152212 -0.35677421
0.013084 -0.19151974 -0.35676813
0.013332601 -0.19148779 -0.35673839
0.013491833 -0.19148433 -0.35672298
0.013738 -0.19149299 -0.35671568
0.013925334 -0.191502 -0.35671422
0.014087799 -0.19151781 -0.35669866
0.014283444 -0.19152312 -0.35669002
0.014483667 -0.19149667 -0.3566573
0.0147345 -0.1915085 -0.356655
0.014880466 -0.1914831 -0.35664108
0.015067556 -0.19149056 -0.35662711
0.015240001 -0.19153599 -0.35660201
0.020169668 -0.19151734 -0.35661268
0.020503499 -0.1915075 -0.35664973
0.020737499 -0.19146401 -0.35672498
0.020895001 -0.19142701 -0.356785
0.011991 -0.191304 -0.3567875
0.012314999 -0.191275 -0.35679603
0.012503499 -0.19127376 -0.35679263
0.012707314 -0.19129714 -0.35679108
0.012902 -0.19130422 -0.35677034
0.013051999 -0.19130915 -0.35676634
0.013278251 -0.19131437 -0.35674885
0.01349625 -0.19130225 -0.356711
0.013743666 -0.191275 -0.35671201
0.013930889 -0.19128454 -0.35670123
0.014093399 -0.19130008 -0.35669035
0.014288444 -0.19130579 -0.35666493
0.014489444 -0.19131464 -0.35666966
0.01474 -0.19132601 -0.35665932
0.0148855 -0.19130169 -0.35663873
0.015073667 -0.19127335 -0.35662901
0.015247666 -0.19128133 -0.35661033
0.01561 -0.19126049 -0.35660699
0.020537 -0.191347 -0.35661501
0.020739334 -0.19128333 -0.35665932
0.0209266 -0.19127059 -0.35675263
0.021043999 -0.191219 -0.356785
0.011928 -0.19109775 -0.35679397
0.012072571 -0.19110329 -0.35678789
0.012285 -0.191094 -0.35679525
0.012546751 -0.19110352 -0.35678828
0.012709529 -0.19107568 -0.35677862
0.012907554 -0.19108754 -0.35675934
0.013058667 -0.19109218 -0.35677335
0.013292888 -0.19110776 -0.35673079
0.013501334 -0.19112252 -0.35670984
0.01375 -0.191094 -0.35674047
0.013935 -0.19110501 -0.35668334
0.014098066 -0.19108398 -0.35665616
0.014292889 -0.19108978 -0.35663569
0.014494668 -0.19109821 -0.35665089
0.014745333 -0.19111 -0.35664764
0.014890533 -0.19112115 -0.35663846
0.015078832 -0.19109233 -0.35662767
0.015253 -0.1911 -0.35661799
0.015613 -0.191153 -0.35660601
0.020741001 -0.19114 -0.356601
0.020934999 -0.19110551 -0.35668701
0.021102125 -0.19106874 -0.35675612
0.021272251 -0.191019 -0.35678947
0.0214785 -0.191028 -0.35679349
0.021741999 -0.19105852 -0.35678577
0.021950427 -0.19111414 -0.35677943
0.022079334 -0.1910965 -0.35678151
0.011864834 -0.19089116 -0.35679647
0.012089222 -0.190907 -0.35679147
0.01231625 -0.19090401 -0.35678515
0.012528625 -0.19091249 -0.35678175
0.012702635 -0.19090098 -0.35676482
0.01290625 -0.19088814 -0.35674387
0.013062666 -0.19087517 -0.35673332
0.013298 -0.19089012 -0.35671133
0.013506833 -0.19090484 -0.35669616
0.013754333 -0.19091266 -0.35671735
0.013940778 -0.19092244 -0.35669589
0.014105364 -0.19089399 -0.35662925
0.014308428 -0.19089314 -0.35664344
0.014500333 -0.19088133 -0.35664034
0.014750999 -0.19089299 -0.35662866
0.014895572 -0.19090928 -0.35661954
0.015066572 -0.19092143 -0.35661772
0.015257 -0.190955 -0.35661799
0.020945001 -0.19093899 -0.35664719
0.021111334 -0.19089717 -0.35670301
0.021301286 -0.19088142 -0.35672885
0.021514334 -0.19088523 -0.35673547
0.02171625 -0.19090313 -0.35673353
0.021921601 -0.190899 -0.35671142
0.022081776 -0.19091545 -0.35672519
0.0115115 -0.190687 -0.35679001
0.0117205 -0.190704 -0.3567825
0.0119512 -0.190698 -0.3567892
0.012095066 -0.19069032 -0.35678157
0.012309572 -0.19070642 -0.35676742
0.012503635 -0.19069673 -0.35676926
0.012697 -0.19071719 -0.35674194
0.01288 -0.19071789 -0.35673329
0.013067001 -0.1906945 -0.35671201
0.013314285 -0.19069485 -0.3567014
0.013512 -0.19068784 -0.35667682
0.013759334 -0.19069566 -0.35669634
0.013946111 -0.19070578 -0.3566801
0.014105714 -0.19071601 -0.35665527
0.014296125 -0.19071727 -0.35665676
0.014505333 -0.19069934 -0.35663566
0.014756001 -0.19067566 -0.35661435
0.014895539 -0.19068585 -0.35661462
0.015031001 -0.1907295 -0.35661852
0.020976 -0.190782 -0.35660499
0.021120999 -0.19072711 -0.35664138
0.021288455 -0.1907061 -0.35665634
0.021515502 -0.19070618 -0.35665932
0.021690501 -0.19067667 -0.35664117
0.021903584 -0.19068934 -0.3566415
0.022084557 -0.19069901 -0.35665455
0.0115454 -0.19049279 -0.3567712
0.011724 -0.190594 -0.356794
0.0119264 -0.19047701 -0.35678661
0.012082111 -0.19049622 -0.35677546
0.012268444 -0.19047743 -0.35677433
0.0125 -0.19048518 -0.35675406
0.012702667 -0.1904995 -0.35673088
0.012893667 -0.19050692 -0.35672143
0.013072 -0.19051284 -0.35671183
0.013298251 -0.19051789 -0.35670251
0.013516 -0.1905065 -0.35665724
0.013763999 -0.19047867 -0.356666
0.013937571 -0.19049741 -0.35667086
0.014095666 -0.19050686 -0.356635
0.014300499 -0.19049999 -0.35662326
0.014509778 -0.19051833 -0.35662067
0.014761 -0.190493 -0.35661697
0.014925 -0.19050027 -0.35660583
0.015039001 -0.19044 -0.35661101
0.021171 -0.190577 -0.35660699
0.02129275 -0.19056013 -0.3566125
0.0215005 -0.19057825 -0.35661876
0.021729 -0.19053499 -0.356601
0.021917 -0.190521 -0.35661101
0.022087833 -0.19051902 -0.35662088
0.011158001 -0.19020399 -0.35679299
0.011308143 -0.19024488 -0.3567861
0.011518333 -0.19029012 -0.35676366
0.011730624 -0.19029488 -0.35676974
0.01191825 -0.19031577 -0.35676435
0.012072455 -0.19031976 -0.35674712
0.012272666 -0.19029649 -0.356758
0.012514556 -0.19029322 -0.35672522
0.012708201 -0.19028254 -0.35672161
0.012898917 -0.19029026 -0.35670185
0.013077833 -0.19029565 -0.35670614
0.013312667 -0.19031101 -0.35667574
0.013520166 -0.19032617 -0.35663617
0.013769 -0.19029801 -0.3566615
0.013937401 -0.19028479 -0.35664561
0.014082585 -0.19028269 -0.35663232
0.014315222 -0.19029243 -0.35663056
0.014492333 -0.19031215 -0.35661164
0.014764 -0.190386 -0.35660601
0.014992001 -0.190293 -0.35661149
0.015043 -0.19029599 -0.35661751
0.015276 -0.19026799 -0.35660499
0.01085975 -0.1901015 -0.35679698
0.011161 -0.19009599 -0.35679525
0.011311286 -0.19011143 -0.35677758
0.011511572 -0.19009502 -0.35674843
0.01168757 -0.19007342 -0.35675287
0.0118982 -0.19009869 -0.35672474
0.012083584 -0.19011033 -0.35673431
0.012276556 -0.19011657 -0.35673079
0.012477223 -0.19012189 -0.35671377
0.012694084 -0.19010051 -0.356702
0.012915601 -0.1900886 -0.3566775
0.013082833 -0.19007899 -0.35668501
0.013317889 -0.19009399 -0.35665968
0.013526168 -0.19010867 -0.35663185
0.013772334 -0.19011767 -0.35661969
0.013929 -0.19011021 -0.35661203
0.014048667 -0.19009835 -0.35662046
0.014299833 -0.19012301 -0.3566108
0.014470249 -0.19009875 -0.35660926
0.014994 -0.190183 -0.35660601
0.0150475 -0.19014999 -0.35661298
0.01528 -0.190157 -0.35661948
0.022848999 -0.190009 -0.35679901
0.010679401 -0.18989199 -0.35679221
0.010905917 -0.18990386 -0.35678232
0.011128273 -0.18990627 -0.35678184
0.011303834 -0.18992417 -0.35676667
0.0114978 -0.1899132 -0.35673481
0.011672 -0.18990117 -0.35673431
0.011904065 -0.18988147 -0.35671431
0.0120885 -0.18989348 -0.35670817
0.012281222 -0.18989989 -0.35669714
0.012481667 -0.18990543 -0.35667956
0.012697444 -0.18992034 -0.35666642
0.012884001 -0.18992013 -0.35667086
0.013069801 -0.189891 -0.35666162
0.013311166 -0.1899005 -0.35665348
0.013502142 -0.18988015 -0.35663101
0.013778 -0.18990099 -0.356612
0.013934201 -0.18992279 -0.3566128
0.014052667 -0.189954 -0.35661948
0.022851501 -0.189899 -0.3567895
0.010191 -0.189684 -0.3567915
0.010372 -0.189688 -0.35679799
0.010569 -0.189665 -0.35679299
0.010681001 -0.18968107 -0.35678518
0.010911833 -0.18968756 -0.35677525
0.011125666 -0.18969642 -0.35674968
0.0112911 -0.18971439 -0.35675749
0.011470875 -0.18970263 -0.35672238
0.011675889 -0.189721 -0.3567071
0.011907999 -0.18970101 -0.35669309
0.012092418 -0.18967718 -0.35666344
0.012285667 -0.18968323 -0.35667047
0.012486666 -0.18968855 -0.356657
0.012702889 -0.18970345 -0.35664961
0.012882444 -0.1897109 -0.35665798
0.013061556 -0.18971734 -0.35663468
0.013279 -0.1897144 -0.35662881
0.013492999 -0.18970783 -0.35661921
0.013781 -0.18975499 -0.35660201
0.013919 -0.18961599 -0.35660201
0.022879498 -0.18969385 -0.35676968
0.0082134996 -0.189441 -0.35679001
0.0101676 -0.189514 -0.35679239
0.010275249 -0.18948224 -0.35677603
0.010572334 -0.189519 -0.35678533
0.010672334 -0.18951066 -0.35676813
0.010919556 -0.18949479 -0.35675722
0.011120693 -0.1894737 -0.35672429
0.011283667 -0.18949011 -0.35672501
0.011467779 -0.18949479 -0.35670468
0.011680778 -0.18950456 -0.35668644
0.011912733 -0.18952014 -0.35668814
0.01209675 -0.18949687 -0.35665101
0.01229 -0.189503 -0.35665035
0.012498876 -0.18948199 -0.3566291
0.012709687 -0.18949659 -0.3566221
0.012887333 -0.18949479 -0.35663384
0.013067223 -0.18950088 -0.35662407
0.013316 -0.18953325 -0.35661051
0.013410333 -0.189523 -0.35662031
0.022918584 -0.18950176 -0.35675016
0.0075120004 -0.18921199 -0.35679799
0.0076933997 -0.18927249 -0.35678834
0.0078039998 -0.189227 -0.356794
0.0081190001 -0.189281 -0.35679549
0.0082170004 -0.189331 -0.35679999
0.008494 -0.189202 -0.35679901
0.0088369995 -0.189215 -0.356785
0.0091343336 -0.18923099 -0.35679197
0.0095819999 -0.189255 -0.35679501
0.010105 -0.18924099 -0.35678148
0.010285091 -0.18927909 -0.35676563
