# .PCD v0.7 - Point Cloud Data file format
VERSION 0.7
FIELDS x y z
SIZE 4 4 4
TYPE F F F
COUNT 1 1 1
WIDTH 1481
HEIGHT 1
VIEWPOINT 0 0 0 1 0 0 0
POINTS 1481
DATA ascii
-0.055018999 0.13905001 -0.235147
-0.055016 0.139126 -0.23514301
-0.055013001 0.1392 -0.235149
-0.055009 0.139276 -0.23516101
-0.055006001 0.139351 -0.235174
-0.055002999 0.13942599 -0.23517001
-0.055 0.139502 -0.235162
-0.054997001 0.139578 -0.235172
-0.054993998 0.139653 -0.235182
-0.054990999 0.13973001 -0.23517001
-0.054988999 0.139806 -0.235157
-0.054986 0.139882 -0.235147
-0.054983001 0.13995799 -0.235153
-0.054979 0.14003199 -0.23516899
-0.054976001 0.14010599 -0.235181
-0.054972999 0.140182 -0.235172
-0.054970998 0.14026 -0.235162
-0.054967999 0.140334 -0.235168
-0.054965001 0.14041001 -0.235162
-0.054963 0.140487 -0.235148
-0.054960001 0.140561 -0.235146
-0.054956 0.14063799 -0.235167
-0.054951999 0.14071199 -0.235183
-0.054949 0.14078601 -0.23519699
-0.054945 0.140863 -0.23520499
-0.054942001 0.140939 -0.235203
-0.05494 0.14101399 -0.235195
-0.054937001 0.14109001 -0.235186
-0.054933999 0.141166 -0.235186
-0.054931 0.141242 -0.235186
-0.054928999 0.14131799 -0.23518001
-0.054926001 0.14139199 -0.23518001
-0.054922 0.141468 -0.23518699
-0.054919001 0.141544 -0.23518699
-0.054917 0.14162 -0.235183
-0.054914001 0.14169499 -0.235173
-0.054912001 0.141771 -0.235165
-0.054908998 0.141847 -0.23516101
-0.054907002 0.141923 -0.235146
-0.054905001 0.14199799 -0.23512401
-0.054901998 0.142074 -0.235128
-0.054896999 0.142149 -0.235158
-0.054892998 0.142223 -0.23518001
-0.054891001 0.142299 -0.235173
-0.054887999 0.14237501 -0.23516899
-0.054885 0.14244901 -0.235177
-0.054880999 0.142525 -0.235185
-0.054878 0.142601 -0.235185
-0.054876 0.14267699 -0.23517901
-0.054873001 0.14275301 -0.23517001
-0.054869998 0.142829 -0.235168
-0.054866999 0.142905 -0.235172
-0.054864001 0.142979 -0.235174
-0.054861002 0.14305501 -0.235176
-0.054857999 0.143131 -0.235176
-0.054855 0.143207 -0.23517101
-0.054853 0.143282 -0.23515899
-0.054850999 0.14335801 -0.235135
-0.054848999 0.143433 -0.235119
-0.054845002 0.14351 -0.235129
-0.054841999 0.143584 -0.235144
-0.054839 0.14365999 -0.235148
-0.054834999 0.143736 -0.235162
-0.054832 0.14381 -0.23517001
-0.054829001 0.143886 -0.235156
-0.054827001 0.143962 -0.235144
-0.054823998 0.14403801 -0.23514301
-0.054822002 0.144113 -0.235135
-0.054820001 0.144189 -0.23511501
-0.054818001 0.144264 -0.235093
-0.054815002 0.14433999 -0.235089
-0.054811001 0.144417 -0.235101
-0.054807998 0.144491 -0.235102
-0.054806001 0.144566 -0.2351
-0.054802999 0.144642 -0.2351
-0.0548 0.14471801 -0.2351
-0.054797001 0.144794 -0.23508599
-0.054795001 0.14487 -0.235075
-0.054791 0.144944 -0.23508701
-0.054788001 0.14501999 -0.235101
-0.054784998 0.145096 -0.23509701
-0.054781999 0.145172 -0.235093
-0.054779001 0.145246 -0.235094
-0.054777 0.145322 -0.23508599
-0.054774001 0.14539699 -0.235072
-0.054770999 0.145473 -0.235074
-0.054768 0.145548 -0.23508801
-0.054763999 0.145624 -0.23509599
-0.054761 0.14569999 -0.235099
-0.054758001 0.145776 -0.235099
-0.054756001 0.14585 -0.23509701
-0.054754 0.145927 -0.235057
-0.054752 0.14600199 -0.235039
-0.054749001 0.14607701 -0.23505101
-0.054745998 0.146153 -0.23505799
-0.054744001 0.146228 -0.235038
-0.054740999 0.146304 -0.235028
-0.054737002 0.146378 -0.235044
-0.054733999 0.146455 -0.23505799
-0.054731 0.146531 -0.235061
-0.054728001 0.146604 -0.235053
-0.054726001 0.14668 -0.235047
-0.054722998 0.14675599 -0.235043
-0.054719999 0.146832 -0.235045
-0.054717001 0.146908 -0.235047
-0.054714002 0.146982 -0.235038
-0.054712001 0.14706001 -0.235026
-0.054708999 0.14713299 -0.235018
-0.054706998 0.147209 -0.234998
-0.054705001 0.147285 -0.23497801
-0.054701999 0.147361 -0.234981
-0.054698002 0.14743499 -0.235001
-0.054694001 0.14751101 -0.23502301
-0.054691002 0.147586 -0.23503099
-0.054689001 0.147663 -0.23500299
-0.054687999 0.147736 -0.234972
-0.054685 0.14781199 -0.23496
-0.054683 0.14788701 -0.234946
-0.054680001 0.147963 -0.234942
-0.054676998 0.14804 -0.234952
-0.054674 0.148114 -0.23496
-0.054671001 0.14819001 -0.23495699
-0.054668002 0.148265 -0.234951
-0.054664999 0.148339 -0.234955
-0.054662 0.148416 -0.23495699
-0.054659002 0.148491 -0.234951
-0.054657001 0.14856701 -0.234938
-0.054653998 0.148643 -0.234934
-0.054651 0.148717 -0.234946
-0.054648001 0.148793 -0.234946
-0.054646 0.14886899 -0.234928
-0.054644 0.14894401 -0.234906
-0.054641001 0.149018 -0.234899
-0.054637998 0.149094 -0.23491301
-0.054634001 0.14917 -0.234925
-0.054630999 0.149244 -0.234919
-0.054629002 0.14932001 -0.234915
-0.054625999 0.149396 -0.234908
-0.054623999 0.149472 -0.23489401
-0.054621 0.149547 -0.23488601
-0.054618001 0.14962199 -0.234896
-0.054614998 0.149698 -0.234898
-0.054613002 0.149773 -0.234878
-0.054609999 0.149847 -0.234869
-0.054607 0.149923 -0.234879
-0.054604001 0.14999899 -0.23487701
-0.054602001 0.150075 -0.234859
-0.0546 0.150148 -0.23484901
-0.054595999 0.150224 -0.23485801
-0.054593001 0.1503 -0.234862
-0.054590002 0.15037601 -0.234852
-0.054588001 0.150452 -0.23485
-0.054584999 0.150526 -0.234846
-0.054582998 0.150602 -0.23482899
-0.054579999 0.150677 -0.234815
-0.054577999 0.15075099 -0.234815
-0.054574002 0.15082701 -0.23481899
-0.054572001 0.150903 -0.234813
-0.054570001 0.150977 -0.2348
-0.054567002 0.151053 -0.23479199
-0.054563999 0.15112799 -0.234786
-0.054561 0.151204 -0.234782
-0.054559 0.151278 -0.23477601
-0.054556001 0.151354 -0.23477399
-0.054552998 0.15143 -0.234769
-0.054551002 0.151504 -0.234759
-0.054547999 0.15157899 -0.23474699
-0.054545999 0.151655 -0.23473699
-0.054543 0.151729 -0.23472901
-0.054540999 0.151805 -0.234726
-0.054538 0.15188099 -0.234724
-0.054535002 0.15195601 -0.234714
-0.054533001 0.15203001 -0.23470999
-0.054529998 0.152106 -0.234712
-0.054527 0.152182 -0.23470899
-0.054524001 0.152256 -0.234699
-0.054522 0.15233199 -0.23469301
-0.054519001 0.152408 -0.23469301
-0.054515999 0.152482 -0.234687
-0.054513998 0.152557 -0.234672
-0.054510999 0.152633 -0.234666
-0.054508001 0.15270901 -0.234662
-0.054506 0.15278301 -0.234652
-0.054503001 0.152859 -0.234648
-0.054501001 0.152932 -0.234635
-0.054499 0.153008 -0.234613
-0.054496001 0.15308399 -0.23460899
-0.054492999 0.15315799 -0.234613
-0.05449 0.153234 -0.234611
-0.054488 0.153309 -0.234603
-0.054485999 0.153383 -0.23458999
-0.054483 0.153459 -0.23457401
-0.054480001 0.153533 -0.23457401
-0.054478001 0.15360799 -0.23457
-0.054474998 0.15368401 -0.234556
-0.054473002 0.153758 -0.234547
-0.054469999 0.153834 -0.23453701
-0.054467998 0.153907 -0.234523
-0.054466002 0.153983 -0.23450699
-0.054462999 0.15405899 -0.23449899
-0.054460999 0.15413199 -0.234494
-0.054458 0.154208 -0.234486
-0.054455999 0.154282 -0.234474
-0.054453 0.154358 -0.23446999
-0.054450002 0.154434 -0.234476
-0.054446999 0.15450799 -0.234467
-0.054446001 0.15458301 -0.234441
-0.054443002 0.15465701 -0.234439
-0.054439999 0.154733 -0.234437
-0.054437999 0.154809 -0.23442701
-0.054435 0.154882 -0.234418
-0.054432999 0.15495799 -0.2344
-0.054430999 0.15503199 -0.234386
-0.054428 0.155108 -0.23438799
-0.054423999 0.155184 -0.234394
-0.054421999 0.155258 -0.234391
-0.054419 0.155333 -0.234383
-0.054416999 0.155407 -0.23436899
-0.054414999 0.15548301 -0.234357
-0.054412 0.155559 -0.234357
-0.054409001 0.155633 -0.23435199
-0.054407001 0.155708 -0.23434
-0.054404002 0.155782 -0.23434199
-0.054400999 0.155858 -0.23434
-0.054398 0.15593199 -0.234326
-0.054396 0.15600801 -0.23432299
-0.054391999 0.156084 -0.234331
-0.054389 0.15616 -0.234331
-0.054386999 0.156234 -0.234321
-0.054384001 0.15630899 -0.234313
-0.054382 0.15638299 -0.234312
-0.054379001 0.156459 -0.234308
-0.054375999 0.156535 -0.23429801
-0.054373998 0.156609 -0.23428801
-0.054370999 0.15668499 -0.234282
-0.054368 0.15675899 -0.234283
-0.054365002 0.15683401 -0.234281
-0.054363001 0.15691 -0.234277
-0.054359999 0.156984 -0.234277
-0.054357 0.15706 -0.234281
-0.054354001 0.15713599 -0.234281
-0.054350998 0.157212 -0.234282
-0.054347001 0.157288 -0.234292
-0.054343998 0.15736499 -0.234302
-0.054340001 0.15744101 -0.23431
-0.054336999 0.157517 -0.234318
-0.054334 0.157593 -0.23432399
-0.054329999 0.15766899 -0.234331
-0.054327 0.15774301 -0.234339
-0.054324001 0.157822 -0.234349
-0.05432 0.157896 -0.234357
-0.054317001 0.157974 -0.234365
-0.054313999 0.158048 -0.23437101
-0.054310001 0.158124 -0.234382
-0.054306999 0.15820201 -0.234396
-0.054303002 0.158279 -0.234418
-0.054297999 0.15835699 -0.234448
-0.054294001 0.158434 -0.234468
-0.054290999 0.15851 -0.23446999
-0.054288 0.158586 -0.234476
-0.054283999 0.15866201 -0.23450001
-0.054279 0.158741 -0.234532
-0.054274 0.15882 -0.23457099
-0.054269999 0.15889899 -0.234603
-0.054265998 0.15897501 -0.23461699
-0.054260999 0.159054 -0.23464499
-0.054257002 0.159132 -0.234685
-0.054251 0.15921099 -0.234731
-0.054246001 0.15929 -0.234769
-0.054241002 0.159371 -0.234807
-0.054235999 0.15944999 -0.23484901
-0.054230999 0.159529 -0.234891
-0.054226 0.15960801 -0.234935
-0.054219998 0.15968899 -0.234989
-0.054214001 0.15977 -0.23504899
-0.054207999 0.159852 -0.235111
-0.054202002 0.159933 -0.235167
-0.054198001 0.16001099 -0.235201
-0.054193001 0.16009 -0.235237
-0.054187 0.160171 -0.23528901
-0.054182 0.160252 -0.235337
-0.054177001 0.160331 -0.23537099
-0.054172002 0.16041 -0.23541699
-0.054164998 0.160494 -0.235495
-0.054157998 0.160577 -0.235571
-0.055197001 0.13175599 -0.23624299
-0.055195998 0.131835 -0.23620901
-0.055195 0.131916 -0.23615301
-0.055195 0.131999 -0.236085
-0.055195998 0.132083 -0.236001
-0.055195998 0.132165 -0.235939
-0.055195 0.132246 -0.235881
-0.055195 0.132328 -0.235815
-0.055195 0.13240901 -0.235762
-0.055193 0.132488 -0.235724
-0.055193 0.132569 -0.23567
-0.055192001 0.13265 -0.235618
-0.055190001 0.13272899 -0.23559
-0.055188999 0.132806 -0.23555399
-0.055187002 0.132888 -0.23551799
-0.055186 0.132963 -0.235496
-0.055183999 0.13304199 -0.23546501
-0.055183001 0.133121 -0.23542701
-0.055181 0.133201 -0.235395
-0.055179998 0.13327999 -0.23536099
-0.055178002 0.133357 -0.23532499
-0.055176999 0.13343599 -0.23529699
-0.055174999 0.133514 -0.235275
-0.055172 0.133591 -0.235258
-0.05517 0.13366701 -0.23525199
-0.055167001 0.133745 -0.235236
-0.055165 0.13382199 -0.23521601
-0.055163 0.1339 -0.235192
-0.055160999 0.133977 -0.235172
-0.055158999 0.13405301 -0.235158
-0.055156998 0.134131 -0.23514301
-0.055153999 0.134206 -0.235137
-0.055151001 0.13428199 -0.23514099
-0.055148002 0.134358 -0.235131
-0.055146001 0.134436 -0.235109
-0.055144001 0.13451301 -0.23509499
-0.055140998 0.134589 -0.235094
-0.055137999 0.134663 -0.235102
-0.055135 0.134739 -0.23509599
-0.055133 0.13481501 -0.23508801
-0.055130001 0.134891 -0.235084
-0.055126999 0.134969 -0.235072
-0.055126 0.13504601 -0.235047
-0.055124 0.135123 -0.23502301
-0.055121001 0.135199 -0.235021
-0.055117 0.13527399 -0.23503099
-0.055114001 0.13535 -0.235037
-0.055110998 0.135424 -0.235034
-0.055109002 0.135499 -0.23503201
-0.055105999 0.13557699 -0.23502401
-0.055103 0.135653 -0.23501401
-0.055100001 0.135729 -0.235016
-0.055096999 0.135803 -0.23502
-0.055094 0.135879 -0.235019
-0.055091999 0.13595501 -0.235011
-0.055089001 0.136031 -0.235007
-0.055086002 0.136107 -0.235017
-0.055082001 0.136181 -0.235027
-0.055078998 0.136255 -0.235029
-0.055075999 0.13633101 -0.23504201
-0.055073 0.13640501 -0.235046
-0.055070002 0.136483 -0.23503999
-0.055066999 0.13655899 -0.23503201
-0.055064999 0.13663501 -0.23502199
-0.055062 0.136711 -0.23502401
-0.055057999 0.136783 -0.235043
-0.055055 0.136859 -0.235047
-0.055052001 0.136935 -0.23504899
-0.055048998 0.13701101 -0.23505101
-0.055046 0.137087 -0.23505101
-0.055041999 0.137161 -0.23506001
-0.055039 0.137237 -0.235066
-0.055036001 0.137312 -0.235076
-0.055032 0.13738599 -0.23508801
-0.055029001 0.13746201 -0.23509
-0.055025999 0.137538 -0.235092
-0.055023 0.137614 -0.23509701
-0.055020001 0.137688 -0.23509701
-0.055016998 0.13776401 -0.235089
-0.055015001 0.137842 -0.235083
-0.055011 0.137916 -0.235091
-0.055008002 0.13799199 -0.235102
-0.055004999 0.13806599 -0.235108
-0.055002 0.138142 -0.23510399
-0.054999001 0.138218 -0.23511
-0.054995 0.138292 -0.235126
-0.054992002 0.138366 -0.23513199
-0.054988999 0.13844199 -0.235137
-0.054986 0.13851599 -0.235137
-0.054983001 0.138594 -0.235129
-0.054979999 0.13867 -0.23512299
-0.054977998 0.13874599 -0.235119
-0.054974999 0.13882001 -0.23512
-0.054970998 0.138896 -0.23513
-0.054967999 0.13897 -0.23514
-0.054963998 0.139045 -0.235156
-0.054960001 0.139121 -0.23518001
-0.054956 0.139195 -0.23519801
-0.054953001 0.13926999 -0.23520499
-0.054949999 0.139347 -0.23519699
-0.054947998 0.139423 -0.23518699
-0.054945 0.13949899 -0.23518901
-0.054942001 0.13957299 -0.23518699
-0.054939002 0.139649 -0.235183
-0.054935999 0.139725 -0.235182
-0.054933999 0.139801 -0.235176
-0.054931 0.13987701 -0.23518001
-0.054928001 0.139953 -0.235182
-0.054924998 0.140027 -0.235184
-0.054921001 0.140103 -0.23518699
-0.054919001 0.14017899 -0.235183
-0.054916002 0.14025401 -0.235173
-0.054912999 0.14033 -0.23517101
-0.05491 0.140406 -0.23516899
-0.054908 0.14048199 -0.235167
-0.054903999 0.14055599 -0.23518001
-0.054901 0.140633 -0.23518801
-0.054898001 0.140708 -0.235184
-0.054894999 0.140784 -0.23518801
-0.054892 0.14085799 -0.23519
-0.054889001 0.140935 -0.235194
-0.054885 0.141011 -0.235213
-0.054882001 0.141085 -0.23521701
-0.054878999 0.14116099 -0.23520701
-0.054876 0.14123701 -0.23520701
-0.054873001 0.141313 -0.235209
-0.054871 0.141388 -0.23519
-0.054869 0.14146399 -0.235174
-0.054866001 0.14154001 -0.23517001
-0.054864001 0.141615 -0.235156
-0.054861002 0.141691 -0.23515201
-0.054857999 0.141767 -0.235164
-0.054854002 0.14184199 -0.235175
-0.054852001 0.14191701 -0.235163
-0.054850001 0.141995 -0.23514301
-0.054846 0.142069 -0.235149
-0.054841999 0.14214399 -0.23518901
-0.054838002 0.14221799 -0.235201
-0.054836001 0.142296 -0.235184
-0.054834001 0.142371 -0.235172
-0.054830998 0.14244699 -0.23517001
-0.054827999 0.14252301 -0.235168
-0.054825 0.142597 -0.235172
-0.054822002 0.142673 -0.235173
-0.054818999 0.142749 -0.235177
-0.054815002 0.14282399 -0.235191
-0.054811999 0.1429 -0.235199
-0.054809 0.142976 -0.23519699
-0.054806001 0.143049 -0.235191
-0.054802999 0.14312699 -0.23518801
-0.0548 0.14320099 -0.23519
-0.054797001 0.143277 -0.235192
-0.054795001 0.143353 -0.235182
-0.054793 0.143429 -0.235164
-0.054790001 0.14350501 -0.23515999
-0.054786999 0.143581 -0.235165
-0.054784 0.143656 -0.23515899
-0.054781001 0.143732 -0.235153
-0.054777998 0.143806 -0.235163
-0.054775 0.143883 -0.23517101
-0.054772001 0.143958 -0.235158
-0.05477 0.144034 -0.235146
-0.054767001 0.14410999 -0.23514199
-0.054763999 0.144186 -0.235136
-0.054761998 0.144262 -0.23513199
-0.054758001 0.144336 -0.235138
-0.054756001 0.144411 -0.235131
-0.054754 0.14448699 -0.235109
-0.054752 0.144563 -0.23509499
-0.054749001 0.144639 -0.23509701
-0.054745 0.144715 -0.235101
-0.054742999 0.14478999 -0.235092
-0.054740001 0.14486399 -0.23508599
-0.054737002 0.14494 -0.235094
-0.054733999 0.145016 -0.23509599
-0.054731 0.145092 -0.235094
-0.054728001 0.14516699 -0.23510601
-0.054724 0.145243 -0.235117
-0.054721002 0.145317 -0.23511299
-0.054719001 0.145394 -0.23510499
-0.054715998 0.145468 -0.23510499
-0.054713 0.14554401 -0.23510499
-0.054710001 0.14562 -0.235102
-0.054706998 0.145696 -0.23509599
-0.054705001 0.145772 -0.235094
-0.054701 0.14584599 -0.2351
-0.054699 0.14592201 -0.23509599
-0.054696001 0.145998 -0.23508
-0.054694001 0.146073 -0.235067
-0.054691002 0.14614899 -0.235071
-0.054687999 0.14622299 -0.23507901
-0.054685 0.146299 -0.235067
-0.054683 0.146375 -0.23505899
-0.054678999 0.146451 -0.235064
-0.054676998 0.14652701 -0.235056
-0.054674 0.146602 -0.235044
-0.054671999 0.146678 -0.235036
-0.054669 0.146752 -0.235028
-0.054666001 0.146828 -0.235026
-0.054662999 0.14690401 -0.235035
-0.05466 0.14697801 -0.235045
-0.054657001 0.147054 -0.235047
-0.054653998 0.14713 -0.235047
-0.054651 0.14720599 -0.23504101
-0.054648999 0.147282 -0.23503201
-0.054646 0.147356 -0.23502401
-0.054643001 0.147432 -0.235018
-0.054641001 0.147507 -0.23501401
-0.054637998 0.14758299 -0.23501199
-0.054634999 0.147659 -0.235006
-0.054632999 0.147733 -0.23498499
-0.054630999 0.147808 -0.23496699
-0.054628 0.147884 -0.234961
-0.054625999 0.14796001 -0.234955
-0.054621998 0.148036 -0.234965
-0.054618999 0.14811 -0.234982
-0.054616001 0.148186 -0.23497801
-0.054613002 0.14826199 -0.234964
-0.054609999 0.14833599 -0.23496801
-0.054607999 0.148412 -0.234964
-0.054605 0.148488 -0.234956
-0.054602001 0.148564 -0.234955
-0.0546 0.14863899 -0.23493899
-0.054597002 0.14871299 -0.234937
-0.054593999 0.148789 -0.23493899
-0.054591998 0.148865 -0.23492301
-0.054590002 0.14894 -0.23490199
-0.054588001 0.149014 -0.23488601
-0.054584999 0.14909001 -0.23488601
-0.054581001 0.149166 -0.234908
-0.054577 0.149241 -0.23492201
-0.054574002 0.149316 -0.23492099
-0.054572001 0.14939199 -0.234905
-0.054570001 0.149468 -0.234891
-0.054568 0.149543 -0.23487701
-0.054565001 0.149617 -0.23487499
-0.054561 0.149694 -0.234889
-0.054558001 0.14977001 -0.2349
-0.054554999 0.14984401 -0.23489
-0.054552998 0.149919 -0.234874
-0.054551002 0.149995 -0.234864
-0.054547001 0.150071 -0.23486599
-0.054544002 0.15014499 -0.234869
-0.054542001 0.15022101 -0.23486499
-0.054538999 0.150297 -0.23485699
-0.054536998 0.150372 -0.234845
-0.054533999 0.15044799 -0.234835
-0.054531999 0.15052199 -0.234824
-0.054529 0.150598 -0.23481999
-0.054526001 0.150673 -0.234814
-0.054524001 0.150747 -0.23480999
-0.054520998 0.150823 -0.234806
-0.054517999 0.15089899 -0.234798
-0.054515999 0.15097301 -0.23478501
-0.054513 0.151049 -0.234787
-0.054510001 0.151125 -0.234795
-0.054506999 0.15120099 -0.234799
-0.054504 0.15127499 -0.23479301
-0.054501999 0.15135001 -0.23476399
-0.054499999 0.151426 -0.23474599
-0.054497 0.1515 -0.234744
-0.054494001 0.151576 -0.23474599
-0.054490998 0.15165199 -0.234758
-0.054488 0.15172599 -0.234761
-0.054485001 0.15180101 -0.234749
-0.054483 0.151877 -0.23474699
-0.054480001 0.151953 -0.234741
-0.054478001 0.152027 -0.234717
-0.054476 0.15210199 -0.23470999
-0.054471999 0.152179 -0.234726
-0.054469001 0.152253 -0.234722
-0.054467 0.152328 -0.23470999
-0.054464001 0.152404 -0.234704
-0.054462001 0.15247799 -0.234696
-0.054458998 0.15255401 -0.234685
-0.054457001 0.152629 -0.23467299
-0.054453999 0.152705 -0.234659
-0.054451998 0.152779 -0.23464499
-0.054448999 0.15285499 -0.234649
-0.054446001 0.15292899 -0.234648
-0.054444 0.15300401 -0.234626
-0.054442 0.15308 -0.23461001
-0.054439001 0.153154 -0.23460799
-0.054435998 0.15323 -0.234614
-0.054432999 0.15330601 -0.23461901
-0.05443 0.15338001 -0.234615
-0.054428 0.153455 -0.23459899
-0.054426 0.153531 -0.234579
-0.054423999 0.153605 -0.234569
-0.054421 0.153681 -0.234568
-0.054418001 0.15375701 -0.23457199
-0.054414999 0.15383001 -0.23456
-0.054412998 0.153906 -0.23454
-0.054411002 0.15398 -0.23452801
-0.054409001 0.154055 -0.234511
-0.054405998 0.154129 -0.23450699
-0.054403 0.15420499 -0.234501
-0.054400999 0.15428001 -0.234485
-0.054398999 0.15435401 -0.234479
-0.054395001 0.15443 -0.234486
-0.054391999 0.154506 -0.23449001
-0.054389998 0.15458 -0.234476
-0.054388002 0.15465599 -0.23445199
-0.054386001 0.15472899 -0.234432
-0.054382998 0.154805 -0.234429
-0.054381002 0.154879 -0.23442701
-0.054377999 0.154955 -0.23441499
-0.054375999 0.155028 -0.234403
-0.054373 0.155104 -0.23439699
-0.054370001 0.15518001 -0.2344
-0.054366998 0.15525401 -0.234396
-0.054365002 0.15533 -0.23438799
-0.054361999 0.155406 -0.234378
-0.054359999 0.155479 -0.234366
-0.054357 0.15555499 -0.23436099
-0.054354999 0.15562899 -0.234355
-0.054352 0.155705 -0.23435099
-0.054349001 0.155779 -0.234347
-0.054347001 0.155854 -0.234337
-0.054343998 0.15593 -0.23433
-0.054342002 0.156004 -0.23432
-0.054338999 0.15607999 -0.234322
-0.054336 0.15615401 -0.234318
-0.054334 0.156229 -0.234302
-0.054331001 0.156305 -0.234304
-0.054327998 0.15638 -0.234309
-0.054324999 0.156455 -0.234301
-0.054322001 0.15653101 -0.234299
-0.054319002 0.15660501 -0.234301
-0.054317001 0.156681 -0.234291
-0.054313999 0.156755 -0.23427799
-0.054311998 0.15683 -0.23427001
-0.054308999 0.15690599 -0.23426799
-0.054306 0.15697999 -0.23427001
-0.054303002 0.157056 -0.234262
-0.054301001 0.157132 -0.23425899
-0.054297 0.157208 -0.234275
-0.054292999 0.157285 -0.23429701
-0.05429 0.157361 -0.234303
-0.054285999 0.157437 -0.234309
-0.054283001 0.15751299 -0.23432299
-0.054279 0.15759 -0.23433501
-0.054276001 0.157666 -0.234336
-0.054273002 0.15774199 -0.23434199
-0.054269001 0.157818 -0.234366
-0.054265 0.157894 -0.234376
-0.054262001 0.15797 -0.234382
-0.054258 0.15804701 -0.234394
-0.054255001 0.158123 -0.234405
-0.054251 0.15820099 -0.234423
-0.054246999 0.158278 -0.234441
-0.054244 0.158354 -0.234455
-0.05424 0.15843 -0.234465
-0.054237001 0.15850601 -0.234459
-0.054234002 0.158582 -0.23447099
-0.054228 0.15866099 -0.234519
-0.054223999 0.15874 -0.23455
-0.054219998 0.15881599 -0.234578
-0.054214999 0.158895 -0.23461001
-0.05421 0.15897401 -0.234642
-0.054205999 0.159052 -0.23467
-0.054200999 0.15913101 -0.23470201
-0.054196 0.15921 -0.23474599
-0.054191001 0.159289 -0.23479199
-0.054186001 0.15936799 -0.234834
-0.054180998 0.159447 -0.23487
-0.054175999 0.159528 -0.234916
-0.054170001 0.15960699 -0.23497
-0.054164998 0.159688 -0.23501199
-0.054159999 0.159766 -0.235052
-0.054154001 0.159848 -0.23511399
-0.054149002 0.159927 -0.23514999
-0.054145001 0.160005 -0.23517901
-0.054138999 0.16008601 -0.235223
-0.054134 0.16016699 -0.23528001
-0.054127999 0.160247 -0.235333
-0.054122999 0.160328 -0.23538101
-0.054117002 0.160409 -0.235441
-0.054110002 0.160492 -0.23550799
-0.054102998 0.160576 -0.23558199
-0.055133 0.131828 -0.236204
-0.055132002 0.131909 -0.236154
-0.055131 0.131988 -0.236112
-0.055132002 0.132074 -0.236026
-0.055133 0.132158 -0.23593201
-0.055132002 0.132239 -0.23588
-0.055131 0.132318 -0.235842
-0.055128999 0.132397 -0.23581401
-0.055128001 0.132476 -0.235772
-0.055128999 0.132558 -0.23569299
-0.055128999 0.132643 -0.235617
-0.055128001 0.13272201 -0.235571
-0.055126 0.132799 -0.235549
-0.055124 0.13287701 -0.23553699
-0.055121999 0.132956 -0.235505
-0.055121001 0.133035 -0.23546501
-0.055119 0.133114 -0.235431
-0.055117998 0.133192 -0.235394
-0.055117 0.13327301 -0.23535
-0.055114999 0.13335 -0.235324
-0.055112999 0.13342699 -0.235302
-0.055110998 0.133507 -0.235276
-0.055109002 0.133582 -0.23525999
-0.055105999 0.13366 -0.235254
-0.055103999 0.133736 -0.235247
-0.055101 0.13381401 -0.23523299
-0.055098999 0.133889 -0.235213
-0.055096999 0.133967 -0.235191
-0.055096 0.134046 -0.235165
-0.055094 0.134122 -0.235147
-0.055091001 0.13419899 -0.23514099
-0.055087999 0.134275 -0.235136
-0.055086002 0.134351 -0.23512401
-0.055082999 0.13442899 -0.23511
-0.055080999 0.13450401 -0.2351
-0.055078 0.13458 -0.235094
-0.055075999 0.13465799 -0.23508
-0.055073 0.134734 -0.23507699
-0.055070002 0.13481 -0.235073
-0.055068001 0.134885 -0.235061
-0.055064999 0.13496301 -0.23505101
-0.055062 0.135039 -0.235047
-0.055059999 0.135113 -0.235047
-0.055057 0.135189 -0.235046
-0.055054002 0.13526499 -0.23504201
-0.055050999 0.135341 -0.235046
-0.055048 0.135415 -0.235052
-0.055045001 0.135491 -0.235044
-0.055043001 0.13556799 -0.235027
-0.055039998 0.135644 -0.23502301
-0.055036999 0.135722 -0.23501299
-0.055034999 0.13579801 -0.235001
-0.055032 0.13587201 -0.235001
-0.055029001 0.135948 -0.235007
-0.055025 0.136022 -0.23502199
-0.055022001 0.136098 -0.235028
-0.055018999 0.13617399 -0.23502199
-0.055016 0.13625 -0.23502
-0.055013001 0.136324 -0.23503
-0.055009998 0.136398 -0.235036
-0.055007 0.136474 -0.235039
-0.055004001 0.13654999 -0.235037
-0.055001002 0.13662601 -0.235029
-0.054997999 0.136702 -0.235029
-0.054995 0.136776 -0.23504101
-0.054992002 0.136852 -0.235046
-0.054988999 0.13692801 -0.235048
-0.054986 0.13700201 -0.235052
-0.054981999 0.137078 -0.235066
-0.054977998 0.137153 -0.235084
-0.054974999 0.137229 -0.23508599
-0.054972 0.13730299 -0.23508701
-0.054969002 0.13737901 -0.235089
-0.054965999 0.137455 -0.235085
-0.054963998 0.13753 -0.23507901
-0.054960001 0.13760699 -0.235083
-0.054956999 0.13768101 -0.23509701
-0.054953001 0.13775501 -0.23511
-0.054949999 0.137831 -0.23511
-0.054947998 0.137907 -0.235108
-0.054945 0.13798299 -0.235102
-0.054942999 0.13806 -0.23508
-0.05494 0.138136 -0.235073
-0.054935999 0.138211 -0.23509499
-0.054931998 0.138283 -0.235127
-0.054928001 0.138359 -0.235139
-0.054924998 0.13843399 -0.235147
-0.054922 0.13851 -0.235155
-0.054919001 0.138586 -0.23514999
-0.054917 0.138661 -0.23513401
-0.054914001 0.13873699 -0.23513
-0.054910999 0.138813 -0.235126
-0.054908 0.138889 -0.235128
-0.054905001 0.138963 -0.235147
-0.054901 0.139038 -0.235157
-0.054899 0.13911501 -0.235147
-0.054894999 0.139189 -0.23515099
-0.054892 0.139264 -0.235165
-0.054889001 0.13934 -0.235173
-0.054885 0.13941599 -0.23518001
-0.054882001 0.13949201 -0.23518001
-0.054878999 0.139566 -0.23517799
-0.054877002 0.139642 -0.23517799
-0.054873999 0.139718 -0.235172
-0.054871999 0.13979299 -0.23515899
-0.054869 0.139871 -0.23515099
-0.054864999 0.139945 -0.235163
-0.054862 0.140019 -0.235173
-0.054859001 0.14009599 -0.235183
-0.054855 0.14016999 -0.23519699
-0.054852001 0.140246 -0.23519801
-0.054848999 0.140322 -0.235194
-0.054846 0.140398 -0.235192
-0.054843999 0.140475 -0.235168
-0.054841999 0.140551 -0.235166
-0.054838002 0.140625 -0.235186
-0.054834001 0.14070199 -0.235193
-0.054832 0.140775 -0.235193
-0.054827999 0.140852 -0.23520701
-0.054825 0.140926 -0.23521499
-0.054822002 0.141004 -0.235201
-0.054820001 0.14107899 -0.23518901
-0.054816 0.14115299 -0.2352
-0.054813001 0.14123 -0.235212
-0.054809999 0.141306 -0.235208
-0.054807 0.141381 -0.235204
-0.054804001 0.14145599 -0.235212
-0.054800998 0.141532 -0.235211
-0.0548 0.141609 -0.235177
-0.054798 0.141684 -0.23515099
-0.054795001 0.14176001 -0.235149
-0.054792002 0.14183401 -0.235155
-0.054788999 0.14191 -0.235163
-0.054786 0.141986 -0.235162
-0.054783002 0.14206199 -0.235158
-0.054779999 0.142138 -0.23515999
-0.054777 0.142212 -0.235166
-0.054772999 0.142288 -0.235176
-0.05477 0.142363 -0.235192
-0.054765999 0.142437 -0.235209
-0.054763 0.14251301 -0.235213
-0.054760002 0.142589 -0.235201
-0.054758001 0.142666 -0.235177
-0.054756999 0.14274199 -0.235149
-0.054754999 0.14281701 -0.23513
-0.054752 0.142893 -0.235136
-0.054747 0.142968 -0.235162
-0.054742999 0.143042 -0.235184
-0.054740001 0.14311799 -0.235184
-0.054738 0.143194 -0.235176
-0.054735001 0.143272 -0.23516899
-0.054733999 0.143347 -0.23514099
-0.054731999 0.14342301 -0.235121
-0.054728001 0.143499 -0.235127
-0.054724 0.143573 -0.235147
-0.054721002 0.143649 -0.235155
-0.054719001 0.14372499 -0.235144
-0.054715998 0.143801 -0.23513
-0.054714002 0.143876 -0.235116
-0.054710999 0.143952 -0.235112
-0.054708 0.14402699 -0.23513
-0.054703999 0.14410301 -0.235147
-0.054701 0.144177 -0.235137
-0.054699 0.144254 -0.235117
-0.054696999 0.14432999 -0.23509701
-0.054694999 0.14440501 -0.235081
-0.054692 0.144481 -0.235076
-0.054689001 0.144555 -0.235082
-0.054685 0.144632 -0.2351
-0.054682001 0.14470799 -0.235102
-0.054680001 0.14478301 -0.235098
-0.054676998 0.144857 -0.23509599
-0.054673001 0.144934 -0.23510499
-0.054669999 0.145008 -0.235119
-0.054666001 0.14508399 -0.235131
-0.054664001 0.14516 -0.235121
-0.054660998 0.145236 -0.235109
-0.054659002 0.145311 -0.235101
-0.054657001 0.14538699 -0.23508599
-0.054655001 0.14546201 -0.235066
-0.054652002 0.145538 -0.23505799
-0.054648999 0.145612 -0.235062
-0.054644998 0.145689 -0.23508
-0.054641999 0.14576501 -0.235085
-0.054639999 0.14584 -0.235063
-0.054637998 0.145916 -0.235045
-0.054634999 0.14599 -0.23504899
-0.054632001 0.146066 -0.23505101
-0.05463 0.14614099 -0.23503201
-0.054627001 0.146217 -0.235034
-0.054621998 0.146292 -0.235064
-0.054618001 0.146368 -0.235082
-0.054616001 0.146442 -0.23507801
-0.054614 0.14652 -0.23506001
-0.054611001 0.146593 -0.235047
-0.054609001 0.146669 -0.235039
-0.054606002 0.146745 -0.23503099
-0.054602999 0.14682101 -0.23503301
-0.0546 0.146897 -0.23503301
-0.054597002 0.146971 -0.23503099
-0.054593999 0.147047 -0.23503999
-0.054591 0.14712299 -0.235038
-0.054589 0.147199 -0.235028
-0.054586001 0.147275 -0.23502401
-0.054582998 0.147348 -0.235016
-0.054581001 0.147424 -0.235011
-0.054577999 0.14749999 -0.235001
-0.054575998 0.147576 -0.234983
-0.054572999 0.147652 -0.234981
-0.054570001 0.147726 -0.234983
-0.054568 0.147801 -0.23497599
-0.054565001 0.14787699 -0.234972
-0.054561999 0.14795101 -0.234974
-0.054559 0.148027 -0.234972
-0.054556001 0.148103 -0.23496599
-0.054552998 0.14817899 -0.23496801
-0.05455 0.14825501 -0.23496699
-0.054547999 0.148329 -0.234961
-0.054545 0.148405 -0.23495901
-0.054542001 0.14848 -0.234951
-0.054540001 0.14855599 -0.23493899
-0.054536998 0.14862999 -0.234938
-0.054533001 0.148706 -0.234952
-0.054529998 0.148783 -0.234964
-0.054527 0.148858 -0.234956
-0.054524999 0.14893401 -0.234946
-0.054522 0.14900801 -0.234936
-0.05452 0.149084 -0.234927
-0.054517001 0.14916 -0.23492301
-0.054513998 0.149233 -0.23492099
-0.054510999 0.14930999 -0.234925
-0.054508001 0.149386 -0.234927
-0.054506 0.149461 -0.234906
-0.054505002 0.149536 -0.234872
-0.054503001 0.14961 -0.23485
-0.054499999 0.14968599 -0.23484799
-0.054497 0.149762 -0.23485599
-0.054494001 0.149836 -0.23485699
-0.054490998 0.149912 -0.234855
-0.054488 0.149988 -0.234855
-0.054485999 0.15006299 -0.234841
-0.054483 0.15013701 -0.234825
-0.054480001 0.150213 -0.23483101
-0.054476999 0.150289 -0.234834
-0.054474998 0.150365 -0.23482201
-0.054471999 0.15044101 -0.23481999
-0.054469001 0.150515 -0.23482201
-0.054466002 0.150591 -0.23481999
-0.054462999 0.150666 -0.234815
-0.054460999 0.15074 -0.234795
-0.054458998 0.15081599 -0.234787
-0.054455001 0.150892 -0.234795
-0.054453 0.150966 -0.234791
-0.054451 0.151041 -0.23477601
-0.054448001 0.151117 -0.234768
-0.054444999 0.15119299 -0.23477399
-0.054441001 0.15126701 -0.23478401
-0.054437999 0.151343 -0.234782
-0.054435998 0.151419 -0.234772
-0.054434001 0.151493 -0.23475701
-0.054432001 0.151568 -0.234743
-0.054428998 0.15164401 -0.234731
-0.054427002 0.15171801 -0.234725
-0.054423001 0.151794 -0.23473901
-0.054420002 0.15187 -0.234742
-0.054418001 0.15194599 -0.23472001
-0.054416001 0.15201899 -0.234706
-0.054412998 0.152095 -0.234704
-0.054409999 0.152171 -0.234694
-0.054407999 0.152245 -0.234687
-0.054404002 0.152321 -0.234695
-0.054400999 0.15239701 -0.234695
-0.054398999 0.15247101 -0.234685
-0.054397002 0.152546 -0.234671
-0.054395001 0.152622 -0.234652
-0.054391999 0.152696 -0.234642
-0.054389998 0.152771 -0.23463801
-0.054386999 0.152845 -0.23463
-0.054384001 0.15292101 -0.234622
-0.054381002 0.152997 -0.234623
-0.054377999 0.153073 -0.234635
-0.054375 0.153147 -0.23462699
-0.054373998 0.15322199 -0.234595
-0.054370999 0.15329801 -0.234585
-0.054368 0.153372 -0.234587
-0.054365002 0.153448 -0.23458999
-0.054363001 0.153524 -0.234586
-0.054359999 0.153598 -0.23458999
-0.054357 0.15367401 -0.234584
-0.054354999 0.15374701 -0.23455399
-0.054354001 0.153823 -0.234529
-0.054350998 0.153896 -0.234519
-0.054347999 0.153972 -0.234515
-0.054345001 0.154048 -0.234523
-0.054342002 0.15412401 -0.23452701
-0.054338999 0.1542 -0.234522
-0.054336999 0.154274 -0.23451801
-0.054334 0.15435 -0.234506
-0.054331999 0.154424 -0.23450001
-0.054329 0.15449999 -0.234496
-0.054326002 0.15457501 -0.234495
-0.054322999 0.154649 -0.234497
-0.054320998 0.154725 -0.234483
-0.054319002 0.154798 -0.234455
-0.054317001 0.154872 -0.234429
-0.054315001 0.154948 -0.234418
-0.054311998 0.15502299 -0.23441
-0.054310001 0.15509699 -0.23440801
-0.054306999 0.155173 -0.234402
-0.054304 0.155247 -0.23439801
-0.054301001 0.155323 -0.234401
-0.054297999 0.15539899 -0.234395
-0.054296002 0.15547299 -0.234385
-0.054294001 0.15554801 -0.234373
-0.054290999 0.15562201 -0.234365
-0.054288998 0.155698 -0.234356
-0.054285999 0.155774 -0.234346
-0.054283999 0.155847 -0.234338
-0.054281 0.15592299 -0.234328
-0.054279 0.15599699 -0.23431399
-0.054276001 0.156073 -0.23430701
-0.054274 0.156146 -0.234301
-0.054271001 0.156222 -0.234291
-0.054267999 0.156296 -0.23428901
-0.054265 0.156372 -0.234299
-0.054262001 0.15644801 -0.234302
-0.054258998 0.156524 -0.234294
-0.054257002 0.156598 -0.234284
-0.054253999 0.156674 -0.234282
-0.054251 0.15674999 -0.23428801
-0.054248001 0.156826 -0.234294
-0.054244999 0.1569 -0.234295
-0.054242 0.156976 -0.234295
-0.054239001 0.157052 -0.234295
-0.054235999 0.15712599 -0.23428901
-0.054233 0.15720101 -0.234281
-0.054230001 0.157278 -0.23428801
-0.054226998 0.157354 -0.23429801
-0.054223001 0.15742999 -0.234308
-0.054219998 0.157506 -0.234312
-0.054217 0.157582 -0.23432
-0.054212999 0.157658 -0.23433401
-0.05421 0.15773501 -0.23434401
-0.054205999 0.157811 -0.234357
-0.054203 0.157887 -0.234365
-0.054198999 0.15796299 -0.23437101
-0.054196 0.158039 -0.234385
-0.054191999 0.158116 -0.23440699
-0.054187998 0.15819401 -0.23442701
-0.054184001 0.158271 -0.234441
-0.05418 0.158347 -0.234456
-0.054177001 0.15842301 -0.234464
-0.054173999 0.158499 -0.234464
-0.054171 0.158575 -0.234476
-0.054166 0.158654 -0.234514
-0.054161001 0.158733 -0.23454601
-0.054157 0.15880901 -0.23457199
-0.054152001 0.158888 -0.234604
-0.054148 0.158966 -0.234633
-0.054143 0.159045 -0.234679
-0.054136999 0.159124 -0.234725
-0.054132 0.15920299 -0.234763
-0.054127 0.159284 -0.23481099
-0.054122001 0.159363 -0.23484699
-0.054118 0.15944199 -0.234879
-0.054111999 0.159521 -0.23492301
-0.054106999 0.159602 -0.234969
-0.054102 0.15968101 -0.235011
-0.054095998 0.159762 -0.235065
-0.054090999 0.15984 -0.235103
-0.054086 0.15991899 -0.23514301
-0.054081 0.16 -0.235195
-0.054076001 0.160079 -0.23523299
-0.054071002 0.16016001 -0.235269
-0.054065999 0.160239 -0.235305
-0.054060999 0.16032 -0.235355
-0.054055002 0.160401 -0.23541901
-0.054048002 0.160483 -0.235485
-0.054040998 0.160566 -0.235567
-0.055039998 0.131743 -0.236224
-0.055039 0.131826 -0.236166
-0.055038001 0.131907 -0.236114
-0.055038001 0.131988 -0.23606201
-0.055038001 0.132072 -0.23598801
-0.055036999 0.13215099 -0.235936
-0.055036001 0.132232 -0.235892
-0.055036999 0.13231599 -0.23581199
-0.055036001 0.132395 -0.23576599
-0.055034999 0.132476 -0.23571999
-0.055034 0.132557 -0.23566701
-0.055034 0.13263699 -0.235617
-0.055032998 0.132716 -0.23557299
-0.055031002 0.13279399 -0.235543
-0.055029001 0.132873 -0.235517
-0.055027001 0.13294999 -0.235489
-0.055025999 0.13303 -0.235461
-0.055024002 0.13310701 -0.235439
-0.055022001 0.133184 -0.23541
-0.055020001 0.13326401 -0.23538201
-0.055018999 0.133341 -0.23535401
-0.055016998 0.13342001 -0.23531801
-0.055016 0.13349999 -0.235286
-0.055013999 0.133577 -0.235258
-0.055011999 0.133655 -0.23524
-0.055009 0.13373201 -0.235227
-0.055007 0.13381 -0.235211
-0.055004999 0.133885 -0.235195
-0.055002 0.133963 -0.235181
-0.055 0.134039 -0.235167
-0.054997999 0.13411599 -0.235157
-0.054995 0.134192 -0.235146
-0.054993 0.134268 -0.235138
-0.054990001 0.13434599 -0.235128
-0.054986998 0.13442101 -0.23512
-0.054985002 0.134499 -0.23510601
-0.054983001 0.13457499 -0.235092
-0.054979999 0.13465101 -0.23508701
-0.054977 0.134726 -0.235083
-0.054974999 0.134804 -0.23506901
-0.054972999 0.13488001 -0.235057
-0.05497 0.134956 -0.235053
-0.054967001 0.135032 -0.235045
-0.054965001 0.13510901 -0.235036
-0.054962002 0.135185 -0.23502
-0.054960001 0.135262 -0.235
-0.054958001 0.13533799 -0.23499601
-0.054954 0.13541199 -0.235008
-0.054951001 0.135489 -0.23501199
-0.054947998 0.135564 -0.23500501
-0.054945 0.13564 -0.23500501
-0.054942001 0.13571601 -0.23500501
-0.05494 0.135792 -0.23499499
-0.054937001 0.135868 -0.234983
-0.054935001 0.13594399 -0.23497701
-0.054931998 0.13602 -0.234982
-0.054928999 0.136096 -0.23497801
-0.054926001 0.136171 -0.234974
-0.054923002 0.136246 -0.234982
-0.054919001 0.13632201 -0.234988
-0.054917 0.136398 -0.234984
-0.054914001 0.136473 -0.234983
-0.054910999 0.136547 -0.23498701
-0.054907002 0.136622 -0.235007
-0.054903001 0.136696 -0.235021
-0.054900002 0.13677201 -0.235029
-0.054896001 0.136847 -0.23504201
-0.054892998 0.136921 -0.235052
-0.054889999 0.136997 -0.235052
-0.054887 0.137073 -0.23504999
-0.054885 0.13714799 -0.23504201
-0.054882001 0.137226 -0.235036
-0.054878999 0.1373 -0.235039
-0.054876 0.137374 -0.23504899
-0.054871999 0.13745099 -0.23505899
-0.054869 0.137527 -0.235063
-0.054864999 0.137601 -0.23507699
-0.054861002 0.137675 -0.2351
-0.054859001 0.137751 -0.23508599
-0.054857001 0.13782901 -0.23506001
-0.054854002 0.137905 -0.235066
-0.054850999 0.137979 -0.23507801
-0.054846998 0.138053 -0.23508599
-0.054843999 0.138129 -0.235101
-0.054839998 0.138203 -0.235109
-0.054837 0.13828 -0.235117
-0.054834001 0.138354 -0.235119
-0.054830998 0.138429 -0.235111
-0.054827999 0.138505 -0.235112
-0.054825999 0.13858099 -0.23511
-0.054823 0.138657 -0.235098
-0.054820001 0.138733 -0.235098
-0.054816999 0.138807 -0.23511
-0.054813001 0.13888299 -0.23512401
-0.054809999 0.13895801 -0.23513301
-0.054806001 0.139034 -0.23514099
-0.054802999 0.139108 -0.235149
-0.0548 0.139184 -0.235157
-0.054795999 0.139258 -0.235167
-0.054793 0.13933399 -0.23516899
-0.054790001 0.13941 -0.23517001
-0.054786999 0.139486 -0.23517001
-0.054784998 0.139562 -0.235162
-0.054781999 0.13963801 -0.235148
-0.054779999 0.139713 -0.235136
-0.054777 0.139789 -0.235135
-0.054774001 0.139865 -0.23514301
-0.05477 0.13993999 -0.235157
-0.054767001 0.140016 -0.23515899
-0.054765001 0.140091 -0.23514099
-0.054761998 0.140167 -0.23513301
-0.054760002 0.14024299 -0.23513199
-0.054756999 0.140319 -0.235128
-0.054754 0.140395 -0.235118
-0.054751001 0.140471 -0.235116
-0.054747999 0.14054701 -0.235128
-0.054744001 0.14062101 -0.23514
-0.054742001 0.140697 -0.235137
-0.054738998 0.140773 -0.235129
-0.054736 0.14084899 -0.23513301
-0.054731999 0.14092299 -0.235155
-0.054728001 0.141 -0.23517101
-0.054724999 0.141073 -0.235168
-0.054722 0.141148 -0.23518001
-0.054719001 0.141224 -0.23518801
-0.054715998 0.14129899 -0.235172
-0.054714002 0.141377 -0.235154
-0.054712001 0.141453 -0.23514
-0.054708999 0.141528 -0.235135
-0.054706 0.14160299 -0.235145
-0.054701999 0.141679 -0.235157
-0.054699 0.141755 -0.23516101
-0.054696001 0.141829 -0.23516101
-0.054692999 0.14190499 -0.235163
-0.05469 0.14198101 -0.235164
-0.054687001 0.142055 -0.235166
-0.054683998 0.142131 -0.23517001
-0.054680999 0.142207 -0.235172
-0.054678001 0.14228299 -0.235164
-0.054676 0.142359 -0.235157
-0.054673001 0.142435 -0.235157
-0.054669999 0.14251 -0.235155
-0.054667 0.142584 -0.23515099
-0.054664999 0.14266001 -0.235137
-0.054662 0.142738 -0.235127
-0.054659002 0.142812 -0.235138
-0.054655001 0.14288799 -0.23514999
-0.054652002 0.14296199 -0.23515999
-0.054648999 0.143038 -0.235158
-0.054646 0.143114 -0.235154
-0.054643001 0.14319 -0.23515899
-0.054641001 0.14326601 -0.235153
-0.054639 0.143342 -0.23513301
-0.054637 0.143417 -0.235109
-0.054634001 0.143493 -0.235099
-0.054630999 0.14356899 -0.23510499
-0.054627001 0.14364301 -0.23513199
-0.054623999 0.143719 -0.23513401
-0.054621 0.143795 -0.235126
-0.054618001 0.14387099 -0.23512401
-0.054614998 0.14394499 -0.23512401
-0.054613002 0.144023 -0.235116
-0.054611001 0.144096 -0.235101
-0.054607999 0.144172 -0.235101
-0.054604001 0.14424901 -0.235117
-0.054600999 0.14432301 -0.235117
-0.054598 0.1444 -0.235107
-0.054595999 0.144474 -0.235094
-0.054593999 0.14455 -0.235082
-0.054591 0.14462601 -0.235082
-0.054586999 0.144702 -0.23509599
-0.054584 0.144776 -0.235102
-0.054582 0.144852 -0.23508599
-0.054579999 0.144927 -0.235067
-0.054577 0.14500301 -0.23506901
-0.054572999 0.145079 -0.235075
-0.054570999 0.145155 -0.235071
-0.054568 0.145229 -0.235063
-0.054565001 0.14530499 -0.235064
-0.054561999 0.145381 -0.235072
-0.054559 0.145457 -0.23506799
-0.054556001 0.145533 -0.235062
-0.054552998 0.14560699 -0.235062
-0.054551002 0.14568301 -0.235052
-0.054547999 0.145758 -0.235043
-0.054545 0.145834 -0.23504899
-0.054542001 0.14591099 -0.23505899
-0.054538999 0.14598501 -0.235053
-0.054536998 0.14606 -0.235045
-0.054533999 0.146136 -0.235044
-0.054531001 0.146212 -0.235046
-0.054528002 0.14628799 -0.23503999
-0.054524999 0.14636201 -0.23503
-0.054522999 0.146438 -0.235028
-0.05452 0.146514 -0.235026
-0.054517001 0.146589 -0.235015
-0.054515 0.14666501 -0.235007
-0.054512002 0.14673901 -0.235007
-0.054508999 0.146815 -0.23500299
-0.054506 0.146891 -0.235001
-0.054503001 0.14696699 -0.235002
-0.054499999 0.147043 -0.235002
-0.054497 0.147117 -0.235016
-0.054492999 0.147193 -0.23502199
-0.054490998 0.147269 -0.235006
-0.054489002 0.14734299 -0.23499399
-0.054485999 0.14741801 -0.234991
-0.054483999 0.147494 -0.234979
-0.054481 0.14757 -0.234965
-0.054478001 0.147646 -0.234965
-0.054476 0.14771999 -0.234961
-0.054474 0.14779501 -0.234946
-0.054471001 0.147871 -0.23492999
-0.054469001 0.147947 -0.23492
-0.054466002 0.148022 -0.23491199
-0.054462999 0.148096 -0.234916
-0.054458998 0.148173 -0.234935
-0.054455001 0.148249 -0.234955
-0.054453 0.148323 -0.234951
-0.054451 0.148399 -0.234933
-0.054448001 0.14847501 -0.23493101
-0.054444 0.148551 -0.23494101
-0.054442 0.148625 -0.234938
-0.054439999 0.1487 -0.234914
-0.054437 0.14877599 -0.2349
-0.054434001 0.14885201 -0.2349
-0.054432001 0.148928 -0.23489401
-0.054428998 0.149001 -0.23488501
-0.054426 0.149077 -0.23488501
-0.054423001 0.14915401 -0.234899
-0.054420002 0.14922801 -0.234899
-0.054418001 0.149303 -0.234883
-0.054414999 0.149379 -0.234871
-0.054412 0.149455 -0.234868
-0.054409001 0.14953101 -0.234878
-0.054405998 0.14960501 -0.23488
-0.054404002 0.14968 -0.23485801
-0.054402001 0.149756 -0.234842
-0.054398999 0.14983 -0.234841
-0.054397002 0.14990599 -0.234827
-0.054393999 0.14998101 -0.234817
-0.054391 0.150058 -0.23482899
-0.054386999 0.150132 -0.234837
-0.054384999 0.150208 -0.234828
-0.054382998 0.15028299 -0.23481201
-0.05438 0.150359 -0.2348
-0.054377999 0.150435 -0.23479199
-0.054375 0.150508 -0.234786
-0.054373 0.150584 -0.234778
-0.054370001 0.15065999 -0.234769
-0.054366998 0.15073401 -0.23476499
-0.054365002 0.150809 -0.234749
-0.054363001 0.150885 -0.23472901
-0.054359999 0.150959 -0.23472799
-0.054357 0.151035 -0.234742
-0.054352999 0.15111201 -0.23476
-0.05435 0.151187 -0.23475599
-0.054347999 0.151261 -0.234742
-0.054345001 0.151337 -0.234742
-0.054342002 0.15141299 -0.234745
-0.054338999 0.15148699 -0.234741
-0.054336 0.151563 -0.234735
-0.054334 0.151639 -0.23472901
-0.054331999 0.151712 -0.234707
-0.054329999 0.151787 -0.23468
-0.054327 0.15186299 -0.234676
-0.054324001 0.151939 -0.23468401
-0.054320998 0.152014 -0.234686
-0.054318 0.152089 -0.23468
-0.054315999 0.152165 -0.234666
-0.054313 0.15223899 -0.23466299
-0.054311 0.15231501 -0.234657
-0.054308001 0.15238801 -0.23464701
-0.054306 0.152464 -0.234641
-0.054303002 0.15254 -0.234635
-0.054301001 0.152614 -0.234626
-0.054297999 0.15268999 -0.234624
-0.054295 0.152766 -0.23462
-0.054292001 0.15284 -0.234616
-0.05429 0.152915 -0.23460799
-0.054287001 0.152991 -0.23460101
-0.054283999 0.15306699 -0.234597
-0.054281998 0.15314101 -0.234589
-0.054280002 0.153216 -0.23457099
-0.054276999 0.15329 -0.234567
-0.054273002 0.153367 -0.234588
-0.054269001 0.15344299 -0.23459999
-0.054267999 0.15351801 -0.234576
-0.054267 0.15359101 -0.23453601
-0.054264002 0.153667 -0.23452801
-0.054260001 0.153741 -0.234543
-0.054257002 0.153818 -0.234547
-0.054255001 0.15389299 -0.234531
-0.054253001 0.15396699 -0.234519
-0.054249998 0.154043 -0.234513
-0.054248001 0.154116 -0.234506
-0.054244999 0.154192 -0.23450001
-0.054242998 0.154268 -0.234484
-0.05424 0.154342 -0.23447201
-0.054237999 0.15441699 -0.234464
-0.054235 0.15449101 -0.234459
-0.054232001 0.154567 -0.234457
-0.054230001 0.154643 -0.234451
-0.054226998 0.154717 -0.23444501
-0.054223999 0.15479299 -0.234439
-0.054221999 0.154866 -0.234428
-0.054219998 0.15494201 -0.234418
-0.054217 0.155018 -0.23440599
-0.054214999 0.155091 -0.23439001
-0.054212 0.155167 -0.234382
-0.05421 0.155241 -0.234373
-0.054207999 0.15531699 -0.23436099
-0.054205 0.15538999 -0.234349
-0.054202002 0.15546601 -0.234349
-0.054198999 0.155542 -0.23435099
-0.054196 0.155616 -0.23435301
-0.054194 0.155692 -0.23434199
-0.054191999 0.155766 -0.23432399
-0.054189 0.15584201 -0.234322
-0.054187 0.15591501 -0.234308
-0.054184999 0.15598901 -0.23428699
-0.054180998 0.156067 -0.234295
-0.054179002 0.156141 -0.234291
-0.054177999 0.156214 -0.234253
-0.054175999 0.156287 -0.234235
-0.054171 0.15636601 -0.23426101
-0.054168001 0.156442 -0.234274
-0.054166 0.156516 -0.234246
-0.054164 0.156589 -0.234228
-0.054161001 0.156665 -0.234226
-0.054157998 0.15674099 -0.23423401
-0.054154001 0.156817 -0.234245
-0.054150999 0.156894 -0.234255
-0.054148 0.156968 -0.234255
-0.054145001 0.157043 -0.234249
-0.054143 0.15711901 -0.234247
-0.054138999 0.157195 -0.234253
-0.054136001 0.157272 -0.23426799
-0.054132 0.157346 -0.234276
-0.054129001 0.157424 -0.234284
-0.054125 0.157498 -0.23429801
-0.054122001 0.15757599 -0.23430599
-0.054118998 0.15765101 -0.23431399
-0.054115001 0.157727 -0.234331
-0.054111 0.157805 -0.234339
-0.054108001 0.15787899 -0.234345
-0.054104999 0.157957 -0.234357
-0.054101001 0.158034 -0.234365
-0.054097999 0.158107 -0.234365
-0.054095 0.158186 -0.234375
-0.054090999 0.158262 -0.234392
-0.054087002 0.158338 -0.23440599
-0.054083999 0.158415 -0.234422
-0.054079998 0.158491 -0.234438
-0.054076001 0.15856899 -0.23446199
-0.054071002 0.158648 -0.234504
-0.054065999 0.15872701 -0.234532
-0.054062001 0.158803 -0.234556
-0.054058 0.15888201 -0.234589
-0.054051999 0.158961 -0.234635
-0.054048002 0.15904 -0.23466501
-0.054042999 0.159118 -0.234695
-0.054037999 0.159197 -0.234735
-0.054033 0.15927599 -0.23477501
-0.054028001 0.159355 -0.234815
-0.054024 0.15943401 -0.234851
-0.054017998 0.15951499 -0.23489299
-0.054012999 0.159593 -0.234933
-0.054009002 0.15967201 -0.234971
-0.054003 0.159751 -0.235017
-0.053998001 0.159832 -0.23506901
-0.053993002 0.15991101 -0.235109
-0.053987999 0.15999 -0.235139
-0.053982999 0.160069 -0.235177
-0.053978 0.16015001 -0.235223
-0.053971998 0.16023099 -0.23527899
-0.053966001 0.160312 -0.23534299
-0.053959999 0.160394 -0.235403
-0.053954002 0.160477 -0.235467
-0.053946 0.160561 -0.235561
-0.054946002 0.13166 -0.236286
-0.054947 0.131743 -0.236214
-0.054946002 0.131823 -0.23616
-0.054946002 0.131906 -0.236094
-0.054947 0.13199 -0.23601501
-0.054946002 0.132071 -0.235957
-0.054945 0.13214999 -0.235919
-0.054942999 0.132231 -0.23588499
-0.054942001 0.13230801 -0.23584899
-0.054940999 0.13238899 -0.235801
-0.054940999 0.13247199 -0.23573899
-0.05494 0.132551 -0.23569299
-0.05494 0.132635 -0.235613
-0.054939002 0.132714 -0.23557501
-0.054937001 0.132791 -0.23555
-0.054935999 0.132871 -0.235514
-0.054935001 0.13294999 -0.235476
-0.054933 0.133029 -0.23545
-0.054931998 0.133108 -0.23539799
-0.054930001 0.133187 -0.23537
-0.054928001 0.133265 -0.23535
-0.054926001 0.133342 -0.235331
-0.054924 0.13342001 -0.235309
-0.054922 0.133497 -0.235287
-0.054921001 0.13357501 -0.235259
-0.054919001 0.133654 -0.235231
-0.054917 0.13372999 -0.23521499
-0.054914001 0.133807 -0.235201
-0.054912001 0.133885 -0.235186
-0.05491 0.13396201 -0.235156
-0.054908998 0.134039 -0.235126
-0.054905999 0.134115 -0.23512
-0.054903001 0.13419101 -0.235122
-0.054900002 0.134267 -0.235118
-0.054896999 0.134343 -0.23511299
-0.054894999 0.13442101 -0.235099
-0.054892998 0.134496 -0.23508701
-0.054889999 0.134574 -0.235083
-0.054887 0.134648 -0.235083
-0.054884002 0.13472401 -0.235075
-0.054882001 0.134802 -0.235066
-0.054878999 0.13487799 -0.235064
-0.054876 0.13495301 -0.235054
-0.054873999 0.135031 -0.23504201
-0.054871 0.135107 -0.235034
-0.054869 0.13518301 -0.235026
-0.054866001 0.135258 -0.235017
-0.054862998 0.135334 -0.23501299
-0.05486 0.13541 -0.235015
-0.054857999 0.135484 -0.235015
-0.054855 0.135562 -0.235011
-0.054852001 0.135638 -0.23500299
-0.054848999 0.13571399 -0.235
-0.054846998 0.13579001 -0.23499
-0.054843999 0.135865 -0.23498
-0.054841001 0.135941 -0.23499
-0.054837 0.136016 -0.235002
