-0.0196161 0.164066 0.986254 0.00878673
-0.0159642 0.181395 0.983281 0.0151285
-0.0080981 0.216725 0.976199 0.0286964
-0.00203077 0.238518 0.971136 0.0293635
0.00179713 0.254484 0.967075 0.0301338
0.00946061 0.282363 0.959261 0.037007
0.0124547 0.291252 0.956565 0.0416177
0.0125389 0.297118 0.954758 0.0465487
0.017868 0.30944 0.950751 0.0475715
0.0156731 0.300961 0.953508 0.0433936
0.0229232 0.320403 0.947004 0.0427456
0.0352559 0.357389 0.93329 0.0430196
0.0328423 0.355488 0.934104 0.0395698
0.038199 0.36903 0.928632 0.0356829
-0.0095317 -0.210002 0.977655 0
-0.00952107 -0.209129 0.977842 0
-0.0114859 -0.206638 0.97835 0
-0.00853055 -0.213408 0.976926 0
-0.00682577 -0.217025 0.976142 0
-0.0137819 -0.200246 0.979649 0
-0.0164802 -0.196036 0.980458 0
-0.0184125 -0.180939 0.983322 0
-0.0157693 -0.188024 0.982038 0
-0.0173405 -0.183487 0.982869 0
-0.0168453 -0.185843 0.982435 0
-0.0148262 -0.193766 0.980936 0
-0.00906854 -0.202562 0.979227 0
-0.0106539 -0.195934 0.980559 0
-0.0109765 -0.192401 0.981255 0
-0.0120359 -0.1931 0.981105 0
-0.0158174 -0.183615 0.982871 0.00172157
-0.0166953 -0.185994 0.982409 0.0062696
-0.0227963 -0.165557 0.985937 0.00911598
-0.0222389 -0.163002 0.986375 0.00888893
-0.0222424 -0.164447 0.986135 0.00626608
-0.0264495 -0.16192 0.986449 0.0155183
-0.0279104 -0.160639 0.986619 0.0107534
-0.0327912 -0.146117 0.988724 0.0165089
-0.031328 -0.149968 0.988194 0.0155988
-0.0331037 -0.146394 0.988672 0.0173314
-0.0339732 -0.14211 0.989268 0.0192824
-0.0337552 -0.144888 0.988872 0.0123321
-0.0331985 -0.144307 0.988976 0.0122195
-0.0360175 -0.13515 0.99017 0.0159629
-0.0394719 -0.128299 0.99095 0.0210455
-0.0434675 -0.120431 0.99177 0.0272532
-0.0439388 -0.116507 0.992217 0.0262446
-0.0417226 -0.111588 0.992878 0.02632
-0.0403711 -0.105649 0.993584 0.0256511
-0.0376969 -0.109823 0.993236 0.0140585
-0.0394062 -0.100973 0.994108 0.0118771
-0.0400594 -0.100036 0.994177 0.0101347
-0.0394695 -0.101417 0.994061 0.00860353
-0.0393849 -0.101948 0.99401 0.00853124
-0.0410641 -0.0940428 0.994721 0.00579222
-0.0414739 -0.0877721 0.995277 0.00526731
-0.0407247 -0.0943837 0.994703 0
-0.0414219 -0.0983054 0.994294 0
-0.0445423 -0.0880459 0.99512 0
-0.043816 -0.0848996 0.995426 0
-0.0439482 -0.0851131 0.995402 0
-0.0460739 -0.0780999 0.99588 0
-0.0471419 -0.074012 0.996143 0
-0.0471103 -0.0754433 0.996037 0
-0.048104 -0.0727377 0.99619 0
-0.0491826 -0.0716929 0.996213 0
-0.0512744 -0.0672708 0.996416 0
-0.0524286 -0.0622633 0.996682 0
-0.0537183 -0.0523222 0.997184 0.00339121
-0.0564217 -0.051204 0.997093 0.0107263
-0.0556343 -0.0563016 0.996863 0.00876407
-0.0556947 -0.0522299 0.997081 0.00150746
-0.0582694 -0.0486734 0.997114 0.00562098
-0.0627816 -0.0410144 0.997184 0.00805614
-0.0650632 -0.04782 0.996735 0.0125182
-0.0668173 -0.0474772 0.996635 0.0120268
-0.0725919 -0.0349618 0.996749 0.019237
-0.0757181 -0.0307924 0.996654 0.0240645
-0.0778022 -0.0262984 0.996622 0.0265645
-0.0798304 -0.0174314 0.996656 0.0294508
-0.0856724 -0.0155182 0.996202 0.0389262
-0.0865166 -0.0103 0.996197 0.0424352
-0.0866895 -0.012924 0.996152 0.0431959
-0.0880111 -0.0252412 0.9958 0.0430651
-0.0900155 -0.0165289 0.995803 0.0396089
-0.093104 -0.0204584 0.995446 0.0390975
-0.0961438 -0.0110269 0.995306 0.0397949
-0.0961317 -0.00839886 0.995333 0.036261
-0.0984933 -0.00539306 0.995123 0.0344605
-0.101881 -0.0040364 0.994788 0.0374159
-0.101801 -0.00114496 0.994804 0.0382417
-0.101158 0.000227238 0.99487 0.0387739
-0.0992315 0.00964303 0.995018 0.0336271
-0.0988641 0.0158151 0.994975 0.0360145
-0.102314 0.029169 0.994324 0.0430969
-0.103907 0.0297728 0.994141 0.0416042
-0.106092 0.0316709 0.993852 0.0398615
-0.111292 0.0300002 0.993335 0.0421369
-0.113032 0.0232324 0.99332 0.0425475
-0.113915 0.0219252 0.993249 0.0450207
-0.116493 0.0230583 0.992924 0.0497966
-0.119604 0.0351771 0.992198 0.0543991
-0.12345 0.049957 0.991093 0.05752
-0.127079 0.0501207 0.990626 0.0604401
-0.125877 0.0474046 0.990913 0.0587851
-0.124013 0.0457882 0.991224 0.0573519
-0.123505 0.0561043 0.990757 0.0542998
-0.12477 0.0505176 0.990899 0.053562
-0.125664 0.0467818 0.990969 0.0523623
-0.125255 0.0484493 0.990941 0.0508502
-0.125292 0.052766 0.990716 0.0512263
-0.123578 0.0476232 0.991192 0.0481904
-0.12002 0.0372437 0.992073 0.0414035
-0.116127 0.0380586 0.992505 0.0317733
-0.115394 0.0333521 0.99276 0.0272932
-0.113015 0.0331362 0.993041 0.021937
-0.111631 0.0234713 0.993473 0.0184587
-0.109517 0.0219116 0.993743 0.010907
-0.108023 0.0193332 0.99396 0.00246866
-0.106157 0.0133479 0.99426 0
-0.105043 0.00748364 0.99444 0
-0.104083 4.41823e-05 0.994569 0
-0.10232 -0.00173748 0.99475 0
-0.100689 -0.00321492 0.994913 0
-0.100235 -0.00709682 0.994938 0
-0.0997058 -0.00783287 0.994986 0
-0.0991426 -0.00894807 0.995033 0
-0.101765 -0.000105454 0.994808 0
-0.102319 -0.00454724 0.994741 0
-0.102804 -0.0192734 0.994515 0
-0.104679 -0.0101232 0.994455 0
-0.103952 -0.0137879 0.994487 0
-0.102162 -0.0117914 0.994698 0
-0.100944 -0.0182006 0.994726 0
-0.0999621 -0.0166749 0.994851 0
-0.100435 -0.0213106 0.994715 0
-0.100842 -0.0219425 0.99466 0
-0.101278 -0.020219 0.994653 0
-0.103613 -0.0209193 0.994398 0
-0.106136 -0.0125583 0.994272 0
-0.108132 -0.0126782 0.994056 0
-0.109378 -0.0116091 0.993932 0
-0.110698 -0.0165319 0.993717 0
-0.109957 -0.0128565 0.993853 0
-0.109014 -0.0163526 0.993906 0
-0.108879 -0.0152389 0.993938 0
-0.110626 -0.00675559 0.993839 0
-0.111288 -0.00567628 0.993772 0
-0.112561 0.00192279 0.993643 0
-0.113467 -0.00174315 0.99354 0
-0.117049 -0.00280552 0.993122 0.000415619
-0.118206 -0.00698922 0.992965 0
-0.120515 -0.00174602 0.99271 0.00379607
-0.118781 0.00403537 0.992912 0.00340766
-0.115364 0.00257886 0.99332 0
-0.116142 0.0100265 0.993182 0.00227093
-0.117193 0.00908504 0.993068 0.00499371
-0.117584 0.0100428 0.993012 0.00897771
-0.121249 0.00613012 0.992603 0.0151759
-0.127123 0.00844152 0.991851 0.0247641
-0.130036 0.0095081 0.991464 0.0282616
-0.130914 0.00843712 0.991358 0.028837
-0.131475 0.00852746 0.991283 0.0278629
-0.131086 0.0153138 0.991253 0.0260042
-0.128324 0.0160254 0.991603 0.0218444
-0.124194 0.0133535 0.992168 0.0175789
-0.123807 0.014781 0.992196 0.0173121
-0.123583 0.0101896 0.992282 0.0154623
-0.126224 0.0150214 0.991888 0.0200214
-0.1281 0.0118647 0.99169 0.0231579
-0.12897 0.0173745 0.991496 0.0236493
-0.130482 0.0171802 0.991302 0.025639
-0.13056 0.0188996 0.99126 0.0248532
-0.130781 0.015146 0.991296 0.0262257
-0.131279 0.00779168 0.991315 0.0281891
-0.129058 0.00967205 0.99159 0.027577
-0.126607 0.00529441 0.991939 0.0262202
-0.124449 0.0118757 0.992155 0.0236511
-0.123501 0.00549208 0.992329 0.0248319
-0.121912 0.00463906 0.99253 0.0189758
-0.123159 0.00786671 0.992356 0.0197234
-0.125649 -0.00102431 0.992074 0.0213207
-0.124779 -0.00185138 0.992183 0.0227838
-0.1235 -0.00908928 0.992303 0.0230697
-0.12693 -0.000677339 0.991911 0.0249472
-0.129916 -0.00436358 0.991515 0.027125
-0.131553 -0.0037659 0.991302 0.0297389
-0.135251 -0.00241931 0.990808 0.0391733
-0.138159 0.00529537 0.990396 0.0435953
-0.141383 0.0149101 0.989843 0.0446565
-0.143442 0.0203809 0.989449 0.0456242
-0.141621 0.013139 0.989834 0.0419395
-0.140637 0.010125 0.990009 0.0393868
-0.141415 0.0061173 0.989931 0.0395206
-0.140033 0.00768831 0.990117 0.0364322
-0.141184 0.00258105 0.98998 0.0369492
-0.138947 0.00197754 0.990298 0.0336108
-0.139078 0.00525198 0.990268 0.0343818
-0.139079 -0.000599608 0.990281 0.0357826
-0.137155 -5.00188e-05 0.99055 0.0348506
-0.133165 -0.0104325 0.991039 0.0332335
-0.130599 -0.00952094 0.99139 0.0301208
-0.128669 -0.00960039 0.991641 0.0275863
-0.125851 -0.0165749 0.991911 0.0240667
-0.128386 -0.0162718 0.991591 0.0282941
-0.12925 -0.0225518 0.991356 0.0267008
-0.130891 -0.0175343 0.991242 0.0286084
-0.133011 -0.0074475 0.991087 0.0309744
-0.131065 -0.0134468 0.991283 0.0308022
-0.132337 -0.0195546 0.991012 0.035202
-0.131557 -0.0155036 0.991187 0.0371366
-0.132676 -0.0164045 0.991024 0.0444878
-0.130682 -0.0243242 0.991126 0.0395062
-0.132085 -0.0275448 0.990856 0.0389904
-0.132852 -0.0242886 0.990838 0.0360899
-0.128544 -0.0260805 0.991361 0.0284818
-0.126477 -0.03461 0.991365 0.0220203
-0.12309 -0.043388 0.991447 0.0165852
-0.123059 -0.0427612 0.991478 0.0181794
-0.122641 -0.0407646 0.991614 0.0194077
-0.118287 -0.0470388 0.991865 0.0153866
-0.117127 -0.0510699 0.991803 0.0142912
-0.116947 -0.0553611 0.991594 0.0136375
-0.11856 -0.0528859 0.991538 0.0157196
-0.116766 -0.0631899 0.991147 0.0127459
-0.114022 -0.0678795 0.991157 0.00815304
-0.1142 -0.0690235 0.991057 0.00781802
-0.114147 -0.0592558 0.991695 0.00811018
-0.114618 -0.0553125 0.991869 0.00896285
-0.119722 -0.0583376 0.991092 0.0174551
-0.122245 -0.053474 0.991058 0.0254198
-0.122317 -0.0615055 0.990584 0.0277063
-0.123044 -0.0566974 0.99078 0.0316805
-0.121523 -0.0559795 0.991009 0.0302368
-0.120585 -0.0569243 0.99107 0.0264017
-0.118294 -0.0643432 0.990892 0.0190632
-0.119665 -0.0600411 0.990997 0.0232554
-0.120253 -0.0617135 0.990823 0.0210243
-0.122158 -0.0594004 0.990732 0.0201336
-0.125651 -0.0620737 0.990131 0.0207714
-0.126826 -0.04565 0.990874 0.0244811
-0.128318 -0.0427033 0.990813 0.0290856
-0.126209 -0.0472176 0.990879 0.027054
-0.126214 -0.0473726 0.990871 0.0304379
-0.129968 -0.0418577 0.990634 0.0353017
-0.130346 -0.0420113 0.990578 0.0348667
-0.13189 -0.0449392 0.990245 0.0344641
-0.131208 -0.0518741 0.989997 0.0327602
-0.130273 -0.0498619 0.990224 0.0347229
-0.130602 -0.0355425 0.990798 0.0402392
-0.13176 -0.0381229 0.990548 0.0446617
-0.128052 -0.0406151 0.990935 0.0404974
-0.125857 -0.0423099 0.991146 0.0398692
-0.126253 -0.0379636 0.991271 0.0425215
-0.126505 -0.0326962 0.991427 0.0428988
-0.12698 -0.0396625 0.991112 0.0447682
-0.127742 -0.036146 0.991148 0.0464493
-0.125956 -0.0446572 0.99103 0.0446498
-0.12465 -0.0425523 0.991288 0.0445215
-0.119021 -0.0496929 0.991647 0.0402165
-0.114158 -0.0491589 0.992246 0.0357025
-0.115104 -0.0442248 0.992369 0.039481
-0.112833 -0.0461419 0.992542 0.0357027
-0.111518 -0.0510762 0.992449 0.0311234
-0.110318 -0.0590401 0.992141 0.0293814
-0.108965 -0.0619747 0.992112 0.0269114
-0.109692 -0.061285 0.992074 0.0282752
-0.106274 -0.0489975 0.993129 0.0231931
-0.0995358 -0.0639418 0.992977 0.0115823
-0.0938409 -0.0644149 0.993501 0.00452826
-0.0898343 -0.0639143 0.993904 0
-0.087284 -0.0670844 0.993922 0
-0.0875654 -0.0661082 0.993963 0
-0.0880508 -0.0614029 0.994222 0
-0.0880673 -0.0569967 0.994483 0
-0.0882431 -0.0443559 0.995111 0
-0.0882251 -0.0383282 0.995363 0.000146658
-0.086587 -0.0372404 0.995548 0.00128845
-0.084342 -0.0323582 0.995911 0.00254163
-0.0847269 -0.026849 0.996042 0.00536021
-0.0845623 -0.0211042 0.996195 0.0041533
-0.0829096 -0.0292221 0.996129 0.00173669
-0.0822515 -0.0327787 0.996072 0.000880974
-0.0817413 -0.0252312 0.996334 0.00210768
-0.0794961 -0.0317549 0.996329 0.00393794
-0.0783702 -0.032932 0.99638 0.00428175
-0.0768477 -0.0296679 0.996601 0.00619814
-0.0751755 -0.0249887 0.996857 0.00940246
-0.0730146 -0.0229362 0.997067 0.00882648
-0.0703446 -0.0228062 0.997262 0.00670687
-0.0700595 -0.0186978 0.997368 0.00538671
-0.0702743 -0.0205933 0.997315 0.00478781
-0.0681505 -0.0180296 0.997512 0.00467818
-0.0643078 -0.0190525 0.997748 0
-0.0610147 -0.0300781 0.997684 0
-0.0597743 -0.0263641 0.997864 0.0042355
-0.0605216 -0.021844 0.997928 0.00866964
-0.0603462 -0.0211536 0.997953 0.00926354
-0.0588297 -0.0236196 0.997989 0.00897731
-0.0562158 -0.0142197 0.998317 0.00617201
-0.0562232 -0.0085593 0.998381 0.00794589
-0.0550139 0.00555159 0.99847 0.00671193
-0.0549954 0.00421068 0.998478 0.00743237
-0.0550216 0.0037622 0.998478 0.0065163
-0.0536337 0.00809007 0.998528 0.00502614
-0.0507631 0.00863344 0.998673 0.00223507
-0.0491243 0.0098665 0.998744 0.00582123
-0.0470048 0.00554931 0.998879 0.00137584
-0.0443232 0.00452835 0.999007 0
-0.0440192 0.0092223 0.998988 0
-0.0396189 0.0239844 0.998927 0
-0.040331 0.0235461 0.998909 0
-0.0390647 0.0209444 0.999017 0
-0.0398155 0.0252017 0.998889 0
-0.0382746 0.0323083 0.998745 0
-0.0383699 0.0299633 0.998814 0
-0.0389109 0.0205716 0.999031 0
-0.0387336 0.0258224 0.998916 0
-0.0376691 0.0288014 0.998875 0
-0.0374124 0.0369419 0.998617 0
-0.0355072 0.047887 0.998221 0
-0.0346591 0.0414629 0.998539 0
-0.0347835 0.052296 0.998026 0
-0.034085 0.0593176 0.997657 0.00465228
-0.035323 0.0594742 0.997605 0.00538789
-0.0338455 0.0587211 0.997701 0
-0.035987 0.0559039 0.997787 0
-0.0348892 0.0581697 0.997697 0
-0.0348451 0.0615228 0.997497 0
-0.0339289 0.0636711 0.997394 0
-0.0323974 0.0616838 0.99757 0
-0.0295909 0.0691702 0.997166 0
-0.0290506 0.0741366 0.996825 0
-0.0266768 0.0862376 0.995917 0
-0.0268946 0.0881759 0.995742 0
-0.0277109 0.0841796 0.996065 0
-0.0276303 0.0933716 0.995248 0
-0.0286748 0.0984383 0.99473 0
-0.0275229 0.101739 0.99443 0
-0.0216636 0.119533 0.992594 0
-0.0216473 0.123977 0.992049 0
-0.0178245 0.132822 0.990979 0
-0.0170467 0.136264 0.990526 0
-0.0189927 0.126117 0.991834 0
-0.0216007 0.118368 0.992735 0
-0.0234507 0.107017 0.993981 0
-0.02342 0.109195 0.993744 0
-0.0207383 0.123929 0.992074 0
-0.0193492 0.126869 0.991731 0
-0.0209819 0.135871 0.990504 0
-0.0203698 0.144351 0.989317 0.0010067
-0.0111298 0.183428 0.98297 0.0135659
-0.00579177 0.210625 0.97755 0.0236511
0.00295546 0.240817 0.970566 0.031836
0.00889457 0.261782 0.965086 0.0320682
0.0134955 0.27684 0.960821 0.0320696
0.0103224 0.274833 0.961437 0.0369797
0.0146994 0.291469 0.956467 0.0420279
0.0225904 0.306344 0.951653 0.0380073
0.020039 0.300143 0.953684 0.0369158
0.0257752 0.314194 0.949009 0.0354644
0.0294068 0.325934 0.944935 0.0368164
0.032078 0.331095 0.943052 0.0307116
0.00237936 -0.221804 0.975088 0.00178374
0.00356618 -0.224691 0.974424 0
0.00109003 -0.220613 0.975361 0
-0.00154008 -0.213923 0.976849 0.000467196
-0.00811152 -0.198194 0.980129 0.00157856
-0.00436419 -0.206716 0.978391 0.00360027
-0.00610201 -0.202355 0.979293 0.0063879
-0.00899705 -0.187694 0.982186 0.00357061
-0.0104148 -0.183613 0.982943 0.0031484
-0.00718916 -0.189462 0.981862 0
-0.00850017 -0.188233 0.982088 0
-0.00771701 -0.188238 0.982093 0.0044651
-0.00980984 -0.183995 0.982878 0.00011449
-0.0102199 -0.181287 0.983377 0.00429368
-0.0112087 -0.174268 0.984634 0.00636669
-0.00959771 -0.177368 0.984098 0.00343233
-0.0093284 -0.179717 0.983674 0
-0.0065707 -0.181369 0.983393 0
-0.0117158 -0.168996 0.985547 0
-0.0131652 -0.162398 0.986638 0
-0.0163146 -0.155715 0.987667 0.00506023
-0.0145874 -0.15697 0.987496 0
-0.0170284 -0.146775 0.989023 0.00444169
-0.0193586 -0.144321 0.989342 0.00347912
-0.0216192 -0.13996 0.989921 0.00516476
-0.0249799 -0.132762 0.990833 0.0139398
-0.0218748 -0.133704 0.99078 0.0157037
-0.0236634 -0.127214 0.991593 0.0129462
-0.0233604 -0.123504 0.992069 0.00846848
-0.0245354 -0.121257 0.992318 0.00345518
-0.0223147 -0.121623 0.992325 0
-0.0221917 -0.117625 0.99281 0
-0.0216414 -0.1138 0.993268 0
-0.0230012 -0.111381 0.993512 0
-0.0238832 -0.109476 0.993703 0
-0.0276563 -0.101294 0.994472 0
-0.0307845 -0.0932081 0.995171 0.00197287
-0.0333262 -0.0908028 0.995311 0.00510096
-0.0363659 -0.0859897 0.995632 0.00367226
-0.0366163 -0.0824309 0.995924 0.000602751
-0.0387657 -0.0765126 0.996315 0
-0.0376399 -0.0746299 0.996501 0
-0.0367563 -0.074808 0.99652 0
-0.0372931 -0.0750515 0.996482 0
-0.0380386 -0.0685917 0.996919 0
-0.0414784 -0.0634932 0.99712 0.00417831
-0.0448872 -0.0562247 0.997409 0.00890317
-0.0465589 -0.0524463 0.997538 0.0124831
-0.046907 -0.051871 0.997552 0.0111728
-0.047397 -0.0531442 0.997461 0.0137262
-0.0491419 -0.0464015 0.997713 0.0177904
-0.0474413 -0.0531972 0.997456 0.0157485
-0.0529832 -0.0454696 0.99756 0.0242656
-0.0552063 -0.0480474 0.997318 0.0260904
-0.056826 -0.0462651 0.997312 0.0299346
-0.0596474 -0.0423933 0.997319 0.0334591
-0.0613962 -0.0339762 0.997535 0.0318297
-0.0637153 -0.0343285 0.997378 0.0307868
-0.0655022 -0.0347954 0.997246 0.0320984
-0.0672437 -0.0357442 0.997096 0.0332207
-0.0668513 -0.046181 0.996694 0.0284521
-0.0674496 -0.0380253 0.996998 0.0270886
-0.0678145 -0.0412656 0.996844 0.0270081
-0.068907 -0.0446678 0.996623 0.0222981
-0.0696152 -0.0379464 0.996852 0.0179698
-0.0689361 -0.0359134 0.996974 0.0121214
-0.0705134 -0.039396 0.996733 0.0097975
-0.0739892 -0.0302951 0.996799 0.0114613
-0.0779796 -0.0239626 0.996667 0.0155194
-0.0793437 -0.029238 0.996418 0.0190083
-0.0827869 -0.026831 0.996206 0.0248213
-0.0854393 -0.0171171 0.996196 0.0318955
-0.0882847 -0.00727829 0.996069 0.0364032
-0.0906248 6.68691e-05 0.995885 0.036792
-0.0915431 -0.00671717 0.995779 0.0369873
-0.0930971 -0.00155039 0.995656 0.0382039
-0.0949035 0.00324532 0.995481 0.0388067
-0.0943496 0.00935204 0.995495 0.0363139
-0.0969066 0.010952 0.995233 0.039615
-0.0989823 0.0113049 0.995025 0.0385543
-0.0969722 0.0178544 0.995127 0.0303272
-0.0985635 0.014001 0.995032 0.0291822
-0.100788 0.0157777 0.994783 0.0317716
-0.104167 0.0171026 0.994413 0.0339413
-0.105817 0.0237066 0.994103 0.0368379
-0.108925 0.0370087 0.993361 0.0439538
-0.110147 0.0400249 0.993109 0.0482441
-0.107298 0.0459401 0.993165 0.0429579
-0.10635 0.0317999 0.99382 0.0413168
-0.106838 0.0370004 0.993588 0.0414828
-0.108518 0.0221933 0.993847 0.0388815
-0.110002 0.0250426 0.993616 0.0358458
-0.107555 0.0267116 0.99384 0.0305736
-0.103817 0.0225505 0.994341 0.0190221
-0.100855 0.0145313 0.994795 0.010201
-0.0984143 0.00800222 0.995113 0.00346882
-0.0965743 0.00835206 0.995291 0
-0.0957932 -0.00874351 0.995363 0
-0.092733 -0.00664202 0.995669 0
-0.0915779 -0.00890216 0.995758 0
-0.0910252 -0.00928395 0.995805 0
-0.0903576 -0.0164849 0.995773 0
-0.0916013 -0.0266701 0.995439 0
-0.0938212 -0.0151056 0.995474 0
-0.0958095 -0.0174213 0.995247 0
-0.0962577 -0.0119449 0.995285 0
-0.0958525 -0.01796 0.995233 0
-0.0949665 -0.0207108 0.995265 0
-0.0944093 -0.0123589 0.995457 0
-0.0961457 -0.0116647 0.995299 0
-0.0974576 -0.00926541 0.995197 0
-0.0980583 -0.0180876 0.995016 0
-0.0981907 -0.0174102 0.995015 0
-0.100835 -0.0130491 0.994818 0
-0.0998062 -0.0121115 0.994933 0
-0.0994706 -0.0179573 0.994878 0
-0.0994416 -0.0111937 0.99498 0
-0.0989253 -0.0130448 0.995009 0
-0.0996288 -0.0139556 0.994927 0
-0.100758 -0.0130115 0.994826 0
-0.101093 -0.01944 0.994687 0
-0.102661 -0.0151242 0.994601 0
-0.104044 -0.0169649 0.994428 0
-0.106109 -0.0109481 0.994294 0
-0.107805 -0.00483561 0.99416 0
-0.107542 -0.00658508 0.994179 0
-0.10774 -0.00487959 0.994167 0
-0.109178 -0.00694946 0.993998 0
-0.110023 -0.00759665 0.9939 0
-0.110597 0.000947837 0.993865 0
-0.10926 -0.00309699 0.994008 0
-0.110615 0.00131517 0.993862 0
-0.112635 -0.000709166 0.993636 0
-0.115711 0.00212646 0.993281 0.00214048
-0.115592 0.00565812 0.993281 0.00171854
-0.117055 0.00610731 0.993107 0.0058263
-0.119116 0.0129345 0.992796 0.0129231
-0.121328 0.0126453 0.992532 0.0170953
-0.122797 0.0210065 0.992209 0.0213726
-0.12376 0.0151997 0.992196 0.0236452
-0.12184 0.0121782 0.992475 0.0205639
-0.120749 0.0177692 0.992524 0.0211731
-0.122771 0.00736196 0.992408 0.0213777
-0.120557 0.0082257 0.992672 0.0139353
-0.11876 0.000940955 0.992923 0.00802437
-0.119688 0.00534272 0.992797 0.0073045
-0.120729 0.0118516 0.992615 0.00876875
-0.121933 0.0109802 0.992478 0.0110557
-0.121507 0.006601 0.992569 0.00851698
-0.119187 0.00138459 0.992871 0.00761901
-0.119189 0.00818145 0.992838 0.0098141
-0.120333 0.0059015 0.992716 0.0154707
-0.121644 0.00713374 0.992548 0.0188553
-0.121221 0.00327522 0.99262 0.0190879
-0.123094 0.00161742 0.992394 0.0191764
-0.125806 0.00869695 0.992017 0.0214321
-0.127929 0.00461039 0.991773 0.0249277
-0.129575 0.00495592 0.991557 0.028179
-0.130612 0.00645392 0.991413 0.0322277
-0.128602 0.00717189 0.99167 0.0294066
-0.128978 0.0060754 0.991629 0.0308407
-0.126324 0.00244934 0.991986 0.0299785
-0.124785 0.0031053 0.992179 0.0321788
-0.125183 0.0019364 0.992132 0.0352187
-0.127931 0.00764147 0.991754 0.0360756
-0.133523 0.00791089 0.991014 0.039982
-0.136002 0.00269755 0.990705 0.038443
-0.138304 0.00829528 0.990355 0.0402939
-0.137243 0.00440999 0.990528 0.039368
-0.137123 0.00445109 0.990544 0.039897
-0.135048 0.00424946 0.99083 0.036183
-0.131621 -0.0015426 0.991299 0.0272271
-0.129745 0.00375688 0.99154 0.0232955
-0.126831 -0.000217543 0.991924 0.0199273
-0.122714 -0.00421519 0.992433 0.0130963
-0.124273 -0.00510971 0.992235 0.0143834
-0.126894 -0.012848 0.991833 0.0166891
-0.129058 -0.0125934 0.991557 0.0168701
-0.128655 -0.0145278 0.991583 0.0178312
-0.128008 -0.0159509 0.991645 0.0181834
-0.129022 -0.0123357 0.991565 0.0218373
-0.124497 -0.0174011 0.992067 0.0180414
-0.121086 -0.0215657 0.992408 0.013845
-0.120556 -0.0211327 0.992482 0.0139519
-0.117994 -0.0182646 0.992846 0.0127126
-0.118377 -0.0232051 0.992698 0.0133315
-0.119488 -0.0270338 0.992468 0.0131203
-0.122432 -0.0127913 0.992394 0.0158645
-0.124165 -0.0143519 0.992158 0.0206542
-0.125807 -0.0116816 0.991986 0.0278803
-0.123437 -0.0125233 0.992273 0.0240799
-0.12054 -0.0166658 0.992569 0.0199683
-0.121775 -0.0133277 0.992468 0.0251369
-0.122726 -0.0150441 0.992326 0.0264051
-0.126056 -0.0137457 0.991928 0.0328152
-0.126615 -0.0219546 0.991709 0.0323632
-0.126786 -0.0189395 0.991749 0.0329453
-0.128972 -0.0159116 0.991521 0.0372478
-0.128285 -0.0236597 0.991455 0.036632
-0.129023 -0.0247093 0.991334 0.0366541
-0.127865 -0.0160574 0.991662 0.0332791
-0.126386 -0.0131257 0.991894 0.0317426
-0.125616 -0.0228267 0.991816 0.0309043
-0.123944 -0.0320936 0.99177 0.0295231
-0.123745 -0.034727 0.991706 0.0317311
-0.124094 -0.0319894 0.991755 0.0340812
-0.119886 -0.0353124 0.992159 0.024947
-0.117175 -0.0421189 0.992218 0.0191011
-0.115517 -0.0488689 0.992103 0.015052
-0.115199 -0.0491645 0.992125 0.0165455
-0.114182 -0.0565957 0.991846 0.0140284
-0.11471 -0.059849 0.991594 0.011835
-0.113304 -0.0624841 0.991594 0.0109977
-0.114046 -0.0519087 0.992119 0.0146182
-0.111885 -0.054007 0.992252 0.0118257
-0.114732 -0.0577016 0.991719 0.0165246
-0.1162 -0.0542189 0.991745 0.0175002
-0.11717 -0.0536102 0.991664 0.0177176
-0.119078 -0.0506492 0.991592 0.0193399
-0.117733 -0.0592176 0.991278 0.0146173
-0.118576 -0.0605841 0.991095 0.0169559
-0.118909 -0.0544504 0.991411 0.0189594
-0.119973 -0.0496069 0.991537 0.0218638
-0.119632 -0.0422074 0.991921 0.0215507
-0.119927 -0.0439723 0.991808 0.0235224
-0.1218 -0.0311735 0.992065 0.0241775
-0.124873 -0.0339856 0.99159 0.0299694
-0.12486 -0.029612 0.991732 0.0315153
-0.126506 -0.0385225 0.991217 0.0374923
-0.131245 -0.0321689 0.990828 0.0457439
-0.129366 -0.025891 0.991259 0.0469889
-0.126953 -0.031094 0.991421 0.0438552
-0.126448 -0.0269576 0.991607 0.0438899
-0.124389 -0.0325879 0.991698 0.0437234
-0.122251 -0.038674 0.991745 0.0403925
-0.120563 -0.0424292 0.991799 0.0373197
-0.11653 -0.0513217 0.99186 0.0298882
-0.113748 -0.0551527 0.991978 0.0301514
-0.107965 -0.0568473 0.992528 0.0246085
-0.104564 -0.055804 0.992951 0.0218792
-0.104476 -0.0532345 0.993102 0.0225695
-0.10189 -0.0597324 0.993001 0.0217234
-0.0981449 -0.0656158 0.993007 0.0188959
-0.0941793 -0.061972 0.993625 0.0112466
-0.0948476 -0.0589476 0.993745 0.00912189
-0.0936757 -0.0639063 0.99355 0.00661407
-0.0909228 -0.064057 0.993796 0.00331202
-0.0896403 -0.0644158 0.993889 0.00346401
-0.0896556 -0.0577671 0.994296 0.00464761
-0.0901753 -0.05608 0.994346 0.00844234
-0.0882533 -0.0576202 0.99443 0.00539982
-0.0881776 -0.0480496 0.994945 0.00789912
-0.0872535 -0.045161 0.995162 0.00656997
-0.0876247 -0.045284 0.995124 0.00734234
-0.0884225 -0.0369389 0.995398 0.0132592
-0.0886597 -0.0381017 0.995333 0.0170527
-0.08892 -0.0335538 0.995473 0.0197825
-0.0849261 -0.0377445 0.995672 0.0130112
-0.0829484 -0.0370428 0.995865 0.00996498
-0.079689 -0.0316383 0.996318 0.0102651
-0.0794802 -0.0315133 0.996338 0.0139116
-0.0807385 -0.0210038 0.996514 0.0173007
-0.0815427 -0.0222832 0.996421 0.0176512
-0.0797049 -0.0277339 0.996433 0.0159439
-0.0782266 -0.0176299 0.99678 0.0191984
-0.0764576 -0.0172751 0.996923 0.0184275
-0.0710364 -0.021585 0.99724 0.0149556
-0.0674085 -0.0324945 0.997196 0.0134882
-0.06378 -0.0290095 0.997542 0.0103321
-0.0627229 -0.0207897 0.997814 0.0137031
-0.0621708 -0.00873864 0.998027 0.0192591
-0.0632671 -0.00225368 0.997994 0.0237839
-0.0623085 -0.00374699 0.99805 0.0216108
-0.0613837 0.000275834 0.998114 0.0253029
-0.059098 0.00522328 0.998239 0.0228975
-0.0575306 6.97946e-05 0.998344 0.022485
-0.0576694 -0.0100881 0.998285 0.0244755
-0.0561057 -0.0134965 0.998334 0.0243424
-0.0562072 -0.00555193 0.998404 0.0268534
-0.0549293 -0.0037796 0.998483 0.0238826
-0.0514064 -0.00219055 0.998675 0.0221638
-0.0510798 -0.00600996 0.998676 0.0235159
-0.048973 7.64548e-05 0.9988 0.0204156
-0.0456975 0.0118448 0.998885 0.0174832
-0.0430337 0.00706071 0.999049 0.00940076
-0.0423069 0.0164227 0.99897 0.00812564
-0.0414126 0.0127512 0.999061 0.00429763
-0.0374245 0.0199638 0.9991 0
-0.039053 0.0134658 0.999146 0
-0.0371977 0.0127649 0.999226 0
-0.0362357 0.0180152 0.999181 0
-0.036037 0.0206097 0.999138 0
-0.0346853 0.0266865 0.999042 0.00186311
-0.0326113 0.0271353 0.9991 0
-0.0293358 0.028879 0.999152 0
-0.029816 0.0324029 0.99903 0
-0.0290304 0.0368876 0.998898 0
-0.0280141 0.0410354 0.998765 0
-0.0289219 0.0383907 0.998844 0.0024676
-0.0298531 0.0432244 0.998619 0.00523471
-0.0281874 0.0506435 0.998319 0.00571708
-0.0279106 0.0540425 0.998148 0.00726452
-0.0270979 0.0566121 0.998028 0.00626158
-0.0259658 0.0586487 0.997941 0.00425525
-0.0260461 0.0517845 0.998319 0
-0.0229303 0.0515302 0.998408 0
-0.0201809 0.0515444 0.998467 0
-0.0214315 0.0497714 0.998531 0
-0.0219874 0.049932 0.998511 0
-0.0227158 0.0495274 0.998514 0
-0.023298 0.0575684 0.99807 0
-0.0216715 0.0559235 0.9982 0
-0.0216152 0.0622422 0.997827 0
-0.0221841 0.059774 0.997965 0
-0.0205853 0.0739787 0.997047 0
-0.0181603 0.0900101 0.995775 0
-0.0187173 0.0971597 0.995093 0
-0.0174752 0.0940445 0.995415 0
-0.0158357 0.0892108 0.995887 0
-0.0171605 0.0855102 0.996189 0
-0.0127694 0.0988194 0.995023 0
-0.0131114 0.0972454 0.995174 0
-0.0132533 0.0995474 0.994945 0
-0.00969715 0.120598 0.992654 0
-0.00794899 0.128452 0.991684 0
-0.0076153 0.13448 0.990887 0
-0.00924522 0.133027 0.991069 0
-0.00656324 0.145966 0.989268 0
-0.0114906 0.13401 0.990913 0
-0.00918842 0.144759 0.989424 0
-0.0109996 0.133744 0.990955 0
-0.00537602 0.158572 0.987333 0.00263918
0.00130636 0.190098 0.981764 0.0129508
0.00874307 0.224478 0.97444 0.0220829
0.0112061 0.233663 0.972253 0.0246991
0.0179292 0.257313 0.966162 0.0306223
0.0213343 0.269313 0.962816 0.0318041
0.0284252 0.292517 0.955838 0.0370322
0.0308159 0.303794 0.952239 0.0371629
0.0356066 0.31743 0.947613 0.0355299
0.00495647 -0.222265 0.974974 0
0.00331551 -0.21601 0.976386 0
-0.00668611 -0.192114 0.98135 0.00216195
-0.00654475 -0.194273 0.980926 0.00986139
-0.00193116 -0.204203 0.978927 0.00976133
-0.00459636 -0.194262 0.980939 0.0108347
-0.00624249 -0.183312 0.983035 0.00389259
-0.0110391 -0.170427 0.985308 0.00443021
-0.0069672 -0.185764 0.98257 0.00450608
-0.00775605 -0.178808 0.983854 0.0044875
-0.00572155 -0.186529 0.982433 0.00495294
-0.00969384 -0.174212 0.98466 0.00587273
-0.00701716 -0.177895 0.984025 0.0024399
-0.00761926 -0.171928 0.98508 0
-0.00548101 -0.177791 0.984053 0
-0.00901379 -0.169919 0.985417 0
-0.00962983 -0.164171 0.986385 0.00190737
-0.0136188 -0.154357 0.987921 0.00383743
-0.0138014 -0.152067 0.988274 0.000636688
-0.0135753 -0.147542 0.988963 4.62788e-05
-0.0125562 -0.149903 0.988621 0
-0.0143859 -0.147415 0.98897 0.00886194
-0.0190431 -0.135032 0.990658 0.012735
-0.0219472 -0.131184 0.991115 0.017056
-0.0202049 -0.136888 0.99038 0.00671193
-0.0195155 -0.136329 0.990471 0.00331459
-0.0166975 -0.133726 0.990878 0
-0.0174048 -0.135215 0.990663 0
-0.0149219 -0.136923 0.990469 0
-0.0151644 -0.128711 0.991566 0
-0.0174498 -0.119296 0.992705 0
-0.0188133 -0.117583 0.992885 0
-0.0212903 -0.112991 0.993368 0
-0.0239527 -0.108409 0.993818 0
-0.0258187 -0.0949642 0.995146 0
-0.0289832 -0.0918245 0.995353 0
-0.0314664 -0.0902189 0.995425 0
-0.0314831 -0.0901153 0.995434 0
-0.0320564 -0.0862272 0.99576 0
-0.0332281 -0.0785084 0.99636 0
-0.0321217 -0.0775051 0.996474 0
-0.0332101 -0.0769886 0.996479 0
-0.0368561 -0.0691574 0.996925 0.00234489
-0.0401755 -0.0603137 0.997371 0.00723944
-0.0426989 -0.0516224 0.997754 0.0142288
-0.0433256 -0.0494039 0.997839 0.0137846
-0.0442455 -0.0513814 0.997698 0.0142687
-0.0465607 -0.0491878 0.997704 0.0136281
-0.0456341 -0.0481913 0.997795 0.0175709
-0.0471721 -0.0461555 0.99782 0.020932
-0.049091 -0.0449888 0.997781 0.0211407
-0.0494252 -0.0487326 0.997588 0.0244389
-0.0503888 -0.0479556 0.997578 0.0273865
-0.0538913 -0.0423154 0.99765 0.0321458
-0.0560904 -0.0327838 0.997887 0.0309989
-0.0590335 -0.0338795 0.997681 0.0354737
-0.0618468 -0.0369017 0.997403 0.0356747
-0.0669303 -0.0313476 0.997265 0.0391123
-0.068814 -0.0292781 0.9972 0.0374548
-0.0700856 -0.0316771 0.997038 0.0382083
-0.0688663 -0.0370215 0.996939 0.0361641
-0.068825 -0.0429033 0.996706 0.0315227
-0.0688561 -0.0336767 0.997058 0.0303603
-0.0679598 -0.0314316 0.997193 0.0269327
-0.0681018 -0.0264639 0.997327 0.021913
-0.0691002 -0.0256172 0.997281 0.0222988
-0.0744451 -0.023504 0.996948 0.0260037
-0.0792236 -0.0137715 0.996762 0.0305083
-0.08208 -0.0158387 0.9965 0.0351012
-0.0830267 -0.0119603 0.996476 0.034159
-0.084995 -0.00782588 0.996351 0.0341681
-0.0888604 0.00279277 0.99604 0.0364999
-0.0894213 0.0034985 0.995988 0.0378005
-0.0914106 0.000890032 0.995813 0.0399444
-0.0902481 0.00341777 0.995913 0.0380183
-0.0891353 0.0109855 0.995959 0.0346821
-0.0910099 0.00245007 0.995847 0.0338357
-0.0940186 0.00751788 0.995542 0.0317004
-0.090986 0.0017587 0.995851 0.0225341
-0.0892608 0.000558668 0.996008 0.0148475
-0.0911688 -0.0051932 0.995822 0.0157438
-0.095231 0.00774696 0.995425 0.0243656
-0.0973021 0.0115311 0.995188 0.0284662
-0.100715 0.0221146 0.99467 0.0350243
-0.0983446 0.0183576 0.994983 0.0314227
-0.097775 0.0279374 0.994816 0.0320455
-0.0974956 0.0209673 0.995015 0.0321079
-0.0997418 0.0246146 0.994709 0.0309892
-0.102269 0.0195762 0.994564 0.0339634
-0.10237 0.0179995 0.994584 0.0310982
-0.100605 0.0172554 0.994777 0.0258418
-0.101432 0.0152633 0.994725 0.0226883
-0.0989618 0.0104702 0.995036 0.0115413
-0.0944823 0.00193851 0.995525 0.00131581
-0.0923916 -0.000811025 0.995722 0
-0.0906602 -0.00319675 0.995877 0
-0.0889293 -0.0117704 0.995968 0
-0.0889207 -0.0206058 0.995826 0
-0.089518 -0.0163281 0.995851 0
-0.0910003 -0.0158221 0.995725 0
-0.0886278 -0.0218406 0.995825 0
-0.0895686 -0.0206423 0.995767 0
-0.0906496 -0.0239558 0.995595 0
-0.092739 -0.0157716 0.995566 0
-0.0937165 -0.0159498 0.995471 0
-0.0930003 -0.0141714 0.995565 0
-0.0937006 -0.0152816 0.995483 0
-0.0942626 -0.0171113 0.9954 0
-0.095392 -0.0218643 0.9952 0
-0.0961855 -0.0181554 0.995198 0
-0.0978775 -0.0163571 0.995064 0
-0.0992682 -0.0169256 0.994917 0
-0.0998412 -0.0126067 0.994924 0
-0.10057 -0.0127808 0.994848 0
-0.0992297 -0.00698323 0.99504 0
-0.0972521 -0.00780628 0.995229 0
-0.0973233 -0.00857384 0.995216 0
-0.0991428 -0.0138735 0.994977 0
-0.101345 -0.0167663 0.99471 0
-0.101408 -0.017751 0.994687 0
-0.101343 -0.0187363 0.994675 0
-0.10338 -0.00919727 0.994599 0
-0.105522 -0.00254541 0.994414 0
-0.108394 -0.000996336 0.994107 0
-0.108455 -0.000205275 0.994101 0
-0.108244 -0.0044562 0.994114 0
-0.108504 0.000546828 0.994096 0
-0.111232 0.00427124 0.993785 0.00204646
-0.110558 0.00236476 0.993867 0
-0.110615 0.00115622 0.993863 0
-0.11188 -0.000545903 0.993722 0
-0.112858 0.00575068 0.993595 0
-0.116702 0.0110058 0.993106 0.00682695
-0.119957 0.0105443 0.992723 0.0117288
-0.123167 0.0176297 0.992229 0.0196571
-0.12172 0.0203685 0.992355 0.020819
-0.120021 0.018452 0.9926 0.0200079
-0.121391 0.0124348 0.992527 0.0233492
-0.121834 0.0100123 0.9925 0.023258
-0.120411 0.0110825 0.992662 0.0198544
-0.119876 0.00732487 0.992762 0.0177143
-0.120617 0.0113273 0.992634 0.0176095
-0.121574 0.0137254 0.992487 0.0165011
-0.120851 0.007838 0.99264 0.011946
-0.123878 0.0103268 0.992244 0.0132488
-0.125252 0.0111309 0.992062 0.0166911
-0.123322 0.00494511 0.992354 0.0166555
-0.121203 0.00253069 0.992625 0.0152545
-0.118021 0.00322526 0.993006 0.0103142
-0.119929 0.00490575 0.99277 0.0159635
-0.118906 0.00272291 0.992902 0.0151912
-0.120375 -0.00348702 0.992722 0.0175885
-0.121862 0.00318765 0.992542 0.0206955
-0.124492 0.000163057 0.992221 0.0208908
-0.127284 -0.000595416 0.991866 0.0226414
-0.127301 -0.000143455 0.991864 0.0230385
-0.12705 -0.0040925 0.991888 0.0260774
-0.123912 -0.00218573 0.992291 0.0201909
-0.124448 -0.00140562 0.992225 0.0269253
-0.126417 0.0106794 0.99192 0.0339265
-0.127824 0.0101439 0.991745 0.0365633
-0.129253 0.0111508 0.991549 0.0377517
-0.131388 0.0107727 0.991273 0.039012
-0.133646 0.00647997 0.991008 0.0400237
-0.135928 0.0064667 0.990698 0.0418007
-0.136045 0.0055571 0.990687 0.0382347
-0.13347 0.00408746 0.991044 0.0319898
-0.132271 -0.00111415 0.991213 0.0293227
-0.127575 -0.000561582 0.991829 0.0226026
-0.125038 -0.00584832 0.992135 0.0191674
-0.121679 -0.00585531 0.992552 0.0135998
-0.120774 -0.0143173 0.992577 0.0115244
-0.118346 -0.0188107 0.992794 0.00400955
-0.116959 -0.0198782 0.992938 0
-0.117708 -0.0217605 0.99281 0.00025723
-0.120812 -0.0228352 0.992413 0.00394439
-0.122484 -0.0268775 0.992106 0.00550583
-0.120905 -0.0269635 0.992298 0.00517182
-0.122158 -0.0193992 0.992321 0.011671
-0.122448 -0.0159278 0.992347 0.0167799
-0.119139 -0.0212371 0.99265 0.012456
-0.117971 -0.0237664 0.992733 0.0131979
-0.118323 -0.0242993 0.992678 0.0137405
-0.118009 -0.0199824 0.992811 0.0135443
-0.119171 -0.0246967 0.992567 0.0162355
-0.121111 -0.0163231 0.992505 0.0179692
-0.123425 -0.0151593 0.992238 0.0215361
-0.125386 -0.0120758 0.992034 0.0277335
-0.126147 -0.0150176 0.991898 0.0306821
-0.127628 -0.0174505 0.991669 0.0326647
-0.125427 -0.0120422 0.99203 0.0320645
-0.126296 -0.0141127 0.991892 0.0348152
-0.126093 -0.0124202 0.991941 0.0365832
-0.125688 -0.0159202 0.991942 0.0339843
-0.127457 -0.0158113 0.991718 0.0354944
-0.129253 -0.0162212 0.991479 0.0375188
-0.130285 -0.0089856 0.991436 0.0402665
-0.129284 -0.0220251 0.991363 0.0379714
-0.128842 -0.0163346 0.991531 0.04055
-0.126981 -0.0177273 0.991747 0.0384244
-0.125471 -0.0284949 0.991688 0.0353338
-0.123897 -0.025004 0.99198 0.0322598
-0.122954 -0.0294597 0.991975 0.0300187
-0.125154 -0.0215105 0.991904 0.0333914
-0.119579 -0.0289046 0.992404 0.023969
-0.1164 -0.0437318 0.992239 0.0163975
-0.114268 -0.0408847 0.992608 0.0159264
-0.114434 -0.0480598 0.992268 0.0149178
-0.113881 -0.0543945 0.992004 0.0141741
-0.115001 -0.0501088 0.992101 0.0185549
-0.111546 -0.0564328 0.992156 0.00951947
-0.111363 -0.0577815 0.992099 0.00821364
-0.112837 -0.0537046 0.992161 0.0104917
-0.113438 -0.053339 0.992112 0.0111287
-0.111769 -0.0583732 0.992018 0.0084506
-0.112643 -0.0551363 0.992105 0.0109248
-0.113544 -0.0549936 0.99201 0.0111568
-0.117031 -0.050111 0.991863 0.0180774
-0.118381 -0.0496695 0.991725 0.0231164
-0.1204 -0.0505982 0.991435 0.0266634
-0.120095 -0.0470789 0.991646 0.0253258
-0.120321 -0.0445292 0.991736 0.026475
-0.119551 -0.0379775 0.992101 0.0263874
-0.119861 -0.0376852 0.992075 0.0275434
-0.121805 -0.0388527 0.991793 0.0299723
-0.121195 -0.0309831 0.992145 0.0311247
-0.123932 -0.032579 0.991756 0.0375754
-0.125149 -0.0333355 0.991578 0.0432391
-0.125842 -0.0347068 0.991443 0.0442246
-0.124386 -0.0284366 0.991826 0.041031
-0.121018 -0.0273205 0.992274 0.0367637
-0.119152 -0.0320324 0.992359 0.0380213
-0.11888 -0.0362383 0.992247 0.0380795
-0.117473 -0.0368483 0.992392 0.0363242
-0.116563 -0.0445579 0.992183 0.0352404
-0.11091 -0.0437041 0.992869 0.0289775
-0.104803 -0.0536717 0.993044 0.0223155
-0.101979 -0.0498849 0.993535 0.0207899
-0.099805 -0.0520693 0.993644 0.0195271
-0.0982237 -0.0618815 0.993239 0.0192125
-0.0956346 -0.0644529 0.993328 0.0161679
-0.0924911 -0.0720724 0.993102 0.0049326
-0.0912275 -0.0609812 0.993961 0.00470935
-0.0909262 -0.0581854 0.994156 0.00372358
-0.0917859 -0.0535589 0.994337 0.0069798
-0.0883816 -0.0589974 0.994338 0.00425859
-0.0873266 -0.0588734 0.994439 0.00413938
-0.088061 -0.0536448 0.99467 0.0128506
-0.0865608 -0.0496756 0.995007 0.0123476
-0.084716 -0.0491035 0.995194 0.00828895
-0.0857668 -0.0442237 0.995333 0.0155168
-0.0860092 -0.0385969 0.995546 0.0178664
-0.0871029 -0.029394 0.995766 0.015954
-0.0859684 -0.033526 0.995734 0.0153085
-0.0828841 -0.0343699 0.995966 0.00987563
-0.0797539 -0.0354577 0.996184 0.0107446
-0.0763074 -0.033925 0.996507 0.00749424
-0.0739587 -0.0283898 0.996857 0.00836608
-0.0743134 -0.0289732 0.996814 0.0117251
-0.0731942 -0.0310366 0.996835 0.0111629
-0.0752553 -0.026182 0.99682 0.0156425
-0.0752552 -0.0272746 0.996791 0.0169197
-0.075208 -0.0153322 0.99705 0.0223035
-0.0716809 -0.0223811 0.997176 0.0161848
-0.0682787 -0.0191764 0.997482 0.0140562
-0.0629058 -0.0216094 0.997786 0.0113061
-0.0602464 -0.031961 0.997672 0.0103439
-0.0579352 -0.0308079 0.997845 0.00706335
-0.0562651 -0.0214496 0.998185 0.012029
-0.0559602 -0.00845895 0.998397 0.0164498
-0.0564093 0.000664218 0.998407 0.0200253
-0.0577186 0.00470133 0.998322 0.0262444
-0.0554469 0.00253583 0.998458 0.0255616
-0.0542888 0.00261286 0.998522 0.0269274
-0.0530625 -0.0050136 0.998579 0.026935
-0.0526279 -0.0136762 0.99852 0.0254475
-0.0527702 -0.00307288 0.998602 0.02991
-0.0504062 0.000895309 0.998728 0.0305297
-0.0491736 -0.00612274 0.998771 0.0296843
-0.047521 -0.00793326 0.998839 0.0280749
-0.0453249 0.000918392 0.998972 0.0214516
-0.0414901 0.00970649 0.999092 0.0139986
-0.0386334 0.0188111 0.999076 0.00851597
-0.0383215 0.0214535 0.999035 0.00320379
-0.0375204 0.0144639 0.999191 0
-0.0365988 0.0150141 0.999217 0
-0.0394697 0.0163741 0.999087 0
-0.0386874 0.0128731 0.999168 0
-0.0373243 0.0156571 0.999181 0
-0.0347376 0.0250189 0.999083 0
-0.0340435 0.0263457 0.999073 0.00526627
-0.0326008 0.0292878 0.999039 0.00480963
-0.0299999 0.030645 0.99908 0.00227434
-0.0296296 0.0310006 0.99908 0.00284028
-0.0278923 0.047981 0.998459 0.00632766
-0.0274058 0.0546547 0.998129 0.00508478
-0.025687 0.0544144 0.998188 0.00653829
-0.0268833 0.0509225 0.998341 0.00779625
-0.0273313 0.0479425 0.998476 0.00665527
-0.0232994 0.0512103 0.998416 0.00061606
-0.0224542 0.0574382 0.998097 0
-0.0219364 0.0598381 0.997967 0
-0.0217511 0.058803 0.998033 0
-0.022212 0.0536261 0.998314 0
-0.0204207 0.0471968 0.998677 0
-0.0169474 0.0514525 0.998532 0
-0.0188787 0.0529792 0.998417 0
-0.0187248 0.056703 0.998216 0
-0.0176091 0.0556234 0.998297 0
-0.0169903 0.0697426 0.99742 0
-0.0183807 0.0679452 0.99752 0
-0.0194838 0.0699627 0.997359 0
-0.0162432 0.076093 0.996968 0
-0.0116094 0.091309 0.995755 0
-0.0105268 0.0979602 0.995135 0
-0.00942608 0.0994571 0.994997 0
-0.00938628 0.103812 0.994553 0
-0.00757414 0.10654 0.99428 0
-0.00731933 0.114115 0.993441 0
-0.00978846 0.103726 0.994558 0
-0.00938046 0.104261 0.994506 0
-0.00706006 0.119726 0.992782 0
-0.00255662 0.13876 0.990323 0
0.00118382 0.153469 0.988153 0.00692092
0.00250515 0.170552 0.985345 0.0124572
0.000984705 0.162956 0.986633 0.012375
0.00028215 0.161754 0.986831 0.0113701
-0.000855302 0.165802 0.986159 0.0142051
-0.00228962 0.159532 0.98719 0.00870444
-0.00136253 0.164041 0.986453 0.00780219
0.00753141 0.200854 0.979592 0.0161254
0.0105285 0.214925 0.976574 0.0185368
0.0144281 0.234596 0.971986 0.0213734
0.0185767 0.249515 0.968193 0.028495
0.0306337 0.284606 0.958155 0.0334896
0.0353023 0.298555 0.953739 0.0321334
0.0406353 0.315124 0.94818 0.0332111
0.00770713 -0.222335 0.97494 0
-0.000342173 -0.204569 0.978852 0.00736237
-0.00412 -0.187713 0.982215 0.0131899
-0.00108165 -0.196579 0.980487 0.0156323
0.000552422 -0.203518 0.979071 0.0125213
-0.0003624 -0.199915 0.979813 0.0143739
-0.00523398 -0.185504 0.98263 0.0153272
-0.00552682 -0.184607 0.982797 0.0130052
-0.00740957 -0.177992 0.984004 0.00818009
-0.00441397 -0.186098 0.982521 0.0051596
-0.00201145 -0.189749 0.981831 0.00577431
-0.0017123 -0.190618 0.981663 0.00961231
-0.00454666 -0.178841 0.983867 0.00655081
-0.00513339 -0.17391 0.984748 0.00718852
-0.00778079 -0.165765 0.986135 0.00437841
-0.00684988 -0.16103 0.986926 0.00187971
-0.00447407 -0.158715 0.987314 0
-0.00764143 -0.15325 0.988158 0
-0.00990928 -0.148102 0.988922 0.00257903
-0.0114611 -0.150694 0.988514 0.000949007
-0.0146349 -0.141978 0.989762 0.00967201
-0.0179806 -0.128801 0.991507 0.0142152
-0.0202618 -0.123568 0.992129 0.0128444
-0.0204715 -0.12452 0.992006 0.0084556
-0.0154367 -0.139327 0.990126 0
-0.0135117 -0.142127 0.989756 0
-0.0143419 -0.137785 0.990358 0
-0.0131712 -0.134751 0.990792 0
-0.0158483 -0.121271 0.992493 0
-0.0187811 -0.113982 0.993305 0
-0.0180859 -0.115133 0.993185 0
-0.0164863 -0.118103 0.992865 0
-0.0171217 -0.11291 0.993458 0
-0.0221787 -0.102221 0.994515 0
-0.0249743 -0.0959398 0.995074 0
-0.0205291 -0.106607 0.994089 0
-0.0218863 -0.103181 0.994422 0
-0.023125 -0.0999344 0.994725 0
-0.0238935 -0.0920939 0.995464 0
-0.024518 -0.0852995 0.996054 0
-0.0277994 -0.0770474 0.99664 0
-0.0323686 -0.0672338 0.997212 0
-0.0352089 -0.0626174 0.997416 0.00429405
-0.038783 -0.0543554 0.997768 0.00841289
-0.0414677 -0.0486492 0.997955 0.0127418
-0.0398325 -0.0517144 0.997867 0.00683749
-0.0406677 -0.0502071 0.99791 0.00799155
-0.0434322 -0.0527211 0.997664 0.0176992
-0.043594 -0.0500104 0.997797 0.020748
-0.0420657 -0.0528912 0.997714 0.021421
-0.0426042 -0.0476186 0.997957 0.0256172
-0.04671 -0.0387789 0.998155 0.0332621
-0.0489356 -0.0343062 0.998213 0.0336616
-0.0533807 -0.0282255 0.998175 0.0350547
-0.0596936 -0.0260708 0.997876 0.0431782
-0.0610216 -0.0361654 0.997481 0.0458101
-0.0613038 -0.0421576 0.997228 0.0413311
-0.062774 -0.0404734 0.997207 0.0358599
-0.0653274 -0.0195674 0.997672 0.0402153
-0.0655098 -0.0248902 0.997541 0.0402489
-0.066861 -0.0270455 0.997396 0.0379916
-0.0645386 -0.0279882 0.997523 0.0342621
-0.0646438 -0.0297105 0.997466 0.0320078
-0.0675634 -0.0232926 0.997443 0.0317162
-0.0719749 -0.0191106 0.997223 0.0341439
-0.0738338 -0.0172062 0.997122 0.0335899
-0.0760424 -0.014184 0.997004 0.0346099
-0.0777141 -0.0173072 0.996825 0.0370495
-0.0798266 -0.0123194 0.996733 0.0370493
-0.0797219 -0.0115075 0.996751 0.0338578
-0.0799565 -0.0135254 0.996707 0.0345873
-0.0811811 -0.00626417 0.99668 0.0380858
-0.0841357 -0.00512401 0.996441 0.0387485
-0.0840795 -0.00181737 0.996457 0.0333081
-0.0856133 0.000415821 0.996328 0.0300478
-0.0876873 -0.00821318 0.996114 0.0278967
-0.0887826 -0.00149983 0.99605 0.0255663
-0.0889377 -0.00203393 0.996035 0.0236664
-0.0893829 0.000726224 0.995997 0.0229669
-0.0889723 -0.00120995 0.996033 0.0233239
-0.0909838 0.00367569 0.995846 0.0292625
-0.0906134 0.0107854 0.995828 0.0305333
-0.094378 0.0239218 0.995249 0.0388665
-0.0972597 0.0150575 0.995145 0.04229
-0.0979968 0.0219801 0.994944 0.0400395
-0.0984253 0.0224626 0.994891 0.0380634
-0.099676 0.0201915 0.994815 0.0371048
-0.10013 0.0146503 0.994866 0.0336258
-0.098644 0.00658063 0.995101 0.0252407
-0.0999163 0.00748061 0.994968 0.0254423
-0.0968671 0.0131119 0.995211 0.0244172
-0.0920688 0.00213882 0.99575 0.0170984
-0.0896824 -0.0007023 0.99597 0.00765842
-0.0875291 -0.00289093 0.996158 0
-0.0866559 -0.0118215 0.996168 0
-0.0863825 -0.0198544 0.996064 0
-0.0867222 -0.0182229 0.996066 0
-0.0874639 -0.0240347 0.995878 0
-0.0894923 -0.0275706 0.995606 0
-0.089905 -0.0223437 0.9957 0
-0.0886437 -0.0230688 0.995796 0
-0.0880414 -0.0159331 0.995989 0
-0.0890806 -0.0136842 0.99593 0
-0.0899753 -0.0184344 0.995773 0
-0.0900349 -0.0150406 0.995825 0
-0.0906826 -0.0170311 0.995734 0
-0.0912381 -0.0246302 0.995525 0
-0.0932152 -0.0270853 0.995278 0
-0.0948781 -0.0193808 0.9953 0
-0.0966722 -0.0233777 0.995042 0
-0.0966803 -0.0144729 0.99521 0
-0.0973867 -0.0161591 0.995115 0
-0.097334 -0.0136085 0.995159 0
-0.0970109 -0.0110677 0.995222 0
-0.0971065 -0.0148963 0.995162 0
-0.0966822 -0.0173411 0.995164 0
-0.097163 -0.0154958 0.995148 0
-0.100122 -0.0131898 0.994888 0
-0.101971 -0.0107216 0.99473 0
-0.104186 -0.00809124 0.994525 0
-0.104714 -0.000791958 0.994502 0
-0.10453 -0.00305544 0.994517 0
-0.106484 0.000402328 0.994314 0
-0.107262 -0.00429995 0.994222 0
-0.10798 -0.00499884 0.99414 0
-0.108359 0.00583716 0.994095 0
-0.108085 0.00209798 0.994139 0
-0.10997 0.00290271 0.993931 2.74936e-05
-0.109948 -0.00317752 0.993932 0
-0.110977 0.00327708 0.993818 0.000303653
-0.112455 0.00996498 0.993607 0.0026735
-0.114906 0.00421896 0.993367 0.00770417
-0.118306 0.010197 0.992925 0.015959
-0.120098 0.015046 0.992648 0.0196398
-0.121763 0.0169683 0.992414 0.0234057
-0.122648 0.0146172 0.992343 0.0249435
-0.120216 0.00682472 0.992724 0.0222977
-0.120669 0.00674903 0.99267 0.0247792
-0.120177 0.0117572 0.992683 0.0233242
-0.118248 0.0107753 0.992926 0.0183736
-0.11779 0.0126545 0.992958 0.0148798
-0.115909 0.0120938 0.993186 0.0097008
-0.118966 0.00897888 0.992858 0.0103009
-0.124677 0.00863119 0.99216 0.0140792
-0.128252 0.00860707 0.991704 0.0218175
-0.12804 0.00510353 0.991756 0.0233584
-0.126404 0.0147448 0.991869 0.0245661
-0.122964 0.0132569 0.992323 0.0205808
-0.120177 0.0057092 0.992736 0.0190586
-0.118192 0.00029814 0.992991 0.0169888
-0.120265 0.00114057 0.992741 0.0210725
-0.120616 0.0046026 0.992689 0.0205454
-0.123983 -0.00303848 0.99228 0.0217348
-0.128247 -0.000562301 0.991742 0.0250581
-0.130052 -0.000549958 0.991507 0.0264517
-0.130578 0.00379226 0.991431 0.0311066
-0.128327 0.0038359 0.991724 0.0287426
-0.126452 0.000164961 0.991973 0.0304839
-0.125314 0.00841868 0.992081 0.0338667
-0.124826 0.00657899 0.992157 0.0346578
-0.130878 0.0178048 0.991239 0.0417994
-0.133335 0.00998659 0.991021 0.0430811
-0.133327 0.00760914 0.991043 0.0425995
-0.133296 0.00348391 0.99107 0.0383489
-0.131755 -0.000302517 0.991282 0.0321925
-0.127107 -0.00443291 0.991879 0.0208961
-0.125135 -0.0121495 0.992065 0.0176505
-0.123431 -0.00560689 0.992337 0.0166295
-0.119403 -0.0138221 0.99275 0.0128637
-0.120712 -0.0082743 0.992653 0.0160017
-0.120568 -0.018129 0.99254 0.0131786
-0.118923 -0.0146986 0.992795 0.00852288
-0.11701 -0.0221487 0.992884 0.00225867
-0.115674 -0.0300169 0.992834 0
-0.117045 -0.0281349 0.992728 0
-0.116818 -0.0362095 0.992493 0
-0.11802 -0.0266433 0.992654 0
-0.118742 -0.0206692 0.99271 0.00315604
-0.11971 -0.016416 0.992673 0.0124619
-0.11792 -0.0193675 0.992834 0.0139016
-0.118974 -0.0257855 0.992562 0.0193472
-0.118836 -0.0205736 0.992701 0.0205033
-0.120083 -0.0139457 0.992666 0.0229417
-0.11981 -0.0179387 0.992635 0.0212201
-0.121378 -0.0196894 0.992411 0.0245317
-0.123646 -0.0108289 0.992267 0.0288593
-0.126999 -0.00922981 0.99186 0.0351045
-0.129614 -0.00944598 0.991519 0.0376455
-0.129733 -0.0184497 0.991377 0.0363545
-0.126632 -0.0176135 0.991793 0.0352582
-0.125162 -0.0141962 0.992035 0.0345241
-0.124076 -0.0180476 0.992109 0.0322499
-0.126375 -0.0146546 0.991874 0.0389805
-0.128013 -0.0181773 0.991606 0.0393377
-0.1304 -0.00395577 0.991454 0.0412982
-0.133813 -0.0116251 0.990938 0.0445597
-0.132332 -0.0117147 0.991136 0.0433424
-0.132345 -0.0177044 0.991046 0.0454599
-0.129898 -0.0226483 0.991269 0.0398834
-0.126288 -0.0284378 0.991586 0.0329174
-0.121333 -0.0254318 0.992286 0.0251723
-0.118326 -0.0309849 0.992491 0.0249789
-0.117898 -0.0286356 0.992613 0.023933
-0.117361 -0.0345741 0.992487 0.021714
-0.114223 -0.0406073 0.992625 0.0157199
-0.114404 -0.0471482 0.992315 0.0164483
-0.116224 -0.0497525 0.991976 0.0177634
-0.116044 -0.0413982 0.992381 0.0191246
-0.111684 -0.0526877 0.992346 0.0103346
-0.110701 -0.0536923 0.992402 0.00663367
-0.109242 -0.060587 0.992167 0.00471707
-0.109254 -0.0596219 0.992224 0.00333716
-0.111167 -0.0537018 0.99235 0.010341
-0.110923 -0.0585636 0.992102 0.00894675
-0.109655 -0.0525981 0.992577 0.00581068
-0.112181 -0.0507363 0.992392 0.0150636
-0.11687 -0.0445793 0.992146 0.0235359
-0.118717 -0.047239 0.991804 0.0273593
-0.121115 -0.0511324 0.991321 0.0299333
-0.120693 -0.0484084 0.991509 0.0276636
-0.120219 -0.0360825 0.992091 0.0308623
-0.120429 -0.0376499 0.992008 0.0321632
-0.122918 -0.0330355 0.991867 0.034629
-0.122929 -0.0369988 0.991726 0.0365145
-0.120508 -0.0378007 0.991992 0.0361322
-0.120953 -0.036358 0.991992 0.0377948
-0.120068 -0.0380794 0.992035 0.0390589
-0.119893 -0.0332839 0.992229 0.0397103
