# .PCD v0.7 - Point Cloud Data file format
VERSION 0.7
FIELDS x y z
SIZE 4 4 4
TYPE F F F
COUNT 1 1 1
WIDTH 1452
HEIGHT 1
VIEWPOINT 0 0 0 1 0 0 0
POINTS 1452
DATA ascii
-0.16579901 0.131955 -0.231828
-0.16316 0.13189501 -0.231894
-0.16279399 0.13191067 -0.23188598
-0.16241701 0.13188601 -0.231924
-0.162083 0.131899 -0.2319795
-0.15788433 0.13189434 -0.23194735
-0.157438 0.13190401 -0.23196849
-0.15710467 0.13192233 -0.23195601
-0.15685366 0.13190834 -0.23197432
-0.156443 0.13187735 -0.23185067
-0.155968 0.131851 -0.231805
-0.15527232 0.13188468 -0.23183501
-0.16652234 0.13207267 -0.23196466
-0.165794 0.13209833 -0.23181967
-0.16315366 0.13207532 -0.23187566
-0.16278633 0.13212501 -0.23187535
-0.16240799 0.132099 -0.23193668
-0.16207701 0.13207901 -0.23196702
-0.15787633 0.13211 -0.23193467
-0.15743132 0.132084 -0.23195167
-0.15709749 0.132101 -0.231961
-0.156845 0.13212232 -0.23197834
-0.15643567 0.13209434 -0.23183699
-0.15526401 0.13209933 -0.23183201
-0.16651468 0.132287 -0.23195232
-0.16578533 0.13231166 -0.23182434
-0.163146 0.13229001 -0.23186065
-0.16278 0.132304 -0.23186299
-0.162402 0.132241 -0.23195399
-0.162398 0.1323505 -0.2319335
-0.16206767 0.13229233 -0.23198467
-0.16183901 0.132313 -0.23199451
-0.159649 0.13232 -0.23198399
-0.15786798 0.13232465 -0.23194166
-0.15742333 0.13229935 -0.23194267
-0.15709066 0.13228066 -0.23194467
-0.156838 0.132302 -0.231979
-0.15642534 0.13230699 -0.23187034
-0.15595034 0.13227899 -0.23182233
-0.15525633 0.13231467 -0.23181801
-0.15444 0.13230801 -0.2318085
-0.16650601 0.13250101 -0.23195833
-0.16577801 0.13252801 -0.23180449
-0.16313767 0.13250367 -0.23186134
-0.16277333 0.13248266 -0.23185833
-0.162394 0.1324935 -0.231906
-0.16206001 0.13250734 -0.23197035
-0.16183199 0.13249099 -0.23199433
-0.15964501 0.13242701 -0.231988
-0.15876199 0.132589 -0.231997
-0.15786049 0.132504 -0.231938
-0.15741499 0.132513 -0.23194902
-0.15708233 0.13249566 -0.23194967
-0.15641733 0.132521 -0.23186266
-0.15594199 0.13249266 -0.23181735
-0.15524951 0.132494 -0.23181799
-0.15443267 0.132485 -0.23181967
-0.16649833 0.13271566 -0.23194067
-0.1657705 0.1327045 -0.231805
-0.16312902 0.13271832 -0.231861
-0.162765 0.132697 -0.23185165
-0.16238767 0.13267367 -0.23189168
-0.16205299 0.13272333 -0.23193766
-0.16182299 0.13270567 -0.231995
-0.159633 0.132713 -0.23199801
-0.15875849 0.132696 -0.231997
-0.15834166 0.13270833 -0.23198934
-0.15785433 0.13268368 -0.23192501
-0.157408 0.13269199 -0.23193949
-0.15707399 0.13270999 -0.23194568
-0.15682167 0.132695 -0.23199065
-0.15641099 0.1327005 -0.23185501
-0.155937 0.13263801 -0.231803
-0.15524399 0.13263801 -0.23181251
-0.15442432 0.13270099 -0.23181333
-0.166492 0.13289601 -0.231922
-0.1631225 0.132897 -0.231861
-0.16275699 0.13291132 -0.23185001
-0.162379 0.13288701 -0.231902
-0.162046 0.13290399 -0.2319295
-0.161815 0.13291967 -0.23199733
-0.15962701 0.13289249 -0.231979
-0.159174 0.13297699 -0.231996
-0.158751 0.132875 -0.23199798
-0.158333 0.13292266 -0.23199099
-0.15784667 0.132899 -0.23190999
-0.15740299 0.132837 -0.231922
-0.157399 0.132945 -0.231915
-0.15706567 0.13292401 -0.23194666
-0.15681367 0.132909 -0.23198901
-0.15640466 0.13288133 -0.23183133
-0.15592499 0.13292266 -0.23181166
-0.15441634 0.132917 -0.23180501
-0.16648634 0.133076 -0.23190068
-0.16311567 0.133076 -0.23184967
-0.16274868 0.13312666 -0.23184299
-0.16237099 0.13310234 -0.23188466
-0.162039 0.13308167 -0.23192699
-0.16180849 0.1330985 -0.231987
-0.15962 0.13307066 -0.231979
-0.159172 0.133049 -0.231996
-0.15874301 0.13308966 -0.23199832
-0.158326 0.133102 -0.23199201
-0.15783767 0.13311332 -0.23192067
-0.15739299 0.13308699 -0.231929
-0.15705851 0.133103 -0.23195501
-0.15680666 0.13312633 -0.23195966
-0.15639533 0.13309467 -0.231849
-0.15591851 0.133102 -0.2318075
-0.15522601 0.133103 -0.231803
-0.16647799 0.13328966 -0.23189767
-0.16310799 0.13329066 -0.23183466
-0.162742 0.133306 -0.23183799
-0.16236199 0.13331699 -0.23189567
-0.16203134 0.133297 -0.23191868
-0.16180301 0.133242 -0.23198301
-0.1618 0.133352 -0.23195601
-0.160054 0.133377 -0.231998
-0.159612 0.13328733 -0.23196501
-0.159162 0.1332995 -0.23199201
-0.15873401 0.133305 -0.23199899
-0.158319 0.13328065 -0.23199368
-0.157829 0.13332701 -0.23192234
-0.15738635 0.13330333 -0.23189199
-0.157052 0.13328333 -0.23193599
-0.156801 0.13327 -0.231962
-0.15679701 0.133341 -0.23197401
-0.15638699 0.13331001 -0.23184834
-0.15591399 0.13321 -0.23180699
-0.16646999 0.13350433 -0.23187967
-0.16309966 0.13350467 -0.23183466
-0.16273566 0.13348399 -0.23182367
-0.162356 0.13349551 -0.23188299
-0.16202299 0.13351101 -0.23191766
-0.16179566 0.133495 -0.23193033
-0.16004866 0.133523 -0.23198467
-0.15960334 0.13350134 -0.23197067
-0.1591565 0.13344249 -0.23199499
-0.15872633 0.13352035 -0.23198366
-0.15831034 0.133496 -0.23199134
-0.15782151 0.133506 -0.231932
-0.15737666 0.133516 -0.23191966
-0.157043 0.133498 -0.231941
-0.156792 0.13348366 -0.23197
-0.15637833 0.133524 -0.23185199
-0.166462 0.133719 -0.23187733
-0.16309266 0.13372134 -0.23180766
-0.162727 0.13369833 -0.23182267
-0.16234967 0.13367599 -0.23185767
-0.16201749 0.13369149 -0.23188449
-0.16178533 0.13370867 -0.23196499
-0.16004151 0.133701 -0.23198649
-0.159595 0.133716 -0.23196866
-0.15872 0.1337 -0.23197299
-0.15830301 0.13371134 -0.23196466
-0.15781534 0.13368499 -0.23191899
-0.15737 0.133696 -0.2319085
-0.15703566 0.13371433 -0.231923
-0.15678467 0.1337 -0.23194467
-0.156372 0.1337035 -0.23184
-0.16645551 0.13389701 -0.231874
-0.16308451 0.133899 -0.231823
-0.16271934 0.133913 -0.23180734
-0.16234267 0.13389133 -0.23183532
-0.162012 0.13387133 -0.23185168
-0.16177867 0.13392401 -0.23192932
-0.160035 0.13388033 -0.23198168
-0.1595875 0.133894 -0.231971
-0.15913801 0.133908 -0.23198901
-0.15871233 0.13387799 -0.231984
-0.15829499 0.13392633 -0.23195833
-0.15780701 0.13389967 -0.23191799
-0.157363 0.13387467 -0.23191233
-0.157028 0.133929 -0.23190801
-0.156776 0.13391466 -0.231947
-0.15636533 0.13388233 -0.23182933
-0.16644834 0.13407566 -0.23187333
-0.163078 0.13407634 -0.23182066
-0.16271067 0.13412701 -0.23181367
-0.162334 0.134105 -0.23183733
-0.16200399 0.134049 -0.231868
-0.161999 0.134156 -0.23188099
-0.161773 0.134105 -0.231897
-0.16002633 0.134095 -0.23198235
-0.15958166 0.13407433 -0.231947
-0.15913033 0.13412267 -0.23197901
-0.15870434 0.13409267 -0.23197401
-0.1582875 0.134105 -0.23196301
-0.157801 0.13404299 -0.231915
-0.1577975 0.134151 -0.2319115
-0.157355 0.13409035 -0.23189898
-0.15702051 0.13410699 -0.23192
-0.1567695 0.13409349 -0.231938
-0.15635766 0.13409901 -0.23181301
-0.16644001 0.13428934 -0.23187166
-0.162705 0.134271 -0.231804
-0.16232634 0.13432033 -0.23182167
-0.16199334 0.134298 -0.23188867
-0.16176499 0.13428165 -0.23192
-0.16001834 0.13430934 -0.23196934
-0.159573 0.13428833 -0.23194766
-0.1591225 0.13430201 -0.23198301
-0.15869634 0.13430767 -0.23196967
-0.15828167 0.134285 -0.23194766
-0.15779251 0.134294 -0.23190001
-0.15734901 0.13430665 -0.23185267
-0.15701367 0.13428633 -0.231912
-0.156763 0.13427299 -0.23192567
-0.16643266 0.13450567 -0.23183568
-0.16231951 0.134499 -0.23181599
-0.16198568 0.13451333 -0.23186566
-0.16175668 0.13449533 -0.23192234
-0.16001068 0.134524 -0.23195733
-0.15956533 0.13450366 -0.23193868
-0.15911667 0.13448067 -0.23197067
-0.15868901 0.13452367 -0.23194234
-0.15827368 0.13450032 -0.23193701
-0.157786 0.13447399 -0.231885
-0.15733899 0.13452034 -0.23187433
-0.15700567 0.13450134 -0.23190033
-0.15675467 0.134487 -0.23192666
-0.16642433 0.134719 -0.23184067
-0.162313 0.13467699 -0.23180351
-0.1619795 0.134693 -0.23184949
-0.16174833 0.13471067 -0.23191033
-0.160004 0.13470399 -0.2319465
-0.15955733 0.13471867 -0.23193265
-0.159108 0.13469566 -0.23196934
-0.15868151 0.134701 -0.231962
-0.15826534 0.13471401 -0.23193733
-0.15777801 0.13468868 -0.23187701
-0.15733251 0.134699 -0.2318705
-0.157001 0.134644 -0.23188899
-0.15699649 0.13475201 -0.231894
-0.15674599 0.13470167 -0.23192935
-0.156333 0.13474201 -0.231801
-0.166417 0.13489649 -0.231842
-0.16230699 0.13482 -0.231804
-0.161973 0.13487233 -0.23183699
-0.161741 0.13492633 -0.23189402
-0.16000099 0.134811 -0.231932
-0.159997 0.134921 -0.23191199
-0.15955099 0.13489801 -0.23191699
-0.15910099 0.13491134 -0.23194833
-0.15867434 0.134881 -0.23195933
-0.1582585 0.134894 -0.23192599
-0.15776999 0.13490333 -0.23187067
-0.157326 0.13487834 -0.23186301
-0.156991 0.134896 -0.2318785
-0.15673865 0.13491766 -0.23190899
-0.16640998 0.13507468 -0.23184933
-0.161964 0.135085 -0.23185833
-0.16173351 0.135104 -0.231902
-0.15999067 0.13509899 -0.23189767
-0.15954401 0.13507633 -0.23191367
-0.15909301 0.13512667 -0.23192501
-0.15866667 0.13509667 -0.23193532
-0.158253 0.13507366 -0.23190467
-0.15776233 0.13511866 -0.231842
-0.15731834 0.135094 -0.23184299
-0.15698533 0.13507535 -0.23185967
-0.1567315 0.135096 -0.231912
-0.167151 0.135325 -0.231998
-0.16640401 0.135253 -0.23183399
-0.1664 0.135361 -0.231815
-0.161956 0.13529967 -0.23184067
-0.161727 0.13528234 -0.23189467
-0.159981 0.13531233 -0.23192866
-0.15953733 0.13529301 -0.23187767
-0.15908551 0.135304 -0.231943
-0.15865833 0.13531066 -0.23193367
-0.15824533 0.13528967 -0.23187767
-0.15775651 0.135299 -0.23182
-0.15731068 0.13530867 -0.23182666
-0.15697633 0.13528967 -0.23186533
-0.15672433 0.13527535 -0.23190899
-0.16639467 0.13550401 -0.23181401
-0.16194701 0.13551366 -0.23185301
-0.161718 0.13549633 -0.23189966
-0.15997267 0.135527 -0.23192666
-0.15952899 0.135507 -0.23188066
-0.15907967 0.135484 -0.23191933
-0.15865 0.13552468 -0.23193835
-0.158236 0.13550234 -0.231902
-0.15774867 0.13547666 -0.231839
-0.15730132 0.135524 -0.23184501
-0.15696834 0.13550501 -0.23185666
-0.15671733 0.13549133 -0.23187967
-0.167138 0.135682 -0.23198001
-0.16639 0.135646 -0.231802
-0.1619405 0.135693 -0.2318535
-0.16171066 0.13571233 -0.231879
-0.1599665 0.1357065 -0.23191249
-0.15952033 0.13572299 -0.23187666
-0.15907101 0.13569933 -0.231924
-0.1586435 0.135704 -0.23192799
-0.158228 0.13571866 -0.23188066
-0.15774034 0.13569133 -0.23183501
-0.15729451 0.13570151 -0.23183751
-0.15696 0.135719 -0.23185635
-0.15670967 0.13570701 -0.23186468
-0.16712999 0.13589767 -0.23196535
-0.16193366 0.13587201 -0.23183699
-0.16170199 0.13592635 -0.23188001
-0.15996033 0.135886 -0.23189466
-0.1595145 0.135902 -0.23185199
-0.15906334 0.135914 -0.23190732
-0.15863667 0.135884 -0.231916
-0.1582215 0.135897 -0.23187101
-0.15773232 0.135906 -0.23183267
-0.15729 0.135846 -0.231814
-0.1569535 0.13589901 -0.231848
-0.15670098 0.135921 -0.23186667
-0.16712235 0.13611202 -0.23194902
-0.16637599 0.136004 -0.231802
-0.16192667 0.13608666 -0.23180735
-0.16169551 0.13610449 -0.231875
-0.159952 0.13610134 -0.23188633
-0.15950733 0.13608 -0.23185633
-0.15905699 0.13609301 -0.231894
-0.15862833 0.13609867 -0.231916
-0.158215 0.13607667 -0.23187
-0.15772399 0.136122 -0.23182333
-0.156947 0.136078 -0.23183699
-0.1566945 0.13610101 -0.231859
-0.16711366 0.13632567 -0.23195468
-0.161919 0.13626501 -0.231821
-0.16169067 0.13628535 -0.23183399
-0.15994366 0.136316 -0.231888
-0.15949933 0.13629468 -0.23184967
-0.15905 0.136273 -0.23188166
-0.15862167 0.136315 -0.231885
-0.158206 0.13629067 -0.23187567
-0.15771699 0.1363 -0.23182699
-0.157269 0.136383 -0.231812
-0.15693901 0.13629267 -0.23183201
-0.15668868 0.13628 -0.23183501
-0.167106 0.136503 -0.231971
-0.16190851 0.13655099 -0.23180699
-0.161681 0.13649933 -0.231847
-0.1599375 0.13649499 -0.2318725
-0.159491 0.13650934 -0.23184866
-0.15904233 0.13648733 -0.23187268
-0.15861499 0.1364935 -0.23187
-0.15820099 0.136434 -0.23187099
-0.15819651 0.13654199 -0.23187
-0.15771033 0.13647933 -0.23181701
-0.157263 0.13652501 -0.23181634
-0.15693033 0.13650666 -0.231833
-0.15667899 0.13649333 -0.23185633
-0.16710067 0.13668233 -0.23193733
-0.16190299 0.136693 -0.23180601
-0.16167299 0.13671367 -0.23184501
-0.15993033 0.136673 -0.23187399
-0.15948267 0.136724 -0.231848
-0.15903467 0.136702 -0.23185067
-0.158608 0.13667201 -0.23187833
-0.15819067 0.13672067 -0.23184933
-0.15770198 0.13669367 -0.23181234
-0.15725601 0.136704 -0.23182049
-0.156922 0.13672133 -0.231833
-0.15667067 0.13670734 -0.231858
-0.16709201 0.13689767 -0.23193567
-0.16166501 0.13692699 -0.23183399
-0.159923 0.13688834 -0.23184668
-0.15947551 0.136902 -0.23185
-0.15902634 0.13691667 -0.23185366
-0.158602 0.136815 -0.23188201
-0.15859801 0.136922 -0.231875
-0.1581835 0.13690001 -0.231857
-0.15769367 0.136907 -0.23181398
-0.157251 0.13684601 -0.23181
-0.15691501 0.13690001 -0.2318265
-0.15666267 0.13692333 -0.23184466
-0.16708334 0.13711067 -0.23194499
-0.161659 0.137107 -0.231822
-0.15991499 0.13710201 -0.23184699
-0.15946834 0.13708133 -0.23184568
-0.1590195 0.137095 -0.231847
-0.158592 0.13710201 -0.23185267
-0.15817599 0.13707735 -0.23185734
-0.156909 0.13707967 -0.23180501
-0.15665549 0.13710099 -0.231856
-0.16707666 0.137326 -0.231912
-0.16165051 0.137321 -0.23180801
-0.159906 0.137316 -0.231856
-0.15946166 0.13729633 -0.23181832
-0.15901299 0.137275 -0.23183699
-0.15858333 0.137316 -0.23186366
-0.15816833 0.137293 -0.23184167
-0.15768 0.13726699 -0.231802
-0.156904 0.13722301 -0.231802
-0.15664899 0.13728134 -0.23182969
-0.16706949 0.137504 -0.231912
-0.16164301 0.13749968 -0.23182434
-0.1598995 0.13749599 -0.2318375
-0.159455 0.13747451 -0.2318085
-0.159005 0.13748901 -0.23183466
-0.15857649 0.137495 -0.23185501
-0.158161 0.13750799 -0.23182265
-0.15664099 0.137495 -0.23182632
-0.16706266 0.13768166 -0.23190801
-0.16163467 0.13771367 -0.23182599
-0.15989299 0.13767467 -0.23183133
-0.15944199 0.137796 -0.231806
-0.15899667 0.137703 -0.23183334
-0.15856934 0.137674 -0.23185766
-0.158152 0.137722 -0.23183066
-0.15663199 0.13770901 -0.23183535
-0.167055 0.137897 -0.23189099
-0.16162668 0.13792767 -0.23181666
-0.15988468 0.13788933 -0.23183167
-0.159439 0.137868 -0.23180801
-0.15898867 0.13791834 -0.23182635
-0.15856166 0.13788833 -0.23184133
-0.158145 0.1379005 -0.231828
-0.15662433 0.137925 -0.231824
-0.16704701 0.138111 -0.23189068
-0.1616195 0.138106 -0.23181799
-0.15987568 0.13810334 -0.231839
-0.158981 0.138097 -0.23183501
-0.15855366 0.13810301 -0.23182799
-0.15813933 0.13808 -0.23180498
-0.16703801 0.13832434 -0.231894
-0.15986733 0.138317 -0.23183666
-0.15942 0.138368 -0.23180801
-0.158978 0.13820399 -0.23180901
-0.15854749 0.13828251 -0.23181599
-0.156611 0.138282 -0.231802
-0.1670315 0.138503 -0.2318895
-0.159861 0.138496 -0.231828
-0.1594155 0.138475 -0.23181149
-0.15897 0.138418 -0.231802
-0.1585395 0.138496 -0.23180901
-0.16702402 0.13868167 -0.23189533
-0.15985467 0.138675 -0.23181333
-0.158531 0.13867433 -0.231829
-0.16701633 0.13889533 -0.23188432
-0.15984599 0.13888967 -0.23180968
-0.15852334 0.13889 -0.23181933
-0.158108 0.13886701 -0.231805
-0.16700967 0.13910933 -0.231848
-0.159841 0.13903201 -0.231803
-0.1670025 0.13928801 -0.23184851
-0.166998 0.139395 -0.23184299
-0.166995 0.139503 -0.2318255
-0.16698866 0.13968067 -0.23181398
-0.166969 0.14018001 -0.231804
-0.142992 0.122584 -0.23172399
-0.142755 0.122566 -0.231654
-0.14804351 0.1227085 -0.2316445
-0.14779949 0.1226815 -0.231766
-0.14758666 0.12270734 -0.23170267
-0.143924 0.122712 -0.23161501
-0.14354201 0.122644 -0.23171
-0.143236 0.122601 -0.231655
-0.142994 0.122668 -0.23162401
-0.14204 0.1226 -0.23161601
-0.15096 0.122969 -0.231748
-0.147799 0.12284049 -0.2316425
-0.153134 0.123169 -0.231786
-0.15282901 0.123155 -0.2318
-0.152346 0.123193 -0.23178799
-0.15214767 0.12310001 -0.23175032
-0.15191434 0.12308934 -0.23173501
-0.15165949 0.1231075 -0.23176399
-0.15135449 0.1230945 -0.231754
-0.150959 0.123087 -0.23166099
-0.15350799 0.12333 -0.231791
-0.15313034 0.123317 -0.23173566
-0.15282667 0.123307 -0.23172332
-0.15258567 0.12329233 -0.231741
-0.1523445 0.1233055 -0.231736
-0.152144 0.12328801 -0.23166999
-0.15191001 0.123315 -0.23164034
-0.15165533 0.123294 -0.23169233
-0.15135233 0.123286 -0.231646
-0.1551955 0.1235375 -0.2317635
-0.154787 0.1235145 -0.23176301
-0.154405 0.123496 -0.231774
-0.15350433 0.123479 -0.23174132
-0.153127 0.12350599 -0.23165101
-0.152823 0.1234965 -0.2316315
-0.15258001 0.12351467 -0.23167734
-0.15234001 0.123491 -0.23168068
-0.1521405 0.123439 -0.231619
-0.151905 0.12346 -0.23161501
-0.15165301 0.123448 -0.231611
-0.156766 0.123731 -0.231795
-0.156289 0.123703 -0.23177899
-0.15559649 0.123703 -0.231769
-0.15519166 0.12372568 -0.23168933
-0.154783 0.12370033 -0.23170601
-0.154402 0.123604 -0.231756
-0.15439799 0.123715 -0.231738
-0.15391999 0.123787 -0.231778
-0.15349966 0.12370434 -0.231656
-0.153124 0.123617 -0.23162501
-0.15282001 0.123606 -0.231609
-0.152575 0.1236975 -0.23164001
-0.152335 0.123676 -0.23163401
-0.166115 0.123982 -0.23176301
-0.15676101 0.12387867 -0.231764
-0.15628232 0.12392234 -0.23173165
-0.155591 0.12388634 -0.23172767
-0.1551865 0.1239095 -0.23164499
-0.15477601 0.12391967 -0.23166268
-0.15439333 0.12389933 -0.23168735
-0.1539185 0.12390099 -0.231722
-0.15257099 0.123808 -0.231618
-0.16684249 0.1241435 -0.231783
-0.166113 0.124093 -0.231722
-0.156755 0.12409767 -0.23172133
-0.156277 0.124107 -0.23168999
-0.15558533 0.12410799 -0.231667
-0.15518101 0.12409267 -0.23160934
-0.154773 0.124069 -0.231611
-0.15438899 0.124086 -0.231617
-0.15391651 0.1240525 -0.231644
-0.16683699 0.12432534 -0.23175667
-0.16610733 0.12427467 -0.23168735
-0.163462 0.124344 -0.231776
-0.163095 0.124355 -0.2318
-0.158188 0.124331 -0.2318
-0.15774401 0.124343 -0.23177999
-0.1574115 0.124324 -0.23178399
-0.157159 0.124345 -0.2318
-0.15674867 0.12431834 -0.23167001
-0.15627199 0.12429034 -0.23164701
-0.155581 0.124293 -0.231612
-0.16683149 0.124508 -0.2317185
-0.16610351 0.1244605 -0.231622
-0.163458 0.1244915 -0.23174401
-0.163092 0.12450501 -0.23174302
-0.16271299 0.124514 -0.23178449
-0.15866999 0.124576 -0.231795
-0.15818499 0.12448034 -0.23175199
-0.157739 0.12448899 -0.23175049
-0.157406 0.124508 -0.23174733
-0.15715499 0.12449234 -0.23176099
-0.156743 0.1245005 -0.231637
-0.156266 0.124472 -0.2316215
-0.155577 0.124401 -0.23160601
-0.16682601 0.12468966 -0.231686
-0.16345201 0.12467066 -0.23172601
-0.16308467 0.12472167 -0.23171167
-0.16270702 0.124693 -0.23177433
-0.15866466 0.12472 -0.23178732
-0.15817799 0.124699 -0.231714
-0.15773433 0.12467366 -0.23169833
-0.15740199 0.124653 -0.231711
-0.1574 0.124727 -0.23169699
-0.15714766 0.124709 -0.231741
-0.15673667 0.124681 -0.23162033
-0.16681899 0.124908 -0.23164468
-0.16344433 0.12488732 -0.23170567
-0.1630785 0.124902 -0.231699
-0.16269934 0.12490966 -0.23174866
-0.162368 0.124887 -0.23178299
-0.15994951 0.124907 -0.23179001
-0.15950067 0.12492 -0.23179199
-0.159072 0.124958 -0.231795
-0.1586585 0.1248995 -0.23177251
-0.15817 0.124914 -0.23170535
-0.15772735 0.12489167 -0.23166533
-0.15739466 0.124872 -0.23167999
-0.15714066 0.12492701 -0.23171334
-0.15673199 0.124827 -0.231601
-0.16756201 0.125112 -0.2317955
-0.16681068 0.125122 -0.23164433
-0.16343667 0.12510367 -0.23168568
-0.16307099 0.12507899 -0.23170535
-0.16269232 0.125127 -0.23171733
-0.16236067 0.12510367 -0.23175867
-0.16038866 0.12510967 -0.23178132
-0.15994434 0.12508966 -0.23175101
-0.15949351 0.125098 -0.23178899
-0.15906751 0.125067 -0.23178801
-0.15865266 0.125081 -0.23174934
-0.15816133 0.12512766 -0.23170702
-0.157719 0.12510633 -0.23166335
-0.15738599 0.12508601 -0.23168135
-0.15713349 0.12510499 -0.231713
-0.16755567 0.125293 -0.23177934
-0.166805 0.125303 -0.23161951
-0.16342832 0.12531768 -0.23168333
-0.16306268 0.12529235 -0.23170866
-0.16268601 0.12530699 -0.23170251
-0.16235201 0.12531732 -0.23176001
-0.16038066 0.12532401 -0.23177834
-0.159936 0.12530367 -0.23175
-0.15948732 0.12527765 -0.23177733
-0.15905499 0.125388 -0.23178799
-0.15864433 0.125297 -0.23174132
-0.15815499 0.12530801 -0.23169199
-0.15771 0.125319 -0.231677
-0.157377 0.12529866 -0.23169701
-0.15712667 0.125284 -0.23170733
-0.167549 0.12551033 -0.23174201
-0.16680101 0.12540901 -0.23161399
-0.166798 0.12548301 -0.23160601
-0.16342151 0.125496 -0.231685
-0.16305466 0.12550767 -0.23169567
-0.16267833 0.12548368 -0.23171566
-0.16234601 0.125497 -0.23175001
-0.160374 0.12550201 -0.23177201
-0.15992767 0.12551901 -0.23173933
-0.15947933 0.125493 -0.23176967
-0.15905151 0.125496 -0.231782
-0.158636 0.12550999 -0.231745
-0.15814899 0.125488 -0.23167233
-0.15770349 0.125497 -0.23167799
-0.157368 0.12551166 -0.23170866
-0.15711866 0.12549867 -0.23169768
-0.167539 0.12571932 -0.23177899
-0.163415 0.12567568 -0.23166935
-0.163046 0.12572001 -0.23170567
-0.16267 0.12569635 -0.23172633
-0.16233933 0.12567566 -0.231741
-0.16210601 0.125762 -0.23179099
-0.16036667 0.12568033 -0.23177965
-0.1599205 0.125696 -0.23175099
-0.15947168 0.12570967 -0.23175167
-0.15904398 0.12567401 -0.23178267
-0.158627 0.12572367 -0.23175132
-0.158141 0.12570299 -0.23166268
-0.15769601 0.12567434 -0.231685
-0.15736 0.12572467 -0.23170932
-0.15710934 0.12571134 -0.23171699
-0.1675325 0.125898 -0.23177001
-0.166778 0.12597699 -0.231622
-0.16340698 0.12589133 -0.23165233
-0.16303951 0.125898 -0.231704
-0.16266167 0.12591134 -0.23171532
-0.16233034 0.12588899 -0.23174566
-0.162101 0.125907 -0.231774
-0.16035832 0.12589432 -0.23178132
-0.159913 0.12587367 -0.23175633
-0.15946233 0.12592167 -0.23176666
-0.15903567 0.125888 -0.23178633
-0.15862 0.1259025 -0.23175049
-0.15813267 0.12591833 -0.231658
-0.15768766 0.12588967 -0.23167932
-0.15735251 0.12590399 -0.23170599
-0.15710099 0.12592568 -0.23171599
-0.16752534 0.12607734 -0.23176567
-0.16677134 0.12611634 -0.23165233
-0.16340099 0.12603199 -0.23165999
-0.16339651 0.126138 -0.23166901
-0.16303234 0.12607734 -0.23169732
-0.16265298 0.12612467 -0.231721
-0.16232267 0.126104 -0.23173267
-0.16209333 0.126083 -0.23179133
-0.16034999 0.12610799 -0.23177867
-0.159905 0.12608901 -0.23175167
-0.15945551 0.126101 -0.23176
-0.15902768 0.126103 -0.231773
-0.15861301 0.12608068 -0.23174532
-0.15812549 0.126095 -0.23167101
-0.15767901 0.12610365 -0.23167934
-0.157346 0.126082 -0.23170365
-0.1570935 0.126102 -0.23173001
-0.16751666 0.12628999 -0.23177201
-0.16676399 0.126293 -0.231666
-0.16338967 0.12631534 -0.23167734
-0.16302501 0.12629333 -0.23167801
-0.16264549 0.126303 -0.23172751
-0.162314 0.12631701 -0.23174065
-0.16034167 0.12632333 -0.23177433
-0.15989633 0.12630235 -0.231754
-0.15944867 0.126279 -0.23176134
-0.15901966 0.12631834 -0.23176932
-0.15860499 0.126294 -0.23175132
-0.158117 0.12627067 -0.23169966
-0.15767099 0.12631799 -0.23167567
-0.15733801 0.12629734 -0.23169501
-0.15708633 0.12628067 -0.23172933
-0.15667051 0.126359 -0.2316165
-0.16750866 0.126504 -0.23176467
-0.166757 0.12647133 -0.23166734
-0.1633815 0.12649101 -0.2316975
-0.16301633 0.12650733 -0.23167968
-0.16263832 0.126479 -0.231741
-0.16230649 0.12649399 -0.23176
-0.1603345 0.12650099 -0.23178101
-0.15988798 0.12651734 -0.23174767
-0.15944 0.12649234 -0.23176967
-0.1590115 0.1264945 -0.231794
-0.15859534 0.126507 -0.23177433
-0.15810899 0.12648533 -0.231692
-0.15766133 0.12652899 -0.23170333
-0.15732901 0.12651066 -0.23170932
-0.15707867 0.126496 -0.23171766
-0.15666449 0.1265 -0.23163301
-0.16749966 0.126716 -0.23178034
-0.16674866 0.12668499 -0.23166133
-0.16337566 0.126672 -0.23167734
-0.16300733 0.126719 -0.231692
-0.16262966 0.12669234 -0.23174466
-0.16229899 0.126671 -0.231767
-0.160327 0.12667733 -0.23179366
-0.15988049 0.12669501 -0.23176099
-0.159431 0.12670501 -0.23178701
-0.15858667 0.12672134 -0.23177266
-0.15809967 0.12669767 -0.23170666
-0.15765351 0.126706 -0.231721
-0.15732001 0.12672333 -0.23171668
-0.15707 0.12671067 -0.23171966
-0.15665667 0.12667567 -0.23165834
-0.156176 0.126793 -0.231609
-0.167492 0.126892 -0.231796
-0.16674 0.12689801 -0.23166567
-0.166005 0.126987 -0.23161
-0.16336666 0.126884 -0.23168834
-0.163001 0.12685999 -0.23170599
-0.162999 0.126932 -0.23169599
-0.16262032 0.12690367 -0.23176335
-0.16229033 0.126885 -0.23177134
-0.15987401 0.12687333 -0.23175168
-0.1594235 0.126882 -0.23179799
-0.15857899 0.12689799 -0.2317915
-0.15809 0.126908 -0.231739
-0.157646 0.12688333 -0.23173065
-0.15731251 0.12690049 -0.23173401
-0.15705934 0.12691867 -0.23177867
-0.15664701 0.12688833 -0.23168401
-0.1561715 0.126901 -0.231608
-0.155477 0.12693501 -0.23161501
-0.16673 0.12710734 -0.23170199
-0.16600201 0.127059 -0.23160601
-0.16335799 0.12709732 -0.23169868
-0.162993 0.127076 -0.23169267
-0.16261201 0.12711833 -0.231759
-0.162282 0.12709899 -0.23177134
-0.15986432 0.127085 -0.23178066
-0.15808101 0.12712133 -0.231755
-0.15763733 0.12709634 -0.23174299
-0.15730366 0.127075 -0.23177499
-0.15663801 0.12710066 -0.23169799
-0.15616299 0.12707567 -0.23163666
-0.15547 0.127112 -0.23162299
-0.1550625 0.12712699 -0.23160249
-0.154653 0.127141 -0.231603
-0.16672033 0.12731767 -0.231737
-0.16599101 0.127307 -0.23162499
-0.16334833 0.12730934 -0.23172033
-0.16298433 0.12728865 -0.23170434
-0.16260451 0.127295 -0.23177201
-0.1580735 0.127299 -0.231768
-0.157628 0.12730934 -0.231759
-0.15729499 0.127289 -0.23178267
-0.15662967 0.12731533 -0.23169033
-0.15615399 0.12728833 -0.23164634
-0.155461 0.12732534 -0.23163132
-0.15505651 0.127271 -0.23160401
-0.15464666 0.12728101 -0.23161733
-0.16671033 0.12752832 -0.23176499
-0.16598333 0.12748267 -0.23164968
-0.16334002 0.12752233 -0.23171699
-0.16297533 0.12750067 -0.23171866
-0.162597 0.12747334 -0.23178166
-0.158066 0.12747699 -0.23177199
-0.157619 0.12752199 -0.23177667
-0.157289 0.127432 -0.231792
-0.15662099 0.127528 -0.23171099
-0.15614633 0.12750433 -0.231638
-0.1554535 0.1275035 -0.231644
-0.15504666 0.12751967 -0.23160768
-0.15463699 0.12749466 -0.23163833
-0.154255 0.127516 -0.23161051
-0.16670251 0.127703 -0.23179001
-0.16597466 0.12769501 -0.23166068
-0.16333151 0.127698 -0.23174649
-0.16296634 0.12771232 -0.23173666
-0.158058 0.127654 -0.23179451
-0.15761149 0.127699 -0.23178649
-0.1566135 0.127707 -0.231713
-0.15613633 0.12771434 -0.231674
-0.15544499 0.12767901 -0.23167533
-0.15503851 0.1276965 -0.231629
-0.15462799 0.12770732 -0.23165567
-0.15424733 0.127693 -0.23162366
-0.16596432 0.12790467 -0.231695
-0.16332532 0.12787734 -0.23173635
-0.162956 0.127923 -0.231777
-0.156606 0.12788333 -0.23173065
-0.1561285 0.127892 -0.2316895
-0.15543599 0.12789167 -0.23168965
-0.15503 0.12787266 -0.23166333
-0.15461899 0.12791933 -0.23167534
-0.154239 0.12790699 -0.23162401
-0.16595601 0.12811799 -0.23169567
-0.16331534 0.128089 -0.231764
-0.15659633 0.128096 -0.23175435
-0.156121 0.12807001 -0.23169601
-0.15542699 0.12810533 -0.23170532
-0.155021 0.12808467 -0.231673
-0.1546115 0.128097 -0.23168349
-0.15422966 0.12811966 -0.23164801
-0.16594633 0.12832899 -0.23172933
-0.16330749 0.1282645 -0.23178801
-0.156587 0.128309 -0.23176767
-0.156112 0.128282 -0.23172168
-0.15541767 0.12831734 -0.23172468
-0.155012 0.128298 -0.23168433
-0.15460551 0.12823951 -0.231695
-0.15459999 0.128345 -0.23170801
-0.154222 0.128298 -0.23166001
-0.15374851 0.128343 -0.231618
-0.15263499 0.12832066 -0.23161198
-0.15239349 0.12834549 -0.231613
-0.152152 0.12836 -0.231601
-0.1659385 0.12850401 -0.231756
-0.15657799 0.128521 -0.23178868
-0.15610234 0.12849434 -0.23174535
-0.1554105 0.12849601 -0.23173
-0.1550045 0.12847599 -0.2317
-0.155 0.128583 -0.231704
-0.154594 0.12848766 -0.23171766
-0.15421434 0.128474 -0.231677
-0.15374134 0.12852 -0.23163366
-0.1533125 0.1285325 -0.2316085
-0.15293249 0.12851301 -0.231603
-0.1526275 0.128499 -0.23161849
-0.15238599 0.12852366 -0.23161934
-0.165931 0.128682 -0.23176134
-0.156572 0.128663 -0.231793
-0.15609367 0.12870835 -0.23174767
-0.15540451 0.128638 -0.2317365
-0.15539999 0.12874401 -0.231746
-0.15499401 0.12872499 -0.23171468
-0.15458499 0.12870033 -0.23173468
-0.15420467 0.12868567 -0.23170866
-0.15373349 0.12869599 -0.231657
-0.15330499 0.128711 -0.23161399
-0.15292601 0.12869133 -0.23160499
-0.15262 0.12867667 -0.231636
-0.1523785 0.128701 -0.231628
-0.152135 0.12879001 -0.231602
-0.165922 0.12889534 -0.23176502
-0.156085 0.12892099 -0.23176567
-0.155394 0.128886 -0.23175167
-0.1549875 0.128903 -0.23171701
-0.15457635 0.12891366 -0.23174334
-0.15419601 0.12890099 -0.23170601
-0.15372534 0.12887333 -0.23167367
-0.15329567 0.12892433 -0.23162568
-0.152916 0.12890433 -0.23163134
-0.152611 0.12888999 -0.23164
-0.15237166 0.12888068 -0.231631
-0.152133 0.12886199 -0.231601
-0.165913 0.12910666 -0.23178865
-0.156077 0.129099 -0.2317795
-0.15538567 0.12910134 -0.23174866
-0.15497901 0.12907965 -0.23173499
-0.154568 0.12912834 -0.23174633
-0.15418701 0.129113 -0.23173034
-0.15371567 0.12908567 -0.23170201
-0.15328801 0.12910199 -0.231645
-0.152907 0.12911767 -0.23164533
-0.15260351 0.129068 -0.23165801
-0.15259901 0.12917501 -0.23166899
-0.15236233 0.12909268 -0.23165233
-0.15212299 0.12907334 -0.23163499
-0.165907 0.12925 -0.23178899
-0.15607001 0.12927733 -0.23178566
-0.15537566 0.12931333 -0.23177867
-0.15496999 0.12929334 -0.23175299
-0.15455949 0.12930501 -0.2317795
-0.15417799 0.129327 -0.23173833
-0.15370698 0.12929833 -0.23171766
-0.15328033 0.12927867 -0.23165868
-0.1528995 0.12929499 -0.231657
-0.152593 0.129317 -0.23167133
-0.15235201 0.12930566 -0.23168267
-0.15211301 0.12928565 -0.23166467
-0.1560625 0.129456 -0.231794
-0.154961 0.12950666 -0.23176999
-0.1545535 0.129447 -0.23178899
-0.1541705 0.12950501 -0.231741
-0.15369767 0.12951334 -0.231727
-0.153272 0.129492 -0.23166734
-0.15289201 0.129473 -0.231663
-0.15258551 0.12949499 -0.231683
-0.15234399 0.12952034 -0.23167467
-0.15210401 0.12949967 -0.23166867
-0.154952 0.12972067 -0.23177968
-0.154543 0.129696 -0.2318
-0.154163 0.12968367 -0.23175333
-0.1536915 0.129693 -0.23171
-0.15326299 0.12970699 -0.23167767
-0.15288334 0.129687 -0.23167467
-0.15257801 0.12967367 -0.23169069
-0.152336 0.129697 -0.23170501
-0.15209599 0.129715 -0.23166633
-0.15494549 0.12990001 -0.231777
-0.15415399 0.12989734 -0.231766
-0.15368401 0.12987167 -0.23171866
-0.15325402 0.129921 -0.23168634
-0.15287532 0.12990166 -0.23167001
-0.15256999 0.129889 -0.231683
-0.152328 0.12987368 -0.231731
-0.15208699 0.12992834 -0.23167501
-0.154938 0.130078 -0.23178433
-0.15414535 0.13011134 -0.231777
-0.153675 0.13008468 -0.23173667
-0.153247 0.130099 -0.231683
-0.152867 0.13011767 -0.23166732
-0.15256101 0.13010234 -0.23169298
-0.15231967 0.130089 -0.23172534
-0.15208 0.130106 -0.231685
-0.151085 0.130156 -0.231602
-0.154929 0.130292 -0.23179133
-0.1545195 0.13030601 -0.2317895
-0.154137 0.13032533 -0.23177433
-0.15366532 0.13029867 -0.23175834
-0.15324 0.13027799 -0.23168534
-0.15285951 0.13029501 -0.231673
-0.15255199 0.13031633 -0.23170467
-0.15231101 0.130303 -0.231728
-0.15207367 0.13028699 -0.23166233
-0.151079 0.13029833 -0.23161434
-0.1506775 0.130316 -0.231611
-0.15492034 0.13050665 -0.23179734
-0.15451266 0.13048466 -0.23178767
-0.15413049 0.130505 -0.231769
-0.15365733 0.13051265 -0.23175167
-0.15323101 0.13049233 -0.231694
-0.152852 0.130473 -0.23168565
-0.15254267 0.13052833 -0.23172967
-0.152303 0.130519 -0.231718
-0.15206499 0.130501 -0.23167133
-0.15107 0.130512 -0.231619
-0.15491199 0.13072167 -0.23179166
-0.154504 0.13069834 -0.23179267
-0.15412234 0.13068266 -0.23179066
-0.153651 0.130693 -0.231739
-0.15322267 0.13070633 -0.23169567
-0.15284334 0.13068767 -0.23168401
-0.1525355 0.130707 -0.2317255
-0.1522965 0.130698 -0.231713
-0.15205599 0.13071366 -0.23169233
-0.15106167 0.13072599 -0.231622
-0.1549055 0.1309 -0.23178801
-0.15449649 0.130878 -0.23179799
-0.15411432 0.130897 -0.23177934
-0.15364467 0.13087299 -0.23172633
-0.15321399 0.13092066 -0.23169766
-0.15283601 0.130904 -0.23166199
-0.152529 0.13088633 -0.23172499
-0.15228899 0.130877 -0.231719
-0.1520485 0.13089299 -0.231694
-0.15184499 0.130983 -0.231602
-0.1510555 0.130907 -0.23160699
-0.154898 0.13107868 -0.231795
-0.15410532 0.13111199 -0.23178834
-0.15363567 0.13108633 -0.23173666
-0.15320751 0.1311 -0.231695
-0.15282632 0.13111633 -0.23169367
-0.15252 0.131101 -0.23172568
-0.15227999 0.131091 -0.231721
-0.15204167 0.13107167 -0.23169367
-0.151839 0.13112567 -0.23160566
-0.15104599 0.13115799 -0.23160399
-0.154892 0.131221 -0.231792
-0.15409701 0.13132633 -0.23178768
-0.15362699 0.131301 -0.23173332
-0.153203 0.13120601 -0.231694
-0.153199 0.13131399 -0.231694
-0.15281901 0.131295 -0.2317
-0.15251167 0.13131633 -0.23172732
-0.15227135 0.13130499 -0.23173201
-0.15203299 0.13128567 -0.23169868
-0.15104 0.13130133 -0.23160332
-0.15487801 0.131579 -0.2318
-0.15409049 0.131505 -0.23178899
-0.15361868 0.131515 -0.23174101
-0.15319265 0.131494 -0.23168068
-0.152812 0.13147368 -0.23169632
-0.1525055 0.131495 -0.23171601
-0.152264 0.13152067 -0.23170567
-0.15202467 0.131501 -0.23169601
-0.151031 0.13151534 -0.23160766
-0.15487266 0.131721 -0.23179765
-0.15408333 0.131685 -0.231782
-0.15361151 0.131694 -0.231748
-0.153184 0.13170867 -0.23168634
-0.15280367 0.13168834 -0.23169732
-0.15249866 0.13167399 -0.231704
-0.15225649 0.131698 -0.23172
-0.15201634 0.131716 -0.23169301
-0.151026 0.131658 -0.231608
-0.155964 0.13195801 -0.23179099
-0.154866 0.131901 -0.23178899
-0.15445633 0.13191633 -0.231786
-0.15407501 0.13190033 -0.231776
-0.15360402 0.13187166 -0.23175733
-0.15317534 0.13192333 -0.23169233
-0.15279667 0.13190401 -0.23166932
-0.15249066 0.13189 -0.231691
-0.15224934 0.13187666 -0.231727
-0.1520095 0.13189501 -0.231684
-0.1559585 0.132101 -0.2317895
-0.15485966 0.13208133 -0.23177566
-0.154449 0.132093 -0.23179349
-0.15406634 0.13211434 -0.23178367
-0.153596 0.13208699 -0.23174334
-0.1531685 0.13210249 -0.23168299
-0.152788 0.13211934 -0.23166867
-0.152483 0.13210601 -0.23168166
-0.15224133 0.132092 -0.23171534
-0.152004 0.132038 -0.2316855
-0.151999 0.132144 -0.231692
-0.15485066 0.13229467 -0.23178534
-0.15444501 0.132201 -0.231796
-0.1540595 0.132293 -0.23178801
-0.15358733 0.132302 -0.23174532
-0.15316133 0.13228101 -0.23168933
-0.15278199 0.13229901 -0.231655
-0.152474 0.13232 -0.231686
-0.15223366 0.13230801 -0.23170133
-0.15199433 0.13228799 -0.23168534
-0.165778 0.13252801 -0.23179901
-0.154842 0.13250966 -0.23178934
-0.15405233 0.13247232 -0.23178633
-0.15358067 0.13251901 -0.23171501
-0.15315333 0.13249634 -0.23167334
-0.15277468 0.13247733 -0.231659
-0.15246749 0.13249901 -0.23168901
-0.152225 0.13252334 -0.23170201
-0.15198667 0.13250534 -0.23166867
-0.15593299 0.132744 -0.23179901
-0.155241 0.13274699 -0.231784
-0.15483434 0.13272466 -0.23177134
-0.154045 0.132688 -0.23176001
-0.1535735 0.132698 -0.231712
-0.15314533 0.13271099 -0.23166834
-0.152766 0.13269199 -0.23165967
-0.15245999 0.13267767 -0.23169
-0.15221849 0.13270301 -0.23168799
-0.15197735 0.13271934 -0.23167734
-0.150984 0.13273101 -0.23160399
-0.16576433 0.132884 -0.23179001
-0.15523501 0.13288967 -0.23178034
-0.15482751 0.13290399 -0.231767
-0.15403666 0.13290332 -0.23175867
-0.15356599 0.13287634 -0.23171902
-0.15313701 0.13292633 -0.23166966
-0.15275733 0.13290699 -0.23166068
-0.15245299 0.13289367 -0.23166533
-0.15221132 0.13288166 -0.23168834
-0.15197299 0.13290051 -0.23163101
-0.15097949 0.13283899 -0.231609
-0.16575667 0.13309933 -0.23177832
-0.15522599 0.133103 -0.23179749
-0.15482034 0.13308333 -0.23177366
-0.15441051 0.13309699 -0.23177749
-0.154029 0.13311867 -0.23174234
-0.153557 0.13309 -0.23173733
-0.15312949 0.13310499 -0.23167799
-0.15274967 0.13312232 -0.231646
-0.15244401 0.133109 -0.23166566
-0.15220401 0.133059 -0.2316985
-0.1522 0.133169 -0.23168799
-0.15196501 0.13307901 -0.23164232
-0.16574834 0.13331367 -0.23177433
-0.155911 0.13331801 -0.231792
-0.15521801 0.13331901 -0.23179466
-0.15481234 0.13329799 -0.23176266
-0.15440466 0.133277 -0.23174798
-0.15402299 0.13329899 -0.23171899
-0.15354966 0.13330533 -0.231714
-0.15312301 0.13328433 -0.23166066
-0.15274349 0.133302 -0.231629
-0.152436 0.13332267 -0.23166268
-0.15219499 0.133311 -0.23168333
-0.15195601 0.13329166 -0.23165531
-0.16574 0.133527 -0.23177201
-0.15590434 0.133497 -0.23178132
-0.155212 0.13349849 -0.23177299
-0.15480433 0.13351335 -0.23175533
-0.154396 0.13349099 -0.231755
-0.154015 0.13347633 -0.23173499
-0.153542 0.13352101 -0.23169768
-0.15311533 0.13349999 -0.23164468
-0.15273599 0.13347967 -0.23164499
-0.15242949 0.13350201 -0.23165551
-0.152189 0.13349099 -0.231656
-0.151948 0.13350798 -0.23164399
-0.16573399 0.133707 -0.231748
-0.15589599 0.133711 -0.23178299
-0.15520634 0.13367867 -0.23174299
-0.15479851 0.13369399 -0.231727
-0.15438832 0.13370633 -0.23174866
-0.15400733 0.133691 -0.23172833
-0.1535355 0.13370049 -0.23168701
-0.153108 0.13371368 -0.23162834
-0.15272833 0.13369501 -0.23162501
-0.152426 0.13361 -0.231631
-0.15218267 0.13367166 -0.231638
-0.15193999 0.13372201 -0.23163201
-0.16572733 0.13388567 -0.23174532
-0.15588766 0.13392566 -0.23177832
-0.15519701 0.13389267 -0.23175101
-0.15479232 0.13387267 -0.23171
-0.15438099 0.13392234 -0.23172133
-0.154002 0.133835 -0.231721
-0.15399751 0.13394299 -0.2317255
-0.153529 0.13388 -0.23167433
-0.15310049 0.133893 -0.231628
-0.15271999 0.13390933 -0.23162334
-0.15241399 0.1339325 -0.23162501
-0.15217499 0.13388567 -0.231631
-0.15193349 0.133902 -0.23163
-0.165719 0.13410001 -0.23174299
-0.15588051 0.134105 -0.2317805
-0.15518866 0.13410665 -0.23175932
-0.15478434 0.13408799 -0.23170035
-0.15437451 0.134102 -0.2317055
-0.15399133 0.134122 -0.23170666
-0.15352067 0.13409467 -0.23166867
-0.15309368 0.13407166 -0.23163301
-0.152713 0.13408899 -0.23161399
-0.15240701 0.13411133 -0.23162299
-0.15216534 0.13409966 -0.23164833
-0.15192701 0.13408135 -0.23161767
-0.16571133 0.134314 -0.23172735
-0.16307034 0.13429233 -0.231794
-0.16270299 0.134342 -0.231794
-0.15635033 0.13431434 -0.23179035
-0.155874 0.13428433 -0.23177367
-0.15518101 0.13432135 -0.23174733
-0.15477668 0.13430335 -0.23168634
-0.15436733 0.13428 -0.231712
-0.15398499 0.13430201 -0.23168901
-0.153513 0.13431035 -0.23165067
-0.15308566 0.134287 -0.23162432
-0.15215801 0.13431434 -0.23163199
-0.15192001 0.13425949 -0.231612
-0.16570365 0.13452832 -0.23171067
-0.16306233 0.13450666 -0.231785
-0.16269867 0.134486 -0.23176967
-0.1563445 0.13449401 -0.2317685
-0.155866 0.13449867 -0.23176201
-0.15517351 0.13450101 -0.23175301
-0.15476801 0.134517 -0.23169534
-0.15436001 0.13449533 -0.23168902
-0.153979 0.134481 -0.23166567
-0.15350433 0.13452466 -0.23165299
-0.15307733 0.134501 -0.23162268
-0.152391 0.134541 -0.231611
-0.15215051 0.13449299 -0.231637
-0.15191066 0.13451099 -0.23160534
-0.1656965 0.13470599 -0.2317065
-0.16305566 0.13472234 -0.23174699
-0.16269 0.1347 -0.23177333
-0.162313 0.13467801 -0.23179799
-0.15633801 0.134636 -0.23178101
-0.15585901 0.13471434 -0.23173034
-0.15516667 0.134679 -0.23174433
-0.15476051 0.1346955 -0.23169801
-0.15435199 0.134711 -0.23167734
-0.15397067 0.13469633 -0.23166566
-0.1534985 0.13470399 -0.23164099
-0.15306933 0.13471667 -0.23161133
-0.15238534 0.13468499 -0.23160334
-0.15214433 0.134673 -0.23162735
-0.15190201 0.134725 -0.23160867
-0.16568901 0.13488433 -0.231718
-0.16304851 0.134901 -0.231756
-0.16268201 0.13491434 -0.231764
-0.162305 0.13492951 -0.231767
-0.15632766 0.134886 -0.231794
-0.155853 0.134894 -0.2317135
-0.15515967 0.134895 -0.231721
-0.15475333 0.13487466 -0.23169799
-0.15434299 0.13492499 -0.23168735
-0.153961 0.13490935 -0.231692
-0.15349032 0.13488168 -0.23165368
-0.15306249 0.134895 -0.23160399
-0.15213667 0.13488834 -0.23160833
-0.151895 0.134904 -0.23160601
-0.16568132 0.13509899 -0.23170833
-0.16304167 0.13507967 -0.23175065
-0.16267334 0.13512833 -0.23177034
-0.16229767 0.13510799 -0.23177201
-0.15631966 0.13510133 -0.23178701
-0.15584399 0.13507199 -0.23174699
-0.15515167 0.13511001 -0.23170535
-0.15474601 0.13508965 -0.23167968
-0.15433651 0.135104 -0.2316815
-0.153953 0.13512433 -0.23168333
-0.15348268 0.13509767 -0.23164332
-0.1523695 0.135077 -0.23161301
-0.15212767 0.13510233 -0.23161633
-0.16567467 0.13531433 -0.23166935
-0.16303366 0.13529299 -0.23174535
-0.1626675 0.135307 -0.23175201
-0.16229068 0.135322 -0.231749
-0.156313 0.135317 -0.23175032
-0.15583634 0.13528633 -0.23173635
-0.15514299 0.13532533 -0.23170467
-0.15473832 0.13530467 -0.23166434
-0.15433 0.13528334 -0.231668
-0.153946 0.13530301 -0.231682
-0.153474 0.13531101 -0.231654
-0.165666 0.13552667 -0.231676
-0.16302533 0.135507 -0.23174031
-0.162661 0.13548635 -0.23173566
-0.1622815 0.135499 -0.231795
-0.156306 0.13549599 -0.2317525
-0.15582865 0.13550232 -0.23171668
-0.1551365 0.13550401 -0.231704
-0.15473001 0.13551933 -0.231656
-0.154321 0.13549767 -0.23168166
-0.15393899 0.13548233 -0.23167701
-0.15346567 0.13552667 -0.23164433
-0.16638601 0.135754 -0.231794
-0.1656585 0.135704 -0.2316885
-0.16301733 0.13572167 -0.23173366
-0.16265233 0.13570066 -0.23173864
-0.16227466 0.13567734 -0.23178166
-0.156298 0.13567366 -0.23177034
-0.15582 0.135717 -0.23171766
-0.155129 0.135682 -0.23170632
-0.15472251 0.13569801 -0.231665
-0.15431333 0.13571234 -0.23166533
-0.15393133 0.13569734 -0.231667
-0.15345949 0.13570601 -0.23163
-0.16638049 0.135897 -0.23179451
-0.16565233 0.135884 -0.23166932
-0.163011 0.1359005 -0.231722
-0.16264467 0.13591534 -0.23172732
-0.16226767 0.13589267 -0.23175667
-0.157287 0.13595399 -0.231791
-0.15629034 0.13588865 -0.23175065
-0.15581399 0.1358965 -0.2316975
-0.15512167 0.13589734 -0.23169167
-0.154717 0.13587767 -0.23164333
-0.15430701 0.135892 -0.2316495
-0.153926 0.13587749 -0.23163199
-0.15345301 0.13588534 -0.23161566
-0.166372 0.136112 -0.23179001
-0.16564433 0.136098 -0.23166233
-0.16300468 0.13608 -0.23170066
-0.16263801 0.136094 -0.23172051
-0.16225967 0.136108 -0.23174
-0.15728199 0.136098 -0.23177034
-0.15628301 0.136104 -0.23173167
-0.15580802 0.13607533 -0.231685
-0.155113 0.13611166 -0.23168866
-0.154709 0.13609301 -0.23162699
-0.15430033 0.13607199 -0.23163734
-0.153915 0.136163 -0.231626
-0.15344499 0.13609965 -0.23160733
-0.16636567 0.13628967 -0.23177634
-0.165637 0.13631301 -0.23163466
-0.16299601 0.13629401 -0.23170532
-0.16263168 0.13627332 -0.23170201
-0.16225301 0.13632335 -0.23170967
-0.161916 0.136373 -0.2318
-0.15727401 0.13627601 -0.231791
-0.156275 0.13631965 -0.23171633
-0.155801 0.136218 -0.231705
-0.15579751 0.136324 -0.231695
-0.15510468 0.136327 -0.23168667
-0.1547 0.13630633 -0.23163567
-0.154294 0.136251 -0.231622
-0.15390849 0.136306 -0.231644
-0.153439 0.136243 -0.23160601
-0.16635801 0.13650434 -0.23176134
-0.16562933 0.13652766 -0.23161501
-0.16298801 0.136508 -0.23170167
-0.162624 0.13648701 -0.23169367
-0.162246 0.13650149 -0.23171601
-0.16191299 0.136445 -0.23179699
-0.15626851 0.13649851 -0.2317145
-0.15579133 0.13650467 -0.23167734
-0.1550985 0.13650601 -0.23167601
-0.154691 0.13652132 -0.23165135
-0.154282 0.136573 -0.231617
-0.15390168 0.13648434 -0.23164301
-0.16634966 0.136719 -0.23175865
-0.16297966 0.13672201 -0.23169434
-0.16261534 0.13670067 -0.23168866
-0.16223735 0.136678 -0.23175067
-0.156261 0.13667665 -0.23171568
-0.15578233 0.13671868 -0.23168433
-0.155092 0.13668467 -0.23166566
-0.1546845 0.13669901 -0.231646
-0.154275 0.13671367 -0.23164068
-0.15389366 0.13669901 -0.231629
-0.16634351 0.1368975 -0.23174649
-0.16561601 0.136884 -0.23160833
-0.16297349 0.13690101 -0.231684
-0.16260934 0.13691667 -0.23164301
-0.16222934 0.13689367 -0.23173134
-0.16189666 0.13687266 -0.23178966
-0.15724801 0.13695399 -0.231791
-0.15625201 0.13689066 -0.231732
-0.15577701 0.136898 -0.23165649
-0.15508366 0.13689999 -0.23165433
-0.15467735 0.136879 -0.23164
-0.15426667 0.13692833 -0.23164
-0.15388532 0.13691367 -0.23162933
-0.16633666 0.13707434 -0.23174368
-0.16560768 0.137098 -0.23160566
-0.162966 0.13707833 -0.23168667
-0.1626025 0.137095 -0.2316435
-0.16222167 0.137107 -0.23171633
-0.16188867 0.137086 -0.23178001
-0.15768667 0.137123 -0.23178868
-0.15724234 0.137098 -0.23178633
-0.15624367 0.13710566 -0.23172967
-0.15577067 0.137077 -0.23163833
-0.155076 0.13711333 -0.23164733
-0.15467 0.13709301 -0.23162633
-0.1542605 0.137108 -0.23162651
-0.153879 0.13709301 -0.231619
-0.166328 0.13728799 -0.231749
-0.16295834 0.13729267 -0.23167433
-0.16259466 0.13727267 -0.23165368
-0.16221301 0.13732032 -0.23172502
-0.16188033 0.13730067 -0.23177934
-0.16165499 0.137214 -0.23179901
-0.15767799 0.137337 -0.231796
-0.15723501 0.13731301 -0.23175667
-0.15689951 0.13733099 -0.231791
-0.15623568 0.13732 -0.23172165
-0.15576066 0.13729034 -0.23166966
-0.1550685 0.137292 -0.23166099
-0.15466167 0.137308 -0.23162301
-0.15425299 0.13728634 -0.231631
-0.15387233 0.13727167 -0.23161066
-0.16632067 0.13750233 -0.23172401
-0.16295101 0.13750733 -0.23164968
-0.16258599 0.13748665 -0.23165767
-0.1622055 0.1374985 -0.231739
-0.161872 0.137514 -0.231785
-0.15945099 0.137582 -0.23179901
-0.15767266 0.13748001 -0.23178434
-0.15722601 0.137527 -0.23177232
-0.15689333 0.13750868 -0.23177934
-0.15623 0.137499 -0.2316905
-0.15575367 0.13750567 -0.23163934
-0.155062 0.13747166 -0.231638
-0.15465333 0.13752265 -0.23162268
-0.154245 0.137501 -0.23163165
-0.15386401 0.137486 -0.23161034
-0.16631334 0.13771766 -0.231695
-0.16294201 0.137721 -0.23167133
-0.16257733 0.13770001 -0.23166867
-0.162201 0.137605 -0.23174
-0.1621975 0.137713 -0.23172599
-0.16186367 0.13772933 -0.23177333
-0.159447 0.13769001 -0.231795
-0.15766533 0.13769566 -0.23176165
-0.1572195 0.137705 -0.2317685
-0.15688467 0.13772367 -0.23178834
-0.156222 0.13767833 -0.23171033
-0.15574498 0.13771933 -0.23164099
-0.15505433 0.13768633 -0.23162234
-0.1546465 0.137701 -0.23161
-0.154238 0.1376795 -0.231626
-0.15385801 0.13763 -0.23160399
-0.16630551 0.137895 -0.23171249
-0.162935 0.13789999 -0.23165801
-0.16256835 0.137914 -0.23167366
-0.16219066 0.13789167 -0.23171933
-0.16185701 0.137908 -0.2317705
-0.159437 0.13794 -0.23179799
-0.15765665 0.13791001 -0.23176734
-0.157212 0.13788366 -0.23177366
-0.15687749 0.13790199 -0.23178899
-0.15621433 0.13789232 -0.23169333
-0.1557385 0.137899 -0.23162949
-0.15504566 0.13790067 -0.23163301
-0.154643 0.137808 -0.23160499
-0.166299 0.138073 -0.23170365
-0.162929 0.138078 -0.23164733
-0.16256134 0.13812767 -0.231647
-0.16218434 0.138107 -0.23167501
-0.16185068 0.13808633 -0.23175333
-0.15943199 0.13808267 -0.23178966
-0.15764801 0.13812368 -0.23177134
-0.157204 0.13809867 -0.23175834
-0.15687101 0.138082 -0.23177367
-0.15661851 0.13810399 -0.23179799
-0.15620567 0.138107 -0.23169899
-0.15573199 0.13807733 -0.23162834
-0.15503633 0.13811433 -0.23165266
-0.166291 0.13828701 -0.23169434
-0.16292167 0.13829233 -0.23161833
-0.1625555 0.13830701 -0.23162851
-0.162175 0.13832034 -0.23170166
-0.161843 0.138301 -0.23174198
-0.16161366 0.13828565 -0.23179032
-0.1594245 0.138262 -0.2317895
-0.1589745 0.13831151 -0.231787
-0.158544 0.13839 -0.23179699
-0.15813167 0.13829499 -0.23178232
-0.15764201 0.138303 -0.23175499
-0.157197 0.13831401 -0.23173867
-0.15686299 0.13829599 -0.23177201
-0.1566115 0.138282 -0.23179749
-0.15619634 0.13832067 -0.231719
-0.15572266 0.138292 -0.23163766
-0.15503049 0.138293 -0.23163301
-0.16628234 0.13850033 -0.23170601
-0.16291249 0.138542 -0.2316055
-0.16254866 0.13848567 -0.23161532
-0.162168 0.13849801 -0.231699
-0.16183434 0.138515 -0.23174568
-0.16160567 0.13849901 -0.23178233
-0.159412 0.138584 -0.23179699
-0.158966 0.1385255 -0.231793
-0.158124 0.13851033 -0.23176932
-0.157636 0.13848233 -0.23172234
-0.15719 0.138494 -0.23172599
-0.156856 0.13851134 -0.23174466
-0.15660466 0.13849734 -0.23176734
-0.15619099 0.13850001 -0.2316795
-0.15571468 0.13850565 -0.23162933
-0.15502334 0.138473 -0.23163132
-0.15420701 0.138502 -0.231601
-0.16627501 0.138714 -0.23167767
-0.16290534 0.13871999 -0.23161601
-0.16254 0.13869967 -0.23163001
-0.16216166 0.138678 -0.23168266
-0.161828 0.138694 -0.23173
-0.161597 0.138713 -0.23179001
-0.15940733 0.138725 -0.23177934
-0.15896 0.138705 -0.23177934
-0.15811467 0.13872367 -0.23178601
-0.157628 0.13869667 -0.23172033
-0.15718433 0.13867234 -0.23169933
-0.15684767 0.13872565 -0.23173366
-0.156596 0.13871266 -0.23177333
-0.15618533 0.138679 -0.23165698
-0.155706 0.13872133 -0.23163234
-0.15501434 0.13868634 -0.23163967
-0.16626951 0.13889399 -0.231656
-0.16289701 0.138935 -0.23161
-0.162535 0.138842 -0.23161501
-0.16215332 0.13889165 -0.231685
-0.16182101 0.138872 -0.23173165
-0.1615915 0.1388925 -0.231759
-0.15940151 0.13890451 -0.23175201
-0.15895067 0.13891833 -0.23179567
-0.158106 0.138937 -0.23179901
-0.15761934 0.13891067 -0.23172666
-0.15717499 0.138886 -0.23172565
