# .PCD v0.7 - Point Cloud Data file format
VERSION 0.7
FIELDS x y z
SIZE 4 4 4
TYPE F F F
COUNT 1 1 1
WIDTH 1571
HEIGHT 1
VIEWPOINT 0 0 0 1 0 0 0
POINTS 1571
DATA ascii
-0.014669 0.112951 -0.223782
-0.014667 0.11302 -0.223768
-0.014665 0.11309 -0.223757
-0.014662 0.113162 -0.223757
-0.01466 0.113232 -0.223747
-0.014658 0.113302 -0.22373401
-0.014655 0.113373 -0.22373
-0.014653 0.113443 -0.22372399
-0.01465 0.113513 -0.223717
-0.014648 0.113583 -0.223713
-0.014645 0.113655 -0.223713
-0.014642 0.113725 -0.223712
-0.01464 0.113794 -0.223694
-0.014639 0.113864 -0.223674
-0.014636 0.113934 -0.223671
-0.014633 0.114006 -0.223675
-0.01463 0.114076 -0.22367699
-0.014628 0.114148 -0.22367001
-0.014626 0.114215 -0.223656
-0.014623 0.114287 -0.22365201
-0.01462 0.114357 -0.223658
-0.014617 0.114429 -0.223665
-0.014615 0.114499 -0.223655
-0.014613 0.114569 -0.223637
-0.014611 0.114638 -0.223626
-0.014607 0.114711 -0.22363199
-0.014604 0.114783 -0.22364201
-0.014601 0.114853 -0.223647
-0.014599 0.114923 -0.223643
-0.014596 0.114995 -0.223647
-0.014592 0.115065 -0.223656
-0.01459 0.115137 -0.223654
-0.014587 0.115207 -0.223654
-0.014584 0.115277 -0.223656
-0.014581 0.115349 -0.223665
-0.014578 0.115421 -0.223671
-0.014575 0.115491 -0.223673
-0.014572 0.115563 -0.223672
-0.014569 0.115633 -0.223682
-0.014565 0.115706 -0.223702
-0.014562 0.115778 -0.22371
-0.014559 0.115848 -0.22370499
-0.014556 0.11592 -0.223709
-0.014552 0.115992 -0.223737
-0.014548 0.116065 -0.223757
-0.014545 0.116135 -0.22376999
-0.014542 0.116207 -0.22377799
-0.014538 0.116279 -0.223792
-0.014535 0.116352 -0.22380701
-0.014531 0.116424 -0.22382499
-0.014527 0.116497 -0.223851
-0.014523 0.116569 -0.22388101
-0.014519 0.116642 -0.22390001
-0.014515 0.116714 -0.22392599
-0.01451 0.116789 -0.223958
-0.014506 0.116861 -0.223986
-0.014502 0.116936 -0.22402
-0.014497 0.117009 -0.22405501
-0.014493 0.117082 -0.22409099
-0.014488 0.117156 -0.224125
-0.014483 0.117231 -0.224167
-0.014478 0.117306 -0.224205
-0.014474 0.117379 -0.224246
-0.014468 0.117454 -0.224298
-0.014463 0.117531 -0.22434799
-0.014458 0.117606 -0.224392
-0.014452 0.117681 -0.224446
-0.014445 0.117759 -0.22452401
-0.014439 0.117836 -0.224594
-0.014433 0.117914 -0.22466201
-0.014425 0.117992 -0.224758
-0.014416 0.118074 -0.224874
-0.014408 0.118155 -0.224986
-0.015359 0.088652 -0.225651
-0.015356 0.088724002 -0.22565401
-0.015354 0.088797003 -0.225638
-0.015353 0.088873997 -0.225594
-0.015353 0.088953003 -0.22552601
-0.015353 0.089033 -0.225454
-0.015353 0.089110002 -0.22539499
-0.015352 0.089187004 -0.22534899
-0.015351 0.089262001 -0.225315
-0.01535 0.089339003 -0.22525901
-0.01535 0.089418001 -0.225209
-0.015349 0.089492999 -0.22516599
-0.015348 0.089570001 -0.225114
-0.015347 0.089647003 -0.22507
-0.015346 0.089722 -0.225026
-0.015346 0.089798003 -0.224979
-0.015345 0.089873001 -0.224935
-0.015344 0.089950003 -0.224887
-0.015343 0.090026997 -0.22483701
-0.015342 0.090102002 -0.224801
-0.015341 0.090177998 -0.22477201
-0.015339 0.090250999 -0.224742
-0.015338 0.090325996 -0.22470599
-0.015337 0.090401001 -0.224668
-0.015335 0.090475 -0.224645
-0.015334 0.090548001 -0.22461499
-0.015332 0.090622999 -0.22457901
-0.01533 0.090696998 -0.22455899
-0.015329 0.090769999 -0.224538
-0.015327 0.090843998 -0.22451
-0.015325 0.090915002 -0.224494
-0.015323 0.090989001 -0.22447599
-0.015321 0.091059998 -0.224461
-0.015318 0.091132 -0.22445901
-0.015316 0.091204002 -0.22444899
-0.015314 0.091275997 -0.224434
-0.015311 0.091347001 -0.22442199
-0.015309 0.091421001 -0.224406
-0.015307 0.091494001 -0.22438399
-0.015305 0.091565996 -0.224373
-0.015303 0.091637999 -0.224365
-0.0153 0.091707997 -0.224365
-0.015297 0.091779999 -0.224364
-0.015295 0.091852002 -0.224352
-0.015293 0.091922998 -0.224338
-0.015291 0.091995001 -0.224326
-0.015288 0.092067003 -0.224325
-0.015285 0.092137001 -0.22432899
-0.015282 0.092208996 -0.224325
-0.01528 0.092279002 -0.224318
-0.015277 0.092349999 -0.22431
-0.015275 0.092422001 -0.224308
-0.015272 0.092491999 -0.22431301
-0.015269 0.092564002 -0.22430301
-0.015267 0.092635997 -0.22429501
-0.015264 0.092706002 -0.22429501
-0.015261 0.092776 -0.224298
-0.015258 0.092848003 -0.224298
-0.015256 0.092918001 -0.224296
-0.015253 0.092987999 -0.224297
-0.01525 0.093060002 -0.22429501
-0.015247 0.09313 -0.224297
-0.015244 0.093202002 -0.22430401
-0.015242 0.093272001 -0.22430199
-0.015239 0.093342997 -0.224288
-0.015237 0.093415 -0.22428
-0.015234 0.093484998 -0.224289
-0.015231 0.093556002 -0.224297
-0.015228 0.093626 -0.224299
-0.015225 0.093695998 -0.224306
-0.015222 0.093768001 -0.224308
-0.015219 0.093837999 -0.224308
-0.015216 0.093907997 -0.22431301
-0.015213 0.093979999 -0.22431099
-0.01521 0.094049998 -0.22431301
-0.015208 0.094120003 -0.224314
-0.015205 0.094191998 -0.224314
-0.015202 0.094261996 -0.224316
-0.015199 0.094333999 -0.22431201
-0.015197 0.094402999 -0.22430301
-0.015194 0.094475001 -0.224305
-0.015191 0.094544999 -0.224309
-0.015189 0.094617002 -0.22430199
-0.015186 0.094687 -0.22430401
-0.015183 0.094756998 -0.22431
-0.01518 0.094829001 -0.224305
-0.015178 0.094898999 -0.224305
-0.015174 0.094968997 -0.22432099
-0.01517 0.095037997 -0.224342
-0.015167 0.095108002 -0.224354
-0.015164 0.095179997 -0.22434799
-0.015162 0.095252 -0.224338
-0.015159 0.095324002 -0.224335
-0.015157 0.095393002 -0.22433101
-0.015154 0.095463 -0.224333
-0.015151 0.095535003 -0.224332
-0.015149 0.095605001 -0.22432999
-0.015146 0.095677003 -0.22432999
-0.015142 0.095747001 -0.224343
-0.015139 0.095817998 -0.224347
-0.015137 0.095888004 -0.22434901
-0.015134 0.095958002 -0.224353
-0.015131 0.096028998 -0.22434799
-0.015129 0.096101001 -0.224342
-0.015126 0.096170999 -0.22434799
-0.015123 0.096240997 -0.224351
-0.01512 0.096313 -0.22434901
-0.015117 0.096382998 -0.224347
-0.015115 0.096455 -0.224346
-0.015112 0.096524999 -0.22435001
-0.015109 0.096594997 -0.224352
-0.015106 0.096666999 -0.22435001
-0.015103 0.096736997 -0.224355
-0.0151 0.096808001 -0.22436699
-0.015097 0.096878 -0.224373
-0.015094 0.096949004 -0.22436599
-0.015092 0.097020999 -0.22436
-0.015089 0.097090997 -0.22435801
-0.015086 0.097162999 -0.22435699
-0.015084 0.097232997 -0.224351
-0.015081 0.097305 -0.224343
-0.015079 0.097377002 -0.224333
-0.015077 0.097447999 -0.22431999
-0.015074 0.097517997 -0.22431999
-0.015071 0.097589999 -0.224324
-0.015068 0.097659998 -0.224325
-0.015065 0.097730003 -0.224325
-0.015063 0.097801998 -0.224323
-0.01506 0.097871996 -0.224326
-0.015057 0.097943999 -0.224326
-0.015054 0.098013997 -0.224324
-0.015051 0.098084003 -0.22432899
-0.015048 0.098155998 -0.224333
-0.015046 0.098226003 -0.22433101
-0.015043 0.098297998 -0.22432099
-0.015041 0.098370001 -0.224314
-0.015039 0.098439001 -0.22430401
-0.015036 0.098511003 -0.224298
-0.015033 0.098582998 -0.224297
-0.015031 0.098653004 -0.224291
-0.015028 0.098724999 -0.22429299
-0.015025 0.098794997 -0.224298
-0.015023 0.098866999 -0.22429
-0.01502 0.098936997 -0.224282
-0.015017 0.099009 -0.22428399
-0.015014 0.099078998 -0.224289
-0.015012 0.099149004 -0.224287
-0.015009 0.099220999 -0.22428501
-0.015006 0.099292003 -0.22428
-0.015003 0.099362001 -0.224286
-0.015 0.099432997 -0.224296
-0.014997 0.099503003 -0.22429299
-0.014995 0.099574 -0.224279
-0.014993 0.099646002 -0.224269
-0.01499 0.099717997 -0.224263
-0.014988 0.099788003 -0.224264
-0.014985 0.099858001 -0.224268
-0.014982 0.099930003 -0.224268
-0.014979 0.1 -0.22426701
-0.014976 0.100072 -0.224263
-0.014974 0.100143 -0.224255
-0.014971 0.100213 -0.22425599
-0.014968 0.100284 -0.224264
-0.014965 0.100355 -0.224262
-0.014963 0.100425 -0.224254
-0.01496 0.100497 -0.224251
-0.014958 0.100567 -0.22424699
-0.014955 0.100639 -0.224243
-0.014953 0.100709 -0.22424001
-0.01495 0.100781 -0.224236
-0.014947 0.100851 -0.22424001
-0.014944 0.100921 -0.22424901
-0.014941 0.100993 -0.224245
-0.014939 0.101065 -0.224233
-0.014936 0.101134 -0.22422799
-0.014934 0.101206 -0.22423001
-0.014931 0.101276 -0.22423001
-0.014928 0.101348 -0.224224
-0.014925 0.101418 -0.224225
-0.014922 0.101488 -0.224233
-0.014919 0.101558 -0.224235
-0.014917 0.10163 -0.224226
-0.014914 0.101702 -0.224222
-0.014911 0.101772 -0.22422799
-0.014909 0.101842 -0.224227
-0.014906 0.101914 -0.22422101
-0.014903 0.101984 -0.22422101
-0.0149 0.102056 -0.224225
-0.014898 0.102126 -0.224218
-0.014895 0.102197 -0.22421201
-0.014893 0.102267 -0.22420201
-0.014891 0.102339 -0.224189
-0.014888 0.102409 -0.224197
-0.014884 0.102481 -0.224209
-0.014882 0.102551 -0.224206
-0.014879 0.102621 -0.224214
-0.014875 0.102692 -0.22422799
-0.014872 0.102764 -0.22422799
-0.01487 0.102833 -0.22421899
-0.014868 0.102905 -0.224209
-0.014865 0.102977 -0.224205
-0.014862 0.103047 -0.22420999
-0.014859 0.103117 -0.224216
-0.014856 0.103187 -0.224224
-0.014853 0.103259 -0.22422899
-0.01485 0.103329 -0.224225
-0.014848 0.103401 -0.22422101
-0.014845 0.103471 -0.22421999
-0.014842 0.103541 -0.22421999
-0.014839 0.103613 -0.224222
-0.014836 0.103683 -0.224226
-0.014833 0.103753 -0.224231
-0.014831 0.103825 -0.224231
-0.014828 0.103895 -0.224225
-0.014826 0.103967 -0.22421999
-0.014823 0.104037 -0.224222
-0.01482 0.104109 -0.224222
-0.014817 0.104179 -0.224223
-0.014814 0.104249 -0.224223
-0.014812 0.104321 -0.224217
-0.01481 0.104392 -0.224207
-0.014807 0.104462 -0.224204
-0.014804 0.104534 -0.224204
-0.014802 0.104604 -0.224198
-0.014799 0.104674 -0.224197
-0.014796 0.104746 -0.22420301
-0.014793 0.104816 -0.224205
-0.01479 0.104888 -0.224204
-0.014788 0.104958 -0.22420201
-0.014785 0.105028 -0.2242
-0.014782 0.1051 -0.2242
-0.014779 0.10517 -0.22420099
-0.014777 0.105242 -0.224199
-0.014774 0.105312 -0.224197
-0.014771 0.105382 -0.224196
-0.014769 0.105453 -0.22419199
-0.014766 0.105523 -0.22419
-0.014763 0.105596 -0.22420099
-0.014759 0.105666 -0.22421101
-0.014757 0.105736 -0.224209
-0.014754 0.105808 -0.224204
-0.014752 0.105877 -0.224198
-0.014749 0.105949 -0.224198
-0.014746 0.106019 -0.2242
-0.014743 0.106089 -0.22420301
-0.01474 0.106161 -0.22420099
-0.014738 0.106231 -0.224199
-0.014735 0.106303 -0.224188
-0.014734 0.106372 -0.22416601
-0.014732 0.106444 -0.22415
-0.014728 0.106514 -0.224163
-0.014725 0.106585 -0.22417501
-0.014722 0.106657 -0.224177
-0.014719 0.106727 -0.224186
-0.014716 0.106799 -0.22419
-0.014713 0.106869 -0.22419401
-0.01471 0.106939 -0.224196
-0.014708 0.107011 -0.224187
-0.014706 0.10708 -0.22417299
-0.014703 0.107152 -0.22416499
-0.0147 0.107222 -0.224172
-0.014697 0.107294 -0.224178
-0.014694 0.107364 -0.224186
-0.014691 0.107434 -0.224187
-0.014689 0.107506 -0.224171
-0.014687 0.107576 -0.22415499
-0.014684 0.107648 -0.224153
-0.014682 0.107717 -0.22414599
-0.01468 0.107789 -0.224134
-0.014677 0.107859 -0.22414
-0.014673 0.107929 -0.224153
-0.01467 0.108002 -0.224159
-0.014668 0.108071 -0.22415499
-0.014665 0.108143 -0.224144
-0.014663 0.108213 -0.22414
-0.014659 0.108283 -0.22415
-0.014657 0.108355 -0.224151
-0.014655 0.108425 -0.224135
-0.014653 0.108496 -0.224121
-0.01465 0.108566 -0.22411101
-0.014648 0.108638 -0.224096
-0.014646 0.108708 -0.224086
-0.014643 0.108778 -0.224088
-0.01464 0.10885 -0.22409301
-0.014637 0.10892 -0.22409301
-0.014635 0.108991 -0.224087
-0.014632 0.109061 -0.224088
-0.014629 0.109132 -0.224098
-0.014626 0.109203 -0.22409
-0.014625 0.109273 -0.22406501
-0.014623 0.109342 -0.224043
-0.01462 0.109414 -0.22404499
-0.014616 0.109485 -0.22407401
-0.014613 0.109557 -0.224086
-0.014611 0.109627 -0.224066
-0.014609 0.109696 -0.22404
-0.014607 0.109768 -0.224029
-0.014604 0.109838 -0.224031
-0.014601 0.10991 -0.224029
-0.014599 0.10998 -0.22402801
-0.014596 0.11005 -0.22403
-0.014593 0.110121 -0.224022
-0.014591 0.110191 -0.22401699
-0.014588 0.110261 -0.224015
-0.014586 0.110333 -0.22400901
-0.014583 0.110403 -0.224002
-0.014581 0.110473 -0.223998
-0.014578 0.110545 -0.223992
-0.014576 0.110614 -0.22398099
-0.014574 0.110684 -0.22397301
-0.014571 0.110756 -0.22396301
-0.014569 0.110826 -0.223959
-0.014566 0.110898 -0.22396199
-0.014563 0.110968 -0.223956
-0.014561 0.111037 -0.22394
-0.014559 0.111109 -0.223933
-0.014556 0.111179 -0.22392701
-0.014554 0.111249 -0.223919
-0.014552 0.11132 -0.223914
-0.014549 0.111391 -0.22391599
-0.014546 0.11146 -0.22390801
-0.014544 0.111532 -0.223893
-0.014542 0.111602 -0.223887
-0.014539 0.111672 -0.22388101
-0.014537 0.111741 -0.223868
-0.014535 0.111813 -0.22385401
-0.014533 0.111883 -0.223848
-0.01453 0.111955 -0.223841
-0.014528 0.112024 -0.223823
-0.014526 0.112094 -0.223805
-0.014524 0.112164 -0.22379801
-0.014521 0.112234 -0.223802
-0.014518 0.112306 -0.22380801
-0.014515 0.112376 -0.223804
-0.014513 0.112445 -0.223795
-0.01451 0.112517 -0.223791
-0.014508 0.112587 -0.223785
-0.014505 0.112659 -0.22377799
-0.014503 0.112729 -0.22376999
-0.0145 0.112799 -0.223766
-0.014498 0.112868 -0.223755
-0.014496 0.112938 -0.223737
-0.014494 0.11301 -0.22373299
-0.014491 0.11308 -0.22373199
-0.014489 0.113149 -0.22371601
-0.014487 0.113219 -0.2237
-0.014484 0.113291 -0.223699
-0.014481 0.113361 -0.22370499
-0.014479 0.113431 -0.22370499
-0.014476 0.113503 -0.223694
-0.014474 0.113572 -0.223682
-0.014471 0.113642 -0.223682
-0.014469 0.113714 -0.22368
-0.014466 0.113784 -0.223673
-0.014464 0.113854 -0.22366101
-0.014462 0.113923 -0.223654
-0.014459 0.113993 -0.223648
-0.014456 0.114065 -0.223646
-0.014454 0.114135 -0.223648
-0.014451 0.114205 -0.223647
-0.014448 0.114277 -0.22364099
-0.014446 0.114347 -0.22363301
-0.014443 0.114417 -0.22363
-0.01444 0.114489 -0.223634
-0.014437 0.114559 -0.223638
-0.014435 0.114631 -0.223639
-0.014432 0.114701 -0.223639
-0.014429 0.114773 -0.223637
-0.014427 0.114843 -0.22363301
-0.014424 0.114912 -0.22363
-0.014421 0.114985 -0.223634
-0.014418 0.115055 -0.223634
-0.014416 0.115124 -0.223627
-0.014413 0.115196 -0.223627
-0.01441 0.115266 -0.223635
-0.014407 0.115338 -0.223638
-0.014404 0.115408 -0.223636
-0.014402 0.115478 -0.22363199
-0.014399 0.11555 -0.223639
-0.014395 0.115623 -0.223663
-0.014391 0.115695 -0.223673
-0.014388 0.115765 -0.22367699
-0.014385 0.115837 -0.223682
-0.014382 0.115907 -0.22369
-0.014379 0.115979 -0.22369801
-0.014375 0.116052 -0.223712
-0.014371 0.116124 -0.223739
-0.014367 0.116197 -0.223763
-0.014364 0.116269 -0.223777
-0.01436 0.116339 -0.22379699
-0.014356 0.116414 -0.22381601
-0.014353 0.116484 -0.22383399
-0.014349 0.116559 -0.22385
-0.014345 0.116631 -0.22387201
-0.01434 0.116704 -0.223911
-0.014336 0.116779 -0.223947
-0.014332 0.116851 -0.22397301
-0.014327 0.116924 -0.224003
-0.014323 0.116998 -0.22403499
-0.014318 0.117071 -0.224076
-0.014313 0.117146 -0.224112
-0.014309 0.117219 -0.224142
-0.014304 0.117294 -0.22418199
-0.0143 0.117368 -0.22421999
-0.014295 0.117441 -0.224261
-0.014289 0.117518 -0.22431301
-0.014284 0.117594 -0.224371
-0.014278 0.117671 -0.224427
-0.014272 0.117746 -0.224489
-0.014265 0.117824 -0.22456101
-0.014259 0.117901 -0.224631
-0.014252 0.117979 -0.224709
-0.014244 0.118059 -0.224811
-0.014237 0.118139 -0.224907
-0.015172 0.088852003 -0.225667
-0.015173 0.088932 -0.22558101
-0.015176 0.089019001 -0.225453
-0.015177 0.089098997 -0.225374
-0.015176 0.089175999 -0.22533201
-0.015175 0.089250997 -0.225292
-0.015175 0.089330003 -0.225228
-0.015174 0.089409001 -0.22517399
-0.015174 0.089487001 -0.225108
-0.015173 0.089564003 -0.225059
-0.015172 0.089639001 -0.225017
-0.015172 0.089716002 -0.224957
-0.015171 0.089791 -0.22492699
-0.015169 0.089864001 -0.224898
-0.015168 0.089941002 -0.22485401
-0.015168 0.090017997 -0.224806
-0.015167 0.090093002 -0.224766
-0.015164 0.090167001 -0.224748
-0.015163 0.090240002 -0.224723
-0.015161 0.090314999 -0.22468901
-0.01516 0.090388998 -0.22465099
-0.015159 0.090464003 -0.224619
-0.015157 0.090536997 -0.224594
-0.015156 0.090609998 -0.224564
-0.015154 0.090686001 -0.22453199
-0.015153 0.090759002 -0.224508
-0.01515 0.090830997 -0.22449499
-0.015148 0.090902999 -0.224493
-0.015145 0.090972997 -0.22449499
-0.015143 0.091045998 -0.224484
-0.015141 0.091118 -0.224464
-0.015139 0.091192 -0.224444
-0.015137 0.091263004 -0.224427
-0.015135 0.091337003 -0.224411
-0.015132 0.091408998 -0.224407
-0.015129 0.091479003 -0.22440299
-0.015127 0.09155 -0.224392
-0.015125 0.091623999 -0.22437599
-0.015123 0.091695003 -0.22435801
-0.015121 0.091766998 -0.22434799
-0.015118 0.091839001 -0.224343
-0.015116 0.091911003 -0.224337
-0.015113 0.091982998 -0.22432899
-0.015111 0.092054002 -0.22431201
-0.015109 0.092125997 -0.22430199
-0.015106 0.092196003 -0.224308
-0.015103 0.092267998 -0.224305
-0.015101 0.09234 -0.22429299
-0.015098 0.092409998 -0.224291
-0.015095 0.092482001 -0.224291
-0.015093 0.092551 -0.224286
-0.01509 0.092623003 -0.22428
-0.015087 0.092693001 -0.224282
-0.015084 0.092762999 -0.224287
-0.015082 0.092835002 -0.224287
-0.015079 0.092905 -0.22428501
-0.015076 0.092977002 -0.22428
-0.015074 0.093048997 -0.22427601
-0.015071 0.093119003 -0.22428399
-0.015068 0.093189001 -0.22429
-0.015065 0.093258999 -0.22428501
-0.015063 0.093331002 -0.224279
-0.01506 0.093402997 -0.22427499
-0.015057 0.093473002 -0.22427601
-0.015054 0.093544997 -0.22427601
-0.015051 0.093615003 -0.22428
-0.015048 0.093685001 -0.224287
-0.015045 0.093754999 -0.22429501
-0.015042 0.093824998 -0.224297
-0.015039 0.093897 -0.224299
-0.015037 0.093966998 -0.2243
-0.015034 0.094036996 -0.2243
-0.015031 0.094108999 -0.2243
-0.015028 0.094178997 -0.224301
-0.015025 0.094250999 -0.224299
-0.015023 0.094320998 -0.224301
-0.01502 0.094391003 -0.22430401
-0.015017 0.094462998 -0.22430401
-0.015014 0.094532996 -0.224308
-0.015011 0.094603002 -0.22431099
-0.015009 0.094674997 -0.224305
-0.015006 0.094745003 -0.22430301
-0.015003 0.094815001 -0.224309
-0.015 0.094887003 -0.22431201
-0.014997 0.094957002 -0.22431
-0.014994 0.095027 -0.22431201
-0.014991 0.095096998 -0.224317
-0.014988 0.095169 -0.224325
-0.014985 0.095238999 -0.224327
-0.014983 0.095311001 -0.22431999
-0.01498 0.095380999 -0.224324
-0.014977 0.095450997 -0.224328
-0.014974 0.095523 -0.22432201
-0.014972 0.095592998 -0.224317
-0.014969 0.095664002 -0.22431099
-0.014967 0.095735997 -0.22430301
-0.014964 0.095806003 -0.22431
-0.014961 0.095876999 -0.22431999
-0.014957 0.095946997 -0.224328
-0.014954 0.096017003 -0.224335
-0.014951 0.096088998 -0.22433899
-0.014948 0.096159004 -0.224343
-0.014945 0.096229002 -0.22434799
-0.014943 0.096300997 -0.224342
-0.014941 0.096372999 -0.224332
-0.014938 0.096442997 -0.224336
-0.014935 0.096513003 -0.22433899
-0.014932 0.096584998 -0.224335
-0.014929 0.096654996 -0.22433899
-0.014926 0.096725002 -0.224346
-0.014923 0.096795 -0.22435001
-0.01492 0.096867003 -0.22434799
-0.014918 0.096938998 -0.224343
-0.014915 0.097007997 -0.224343
-0.014912 0.09708 -0.224343
-0.01491 0.097149998 -0.22433899
-0.014907 0.097220004 -0.22434001
-0.014904 0.097291999 -0.224336
-0.014902 0.097364001 -0.224324
-0.014899 0.097436003 -0.22432099
-0.014896 0.097506002 -0.224327
-0.014893 0.097576 -0.22432899
-0.014891 0.097648002 -0.22431999
-0.014889 0.097718999 -0.22431201
-0.014886 0.097790003 -0.224318
-0.014882 0.097860001 -0.224326
-0.01488 0.097929999 -0.224327
-0.014877 0.098002002 -0.224323
-0.014874 0.098072 -0.224327
-0.014871 0.098144002 -0.224324
-0.014869 0.098214999 -0.22431201
-0.014867 0.098284997 -0.22430401
-0.014864 0.098356999 -0.22430301
-0.014861 0.098426998 -0.224299
-0.014859 0.098499 -0.224291
-0.014856 0.098571002 -0.224289
-0.014853 0.098641001 -0.224298
-0.01485 0.098710999 -0.22430401
-0.014848 0.098780997 -0.2243
-0.014845 0.098853 -0.224299
-0.014842 0.098925002 -0.22429501
-0.01484 0.098994002 -0.224281
-0.014838 0.099065997 -0.224272
-0.014835 0.099137999 -0.22427601
-0.014832 0.099207997 -0.224282
-0.014829 0.099278003 -0.224289
-0.014826 0.099348001 -0.224291
-0.014823 0.099420004 -0.224297
-0.01482 0.099490002 -0.22429501
-0.014818 0.099561997 -0.22428399
-0.014815 0.099633999 -0.224272
-0.014813 0.099702999 -0.224262
-0.014811 0.099775001 -0.22424901
-0.014809 0.099846996 -0.22423901
-0.014806 0.099918999 -0.224243
-0.014802 0.099988997 -0.22425
-0.014799 0.100059 -0.22425599
-0.014797 0.100129 -0.22425599
-0.014794 0.100201 -0.224254
-0.014791 0.100271 -0.224261
-0.014788 0.100341 -0.224261
-0.014786 0.100413 -0.224253
-0.014783 0.100485 -0.22425
-0.01478 0.100555 -0.22425
-0.014777 0.100627 -0.22425
-0.014775 0.100697 -0.22424699
-0.014772 0.100766 -0.224243
-0.01477 0.100838 -0.224233
-0.014767 0.10091 -0.224231
-0.014764 0.10098 -0.22423799
-0.014761 0.10105 -0.22424001
-0.014758 0.10112 -0.22424001
-0.014756 0.101192 -0.224235
-0.014753 0.101264 -0.22422899
-0.014751 0.101334 -0.22422899
-0.014748 0.101406 -0.224224
-0.014746 0.101475 -0.224214
-0.014743 0.101548 -0.22421999
-0.01474 0.101618 -0.22422899
-0.014737 0.101688 -0.224233
-0.014734 0.10176 -0.224233
-0.014731 0.10183 -0.22422899
-0.014729 0.101901 -0.224222
-0.014726 0.101971 -0.224216
-0.014723 0.102043 -0.224214
-0.014721 0.102113 -0.224215
-0.014718 0.102183 -0.224213
-0.014715 0.102255 -0.224209
-0.014713 0.102327 -0.224206
-0.01471 0.102397 -0.224206
-0.014707 0.102467 -0.224208
-0.014704 0.102539 -0.22421201
-0.014702 0.102609 -0.224207
-0.014699 0.102681 -0.224205
-0.014695 0.102751 -0.22421899
-0.014692 0.102821 -0.224226
-0.01469 0.102893 -0.224222
-0.014687 0.102963 -0.224222
-0.014684 0.103033 -0.224227
-0.014681 0.103105 -0.22422899
-0.014678 0.103175 -0.224231
-0.014676 0.103245 -0.22422899
-0.014673 0.103317 -0.22421999
-0.014671 0.103389 -0.224214
-0.014668 0.103459 -0.224222
-0.014665 0.103529 -0.224225
-0.014662 0.103601 -0.224227
-0.014659 0.103671 -0.22422101
-0.014657 0.103742 -0.224216
-0.014654 0.103813 -0.224222
-0.014651 0.103882 -0.224216
-0.014649 0.103954 -0.224207
-0.014645 0.104024 -0.22421899
-0.014643 0.104094 -0.224223
-0.01464 0.104166 -0.22421899
-0.014637 0.104238 -0.224214
-0.014635 0.104308 -0.224208
-0.014632 0.10438 -0.22420201
-0.01463 0.10445 -0.22420301
-0.014627 0.10452 -0.22420301
-0.014624 0.104592 -0.22420099
-0.014621 0.104662 -0.22420999
-0.014618 0.104734 -0.22420999
-0.014616 0.104804 -0.2242
-0.014613 0.104875 -0.22419401
-0.01461 0.104945 -0.224199
-0.014607 0.105015 -0.22420099
-0.014605 0.105087 -0.224195
-0.014603 0.105157 -0.22418401
-0.0146 0.105229 -0.224176
-0.014597 0.105299 -0.224186
-0.014594 0.105369 -0.224195
-0.014591 0.105441 -0.22419301
-0.014588 0.105511 -0.224191
-0.014585 0.105583 -0.224199
-0.014582 0.105653 -0.22420201
-0.01458 0.105723 -0.22419199
-0.014577 0.105795 -0.22419
-0.014574 0.105865 -0.224195
-0.014571 0.105937 -0.224197
-0.014569 0.106007 -0.224191
-0.014566 0.106079 -0.22418401
-0.014564 0.106148 -0.224176
-0.014562 0.10622 -0.224168
-0.014559 0.10629 -0.224169
-0.014556 0.10636 -0.224181
-0.014552 0.106431 -0.224197
-0.014549 0.106503 -0.224197
-0.014547 0.106573 -0.22419199
-0.014544 0.106645 -0.224198
-0.014541 0.106715 -0.2242
-0.014539 0.106784 -0.224189
-0.014536 0.106856 -0.224179
-0.014533 0.106926 -0.224177
-0.01453 0.106998 -0.22418401
-0.014527 0.107068 -0.224188
-0.014525 0.10714 -0.22418199
-0.014522 0.10721 -0.22417501
-0.01452 0.107282 -0.224171
-0.014518 0.107351 -0.224159
-0.014515 0.107421 -0.224159
-0.014512 0.107493 -0.22415601
-0.01451 0.107563 -0.22414599
-0.014507 0.107635 -0.224144
-0.014504 0.107705 -0.22414701
-0.014501 0.107777 -0.224151
-0.014498 0.107847 -0.22415499
-0.014496 0.107917 -0.224152
-0.014494 0.107989 -0.22413801
-0.014491 0.108058 -0.22412799
-0.014489 0.10813 -0.224125
-0.014486 0.1082 -0.224125
-0.014483 0.108272 -0.224123
-0.01448 0.108342 -0.22412699
-0.014477 0.108412 -0.22413
-0.014475 0.108484 -0.224122
-0.014472 0.108554 -0.224116
-0.01447 0.108626 -0.22411899
-0.014467 0.108696 -0.224123
-0.014464 0.108766 -0.224121
-0.014462 0.108838 -0.224112
-0.01446 0.108907 -0.224094
-0.014458 0.108979 -0.22407401
-0.014456 0.109048 -0.22406299
-0.014453 0.109118 -0.22406501
-0.014449 0.109191 -0.224075
-0.014446 0.109261 -0.224079
-0.014444 0.109333 -0.22408199
-0.014441 0.109403 -0.22407401
-0.014439 0.109472 -0.22405601
-0.014437 0.109544 -0.224043
-0.014435 0.109614 -0.22403499
-0.014432 0.109684 -0.22403499
-0.014429 0.109756 -0.224038
-0.014426 0.109826 -0.22403599
-0.014424 0.109897 -0.224032
-0.014422 0.109967 -0.224021
-0.01442 0.110037 -0.224005
-0.014417 0.110109 -0.223997
-0.014414 0.110179 -0.22400001
-0.014411 0.110249 -0.224006
-0.014409 0.110321 -0.224002
-0.014406 0.11039 -0.22400001
-0.014403 0.110463 -0.224005
-0.0144 0.110532 -0.224005
-0.014398 0.110602 -0.223993
-0.014396 0.110674 -0.223978
-0.014393 0.110744 -0.223974
-0.014391 0.110813 -0.22396401
-0.014389 0.110885 -0.223951
-0.014386 0.110955 -0.22394501
-0.014384 0.111025 -0.223943
-0.014381 0.111097 -0.22393601
-0.014379 0.111166 -0.22392599
-0.014377 0.111236 -0.223912
-0.014374 0.111308 -0.22390699
-0.014372 0.111378 -0.223903
-0.014369 0.111448 -0.223903
-0.014366 0.11152 -0.223903
-0.014364 0.11159 -0.223894
-0.014362 0.111659 -0.22387999
-0.014359 0.111731 -0.223874
-0.014357 0.111801 -0.223859
-0.014355 0.11187 -0.223841
-0.014352 0.111942 -0.223841
-0.01435 0.112012 -0.223842
-0.014347 0.112082 -0.22383399
-0.014345 0.112152 -0.223818
-0.014343 0.112223 -0.22380701
-0.014341 0.112293 -0.223801
-0.014338 0.112363 -0.223795
-0.014336 0.112433 -0.223792
-0.014332 0.112505 -0.22379801
-0.01433 0.112575 -0.223796
-0.014327 0.112647 -0.22378901
-0.014325 0.112717 -0.223785
-0.014322 0.112786 -0.223777
-0.01432 0.112858 -0.223764
-0.014318 0.112926 -0.223744
-0.014316 0.112997 -0.22373401
-0.014313 0.113067 -0.223739
-0.01431 0.113137 -0.223739
-0.014308 0.113209 -0.22372501
-0.014306 0.113279 -0.223711
-0.014304 0.113348 -0.22370601
-0.014301 0.11342 -0.2237
-0.014299 0.11349 -0.22369
-0.014297 0.11356 -0.223681
-0.014294 0.11363 -0.223671
-0.014291 0.113702 -0.22367699
-0.014288 0.113772 -0.223684
-0.014286 0.113842 -0.223676
-0.014283 0.113913 -0.223666
-0.014281 0.113983 -0.223655
-0.014279 0.114053 -0.22364099
-0.014277 0.114123 -0.22363301
-0.014274 0.114193 -0.223638
-0.014271 0.114265 -0.223638
-0.014268 0.114334 -0.223636
-0.014266 0.114406 -0.22363099
-0.014263 0.114476 -0.22363301
-0.01426 0.114547 -0.223645
-0.014256 0.114619 -0.223653
-0.014254 0.114688 -0.22363999
-0.014252 0.11476 -0.22363
-0.014249 0.11483 -0.22363
-0.014246 0.1149 -0.223629
-0.014244 0.114972 -0.223629
-0.014241 0.115042 -0.223629
-0.014238 0.115112 -0.22362401
-0.014236 0.115184 -0.223616
-0.014233 0.115254 -0.223628
-0.014229 0.115326 -0.223644
-0.014226 0.115396 -0.22365101
-0.014223 0.115468 -0.223653
-0.01422 0.115538 -0.223655
-0.014217 0.11561 -0.223664
-0.014213 0.115683 -0.22367799
-0.01421 0.115755 -0.223692
-0.014207 0.115825 -0.22369
-0.014204 0.115895 -0.223693
-0.014201 0.115967 -0.223701
-0.014198 0.116039 -0.223711
-0.014194 0.116112 -0.22373401
-0.01419 0.116184 -0.22375201
-0.014186 0.116257 -0.223776
-0.014182 0.116329 -0.223804
-0.014178 0.116402 -0.223827
-0.014174 0.116474 -0.223849
-0.01417 0.116547 -0.223867
-0.014166 0.116619 -0.223895
-0.014162 0.116692 -0.223919
-0.014159 0.116766 -0.22393601
-0.014154 0.116839 -0.223966
-0.01415 0.116913 -0.224004
-0.014145 0.116986 -0.22404601
-0.01414 0.117059 -0.224075
-0.014136 0.117133 -0.224105
-0.014131 0.117208 -0.22414701
-0.014126 0.117283 -0.22419301
-0.014121 0.117356 -0.224235
-0.014116 0.117431 -0.22428299
-0.014111 0.117508 -0.224332
-0.014105 0.117583 -0.224382
-0.0141 0.117658 -0.224428
-0.014094 0.117734 -0.224484
-0.014089 0.117809 -0.224538
-0.014082 0.117888 -0.22461
-0.014075 0.117966 -0.22469801
-0.014068 0.118046 -0.22479001
-0.014061 0.118124 -0.22486199
-0.015085 0.088775001 -0.225657
-0.015087 0.088857003 -0.225566
-0.015086 0.088933997 -0.22551
-0.015087 0.089014001 -0.22543401
-0.015088 0.089097999 -0.225334
-0.015088 0.089175001 -0.22527599
-0.015087 0.089252003 -0.225234
-0.015087 0.089328997 -0.22517499
-0.015087 0.089409001 -0.225109
-0.015086 0.089486003 -0.225053
-0.015086 0.089562997 -0.225005
-0.015085 0.089639999 -0.224957
-0.015084 0.089713 -0.224924
-0.015082 0.089790002 -0.224884
-0.015082 0.089864999 -0.224834
-0.015081 0.089942001 -0.22479001
-0.015079 0.090016998 -0.224758
-0.015078 0.090089999 -0.224727
-0.015076 0.090166003 -0.22469901
-0.015075 0.090239003 -0.224665
-0.015074 0.090314001 -0.224631
-0.015072 0.090387002 -0.224602
-0.015071 0.090461999 -0.224564
-0.015069 0.090535998 -0.224546
-0.015067 0.090608001 -0.224535
-0.015065 0.090681002 -0.224517
-0.015063 0.090752997 -0.224499
-0.015061 0.090825997 -0.224481
-0.015059 0.090899996 -0.224462
-0.015057 0.090971999 -0.22445001
-0.015054 0.091043003 -0.22443999
-0.015052 0.091114998 -0.224428
-0.01505 0.091187 -0.22441299
-0.015048 0.091260001 -0.224391
-0.015046 0.091334 -0.224369
-0.015044 0.091407001 -0.224354
-0.015042 0.091476999 -0.22434799
-0.015039 0.091549002 -0.22434799
-0.015036 0.091619 -0.224346
-0.015034 0.091691002 -0.22433899
-0.015031 0.091765001 -0.224325
-0.01503 0.091835998 -0.22430301
-0.015027 0.091908 -0.22429
-0.015025 0.091980003 -0.224292
-0.015022 0.092050001 -0.224296
-0.015019 0.092122003 -0.22429
-0.015017 0.092193 -0.224273
-0.015015 0.092265002 -0.224255
-0.015012 0.092336997 -0.224251
-0.01501 0.092407003 -0.224254
-0.015007 0.092478998 -0.224254
-0.015004 0.092549004 -0.22425
-0.015001 0.092619002 -0.224251
-0.014998 0.092690997 -0.224255
-0.014996 0.092761002 -0.224255
-0.014993 0.092831999 -0.224241
-0.014991 0.092904001 -0.224234
-0.014988 0.092974 -0.22424001
-0.014985 0.093043998 -0.22424801
-0.014982 0.093114004 -0.224251
-0.014979 0.093185998 -0.22424699
-0.014976 0.093255997 -0.22424901
-0.014974 0.093326002 -0.22425
-0.014971 0.093397997 -0.22424001
-0.014969 0.09347 -0.224234
-0.014966 0.093539998 -0.224241
-0.014963 0.093610004 -0.22424901
-0.01496 0.093680002 -0.224253
-0.014957 0.093751997 -0.22425701
-0.014954 0.093822002 -0.22426
-0.014951 0.093892001 -0.22425801
-0.014948 0.093964003 -0.22425599
-0.014945 0.094034001 -0.224261
-0.014942 0.094103999 -0.22426499
-0.01494 0.094176002 -0.224261
-0.014937 0.094246 -0.224262
-0.014934 0.094318002 -0.224264
-0.014931 0.094388001 -0.224262
-0.014928 0.094457999 -0.22427
-0.014925 0.094527997 -0.224277
-0.014922 0.094599999 -0.22427499
-0.01492 0.094669998 -0.224269
-0.014917 0.094742 -0.22426599
-0.014915 0.094811998 -0.224264
-0.014912 0.094881997 -0.22427
-0.014909 0.094953999 -0.224277
-0.014905 0.095023997 -0.22428501
-0.014902 0.095091999 -0.22429299
-0.0149 0.095164001 -0.224288
-0.014897 0.095236003 -0.224282
-0.014894 0.095306002 -0.22428399
-0.014891 0.095376 -0.224286
-0.014889 0.095448002 -0.224287
-0.014886 0.095518 -0.22429299
-0.014883 0.095587999 -0.224291
-0.014881 0.095660001 -0.224282
-0.014878 0.095732003 -0.22427399
-0.014875 0.095802002 -0.22428399
-0.014871 0.095872 -0.224299
-0.014868 0.095941998 -0.22430301
-0.014866 0.096014 -0.22429501
-0.014864 0.096083999 -0.22429
-0.01486 0.096153997 -0.22430199
-0.014857 0.096224003 -0.22431201
-0.014854 0.096295998 -0.224308
-0.014852 0.096368 -0.224305
-0.014849 0.096437998 -0.22430301
-0.014846 0.096507996 -0.22430301
-0.014843 0.096579999 -0.22430401
-0.01484 0.096649997 -0.22431
-0.014837 0.096720003 -0.224314
-0.014835 0.096791998 -0.224315
-0.014832 0.096862003 -0.22431301
-0.014829 0.096933998 -0.22431099
-0.014826 0.097003996 -0.224309
-0.014824 0.097075999 -0.224308
-0.014821 0.097145997 -0.224308
-0.014818 0.097216003 -0.22431
-0.014815 0.097287998 -0.22431301
-0.014813 0.097358003 -0.22431099
-0.01481 0.097429 -0.224305
-0.014808 0.097501002 -0.22429401
-0.014805 0.097571 -0.224286
-0.014802 0.097643003 -0.22429401
-0.014799 0.097713001 -0.22430199
-0.014796 0.097782999 -0.224301
-0.014794 0.097855002 -0.224297
-0.014791 0.097925 -0.224289
-0.014789 0.097997002 -0.224286
-0.014786 0.098068997 -0.224286
-0.014783 0.098139003 -0.224282
-0.014781 0.09821 -0.224277
-0.014778 0.098279998 -0.22426701
-0.014776 0.098352 -0.22426701
-0.014773 0.098424003 -0.224259
-0.014771 0.098495997 -0.22425
-0.014768 0.098566003 -0.22425
-0.014765 0.098636001 -0.224252
-0.014762 0.098706 -0.224259
-0.014759 0.098778002 -0.22426499
-0.014756 0.098848 -0.22426701
-0.014754 0.098920003 -0.22426
-0.014752 0.098989002 -0.224244
-0.014749 0.099060997 -0.224236
-0.014746 0.099131003 -0.224245
-0.014743 0.099202998 -0.224255
-0.01474 0.099273004 -0.224255
-0.014738 0.099343002 -0.22424699
-0.014735 0.099414997 -0.22424001
-0.014732 0.099486999 -0.22423799
-0.014729 0.099556997 -0.224244
-0.014727 0.099629 -0.22423699
-0.014725 0.099698 -0.224223
-0.014722 0.099770002 -0.224217
-0.014719 0.099840999 -0.22422799
-0.014716 0.099910997 -0.22424001
-0.014713 0.099982999 -0.224236
-0.014711 0.100054 -0.224224
-0.014708 0.100124 -0.22421899
-0.014705 0.100196 -0.22422101
-0.014702 0.100266 -0.224233
-0.014699 0.100336 -0.224234
-0.014697 0.100408 -0.224222
-0.014695 0.100478 -0.224214
-0.014692 0.10055 -0.224209
-0.01469 0.100622 -0.22420301
-0.014687 0.100692 -0.224205
-0.014684 0.100762 -0.224207
-0.014681 0.100833 -0.2242
-0.014679 0.100903 -0.22420201
-0.014676 0.100975 -0.224204
-0.014673 0.101045 -0.22420099
-0.01467 0.101115 -0.224197
-0.014668 0.101187 -0.224197
-0.014665 0.101257 -0.224198
-0.014662 0.101329 -0.22420201
-0.014659 0.101399 -0.224196
-0.014657 0.101471 -0.224186
-0.014655 0.101543 -0.224179
-0.014652 0.101613 -0.22418299
-0.014648 0.101683 -0.224199
-0.014645 0.101753 -0.224214
-0.014642 0.101823 -0.224208
-0.01464 0.101895 -0.22419401
-0.014638 0.101967 -0.224187
-0.014635 0.102036 -0.22418299
-0.014632 0.102108 -0.22418299
-0.01463 0.102178 -0.22418
-0.014627 0.10225 -0.224176
-0.014624 0.10232 -0.224172
-0.014622 0.102392 -0.22417
-0.014619 0.102462 -0.224171
-0.014616 0.102532 -0.22417299
-0.014613 0.102604 -0.22417501
-0.01461 0.102674 -0.22418199
-0.014607 0.102746 -0.22418401
-0.014604 0.102816 -0.22418401
-0.014601 0.102886 -0.22419301
-0.014598 0.102956 -0.22420099
-0.014596 0.103028 -0.224191
-0.014593 0.1031 -0.224177
-0.014591 0.10317 -0.22418
-0.014587 0.10324 -0.224188
-0.014584 0.103312 -0.22419199
-0.014582 0.103382 -0.22419301
-0.014579 0.103452 -0.224199
-0.014576 0.103524 -0.224197
-0.014573 0.103594 -0.22419199
-0.014571 0.103666 -0.22419
-0.014568 0.103736 -0.224188
-0.014565 0.103808 -0.224186
-0.014563 0.103877 -0.224167
-0.014561 0.103949 -0.224149
-0.014558 0.104019 -0.224161
-0.014555 0.104089 -0.224176
-0.014552 0.104161 -0.224176
-0.014549 0.104231 -0.22418
-0.014546 0.104301 -0.22418299
-0.014544 0.104373 -0.22417501
-0.014541 0.104443 -0.224171
-0.014538 0.104515 -0.22417
-0.014536 0.104585 -0.224158
-0.014534 0.104657 -0.224152
-0.01453 0.104727 -0.224162
-0.014527 0.104797 -0.224171
-0.014525 0.104869 -0.22416499
-0.014522 0.104939 -0.224159
-0.014519 0.10501 -0.22415601
-0.014517 0.105081 -0.22416
-0.014513 0.105151 -0.22417
-0.01451 0.105223 -0.224181
-0.014507 0.105293 -0.224179
-0.014505 0.105364 -0.224163
-0.014503 0.105434 -0.22414599
-0.014501 0.105506 -0.224144
-0.014498 0.105576 -0.22415
-0.014494 0.105646 -0.22415601
-0.014491 0.105718 -0.224163
-0.014489 0.105788 -0.22416499
-0.014486 0.10586 -0.224159
-0.014484 0.10593 -0.22414801
-0.014481 0.106002 -0.22413801
-0.014479 0.106072 -0.22414
-0.014476 0.106142 -0.22414701
-0.014472 0.106214 -0.22415701
-0.014469 0.106284 -0.224159
-0.014467 0.106354 -0.22415
-0.014465 0.106425 -0.224134
-0.014463 0.106497 -0.22411799
-0.01446 0.106567 -0.224116
-0.014457 0.106637 -0.22412699
-0.014454 0.106709 -0.224139
-0.01445 0.106779 -0.224151
-0.014447 0.106849 -0.224154
-0.014445 0.106921 -0.224154
-0.014441 0.106992 -0.224168
-0.014438 0.107062 -0.22417501
-0.014436 0.107133 -0.22415499
-0.014435 0.107203 -0.22412699
-0.014432 0.107275 -0.224125
-0.014429 0.107345 -0.22413
-0.014426 0.107417 -0.224132
-0.014423 0.107487 -0.22413599
-0.014421 0.107557 -0.224133
-0.014418 0.107629 -0.22412901
-0.014415 0.107698 -0.224125
-0.014413 0.10777 -0.224122
-0.01441 0.10784 -0.22411799
-0.014408 0.10791 -0.22411001
-0.014405 0.107982 -0.22410101
-0.014403 0.108051 -0.224089
-0.014401 0.108123 -0.224077
-0.014399 0.108193 -0.22407
-0.014396 0.108265 -0.224066
-0.014393 0.108335 -0.22407401
-0.014389 0.108405 -0.224088
-0.014386 0.108477 -0.224097
-0.014384 0.108547 -0.224087
-0.014382 0.108619 -0.224077
-0.014379 0.108689 -0.22407401
-0.014377 0.108759 -0.224068
-0.014374 0.10883 -0.224052
-0.014373 0.1089 -0.22403499
-0.01437 0.108972 -0.224031
-0.014367 0.109042 -0.224025
-0.014365 0.109111 -0.224016
-0.014362 0.109183 -0.224016
-0.014359 0.109254 -0.22402599
-0.014356 0.109324 -0.224034
-0.014353 0.109396 -0.22403499
-0.014351 0.109465 -0.224029
-0.014348 0.109537 -0.224025
-0.014345 0.109607 -0.22402
-0.014343 0.109677 -0.224014
-0.01434 0.109749 -0.22401001
-0.014338 0.109819 -0.22400901
-0.014335 0.109889 -0.224003
-0.014333 0.109961 -0.223997
-0.01433 0.11003 -0.22398999
-0.014328 0.1101 -0.22397199
-0.014326 0.110172 -0.22396401
-0.014323 0.110242 -0.22397199
-0.01432 0.110314 -0.223977
-0.014317 0.110384 -0.223975
-0.014315 0.110454 -0.223969
-0.014313 0.110525 -0.22395
-0.014311 0.110595 -0.223924
-0.014309 0.110664 -0.223912
-0.014306 0.110736 -0.223915
-0.014303 0.110806 -0.223913
-0.014301 0.110878 -0.22390901
-0.014298 0.110948 -0.22391801
-0.014295 0.111018 -0.223914
-0.014293 0.11109 -0.223904
-0.01429 0.11116 -0.223901
-0.014288 0.11123 -0.223897
-0.014285 0.111299 -0.223885
-0.014283 0.111371 -0.223877
-0.01428 0.111441 -0.223874
-0.014278 0.111511 -0.223866
-0.014276 0.111583 -0.22385401
-0.014274 0.111652 -0.22384299
-0.014272 0.111722 -0.223827
-0.01427 0.111792 -0.223809
-0.014267 0.111863 -0.2238
-0.014265 0.111933 -0.223802
-0.014262 0.112003 -0.223802
-0.014259 0.112075 -0.223793
-0.014257 0.112145 -0.223781
-0.014255 0.112215 -0.223775
-0.014252 0.112286 -0.223774
-0.01425 0.112356 -0.22375999
-0.014248 0.112426 -0.223748
-0.014245 0.112498 -0.223749
-0.014242 0.112568 -0.22375301
-0.014239 0.112638 -0.22375099
-0.014237 0.11271 -0.223746
-0.014235 0.112779 -0.22373
-0.014232 0.112849 -0.22372
-0.01423 0.112919 -0.223711
-0.014228 0.112988 -0.223693
-0.014226 0.113058 -0.223681
-0.014223 0.11313 -0.22368
-0.014221 0.1132 -0.223676
-0.014218 0.11327 -0.22366799
-0.014216 0.113342 -0.223664
-0.014213 0.113411 -0.223663
-0.014211 0.113481 -0.223657
-0.014208 0.113553 -0.223649
-0.014206 0.113623 -0.22363999
-0.014203 0.113693 -0.223636
-0.0142 0.113763 -0.223638
-0.014198 0.113835 -0.223637
-0.014196 0.113904 -0.22362299
-0.014193 0.113974 -0.22361299
-0.01419 0.114046 -0.223616
-0.014187 0.114116 -0.22362401
-0.014185 0.114186 -0.223618
-0.014183 0.114256 -0.223607
-0.01418 0.114328 -0.22360501
-0.014177 0.114398 -0.223603
-0.014175 0.114468 -0.2236
-0.014172 0.11454 -0.223602
-0.014169 0.11461 -0.22360399
-0.014166 0.114679 -0.2236
-0.014164 0.114751 -0.223589
-0.014162 0.114821 -0.223581
-0.014159 0.114891 -0.22358701
-0.014156 0.114963 -0.22359
-0.014153 0.115033 -0.223588
-0.01415 0.115105 -0.223588
-0.014147 0.115175 -0.223591
-0.014144 0.115245 -0.22359499
-0.014141 0.115317 -0.223599
-0.014138 0.115389 -0.223609
-0.014135 0.115459 -0.223618
-0.014132 0.115531 -0.223618
-0.014129 0.115602 -0.223626
-0.014125 0.115674 -0.223639
-0.014122 0.115746 -0.223649
-0.014119 0.115818 -0.223663
-0.014115 0.115889 -0.223681
-0.014112 0.115961 -0.22368599
-0.014109 0.116031 -0.223684
-0.014105 0.116103 -0.22370601
-0.014101 0.116178 -0.22373199
-0.014098 0.116248 -0.223747
-0.014094 0.11632 -0.223763
-0.01409 0.116393 -0.22378699
-0.014086 0.116465 -0.223809
-0.014083 0.116538 -0.22382601
-0.014079 0.11661 -0.22384401
-0.014075 0.116683 -0.223874
-0.014071 0.116755 -0.223892
-0.014067 0.116827 -0.22390901
-0.014063 0.116902 -0.223947
-0.014057 0.116977 -0.223993
-0.014053 0.11705 -0.22403499
-0.014048 0.117125 -0.224069
-0.014043 0.117199 -0.224104
-0.014038 0.117275 -0.224158
-0.014032 0.11735 -0.22420999
-0.014028 0.117425 -0.22425
-0.014022 0.1175 -0.224306
-0.014016 0.117575 -0.224362
-0.014011 0.11765 -0.22440501
-0.014006 0.117725 -0.22445101
-0.014 0.117802 -0.22451501
-0.013994 0.11788 -0.224583
-0.013987 0.117957 -0.224659
-0.013981 0.118035 -0.224737
-0.013973 0.118115 -0.224839
-0.015038 0.088774003 -0.225657
-0.01504 0.088857003 -0.225547
-0.01504 0.088936001 -0.225477
-0.01504 0.089014001 -0.225419
-0.015041 0.089093998 -0.225335
-0.015041 0.089175001 -0.225263
-0.01504 0.089249998 -0.225226
-0.015039 0.089327 -0.22518
-0.015039 0.089405999 -0.22511999
-0.015038 0.089482002 -0.22506
-0.015038 0.089559004 -0.225014
-0.015037 0.089634001 -0.22497299
-0.015036 0.089711003 -0.224925
-0.015035 0.089787997 -0.224875
-0.015034 0.089864999 -0.22482701
-0.015034 0.089939997 -0.224784
-0.015032 0.090012997 -0.22476199
-0.01503 0.090088002 -0.22472601
-0.01503 0.090164997 -0.22468001
-0.015028 0.090236999 -0.224659
-0.015026 0.090310998 -0.224647
-0.015024 0.090383999 -0.22462299
-0.015022 0.090457 -0.224591
-0.015021 0.090533003 -0.224558
-0.015019 0.090605997 -0.224536
-0.015017 0.090680003 -0.22452
-0.015015 0.090751 -0.224498
-0.015014 0.090824001 -0.224473
-0.015012 0.090898 -0.22444899
-0.01501 0.090971999 -0.224435
-0.015007 0.091043003 -0.224427
-0.015005 0.091114998 -0.224416
-0.015003 0.091187 -0.22440401
-0.015001 0.091260001 -0.22438601
-0.014999 0.091332003 -0.22436699
-0.014997 0.091403998 -0.224355
-0.014994 0.091476001 -0.224353
-0.014991 0.091546997 -0.224347
-0.014989 0.091619 -0.22434001
-0.014986 0.091688998 -0.224336
-0.014984 0.091761 -0.224324
-0.014982 0.091834001 -0.22431099
-0.014979 0.091903999 -0.224301
-0.014977 0.091976002 -0.22429501
-0.014974 0.092046 -0.224298
-0.014971 0.092118002 -0.2243
-0.014969 0.092189997 -0.22429401
-0.014966 0.092260003 -0.224286
-0.014964 0.092331 -0.224277
-0.014962 0.092403002 -0.22426499
-0.014959 0.092474997 -0.224255
-0.014956 0.092546999 -0.22425801
-0.014953 0.092616998 -0.22425801
-0.014951 0.092689 -0.224252
-0.014948 0.092761002 -0.224244
-0.014946 0.092830002 -0.22423901
-0.014943 0.092901997 -0.22423699
-0.014941 0.092972003 -0.22423699
-0.014938 0.093042001 -0.224242
-0.014935 0.093111999 -0.224246
-0.014932 0.093184002 -0.224246
-0.014929 0.093254998 -0.224255
-0.014926 0.093324997 -0.224259
-0.014924 0.093396001 -0.224245
-0.014921 0.093468003 -0.224231
-0.014918 0.093539998 -0.224236
-0.014915 0.093607999 -0.22425
-0.014912 0.093679003 -0.224264
-0.014908 0.093749002 -0.224271
-0.014906 0.093819 -0.224269
-0.014903 0.093891002 -0.224269
-0.0149 0.093960002 -0.22426599
-0.014898 0.094031997 -0.224262
-0.014895 0.094102003 -0.224264
-0.014892 0.094172001 -0.224273
-0.014889 0.094242997 -0.224277
-0.014886 0.094314002 -0.224273
-0.014884 0.094385996 -0.22426499
-0.014881 0.094456002 -0.224264
-0.014878 0.094526 -0.224272
-0.014875 0.094598003 -0.22427399
-0.014872 0.094668001 -0.224269
-0.01487 0.094740003 -0.224263
-0.014867 0.094810002 -0.22426701
-0.014864 0.09488 -0.224272
-0.014861 0.094949998 -0.224282
-0.014858 0.095020004 -0.22429
-0.014855 0.095090002 -0.22429299
-0.014852 0.095161997 -0.224291
-0.014849 0.095232002 -0.224291
-0.014846 0.095303997 -0.22429299
-0.014844 0.095374003 -0.224292
-0.014841 0.095444001 -0.224292
-0.014838 0.095516004 -0.2243
-0.014835 0.095586002 -0.224305
-0.014832 0.095656 -0.224305
-0.014829 0.095728002 -0.224297
-0.014827 0.095798001 -0.22429401
-0.014824 0.095870003 -0.22430199
-0.014821 0.095940001 -0.224308
-0.014818 0.09601 -0.224314
-0.014815 0.096081004 -0.224317
-0.014812 0.096152 -0.22431301
-0.01481 0.096224003 -0.224307
-0.014807 0.096294001 -0.224308
-0.014804 0.096363999 -0.224318
-0.0148 0.096435003 -0.224324
-0.014798 0.096506 -0.22431301
-0.014796 0.096578002 -0.224301
-0.014793 0.096648 -0.224305
-0.01479 0.096720003 -0.22431099
-0.014787 0.096790001 -0.224314
-0.014784 0.096859999 -0.224318
-0.014782 0.096932001 -0.22431201
-0.014779 0.097002 -0.22430301
-0.014776 0.097074002 -0.22430301
-0.014773 0.097144 -0.224307
-0.014771 0.097213998 -0.22431
-0.014768 0.097286001 -0.22431201
-0.014765 0.097355999 -0.224314
-0.014762 0.097428001 -0.224309
-0.01476 0.097498998 -0.224299
-0.014758 0.097569004 -0.224289
-0.014755 0.097640999 -0.224289
-0.014752 0.097710997 -0.224288
-0.014749 0.097782999 -0.224288
-0.014746 0.097852997 -0.22429
-0.014744 0.097925 -0.224287
-0.014741 0.097994998 -0.224287
-0.014738 0.098064996 -0.22429501
-0.014735 0.098136999 -0.224298
-0.014732 0.098206997 -0.224292
-0.01473 0.098278999 -0.224288
-0.014727 0.098348998 -0.22428399
-0.014725 0.098420002 -0.22427499
-0.014723 0.098491997 -0.224263
-0.01472 0.098562002 -0.224261
-0.014717 0.098633997 -0.22426599
-0.014714 0.098704003 -0.224268
-0.014711 0.098774001 -0.22427
-0.014709 0.098846003 -0.224263
-0.014706 0.098917998 -0.224251
-0.014704 0.098986998 -0.224243
-0.014702 0.099059001 -0.224235
-0.014699 0.099131003 -0.224236
-0.014696 0.099201001 -0.224242
-0.014693 0.099270999 -0.224246
-0.01469 0.099343002 -0.224241
-0.014688 0.099413 -0.22423699
-0.014685 0.099485002 -0.22423699
-0.014682 0.099555001 -0.22423799
-0.014679 0.099627003 -0.224236
-0.014676 0.099697001 -0.22423799
-0.014673 0.099766999 -0.22424699
-0.01467 0.099839002 -0.22424699
-0.014668 0.099910997 -0.224233
-0.014666 0.099981003 -0.224227
-0.014663 0.100051 -0.224232
-0.01466 0.100123 -0.22423001
-0.014657 0.100193 -0.22423001
-0.014655 0.100265 -0.224231
-0.014652 0.100335 -0.224231
-0.014649 0.100406 -0.22422101
-0.014647 0.100478 -0.22420999
-0.014645 0.100548 -0.22420201
-0.014642 0.10062 -0.224204
-0.014639 0.10069 -0.22420999
-0.014636 0.10076 -0.22422101
-0.014633 0.10083 -0.224225
-0.01463 0.1009 -0.22422899
-0.014627 0.100972 -0.224222
-0.014625 0.101044 -0.224208
-0.014623 0.101113 -0.224198
-0.01462 0.101186 -0.22420301
-0.014617 0.101256 -0.224209
-0.014614 0.101328 -0.224207
-0.014611 0.101398 -0.224207
-0.014608 0.101468 -0.224208
-0.014606 0.101539 -0.224208
-0.014603 0.101609 -0.224208
-0.0146 0.101681 -0.22421101
-0.014598 0.101751 -0.22420099
-0.014596 0.101823 -0.224185
-0.014593 0.101895 -0.22417399
-0.014591 0.101964 -0.224172
-0.014588 0.102037 -0.224176
-0.014584 0.102107 -0.22418401
-0.014581 0.102177 -0.224195
-0.014579 0.102247 -0.224191
-0.014576 0.102319 -0.224181
-0.014574 0.10239 -0.224176
-0.014571 0.10246 -0.224172
-0.014568 0.10253 -0.22417
-0.014565 0.102602 -0.22417501
-0.014562 0.102672 -0.224187
-0.014559 0.102743 -0.22419301
-0.014556 0.102815 -0.2242
-0.014553 0.102885 -0.224206
-0.01455 0.102955 -0.2242
-0.014548 0.103026 -0.224188
-0.014546 0.103098 -0.224185
-0.014543 0.103168 -0.224189
-0.014539 0.103238 -0.224195
-0.014537 0.10331 -0.224196
-0.014534 0.10338 -0.22419199
-0.014532 0.103452 -0.224178
-0.014529 0.103522 -0.224177
-0.014526 0.103592 -0.224189
-0.014523 0.103664 -0.224191
-0.01452 0.103734 -0.224189
-0.014517 0.103804 -0.224198
-0.014514 0.103876 -0.224206
-0.014511 0.103946 -0.22420201
-0.014509 0.104018 -0.224191
-0.014507 0.104088 -0.224181
-0.014504 0.10416 -0.22418299
-0.014501 0.10423 -0.22419
-0.014498 0.1043 -0.224188
-0.014496 0.104372 -0.22418401
-0.014493 0.104441 -0.224179
-0.014491 0.104513 -0.22417299
-0.014488 0.104583 -0.22416499
-0.014486 0.104655 -0.22415499
-0.014483 0.104725 -0.22415601
-0.01448 0.104795 -0.22416601
-0.014477 0.104867 -0.224168
-0.014474 0.104937 -0.22417299
-0.014471 0.105007 -0.224169
-0.014469 0.105079 -0.22416499
-0.014465 0.105149 -0.224176
-0.014462 0.105221 -0.22418
-0.01446 0.105291 -0.22417399
-0.014457 0.105361 -0.22417501
-0.014455 0.105433 -0.224171
-0.014452 0.105503 -0.22416499
-0.014449 0.105575 -0.224171
-0.014446 0.105645 -0.22418401
-0.014443 0.105715 -0.22418
-0.014441 0.105787 -0.22417
-0.014438 0.105858 -0.224163
-0.014436 0.105928 -0.22414701
-0.014434 0.106 -0.224143
-0.01443 0.10607 -0.224154
-0.014427 0.10614 -0.224158
-0.014425 0.106212 -0.22415601
-0.014422 0.106282 -0.224158
-0.014419 0.106352 -0.22415499
-0.014417 0.106424 -0.224139
-0.014415 0.106493 -0.22412699
-0.014412 0.106565 -0.22413801
-0.014408 0.106636 -0.22414599
-0.014406 0.106706 -0.224144
-0.014403 0.106777 -0.224143
-0.0144 0.106848 -0.224145
-0.014397 0.106919 -0.224145
-0.014394 0.10699 -0.224153
-0.014391 0.10706 -0.224162
-0.014389 0.107132 -0.224154
-0.014387 0.107201 -0.22413801
-0.014384 0.107273 -0.224131
-0.014382 0.107343 -0.22412901
