-0.0543621 0.0338044 0.997949 0.0122768
-0.0562818 0.0352412 0.997793 0.0128362
-0.0558669 0.0373582 0.997739 0.01359
-0.0566362 0.0387596 0.997642 0.0153551
-0.0550666 0.0404195 0.997664 0.0132074
-0.0543024 0.0418216 0.997648 0.0103702
-0.0527202 0.0434318 0.997664 0.00947762
-0.0507149 0.0449976 0.997699 0.00385955
-0.0518029 0.0468988 0.997555 0.00703751
-0.0506264 0.0476604 0.99758 0.00490904
-0.049057 0.0493381 0.997577 0.00397318
-0.0483889 0.0510141 0.997525 0.00371882
-0.0482415 0.0515505 0.997505 0.00377171
-0.04915 0.053622 0.997351 0.00402205
-0.048339 0.0547549 0.997329 0.00406572
-0.0495627 0.0553559 0.997236 0.00370279
-0.0485079 0.0554289 0.997284 0
-0.0475994 0.0570526 0.997236 0
-0.0477888 0.0570512 0.997227 0
-0.0488119 0.0578904 0.997129 0
-0.0483627 0.0586544 0.997106 0.00134517
-0.0496028 0.0585173 0.997053 0.00100475
-0.0474414 0.0600634 0.997067 0.000309182
-0.048336 0.0617683 0.996919 0.00330285
-0.0482676 0.0635157 0.996813 0.00220242
-0.0494771 0.0650917 0.996652 0
-0.0504405 0.0662351 0.996528 0.00114131
-0.0491194 0.0686012 0.996434 0
-0.0494902 0.0713346 0.996224 0
-0.0492083 0.0737495 0.996062 0
-0.0475927 0.0762605 0.995951 0
-0.0414243 -0.0601944 0.997327 0.0135055
-0.0412437 -0.0589628 0.997408 0.0111733
-0.0412371 -0.0570008 0.997522 0.00959201
-0.0407846 -0.0560834 0.997593 0.00960136
-0.0419598 -0.0556331 0.997569 0.0113459
-0.0431107 -0.0552189 0.997543 0.00970216
-0.0430356 -0.0547933 0.99757 0.0107022
-0.0419525 -0.0536287 0.997679 0.00726074
-0.0431575 -0.053314 0.997645 0.00742799
-0.0428975 -0.0527704 0.997685 0.00837575
-0.0419677 -0.0524761 0.99774 0.00946792
-0.0419388 -0.0500003 0.997868 0.00775068
-0.0417096 -0.047267 0.998011 0.00572081
-0.0415673 -0.0436344 0.998182 0.00509738
-0.0412619 -0.0429893 0.998223 0.00503991
-0.0396558 -0.0410777 0.998369 0.00529481
-0.0401819 -0.0409257 0.998354 0.00607378
-0.0389403 -0.0393338 0.998467 0.0052836
-0.0392599 -0.0391605 0.998461 0.00596408
-0.0393099 -0.037247 0.998533 0.0068206
-0.0403951 -0.0370782 0.998496 0.00658937
-0.0400774 -0.0343001 0.998608 0.00394836
-0.0394708 -0.0334613 0.99866 0.00364268
-0.0406398 -0.0322932 0.998652 0.005458
-0.0401219 -0.0310633 0.998712 0.00735736
-0.0402689 -0.0301616 0.998734 0.0085925
-0.0415233 -0.0294451 0.998704 0.00841071
-0.0406303 -0.0285632 0.998766 0.00463925
-0.040674 -0.0279611 0.998781 0.00516957
-0.0401372 -0.0273346 0.99882 0.00365163
-0.0396893 -0.026014 0.998873 0.00480352
-0.0398643 -0.0248164 0.998897 0.00691039
-0.0398794 -0.0243406 0.998908 0.00596114
-0.0402421 -0.0244079 0.998892 0.00779694
-0.0399392 -0.0244587 0.998903 0.00818749
-0.039029 -0.0240197 0.998949 0.00572896
-0.0375273 -0.0222708 0.999047 0.00164032
-0.0374495 -0.022633 0.999042 0.00223383
-0.03797 -0.0215069 0.999047 0.00257739
-0.0382196 -0.0204416 0.99906 0.000833225
-0.0394052 -0.0198014 0.999027 0.00269012
-0.0403012 -0.0192446 0.999002 0.00271898
-0.0414358 -0.0189653 0.998961 0.00489664
-0.0423668 -0.0171572 0.998955 0.00499336
-0.0436583 -0.0154409 0.998927 0.00462869
-0.0458645 -0.0139035 0.998851 0.00713455
-0.0461631 -0.0137806 0.998839 0.00820726
-0.0479958 -0.0100725 0.998797 0.00902131
-0.0496097 -0.00676329 0.998746 0.0091458
-0.0521878 -0.00187723 0.998636 0.00929064
-0.05199 0.0053713 0.998633 0.00750068
-0.0525437 0.0141386 0.998518 0.00530674
-0.0540963 0.0173877 0.998384 0.00276682
-0.0546551 0.0260668 0.998165 0.00128524
-0.0625453 -0.0136884 0.997948 0.0155755
-0.062084 -0.0119064 0.998 0.0133155
-0.0616909 -0.011652 0.998027 0.0100086
-0.0605996 -0.0114131 0.998097 0.00939403
-0.0601177 -0.0114915 0.998125 0.0102393
-0.0589749 -0.0101405 0.998208 0.00774969
-0.0594955 -0.010439 0.998174 0.00880452
-0.0581641 -0.00890152 0.998267 0.00470497
-0.0575928 -0.00909769 0.998299 0.00116685
-0.058271 -0.00922093 0.998258 0.00501611
-0.055276 -0.00830363 0.998437 0.00236282
-0.0533333 -0.0074379 0.998549 0.00257014
-0.0542342 -0.00841427 0.998493 0.00435157
-0.053379 -0.00791291 0.998543 0.000470426
-0.0533065 -0.00747139 0.99855 0.00064372
-0.055008 -0.00820982 0.998452 0.0064189
-0.0548958 -0.00845498 0.998456 0.00851744
-0.0548897 -0.00907008 0.998451 0.0114961
-0.0543821 -0.00890032 0.99848 0.00836574
-0.0525332 -0.00925861 0.998576 0.00678102
-0.0531139 -0.00948239 0.998543 0.00679158
-0.0522694 -0.00991604 0.998584 0.00845374
-0.0532866 -0.0102592 0.998527 0.0108202
-0.0562132 -0.0111597 0.998356 0.0159369
-0.0577131 -0.0112161 0.99827 0.0185115
-0.0577352 -0.0113654 0.998267 0.0161773
-0.0581118 -0.0115648 0.998243 0.0162066
-0.0573198 -0.0106553 0.998299 0.0127564
-0.0571533 -0.0105039 0.99831 0.0128311
-0.0567647 -0.0100758 0.998337 0.0104159
-0.0573727 -0.0102003 0.998301 0.0148227
-0.0582924 -0.00968111 0.998253 0.014718
-0.0580144 -0.00926834 0.998273 0.0171681
-0.0570262 -0.00852631 0.998336 0.0144858
-0.0567847 -0.00775032 0.998356 0.0147327
-0.0568457 -0.00727757 0.998356 0.0139823
-0.055815 -0.00595201 0.998423 0.00838928
-0.0547993 -0.00558159 0.998482 0.00989698
-0.0532778 -0.00535567 0.998565 0.00860541
-0.0538008 -0.00429771 0.998542 0.00831183
-0.0527644 -0.00315695 0.998602 0.00516516
-0.0522592 -0.0028247 0.99863 0.00516467
-0.0528313 -0.00261314 0.9986 0.00510581
-0.0538964 -0.00263039 0.998543 0.0089801
-0.0553661 -0.00236164 0.998463 0.00874525
-0.0542386 -0.00125714 0.998527 0.00864029
-0.051921 -0.000272392 0.998651 0.00761239
-0.0524675 0.000555716 0.998622 0.0090469
-0.0530511 0.000675774 0.998592 0.00659732
-0.0516164 0.00145084 0.998666 0.00568143
-0.0515876 0.00217838 0.998666 0.00537919
-0.0518226 0.00244472 0.998653 0.0048475
-0.0528958 0.00302024 0.998595 0.00753665
-0.0520082 0.00362135 0.99864 0.00894713
-0.0542313 0.00475063 0.998517 0.0133794
-0.0538794 0.00548643 0.998532 0.0132747
-0.0531638 0.00618977 0.998567 0.00918915
-0.0545869 0.00715857 0.998483 0.0131646
-0.0527043 0.00868403 0.998572 0.0122523
-0.0510041 0.00993395 0.998649 0.00840463
-0.0514472 0.0110002 0.998615 0.00730082
-0.0519951 0.0123246 0.998571 0.00594113
-0.0547944 0.012876 0.998415 0.00871169
-0.0529971 0.0138026 0.998499 0.00787508
-0.054659 0.0144663 0.9984 0.00872442
-0.0563047 0.0146603 0.998306 0.0128004
-0.0553961 0.0148045 0.998355 0.0106295
-0.0544696 0.0151322 0.998401 0.0089163
-0.0568535 0.0154044 0.998264 0.00840249
-0.0594633 0.0156124 0.998108 0.010974
-0.058165 0.0159529 0.998179 0.00953103
-0.0562067 0.0159597 0.998292 0.00623363
-0.0569346 0.0154642 0.998258 0.00821348
-0.0568355 0.0149492 0.998272 0.00770461
-0.0569785 0.0149596 0.998263 0.0104674
-0.0577714 0.0145817 0.998223 0.0113819
-0.0584491 0.0147262 0.998182 0.0123772
-0.0580707 0.0150155 0.998199 0.0142956
-0.0568398 0.0153915 0.998265 0.0136728
-0.0563277 0.0158053 0.998287 0.0100147
-0.0576905 0.01581 0.998209 0.0148116
-0.0586719 0.0161816 0.998146 0.0149552
-0.0596992 0.0169082 0.998073 0.0183965
-0.0594847 0.0177154 0.998072 0.0199044
-0.0574913 0.0194687 0.998156 0.0139071
-0.0559771 0.0208798 0.998214 0.0120468
-0.0550266 0.0221541 0.998239 0.0116015
-0.0542633 0.0234483 0.998251 0.0129756
-0.0550276 0.0250718 0.99817 0.0143446
-0.0558545 0.0266142 0.998084 0.0156489
-0.0564128 0.0279287 0.998017 0.0148463
-0.0568695 0.0296604 0.997941 0.0180777
-0.0548894 0.0304749 0.998027 0.00953536
-0.055047 0.0317676 0.997978 0.00923527
-0.0563542 0.0336355 0.997844 0.0146879
-0.0557427 0.0346337 0.997844 0.0123956
-0.0542697 0.0363486 0.997865 0.0067744
-0.0543675 0.0382395 0.997788 0.00946425
-0.0541404 0.0395709 0.997749 0.00688779
-0.0557507 0.0416156 0.997577 0.00841266
-0.0547089 0.0425728 0.997594 0.00806901
-0.0559743 0.0430959 0.997502 0.0107089
-0.0567065 0.0451586 0.997369 0.0132657
-0.0573862 0.0466661 0.997261 0.0128226
-0.0582295 0.0486244 0.997118 0.0160985
-0.0581092 0.049977 0.997058 0.0161567
-0.058243 0.051606 0.996968 0.0141635
-0.0590656 0.0526421 0.996865 0.0141927
-0.0563243 0.053776 0.996963 0.00974183
-0.0564366 0.0551821 0.99688 0.00891776
-0.0567118 0.0560705 0.996815 0.00623922
-0.0558279 0.0570814 0.996807 0.00569342
-0.0553411 0.0583787 0.996759 0.00732061
-0.0543335 0.0590482 0.996775 0.00704742
-0.0543338 0.0599459 0.996722 0.00552938
-0.0539482 0.0611247 0.996671 0.0108486
-0.0556207 0.062838 0.996473 0.013373
-0.0548813 0.0640965 0.996433 0.0136455
-0.0553335 0.0651963 0.996337 0.0128718
-0.0545546 0.0666252 0.996285 0.0123917
-0.0556914 0.0681325 0.996121 0.0136281
-0.0562396 0.0709499 0.995893 0.0139256
-0.054944 0.072889 0.995826 0.0170017
-0.0553872 0.0756661 0.995594 0.0186804
-0.0460384 -0.058397 0.997231 0.0174541
-0.0454328 -0.0579511 0.997285 0.0183746
-0.0463128 -0.0552734 0.997397 0.0183805
-0.0465324 -0.0553771 0.997381 0.0200465
-0.0478097 -0.0532041 0.997438 0.019914
-0.0475185 -0.0524022 0.997495 0.0183975
-0.0468208 -0.0496064 0.997671 0.0159746
-0.0460669 -0.0489823 0.997737 0.0163646
-0.0465309 -0.0468053 0.99782 0.01482
-0.0478926 -0.045347 0.997823 0.0144334
-0.0472962 -0.0445134 0.997889 0.0127621
-0.047708 -0.0444445 0.997872 0.0127391
-0.0481414 -0.0432101 0.997905 0.0138826
-0.04777 -0.0422867 0.997963 0.0115283
-0.0472113 -0.0411034 0.998039 0.00820623
-0.0474648 -0.041281 0.99802 0.0111441
-0.0481789 -0.0409257 0.998 0.011421
-0.048757 -0.0405579 0.997987 0.0125428
-0.0488906 -0.0396762 0.998016 0.0124552
-0.0491807 -0.0400088 0.997988 0.0147659
-0.0485265 -0.0390359 0.998059 0.0134224
-0.0492465 -0.0388888 0.998029 0.0159954
-0.0503486 -0.0384039 0.997993 0.0165879
-0.050572 -0.0365854 0.99805 0.0131638
-0.0496385 -0.0354994 0.998136 0.0095587
-0.0513761 -0.0347826 0.998073 0.010627
-0.053272 -0.0347849 0.997974 0.0152585
-0.053263 -0.0341663 0.997996 0.0154732
-0.0525646 -0.0331516 0.998067 0.0102333
-0.0526514 -0.0313938 0.998119 0.0119436
-0.0531866 -0.0288543 0.998168 0.00695257
-0.0534779 -0.0271358 0.9982 0.0075043
-0.0534384 -0.0273621 0.998196 0.00918977
-0.0533895 -0.0259735 0.998236 0.00866477
-0.0539144 -0.0251984 0.998228 0.00888211
-0.0546905 -0.0246835 0.998198 0.00922723
-0.0552054 -0.0241906 0.998182 0.0115067
-0.0527714 -0.0219525 0.998365 0.00961647
-0.0521256 -0.0206779 0.998426 0.0108066
-0.0521552 -0.0193151 0.998452 0.0132928
-0.0519022 -0.0163364 0.998519 0.0140362
-0.0511618 -0.0154267 0.998571 0.0140222
-0.0591451 -0.0117803 0.99818 0.0140373
-0.0589417 -0.0114135 0.998196 0.0107308
-0.0593134 -0.0127233 0.998158 0.00988873
-0.0595631 -0.0130718 0.998139 0.0122974
-0.0591836 -0.012497 0.998169 0.00946693
-0.05926 -0.0119703 0.998171 0.0114522
-0.0589803 -0.0111356 0.998197 0.0111084
-0.0589064 -0.011407 0.998198 0.0109453
-0.0587081 -0.0108212 0.998217 0.0102172
-0.0566834 -0.00873928 0.998354 0.00411953
-0.0572351 -0.0108517 0.998302 0.00928675
-0.0553466 -0.0109506 0.998407 0.00478835
-0.0579747 -0.0131667 0.998231 0.0140212
-0.0579786 -0.0143043 0.998215 0.0186498
-0.0582387 -0.014198 0.998202 0.0190899
-0.0574495 -0.0139756 0.998251 0.0167865
-0.0571308 -0.0128057 0.998285 0.0127656
-0.0588587 -0.0129203 0.998183 0.0159368
-0.0582201 -0.0129996 0.998219 0.0115592
-0.0568581 -0.0123624 0.998306 0.00962988
-0.0570519 -0.0123916 0.998294 0.00750346
-0.0585242 -0.0116984 0.998217 0.00754984
-0.0585972 -0.011822 0.998212 0.00713509
-0.0570827 -0.0115321 0.998303 0.00589084
-0.0551955 -0.0103776 0.998422 0.00306532
-0.0562476 -0.0104635 0.998362 0.00322074
-0.056048 -0.0103694 0.998374 0.00290857
-0.05467 -0.0100065 0.998454 0
-0.0539901 -0.00957462 0.998496 0
-0.0538964 -0.00927348 0.998503 0
-0.0534081 -0.00883183 0.998534 0
-0.052114 -0.00815358 0.998608 0
-0.052958 -0.00872038 0.998559 0
-0.0517435 -0.00758782 0.998632 0
-0.0511005 -0.00756554 0.998665 0
-0.0509565 -0.00634266 0.998681 0
-0.0511323 -0.0058666 0.998675 0
-0.0520749 -0.00546252 0.998628 0
-0.0529019 -0.00488508 0.998588 0.00245209
-0.0528341 -0.00474573 0.998592 0.00251254
-0.0520616 -0.00409633 0.998635 0.00254852
-0.0512983 -0.00316932 0.998678 0.00225074
-0.0516133 -0.00263383 0.998664 0.00155795
-0.0528684 -0.00305612 0.998597 0.00198184
-0.0511665 -0.0021325 0.998688 0
-0.0499797 -0.00177678 0.998749 0
-0.0492555 -0.00124972 0.998785 0
-0.0490254 0.000273327 0.998797 0
-0.0488213 0.000795501 0.998807 0.000622879
-0.0489637 -0.000177402 0.998801 0.00230336
-0.0485692 0.000302476 0.99882 0.00647422
-0.0488936 0.000707879 0.998804 0.00559492
-0.0502462 0.00136423 0.998736 0.00462371
-0.0541924 -0.000326053 0.99853 0.00753781
-0.0533131 0.000105189 0.998578 0.00590015
-0.0508424 0.000877282 0.998706 0.00303363
-0.0510485 0.00142549 0.998695 0.00535761
-0.0524876 0.00203581 0.998619 0.00695411
-0.0538862 0.00245483 0.998544 0.00534567
-0.0539094 0.00305567 0.998541 0.00633863
-0.0526513 0.00301303 0.998608 0.00600043
-0.0522097 0.00388013 0.998629 0.00452563
-0.0515564 0.00410037 0.998662 0.00502207
-0.0493709 0.00444337 0.998771 0.00504962
-0.0482993 0.00654636 0.998811 0.00168518
-0.0494472 0.00871983 0.998739 0.00228172
-0.0503699 0.010285 0.998678 0
-0.0517374 0.0113773 0.998596 0.000391979
-0.0536011 0.0123306 0.998486 0
-0.0535375 0.0132915 0.998477 0.00109362
-0.0529732 0.0139021 0.998499 0.000349561
-0.0527144 0.0152451 0.998493 0
-0.0540859 0.0159262 0.998409 0.000993864
-0.0532004 0.0164987 0.998448 0
-0.0549289 0.0166884 0.998351 0.00115574
-0.0529306 0.0163732 0.998464 0
-0.0513625 0.0159334 0.998553 0
-0.0482603 0.0164941 0.998699 0
-0.0484903 0.0167677 0.998683 0
-0.0481025 0.017056 0.998697 0
-0.0509869 0.0168517 0.998557 0
-0.0491127 0.0175778 0.998639 0
-0.0482101 0.0179826 0.998675 0
-0.0487572 0.0183659 0.998642 0
-0.0471641 0.0185435 0.998715 0
-0.0465735 0.0185537 0.998743 0
-0.0482021 0.0193883 0.998649 0
-0.048655 0.0196764 0.998622 0
-0.0497193 0.0197889 0.998567 0
-0.0507396 0.0205964 0.9985 0.000599914
-0.051024 0.0203913 0.998489 0.00118466
-0.0511276 0.0211818 0.998468 0.00132744
-0.0509952 0.022206 0.998452 0
-0.0505834 0.0229751 0.998456 0
-0.0511144 0.0237228 0.998411 0.00199983
-0.0508722 0.0248549 0.998396 0.00139807
-0.0517971 0.0260499 0.998318 0.0059993
-0.0515123 0.0271939 0.998302 0.00526964
-0.0509411 0.0288372 0.998285 0.00294861
-0.0499824 0.0302715 0.998291 0.00107967
-0.0512255 0.0315376 0.998189 0.00433873
-0.0515677 0.0326625 0.998135 0.0059813
-0.0515605 0.033834 0.998097 0.00572619
-0.0507561 0.0354359 0.998082 0.00306343
-0.0493833 0.0367104 0.998105 0.000638289
-0.049188 0.0387723 0.998037 0
-0.0504049 0.040703 0.997899 0.00141947
-0.0509253 0.0415709 0.997837 0.00126836
-0.0510017 0.0429571 0.997774 0.000676434
-0.0523163 0.0443882 0.997644 0.00141981
-0.0528745 0.0461224 0.997535 0.00638004
-0.053229 0.0478289 0.997436 0.00838061
-0.0528545 0.0496427 0.997368 0.00875469
-0.0530036 0.0514739 0.997267 0.00886
-0.0519694 0.0533398 0.997223 0.00769474
-0.0517007 0.0544851 0.997175 0.00730905
-0.0513078 0.054972 0.997169 0.00598358
-0.0513876 0.0559906 0.997108 0.00595957
-0.0532955 0.0573168 0.996933 0.00864931
-0.0527615 0.0586168 0.996885 0.00572971
-0.0531934 0.0610798 0.996714 0.00988796
-0.0549406 0.0632663 0.996483 0.0134479
-0.0553468 0.0639617 0.996416 0.0159576
-0.0545699 0.0642911 0.996438 0.0115993
-0.0543415 0.065369 0.99638 0.00896891
-0.0542134 0.0666765 0.996301 0.00980904
-0.055561 0.0696784 0.996021 0.015549
-0.0547921 0.0700902 0.996035 0.0103982
-0.0552526 0.071242 0.995928 0.0102962
-0.0543269 0.0722415 0.995906 0.00907398
-0.0548603 0.0754221 0.995641 0.0135797
-0.0545094 0.0776882 0.995486 0.0130463
-0.0562621 0.0789307 0.995291 0.0133394
-0.0364046 -0.122502 0.9918 0.0202979
-0.0357483 -0.114872 0.992737 0.0191445
-0.0378808 -0.110315 0.993175 0.0191331
-0.0393994 -0.107813 0.99339 0.0191472
-0.0393296 -0.104216 0.993777 0.0173003
-0.0410502 -0.102937 0.99384 0.0192267
-0.041789 -0.101241 0.993984 0.0219106
-0.0439689 -0.0985843 0.994157 0.0212014
-0.0456002 -0.0958629 0.994349 0.0216938
-0.0458055 -0.0934463 0.99457 0.0207961
-0.0454966 -0.0904935 0.994857 0.0185537
-0.0457431 -0.0867703 0.995178 0.0159269
-0.0475393 -0.0865939 0.995109 0.0191769
-0.047856 -0.0814894 0.995525 0.0158283
-0.0483174 -0.0809835 0.995544 0.0160611
-0.0472796 -0.0786593 0.99578 0.0146031
-0.0463858 -0.0775551 0.995908 0.0138326
-0.048645 -0.0787021 0.995711 0.0193979
-0.048173 -0.0756476 0.99597 0.0175649
-0.0486346 -0.0728179 0.996159 0.015161
-0.0495243 -0.0698732 0.996326 0.0146362
-0.0488546 -0.0681914 0.996475 0.0149332
-0.0498814 -0.0685654 0.996399 0.0166953
-0.0502847 -0.0677648 0.996433 0.0172391
-0.0508899 -0.0642579 0.996635 0.0134965
-0.0530613 -0.0634596 0.996573 0.0198614
-0.0542429 -0.0633215 0.996518 0.0210745
-0.0533709 -0.0620424 0.996646 0.0195838
-0.0541489 -0.0625678 0.996571 0.0228219
-0.0530943 -0.0605683 0.996751 0.0178512
-0.0528468 -0.0593746 0.996836 0.0156323
-0.0531832 -0.0593279 0.996821 0.0160795
-0.0531275 -0.058618 0.996866 0.0154598
-0.0532722 -0.0578575 0.996903 0.015167
-0.0518857 -0.0557761 0.997094 0.0142669
-0.0516239 -0.0534098 0.997237 0.0136756
-0.0516496 -0.0515471 0.997334 0.0105357
-0.0513173 -0.0513122 0.997363 0.0130008
-0.050219 -0.04823 0.997573 0.0106931
-0.0496622 -0.0471014 0.997655 0.0132325
-0.0502267 -0.04551 0.9977 0.0139481
-0.0508928 -0.0430663 0.997775 0.0154283
-0.0507998 -0.0419906 0.997826 0.0178141
-0.0503374 -0.0388579 0.997976 0.0146333
-0.050566 -0.0362053 0.998064 0.0155249
-0.0497952 -0.0340378 0.998179 0.01566
-0.0487943 -0.0299931 0.998358 0.0155067
-0.0482047 -0.0256954 0.998507 0.0157761
-0.0484443 -0.0235666 0.998548 0.0146623
-0.0478921 -0.0209844 0.998632 0.0158692
-0.0484177 -0.0184206 0.998657 0.0163574
-0.0471121 -0.014368 0.998786 0.0150391
-0.048595 -0.0125619 0.99874 0.0194017
-0.0483867 -0.00995902 0.998779 0.017528
-0.0484652 -0.00677724 0.998802 0.0173382
-0.0489134 -0.00465212 0.998792 0.0181461
-0.04781 -0.000197384 0.998856 0.0183753
-0.0486673 0.00327358 0.99881 0.0187669
-0.0504488 0.00625622 0.998707 0.0213863
-0.0502607 0.00813877 0.998703 0.0222176
-0.0508921 0.0104446 0.998649 0.0227929
-0.051986 0.0112108 0.998585 0.0262636
-0.0521555 0.0138263 0.998543 0.0250102
-0.0538499 0.0195724 0.998357 0.0264963
-0.0558053 0.0209184 0.998222 0.0276948
-0.0584016 -0.0147684 0.998184 0.0139328
-0.0583678 -0.0146547 0.998188 0.0114884
-0.0581061 -0.0141624 0.99821 0.0112658
-0.0583168 -0.012633 0.998218 0.010115
-0.0558708 -0.0113467 0.998374 0.00601725
-0.0563115 -0.0117347 0.998344 0.00223535
-0.0581553 -0.0121301 0.998234 0.00783097
-0.0591332 -0.0119704 0.998178 0.0102526
-0.0614752 -0.0123064 0.998033 0.0125171
-0.0581157 -0.011003 0.998249 0.00237967
-0.0583435 -0.0114723 0.998231 0.00227104
-0.0576834 -0.0118553 0.998265 0.00339
-0.0583127 -0.0113684 0.998234 0.00592654
-0.0564134 -0.0101384 0.998356 0.00215626
-0.0548635 -0.00835043 0.998459 0
-0.0557891 -0.00834675 0.998408 5.74322e-05
-0.0553967 -0.00968329 0.998417 0.00112282
-0.0558099 -0.0101451 0.99839 0.00368211
-0.0544464 -0.0100701 0.998466 0.00166397
-0.053957 -0.0100772 0.998492 0.00197392
-0.0543956 -0.0100443 0.998469 0.00695697
-0.0552566 -0.0102181 0.99842 0.0086998
-0.0544529 -0.0103216 0.998463 0.00612841
-0.053748 -0.0106304 0.998498 0.00726813
-0.0529651 -0.0104139 0.998542 0.00754002
-0.0520864 -0.0103307 0.998589 0.00503088
-0.0512265 -0.0101343 0.998636 0.00307551
-0.0519206 -0.00988061 0.998602 0.00237379
-0.0512747 -0.00916036 0.998643 0.00294029
-0.0520565 -0.008991 0.998604 0.00487968
-0.0514401 -0.00865172 0.998639 0.00380566
-0.0531956 -0.00895176 0.998544 0.00774334
-0.05412 -0.00871823 0.998496 0.00851358
-0.0536526 -0.00821841 0.998526 0.00728841
-0.05309 -0.00756673 0.998561 0.00605801
-0.0540581 -0.00712581 0.998512 0.00870881
-0.0529554 -0.0066132 0.998575 0.00576706
-0.0533743 -0.0060566 0.998556 0.00658322
-0.0527166 -0.00500271 0.998597 0.00486035
-0.0524837 -0.00356571 0.998615 0.0010402
-0.0530341 -0.00298741 0.998588 0.00367418
-0.0532704 -0.00280134 0.998576 0.00472461
-0.0531397 -0.00190894 0.998585 0.0041497
-0.0518699 -0.00167748 0.998652 0.00353318
-0.054207 -0.00132199 0.998529 0.00477272
-0.0545102 -0.00121185 0.998512 0.00593323
-0.054703 -0.000796896 0.998502 0.00495343
-0.0540361 -0.000293463 0.998539 0.00305242
-0.0531703 2.1453e-05 0.998585 0.00226738
-0.0516166 -0.000191577 0.998667 0.00188692
-0.0528187 0.000287585 0.998604 0.00371908
-0.0519306 0.000654655 0.99865 0.00233198
-0.0514708 0.000779894 0.998674 0.0023984
-0.0535356 0.000787894 0.998566 0.00665548
-0.0533049 0.00130465 0.998577 0.0100005
-0.0517858 0.00265996 0.998655 0.00564824
-0.051927 0.00340083 0.998645 0.00397519
-0.0520419 0.00369696 0.998638 0.00364765
-0.0498417 0.00419378 0.998748 0.00204836
-0.050203 0.00456307 0.998729 0.000667769
-0.0516151 0.0048484 0.998655 0
-0.0526118 0.0059131 0.998598 0
-0.0527874 0.00625093 0.998586 0
-0.0512279 0.0073614 0.99866 0
-0.0532361 0.00969256 0.998535 0.00301124
-0.0545783 0.0112317 0.998446 0.00362288
-0.0535156 0.0120565 0.998494 0.00249238
-0.0536781 0.0138429 0.998462 0.00262403
-0.0532398 0.0143772 0.998478 0.00260079
-0.0527873 0.0155263 0.998485 0.0016016
-0.0533489 0.0160843 0.998446 0.0015487
-0.0528301 0.0162195 0.998472 0
-0.051556 0.0165717 0.998533 0.000870598
-0.0507225 0.0168452 0.998571 0.0030747
-0.0521562 0.0171288 0.998492 0.00483871
-0.0503856 0.0171494 0.998583 0.00516355
-0.0487136 0.0175071 0.998659 0.00376179
-0.0478077 0.0174409 0.998704 0.00407
-0.0460935 0.0170768 0.998791 0.00361636
-0.0464727 0.0170456 0.998774 0.00190849
-0.0474953 0.0169448 0.998728 0.00117921
-0.049554 0.0170176 0.998626 0
-0.049395 0.0171506 0.998632 0
-0.0484749 0.0171221 0.998678 0.000136471
-0.0489902 0.0171835 0.998651 0.000787442
-0.0503308 0.0174082 0.998581 0
-0.0492402 0.0177118 0.99863 0.000439907
-0.0487417 0.0181469 0.998647 0
-0.0488183 0.0186265 0.998634 0
-0.049076 0.0186536 0.998621 5.93752e-05
-0.050002 0.0191447 0.998566 0.00236624
-0.0493196 0.0201613 0.99858 0.00301175
-0.0505678 0.0211215 0.998497 0.00320015
-0.0500227 0.0225024 0.998495 0.00326925
-0.0510487 0.0241401 0.998404 0.00635781
-0.052565 0.0252763 0.998298 0.0117126
-0.0523249 0.0264131 0.998281 0.01159
-0.0516775 0.028113 0.998268 0.0105212
-0.0529285 0.0299725 0.998148 0.011779
-0.0518675 0.0320279 0.99814 0.0106167
-0.0505537 0.0338575 0.998147 0.00708396
-0.0510071 0.0360135 0.998049 0.00914373
-0.0513084 0.0369437 0.997999 0.00703032
-0.0511876 0.037785 0.997974 0.0071232
-0.0510871 0.0392815 0.997921 0.00764311
-0.0513654 0.0407538 0.997848 0.00843972
-0.0507974 0.0425147 0.997804 0.00779046
-0.0499442 0.0435621 0.997802 0.0054512
-0.0495384 0.044544 0.997778 0.00442671
-0.049154 0.0454343 0.997757 0.0019277
-0.0507499 0.0472235 0.997594 0.00638181
-0.0510087 0.0486999 0.99751 0.00912109
-0.0498399 0.0498335 0.997513 0.00754854
-0.0502324 0.0517024 0.997398 0.00594858
-0.0493575 0.0532135 0.997363 0.00388892
-0.0505265 0.0543553 0.997243 0.00604195
-0.0507099 0.0557971 0.997153 0.00448719
-0.0520208 0.0574334 0.996993 0.00859165
-0.0519695 0.058988 0.996905 0.00840921
-0.0541209 0.0604295 0.996704 0.011982
-0.0525932 0.0615581 0.996717 0.00982767
-0.0554329 0.0635081 0.996441 0.0176262
-0.0560202 0.0651384 0.996302 0.0197319
-0.0563298 0.066568 0.996191 0.0212369
-0.056678 0.0664353 0.99618 0.0178954
-0.0567863 0.0667169 0.996155 0.0180352
-0.057239 0.0673664 0.996085 0.0157315
-0.0571375 0.0696865 0.995931 0.0180856
-0.0574325 0.0709364 0.995826 0.0181292
-0.0583239 0.0727617 0.995642 0.0168996
-0.0463997 -0.115369 0.992238 0.0231887
-0.0445379 -0.110134 0.992918 0.020551
-0.0450173 -0.108322 0.993096 0.0223777
-0.044678 -0.103837 0.99359 0.019977
-0.0434708 -0.100364 0.994001 0.0188563
-0.0460602 -0.0993157 0.993989 0.0211076
-0.0446951 -0.0943268 0.994537 0.0161274
-0.0442577 -0.0926668 0.994713 0.0155142
-0.0433617 -0.0895613 0.995037 0.0123868
-0.0430192 -0.0885027 0.995147 0.0119308
-0.0440188 -0.0883483 0.995117 0.0155001
-0.0431706 -0.0876339 0.995217 0.0155093
-0.0426558 -0.0855362 0.995421 0.0133919
-0.0415564 -0.0838704 0.99561 0.0125197
-0.0430754 -0.0840971 0.995526 0.0155052
-0.0426144 -0.0829054 0.995646 0.0145112
-0.0434846 -0.0824278 0.995648 0.0172513
-0.041917 -0.0779294 0.996077 0.0178408
-0.0426468 -0.0767155 0.99614 0.0163307
-0.0425099 -0.0750594 0.996273 0.0139069
-0.0444398 -0.0749034 0.9962 0.0167466
-0.0430768 -0.0729495 0.996405 0.0149852
-0.0418198 -0.0705944 0.996628 0.0133875
-0.0430235 -0.0698119 0.996632 0.0145152
-0.0423341 -0.0677358 0.996805 0.0122117
-0.0424001 -0.0675893 0.996812 0.0138457
-0.0421238 -0.0667168 0.996882 0.0149109
-0.0415165 -0.0652495 0.997005 0.0136943
-0.043277 -0.0657781 0.996895 0.0179227
-0.0422911 -0.0620115 0.997179 0.0129599
-0.0428012 -0.0614662 0.997191 0.0149828
-0.0439505 -0.0613629 0.997147 0.0176326
-0.0431764 -0.0599176 0.997269 0.015057
-0.0431069 -0.0598662 0.997275 0.0183823
-0.0416345 -0.0572721 0.99749 0.0139103
-0.0421344 -0.0561943 0.99753 0.0155533
-0.0423545 -0.0555272 0.997558 0.0156749
-0.0422242 -0.05363 0.997668 0.0131469
-0.0420821 -0.0518981 0.997765 0.0150193
-0.0430274 -0.0499844 0.997823 0.015581
-0.0441426 -0.0467744 0.99793 0.0151808
-0.0447879 -0.0451854 0.997974 0.0140632
-0.0437864 -0.0431421 0.998109 0.0124412
-0.0439531 -0.0427024 0.998121 0.0142972
-0.0436683 -0.0413213 0.998191 0.0147926
-0.0437806 -0.0393779 0.998265 0.0139246
-0.0453346 -0.0355654 0.998339 0.0137696
-0.0456255 -0.031346 0.998467 0.0100992
-0.0458461 -0.0283466 0.998546 0.00954804
-0.0469525 -0.027483 0.998519 0.0096266
-0.0475675 -0.0253356 0.998547 0.0104199
-0.0482078 -0.0213405 0.998609 0.00858315
-0.0491437 -0.0183597 0.998623 0.0106362
-0.0500238 -0.0173997 0.998596 0.0102023
-0.0518033 -0.0156447 0.998535 0.0122254
-0.0520698 -0.0134509 0.998553 0.0139114
-0.0533474 -0.0123521 0.9985 0.0111385
-0.0544005 -0.0096094 0.998473 0.0147617
-0.0559417 -0.00599136 0.998416 0.0145172
-0.0572529 -0.00283379 0.998356 0.0136441
-0.0577441 -0.000466522 0.998331 0.0130331
-0.0585463 0.00030651 0.998285 0.0147932
-0.058596 0.00241074 0.998279 0.0126351
-0.0579945 0.00648402 0.998296 0.00996936
-0.0564746 -0.0163216 0.998271 0.0142807
-0.0583489 -0.0169229 0.998153 0.0135458
-0.0589926 -0.0170052 0.998114 0.0144392
-0.058126 -0.016774 0.998168 0.012181
-0.0571382 -0.0155435 0.998245 0.00966845
-0.0568554 -0.0158461 0.998257 0.0115412
-0.0576972 -0.0165485 0.998197 0.0136794
-0.0561831 -0.0144552 0.998316 0.00882448
-0.0564859 -0.0144741 0.998298 0.00870094
-0.0563993 -0.0133142 0.99832 0.00449968
-0.0557996 -0.0122715 0.998367 0.00373824
-0.0548705 -0.0119891 0.998421 0.00371474
-0.0560091 -0.0117731 0.998361 0.00955288
-0.0567537 -0.0117408 0.998319 0.0113557
-0.0556687 -0.0115122 0.998383 0.0102179
-0.0560194 -0.0121654 0.998356 0.0124464
-0.0568373 -0.0119493 0.998312 0.0121832
-0.0571598 -0.0117787 0.998296 0.0145115
-0.0559224 -0.0114381 0.99837 0.0112382
-0.0552067 -0.0115589 0.998408 0.0095308
-0.0552523 -0.0113323 0.998408 0.0107266
-0.0561943 -0.0112029 0.998357 0.0147738
-0.0568659 -0.0108962 0.998322 0.0146231
-0.0576096 -0.0107238 0.998282 0.0166037
-0.0565857 -0.00960989 0.998352 0.0155184
-0.0563391 -0.00995214 0.998362 0.0163548
-0.055289 -0.00895213 0.99843 0.0131641
-0.0571159 -0.00951046 0.998322 0.0161498
-0.0563813 -0.00903382 0.998368 0.0159529
-0.0566709 -0.0093151 0.998349 0.0161055
-0.0565917 -0.00933199 0.998354 0.0163398
-0.0569606 -0.00875416 0.998338 0.0177444
-0.0572029 -0.00848399 0.998327 0.0200627
-0.0571325 -0.00865892 0.998329 0.0180109
-0.0558157 -0.00775977 0.998411 0.0137581
-0.0576158 -0.00751105 0.998311 0.0169848
-0.0564172 -0.00656134 0.998386 0.0145828
-0.0564378 -0.0061371 0.998387 0.011598
-0.0564623 -0.00536012 0.99839 0.0106395
-0.0553224 -0.00517125 0.998455 0.00896133
-0.0551069 -0.00465424 0.99847 0.00606646
-0.0554404 -0.00504418 0.998449 0.00586221
-0.0560009 -0.00409873 0.998422 0.00575858
-0.0548177 -0.00364112 0.99849 0.00739545
-0.0522409 -0.00293755 0.99863 0.00529826
-0.0530832 -0.0033891 0.998584 0.00489979
-0.054538 -0.00330641 0.998506 0.0063871
-0.0546162 -0.00287087 0.998503 0.00700656
-0.0539022 -0.0017502 0.998545 0.00533548
-0.0537935 -0.00136954 0.998551 0.00532026
-0.0531802 -0.000160266 0.998585 0.0019954
-0.0527285 4.86148e-05 0.998609 0.00151991
-0.0535126 0.00136087 0.998566 0.00228093
-0.0525332 0.00236696 0.998616 0.00257337
-0.0547547 0.00219292 0.998497 0.00434103
-0.0529572 0.00285326 0.998593 0.00351604
-0.0513273 0.00344299 0.998676 0.0022242
-0.0509632 0.00403214 0.998692 0.00164269
-0.0510092 0.00426439 0.998689 0.00405544
-0.0519828 0.00473257 0.998637 0.00256675
-0.05218 0.00472553 0.998627 0.00127039
-0.0522996 0.00552713 0.998616 0.000116473
-0.0507484 0.00691219 0.998688 0
-0.0518166 0.00750206 0.998628 7.01469e-05
-0.05355 0.00917019 0.998523 0.00341251
-0.0521599 0.0105715 0.998583 0
-0.0511269 0.0125206 0.998614 0
-0.0519132 0.013146 0.998565 0
-0.0494644 0.0145392 0.99867 0
-0.0486243 0.0161857 0.998686 0
-0.0480638 0.0177355 0.998687 0
-0.0507574 0.017371 0.99856 0
-0.0523492 0.0175685 0.998474 0
-0.0500328 0.0179876 0.998586 0
-0.0504075 0.0178597 0.998569 0
-0.0516842 0.0176346 0.998508 0.00206586
-0.0487113 0.0172598 0.998664 0.00087858
-0.0481424 0.0175925 0.998686 0.00112756
-0.0471935 0.0174934 0.998733 0.00182471
-0.0475141 0.0173901 0.998719 0.00426138
-0.047565 0.0174158 0.998716 0.00110654
-0.0474685 0.0169733 0.998729 0
-0.049778 0.0169134 0.998617 0.00261179
-0.0513252 0.017316 0.998532 0.00327456
-0.0490665 0.0166978 0.998656 0.00178811
-0.0500768 0.0168094 0.998604 0.00449522
-0.049342 0.0174058 0.99863 0.00519033
-0.0503782 0.0177515 0.998572 0.00545572
-0.0493618 0.0182509 0.998614 0.00451914
-0.0514355 0.0187076 0.998501 0.00736063
-0.0508495 0.0198659 0.998509 0.00568356
-0.0500815 0.0205146 0.998534 0.00224729
-0.0508459 0.0215582 0.998474 0.00384965
-0.0516725 0.0228469 0.998403 0.00484367
-0.0531534 0.0239896 0.998298 0.0103117
-0.0521909 0.0253004 0.998317 0.0112005
-0.0515479 0.0264381 0.998321 0.0100746
-0.0502804 0.027934 0.998344 0.00432733
-0.0486693 0.0290582 0.998392 0.0013215
-0.048143 0.0306842 0.998369 0
-0.0488911 0.0323472 0.99828 0
-0.0474749 0.0343877 0.99828 0
-0.0476991 0.0358257 0.998219 0
-0.0476951 0.0376351 0.998153 0
-0.0489292 0.0394801 0.998022 0.00223251
-0.0496154 0.0406508 0.997941 0.00161285
-0.0479934 0.0420518 0.997962 0
-0.0478022 0.043557 0.997907 0.00243394
-0.0480977 0.0444027 0.997855 0
-0.0484972 0.0456559 0.997779 0
-0.0468416 0.0475855 0.997768 0
-0.0483668 0.0492059 0.997617 0
-0.0478756 0.0504343 0.997579 0
-0.0485126 0.0514897 0.997494 0
-0.0488933 0.0527747 0.997409 0.000446238
-0.0479483 0.0544611 0.997364 0
-0.0480434 0.0549793 0.997331 0
-0.0483596 0.0564263 0.997235 0
-0.0492693 0.0574072 0.997134 0.00105905
-0.0484177 0.0593331 0.997063 0
-0.0490157 0.0598706 0.997002 0.00129075
-0.0503411 0.0608773 0.996875 0
-0.050489 0.0616217 0.996822 0
-0.0511314 0.062839 0.996713 0.00316261
-0.053359 0.0629743 0.996588 0.00754536
-0.0557122 0.0653479 0.996306 0.0144504
-0.0559041 0.065759 0.996268 0.0109781
-0.0560203 0.0675029 0.996145 0.0134095
-0.0570221 0.0697614 0.995933 0.0148361
-0.0564672 0.072566 0.995764 0.0159444
-0.0581172 0.0744428 0.99553 0.0147421
-0.0574429 0.0767911 0.995391 0.0157693
-0.0577691 0.0782335 0.99526 0.0125944
-0.0596381 0.0809736 0.99493 0.0141791
-0.0482478 -0.127007 0.990728 0.0271319
-0.046544 -0.122538 0.991372 0.0260967
-0.0446582 -0.116333 0.992206 0.0243076
-0.0458626 -0.113212 0.992512 0.0251317
-0.0448865 -0.109763 0.992944 0.0242047
-0.0440411 -0.105145 0.993481 0.0219354
-0.0411929 -0.100632 0.994071 0.0177024
-0.0431745 -0.100076 0.994043 0.0216298
-0.0431513 -0.0975341 0.994296 0.0206619
-0.0448566 -0.0972549 0.994248 0.0223481
-0.0442519 -0.0935574 0.99463 0.0206677
-0.0443129 -0.0881964 0.995117 0.0186468
-0.0437741 -0.0879592 0.995162 0.0184843
-0.0431124 -0.0856215 0.995394 0.0179374
-0.0428531 -0.0824418 0.995674 0.0152913
-0.0427593 -0.0818866 0.995724 0.0163049
-0.0419066 -0.0808098 0.995848 0.0162288
-0.0422722 -0.0776015 0.996088 0.0137319
-0.042328 -0.0748198 0.996298 0.0119585
-0.0427446 -0.0735228 0.996377 0.0136003
-0.0444233 -0.0730852 0.996336 0.0173653
-0.0448768 -0.0710757 0.996461 0.0153171
-0.0440423 -0.0692578 0.996626 0.0130807
-0.0447627 -0.0689616 0.996615 0.0149095
-0.0442722 -0.0657317 0.996855 0.0129409
-0.0434066 -0.0631509 0.99706 0.0123197
-0.0435736 -0.0615331 0.997153 0.010079
-0.0432034 -0.0597933 0.997275 0.00976449
-0.0449543 -0.0614675 0.997096 0.0160197
-0.0448516 -0.0596519 0.997211 0.0128955
-0.0456794 -0.0594664 0.997185 0.0146173
-0.0462162 -0.0600653 0.997124 0.0175728
-0.0462923 -0.0600304 0.997123 0.0213181
-0.0468707 -0.059743 0.997113 0.0207322
-0.045871 -0.0579951 0.997262 0.0195727
-0.0448028 -0.0549486 0.997484 0.0144378
-0.0462873 -0.0536319 0.997487 0.0130847
-0.0458591 -0.0529315 0.997545 0.0138356
-0.0438626 -0.0501982 0.997776 0.00715589
-0.0432867 -0.0505819 0.997781 0.00674892
-0.0423962 -0.0500537 0.997846 0.00776799
-0.0424619 -0.0479097 0.997949 0.00686533
-0.0415018 -0.0452312 0.998114 0.0038649
-0.0421431 -0.0429983 0.998186 0.00505236
-0.0423582 -0.0398689 0.998307 0.00521172
-0.0436898 -0.0389907 0.998284 0.00572911
-0.0437597 -0.0375146 0.998337 0.00542608
-0.0433438 -0.0364129 0.998396 0.00539358
-0.0456657 -0.0357448 0.998317 0.00858513
-0.044984 -0.0316467 0.998486 0.0044797
-0.0453666 -0.0292138 0.998543 0.00623072
-0.0470319 -0.0270149 0.998528 0.00475293
-0.0493523 -0.0256597 0.998452 0.00656479
-0.0506934 -0.0223408 0.998464 0.00677653
-0.0514134 -0.0230812 0.998411 0.00688284
-0.0523233 -0.0194997 0.99844 0.00454922
-0.052866 -0.0161263 0.998471 0.00536297
-0.0537087 -0.0142249 0.998455 0.0053343
-0.0535091 -0.0118607 0.998497 0.00549771
-0.0544117 -0.0085136 0.998482 0.00331185
-0.0549088 -0.00420738 0.998483 0.00390893
-0.0556929 -4.00436e-05 0.998448 0.00336135
-0.0562288 0.00297579 0.998414 0.00255676
-0.0575528 0.00729537 0.998316 0.00354149
-0.0553239 -0.0149327 0.998357 0.0112194
-0.0563514 -0.0155232 0.99829 0.0116135
-0.055428 -0.0144577 0.998358 0.00725352
-0.0557976 -0.014496 0.998337 0.00852252
-0.0564634 -0.016414 0.99827 0.0120269
-0.0560176 -0.0161982 0.998298 0.00914034
-0.0553589 -0.0155391 0.998346 0.00698303
-0.0558207 -0.0154682 0.998321 0.00985118
-0.0542337 -0.0143728 0.998425 0.00470776
-0.0541011 -0.0148218 0.998425 0.00574381
-0.0567 -0.0160241 0.998263 0.0135402
-0.0564771 -0.0150018 0.998291 0.0131049
-0.0561884 -0.0144746 0.998315 0.0152975
-0.0558189 -0.0137109 0.998347 0.0146818
-0.0547087 -0.0142156 0.998401 0.0177707
-0.0543147 -0.0123298 0.998448 0.00842515
-0.0545466 -0.0131879 0.998424 0.0105617
-0.0541054 -0.0120517 0.998462 0.00755139
-0.055973 -0.0129025 0.998349 0.0146988
-0.0557774 -0.0134147 0.998353 0.0178318
-0.0561859 -0.0131297 0.998334 0.0186152
-0.0560145 -0.0128146 0.998348 0.0192563
-0.0586863 -0.0137863 0.998181 0.0234428
-0.0583541 -0.0123428 0.99822 0.0202796
-0.0569232 -0.0123445 0.998302 0.0174838
-0.0578757 -0.0120958 0.99825 0.0192307
-0.0563997 -0.0115046 0.998342 0.0159453
-0.0562825 -0.0112054 0.998352 0.014535
-0.0567846 -0.0113479 0.998322 0.0172336
-0.0563591 -0.0108521 0.998352 0.0152074
-0.0567713 -0.0110129 0.998326 0.0177709
-0.0569194 -0.00986733 0.99833 0.0167662
-0.0574731 -0.00876145 0.998309 0.0172294
-0.0576675 -0.00822422 0.998302 0.0168748
-0.0584492 -0.00778834 0.99826 0.0169203
-0.0582898 -0.00719289 0.998274 0.0146762
-0.058895 -0.00634017 0.998244 0.0136009
-0.0585179 -0.00579873 0.998269 0.0142228
-0.0587625 -0.00531691 0.998258 0.0144817
-0.0597798 -0.00443653 0.998202 0.0121545
-0.0583296 -0.00401873 0.998289 0.00771096
-0.059795 -0.00386129 0.998203 0.0107067
-0.0577266 -0.00318944 0.998327 0.00809944
-0.0601141 -0.003624 0.998185 0.0125227
-0.060128 -0.00411222 0.998182 0.0173611
-0.0585406 -0.00233497 0.998282 0.015411
-0.0562524 -0.00227938 0.998414 0.0102051
-0.056966 -0.00156097 0.998375 0.0111606
-0.0542056 -0.000949087 0.998529 0.00544864
-0.0536331 0.000154208 0.998561 0.00128498
-0.0533882 0.00077854 0.998574 0.00275295
-0.0549082 0.000955563 0.998491 0.003026
-0.0546238 0.00152396 0.998506 0.00118017
-0.0525839 0.00176221 0.998615 0
-0.0555668 0.00215489 0.998453 0.00421216
-0.0537111 0.00229356 0.998554 0.00438015
-0.0532968 0.00296231 0.998574 0.0053756
-0.0532802 0.00368343 0.998573 0.00416348
-0.0533628 0.00444367 0.998565 0.000272357
-0.0531729 0.00458254 0.998575 0.00401545
-0.0520002 0.00537488 0.998633 0.00159459
-0.0539664 0.00542423 0.998528 0.00138714
-0.0531783 0.00685655 0.998562 0
-0.0511574 0.00773729 0.998661 0
-0.0500197 0.0098687 0.998699 0
-0.0489345 0.0109392 0.998742 0
-0.048139 0.0128006 0.998759 0
-0.0500469 0.0136804 0.998653 0
-0.0499613 0.0155448 0.99863 0
-0.0544187 0.0168285 0.998376 0
-0.0534175 0.0180131 0.99841 0
-0.0494772 0.0184733 0.998604 0
-0.0507527 0.0187541 0.998535 0
-0.0511759 0.0192217 0.998505 0
-0.0512822 0.0195032 0.998494 0
-0.0535356 0.0191891 0.998381 0.000466177
-0.0524975 0.0187976 0.998444 0
-0.0538228 0.0181237 0.998386 0
-0.05246 0.0182646 0.998456 0
-0.0515262 0.0182258 0.998505 0.000796824
-0.0519902 0.0183589 0.998479 0.00115198
-0.0526165 0.0184639 0.998444 0.00257204
-0.0514648 0.0177849 0.998516 0
-0.0506033 0.0174354 0.998567 0.00189586
-0.0500687 0.0174219 0.998594 0
-0.0513933 0.0177333 0.998521 0.000557408
-0.0507782 0.0181617 0.998545 0
-0.0505825 0.0181658 0.998555 8.04893e-05
-0.0502197 0.0183972 0.998569 0.00177535
-0.0490517 0.0193578 0.998609 0
-0.050068 0.0200747 0.998544 0.000133231
-0.049178 0.0210032 0.998569 0
-0.0508515 0.0216432 0.998472 0.00327127
-0.0511298 0.0224066 0.998441 0.00495557
-0.0512607 0.0236082 0.998406 0.00645774
-0.0494509 0.0245499 0.998475 0.00396244
-0.0498487 0.0256422 0.998428 0.00646012
-0.0503711 0.0270501 0.998364 0.00546529
-0.051062 0.0288372 0.998279 0.00435607
-0.0502122 0.0305996 0.99827 0.00455938
-0.0487266 0.0321556 0.998294 0.000551918
-0.0499577 0.0336841 0.998183 0.00056145
-0.0496953 0.0353397 0.998139 0.0024751
-0.0493282 0.037163 0.998091 0.000398617
-0.0489544 0.0388603 0.998045 0
-0.0483848 0.0407436 0.997997 0
-0.0481435 0.0421117 0.997952 0
-0.0490253 0.0434687 0.997851 0
-0.0508367 0.0443246 0.997723 0.00110478
-0.0492171 0.0458944 0.997733 0
-0.0496752 0.0477499 0.997623 0
-0.050227 0.0494198 0.997514 0.000311277
-0.0491936 0.0514052 0.997466 0
-0.0498493 0.0524874 0.997377 0
-0.0502484 0.0535217 0.997302 0.00165941
-0.0507446 0.0548805 0.997203 0
-0.050564 0.0558984 0.997155 0.00288099
-0.0515113 0.0571031 0.997039 0.00514619
-0.0518031 0.0578649 0.996979 0.00560109
-0.0521894 0.0592837 0.996876 0.00628411
-0.0540098 0.0617088 0.996632 0.0139805
-0.0535612 0.0630773 0.99657 0.0138652
-0.0555237 0.0642594 0.996387 0.0192106
-0.0548772 0.0638211 0.996451 0.016452
-0.0545375 0.0637706 0.996473 0.0122861
-0.0549415 0.0647613 0.996387 0.0146058
-0.0564056 0.0648192 0.996302 0.0148921
-0.0556582 0.0660767 0.996261 0.0131843
-0.0574409 0.0676493 0.996054 0.014328
-0.0567835 0.070385 0.995902 0.0148313
-0.0577419 0.0726847 0.995682 0.0150951
-0.0588485 0.0752193 0.995429 0.0163669
-0.0597134 0.0771495 0.99523 0.0155144
-0.0608998 0.0784031 0.99506 0.0132257
-0.0610615 0.0810915 0.994834 0.0122115
-0.0436982 -0.119989 0.991813 0.0209529
-0.0445259 -0.115461 0.992314 0.0228273
-0.045034 -0.111735 0.992717 0.0248074
-0.0436108 -0.106211 0.993387 0.0214758
-0.043524 -0.103296 0.993698 0.0220798
-0.0433969 -0.100462 0.993994 0.0213187
-0.0437818 -0.0993607 0.994088 0.0241206
-0.0423618 -0.0953362 0.994543 0.0206148
-0.042813 -0.0931772 0.994729 0.0188116
-0.0425654 -0.0910554 0.994936 0.0168052
-0.0427399 -0.0908083 0.994951 0.0187726
-0.0437731 -0.088343 0.995128 0.0166155
-0.0453863 -0.0882035 0.995068 0.0178496
-0.0448338 -0.0869273 0.995205 0.0157224
-0.0437253 -0.0857905 0.995353 0.0134097
-0.0440953 -0.0848875 0.995414 0.0134188
-0.0423554 -0.0835326 0.995604 0.0131551
-0.0433323 -0.0815496 0.995727 0.0127968
-0.0427858 -0.0805774 0.99583 0.0128516
-0.0435562 -0.0774624 0.996043 0.0103058
-0.0435777 -0.0766693 0.996104 0.0106314
-0.0432713 -0.0762926 0.996146 0.0122305
-0.0439784 -0.0761749 0.996124 0.0138515
-0.0421842 -0.0740602 0.996361 0.0134675
-0.043131 -0.0735939 0.996355 0.0149937
-0.0431524 -0.0733157 0.996375 0.0157841
-0.0425862 -0.0715714 0.996526 0.0161484
-0.0442431 -0.0716482 0.996448 0.0188146
-0.0436656 -0.0695381 0.996623 0.0174779
-0.0447601 -0.0694553 0.99658 0.0208138
-0.0446771 -0.0674758 0.99672 0.020497
-0.0452828 -0.0667089 0.996744 0.0215736
-0.0450982 -0.0647908 0.996879 0.0173036
-0.0442036 -0.0618152 0.997108 0.0135211
-0.0441992 -0.0611986 0.997146 0.0168961
-0.0461825 -0.0610683 0.997065 0.0173175
-0.0460906 -0.0596787 0.997153 0.018882
-0.0446083 -0.05656 0.997402 0.0162405
-0.0449829 -0.0550744 0.997468 0.0127978
-0.0445035 -0.0527828 0.997614 0.0121553
-0.0445581 -0.0515073 0.997678 0.0125116
-0.0442189 -0.0504305 0.997748 0.0112444
-0.0459707 -0.0484501 0.997767 0.00980709
-0.0460081 -0.0479674 0.997789 0.0102961
-0.0455234 -0.0471032 0.997852 0.00899461
-0.0454498 -0.0455242 0.997929 0.00533647
-0.0455186 -0.0455455 0.997925 0.00850649
-0.0452125 -0.0444152 0.99799 0.00651954
-0.0449477 -0.0411176 0.998143 0.00163375
-0.045237 -0.0389392 0.998217 0.00134662
-0.0459746 -0.0393482 0.998167 0.00343297
-0.0475576 -0.0397885 0.998076 0.00573473
-0.04971 -0.0380202 0.99804 0.00519528
-0.0494204 -0.036383 0.998115 0.00465313
-0.0515461 -0.0341651 0.998086 0.00605515
-0.0524224 -0.0319489 0.998114 0.00726867
-0.0546979 -0.0276888 0.998119 0.0063259
-0.0554994 -0.0253078 0.998138 0.00317399
-0.0573809 -0.021554 0.99812 0.00345262
-0.0581715 -0.0181054 0.998142 0.00166789
-0.0579079 -0.0144386 0.998217 0.00382192
-0.0581028 -0.0100972 0.998259 0.00199145
-0.0584964 -0.00466343 0.998277 0
-0.0592027 -0.00045928 0.998246 0
-0.060659 0.00533995 0.998144 0
-0.0542446 -0.0114799 0.998462 0.013715
-0.0548549 -0.0121665 0.99842 0.0125539
-0.0560935 -0.0122496 0.99835 0.0115721
-0.0549064 -0.0117449 0.998422 0.0102224
-0.0540729 -0.0119066 0.998466 0.00857163
-0.0541736 -0.01166 0.998463 0.0145997
-0.053105 -0.0104725 0.998534 0.00396421
-0.0531511 -0.0104059 0.998532 0.00582757
-0.0518245 -0.00940126 0.998612 0
-0.0542077 -0.0109875 0.998469 0.0054379
-0.0523523 -0.0110188 0.998568 0.000519103
-0.0519562 -0.0104648 0.998595 0.00279323
-0.0515564 -0.0106902 0.998613 0.00672746
-0.0512826 -0.00991337 0.998635 0.00326361
-0.0531604 -0.0105623 0.99853 0.0101022
-0.0522238 -0.0102742 0.998583 0.00821151
-0.0519785 -0.00991957 0.998599 0.00804531
-0.0523103 -0.0100735 0.99858 0.0119873
-0.0537399 -0.0102104 0.998503 0.0142385
-0.0545439 -0.00989482 0.998462 0.0184158
-0.0543966 -0.008987 0.998479 0.0181134
-0.0542724 -0.00798763 0.998494 0.0170108
-0.0534427 -0.0069101 0.998547 0.0120169
-0.0549421 -0.00703737 0.998465 0.01242
-0.054792 -0.00675846 0.998475 0.0124786
-0.0525522 -0.00597777 0.9986 0.00605927
-0.0541235 -0.00669983 0.998512 0.00787447
-0.0533514 -0.00583346 0.998559 0.00299402
-0.05438 -0.00648727 0.998499 0.00740742
-0.0566028 -0.00702617 0.998372 0.0119464
-0.0557147 -0.00698551 0.998422 0.0122543
-0.0563531 -0.00697134 0.998387 0.0158859
-0.0568656 -0.00662722 0.99836 0.014821
-0.0563427 -0.00597169 0.998394 0.0128758
-0.0559572 -0.00565911 0.998417 0.0120235
-0.0559428 -0.00421532 0.998425 0.0105862
-0.0551209 -0.00449533 0.99847 0.00879479
-0.0551028 -0.00363407 0.998474 0.00697312
-0.0567441 -0.00391983 0.998381 0.0129004
-0.0556111 -0.00340555 0.998447 0.0114051
-0.0536098 -0.00289796 0.998558 0.00676376
-0.0548126 -0.00213695 0.998494 0.00843508
-0.051725 -0.00126092 0.998661 0
-0.0525738 -0.00169402 0.998616 0.00147816
-0.0527847 -0.00144386 0.998605 0.0062787
-0.0531188 -0.00130467 0.998587 0.00715673
-0.0544545 -0.00146972 0.998515 0.01188
-0.0548895 -0.000245532 0.998492 0.0113713
-0.0549372 0.000132282 0.99849 0.00817075
-0.05479 0.000605438 0.998498 0.00689462
-0.0550224 0.000707212 0.998485 0.00955277
-0.0522808 0.00160538 0.998631 0.00532743
-0.0497739 0.00226673 0.998758 0.00388508
-0.0531914 0.00220878 0.998582 0.00457921
-0.0524008 0.00321301 0.998621 0.00215024
-0.0534236 0.00381642 0.998565 0
-0.0518502 0.00435531 0.998645 0.00117701
-0.0496457 0.00491315 0.998755 0
-0.0487853 0.00570001 0.998793 0
-0.0483706 0.00590254 0.998812 0
-0.0510052 0.0070817 0.998673 0
-0.0502251 0.00916036 0.998696 0
-0.0512275 0.0107489 0.998629 0
-0.0511517 0.0126826 0.99861 0
-0.0531363 0.0139216 0.99849 0
-0.0514048 0.015384 0.998559 0
-0.0502689 0.0161736 0.998605 0
-0.0497681 0.0177007 0.998604 0
-0.0528729 0.0183639 0.998432 0
-0.0579008 0.0198896 0.998124 0
-0.0561561 0.02074 0.998207 0
-0.0540177 0.0212639 0.998313 0
-0.0537032 0.0210314 0.998335 0
-0.0542281 0.0215985 0.998295 0
-0.0555074 0.0214587 0.998228 0
-0.0521652 0.0206555 0.998425 0
-0.0510696 0.0201605 0.998492 0
-0.0514653 0.0195801 0.998483 0
-0.0532396 0.0194107 0.998393 0
-0.055282 0.0190731 0.998289 0
-0.0570409 0.0187067 0.998197 0
-0.0556147 0.0186202 0.998279 0
-0.0542299 0.0184681 0.998358 0
-0.0530909 0.0182057 0.998424 0
-0.0521951 0.0181947 0.998471 0
-0.0536001 0.0183084 0.998395 0
-0.0542316 0.0185321 0.998356 0
-0.0534925 0.0184115 0.998398 0
-0.0542269 0.0188798 0.99835 0.00226945
-0.0538794 0.0193896 0.998359 0.00230004
-0.0541877 0.0203442 0.998324 0.00408454
-0.0549519 0.0209563 0.998269 0.00565327
-0.0536505 0.0219898 0.998318 0.00295833
-0.0544663 0.0225319 0.998261 0.0077093
-0.0526419 0.0233951 0.998339 0.00207935
-0.0526952 0.0244658 0.998311 0.00372037
-0.0536741 0.0255276 0.998232 0.0052376
-0.0557691 0.0274551 0.998066 0.0110284
-0.0550277 0.028924 0.998066 0.010088
-0.054602 0.0307161 0.998036 0.0107155
-0.0543724 0.032438 0.997994 0.00978944
-0.0554476 0.0336801 0.997893 0.0118041
-0.0557889 0.0353021 0.997818 0.0119598
-0.0559548 0.037361 0.997734 0.0078315
-0.0555359 0.0397227 0.997666 0.00736
-0.0537678 0.0410559 0.997709 0.00621659
-0.0545029 0.0431713 0.99758 0.00692366
-0.0560054 0.0447517 0.997427 0.00742386
-0.0579853 0.047003 0.99721 0.0123893
-0.0574741 0.0485242 0.997167 0.0148102
-0.0568393 0.0501419 0.997123 0.0152214
-0.0574198 0.0518487 0.997003 0.0134873
-0.0569081 0.0531719 0.996962 0.0124535
-0.0574264 0.055367 0.996813 0.0163151
-0.058355 0.0568631 0.996675 0.0191327
-0.0583688 0.0577227 0.996625 0.0163544
-0.0584392 0.0591275 0.996538 0.0158827
-0.0591137 0.0601172 0.996439 0.0164769
-0.0595222 0.0608856 0.996368 0.0142648
-0.0588247 0.0613666 0.99638 0.0125264
-0.0563153 0.0601909 0.996597 0.00661261
-0.0557573 0.0603468 0.996619 0.00506142
-0.0587696 0.062637 0.996305 0.0131908
-0.0596345 0.0636673 0.996188 0.0161984
-0.0594003 0.063136 0.996236 0.014547
-0.0573122 0.0630341 0.996364 0.0132515
-0.0591158 0.0649739 0.996134 0.0132149
-0.0588394 0.0668044 0.99603 0.0122186
-0.036419 -0.11386 0.992829 0.0205963
-0.0350398 -0.10666 0.993678 0.0170275
-0.0362818 -0.104848 0.993826 0.0196188
-0.0354514 -0.100672 0.994288 0.0182734
-0.0364454 -0.0991757 0.994402 0.0180359
-0.0387607 -0.0979742 0.994434 0.0174906
-0.0408887 -0.0970583 0.994438 0.018368
-0.0426299 -0.0964355 0.994426 0.0189536
-0.0428602 -0.095619 0.994495 0.0195174
-0.0447943 -0.0953913 0.994431 0.0216573
-0.0458885 -0.0941963 0.994496 0.0195996
-0.0471857 -0.0931523 0.994533 0.0185427
-0.0479573 -0.0925945 0.994548 0.0190526
-0.0477653 -0.0912972 0.994677 0.0184415
-0.047909 -0.0909272 0.994704 0.0185961
-0.0477595 -0.0912023 0.994686 0.020371
-0.0492828 -0.089261 0.994788 0.0187775
-0.0498006 -0.0883954 0.99484 0.0182917
-0.0507411 -0.0861536 0.994989 0.0172383
-0.0516697 -0.0851031 0.995032 0.0212301
-0.0510505 -0.0839798 0.995159 0.0221785
-0.0507999 -0.0838756 0.99518 0.0229614
-0.0507784 -0.0824855 0.995298 0.0230349
-0.0514462 -0.0822672 0.995282 0.0226378
-0.0513348 -0.0825246 0.995266 0.0266894
-0.0510358 -0.0809343 0.995412 0.0260187
-0.0496783 -0.0750883 0.995939 0.0201071
-0.0510537 -0.0753279 0.995851 0.0215063
-0.051896 -0.0759135 0.995763 0.025788
-0.0515589 -0.0737226 0.995945 0.022694
-0.0526114 -0.0713526 0.996063 0.0214112
-0.0516045 -0.0694887 0.996247 0.0199408
-0.0532513 -0.0677491 0.99628 0.0200214
-0.0536535 -0.0673727 0.996284 0.0213554
-0.0541415 -0.0659872 0.996351 0.0213661
-0.0549018 -0.0643218 0.996418 0.0207517
