-0.184842 -0.0160597 0.982637 0
-0.186681 -0.0159704 0.982291 0
-0.18791 -0.0158512 0.982058 0
-0.194624 -0.0154901 0.980756 0.00156445
-0.201614 -0.0151002 0.979349 0.00524762
-0.209696 -0.0143923 0.977661 0.0068701
-0.208392 -0.0143753 0.97794 0.00694874
-0.204249 -0.0146998 0.978809 0.0048946
-0.207402 -0.0143407 0.978151 0.00192657
-0.220731 -0.0135838 0.97524 0.00987241
-0.209488 -0.0140074 0.977711 0.00453626
-0.213547 -0.0137184 0.976836 0.00883145
-0.212807 -0.0136543 0.976999 0.00790482
-0.222077 -0.0129547 0.974943 0.0131466
-0.234026 -0.0120326 0.972156 0.0158659
-0.242171 -0.0117511 0.970162 0.022555
-0.242217 -0.0120593 0.970147 0.0226853
-0.232853 -0.0124016 0.972433 0.0192927
-0.233744 -0.0121023 0.972223 0.0182701
-0.232559 -0.0121357 0.972507 0.0179914
-0.21938 -0.0127433 0.975556 0.0132573
-0.215926 -0.0128688 0.976325 0.0122456
-0.208445 -0.013108 0.977946 0.00582669
-0.207728 -0.0129872 0.978101 0.00447049
-0.208833 -0.0126908 0.977869 0.00106964
-0.206416 -0.0127116 0.978382 0
-0.207637 -0.0126141 0.978125 0.00395127
-0.205781 -0.0125684 0.978517 0
-0.208993 -0.0123576 0.977839 0.00387688
-0.197506 -0.0129152 0.980217 0
-0.200497 -0.0126145 0.979613 0
-0.196156 -0.0128007 0.980489 0
-0.193585 -0.012822 0.981 0
-0.198205 -0.0123777 0.980082 0
-0.200566 -0.0120304 0.979606 0
-0.20087 -0.0118881 0.979546 0
-0.196061 -0.0118864 0.98052 0
-0.207616 -0.0109273 0.978149 0.00297765
-0.208383 -0.010611 0.97799 0
-0.205406 -0.0105743 0.97862 0
-0.207423 -0.0102327 0.978198 0.0008798
-0.207076 -0.0101442 0.978272 0.00460495
-0.212934 -0.00942455 0.977021 0.0051117
-0.208667 -0.0093737 0.977942 0.0059741
-0.214611 -0.00876434 0.97666 0.00718476
-0.216325 -0.00839913 0.976285 0.0104587
-0.21521 -0.00810832 0.976534 0.00726978
-0.207476 -0.00816886 0.978206 0.00370268
-0.203407 -0.00804315 0.979061 0.000517006
-0.194676 -0.00818539 0.980833 0
-0.191579 -0.00799113 0.981445 0
-0.195518 -0.00748999 0.980672 0
-0.202936 -0.00689079 0.979168 0.00349475
-0.213545 -0.00613236 0.976914 0.00647625
-0.206335 -0.00610291 0.978462 0.00561657
-0.198981 -0.00605143 0.979985 0.000485248
-0.195632 -0.0058732 0.98066 0
-0.203934 -0.00522897 0.978971 0.00312414
-0.212996 -0.00461017 0.977042 0.00612761
-0.202478 -0.00466084 0.979276 0.000618133
-0.20173 -0.00442557 0.979431 0.0037659
-0.201832 -0.00412797 0.979411 0.00610834
-0.206066 -0.00368921 0.978531 0.0038616
-0.207602 -0.00330579 0.978208 0.00274704
-0.200174 -0.00313851 0.979755 0.00619014
-0.194675 -0.00360404 0.980861 0.00325811
-0.211176 -0.00317733 0.977443 0.011297
-0.216546 -0.00303231 0.976268 0.0136718
-0.220591 -0.0029379 0.975362 0.0145603
-0.212005 -0.00321159 0.977263 0.0105251
-0.222205 -0.00297252 0.974995 0.0125066
-0.220611 -0.00308718 0.975357 0.0135044
-0.215604 -0.00332439 0.976475 0.00888786
-0.20896 -0.00359043 0.977918 0.00372902
-0.205026 -0.00373929 0.978749 0.00266458
-0.215079 -0.0035281 0.97659 0.0065306
-0.208417 -0.00395558 0.978032 0.00497944
-0.198687 -0.00429889 0.980054 0.00201721
-0.201218 -0.00436637 0.979537 0.00252796
-0.19693 -0.0046061 0.980407 0
-0.198109 -0.00468281 0.980169 0
-0.193377 -0.00475872 0.981113 0
-0.194141 -0.00480621 0.980962 0
-0.194535 -0.00475597 0.980884 0
-0.197681 -0.00463314 0.980255 0
-0.196087 -0.00493231 0.980574 0
-0.196611 -0.00511748 0.980468 0.00147862
-0.210016 -0.00497249 0.977685 0.00558777
-0.22496 -0.0047111 0.974357 0.0118546
-0.234008 -0.00459707 0.972224 0.0154521
-0.222432 -0.00520835 0.974934 0.0130094
-0.212708 -0.00570039 0.977099 0.00920201
-0.212708 -0.0057808 0.977099 0.007703
-0.213142 -0.00583654 0.977004 0.00603603
-0.212133 -0.00600721 0.977222 0.00444448
-0.208066 -0.0063087 0.978094 0.00257023
-0.208457 -0.00629277 0.978011 0.00433192
-0.202789 -0.00675171 0.979199 0
-0.200602 -0.00698597 0.979648 0
-0.195372 -0.00723753 0.980703 0
-0.200228 -0.00668998 0.979727 0
-0.203326 -0.00624039 0.979091 0
-0.202978 -0.00639065 0.979162 0
-0.202819 -0.00621168 0.979197 0
-0.212547 -0.00482177 0.977139 0.0086537
-0.208017 -0.00508952 0.978112 0.0035231
-0.214631 -0.0040461 0.976687 0.0106668
-0.21848 -0.0033152 0.975836 0.0120525
-0.222245 -0.0025262 0.974988 0.0124592
-0.226094 -0.00173867 0.974104 0.0168115
-0.226274 -0.00153521 0.974062 0.0161111
-0.231214 -0.000467844 0.972903 0.0188799
-0.231201 -0.000198617 0.972906 0.0192313
-0.229933 -0.000219188 0.973207 0.0195906
-0.229193 -0.000278567 0.973381 0.0227671
-0.228824 -0.000197614 0.973468 0.022876
-0.227244 -0.000369506 0.973838 0.023004
-0.227167 -0.000312228 0.973856 0.0229201
-0.224375 -0.000542436 0.974503 0.0221242
-0.22321 -0.000743348 0.97477 0.0199097
-0.227498 4.76282e-05 0.973778 0.0235852
-0.225847 -0.000204719 0.974163 0.0248428
-0.224271 -0.000383579 0.974527 0.0249119
-0.219989 -0.00111675 0.975502 0.0217912
-0.218842 -0.00127307 0.97576 0.0207434
-0.218555 -0.00141759 0.975824 0.0193093
-0.215102 -0.0019316 0.97659 0.0159868
-0.212756 -0.0025585 0.977102 0.013644
-0.212633 -0.00256593 0.977129 0.0171788
-0.210974 -0.00252172 0.977488 0.0173407
-0.207907 -0.00308387 0.978144 0.0161635
-0.204063 -0.00382012 0.97895 0.0121967
-0.20028 -0.00492771 0.979726 0.0104974
-0.203045 -0.00442787 0.979159 0.00924989
-0.204632 -0.00388724 0.978831 0.00720455
-0.203126 -0.00412886 0.979144 0.00693113
-0.204216 -0.00429678 0.978917 0.00818386
-0.210917 -0.00297352 0.977499 0.0102079
-0.209238 -0.00293153 0.97786 0.00711704
-0.207706 -0.00321128 0.978186 0.00372768
-0.21189 -0.00236474 0.977291 0.00688164
-0.205892 -0.00358029 0.978568 0
-0.207016 -0.003462 0.978331 0.00201418
-0.208382 -0.002674 0.978044 0.00195738
-0.207391 -0.00327894 0.978253 0.00201178
-0.209545 -0.00221914 0.977797 0.0015049
-0.211454 -0.00214263 0.977386 0
-0.210284 -0.00231624 0.977638 0
-0.216038 -0.000686261 0.976385 0.000980566
-0.21391 -0.00120758 0.976853 0.00181008
-0.212735 -0.00152097 0.977109 0.000391556
-0.219941 0.000264887 0.975513 0.00605883
-0.219024 0.000145951 0.97572 0.00510609
-0.215371 -0.000685621 0.976532 0.00103943
-0.16304 -0.0707528 0.984079 0.00634092
-0.15938 -0.0674289 0.984912 0.0045848
-0.161039 -0.0645074 0.984838 0.00534226
-0.16009 -0.0618936 0.98516 0.00453603
-0.159565 -0.0594139 0.985398 0.00378902
-0.163064 -0.0581251 0.984902 0.0077035
-0.161943 -0.0553714 0.985245 0.00544493
-0.161901 -0.0541546 0.98532 0.00675081
-0.159885 -0.0510238 0.985816 0.00554635
-0.160899 -0.0487887 0.985764 0.00635248
-0.161598 -0.0465943 0.985756 0.00604837
-0.160498 -0.0457881 0.985974 0.00702925
-0.157799 -0.0432758 0.986523 0.00184578
-0.159864 -0.0423522 0.98623 0.00290066
-0.158437 -0.0408113 0.986525 0.00287134
-0.155657 -0.0402066 0.986993 0.00158165
-0.159222 -0.0397101 0.986444 0.0044175
-0.158097 -0.0381287 0.986687 0.00297779
-0.16261 -0.0369106 0.986 0.00540124
-0.162477 -0.0363355 0.986043 0.00841524
-0.164729 -0.0359734 0.985683 0.0122271
-0.165871 -0.0353729 0.985513 0.0114287
-0.163337 -0.0327959 0.986025 0.0103182
-0.162745 -0.0313219 0.986171 0.00746559
-0.161117 -0.0295303 0.986493 0.00457764
-0.16121 -0.0297136 0.986473 0.00826569
-0.157195 -0.0291455 0.987137 0.00361702
-0.153931 -0.0283643 0.987674 0
-0.1541 -0.0275784 0.98767 0
-0.153646 -0.0267433 0.987764 0
-0.151215 -0.0254793 0.988172 0
-0.151009 -0.0247742 0.988222 0
-0.15286 -0.0242625 0.98795 0
-0.159089 -0.0237895 0.986978 0
-0.157763 -0.0230746 0.987207 0
-0.155297 -0.0222079 0.987618 0
-0.15646 -0.0213821 0.987453 0
-0.153072 -0.0212899 0.987986 0
-0.158793 -0.0207833 0.987093 0.000342663
-0.166264 -0.0208802 0.98586 0.00532839
-0.165256 -0.0201114 0.986046 0.00114134
-0.16484 -0.0194587 0.986128 0
-0.165852 -0.0184863 0.985977 0
-0.17083 -0.0187123 0.985123 0.00344279
-0.168231 -0.0182703 0.985578 0.0039929
-0.170953 -0.0173918 0.985126 0.00729376
-0.16787 -0.0170025 0.985662 0.00724226
-0.167115 -0.017289 0.985786 0.0119674
-0.167204 -0.017054 0.985775 0.0106917
-0.16824 -0.0167636 0.985604 0.014369
-0.168131 -0.0165725 0.985625 0.0141375
-0.165825 -0.0160726 0.986024 0.0141862
-0.170387 -0.0155898 0.985254 0.0158984
-0.164317 -0.0148294 0.986296 0.0146223
-0.164979 -0.0143032 0.986193 0.0153181
-0.16041 -0.0135458 0.986958 0.0138377
-0.162443 -0.0118067 0.986647 0.0148095
-0.165796 -0.0111705 0.986097 0.0162905
-0.163563 -0.00978714 0.986484 0.0153325
-0.163415 -0.00797585 0.986525 0.0129361
-0.170681 -0.00561421 0.98531 0.0156725
-0.173182 -0.00390048 0.984882 0.0137721
-0.172985 -0.00252678 0.984921 0.0132447
-0.162721 -0.00151842 0.986671 0.00935859
-0.167599 -2.29588e-05 0.985855 0.0108793
-0.170452 0.00215387 0.985364 0.00813865
-0.167787 0.00293907 0.985819 0.00601732
-0.172271 0.00433831 0.98504 0.00835687
-0.164627 0.00465837 0.986345 0.00538675
-0.161256 0.00566728 0.986896 0.00136371
-0.161678 0.00623582 0.986824 0.00608335
-0.162077 0.00660901 0.986756 0.00338328
-0.158098 0.00686696 0.9874 0.00146951
-0.155825 0.00731035 0.987758 0.00148966
-0.156287 0.00789073 0.98768 0
-0.16408 0.00796609 0.986415 0.00293057
-0.161564 0.0079663 0.98683 0.00153362
-0.158468 0.00793738 0.987332 0
-0.157086 0.0078901 0.987553 0
-0.159402 0.00791134 0.987182 0
-0.169431 0.00799233 0.98551 0.00355967
-0.172486 0.0080577 0.984979 0.00370866
-0.169289 0.00750107 0.985538 0.00537582
-0.161469 0.00684336 0.986854 0.00365286
-0.159839 0.0065684 0.987121 0.00418381
-0.162427 0.0063641 0.9867 0.00216124
-0.162311 0.00634555 0.986719 0
-0.151018 0.00600412 0.988513 0
-0.148642 0.00542465 0.988876 0.00210668
-0.151014 0.0049781 0.988519 0.00146136
-0.15746 0.00495834 0.987513 0.00346964
-0.158671 0.00470883 0.98732 0.00372616
-0.163161 0.00413108 0.986591 0.00827739
-0.163219 0.00342115 0.986584 0.0112339
-0.163298 0.00294213 0.986572 0.0119895
-0.164321 0.00259281 0.986404 0.0090066
-0.162635 0.00254795 0.986683 0.00639919
-0.160328 0.00228088 0.987061 0.00313015
-0.157114 0.00154533 0.987579 0.000835298
-0.155757 0.000877318 0.987795 0.00154701
-0.158162 0.000341134 0.987413 0.000588379
-0.169053 -0.000474754 0.985607 0.0061668
-0.176131 -0.00119337 0.984366 0.0127814
-0.17615 -0.00189608 0.984362 0.0173113
-0.179778 -0.00240537 0.983704 0.0185658
-0.179418 -0.00282648 0.983769 0.0154989
-0.186763 -0.00336233 0.982399 0.0180487
-0.186151 -0.00406632 0.982513 0.0196128
-0.187526 -0.00476577 0.982248 0.0217008
-0.180369 -0.00541117 0.983584 0.0179812
-0.183797 -0.00596372 0.982946 0.0186027
-0.182439 -0.00637721 0.983196 0.0172548
-0.178269 -0.00665839 0.983959 0.016097
-0.179327 -0.00708258 0.983764 0.0191332
-0.173817 -0.00743445 0.98475 0.0177944
-0.181684 -0.00739616 0.983329 0.0209924
-0.183946 -0.00771096 0.982906 0.0203769
-0.183446 -0.00802094 0.982997 0.019979
-0.188808 -0.00852998 0.981977 0.0207041
-0.179129 -0.00814802 0.983792 0.0141432
-0.179605 -0.00828295 0.983704 0.0125103
-0.180181 -0.00893232 0.983593 0.0133339
-0.186659 -0.0089863 0.982384 0.0150119
-0.18813 -0.00924066 0.982101 0.0151135
-0.184254 -0.00965126 0.982831 0.0164754
-0.180198 -0.00965349 0.983583 0.0125673
-0.181916 -0.010116 0.983262 0.0127136
-0.185235 -0.0104114 0.982639 0.0150567
-0.176838 -0.0107644 0.984181 0.0119398
-0.170285 -0.0112398 0.985331 0.0114502
-0.170574 -0.0110001 0.985283 0.00831479
-0.164272 -0.0107907 0.986356 0.00644081
-0.16607 -0.0111043 0.986051 0.00422693
-0.166628 -0.011372 0.985954 0.00405438
-0.162392 -0.011194 0.986663 0
-0.160898 -0.0111776 0.986908 0
-0.15627 -0.0111071 0.987652 0
-0.160502 -0.0112915 0.986971 0
-0.164884 -0.0113313 0.986248 0
-0.160052 -0.0115833 0.987041 0
-0.161788 -0.0114079 0.98676 0
-0.161632 -0.0112316 0.986787 0
-0.163203 -0.0117145 0.986523 0
-0.16235 -0.0119329 0.986661 0
-0.157417 -0.0119929 0.987459 0
-0.163839 -0.0119184 0.986415 0
-0.162934 -0.0120015 0.986564 0
-0.161335 -0.0117484 0.98683 0
-0.158493 -0.0117007 0.987291 0
-0.160587 -0.0118734 0.98695 0
-0.164826 -0.0118234 0.986252 0
-0.173531 -0.0116343 0.98476 0
-0.183446 -0.0116418 0.982961 0.00383412
-0.186929 -0.0119593 0.982301 0.00913391
-0.184415 -0.0120637 0.982774 0.00949131
-0.192961 -0.0119152 0.981134 0.0114838
-0.195193 -0.011819 0.980694 0.0142414
-0.198473 -0.0117003 0.980037 0.0138411
-0.199093 -0.0114807 0.979913 0.0145458
-0.191807 -0.0117165 0.981363 0.0146041
-0.189012 -0.0116462 0.981906 0.0144281
-0.179807 -0.0117197 0.983632 0.0111093
-0.181772 -0.0117872 0.98327 0.0114031
-0.185643 -0.0116496 0.982548 0.0133124
-0.18296 -0.0117066 0.983051 0.0146431
-0.181774 -0.011106 0.983278 0.0142074
-0.181449 -0.0108426 0.983341 0.0115361
-0.193212 -0.0102438 0.981104 0.0134895
-0.195204 -0.0101908 0.98071 0.0174693
-0.198715 -0.00989727 0.980007 0.0234508
-0.193201 -0.00927977 0.981115 0.0196138
-0.194036 -0.00896343 0.980953 0.0204136
-0.192063 -0.00879009 0.981343 0.0160496
-0.188341 -0.00829372 0.982069 0.00953728
-0.181267 -0.00841231 0.983398 0.0107087
-0.183378 -0.00826059 0.983008 0.011652
-0.189335 -0.0080034 0.98188 0.0143501
-0.199236 -0.00789186 0.97992 0.0148585
-0.207292 -0.00750756 0.97825 0.0159157
-0.20926 -0.007389 0.977832 0.0197344
-0.203463 -0.00755676 0.979053 0.0182597
-0.198083 -0.00735248 0.980158 0.0143571
-0.194971 -0.00752516 0.98078 0.00971519
-0.198951 -0.00708039 0.979984 0.00813157
-0.192646 -0.00694355 0.981244 0.00763905
-0.18167 -0.00674667 0.983336 0.0038534
-0.181472 -0.00667872 0.983373 0.00452578
-0.184947 -0.00654401 0.982727 0.00435933
-0.190686 -0.00647238 0.98163 0.00661062
-0.189492 -0.00671043 0.981859 0.00857862
-0.187034 -0.00664959 0.982331 0.0101824
-0.186456 -0.00607365 0.982445 0.00665541
-0.181623 -0.00582831 0.983351 0.0025095
-0.189825 -0.00549523 0.981802 0.00657064
-0.188212 -0.00550559 0.982113 0.00904559
-0.192608 -0.00539153 0.981261 0.0115331
-0.199327 -0.00516167 0.979919 0.0155497
-0.203646 -0.0052164 0.979031 0.0192811
-0.208584 -0.00517059 0.977991 0.0192584
-0.20565 -0.00506326 0.978613 0.0193515
-0.202839 -0.00491751 0.9792 0.0180044
-0.20617 -0.00472761 0.978505 0.0185425
-0.204507 -0.00451476 0.978855 0.0174816
-0.196295 -0.00434989 0.980535 0.0103888
-0.194856 -0.00420317 0.980823 0.0123817
-0.192933 -0.00402893 0.981204 0.0116252
-0.194712 -0.00366103 0.980854 0.0116789
-0.194498 -0.0032368 0.980897 0.00754644
-0.196186 -0.00312136 0.980562 0.00538585
-0.198519 -0.00267184 0.980093 0.00379759
-0.193975 -0.00253046 0.981003 0.00381519
-0.187868 -0.00232798 0.982192 0
-0.191615 -0.00207017 0.981468 0
-0.192102 -0.00198072 0.981373 0
-0.198421 -0.00166499 0.980115 0
-0.195709 -0.00162003 0.980661 0
-0.198515 -0.0013646 0.980097 0
-0.195929 -0.00131493 0.980617 0
-0.198252 -0.000999024 0.98015 0
-0.197009 -0.000944106 0.980401 0
-0.198259 -0.000972307 0.980149 0
-0.199449 -0.00112831 0.979908 0
-0.20234 -0.00138722 0.979314 0
-0.201198 -0.00154109 0.97955 0
-0.201769 -0.00161103 0.979432 0.00119511
-0.209048 -0.00164134 0.977904 0.00415992
-0.199699 -0.00171472 0.979856 0
-0.205278 -0.00188131 0.978702 0.00448917
-0.213688 -0.00199331 0.9769 0.00791555
-0.212917 -0.00214442 0.977068 0.00950036
-0.213981 -0.00229235 0.976835 0.0101044
-0.224864 -0.00237527 0.974387 0.0180079
-0.230413 -0.00257972 0.97309 0.0212908
-0.226206 -0.00266747 0.974076 0.0165861
-0.22888 -0.00282742 0.97345 0.017229
-0.223673 -0.00311156 0.974659 0.0158095
-0.230726 -0.0032824 0.973013 0.0170354
-0.225088 -0.00353559 0.974332 0.0129683
-0.222151 -0.00359887 0.975006 0.0102096
-0.224481 -0.00370807 0.974471 0.0108794
-0.230193 -0.00392198 0.973137 0.0146565
-0.228378 -0.00428583 0.973563 0.0182047
-0.228737 -0.00432683 0.973479 0.0134781
-0.23598 -0.00425976 0.971749 0.0130418
-0.224028 -0.0046767 0.974571 0.00862499
-0.224754 -0.00476872 0.974404 0.00988665
-0.2241 -0.00491245 0.974554 0.00984868
-0.2201 -0.00547482 0.975462 0.00907744
-0.214347 -0.0058049 0.97674 0.00464372
-0.206415 -0.00618178 0.978445 0.000632753
-0.202441 -0.00660294 0.979272 0
-0.204351 -0.00693311 0.978873 0
-0.21168 -0.0071355 0.977313 0.00123232
-0.208957 -0.00753502 0.977896 0.00352568
-0.211547 -0.00776845 0.977337 0.00283662
-0.208682 -0.00836727 0.977948 0.00446638
-0.209998 -0.00860816 0.977664 0.00540666
-0.20691 -0.00906171 0.978318 0.00532534
-0.200961 -0.00937541 0.979554 0.00318091
-0.191345 -0.00998647 0.981472 0
-0.185723 -0.0105249 0.982546 0
-0.18843 -0.010666 0.982029 0
-0.192024 -0.0108995 0.98133 0.00260987
-0.189315 -0.0114649 0.98185 0.00383885
-0.188228 -0.0117082 0.982056 0.00271354
-0.185597 -0.0119167 0.982554 0
-0.18724 -0.0120681 0.98224 0
-0.189071 -0.012149 0.981888 0
-0.189161 -0.0123512 0.981868 0
-0.18636 -0.0126747 0.9824 0
-0.18553 -0.0129153 0.982554 0
-0.184039 -0.0131081 0.982832 0
-0.188032 -0.013001 0.982077 0
-0.184781 -0.0132945 0.98269 0
-0.181986 -0.0135512 0.983208 0
-0.181869 -0.0136719 0.983228 0
-0.178248 -0.0139328 0.983887 0
-0.177032 -0.0141189 0.984104 0
-0.176122 -0.0142589 0.984265 0
-0.173513 -0.0145568 0.984724 0
-0.173012 -0.0146927 0.98481 0
-0.168218 -0.0149454 0.985636 0
-0.175048 -0.0147178 0.98445 0
-0.179002 -0.0145295 0.983742 0
-0.176014 -0.0147423 0.984277 0
-0.180385 -0.0145233 0.983489 0
-0.184949 -0.0143617 0.982643 0
-0.191346 -0.0141252 0.981421 0
-0.18765 -0.0144568 0.98213 0
-0.187521 -0.0145595 0.982153 0
-0.18879 -0.0145492 0.98191 0
-0.187746 -0.0146156 0.982109 0
-0.18432 -0.0148446 0.982754 0
-0.176844 -0.0152666 0.984121 0
-0.178858 -0.0151791 0.983758 0
-0.184224 -0.0150936 0.982768 0
-0.176647 -0.0155415 0.984152 0
-0.181412 -0.0152682 0.983289 0
-0.175701 -0.0155787 0.98432 0
-0.182271 -0.0152374 0.98313 0
-0.183279 -0.0151714 0.982944 0
-0.185007 -0.0151141 0.982621 0.00160616
-0.190896 -0.0147663 0.981499 0.000339019
-0.199038 -0.0144088 0.979886 0.00821628
-0.197131 -0.0145619 0.980269 0.00952084
-0.186824 -0.0149464 0.98228 0.00364496
-0.192599 -0.0145422 0.98117 0.00655584
-0.19448 -0.0146674 0.980797 0.00432479
-0.196442 -0.0148011 0.980404 0.00424328
-0.202346 -0.0143155 0.979209 0.00871564
-0.199041 -0.0145376 0.979883 0.00840958
-0.195092 -0.014642 0.980676 0.00750711
-0.199438 -0.0142482 0.979807 0.00788318
-0.207617 -0.0136923 0.978114 0.0112105
-0.20392 -0.0137355 0.978891 0.00899763
-0.195806 -0.0140019 0.980543 0.00311653
-0.196139 -0.013754 0.98048 0.000819749
-0.190044 -0.013954 0.981676 0.000154221
-0.193033 -0.0136014 0.981098 1.2305e-05
-0.193921 -0.0133137 0.980927 0
-0.192686 -0.0133291 0.98117 0
-0.190388 -0.0132525 0.98162 0
-0.191513 -0.0131244 0.981402 0
-0.193503 -0.0129648 0.981014 0
-0.194786 -0.0127316 0.980763 0
-0.189823 -0.012916 0.981733 0
-0.185585 -0.013059 0.982542 0
-0.181377 -0.0133308 0.983323 0
-0.176282 -0.0133933 0.984249 0
-0.181347 -0.0128802 0.983335 0
-0.181367 -0.0126636 0.983334 0
-0.176078 -0.0127035 0.984294 0
-0.182821 -0.0121924 0.983071 0
-0.194925 -0.0114047 0.980752 0.0030695
-0.20598 -0.0106903 0.978498 0.00807985
-0.201603 -0.0106193 0.97941 0.00716819
-0.203876 -0.0103077 0.978942 0.00609374
-0.207209 -0.0100244 0.978245 0.00659012
-0.197602 -0.0101409 0.98023 0.00697493
-0.208481 -0.00937045 0.977982 0.0116101
-0.216942 -0.00874673 0.976145 0.0166894
-0.215146 -0.00857306 0.976544 0.0176382
-0.223215 -0.00788787 0.974737 0.0181284
-0.233026 -0.00714733 0.972444 0.0221665
-0.220067 -0.00753772 0.975455 0.0192712
-0.210335 -0.00745231 0.977601 0.012372
-0.199726 -0.00757935 0.979822 0.00876334
-0.19188 -0.00756014 0.981389 0.0055782
-0.200365 -0.00691246 0.979697 0.00706567
-0.197762 -0.00670982 0.980227 0.00728606
-0.191478 -0.00666827 0.981474 0.00781812
-0.189369 -0.00644352 0.981885 0.00491715
-0.182786 -0.00634648 0.983132 0.00173555
-0.176886 -0.00621299 0.984212 0
-0.177632 -0.00588096 0.984079 0
-0.185618 -0.00534481 0.982607 0
-0.186861 -0.00501257 0.982373 0
-0.196183 -0.00490956 0.980555 0.000787025
-0.19633 -0.00494671 0.980525 0
-0.196654 -0.00485613 0.980461 0.000450928
-0.192559 -0.00502257 0.981273 0
-0.194606 -0.0050573 0.980868 0
-0.192845 -0.00522477 0.981215 0.00169641
-0.207798 -0.00492665 0.978159 0.00748856
-0.205505 -0.00510101 0.978643 0.00724583
-0.202889 -0.00523576 0.979188 0.0070089
-0.201489 -0.00535533 0.979476 0.00487323
-0.2037 -0.00534352 0.979019 0.00783631
-0.209314 -0.00521851 0.977835 0.00884781
-0.197925 -0.00560383 0.980201 0.00630731
-0.195946 -0.00594858 0.980597 0.00603783
-0.195759 -0.00607481 0.980633 0.004546
-0.200176 -0.00595033 0.979742 0.00379533
-0.203051 -0.00593832 0.97915 0.0053403
-0.201872 -0.00605151 0.979393 0.00562657
-0.195101 -0.00629904 0.980763 0.00547995
-0.193761 -0.00638594 0.981028 0.000765635
-0.192622 -0.00650921 0.981251 0.00276417
-0.192252 -0.00654999 0.981324 0
-0.189728 -0.00669084 0.981814 0
-0.183871 -0.00689809 0.982926 0
-0.183415 -0.00699468 0.983011 0
-0.182718 -0.00702294 0.98314 0
-0.18526 -0.00695812 0.982665 0.00233462
-0.181365 -0.00709618 0.98339 0.00328049
-0.198342 -0.0066152 0.980111 0.00671401
-0.202608 -0.00649271 0.979238 0.00985265
-0.200106 -0.00665556 0.979752 0.00859017
-0.193507 -0.00697097 0.981074 0.000288729
-0.186404 -0.00736505 0.982445 0
-0.191615 -0.00728168 0.981443 0
-0.18602 -0.00753027 0.982517 0
-0.188572 -0.0074167 0.982031 0
-0.185511 -0.00750116 0.982613 0
-0.188536 -0.00707272 0.982041 0
-0.184737 -0.00725861 0.982761 0
-0.182345 -0.00735733 0.983207 0
-0.183093 -0.00723582 0.983069 0
-0.185633 -0.00713036 0.982593 0
-0.191835 -0.00669418 0.981404 0
-0.194879 -0.00642668 0.980806 0
-0.196786 -0.00626653 0.980426 0
-0.198122 -0.00606256 0.980159 0
-0.198545 -0.00601874 0.980073 0.000258278
-0.19817 -0.00622952 0.980148 0.0010654
-0.201954 -0.00575387 0.979378 0.00279764
-0.210592 -0.00513837 0.97756 0.0121097
-0.202766 -0.00555086 0.979212 0.00643779
-0.206376 -0.00532082 0.978458 0.00723918
-0.21005 -0.00492791 0.977678 0.0116348
-0.206175 -0.005059 0.978502 0.0102649
-0.203407 -0.00522551 0.97908 0.00959701
-0.204183 -0.00501606 0.97892 0.0104052
-0.206838 -0.00475811 0.978364 0.0129793
-0.21098 -0.00436648 0.977481 0.0153939
-0.214253 -0.00405196 0.97677 0.0177084
-0.216064 -0.00381749 0.976372 0.0182823
-0.213275 -0.00403253 0.976984 0.016311
-0.220122 -0.00344168 0.975466 0.0214291
-0.216586 -0.00373839 0.976256 0.0225709
-0.21063 -0.004298 0.977556 0.0186751
-0.209529 -0.00439794 0.977792 0.0183882
-0.209494 -0.0044312 0.9778 0.0190059
-0.211961 -0.00430525 0.977269 0.0214809
-0.207876 -0.00468716 0.978144 0.0177236
-0.203905 -0.00501299 0.978978 0.0177505
-0.205079 -0.00489087 0.978733 0.0132025
-0.200247 -0.00538437 0.979731 0.00967898
-0.1993 -0.00529761 0.979924 0.00806226
-0.202415 -0.00499141 0.979287 0.01099
-0.203697 -0.00489316 0.979022 0.0103326
-0.199479 -0.00515554 0.979889 0.00562732
-0.201755 -0.00487741 0.979424 0.00899782
-0.208066 -0.00432739 0.978105 0.0115582
-0.208455 -0.0043353 0.978022 0.0113978
-0.205257 -0.00459985 0.978697 0.00910508
-0.210797 -0.00413653 0.977521 0.0122841
-0.210835 -0.00398785 0.977513 0.015015
-0.207591 -0.00422047 0.978207 0.0111298
-0.212057 -0.00385557 0.97725 0.0157483
-0.208738 -0.00409309 0.977963 0.0150095
-0.211008 -0.00376546 0.977477 0.0133244
-0.210702 -0.00373017 0.977543 0.0156236
-0.20754 -0.00399196 0.978218 0.0120892
-0.209861 -0.00335509 0.977725 0.0182118
-0.207993 -0.00376032 0.978123 0.0155442
-0.208382 -0.00369495 0.97804 0.0153967
-0.205204 -0.0039957 0.978711 0.0144565
-0.203495 -0.00430557 0.979066 0.0117372
-0.200318 -0.0046046 0.97972 0.00926017
-0.203837 -0.00459635 0.978994 0.0125163
-0.13541 -0.100983 0.98563 0.0105996
-0.135058 -0.0961555 0.986161 0.0115934
-0.13743 -0.0936856 0.986071 0.0126084
-0.135544 -0.0873502 0.986913 0.0111246
-0.136652 -0.0838762 0.987062 0.0146549
-0.134967 -0.0782247 0.987758 0.00838837
-0.133792 -0.0724609 0.988357 0.00609688
-0.132958 -0.0701126 0.988639 0.00484084
-0.13433 -0.0684139 0.988572 0.00643664
-0.131788 -0.0645465 0.989174 0.00165967
-0.132725 -0.0646693 0.989041 0.0052753
-0.131969 -0.060589 0.9894 0
-0.132511 -0.0598245 0.989375 0.00138837
-0.134211 -0.0586736 0.989214 0.00235088
-0.134971 -0.0570573 0.989205 0.00320353
-0.132527 -0.0546091 0.989674 0.00129326
-0.131786 -0.0529827 0.989861 0.00131105
-0.13434 -0.0530855 0.989512 0.00582462
-0.134072 -0.0512571 0.989645 0.00353075
-0.134459 -0.0503312 0.98964 0.00605168
-0.134004 -0.0488094 0.989778 0.00550243
-0.133996 -0.0479384 0.989822 0.00579067
-0.135995 -0.0482176 0.989536 0.00686495
-0.137402 -0.0462899 0.989433 0.00405159
-0.139582 -0.0462313 0.989131 0.00859035
-0.14182 -0.0461084 0.988818 0.0100872
-0.139342 -0.0427574 0.989321 0.00564546
-0.138983 -0.0408713 0.989451 0.00526973
-0.135041 -0.0382677 0.990101 0.000481907
-0.133442 -0.0364837 0.990385 0
-0.135041 -0.0353134 0.99021 0
-0.137493 -0.0342716 0.98991 0
-0.134903 -0.0329515 0.990311 0
-0.131336 -0.0311009 0.99085 0
-0.126752 -0.0294886 0.991496 0
-0.126513 -0.028792 0.991547 0
-0.127387 -0.028641 0.99144 0
-0.127182 -0.02763 0.991494 0
-0.130287 -0.0259775 0.991136 0
-0.130324 -0.0249448 0.991158 0
-0.128647 -0.0237766 0.991405 0
-0.129382 -0.0225629 0.991338 0
-0.129772 -0.0221023 0.991297 0
-0.135129 -0.022181 0.99058 0
-0.135004 -0.0211406 0.990619 0
-0.135328 -0.0204566 0.99059 0
-0.133919 -0.0201419 0.990788 2.31719e-05
-0.136262 -0.01977 0.990476 0.00558995
-0.137263 -0.019852 0.990336 0.00808011
-0.135276 -0.019076 0.990624 0.00703682
-0.137835 -0.0187972 0.990277 0.00682271
-0.140717 -0.0183316 0.98988 0.00953095
-0.136597 -0.0172075 0.990477 0.00643877
-0.138466 -0.0169805 0.990222 0.0105022
-0.139348 -0.0165082 0.990106 0.0137254
-0.133711 -0.0158035 0.990894 0.00832573
-0.13615 -0.0152481 0.990571 0.0104222
-0.137385 -0.0144754 0.990412 0.0106238
-0.140377 -0.0138139 0.990002 0.0151264
-0.142007 -0.0130255 0.98978 0.013448
-0.142163 -0.0119623 0.989771 0.01218
-0.140801 -0.0117064 0.989969 0.0106428
-0.13858 -0.0103512 0.990297 0.00629319
-0.135893 -0.00939522 0.990679 0.00560321
-0.132846 -0.00715507 0.991111 0.00211953
-0.13794 -0.00537318 0.990426 0.00282693
-0.140823 -0.00328983 0.990029 0.00302087
-0.138637 -0.00189527 0.990341 0.00442594
-0.13989 -0.000868585 0.990167 0.00457022
-0.14268 0.000306325 0.989769 0.00938848
-0.138327 0.00146934 0.990385 0.00658522
-0.138336 0.00264824 0.990382 0.00383078
-0.139238 0.00404573 0.990251 0.0045261
-0.144705 0.00482676 0.989463 0.00735295
-0.138978 0.00538801 0.990281 0.00517032
-0.136161 0.00587426 0.990669 0.00452488
-0.1405 0.00615021 0.990062 0.00813533
-0.143196 0.00618395 0.989675 0.012098
-0.141658 0.00691899 0.989891 0.00928743
-0.139804 0.00680326 0.990156 0.0103342
-0.140508 0.00686237 0.990056 0.00788899
-0.143261 0.0069864 0.98966 0.00979
-0.137091 0.00689103 0.990535 0.00751482
-0.13855 0.00682047 0.990332 0.00991641
-0.140359 0.0063327 0.99008 0.0119123
-0.137605 0.0061677 0.990468 0.0110124
-0.135711 0.00580531 0.990731 0.00929558
-0.137973 0.00578166 0.990419 0.0115429
-0.137866 0.00561412 0.990435 0.0110744
-0.129523 0.00524541 0.991563 0.00749658
-0.130158 0.00460351 0.991483 0.00898997
-0.128165 0.00459611 0.991742 0.00764776
-0.126171 0.00429867 0.991999 0.00499683
-0.129157 0.00430052 0.991615 0.00319756
-0.129541 0.00417748 0.991565 0.0025045
-0.132718 0.0035989 0.991147 0.00406851
-0.138087 0.00254258 0.990417 0.00959289
-0.136377 0.00225657 0.990654 0.0076683
-0.136425 0.00175131 0.990649 0.00903416
-0.137718 0.000707828 0.990471 0.00968106
-0.134608 0.000350247 0.990899 0.00484179
-0.134418 -5.76621e-05 0.990925 0.00379941
-0.13711 -0.000685158 0.990556 0.00466899
-0.143294 -0.00158283 0.989679 0.00652259
-0.14511 -0.00220324 0.989413 0.0101662
-0.150336 -0.00288189 0.988631 0.0123495
-0.149352 -0.00363495 0.988777 0.0154259
-0.147491 -0.00390698 0.989056 0.0144851
-0.145571 -0.00417865 0.989339 0.0136756
-0.145282 -0.00478036 0.989379 0.013376
-0.150503 -0.00548228 0.988594 0.0158469
-0.149487 -0.00570082 0.988747 0.0164232
-0.149868 -0.00666117 0.988684 0.0176574
-0.147765 -0.00714058 0.988997 0.0143848
-0.148473 -0.00721443 0.98889 0.0109349
-0.149011 -0.00785103 0.988804 0.0135752
-0.145837 -0.00808793 0.989276 0.0106932
-0.146111 -0.00861314 0.989231 0.0122871
-0.144486 -0.00881358 0.989468 0.0147094
-0.150879 -0.00920906 0.988509 0.0162939
-0.151254 -0.00965187 0.988448 0.015915
-0.151974 -0.0102905 0.988331 0.0182302
-0.151854 -0.0107319 0.988345 0.0193562
-0.149577 -0.0109099 0.98869 0.019511
-0.152413 -0.0112263 0.988253 0.0200836
-0.153004 -0.0114264 0.988159 0.0175571
-0.150401 -0.0116106 0.988557 0.0153021
-0.148994 -0.0115838 0.98877 0.0124117
-0.14745 -0.0119465 0.988997 0.00945417
-0.148691 -0.0120908 0.98881 0.00836008
-0.150651 -0.0122937 0.988511 0.00776754
-0.147862 -0.0123186 0.988931 0.00638806
-0.143955 -0.0125209 0.989505 0.00644915
-0.141798 -0.0126848 0.989814 0.00435054
-0.137828 -0.0127222 0.990374 0
-0.136118 -0.0127854 0.99061 0
-0.13369 -0.0126699 0.990942 0
-0.132459 -0.0127944 0.991106 0
-0.130787 -0.0126216 0.99133 0
-0.134467 -0.0134138 0.990827 0
-0.133541 -0.013548 0.990951 0
-0.132404 -0.0133502 0.991106 0
-0.129657 -0.0133633 0.991469 0
-0.12955 -0.0133972 0.991482 0
-0.134394 -0.013885 0.990831 0
-0.133791 -0.0138079 0.990913 0
-0.133975 -0.0141675 0.990883 0
-0.134272 -0.0142609 0.990842 0
-0.133286 -0.0142603 0.990975 0
-0.14147 -0.0143906 0.989838 0.00219476
-0.139482 -0.0148427 0.990113 0.00424641
-0.141111 -0.0150855 0.989879 0.00597167
-0.142524 -0.0152117 0.989674 0.00705272
-0.148001 -0.0152856 0.988869 0.00920268
-0.150989 -0.0152626 0.988418 0.00799666
-0.153298 -0.0150757 0.988065 0.00552948
-0.149587 -0.0149772 0.988635 0.00392424
-0.148086 -0.0151835 0.988858 0.00404119
-0.147988 -0.0148797 0.988877 0.00312307
-0.14808 -0.014596 0.988868 0.00251625
-0.151083 -0.0148244 0.98841 0.00579411
-0.152763 -0.0150976 0.988147 0.00782738
-0.153607 -0.01482 0.988021 0.00822043
-0.157478 -0.0148891 0.98741 0.00894804
-0.155225 -0.0148333 0.987768 0.0090877
-0.152642 -0.0145819 0.988174 0.00633289
-0.148425 -0.0144632 0.988818 0.00516696
-0.145198 -0.0139625 0.989304 0.00192078
-0.146551 -0.0142488 0.9891 0.000909782
-0.149071 -0.0142502 0.988724 0.00114372
-0.148863 -0.0141654 0.988756 0
-0.14826 -0.0138048 0.988852 0.000477038
-0.153202 -0.0138138 0.988098 0.00477781
-0.157102 -0.0137421 0.987487 0.00941298
-0.158627 -0.0136184 0.987245 0.00761636
-0.162597 -0.0133705 0.986602 0.0101186
-0.160821 -0.0133759 0.986893 0.0107747
-0.158722 -0.013248 0.987235 0.0101561
-0.155693 -0.012822 0.987722 0.00946064
-0.153872 -0.0128476 0.988007 0.0100064
-0.155108 -0.0126013 0.987817 0.0109751
-0.157267 -0.0126796 0.987475 0.0131558
-0.150023 -0.0121623 0.988608 0.0097482
-0.153813 -0.0118627 0.988029 0.00757
-0.152144 -0.0116289 0.98829 0.00746155
-0.156404 -0.0118152 0.987623 0.0102061
-0.156848 -0.0114479 0.987556 0.0097919
-0.158583 -0.011285 0.987281 0.0111336
-0.158419 -0.0105337 0.987316 0.00922533
-0.159502 -0.0104526 0.987142 0.00991282
-0.161764 -0.010098 0.986778 0.00895553
-0.164368 -0.0101491 0.986347 0.0107427
-0.16162 -0.0101391 0.986801 0.011185
-0.159701 -0.00970953 0.987118 0.0103341
-0.162284 -0.00964668 0.986697 0.0122949
-0.167796 -0.00937368 0.985777 0.0134273
-0.168104 -0.00929353 0.985725 0.013377
-0.16778 -0.00958967 0.985778 0.0155937
-0.170822 -0.00940995 0.985257 0.0184417
-0.167166 -0.00901641 0.985888 0.0162244
-0.1701 -0.00853865 0.98539 0.0151094
-0.172385 -0.00852636 0.984993 0.0183166
-0.172851 -0.00901577 0.984907 0.0203296
-0.169696 -0.00844289 0.98546 0.0158039
-0.167877 -0.00830577 0.985773 0.0145445
-0.168086 -0.00814772 0.985739 0.0168967
-0.168834 -0.0077341 0.985614 0.0150152
-0.165142 -0.00811237 0.986237 0.0155768
-0.157449 -0.00781474 0.987496 0.00827488
-0.162004 -0.0076523 0.986761 0.00963531
-0.157768 -0.0071063 0.987451 0.00721627
-0.16101 -0.00696995 0.986928 0.00597088
-0.157816 -0.00671128 0.987446 0.00483315
-0.157742 -0.00656547 0.987459 0.00524036
-0.162249 -0.00641526 0.986729 0.00777752
-0.154994 -0.00588694 0.987898 0
-0.154343 -0.00580831 0.988 0
-0.157245 -0.00600804 0.987541 0.00449277
-0.157854 -0.00594534 0.987445 0.00506088
-0.161286 -0.00584914 0.98689 0.00596952
-0.158747 -0.00577736 0.987302 0.00405897
-0.155598 -0.00585902 0.987803 0
-0.155899 -0.00599756 0.987755 0.000420344
-0.156777 -0.00584329 0.987617 0
-0.162564 -0.00587475 0.986681 0.000746295
-0.165189 -0.0060446 0.986243 0.00271192
-0.168563 -0.00599905 0.985673 0.00323756
-0.164745 -0.00609596 0.986317 0.000972121
-0.167168 -0.00620356 0.985909 0.00496761
-0.175329 -0.00623723 0.98449 0.00942699
-0.177924 -0.00628685 0.984024 0.00784482
-0.17956 -0.0064471 0.983726 0.0117866
-0.178225 -0.00654009 0.983968 0.00990802
-0.17628 -0.00651748 0.984318 0.00740617
-0.175476 -0.00649067 0.984462 0.00647907
-0.17382 -0.00649665 0.984756 0.00543887
-0.176232 -0.00667002 0.984326 0.0069714
-0.178411 -0.00694938 0.983932 0.00913068
-0.176817 -0.00705742 0.984218 0.00753536
-0.178493 -0.00713892 0.983915 0.00782031
-0.178219 -0.0072283 0.983964 0.00698447
-0.177333 -0.00718457 0.984125 0.00736583
-0.179349 -0.00735395 0.983758 0.0117887
-0.178297 -0.00768189 0.983947 0.0119431
-0.177516 -0.00759919 0.984088 0.0089098
-0.183466 -0.00773599 0.982996 0.0104595
-0.181982 -0.00775164 0.983271 0.0105881
-0.179502 -0.00768276 0.983728 0.00728526
-0.175884 -0.00797555 0.984379 0.00613972
-0.177119 -0.00803677 0.984157 0.00246359
-0.17715 -0.0081864 0.98415 0.00411148
-0.177217 -0.00830168 0.984137 0.00497996
-0.176344 -0.00842838 0.984293 0.00532491
-0.176605 -0.00855595 0.984245 0.00623058
-0.174583 -0.00871101 0.984604 0.00370442
-0.178537 -0.00886219 0.983893 0.0102918
-0.180029 -0.00899673 0.98362 0.00956469
-0.182677 -0.00921978 0.98313 0.0127224
-0.181988 -0.00950561 0.983255 0.0117493
-0.183441 -0.00968044 0.982983 0.0117223
-0.183339 -0.010092 0.982998 0.014174
-0.182509 -0.0104272 0.983149 0.0153393
-0.184018 -0.0108804 0.982863 0.0165475
-0.179665 -0.0110833 0.983665 0.0151302
-0.181297 -0.0113854 0.983363 0.0163301
-0.173733 -0.0118377 0.984722 0.0124104
-0.172425 -0.0122874 0.984946 0.0132204
-0.169604 -0.0124399 0.985434 0.0125378
-0.169784 -0.0127507 0.985399 0.0117638
-0.163347 -0.0131138 0.986481 0.00679431
-0.163528 -0.0132754 0.986449 0.00529201
-0.15868 -0.0135212 0.987238 0
-0.158004 -0.0138382 0.987341 0.000151513
-0.156819 -0.013863 0.98753 0
-0.157402 -0.0139656 0.987436 0
-0.16042 -0.0139092 0.986951 0
-0.158626 -0.014118 0.987238 0
-0.15485 -0.0143118 0.987834 0
-0.152353 -0.0146405 0.988218 0
-0.152653 -0.0148177 0.988169 0
-0.150953 -0.0149753 0.988427 0
-0.147222 -0.0152502 0.988986 0
-0.145323 -0.015427 0.989264 0
-0.145684 -0.0155173 0.989209 0
-0.151851 -0.0153898 0.988284 0
-0.153654 -0.0155634 0.988002 0
-0.152579 -0.0155724 0.988169 0
-0.152981 -0.0156858 0.988105 0
-0.153144 -0.0155433 0.988082 0
-0.156173 -0.0153592 0.98761 0
-0.156184 -0.0156655 0.987604 0
-0.157928 -0.0156057 0.987327 0
-0.152963 -0.0158303 0.988105 0
-0.151695 -0.0158543 0.9883 0
-0.152762 -0.0158002 0.988137 0
-0.155744 -0.0154141 0.987677 0
-0.159302 -0.0153086 0.987111 0
-0.154348 -0.0157313 0.987891 0
-0.148379 -0.0159246 0.988802 0
-0.151422 -0.0157128 0.988344 0
-0.153799 -0.0152526 0.987985 0
-0.154317 -0.0151307 0.987906 0
-0.148438 -0.0156232 0.988798 0
-0.144414 -0.0161217 0.989386 0
-0.146876 -0.0159949 0.989025 0
-0.152678 -0.0156471 0.988152 0
-0.153182 -0.0155995 0.988075 0
-0.147595 -0.0158753 0.98892 0
-0.14479 -0.0163008 0.989328 0.000607401
-0.146567 -0.0161916 0.989068 0
-0.14992 -0.0160501 0.988568 0
-0.150614 -0.0159958 0.988463 0
-0.149077 -0.0160936 0.988695 0
-0.145639 -0.0160868 0.989207 0
-0.149795 -0.0160501 0.988587 0.00231772
-0.153582 -0.0159317 0.988007 0.00377697
-0.150235 -0.0159723 0.988521 0.00315167
-0.144973 -0.016069 0.989305 0.000368547
-0.141849 -0.0161524 0.989757 0.00185097
-0.150116 -0.0157008 0.988544 0.00424477
-0.150487 -0.0152235 0.988495 0.00133847
-0.147454 -0.0152051 0.988952 0
-0.148053 -0.0153289 0.988861 0.000830719
-0.143638 -0.0153029 0.989512 0
-0.149562 -0.0150266 0.988638 0.00129501
-0.156526 -0.0146471 0.987565 0.00246688
-0.158532 -0.0145565 0.987247 0.00528398
-0.155801 -0.0144245 0.987683 0.00408955
-0.155736 -0.0142709 0.987696 0.00555035
-0.15384 -0.0142645 0.987993 0.00576998
-0.154288 -0.0140697 0.987926 0.00703755
-0.15337 -0.0139722 0.98807 0.00858916
-0.15076 -0.013855 0.988473 0.00610814
-0.142506 -0.0139208 0.989696 0.00391858
-0.142218 -0.0136607 0.989741 8.31919e-05
-0.145827 -0.0133724 0.98922 0.00229721
-0.145554 -0.0131167 0.989263 0.00199902
-0.141943 -0.0129864 0.98979 0.00249257
-0.147389 -0.0126425 0.988998 0.00339672
-0.148818 -0.0123806 0.988787 0.00355163
-0.152954 -0.0120373 0.98816 0.00405415
-0.153206 -0.0117084 0.988125 0.00402411
-0.152553 -0.0114975 0.988228 0.00530072
-0.152276 -0.0115324 0.988271 0.00820735
-0.15542 -0.0110896 0.987786 0.0108107
-0.162771 -0.0106134 0.986607 0.0152804
-0.159782 -0.0103535 0.987098 0.0121006
-0.156171 -0.0101612 0.987678 0.0136029
-0.155059 -0.00985789 0.987856 0.0161639
-0.157815 -0.00943337 0.987424 0.0174254
-0.159775 -0.00902771 0.987112 0.0161533
-0.160185 -0.00874617 0.987048 0.0166818
-0.156361 -0.00845321 0.987664 0.0156348
-0.159039 -0.00840461 0.987237 0.0163681
-0.162134 -0.00826772 0.986734 0.0154682
-0.162761 -0.00830882 0.986631 0.0150659
-0.164721 -0.00828929 0.986305 0.0165324
-0.164783 -0.00823303 0.986295 0.0162538
-0.166814 -0.00851508 0.985952 0.0186938
-0.165811 -0.00847291 0.986121 0.0169541
-0.170015 -0.00849768 0.985405 0.0200743
-0.169939 -0.00857663 0.985417 0.021201
-0.170943 -0.00852467 0.985244 0.0195109
-0.179094 -0.0084104 0.983796 0.0246477
-0.178118 -0.00853438 0.983972 0.0248117
-0.178308 -0.00847796 0.983938 0.0224352
-0.173021 -0.00867166 0.98488 0.0189236
-0.171346 -0.00879231 0.985172 0.0201001
-0.165855 -0.00876334 0.986111 0.0190079
-0.168181 -0.00875425 0.985717 0.0187109
-0.165421 -0.0088414 0.986183 0.0131618
-0.160583 -0.00900585 0.986981 0.0134628
-0.15896 -0.00906362 0.987243 0.013243
-0.156885 -0.00903202 0.987576 0.0127741
-0.15485 -0.00909332 0.987896 0.0102799
-0.153574 -0.00910603 0.988095 0.00569419
-0.15105 -0.00916074 0.988484 0.00618351
-0.153319 -0.00920917 0.988134 0.00798252
-0.150794 -0.00935309 0.988521 0.00899275
-0.155264 -0.00938883 0.987828 0.0131537
-0.15945 -0.00933752 0.987162 0.0153178
-0.159368 -0.00936597 0.987175 0.0154595
-0.159795 -0.00940426 0.987105 0.0147081
-0.154344 -0.009548 0.987971 0.0131617
-0.152414 -0.00965153 0.98827 0.0080085
-0.154537 -0.00969785 0.987939 0.00826212
-0.15319 -0.00978324 0.988148 0.00795322
-0.152755 -0.00972329 0.988216 0.00878372
-0.152364 -0.0098517 0.988275 0.0119391
-0.153843 -0.00979063 0.988047 0.00982203
-0.152534 -0.00966312 0.988251 0.00678162
-0.146327 -0.00980233 0.989188 0.00111502
-0.140091 -0.0098878 0.990089 0
-0.145294 -0.00964855 0.989341 0
-0.144995 -0.00928664 0.989389 0
-0.147275 -0.00880628 0.989056 0
-0.149387 -0.00854766 0.988742 0
-0.146314 -0.00837365 0.989203 0
-0.145843 -0.0082881 0.989273 0
-0.14173 -0.008232 0.989871 0
-0.146379 -0.00808842 0.989196 0
-0.145722 -0.00789683 0.989294 0
-0.149159 -0.00756663 0.988784 0
-0.144651 -0.00758153 0.989454 0
-0.147576 -0.00737639 0.989023 0
-0.145416 -0.00727191 0.989344 0
-0.144747 -0.00713585 0.989443 0.00117894
-0.14317 -0.00704133 0.989673 0
-0.141442 -0.00688635 0.989923 0
-0.143823 -0.00657184 0.989582 0
-0.149746 -0.00599305 0.988706 0
-0.148135 -0.00570973 0.988951 0.00301203
-0.152863 -0.00508283 0.988234 0.00961549
-0.147189 -0.00517144 0.989095 0.00681325
-0.15141 -0.0045282 0.988461 0.00526368
-0.150517 -0.00427487 0.988598 0.00528957
-0.153685 -0.00376959 0.988113 0.00898515
-0.153689 -0.00341087 0.988113 0.00888975
-0.154515 -0.00309886 0.987986 0.010588
-0.153924 -0.00285629 0.988079 0.0097171
-0.153742 -0.00254404 0.988108 0.0116055
-0.155098 -0.0023323 0.987896 0.014229
-0.158903 -0.00160945 0.987293 0.0192903
-0.160741 -0.00117214 0.986996 0.0191512
-0.159851 -0.000998433 0.987141 0.0177379
-0.160513 -0.000644962 0.987034 0.0196999
-0.157542 -0.000882294 0.987512 0.0188091
-0.158568 -0.000572944 0.987348 0.0191423
-0.158468 -0.000317075 0.987364 0.0197946
-0.155162 -0.000435994 0.987889 0.0181145
-0.154662 -0.000213258 0.987967 0.01987
-0.151576 -0.000402086 0.988445 0.0164672
-0.152355 4.92108e-05 0.988326 0.0141858
-0.153429 0.000597795 0.988159 0.0159063
-0.153453 0.000905627 0.988156 0.0169272
-0.155843 0.00150945 0.987781 0.018623
-0.15347 0.0012595 0.988153 0.0160271
-0.158051 0.00236592 0.987428 0.0196318
-0.159999 0.00295279 0.987113 0.0214661
-0.161469 0.00335879 0.986872 0.0234786
-0.159673 0.00333071 0.987164 0.0218685
-0.161564 0.00422915 0.986853 0.0251506
-0.16438 0.00499586 0.986384 0.0274801
-0.163225 0.0049777 0.986576 0.0258785
-0.163984 0.00559487 0.986447 0.0273935
-0.163833 0.00570803 0.986472 0.0256951
-0.163948 0.00597399 0.986451 0.0250072
-0.164865 0.00647019 0.986295 0.0229365
-0.163239 0.00646083 0.986565 0.0225623
-0.161992 0.00632964 0.986772 0.0206926
-0.162787 0.00692769 0.986637 0.0255215
-0.162152 0.00708568 0.98674 0.0281233
-0.164114 0.00785487 0.98641 0.0274377
-0.162872 0.00787737 0.986616 0.0263332
-0.165519 0.00863045 0.986169 0.0282319
-0.165424 0.00890253 0.986182 0.0282456
-0.166687 0.00942556 0.985965 0.0275601
-0.126331 -0.105836 0.986326 0.0128571
-0.125216 -0.0990291 0.987175 0.00994772
-0.127014 -0.0958304 0.987261 0.00926985
-0.127289 -0.091489 0.987637 0.0109192
-0.127274 -0.087088 0.988037 0.008436
-0.126129 -0.0833383 0.988507 0.00875796
-0.127362 -0.081427 0.988508 0.00966524
-0.128789 -0.0780716 0.988594 0.00905442
-0.128169 -0.0744997 0.98895 0.00777418
-0.128662 -0.0719034 0.989078 0.0102384
-0.126557 -0.0675643 0.989656 0.00527827
-0.127263 -0.0661931 0.989658 0.00558292
-0.125 -0.0635071 0.990122 0.00327397
-0.127699 -0.0624572 0.989845 0.00665812
-0.127842 -0.0605428 0.989945 0.0074965
-0.128734 -0.0587663 0.989936 0.00853139
-0.127833 -0.0565394 0.990183 0.00650998
-0.126695 -0.0540744 0.990467 0.0054447
-0.126871 -0.0529712 0.990504 0.00404973
-0.124764 -0.0501423 0.990919 0
-0.123269 -0.0487573 0.991175 0
-0.125316 -0.0484183 0.990935 0
-0.125819 -0.0472448 0.990928 0
-0.12733 -0.0467624 0.990757 0.00094148
-0.125058 -0.0444648 0.991153 0
-0.125212 -0.0420731 0.991238 0
-0.123442 -0.0407723 0.991514 0
-0.123568 -0.0399585 0.991531 0
-0.127307 -0.0388985 0.9911 0.000396962
-0.128841 -0.0371239 0.99097 0
-0.127496 -0.0358953 0.991189 0
-0.124751 -0.0347875 0.991578 0
-0.122411 -0.033869 0.991901 0
-0.120044 -0.0325099 0.992236 0
-0.122642 -0.0306926 0.991976 0
-0.123925 -0.0294311 0.991855 0
-0.123915 -0.0287525 0.991876 0
-0.123427 -0.0279252 0.991961 0
-0.123526 -0.0270536 0.991972 0
-0.124571 -0.0256929 0.991878 0
-0.125793 -0.0250903 0.991739 0
-0.122436 -0.0244551 0.992175 0
-0.124298 -0.0234875 0.991967 0
-0.125104 -0.0227618 0.991883 0
-0.126866 -0.0223875 0.991667 0
-0.127142 -0.0212873 0.991656 0
-0.12652 -0.0202261 0.991758 0
-0.125895 -0.0194976 0.991852 0
-0.124493 -0.0190851 0.992037 0
-0.128576 -0.0183138 0.991531 0
-0.127747 -0.0174925 0.991653 0
-0.126474 -0.0172518 0.99182 0
-0.128871 -0.0170114 0.991515 0.00399741
-0.125211 -0.0161236 0.991999 0.00284307
-0.124113 -0.0146081 0.992161 0.00220923
-0.124982 -0.0141147 0.992059 0.00355728
-0.125659 -0.0136064 0.99198 0.00346186
-0.129365 -0.012756 0.991515 0.00341475
-0.129338 -0.0115285 0.991533 0.00169387
-0.129879 -0.0111818 0.991467 0.00336726
-0.129728 -0.0107694 0.991491 0.00397178
-0.126002 -0.0104437 0.991975 0.000381191
-0.127441 -0.00994448 0.991796 0.00152664
-0.129439 -0.00841259 0.991552 0
-0.132107 -0.00603219 0.991217 0.000755485
-0.132486 -0.00359658 0.991178 0
-0.131218 -0.00147077 0.991352 0
-0.128266 -0.000135742 0.99174 0
-0.125747 0.000745621 0.992062 0
-0.127267 0.00139954 0.991868 0
-0.125614 0.00237471 0.992076 0
-0.124777 0.00367276 0.992178 0
-0.128477 0.00481329 0.991701 0
-0.12625 0.0057406 0.991982 5.68978e-05
-0.12715 0.00585003 0.991866 0.00251193
-0.124891 0.00570802 0.992154 0.00271537
-0.12623 0.00620862 0.991982 0.00462015
-0.126853 0.00634772 0.991901 0.00384571
-0.127807 0.00599726 0.991781 0.00706802
-0.124955 0.0057963 0.992145 0.00907638
-0.124296 0.00577859 0.992228 0.00887138
-0.124384 0.00617282 0.992215 0.0102601
-0.12587 0.00605257 0.992028 0.00956491
-0.124085 0.00578674 0.992255 0.00843279
-0.125272 0.0056714 0.992106 0.0103713
-0.120278 0.00574559 0.992724 0.00689204
-0.123422 0.00519335 0.992341 0.00751403
-0.122689 0.00494261 0.992433 0.00731706
-0.123055 0.00479483 0.992388 0.00855839
-0.122874 0.00457471 0.992412 0.00913634
-0.125739 0.00418102 0.992054 0.0105049
-0.123834 0.00377395 0.992296 0.00929688
-0.125525 0.00303997 0.992086 0.009899
-0.126949 0.00254219 0.991906 0.00919506
-0.125687 0.00226299 0.992067 0.00900036
-0.128318 0.0015474 0.991732 0.0099762
-0.128905 0.000996744 0.991656 0.00681653
-0.126569 0.000676164 0.991958 0.00532451
-0.126898 0.000207171 0.991916 0.00378475
-0.130242 -0.000184885 0.991482 0.00329063
-0.130006 -0.000919182 0.991513 0.00340753
-0.134677 -0.00161905 0.990888 0.00618575
-0.13498 -0.00216201 0.990846 0.00639215
-0.13434 -0.00284557 0.990931 0.00671617
-0.135065 -0.00331802 0.990831 0.00551505
-0.1355 -0.00374491 0.99077 0.00911174
-0.139906 -0.00412712 0.990156 0.0112598
-0.141053 -0.00499818 0.989989 0.0131742
-0.142136 -0.00556476 0.989831 0.0154673
-0.141053 -0.00583949 0.989985 0.0147543
-0.140395 -0.00623258 0.990076 0.0140918
-0.141791 -0.00682969 0.989873 0.0136545
-0.141334 -0.00751967 0.989933 0.0131827
-0.141364 -0.00816315 0.989924 0.0133884
-0.142996 -0.0087091 0.989685 0.015242
-0.143115 -0.00885538 0.989666 0.0136229
-0.141782 -0.00922314 0.989855 0.0128441
-0.139812 -0.00961253 0.990131 0.0110683
-0.141994 -0.00994233 0.989818 0.0127656
-0.148623 -0.0106094 0.988837 0.0174108
-0.148464 -0.0108808 0.988858 0.0179104
-0.15089 -0.0112802 0.988486 0.0194985
-0.15174 -0.0113865 0.988355 0.0195176
-0.150616 -0.0117125 0.988523 0.0182802
-0.149967 -0.0121151 0.988617 0.0177988
-0.14819 -0.0122931 0.988883 0.0181753
-0.150395 -0.0125377 0.988546 0.0179263
-0.150643 -0.012801 0.988505 0.0190945
-0.150441 -0.0127998 0.988536 0.0155582
-0.151996 -0.0131751 0.988293 0.0158275
-0.151808 -0.0132813 0.988321 0.01476
-0.151614 -0.0136833 0.988345 0.0149253
-0.147088 -0.0136622 0.989029 0.0102749
-0.137674 -0.0135111 0.990385 0.00222192
-0.133221 -0.0134883 0.990995 0
-0.132637 -0.0133041 0.991075 0
-0.129509 -0.0134286 0.991487 0
-0.128904 -0.0133975 0.991567 0
-0.132143 -0.0135015 0.991139 0
-0.132489 -0.0137 0.99109 0
-0.131678 -0.0136345 0.991199 0
-0.132612 -0.014035 0.991069 0
-0.133662 -0.0144267 0.990922 0.00112238
-0.137633 -0.0146434 0.990375 0.00196956
-0.137354 -0.0150553 0.990408 0.00534969
-0.136791 -0.0149675 0.990487 0.00480193
-0.135474 -0.0147835 0.990671 0.00446577
-0.137732 -0.0152762 0.990352 0.00571293
-0.137958 -0.0151831 0.990322 0.00586925
-0.13664 -0.0156153 0.990498 0.00347798
-0.138908 -0.0160524 0.990175 0.00924485
-0.140893 -0.0162299 0.989892 0.0115738
-0.145452 -0.0161528 0.989233 0.0118421
-0.146991 -0.0163216 0.989003 0.0116066
-0.149457 -0.0160795 0.988638 0.00709983
-0.145597 -0.0158094 0.989218 0.00756964
-0.147076 -0.0160161 0.988996 0.00933601
-0.14902 -0.016115 0.988703 0.0110408
-0.152038 -0.0165221 0.988236 0.0140071
-0.149607 -0.0161575 0.988613 0.0116651
-0.150576 -0.0159716 0.988469 0.00970674
-0.148888 -0.0157702 0.988728 0.00888533
-0.148628 -0.0156917 0.988769 0.00978132
-0.148949 -0.0156494 0.988721 0.00941861
-0.15162 -0.0158142 0.988312 0.0107913
-0.148719 -0.0159461 0.988751 0.0108483
-0.148025 -0.0156013 0.988861 0.00996873
-0.146938 -0.0155161 0.989024 0.00786974
-0.147448 -0.0151345 0.988954 0.00562803
-0.145183 -0.0147932 0.989294 0.00504651
-0.144093 -0.0151377 0.989448 0.00580496
-0.147701 -0.0151878 0.988915 0.00456762
-0.149606 -0.0151516 0.98863 0.00564573
-0.150706 -0.0152303 0.988461 0.00682493
-0.156036 -0.0151649 0.987635 0.0126505
-0.153687 -0.015069 0.988005 0.0147178
-0.155702 -0.0150825 0.987689 0.0155676
-0.157493 -0.0148329 0.987409 0.0176557
-0.153209 -0.0143134 0.98809 0.0153446
-0.152652 -0.0145321 0.988173 0.0171594
-0.153919 -0.0143983 0.987979 0.0202353
-0.149312 -0.0136397 0.988696 0.0127469
-0.151628 -0.0134869 0.988346 0.0142773
-0.148307 -0.0127028 0.98886 0.00945786
