# .PCD v0.7 - Point Cloud Data file format
VERSION 0.7
FIELDS x y z
SIZE 4 4 4
TYPE F F F
COUNT 1 1 1
WIDTH 1328
HEIGHT 1
VIEWPOINT 0 0 0 1 0 0 0
POINTS 1328
DATA ascii
-0.019499453 -0.23491929 -0.28945038
-0.019294111 -0.23489346 -0.28944921
-0.019121831 -0.23487733 -0.28946933
-0.018876877 -0.23490363 -0.2894724
-0.018710749 -0.23490125 -0.28946689
-0.018511727 -0.23490156 -0.28945729
-0.018305067 -0.2349228 -0.28942755
-0.015663998 -0.23491602 -0.28943166
-0.023104001 -0.23467299 -0.28959599
-0.0222356 -0.23472901 -0.28958401
-0.022105332 -0.23471956 -0.28956932
-0.0219188 -0.2347146 -0.28955001
-0.021672999 -0.23469895 -0.28951439
-0.021517538 -0.23467422 -0.28950498
-0.02130725 -0.23468576 -0.28949153
-0.021127334 -0.23469299 -0.28947556
-0.020895248 -0.23471342 -0.28946117
-0.02067811 -0.23472343 -0.28947622
-0.020472376 -0.2347015 -0.28948802
-0.0203065 -0.23470299 -0.28947449
-0.020091284 -0.23469213 -0.28947258
-0.019923786 -0.23468542 -0.28946429
-0.0196735 -0.2347015 -0.28946766
-0.019482166 -0.23471101 -0.28945807
-0.019291 -0.23471847 -0.28945619
-0.019113 -0.23469749 -0.28945649
-0.018877199 -0.2346926 -0.28945079
-0.018733 -0.2346859 -0.28945991
-0.018507252 -0.23469168 -0.28947169
-0.018292798 -0.23470658 -0.2894429
-0.018157 -0.234715 -0.28940901
-0.015652666 -0.23470068 -0.28942868
-0.022201 -0.23457099 -0.289597
-0.022100253 -0.23449942 -0.28956857
-0.021897666 -0.23451483 -0.28955632
-0.021676546 -0.23452082 -0.28952217
-0.0215197 -0.23449978 -0.28950369
-0.021297375 -0.23450613 -0.28950292
-0.021110624 -0.23448688 -0.28947538
-0.020890273 -0.23450384 -0.28948328
-0.0206795 -0.2345005 -0.28949079
-0.020462999 -0.2345214 -0.28948408
-0.020296667 -0.234523 -0.28948116
-0.020095751 -0.23450176 -0.28949326
-0.01990775 -0.23449294 -0.28949261
-0.019692751 -0.23450275 -0.28948277
-0.019488428 -0.23448873 -0.28947586
-0.019283636 -0.23451556 -0.28947246
-0.019116571 -0.23450644 -0.28946215
-0.018895399 -0.23451719 -0.2894544
-0.018723832 -0.23450632 -0.28944534
-0.018489543 -0.23448309 -0.28946301
-0.018281467 -0.23449107 -0.28944337
-0.018142 -0.234428 -0.289404
-0.015640998 -0.23448499 -0.28943333
-0.022247501 -0.23424649 -0.28958851
-0.022112874 -0.23429143 -0.28957677
-0.021914124 -0.23428801 -0.28954986
-0.021666834 -0.23431249 -0.28952077
-0.021510534 -0.23431996 -0.28949639
-0.021288082 -0.2343265 -0.28949881
-0.021114286 -0.23431215 -0.28947273
-0.020897556 -0.23428154 -0.28948611
-0.020688668 -0.23429106 -0.28950283
-0.020455819 -0.23431191 -0.28949654
-0.020301145 -0.23429741 -0.28949898
-0.020085333 -0.23432134 -0.28951001
-0.019917386 -0.23431857 -0.28948423
-0.0197125 -0.234304 -0.289491
-0.019499816 -0.23428282 -0.28948739
-0.019316334 -0.23429024 -0.28947249
-0.019123556 -0.23429966 -0.28947812
-0.0188844 -0.23432961 -0.2894806
-0.0187218 -0.2343187 -0.28947639
-0.018495999 -0.23430756 -0.289473
-0.018270334 -0.23427516 -0.2894403
-0.018134 -0.234284 -0.28941301
-0.015631 -0.23430499 -0.289442
-0.02224 -0.23410299 -0.28957799
-0.022101417 -0.23408999 -0.2895669
-0.021913109 -0.23408079 -0.28954065
-0.021655416 -0.23409601 -0.28951573
-0.021499133 -0.23410431 -0.28949896
-0.021293901 -0.23411791 -0.2894834
-0.021115091 -0.23411027 -0.28947428
-0.020887 -0.23410232 -0.28950965
-0.020694125 -0.234084 -0.28951609
-0.020490084 -0.23408626 -0.28951159
-0.020312445 -0.23409221 -0.28951088
-0.020074667 -0.23410602 -0.28949583
-0.019897668 -0.2341146 -0.28948638
-0.019703001 -0.234124 -0.28949299
-0.019506555 -0.23410733 -0.28949693
-0.0192928 -0.23408969 -0.28948098
-0.019111445 -0.23408386 -0.28949019
-0.018925002 -0.23409466 -0.28950465
-0.018722417 -0.2341094 -0.28951043
-0.018492799 -0.23412199 -0.28948849
-0.018300001 -0.23409311 -0.28945729
-0.018108668 -0.23408084 -0.28942803
-0.017912334 -0.23402834 -0.28940365
-0.015620999 -0.234125 -0.28944933
-0.022279998 -0.23390542 -0.28958744
-0.022109078 -0.23391575 -0.28957069
-0.0219035 -0.23390199 -0.28953865
-0.021660222 -0.23388177 -0.28952068
-0.021505781 -0.23388781 -0.28949916
-0.021293111 -0.23389557 -0.28947988
-0.021110503 -0.23390119 -0.28947842
-0.020877888 -0.2339229 -0.28950202
-0.020706285 -0.23390958 -0.28949958
-0.0204705 -0.23388579 -0.2895
-0.020301666 -0.23387644 -0.28949869
-0.020063 -0.23389001 -0.28949818
-0.019886201 -0.2338988 -0.28949001
-0.019691 -0.233908 -0.289498
-0.019487416 -0.23391609 -0.28949782
-0.0193085 -0.23391509 -0.28948781
-0.019101666 -0.23390366 -0.28949484
-0.018914333 -0.233878 -0.28949931
-0.018733799 -0.23390019 -0.28951541
-0.018509727 -0.23389064 -0.28950933
-0.0182906 -0.23391309 -0.28946215
-0.018128572 -0.233923 -0.28942946
-0.017904144 -0.233881 -0.28940985
-0.017757 -0.233899 -0.28940201
-0.015611 -0.23390932 -0.28943065
-0.023272 -0.23368901 -0.2895945
-0.023050999 -0.233668 -0.28959599
-0.022869999 -0.233676 -0.289592
-0.022789 -0.23360901 -0.289588
-0.022431001 -0.233658 -0.2895945
-0.022278249 -0.23370811 -0.28958663
-0.022090469 -0.23371194 -0.28956613
-0.021893777 -0.233722 -0.28954422
-0.021651166 -0.23370166 -0.28951117
-0.021500923 -0.23369482 -0.28949422
-0.021302637 -0.2336728 -0.28948066
-0.021099748 -0.23368524 -0.2894671
-0.020868111 -0.23370701 -0.28946713
-0.020685777 -0.23371512 -0.28948876
-0.020481199 -0.233712 -0.2894876
-0.020292332 -0.23369668 -0.28949484
-0.020081 -0.2336925 -0.28948575
-0.019909715 -0.23367622 -0.28948137
-0.019737 -0.233689 -0.28949335
-0.019503221 -0.23369898 -0.28948843
-0.01931514 -0.23371728 -0.28949165
-0.0191033 -0.2337164 -0.28949279
-0.018904001 -0.233698 -0.28950951
-0.018737443 -0.23367722 -0.28951499
-0.01850575 -0.23368157 -0.28951675
-0.018278735 -0.23369719 -0.28946823
-0.0181375 -0.23370533 -0.28944799
-0.01791 -0.23372163 -0.28942123
-0.017717363 -0.23370418 -0.28940809
-0.015604 -0.233766 -0.289415
-0.015597999 -0.233658 -0.289426
-0.023075249 -0.2335045 -0.28957951
-0.022851333 -0.23348433 -0.289588
-0.022713779 -0.23349278 -0.28958976
-0.022435499 -0.2334765 -0.28959048
-0.022297274 -0.2334771 -0.28958121
-0.022079134 -0.23349619 -0.28956473
-0.021927165 -0.23350517 -0.28953937
-0.021680251 -0.23351906 -0.28951266
-0.021511307 -0.23351637 -0.28949639
-0.021302501 -0.2334995 -0.28946051
-0.0210797 -0.2334857 -0.28945976
-0.020872144 -0.23350117 -0.28948757
-0.020696091 -0.23349181 -0.28950462
-0.0204737 -0.23351797 -0.28948823
-0.020327667 -0.23351611 -0.28948441
-0.020147501 -0.23348999 -0.2894825
-0.019899275 -0.2334919 -0.28947628
-0.019715 -0.23348859 -0.2894946
-0.019492334 -0.23348331 -0.28947487
-0.019321917 -0.23349498 -0.28949347
-0.019118272 -0.23351383 -0.28949338
-0.018920999 -0.2334975 -0.28950524
-0.018728165 -0.23349683 -0.28950968
-0.018496251 -0.23350137 -0.28951752
-0.018284917 -0.233481 -0.28947696
-0.018147999 -0.2334871 -0.28948057
-0.017913999 -0.23350672 -0.28942809
-0.017700933 -0.23350878 -0.289415
-0.015588333 -0.23347734 -0.28942633
-0.023334 -0.23323824 -0.2895965
-0.023096999 -0.23330599 -0.28958336
-0.022851666 -0.23331682 -0.28957167
-0.0227226 -0.23330942 -0.28958324
-0.0224474 -0.23331621 -0.28958541
-0.022323167 -0.23330098 -0.28955469
-0.022101935 -0.233284 -0.28955093
-0.021936251 -0.23327938 -0.28953037
-0.021693666 -0.23330246 -0.28951436
-0.021512832 -0.23331131 -0.28947341
-0.021292999 -0.23331983 -0.28945965
-0.021090999 -0.23331051 -0.28944069
-0.020873332 -0.23327434 -0.2894685
-0.0206955 -0.2332831 -0.28946832
-0.020470334 -0.23329455 -0.28948388
-0.020338887 -0.2332999 -0.2894752
-0.020138666 -0.23331016 -0.28947532
-0.019902 -0.23331527 -0.28947765
-0.019729 -0.2333148 -0.2894946
-0.019482834 -0.23330384 -0.28947601
-0.01931075 -0.233279 -0.28949302
-0.019131223 -0.23329112 -0.28950223
-0.018938167 -0.23329782 -0.2895005
-0.018718775 -0.23331697 -0.28950703
-0.018487083 -0.23332141 -0.2895073
-0.018274873 -0.233301 -0.28948802
-0.018130001 -0.2332923 -0.28946802
-0.01790191 -0.2332778 -0.28942782
-0.0176911 -0.23331459 -0.28941539
-0.015579 -0.23329701 -0.28941947
-0.023506001 -0.23306149 -0.289597
-0.023307778 -0.23307699 -0.28958523
-0.023085998 -0.23309083 -0.28957966
-0.022839835 -0.23310083 -0.28958234
-0.022704169 -0.23310871 -0.28957078
-0.022438001 -0.23312941 -0.2895748
-0.0223225 -0.23311441 -0.28954768
-0.022100301 -0.23309958 -0.28952631
-0.021926573 -0.23309386 -0.28950214
-0.021683553 -0.23308712 -0.28948724
-0.021501722 -0.23309605 -0.28946912
-0.021300299 -0.23311141 -0.2894344
-0.021088643 -0.23310585 -0.28943926
-0.020865249 -0.23309501 -0.28944051
-0.020717332 -0.23310266 -0.28944317
-0.020484455 -0.23308446 -0.28946576
-0.020328557 -0.23308434 -0.28945947
-0.020127667 -0.23309465 -0.28946581
-0.019886065 -0.23310585 -0.28946894
-0.019706832 -0.233114 -0.28949299
-0.019472999 -0.23312388 -0.28948277
-0.0193015 -0.23309974 -0.28948614
-0.019120775 -0.23307568 -0.28948632
-0.018927 -0.23308234 -0.28949749
-0.01870789 -0.23310155 -0.2894963
-0.018492399 -0.23311201 -0.2894977
-0.018284142 -0.23311451 -0.28948435
-0.018136499 -0.23311763 -0.28946936
-0.017886249 -0.2331045 -0.28942627
-0.017701 -0.23310399 -0.289406
-0.015569333 -0.233117 -0.28942502
-0.023527624 -0.23292711 -0.28959399
-0.023298832 -0.23289733 -0.28957516
-0.023075333 -0.23287517 -0.28956333
-0.022835601 -0.23289962 -0.2895638
-0.022701999 -0.23288718 -0.28954804
-0.022449667 -0.23289733 -0.289547
-0.022325583 -0.23290575 -0.28953907
-0.022091467 -0.23292013 -0.28951195
-0.02193325 -0.23291862 -0.2894896
-0.021662124 -0.23288137 -0.28947088
-0.02149161 -0.23288073 -0.28944296
-0.021300333 -0.23288801 -0.289428
-0.02110775 -0.23289333 -0.28942314
-0.020902775 -0.23291121 -0.28942811
-0.020707889 -0.23292221 -0.28943887
-0.020524999 -0.23291059 -0.28944901
-0.020338623 -0.23290463 -0.28945237
-0.020116666 -0.23287903 -0.28945848
-0.019886848 -0.23289429 -0.2894606
-0.019721124 -0.23288913 -0.28948826
-0.019461777 -0.23290791 -0.28948176
-0.01930091 -0.23292571 -0.28948048
-0.019124141 -0.23289029 -0.28947285
-0.018918 -0.2329025 -0.289491
-0.018697668 -0.23288634 -0.28947604
-0.018491 -0.23288843 -0.28950322
-0.018302836 -0.23290235 -0.28948027
-0.0181375 -0.23291035 -0.28946447
-0.017876999 -0.2329248 -0.28942391
-0.017732 -0.23292701 -0.28940785
-0.015512599 -0.232886 -0.28947422
-0.023848001 -0.232618 -0.289599
-0.02369 -0.232774 -0.289599
-0.0234988 -0.23265919 -0.28959182
-0.023289667 -0.23271768 -0.28957057
-0.023088334 -0.23270698 -0.28955099
-0.022898333 -0.23269068 -0.28954932
-0.022716166 -0.23268734 -0.28953791
-0.0225018 -0.2326692 -0.28952917
-0.022314502 -0.23268981 -0.28953317
-0.0220802 -0.23270473 -0.28950965
-0.021915555 -0.23271377 -0.28947914
-0.0217104 -0.23271 -0.2894578
-0.021515166 -0.23269999 -0.28945461
-0.021307223 -0.23269613 -0.28942409
-0.021096416 -0.23267734 -0.28941789
-0.020931203 -0.23272058 -0.28941241
-0.020714909 -0.23269953 -0.28943589
-0.020504778 -0.23271579 -0.28944522
-0.020329582 -0.23272485 -0.28944373
-0.0201075 -0.23269901 -0.28945351
-0.019877454 -0.23267937 -0.28945038
-0.019718999 -0.23268254 -0.28948504
-0.019478666 -0.2326905 -0.28947851
-0.019331668 -0.23270001 -0.28949052
-0.019124335 -0.23271513 -0.28947333
-0.018908834 -0.23272283 -0.28948149
-0.018686999 -0.232706 -0.28949365
-0.018479874 -0.23268189 -0.28950825
-0.018290835 -0.23268627 -0.2894896
-0.018126667 -0.23269486 -0.28945506
-0.017889556 -0.23270947 -0.28942457
-0.017745001 -0.23271023 -0.28941157
-0.015490834 -0.23268533 -0.28947783
-0.023840666 -0.23247433 -0.28959069
-0.023674667 -0.23248667 -0.28959498
-0.023499446 -0.23248699 -0.28957954
-0.023278223 -0.23250201 -0.28956401
-0.023122333 -0.23251434 -0.28953865
-0.022916002 -0.23252167 -0.28953531
-0.022730445 -0.2325061 -0.28952536
-0.022509001 -0.23250425 -0.28952152
-0.022303918 -0.23247455 -0.28951812
-0.022088083 -0.23248716 -0.28950158
-0.021927251 -0.23249757 -0.28947935
-0.021688668 -0.23250933 -0.28945318
-0.021506332 -0.23252004 -0.28944123
-0.02131509 -0.23252155 -0.28942683
-0.021099145 -0.23250301 -0.289417
-0.020927249 -0.23247752 -0.28940949
-0.020711167 -0.23249035 -0.28942844
-0.020521143 -0.23250887 -0.28943542
-0.020329285 -0.2325037 -0.28944865
-0.020098334 -0.23251967 -0.28944865
-0.019880665 -0.23250379 -0.28946018
-0.019709667 -0.23250301 -0.28948084
-0.019466667 -0.23247468 -0.28948501
-0.019320751 -0.23248442 -0.28948116
-0.019113166 -0.23249935 -0.2894676
-0.018897666 -0.23250715 -0.28948098
-0.018677222 -0.23252589 -0.28950399
-0.018471001 -0.23250857 -0.28950071
-0.018277334 -0.23249544 -0.28948548
-0.018121231 -0.23247303 -0.28946391
-0.017878223 -0.23249367 -0.28942257
-0.017725287 -0.23248573 -0.28940573
-0.015481249 -0.23250526 -0.28947899
-0.023830999 -0.2322945 -0.2895965
-0.023665499 -0.232307 -0.28959101
-0.023490334 -0.23230702 -0.28957435
-0.023287144 -0.23229642 -0.28955743
-0.023146 -0.2322804 -0.28954059
-0.022904666 -0.23230617 -0.28953433
-0.022713751 -0.23231499 -0.28952122
-0.022499666 -0.23232484 -0.28952217
-0.022294499 -0.23229474 -0.28951514
-0.022071889 -0.23229589 -0.28949922
-0.021916 -0.23228206 -0.28947341
-0.021677166 -0.23229401 -0.28945634
-0.021495335 -0.23230521 -0.2894308
-0.021299364 -0.23231979 -0.28942227
-0.021104222 -0.2323169 -0.28942722
-0.020960001 -0.23232901 -0.28940758
-0.020736286 -0.23227286 -0.289408
-0.020551667 -0.23228131 -0.28942633
-0.020323534 -0.23229305 -0.28943458
-0.020087166 -0.23230399 -0.289446
-0.019864084 -0.23231281 -0.28944781
-0.01970111 -0.23232333 -0.2894648
-0.01945775 -0.2322955 -0.28947774
-0.019305222 -0.23229355 -0.28947166
-0.019101417 -0.23228334 -0.28947827
-0.018885501 -0.23229103 -0.28949314
-0.018667001 -0.23231067 -0.28948101
-0.018461002 -0.23231333 -0.28949678
-0.018305626 -0.23231575 -0.28948826
-0.018122301 -0.23229833 -0.28946939
-0.017872751 -0.232278 -0.28942263
-0.017707856 -0.23226915 -0.289408
-0.017595001 -0.232217 -0.28940701
-0.015474 -0.23232616 -0.28944167
-0.023823 -0.232151 -0.28959501
-0.02374175 -0.23213848 -0.28959101
-0.023480667 -0.23212735 -0.2895762
-0.02329275 -0.232106 -0.28953451
-0.023145167 -0.232078 -0.28952864
-0.022894502 -0.23209099 -0.2895025
-0.022703251 -0.23209949 -0.28950152
-0.022489334 -0.23210917 -0.28950384
-0.022285499 -0.23211525 -0.28950509
-0.022074908 -0.23212145 -0.28947955
-0.021907127 -0.23210251 -0.28945935
-0.021656198 -0.2320942 -0.28943902
-0.021495374 -0.23209381 -0.28942138
-0.02132111 -0.23210399 -0.2894088
-0.021094002 -0.23211037 -0.28941348
-0.020987 -0.232145 -0.28941202
-0.020732572 -0.23210788 -0.28941345
-0.020542333 -0.23210202 -0.28941917
-0.020312598 -0.2320776 -0.28942725
-0.020076834 -0.23208869 -0.28942314
-0.019864399 -0.23210421 -0.2894353
-0.019734778 -0.23210533 -0.2894482
-0.019485375 -0.23210549 -0.28947061
-0.019306637 -0.232118 -0.28947338
-0.019083999 -0.23209256 -0.28946188
-0.018864201 -0.2320908 -0.28948641
-0.018655 -0.23209459 -0.28949678
-0.018475501 -0.23209701 -0.28951418
-0.018314166 -0.23210664 -0.28949857
-0.018113 -0.23211855 -0.28946683
-0.017857499 -0.23209834 -0.289424
-0.017712999 -0.23210621 -0.28940779
-0.017591 -0.232145 -0.28940099
-0.0154625 -0.2321105 -0.28943917
-0.023814 -0.231971 -0.28959799
-0.023647999 -0.23198301 -0.28959599
-0.023469888 -0.23191187 -0.2895681
-0.023284337 -0.23192717 -0.28951934
-0.023134999 -0.23189801 -0.28953499
-0.022869 -0.2318906 -0.28949243
-0.022692336 -0.23188399 -0.28949526
-0.022519249 -0.231913 -0.28948724
-0.022293001 -0.23189379 -0.28947884
-0.022064548 -0.23191892 -0.28947452
-0.021905921 -0.23191668 -0.289453
-0.021687251 -0.23193175 -0.28943801
-0.021522101 -0.23189311 -0.28943068
-0.020948 -0.231969 -0.289404
-0.020758001 -0.23191135 -0.28940666
-0.020539377 -0.23193102 -0.28941303
-0.0203033 -0.23189779 -0.28942132
-0.020055801 -0.23188838 -0.2894302
-0.019860001 -0.23188111 -0.28943175
-0.019745555 -0.23188835 -0.28944656
-0.019487225 -0.23189844 -0.289464
-0.019291334 -0.2319095 -0.28946248
-0.019090181 -0.23191719 -0.28945038
-0.018878199 -0.23191682 -0.28946501
-0.01864489 -0.23187955 -0.28946611
-0.018464167 -0.23188134 -0.28950617
-0.018302834 -0.23189099 -0.28949136
-0.018101664 -0.23190281 -0.28946432
-0.017862713 -0.23192899 -0.28941557
-0.017770801 -0.2319036 -0.2894116
-0.01551 -0.231966 -0.28940099
-0.0153698 -0.2319086 -0.28952724
-0.023837 -0.23161 -0.28959399
-0.023704877 -0.23166363 -0.28958514
-0.023459222 -0.23169644 -0.28954852
-0.023273 -0.23171149 -0.28951249
-0.023126667 -0.23171866 -0.28951734
-0.022955 -0.23172867 -0.28946301
-0.022706497 -0.23170359 -0.28947702
-0.022547999 -0.231681 -0.28945234
-0.02231325 -0.231683 -0.28945792
-0.022099832 -0.23169315 -0.28945449
-0.021908734 -0.2317059 -0.2894336
-0.021705002 -0.231713 -0.28942266
-0.021520168 -0.23175032 -0.28940901
-0.020521 -0.23163401 -0.28940701
-0.020318285 -0.23174986 -0.28940567
-0.020115376 -0.23171462 -0.28942227
-0.019850833 -0.23170133 -0.28942832
-0.019730125 -0.23168236 -0.28943589
-0.019487124 -0.23169163 -0.28944001
-0.01928946 -0.23168784 -0.28945091
-0.019079728 -0.23171464 -0.28944018
-0.018890167 -0.2317155 -0.28944984
-0.018659143 -0.2316927 -0.28945813
-0.01845625 -0.23170224 -0.28947651
-0.018282101 -0.231691 -0.28947088
-0.018114584 -0.23168565 -0.28945497
-0.017906331 -0.2317 -0.28941754
-0.017789667 -0.23170201 -0.289404
-0.015494 -0.23167734 -0.28941166
-0.015383333 -0.231677 -0.28950167
-0.023863332 -0.23148566 -0.28959
-0.023706499 -0.23148918 -0.28956562
-0.02345575 -0.23149063 -0.28951502
-0.023281857 -0.23148327 -0.28950429
-0.023116499 -0.23150332 -0.28949267
-0.022943333 -0.23151298 -0.28946665
-0.0226976 -0.23152396 -0.28946435
-0.022539001 -0.231501 -0.28944248
-0.022301333 -0.2314921 -0.28944701
-0.022081273 -0.23148537 -0.28942573
-0.021944776 -0.23148809 -0.28943199
-0.021693999 -0.231498 -0.28941798
-0.021483749 -0.231529 -0.28940424
-0.020537499 -0.2315625 -0.2894015
-0.020271 -0.23152326 -0.28940225
-0.020001 -0.23159 -0.28942001
-0.019867999 -0.23153874 -0.28941727
-0.019733001 -0.23150799 -0.28941655
-0.01950575 -0.23150149 -0.28944349
-0.019287357 -0.23148249 -0.28943202
-0.019085556 -0.23149112 -0.28944033
-0.018945334 -0.23149748 -0.28943798
-0.0186822 -0.2315232 -0.28945047
-0.018485125 -0.23151301 -0.28944987
-0.018320501 -0.231519 -0.28946513
-0.018125668 -0.23151056 -0.2894229
-0.017933199 -0.231511 -0.28940982
-0.017743001 -0.23150425 -0.28940424
-0.015374999 -0.2314975 -0.28948653
-0.024040001 -0.23124 -0.28959599
-0.023870999 -0.23131651 -0.2895765
-0.023720499 -0.23131461 -0.28954279
-0.0234625 -0.23130223 -0.28952473
-0.023286875 -0.23128524 -0.28949922
-0.023106501 -0.23128833 -0.28946635
-0.022932 -0.231297 -0.28947067
-0.022687266 -0.2313088 -0.2894403
-0.022530332 -0.23132168 -0.289435
-0.022296999 -0.23131682 -0.28943747
-0.022092219 -0.23130955 -0.28941312
-0.021930002 -0.23128185 -0.2894201
-0.021684501 -0.231318 -0.289417
-0.021574 -0.23136599 -0.28940201
-0.019672999 -0.23131466 -0.28941366
-0.019497167 -0.23132215 -0.28942499
-0.019293636 -0.23130649 -0.28942898
-0.019075112 -0.23127566 -0.28942096
-0.018933998 -0.231282 -0.28943485
-0.018680334 -0.23129967 -0.28944167
-0.018486332 -0.23130499 -0.28945568
-0.018303111 -0.23131257 -0.28945634
-0.018123584 -0.23130886 -0.28941181
-0.017907999 -0.23128524 -0.28940499
-0.017766999 -0.231271 -0.28940201
-0.015477 -0.231353 -0.28940451
-0.015366 -0.231318 -0.28947234
-0.025141001 -0.23103701 -0.28959799
-0.024513001 -0.231067 -0.28959399
-0.024079332 -0.23110569 -0.2895925
-0.023860665 -0.23110099 -0.28955451
-0.023699669 -0.23111492 -0.28952906
-0.023453832 -0.23112249 -0.289511
-0.023303285 -0.23110914 -0.28949571
-0.023087 -0.23108801 -0.28946081
-0.022922002 -0.23108201 -0.28943932
-0.022676332 -0.23109306 -0.28943348
-0.022519665 -0.231106 -0.28941765
-0.022284916 -0.23110847 -0.289419
-0.022094375 -0.23114425 -0.28940701
-0.019664001 -0.231135 -0.28940499
-0.019468667 -0.23115499 -0.28941166
-0.019257223 -0.2311509 -0.28942022
-0.019196 -0.23105299 -0.28942001
-0.018911334 -0.23111401 -0.28941801
-0.018668445 -0.2310838 -0.28944832
-0.018498002 -0.23109972 -0.28944513
-0.018311184 -0.23108937 -0.28944656
-0.018114613 -0.2311154 -0.2894237
-0.017858336 -0.23113783 -0.28940916
-0.01769218 -0.23112036 -0.28941357
-0.017555 -0.231068 -0.28940201
-0.015328199 -0.2310884 -0.28949499
-0.025138 -0.230965 -0.28959399
-0.024509 -0.230995 -0.28959599
-0.024225 -0.230864 -0.28959799
-0.024077429 -0.23084615 -0.28958711
-0.02386 -0.23089862 -0.2895472
-0.0237271 -0.23088908 -0.28953463
-0.023493776 -0.23090678 -0.28950667
-0.023322999 -0.23091316 -0.28948399
-0.023132626 -0.23091587 -0.28946877
-0.022911999 -0.230902 -0.28945601
-0.022682749 -0.23087709 -0.28942779
-0.022551 -0.23088467 -0.28943518
-0.022293428 -0.23091386 -0.28940773
-0.022018 -0.23090801 -0.28940099
-0.019192001 -0.23098101 -0.28941301
-0.018678199 -0.23088118 -0.28941581
-0.018545875 -0.23088326 -0.28941739
-0.0183085 -0.23087974 -0.28942475
-0.018097928 -0.23089921 -0.28941706
-0.017872501 -0.23092601 -0.2894125
-0.017747335 -0.23091 -0.28941047
-0.015286749 -0.23088063 -0.28949213
-0.015131 -0.23081949 -0.2895855
-0.025187999 -0.230637 -0.28958899
-0.024870999 -0.230609 -0.28958899
-0.024662253 -0.23069899 -0.28959775
-0.024462668 -0.230663 -0.28959832
-0.024284167 -0.23071833 -0.28959021
-0.024126712 -0.23070963 -0.28957501
-0.023889501 -0.23069951 -0.28952849
-0.02372917 -0.23068027 -0.28951716
-0.023483111 -0.23069133 -0.28948754
-0.023312166 -0.23069799 -0.28947732
-0.023112558 -0.23071045 -0.28945234
-0.022903332 -0.23072232 -0.28943235
-0.022674 -0.2306975 -0.28941488
-0.022542501 -0.2307055 -0.28941324
-0.022244999 -0.230754 -0.28940299
-0.018614 -0.230693 -0.28940248
-0.018273499 -0.23070125 -0.28941274
-0.018136 -0.23074949 -0.28941298
-0.017836001 -0.230766 -0.28940099
-0.015243399 -0.2306904 -0.28949779
-0.0151715 -0.23067799 -0.289561
-0.025115002 -0.2304894 -0.2895864
-0.024907665 -0.23048835 -0.28958067
-0.024664819 -0.23045664 -0.28958383
-0.024483874 -0.23047526 -0.28958401
-0.024302751 -0.23049301 -0.28958273
-0.024108389 -0.23051503 -0.28956854
-0.023879999 -0.23052 -0.28952268
-0.023712333 -0.23048955 -0.28950208
-0.023494143 -0.23048712 -0.28947657
-0.023325 -0.23047262 -0.28946587
-0.023101779 -0.23049644 -0.28943968
-0.022895001 -0.230545 -0.2894125
-0.022666875 -0.23055463 -0.28940776
-0.022581749 -0.2305035 -0.28941524
-0.018608 -0.230583 -0.289406
-0.018285334 -0.23056634 -0.28940633
-0.0152635 -0.2304955 -0.2894105
-0.015192499 -0.2305 -0.2895245
-0.025419999 -0.230267 -0.28959301
-0.025334999 -0.230271 -0.28959203
-0.025106223 -0.23031732 -0.28957078
-0.024921 -0.23032068 -0.28956136
-0.024657598 -0.2303036 -0.28956392
-0.024505308 -0.230271 -0.28955996
-0.024356665 -0.23028566 -0.2895515
-0.024132276 -0.23029709 -0.28954071
-0.023932001 -0.23030549 -0.28951517
-0.023717636 -0.23031427 -0.28948528
-0.023500498 -0.23029724 -0.28946677
-0.023312142 -0.23028712 -0.28945428
-0.023091555 -0.23028153 -0.2894187
-0.022879999 -0.230257 -0.28941351
-0.022577167 -0.23030567 -0.28942019
-0.022219 -0.230253 -0.28940201
-0.015184333 -0.230321 -0.28949866
-0.025707999 -0.230143 -0.28959599
-0.025424249 -0.230103 -0.289592
-0.025325999 -0.23009102 -0.28958467
-0.025096111 -0.23010302 -0.28954422
-0.024910167 -0.2301055 -0.28955033
-0.024663081 -0.23012316 -0.28954124
-0.024509801 -0.23009758 -0.28953987
-0.024342401 -0.23008621 -0.28951898
-0.024122613 -0.2300836 -0.28950781
-0.023921333 -0.23009133 -0.28949749
-0.023701668 -0.23010798 -0.28946277
-0.023491835 -0.23011917 -0.28944266
-0.023326375 -0.23011276 -0.28943872
-0.023122501 -0.23009799 -0.28941974
-0.022935251 -0.23007575 -0.28940651
-0.022564599 -0.2301054 -0.2894088
-0.0151494 -0.23011661 -0.2895214
-0.025695499 -0.22989151 -0.28958601
-0.025314333 -0.22987533 -0.28959098
-0.025084555 -0.22988701 -0.28954968
-0.024898665 -0.22989017 -0.28954849
-0.024653085 -0.22990908 -0.28951108
-0.024500933 -0.22991839 -0.28952542
-0.0243444 -0.22991359 -0.28950879
-0.024105569 -0.22988872 -0.28949827
-0.023911333 -0.229876 -0.28947318
-0.023690583 -0.22989215 -0.28945479
-0.023480833 -0.22990334 -0.2894375
-0.023306111 -0.22990768 -0.28941619
-0.023112997 -0.22991852 -0.28941417
-0.022992 -0.22993 -0.289404
-0.015164667 -0.22989066 -0.28942668
-0.026009001 -0.229623 -0.28958899
-0.025846668 -0.22970533 -0.28958866
-0.0257155 -0.2296945 -0.28955802
-0.025463 -0.2296465 -0.2895875
-0.025357401 -0.2297152 -0.2895872
-0.025065375 -0.22968088 -0.28955087
-0.024888834 -0.22967617 -0.28952646
-0.024646092 -0.22969952 -0.28951308
-0.024497749 -0.22969951 -0.28949469
-0.024329834 -0.22971366 -0.28948516
-0.024111375 -0.22971579 -0.28947076
-0.023903251 -0.2296975 -0.28944451
-0.023679666 -0.22967678 -0.2894465
-0.023470668 -0.22968799 -0.28942135
-0.023336666 -0.22968702 -0.28941819
-0.023096399 -0.22971721 -0.2894088
-0.015153001 -0.22967367 -0.28944066
-0.026004 -0.229515 -0.2895675
-0.025935799 -0.2294838 -0.28958178
-0.025722802 -0.22950959 -0.2895678
-0.025455998 -0.2295035 -0.28957519
-0.025339166 -0.22951533 -0.28957015
-0.025087498 -0.22951569 -0.28953502
-0.024903398 -0.22948921 -0.28952318
-0.024645999 -0.2294769 -0.28948087
-0.024520133 -0.22948679 -0.28947783
-0.024344223 -0.22949736 -0.28945845
-0.024094887 -0.22950989 -0.28945315
-0.0238935 -0.22951783 -0.28944981
-0.023673574 -0.22950271 -0.28942743
-0.023525 -0.229507 -0.28943449
-0.023355717 -0.22949256 -0.28942069
-0.023064001 -0.229561 -0.28940099
-0.015141999 -0.22949199 -0.28947198
-0.026665 -0.229228 -0.28959599
-0.02633875 -0.229306 -0.289588
-0.026157668 -0.229325 -0.28958866
-0.025891908 -0.22928356 -0.28958252
-0.025710598 -0.2292656 -0.28955299
-0.025445834 -0.22928949 -0.28955886
-0.025328333 -0.22930086 -0.28955367
-0.025088333 -0.22931267 -0.28950897
-0.024910556 -0.2293161 -0.28952053
-0.024637498 -0.2292975 -0.2894665
-0.024503183 -0.22929762 -0.28946444
-0.024333 -0.22928143 -0.28945479
-0.024084611 -0.22929467 -0.2894322
-0.023884499 -0.22933826 -0.28943598
-0.023688998 -0.22930613 -0.28942037
-0.023555333 -0.22932701 -0.28941932
-0.0233512 -0.22934279 -0.28940839
-0.015137 -0.229385 -0.28946
-0.026660999 -0.229156 -0.28959599
-0.026528999 -0.229127 -0.28959599
-0.026312999 -0.22914401 -0.2895965
-0.026146332 -0.22910933 -0.28959367
-0.025895065 -0.22911733 -0.28956836
-0.0257135 -0.22909948 -0.28955951
-0.025435334 -0.22907418 -0.28954166
-0.025317499 -0.22908519 -0.28954384
-0.025077334 -0.22909699 -0.28950381
-0.024951836 -0.22910017 -0.28950319
-0.024677726 -0.22912103 -0.28945196
-0.024513466 -0.22911753 -0.28946385
-0.024324166 -0.22910284 -0.28943765
-0.02407 -0.22908437 -0.28942424
-0.023932001 -0.22901601 -0.28940701
-0.023548499 -0.2291835 -0.28940651
-0.026688248 -0.22888675 -0.28958851
-0.026365001 -0.228856 -0.28959751
-0.026135668 -0.228894 -0.28957966
-0.025886813 -0.2289148 -0.28955978
-0.025727624 -0.22891 -0.28954363
-0.025435001 -0.22890599 -0.28953499
-0.025327399 -0.22889681 -0.2895236
-0.025066333 -0.22888149 -0.28949603
-0.024942333 -0.22888534 -0.28946748
-0.02468322 -0.22889765 -0.28945002
-0.024507277 -0.22891098 -0.28945291
-0.024315223 -0.22892311 -0.28943035
-0.024075666 -0.22891133 -0.28942057
-0.02394275 -0.22887175 -0.28941077
-0.023798 -0.22887 -0.28941801
-0.015054 -0.22887699 -0.28943601
-0.026693 -0.22873513 -0.28958556
-0.026443001 -0.22866499 -0.28959599
-0.026355334 -0.22867483 -0.28958648
-0.026124666 -0.228678 -0.28957435
-0.025881266 -0.22869416 -0.28955874
-0.025725 -0.22870344 -0.28953555
-0.025442332 -0.22871333 -0.28952333
-0.02533111 -0.22872335 -0.28951037
-0.025056999 -0.2287015 -0.289489
-0.02493275 -0.2287055 -0.28947249
-0.024659375 -0.2286925 -0.28945124
-0.024516668 -0.22869512 -0.28944644
-0.024325917 -0.22870457 -0.28944942
-0.024067665 -0.22871998 -0.28942284
-0.023961198 -0.2287136 -0.28940821
-0.023765249 -0.22871125 -0.28942326
-0.015011 -0.228733 -0.28942299
-0.026861001 -0.228489 -0.289599
-0.0266685 -0.22849962 -0.2895959
-0.0264684 -0.22854719 -0.28959638
-0.026335666 -0.22851898 -0.28959185
-0.026115499 -0.228499 -0.28956401
-0.025870467 -0.22847873 -0.28954563
-0.025713891 -0.22848791 -0.2895261
-0.025431 -0.228498 -0.28951699
-0.025320001 -0.22850779 -0.28950432
-0.025047833 -0.22852218 -0.289482
-0.024922999 -0.228525 -0.28947449
-0.0247094 -0.22851999 -0.2894626
-0.024516411 -0.22848284 -0.28943941
-0.024314666 -0.228489 -0.28944892
-0.024056068 -0.22850391 -0.28942394
-0.02392425 -0.22853076 -0.289417
-0.023756001 -0.22853276 -0.28941175
-0.026692223 -0.22829233 -0.28959167
-0.026469501 -0.22828349 -0.28959
-0.026335167 -0.22829117 -0.28958681
-0.026105335 -0.22831833 -0.28958234
-0.025876625 -0.22829774 -0.28955626
-0.025714334 -0.22829546 -0.28953278
-0.025419667 -0.22828202 -0.28951702
-0.025308998 -0.22829199 -0.28950056
-0.0250438 -0.22832 -0.28948942
-0.024923714 -0.22829857 -0.28948215
-0.024684502 -0.22831984 -0.28947115
-0.024516616 -0.22830537 -0.2894541
-0.024294399 -0.22828829 -0.2894491
-0.024056584 -0.22828583 -0.28943959
-0.02395211 -0.22829512 -0.28941634
-0.023771999 -0.228369 -0.289406
-0.014956 -0.22823501 -0.28940499
-0.026878402 -0.228073 -0.2895914
-0.026690701 -0.22807661 -0.28958911
-0.026466142 -0.2280753 -0.28958172
-0.026332164 -0.22809799 -0.28957644
-0.026091501 -0.2280665 -0.28959101
-0.025866335 -0.22811776 -0.28957275
-0.025726913 -0.22811963 -0.28955057
-0.025412001 -0.228104 -0.289491
-0.025290001 -0.22808601 -0.28950524
-0.025058001 -0.22808801 -0.28949466
-0.024930334 -0.22809322 -0.28948855
-0.024687801 -0.22811639 -0.28947321
-0.024505632 -0.22811274 -0.28946325
-0.0243036 -0.22811361 -0.2894614
-0.024042636 -0.22807808 -0.28942716
-0.023968201 -0.228092 -0.28941682
-0.014952 -0.228163 -0.28940299
-0.027054001 -0.22792375 -0.2895945
-0.026861779 -0.22793089 -0.28958702
-0.026695499 -0.22789685 -0.28957871
-0.026488334 -0.22790419 -0.28957966
-0.026344446 -0.22789635 -0.28958523
-0.026086001 -0.22795901 -0.28959399
-0.025860364 -0.22790809 -0.28956956
-0.025748497 -0.2279011 -0.289554
-0.025518399 -0.2279346 -0.28950858
-0.025309874 -0.22790353 -0.28950614
-0.025047999 -0.227908 -0.28950548
-0.024918668 -0.22787756 -0.28949034
-0.024732666 -0.22788 -0.28948233
-0.02450875 -0.22790393 -0.28946847
-0.024292845 -0.22790752 -0.28945222
-0.024054002 -0.22790584 -0.28942028
-0.023946751 -0.22786327 -0.28940549
-0.0149515 -0.2279055 -0.28944001
-0.026863582 -0.22769992 -0.28957167
-0.026686667 -0.2277171 -0.28957298
-0.026520833 -0.22772133 -0.28957632
-0.026379 -0.227696 -0.289581
-0.025861777 -0.227685 -0.28956577
-0.025746418 -0.22769211 -0.28955391
-0.025583332 -0.22770132 -0.28951299
-0.025306584 -0.22771414 -0.28950015
-0.025039336 -0.22772866 -0.28949133
-0.024909668 -0.22769815 -0.28948036
-0.0247235 -0.22770101 -0.289473
-0.024509111 -0.22768389 -0.28946972
-0.024311231 -0.2277005 -0.28945586
-0.024068726 -0.22770303 -0.28941998
-0.0239668 -0.22776079 -0.289408
-0.01494225 -0.22772574 -0.28943524
-0.026854301 -0.2274901 -0.28958291
-0.026675444 -0.2275019 -0.28956696
-0.026509501 -0.22750551 -0.28957915
-0.026331922 -0.22751477 -0.28957334
-0.026063666 -0.22752734 -0.28957602
-0.025846286 -0.22749101 -0.28954872
-0.025735587 -0.22747648 -0.28954551
-0.025572667 -0.22748667 -0.28950533
-0.025329554 -0.22749734 -0.28948891
-0.025111498 -0.22751017 -0.28948432
-0.024900889 -0.22751944 -0.28946957
-0.024713332 -0.227521 -0.28948298
-0.024490716 -0.22748935 -0.28946832
-0.024308749 -0.22747849 -0.28945783
-0.024075599 -0.22749138 -0.28943437
-0.023950875 -0.22746563 -0.28941464
-0.026879113 -0.22730586 -0.28958499
-0.026685556 -0.22729145 -0.28957555
-0.026512573 -0.22727899 -0.28957728
-0.026307132 -0.22730538 -0.28957111
-0.026053667 -0.22731201 -0.28955001
-0.025855858 -0.22732486 -0.28953698
-0.02573511 -0.22729285 -0.2895261
-0.025563 -0.22730601 -0.28950852
-0.025318556 -0.22728211 -0.289482
-0.025100334 -0.22729467 -0.28948116
-0.024888776 -0.22730245 -0.2894769
-0.024702666 -0.227305 -0.289471
-0.024496565 -0.22731429 -0.28947431
-0.024299249 -0.22729875 -0.28946126
-0.024066124 -0.22728363 -0.28943816
-0.023931332 -0.22728628 -0.28941634
-0.027076874 -0.2271025 -0.28958914
-0.026870912 -0.22712909 -0.28958434
-0.026717875 -0.22709888 -0.28957298
-0.026522556 -0.22707377 -0.28955978
-0.0262962 -0.22708991 -0.28955969
-0.026042668 -0.22709668 -0.28954032
-0.025853334 -0.22710884 -0.28952917
-0.025733002 -0.22711767 -0.28951702
-0.025554666 -0.22712867 -0.28948998
-0.025308667 -0.22710098 -0.28948799
-0.025088668 -0.22707851 -0.28948069
-0.024878442 -0.22708766 -0.28946313
-0.024691001 -0.227089 -0.28947634
-0.024483411 -0.22711223 -0.28946647
-0.024298152 -0.2271129 -0.28946561
-0.024083141 -0.22710899 -0.28944299
-0.023909286 -0.22709112 -0.28941745
-0.027297501 -0.22681549 -0.28959501
-0.027035668 -0.22689801 -0.28958753
-0.026874363 -0.22691274 -0.28958425
-0.026728444 -0.2269017 -0.28956157
-0.026513668 -0.22689433 -0.28954718
-0.0263022 -0.22688802 -0.28956109
-0.026113333 -0.22688001 -0.28955051
-0.025843667 -0.22689484 -0.28950134
-0.025721733 -0.22690187 -0.28951499
-0.025542334 -0.22691166 -0.28950068
-0.025298778 -0.22692068 -0.28949535
-0.025162499 -0.226896 -0.28947851
-0.024900751 -0.22690676 -0.28946638
-0.024679333 -0.22687334 -0.28947699
-0.024482068 -0.22689132 -0.28947079
-0.024301268 -0.2269022 -0.28946555
-0.0240895 -0.22691101 -0.28945768
-0.023946734 -0.22692342 -0.2894274
-0.027291166 -0.22667384 -0.28957614
-0.027048856 -0.22668041 -0.28958726
-0.026890799 -0.22668231 -0.28957781
-0.026721917 -0.22670108 -0.2895644
-0.026516626 -0.22672276 -0.28955549
-0.026313273 -0.22670785 -0.28956154
-0.02610475 -0.2267005 -0.28953725
-0.025831997 -0.22667898 -0.28950188
-0.025710599 -0.22668619 -0.28950921
-0.025531666 -0.22669633 -0.28948835
-0.025288112 -0.22670513 -0.28948432
-0.025152335 -0.22671501 -0.28949401
-0.024909299 -0.22673258 -0.28948069
-0.024734501 -0.22669275 -0.28946322
-0.024464769 -0.22668728 -0.28947201
-0.024304461 -0.22669093 -0.28946355
-0.024108 -0.22668612 -0.28945363
-0.023914553 -0.22670895 -0.28942344
-0.027301142 -0.22650501 -0.28957897
-0.027064001 -0.22649975 -0.28957149
-0.026895 -0.22649667 -0.28957734
-0.026717693 -0.22647968 -0.28955907
-0.0265425 -0.22649567 -0.28954968
-0.026310267 -0.22651209 -0.28953886
-0.026095001 -0.22652102 -0.28953698
-0.025848001 -0.22649699 -0.28951198
-0.025713462 -0.22649805 -0.28950456
-0.025520334 -0.22648035 -0.28948566
-0.025277112 -0.22649023 -0.28948081
-0.025140667 -0.22649901 -0.28949901
-0.024910221 -0.22650988 -0.28947154
-0.0247245 -0.22651283 -0.28947183
-0.024469333 -0.22651319 -0.28947002
-0.024295446 -0.22649367 -0.28945673
-0.024121625 -0.22648837 -0.28944138
-0.02392159 -0.22649224 -0.28941989
-0.023757333 -0.22649968 -0.28940365
-0.027286999 -0.22631155 -0.28957301
-0.027055167 -0.226321 -0.28956318
-0.02693175 -0.22631775 -0.28956363
-0.026728898 -0.22629771 -0.28955191
-0.026548125 -0.22627287 -0.28953037
-0.026299533 -0.22629718 -0.2895236
-0.026101198 -0.2263196 -0.28952819
-0.0258785 -0.2262955 -0.2895115
-0.025710413 -0.22632134 -0.28949976
-0.02551 -0.226299 -0.2895
-0.02526 -0.22628438 -0.28947499
-0.025130002 -0.22628398 -0.28948566
-0.024899222 -0.22629398 -0.28946364
-0.024713835 -0.22629733 -0.28946164
-0.024461459 -0.226321 -0.28945225
-0.02431515 -0.22631367 -0.28944823
-0.0241505 -0.22629726 -0.28946427
-0.023956556 -0.22628877 -0.28941411
-0.023786001 -0.22624899 -0.28940299
-0.027848 -0.22606599 -0.289592
-0.027446 -0.226013 -0.28959799
-0.027302332 -0.22607958 -0.28958619
-0.027044334 -0.22610651 -0.2895495
-0.026912 -0.22611144 -0.28955844
-0.02674718 -0.22611609 -0.28953809
-0.026544668 -0.22610199 -0.28953353
-0.026282284 -0.22608685 -0.28953046
-0.026155001 -0.22608833 -0.28953668
-0.025908999 -0.22609532 -0.28951082
-0.025696501 -0.22611001 -0.28950202
-0.025501 -0.22612034 -0.28949431
-0.025264144 -0.226109 -0.28947899
-0.025121 -0.22610401 -0.28947449
-0.024888223 -0.22607923 -0.28945255
-0.024703002 -0.22608232 -0.28944567
-0.024455503 -0.22609915 -0.28944471
-0.024304735 -0.22611073 -0.28943047
-0.024142167 -0.22611833 -0.28944683
-0.0239645 -0.22614601 -0.28940651
-0.028597999 -0.225878 -0.289599
-0.028278666 -0.225899 -0.289579
-0.027468499 -0.2259005 -0.28959548
-0.027299142 -0.22589099 -0.28957921
-0.027032832 -0.22589 -0.28955254
-0.026900889 -0.22589578 -0.28955176
-0.026731083 -0.22590841 -0.2895259
-0.026535112 -0.22592109 -0.28953612
-0.026280915 -0.2259026 -0.28951126
-0.026143 -0.22587299 -0.28953934
-0.025897333 -0.22587951 -0.28951636
-0.025684947 -0.22589368 -0.289509
-0.025490334 -0.22590466 -0.28948
-0.025262142 -0.22592445 -0.2894631
-0.025145803 -0.22590919 -0.28945619
-0.024879167 -0.22589965 -0.28944635
-0.024693999 -0.22590226 -0.289437
-0.024448909 -0.22588982 -0.28943238
-0.024315923 -0.22588938 -0.28941235
-0.024132 -0.22590417 -0.28941765
-0.028253499 -0.22566473 -0.28958797
-0.027897665 -0.22570133 -0.28959334
-0.027669333 -0.22570567 -0.28958935
-0.027482999 -0.22564401 -0.289599
-0.027310666 -0.22571629 -0.28956154
-0.027047999 -0.225706 -0.2895675
-0.026916251 -0.22567917 -0.28954926
-0.026719416 -0.22569233 -0.28953019
-0.026523665 -0.22570491 -0.28953636
-0.026275141 -0.22571754 -0.2894935
-0.0261345 -0.225693 -0.2895245
-0.025888501 -0.2257005 -0.28950599
-0.025690135 -0.22567792 -0.28949493
-0.025537165 -0.22568549 -0.28947851
-0.025261333 -0.22569685 -0.28945884
-0.025144333 -0.22570901 -0.28944752
-0.024869777 -0.22571945 -0.28944767
-0.024684666 -0.22572351 -0.2894325
-0.024448998 -0.22570182 -0.28943965
-0.024335831 -0.22568308 -0.28941551
-0.024123251 -0.22572476 -0.28940424
-0.028524168 -0.22549833 -0.28958198
-0.028232999 -0.22550249 -0.28958225
-0.027886 -0.225485 -0.28959399
-0.027658001 -0.22548901 -0.28958967
-0.027448168 -0.22550535 -0.28958249
-0.027290724 -0.22551505 -0.28956521
-0.027038669 -0.22552633 -0.28956267
-0.026906876 -0.22549888 -0.28954715
-0.026709182 -0.22548383 -0.28952163
-0.026513221 -0.22549088 -0.28951865
-0.026275666 -0.22550523 -0.2894935
-0.026160168 -0.22551501 -0.28949833
-0.02592225 -0.22553775 -0.28948376
-0.025700415 -0.22549732 -0.28947976
-0.0255275 -0.22550474 -0.2894845
-0.025249166 -0.2254795 -0.28947535
-0.025132334 -0.22549218 -0.28945616
-0.024891168 -0.2255035 -0.28943399
-0.024714001 -0.22550657 -0.2894313
-0.024440557 -0.2255231 -0.28941968
-0.024335332 -0.22548567 -0.2894105
-0.024103334 -0.22552101 -0.28940299
-0.0238941 -0.22546868 -0.28940618
-0.028844001 -0.225215 -0.28959301
-0.028671166 -0.22529465 -0.28959134
-0.028503222 -0.22530712 -0.28957433
-0.028270667 -0.22532068 -0.28957966
-0.028109364 -0.22531371 -0.28958389
-0.027891716 -0.22527929 -0.28958559
-0.027647333 -0.22527401 -0.28958166
-0.027438169 -0.22529066 -0.28956199
-0.027280334 -0.22530049 -0.28954661
-0.027029 -0.22531335 -0.28952566
-0.026918998 -0.22532709 -0.28952441
-0.026710333 -0.22529684 -0.28951249
-0.026503332 -0.22527654 -0.2894913
-0.026264502 -0.22528975 -0.28948852
-0.026149333 -0.22530033 -0.28948566
-0.02595 -0.2253 -0.28950334
-0.025690721 -0.22531734 -0.28948569
-0.025517667 -0.22532485 -0.28948918
-0.025238501 -0.22529851 -0.28949127
-0.025120832 -0.2252755 -0.28946033
-0.024914667 -0.22528701 -0.28940833
-0.024733428 -0.22530213 -0.28941685
-0.024465799 -0.2253038 -0.28942248
-0.024335667 -0.22531551 -0.28941497
-0.0240956 -0.22531319 -0.289419
-0.023844715 -0.22531129 -0.28941229
-0.023739001 -0.225348 -0.28940201
-0.02890775 -0.22510426 -0.28958175
-0.028641835 -0.2250825 -0.28956833
-0.028492443 -0.2250919 -0.28956169
-0.028283834 -0.22510518 -0.28955117
-0.02810967 -0.22511001 -0.28958157
-0.027929889 -0.22512166 -0.28958011
-0.027690666 -0.22508366 -0.28956631
-0.027439332 -0.22512233 -0.28954366
-0.02729794 -0.22507942 -0.28953001
-0.027107665 -0.22509634 -0.28951684
-0.026921554 -0.22510444 -0.28950286
-0.026716214 -0.22511108 -0.28949407
-0.026494168 -0.22509666 -0.28948316
-0.0262531 -0.2250891 -0.28947309
-0.026148001 -0.22507456 -0.28945956
-0.025939332 -0.22508566 -0.289482
-0.025689624 -0.22510488 -0.28948462
-0.025529625 -0.22509989 -0.28947765
-0.025230333 -0.22511967 -0.28946698
-0.025111999 -0.22509675 -0.2894415
-0.0248632 -0.225088 -0.28941759
-0.024743998 -0.2250755 -0.28941482
-0.024432333 -0.225091 -0.28941467
-0.024290835 -0.225127 -0.28940484
-0.024086002 -0.22512679 -0.2894128
-0.023880001 -0.22515158 -0.289406
-0.0292105 -0.2248725 -0.28959
-0.029157501 -0.2248745 -0.289592
-0.028898334 -0.22492468 -0.28957501
-0.028670285 -0.22491273 -0.28957003
-0.028481999 -0.22487757 -0.28954646
-0.028272668 -0.2248895 -0.28954884
-0.02809933 -0.22489549 -0.28956315
-0.027918888 -0.22490613 -0.28957644
-0.027708335 -0.224914 -0.28956884
-0.027447999 -0.22492667 -0.28954801
-0.027287923 -0.22489646 -0.28952593
-0.027097501 -0.2248825 -0.28949165
-0.026911333 -0.22489034 -0.28948045
-0.026700666 -0.224903 -0.28946808
-0.026485331 -0.22491775 -0.28947079
-0.026269572 -0.22490773 -0.28946656
-0.026153285 -0.22488987 -0.28944397
-0.025931001 -0.224907 -0.28946799
-0.025684934 -0.22488506 -0.2894662
-0.025527665 -0.22489364 -0.28946012
-0.025244333 -0.224903 -0.28945497
-0.025134109 -0.22491367 -0.28943121
-0.024867399 -0.224913 -0.28941959
-0.024745001 -0.22490834 -0.28941032
-0.024425 -0.22494701 -0.2894035
-0.024057001 -0.224969 -0.289404
-0.029248334 -0.22469532 -0.28958598
-0.029121837 -0.22467399 -0.28957751
-0.028888 -0.22470982 -0.28956217
-0.028669285 -0.22472814 -0.28955501
-0.02850375 -0.22469611 -0.28953511
-0.0282536 -0.22468939 -0.28953582
-0.028088748 -0.22468032 -0.28954628
-0.027908333 -0.22469176 -0.28955445
-0.027697667 -0.22469898 -0.28955534
-0.027437666 -0.22471301 -0.28952834
-0.02729094 -0.2247209 -0.28949553
-0.027119001 -0.22471367 -0.28948566
-0.026910698 -0.22467498 -0.28946233
-0.026690198 -0.22468832 -0.2894471
-0.026475668 -0.22470467 -0.28943813
-0.026253555 -0.22471499 -0.28944179
-0.026136 -0.22472671 -0.28942141
-0.025922 -0.22472699 -0.28945068
-0.025667462 -0.22468308 -0.28943139
-0.025517888 -0.22467989 -0.28942531
-0.025234999 -0.22468901 -0.28942499
-0.025123443 -0.22469899 -0.28941947
-0.0248545 -0.224786 -0.28940648
-0.030436 -0.224415 -0.28959399
-0.030091001 -0.22442999 -0.28959799
-0.029473668 -0.22448899 -0.28959566
-0.029277403 -0.22449419 -0.28957218
-0.029122446 -0.22448379 -0.28954566
-0.028877832 -0.22449566 -0.28953317
-0.028670667 -0.22450285 -0.28952566
-0.028503908 -0.22452345 -0.28951988
-0.028286001 -0.2245065 -0.28951585
-0.028080625 -0.22450261 -0.28951812
-0.027903445 -0.2244778 -0.28952208
-0.027687833 -0.2244855 -0.28952551
-0.027426668 -0.22449732 -0.2895157
-0.027291866 -0.22450933 -0.28948173
-0.027183501 -0.22452132 -0.28945735
-0.026925445 -0.22450632 -0.28944734
-0.026691401 -0.2245003 -0.28943652
-0.026487201 -0.22448859 -0.28942162
-0.026237998 -0.22451037 -0.28941226
-0.026095251 -0.22453 -0.28942201
-0.025912 -0.22451366 -0.28941765
-0.025676666 -0.2245096 -0.28941566
-0.030662334 -0.22426267 -0.28958866
-0.03050191 -0.22426572 -0.28957272
-0.030297501 -0.22427733 -0.28957298
-0.030087499 -0.224263 -0.28958848
-0.029736999 -0.224233 -0.28959599
-0.029491615 -0.22431384 -0.28958067
-0.029279334 -0.22429968 -0.28954652
-0.029101284 -0.22429113 -0.28951517
-0.028903252 -0.22429974 -0.28950825
-0.028695123 -0.22427875 -0.28949624
-0.028516667 -0.22430123 -0.28949034
-0.028306248 -0.22432402 -0.28948474
-0.028108001 -0.22431619 -0.2894792
-0.027921222 -0.22430934 -0.28950018
-0.027706668 -0.22431834 -0.28950632
-0.0274892 -0.22426482 -0.28948078
-0.027282067 -0.22429562 -0.28945187
-0.027173333 -0.224307 -0.28943649
-0.026914634 -0.22432254 -0.28942835
-0.026692182 -0.22432055 -0.28941923
-0.026531333 -0.22431965 -0.28941265
-0.026070001 -0.224369 -0.289415
-0.025647834 -0.22433917 -0.28940618
-0.031020001 -0.22410233 -0.28957734
-0.030899666 -0.22408724 -0.28957722
-0.030656222 -0.22412157 -0.28955644
-0.030502249 -0.224096 -0.2895261
-0.03029 -0.2241005 -0.28953224
-0.030060001 -0.22407724 -0.28953776
-0.029908201 -0.22406968 -0.28957212
-0.029668333 -0.22409584 -0.28955898
-0.029507445 -0.2241056 -0.28953758
-0.029281598 -0.22410741 -0.28950921
-0.029116625 -0.22411864 -0.28948653
-0.0289295 -0.224103 -0.2894645
-0.028700251 -0.22408412 -0.28946036
-0.028507331 -0.22408867 -0.28944859
-0.028332001 -0.22409934 -0.28944483
-0.028109899 -0.2241189 -0.28942791
-0.027908916 -0.22412057 -0.28946543
-0.027750999 -0.22412901 -0.28947333
-0.027500002 -0.22409976 -0.28946099
-0.027276501 -0.22408548 -0.2894353
-0.0271606 -0.22410722 -0.2894184
-0.026913801 -0.22414501 -0.28940642
-0.026686251 -0.22418475 -0.28940475
-0.031264752 -0.22386363 -0.28957963
-0.031114997 -0.22388364 -0.28956035
-0.030883586 -0.22390032 -0.28951916
-0.03064689 -0.22390822 -0.28951421
-0.030493833 -0.22391766 -0.28950176
-0.03032475 -0.22393876 -0.28950325
-0.030082703 -0.22389989 -0.2894738
-0.029885907 -0.22388053 -0.28949571
-0.029724332 -0.22388299 -0.28947666
-0.029513614 -0.22389391 -0.28947335
-0.029262835 -0.22390999 -0.28946218
-0.029096888 -0.22391489 -0.28945002
-0.028922334 -0.22392701 -0.28942564
-0.028688716 -0.223912 -0.28941932
-0.028489286 -0.22389571 -0.28942013
-0.028312799 -0.22390039 -0.28941458
-0.028107001 -0.2239705 -0.28940898
-0.027899332 -0.22390717 -0.28942853
-0.027742667 -0.22391701 -0.28942201
-0.027510598 -0.22393541 -0.28943139
-0.0273274 -0.22390762 -0.2894102
-0.032359 -0.22360501 -0.28958401
-0.032049999 -0.223617 -0.28957599
-0.031889625 -0.22366962 -0.2895841
-0.031713501 -0.22371034 -0.28957519
-0.031433333 -0.22371882 -0.28956068
-0.031287078 -0.22371814 -0.28953978
-0.031106446 -0.22369544 -0.28951889
-0.030900365 -0.22368646 -0.28947136
-0.030674199 -0.22369568 -0.28946301
-0.030493461 -0.22369947 -0.2894583
-0.030357001 -0.22370799 -0.289442
-0.030085921 -0.22372609 -0.28945798
-0.029912271 -0.2237062 -0.2894496
-0.029716665 -0.22367167 -0.28940833
-0.029521123 -0.22370005 -0.28941467
-0.029274002 -0.22374433 -0.28941199
-0.029091334 -0.223774 -0.28941301
-0.027895501 -0.22372775 -0.28941327
-0.027575999 -0.223775 -0.289408
-0.032833502 -0.223442 -0.2895965
-0.03272425 -0.22347775 -0.28959274
-0.032480363 -0.22349954 -0.28957427
-0.032337427 -0.22348785 -0.28956369
-0.032098003 -0.223488 -0.28954098
-0.031888831 -0.22348352 -0.28954914
-0.0317045 -0.22349767 -0.28952616
-0.031455334 -0.22350501 -0.28949299
-0.031292442 -0.22351734 -0.2894834
-0.031139625 -0.22351862 -0.28948501
-0.030906498 -0.22348681 -0.28943452
-0.030722333 -0.22350568 -0.28942201
-0.030526625 -0.22352725 -0.2894195
-0.030366333 -0.22354166 -0.28940666
-0.030101834 -0.22355449 -0.28942016
-0.02990225 -0.22356412 -0.28941989
-0.033278249 -0.223222 -0.28959
-0.033091664 -0.2232347 -0.28957799
-0.03286982 -0.22329082 -0.28956366
-0.032716557 -0.22330165 -0.28955352
-0.032493252 -0.22331275 -0.28952676
-0.032357182 -0.223316 -0.28951982
-0.032116801 -0.22331659 -0.28951377
-0.0318745 -0.2232846 -0.28951889
-0.031695168 -0.22328584 -0.28948054
-0.031445667 -0.22329168 -0.28945866
-0.031294312 -0.22330873 -0.2894392
-0.031139366 -0.2233099 -0.28942502
-0.030912001 -0.22336525 -0.28940824
-0.034309998 -0.22302966 -0.28958869
-0.034130253 -0.22305049 -0.289592
-0.033915777 -0.22306244 -0.28958055
-0.033706572 -0.22307171 -0.28958431
-0.033537 -0.22311038 -0.28958109
-0.033306558 -0.22309443 -0.28955299
-0.033093598 -0.2230843 -0.28954336
-0.0328876 -0.2230911 -0.28950411
-0.032724727 -0.2230847 -0.28948736
-0.0324855 -0.22310209 -0.28945711
-0.032344501 -0.22311306 -0.28944945
-0.032095503 -0.22312017 -0.28946236
-0.031878598 -0.2231154 -0.28947058
-0.031688001 -0.22310874 -0.28944299
-0.031436332 -0.22307934 -0.28942299
-0.031314 -0.2231466 -0.2894074
-0.031106999 -0.223152 -0.28940865
-0.034840502 -0.2228335 -0.28959051
-0.034669165 -0.22286467 -0.289583
-0.034515142 -0.22289328 -0.28957
-0.034304876 -0.22290024 -0.28955451
-0.034129221 -0.22287478 -0.2895402
-0.033917066 -0.22288947 -0.28953686
-0.033702917 -0.22290027 -0.28954154
-0.033524666 -0.22290491 -0.28953227
-0.033309802 -0.22292352 -0.28949273
-0.0330869 -0.2229149 -0.28949347
-0.032877877 -0.22288263 -0.28944415
