# .PCD v0.7 - Point Cloud Data file format
VERSION 0.7
FIELDS x y z
SIZE 4 4 4
TYPE F F F
COUNT 1 1 1
WIDTH 1365
HEIGHT 1
VIEWPOINT 0 0 0 1 0 0 0
POINTS 1365
DATA ascii
-0.044927001 -0.077928998 -0.239005
-0.044923 -0.077850997 -0.23901901
-0.044921 -0.077775002 -0.23901799
-0.044918001 -0.077694997 -0.23901001
-0.044914 -0.077616997 -0.239014
-0.044911001 -0.077541001 -0.239022
-0.044907998 -0.077463001 -0.23901799
-0.044906002 -0.077384003 -0.239002
-0.044904001 -0.077302001 -0.238974
-0.044900998 -0.077223003 -0.23896299
-0.044898 -0.077146001 -0.238975
-0.044893999 -0.077069998 -0.23899101
-0.044891 -0.076994002 -0.238987
-0.044888001 -0.076915003 -0.238979
-0.044884998 -0.076837003 -0.23897301
-0.044881999 -0.076759003 -0.23897
-0.044879001 -0.076678999 -0.238966
-0.044876002 -0.076600999 -0.23896199
-0.044874001 -0.076522999 -0.23895399
-0.044870999 -0.076443002 -0.238948
-0.044868 -0.076366 -0.23893601
-0.044865001 -0.076288 -0.23893601
-0.044861998 -0.07621 -0.238939
-0.044859 -0.076131999 -0.23893499
-0.044856001 -0.076053999 -0.23892701
-0.044854 -0.075974002 -0.238919
-0.044849999 -0.075897999 -0.238923
-0.044847 -0.075822003 -0.23893499
-0.044844002 -0.075741999 -0.23893601
-0.044840999 -0.075663999 -0.238932
-0.044837002 -0.075588003 -0.238938
-0.044833999 -0.075510003 -0.23894
-0.044831 -0.075432003 -0.238934
-0.044828001 -0.075354002 -0.23893601
-0.044824999 -0.075276002 -0.238939
-0.044822 -0.075199999 -0.23893701
-0.044819001 -0.075120002 -0.238933
-0.044815999 -0.075043 -0.238931
-0.044813 -0.074965 -0.238925
-0.044810999 -0.074885003 -0.238911
-0.044808 -0.074804999 -0.238893
-0.044806 -0.074726 -0.238878
-0.044803999 -0.074646004 -0.23886199
-0.044801001 -0.074568003 -0.23886
-0.044797 -0.074492 -0.238866
-0.044794001 -0.074414 -0.238864
-0.044791002 -0.074335001 -0.238856
-0.044789001 -0.074257001 -0.23884
-0.044787001 -0.074176997 -0.23882499
-0.044783998 -0.074097998 -0.238811
-0.044783 -0.074015997 -0.238773
-0.044780999 -0.073935002 -0.238737
-0.044778999 -0.073856004 -0.238721
-0.044776998 -0.073774002 -0.238695
-0.044775002 -0.073694997 -0.23866101
-0.044773001 -0.073614001 -0.238637
-0.044771001 -0.073536001 -0.238628
-0.044767998 -0.073458001 -0.23862
-0.044764999 -0.073377997 -0.23860399
-0.044762999 -0.073298998 -0.23858599
-0.044760998 -0.073219001 -0.238572
-0.044757999 -0.073142 -0.23855799
-0.044755999 -0.073062003 -0.23853999
-0.044753999 -0.072982997 -0.238519
-0.044752002 -0.072903 -0.238497
-0.044748999 -0.072823003 -0.238483
-0.044746 -0.072746001 -0.238479
-0.044744 -0.072668001 -0.238471
-0.044741001 -0.072590001 -0.238463
-0.044737998 -0.072509997 -0.238447
-0.044736002 -0.072433002 -0.23843201
-0.044732999 -0.072352998 -0.238426
-0.04473 -0.072277002 -0.238424
-0.044727001 -0.072199002 -0.23842201
-0.044723999 -0.072121002 -0.238418
-0.044721998 -0.072043002 -0.238408
-0.044718999 -0.071965002 -0.238409
-0.044714998 -0.071887001 -0.238417
-0.044712 -0.071809001 -0.238415
-0.044709999 -0.071732 -0.238405
-0.044707 -0.071653999 -0.23839299
-0.044704001 -0.071574003 -0.238383
-0.044702001 -0.071496002 -0.23837399
-0.044698998 -0.071419001 -0.238368
-0.044695999 -0.071342997 -0.238372
-0.044691999 -0.071266003 -0.238392
-0.044686999 -0.07119 -0.238416
-0.044684 -0.071112998 -0.238428
-0.044679999 -0.071037002 -0.23844101
-0.044675998 -0.070963003 -0.238463
-0.044672001 -0.070886001 -0.238481
-0.044668 -0.070809998 -0.238497
-0.044663999 -0.070734002 -0.23852301
-0.044659998 -0.070657 -0.23854201
-0.044656999 -0.070580997 -0.238552
-0.044652998 -0.070505001 -0.238572
-0.044649001 -0.070430003 -0.238594
-0.044643998 -0.070354 -0.23862
-0.044638999 -0.070279002 -0.238664
-0.044633999 -0.070206001 -0.238719
-0.044629 -0.070130996 -0.238747
-0.044624999 -0.070055999 -0.238777
-0.044620998 -0.069980003 -0.238805
-0.044615999 -0.069904998 -0.23884501
-0.044611 -0.069831997 -0.238894
-0.044605002 -0.069757 -0.238938
-0.044277001 -0.055861998 -0.23425899
-0.044280998 -0.055789001 -0.23411199
-0.044284001 -0.055716 -0.234
-0.044284999 -0.055642001 -0.233918
-0.044284001 -0.055567 -0.23387
-0.044284001 -0.055493999 -0.23380899
-0.044284999 -0.05542 -0.233733
-0.044284001 -0.055346999 -0.233685
-0.044282999 -0.055272002 -0.23364399
-0.044282999 -0.055197001 -0.233594
-0.044282999 -0.055124 -0.233528
-0.044282001 -0.055048998 -0.233481
-0.044280998 -0.054976001 -0.233437
-0.044280998 -0.054901 -0.233391
-0.04428 -0.054827999 -0.233349
-0.044279002 -0.054754999 -0.23331
-0.044278 -0.054680001 -0.23326001
-0.044279002 -0.054607999 -0.233188
-0.044278 -0.054535002 -0.23314101
-0.044275999 -0.054458998 -0.233125
-0.044273 -0.054386001 -0.233119
-0.044271 -0.054311998 -0.233099
-0.044270001 -0.054237001 -0.233064
-0.044268001 -0.054164 -0.233036
-0.044266 -0.054090001 -0.23302799
-0.044264 -0.054016002 -0.233013
-0.044261999 -0.053941 -0.232981
-0.044261001 -0.053867999 -0.23293699
-0.044261001 -0.053794999 -0.23289099
-0.044259001 -0.053722002 -0.23286
-0.044257998 -0.053647999 -0.23282801
-0.044256002 -0.053573001 -0.23280001
-0.044255 -0.0535 -0.23277199
-0.044252999 -0.053426001 -0.232743
-0.044252001 -0.053353 -0.232703
-0.04425 -0.05328 -0.232677
-0.044248 -0.053206 -0.23266201
-0.044245999 -0.053133 -0.23264199
-0.044245001 -0.053057 -0.232612
-0.044243 -0.052983999 -0.232594
-0.044240002 -0.05291 -0.23257899
-0.044238001 -0.052836999 -0.232565
-0.044234999 -0.052763 -0.232563
-0.044232 -0.052687 -0.232563
-0.044229999 -0.052613001 -0.23255999
-0.044227 -0.052538998 -0.232548
-0.044225 -0.052464999 -0.232538
-0.044222001 -0.052391 -0.23254
-0.044218998 -0.052315 -0.232537
-0.044217002 -0.052242 -0.232511
-0.044215001 -0.052168 -0.232491
-0.044213001 -0.052095 -0.232472
-0.044211 -0.052021001 -0.23244999
-0.044210002 -0.051948 -0.23242401
-0.044208001 -0.051874999 -0.23240399
-0.044206001 -0.051801 -0.232383
-0.044204999 -0.051727999 -0.232335
-0.044204999 -0.051656999 -0.232287
-0.044202998 -0.051584002 -0.232254
-0.044202 -0.051511001 -0.232228
-0.044199999 -0.051437002 -0.23220199
-0.044197999 -0.051364001 -0.23218
-0.044195 -0.051290002 -0.232173
-0.044193 -0.051215999 -0.232163
-0.044190999 -0.051142 -0.232151
-0.044188 -0.051068999 -0.23214599
-0.044185001 -0.050995 -0.232142
-0.044183001 -0.050921001 -0.232134
-0.044181 -0.050847001 -0.23211201
-0.044179 -0.050774001 -0.232079
-0.044178002 -0.050701 -0.23205701
-0.044174999 -0.050627001 -0.23204499
-0.044172999 -0.050553001 -0.232031
-0.04417 -0.050478999 -0.23202799
-0.044167001 -0.050404999 -0.232026
-0.044165 -0.050331999 -0.232004
-0.044163998 -0.050260998 -0.231975
-0.044163 -0.050186999 -0.231943
-0.044160999 -0.050113998 -0.23190901
-0.044158999 -0.050043002 -0.23188899
-0.044156998 -0.049968999 -0.231878
-0.044155002 -0.049895 -0.231868
-0.044153001 -0.049821999 -0.23185
-0.044151001 -0.049748 -0.23182701
-0.044149 -0.049676999 -0.231801
-0.044147 -0.049603 -0.231783
-0.044144999 -0.049529001 -0.23177101
-0.044142 -0.049456 -0.231766
-0.044139002 -0.049382001 -0.23176201
-0.044137001 -0.049307998 -0.231758
-0.044133998 -0.049233999 -0.231756
-0.044131 -0.04916 -0.231747
-0.044128999 -0.049086999 -0.231727
-0.044126999 -0.049013 -0.231713
-0.044124 -0.048939001 -0.231709
-0.044121001 -0.048865002 -0.231718
-0.044117998 -0.048790999 -0.23172399
-0.044114999 -0.048717 -0.23172
-0.044112001 -0.048641 -0.231718
-0.044109002 -0.048567001 -0.23171499
-0.044107001 -0.048496 -0.231703
-0.044105001 -0.048422001 -0.231675
-0.044103999 -0.048351001 -0.23164999
-0.044100001 -0.048275001 -0.231654
-0.044096999 -0.048200998 -0.231658
-0.044094998 -0.048126999 -0.231644
-0.044093002 -0.048053 -0.231635
-0.044089999 -0.047979001 -0.231629
-0.044087 -0.047906 -0.231621
-0.044085 -0.047832001 -0.231613
-0.044082001 -0.047758002 -0.23161399
-0.044078 -0.047683999 -0.231622
-0.044075001 -0.04761 -0.231628
-0.044071998 -0.047534 -0.231628
-0.044069 -0.047460001 -0.23162501
-0.044066999 -0.047387999 -0.231621
-0.044064 -0.047313999 -0.23160701
-0.044062 -0.047240999 -0.231589
-0.044059999 -0.047166999 -0.231574
-0.044057999 -0.047095001 -0.231556
-0.044055998 -0.047022 -0.23153999
-0.044052999 -0.046948001 -0.23153301
-0.044050999 -0.046874002 -0.23153099
-0.044048 -0.046799999 -0.23152301
-0.044046 -0.046727002 -0.23151299
-0.044043001 -0.046652999 -0.23151
-0.044039998 -0.046579 -0.231516
-0.044036999 -0.046505 -0.23150399
-0.044034999 -0.046433002 -0.231482
-0.044032998 -0.046360001 -0.231463
-0.044031002 -0.046287999 -0.23144899
-0.044027999 -0.046211999 -0.231453
-0.044025 -0.046138 -0.231463
-0.044022001 -0.046064001 -0.231464
-0.044018 -0.045988001 -0.231466
-0.044015002 -0.045914002 -0.23147
-0.044013001 -0.045839999 -0.231462
-0.044009998 -0.045766 -0.231455
-0.044007 -0.045692001 -0.231463
-0.044002999 -0.045616001 -0.23147701
-0.043999001 -0.045541 -0.231499
-0.043995 -0.045462999 -0.231525
-0.043990999 -0.045389 -0.231538
-0.043986998 -0.045311999 -0.231554
-0.043983001 -0.045235999 -0.231574
-0.043979999 -0.045162 -0.231582
-0.043977 -0.045086 -0.231592
-0.043972999 -0.045008998 -0.231609
-0.043969002 -0.044932999 -0.231629
-0.043965001 -0.044856001 -0.231653
-0.043961 -0.044782002 -0.23167101
-0.043956999 -0.044705998 -0.231685
-0.043953001 -0.044629999 -0.231695
-0.043951001 -0.044555999 -0.23168799
-0.043947998 -0.044482 -0.23167799
-0.043946002 -0.044408001 -0.23167001
-0.043942999 -0.044335 -0.231663
-0.04394 -0.044261001 -0.23166101
-0.043937001 -0.044186998 -0.231663
-0.043933999 -0.044112999 -0.231663
-0.043931 -0.044039 -0.231663
-0.043928001 -0.043963 -0.231668
-0.043924998 -0.043889001 -0.231672
-0.043922 -0.043811999 -0.231682
-0.043917999 -0.043736 -0.231692
-0.043915 -0.043662 -0.231695
-0.043912001 -0.043588001 -0.231693
-0.043908998 -0.043512002 -0.23169699
-0.043906 -0.043437999 -0.23170701
-0.043901999 -0.043361999 -0.231709
-0.043900002 -0.04329 -0.231694
-0.043898001 -0.043217 -0.231684
-0.043894999 -0.043143 -0.231682
-0.043892998 -0.043069001 -0.23166101
-0.043891001 -0.042998001 -0.231639
-0.043889001 -0.042924002 -0.231627
-0.043885998 -0.042849999 -0.231617
-0.043884002 -0.042777002 -0.231608
-0.043880999 -0.042702999 -0.23160399
-0.043878 -0.042629 -0.23161
-0.043873999 -0.042552002 -0.231622
-0.043871 -0.042475998 -0.231629
-0.043868002 -0.042401999 -0.231629
-0.043864999 -0.042326 -0.23163299
-0.043862 -0.042252 -0.231639
-0.043857999 -0.042176001 -0.23164301
-0.043855 -0.042100001 -0.23164999
-0.043852001 -0.042025998 -0.231656
-0.043848999 -0.041949999 -0.231656
-0.043845002 -0.041875999 -0.231668
-0.043839999 -0.041795 -0.231714
-0.043834999 -0.041715998 -0.231746
-0.043830998 -0.041639999 -0.23176099
-0.043827001 -0.041561 -0.231791
-0.043821 -0.041482002 -0.23184501
-0.043816999 -0.041402999 -0.23187301
-0.043811999 -0.041324999 -0.231897
-0.043807 -0.041246001 -0.231943
-0.043802001 -0.041165002 -0.231979
-0.043798 -0.041088998 -0.23200899
-0.043793 -0.04101 -0.232035
-0.043788999 -0.040932 -0.232062
-0.043784998 -0.040855002 -0.23208401
-0.043779999 -0.040777002 -0.23211201
-0.043776002 -0.040697999 -0.23213799
-0.043770999 -0.040619001 -0.23217
-0.043765001 -0.040536001 -0.23223799
-0.043759 -0.040454999 -0.23229
-0.043752 -0.040371001 -0.232364
-0.043745998 -0.040288001 -0.23243
-0.043740999 -0.040208999 -0.23246799
-0.043735001 -0.040128 -0.23251601
-0.043729998 -0.040047001 -0.232554
-0.043724 -0.039965998 -0.23260599
-0.043719001 -0.039884999 -0.23265199
-0.043713 -0.039802 -0.232712
-0.043703999 -0.039714001 -0.232822
-0.045368999 -0.079697996 -0.239032
-0.045366 -0.079620004 -0.23903
-0.045361999 -0.079544 -0.23903701
-0.045359001 -0.079467997 -0.239043
-0.045356002 -0.079389997 -0.239049
-0.045352999 -0.079314001 -0.23904701
-0.04535 -0.079233997 -0.239039
-0.045347001 -0.079157002 -0.23903701
-0.045343999 -0.079079002 -0.23903701
-0.045341 -0.078998998 -0.239026
-0.045338999 -0.078919001 -0.239014
-0.045336001 -0.078840002 -0.23899999
-0.045334 -0.078759998 -0.238976
-0.045332 -0.078680001 -0.23896
-0.045329001 -0.078602999 -0.238958
-0.045325 -0.078524999 -0.23896199
-0.045322001 -0.078446999 -0.238965
-0.045318998 -0.078369997 -0.23897301
-0.045316 -0.078294002 -0.238979
-0.045313001 -0.078213997 -0.23897301
-0.045310002 -0.078137003 -0.238961
-0.045306999 -0.078059003 -0.238959
-0.045304 -0.077982999 -0.23897
-0.045299999 -0.077905998 -0.238988
-0.045295998 -0.077830002 -0.239004
-0.045293 -0.077753998 -0.23899999
-0.045290001 -0.077674001 -0.23899201
-0.045288 -0.077595003 -0.23898201
-0.045285001 -0.077519 -0.23898099
-0.045281 -0.077439003 -0.23898099
-0.045279 -0.077361003 -0.238975
-0.045276001 -0.077283002 -0.238975
-0.045272 -0.077206999 -0.238979
-0.045269001 -0.077131003 -0.238987
-0.045265 -0.077051997 -0.23899999
-0.045262001 -0.076977 -0.238998
-0.045260001 -0.076894999 -0.23897
-0.045258999 -0.076811999 -0.23893
-0.045256998 -0.076733001 -0.23891
-0.045254 -0.076655 -0.23891
-0.045249999 -0.076577 -0.238914
-0.045247 -0.076499 -0.238912
-0.045244001 -0.076421998 -0.238923
-0.045240998 -0.076346003 -0.238925
-0.045237999 -0.076266997 -0.238919
-0.045235001 -0.076188996 -0.238919
-0.045231 -0.076113001 -0.23892701
-0.045228001 -0.076034002 -0.238931
-0.045224998 -0.075957 -0.23892599
-0.045221999 -0.075879 -0.238924
-0.045219 -0.075801 -0.238922
-0.045216002 -0.075723 -0.23891801
-0.045214001 -0.075645 -0.23891
-0.045210999 -0.075565003 -0.238906
-0.045207001 -0.075488999 -0.23891699
-0.045203 -0.075413004 -0.238929
-0.045200001 -0.075335003 -0.238931
-0.045196999 -0.075259 -0.23893499
-0.045194 -0.075181 -0.238931
-0.045191001 -0.075101003 -0.238923
-0.045189001 -0.075023003 -0.238914
-0.045186002 -0.074943997 -0.238902
-0.045182999 -0.074864 -0.23889001
-0.045180999 -0.074786 -0.23887999
-0.045178 -0.074707001 -0.238866
-0.045175999 -0.074626997 -0.238846
-0.045173999 -0.074547 -0.238828
-0.045171 -0.074469998 -0.23882701
-0.045168001 -0.074391998 -0.238823
-0.045166001 -0.074309997 -0.23879901
-0.045164 -0.074230999 -0.23877101
-0.045162998 -0.074150003 -0.23873501
-0.045161001 -0.074068002 -0.238701
-0.045159001 -0.073988996 -0.238681
-0.045155998 -0.073909 -0.238665
-0.045154002 -0.073830001 -0.238646
-0.045152001 -0.073748 -0.23862
-0.045150001 -0.073670998 -0.23860399
-0.045147002 -0.073592998 -0.2386
-0.045143999 -0.073513001 -0.238584
-0.045141999 -0.073434003 -0.23857
-0.045139 -0.073356003 -0.23856799
-0.045136999 -0.073275998 -0.238548
-0.045134999 -0.073197 -0.23852099
-0.045132998 -0.073117003 -0.238499
-0.04513 -0.073037997 -0.23848499
-0.045127999 -0.072958 -0.238461
-0.045125999 -0.072879001 -0.23843899
-0.045124002 -0.072801001 -0.238429
-0.045120999 -0.072720997 -0.238419
-0.045118 -0.072644003 -0.238406
-0.045116 -0.072563998 -0.238396
-0.045113001 -0.072485998 -0.238388
-0.045109998 -0.072407998 -0.238378
-0.045108002 -0.072330996 -0.23837
-0.045104999 -0.072253004 -0.238362
-0.045102999 -0.072172999 -0.238341
-0.045101002 -0.072094001 -0.23832101
-0.045097999 -0.072016001 -0.238313
-0.045093998 -0.071939997 -0.238323
-0.045090999 -0.071864001 -0.238335
-0.045088001 -0.071786001 -0.23833901
-0.045085002 -0.071708001 -0.23833799
-0.045081999 -0.071631998 -0.238336
-0.045079 -0.071552001 -0.23833001
-0.045076001 -0.071474001 -0.23831999
-0.045072999 -0.071396001 -0.238318
-0.04507 -0.071319997 -0.238324
-0.045065999 -0.071244001 -0.23833901
-0.045062002 -0.071167 -0.23835699
-0.045058001 -0.071093 -0.238389
-0.045054 -0.071015999 -0.238409
-0.045049999 -0.070940003 -0.238423
-0.045046002 -0.070866004 -0.238444
-0.045042001 -0.070789002 -0.23846801
-0.045038 -0.070712999 -0.23848
-0.045035001 -0.070637003 -0.23849
-0.045031 -0.070560001 -0.23851199
-0.045026001 -0.070486002 -0.238544
-0.045022 -0.070409 -0.238575
-0.045015998 -0.070335999 -0.238621
-0.045012001 -0.070261002 -0.23865899
-0.045007002 -0.070188001 -0.238703
-0.045001999 -0.070114002 -0.238737
-0.044996999 -0.070037 -0.238768
-0.044992998 -0.069962002 -0.23880801
-0.044987999 -0.069888003 -0.238842
-0.044982001 -0.069813997 -0.238896
-0.044976 -0.069741003 -0.23896401
-0.044654001 -0.055849001 -0.234166
-0.044656001 -0.055773001 -0.23406
-0.044656999 -0.055700999 -0.23398
-0.044658002 -0.055626001 -0.23391099
-0.044659 -0.055551998 -0.233831
-0.044659 -0.055479001 -0.233771
-0.044658002 -0.055404 -0.233722
-0.044656999 -0.055332001 -0.233674
-0.044656001 -0.055256002 -0.23363601
-0.044654999 -0.055181 -0.23359001
-0.044654999 -0.055109002 -0.233537
-0.044654999 -0.055034 -0.233487
-0.044654001 -0.054961 -0.23344301
-0.044652 -0.054885 -0.233412
-0.044651002 -0.054811999 -0.23337001
-0.044651002 -0.054740001 -0.23332199
-0.04465 -0.054664001 -0.233281
-0.04465 -0.054591998 -0.23322099
-0.04465 -0.054519001 -0.23315699
-0.044647999 -0.054444 -0.233125
-0.044647001 -0.054370001 -0.23310401
-0.044645 -0.054297 -0.23308399
-0.044643 -0.054223999 -0.23305801
-0.044640999 -0.054148 -0.233031
-0.044638999 -0.054074999 -0.233013
-0.044638 -0.054001 -0.232981
-0.044636998 -0.053927001 -0.232925
-0.044638 -0.053854 -0.232862
-0.044636998 -0.053780999 -0.23280799
-0.044636 -0.053707998 -0.23277999
-0.044633001 -0.053633999 -0.232767
-0.044631999 -0.053560998 -0.232743
-0.044631001 -0.053488001 -0.23269901
-0.044629999 -0.053413 -0.232651
-0.044629 -0.053342 -0.23261601
-0.044627 -0.053268 -0.2326
-0.044624001 -0.053192001 -0.23258799
-0.044622 -0.053119 -0.23256899
-0.044620998 -0.053045001 -0.23254099
-0.044619001 -0.052972 -0.232519
-0.044617001 -0.052898001 -0.232509
-0.044613998 -0.052824002 -0.2325
-0.044611 -0.052749 -0.232494
-0.044608999 -0.052675001 -0.23249
-0.044606 -0.052600998 -0.23248801
-0.044603001 -0.052526999 -0.232483
-0.044599999 -0.052451 -0.23248699
-0.044597 -0.052377 -0.23248699
-0.044594001 -0.052303001 -0.23247901
-0.044592001 -0.052228998 -0.23246799
-0.04459 -0.052156001 -0.23244999
-0.044588 -0.052081998 -0.232426
-0.044587001 -0.052009001 -0.232398
-0.044585001 -0.051936001 -0.232365
-0.044585001 -0.051863 -0.232311
-0.044583999 -0.051791999 -0.232263
-0.044583 -0.051718999 -0.23222999
-0.044581 -0.051645 -0.232214
-0.044578001 -0.051571 -0.232206
-0.044576999 -0.051498 -0.232181
-0.044576 -0.051424999 -0.232145
-0.044574 -0.051352002 -0.23211101
-0.044571999 -0.051279999 -0.232095
-0.044569001 -0.051204 -0.232088
-0.044566002 -0.051130001 -0.23209
-0.044562999 -0.051056001 -0.23209
-0.04456 -0.050981998 -0.23209199
-0.044558 -0.050907999 -0.23208299
-0.044557001 -0.050834998 -0.232049
-0.044555001 -0.050762001 -0.23202901
-0.044551998 -0.050687999 -0.232021
-0.044550002 -0.050613999 -0.232002
-0.044548001 -0.050540999 -0.23198999
-0.044544999 -0.050466999 -0.23199201
-0.044542 -0.050393 -0.23198301
-0.044539999 -0.050319001 -0.23196299
-0.044539001 -0.050248001 -0.23193701
-0.044537 -0.050175 -0.231907
-0.044535998 -0.050101001 -0.231874
-0.044534001 -0.050030001 -0.23185401
-0.044532001 -0.049956001 -0.231842
-0.044528998 -0.049881998 -0.231833
-0.044527002 -0.049809001 -0.231821
-0.044525001 -0.049734998 -0.231803
-0.044523001 -0.049662001 -0.231787
-0.044520002 -0.049589999 -0.231774
-0.044518001 -0.049516 -0.231754
-0.044516001 -0.049442999 -0.23174
-0.044514 -0.049369 -0.231731
-0.044511002 -0.049295001 -0.231727
-0.044507999 -0.049221002 -0.231719
-0.044505998 -0.049148001 -0.231705
-0.044504002 -0.049074002 -0.23169801
-0.044500999 -0.048999999 -0.231686
-0.044498999 -0.048926 -0.231672
-0.044496 -0.048854999 -0.231668
-0.044493999 -0.048779 -0.23166101
-0.044491 -0.048705 -0.231663
-0.044487 -0.048631001 -0.23166899
-0.044484999 -0.048556998 -0.231665
-0.044482 -0.048482999 -0.231654
-0.04448 -0.048409 -0.231646
-0.044477001 -0.048335001 -0.231638
-0.044475 -0.048262 -0.23162401
-0.044473 -0.048190001 -0.231609
-0.044470001 -0.048115999 -0.231601
-0.044468001 -0.048043001 -0.231591
-0.044465002 -0.047968999 -0.231589
-0.044461999 -0.047892999 -0.231594
-0.044459 -0.047821 -0.231592
-0.044456001 -0.047747001 -0.23158801
-0.044452999 -0.047671001 -0.231582
-0.044450998 -0.047598999 -0.231581
-0.044447001 -0.047522999 -0.231583
-0.044445001 -0.047449 -0.23157901
-0.044442002 -0.047377001 -0.23156799
-0.044440001 -0.047304001 -0.231556
-0.044436999 -0.047230002 -0.231548
-0.044434 -0.047155999 -0.231548
-0.044431999 -0.047081999 -0.231543
-0.044429999 -0.047008999 -0.231525
-0.044427998 -0.046935 -0.23150501
-0.044425 -0.046863001 -0.23149499
-0.044422999 -0.04679 -0.231484
-0.04442 -0.046716001 -0.23147599
-0.044418 -0.046642002 -0.231472
-0.044415001 -0.046567999 -0.23146801
-0.044411998 -0.046494 -0.231461
-0.044410001 -0.04642 -0.231453
-0.044406999 -0.046347 -0.231447
-0.044404 -0.046273001 -0.23144899
-0.044401001 -0.046199001 -0.23144799
-0.044399001 -0.046124998 -0.231438
-0.044396002 -0.046050999 -0.23143999
-0.044392001 -0.045975 -0.23145799
-0.044388 -0.045899998 -0.23146901
-0.044385999 -0.045827001 -0.23145901
-0.044383999 -0.045752998 -0.231445
-0.044381 -0.045678999 -0.23143899
-0.044378001 -0.045605 -0.23145001
-0.044374 -0.045529 -0.23147
-0.044369001 -0.045451999 -0.23149399
-0.044365 -0.045375999 -0.231518
-0.044360999 -0.045299001 -0.23153199
-0.044358 -0.045224998 -0.23154099
-0.044353999 -0.045148998 -0.231557
-0.044351 -0.045074999 -0.231571
-0.044346999 -0.044998001 -0.23158699
-0.044342998 -0.044922002 -0.23160499
-0.044339001 -0.044845 -0.23163299
-0.044335 -0.044769 -0.231654
-0.044330999 -0.044693001 -0.231658
-0.044328 -0.044619001 -0.23165999
-0.044325002 -0.044544999 -0.23165999
-0.044323001 -0.044470999 -0.231657
-0.044319998 -0.044397 -0.231653
-0.044317 -0.044323001 -0.231645
-0.044314001 -0.044248998 -0.231645
-0.044310998 -0.044172999 -0.231644
-0.044309001 -0.044100001 -0.23164
-0.044305 -0.044025999 -0.231644
-0.044302002 -0.043949001 -0.231656
-0.044298999 -0.043875001 -0.23166201
-0.044295002 -0.043799002 -0.231665
-0.044291999 -0.043724999 -0.231667
-0.044289 -0.043651 -0.231673
-0.044286001 -0.043575 -0.231673
-0.044284001 -0.043503001 -0.231666
-0.044280998 -0.043427002 -0.23166201
-0.044278 -0.043354001 -0.231656
-0.044275001 -0.043280002 -0.23165201
-0.044273 -0.043205999 -0.231645
-0.044271 -0.043134 -0.231627
-0.044268999 -0.043063 -0.231601
-0.044266999 -0.042989001 -0.23159
-0.044264 -0.042915002 -0.23158599
-0.044261001 -0.042838998 -0.231582
-0.044257998 -0.042766001 -0.23158
-0.044256002 -0.042691998 -0.23156901
-0.044254001 -0.042619999 -0.23155899
-0.04425 -0.042544 -0.231563
-0.044247001 -0.042470001 -0.23156901
-0.044243999 -0.042394001 -0.231571
-0.044241 -0.042319998 -0.23157001
-0.044238001 -0.042245999 -0.231574
-0.044234999 -0.042169999 -0.231582
-0.044232 -0.042096 -0.231574
-0.044229001 -0.042022001 -0.231573
-0.044225 -0.041944001 -0.231591
-0.044220999 -0.041866999 -0.231617
-0.044216 -0.041788999 -0.231649
-0.044211999 -0.041712001 -0.23167101
-0.044209 -0.041636001 -0.231683
-0.044204999 -0.041560002 -0.23169599
-0.044201002 -0.041483 -0.23171601
-0.044195998 -0.041405 -0.23175
-0.044190999 -0.041326001 -0.231786
-0.044186 -0.041244999 -0.23183399
-0.044179998 -0.041164 -0.231888
-0.044174999 -0.041085001 -0.23191801
-0.044171002 -0.041009001 -0.23193599
-0.044167001 -0.040932 -0.231957
-0.044163 -0.040854 -0.231993
-0.044158 -0.040773001 -0.232031
-0.044153001 -0.040695999 -0.23205499
-0.044149 -0.040615998 -0.232087
-0.044144001 -0.040537 -0.232123
-0.04414 -0.040461 -0.232141
-0.044135999 -0.040382002 -0.232163
-0.044131 -0.040302999 -0.232191
-0.044126999 -0.040224999 -0.232224
-0.044121999 -0.040146001 -0.23225801
-0.044110999 -0.040052999 -0.232397
-0.044105001 -0.039969999 -0.23246101
-0.044101 -0.039894 -0.232475
-0.044098001 -0.039817002 -0.23248599
-0.044092 -0.039735999 -0.232536
-0.044078998 -0.039636001 -0.232723
-0.045816999 -0.079676002 -0.239026
-0.045814 -0.079595998 -0.239024
-0.045812 -0.079519004 -0.239012
-0.045809001 -0.079437003 -0.238995
-0.045805998 -0.079359002 -0.238995
-0.045802999 -0.079281002 -0.238987
-0.045800999 -0.079201996 -0.238967
-0.045798 -0.079124004 -0.238967
-0.045793999 -0.079048999 -0.238989
-0.045790002 -0.078973003 -0.239006
-0.045788001 -0.078895003 -0.238996
-0.045784999 -0.078817002 -0.238996
-0.045781001 -0.078740999 -0.239006
-0.045777999 -0.078662999 -0.239006
-0.045775 -0.078584999 -0.23900799
-0.045770999 -0.078509003 -0.239013
-0.045768 -0.078431003 -0.239011
-0.045766 -0.078351997 -0.238995
-0.045763999 -0.078270003 -0.238969
-0.045761 -0.078189999 -0.238961
-0.045758002 -0.078114003 -0.238965
-0.045754001 -0.078038 -0.238977
-0.045751002 -0.077962004 -0.238988
-0.045747999 -0.077884004 -0.238988
-0.045745 -0.077806003 -0.238986
-0.045742001 -0.077728003 -0.23898999
-0.045738999 -0.077650003 -0.23898
-0.045736998 -0.077570997 -0.23896401
-0.045733999 -0.077492997 -0.23896
-0.045731001 -0.077413 -0.23895299
-0.045728002 -0.077335 -0.23894501
-0.045724999 -0.077255003 -0.238939
-0.045722 -0.077179 -0.238941
-0.045719001 -0.077102996 -0.238949
-0.045715999 -0.077023 -0.238943
-0.045713 -0.076945998 -0.23893601
-0.045710001 -0.076867998 -0.238934
-0.045706999 -0.076788001 -0.238922
-0.045705002 -0.076707996 -0.238906
-0.045701999 -0.076629996 -0.23890001
-0.045699 -0.076554 -0.23891
-0.045694999 -0.076476 -0.23891801
-0.045692001 -0.076399997 -0.238921
-0.045689002 -0.076321997 -0.238925
-0.045685001 -0.076246001 -0.23893701
-0.045681 -0.076169997 -0.238951
-0.045678001 -0.076093003 -0.238959
-0.045674998 -0.076016001 -0.238957
-0.045673002 -0.075935997 -0.238938
-0.045671001 -0.075856 -0.23892
-0.045667998 -0.075778998 -0.238914
-0.045664001 -0.075700998 -0.23891801
-0.045660999 -0.075622998 -0.23892
-0.045658 -0.075545996 -0.23892801
-0.045653999 -0.075470001 -0.238943
-0.045650002 -0.075393997 -0.238959
-0.045646999 -0.075315997 -0.238959
-0.045644999 -0.075236 -0.23894501
-0.045643002 -0.075157002 -0.238923
-0.045639999 -0.075076997 -0.23890901
-0.045637 -0.074998997 -0.238903
-0.045634001 -0.074920997 -0.23889799
-0.045632001 -0.074841999 -0.238884
-0.045628998 -0.074763998 -0.238874
-0.045626 -0.074685998 -0.23887201
-0.045623001 -0.074606001 -0.238866
-0.045621 -0.074528001 -0.238858
-0.045618001 -0.074450001 -0.238859
-0.045614999 -0.074372999 -0.238857
-0.045612 -0.074293002 -0.238841
-0.045611002 -0.074212 -0.238805
-0.045609001 -0.074130997 -0.23876899
-0.045607999 -0.074050002 -0.238729
-0.045605998 -0.073968001 -0.238695
-0.045604002 -0.073889002 -0.238673
-0.045602001 -0.073808998 -0.23865201
-0.045600001 -0.073729999 -0.238638
-0.045596998 -0.073650002 -0.238626
-0.045595001 -0.073569998 -0.23860399
-0.045593001 -0.073491 -0.23858599
-0.045589998 -0.073413 -0.238574
-0.045588002 -0.073334001 -0.23856001
-0.045584999 -0.073253997 -0.238544
-0.045582999 -0.073175997 -0.238529
-0.045581002 -0.073096998 -0.238509
-0.045577999 -0.073017001 -0.238493
-0.045575999 -0.072938003 -0.23847701
-0.045573 -0.072860003 -0.238463
-0.045570999 -0.072779998 -0.238443
-0.045568999 -0.072701 -0.238429
-0.045566 -0.072624996 -0.23842999
-0.045561999 -0.072547004 -0.23843201
-0.045559 -0.072469003 -0.23842999
-0.045557 -0.072391003 -0.23841999
-0.045554001 -0.072310999 -0.238406
-0.045552 -0.072233997 -0.23839
-0.04555 -0.072154 -0.23837499
-0.045547001 -0.072075002 -0.23835699
-0.045545001 -0.071997002 -0.238345
-0.045542002 -0.071919002 -0.23834699
-0.045538001 -0.071842998 -0.238361
-0.045534998 -0.071767002 -0.238363
-0.045531999 -0.071689002 -0.23835599
-0.045529 -0.071611002 -0.238354
-0.045526002 -0.071533002 -0.23834801
-0.045522999 -0.071455002 -0.238342
-0.04552 -0.071377002 -0.23833799
-0.045517001 -0.071299002 -0.238344
-0.045513 -0.071225002 -0.238363
-0.045508999 -0.071148001 -0.23838501
-0.045504998 -0.071071997 -0.23840301
-0.045501001 -0.070997998 -0.238429
-0.045497 -0.070920996 -0.238451
-0.045492999 -0.070846997 -0.238472
-0.045488998 -0.070770003 -0.23849
-0.045485001 -0.070694 -0.238508
-0.045481 -0.070618004 -0.238528
-0.045476999 -0.070541002 -0.238546
-0.045472998 -0.070467003 -0.23857
-0.045467999 -0.070391998 -0.238619
-0.045462001 -0.070318997 -0.238673
-0.045458 -0.070243999 -0.23870701
-0.045453999 -0.070166998 -0.238729
-0.045449 -0.070092998 -0.23876099
-0.045444001 -0.070018001 -0.23879801
-0.04544 -0.069943003 -0.238838
-0.045435 -0.069867998 -0.238876
-0.045428999 -0.069794998 -0.23893
-0.045423001 -0.069721997 -0.238988
-0.0451 -0.055753998 -0.234174
-0.045101002 -0.055679999 -0.23407599
-0.045102 -0.055606 -0.233991
-0.045102 -0.055530999 -0.23393101
-0.045102 -0.055459 -0.23388299
-0.045102 -0.055383999 -0.233815
-0.045102 -0.055311002 -0.23375399
-0.045101002 -0.055236001 -0.233722
-0.0451 -0.055160999 -0.233674
-0.0451 -0.055087999 -0.233621
-0.045099001 -0.055013999 -0.23357099
-0.045097999 -0.054940999 -0.233529
-0.045097001 -0.054864999 -0.23349001
-0.045095999 -0.054792002 -0.233446
-0.045095999 -0.054719999 -0.23339599
-0.045095999 -0.054644998 -0.233336
-0.045097001 -0.054572999 -0.233247
-0.045097001 -0.054499999 -0.23318499
-0.045095 -0.054425001 -0.23316699
-0.045093 -0.054350998 -0.23315001
-0.045090999 -0.054278001 -0.23312999
-0.045088999 -0.054202002 -0.23311
-0.045088001 -0.054129001 -0.233078
-0.045086 -0.054056 -0.233041
-0.045086 -0.053982999 -0.232995
-0.045085002 -0.053908002 -0.232945
-0.045084 -0.053835001 -0.23289999
-0.045084 -0.053762 -0.232852
-0.045083001 -0.053688999 -0.232814
-0.045081001 -0.053615 -0.232783
-0.045079999 -0.053541999 -0.23275299
-0.045077998 -0.053468999 -0.232729
-0.045076001 -0.053392999 -0.232701
-0.045074999 -0.053320002 -0.232666
-0.045074001 -0.053249002 -0.232638
-0.045072 -0.053173002 -0.23262
-0.04507 -0.053100001 -0.2326
-0.045068 -0.053027 -0.232565
-0.045067001 -0.052953001 -0.232531
-0.045065001 -0.05288 -0.232517
-0.045063 -0.052806001 -0.232504
-0.045060001 -0.052731998 -0.23249599
-0.045056999 -0.052655999 -0.232504
-0.045053001 -0.052581999 -0.23251
-0.045051001 -0.052508 -0.232501
-0.045049001 -0.052434001 -0.232489
-0.045046002 -0.052361 -0.232489
-0.045042001 -0.052285001 -0.232491
-0.04504 -0.052211002 -0.23248801
-0.045037001 -0.052136999 -0.232474
-0.045035999 -0.052064002 -0.232448
-0.045035001 -0.051989999 -0.23241
-0.045033 -0.051917002 -0.232375
-0.045031998 -0.051844001 -0.232337
-0.045031 -0.051773001 -0.232315
-0.045028001 -0.051697001 -0.232302
-0.045026001 -0.051624998 -0.23228
-0.045024998 -0.051552001 -0.232244
-0.045023002 -0.051479001 -0.23221999
-0.045021001 -0.051405001 -0.23220301
-0.045019999 -0.051332001 -0.232179
-0.045017999 -0.051258001 -0.232153
-0.045015998 -0.051185001 -0.23214
-0.045012999 -0.051111002 -0.232134
-0.045010999 -0.051036999 -0.232124
-0.045008998 -0.050964002 -0.2321
-0.045007002 -0.050889999 -0.23208299
-0.045003999 -0.050816 -0.232081
-0.045001 -0.050742 -0.232079
-0.044999 -0.050669 -0.232063
-0.044996999 -0.050595 -0.232048
-0.044994 -0.050521001 -0.23203801
-0.044991001 -0.050446998 -0.232034
-0.044989001 -0.050374001 -0.23202001
-0.044987001 -0.050299998 -0.231997
-0.044985 -0.050227001 -0.231975
-0.044984002 -0.050154999 -0.23195501
-0.044982001 -0.050082002 -0.231932
-0.044980001 -0.050007999 -0.23190799
-0.044978 -0.049934998 -0.231896
-0.044975001 -0.049860999 -0.23188999
-0.044973001 -0.049787 -0.23188099
-0.044971 -0.049713999 -0.231861
-0.044969 -0.049642 -0.231833
-0.044966999 -0.049569 -0.231812
-0.044964999 -0.049495 -0.23179799
-0.044962998 -0.049423002 -0.231786
-0.04496 -0.049346998 -0.23177999
-0.044957001 -0.049276002 -0.231775
-0.044955 -0.049201999 -0.23176301
-0.044953 -0.049128 -0.231747
-0.044950001 -0.049054999 -0.23173501
-0.044946998 -0.048981 -0.231736
-0.044945002 -0.048907001 -0.231728
-0.044943001 -0.048833001 -0.231714
-0.044939999 -0.048758999 -0.23171601
-0.044936001 -0.048682999 -0.23173299
-0.044932999 -0.048609 -0.23173299
-0.044930998 -0.048537001 -0.23171499
-0.044929001 -0.048464 -0.23169699
-0.044925999 -0.048390001 -0.231692
-0.044923 -0.048315998 -0.23168799
-0.044921 -0.048241999 -0.23167799
-0.044918001 -0.048168998 -0.23166899
-0.044916 -0.048094999 -0.231655
-0.044913001 -0.048021 -0.231655
-0.044909999 -0.047947001 -0.231659
-0.044907 -0.047873002 -0.231658
-0.044904999 -0.047798999 -0.231648
-0.044902999 -0.047726002 -0.23163199
-0.0449 -0.047651999 -0.23161601
-0.044898 -0.04758 -0.23160499
-0.044895999 -0.047506001 -0.23159499
-0.044893 -0.047432002 -0.23159499
-0.044888999 -0.047355998 -0.231603
-0.044886999 -0.047283001 -0.231594
-0.044884998 -0.047210999 -0.231582
-0.044881999 -0.047137 -0.231572
-0.044879001 -0.047063001 -0.23156799
-0.044877 -0.046989001 -0.231563
-0.044874001 -0.046916001 -0.23155899
-0.044870999 -0.046842001 -0.23155899
-0.044868 -0.046767998 -0.23154899
-0.044865999 -0.046693999 -0.23153199
-0.044863999 -0.046622001 -0.231526
-0.044861 -0.046546001 -0.231526
-0.044858001 -0.046472002 -0.231526
-0.044854999 -0.046399001 -0.231527
-0.044852 -0.046324998 -0.23152301
-0.044849001 -0.046250999 -0.231517
-0.044847 -0.046177 -0.231517
-0.044842999 -0.046103001 -0.23152199
-0.044840001 -0.046027001 -0.23153199
-0.044836 -0.045952 -0.23154201
-0.044833001 -0.045878001 -0.23154201
-0.044831 -0.045805 -0.23153301
-0.044829 -0.045731001 -0.231521
-0.044826001 -0.045657001 -0.23151501
-0.044822998 -0.045582999 -0.231511
-0.044819999 -0.045508999 -0.23152199
-0.044815999 -0.045430999 -0.231546
-0.044812001 -0.045356002 -0.231562
-0.044808999 -0.045279998 -0.231566
-0.044805001 -0.045203999 -0.23158599
-0.044799998 -0.045127001 -0.231621
-0.044797 -0.045053001 -0.231629
-0.044794001 -0.044978999 -0.231629
-0.044789001 -0.0449 -0.231655
-0.044785 -0.044824 -0.23168901
-0.044780999 -0.044746999 -0.23170701
-0.044778001 -0.044673 -0.23170599
-0.044775002 -0.044599999 -0.231702
-0.044771999 -0.044523999 -0.231702
-0.044769 -0.04445 -0.231702
-0.044766001 -0.044376001 -0.23169699
-0.044764001 -0.044302002 -0.231691
-0.044760998 -0.044227999 -0.231685
-0.044759002 -0.044154 -0.231675
-0.044755999 -0.044082999 -0.231666
-0.044753 -0.044007 -0.231668
-0.044748999 -0.043930002 -0.231682
-0.044746 -0.043855999 -0.23169
-0.044743001 -0.043779999 -0.231699
-0.044739999 -0.043706 -0.23169699
-0.044737 -0.043632001 -0.23168901
-0.044734001 -0.043559 -0.231685
-0.044732001 -0.043487001 -0.231672
-0.04473 -0.043412998 -0.23164999
-0.044728 -0.043342002 -0.23163401
-0.044725999 -0.043267999 -0.231626
-0.044723 -0.043191999 -0.23162501
-0.044720002 -0.043118 -0.231619
-0.044716999 -0.043044001 -0.231617
-0.044714998 -0.042970002 -0.231611
-0.044712 -0.042897001 -0.23160399
-0.044709001 -0.042823002 -0.231602
-0.044705998 -0.042748999 -0.231598
-0.044704001 -0.042675 -0.231594
-0.044700999 -0.042599 -0.23159701
-0.044697002 -0.042525001 -0.23160499
-0.044693999 -0.042449001 -0.231617
-0.044690002 -0.042373002 -0.231621
-0.044688001 -0.042298999 -0.231612
-0.044686001 -0.042227 -0.231594
-0.044682998 -0.042153001 -0.231584
-0.044679999 -0.042077001 -0.231598
-0.044675 -0.041997999 -0.23163401
-0.044670999 -0.041921999 -0.231657
-0.044667002 -0.041846 -0.231667
-0.044663999 -0.041772 -0.23166899
-0.044661 -0.041696001 -0.231667
-0.044658002 -0.041622002 -0.23167101
-0.044654999 -0.041545998 -0.231684
-0.044651002 -0.041469 -0.23169599
-0.044647001 -0.041393001 -0.23170801
-0.044643998 -0.041317001 -0.23171601
-0.044638999 -0.041239999 -0.231748
-0.044633001 -0.041157 -0.231802
-0.044629 -0.041081 -0.231823
-0.044624999 -0.041003998 -0.231851
-0.04462 -0.040922999 -0.231895
-0.044615 -0.040844999 -0.231929
-0.044611 -0.040768001 -0.231943
-0.044608001 -0.040692002 -0.231949
-0.044604 -0.040615998 -0.231961
-0.044599999 -0.040539999 -0.231978
-0.044597 -0.040465999 -0.231978
-0.044594999 -0.04039 -0.231968
-0.044592001 -0.040316001 -0.23196
-0.044589002 -0.040242001 -0.23196401
-0.044585001 -0.040164001 -0.231989
-0.044580001 -0.040084999 -0.232021
-0.044571999 -0.039997 -0.232125
-0.044562001 -0.039907999 -0.232246
-0.044555001 -0.039820001 -0.232338
-0.044541001 -0.039719999 -0.23254
-0.044535 -0.039639 -0.232594
-0.044530001 -0.039558001 -0.23263399
-0.046262 -0.079673 -0.239154
-0.046259001 -0.079594001 -0.23914599
-0.046257 -0.079513997 -0.239136
-0.046252999 -0.079438001 -0.239142
-0.046250001 -0.079360999 -0.23915599
-0.046246 -0.079285003 -0.239162
-0.046243001 -0.079204999 -0.239158
-0.046239998 -0.079127997 -0.239153
-0.046236999 -0.079052001 -0.23915701
-0.046234 -0.078973003 -0.239161
-0.046231002 -0.078896001 -0.23915499
-0.046227999 -0.078815997 -0.239149
-0.046225 -0.078740001 -0.23915701
-0.046220999 -0.078662999 -0.239168
-0.046218999 -0.078585997 -0.239162
-0.046216 -0.078506 -0.239144
-0.046213001 -0.078426003 -0.23914
-0.046209998 -0.07835 -0.239152
-0.046207 -0.078272 -0.23915
-0.046204001 -0.078194 -0.23914699
-0.0462 -0.078116 -0.239149
-0.046197001 -0.078038 -0.23914699
-0.046195 -0.077959999 -0.239143
-0.046192002 -0.077882998 -0.23913699
-0.046188999 -0.077803001 -0.239131
-0.046186 -0.077725001 -0.239125
-0.046183001 -0.077647001 -0.239124
-0.046179999 -0.077569 -0.239122
-0.046177 -0.077491 -0.239114
-0.046174999 -0.077412002 -0.239104
-0.046172 -0.077334002 -0.23909999
-0.046168 -0.077256002 -0.239104
-0.046165001 -0.077179998 -0.239107
-0.046162002 -0.077101 -0.239113
-0.046158001 -0.077024996 -0.239123
-0.046154998 -0.076947004 -0.239127
-0.046151999 -0.076869003 -0.239125
-0.046149001 -0.076792002 -0.23911899
-0.046146002 -0.076714002 -0.239113
-0.046144001 -0.076633997 -0.239108
-0.046140999 -0.076555997 -0.239104
-0.046138 -0.076477997 -0.23910201
-0.046135001 -0.076399997 -0.239096
-0.046131998 -0.076320998 -0.23908401
-0.046128999 -0.076242998 -0.23908199
-0.046126001 -0.076164998 -0.23908199
-0.046123002 -0.076086998 -0.239087
-0.046119999 -0.076011002 -0.239087
-0.046117 -0.075930998 -0.239077
-0.046114001 -0.075852998 -0.23907501
-0.046110999 -0.075774997 -0.239067
-0.046108998 -0.075695001 -0.239057
-0.046105999 -0.075617999 -0.23905399
-0.046103001 -0.075539999 -0.23905399
-0.046099 -0.075461999 -0.23905601
-0.046096999 -0.075383998 -0.23905
-0.046094 -0.075305998 -0.23904601
-0.046089999 -0.075227998 -0.23905399
-0.046087001 -0.075152002 -0.23906501
-0.046084002 -0.075071998 -0.239053
-0.046082001 -0.074993998 -0.239035
-0.046078999 -0.074914001 -0.239033
-0.046076 -0.074837998 -0.23903701
-0.046073001 -0.074759997 -0.23902901
-0.046071 -0.074676998 -0.23899899
-0.046068002 -0.074598998 -0.238988
-0.046066001 -0.074519999 -0.23898201
-0.046062998 -0.074441999 -0.23896401
-0.046061002 -0.074362002 -0.23895
-0.046059001 -0.074282996 -0.238932
-0.046057001 -0.074202001 -0.238904
-0.046055 -0.074119002 -0.23886
-0.046053998 -0.074037999 -0.238814
-0.046052001 -0.073955998 -0.23878799
-0.046050999 -0.073876999 -0.23876099
-0.046048999 -0.073794998 -0.23873299
-0.046046 -0.073716 -0.23871499
-0.046043999 -0.073636003 -0.238695
-0.046043001 -0.073556997 -0.238665
-0.046039999 -0.073476002 -0.238645
-0.046038002 -0.073395997 -0.238619
-0.046037 -0.073315002 -0.238583
-0.046034999 -0.073236004 -0.23856001
-0.046032 -0.073158003 -0.238548
-0.04603 -0.073077999 -0.238538
-0.046027001 -0.072999999 -0.23852199
-0.046025001 -0.072921 -0.238506
-0.046022002 -0.072841004 -0.23849
-0.046020001 -0.072764002 -0.238474
-0.046016999 -0.072683997 -0.238469
-0.046014 -0.072608002 -0.23846699
-0.046011001 -0.072527997 -0.238461
-0.046007998 -0.072452001 -0.238461
-0.046004999 -0.072375998 -0.23847499
-0.046000998 -0.072300002 -0.23848499
-0.045998 -0.072222002 -0.238484
-0.045995001 -0.072141998 -0.23847599
-0.045991998 -0.072066002 -0.238474
-0.045988999 -0.071988001 -0.23847599
-0.045986 -0.071910001 -0.23847599
-0.045984 -0.071832001 -0.23846599
-0.045981001 -0.071753003 -0.238453
-0.045979001 -0.071675003 -0.23843899
-0.045976002 -0.071597002 -0.238423
-0.045974001 -0.071517996 -0.238407
-0.045970999 -0.071439996 -0.238397
-0.045968 -0.071359999 -0.238389
-0.045965001 -0.071284004 -0.23839401
-0.045961998 -0.071208 -0.238408
-0.045958001 -0.071131997 -0.23842201
-0.045954 -0.071055003 -0.238438
-0.045949999 -0.070978999 -0.23845001
-0.045945998 -0.070904002 -0.23848
-0.045942001 -0.070827998 -0.238507
-0.045938998 -0.070752002 -0.238509
-0.045936 -0.070674002 -0.23850299
-0.045931999 -0.070596002 -0.238517
-0.045926999 -0.070523001 -0.238557
-0.045921002 -0.07045 -0.238618
-0.045915999 -0.070377 -0.238672
-0.045910999 -0.070302002 -0.23871601
-0.045906 -0.070229001 -0.23876201
-0.045901 -0.070153996 -0.238794
-0.045897 -0.070078 -0.238811
-0.045894001 -0.07 -0.238819
-0.045889001 -0.069925003 -0.238851
-0.045883 -0.069853 -0.238929
-0.045876 -0.06978 -0.238997
-0.045545001 -0.055659 -0.234217
-0.045545001 -0.055585001 -0.234145
-0.045545001 -0.055512 -0.234084
-0.045545001 -0.055436999 -0.23402201
-0.045545001 -0.055362999 -0.233962
-0.045545001 -0.055289999 -0.23391099
-0.045543998 -0.055215001 -0.233869
-0.045543998 -0.055142 -0.233815
-0.045543998 -0.055068001 -0.233748
-0.045543 -0.054993 -0.233698
-0.045542002 -0.054919999 -0.23366199
-0.045541 -0.054843999 -0.23362
-0.045541 -0.054772001 -0.233557
-0.045541 -0.054699 -0.233503
-0.045542002 -0.054625001 -0.233411
-0.045545001 -0.054552998 -0.23330601
-0.045543 -0.054478001 -0.23328
-0.045540001 -0.054404002 -0.23327599
-0.045538001 -0.054331001 -0.233257
-0.045536999 -0.054256 -0.233217
-0.045536 -0.054182 -0.233181
-0.045534998 -0.054109 -0.233145
-0.045533001 -0.054035999 -0.23311201
-0.045533001 -0.053963002 -0.233064
-0.045533001 -0.053888999 -0.23299401
-0.045533001 -0.053816002 -0.23293699
-0.045531999 -0.053743001 -0.23290101
-0.045529999 -0.053668998 -0.23288301
-0.045527998 -0.053596001 -0.23286
-0.045527 -0.053521 -0.232824
-0.045526002 -0.053449001 -0.23278201
-0.045524999 -0.053374998 -0.232732
-0.045524001 -0.053300999 -0.23270901
-0.045520999 -0.053227 -0.232701
-0.045519002 -0.053153999 -0.232683
-0.045518 -0.053080998 -0.23265199
-0.045515999 -0.053006999 -0.23262
-0.045513999 -0.052933998 -0.232604
-0.045511998 -0.052859999 -0.23259
-0.045510001 -0.052784 -0.23257101
-0.045506999 -0.052710999 -0.232555
-0.045504998 -0.052637 -0.232545
-0.045502 -0.052563 -0.23254099
-0.045499001 -0.052489001 -0.232546
-0.045496002 -0.052413002 -0.232546
-0.045492999 -0.052338999 -0.23254199
-0.045490999 -0.052266002 -0.232526
-0.045488998 -0.052191999 -0.232503
-0.045487002 -0.052119002 -0.232489
-0.045483999 -0.052044999 -0.232483
-0.045481998 -0.051971 -0.232467
-0.045481 -0.051897999 -0.23243999
-0.045479 -0.051824 -0.232416
-0.045476999 -0.051750999 -0.23239601
-0.045474999 -0.051677 -0.232373
-0.045472998 -0.051603999 -0.232347
-0.045472 -0.051530998 -0.232309
-0.045469999 -0.051456999 -0.232291
-0.045467999 -0.051383998 -0.23227599
-0.045465998 -0.051309999 -0.232252
-0.045464002 -0.051236998 -0.232234
-0.045462001 -0.051162999 -0.232223
-0.045460001 -0.051089 -0.232199
-0.045458 -0.051018 -0.23217499
-0.045456 -0.050942 -0.232163
-0.045453001 -0.050868001 -0.23216
-0.045451 -0.050795 -0.23215
-0.045448001 -0.050721001 -0.23213799
-0.045446001 -0.050648998 -0.232122
-0.045444001 -0.050576001 -0.23210099
-0.045442 -0.050501999 -0.23209301
-0.045437999 -0.050425999 -0.23210099
-0.045435999 -0.050352 -0.232095
-0.045434002 -0.050278001 -0.232076
-0.045432001 -0.050205 -0.232058
-0.045428999 -0.050133001 -0.23204599
-0.045426998 -0.050057001 -0.23203699
-0.045423999 -0.049984001 -0.23202901
-0.045421999 -0.049911998 -0.232013
-0.045419998 -0.049837999 -0.23200101
-0.045417 -0.049764 -0.232002
-0.045414001 -0.049688999 -0.23199201
-0.045412999 -0.049617 -0.231958
-0.045412 -0.049546 -0.23192
-0.04541 -0.049472999 -0.231905
-0.045407001 -0.049399 -0.23189899
-0.045405 -0.049325 -0.231885
-0.045403 -0.049252 -0.23186401
-0.045400999 -0.049178001 -0.23185199
-0.045398001 -0.049104001 -0.231846
-0.045396 -0.049029998 -0.23184
-0.045393001 -0.048955999 -0.231837
-0.045389999 -0.048882999 -0.23182499
-0.045387998 -0.048808999 -0.23181701
-0.045384999 -0.048735 -0.23181701
-0.045380998 -0.048661001 -0.231828
-0.045378 -0.048585001 -0.231828
-0.045375999 -0.048510998 -0.23182601
-0.045372002 -0.048436999 -0.231832
-0.045370001 -0.048363 -0.231823
-0.045368001 -0.048291001 -0.231801
-0.045366 -0.048218001 -0.231787
-0.045363002 -0.048144002 -0.231777
-0.045359999 -0.048069999 -0.231778
-0.045357998 -0.047995999 -0.231776
-0.045355 -0.047922 -0.23177201
-0.045352999 -0.047849 -0.231758
-0.045350999 -0.047775 -0.23173501
-0.045348998 -0.047704 -0.231711
-0.045347001 -0.047630001 -0.23169699
-0.045343999 -0.047556002 -0.23169599
-0.045341 -0.047481999 -0.231686
-0.045338999 -0.047409002 -0.23167001
-0.045336999 -0.047334999 -0.23165999
-0.045334 -0.047261 -0.231659
-0.045331001 -0.047187001 -0.231655
-0.045327999 -0.047113001 -0.231653
-0.045325998 -0.047040001 -0.231645
-0.045322999 -0.046966001 -0.23164199
-0.04532 -0.046891998 -0.231648
-0.045317002 -0.046817999 -0.231644
-0.045315001 -0.046744 -0.23163199
-0.045311999 -0.046670001 -0.231631
-0.045309 -0.046596002 -0.231637
-0.045306001 -0.046521999 -0.231635
-0.045304 -0.046448 -0.231619
-0.045301002 -0.046374999 -0.231602
-0.045297999 -0.046301 -0.23160399
-0.045295 -0.046227001 -0.231612
-0.045292001 -0.046151001 -0.23161601
-0.045288 -0.046076 -0.231629
-0.045283999 -0.046 -0.231657
-0.045279998 -0.045922998 -0.231675
-0.045276999 -0.045848999 -0.231677
-0.045274001 -0.045775998 -0.23166899
-0.045272 -0.045701999 -0.231658
-0.045269001 -0.045628 -0.23165201
-0.045265999 -0.045554001 -0.23165201
-0.045263998 -0.045480002 -0.23164999
-0.045260001 -0.045403998 -0.231655
-0.045256998 -0.045329999 -0.231663
-0.045254 -0.045254 -0.23167101
-0.045249999 -0.045178998 -0.231691
-0.045246001 -0.045102999 -0.231711
-0.045242 -0.045026999 -0.23171601
-0.04524 -0.044953 -0.231714
-0.045235001 -0.044876002 -0.23174401
-0.045231 -0.044799998 -0.23176999
-0.045226999 -0.044723999 -0.23177999
-0.045224 -0.04465 -0.231783
-0.045221001 -0.044576 -0.231783
-0.045217998 -0.044500001 -0.231785
-0.045214999 -0.044426002 -0.23178899
-0.045212001 -0.044351999 -0.23179001
-0.04521 -0.044278 -0.23177999
-0.045208 -0.044204 -0.23176201
-0.045205001 -0.044131 -0.23175
-0.045201998 -0.044057 -0.23175099
-0.045198999 -0.043983001 -0.23175301
-0.045196 -0.043908998 -0.231749
-0.045193002 -0.043832999 -0.23175301
-0.045189999 -0.043759 -0.23176201
-0.045187 -0.043685 -0.231756
-0.045185 -0.043611001 -0.231746
-0.045182001 -0.043536998 -0.231738
-0.04518 -0.043464001 -0.231729
-0.045177002 -0.043389998 -0.23171499
-0.045175999 -0.043318 -0.231691
-0.045173999 -0.043246999 -0.23167001
-0.045171998 -0.043173 -0.231656
-0.045169 -0.043099001 -0.23164999
-0.045166001 -0.043023001 -0.231656
-0.045162998 -0.042948999 -0.231654
-0.045161001 -0.042877998 -0.23164099
-0.045157999 -0.042801999 -0.231639
-0.045155 -0.042727999 -0.23164301
-0.045150999 -0.042652 -0.231649
-0.045148 -0.042575002 -0.23165999
-0.045143999 -0.042500999 -0.23167001
-0.045141999 -0.042427 -0.231666
-0.045139 -0.042353999 -0.231656
-0.045136001 -0.042277999 -0.231657
-0.045132 -0.042201001 -0.23166899
-0.045129001 -0.042126998 -0.231677
-0.045125999 -0.042050999 -0.231683
-0.045122001 -0.041974999 -0.231699
-0.045118 -0.041898001 -0.231722
-0.045113999 -0.041822001 -0.231736
-0.045111001 -0.041746002 -0.23174401
-0.045108002 -0.041671999 -0.23174401
-0.045104999 -0.041595999 -0.231746
-0.045102 -0.041522 -0.231747
-0.045099001 -0.041448001 -0.231747
-0.045095 -0.041372001 -0.231759
-0.045090999 -0.041296002 -0.231775
-0.045088001 -0.041219 -0.231787
-0.045084 -0.041143 -0.2318
-0.045081001 -0.041067 -0.23181
-0.045076001 -0.040987998 -0.231838
-0.045070998 -0.040910002 -0.23187
-0.045067001 -0.040833 -0.231896
-0.045063 -0.040755 -0.23191801
-0.045058999 -0.040677998 -0.231932
-0.045056 -0.040601999 -0.231939
-0.045053001 -0.040527999 -0.231941
-0.045049001 -0.040452 -0.231951
-0.045045 -0.040374 -0.231971
-0.045042001 -0.040298 -0.231985
-0.045038 -0.040220998 -0.23198999
-0.045035001 -0.040144999 -0.232006
-0.045028999 -0.040064 -0.23205601
-0.045021001 -0.039978001 -0.232144
-0.045014001 -0.039895002 -0.232218
-0.045008998 -0.039813999 -0.23226
-0.044996001 -0.039716002 -0.232445
-0.044985998 -0.039623 -0.232595
-0.044978999 -0.039538998 -0.232655
-0.046712 -0.079572998 -0.239173
-0.046709001 -0.079493001 -0.239167
-0.046705998 -0.079415999 -0.239163
