-0.0141258 -0.00040257 0.9999 0.00250752
-0.0137662 -0.00127023 0.999904 4.99106e-05
-0.0134572 -0.00210099 0.999907 0
-0.0127772 -0.0031712 0.999913 0
-0.0130316 -0.00394222 0.999907 0
-0.0127579 -0.00466038 0.999908 0
-0.0124052 -0.00543766 0.999908 0
-0.0118282 -0.00597899 0.999912 0
-0.0115144 -0.00653981 0.999912 0
-0.0116265 -0.00682886 0.999909 0
-0.0115876 -0.00699782 0.999908 0
-0.0115365 -0.0071849 0.999908 0
-0.0114617 -0.00744074 0.999907 0
-0.0109046 -0.00762403 0.999911 0
-0.010944 -0.00777172 0.99991 0
-0.0102193 -0.00766314 0.999918 0
-0.00990671 -0.00758596 0.999922 0
-0.00993032 -0.00735669 0.999924 0
-0.0100286 -0.00693829 0.999926 0
-0.0101688 -0.00656403 0.999927 0
-0.0102286 -0.00618164 0.999929 0
-0.0103424 -0.00566258 0.99993 0.00110501
-0.0101664 -0.00538596 0.999934 0.00124197
-0.0107055 -0.0048872 0.999931 0.00379597
-0.0094782 -0.00446513 0.999945 0.00179171
-0.00938564 -0.00388887 0.999948 0.00084724
-0.00930515 -0.003329 0.999951 0.000842548
-0.00947703 -0.00265107 0.999952 0.00353051
-0.00965636 -0.00200274 0.999951 0.00499961
-0.00945622 -0.00138558 0.999954 0.00539299
-0.00931035 -0.000852859 0.999956 0.0052382
-0.00895485 -2.32767e-05 0.99996 0.00468751
-0.00926218 0.000588475 0.999957 0.00613953
-0.00885645 0.00134832 0.99996 0.00666982
-0.00813718 0.0020743 0.999965 0.00424278
-0.00816711 0.00279 0.999963 0.00516435
-0.00778815 0.00382223 0.999962 0.00701269
-0.00771549 0.00468348 0.999959 0.00792229
-0.00732611 0.0055238 0.999958 0.00883315
-0.00667225 0.00602858 0.99996 0.00762383
-0.00661533 0.00675372 0.999955 0.00640676
-0.00551257 0.00739448 0.999958 0.00491036
-0.0052641 0.00813858 0.999953 0.00487947
-0.0046011 0.00864436 0.999952 0.00403877
-0.00425832 0.00928195 0.999948 0.00427008
-0.00397561 0.00969078 0.999945 0.00221559
-0.00331702 0.0102611 0.999942 0.00203478
-0.00330744 0.0106824 0.999938 0.00185785
-0.00328163 0.0113765 0.99993 0.00396135
-0.00329411 0.0120743 0.999922 0.00472369
-0.00297441 0.0128054 0.999914 0.00599627
-0.00264629 0.0133903 0.999907 0.00472206
-0.00236566 0.0138238 0.999902 0.00318899
-0.00172784 0.014353 0.999896 0.00285187
-0.0019278 0.0152059 0.999883 0.00478964
-0.00124705 0.0154798 0.999879 0.00338578
-0.00105 0.015744 0.999876 0.00103674
-0.00150518 0.0164393 0.999864 0.00352941
-0.00163981 0.0168604 0.999856 0.00373419
-0.00157754 0.0171733 0.999851 0.00312811
-0.00100961 0.0171791 0.999852 0.00143945
-0.000920169 0.0169685 0.999856 0
-0.000794608 0.016998 0.999855 0
-0.000379912 0.0170451 0.999855 0
-0.000483002 0.0169661 0.999856 0
-0.000444475 0.0165573 0.999863 0
0.000112865 0.0166203 0.999862 0
0.000225429 0.0166722 0.999861 0
0.000515635 0.0164656 0.999864 0
0.000540521 0.0165277 0.999863 0
0.000458927 0.0167833 0.999859 0
0.000854082 0.0167816 0.999859 0
0.0013177 0.0168755 0.999857 0
0.00165791 0.0166633 0.99986 0
0.00101721 0.0166655 0.999861 0
0.00216969 0.016576 0.99986 0
0.00198077 0.016512 0.999862 0
0.0023918 0.0163674 0.999863 0
0.0018439 0.0163733 0.999864 0
0.00171624 0.0162866 0.999866 0
0.00207156 0.015884 0.999872 0
0.00231478 0.0158812 0.999871 0
0.00227483 0.0156913 0.999874 0
0.00300424 0.0151326 0.999881 0
0.00334449 0.0146076 0.999888 0
0.00328242 0.0144419 0.99989 0
0.00325684 0.0139572 0.999897 0
0.00317459 0.0133367 0.999906 0
0.00353023 0.0128217 0.999912 0
0.0032955 0.0123283 0.999919 0
0.0035338 0.0117512 0.999925 0
0.00395345 0.0113611 0.999928 0
0.00416709 0.0109699 0.999931 0
0.00493345 0.0104241 0.999933 0
0.00480719 0.0102956 0.999935 0
0.0047659 0.0101944 0.999937 0
0.00511857 0.0096079 0.999941 0
0.00532858 0.00896864 0.999946 0
0.00539859 0.0089137 0.999946 0
0.00534764 0.00848515 0.99995 0.0012377
0.00550945 0.00761043 0.999956 0.000797027
0.0060198 0.00707927 0.999957 0
0.00625001 0.00645359 0.99996 0
0.00664432 0.00592969 0.99996 0
0.00646777 0.00583278 0.999962 0
0.00680955 0.00533576 0.999963 0.000623737
0.00677102 0.00486227 0.999965 0.00100651
0.00655504 0.00429 0.999969 0.000859191
0.00637517 0.00346931 0.999974 3.12829e-05
0.0063387 0.0031858 0.999975 0
0.00712173 0.00274395 0.999971 0
0.00738593 0.00194673 0.999971 0
0.00714529 0.00163783 0.999973 0
0.00683165 0.00132093 0.999976 0.00157645
0.00685801 0.000958994 0.999976 0.00359644
0.00722781 0.000886006 0.999974 0.00386196
0.00774892 0.000863497 0.99997 0.00439683
0.00714432 0.000883041 0.999974 0.00681268
0.00741675 -7.79654e-06 0.999973 0.00441074
0.0069705 -0.00056558 0.999976 0.00469096
0.00670544 -0.000923712 0.999977 0.00470567
0.00670175 -0.00159643 0.999976 0.00498378
0.00671899 -0.00244332 0.999974 0.00432612
0.00675557 -0.00301457 0.999973 0.00635024
0.00740801 -0.00365085 0.999966 0.00596414
0.00736868 -0.00426708 0.999964 0.00491858
0.00756337 -0.00490873 0.999959 0.00333401
0.00736581 -0.00570231 0.999957 0.00471343
0.00734763 -0.00630002 0.999953 0.00340926
0.00721485 -0.00705818 0.999949 0.00304835
0.0071661 -0.00778366 0.999944 0.00147876
0.00774569 -0.00885007 0.999931 0
0.00687999 -0.0091667 0.999934 0.00118041
0.00709057 -0.0100016 0.999925 0.000692771
0.00723414 -0.010567 0.999918 0
0.00742615 -0.0112906 0.999909 0
0.00715228 -0.0119054 0.999904 0.00142702
0.00754682 -0.0124532 0.999894 0
0.00730226 -0.0134884 0.999882 9.92039e-05
0.00722132 -0.0140284 0.999875 0.00207733
0.00649493 -0.0147346 0.99987 0.00392404
0.00639828 -0.0155338 0.999859 0.00294486
0.00608189 -0.0163099 0.999849 0.00277225
0.00617215 -0.0170822 0.999835 0
0.00633773 -0.0178087 0.999821 0
0.00510583 -0.0184758 0.999816 0.000522177
0.00508035 -0.0189843 0.999807 0
0.00468318 -0.0195738 0.999797 0
0.00443472 -0.0200195 0.99979 0
0.0043504 -0.0205774 0.999779 0
0.00372187 -0.0212714 0.999767 0
0.00397002 -0.0219343 0.999752 0
0.00352767 -0.022391 0.999743 0
0.00369099 -0.0235246 0.999716 0
0.00319493 -0.0235916 0.999717 0
0.00299319 -0.024052 0.999706 0
0.00267864 -0.024577 0.999694 0
0.00232281 -0.0244913 0.999697 0.00228699
0.0021071 -0.0252627 0.999679 0.00322651
0.00183278 -0.0256387 0.99967 0.00430827
0.00098205 -0.0264302 0.99965 0.00684752
0.000702515 -0.0268368 0.99964 0.00698971
0.000776094 -0.0275107 0.999621 0.00605814
0.000512125 -0.0280576 0.999606 0.00447069
-3.2457e-06 -0.028748 0.999587 0.00514461
-0.000523737 -0.0290484 0.999578 0.0068951
-0.00113057 -0.0294978 0.999564 0.00717273
-0.00168538 -0.0303415 0.999538 0.00876931
-0.00183066 -0.030683 0.999527 0.00905227
-0.00233309 -0.0310468 0.999515 0.00826281
-0.00210758 -0.0315251 0.999501 0.00546729
-0.00242147 -0.0315022 0.999501 0.00455666
-0.00242125 -0.0319416 0.999487 0.00658127
-0.00254845 -0.0318939 0.999488 0.00580918
-0.00232997 -0.0320433 0.999484 0.00261997
-0.00256546 -0.0320429 0.999483 0.000357458
-0.00266687 -0.0323455 0.999473 0
-0.00306316 -0.0329159 0.999453 0.000532892
-0.00328404 -0.03342 0.999436 0.000550875
-0.00323902 -0.0339462 0.999418 0
-0.00366428 -0.0340085 0.999415 0
-0.00365307 -0.0341931 0.999409 0
-0.00357209 -0.0343212 0.999404 0
-0.00401574 -0.0347584 0.999388 0
-0.00428383 -0.0349049 0.999381 0
-0.00473996 -0.0347975 0.999383 0
-0.0054576 -0.0352089 0.999365 0
-0.006174 -0.0354437 0.999353 0
-0.00649864 -0.0359983 0.999331 0
-0.00690571 -0.0356962 0.999339 0
-0.00730422 -0.0355487 0.999341 0
-0.00762213 -0.0353389 0.999346 0
-0.00774305 -0.0352834 0.999347 0
-0.00833786 -0.0354284 0.999337 0
-0.00848789 -0.0352922 0.999341 0
-0.00888966 -0.0352568 0.999339 0
-0.0095584 -0.0349795 0.999342 0.00184145
-0.00945077 -0.0348898 0.999346 0.0019982
-0.00973465 -0.034797 0.999347 0.00214798
-0.0102762 -0.034793 0.999342 0.00390366
-0.00989858 -0.0348466 0.999344 0.00135914
-0.0101287 -0.0346234 0.999349 0.000563896
-0.010692 -0.0341471 0.99936 0.000718071
-0.0109358 -0.0341538 0.999357 0.0014071
-0.0111363 -0.0340322 0.999359 0.00195639
-0.0109869 -0.033971 0.999362 0
-0.0116986 -0.0336411 0.999366 0
-0.0119408 -0.0335433 0.999366 0
-0.0124652 -0.0337696 0.999352 0
-0.0128224 -0.0339561 0.999341 0
-0.0136248 -0.034116 0.999325 0
-0.014031 -0.0338248 0.999329 0
-0.0146164 -0.0335744 0.999329 0.00147093
-0.0152444 -0.0335835 0.99932 0.00253024
-0.0156223 -0.0334265 0.999319 0.00319383
-0.0163804 -0.0334469 0.999306 0.0037091
-0.0165962 -0.0331966 0.999311 0.00276061
-0.0164635 -0.0330959 0.999317 0
-0.0164419 -0.0332975 0.99931 0
-0.0163646 -0.0325534 0.999336 0
-0.0165031 -0.0326406 0.999331 3.4953e-05
-0.017397 -0.0324331 0.999322 0.00338696
-0.0175684 -0.0322041 0.999327 0.00284022
-0.0178098 -0.0324334 0.999315 0.0030916
-0.0178811 -0.0323383 0.999317 0.00253872
-0.0187075 -0.0325046 0.999296 0.00318443
-0.0192441 -0.0327011 0.99928 0.00396411
-0.0195498 -0.0326242 0.999276 0.00489117
-0.0196673 -0.0325339 0.999277 0.00179534
-0.0197019 -0.0328459 0.999266 0.00177823
-0.0196579 -0.0328292 0.999268 0.000417508
-0.0204207 -0.0329094 0.99925 0.0016047
-0.0207144 -0.0329874 0.999241 0.00158533
-0.0209966 -0.0333044 0.999225 0.00210284
-0.0207199 -0.0339594 0.999208 0.000740041
-0.020799 -0.0348865 0.999175 0.000161896
-0.0208223 -0.0351124 0.999166 0
-0.0208464 -0.035119 0.999166 5.92354e-06
-0.020498 -0.0357233 0.999152 0
-0.0205562 -0.0366515 0.999117 0
-0.0207846 -0.0366156 0.999113 0
-0.020609 -0.0379511 0.999067 0
-0.0208418 -0.0391481 0.999016 0
-0.0210238 -0.0395893 0.998995 0
-0.0215117 -0.0399773 0.998969 0
-0.0213305 -0.0414649 0.998912 0
-0.0218194 -0.0421708 0.998872 0
-0.0222732 -0.0430847 0.998823 0
-0.0224435 -0.0446785 0.998749 0
-0.0230018 -0.0455286 0.998698 0
-0.0237062 -0.0465635 0.998634 0.00181517
-0.0237611 -0.0477236 0.998578 0.00163384
-0.0236114 -0.0496684 0.998487 0
-0.0244223 -0.0510118 0.998399 0.000548417
-0.0238667 -0.0539011 0.998261 0
-0.0239026 -0.0563205 0.998127 0
-0.0240685 -0.0585364 0.997995 0
-0.0248384 -0.0602382 0.997875 0
-0.0250519 -0.0614507 0.997796 0
-0.0258787 -0.0635915 0.99764 0
-0.0261953 -0.0658105 0.997488 0
-0.0269763 -0.067819 0.997333 6.97634e-05
-0.0273618 -0.0697342 0.99719 0.00224462
-0.0280286 -0.0712898 0.997062 0.00266594
-0.0275951 -0.0737136 0.996898 0.000220908
-0.0275062 -0.0762603 0.996708 0.00167678
-0.0278665 -0.0782753 0.996542 0.002056
-0.0275072 -0.0803223 0.996389 0
-0.0273038 -0.0828812 0.996185 0
-0.0274957 -0.0842543 0.996065 0
-0.0281719 -0.0861325 0.995885 0
-0.0279788 -0.0878165 0.995744 0
-0.0281787 -0.0891663 0.995618 0
-0.0285095 -0.0899033 0.995542 0
-0.0288183 -0.0917455 0.995365 0
-0.0292585 -0.0935081 0.995189 0
-0.0292216 -0.0949371 0.995054 0
-0.0295439 -0.0964824 0.994896 0
-0.0301516 -0.0980888 0.994721 0
-0.030562 -0.100119 0.994506 0
-0.0307364 -0.100617 0.99445 0.00041862
-0.0314221 -0.102649 0.994221 0.000862337
-0.0316414 -0.104808 0.993989 0.00285288
-0.0320514 -0.105935 0.993856 0.0018373
-0.0324822 -0.107677 0.993655 0.00273033
-0.0326081 -0.109141 0.993491 0.00197602
-0.0334975 -0.111131 0.993241 0.00551801
-0.0335336 -0.112867 0.993044 0.00516781
-0.0338028 -0.115167 0.992771 0.00461862
-0.0333999 -0.116505 0.992628 0.0030249
-0.0332415 -0.118333 0.992417 0.00279551
-0.033907 -0.11926 0.992284 0.00462134
-0.0342762 -0.120313 0.992144 0.00573551
-0.0346758 -0.120681 0.992086 0.0064695
-0.0348862 -0.122494 0.991856 0.00638193
-0.0356236 -0.123318 0.991728 0.00693984
-0.0361767 -0.124782 0.991524 0.00701846
-0.0360154 -0.125369 0.991456 0.00543763
-0.036402 -0.126052 0.991355 0.00601129
-0.0364203 -0.127658 0.991149 0.00609405
-0.0367705 -0.128109 0.991078 0.00697758
-0.0369062 -0.12923 0.990928 0.0073721
-0.0373792 -0.130605 0.99073 0.00773669
-0.0375856 -0.131335 0.990625 0.0063714
-0.0377943 -0.13315 0.990375 0.00553305
-0.037649 -0.13299 0.990402 0.00390533
-0.0378464 -0.134137 0.99024 0.00370536
-0.0379608 -0.135619 0.990034 0.00423294
-0.0386513 -0.135728 0.989992 0.00592893
-0.038842 -0.136954 0.989816 0.0068074
-0.0393333 -0.138669 0.989557 0.00764099
-0.039313 -0.139034 0.989507 0.00672413
-0.038869 -0.139447 0.989466 0.00520105
-0.0389341 -0.14052 0.989312 0.00498738
-0.0391545 -0.141675 0.989139 0.00523447
-0.0396418 -0.14189 0.989088 0.00620227
-0.0401075 -0.14407 0.988754 0.00623618
-0.0402343 -0.144436 0.988696 0.0057517
-0.0404426 -0.144076 0.98874 0.00528639
-0.0410648 -0.144716 0.988621 0.00672344
-0.0409784 -0.145752 0.988472 0.00719687
-0.0412589 -0.146568 0.98834 0.00748711
-0.0414777 -0.147207 0.988236 0.00677055
-0.0414414 -0.147804 0.988148 0.00553828
-0.0415638 -0.147842 0.988137 0.00464182
-0.0416853 -0.147432 0.988193 0.00374264
-0.0418727 -0.14866 0.988002 0.00415055
-0.0421579 -0.149666 0.987837 0.00527038
-0.0422719 -0.151005 0.987629 0.00531938
-0.0423771 -0.150559 0.987692 0.00416295
-0.0425408 -0.150704 0.987663 0.00389687
-0.0429412 -0.151227 0.987566 0.00525783
-0.0291506 0.106299 0.993907 0.00404729
-0.029105 0.106974 0.993836 0.00562172
-0.0289095 0.106815 0.993859 0.00529137
-0.0288327 0.107151 0.993825 0.0063482
-0.0284667 0.107084 0.993842 0.00671648
-0.0281732 0.106333 0.993931 0.00572846
-0.0283294 0.105823 0.993981 0.00565342
-0.0283521 0.105272 0.994039 0.00557944
-0.0278683 0.104742 0.994109 0.00529915
-0.0272427 0.103927 0.994212 0.00415695
-0.0266372 0.102575 0.994368 0.00175392
-0.0263507 0.10154 0.994482 1.13359e-05
-0.0257095 0.101074 0.994547 0
-0.0251548 0.100573 0.994612 0
-0.0254088 0.0999202 0.994671 0
-0.0253711 0.0992346 0.994741 0
-0.0256817 0.0983756 0.994818 0
-0.0253564 0.0975535 0.994907 0
-0.0252252 0.0966517 0.994999 0
-0.0248861 0.0957818 0.995091 0
-0.0246391 0.094949 0.995177 0
-0.0244634 0.0941166 0.995261 0
-0.0244817 0.0932847 0.995338 0
-0.0244659 0.0923618 0.995425 0
-0.0240641 0.0914985 0.995514 0
-0.0242298 0.0904371 0.995607 0
-0.0240654 0.0893171 0.995713 0
-0.0234768 0.0881999 0.995826 0
-0.0235123 0.087045 0.995927 0
-0.0232455 0.0858843 0.996034 0
-0.0232125 0.0846769 0.996138 0
-0.0233428 0.0835367 0.996231 0
-0.0235844 0.0823157 0.996327 0
-0.0233379 0.0810432 0.996437 0
-0.0232481 0.079747 0.996544 0
-0.0232641 0.0784449 0.996647 0
-0.0227914 0.0771022 0.996763 0
-0.0220337 0.0757703 0.996882 0
-0.0223988 0.074448 0.996973 0
-0.022778 0.0732305 0.997055 0
-0.0226159 0.0720344 0.997146 0
-0.0230465 0.070817 0.997223 0
-0.0227303 0.0696233 0.997314 0
-0.022666 0.0683367 0.997405 0
-0.0226668 0.0670839 0.99749 0
-0.0227412 0.0659463 0.997564 0
-0.0226651 0.0648544 0.997637 0
-0.0220668 0.0638592 0.997715 0
-0.021889 0.0627769 0.997787 0
-0.0217328 0.0618238 0.99785 0
-0.0212696 0.0607512 0.997926 0
-0.0207945 0.0597513 0.997997 0
-0.0203823 0.0586438 0.998071 0
-0.0199083 0.0575962 0.998141 0
-0.0190406 0.0563561 0.998229 0
-0.0184852 0.0550149 0.998314 0
-0.0177241 0.0536633 0.998402 0
-0.0183676 0.0522971 0.998463 0
-0.0189349 0.0506896 0.998535 0
-0.018907 0.0491138 0.998614 0
-0.0183439 0.0476067 0.998698 0
-0.0174726 0.0459113 0.998793 0
-0.0181012 0.0443977 0.99885 0.000294993
-0.0178899 0.0426159 0.998931 0.000323098
-0.0173958 0.0408115 0.999015 0
-0.0172545 0.0391479 0.999084 0.00173596
-0.0165535 0.0371293 0.999173 9.43411e-05
-0.0169354 0.0353282 0.999232 0.000561855
-0.0172458 0.0336524 0.999285 0.00178842
-0.0168823 0.0317466 0.999353 0.00104696
-0.0164287 0.029916 0.999417 0
-0.0160201 0.0280747 0.999477 0
-0.0168435 0.0262917 0.999512 0.000311366
-0.0177126 0.0246663 0.999539 0.00274001
-0.0177981 0.0228449 0.999581 0.00305983
-0.0172364 0.0209198 0.999633 0.00142325
-0.0160928 0.0192174 0.999686 0.000700873
-0.016202 0.0174638 0.999716 0
-0.0159728 0.0159759 0.999745 0
-0.0153138 0.0147176 0.999774 0
-0.0149944 0.0134291 0.999797 0
-0.0147405 0.0122793 0.999816 0
-0.0144181 0.0110725 0.999835 0
-0.0141396 0.00996167 0.99985 0
-0.0139668 0.00905844 0.999861 0
-0.0135379 0.00822042 0.999875 0
-0.0138387 0.00748611 0.999876 0
-0.0146803 0.00690202 0.999868 0
-0.0142212 0.00621139 0.99988 0
-0.0138821 0.00562315 0.999888 0
-0.0131433 0.00487527 0.999902 0
-0.013181 0.00427516 0.999904 0
-0.0126482 0.00358268 0.999914 0
-0.0125311 0.00289496 0.999917 0
-0.0120537 0.00229006 0.999925 0
-0.0116022 0.00208186 0.999931 0
-0.0119372 0.00168012 0.999927 0
-0.0109166 0.00130997 0.99994 0
-0.00957828 0.00115636 0.999953 0
-0.00946249 0.00106115 0.999955 0
-0.00961936 0.00109772 0.999953 0
-0.00943957 0.000965751 0.999955 0
-0.00913587 0.00100645 0.999958 0
-0.00872664 0.00108449 0.999961 0
-0.00822593 0.0012128 0.999965 0
-0.0076632 0.00128706 0.99997 0
-0.00773301 0.00129003 0.999969 0
-0.0075529 0.00154307 0.99997 0
-0.00732448 0.00167254 0.999972 0
-0.00690849 0.0019298 0.999974 0
-0.00755194 0.00219151 0.999969 0
-0.00711299 0.00225859 0.999972 0
-0.00716247 0.00264164 0.999971 0.000637777
-0.00705623 0.0029204 0.999971 0.000752275
-0.00667809 0.00324321 0.999972 0.00102042
-0.00646165 0.00358378 0.999973 0.00144136
-0.00630995 0.00404964 0.999972 0.00139712
-0.00709754 0.00454143 0.999964 0.00195136
-0.00673057 0.00511549 0.999964 0.00311772
-0.0066042 0.00579366 0.999961 0.00427644
-0.00673964 0.00643139 0.999957 0.00452777
-0.00660161 0.00714276 0.999953 0.0043263
-0.00580359 0.00777988 0.999953 0.0014004
-0.00560412 0.0083716 0.999949 0.000125433
-0.00495514 0.00919222 0.999945 7.3047e-05
-0.00444312 0.00997047 0.99994 0.000325804
-0.00367772 0.0105432 0.999938 0
-0.00336841 0.0110322 0.999933 0
-0.00273149 0.0116498 0.999928 0
-0.00257501 0.0123371 0.999921 0
-0.00229015 0.0127927 0.999916 0
-0.00189882 0.0132717 0.99991 0
-0.00196284 0.0138225 0.999903 0
-0.00216844 0.0141181 0.999898 0
-0.00210369 0.0146077 0.999891 0
-0.00202305 0.0149864 0.999886 0
-0.00169516 0.0152707 0.999882 0
-0.00148982 0.0157643 0.999875 0
-0.00215319 0.0163443 0.999864 0
-0.00176403 0.0166932 0.999859 0
-0.00116467 0.0169577 0.999856 0
-0.0014213 0.0173911 0.999848 0
-0.00144847 0.0180798 0.999835 0.0013364
-0.00103384 0.018414 0.99983 0
-0.000881869 0.018698 0.999825 0
-0.000818583 0.019006 0.999819 0
6.57669e-05 0.0191629 0.999816 0
0.00074646 0.0194413 0.999811 0
0.00083608 0.0197888 0.999804 0
0.000927736 0.0202106 0.999795 0
0.0015865 0.0202778 0.999793 0
0.00110275 0.0205843 0.999788 0
0.000908991 0.0208442 0.999782 0
0.00105747 0.0209926 0.999779 0
0.00112379 0.0210845 0.999777 0
0.00159094 0.0210097 0.999778 0
0.0013475 0.0209419 0.99978 0
0.000654122 0.0210447 0.999778 0
0.000593435 0.0212933 0.999773 0.00142417
0.000793342 0.0215559 0.999767 0.00358295
0.000474025 0.0219431 0.999759 0.00527621
0.000781967 0.0220866 0.999756 0.00426186
0.000922157 0.022258 0.999752 0.00595967
0.00158043 0.0221306 0.999754 0.00494847
0.00143866 0.0218513 0.99976 0.00468909
0.00189935 0.0213184 0.999771 0.00155225
0.00195193 0.0209891 0.999778 0.00219761
0.00227997 0.0206555 0.999784 0.0020875
0.00296634 0.0199908 0.999796 0.0004498
0.00314378 0.0194111 0.999807 0.000173834
0.00327006 0.0194219 0.999806 0.003246
0.00354268 0.0188814 0.999816 0.00117041
0.00407098 0.0185528 0.99982 0.000758779
0.00476675 0.0180253 0.999826 4.78955e-05
0.00503377 0.0176401 0.999832 0
0.00467869 0.0173205 0.999839 0
0.00545713 0.017152 0.999838 4.79591e-05
0.00544495 0.0169325 0.999842 0
0.00611047 0.0165006 0.999845 0
0.00690792 0.0159117 0.99985 0
0.00690192 0.015587 0.999855 0
0.0066757 0.0152211 0.999862 0
0.00701349 0.0145006 0.99987 0
0.00726844 0.0141786 0.999873 0
0.00692608 0.0134375 0.999886 0
0.00651989 0.0131752 0.999892 0
0.0070106 0.0121966 0.999901 0
0.00635073 0.0117634 0.999911 0
0.00647031 0.0110369 0.999918 0.000295738
0.00599896 0.0105783 0.999926 0.00463303
0.00672791 0.00987963 0.999929 0.0033606
0.00655381 0.00943462 0.999934 0.00375644
0.00600624 0.00893481 0.999942 0.00446587
0.00562821 0.00835854 0.999949 0.00442562
0.00471402 0.0075284 0.999961 0.00590368
0.00507036 0.00664458 0.999965 0.00421083
0.00539149 0.00591019 0.999968 0.00281555
0.00492253 0.0054961 0.999973 0.00233113
0.00490909 0.0047458 0.999977 0.00199879
0.00419013 0.00416806 0.999982 0.00349987
0.00445077 0.00397209 0.999982 0.00484612
0.00446007 0.00361242 0.999983 0.00468539
0.00451626 0.00325143 0.999985 0.00573485
0.0044237 0.00256974 0.999987 0.0051354
0.00439285 0.00210379 0.999988 0.00559424
0.00439188 0.00118946 0.99999 0.00484989
0.00406653 0.000465906 0.999992 0.00501126
0.00428356 -0.000247761 0.999991 0.00697753
0.00423573 -0.000994049 0.999991 0.00579614
0.00352457 -0.00179773 0.999992 0.00717521
0.00430158 -0.00288028 0.999987 0.00343863
0.00394963 -0.0036935 0.999985 0.00423933
0.00445514 -0.00457181 0.99998 0.00231574
0.00575179 -0.00561988 0.999968 0.000229836
0.0051438 -0.006135 0.999968 0.00348512
0.0048433 -0.00738263 0.999961 0.00263087
0.0047888 -0.00873372 0.99995 0.000864996
0.00538441 -0.00960908 0.999939 0
0.00490968 -0.0103044 0.999935 0
0.00549603 -0.01133 0.999921 0
0.00523568 -0.0125861 0.999907 0
0.00528768 -0.013645 0.999893 0
0.00546385 -0.0145327 0.999879 0
0.00499471 -0.0153266 0.99987 0
0.00436774 -0.0160833 0.999861 0
0.00385549 -0.0166598 0.999854 0
0.00344664 -0.0170468 0.999849 0.00179744
0.00281109 -0.0177293 0.999839 0.00448203
0.00255907 -0.018428 0.999827 0.00292797
0.0022217 -0.0193639 0.99981 0.00273889
0.00133946 -0.0200688 0.999798 0.00376688
0.00138025 -0.0209445 0.99978 0.00206571
0.00108172 -0.0217524 0.999763 0.000982657
0.000797113 -0.0226492 0.999743 0.00186956
0.000261762 -0.0232342 0.99973 0.0016978
0.000915958 -0.024047 0.99971 0
-0.000137988 -0.0247135 0.999695 0.00287436
-1.38137e-05 -0.025474 0.999676 0.00331038
-0.000745708 -0.0259913 0.999662 0.00436536
-0.00122786 -0.0266967 0.999643 0.00541336
-0.000992085 -0.0271188 0.999632 0.0051113
-0.00138345 -0.0279363 0.999609 0.00419422
-0.00189477 -0.0285938 0.999589 0.00524386
-0.00173381 -0.029336 0.999568 0.00266861
-0.00277506 -0.0301899 0.99954 0.00538935
-0.00342276 -0.0310549 0.999512 0.00462172
-0.00372797 -0.0315582 0.999495 0.00567976
-0.00342138 -0.0325967 0.999463 0.00476238
-0.00315447 -0.0336258 0.99943 0.00430441
-0.00302049 -0.0342568 0.999408 0.00492624
-0.00281191 -0.0351531 0.999378 0.00326601
-0.00264828 -0.0365529 0.999328 0.00266822
-0.002849 -0.0373354 0.999299 0.000104316
-0.0034721 -0.0383045 0.99926 0
-0.00358956 -0.0387198 0.999244 0
-0.00357044 -0.0394399 0.999216 0.000203886
-0.00369937 -0.039737 0.999203 0
-0.00372733 -0.040273 0.999182 0
-0.00421565 -0.0403004 0.999179 0
-0.00485861 -0.0406424 0.999162 0
-0.00544648 -0.0407297 0.999155 0.00102276
-0.00561747 -0.0411565 0.999137 0
-0.00593129 -0.0415322 0.99912 0
-0.00605814 -0.0418001 0.999108 0
-0.00625429 -0.0421093 0.999093 0
-0.00624928 -0.042203 0.999089 0
-0.00655517 -0.0421936 0.999088 0
-0.00691154 -0.0420685 0.999091 0
-0.00704126 -0.0421261 0.999087 0
-0.00803278 -0.0422336 0.999075 0
-0.00842905 -0.041891 0.999087 0.000112005
-0.00895056 -0.041869 0.999083 0.00200893
-0.00889361 -0.0418501 0.999084 0.00252532
-0.00939965 -0.0420162 0.999073 0.00104885
-0.00979501 -0.0419836 0.99907 0
-0.0104367 -0.0420108 0.999063 0.000536524
-0.0106418 -0.0415818 0.999078 0
-0.0106725 -0.0416553 0.999075 0
-0.0111823 -0.0417807 0.999064 0
-0.0118458 -0.0416534 0.999062 0
-0.0129652 -0.0411625 0.999068 0
-0.0124116 -0.0413694 0.999067 0.000214646
-0.0131683 -0.0414432 0.999054 0
-0.0130964 -0.0416761 0.999045 0
-0.0137398 -0.0412487 0.999054 0.000343632
-0.0140462 -0.041424 0.999043 0.000979367
-0.0136983 -0.041671 0.999037 0
-0.0146334 -0.0414271 0.999034 0.000274268
-0.015691 -0.0422258 0.998985 0.00223486
-0.0159653 -0.0424656 0.99897 0.00164668
-0.0162488 -0.0429422 0.998945 0.00119742
-0.0156155 -0.0433783 0.998937 0.000767235
-0.0164552 -0.043358 0.998924 0.00337648
-0.0158528 -0.0433323 0.998935 0.00174686
-0.016136 -0.043645 0.998917 0.00237091
-0.0170469 -0.0435494 0.998906 0.00344778
-0.0173178 -0.0432071 0.998916 0.00439124
-0.0173071 -0.0425187 0.998946 0.00474828
-0.0179521 -0.0422536 0.998946 0.00537712
-0.0185349 -0.0415163 0.998966 0.00753146
-0.0182727 -0.0411092 0.998988 0.00545553
-0.018352 -0.0409107 0.998994 0.00382455
-0.017824 -0.0406352 0.999015 0.00280502
-0.0181287 -0.0404459 0.999017 0.00191416
-0.0181472 -0.0401042 0.999031 0.00163726
-0.0179805 -0.0401847 0.99903 0
-0.0185467 -0.0392812 0.999056 0.000320635
-0.0186704 -0.0389149 0.999068 0.000195546
-0.0193384 -0.038663 0.999065 0.00218284
-0.0194896 -0.0385752 0.999066 0.00295743
-0.0206989 -0.0382725 0.999053 0.00461999
-0.0210206 -0.038357 0.999043 0.00431838
-0.0208574 -0.0381935 0.999053 0.00494055
-0.0215856 -0.0386594 0.999019 0.00400851
-0.021208 -0.0383593 0.999039 0.00297851
-0.0218156 -0.0384059 0.999024 0.00250764
-0.0215494 -0.0384949 0.999026 0
-0.0224124 -0.0383394 0.999013 0.000213842
-0.0226753 -0.0383498 0.999007 0
-0.0227474 -0.0382454 0.999009 0.000361637
-0.0232403 -0.038173 0.999001 0.00141554
-0.0241836 -0.0385269 0.998965 0.00395368
-0.0244083 -0.0391005 0.998937 0.00422108
-0.0244335 -0.0397226 0.998912 0.00252044
-0.024997 -0.0404079 0.99887 0.00156022
-0.0254546 -0.0407828 0.998844 0.00319847
-0.0257419 -0.0412477 0.998817 0.000280318
-0.0263203 -0.04165 0.998786 0.00161808
-0.0275408 -0.0427277 0.998707 0.00426564
-0.0277879 -0.043646 0.998661 0.00345636
-0.0283953 -0.0445608 0.998603 0.00490967
-0.0287276 -0.0451869 0.998565 0.00681956
-0.0295561 -0.0458576 0.998511 0.00857255
-0.0287652 -0.0470518 0.998478 0.00672332
-0.0278304 -0.0478816 0.998465 0.00730219
-0.0279503 -0.0494642 0.998385 0.00841452
-0.0282144 -0.0506305 0.998319 0.0089383
-0.0278838 -0.0523263 0.998241 0.00643851
-0.028616 -0.0534253 0.998162 0.00694914
-0.0289883 -0.0545343 0.998091 0.00716423
-0.0287756 -0.0561807 0.998006 0.00585224
-0.0294165 -0.0578279 0.997893 0.00676697
-0.029078 -0.0596699 0.997795 0.00270223
-0.0285234 -0.0615354 0.997697 0.0011995
-0.0290592 -0.0636288 0.99755 0.00223619
-0.0294968 -0.0658379 0.997394 0.00234372
-0.0296527 -0.0683067 0.997224 0
-0.0298353 -0.0703167 0.997078 0
-0.02988 -0.072892 0.996892 0
-0.0303657 -0.0748684 0.996731 0
-0.0301168 -0.0772052 0.99656 0
-0.0306642 -0.079439 0.996368 0
-0.0304534 -0.0815941 0.9962 0
-0.0306801 -0.0838812 0.996003 0
-0.0309139 -0.0863627 0.995784 0
-0.0310075 -0.0884171 0.995601 0
-0.0311326 -0.0905899 0.995402 0
-0.0312067 -0.0923431 0.995238 0
-0.032157 -0.0939774 0.995055 0
-0.0328693 -0.0950328 0.994931 0.0001899
-0.0333404 -0.0968506 0.99474 0
-0.032828 -0.0981478 0.99463 0
-0.0331597 -0.0991275 0.994522 0
-0.033546 -0.100638 0.994357 0
-0.0333485 -0.102025 0.994223 0
-0.0335794 -0.103105 0.994103 0.00105246
-0.0330219 -0.104192 0.994009 0
-0.0338733 -0.105132 0.993881 0.00168711
-0.0342512 -0.105344 0.993846 0.00185684
-0.033103 -0.105858 0.99383 0.000130651
-0.0333758 -0.107223 0.993675 0
-0.0339582 -0.10876 0.993488 0.000870189
-0.0343265 -0.110019 0.993337 0.000466606
-0.0341605 -0.111211 0.993209 0
-0.0347421 -0.111791 0.993124 0.000720007
-0.035244 -0.112322 0.993047 0.00106148
-0.0353092 -0.113135 0.992952 0
-0.0351239 -0.113984 0.992862 0.0012064
-0.0351714 -0.115531 0.992681 0
-0.034654 -0.117344 0.992487 0
-0.0344193 -0.118547 0.992352 0
-0.0355561 -0.119271 0.992225 0
-0.0356544 -0.120961 0.992017 0
-0.0356271 -0.122241 0.991861 0
-0.0356528 -0.123804 0.991666 0
-0.0360944 -0.124885 0.991514 0
-0.036885 -0.126108 0.991331 0.000237815
-0.0372177 -0.126879 0.99122 0.00182845
-0.0370294 -0.127915 0.991094 0.000113258
-0.037244 -0.129212 0.990917 0
-0.0373868 -0.130514 0.990741 0
-0.0373604 -0.132007 0.990544 0
-0.0376283 -0.133246 0.990368 0.00131894
-0.0372894 -0.135417 0.990087 0
-0.0371117 -0.137156 0.989854 0
-0.037194 -0.138502 0.989663 0
-0.0367879 -0.13956 0.98953 0
-0.0369906 -0.1409 0.989332 0
-0.0368236 -0.141532 0.989249 0
-0.0367765 -0.141856 0.989204 0
-0.0366606 -0.142835 0.989067 0
-0.036851 -0.14439 0.988834 0
-0.0372591 -0.146617 0.988491 0
-0.0380769 -0.14858 0.988167 0
-0.0380286 -0.150814 0.98783 0
-0.0379936 -0.15171 0.987695 0
-0.0376377 -0.153481 0.987435 0
-0.0375829 -0.155758 0.98708 0
-0.0377993 -0.156393 0.986971 0
-0.0377429 -0.158564 0.986627 0
-0.0381489 -0.158882 0.98656 0
-0.0382487 -0.159975 0.98638 0
-0.0383342 -0.161117 0.986191 0
-0.0382712 -0.160887 0.986231 0
-0.0384003 -0.162334 0.985988 0
-0.0382045 -0.162833 0.985914 0
-0.0306253 0.108148 0.993663 0.00355556
-0.0305491 0.107975 0.993684 0.00350818
-0.0308859 0.10855 0.993611 0.00511771
-0.0303451 0.108236 0.993662 0.00434058
-0.0296689 0.107384 0.993775 0.00240539
-0.0296596 0.108105 0.993697 0.00493214
-0.0294476 0.10766 0.993752 0.00464037
-0.0293804 0.106848 0.993841 0.00343103
-0.0287543 0.105357 0.994019 0
-0.0282185 0.105103 0.994061 0
-0.0283522 0.104699 0.9941 0
-0.0277866 0.10431 0.994157 0
-0.0274852 0.103804 0.994218 0
-0.0274664 0.103161 0.994285 0
-0.0273219 0.102465 0.994361 0
-0.0277267 0.101671 0.994432 0
-0.0273805 0.100956 0.994514 0
-0.0275938 0.100232 0.994581 0
-0.0274518 0.0994088 0.994668 0
-0.0268709 0.0986579 0.994759 0
-0.0267931 0.0978394 0.994841 0
-0.0267716 0.0970264 0.994922 0
-0.0263872 0.0962047 0.995012 0
-0.0260711 0.0953779 0.9951 0
-0.0256919 0.094456 0.995197 0
-0.0259042 0.0934432 0.995288 0
-0.025816 0.0923704 0.99539 0
-0.0258279 0.0912325 0.995495 0
-0.0250554 0.0900752 0.99562 0
-0.0244194 0.0888732 0.995744 0
-0.0242535 0.0876175 0.995859 0
-0.0235616 0.0863818 0.995983 0
-0.0237332 0.0851377 0.996087 0
-0.0243714 0.0837996 0.996185 0
-0.0241561 0.0825859 0.996291 0
-0.0241672 0.0813459 0.996393 0
-0.0239538 0.080103 0.996499 0
-0.0234766 0.0787498 0.996618 0
-0.0227305 0.0773569 0.996744 0
-0.0224655 0.0761754 0.996841 0
-0.0220889 0.0746633 0.996964 0
-0.022108 0.0736245 0.997041 0
-0.0223258 0.0724805 0.99712 0.000301184
-0.0223268 0.0714983 0.997191 0.00204874
-0.0227455 0.0703494 0.997263 0.00294519
-0.0229258 0.0693631 0.997328 0.00415872
-0.0220518 0.0678898 0.997449 0.00231072
-0.0211445 0.0663529 0.997572 0
-0.0213808 0.0652329 0.997641 0
-0.0211666 0.0641038 0.997719 0
-0.0204154 0.0630958 0.997799 0
-0.020145 0.0622281 0.997859 0
-0.0202173 0.0611299 0.997925 0
-0.0200992 0.0600315 0.997994 0
-0.0202225 0.0588155 0.998064 0
-0.0201122 0.0575428 0.99814 0.000234245
-0.0196994 0.056164 0.998227 0
-0.0194363 0.0547902 0.998309 0
-0.0192483 0.0533581 0.99839 0
-0.0188809 0.0518876 0.998474 0
-0.0183005 0.0504299 0.99856 0
-0.0182655 0.0489557 0.998634 0
-0.0174568 0.0472781 0.998729 0
-0.0172522 0.0455882 0.998811 0
-0.0173765 0.0439437 0.998883 0
-0.0176316 0.0422402 0.998952 0.00171355
-0.0173187 0.0406738 0.999022 0.0035835
-0.0172827 0.0388914 0.999094 0.00527795
-0.0180354 0.0370772 0.99915 0.0048214
-0.0175507 0.0351634 0.999227 0.00408018
-0.016971 0.0331941 0.999305 0.00164075
-0.0163054 0.03134 0.999376 0.000580591
-0.0159944 0.0295136 0.999436 0.00136864
-0.0154017 0.0277196 0.999497 0.00123735
-0.0161473 0.0261611 0.999527 0.00354519
-0.015927 0.0242857 0.999578 0.00202192
-0.0150912 0.0225218 0.999632 0.00035291
-0.0154914 0.0208357 0.999663 0.00189131
-0.0154426 0.0196332 0.999688 0.00360933
-0.0153741 0.0180084 0.99972 0.00193406
-0.0152723 0.0164876 0.999747 0.00133982
-0.0148703 0.0150497 0.999776 0
-0.0155391 0.0138701 0.999783 0
-0.0152105 0.0125918 0.999805 0
-0.0142542 0.0114232 0.999833 0
-0.0148212 0.0104562 0.999835 0
-0.0151005 0.00970788 0.999839 0
-0.0156235 0.00902103 0.999837 0
-0.0155452 0.00836194 0.999844 0
-0.0151199 0.00771123 0.999856 0
-0.0149483 0.00715488 0.999863 0
-0.0145168 0.00641206 0.999874 0
-0.0144552 0.00588026 0.999878 0
-0.0141204 0.00526863 0.999886 0
-0.0137432 0.00467498 0.999895 0
-0.0128085 0.0040132 0.99991 0
-0.0118622 0.00373644 0.999923 0
-0.0108925 0.00331862 0.999935 0
-0.011362 0.0028731 0.999931 0
-0.0116643 0.00267816 0.999928 0
-0.0113057 0.00264949 0.999933 0
-0.0103692 0.00269368 0.999943 0
-0.0102195 0.00268976 0.999944 0
-0.0107915 0.0029241 0.999937 0.000754546
-0.0100855 0.00286097 0.999945 0
-0.0100117 0.00295918 0.999946 0
-0.00937036 0.0031787 0.999951 0
-0.00918277 0.00340471 0.999952 0
-0.00865276 0.00350965 0.999956 0
-0.00811019 0.00353317 0.999961 0
-0.00741971 0.0034911 0.999966 0
-0.00706081 0.0034099 0.999969 0
-0.00718509 0.00352023 0.999968 0
-0.00650059 0.00362027 0.999972 0
-0.00612405 0.00388432 0.999974 0
-0.0069394 0.00414158 0.999967 0
-0.00657892 0.00469891 0.999967 0
-0.00579437 0.00512648 0.99997 0
-0.00615719 0.0056647 0.999965 0
-0.00590962 0.00637661 0.999962 0
-0.00527678 0.00691444 0.999962 0
-0.00455124 0.00741054 0.999962 0
-0.00565901 0.00820394 0.99995 0
-0.00571106 0.0088994 0.999944 0
-0.00578335 0.00965464 0.999937 0.00115743
-0.00579614 0.0103111 0.99993 0.00156541
-0.00551505 0.0109971 0.999924 0.000583251
-0.00461811 0.0116686 0.999921 0
-0.00394269 0.012166 0.999918 0
-0.00317002 0.0127383 0.999914 0
-0.00272289 0.0131825 0.999909 0
-0.00294646 0.0136579 0.999902 0
-0.00259092 0.014024 0.999898 0
-0.00226498 0.0143612 0.999894 0
-0.00185621 0.0147302 0.99989 0
-0.00139156 0.0151861 0.999884 0
-0.00189642 0.0156616 0.999876 0
-0.00276723 0.0160118 0.999868 0
-0.00270237 0.0166217 0.999858 0
-0.00303211 0.0171788 0.999848 0
-0.00311547 0.0180189 0.999833 0.000489061
-0.00339372 0.0186242 0.999821 0.00224674
-0.00240099 0.0186425 0.999823 0
-0.00144708 0.0189023 0.99982 0
-0.000761599 0.0194068 0.999811 0
-0.00117658 0.0199999 0.999799 0
-0.000900104 0.0204855 0.99979 0.00115436
-0.00140274 0.0209027 0.99978 0
-0.00065332 0.0210712 0.999778 0
7.93292e-05 0.0214781 0.999769 0
-5.17776e-05 0.0215651 0.999767 0
-4.483e-05 0.0216641 0.999765 0
0.000143004 0.0216876 0.999765 0
0.000339328 0.0217821 0.999763 0
0.000688873 0.0218193 0.999762 0
0.00107773 0.0216009 0.999766 0
0.000976932 0.021686 0.999764 0
0.00112131 0.021823 0.999761 0
0.00127038 0.0222168 0.999752 0
0.00164982 0.0224892 0.999746 0.001456
0.00208435 0.0225486 0.999744 0.00163279
0.0021247 0.022858 0.999736 0.00290683
0.00191151 0.0230593 0.999732 0.00385738
0.00229225 0.0228562 0.999736 0.00189989
0.0022492 0.0227735 0.999738 0.00224334
0.00289935 0.0224452 0.999744 0
0.00268947 0.02261 0.999741 0.0013972
0.00355556 0.0221341 0.999749 0.00189212
0.00341678 0.0218912 0.999755 0.00238832
0.00391096 0.0213867 0.999764 0.00104231
0.0049163 0.020707 0.999774 0.000449203
0.00465507 0.0201908 0.999785 0.000648621
0.00392006 0.0197297 0.999798 0.000374703
0.0041546 0.0195246 0.999801 0.000717492
0.00423957 0.0189018 0.999812 0
0.00323339 0.0187039 0.99982 0
0.00450133 0.0184303 0.99982 0
0.00400597 0.0180819 0.999829 0
0.00493775 0.0173957 0.999837 0
0.00492939 0.0168687 0.999846 0
0.0052066 0.0161901 0.999855 0
0.00510219 0.0162007 0.999856 0
0.00524983 0.0158335 0.999861 0
0.00581342 0.0154559 0.999864 0
0.00643638 0.0147249 0.999871 0
0.0066132 0.0137177 0.999884 0
0.00656259 0.0129849 0.999894 0
0.00641361 0.0122164 0.999905 0
0.00640261 0.011229 0.999916 0
0.00694718 0.010425 0.999922 0
0.00700279 0.0100464 0.999925 0
0.00631035 0.00983365 0.999932 0
0.00625899 0.00932283 0.999937 0
0.00575992 0.00870205 0.999946 0
0.00576968 0.00774756 0.999953 0
0.00509569 0.00717187 0.999961 0.000212958
0.00469417 0.00656148 0.999968 0.00110194
0.00501273 0.00553855 0.999972 0
0.00463024 0.00509392 0.999976 0.00242049
0.00478935 0.00450536 0.999978 0.00376549
0.00451902 0.00392868 0.999982 0.00404674
0.00362453 0.0031556 0.999988 0.00525664
0.00349849 0.00273993 0.99999 0.00525323
0.00271904 0.0024618 0.999993 0.00860636
0.00286613 0.00220367 0.999993 0.00799716
0.00285237 0.00162816 0.999995 0.00678321
0.00198745 0.00121694 0.999997 0.00968892
0.00237872 0.000586185 0.999997 0.00909927
0.00297115 -0.000139729 0.999996 0.00500774
0.00314664 -0.00136644 0.999994 0.0036529
0.00250991 -0.00238632 0.999994 0.00490404
0.00198887 -0.0033465 0.999992 0.0066188
0.00204798 -0.00431194 0.999989 0.0055939
0.00224446 -0.00545111 0.999983 0.00318523
0.00228506 -0.0063714 0.999977 0.00169785
0.00234671 -0.0072499 0.999971 0.00268243
0.00282163 -0.00818108 0.999963 0.00243919
0.00288273 -0.00915178 0.999954 0.00343235
0.0035348 -0.0103715 0.99994 0.00104149
0.00374861 -0.0115303 0.999927 0.000351094
0.00344346 -0.0124753 0.999916 0.00213815
0.00301748 -0.0133467 0.999906 0.00192902
0.0031126 -0.0141096 0.999896 0.00203789
0.00293274 -0.0151202 0.999881 0.000751621
0.00294675 -0.0158958 0.999869 0.000236934
0.00270209 -0.0164057 0.999862 0.00158018
0.00170887 -0.0173144 0.999849 0.00168467
0.00138981 -0.0179531 0.999838 0.00271066
0.00157627 -0.0185822 0.999826 0.000192332
0.00149414 -0.0193743 0.999811 0.000610489
0.00136582 -0.0201266 0.999797 0
0.00118797 -0.0209374 0.99978 0
-0.00010838 -0.0217233 0.999764 0.000830853
0.00060601 -0.0228095 0.99974 0
8.95796e-05 -0.0232774 0.999729 0
-0.000472323 -0.0241655 0.999708 0
-0.000858507 -0.0248369 0.999691 0
-0.00144501 -0.0253422 0.999678 0.00275872
-0.00151935 -0.0258605 0.999664 0.00199106
-0.00130022 -0.0265802 0.999646 0.00152071
-0.00154673 -0.027041 0.999633 0.00229503
-0.00190478 -0.0276658 0.999615 0.00352319
-0.00232258 -0.0283181 0.999596 0.00475635
-0.00265624 -0.0289165 0.999578 0.00491688
-0.0030165 -0.0297456 0.999553 0.00537214
-0.00338769 -0.0302857 0.999536 0.00721189
-0.0029898 -0.0314406 0.999501 0.00659477
-0.00320341 -0.0323389 0.999472 0.00735815
-0.00301439 -0.0335422 0.999433 0.00536926
-0.00339459 -0.0342315 0.999408 0.00538409
-0.00248432 -0.0352861 0.999374 0.0015481
-0.00319297 -0.0365343 0.999327 0.00186412
-0.00361155 -0.0372704 0.999299 0.00312315
-0.00373733 -0.0380625 0.999268 0.00115056
-0.00451664 -0.0387921 0.999237 0.00133958
-0.00443975 -0.0392886 0.999218 0.00169705
-0.00466942 -0.0396176 0.999204 0.000508358
-0.00469034 -0.0399438 0.999191 0
-0.00528476 -0.0406055 0.999161 0
-0.00573334 -0.041286 0.999131 0
-0.0063652 -0.0417898 0.999106 0
-0.0065286 -0.0420964 0.999092 0.000381674
-0.00703154 -0.0423329 0.999079 0.00059371
-0.00671761 -0.0429187 0.999056 0
-0.00700651 -0.0427835 0.99906 0
-0.00795712 -0.04297 0.999045 0.000912261
-0.0071789 -0.0430344 0.999048 0
-0.00801582 -0.0428125 0.999051 0.00181375
-0.00914496 -0.0433032 0.99902 0.00461377
-0.00945326 -0.0430795 0.999027 0.00375738
-0.0102324 -0.0435578 0.998999 0.00348016
-0.0103995 -0.0437745 0.998987 0.00413769
-0.0110562 -0.0441457 0.998964 0.00139801
-0.0113143 -0.04429 0.998955 0.000515981
-0.0116948 -0.0443978 0.998945 0.00102557
-0.0117003 -0.0444383 0.998944 0
-0.0115253 -0.0443479 0.99895 0
-0.0120172 -0.0442517 0.998948 0
-0.0125622 -0.043829 0.99896 0
-0.013309 -0.0432105 0.998977 0.00212326
-0.014646 -0.0434055 0.99895 0.0021548
-0.0144662 -0.0427886 0.998979 0.00362676
-0.0147371 -0.043161 0.998959 0.00458115
-0.0148653 -0.043314 0.998951 0.00370073
-0.0159944 -0.0434386 0.998928 0.00541859
-0.0165448 -0.0430669 0.998935 0.00562709
-0.0160774 -0.0431591 0.998939 0.00383002
-0.0163221 -0.043478 0.998921 0.0030904
-0.0167668 -0.0438452 0.998898 0.00342002
-0.0170266 -0.0437984 0.998895 0.00376649
-0.0173389 -0.0436803 0.998895 0.0045767
-0.0173977 -0.0438278 0.998888 0.00460893
-0.0177041 -0.044354 0.998859 0.00323427
-0.0179248 -0.0443712 0.998854 0.00234206
-0.0186582 -0.0443988 0.99884 0.00421214
-0.0191973 -0.0444524 0.998827 0.00515496
-0.0196036 -0.0446129 0.998812 0.00547942
-0.0195764 -0.0443611 0.998824 0.00228922
-0.0193123 -0.0441923 0.998836 0.00279197
-0.0190508 -0.0436904 0.998863 0.0034669
-0.0200685 -0.0433224 0.99886 0.00533647
-0.0200343 -0.0425848 0.998892 0.00616035
-0.0199517 -0.042034 0.998917 0.00590349
-0.0198579 -0.0414226 0.998944 0.00564516
-0.020172 -0.0412096 0.998947 0.00551339
-0.0203117 -0.0407314 0.998964 0.00385871
-0.0205101 -0.0405813 0.998966 0.00310714
-0.0208978 -0.0406556 0.998955 0.00387863
-0.0210705 -0.0410383 0.998935 0.00125058
-0.0215124 -0.0409741 0.998929 0.0026425
-0.0213103 -0.0406888 0.998945 0.00174446
-0.0205793 -0.0407955 0.998956 0
-0.0213671 -0.0407964 0.998939 0.00176016
-0.0217418 -0.0407985 0.998931 0.00314748
-0.0223502 -0.0409062 0.998913 0.00174672
-0.0222782 -0.04099 0.998911 0.00128161
-0.0225278 -0.0408518 0.998911 0.000820007
-0.0233945 -0.0405522 0.998904 0.00143431
-0.0234526 -0.0404707 0.998905 0
-0.024639 -0.040225 0.998887 0.000648567
-0.0248829 -0.0405522 0.998868 0.00201422
-0.0246717 -0.0406346 0.998869 0.000620537
-0.0241364 -0.0413957 0.998851 0
-0.0249981 -0.0414619 0.998827 0
-0.0253681 -0.0417407 0.998806 0
-0.0263904 -0.0420076 0.998769 0
-0.0273894 -0.0427207 0.998712 0
-0.026962 -0.0436614 0.998682 0
-0.0276459 -0.0444139 0.998631 0
-0.0273641 -0.0445156 0.998634 0
-0.0286135 -0.0440282 0.998621 0.000132986
-0.0285086 -0.0455862 0.998554 0.000980887
-0.0290145 -0.0465547 0.998494 0.0024532
-0.0291011 -0.0474935 0.998447 0.000226687
-0.0296176 -0.0484291 0.998387 0.00231379
-0.0297659 -0.0497633 0.998317 0.00176369
-0.0302326 -0.0505325 0.998265 0.00292631
-0.0301688 -0.0514678 0.998219 0.00332107
-0.030321 -0.0530182 0.998133 0.00444139
-0.0296123 -0.0546846 0.998064 0.00264732
-0.0297219 -0.0562134 0.997976 0.00360768
-0.029972 -0.0578499 0.997875 0.00177486
-0.0301539 -0.0595675 0.997769 0.00209598
-0.029498 -0.0614292 0.997675 0
-0.0293352 -0.0632889 0.997564 0
-0.0293376 -0.0656089 0.997414 0
-0.0294133 -0.0676169 0.997278 0
-0.0294748 -0.0699827 0.997113 0
-0.0298155 -0.072353 0.996933 0
-0.029635 -0.0746917 0.996766 0
-0.0303546 -0.0766581 0.996595 0
-0.0309185 -0.0781572 0.996462 0
-0.0317545 -0.080465 0.996252 0
-0.0318464 -0.0825194 0.99608 0
-0.0322337 -0.0841324 0.995933 0
-0.0334294 -0.0857783 0.995753 0
-0.0336334 -0.0876966 0.995579 0
-0.0336682 -0.0893523 0.995431 0
-0.0333834 -0.0914428 0.995251 0
-0.0333508 -0.093225 0.995086 0
-0.0332269 -0.0946038 0.99496 0
-0.0333122 -0.095465 0.994875 0
-0.0331684 -0.0969248 0.994739 0
-0.0337591 -0.0980832 0.994605 0
-0.0343052 -0.09991 0.994405 0
-0.0348633 -0.101007 0.994275 0.0016192
-0.0345589 -0.102145 0.994169 0.00121143
-0.0352764 -0.103198 0.994035 0.00398615
-0.0357949 -0.104143 0.993918 0.00440023
-0.0354351 -0.104763 0.993866 0.00264722
-0.0350989 -0.105489 0.993801 0.000528291
-0.0352714 -0.106421 0.993695 0.00145244
-0.0354867 -0.107767 0.993543 0.000699697
-0.0357607 -0.108794 0.993421 0
-0.0356131 -0.110467 0.993242 0
-0.035839 -0.111961 0.993066 0
-0.0358949 -0.114159 0.992814 0
-0.0360312 -0.114729 0.992743 0
-0.0364057 -0.115519 0.992638 0
-0.0368083 -0.116302 0.992532 0
-0.0364136 -0.117533 0.992401 0
-0.0363765 -0.118795 0.992252 0
-0.0369644 -0.119785 0.992111 0
-0.0377687 -0.12045 0.992001 0
-0.0375224 -0.122221 0.991793 0
-0.0382219 -0.122957 0.991676 0
-0.038965 -0.124356 0.991472 0
-0.038573 -0.126085 0.991269 0
-0.0386802 -0.127437 0.991092 0
-0.038534 -0.128675 0.990938 0
-0.0391561 -0.129633 0.990789 0
-0.0393929 -0.131746 0.990501 0
-0.039814 -0.132087 0.990438 0
-0.0403954 -0.133 0.990292 0
-0.0405667 -0.134083 0.990139 0
-0.0407064 -0.134878 0.990026 0
-0.0409998 -0.136117 0.989844 0
-0.0410173 -0.137743 0.989618 0
-0.0409848 -0.139586 0.989361 0
-0.040867 -0.140583 0.989225 0
-0.0412924 -0.141786 0.989036 0.000121294
-0.0411333 -0.143865 0.988742 0
-0.0411723 -0.145726 0.988468 0
-0.0410903 -0.145882 0.988448 0
-0.0413723 -0.146706 0.988315 0
-0.0413937 -0.148413 0.988059 0
-0.0419437 -0.149735 0.987836 0
-0.0417041 -0.151847 0.987524 0
-0.0418208 -0.152151 0.987472 0
-0.0412827 -0.154494 0.987131 0
-0.0413017 -0.155306 0.987003 0
-0.0412818 -0.157432 0.986667 0
-0.0412151 -0.158734 0.986461 0
-0.0411264 -0.159807 0.986291 0
-0.0412982 -0.159945 0.986262 0
-0.0410586 -0.161317 0.986048 0
-0.0407239 -0.162574 0.985856 0
-0.0412741 -0.161023 0.986087 0
-0.0409248 -0.16213 0.98592 0
-0.0410411 -0.162072 0.985925 0
-0.0299508 0.107919 0.993708 0.00210005
-0.030097 0.108912 0.993596 0.00441956
-0.0299794 0.108155 0.993682 0.00297395
-0.0303263 0.108614 0.993621 0.00358469
-0.0302899 0.10923 0.993555 0.00442981
-0.0299577 0.109448 0.993541 0.00480221
-0.0295154 0.108644 0.993642 0.00253163
-0.0295588 0.108277 0.993681 0.00139374
-0.0293267 0.108346 0.993681 0.00222063
-0.0288972 0.107818 0.993751 0.00133238
-0.0288698 0.107693 0.993765 0.001317
-0.0283622 0.106765 0.99388 0
-0.0283428 0.106277 0.993933 0
-0.0286731 0.10563 0.993992 0
-0.0283709 0.10497 0.994071 0
-0.0283107 0.104217 0.994152 0
-0.0282636 0.103494 0.994228 0
-0.0287056 0.10306 0.994261 0.00126983
-0.0281956 0.101765 0.994409 0
-0.0280286 0.100795 0.994512 0
-0.0274534 0.0999165 0.994617 0
-0.027113 0.0990545 0.994713 0
-0.0272722 0.0982169 0.994791 0
-0.0271039 0.0975463 0.994862 0
-0.0268958 0.0967827 0.994942 0
-0.0266902 0.095997 0.995024 0
-0.0268151 0.0950191 0.995114 0
-0.0268552 0.0941768 0.995193 0.000916193
-0.0267462 0.0930265 0.995304 0.000794963
-0.0265465 0.0922036 0.995386 0.00228373
-0.0255261 0.0903983 0.995579 0
-0.0256322 0.089162 0.995687 0
-0.0254374 0.0884603 0.995755 0.00212729
-0.0250885 0.0867664 0.995913 0
-0.02509 0.0854578 0.996026 0
-0.0245335 0.0841302 0.996153 0
-0.0239188 0.0828129 0.996278 0
-0.0242915 0.0814042 0.996385 0
-0.0243888 0.0800054 0.996496 0
-0.0248502 0.0788587 0.996576 0.000966289
-0.024995 0.0779287 0.996646 0.00318874
-0.0248072 0.0768411 0.996735 0.00422916
-0.0244304 0.075281 0.996863 0.00185262
-0.0239832 0.0742131 0.996954 0.00160542
-0.0237383 0.0731272 0.99704 0.001994
-0.0230547 0.0719532 0.997142 0.00159053
-0.0224843 0.0708049 0.997237 0.001827
-0.0221185 0.0694444 0.997341 0.000953371
-0.0215937 0.0684433 0.997421 0.00135519
-0.021221 0.0672876 0.997508 0.00128626
-0.021333 0.0662924 0.997572 0.00261925
-0.0211558 0.0653735 0.997637 0.00487405
-0.0208345 0.0638532 0.997742 0.00325881
-0.0202913 0.062514 0.997838 0.00288581
-0.0207534 0.0612722 0.997905 0.00325959
-0.0209812 0.0600872 0.997973 0.00348143
-0.0203553 0.0588752 0.998058 0.00326058
-0.0199852 0.0573697 0.998153 0.0013655
-0.0201774 0.0558102 0.998237 0
-0.0199082 0.0544711 0.998317 0
-0.019531 0.0530426 0.998401 0
-0.0192518 0.051703 0.998477 0
-0.0181565 0.0501432 0.998577 0
-0.0180017 0.048635 0.998654 0
-0.0179066 0.0469252 0.998738 0
-0.0185661 0.0455441 0.99879 0
-0.0186731 0.0439319 0.99886 0.000271634
-0.0184166 0.0423668 0.998932 0.00210913
-0.0192965 0.0406804 0.998986 0.00481499
-0.0190819 0.0389324 0.99906 0.0054457
-0.0189346 0.0372207 0.999128 0.00829824
-0.0183151 0.0352355 0.999211 0.00683621
-0.0187142 0.0335619 0.999261 0.00804305
-0.0188775 0.0318593 0.999314 0.00895063
-0.0188553 0.0300959 0.999369 0.00927193
-0.0171518 0.0279872 0.999461 0.0055884
-0.0167768 0.0259613 0.999522 0.00366814
-0.0159694 0.0240762 0.999583 0.00219787
-0.0164817 0.0225068 0.999611 0.00371566
-0.0157577 0.0206484 0.999663 0.00102725
-0.0152953 0.019147 0.9997 0.000136268
-0.0150343 0.0177492 0.999729 0
-0.0142185 0.0165541 0.999762 0
-0.0149374 0.0154246 0.999769 0
-0.0142895 0.0142297 0.999797 0
-0.0149398 0.0133939 0.999799 0
-0.0153994 0.0126406 0.999802 0.00340455
-0.0153529 0.0118024 0.999812 0.00584558
-0.0159063 0.0109502 0.999813 0.00483074
-0.0151786 0.0101145 0.999834 0.00339135
-0.0145479 0.00921819 0.999852 0.00254024
-0.0146351 0.00866358 0.999855 0.00305168
-0.0147389 0.00800595 0.999859 0.0033968
-0.0142323 0.00723075 0.999873 0.000738726
-0.0142113 0.00675343 0.999876 0.000205168
-0.0126169 0.0058938 0.999903 0
-0.0116965 0.00515096 0.999918 0
-0.0111781 0.00456547 0.999927 0
-0.0107243 0.00415702 0.999934 0
-0.0107056 0.0038514 0.999935 0
-0.0102017 0.00350782 0.999942 0
-0.0109479 0.00350509 0.999934 0
-0.010826 0.00368236 0.999935 0
-0.0105084 0.0037234 0.999938 0
-0.0108318 0.00402376 0.999933 0
-0.0112346 0.00411632 0.999928 0
-0.0108463 0.00429678 0.999932 0
-0.0106693 0.00449161 0.999933 0
-0.00991733 0.00441628 0.999941 0
-0.00927945 0.00449874 0.999947 0
-0.00844145 0.0045539 0.999954 0
-0.00743647 0.00469569 0.999961 0
-0.00707331 0.00483375 0.999963 0
-0.00700009 0.00505212 0.999963 0
-0.00678697 0.00523586 0.999963 0
-0.00631041 0.00550629 0.999965 0
-0.00653008 0.00572517 0.999962 0
-0.0065261 0.00610762 0.99996 0
-0.0067374 0.00672231 0.999955 0
-0.00614062 0.00714473 0.999956 0
-0.00587347 0.00751884 0.999954 0
-0.00615086 0.00798565 0.999949 0
-0.00585733 0.00846944 0.999947 0
-0.00566529 0.00923068 0.999941 0
-0.00570405 0.0098614 0.999935 0
-0.00555711 0.0104872 0.99993 0
-0.0049471 0.0109913 0.999927 0
-0.00398096 0.0115649 0.999925 0
-0.00382847 0.0120072 0.999921 0
-0.00408593 0.0125809 0.999913 0
-0.00393586 0.0132081 0.999905 0
-0.00354783 0.0138281 0.999898 0
-0.00331959 0.0143235 0.999892 0
-0.00299881 0.0149033 0.999884 0
-0.0028544 0.015581 0.999875 0
-0.00252416 0.0158793 0.999871 0
-0.00285591 0.0162076 0.999865 0
