# .PCD v0.7 - Point Cloud Data file format
VERSION 0.7
FIELDS x y z
SIZE 4 4 4
TYPE F F F
COUNT 1 1 1
WIDTH 1392
HEIGHT 1
VIEWPOINT 0 0 0 1 0 0 0
POINTS 1392
DATA ascii
-0.024414999 -0.084987998 -0.176037
-0.024413001 -0.084913 -0.17603301
-0.02441 -0.084838003 -0.176053
-0.024405999 -0.084763996 -0.17608
-0.024402 -0.084691003 -0.17611
-0.024398001 -0.084615998 -0.176146
-0.024395 -0.084541999 -0.176164
-0.024391999 -0.084464997 -0.176185
-0.024388 -0.084393002 -0.176209
-0.024386 -0.084317997 -0.17622299
-0.024382999 -0.084243 -0.176217
-0.024381001 -0.084167004 -0.17621601
-0.024379 -0.084092997 -0.17622399
-0.024375999 -0.084017999 -0.176232
-0.024373 -0.083944 -0.17624199
-0.02437 -0.083867997 -0.176263
-0.024367001 -0.083792999 -0.17627899
-0.024363 -0.083719 -0.176305
-0.024359999 -0.083644003 -0.176323
-0.024358001 -0.083570004 -0.17632601
-0.024356 -0.083494 -0.176322
-0.024352999 -0.083420001 -0.17632601
-0.024350001 -0.083343998 -0.17635
-0.024346 -0.083269 -0.176376
-0.024343001 -0.083195001 -0.176383
-0.024341 -0.083118998 -0.176387
-0.024339 -0.083044998 -0.176387
-0.024336001 -0.082969002 -0.176383
-0.024334 -0.082895003 -0.176384
-0.024332 -0.082820997 -0.176384
-0.024328999 -0.082745001 -0.17639001
-0.024326 -0.082671002 -0.176402
-0.024324 -0.082594998 -0.176413
-0.024320999 -0.082520999 -0.176421
-0.024318 -0.082446001 -0.176425
-0.024316 -0.082369998 -0.176425
-0.024313999 -0.082294002 -0.176424
-0.024312001 -0.082221001 -0.17641801
-0.024309 -0.082144 -0.17642599
-0.024305999 -0.08207 -0.17644
-0.024303 -0.081993997 -0.176451
-0.024301 -0.081919998 -0.176459
-0.024297999 -0.081844002 -0.176461
-0.024296001 -0.081770003 -0.176467
-0.024293 -0.081694998 -0.176476
-0.024290999 -0.081619002 -0.176476
-0.024288001 -0.081545003 -0.176476
-0.024286 -0.081468999 -0.17648
-0.024282999 -0.081395 -0.17649101
-0.02428 -0.081318997 -0.176503
-0.024277 -0.081243999 -0.17652901
-0.024273001 -0.08117 -0.176549
-0.024272 -0.081093997 -0.176533
-0.024271 -0.081018999 -0.176504
-0.024269 -0.080945 -0.176498
-0.024266001 -0.080868997 -0.17649999
-0.024264 -0.080794998 -0.176506
-0.024262 -0.080719002 -0.176505
-0.024258001 -0.080645002 -0.176525
-0.024254 -0.080568001 -0.176561
-0.024250999 -0.080494002 -0.176571
-0.024249 -0.080417998 -0.17657401
-0.024247 -0.080343999 -0.17657
-0.024246 -0.080268003 -0.176542
-0.024243999 -0.080192998 -0.176526
-0.024241 -0.080118001 -0.17654499
-0.024238 -0.080041997 -0.17655499
-0.024235999 -0.079967998 -0.17655499
-0.024234001 -0.079892002 -0.176561
-0.024231 -0.079818003 -0.176576
-0.024227999 -0.079741001 -0.176588
-0.024225 -0.079667002 -0.176588
-0.024223 -0.079590999 -0.176596
-0.024219999 -0.079516999 -0.176597
-0.024219001 -0.079442002 -0.17658301
-0.024216 -0.079365999 -0.176581
-0.024214 -0.079291001 -0.17659099
-0.02421 -0.079214998 -0.17661899
-0.024207 -0.07914 -0.176642
-0.024204001 -0.079063997 -0.17665
-0.024201 -0.078989998 -0.176654
-0.024199 -0.078914002 -0.176658
-0.024196999 -0.078837998 -0.176645
-0.024196001 -0.078764997 -0.176623
-0.024195001 -0.078689002 -0.176595
-0.024194 -0.078613997 -0.17656501
-0.024192 -0.078539997 -0.176568
-0.024188001 -0.078464001 -0.17659201
-0.024185 -0.078388996 -0.17660999
-0.024183 -0.078313001 -0.176614
-0.024181001 -0.078239001 -0.17660899
-0.024179 -0.078163996 -0.17659301
-0.024177 -0.078088 -0.17658301
-0.024174999 -0.078014001 -0.17658301
-0.024172001 -0.077937998 -0.176594
-0.02417 -0.077863999 -0.17659201
-0.024168 -0.077788003 -0.17658
-0.024165999 -0.077711999 -0.176566
-0.024164001 -0.077638 -0.176567
-0.024161 -0.077564001 -0.176577
-0.024158999 -0.077487998 -0.176585
-0.024156 -0.077412002 -0.176587
-0.024154 -0.077335998 -0.17658199
-0.024154 -0.077262998 -0.17654601
-0.024150999 -0.077188998 -0.17655601
-0.024147 -0.077111997 -0.17659
-0.024143999 -0.077036001 -0.176603
-0.024142001 -0.076959997 -0.17660099
-0.024139 -0.076885998 -0.176603
-0.024137 -0.076810002 -0.176607
-0.024134999 -0.076736003 -0.176604
-0.024132 -0.076659001 -0.176616
-0.024129 -0.076582998 -0.176632
-0.024126001 -0.076508999 -0.176634
-0.024124 -0.076433003 -0.176634
-0.024122 -0.076357 -0.176625
-0.024119999 -0.076283 -0.176627
-0.024116 -0.076206997 -0.17664699
-0.024112999 -0.076130003 -0.176671
-0.024110001 -0.076056004 -0.17668
-0.024108 -0.07598 -0.176686
-0.024104999 -0.075903997 -0.176698
-0.024102001 -0.075828001 -0.17670199
-0.0241 -0.075754002 -0.176706
-0.024096999 -0.075677998 -0.17671099
-0.024095001 -0.075602002 -0.176709
-0.024093 -0.075528003 -0.17670099
-0.024091 -0.075452 -0.176691
-0.024088999 -0.075378001 -0.17669401
-0.024086 -0.075301997 -0.176698
-0.024084 -0.075226001 -0.1767
-0.024080999 -0.075152002 -0.17670199
-0.024079001 -0.075075999 -0.176699
-0.024077 -0.075000003 -0.17670099
-0.024073999 -0.074925996 -0.17670301
-0.024072001 -0.07485 -0.176709
-0.024069 -0.074772999 -0.176728
-0.024065999 -0.074697003 -0.176742
-0.024063 -0.074620999 -0.17675
-0.024061 -0.074547 -0.176742
-0.024057999 -0.074470997 -0.176744
-0.024055 -0.074395001 -0.176763
-0.024052 -0.074317999 -0.176781
-0.024049001 -0.074242003 -0.176801
-0.024045 -0.074165002 -0.17682099
-0.024041999 -0.074088998 -0.176837
-0.024040001 -0.074013002 -0.17684001
-0.024038 -0.073939003 -0.17682201
-0.024037 -0.073863998 -0.17680199
-0.024034999 -0.073789999 -0.17679
-0.024033001 -0.073714003 -0.176791
-0.02403 -0.073638 -0.176807
-0.024026999 -0.073562004 -0.176815
-0.024025001 -0.073487997 -0.176809
-0.024022 -0.073412001 -0.17682
-0.024018999 -0.073334999 -0.176834
-0.024017001 -0.073259003 -0.17684001
-0.024015 -0.073183 -0.176836
-0.024011999 -0.073106997 -0.17684001
-0.024009001 -0.073032998 -0.17684899
-0.024007 -0.072957002 -0.176845
-0.024005 -0.072880998 -0.17684899
-0.024002001 -0.072805002 -0.176853
-0.024 -0.072728999 -0.17685799
-0.023996999 -0.072655 -0.17686599
-0.023994001 -0.072578996 -0.176872
-0.023992 -0.072503 -0.17687599
-0.023988999 -0.072426997 -0.17687701
-0.023987999 -0.072352998 -0.176861
-0.023985 -0.072277002 -0.176869
-0.023982 -0.072198004 -0.17688701
-0.023978001 -0.072122 -0.17691299
-0.023976 -0.072045997 -0.17692
-0.023974 -0.071971998 -0.176908
-0.023972001 -0.071896002 -0.176908
-0.023968 -0.071819998 -0.176926
-0.023965999 -0.071744002 -0.176919
-0.023964999 -0.071667999 -0.176911
-0.023962 -0.071594 -0.176909
-0.02396 -0.071517996 -0.176901
-0.023957999 -0.071442001 -0.17691199
-0.023955001 -0.071365997 -0.176918
-0.023952 -0.071290001 -0.17692401
-0.023949999 -0.071213998 -0.176926
-0.023948001 -0.071139999 -0.17692401
-0.023946 -0.071064003 -0.17691299
-0.023944 -0.070987999 -0.176901
-0.023941999 -0.070914 -0.176897
-0.023940001 -0.070837997 -0.176897
-0.023937 -0.070762001 -0.176906
-0.023933999 -0.070685998 -0.17691
-0.023933001 -0.070610002 -0.1769
-0.023931 -0.070537001 -0.176884
-0.023929 -0.070460998 -0.176883
-0.023926999 -0.070386998 -0.176879
-0.023925001 -0.070311002 -0.17686699
-0.023924001 -0.070238002 -0.17684899
-0.023921 -0.070161998 -0.17684799
-0.023918999 -0.070086002 -0.176852
-0.023916001 -0.070009999 -0.176852
-0.023914 -0.069932997 -0.176854
-0.023912 -0.069859996 -0.17684899
-0.023910999 -0.069784001 -0.176833
-0.023909001 -0.069710001 -0.17682301
-0.023906 -0.069633998 -0.176827
-0.023903999 -0.069558002 -0.176828
-0.023902001 -0.069481999 -0.176826
-0.0239 -0.069408 -0.176816
-0.023898 -0.069333002 -0.176798
-0.023895999 -0.069259003 -0.17679501
-0.023894001 -0.069182999 -0.176801
-0.023891 -0.069107004 -0.176805
-0.023889 -0.069031 -0.176797
-0.023886999 -0.068954997 -0.176789
-0.023885 -0.068880998 -0.176792
-0.023883 -0.068805002 -0.176788
-0.023881 -0.068728998 -0.176778
-0.023879001 -0.068653002 -0.176774
-0.023876 -0.068580002 -0.176773
-0.023876 -0.068506002 -0.17673101
-0.023875 -0.068433002 -0.176705
-0.023871999 -0.068356998 -0.17671999
-0.023869 -0.068281002 -0.17673001
-0.023867 -0.068204999 -0.176724
-0.023864999 -0.068131 -0.176716
-0.023863001 -0.068054996 -0.176717
-0.023861 -0.067979001 -0.176707
-0.023859 -0.067902997 -0.17670301
-0.023855999 -0.067827001 -0.17671099
-0.023854 -0.067750998 -0.176713
-0.023852 -0.067676999 -0.176706
-0.02385 -0.067602001 -0.17669199
-0.023848999 -0.067528002 -0.17668
-0.023846 -0.067451999 -0.176682
-0.023844 -0.067376003 -0.176681
-0.023841999 -0.067302004 -0.176673
-0.023840001 -0.067226 -0.17666499
-0.023839001 -0.067152999 -0.176649
-0.023837 -0.067077003 -0.17664
-0.023833999 -0.067001 -0.17664801
-0.023832001 -0.066924997 -0.17665
-0.023829 -0.066850998 -0.17664801
-0.023827 -0.066775002 -0.176645
-0.023824999 -0.066698998 -0.176641
-0.023823 -0.066624999 -0.176633
-0.023822 -0.066549003 -0.17661899
-0.023819 -0.066474997 -0.17661799
-0.023817001 -0.066396996 -0.176622
-0.023814 -0.066321 -0.176626
-0.023812 -0.066247001 -0.17662001
-0.023809999 -0.066171996 -0.176613
-0.023808001 -0.066096 -0.176613
-0.023805 -0.066018999 -0.176617
-0.023802999 -0.065943003 -0.176623
-0.023801999 -0.065870002 -0.176604
-0.023800001 -0.065796003 -0.17658401
-0.023798 -0.065719999 -0.17658401
-0.023794999 -0.065644003 -0.176586
-0.023793001 -0.065568 -0.176587
-0.023791 -0.065491997 -0.176589
-0.023788 -0.065416001 -0.176587
-0.023786001 -0.065339997 -0.176581
-0.023784 -0.065264001 -0.176581
-0.023782 -0.065191001 -0.176572
-0.023781 -0.065117002 -0.17654601
-0.023778999 -0.065043002 -0.17653801
-0.023777001 -0.064966999 -0.17653801
-0.023776 -0.064893998 -0.176513
-0.023776 -0.064823002 -0.176477
-0.023774 -0.064749002 -0.17645501
-0.023771999 -0.064672999 -0.176448
-0.023770001 -0.064599998 -0.17644
-0.023769001 -0.064524002 -0.17642599
-0.023767 -0.064450003 -0.176415
-0.023765 -0.064375997 -0.17640901
-0.023762999 -0.064300999 -0.176395
-0.023762999 -0.064228997 -0.17636301
-0.023762001 -0.064158 -0.17633
-0.02376 -0.064081997 -0.176322
-0.023758 -0.064006001 -0.176328
-0.023755001 -0.063929997 -0.17634
-0.023751 -0.063849002 -0.176375
-0.023747001 -0.063771002 -0.17639901
-0.023745 -0.063694999 -0.17639901
-0.023743 -0.063620999 -0.176385
-0.023740999 -0.063547 -0.176373
-0.023739999 -0.063474 -0.17636
-0.023738001 -0.063398004 -0.17635
-0.023737 -0.063323997 -0.176328
-0.023736 -0.063253 -0.176295
-0.023734 -0.063179001 -0.176283
-0.023731999 -0.063101001 -0.176293
-0.02373 -0.063027002 -0.17628101
-0.023729 -0.062954001 -0.176254
-0.023727 -0.062880002 -0.17624199
-0.023726 -0.062807001 -0.176228
-0.023724999 -0.062733002 -0.17620499
-0.023723001 -0.062659003 -0.176191
-0.023721 -0.062582999 -0.176191
-0.023717999 -0.062507004 -0.176193
-0.023716001 -0.062433999 -0.176184
-0.023716001 -0.062362 -0.17614999
-0.023715001 -0.062289 -0.176126
-0.023713 -0.062215 -0.176119
-0.023711 -0.062139001 -0.176109
-0.023708001 -0.062063001 -0.17611501
-0.023706 -0.061987001 -0.176121
-0.023703 -0.061911002 -0.176119
-0.023700999 -0.061834998 -0.176126
-0.023699 -0.061758999 -0.17612
-0.023697 -0.061685 -0.176108
-0.023695 -0.061609998 -0.17610399
-0.023693999 -0.061538 -0.17607699
-0.023693999 -0.061469 -0.176027
-0.023693001 -0.061395999 -0.176006
-0.023691 -0.061319999 -0.176002
-0.023688 -0.061241001 -0.17602
-0.023685001 -0.061165001 -0.176026
-0.023685001 -0.061094001 -0.175992
-0.023683 -0.061021 -0.175969
-0.02368 -0.060943998 -0.175983
-0.023677001 -0.060865998 -0.17600501
-0.023674 -0.060787998 -0.176011
-0.023670999 -0.060711998 -0.17602199
-0.023668 -0.060633 -0.17603201
-0.023666 -0.060559001 -0.176034
-0.023664 -0.060483001 -0.17603201
-0.023662001 -0.060407002 -0.176028
-0.02366 -0.060332 -0.17602301
-0.023657 -0.060253002 -0.176035
-0.023654001 -0.060178999 -0.176037
-0.023653001 -0.060106002 -0.176011
-0.023652 -0.060031999 -0.17599399
-0.023649 -0.059955999 -0.176
-0.023646001 -0.059877999 -0.17601
-0.023644 -0.059801999 -0.17601401
-0.023642 -0.059728 -0.17600501
-0.023641 -0.059654001 -0.175989
-0.023638001 -0.059578001 -0.175993
-0.023636 -0.059500001 -0.17599501
-0.023633 -0.059424002 -0.17600299
-0.023631001 -0.059349999 -0.176
-0.023629 -0.059275001 -0.175988
-0.023627 -0.059200998 -0.17597599
-0.023626 -0.059126999 -0.17595901
-0.023623999 -0.059053998 -0.175943
-0.023622001 -0.058977999 -0.17594101
-0.02362 -0.058904 -0.175937
-0.023618 -0.05883 -0.175924
-0.023616999 -0.058754001 -0.17591
-0.023615001 -0.058681 -0.17590199
-0.023613 -0.058607001 -0.175898
-0.023611 -0.058531001 -0.17589299
-0.023608999 -0.058456998 -0.175873
-0.023607001 -0.058380999 -0.17586701
-0.023605 -0.058304999 -0.175877
-0.023602 -0.058228999 -0.175872
-0.023600999 -0.058155999 -0.17586
-0.023599001 -0.058081999 -0.175852
-0.023597 -0.058008 -0.175834
-0.023596 -0.057937 -0.17581099
-0.023593999 -0.057861 -0.175813
-0.023591001 -0.057783 -0.175817
-0.023589 -0.057709001 -0.175814
-0.023587 -0.057633001 -0.17581201
-0.023584999 -0.057557002 -0.175808
-0.023584001 -0.057484999 -0.175782
-0.023583001 -0.057411999 -0.17576499
-0.023581 -0.057337999 -0.175753
-0.023579 -0.057264 -0.175741
-0.023577999 -0.057190999 -0.175721
-0.023576999 -0.057119001 -0.175704
-0.023574 -0.057043001 -0.175698
-0.023572 -0.056968998 -0.175694
-0.023571 -0.056894001 -0.17568099
-0.023569001 -0.056820001 -0.175671
-0.023568001 -0.056747999 -0.175651
-0.023566 -0.056673001 -0.175643
-0.023564 -0.056598999 -0.17563599
-0.023562999 -0.056524999 -0.175614
-0.023561999 -0.056453999 -0.17558999
-0.023560001 -0.05638 -0.175585
-0.023557 -0.056304 -0.175583
-0.023556 -0.056230001 -0.175569
-0.023554999 -0.056159001 -0.17554601
-0.023553001 -0.056085002 -0.175528
-0.023552001 -0.056014001 -0.175506
-0.023551 -0.055941999 -0.17547899
-0.023549 -0.055865999 -0.175475
-0.023546999 -0.05579 -0.17548101
-0.023544 -0.055714 -0.17547899
-0.023543 -0.055643 -0.17546
-0.023542 -0.055571001 -0.175432
-0.023539999 -0.055498 -0.17542
-0.023538001 -0.055422001 -0.175414
-0.023536 -0.055348001 -0.175411
-0.023535 -0.055275999 -0.17538901
-0.023535 -0.055204999 -0.17535099
-0.023533 -0.055132002 -0.17534
-0.023530999 -0.055055998 -0.17534199
-0.023529001 -0.054984 -0.175322
-0.023528 -0.054912999 -0.175299
-0.023527 -0.054839 -0.175281
-0.023526 -0.054767001 -0.175265
-0.023525 -0.054698002 -0.175226
-0.023527 -0.054636002 -0.175144
-0.024153 -0.089317001 -0.175248
-0.024152 -0.089241996 -0.17522199
-0.024152 -0.089165002 -0.17516799
-0.024153 -0.089087002 -0.175097
-0.024152 -0.089010999 -0.175069
-0.024150001 -0.088935003 -0.17505901
-0.024119999 -0.087970003 -0.17506699
-0.024115 -0.087898001 -0.175127
-0.024111999 -0.087824002 -0.175147
-0.024109 -0.087748997 -0.175163
-0.024106 -0.087677002 -0.175182
-0.024102001 -0.087603003 -0.17520601
-0.024099 -0.087530002 -0.17523
-0.024095999 -0.087456003 -0.17525201
-0.024093 -0.087380998 -0.175267
-0.024088999 -0.087309003 -0.17529701
-0.024085 -0.087236002 -0.175339
-0.024080999 -0.087160997 -0.175359
-0.024078 -0.087086998 -0.17537799
-0.024075 -0.087013997 -0.175402
-0.024071001 -0.086942002 -0.17543
-0.024068 -0.086866997 -0.175455
-0.024064001 -0.086792998 -0.175483
-0.024061 -0.086718 -0.175497
-0.024057999 -0.086644001 -0.175511
-0.024054 -0.086571001 -0.17554399
-0.024049999 -0.086498998 -0.175578
-0.024047 -0.086424001 -0.175604
-0.024044 -0.086350001 -0.17561799
-0.024041001 -0.086274996 -0.175633
-0.024037 -0.086203001 -0.17566299
-0.024033001 -0.086127996 -0.17570899
-0.024029 -0.086055003 -0.17573901
-0.024025001 -0.085980996 -0.175767
-0.024022 -0.085905999 -0.175798
-0.024018001 -0.085832998 -0.17581999
-0.024016 -0.085757002 -0.175832
-0.024011999 -0.085685 -0.175851
-0.024009001 -0.085610002 -0.175871
-0.024007 -0.085533999 -0.17586701
-0.024005 -0.085460998 -0.175855
-0.024002001 -0.085383996 -0.175873
-0.023998 -0.085311003 -0.175918
-0.023994001 -0.085236996 -0.17594001
-0.023991 -0.085162997 -0.175954
-0.023987999 -0.085088 -0.17597599
-0.023984 -0.085013002 -0.176007
-0.023980999 -0.084939003 -0.176027
-0.023978001 -0.084864996 -0.176039
-0.023975 -0.084789999 -0.17605899
-0.023972001 -0.084716 -0.176072
-0.023969 -0.084642 -0.17608
-0.023965999 -0.084568001 -0.1761
-0.023963001 -0.084491 -0.17611399
-0.023961 -0.084417 -0.176121
-0.023957999 -0.084343001 -0.176125
-0.023956001 -0.084266998 -0.176117
-0.023954 -0.084192999 -0.17611501
-0.023951 -0.084117003 -0.17612401
-0.023948001 -0.084043004 -0.176148
-0.023946 -0.083968997 -0.176146
-0.023943 -0.083894998 -0.17614999
-0.023940001 -0.083818004 -0.176163
-0.023938 -0.083743997 -0.17616899
-0.023933999 -0.083669998 -0.17618699
-0.023931 -0.083595 -0.176211
-0.023928 -0.083518997 -0.17622
-0.023925999 -0.083444998 -0.17621601
-0.023923 -0.083370999 -0.17623
-0.023918999 -0.083296001 -0.176272
-0.023916001 -0.083222002 -0.176285
-0.023913 -0.083145998 -0.176291
-0.023910999 -0.083071001 -0.176301
-0.023907 -0.082997002 -0.176319
-0.023903999 -0.082921997 -0.176347
-0.023901001 -0.082846001 -0.17636199
-0.023899 -0.082772002 -0.176356
-0.023895999 -0.082695998 -0.17636199
-0.023893001 -0.082621999 -0.176374
-0.023891 -0.082548 -0.176383
-0.023887999 -0.082471997 -0.176393
-0.023885 -0.082396999 -0.176397
-0.023883 -0.082321003 -0.176395
-0.023881 -0.082246996 -0.17640001
-0.023878001 -0.082171001 -0.176406
-0.023876 -0.082097001 -0.17639799
-0.023872999 -0.082020998 -0.176404
-0.023871001 -0.081946999 -0.17639901
-0.023870001 -0.081872001 -0.17638899
-0.023867 -0.081795998 -0.176385
-0.023863999 -0.081721 -0.17640901
-0.023861 -0.081647001 -0.176424
-0.023859 -0.081570998 -0.17641801
-0.023856999 -0.081495002 -0.176412
-0.023854 -0.081421003 -0.17642
-0.023851 -0.081347004 -0.17644501
-0.023848001 -0.081270002 -0.17645299
-0.023845 -0.081196003 -0.176461
-0.023843 -0.081119999 -0.176469
-0.023840001 -0.081046 -0.17647
-0.023838 -0.080972001 -0.176478
-0.023835 -0.080895998 -0.176486
-0.023832001 -0.080821998 -0.176494
-0.023829 -0.080744997 -0.176504
-0.023827 -0.080670998 -0.176513
-0.023824001 -0.080595002 -0.17651699
-0.023822 -0.080521002 -0.176525
-0.023819 -0.080444999 -0.17653701
-0.023816001 -0.080369003 -0.17653801
-0.023814 -0.080294997 -0.176534
-0.023812 -0.080220997 -0.17654
-0.023809999 -0.080145001 -0.176534
-0.023808001 -0.080068998 -0.17652901
-0.023805 -0.079994999 -0.176543
-0.023801999 -0.079919003 -0.17654499
-0.023800001 -0.079844996 -0.17654701
-0.023797 -0.079769 -0.176552
-0.023794999 -0.079695001 -0.176548
-0.023792 -0.079618998 -0.17655399
-0.02379 -0.079542004 -0.176562
-0.023786999 -0.079467997 -0.17657299
-0.023784 -0.079392001 -0.176589
-0.023781 -0.079318002 -0.176597
-0.023778999 -0.079241998 -0.176597
-0.023776 -0.079167999 -0.176599
-0.023774 -0.079090998 -0.176612
-0.023770999 -0.079015002 -0.176624
-0.023768 -0.078941002 -0.176622
-0.023766 -0.078864999 -0.176622
-0.023763999 -0.078791 -0.176627
-0.023762001 -0.078714997 -0.176617
-0.023759 -0.078640997 -0.176617
-0.023755999 -0.078565001 -0.176631
-0.023754001 -0.078488998 -0.17663001
-0.023753 -0.078414999 -0.176614
-0.02375 -0.078340001 -0.176612
-0.023747999 -0.078264996 -0.176622
-0.023745 -0.078189 -0.176621
-0.023743 -0.078114003 -0.176615
-0.023742 -0.078039996 -0.17659099
-0.023743 -0.077967003 -0.176533
-0.023739999 -0.077891 -0.17654
-0.023736 -0.077815004 -0.176572
-0.023732999 -0.077738002 -0.176598
-0.02373 -0.077664003 -0.176606
-0.023728 -0.077587999 -0.176605
-0.023726 -0.077514 -0.176597
-0.023724001 -0.077437997 -0.176595
-0.023721 -0.077362001 -0.176603
-0.023719 -0.077288002 -0.17659999
-0.023716999 -0.077211998 -0.17658
-0.023716001 -0.077138998 -0.176558
-0.023714 -0.077063002 -0.17655601
-0.023711 -0.076986998 -0.17657501
-0.023708001 -0.076912001 -0.176589
-0.023705 -0.076835997 -0.176605
-0.023701999 -0.076760001 -0.17660899
-0.023700001 -0.076686002 -0.176603
-0.023698 -0.076609999 -0.176598
-0.023696 -0.076536 -0.17659999
-0.023693001 -0.076459996 -0.17660201
-0.023691 -0.076384 -0.176606
-0.023686999 -0.076309003 -0.176633
-0.023684001 -0.076233 -0.176653
-0.023682 -0.076157004 -0.176651
-0.02368 -0.076082997 -0.176643
-0.023677001 -0.076007001 -0.17664801
-0.023674 -0.075930998 -0.17667
-0.023670999 -0.075854003 -0.176686
-0.023669001 -0.075781003 -0.17667399
-0.023667 -0.075704999 -0.17666601
-0.023664 -0.075629003 -0.17668299
-0.023661001 -0.075553998 -0.176687
-0.02366 -0.075479001 -0.17667501
-0.023657 -0.075405002 -0.17667501
-0.023654001 -0.075328 -0.17669
-0.023652 -0.075253002 -0.176686
-0.023651 -0.075179003 -0.176668
-0.023649 -0.075103 -0.176662
-0.023645001 -0.075026996 -0.17668501
-0.023642 -0.074950002 -0.176705
-0.023638999 -0.074873999 -0.176715
-0.023637 -0.0748 -0.17671099
-0.023635 -0.074724004 -0.176698
-0.023633 -0.074649997 -0.176696
-0.023631001 -0.074574001 -0.1767
-0.023628 -0.074497998 -0.17670999
-0.023623001 -0.074421003 -0.17676
-0.02362 -0.074345 -0.176769
-0.023619 -0.074268997 -0.176751
-0.023618 -0.074196003 -0.176733
-0.023614001 -0.074119002 -0.176759
-0.02361 -0.074042 -0.176797
-0.023607001 -0.073965997 -0.17680199
-0.023606 -0.073893003 -0.176774
-0.023605 -0.073817 -0.17675
-0.023602 -0.073740996 -0.176768
-0.023598 -0.073664002 -0.176797
-0.023595 -0.073587999 -0.176807
-0.023592999 -0.073512003 -0.17681301
-0.02359 -0.073438004 -0.17682099
-0.023587 -0.073360004 -0.176838
-0.023584001 -0.073284999 -0.176852
-0.023581 -0.073209003 -0.17685799
-0.023577999 -0.073132999 -0.17686801
-0.023576001 -0.073057003 -0.176864
-0.023575 -0.072982997 -0.176847
-0.023572 -0.072907001 -0.17685699
-0.023569001 -0.072830997 -0.176869
-0.023568001 -0.072757997 -0.17684101
-0.023567 -0.072682001 -0.176828
-0.023562999 -0.072605997 -0.176844
-0.023561001 -0.072529003 -0.176856
-0.023558 -0.072453 -0.17685001
-0.023556 -0.072376996 -0.176863
-0.023553001 -0.072301 -0.176873
-0.023551 -0.072227001 -0.17685699
-0.023549 -0.072150998 -0.176853
-0.023546999 -0.072075002 -0.17685699
-0.023544 -0.071998999 -0.17685799
-0.023542 -0.071924999 -0.176854
-0.023539999 -0.071850002 -0.176844
-0.023537001 -0.071773 -0.176862
-0.023533 -0.071695 -0.176889
-0.023530999 -0.071621001 -0.176893
-0.023530001 -0.071547002 -0.176871
-0.023528 -0.071470998 -0.176861
-0.023525 -0.071395002 -0.176874
-0.023522001 -0.071317002 -0.17689
-0.02352 -0.071243003 -0.176888
-0.023517 -0.071167 -0.176888
-0.023514999 -0.071091004 -0.176888
-0.023512 -0.071015 -0.176891
-0.02351 -0.070938997 -0.176889
-0.023508999 -0.070864998 -0.176871
-0.023507999 -0.070791997 -0.176843
-0.023506001 -0.070717998 -0.176828
-0.023503 -0.070642002 -0.17684001
-0.023499999 -0.070564002 -0.176856
-0.023498001 -0.070490003 -0.176852
-0.023496 -0.070413999 -0.17683899
-0.023495 -0.07034 -0.176829
-0.023494 -0.070266999 -0.17680299
-0.023491999 -0.070191003 -0.176797
-0.023489 -0.070115 -0.176808
-0.023488 -0.070041001 -0.17678601
-0.023487 -0.069968 -0.17676
-0.023483001 -0.069889002 -0.176792
-0.023479 -0.069811001 -0.17681301
-0.023477999 -0.069737002 -0.17679299
-0.023476999 -0.069664001 -0.176771
-0.023476001 -0.069590002 -0.17674901
-0.023475001 -0.069517002 -0.176724
-0.023473 -0.069440998 -0.176716
-0.023468999 -0.069365002 -0.176732
-0.023466 -0.069286004 -0.17676
-0.023463 -0.06921 -0.176759
-0.023460999 -0.069136001 -0.176753
-0.023459001 -0.069059998 -0.176755
-0.023456 -0.068984002 -0.176761
-0.023453999 -0.068907999 -0.17676
-0.023453999 -0.068834998 -0.176726
-0.023452001 -0.068760999 -0.17670199
-0.023449 -0.068682998 -0.176724
-0.023445999 -0.068607002 -0.176742
-0.023444001 -0.068533003 -0.176725
-0.023443 -0.068460003 -0.176699
-0.023441 -0.068383999 -0.176695
-0.023437999 -0.068306997 -0.176714
-0.023436001 -0.068232 -0.1767
-0.023435 -0.068158001 -0.176682
-0.023433 -0.068081997 -0.17667601
-0.023430999 -0.068008997 -0.176659
-0.023429999 -0.067934997 -0.176651
-0.023427 -0.067859001 -0.176659
-0.023425 -0.067782998 -0.17665499
-0.023422999 -0.067707002 -0.17665
-0.02342 -0.067630999 -0.17665
-0.023418 -0.067555003 -0.176652
-0.023414999 -0.067478999 -0.17665599
-0.023413001 -0.067405 -0.176654
-0.023411 -0.067328997 -0.176651
-0.023409 -0.067253001 -0.17664699
-0.023406001 -0.067176998 -0.176653
-0.023404 -0.067102998 -0.176645
-0.023404 -0.067029998 -0.176614
-0.023402 -0.066955999 -0.17659201
-0.023399999 -0.066880003 -0.176588
-0.023397001 -0.066803999 -0.176596
-0.023395 -0.066728003 -0.17660099
-0.023393 -0.066653997 -0.176599
-0.023390001 -0.066575997 -0.17660099
-0.023389 -0.066501997 -0.176587
-0.023387 -0.066428997 -0.17657
-0.023384999 -0.066353001 -0.17657401
-0.023382001 -0.066276997 -0.176572
-0.023381 -0.066202998 -0.17656
-0.023379 -0.066127002 -0.176551
-0.023376999 -0.066050999 -0.176543
-0.023374001 -0.065975003 -0.176551
-0.023372 -0.065899 -0.176557
-0.02337 -0.065825 -0.17654601
-0.023367999 -0.065748997 -0.17654601
-0.023365 -0.065673001 -0.17654601
-0.023364 -0.0656 -0.176534
-0.023362 -0.065523997 -0.17651901
-0.023360001 -0.065449998 -0.176513
-0.023358 -0.065375 -0.17649899
-0.023357 -0.065301001 -0.176485
-0.023355 -0.065227002 -0.176476
-0.023352999 -0.065150999 -0.17647
-0.02335 -0.065075003 -0.17647199
-0.023348 -0.064998999 -0.176478
-0.023345999 -0.064923003 -0.17647099
-0.023344999 -0.064851999 -0.17644501
-0.023343001 -0.064776003 -0.17643701
-0.02334 -0.0647 -0.176443
-0.023337999 -0.064623997 -0.176438
-0.023336999 -0.064551003 -0.17641599
-0.023336001 -0.064476997 -0.176396
-0.023334 -0.064402997 -0.176385
-0.023332 -0.064328998 -0.176377
-0.023329999 -0.064254001 -0.176365
-0.023329001 -0.064180002 -0.176355
-0.023327 -0.064103998 -0.17635
-0.023325 -0.064029999 -0.17634
-0.023322999 -0.063956998 -0.17632601
-0.023321001 -0.063881002 -0.176318
-0.023319 -0.063804999 -0.176321
-0.023316 -0.063729003 -0.176323
-0.023313999 -0.063654996 -0.17631499
-0.023313001 -0.063579001 -0.176305
-0.023311 -0.063505001 -0.1763
-0.023308 -0.063427001 -0.17630599
-0.023305001 -0.063350998 -0.17631
-0.023303 -0.063276999 -0.176304
-0.023301 -0.063201003 -0.176295
-0.0233 -0.063129999 -0.176273
-0.023298999 -0.063054003 -0.17625301
-0.023297001 -0.062981002 -0.176249
-0.023295 -0.062904999 -0.17624
-0.023294 -0.062830999 -0.17622399
-0.023291999 -0.062757 -0.17620599
-0.023290999 -0.062684 -0.176193
-0.023289001 -0.06261 -0.17617901
-0.023287 -0.062533997 -0.176175
-0.023285 -0.062460002 -0.17616899
-0.023282999 -0.062385 -0.176162
-0.023281001 -0.062311001 -0.17614999
-0.02328 -0.062236998 -0.176136
-0.023278 -0.062160999 -0.176126
-0.023274999 -0.062084999 -0.176129
-0.023273 -0.062008999 -0.17613301
-0.023271 -0.061933 -0.176127
-0.023269 -0.061859 -0.17612299
-0.023266001 -0.061783999 -0.17612
-0.023264 -0.061708 -0.176116
-0.023262 -0.061634 -0.176108
-0.023260999 -0.061560001 -0.17609601
-0.023259001 -0.061485998 -0.176085
-0.023257 -0.061411001 -0.17607901
-0.023255 -0.061335001 -0.176073
-0.023252999 -0.061260998 -0.176063
-0.023251001 -0.061186999 -0.176052
-0.023249 -0.061110999 -0.176052
-0.023247 -0.061035 -0.176048
-0.023244999 -0.060961001 -0.17603999
-0.023242 -0.060883 -0.17604899
-0.02324 -0.060807001 -0.176057
-0.023236999 -0.060731001 -0.176053
-0.023235001 -0.060655002 -0.17605101
-0.023233 -0.060580999 -0.176052
-0.023231 -0.060504999 -0.176048
-0.023228001 -0.060428999 -0.176048
-0.023226 -0.060353 -0.17605001
-0.023223 -0.060275 -0.176054
-0.023220999 -0.060199 -0.176057
-0.023219001 -0.060125001 -0.176055
-0.023217 -0.060049001 -0.17604899
-0.023213999 -0.059973001 -0.176053
-0.023211 -0.059895001 -0.176063
-0.023209 -0.059820998 -0.176054
-0.023208 -0.059748001 -0.176044
-0.023205999 -0.059672002 -0.176038
-0.023204001 -0.059595998 -0.17603301
-0.023202 -0.059521999 -0.176025
-0.0232 -0.059448 -0.176011
-0.023197999 -0.059374999 -0.176001
-0.023195 -0.059296001 -0.17601199
-0.023193 -0.059218001 -0.17602
-0.023190999 -0.059145 -0.176002
-0.023189999 -0.059073001 -0.175974
-0.023189001 -0.059 -0.17595901
-0.023186 -0.058924001 -0.175961
-0.023184 -0.058848001 -0.17596699
-0.023181999 -0.058772001 -0.175961
-0.02318 -0.058697999 -0.17594799
-0.023179 -0.058626998 -0.17591999
-0.023178 -0.058552999 -0.17590199
-0.023174999 -0.058476999 -0.17591199
-0.023172 -0.058398999 -0.175917
-0.023171 -0.058327001 -0.17589501
-0.02317 -0.058256 -0.175873
-0.023169 -0.058182001 -0.17585599
-0.023166999 -0.058106001 -0.17584801
-0.023165001 -0.058030002 -0.175846
-0.023163 -0.057957001 -0.175836
-0.023161 -0.057882998 -0.17582101
-0.023158999 -0.057808999 -0.175813
-0.023157001 -0.057732999 -0.17581099
-0.023155 -0.057657 -0.17580099
-0.023154 -0.057583999 -0.17579
-0.023151999 -0.057512 -0.175776
-0.023150999 -0.057438001 -0.175752
-0.023150001 -0.057367001 -0.175733
-0.023147 -0.057289001 -0.175735
-0.023143999 -0.057213001 -0.175741
-0.023142001 -0.057139002 -0.17573699
-0.023141 -0.057062998 -0.17572799
-0.02314 -0.056992002 -0.17570201
-0.02314 -0.056922998 -0.175658
-0.023139 -0.056851 -0.175625
-0.023138 -0.056779999 -0.17560101
-0.023136999 -0.056708001 -0.17558099
-0.023134001 -0.056632001 -0.17557999
-0.023133 -0.056559 -0.175568
-0.023133 -0.05649 -0.17552599
-0.023131 -0.056416001 -0.17550901
-0.023128999 -0.056340002 -0.175515
-0.023126001 -0.056263998 -0.175519
-0.023124 -0.056189999 -0.175505
-0.023123 -0.056116 -0.175492
-0.023120999 -0.05604 -0.175492
-0.023118 -0.055964999 -0.175488
-0.023117 -0.055893 -0.175464
-0.023117 -0.055822 -0.17543299
-0.023116 -0.055750001 -0.175409
-0.023112999 -0.055675998 -0.175409
-0.023112001 -0.055603001 -0.175392
-0.023111001 -0.055530999 -0.175368
-0.023109 -0.055454999 -0.175364
-0.023107 -0.055379 -0.17536099
-0.023105999 -0.05531 -0.175331
-0.023104999 -0.055241 -0.175295
-0.023104001 -0.055167001 -0.175274
-0.023103001 -0.055094 -0.17526001
-0.023101 -0.055022001 -0.175246
-0.023099 -0.054947998 -0.175237
-0.023099 -0.054877002 -0.175201
-0.023097999 -0.054806001 -0.175181
-0.023096001 -0.054730002 -0.17517599
-0.023093 -0.054655999 -0.175174
-0.023814 -0.089261003 -0.175258
-0.023813 -0.089185998 -0.175227
-0.023813 -0.089109004 -0.175183
-0.023814 -0.089029998 -0.17512301
-0.023813 -0.088955 -0.175083
-0.023812 -0.088880002 -0.17505801
-0.023796 -0.088358 -0.175053
-0.023793001 -0.088284001 -0.175072
-0.02379 -0.088211 -0.17509
-0.023786999 -0.088137001 -0.17511199
-0.023784 -0.088064 -0.175126
-0.023781 -0.087990001 -0.175145
-0.023777001 -0.087917 -0.17517699
-0.023774 -0.087843001 -0.175199
-0.023770001 -0.087768003 -0.175221
-0.023767 -0.087696001 -0.17524201
-0.023762999 -0.087621003 -0.17526799
-0.02376 -0.087549001 -0.175294
-0.023757 -0.087474003 -0.17531601
-0.023753 -0.087402001 -0.17534301
-0.023748999 -0.087329 -0.175375
-0.023746001 -0.087255001 -0.175393
-0.023743 -0.087180004 -0.17541
-0.023739999 -0.087105997 -0.175436
-0.023736 -0.087033004 -0.17546
-0.023732999 -0.086958997 -0.175476
-0.02373 -0.086884998 -0.175493
-0.023727 -0.08681 -0.175505
-0.023724001 -0.086736001 -0.17551699
-0.023721 -0.086663999 -0.175541
-0.023717999 -0.086589001 -0.17556
-0.023715001 -0.086512998 -0.17556401
-0.023712 -0.086441003 -0.175574
-0.023708999 -0.086365998 -0.175602
-0.023705 -0.086294003 -0.175641
-0.023700001 -0.086218998 -0.17568301
-0.023697 -0.086145997 -0.175715
-0.023693999 -0.086071998 -0.175731
-0.02369 -0.085997 -0.175762
-0.023685999 -0.085924 -0.1758
-0.023683 -0.08585 -0.175814
-0.02368 -0.085776001 -0.175826
-0.023677001 -0.085701004 -0.17584699
-0.023674 -0.085626997 -0.175863
-0.023669999 -0.085552 -0.17588501
-0.023667 -0.085478 -0.175909
-0.023664 -0.085403003 -0.17592999
-0.023661001 -0.085329004 -0.175934
-0.023658 -0.085253 -0.17594001
-0.023654999 -0.085179001 -0.17595799
-0.023652 -0.085104004 -0.175974
-0.023649 -0.085029997 -0.17598701
-0.023646999 -0.084955998 -0.17599501
-0.023644 -0.084880002 -0.176001
-0.023641 -0.084806003 -0.176019
-0.023637 -0.084733002 -0.176048
-0.023634 -0.084657997 -0.176072
-0.023631001 -0.084582001 -0.17608
-0.023628 -0.084508002 -0.176094
-0.023624999 -0.084434003 -0.176107
-0.023622001 -0.084358998 -0.176117
-0.02362 -0.084283002 -0.176127
-0.023616999 -0.084209003 -0.176125
-0.023615999 -0.084133998 -0.176116
-0.023613 -0.084059998 -0.17611399
-0.02361 -0.083985001 -0.17613199
-0.023607001 -0.083911002 -0.17614201
-0.023605 -0.083834998 -0.176145
-0.023602 -0.083760999 -0.17615101
-0.023600001 -0.083687 -0.176155
-0.023598 -0.083610997 -0.176155
-0.023595 -0.083536997 -0.17615999
-0.023592001 -0.083460003 -0.176172
-0.023589 -0.083385997 -0.176186
-0.023584999 -0.083310999 -0.176218
-0.023581 -0.083237 -0.17625301
-0.023577999 -0.083162002 -0.17626899
-0.023575 -0.083088003 -0.176283
-0.023573 -0.083012 -0.176283
-0.023571 -0.082938001 -0.176274
-0.023568001 -0.082864001 -0.17628799
-0.023565 -0.082787 -0.17631599
-0.023561001 -0.082713 -0.17633399
-0.023558 -0.082639001 -0.176356
-0.023554999 -0.082562 -0.176369
-0.023553001 -0.082488 -0.17637099
-0.023551 -0.082413003 -0.17636099
-0.02355 -0.082339004 -0.17634299
-0.023546999 -0.082263 -0.17634
-0.023545001 -0.082189001 -0.17634401
-0.023541 -0.082114004 -0.176378
-0.023537001 -0.082037002 -0.176412
-0.023535 -0.081963003 -0.17641699
-0.023533 -0.081887998 -0.176397
-0.023530999 -0.081812002 -0.176383
-0.023530001 -0.081738003 -0.176373
-0.023528 -0.081662998 -0.176358
-0.023526 -0.081588998 -0.17635199
-0.023523999 -0.081513003 -0.17635
-0.023521001 -0.081439003 -0.176358
-0.023517 -0.081363998 -0.17639101
-0.023514001 -0.081288002 -0.176413
-0.023512 -0.081214003 -0.176411
-0.02351 -0.081138 -0.17640901
-0.023506001 -0.081063002 -0.17643601
-0.023503 -0.080986999 -0.17645399
-0.023499999 -0.080913 -0.17645399
-0.023498001 -0.080836996 -0.176456
-0.023495 -0.080761999 -0.17647099
-0.023491001 -0.080688 -0.17649899
-0.023488 -0.080610998 -0.176523
-0.023484999 -0.080536999 -0.17652901
-0.023483999 -0.080462001 -0.17650899
-0.023483001 -0.080385998 -0.176488
-0.02348 -0.080311999 -0.17648999
-0.023476999 -0.080238 -0.176516
-0.023473 -0.080160998 -0.17654
-0.023471 -0.080085002 -0.17653701
-0.023468999 -0.080011003 -0.17652699
-0.023467001 -0.079934999 -0.176531
-0.023464 -0.079861 -0.176531
-0.023463 -0.079786003 -0.17652
-0.023460999 -0.079712003 -0.17651799
-0.023457 -0.079635002 -0.17653599
-0.023453999 -0.079558998 -0.17655601
-0.023451 -0.079484999 -0.176569
-0.023448 -0.079407997 -0.17657501
-0.023445999 -0.079334997 -0.176569
-0.023444001 -0.079259001 -0.176567
-0.023442 -0.079184003 -0.176576
-0.023438999 -0.079108 -0.176586
-0.023436001 -0.079031996 -0.176596
-0.023433 -0.078957997 -0.176608
-0.023429999 -0.078882001 -0.176622
-0.023428001 -0.078808002 -0.176621
-0.023426 -0.078731999 -0.176615
-0.023424 -0.078658 -0.176613
-0.023422001 -0.078582004 -0.176607
-0.023419 -0.078506 -0.176606
-0.023417 -0.078432001 -0.176604
-0.023414001 -0.078355998 -0.17660999
-0.023412 -0.078281999 -0.17660999
-0.023411 -0.078206003 -0.176597
-0.023409 -0.078129999 -0.176589
-0.023406999 -0.078056999 -0.17658301
-0.023404 -0.077981003 -0.176581
-0.023402 -0.077905998 -0.176586
-0.023398999 -0.077830002 -0.17659999
-0.023397001 -0.077753998 -0.176598
-0.023395 -0.077679999 -0.17659
-0.023391999 -0.077604003 -0.17659301
-0.023390001 -0.077531002 -0.176589
-0.023388 -0.077454999 -0.176587
-0.023386 -0.077379003 -0.17658301
-0.023383999 -0.077304997 -0.176572
-0.023382001 -0.077230997 -0.17656399
-0.023379 -0.077155001 -0.176576
-0.023375999 -0.077078998 -0.176588
-0.023374001 -0.077003002 -0.176585
-0.023372 -0.076929003 -0.176577
-0.02337 -0.076853 -0.17657501
-0.023367001 -0.076779 -0.176587
-0.023364 -0.076701999 -0.176613
-0.023360001 -0.076626003 -0.176636
-0.023358 -0.076549999 -0.17664
-0.023356 -0.076476 -0.176624
-0.023353999 -0.076399997 -0.17661799
-0.023352001 -0.076325998 -0.176623
-0.023349 -0.076250002 -0.17662901
-0.023345999 -0.076173998 -0.176643
-0.023343001 -0.076099001 -0.17665701
-0.02334 -0.076022997 -0.17667399
-0.023337999 -0.075947002 -0.17667
-0.023335001 -0.075870998 -0.176672
-0.023332 -0.075796999 -0.17669
-0.023329999 -0.075721003 -0.17669401
-0.023327 -0.075645 -0.176697
-0.023325 -0.075571001 -0.176695
-0.023322999 -0.075494997 -0.176689
-0.023321001 -0.075419001 -0.176689
-0.023318 -0.075345002 -0.176696
-0.023314999 -0.075268 -0.17670199
-0.023313001 -0.075191997 -0.17670999
-0.02331 -0.075116001 -0.176706
-0.023308 -0.075043 -0.17670301
-0.023305001 -0.074965999 -0.176717
-0.023303 -0.074890003 -0.176723
-0.023301 -0.074816003 -0.176713
-0.023298001 -0.07474 -0.176716
-0.023295 -0.074663997 -0.176742
-0.023291999 -0.074587002 -0.17675599
-0.023289001 -0.074510999 -0.17676599
-0.023287 -0.074437 -0.17676
-0.023285 -0.074362002 -0.17674901
-0.023282999 -0.074285999 -0.176745
-0.023281001 -0.074212 -0.17674901
-0.023275999 -0.074133001 -0.17679299
-0.023273 -0.074056 -0.176817
-0.02327 -0.073980004 -0.17681199
-0.023267999 -0.073905997 -0.17682
-0.023264 -0.073830001 -0.176844
-0.023262 -0.073753998 -0.17685001
-0.023259999 -0.073678002 -0.176845
-0.023258001 -0.073601998 -0.176837
-0.023254 -0.073524997 -0.176873
-0.023250001 -0.073449001 -0.176893
-0.023248 -0.073372997 -0.17689499
-0.023244999 -0.073298998 -0.176898
-0.023242 -0.07322 -0.17691199
-0.02324 -0.073146001 -0.17692199
-0.023236999 -0.073069997 -0.17692
-0.023235001 -0.072994001 -0.176929
-0.023233 -0.072920002 -0.176911
-0.023232 -0.072844997 -0.176897
-0.023228001 -0.072768003 -0.176925
-0.023225 -0.072691999 -0.176939
-0.023223 -0.072616003 -0.176926
-0.023220999 -0.07254 -0.176926
-0.023219001 -0.072466999 -0.176908
-0.023219001 -0.072393 -0.176873
-0.023217 -0.072318003 -0.176863
-0.023215 -0.072244003 -0.17685901
-0.023212001 -0.072167002 -0.176875
-0.023209 -0.072089002 -0.17688701
-0.023207 -0.072015002 -0.17687599
-0.023205001 -0.071942002 -0.176864
-0.023203 -0.071863003 -0.17687
-0.023198999 -0.071787 -0.176908
-0.023195 -0.071708001 -0.176928
-0.023193 -0.071634002 -0.17692301
-0.023190999 -0.071558997 -0.17691299
-0.023189001 -0.071482003 -0.176919
-0.023187 -0.071409002 -0.176915
-0.023185 -0.071332999 -0.176908
-0.023181999 -0.071257003 -0.17691
-0.023179 -0.071180001 -0.176926
-0.023176 -0.071103998 -0.17693201
-0.023174001 -0.071028002 -0.176927
-0.023172 -0.070952997 -0.176921
-0.02317 -0.070878997 -0.176917
-0.023169 -0.070803002 -0.17690299
-0.023166999 -0.070729002 -0.176888
-0.023165001 -0.070652999 -0.17688
-0.023163 -0.070578001 -0.17687599
-0.023159999 -0.070502996 -0.176882
-0.023158999 -0.070427999 -0.176871
-0.023157001 -0.070354 -0.176855
-0.023155 -0.070277996 -0.176855
-0.023153 -0.070202 -0.176853
-0.023150999 -0.070129 -0.176838
-0.023150001 -0.070055 -0.176818
-0.023147 -0.069978997 -0.176818
-0.023143999 -0.069903001 -0.17682999
-0.023142001 -0.069826998 -0.176833
-0.02314 -0.069751002 -0.176829
-0.023138 -0.069674999 -0.17682301
-0.023135999 -0.069599003 -0.17682099
-0.023133 -0.069525003 -0.176824
-0.023131 -0.069449 -0.176826
-0.023128999 -0.069372997 -0.17682
-0.023127001 -0.069297001 -0.176816
-0.023125 -0.069223002 -0.17680199
-0.023123 -0.069147997 -0.17679299
-0.023119999 -0.069071002 -0.17680299
-0.023118 -0.068995997 -0.176801
-0.023117 -0.068924002 -0.176772
-0.023115 -0.068847999 -0.176762
-0.023112001 -0.068772003 -0.176778
-0.02311 -0.068694003 -0.17678
-0.02311 -0.068622999 -0.176737
-0.023109 -0.068549998 -0.17671099
-0.023105999 -0.068472996 -0.176717
-0.023104001 -0.068397999 -0.176715
-0.023103001 -0.068324 -0.176686
-0.023102 -0.068250999 -0.17666601
-0.023099 -0.068175003 -0.17667
-0.023096999 -0.068100996 -0.176662
-0.023095001 -0.068025 -0.17665701
-0.023093 -0.067948997 -0.17665701
-0.023091 -0.067873001 -0.17665701
-0.023088999 -0.067799002 -0.176649
-0.023086 -0.067722999 -0.17664801
-0.023083 -0.067647003 -0.17666
-0.023081001 -0.067569003 -0.176668
-0.023079 -0.067495003 -0.176654
-0.023078 -0.067423999 -0.176625
-0.023077 -0.067348003 -0.176605
-0.023074999 -0.067273997 -0.176605
-0.023071 -0.067195997 -0.176621
-0.023069 -0.067120001 -0.176633
-0.023066999 -0.067046002 -0.17661799
-0.023065999 -0.066972002 -0.176594
-0.023064001 -0.066896997 -0.176588
-0.023061 -0.066821001 -0.17659301
-0.023057999 -0.066742003 -0.176615
-0.023055 -0.066666 -0.176631
-0.023052 -0.066590004 -0.17663699
-0.023050001 -0.066514 -0.176625
-0.023048 -0.066437997 -0.17662001
-0.023045 -0.066362001 -0.176634
-0.023042999 -0.066285998 -0.176636
-0.023042001 -0.066211998 -0.176614
-0.02304 -0.066138998 -0.176599
-0.023039 -0.066064999 -0.176571
-0.023038 -0.065991998 -0.176553
-0.023034001 -0.065912999 -0.176587
-0.02303 -0.065834001 -0.176605
-0.02303 -0.065761 -0.176578
-0.023027999 -0.065687999 -0.17655601
-0.023026001 -0.065612003 -0.17655601
-0.023024 -0.065537997 -0.176553
-0.023022 -0.065462001 -0.176549
-0.023019999 -0.065385997 -0.176541
-0.023018001 -0.065311998 -0.176521
-0.023017 -0.065238997 -0.176502
-0.023015 -0.065163001 -0.17649999
-0.023011999 -0.065086998 -0.17650799
-0.023010001 -0.065012999 -0.176498
-0.023008 -0.064937003 -0.17649899
-0.023006 -0.064861 -0.17649899
-0.023003999 -0.064787 -0.176485
-0.023003001 -0.064712003 -0.176469
-0.023 -0.064638004 -0.176466
-0.022998 -0.064562 -0.17646
-0.022995999 -0.064485997 -0.176452
-0.022994 -0.064410001 -0.176458
-0.022991 -0.064333998 -0.176461
-0.02299 -0.064259999 -0.17644501
-0.022988999 -0.064186998 -0.176425
-0.022988001 -0.064116001 -0.176387
-0.022988001 -0.064043999 -0.17635199
-0.022986 -0.063969001 -0.176342
-0.022981999 -0.063891999 -0.176366
-0.022978 -0.063810997 -0.176402
-0.022975 -0.063732997 -0.17641801
-0.022972999 -0.063658997 -0.176405
-0.022972001 -0.063585997 -0.176385
-0.02297 -0.063511997 -0.176375
-0.022967 -0.063433997 -0.176388
-0.022964999 -0.063358001 -0.176384
-0.022964001 -0.063286997 -0.17635199
-0.022964999 -0.063217998 -0.176301
-0.022964001 -0.063143998 -0.17627101
-0.022962 -0.063068002 -0.176265
-0.022958999 -0.062991999 -0.17628101
-0.022955 -0.062912002 -0.176305
-0.022954 -0.06284 -0.17628799
-0.022953 -0.062766999 -0.176264
-0.022952 -0.062694997 -0.17623
-0.022950999 -0.062622003 -0.17620499
-0.022949999 -0.062547997 -0.17618901
-0.022949001 -0.062475 -0.176165
-0.022947 -0.062403001 -0.176146
-0.022944 -0.062325001 -0.176158
-0.022941001 -0.062247001 -0.176174
-0.022940001 -0.062173001 -0.176156
-0.022939 -0.062104002 -0.176117
-0.022938 -0.062029999 -0.17609499
-0.022934999 -0.061951999 -0.17611299
-0.022932 -0.061873998 -0.176127
-0.02293 -0.061797999 -0.176128
-0.022927999 -0.061724 -0.176116
-0.022926001 -0.061650001 -0.17610601
-0.022924 -0.061574001 -0.1761
-0.022922 -0.061501 -0.176089
-0.022919999 -0.061425 -0.176081
-0.022918001 -0.061351001 -0.176075
-0.022917001 -0.061276998 -0.176053
-0.022915 -0.061204001 -0.176044
-0.022913 -0.061128002 -0.176046
-0.022910999 -0.061051998 -0.176038
-0.022910001 -0.060977999 -0.17602
-0.022907 -0.060904 -0.176019
-0.022905 -0.060826 -0.176025
-0.022902001 -0.06075 -0.17603099
-0.0229 -0.060674001 -0.17603301
-0.022896999 -0.060598001 -0.176034
-0.022895001 -0.060522001 -0.176038
-0.022892 -0.060446002 -0.17603999
-0.02289 -0.060369998 -0.176034
-0.022887999 -0.060295999 -0.176025
-0.022887001 -0.060222998 -0.176009
-0.022885 -0.060146999 -0.176007
-0.022882 -0.060070999 -0.176015
-0.022879001 -0.059992 -0.17602099
-0.022877 -0.059916001 -0.17602
-0.022875 -0.059843 -0.176016
-0.022872999 -0.059767 -0.176008
-0.022871001 -0.059691001 -0.176006
-0.022868 -0.059615001 -0.176011
-0.022865999 -0.059539001 -0.176007
-0.022864999 -0.059464999 -0.175991
-0.022862 -0.059390999 -0.175989
-0.02286 -0.059312999 -0.175998
-0.022857999 -0.059239 -0.17598601
-0.022856999 -0.059165999 -0.17596599
-0.022855001 -0.059092 -0.17595799
-0.022852 -0.059016 -0.17595699
-0.022849999 -0.058940001 -0.175953
-0.022848001 -0.058864001 -0.175951
-0.022847001 -0.058791 -0.17593101
-0.022846 -0.058719002 -0.17591
-0.022843 -0.058644999 -0.175906
-0.022841001 -0.058568999 -0.1759
-0.022839 -0.058493 -0.175896
-0.022837 -0.058417 -0.17589501
-0.022834999 -0.058343999 -0.175887
-0.022833999 -0.05827 -0.175873
-0.022832001 -0.058194 -0.175864
-0.022829 -0.058120001 -0.175862
-0.022826999 -0.058044001 -0.175862
-0.022825001 -0.057968002 -0.175854
-0.022824001 -0.057895001 -0.175841
-0.022822 -0.057821002 -0.175831
-0.02282 -0.057746999 -0.17582101
-0.022817999 -0.057670999 -0.17581099
-0.022816001 -0.057597999 -0.175808
-0.022814 -0.057523999 -0.175796
-0.022813 -0.05745 -0.175778
-0.022810999 -0.057376999 -0.175763
-0.022810001 -0.057303 -0.175749
-0.022808 -0.057229001 -0.175735
-0.022807 -0.057156 -0.175717
-0.022805 -0.057082001 -0.17570201
-0.022802999 -0.057007998 -0.175696
-0.022802001 -0.056933999 -0.17568199
-0.0228 -0.056860998 -0.17567299
-0.022798 -0.056786999 -0.175659
-0.022797 -0.056713998 -0.175635
-0.022795999 -0.056639999 -0.175623
-0.022793001 -0.056564 -0.17562
-0.022792 -0.056492001 -0.17560001
-0.022791 -0.056421001 -0.175576
-0.02279 -0.056347001 -0.175561
-0.022787999 -0.056272998 -0.17555299
-0.022786001 -0.056198001 -0.175549
-0.022783 -0.056122001 -0.17554501
-0.022782 -0.056047998 -0.17553601
-0.022779999 -0.055973999 -0.175524
-0.022778001 -0.0559 -0.17551599
-0.022777 -0.055826999 -0.17549901
-0.022775 -0.055755001 -0.175477
-0.022774 -0.055682 -0.175459
-0.022772999 -0.055610001 -0.17543399
-0.022771999 -0.055539001 -0.17540801
-0.022770001 -0.055465002 -0.175396
-0.022768 -0.055388998 -0.175402
-0.022766 -0.055312999 -0.175395
-0.022763999 -0.055241 -0.17537899
-0.022763999 -0.05517 -0.175345
-0.022763001 -0.055101 -0.175312
-0.022762001 -0.055027001 -0.1753
-0.022759 -0.054951001 -0.175302
-0.022758 -0.054877002 -0.17528901
-0.022756999 -0.054807998 -0.175253
-0.022755999 -0.054735001 -0.17523301
-0.022755001 -0.054662999 -0.175216
-0.023538001 -0.089272998 -0.17528801
-0.023538001 -0.089195997 -0.175228
-0.023539999 -0.089117996 -0.17515001
-0.023539999 -0.089041002 -0.175099
-0.023538999 -0.088964 -0.175073
-0.023537001 -0.088890001 -0.17505901
-0.023530999 -0.088665999 -0.175052
-0.023521001 -0.088367999 -0.175055
-0.023519 -0.088293999 -0.175051
-0.023517 -0.08822 -0.175056
-0.023513 -0.088146001 -0.175082
-0.02351 -0.088073 -0.175106
-0.023506001 -0.088000998 -0.175134
-0.023502 -0.087927997 -0.175181
-0.023499001 -0.087853 -0.17519701
-0.023495 -0.087780997 -0.175219
-0.023491999 -0.087706998 -0.175237
-0.023489 -0.087632 -0.175258
-0.023484999 -0.087559 -0.175286
-0.023481 -0.087485 -0.175322
-0.023477999 -0.087412 -0.175338
-0.023475001 -0.087339997 -0.175367
-0.023469999 -0.087265 -0.17540701
-0.023467001 -0.087191999 -0.175427
-0.023463 -0.087118 -0.175457
-0.023459001 -0.087044999 -0.17549799
-0.023455 -0.086971998 -0.175538
-0.023452001 -0.086897999 -0.17555401
-0.023449 -0.086823002 -0.175576
-0.023445001 -0.086750999 -0.175611
-0.023442 -0.086676002 -0.17562699
-0.02344 -0.086600997 -0.17560899
-0.023438999 -0.086525001 -0.175595
-0.023436001 -0.086452998 -0.17560799
-0.023432 -0.086378001 -0.175642
-0.023426 -0.086305 -0.175706
-0.023422001 -0.086231999 -0.17574801
-0.023419 -0.086157002 -0.17576499
-0.023415999 -0.086083002 -0.17577501
-0.023413001 -0.086009003 -0.175791
-0.02341 -0.085933998 -0.17580301
-0.023406999 -0.085859999 -0.175832
-0.023403 -0.085786998 -0.17586599
-0.023399999 -0.085712999 -0.17588399
-0.023397001 -0.085637003 -0.17589401
-0.023393 -0.085564002 -0.17592099
-0.023390001 -0.085488997 -0.175951
-0.023387 -0.085414998 -0.175965
-0.023384999 -0.085339002 -0.175955
-0.023382001 -0.085265003 -0.17595799
-0.023378 -0.085189998 -0.176002
-0.023374001 -0.085116997 -0.176044
-0.023371 -0.085042998 -0.17605799
-0.023367999 -0.084968999 -0.17606699
-0.023365 -0.084893003 -0.17607699
-0.023363 -0.084818996 -0.176081
-0.023360999 -0.084744997 -0.17607901
-0.023358 -0.084669001 -0.176084
-0.023355 -0.084593996 -0.17609
-0.023352001 -0.084518 -0.17610601
-0.02335 -0.084444001 -0.176116
-0.023347 -0.084370002 -0.17612299
-0.023343001 -0.084294997 -0.176155
-0.023341 -0.084220998 -0.176157
-0.023339 -0.084145002 -0.176153
-0.023336001 -0.084071003 -0.176163
-0.023334 -0.083996996 -0.176164
-0.023331 -0.083921 -0.176162
-0.023328001 -0.083847001 -0.176176
-0.023325 -0.083772004 -0.17619801
-0.023321999 -0.083697997 -0.17622299
-0.023318 -0.083622999 -0.176241
-0.023314999 -0.083547004 -0.176255
-0.023313001 -0.083472997 -0.176265
-0.02331 -0.083397001 -0.176264
-0.023308 -0.083323002 -0.176256
-0.023305001 -0.083249003 -0.17626999
