# .PCD v0.7 - Point Cloud Data file format
VERSION 0.7
FIELDS x y z
SIZE 4 4 4
TYPE F F F
COUNT 1 1 1
WIDTH 1428
HEIGHT 1
VIEWPOINT 0 0 0 1 0 0 0
POINTS 1428
DATA ascii
-0.043822002 -0.13388801 -0.17831001
-0.043820001 -0.133812 -0.178308
-0.043816999 -0.133738 -0.178323
-0.043814 -0.13366599 -0.178335
-0.043811999 -0.13359199 -0.178343
-0.043809 -0.133517 -0.178354
-0.043806002 -0.13344499 -0.178372
-0.043804001 -0.133369 -0.17837
-0.043802001 -0.133293 -0.17836
-0.043799002 -0.13321701 -0.17836501
-0.043795999 -0.13314299 -0.178377
-0.043793999 -0.13306899 -0.17837299
-0.043791998 -0.132991 -0.178367
-0.043790001 -0.132917 -0.17837401
-0.043786999 -0.132843 -0.17838199
-0.043784 -0.132771 -0.17840201
-0.043779999 -0.132698 -0.17843001
-0.043777 -0.132626 -0.178451
-0.043774001 -0.132551 -0.17846499
-0.043770999 -0.132477 -0.17847501
-0.043768 -0.132405 -0.178491
-0.043765001 -0.132332 -0.17851
-0.043761998 -0.132256 -0.178516
-0.043760002 -0.132182 -0.17852201
-0.043756999 -0.13210601 -0.178526
-0.043754999 -0.13203 -0.17852101
-0.043753002 -0.131956 -0.178519
-0.043749999 -0.131882 -0.178535
-0.043747 -0.131808 -0.178541
-0.043745 -0.131732 -0.17853799
-0.043742999 -0.13165601 -0.17852999
-0.043740999 -0.13158 -0.178528
-0.043738 -0.131504 -0.178532
-0.043735001 -0.131431 -0.178555
-0.043731999 -0.131359 -0.178579
-0.043728001 -0.131286 -0.178601
-0.043724999 -0.13121399 -0.17863201
-0.043722 -0.13113999 -0.17863999
-0.043719001 -0.131065 -0.17865001
-0.043717001 -0.130991 -0.17866001
-0.043714002 -0.130917 -0.178671
-0.043710999 -0.130843 -0.178683
-0.043708 -0.130767 -0.17868701
-0.043706998 -0.130689 -0.17866699
-0.043705001 -0.130613 -0.17866001
-0.043701999 -0.130539 -0.178672
-0.043699 -0.130465 -0.178684
-0.043696001 -0.130391 -0.17869399
-0.043694001 -0.130316 -0.17870501
-0.043691002 -0.13023999 -0.17871299
-0.043687999 -0.13016599 -0.178721
-0.043685999 -0.13009 -0.178711
-0.043683998 -0.130014 -0.17870601
-0.043682002 -0.12994 -0.178712
-0.043678999 -0.12986401 -0.17871401
-0.043676998 -0.129788 -0.178708
-0.043675002 -0.129714 -0.178717
-0.043671001 -0.12964 -0.178735
-0.043667998 -0.129566 -0.17875101
-0.043666001 -0.129491 -0.17876101
-0.043662999 -0.129417 -0.178772
-0.04366 -0.12934101 -0.178776
-0.043657999 -0.12926701 -0.178782
-0.043655001 -0.129191 -0.178782
-0.043653999 -0.129113 -0.17876001
-0.043653 -0.12903599 -0.178739
-0.043650001 -0.12896 -0.178737
-0.043648001 -0.128886 -0.178743
-0.043644998 -0.12881 -0.178747
-0.043641999 -0.12873501 -0.178762
-0.043639001 -0.12866101 -0.178776
-0.043637 -0.12858699 -0.178782
-0.043635 -0.128511 -0.178774
-0.043634001 -0.12843201 -0.178745
-0.043632001 -0.12835599 -0.178743
-0.043628 -0.12828299 -0.178767
-0.043625001 -0.12821101 -0.17878699
-0.043621998 -0.128135 -0.178792
-0.043620002 -0.128059 -0.17879
-0.043618001 -0.127983 -0.17878801
-0.043614998 -0.127909 -0.178798
-0.043612 -0.12783401 -0.178821
-0.043609001 -0.12775999 -0.178837
-0.043605998 -0.12768599 -0.17885301
-0.043602999 -0.12761199 -0.178863
-0.043602999 -0.127533 -0.178818
-0.043602001 -0.127455 -0.178792
-0.043598998 -0.127379 -0.17879
-0.043597002 -0.127303 -0.17879599
-0.043593999 -0.12722901 -0.178811
-0.043591 -0.12715399 -0.17882501
-0.043588001 -0.12707999 -0.178831
-0.043584999 -0.127004 -0.17884099
-0.043582 -0.12693 -0.178854
-0.043579999 -0.126854 -0.178854
-0.043577999 -0.12678 -0.17885
-0.043575 -0.12670401 -0.178858
-0.043573 -0.126628 -0.17886201
-0.043570001 -0.126554 -0.17886899
-0.043567002 -0.126479 -0.178891
-0.043563999 -0.126407 -0.178911
-0.043561 -0.126331 -0.17891499
-0.043558002 -0.12625401 -0.178922
-0.043556001 -0.12617999 -0.178932
-0.043552998 -0.126104 -0.17893399
-0.043551002 -0.126028 -0.17892601
-0.04355 -0.125953 -0.17890701
-0.043547999 -0.12587699 -0.178903
-0.043545 -0.12580299 -0.178919
-0.043540999 -0.125728 -0.178937
-0.043538999 -0.125652 -0.17894199
-0.043536998 -0.125576 -0.178936
-0.043533999 -0.12549999 -0.178938
-0.043531001 -0.12542801 -0.178968
-0.043527 -0.12535299 -0.17899901
-0.043524999 -0.125277 -0.178995
-0.043522999 -0.125203 -0.178993
-0.04352 -0.125127 -0.178997
-0.043517999 -0.12505101 -0.179002
-0.043515 -0.124975 -0.179006
-0.043512002 -0.124901 -0.179014
-0.043510001 -0.124827 -0.179022
-0.043506999 -0.12475 -0.179029
-0.043505002 -0.124674 -0.179029
-0.043501999 -0.1246 -0.179041
-0.043497998 -0.124526 -0.179067
-0.043494999 -0.124451 -0.179084
-0.043494001 -0.124374 -0.179058
-0.043492999 -0.124297 -0.179024
-0.043490998 -0.124221 -0.17901801
-0.043488 -0.124145 -0.179028
-0.043485999 -0.12407 -0.17903499
-0.043483 -0.123994 -0.179039
-0.043481 -0.123918 -0.179037
-0.043478001 -0.123842 -0.179041
-0.043474998 -0.123768 -0.17906
-0.043471001 -0.123695 -0.179096
-0.043467999 -0.123621 -0.179114
-0.043465 -0.123545 -0.179122
-0.043462999 -0.123469 -0.17911699
-0.043462001 -0.123393 -0.17909899
-0.04346 -0.123317 -0.179087
-0.043458 -0.123241 -0.179087
-0.043455001 -0.123165 -0.179092
-0.043451998 -0.123089 -0.17910001
-0.043450002 -0.123015 -0.179112
-0.043446999 -0.122941 -0.179116
-0.043444999 -0.122863 -0.179107
-0.043444999 -0.122786 -0.179069
-0.043443002 -0.122708 -0.179051
-0.043441001 -0.122634 -0.179049
-0.043439001 -0.122558 -0.179047
-0.043435998 -0.122482 -0.17906
-0.043432999 -0.122408 -0.17907999
-0.043430001 -0.122334 -0.17908999
-0.043428 -0.122258 -0.179084
-0.043425001 -0.122182 -0.17908899
-0.043421999 -0.122107 -0.17910901
-0.043419 -0.122033 -0.179125
-0.043416001 -0.121957 -0.179131
-0.043414 -0.121881 -0.179138
-0.043411002 -0.121806 -0.17914601
-0.043407999 -0.12173 -0.179152
-0.043405998 -0.121656 -0.17915399
-0.043403 -0.12158 -0.17916299
-0.043400001 -0.121504 -0.17917299
-0.043398 -0.12143 -0.179177
-0.043395001 -0.121354 -0.179177
-0.043391999 -0.121278 -0.179189
-0.043389998 -0.121202 -0.179196
-0.043388002 -0.121128 -0.179196
-0.043384999 -0.121051 -0.17919999
-0.043382 -0.120975 -0.179212
-0.043379001 -0.120901 -0.179233
-0.043375999 -0.120825 -0.17923699
-0.043373998 -0.120751 -0.179241
-0.043370999 -0.120674 -0.17925701
-0.043368001 -0.1206 -0.17926399
-0.043366 -0.120524 -0.179258
-0.043365002 -0.120447 -0.17923801
-0.043363001 -0.120371 -0.179222
-0.043359999 -0.120295 -0.17922901
-0.043357 -0.120221 -0.179245
-0.043354001 -0.120146 -0.179263
-0.043350998 -0.12007 -0.179279
-0.043347999 -0.119996 -0.179291
-0.043345999 -0.11992 -0.17929199
-0.043343 -0.119843 -0.179304
-0.043340001 -0.119769 -0.17931999
-0.043338001 -0.119693 -0.179318
-0.043336 -0.119618 -0.179299
-0.043334998 -0.11954 -0.179281
-0.043333001 -0.119464 -0.17927501
-0.043329999 -0.11939 -0.17927501
-0.043327998 -0.119314 -0.179278
-0.043325 -0.119238 -0.179298
-0.043320999 -0.119163 -0.179322
-0.043318 -0.119087 -0.179332
-0.043315999 -0.119013 -0.179325
-0.043315001 -0.118935 -0.179313
-0.043313 -0.11886 -0.179305
-0.043311 -0.118784 -0.179295
-0.043308001 -0.118708 -0.179297
-0.043304998 -0.118633 -0.179318
-0.043302 -0.118559 -0.17934
-0.043299001 -0.118483 -0.179342
-0.043297 -0.118407 -0.17934
-0.043294001 -0.118331 -0.179355
-0.043290999 -0.118256 -0.17936499
-0.043288998 -0.118181 -0.179359
-0.043287002 -0.118105 -0.179345
-0.043285999 -0.118029 -0.179336
-0.043283999 -0.117951 -0.179324
-0.043281998 -0.117876 -0.179306
-0.043281 -0.1178 -0.17929401
-0.043278001 -0.117724 -0.179299
-0.043274999 -0.11765 -0.179309
-0.043272 -0.117574 -0.17931899
-0.043269999 -0.117497 -0.17932899
-0.043267999 -0.117422 -0.17932101
-0.043265998 -0.117346 -0.179308
-0.043263 -0.117272 -0.179314
-0.043260999 -0.117196 -0.179324
-0.043258 -0.117119 -0.179326
-0.043256 -0.117043 -0.179331
-0.043253001 -0.116969 -0.17933901
-0.043251 -0.116893 -0.17933901
-0.043248001 -0.116817 -0.17933901
-0.043244999 -0.116741 -0.179354
-0.043242 -0.116667 -0.179372
-0.04324 -0.116591 -0.179362
-0.04324 -0.116514 -0.179324
-0.043237001 -0.116438 -0.179323
-0.043235 -0.116364 -0.179331
-0.043233 -0.116288 -0.179323
-0.043228999 -0.116211 -0.179341
-0.043226 -0.116137 -0.179371
-0.043223001 -0.116061 -0.17937601
-0.043221001 -0.115985 -0.17937601
-0.043217 -0.11591 -0.179406
-0.043212999 -0.115833 -0.179436
-0.043210998 -0.115759 -0.179441
-0.043207999 -0.115681 -0.179441
-0.043207001 -0.115608 -0.17942899
-0.043205 -0.11553 -0.17942099
-0.043202002 -0.115456 -0.179432
-0.043198999 -0.115379 -0.179446
-0.043196 -0.115303 -0.179456
-0.043194 -0.115229 -0.17945801
-0.043189999 -0.115153 -0.179474
-0.043187 -0.115076 -0.17949501
-0.043184001 -0.115 -0.17950501
-0.043182001 -0.114924 -0.17949501
-0.043180998 -0.114848 -0.179487
-0.043178 -0.114772 -0.179492
-0.043175999 -0.114697 -0.179482
-0.043175001 -0.114623 -0.179462
-0.043172002 -0.114545 -0.17946801
-0.043168999 -0.11447 -0.179493
-0.043164998 -0.114394 -0.179511
-0.043163002 -0.114318 -0.179515
-0.043161001 -0.114244 -0.17951301
-0.043159001 -0.114166 -0.179501
-0.043157 -0.114091 -0.17948601
-0.043155 -0.114015 -0.179482
-0.043152999 -0.113941 -0.17948399
-0.04315 -0.113865 -0.17948601
-0.043147001 -0.113788 -0.17950501
-0.043143 -0.113712 -0.179539
-0.043140002 -0.113635 -0.179557
-0.043136999 -0.113561 -0.179563
-0.043134 -0.113485 -0.179573
-0.043131001 -0.113408 -0.1796
-0.043127999 -0.113332 -0.179616
-0.043125 -0.113256 -0.17962
-0.043124001 -0.11318 -0.17959601
-0.043122999 -0.113105 -0.17956901
-0.043120999 -0.113029 -0.17956901
-0.043118 -0.112955 -0.179583
-0.043115001 -0.112879 -0.179591
-0.043111999 -0.112802 -0.179598
-0.043110002 -0.112726 -0.17960399
-0.043108001 -0.11265 -0.179598
-0.043106001 -0.112575 -0.179584
-0.043104999 -0.112499 -0.179563
-0.043102998 -0.112423 -0.179557
-0.043099001 -0.112347 -0.179579
-0.043097001 -0.112271 -0.17958499
-0.043094002 -0.112195 -0.179593
-0.043090001 -0.112118 -0.17963
-0.043086 -0.112043 -0.17966799
-0.043083001 -0.111967 -0.17968
-0.043079998 -0.111891 -0.17969
-0.043076999 -0.111814 -0.17969801
-0.043074999 -0.111739 -0.17968901
-0.043074001 -0.111663 -0.179657
-0.043072999 -0.111588 -0.179647
-0.04307 -0.111511 -0.179653
-0.043069001 -0.111436 -0.17963199
-0.043067999 -0.111361 -0.179602
-0.043065999 -0.111285 -0.179598
-0.043063 -0.111209 -0.179598
-0.043060999 -0.111133 -0.17959499
-0.043058999 -0.111057 -0.179581
-0.043058001 -0.110981 -0.17956901
-0.043056 -0.110906 -0.179561
-0.043054 -0.110832 -0.17955799
-0.043051001 -0.110756 -0.179556
-0.043048002 -0.110679 -0.179584
-0.043044001 -0.110601 -0.17961
-0.043040998 -0.110526 -0.17962199
-0.043039002 -0.11045 -0.179625
-0.043035999 -0.110374 -0.179629
-0.043033998 -0.110298 -0.179635
-0.043031 -0.110222 -0.17963301
-0.043028999 -0.110146 -0.179626
-0.043028001 -0.110071 -0.17961399
-0.043026 -0.109995 -0.1796
-0.043024 -0.109919 -0.179584
-0.043023001 -0.109844 -0.179557
-0.043023001 -0.109771 -0.179519
-0.043021001 -0.109695 -0.17950501
-0.043017998 -0.109619 -0.179517
-0.043014001 -0.109542 -0.179554
-0.043010999 -0.109464 -0.17957
-0.043009002 -0.109388 -0.17957
-0.043008 -0.109315 -0.17952999
-0.043007001 -0.109239 -0.179509
-0.043003999 -0.109163 -0.17952099
-0.043001 -0.109087 -0.179537
-0.042998001 -0.10901 -0.17954899
-0.042994998 -0.108934 -0.179557
-0.042993002 -0.108858 -0.179552
-0.042991001 -0.108782 -0.179554
-0.042989001 -0.108706 -0.17955001
-0.042987 -0.108631 -0.17952999
-0.042986002 -0.108555 -0.179519
-0.042982001 -0.108479 -0.179539
-0.042982001 -0.108406 -0.179491
-0.042980999 -0.10833 -0.179469
-0.042978 -0.108254 -0.179478
-0.042975999 -0.108178 -0.17948601
-0.042973999 -0.108102 -0.17948
-0.042971998 -0.108026 -0.17946
-0.042970002 -0.107951 -0.17944901
-0.042968001 -0.107875 -0.179451
-0.042966001 -0.107801 -0.17944901
-0.042962998 -0.107723 -0.179451
-0.042959999 -0.107646 -0.179462
-0.042957999 -0.10757 -0.179464
-0.042955 -0.107494 -0.179478
-0.042952001 -0.107418 -0.17949601
-0.042948999 -0.107342 -0.17950401
-0.042947002 -0.107266 -0.17950299
-0.042943999 -0.107189 -0.179511
-0.042941 -0.107113 -0.179519
-0.042939 -0.107037 -0.179515
-0.042936999 -0.106962 -0.179506
-0.042936001 -0.106886 -0.179492
-0.042934 -0.10681 -0.17948
-0.042931002 -0.106734 -0.17949399
-0.042927001 -0.106657 -0.17952
-0.042925 -0.106582 -0.179509
-0.042925 -0.106506 -0.179473
-0.042923 -0.106431 -0.17945901
-0.042920001 -0.106354 -0.179471
-0.042916998 -0.106278 -0.17949
-0.042915002 -0.106202 -0.179488
-0.042913999 -0.106129 -0.17946599
-0.042911001 -0.106051 -0.179464
-0.042908002 -0.105974 -0.179479
-0.042906001 -0.105898 -0.17948499
-0.042904001 -0.105823 -0.17947499
-0.042900998 -0.105746 -0.179489
-0.042897001 -0.105668 -0.17952099
-0.042893998 -0.105591 -0.179526
-0.042892002 -0.105518 -0.17952199
-0.042888001 -0.105439 -0.179548
-0.042886 -0.105363 -0.179548
-0.042885002 -0.105287 -0.179528
-0.042884 -0.105214 -0.17950501
-0.042881999 -0.105138 -0.179487
-0.042881001 -0.105063 -0.179471
-0.042879999 -0.10499 -0.179432
-0.042879 -0.104914 -0.17941201
-0.042876001 -0.104838 -0.179418
-0.042874001 -0.104762 -0.179418
-0.042872 -0.104686 -0.17940301
-0.04287 -0.104613 -0.17939501
-0.042869002 -0.104537 -0.179373
-0.042868 -0.104464 -0.17934699
-0.042865999 -0.104388 -0.179334
-0.042863999 -0.104312 -0.17932799
-0.042862002 -0.104236 -0.179334
-0.042858999 -0.10416 -0.179332
-0.042856999 -0.104084 -0.17932899
-0.042854 -0.104008 -0.17933901
-0.042851999 -0.10393 -0.179351
-0.042849001 -0.103853 -0.179359
-0.042847998 -0.10378 -0.179326
-0.042849001 -0.10371 -0.17925601
-0.042847998 -0.103634 -0.179242
-0.042845 -0.103558 -0.179242
-0.042842999 -0.103482 -0.179235
-0.04284 -0.103404 -0.179261
-0.042835999 -0.103327 -0.179279
-0.042833999 -0.103251 -0.17927501
-0.042831998 -0.103176 -0.179267
-0.042831 -0.103102 -0.179254
-0.042828999 -0.103026 -0.17924
-0.042826999 -0.10295 -0.17922799
-0.042824998 -0.102874 -0.179233
-0.042821001 -0.102798 -0.17925701
-0.042817999 -0.10272 -0.17926501
-0.042815998 -0.102644 -0.179259
-0.042814001 -0.102568 -0.179261
-0.042812001 -0.102494 -0.179254
-0.04281 -0.102418 -0.17924
-0.042808 -0.102343 -0.179232
-0.042806 -0.102267 -0.17923
-0.042803999 -0.102191 -0.17922901
-0.042803001 -0.102117 -0.17920899
-0.042801999 -0.102044 -0.179171
-0.042801 -0.101968 -0.17915501
-0.042798001 -0.101892 -0.17915601
-0.042796001 -0.101817 -0.17914601
-0.042794 -0.101743 -0.179144
-0.042792 -0.101665 -0.17914601
-0.042789999 -0.101591 -0.179129
-0.042789001 -0.101516 -0.17910101
-0.042787999 -0.101442 -0.17907301
-0.042787001 -0.101369 -0.179056
-0.042784002 -0.101292 -0.179066
-0.042780999 -0.101214 -0.17907999
-0.042778 -0.101138 -0.179088
-0.042776 -0.101062 -0.179084
-0.042773999 -0.100986 -0.179079
-0.042771999 -0.10091 -0.17908099
-0.042769 -0.100834 -0.179085
-0.042766999 -0.100758 -0.17908099
-0.042764001 -0.10068 -0.17908899
-0.042761002 -0.100604 -0.179104
-0.042759001 -0.100528 -0.179102
-0.042757999 -0.100454 -0.179068
-0.042757001 -0.100381 -0.17904299
-0.042757999 -0.10031 -0.178983
-0.042757999 -0.100239 -0.178939
-0.042755999 -0.100161 -0.17894
-0.042753 -0.100087 -0.17894
-0.042750999 -0.100012 -0.178932
-0.042748999 -0.099935003 -0.178936
-0.042746 -0.099858999 -0.178939
-0.042745002 -0.099784002 -0.17892499
-0.042744 -0.099710003 -0.178901
-0.042743001 -0.099637002 -0.17887101
-0.042741999 -0.099564001 -0.17884
-0.042741001 -0.099490002 -0.178822
-0.042738002 -0.099413998 -0.178826
-0.042734999 -0.099338003 -0.17883401
-0.042732999 -0.099260002 -0.17884099
-0.04273 -0.099183999 -0.178847
-0.042727001 -0.099105 -0.178857
-0.042727001 -0.099035002 -0.178803
-0.042727001 -0.098963 -0.178764
-0.042725001 -0.098886997 -0.17876799
-0.042722002 -0.098811001 -0.178772
-0.042721 -0.098738 -0.178745
-0.042718999 -0.098661996 -0.178743
-0.042716 -0.098583996 -0.17876101
-0.042713001 -0.098508 -0.17876101
-0.042711001 -0.098431997 -0.178763
-0.042707998 -0.098352998 -0.178774
-0.042706002 -0.098277003 -0.178774
-0.042704001 -0.098204002 -0.178756
-0.042702001 -0.098127998 -0.17874999
-0.0427 -0.098052002 -0.17875101
-0.042697001 -0.097975999 -0.17875101
-0.042695001 -0.097900003 -0.178745
-0.042693999 -0.097825997 -0.17873099
-0.042691998 -0.097750999 -0.17872401
-0.042688999 -0.097675003 -0.178726
-0.042686999 -0.097598001 -0.17873
-0.042684998 -0.097520001 -0.178728
-0.042684 -0.097448997 -0.17870501
-0.042683002 -0.097375996 -0.178661
-0.042681001 -0.097301997 -0.178657
-0.042679001 -0.097223997 -0.178663
-0.042677 -0.097149998 -0.178642
-0.042677 -0.097079001 -0.178602
-0.042676002 -0.097006001 -0.17858601
-0.042672999 -0.096928 -0.178591
-0.04267 -0.096850999 -0.178597
-0.042668 -0.096776001 -0.178591
-0.042665999 -0.096699998 -0.178589
-0.042663999 -0.096624002 -0.17858499
-0.042661998 -0.096550003 -0.17858
-0.042659 -0.096472003 -0.17858399
-0.042656001 -0.096395999 -0.17859399
-0.042653002 -0.096317001 -0.17861199
-0.042651001 -0.096240997 -0.178606
-0.042649999 -0.096167997 -0.178583
-0.042647999 -0.096092001 -0.178583
-0.042644002 -0.096013002 -0.17860501
-0.042640999 -0.095935002 -0.178625
-0.042638 -0.095857002 -0.178635
-0.042636 -0.095780998 -0.17862999
-0.042635001 -0.095710002 -0.178592
-0.042635001 -0.095638998 -0.17855
-0.042633999 -0.095564999 -0.17853101
-0.042631999 -0.095491998 -0.178517
-0.042629998 -0.095416002 -0.17851301
-0.042628001 -0.095339999 -0.178506
-0.042624999 -0.095261 -0.17851999
-0.042622 -0.095183 -0.178536
-0.042619999 -0.095109001 -0.17852999
-0.042617999 -0.095034003 -0.178514
-0.042615999 -0.094958 -0.178509
-0.042614002 -0.094881997 -0.178517
-0.042610999 -0.094806001 -0.17852101
-0.042608 -0.094727002 -0.178527
-0.042605001 -0.094649002 -0.178543
-0.042603001 -0.094572999 -0.178546
-0.042601001 -0.094497003 -0.178536
-0.042599 -0.094423003 -0.178532
-0.042596001 -0.094345003 -0.178532
-0.042594999 -0.094272003 -0.178525
-0.042592999 -0.094195999 -0.17851301
-0.042592 -0.094123997 -0.17848501
-0.042591002 -0.094051003 -0.178462
-0.042587999 -0.093975 -0.17846601
-0.042585999 -0.093897 -0.17847
-0.042583998 -0.093820997 -0.178464
-0.042580001 -0.093741998 -0.178488
-0.042576 -0.093663998 -0.17851201
-0.042575002 -0.093588002 -0.178497
-0.042574 -0.093516998 -0.178469
-0.042571999 -0.093441002 -0.17846701
-0.042569 -0.093363002 -0.178478
-0.042566001 -0.093286999 -0.17848
-0.042564001 -0.093208998 -0.178482
-0.042560998 -0.093133003 -0.17848399
-0.042559002 -0.093056999 -0.178478
-0.042557001 -0.092983 -0.17847501
-0.042555001 -0.092905 -0.178481
-0.042552002 -0.092828996 -0.178479
-0.042548999 -0.092750996 -0.178489
-0.042546 -0.092671998 -0.17850301
-0.042544998 -0.092598997 -0.17848399
-0.042544 -0.092527002 -0.17845599
-0.042544 -0.092454001 -0.178424
-0.042541999 -0.092382997 -0.178407
-0.042539999 -0.092303999 -0.17841101
-0.042537 -0.092228003 -0.178417
-0.042534001 -0.092150003 -0.17841899
-0.042532001 -0.092073999 -0.178422
-0.042529002 -0.091995999 -0.178442
-0.042525001 -0.091914997 -0.178468
-0.042523 -0.091842003 -0.178452
-0.042523 -0.091770001 -0.17842001
-0.042521 -0.091695003 -0.178409
-0.042518999 -0.091620997 -0.178397
-0.042516999 -0.091545001 -0.17839099
-0.042514998 -0.091468997 -0.17839301
-0.042512 -0.091390997 -0.17840201
-0.042509001 -0.091315001 -0.178404
-0.042507 -0.091238998 -0.17840201
-0.042505 -0.091160998 -0.178406
-0.042502999 -0.091086999 -0.17839301
-0.042502999 -0.091016002 -0.17835701
-0.042500999 -0.090942003 -0.178333
-0.042498998 -0.090865999 -0.178335
-0.042497002 -0.090791002 -0.17833
-0.042495999 -0.090719 -0.17831001
-0.042493999 -0.090643004 -0.178304
-0.042491999 -0.090567 -0.178295
-0.042490002 -0.090493999 -0.178287
-0.042486999 -0.090412997 -0.17830101
-0.042484999 -0.090338998 -0.178297
-0.042482998 -0.090265997 -0.178278
-0.042481001 -0.090190001 -0.17827
-0.042479001 -0.090113997 -0.17827
-0.042477001 -0.090038002 -0.178268
-0.042475 -0.089964002 -0.178251
-0.042474002 -0.089891002 -0.17823701
-0.042470999 -0.089814998 -0.178241
-0.042468999 -0.089739002 -0.17823701
-0.042467002 -0.089662999 -0.178224
-0.042465001 -0.089587003 -0.178224
-0.042463001 -0.089512996 -0.178222
-0.042461999 -0.089442 -0.178186
-0.042461999 -0.089371003 -0.178155
-0.042459998 -0.089296997 -0.178137
-0.042459 -0.089222997 -0.178123
-0.042456999 -0.089149997 -0.17811
-0.042456001 -0.089075997 -0.178084
-0.042454999 -0.089002997 -0.178066
-0.042452 -0.088927001 -0.178067
-0.04245 -0.088850997 -0.178073
-0.042445999 -0.088770002 -0.178093
-0.042443998 -0.088693999 -0.178095
-0.042442001 -0.088618003 -0.178087
-0.042440001 -0.088541999 -0.178082
-0.042438 -0.088468 -0.17808001
-0.042436 -0.088395 -0.178066
-0.042435002 -0.088321 -0.178048
-0.042433001 -0.088248 -0.178029
-0.042431999 -0.088174 -0.178019
-0.042429 -0.088096 -0.178023
-0.042426001 -0.088019997 -0.178029
-0.042424001 -0.087941997 -0.17803
-0.042420998 -0.087866001 -0.17803399
-0.04242 -0.087792002 -0.178022
-0.042417999 -0.087718002 -0.178004
-0.042417001 -0.087646998 -0.177983
-0.042415999 -0.087572999 -0.177959
-0.042413998 -0.087499 -0.17795099
-0.042412002 -0.087424003 -0.177948
-0.042408999 -0.087344997 -0.17795999
-0.043432001 -0.135555 -0.17816199
-0.043430001 -0.135481 -0.178168
-0.043427002 -0.135407 -0.17817201
-0.043423999 -0.135335 -0.178187
-0.043421999 -0.13526 -0.17819899
-0.043419 -0.135186 -0.17820901
-0.043416001 -0.135114 -0.178224
-0.043412998 -0.13504 -0.178232
-0.043409999 -0.134965 -0.17824399
-0.043407999 -0.134891 -0.178252
-0.043405998 -0.13481601 -0.178241
-0.043404002 -0.13474 -0.17823499
-0.043400999 -0.134665 -0.178247
-0.043398999 -0.134591 -0.178249
-0.043396 -0.134517 -0.17826
-0.043393001 -0.134445 -0.17828
-0.043389 -0.134372 -0.178302
-0.043386001 -0.134298 -0.178315
-0.043384001 -0.134224 -0.17831901
-0.043382 -0.134148 -0.17831901
-0.043379001 -0.134074 -0.178321
-0.043375999 -0.134 -0.178332
-0.043373998 -0.133926 -0.178342
-0.043370999 -0.13385101 -0.178344
-0.043368999 -0.133774 -0.17833801
-0.043366998 -0.1337 -0.178341
-0.043364 -0.133626 -0.17834499
-0.043361999 -0.13355 -0.178341
-0.043359999 -0.133476 -0.178343
-0.043357 -0.13339899 -0.17835601
-0.043354001 -0.13332701 -0.178368
-0.043350998 -0.13325299 -0.178376
-0.043349002 -0.13317899 -0.178386
-0.043345999 -0.133104 -0.17840099
-0.043343 -0.13303 -0.17841101
-0.043340001 -0.132956 -0.17841899
-0.043336999 -0.132884 -0.17843901
-0.043334 -0.132809 -0.178452
-0.043331001 -0.132735 -0.178462
-0.043327998 -0.132663 -0.178486
-0.043324001 -0.13259 -0.17851099
-0.043320999 -0.13251799 -0.17853101
-0.043318 -0.132443 -0.178545
-0.043315999 -0.132369 -0.178553
-0.043313 -0.132295 -0.17855801
-0.043311 -0.132219 -0.17855801
-0.043308001 -0.13214301 -0.17856
-0.043306001 -0.13206699 -0.178552
-0.043304 -0.131993 -0.178553
-0.043301001 -0.131919 -0.178571
-0.043297999 -0.131846 -0.17859299
-0.043295 -0.131772 -0.17860299
-0.043292001 -0.131698 -0.17861199
-0.04329 -0.131622 -0.17861
-0.043288 -0.13154399 -0.178598
-0.043285999 -0.131469 -0.178592
-0.043283999 -0.131393 -0.178587
-0.043281998 -0.131319 -0.178589
-0.043279 -0.131244 -0.17860299
-0.043274 -0.131173 -0.178645
-0.043269999 -0.13110299 -0.178682
-0.043267999 -0.131027 -0.17869
-0.043265 -0.130952 -0.17869601
-0.043262001 -0.130878 -0.178708
-0.043260001 -0.13080201 -0.178707
-0.043258 -0.13072599 -0.17869499
-0.043256 -0.130651 -0.178689
-0.043253999 -0.130575 -0.178691
-0.043251 -0.1305 -0.178702
-0.043248001 -0.130426 -0.178712
-0.043246001 -0.13034999 -0.178718
-0.043242998 -0.13027801 -0.178734
-0.04324 -0.130202 -0.178739
-0.043237999 -0.130126 -0.17873099
-0.043235 -0.13005 -0.178737
-0.043232001 -0.129977 -0.178753
-0.043228999 -0.129903 -0.178772
-0.043226998 -0.12982699 -0.178764
-0.043225002 -0.129751 -0.17876001
-0.043221999 -0.129677 -0.17877799
-0.043219 -0.129603 -0.178789
-0.043217 -0.129527 -0.178791
-0.043214001 -0.12945101 -0.178789
-0.043212 -0.12937801 -0.178801
-0.043207999 -0.12930401 -0.17882399
-0.043207001 -0.129228 -0.178812
-0.043207001 -0.12914599 -0.178746
-0.043205999 -0.129068 -0.17872
-0.043203 -0.12899201 -0.178726
-0.043200001 -0.12892 -0.17875101
-0.043196999 -0.12884501 -0.178771
-0.043194 -0.12877101 -0.178783
-0.043191001 -0.12869699 -0.178792
-0.043189 -0.128621 -0.17879
-0.043187 -0.128545 -0.178784
-0.043184999 -0.12846901 -0.17878
-0.043182001 -0.12839299 -0.17878599
-0.043179002 -0.128319 -0.17879701
-0.043177001 -0.128245 -0.178799
-0.043175001 -0.128169 -0.178799
-0.043172002 -0.128093 -0.178803
-0.043168999 -0.12801801 -0.178812
-0.043166 -0.12794399 -0.17883
-0.043163002 -0.12786999 -0.178848
-0.043159999 -0.127795 -0.178866
-0.043157 -0.12772299 -0.17888699
-0.043154001 -0.127647 -0.17888901
-0.043154001 -0.12756801 -0.178849
-0.043152999 -0.12749 -0.178819
-0.04315 -0.127414 -0.178822
-0.043148 -0.12733801 -0.178822
-0.043145999 -0.127262 -0.17882399
-0.043143 -0.127188 -0.178836
-0.043140002 -0.127114 -0.17885301
-0.043136999 -0.12704 -0.178863
-0.043134 -0.126965 -0.178875
-0.043132 -0.12688901 -0.178877
-0.043129001 -0.12681299 -0.17887799
-0.043125998 -0.126739 -0.178886
-0.043124001 -0.126663 -0.17888799
-0.043122001 -0.126587 -0.178886
-0.043118998 -0.126513 -0.17889699
-0.043116 -0.12643901 -0.178913
-0.043113001 -0.12636399 -0.178927
-0.043110002 -0.126288 -0.17893501
-0.043106999 -0.12621599 -0.17895401
-0.043104 -0.126141 -0.178974
-0.043101002 -0.126065 -0.178978
-0.043099999 -0.12599 -0.178964
-0.043099001 -0.12591 -0.17892399
-0.043097999 -0.125833 -0.178903
-0.043095998 -0.12575699 -0.17889699
-0.043093 -0.12568299 -0.178909
-0.043088999 -0.12560999 -0.178941
-0.043085001 -0.12553599 -0.17896999
-0.043083001 -0.125459 -0.17897201
-0.043081 -0.125384 -0.178966
-0.043079 -0.12530801 -0.178964
-0.043074999 -0.12523501 -0.178993
-0.043072 -0.12516101 -0.179011
-0.043069001 -0.125084 -0.179021
-0.043065999 -0.12501 -0.179033
-0.043063998 -0.124934 -0.17904
-0.043060999 -0.12486 -0.179038
-0.043058999 -0.124782 -0.179032
-0.043056998 -0.124708 -0.17903601
-0.043054 -0.124632 -0.179051
-0.043051001 -0.124558 -0.17906301
-0.043048002 -0.124483 -0.17907301
-0.043046001 -0.124406 -0.179059
-0.043046001 -0.124329 -0.179012
-0.043044001 -0.124253 -0.179014
-0.04304 -0.124178 -0.17904
-0.043037999 -0.124104 -0.17905
-0.043035999 -0.124027 -0.17902599
-0.043035001 -0.123949 -0.179005
-0.043033 -0.123873 -0.179003
-0.043030001 -0.123799 -0.179015
-0.043026999 -0.123723 -0.17902499
-0.043024 -0.123647 -0.17903
-0.043021001 -0.123574 -0.179056
-0.043017 -0.123499 -0.17908201
-0.043014999 -0.123423 -0.179088
-0.043012001 -0.123349 -0.179093
-0.04301 -0.123273 -0.179095
-0.043008 -0.123197 -0.17909101
-0.043005001 -0.123121 -0.179093
-0.043003 -0.123047 -0.17910001
-0.043000001 -0.122971 -0.179106
-0.042998001 -0.122895 -0.17910001
-0.042996 -0.122819 -0.179092
-0.042994998 -0.122742 -0.179074
-0.042993002 -0.122666 -0.179067
-0.042989999 -0.122592 -0.179069
-0.042987999 -0.122516 -0.17907099
-0.042985 -0.12244 -0.179077
-0.042982999 -0.122364 -0.179076
-0.042980999 -0.122288 -0.17907199
-0.042978998 -0.122212 -0.179068
-0.042975999 -0.122136 -0.17906401
-0.042973999 -0.122062 -0.179065
-0.042971 -0.121986 -0.17907301
-0.042968001 -0.121912 -0.179093
-0.042964999 -0.121837 -0.17911901
-0.042962 -0.121761 -0.179134
-0.042959001 -0.121687 -0.17914
-0.042955998 -0.12161 -0.179152
-0.042952999 -0.121536 -0.17917199
-0.042950001 -0.121462 -0.179189
-0.042947002 -0.121385 -0.179193
-0.042945001 -0.12131 -0.17918099
-0.042943999 -0.121232 -0.179167
-0.042939998 -0.121158 -0.179189
-0.042936001 -0.121085 -0.179224
-0.042932998 -0.121009 -0.17923599
-0.042931002 -0.120933 -0.179232
-0.042929001 -0.120857 -0.17924
-0.042925999 -0.120782 -0.17925499
-0.042923 -0.120708 -0.179267
-0.042920001 -0.120632 -0.179277
-0.042916998 -0.120556 -0.17928299
-0.042915002 -0.12048 -0.179278
-0.042913001 -0.120404 -0.17927399
-0.042911001 -0.120328 -0.17927399
-0.042909 -0.120252 -0.179262
-0.042907 -0.120176 -0.179259
-0.042904001 -0.1201 -0.179267
-0.042900998 -0.120026 -0.179277
-0.042897999 -0.119952 -0.179291
-0.042895 -0.119875 -0.17931101
-0.042892002 -0.119801 -0.179324
-0.042890001 -0.119725 -0.179326
-0.042888001 -0.119649 -0.17931201
-0.042888001 -0.119572 -0.179272
-0.042886 -0.119496 -0.179261
-0.042883001 -0.11942 -0.179271
-0.042879999 -0.119346 -0.179291
-0.042876001 -0.119271 -0.17931899
-0.042872999 -0.119195 -0.17932799
-0.042872 -0.119119 -0.179314
-0.04287 -0.119044 -0.179296
-0.042868 -0.118966 -0.179296
-0.042865001 -0.118891 -0.17931101
-0.042862002 -0.118817 -0.179331
-0.042858999 -0.118741 -0.17932899
-0.042856999 -0.118665 -0.17932899
-0.042854 -0.118589 -0.179343
-0.042851001 -0.118515 -0.17934801
-0.042849001 -0.118439 -0.17934801
-0.042847 -0.118363 -0.179352
-0.042844001 -0.118287 -0.17935599
-0.042840999 -0.11821 -0.179363
-0.042838998 -0.118136 -0.17936499
-0.042837001 -0.118061 -0.179355
-0.042835999 -0.117983 -0.179335
-0.042833999 -0.117907 -0.17932799
-0.042831 -0.117831 -0.17932799
-0.042830002 -0.117756 -0.17931201
-0.042828001 -0.11768 -0.1793
-0.042824998 -0.117604 -0.179307
-0.042822 -0.117529 -0.179323
-0.042819999 -0.117453 -0.179325
-0.042817999 -0.117378 -0.17931101
-0.042815998 -0.117302 -0.17930201
-0.042814001 -0.117226 -0.179304
-0.042810999 -0.11715 -0.17930999
-0.042808 -0.117074 -0.179322
-0.042806 -0.116999 -0.17933001
-0.042803001 -0.116923 -0.179343
-0.042799 -0.116849 -0.17936499
-0.042796001 -0.116772 -0.179377
-0.042794 -0.116696 -0.179379
-0.042792 -0.11662 -0.17937601
-0.042789001 -0.116546 -0.179378
-0.042787001 -0.11647 -0.179386
-0.042784002 -0.116394 -0.17939
-0.042782001 -0.116318 -0.17938299
-0.042780001 -0.116243 -0.17937499
-0.042778 -0.116167 -0.17936499
-0.042777002 -0.116091 -0.17934699
-0.042775001 -0.116015 -0.17934699
-0.042771 -0.115939 -0.17937601
-0.042768002 -0.115864 -0.179398
-0.042764001 -0.11579 -0.17941999
-0.042762998 -0.115712 -0.179398
-0.042762 -0.115637 -0.179371
-0.042759001 -0.115561 -0.179377
-0.042755 -0.115486 -0.179409
-0.042752001 -0.11541 -0.179425
-0.042748999 -0.115333 -0.179435
-0.042746 -0.115259 -0.17946
-0.042743001 -0.115183 -0.17946599
-0.042741999 -0.115107 -0.179452
-0.042739999 -0.115031 -0.179446
-0.042737 -0.114955 -0.179461
-0.042734001 -0.114881 -0.179471
-0.042732 -0.114803 -0.179463
-0.04273 -0.114727 -0.179451
-0.042727999 -0.114653 -0.179444
-0.042725999 -0.114575 -0.179442
-0.042723 -0.114501 -0.179452
-0.042720001 -0.114425 -0.179462
-0.042718001 -0.114349 -0.179461
-0.042715002 -0.114273 -0.17947701
-0.042711999 -0.114197 -0.17948499
-0.042709999 -0.114123 -0.179471
-0.042709 -0.114045 -0.17945699
-0.042706002 -0.113971 -0.179462
-0.042702999 -0.113894 -0.17949
-0.042698 -0.113817 -0.17953999
-0.042693999 -0.113743 -0.17956799
-0.042691998 -0.113667 -0.179563
-0.042690001 -0.113591 -0.17956699
-0.042686 -0.113515 -0.179583
-0.042684998 -0.113439 -0.17956699
-0.042684 -0.113364 -0.17953999
-0.042679999 -0.113287 -0.17957599
-0.042675 -0.113212 -0.179616
-0.042672999 -0.113136 -0.179618
-0.042670999 -0.11306 -0.17960399
-0.04267 -0.112984 -0.179593
-0.042668 -0.112909 -0.17958499
-0.042665001 -0.112833 -0.179583
-0.042663001 -0.112757 -0.179579
-0.042661 -0.112681 -0.179572
-0.042659 -0.112605 -0.17958
-0.042656001 -0.112529 -0.17958
-0.042654 -0.112453 -0.17957801
-0.042651001 -0.112377 -0.17958599
-0.042649001 -0.112301 -0.179593
-0.042645 -0.112226 -0.179611
-0.042642001 -0.112148 -0.179637
-0.042638998 -0.112073 -0.17965101
-0.042636 -0.111997 -0.17965201
-0.042633999 -0.111921 -0.17964999
-0.042631999 -0.111845 -0.179654
-0.042629998 -0.11177 -0.179644
-0.042628001 -0.111694 -0.179639
-0.042624999 -0.111618 -0.179639
-0.042622998 -0.111542 -0.17964099
-0.042619999 -0.111465 -0.179649
-0.042617999 -0.11139 -0.179639
-0.042615999 -0.111314 -0.179638
-0.042613 -0.111237 -0.179658
-0.042610001 -0.111161 -0.179658
-0.042608999 -0.111086 -0.179644
-0.042608 -0.11101 -0.179621
-0.042606 -0.110935 -0.179603
-0.042605001 -0.110861 -0.179589
-0.042603001 -0.110783 -0.179571
-0.042599998 -0.110709 -0.17959601
-0.042594999 -0.11063 -0.179636
-0.042592 -0.110554 -0.179654
-0.042589001 -0.110479 -0.179666
-0.042585999 -0.110401 -0.17968
-0.042583 -0.110325 -0.179685
-0.042580999 -0.110249 -0.17968699
-0.042578999 -0.110173 -0.179683
-0.042576998 -0.110099 -0.179673
-0.042576 -0.110024 -0.179638
-0.042575002 -0.109948 -0.179626
-0.042571999 -0.109872 -0.17962401
-0.042569999 -0.109796 -0.179618
-0.042569 -0.109721 -0.17959499
-0.042569 -0.109646 -0.179553
-0.042567 -0.10957 -0.179547
-0.042564001 -0.109494 -0.179563
-0.042562 -0.109418 -0.179554
-0.04256 -0.109344 -0.17954201
-0.042557999 -0.109266 -0.17954201
-0.042555001 -0.109192 -0.179544
-0.042553 -0.109114 -0.179538
-0.042551 -0.10904 -0.179545
-0.042546999 -0.108964 -0.17957699
-0.042544 -0.108885 -0.17958701
-0.042541999 -0.108809 -0.17958499
-0.042539001 -0.108733 -0.179584
-0.042537 -0.108658 -0.179582
-0.042535 -0.108584 -0.17957599
-0.042532001 -0.108506 -0.179582
-0.042529002 -0.108429 -0.1796
-0.042528 -0.108353 -0.17958701
-0.042528 -0.108281 -0.179539
-0.042527001 -0.108205 -0.17950299
-0.042525001 -0.10813 -0.17949399
-0.042523 -0.108056 -0.17948601
-0.042521998 -0.10798 -0.179454
-0.042521 -0.107905 -0.179442
-0.042518001 -0.107829 -0.179441
-0.042516001 -0.107753 -0.17943899
-0.042513002 -0.107676 -0.179455
-0.042511001 -0.1076 -0.17945901
-0.042507999 -0.107524 -0.17945801
-0.042505998 -0.107448 -0.17946
-0.042502999 -0.107372 -0.17946599
-0.0425 -0.107296 -0.17948
-0.042498 -0.10722 -0.179478
-0.042495999 -0.107144 -0.179461
-0.042495001 -0.107069 -0.179451
-0.042491999 -0.106993 -0.17945699
-0.042489 -0.106916 -0.179479
-0.042484999 -0.106838 -0.179499
-0.042482 -0.106761 -0.179516
-0.042479999 -0.106685 -0.179516
-0.042477999 -0.10661 -0.17951
-0.042475998 -0.106536 -0.1795
-0.042474002 -0.106458 -0.179499
-0.042470999 -0.106382 -0.17950299
-0.042468999 -0.106308 -0.179497
-0.042467002 -0.106232 -0.17949501
-0.042465001 -0.106156 -0.17949
-0.042463001 -0.10608 -0.179478
-0.042461 -0.106004 -0.179472
-0.042458002 -0.105928 -0.17948
-0.042454999 -0.105852 -0.179489
-0.042452 -0.105774 -0.179507
-0.042449001 -0.105697 -0.17952099
-0.042445999 -0.105621 -0.179539
-0.042442001 -0.105543 -0.179561
-0.042440001 -0.105467 -0.179563
-0.042438 -0.105391 -0.179552
-0.042436998 -0.105315 -0.179538
-0.042436 -0.105242 -0.179506
-0.042433999 -0.105168 -0.179491
-0.042431999 -0.10509 -0.179481
-0.042431999 -0.105017 -0.17944901
-0.042429999 -0.104942 -0.179427
-0.042429 -0.104868 -0.179416
-0.042427 -0.104792 -0.17940199
-0.042426001 -0.104719 -0.17937399
-0.042422999 -0.104643 -0.17938
-0.042420998 -0.104565 -0.179387
-0.042419001 -0.104489 -0.17938501
-0.042415999 -0.104413 -0.179389
-0.042413998 -0.104337 -0.17937499
-0.042413 -0.104263 -0.17935599
-0.042411 -0.104188 -0.179346
-0.042408999 -0.104112 -0.179346
-0.042406999 -0.104036 -0.179336
-0.042404 -0.10396 -0.17933901
-0.042401001 -0.103883 -0.179355
-0.042399 -0.103805 -0.179359
-0.042397 -0.103732 -0.179343
-0.042397 -0.103659 -0.17929401
-0.042397 -0.103586 -0.179262
-0.042394999 -0.10351 -0.17924801
-0.042392999 -0.103434 -0.17924801
-0.042390998 -0.103358 -0.179243
-0.042388 -0.103284 -0.179241
-0.042385999 -0.103206 -0.179239
-0.042385001 -0.103133 -0.179207
-0.042385001 -0.103059 -0.179178
-0.042381998 -0.102983 -0.179178
-0.042378999 -0.102907 -0.179196
-0.042374 -0.102826 -0.17923801
-0.042371999 -0.10275 -0.17924801
-0.042369001 -0.102674 -0.179261
-0.042367 -0.102598 -0.179251
-0.042365 -0.102522 -0.179235
-0.042362999 -0.102446 -0.179239
-0.042360999 -0.10237 -0.17923801
-0.042358 -0.102294 -0.17924
-0.042353999 -0.102216 -0.179268
-0.042351998 -0.10214 -0.17927399
-0.042350002 -0.102064 -0.179258
-0.042351 -0.101993 -0.17920101
-0.042350002 -0.10192 -0.179167
-0.042348001 -0.101844 -0.179161
-0.042344 -0.101766 -0.179188
-0.042341001 -0.101689 -0.17919999
-0.042339001 -0.101613 -0.17919999
-0.042337 -0.101538 -0.179184
-0.042335998 -0.101462 -0.17917199
-0.042334002 -0.101388 -0.179169
-0.042332999 -0.101313 -0.179141
-0.042332001 -0.101239 -0.17910901
-0.042330001 -0.101166 -0.179094
-0.042328 -0.10109 -0.179088
-0.042326 -0.101014 -0.179084
-0.042323999 -0.100938 -0.17908201
-0.042321999 -0.100862 -0.17908099
-0.042319998 -0.100786 -0.179077
-0.042318001 -0.10071 -0.17907099
-0.042316001 -0.100637 -0.17905501
-0.042316001 -0.100564 -0.179014
-0.042316001 -0.100492 -0.17897201
-0.042314 -0.100417 -0.17895
-0.042312998 -0.100343 -0.178929
-0.042311002 -0.10027 -0.178919
-0.042309001 -0.100194 -0.178911
-0.042307999 -0.100118 -0.17889901
-0.042305999 -0.100042 -0.17889
-0.042303 -0.099965997 -0.17888799
-0.042300999 -0.099891998 -0.178886
-0.042298 -0.099813998 -0.178902
-0.042295001 -0.099738002 -0.178909
-0.042295001 -0.099665001 -0.178881
-0.042293001 -0.099588998 -0.17886899
-0.042289998 -0.099513002 -0.17887101
-0.042288002 -0.099436998 -0.178874
-0.042286001 -0.099361002 -0.17885999
-0.042284999 -0.099287003 -0.178846
-0.042282 -0.099211998 -0.178844
-0.04228 -0.099136002 -0.178845
-0.042277999 -0.099059999 -0.178835
-0.042277001 -0.098986 -0.178813
-0.042275999 -0.098911002 -0.178793
-0.042273 -0.098834999 -0.1788
-0.042270999 -0.098759003 -0.178802
-0.042268999 -0.098683 -0.178794
-0.042266998 -0.098609 -0.17878599
-0.042264 -0.098531 -0.17878699
-0.042261999 -0.098454997 -0.178791
-0.042259999 -0.098380998 -0.17877901
-0.042257998 -0.098305002 -0.17877901
-0.042254999 -0.098228998 -0.17877799
-0.042254001 -0.098153003 -0.17876799
-0.042252 -0.098080002 -0.178754
-0.04225 -0.098003998 -0.178744
-0.042247999 -0.097928002 -0.17874099
-0.042245001 -0.097851999 -0.178745
-0.042243 -0.097773999 -0.178745
-0.042241 -0.0977 -0.178737
-0.042238999 -0.097623996 -0.17873301
-0.042236 -0.097548001 -0.17873999
-0.042234998 -0.097471997 -0.178726
-0.042234 -0.097398996 -0.1787
-0.042233001 -0.097328 -0.17865901
-0.042233001 -0.097257003 -0.178627
-0.042229999 -0.097179003 -0.17863099
-0.042227 -0.097102001 -0.17863899
-0.042225 -0.097024001 -0.17864799
-0.042222999 -0.096950002 -0.178642
-0.042220999 -0.096874997 -0.17862201
-0.042218 -0.096799001 -0.178634
-0.042215001 -0.096720003 -0.17865001
-0.042213 -0.096647002 -0.17863899
-0.042211998 -0.096573003 -0.178617
-0.042211 -0.096496999 -0.17860501
-0.042206999 -0.096418999 -0.178619
-0.042204 -0.096340999 -0.17863999
-0.042201001 -0.096263997 -0.17864799
-0.042199001 -0.096188001 -0.178646
-0.042197 -0.096110001 -0.17864799
-0.042192999 -0.096032001 -0.17866801
-0.042188998 -0.095953003 -0.178697
-0.042187002 -0.095876999 -0.178699
-0.042185999 -0.095803998 -0.178665
-0.042185001 -0.095730998 -0.178643
-0.042183001 -0.095655002 -0.17863999
-0.042181 -0.095581003 -0.17863201
-0.042179 -0.095504999 -0.178624
-0.042176999 -0.095429003 -0.17861
-0.042176001 -0.095356002 -0.178589
-0.042174 -0.095282003 -0.178581
-0.042171001 -0.095204003 -0.17859299
-0.042169001 -0.095126003 -0.178597
-0.042167 -0.095051996 -0.178582
-0.042165 -0.094977997 -0.178572
-0.042163 -0.094899997 -0.178574
-0.042160999 -0.094826996 -0.17855801
-0.042160001 -0.094752997 -0.178533
-0.042158 -0.094677001 -0.178535
-0.042155001 -0.094599001 -0.178553
-0.042151999 -0.094522998 -0.17855699
-0.042149998 -0.094447002 -0.17855801
-0.042146999 -0.094369002 -0.178562
-0.042144001 -0.094290003 -0.178582
-0.042142 -0.094214 -0.17857599
-0.042141002 -0.094143003 -0.17854699
-0.042139001 -0.094067 -0.17853899
-0.042137001 -0.093990996 -0.17853899
-0.042135 -0.093918003 -0.17852101
-0.042134002 -0.093843997 -0.17850401
-0.042132001 -0.093769997 -0.178486
-0.042130001 -0.093695 -0.17848
-0.042126998 -0.093616001 -0.178498
-0.042123001 -0.093535997 -0.178524
-0.042119998 -0.093456998 -0.178537
-0.042118002 -0.093382001 -0.17852899
-0.042116001 -0.093305998 -0.17853101
-0.042112999 -0.093226999 -0.178541
-0.042110998 -0.093151003 -0.178541
-0.042109001 -0.093075 -0.17853799
-0.042107001 -0.093001999 -0.17852999
-0.042105 -0.092926003 -0.178518
-0.042102002 -0.09285 -0.178524
-0.042098999 -0.092771001 -0.178541
-0.042096 -0.092693001 -0.17854901
-0.042095002 -0.092618003 -0.178537
-0.042094 -0.092547998 -0.178495
-0.042093001 -0.092473 -0.17848
-0.042091001 -0.092399001 -0.17847
-0.042089 -0.092322998 -0.17845801
-0.042087 -0.092247002 -0.17846601
-0.042084001 -0.092169002 -0.17847501
-0.042082001 -0.092092998 -0.178473
-0.042079002 -0.092017002 -0.178477
-0.042077001 -0.091940999 -0.178471
-0.042075001 -0.091865003 -0.17846701
-0.042073 -0.091789 -0.17846
-0.042071 -0.091715999 -0.178452
-0.042068999 -0.091640003 -0.178442
-0.042068001 -0.091565996 -0.178423
-0.042066 -0.091493003 -0.178409
-0.042063002 -0.091413997 -0.178425
-0.042059999 -0.091335997 -0.178435
-0.042057998 -0.091260001 -0.17842899
-0.042055 -0.091182001 -0.17844
-0.042052999 -0.091108002 -0.17842799
-0.042052001 -0.091035001 -0.178406
-0.042050999 -0.090961002 -0.178389
-0.042048998 -0.090887003 -0.178377
-0.042048 -0.090814002 -0.17835499
-0.042045999 -0.090737998 -0.17834701
-0.042043 -0.090662003 -0.178354
-0.042041 -0.090584002 -0.178358
-0.042038001 -0.090507999 -0.17836
-0.042036001 -0.090432003 -0.17835601
-0.042034 -0.090356 -0.178352
-0.042032 -0.090279996 -0.17835499
-0.042029999 -0.090205997 -0.17833699
-0.042029001 -0.090135001 -0.178305
-0.042027999 -0.090058997 -0.178296
-0.042025998 -0.089985996 -0.178284
-0.042024001 -0.089911997 -0.178266
-0.042022001 -0.089836001 -0.17826
-0.042020001 -0.089759998 -0.178259
-0.042018 -0.089684002 -0.178261
-0.042015001 -0.089606002 -0.178275
-0.042011999 -0.089528002 -0.178289
-0.042009 -0.089451998 -0.178287
-0.042009 -0.089382999 -0.178242
-0.042009 -0.089311004 -0.178204
-0.042006999 -0.089238003 -0.178195
-0.042006001 -0.089166 -0.178169
-0.042004999 -0.089093 -0.17814501
-0.042004 -0.089019001 -0.178131
-0.042001002 -0.088942997 -0.17812601
-0.041999001 -0.088867001 -0.178132
-0.041997001 -0.088790998 -0.17812
-0.041995998 -0.088720001 -0.178091
-0.041994002 -0.088643998 -0.178091
-0.041990999 -0.088565998 -0.17809901
-0.041988999 -0.088491999 -0.178091
-0.041986998 -0.088416003 -0.178085
-0.041985001 -0.088339999 -0.178086
-0.041983001 -0.088264003 -0.17808001
-0.041979998 -0.088188 -0.17808001
-0.041978002 -0.088111997 -0.178082
-0.041974999 -0.088036001 -0.178087
-0.041974001 -0.087961003 -0.178073
-0.041972999 -0.087890998 -0.178041
-0.041971002 -0.087816 -0.17803399
-0.041967999 -0.087737001 -0.17804199
-0.041967001 -0.087664001 -0.17802601
-0.041965999 -0.087590002 -0.17800801
-0.041963998 -0.087516002 -0.178001
-0.041962001 -0.087443002 -0.17798901
-0.041960999 -0.087370999 -0.177963
-0.042911001 -0.13559601 -0.178166
-0.042909 -0.13552 -0.178168
-0.042907 -0.135444 -0.178161
-0.042904999 -0.13537 -0.178161
-0.042902999 -0.13529199 -0.17815299
-0.042900998 -0.135216 -0.17814299
-0.042897999 -0.135142 -0.178156
-0.042895 -0.13507199 -0.178178
-0.042890999 -0.13499901 -0.178202
-0.042888001 -0.13492499 -0.178212
-0.042886999 -0.134849 -0.178203
-0.042884 -0.134773 -0.17819899
-0.042881001 -0.134701 -0.178225
-0.042877998 -0.13462999 -0.178252
-0.042874999 -0.134556 -0.17826
-0.042872 -0.134482 -0.178262
-0.04287 -0.134408 -0.178276
-0.042867001 -0.134333 -0.178287
-0.042863999 -0.134259 -0.178289
-0.042861 -0.134185 -0.17830101
-0.042858001 -0.134113 -0.178321
-0.042854998 -0.134038 -0.178332
-0.042853002 -0.133963 -0.17832799
-0.042851001 -0.13388699 -0.178326
-0.042849001 -0.13381299 -0.178326
-0.042847 -0.133737 -0.178325
-0.042844001 -0.133661 -0.17832901
-0.042840999 -0.133588 -0.178341
-0.042838998 -0.13351201 -0.178335
-0.042837001 -0.133435 -0.178326
-0.042833999 -0.133362 -0.17833801
-0.042831 -0.133288 -0.178358
-0.042828999 -0.133214 -0.17835601
-0.042826999 -0.133138 -0.17835701
-0.042824 -0.133064 -0.17837299
-0.042821001 -0.132991 -0.178389
-0.042817999 -0.132917 -0.17840301
-0.042814001 -0.132847 -0.17843001
-0.042810999 -0.132772 -0.17844599
-0.042808 -0.132698 -0.17846
-0.042805001 -0.132627 -0.178489
-0.042801 -0.13255499 -0.178515
-0.042799 -0.132479 -0.178519
-0.042796999 -0.132403 -0.178501
-0.042794999 -0.13232499 -0.178488
-0.042792998 -0.132249 -0.17848399
-0.042789999 -0.132175 -0.17849199
-0.042787999 -0.132101 -0.17850401
-0.042785 -0.132027 -0.178519
-0.042782001 -0.131953 -0.178527
-0.042778999 -0.131878 -0.178541
-0.042777002 -0.131804 -0.178545
-0.042773999 -0.13172799 -0.17854799
-0.042771999 -0.13165399 -0.17855
-0.042769 -0.131578 -0.178556
-0.042766001 -0.131504 -0.17856599
-0.042762998 -0.13143 -0.17857701
-0.042761002 -0.131356 -0.178581
-0.042757999 -0.131281 -0.178597
-0.042753998 -0.13121 -0.17863099
-0.042750999 -0.131136 -0.178654
-0.042748 -0.131062 -0.178664
-0.042745002 -0.130989 -0.17868599
-0.042741001 -0.130917 -0.17871501
-0.042738002 -0.130842 -0.17873099
-0.042736001 -0.130767 -0.17871501
-0.042736001 -0.130686 -0.178679
-0.042734001 -0.13061 -0.178673
-0.042730998 -0.13053501 -0.178684
-0.042727999 -0.13046101 -0.17869
-0.042725999 -0.130385 -0.17868599
-0.042723998 -0.130309 -0.178688
-0.042721 -0.130235 -0.178697
-0.042718001 -0.130161 -0.178703
-0.042715002 -0.130087 -0.178721
-0.042711999 -0.130013 -0.17873199
-0.042709999 -0.12993599 -0.178738
-0.042707 -0.129862 -0.17874201
-0.042704999 -0.129786 -0.178736
-0.042702999 -0.129711 -0.17873199
-0.042700998 -0.12963501 -0.178727
-0.042699002 -0.129559 -0.17872301
-0.042695999 -0.129484 -0.17874099
-0.042693 -0.12941 -0.17875899
-0.042690001 -0.129336 -0.178776
-0.042686999 -0.129262 -0.178784
-0.042684998 -0.129186 -0.17877799
-0.042683002 -0.12910999 -0.17877001
-0.042681001 -0.129034 -0.178763
-0.042679001 -0.128956 -0.178753
-0.042676002 -0.12888201 -0.178757
-0.042672999 -0.12880801 -0.178775
-0.04267 -0.12873299 -0.178792
-0.042668 -0.128659 -0.17879599
-0.042665001 -0.128583 -0.178804
-0.042661998 -0.128509 -0.17881601
-0.042660002 -0.128433 -0.178817
-0.042658001 -0.12835699 -0.17880499
-0.042656001 -0.12828 -0.178791
-0.042654 -0.128204 -0.178783
-0.042652 -0.12812801 -0.178784
-0.042649001 -0.12805299 -0.1788
-0.042645998 -0.12798101 -0.17882
-0.042642999 -0.12790699 -0.17883199
-0.042640001 -0.127831 -0.17884301
-0.042637002 -0.127756 -0.17885301
-0.042635001 -0.12768 -0.178859
-0.042633001 -0.12760399 -0.178849
-0.042631 -0.127529 -0.178838
-0.042629998 -0.127451 -0.178818
-0.042628001 -0.12737399 -0.178802
-0.042624999 -0.127299 -0.178822
-0.042622 -0.127225 -0.17883199
-0.042619001 -0.127151 -0.178835
-0.042617001 -0.127075 -0.17884099
-0.042613 -0.127002 -0.17887101
-0.042610001 -0.126926 -0.178881
-0.042608 -0.12685201 -0.17889
-0.042605001 -0.12677599 -0.17888799
-0.042603999 -0.126698 -0.17887001
-0.042601001 -0.126624 -0.178874
-0.042598002 -0.12654801 -0.17888699
-0.042594999 -0.12647299 -0.178903
-0.042592 -0.126399 -0.17891701
-0.04259 -0.126325 -0.17892499
-0.042587001 -0.126249 -0.17893
-0.042585 -0.126175 -0.178938
-0.042580999 -0.1261 -0.17895401
-0.042578999 -0.12602399 -0.17895401
-0.042576998 -0.125947 -0.178939
-0.042576 -0.125871 -0.178931
-0.042574 -0.12579501 -0.178923
-0.042571001 -0.125719 -0.178923
-0.042567998 -0.125645 -0.178936
-0.042564999 -0.125571 -0.17895401
-0.042562 -0.125496 -0.178978
-0.042559002 -0.125422 -0.178986
-0.042557001 -0.125346 -0.178985
-0.042553 -0.12527101 -0.17900699
-0.042550001 -0.12519699 -0.179033
-0.042546999 -0.12512299 -0.179037
-0.042546 -0.125045 -0.17902599
-0.042544 -0.12497 -0.179002
-0.042541999 -0.124894 -0.17900001
-0.042539001 -0.124818 -0.17900801
-0.042537 -0.124741 -0.179012
-0.042535 -0.124666 -0.17900699
-0.042532999 -0.12459 -0.17899901
-0.042530999 -0.124514 -0.17899901
-0.042528 -0.124438 -0.178997
-0.042525999 -0.124362 -0.178992
-0.042523999 -0.124286 -0.178986
-0.042521998 -0.12421 -0.178986
-0.042520002 -0.124134 -0.17897999
-0.042518001 -0.124059 -0.178969
-0.042516001 -0.123983 -0.178959
-0.042513002 -0.123908 -0.178983
-0.042509001 -0.123834 -0.179005
-0.042507 -0.123758 -0.179002
-0.042505 -0.123682 -0.179006
-0.042502001 -0.123608 -0.17901801
-0.042498998 -0.123531 -0.17902599
-0.042497002 -0.123455 -0.179024
-0.042493999 -0.123381 -0.179031
-0.042491 -0.123305 -0.179039
-0.042489 -0.123231 -0.17904501
-0.042486001 -0.123155 -0.179051
-0.042484 -0.123079 -0.179056
-0.042481001 -0.123005 -0.17906199
-0.042477999 -0.122929 -0.179068
