# .PCD v0.7 - Point Cloud Data file format
VERSION 0.7
FIELDS x y z
SIZE 4 4 4
TYPE F F F
COUNT 1 1 1
WIDTH 1420
HEIGHT 1
VIEWPOINT 0 0 0 1 0 0 0
POINTS 1420
DATA ascii
0.10911185 0.057238184 0.28527173
0.10902829 0.05723669 0.28522691
0.1086397 0.05721825 0.28467736
0.10856169 0.057218309 0.28467858
0.10844624 0.057209603 0.2844196
0.10836256 0.057208516 0.28438675
0.1082771 0.057206687 0.28433195
0.13555644 0.056791406 0.28417608
0.13547775 0.056793753 0.28424525
0.13539904 0.056796171 0.28431645
0.13532045 0.056798182 0.28437564
0.13524184 0.056800261 0.28443682
0.13516355 0.056801263 0.28446603
0.13508524 0.056802332 0.28449723
0.13500662 0.056804411 0.28455845
0.13452855 0.056831978 0.28537327
0.13444966 0.056835003 0.28546244
0.13437334 0.056836069 0.28549367
0.13429722 0.056836467 0.28550494
0.13421884 0.056837805 0.28554413
0.13414225 0.056839816 0.28560334
0.1340639 0.05684102 0.28563854
0.13398764 0.056841888 0.28566378
0.13391128 0.056843091 0.28569901
0.13383304 0.056843955 0.28572422
0.13375692 0.05684435 0.28573546
0.13368076 0.056844883 0.28575069
0.13360259 0.056845479 0.28576791
0.13352641 0.056846075 0.28578514
0.1334503 0.05684647 0.2857964
0.13337426 0.056846596 0.28579962
0.13329823 0.056846723 0.2858029
0.13322021 0.056846779 0.28580409
0.13314424 0.056846704 0.28580135
0.13306828 0.056846559 0.28579661
0.13299242 0.056846078 0.28578186
0.13291666 0.056845263 0.28575712
0.13284087 0.056844577 0.28573638
0.13276315 0.056843627 0.28570765
0.13268733 0.056843009 0.28568888
0.13261154 0.05684226 0.28566617
0.13253585 0.056841239 0.28563541
0.13245809 0.056840423 0.28561068
0.13238223 0.056839943 0.28559592
0.13230638 0.056839462 0.28558117
0.13223055 0.056838844 0.28556246
0.13215271 0.056838363 0.28554767
0.1320768 0.056838017 0.28553694
0.13200085 0.056837875 0.28553218
0.13192482 0.056837931 0.28553343
0.13184685 0.056837857 0.28553066
0.13177097 0.056837443 0.28551793
0.13169508 0.056837097 0.28550717
0.1316171 0.056837019 0.2855044
0.13154112 0.056836944 0.28550166
0.13146524 0.056836531 0.2854889
0.13138941 0.056835983 0.28547215
0.13131166 0.056835163 0.28544742
0.13123575 0.056834817 0.28543666
0.1311598 0.056834675 0.28543192
0.13108194 0.056834195 0.28541714
0.1310062 0.056833308 0.28539041
0.13092838 0.056832694 0.28537166
0.13085249 0.056832347 0.2853609
0.13077664 0.056831799 0.28534415
0.13069879 0.056831319 0.2853294
0.13062289 0.056830972 0.28531867
0.13054509 0.056830287 0.2852979
0.13046773 0.056828123 0.28523317
0.13039233 0.056826092 0.28517246
0.13031448 0.056825545 0.28515568
0.13023877 0.056824591 0.28512695
0.13016105 0.056823641 0.2850982
0.13008325 0.056822956 0.28507745
0.13000748 0.056822207 0.28505471
0.12992962 0.056821726 0.28503996
0.12985364 0.056821648 0.28503719
0.12977578 0.056821167 0.28502244
0.12969996 0.056820553 0.28500369
0.12962192 0.056820676 0.28500691
0.12954575 0.056821276 0.28502417
0.12946969 0.056821465 0.28502938
0.12939174 0.056821324 0.28502464
0.12931582 0.056821045 0.28501588
0.12923989 0.056820832 0.28500915
0.12916192 0.056820691 0.28500438
0.12908596 0.056820612 0.28500161
0.12900788 0.056820873 0.28500885
0.12893184 0.056821 0.28501207
0.1288559 0.056820787 0.28500533
0.12877792 0.056820709 0.28500256
0.12870197 0.056820568 0.28499782
0.12862407 0.056820221 0.28498703
0.12854616 0.056819942 0.28497827
0.12847021 0.05681973 0.28497154
0.12839231 0.05681945 0.28496277
0.12831634 0.056819309 0.284958
0.12823837 0.05681923 0.28495526
0.1281624 0.056819156 0.28495249
0.12808648 0.056818876 0.28494376
0.12800857 0.05681853 0.28493297
0.1279307 0.056818116 0.28492022
0.1278529 0.056817435 0.28489947
0.12777708 0.056816816 0.28488073
0.12769912 0.056816675 0.28487596
0.12762305 0.056816936 0.2848832
0.12754707 0.056816857 0.28488046
0.12746914 0.056816645 0.28487366
0.12739119 0.056816503 0.2848689
0.12731522 0.056816358 0.28486416
0.12723728 0.056816213 0.28485939
0.12716128 0.056816205 0.28485864
0.12708518 0.056816533 0.28486788
0.12700906 0.056816928 0.28487912
0.12693293 0.05681739 0.28489235
0.12685467 0.056818258 0.28491759
0.12678048 0.056818921 0.28493685
0.1267024 0.056819182 0.28494406
0.12662627 0.056819644 0.28495729
0.12655014 0.056820106 0.28497052
0.1264721 0.056820232 0.28497377
0.12639605 0.056820426 0.28497899
0.12631989 0.056820955 0.28499424
0.12624374 0.056821484 0.28500947
0.12616765 0.056821745 0.28501672
0.12608977 0.056821398 0.28500596
0.12601385 0.056821119 0.28499722
0.12593582 0.056821179 0.28499845
0.12585986 0.0568211 0.28499568
0.12578189 0.056820959 0.28499091
0.12570594 0.056820814 0.28498617
0.12562792 0.056820873 0.28498739
0.12555178 0.056821402 0.28500265
0.12547557 0.056822065 0.28502187
0.12539962 0.056821924 0.28501713
0.12531996 0.056820769 0.28498235
0.12524226 0.056819748 0.2849516
0.12516436 0.056819402 0.28494084
0.12508842 0.056819189 0.2849341
0.12501056 0.056818709 0.28491932
0.12493263 0.056818496 0.28491256
0.12485658 0.05681869 0.2849178
0.1247805 0.056818951 0.28492504
0.12470441 0.056819279 0.28493428
0.12462831 0.056819607 0.28494352
0.12455028 0.056819733 0.28494674
0.1244742 0.056819994 0.28495401
0.124398 0.056820657 0.28497323
0.12432179 0.056821391 0.28499448
0.12424763 0.05682192 0.28500971
0.12416948 0.056822449 0.28502494
0.12409533 0.056822978 0.2850402
0.12401715 0.056823578 0.28505743
0.12394298 0.056824174 0.28507468
0.12386686 0.056824569 0.28508592
0.1237888 0.056824762 0.28509113
0.12371269 0.056825157 0.28510237
0.1236366 0.056825485 0.28511164
0.12356054 0.056825679 0.28511685
0.12348448 0.056825869 0.2851221
0.12340641 0.05682613 0.28512934
0.12333039 0.056826189 0.28513059
0.1232544 0.056826182 0.28512985
0.1231764 0.056826171 0.28512907
0.12310042 0.056826092 0.28512633
0.12302243 0.056826085 0.28512555
0.12294649 0.056825873 0.28511879
0.12286861 0.056825459 0.28510603
0.12279072 0.056825113 0.28509527
0.12271282 0.056824766 0.28508449
0.12263688 0.056824557 0.28507775
0.12255891 0.056824479 0.28507498
0.12248099 0.0568242 0.28506622
0.12240507 0.05682392 0.28505749
0.12232704 0.056824047 0.2850607
0.12225098 0.056824241 0.28506595
0.12217306 0.056823961 0.28505719
0.12209529 0.056823209 0.28503442
0.12201923 0.056823403 0.28503966
0.12194303 0.056824069 0.28505889
0.12186688 0.056824598 0.28507414
0.12179077 0.056824993 0.28508538
0.12171467 0.056825321 0.28509462
0.12164044 0.056826122 0.28511786
0.12156422 0.056826852 0.28513908
0.12148819 0.056826979 0.28514236
0.12141013 0.056827173 0.28514758
0.12133402 0.056827568 0.28515881
0.12125988 0.056828029 0.28517208
0.12118381 0.05682829 0.28517932
0.12110569 0.056828685 0.28519055
0.12102964 0.056828879 0.28519577
0.12095364 0.056828868 0.28519502
0.1208776 0.056828994 0.28519827
0.12080155 0.056829188 0.28520352
0.12072355 0.056829177 0.28520274
0.12064752 0.056829304 0.28520599
0.12056948 0.05682943 0.28520924
0.1204935 0.056829352 0.28520647
0.12041557 0.05682914 0.2851997
0.12033767 0.056828793 0.28518894
0.12025985 0.056828178 0.28517017
0.1201819 0.056828033 0.2851654
0.12010401 0.05682762 0.28515264
0.12002616 0.056827139 0.28513789
0.11994834 0.056826524 0.28511912
0.11987051 0.056825977 0.28510237
0.11979259 0.056825697 0.28509361
0.11971463 0.056825552 0.28508884
0.11963864 0.056825545 0.28508806
0.11956061 0.056825601 0.28508931
0.11948456 0.056825794 0.28509456
0.11940843 0.056826256 0.28510779
0.11933233 0.056826584 0.28511703
0.11925626 0.056826845 0.28512427
0.11918012 0.056827307 0.2851375
0.11910595 0.056827907 0.28515476
0.11902981 0.056828368 0.28516799
0.11895368 0.05682883 0.28518125
0.11887948 0.056829497 0.28520051
0.11880327 0.056830227 0.28522173
0.11872718 0.056830555 0.28523096
0.11864916 0.056830615 0.28523222
0.11857308 0.056830876 0.28523946
0.11849903 0.056831066 0.2852447
0.11842097 0.056831259 0.28524995
0.11834494 0.056831386 0.28525317
0.11826693 0.056831446 0.28525442
0.11819088 0.056831568 0.28525764
0.11811293 0.056831427 0.2852529
0.11803696 0.056831349 0.28525013
0.11796097 0.05683127 0.28524739
0.11788107 0.056830924 0.2852366
0.11780518 0.056830581 0.28522587
0.11772724 0.056830369 0.28521907
0.11764929 0.056830224 0.2852143
0.11757139 0.056829877 0.28520355
0.11749355 0.05682933 0.2851868
0.11741371 0.056828782 0.28517002
0.11733398 0.056827895 0.28514323
0.11725427 0.056826875 0.28511247
0.11717828 0.056826867 0.28511173
0.11710401 0.056827802 0.28513896
0.11702789 0.056828197 0.2851502
0.11695004 0.056827717 0.28513545
0.11687019 0.056827165 0.28511867
0.11679604 0.056827694 0.2851339
0.11671979 0.056828562 0.28515914
0.11664563 0.056829095 0.2851744
0.11656954 0.056829423 0.28518367
0.11649346 0.05682968 0.28519088
0.11641735 0.056830078 0.28520215
0.11634114 0.056830809 0.28522336
0.11626698 0.056831338 0.28523862
0.11619078 0.056832004 0.28525788
0.11611657 0.056832734 0.28527912
0.11604241 0.056833267 0.28529438
0.11596436 0.056833457 0.2852996
0.11589029 0.056833718 0.28530687
0.11581415 0.05683418 0.2853201
0.11573803 0.056834579 0.28533134
0.11566198 0.056834769 0.28533658
0.115584 0.056834694 0.28533381
0.11550607 0.056834482 0.28532705
0.11543009 0.056834403 0.28532431
0.11535209 0.056834396 0.28532353
0.11527608 0.056834456 0.28532478
0.11519812 0.05683431 0.28532001
0.11512026 0.05683383 0.28530523
0.11504042 0.056833282 0.28528845
0.11496259 0.056832731 0.2852717
0.11488471 0.056832317 0.28525895
0.11480495 0.056831501 0.28523415
0.11472511 0.05683095 0.28521737
0.11464722 0.056830607 0.28520662
0.11456932 0.056830261 0.28519586
0.11449136 0.056830116 0.28519109
0.11441529 0.056830376 0.28519833
0.11434117 0.056830771 0.2852096
0.11426312 0.056830965 0.28521481
0.11418898 0.056831427 0.28522807
0.11411473 0.056832295 0.28525332
0.11403862 0.05683269 0.28526455
0.11396252 0.056833018 0.28527379
0.1138882 0.056834087 0.28530505
0.11381597 0.056834884 0.28532833
0.1137418 0.056835484 0.28534558
0.11366563 0.05683608 0.28536281
0.11359139 0.056836881 0.28538609
0.11351714 0.056837745 0.28541133
0.11344106 0.056838006 0.28541857
0.11336499 0.056838267 0.28542581
0.11329083 0.056838799 0.28544107
0.11321668 0.056839328 0.28545633
0.11314058 0.056839656 0.28546557
0.11306453 0.05683985 0.28547081
0.11298656 0.056839705 0.28546605
0.11290857 0.056839697 0.28546527
0.11283254 0.05683982 0.28546852
0.11275652 0.05683988 0.28546977
0.11267857 0.056839734 0.285465
0.11260257 0.056839727 0.28546423
0.11252455 0.056839783 0.28546548
0.11244664 0.056839503 0.28545672
0.11236682 0.056838889 0.28543794
0.11228898 0.056838341 0.28542116
0.1122111 0.056837928 0.28540841
0.11213131 0.056837242 0.28538764
0.11205149 0.056836627 0.28536886
0.11197352 0.056836482 0.28536406
0.11189747 0.056836676 0.28536931
0.11182334 0.056837138 0.28538257
0.11174721 0.056837603 0.2853958
0.11167113 0.056837864 0.28540307
0.11159503 0.056838188 0.28541231
0.11152094 0.05683852 0.28542155
0.1114449 0.056838643 0.2854248
0.11136877 0.056839105 0.28543806
0.11129649 0.05684004 0.28546533
0.11122226 0.056840841 0.28548858
0.11114804 0.056841575 0.28550982
0.11107583 0.056842305 0.2855311
0.11099967 0.056842834 0.28554633
0.1109255 0.056843434 0.28556359
0.11084937 0.056843895 0.28557682
0.11077531 0.056844089 0.2855821
0.11069734 0.056844011 0.28557932
0.11062132 0.056844071 0.28558058
0.11054529 0.056844197 0.28558382
0.11046734 0.056843985 0.28557706
0.11038939 0.05684384 0.28557229
0.11031145 0.056843627 0.28556553
0.11023356 0.056843281 0.28555477
0.11015566 0.056842938 0.28554398
0.11007576 0.056842588 0.28553319
0.10999788 0.056842174 0.28552043
0.10992005 0.056841627 0.28550369
0.10984015 0.05684128 0.2854929
0.10976037 0.056840532 0.28547013
0.10968056 0.056839913 0.28545135
0.10959889 0.056838758 0.28541654
0.10951728 0.056837469 0.28537774
0.10943557 0.056836449 0.28534698
0.10935383 0.056835562 0.28532016
0.10927215 0.056834474 0.28528738
0.10881305 0.056817845 0.28479108
0.10872584 0.05681514 0.28471029
0.10863283 0.056811757 0.28460941
0.10854551 0.056809459 0.28454056
0.13548487 0.056386296 0.28416538
0.13540646 0.0563877 0.2842066
0.13532789 0.056389645 0.28426379
0.13524927 0.056391791 0.28432697
0.13517094 0.056392927 0.28436017
0.13509274 0.05639359 0.28437939
0.134929 0.056406304 0.28475559
0.13485295 0.056406498 0.28476083
0.13477495 0.056406487 0.28476006
0.13469419 0.056415912 0.28503913
0.13461545 0.056418464 0.28511429
0.1345365 0.056421686 0.28520948
0.13445759 0.056424778 0.28530064
0.13437863 0.056428067 0.2853978
0.13430209 0.056429878 0.28545102
0.13422367 0.056431349 0.28549421
0.13414732 0.056432553 0.28552943
0.13407102 0.056433555 0.28555867
0.13399273 0.056434557 0.28558788
0.13391629 0.056436028 0.28563112
0.13384002 0.056436963 0.28565833
0.13376188 0.056437425 0.28567156
0.1336858 0.056437753 0.2856808
0.13360959 0.056438416 0.28570002
0.13353342 0.056439016 0.28571728
0.13345543 0.056439005 0.2857165
0.13337955 0.056438591 0.28570375
0.13330373 0.056437977 0.285685
0.13322778 0.056437831 0.28568026
0.1331518 0.056437757 0.28567752
0.13307393 0.05643734 0.28566474
0.13299814 0.056436591 0.28564203
0.13292237 0.056435838 0.28561926
0.13284455 0.056435224 0.28560051
0.13276871 0.056434676 0.28558376
0.13269287 0.056434128 0.28556705
0.13261701 0.056433648 0.28555229
0.13254115 0.056433164 0.28553754
0.13246329 0.056432683 0.28552279
0.13238741 0.05643227 0.28551003
0.13231154 0.056431856 0.28549731
0.13223366 0.056431442 0.28548452
0.13215779 0.056431029 0.2854718
0.13208178 0.056431089 0.28547302
0.13200578 0.056431077 0.28547227
0.13192783 0.056430865 0.28546551
0.13185187 0.056430791 0.28546277
0.1317759 0.056430645 0.28545803
0.13169798 0.056430366 0.28544924
0.13162203 0.056430221 0.2854445
0.13154605 0.056430146 0.28544176
0.13147013 0.056429867 0.28543299
0.13139232 0.056429252 0.28541425
0.1313165 0.056428634 0.2853955
0.13123862 0.05642822 0.28538275
0.13116276 0.05642774 0.285368
0.13108695 0.056427125 0.28534925
0.1310091 0.056426577 0.2853325
0.13093331 0.056425892 0.28531176
0.13085561 0.056424871 0.285281
0.13077989 0.056423917 0.28525227
0.13070217 0.056422967 0.28522351
0.13062645 0.056422014 0.28519478
0.13054866 0.056421332 0.28517401
0.13047297 0.056420244 0.28514129
0.13039528 0.056419224 0.28511053
0.13031769 0.056417797 0.2850678
0.13024193 0.056416981 0.28504306
0.13016398 0.056416836 0.28503829
0.13008806 0.056416556 0.28502953
0.13001028 0.056415807 0.28500676
0.1299344 0.056415394 0.28499404
0.12985639 0.05641545 0.28499526
0.12978046 0.056415237 0.28498852
0.12970257 0.056414824 0.28497574
0.1296265 0.056415085 0.28498298
0.12955025 0.056415953 0.28500822
0.12947413 0.056416348 0.28501946
0.12939622 0.056416068 0.2850107
0.12932034 0.056415655 0.28499794
0.12924246 0.056415241 0.28498518
0.1291665 0.056415096 0.28498042
0.12908849 0.056415156 0.28498167
0.12901247 0.056415211 0.28498292
0.12893443 0.056415338 0.28498614
0.12885843 0.056415327 0.28498539
0.1287825 0.056415115 0.28497863
0.12870461 0.056414768 0.28496787
0.12862858 0.056414828 0.28496912
0.12855057 0.056414887 0.28497034
0.12847476 0.056414269 0.2849516
0.12839693 0.056413654 0.28493285
0.12831903 0.056413375 0.28492409
0.12824307 0.056413162 0.28491732
0.12816513 0.056413017 0.28491256
0.12808925 0.056412604 0.28489983
0.12801139 0.056412123 0.28488505
0.12793547 0.056411844 0.28487629
0.1278576 0.05641143 0.28486353
0.12777978 0.056410816 0.28484479
0.12770388 0.056410469 0.28483403
0.12762582 0.056410663 0.28483927
0.12754977 0.056410853 0.28484452
0.12747169 0.056411114 0.28485173
0.12739566 0.05641124 0.28485498
0.12731963 0.056411296 0.28485623
0.12724158 0.05641149 0.28486145
0.12716541 0.056412086 0.28487867
0.12708932 0.056412414 0.28488791
0.1270133 0.056412473 0.28488916
0.12693724 0.056412663 0.28489441
0.12685905 0.05641333 0.28491363
0.12678482 0.056414127 0.2849369
0.12670673 0.056414388 0.28494412
0.12663071 0.056414515 0.28494737
0.12655461 0.056414843 0.2849566
0.12647648 0.056415305 0.28496981
0.12640044 0.056415427 0.28497306
0.12632245 0.05641542 0.28497231
0.12624647 0.056415342 0.28496954
0.12617047 0.056415334 0.28496879
0.12609243 0.056415457 0.28497201
0.12601639 0.056415584 0.28497526
0.12593846 0.056415372 0.2849685
0.12586251 0.056415226 0.28496376
0.12578653 0.056415152 0.28496099
0.12570859 0.056414939 0.28495422
0.12563071 0.056414526 0.28494146
0.1255528 0.056414247 0.2849327
0.12547684 0.056414101 0.28492796
0.12540084 0.056414094 0.28492719
0.12532285 0.056414083 0.28492641
0.12524499 0.056413602 0.28491166
0.12516719 0.05641292 0.28489089
0.12509121 0.056412842 0.28488815
0.12501515 0.056413036 0.28489339
0.12493706 0.056413364 0.28490263
0.12486099 0.056413621 0.28490984
0.12478297 0.05641368 0.2849111
0.12470884 0.056414142 0.28492436
0.12463258 0.05641501 0.28494957
0.12455651 0.056415267 0.28495681
0.12447845 0.056415461 0.28496206
0.12440236 0.056415789 0.2849713
0.12432616 0.056416452 0.28499052
0.12425001 0.056416985 0.28500575
0.12417392 0.056417312 0.28501502
0.1240978 0.056417707 0.28502625
0.12402166 0.056418169 0.28503948
0.12394557 0.056418497 0.28504872
0.12386949 0.056418754 0.28505597
0.12379342 0.056419015 0.28506321
0.12371729 0.056419477 0.28507644
0.12363921 0.056419738 0.28508368
0.12356322 0.05641973 0.28508294
0.12348722 0.056419719 0.28508216
0.12340924 0.056419641 0.28507942
0.12333322 0.0564197 0.28508067
0.12325523 0.056419689 0.2850799
0.12317733 0.056419343 0.28506911
0.12310141 0.056419067 0.28506038
0.12302344 0.056418989 0.2850576
0.12294748 0.056418844 0.28505284
0.12286762 0.056418363 0.28503805
0.12279172 0.056418017 0.28502733
0.12271381 0.056417737 0.28501856
0.12263595 0.056417257 0.28500378
0.12255801 0.056417044 0.28499702
0.12248206 0.056416899 0.28499228
0.12240404 0.056416959 0.2849935
0.12232797 0.056417219 0.28500074
0.12225193 0.056417342 0.28500399
0.12217589 0.056417469 0.28500724
0.12209776 0.056417931 0.28502047
0.12202357 0.056418598 0.28503972
0.12194745 0.056418989 0.28505096
0.12186945 0.056418981 0.28505018
0.12179342 0.056419108 0.28505343
0.12171728 0.05641957 0.28506666
0.12164115 0.056420032 0.2850799
0.12156499 0.056420561 0.28509516
0.1214888 0.056421224 0.28511438
0.12141468 0.056421619 0.28512564
0.12133657 0.056422014 0.28513688
0.12126052 0.056422208 0.28514212
0.12118454 0.056422129 0.28513935
0.12110662 0.056421854 0.28513059
0.12103067 0.056421708 0.28512585
0.12095261 0.056421898 0.28513107
0.12087655 0.056422092 0.28513631
0.12080055 0.056422085 0.28513557
0.12072256 0.056422073 0.28513479
0.12064657 0.056422066 0.28513402
0.12056859 0.056421988 0.28513128
0.12049263 0.056421842 0.28512651
0.12041473 0.056421496 0.28511575
0.12033674 0.056421489 0.28511497
0.1202607 0.056421611 0.28511822
0.12018272 0.056421537 0.28511545
0.12010491 0.056420919 0.2850967
0.12002711 0.056420237 0.28507593
0.11994917 0.056420024 0.28506917
0.11987124 0.056419812 0.2850624
0.1197934 0.056419265 0.28504562
0.11971546 0.056419052 0.28503886
0.11963949 0.056418978 0.28503612
0.11956139 0.056419302 0.28504533
0.1194872 0.056419969 0.28506461
0.11941098 0.056420699 0.28508583
0.11933487 0.056421094 0.28509706
0.11925885 0.056421153 0.28509831
0.11918275 0.056421481 0.28510755
0.1191066 0.05642201 0.28512281
0.11903053 0.056422271 0.28513005
0.11895447 0.056422465 0.2851353
0.11887835 0.056422859 0.28514653
0.1188022 0.056423388 0.28516176
0.11872614 0.056423578 0.28516701
0.11865011 0.056423705 0.28517026
0.11857207 0.056423832 0.28517348
0.11849796 0.056424227 0.28518474
0.11841986 0.056424554 0.28519398
0.1183439 0.056424409 0.28518921
0.11826599 0.05642413 0.28518045
0.11818799 0.056424119 0.28517967
0.11811201 0.056424044 0.28517693
0.11803408 0.056423832 0.28517017
0.11795616 0.056423552 0.28516141
0.11788017 0.056423545 0.28516066
0.11780221 0.0564234 0.28515589
0.11772433 0.056422986 0.28514311
0.11764647 0.056422502 0.28512836
0.11756665 0.056421887 0.28510958
0.11748882 0.05642134 0.2850928
0.11741094 0.056420926 0.28508005
0.117333 0.056420714 0.28507328
0.11725505 0.056420568 0.28506851
0.11717907 0.05642049 0.28506577
0.1171011 0.056420416 0.28506297
0.11702506 0.056420542 0.28506622
0.11694694 0.056420933 0.28507745
0.11687279 0.056421466 0.28509271
0.11679667 0.056421861 0.28510395
0.11672056 0.056422256 0.28511518
0.11664444 0.056422651 0.28512645
0.11656831 0.056423113 0.28513968
0.11649413 0.056423709 0.28515694
0.11641994 0.056424372 0.28517619
0.11634383 0.056424771 0.28518742
0.1162677 0.056425232 0.28520066
0.11619151 0.056425828 0.28521791
0.11611738 0.05642629 0.28523117
0.11604133 0.056426484 0.28523642
0.11596327 0.056426678 0.28524163
0.11588719 0.056426935 0.28524888
0.11581112 0.056427196 0.28525612
0.11573512 0.056427188 0.28525537
0.11565715 0.05642711 0.2852526
0.11558111 0.056427237 0.28525585
0.11550505 0.056427427 0.28526109
0.1154271 0.056427285 0.28525633
0.11535107 0.056427408 0.28525954
0.11527315 0.056427129 0.28525078
0.11519337 0.05642638 0.28522801
0.11511355 0.056425761 0.28520924
0.11503565 0.056425415 0.28519848
0.11495589 0.056424599 0.28517368
0.11487798 0.05642432 0.28516492
0.11480192 0.056424513 0.28517017
0.11472583 0.056424838 0.28517941
0.11464975 0.056425098 0.28518665
0.11457179 0.056424953 0.28518188
0.11449391 0.05642454 0.28516912
0.11441602 0.056424193 0.28515837
0.11433996 0.056424387 0.28516361
0.11426383 0.056424849 0.28517684
0.11418771 0.056425244 0.28518808
0.1141136 0.056425638 0.28519934
0.11403733 0.056426574 0.28522658
0.11396505 0.056427509 0.28525385
0.11388887 0.056428105 0.28527108
0.11381474 0.056428567 0.28528434
0.11374055 0.056429233 0.28530359
0.11366436 0.056429897 0.28532284
0.11359026 0.056430224 0.28533208
0.11351414 0.056430619 0.28534335
0.11343799 0.056431148 0.28535858
0.11336578 0.056431882 0.28537986
0.11328964 0.056432344 0.28539309
0.11321162 0.0564324 0.28539431
0.11313561 0.05643246 0.28539556
0.11305961 0.056432448 0.28539482
0.1129816 0.056432508 0.28539604
0.11290562 0.05643243 0.2853933
0.11282762 0.056432422 0.28539252
0.1127516 0.056432478 0.28539377
0.11267363 0.056432404 0.285391
0.11259571 0.056432124 0.28538224
0.11251596 0.056431305 0.28535745
0.11243806 0.056430958 0.28534669
0.11236005 0.056431018 0.28534791
0.11228406 0.05643094 0.28534517
0.11220615 0.05643066 0.28533641
0.11212625 0.056430314 0.28532562
0.11205033 0.056430034 0.28531688
0.11197232 0.056430094 0.28531808
0.11189622 0.056430422 0.28532735
0.11182208 0.056430884 0.28534061
0.11174599 0.056431212 0.28534985
0.11166988 0.056431606 0.28536108
0.11159763 0.056432471 0.28538635
0.11152339 0.056433272 0.2854096
0.1114473 0.056433599 0.28541884
0.11137316 0.056434061 0.2854321
0.11129703 0.056434523 0.28544533
0.11122283 0.05643519 0.28546461
0.11114862 0.05643592 0.28548586
0.11107446 0.056436449 0.28550112
0.11099843 0.056436576 0.28550437
0.11092245 0.056436498 0.2855016
0.1108444 0.056436691 0.28550684
0.1107722 0.056437358 0.2855261
0.11069608 0.056437753 0.28553736
0.11061819 0.056437403 0.28552657
0.11054029 0.05643706 0.28551582
0.11046229 0.056437049 0.28551504
0.11038437 0.05643677 0.28550628
0.11030654 0.056436222 0.28548953
0.11022474 0.056435537 0.28546873
0.11014688 0.056435056 0.28545398
0.11006707 0.056434441 0.28543517
0.10998723 0.05643389 0.28541839
0.10990936 0.056433477 0.28540564
0.10982952 0.056432929 0.28538886
0.10974787 0.056431703 0.28535205
0.10966621 0.056430548 0.28531727
0.10958643 0.0564298 0.2852945
0.10950476 0.056428712 0.28526169
0.10942113 0.056427419 0.28522289
0.10933766 0.056425657 0.28517008
0.10925023 0.056423694 0.28511125
0.10915732 0.056419976 0.28500038
0.1090719 0.056418009 0.28494158
0.10898277 0.056415036 0.28485274
0.1088935 0.0564126 0.28477991
0.10861659 0.056402054 0.28446531
0.10843997 0.056397382 0.28432566
0.10835825 0.056396428 0.28429687
0.10827659 0.056395274 0.28426206
0.13542219 0.055979405 0.28397489
0.13534145 0.055981889 0.28404805
0.13526274 0.055984303 0.28411922
0.1351842 0.055986181 0.28417441
0.13510574 0.055987723 0.28421962
0.1350271 0.055989936 0.2842848
0.13486204 0.056007169 0.2847949
0.13478363 0.056008574 0.28483611
0.13470724 0.056009915 0.28487533
0.13462874 0.056011591 0.28492454
0.13454992 0.056014411 0.28500772
0.13447043 0.056019455 0.28515685
0.13439204 0.056020793 0.28519604
0.13431546 0.056022808 0.28525525
0.13423693 0.056024618 0.28530845
0.1341604 0.056026429 0.28536165
0.13408193 0.056028035 0.28540885
0.13400553 0.056029376 0.28544807
0.13392714 0.056030713 0.28548729
0.13385095 0.05603138 0.28550652
0.13377471 0.056032181 0.28552976
0.13369656 0.05603271 0.28554499
0.13362049 0.056032971 0.2855522
0.13354434 0.056033432 0.28556547
0.13346827 0.056033693 0.28557271
0.13339032 0.056033552 0.28556794
0.13331431 0.056033541 0.28556719
0.13323829 0.056033667 0.28557044
0.13316238 0.056033321 0.28555968
0.13308452 0.05603284 0.28554493
0.13300867 0.05603236 0.28553018
0.13293286 0.056031745 0.28551143
0.13285482 0.056031872 0.28551465
0.13277882 0.056031864 0.28551391
0.1327031 0.05603091 0.28548518
0.13262732 0.056030162 0.28546244
0.13255134 0.056030087 0.2854597
0.13247339 0.056029942 0.28545493
0.13239752 0.056029528 0.28544217
0.13232167 0.056028981 0.28542542
0.13224381 0.0560285 0.28541067
0.13216791 0.056028225 0.28540191
0.13209194 0.056028079 0.28539717
0.13201395 0.056028072 0.2853964
0.131938 0.056027927 0.28539166
0.13186197 0.056027986 0.28539288
0.13178591 0.05602818 0.28539813
0.13170791 0.056028239 0.28539938
0.13163197 0.056028027 0.28539261
0.13155615 0.056027412 0.28537387
0.13147829 0.056026932 0.28535911
0.1314023 0.056026924 0.28535837
0.1313244 0.056026578 0.28534758
0.13124862 0.056025829 0.28532487
0.13117278 0.056025282 0.28530812
0.13109499 0.056024529 0.28528535
0.13101922 0.05602378 0.28526261
0.13094147 0.056022964 0.28523785
0.13086571 0.056022145 0.28521311
0.13078792 0.056021396 0.28519037
0.13071211 0.056020781 0.28517163
0.13063435 0.056019962 0.28514686
0.13055862 0.056019012 0.28511813
0.13048086 0.056018263 0.28509539
0.13040517 0.056017175 0.28506264
0.13032749 0.056016088 0.28502989
0.13024968 0.056015473 0.28501111
0.13017383 0.056014925 0.28499439
0.1300959 0.056014713 0.28498763
0.13001995 0.056014571 0.28498286
0.12994203 0.056014292 0.2849741
0.12986612 0.056013945 0.28496337
0.12978825 0.056013532 0.28495061
0.1297123 0.05601339 0.28494585
0.12963627 0.05601345 0.2849471
0.12955824 0.056013577 0.28495032
0.12948222 0.056013633 0.28495157
0.12940423 0.056013625 0.28495079
0.12932813 0.056013953 0.28496003
0.12925203 0.056014281 0.28496927
0.12917404 0.056014273 0.2849685
0.12909806 0.056014195 0.28496575
0.12902011 0.056014054 0.28496099
0.12894413 0.056013979 0.28495824
0.12886822 0.0560137 0.28494948
0.12879032 0.056013353 0.28493872
0.12871246 0.056012873 0.28492397
0.12863654 0.056012593 0.28491521
0.12855855 0.056012586 0.28491443
0.12848257 0.056012511 0.28491169
0.12840459 0.056012433 0.28490892
0.1283287 0.056012087 0.28489816
0.12825085 0.056011539 0.28488141
0.12817484 0.056011599 0.28488266
0.12809889 0.056011457 0.2848779
0.12802105 0.056010909 0.28486115
0.12794311 0.056010697 0.28485438
0.1278652 0.056010418 0.28484562
0.12778932 0.056010004 0.28483286
0.12771329 0.056010064 0.28483412
0.12763517 0.056010526 0.28484732
0.12755905 0.056010924 0.28485858
0.127483 0.056011118 0.28486383
0.12740497 0.056011174 0.28486505
0.12732898 0.056011166 0.28486431
0.12725094 0.056011293 0.28486753
0.12717482 0.056011688 0.28487876
0.12709863 0.056012355 0.28489798
0.12702243 0.056013085 0.28491923
0.12694629 0.056013547 0.28493246
0.1268684 0.056013204 0.28492171
0.12679255 0.056012657 0.28490496
0.12671451 0.056012779 0.28490818
0.12663844 0.05601304 0.28491545
0.1265624 0.056013167 0.28491867
0.12648435 0.056013361 0.28492391
0.12640828 0.056013621 0.28493115
0.12633218 0.056013949 0.28494039
0.12625611 0.05601421 0.28494763
0.12617812 0.056014203 0.28494686
0.12610213 0.056014128 0.28494412
0.12602417 0.056013983 0.28493935
0.12594624 0.05601377 0.28493255
0.12587026 0.056013696 0.28492981
0.1257942 0.05601389 0.28493506
0.12571616 0.056014016 0.28493828
0.12564029 0.056013603 0.28492555
0.12556243 0.056013122 0.2849108
0.12548453 0.056012843 0.28490204
0.12540863 0.056012429 0.28488928
0.1253307 0.056012221 0.28488252
0.12525271 0.056012213 0.28488174
0.1251767 0.056012269 0.28488296
0.12510064 0.056012463 0.28488824
0.12502263 0.056012455 0.28488746
0.12494668 0.05601231 0.28488269
0.12486863 0.056012504 0.28488791
0.12479246 0.056013104 0.28490517
0.12471632 0.056013566 0.2849184
0.12464029 0.056013692 0.28492165
0.12456226 0.056013752 0.28492287
0.12448623 0.056013875 0.28492612
0.12441014 0.056014206 0.28493536
0.12433404 0.056014534 0.28494459
0.12425794 0.056014862 0.28495383
0.12418183 0.056015257 0.2849651
0.12410571 0.056015652 0.28497633
0.12402764 0.056015912 0.28498355
0.12395155 0.05601624 0.28499281
0.12387543 0.056016639 0.28500402
0.12379938 0.056016833 0.28500926
0.12372332 0.056017023 0.28501451
0.12364522 0.056017354 0.28502375
0.12356923 0.056017343 0.28502297
0.12349133 0.056016997 0.28501225
0.12341537 0.056016855 0.28500748
0.12333738 0.056016847 0.2850067
0.12325942 0.056016702 0.28500193
0.12318348 0.05601649 0.2849952
0.12310747 0.056016549 0.28499645
0.12302943 0.056016676 0.28499967
0.12295334 0.056017004 0.28500891
0.12287532 0.056017064 0.28501013
0.12279946 0.056016583 0.28499538
0.12272164 0.056015968 0.28497663
0.12264369 0.056015823 0.28497186
0.12256571 0.056015749 0.28496909
0.12248784 0.056015335 0.28495634
0.12241185 0.056015257 0.28495359
0.12233576 0.056015588 0.28496283
0.12225771 0.056015778 0.28496805
0.12218169 0.056015838 0.2849693
0.12210558 0.056016233 0.28498054
0.12202934 0.056017034 0.28500375
0.12195323 0.056017429 0.28501499
0.12187727 0.056017287 0.28501025
0.12180121 0.056017481 0.28501549
0.12172318 0.056017607 0.28501871
0.12164718 0.056017596 0.28501797
0.12157112 0.05601779 0.28502321
0.12149299 0.056018256 0.28503644
0.12141886 0.056018718 0.28504968
0.12134074 0.056019112 0.28506091
0.12126469 0.056019306 0.28506616
0.12118863 0.0560195 0.2850714
0.12111261 0.05601956 0.28507265
0.12103464 0.056019481 0.28506988
0.12095864 0.056019474 0.28506914
0.12088066 0.056019396 0.28506637
0.12080471 0.056019254 0.2850616
0.12072673 0.05601918 0.28505883
0.12065068 0.056019373 0.2850641
0.12057456 0.056019768 0.28507531
0.12049659 0.05601969 0.28507257
0.12041873 0.056019209 0.28505778
0.12034079 0.056019001 0.28505102
0.12026484 0.056018855 0.28504628
0.12018692 0.056018576 0.28503752
0.12010894 0.056018502 0.28503472
0.12003107 0.056018088 0.28502196
0.11995321 0.056017607 0.28500721
0.11987723 0.056017533 0.28500444
0.11979921 0.056017589 0.28500569
0.11972318 0.056017715 0.28500894
0.11964709 0.056018043 0.28501818
0.11956903 0.056018237 0.28502339
0.11949297 0.056018431 0.28502864
0.11941688 0.056018759 0.28503788
0.11934084 0.056018885 0.28504112
0.11926474 0.056019213 0.28505036
0.11918865 0.056019541 0.28505963
0.1191107 0.056019399 0.28505483
0.11903266 0.056019526 0.28505808
0.1189585 0.056020055 0.28507334
0.11888245 0.056020249 0.28507856
0.11880633 0.056020644 0.28508979
0.11873018 0.056021176 0.28510505
0.1186541 0.056021437 0.28511229
0.11857606 0.056021564 0.28511551
0.11850003 0.056021687 0.28511876
0.11842401 0.056021746 0.28512001
0.118346 0.056021806 0.28512123
0.11826998 0.056021865 0.28512248
0.11819398 0.056021854 0.28512174
0.11811605 0.056021646 0.28511497
0.1180381 0.0560215 0.28511018
0.11796016 0.056021288 0.28510344
0.1178823 0.056020811 0.28508866
0.11780446 0.05602026 0.28507191
0.1177265 0.056020118 0.28506714
0.11764855 0.056019973 0.28506237
0.11757067 0.05601956 0.28504959
0.11749275 0.056019284 0.28504083
0.11741678 0.056019206 0.28503808
0.1173388 0.056019131 0.28503531
0.11726087 0.056018919 0.28502855
0.11718295 0.056018643 0.28501976
0.11710497 0.056018565 0.28501701
0.11702895 0.056018624 0.28501827
0.11695286 0.056018952 0.2850275
0.11687677 0.05601928 0.28503674
0.11680063 0.056019742 0.28504997
0.11672454 0.056020074 0.28505921
0.11664848 0.056020264 0.28506446
0.11657238 0.056020595 0.2850737
0.11649615 0.056021392 0.28509694
0.11642201 0.056021858 0.28511021
0.1163459 0.056022253 0.28512144
0.11626978 0.056022648 0.28513268
0.11619369 0.056022976 0.28514192
0.11611754 0.056023508 0.28515714
0.11604146 0.056023769 0.28516442
0.11596546 0.056023758 0.28516364
0.11588746 0.05602375 0.28516287
0.11581147 0.056023743 0.28516212
0.11573347 0.056023732 0.28516135
0.11565746 0.056023791 0.2851626
0.11557949 0.056023717 0.28515983
0.11550152 0.056023572 0.28515506
0.1154236 0.056023292 0.2851463
0.11534763 0.056023218 0.28514355
0.11527155 0.056023479 0.2851508
0.11519352 0.056023605 0.28515401
0.11511561 0.056023326 0.28514525
0.11503775 0.056022845 0.28513047
0.11495985 0.056022499 0.28511971
0.11488195 0.056022152 0.28510895
0.11480395 0.056022145 0.28510818
0.11472786 0.056022473 0.28511742
0.11464991 0.056022331 0.28511265
0.11457395 0.056022186 0.28510791
0.11449777 0.056022786 0.28512514
0.11442356 0.056023516 0.28514639
0.11434756 0.056023508 0.28514564
0.11426765 0.056023229 0.28513685
0.11419159 0.056023423 0.28514209
0.11411739 0.056024089 0.28516135
0.11404318 0.05602482 0.2851826
0.11396891 0.056025758 0.28520986
0.11389273 0.056026354 0.28522709
0.11381666 0.056026615 0.28523433
0.11374255 0.05602701 0.2852456
0.11366635 0.056027677 0.28526485
0.11359216 0.05602834 0.2852841
0.11351608 0.056028601 0.28529131
0.11343998 0.056028932 0.28530058
0.11336397 0.056028988 0.28530183
0.11328795 0.056029048 0.28530306
0.11321188 0.056029309 0.28531033
0.11313576 0.056029703 0.28532156
0.11305973 0.05602983 0.28532481
0.11298177 0.056029689 0.28532004
0.11290576 0.056029744 0.28532127
0.1128297 0.056029938 0.28532654
0.1127517 0.056029931 0.28532577
0.11267378 0.056029651 0.28531697
0.11259581 0.056029577 0.2853142
0.11251979 0.056029636 0.28531545
0.11244379 0.056029625 0.28531471
0.11236386 0.056029417 0.28530791
0.112286 0.056028936 0.28529316
0.11220811 0.05602859 0.28528237
0.11213013 0.056028511 0.28527963
0.11205415 0.056028437 0.28527686
0.11197618 0.056028359 0.28527409
0.11190006 0.056028757 0.28528535
0.11182783 0.056029558 0.2853086
0.11175171 0.056029953 0.28531986
0.11167561 0.056030281 0.2853291
0.11159946 0.05603081 0.28534433
0.11152533 0.056031276 0.28535759
0.11145117 0.056031805 0.28537285
0.11137699 0.056032404 0.28539011
0.11130084 0.056032933 0.28540534
0.11122672 0.056033328 0.2854166
0.11115065 0.056033589 0.28542385
0.11107451 0.056034055 0.28543708
0.11100038 0.056034517 0.28545034
0.11092429 0.056034844 0.28545958
0.11084823 0.056035038 0.28546482
0.11077221 0.056035098 0.28546607
0.11069427 0.056034885 0.28545931
0.11061634 0.056034677 0.28545254
0.11053841 0.056034464 0.28544578
0.11046053 0.056034051 0.28543302
0.11038065 0.056033637 0.28542024
0.11030281 0.05603309 0.28540346
0.11022291 0.056032743 0.2853927
0.11014694 0.056032669 0.28538993
0.11006901 0.056032456 0.28538316
0.10998736 0.056031235 0.28534639
0.1099056 0.056030415 0.28532159
0.10982767 0.056030206 0.2853148
0.10974791 0.056029387 0.28529003
0.10966431 0.056028031 0.28524923
0.10958455 0.056027215 0.28522444
0.10950479 0.056026395 0.28519967
0.10941745 0.056024164 0.28513286
0.10933384 0.056022804 0.28509203
0.10925407 0.056022055 0.28506926
0.10916114 0.056018405 0.28496039
0.10907758 0.056016915 0.2849156
0.108994 0.056015491 0.28487277
0.10827096 0.055991825 0.28416601
0.13535497 0.055575911 0.28388849
0.13527602 0.055579137 0.28398365
0.1351974 0.055581216 0.28404486
0.13511604 0.055585857 0.28418198
0.13503692 0.055589691 0.28429514
0.13495876 0.055590224 0.28431034
0.13487855 0.05559776 0.28453344
0.13479796 0.055599775 0.28459263
0.13472092 0.055603337 0.2846978
0.13464174 0.055607371 0.28481695
0.13456087 0.055610329 0.28490412
0.1344839 0.055613622 0.28500131
0.13440534 0.0556155 0.28505647
0.13432679 0.055617448 0.28511369
0.13425003 0.05562 0.28518888
0.13417146 0.055621948 0.28524607
0.13409507 0.055623285 0.28528529
0.13401662 0.055624828 0.2853305
0.13394037 0.055625696 0.28535575
0.13386208 0.055626698 0.28538492
0.1337858 0.055627637 0.28541216
0.13370973 0.055627897 0.2854194
0.13363166 0.055628091 0.28542465
0.13355553 0.055628553 0.28543788
0.13347942 0.055628952 0.28544912
0.13340136 0.055629145 0.28545433
0.13332538 0.055629071 0.28545159
0.13324945 0.055628859 0.28544486
0.13317339 0.055629056 0.2854501
0.13309734 0.05562925 0.28545532
0.13301939 0.055629108 0.28545058
0.13294354 0.05562856 0.28543383
0.13286567 0.055628147 0.28542104
0.13278975 0.055627871 0.28541231
0.13271381 0.055627659 0.28540555
0.13263783 0.055627584 0.2854028
0.13255987 0.05562751 0.28540003
0.1324839 0.055627368 0.28539529
0.13240795 0.055627223 0.28539053
0.13233203 0.055626947 0.28538179
0.13225418 0.0556264 0.28536505
0.13217828 0.055626124 0.28535628
0.13210024 0.055626251 0.2853595
0.13202424 0.055626243 0.28535876
0.13194832 0.055625964 0.28534999
0.13187239 0.055625755 0.28534326
0.13179442 0.055625614 0.28533849
0.13171847 0.055625468 0.28533375
0.13164258 0.055625126 0.28532299
0.13156466 0.055624846 0.28531423
0.13148874 0.055624571 0.28530547
0.13141282 0.055624295 0.28529674
0.13133496 0.055623814 0.28528196
0.13125907 0.055623468 0.28527123
0.13118321 0.055622991 0.28525648
0.13110541 0.055622309 0.2852357
0.13102958 0.055621762 0.28521895
0.1309517 0.055621348 0.2852062
0.13087596 0.055620465 0.28517947
0.13079824 0.055619515 0.28515071
0.13072048 0.055618696 0.28512597
0.13064472 0.05561788 0.28510123
0.13056698 0.055616997 0.28507447
0.13049106 0.055616722 0.28506571
0.13041332 0.055615835 0.28503898
0.13033767 0.055614684 0.28500423
0.13025974 0.055614471 0.28499746
0.13018376 0.055614397 0.28499472
0.13010594 0.055613782 0.28497595
0.13003008 0.055613305 0.28496122
0.12995218 0.055612959 0.28495044
0.12987629 0.055612616 0.28493971
0.12979837 0.055612337 0.28493094
0.12972248 0.05561199 0.28492019
0.1296445 0.055611916 0.28491741
0.12956852 0.055611841 0.28491467
0.12949048 0.055611968 0.28491789
0.12941435 0.055612434 0.28493112
0.12933825 0.055612762 0.28494036
0.12926224 0.055612821 0.28494161
0.12918425 0.055612814 0.28494084
0.12910828 0.055612672 0.2849361
0.12903029 0.055612665 0.28493533
0.12895428 0.055612721 0.28493658
0.12887631 0.055612579 0.28493181
0.12880039 0.055612303 0.28492305
0.12872244 0.055612162 0.28491828
0.12864654 0.055611815 0.28490755
0.1285686 0.055611607 0.28490078
0.12849261 0.055611596 0.28490001
0.12841468 0.055611387 0.28489324
0.12833869 0.055611312 0.2848905
0.12826072 0.055611238 0.28488773
0.1281848 0.055610958 0.28487897
0.12810685 0.055610817 0.2848742
0.12803084 0.055610877 0.28487545
0.12795292 0.055610597 0.28486669
0.12787695 0.055610456 0.28486192
0.12780045 0.055612199 0.28491315
0.12772429 0.055612732 0.28492838
0.12764674 0.055611175 0.28488165
0.12756909 0.05561002 0.2848469
0.12749113 0.055609878 0.28484213
0.12741503 0.055610206 0.28485137
0.12733889 0.055610739 0.28486663
0.12726085 0.055610865 0.28486985
0.12718487 0.055610791 0.28486708
0.12710878 0.055611119 0.28487632
0.1270325 0.055612054 0.28490356
0.12695645 0.055612251 0.2849088
0.12687863 0.055611636 0.28489006
0.12680067 0.055611491 0.28488529
0.12672462 0.055611685 0.28489053
0.12664855 0.055611949 0.28489774
0.12657052 0.055612009 0.284899
0.12649454 0.055611935 0.28489622
0.12641653 0.05561199 0.28489745
0.12634046 0.055612255 0.28490472
0.12626436 0.055612583 0.28491396
0.12618835 0.055612642 0.28491521
0.12611039 0.055612501 0.28491044
0.12603243 0.055612359 0.28490567
0.1259564 0.055612486 0.28490889
0.12588036 0.055612613 0.28491214
0.12580246 0.055612266 0.28490138
0.12572463 0.055611718 0.28488463
0.12564865 0.055611644 0.28488186
0.12557055 0.055611975 0.2848911
0.12549452 0.055612102 0.28489435
0.12541856 0.055611957 0.28488958
0.12534055 0.055612016 0.2848908
0.12526459 0.055611875 0.28488606
0.12518665 0.055611666 0.2848793
0.12510867 0.055611588 0.28487653
0.12503266 0.055611648 0.28487778
0.12495464 0.055611707 0.284879
0.12487857 0.055611972 0.28488624
0.12480249 0.055612233 0.28489348
0.12472636 0.055612694 0.28490672
0.12465026 0.055613026 0.28491595
0.12457225 0.055613086 0.28491718
0.12449623 0.055613145 0.28491843
0.12442014 0.055613473 0.28492767
0.12434406 0.055613734 0.28493494
0.12426609 0.055613659 0.28493214
0.12419005 0.055613786 0.28493538
0.12411397 0.05561405 0.28494263
0.12403582 0.055614579 0.28495786
0.12395974 0.05561484 0.2849651
0.12388371 0.055614971 0.28496835
0.12380763 0.055615231 0.28497559
0.12373154 0.055615559 0.28498483
0.12365346 0.05561582 0.28499204
0.12357745 0.05561588 0.28499329
0.12349955 0.055615537 0.28498253
0.12342161 0.055615325 0.28497577
0.12334564 0.05561525 0.28497303
0.12326764 0.055615243 0.28497225
0.12319162 0.055615302 0.2849735
0.12311558 0.055615429 0.28497672
0.12303751 0.05561569 0.28498396
0.12296149 0.055615749 0.28498521
0.12288368 0.055615135 0.28496644
0.12280582 0.055614658 0.28495169
0.12272789 0.055614445 0.28494492
0.12265195 0.055614237 0.28493816
0.12257391 0.055614363 0.28494138
0.12249793 0.055614289 0.28493863
0.12241994 0.055614281 0.28493786
0.12234394 0.055614274 0.28493711
0.12226593 0.055614334 0.28493834
0.12218985 0.055614594 0.28494558
0.12211377 0.055614855 0.28495282
0.12203772 0.055615049 0.28495806
0.12195969 0.055615176 0.28496128
0.12188355 0.055615641 0.28497455
0.12180939 0.055616174 0.28498977
0.12173138 0.055616233 0.28499103
0.12165536 0.055616293 0.28499228
0.1215793 0.055616487 0.28499752
0.12150125 0.055616681 0.28500274
0.12142517 0.055616941 0.28500998
0.12134912 0.055617135 0.28501523
0.1212711 0.055617195 0.28501645
0.12119505 0.055617392 0.28502169
0.12111903 0.055617452 0.28502294
0.12104105 0.055617373 0.28502017
0.12096502 0.0556175 0.28502342
0.12088893 0.055617832 0.28503266
0.12081097 0.055617686 0.28502789
0.12073305 0.055617411 0.2850191
0.12065707 0.055617336 0.28501636
0.12057918 0.05561699 0.2850056
0.12050126 0.055616714 0.28499684
0.12042526 0.055616707 0.28499609
0.12034729 0.055616628 0.28499332
0.12026937 0.055616353 0.28498456
0.12019141 0.055616211 0.28497976
0.12011538 0.055616338 0.28498304
0.1200394 0.055616263 0.28498027
0.11995954 0.055615783 0.28496549
0.11988161 0.05561557 0.28495872
0.11980559 0.05561563 0.28495997
0.1197295 0.055615962 0.28496921
0.11965348 0.055616021 0.28497046
0.11957546 0.055616081 0.28497168
0.11949941 0.055616274 0.28497693
0.11942131 0.055616602 0.28498614
0.11934526 0.055616796 0.28499138
0.11926924 0.055616856 0.28499264
0.11919319 0.055617053 0.28499788
0.11911711 0.055617314 0.28500512
0.11903904 0.055617575 0.28501233
0.11896294 0.055617902 0.2850216
0.11888683 0.055618301 0.28503284
0.11881073 0.055618629 0.28504208
0.11873466 0.05561889 0.28504932
0.11865858 0.055619154 0.28505656
0.11858252 0.055619348 0.28506181
0.11850452 0.05561934 0.28506103
0.11842659 0.055619128 0.28505427
0.11835057 0.055619188 0.28505552
0.11827454 0.055619318 0.28505874
0.1181966 0.055619106 0.285052
0.1181187 0.055618763 0.28504121
0.11804069 0.055618823 0.28504243
0.11796661 0.055619083 0.28504971
0.11788864 0.055619009 0.28504694
0.11781064 0.055619001 0.28504616
0.11773274 0.055618655 0.2850354
0.11765493 0.05561804 0.28501666
0.11757693 0.055618033 0.28501588
0.11749897 0.055617891 0.28501111
0.11742109 0.055617478 0.28499833
0.11734323 0.055616997 0.28498358
0.11726528 0.055616856 0.28497881
0.1171893 0.055616781 0.28497607
0.11711123 0.055617042 0.28498328
0.11703711 0.055617437 0.28499454
0.11695904 0.055617701 0.28500175
0.11688292 0.055618096 0.28501299
0.11680686 0.05561829 0.28501824
0.11673083 0.055618417 0.28502148
0.11665469 0.055618882 0.28503472
0.11657856 0.055619344 0.28504795
0.11650258 0.05561927 0.28504521
0.11642453 0.055619463 0.28505045
0.11634839 0.055619929 0.28506368
0.11627426 0.055620395 0.28507692
0.11619812 0.055620857 0.28509018
0.11612207 0.05562105 0.28509542
0.11604606 0.05562111 0.28509668
0.11596794 0.055621509 0.28510788
0.11589384 0.055621836 0.28511715
0.11581579 0.05562203 0.28512236
0.11573979 0.055622023 0.28512162
0.11566179 0.055622015 0.28512084
0.1155858 0.055622008 0.2851201
0.11550786 0.055621795 0.28511333
0.11542995 0.05562152 0.28510457
0.115352 0.055621311 0.28509778
0.11527407 0.055621099 0.28509101
0.11519609 0.055621024 0.28508824
0.11512014 0.055620883 0.2850835
0.11504216 0.055620808 0.28508073
0.11496419 0.05562073 0.28507796
0.11488823 0.055620588 0.28507322
0.11480829 0.05562038 0.28506643
0.11473232 0.055620302 0.28506368
0.11465625 0.055620499 0.28506893
0.1145782 0.055620693 0.28507414
0.11450219 0.055620752 0.2850754
0.11442614 0.055620946 0.28508064
0.11435008 0.05562114 0.28508586
0.11427392 0.055621672 0.28510112
0.11419977 0.055622201 0.28511637
0.11412367 0.055622533 0.28512561
0.11404562 0.055622727 0.28513086
0.11397149 0.055623189 0.28514409
0.11389723 0.05562406 0.28516936
0.11382301 0.05562479 0.28519061
0.11374684 0.05562539 0.28520784
0.11367074 0.055625722 0.28521708
0.11359469 0.055625916 0.28522232
0.1135186 0.055626243 0.28523156
0.11344252 0.055626504 0.2852388
0.11336648 0.055626635 0.28524205
0.11329041 0.055626895 0.28524929
0.11321627 0.055627357 0.28526255
0.1131382 0.055627622 0.2852698
0.1130622 0.055627614 0.28526902
0.11298423 0.055627536 0.28526625
0.11290627 0.055627394 0.28526148
0.11283023 0.055627521 0.28526473
0.11275416 0.055627782 0.28527197
0.11267812 0.055627909 0.28527522
0.11260208 0.055628039 0.28527847
0.11252411 0.055627961 0.2852757
0.11244615 0.055627819 0.28527093
0.11237016 0.055627812 0.28527018
0.11229218 0.055627737 0.28526741
0.11221424 0.055627525 0.28526062
0.11213634 0.055627182 0.28524989
0.11206032 0.055627242 0.28525111
0.11198419 0.055627704 0.28526434
0.11191006 0.055628169 0.28527761
0.11183392 0.055628631 0.28529084
0.11175787 0.055628829 0.28529608
0.11168175 0.055629224 0.28530735
0.11160762 0.055629689 0.28532058
0.11153153 0.055630017 0.28532985
0.11145541 0.055630412 0.28534108
0.11138128 0.055630878 0.28535435
0.1113052 0.055631138 0.28536159
0.11122726 0.05563093 0.28535482
0.11115126 0.055630922 0.28535408
0.11107511 0.055631451 0.28536931
0.11100092 0.055632118 0.28538856
0.11092678 0.055632584 0.28540182
0.11085071 0.055632845 0.28540906
0.11077469 0.055632904 0.28541031
0.11069679 0.055632561 0.28539956
0.11061497 0.055631947 0.28538075
0.11053906 0.055631667 0.28537199
0.11046108 0.055631593 0.28536922
0.11038309 0.055631585 0.28536844
0.11030517 0.055631306 0.28535968
0.11022539 0.055630557 0.28533691
0.11014557 0.055629943 0.28531814
0.11006764 0.055629734 0.28531134
0.10998978 0.055629253 0.28529659
0.10990801 0.055628438 0.28527179
0.1098282 0.055627823 0.28525302
0.1097484 0.055627141 0.28523225
0.10966863 0.055626392 0.28520945
0.10958885 0.05562564 0.28518668
0.10950909 0.055624824 0.28516191
0.10942737 0.055623874 0.28513309
0.10934379 0.055622451 0.2850903
0.10925835 0.055620555 0.28503349
0.10916726 0.055617444 0.28494063
0.10908186 0.055615414 0.2848798
0.10844614 0.055594057 0.28424186
0.10836819 0.055593915 0.28423709
0.13544837 0.055170164 0.28373975
0.13536724 0.055173997 0.28385288
0.13528849 0.055176552 0.28392807
0.135208 0.055178229 0.28397724
0.1351317 0.055179231 0.28400648
0.13504653 0.055190071 0.28432745
0.13496532 0.055194177 0.28444859
0.13488877 0.055196054 0.28450382
0.13481055 0.055196792 0.28452504
0.13473175 0.055199545 0.28460619
0.13465245 0.055203985 0.28473735
0.13457347 0.055207282 0.2848345
0.13449477 0.0552097 0.28490567
0.13441615 0.05521185 0.28496888
0.13433959 0.055213727 0.28502411
0.13426118 0.055215135 0.28506529
0.13418248 0.05521749 0.28513449
0.13410594 0.055219367 0.28518969
0.13402764 0.055220369 0.28521889
0.13395135 0.055221375 0.28524813
0.13387506 0.055222377 0.28527737
0.13379689 0.055222977 0.28529456
0.13372071 0.055223577 0.28531182
0.13364255 0.055224109 0.28532702
0.13356641 0.055224642 0.28534228
0.13349031 0.05522497 0.28535151
0.13341427 0.0552251 0.28535473
0.13333617 0.055225428 0.28536397
0.13326006 0.055225827 0.28537521
0.13318403 0.055225953 0.28537846
0.13310805 0.055225883 0.28537571
0.13303009 0.055225737 0.28537095
0.13295412 0.055225663 0.2853682
0.1328761 0.055225726 0.28536943
