# .PCD v0.7 - Point Cloud Data file format
VERSION 0.7
FIELDS x y z
SIZE 4 4 4
TYPE F F F
COUNT 1 1 1
WIDTH 1303
HEIGHT 1
VIEWPOINT 0 0 0 1 0 0 0
POINTS 1303
DATA ascii
-0.16499566 -0.0190094 -0.10687671
-0.16500463 -0.018937755 -0.10688961
-0.165014 -0.018866286 -0.10689454
-0.16502373 -0.018792877 -0.10689743
-0.16503261 -0.018721189 -0.10691234
-0.16504169 -0.018649589 -0.10692324
-0.16505104 -0.01857812 -0.10692816
-0.16506019 -0.01850445 -0.10694303
-0.16506946 -0.018432938 -0.10694996
-0.16507919 -0.018359527 -0.10695285
-0.16510864 -0.018143609 -0.10694561
-0.16511925 -0.018070588 -0.10693053
-0.16512802 -0.017998857 -0.10694743
-0.16265468 -0.035118233 -0.11019696
-0.16266395 -0.035046719 -0.11020387
-0.16267434 -0.034971498 -0.11019875
-0.16268472 -0.034896284 -0.11019362
-0.16269352 -0.034824554 -0.11021052
-0.16270334 -0.034751188 -0.11021142
-0.16271374 -0.034675971 -0.11020629
-0.16272347 -0.03460256 -0.11020919
-0.16273309 -0.034529105 -0.11021408
-0.16274273 -0.034455657 -0.11021896
-0.16275284 -0.034380309 -0.11021983
-0.162762 -0.034308754 -0.11022875
-0.16277134 -0.034235168 -0.11023963
-0.16278107 -0.034161761 -0.11024252
-0.16279081 -0.034088351 -0.11024541
-0.16280034 -0.034014855 -0.1102523
-0.16280998 -0.033941403 -0.11025719
-0.16282009 -0.033866055 -0.11025806
-0.16282991 -0.033792689 -0.11025896
-0.16283955 -0.033719234 -0.11026385
-0.16284889 -0.033645652 -0.11027472
-0.16285832 -0.033572115 -0.11028361
-0.16286846 -0.03349888 -0.11027851
-0.16287874 -0.033423617 -0.11027539
-0.16288868 -0.033350296 -0.11027429
-0.16289942 -0.033273138 -0.11026713
-0.16290917 -0.033199728 -0.11027002
-0.16291784 -0.033127956 -0.11028892
-0.16292644 -0.03305614 -0.11030982
-0.16293691 -0.032980964 -0.11030269
-0.16294721 -0.032905705 -0.11029957
-0.16295704 -0.032832339 -0.11030047
-0.16296697 -0.032759015 -0.11029936
-0.16297641 -0.032685474 -0.11030824
-0.16298519 -0.032613747 -0.11032515
-0.16299453 -0.032540165 -0.11033604
-0.16300407 -0.032466665 -0.11034292
-0.16301276 -0.032394893 -0.11036182
-0.16302249 -0.032321487 -0.11036471
-0.16303383 -0.032244585 -0.11034558
-0.16304441 -0.032169454 -0.11033645
-0.16305405 -0.032096006 -0.11034134
-0.16306415 -0.032020655 -0.11034222
-0.16307369 -0.031947162 -0.1103491
-0.16308276 -0.031875558 -0.11036001
-0.163092 -0.031801935 -0.11037289
-0.16310078 -0.031730205 -0.11038979
-0.16311023 -0.031656668 -0.11039867
-0.16312052 -0.031581406 -0.11039555
-0.1631311 -0.03150627 -0.11038643
-0.16314149 -0.031431057 -0.11038131
-0.16315132 -0.031357691 -0.11038219
-0.16316105 -0.03128428 -0.11038509
-0.1631705 -0.031210741 -0.11039397
-0.16317965 -0.031137073 -0.11040885
-0.16318947 -0.031063708 -0.11040974
-0.1631992 -0.030990297 -0.11041263
-0.16320865 -0.030916758 -0.11042152
-0.16321799 -0.030843176 -0.1104324
-0.16322742 -0.030769637 -0.11044128
-0.16323696 -0.030696142 -0.11044817
-0.16324736 -0.030620923 -0.11044306
-0.16325738 -0.030547645 -0.11043996
-0.16326702 -0.030474192 -0.11044484
-0.16327655 -0.030400697 -0.11045173
-0.16328675 -0.03032539 -0.1104506
-0.16329724 -0.030250218 -0.11044347
-0.16330716 -0.030176893 -0.11044237
-0.16331716 -0.030101504 -0.11044524
-0.1633269 -0.030028094 -0.11044813
-0.16333653 -0.029954642 -0.11045302
-0.16334568 -0.029880973 -0.1104679
-0.16335513 -0.029807433 -0.11047678
-0.16336486 -0.029734027 -0.11047968
-0.16337468 -0.029660659 -0.11048057
-0.16338439 -0.02958514 -0.11048943
-0.16339402 -0.029511686 -0.11049432
-0.16340415 -0.029438451 -0.11048921
-0.16341445 -0.029363189 -0.11048609
-0.16342388 -0.029289652 -0.11049497
-0.16343322 -0.029216068 -0.11050586
-0.16344257 -0.029142488 -0.11051673
-0.1634521 -0.02906899 -0.11052363
-0.16346164 -0.028995495 -0.11053051
-0.16347118 -0.028921997 -0.11053739
-0.16348091 -0.02884859 -0.11054029
-0.16349091 -0.028773198 -0.11054315
-0.16350085 -0.028699875 -0.11054205
-0.16351123 -0.028624658 -0.11053693
-0.16352116 -0.028551336 -0.11053582
-0.16353106 -0.028475899 -0.11054068
-0.1635408 -0.028402492 -0.11054357
-0.16355053 -0.028329082 -0.11054647
-0.16356044 -0.028253648 -0.11055133
-0.16356997 -0.028180152 -0.11055822
-0.1635797 -0.028106743 -0.11056111
-0.16358943 -0.028033335 -0.110564
-0.16359897 -0.027959839 -0.11057089
-0.16360897 -0.027884446 -0.11057376
-0.16361889 -0.027811125 -0.11057266
-0.1636288 -0.027735692 -0.11057752
-0.16363834 -0.027662195 -0.1105844
-0.16411504 -0.02540946 -0.1072302
-0.16412738 -0.025335105 -0.10718513
-0.16413951 -0.025258554 -0.10715002
-0.16415215 -0.02518433 -0.10709897
-0.1641638 -0.025109671 -0.10706788
-0.16417477 -0.025034714 -0.10705077
-0.16418633 -0.024960015 -0.10702167
-0.16419904 -0.024883721 -0.10697458
-0.16421127 -0.024809323 -0.10693151
-0.16422209 -0.02473639 -0.10691243
-0.1642323 -0.024663197 -0.10690534
-0.16424347 -0.024588324 -0.10688423
-0.16425513 -0.024513669 -0.10685315
-0.16426535 -0.024440475 -0.10684605
-0.16427396 -0.024370771 -0.10686099
-0.16428369 -0.02429736 -0.10686388
-0.16429345 -0.024226062 -0.10686082
-0.16430414 -0.024150973 -0.10684969
-0.16431475 -0.024077952 -0.10683461
-0.1643241 -0.024006482 -0.10683953
-0.1643329 -0.023934754 -0.10685644
-0.16434197 -0.023863152 -0.10686734
-0.16435228 -0.023790002 -0.10685826
-0.16436309 -0.023717068 -0.10683918
-0.16437389 -0.023644134 -0.10682011
-0.16438448 -0.023569003 -0.10681099
-0.1643928 -0.023499168 -0.10683191
-0.16440119 -0.023427267 -0.1068568
-0.16441056 -0.023355793 -0.10686173
-0.16442002 -0.023284368 -0.10686465
-0.16442975 -0.023210958 -0.10686754
-0.16443932 -0.023139574 -0.10686846
-0.16444914 -0.023066208 -0.10686936
-0.16445936 -0.022993015 -0.10686227
-0.16446921 -0.02292176 -0.1068572
-0.16447896 -0.022848351 -0.1068601
-0.1644887 -0.022777053 -0.10685702
-0.16449884 -0.022703815 -0.10685193
-0.16450876 -0.022630494 -0.10685083
-0.16451831 -0.022559108 -0.10685175
-0.16452834 -0.02248583 -0.10684865
-0.1645378 -0.022414401 -0.10685158
-0.16454649 -0.022342628 -0.10687048
-0.16455527 -0.022270899 -0.10688738
-0.16456568 -0.022197792 -0.10687629
-0.16457659 -0.022124901 -0.10685522
-0.16458596 -0.022053432 -0.10686013
-0.16459435 -0.021981526 -0.10688503
-0.16460304 -0.021909755 -0.10690393
-0.16461325 -0.021836562 -0.10689684
-0.16462377 -0.021763498 -0.10688375
-0.16463342 -0.021692157 -0.10688268
-0.16464287 -0.021618618 -0.10689156
-0.16465233 -0.021547191 -0.10689448
-0.16466275 -0.021474082 -0.1068834
-0.16467287 -0.021400847 -0.1068783
-0.16468203 -0.021329289 -0.10688721
-0.16469151 -0.021257862 -0.10689013
-0.16470152 -0.021184582 -0.10688704
-0.16471174 -0.02111139 -0.10687995
-0.16472159 -0.021040134 -0.10687489
-0.16473113 -0.02096664 -0.10688177
-0.16474126 -0.020893402 -0.10687668
-0.16475169 -0.020822406 -0.10685962
-0.16476172 -0.020749126 -0.10685652
-0.1647705 -0.020677399 -0.10687343
-0.16477899 -0.020605538 -0.10689632
-0.16478787 -0.020533852 -0.10691123
-0.1647976 -0.020460442 -0.10691413
-0.16480745 -0.020389188 -0.10690905
-0.16481778 -0.020316038 -0.10689997
-0.16482779 -0.020242758 -0.10689686
-0.16483717 -0.020171288 -0.10690178
-0.16484673 -0.020099903 -0.10690272
-0.16485715 -0.020026796 -0.10689163
-0.16486716 -0.019953515 -0.10688853
-0.16487664 -0.019882089 -0.10689145
-0.16488656 -0.019808766 -0.10689034
-0.16489631 -0.019737469 -0.10688728
-0.16490614 -0.019664101 -0.10688818
-0.16491571 -0.019592717 -0.10688911
-0.16492534 -0.019519266 -0.10689399
-0.1649349 -0.019447882 -0.10689491
-0.16494502 -0.019374644 -0.10688981
-0.16495508 -0.019303476 -0.10688076
-0.1649653 -0.019230284 -0.10687366
-0.16497532 -0.019157004 -0.10687057
-0.16498497 -0.019085662 -0.1068695
-0.16499452 -0.019012166 -0.10687639
-0.16500339 -0.01894048 -0.10689129
-0.16501276 -0.018869009 -0.10689621
-0.16502213 -0.018797539 -0.10690112
-0.16503137 -0.018723913 -0.10691401
-0.16504055 -0.018652357 -0.10692292
-0.16504982 -0.018580843 -0.10692984
-0.16505896 -0.018507175 -0.10694471
-0.16506824 -0.018435661 -0.10695163
-0.16507797 -0.01836225 -0.10695452
-0.1651074 -0.018146332 -0.10694729
-0.16511801 -0.018073313 -0.1069322
-0.16265422 -0.035119548 -0.11019517
-0.1626634 -0.035047993 -0.11020408
-0.16267388 -0.034972817 -0.11019696
-0.16268428 -0.034897596 -0.11019184
-0.16269305 -0.034825869 -0.11020874
-0.16270289 -0.034752503 -0.11020963
-0.16271327 -0.034677282 -0.1102045
-0.16272292 -0.03460383 -0.1102094
-0.16273265 -0.034530424 -0.11021228
-0.16274238 -0.034457013 -0.11021518
-0.16275248 -0.034381665 -0.11021605
-0.16276155 -0.034310065 -0.11022696
-0.1627709 -0.034236483 -0.11023784
-0.16278063 -0.034163073 -0.11024074
-0.16279025 -0.034089621 -0.11024562
-0.16279979 -0.034016125 -0.11025251
-0.16280943 -0.033942673 -0.1102574
-0.16281962 -0.033867367 -0.11025627
-0.16282935 -0.033793963 -0.11025916
-0.1628391 -0.033720553 -0.11026205
-0.16284844 -0.033646971 -0.11027294
-0.16285788 -0.03357343 -0.11028183
-0.16286799 -0.033500195 -0.11027673
-0.16287829 -0.033424936 -0.11027359
-0.16288848 -0.033349629 -0.11027246
-0.16289897 -0.033274453 -0.11026534
-0.1629087 -0.033201046 -0.11026824
-0.16291739 -0.033129271 -0.11028714
-0.16292599 -0.033057459 -0.11030804
-0.16293637 -0.032982238 -0.11030291
-0.16294676 -0.032907017 -0.11029778
-0.1629566 -0.032833654 -0.11029868
-0.16296652 -0.03276033 -0.11029758
-0.16297586 -0.032686748 -0.11030845
-0.16298464 -0.032615021 -0.11032536
-0.16299409 -0.032541484 -0.11033425
-0.16300353 -0.032467939 -0.11034313
-0.1630124 -0.032396257 -0.11035803
-0.16302241 -0.032320864 -0.1103609
-0.16303349 -0.032245949 -0.11034179
-0.16304433 -0.032168835 -0.11033264
-0.1630536 -0.032097321 -0.11033956
-0.1630637 -0.03202197 -0.11034043
-0.16307324 -0.031948477 -0.11034731
-0.16308241 -0.031876922 -0.11035622
-0.16309156 -0.03180325 -0.1103711
-0.16310035 -0.031731524 -0.11038801
-0.16310978 -0.031657983 -0.11039689
-0.16311997 -0.031582676 -0.11039576
-0.16313066 -0.031507589 -0.11038464
-0.16314115 -0.031432416 -0.11037752
-0.16315088 -0.031359006 -0.1103804
-0.16316062 -0.031285599 -0.1103833
-0.16317005 -0.031212058 -0.11039218
-0.1631792 -0.03113839 -0.11040706
-0.16318904 -0.031065024 -0.11040796
-0.16319877 -0.030991614 -0.11041085
-0.1632082 -0.030918077 -0.11041973
-0.16321754 -0.030844493 -0.11043062
-0.16322689 -0.030770913 -0.11044151
-0.16323642 -0.030697417 -0.11044838
-0.16324683 -0.030622197 -0.11044326
-0.16325694 -0.030548962 -0.11043817
-0.16326648 -0.030475466 -0.11044504
-0.16327612 -0.030402012 -0.11044995
-0.16328631 -0.030326709 -0.11044881
-0.1632968 -0.030251535 -0.11044168
-0.16330673 -0.030178212 -0.11044058
-0.16331664 -0.030102776 -0.11044545
-0.16332646 -0.030029412 -0.11044634
-0.1633361 -0.029955959 -0.11045122
-0.16334525 -0.029882291 -0.11046611
-0.16335459 -0.029808709 -0.11047699
-0.16336441 -0.029735344 -0.11047789
-0.16337425 -0.029661978 -0.11047877
-0.16338396 -0.029586457 -0.11048763
-0.16339359 -0.029513005 -0.11049252
-0.16340372 -0.029439766 -0.11048743
-0.16341391 -0.029364463 -0.1104863
-0.16342345 -0.029290969 -0.11049319
-0.16343279 -0.029217387 -0.11050406
-0.16344203 -0.02914376 -0.11051694
-0.16345167 -0.029070308 -0.11052183
-0.16346121 -0.028996814 -0.11052873
-0.16347085 -0.028923359 -0.11053362
-0.16348048 -0.028849909 -0.11053851
-0.16349047 -0.028774517 -0.11054137
-0.16350031 -0.028701151 -0.11054225
-0.1635107 -0.028625932 -0.11053713
-0.16352072 -0.028552655 -0.11053404
-0.16353072 -0.028477263 -0.1105369
-0.16354036 -0.028403811 -0.11054179
-0.1635502 -0.028330445 -0.11054268
-0.16356009 -0.02825501 -0.11054754
-0.16356963 -0.028181514 -0.11055443
-0.16357927 -0.02810806 -0.11055933
-0.16358891 -0.028034611 -0.11056421
-0.16359854 -0.027961157 -0.1105691
-0.16360854 -0.027885765 -0.11057197
-0.16361848 -0.027812444 -0.11057086
-0.16362837 -0.02773701 -0.11057572
-0.16363791 -0.027663514 -0.11058262
-0.16411462 -0.025410779 -0.10722842
-0.16412696 -0.025336426 -0.10718334
-0.16413909 -0.025259873 -0.10714824
-0.16415171 -0.025185648 -0.10709718
-0.16416338 -0.025110992 -0.10706608
-0.16417435 -0.025036033 -0.10704897
-0.16418591 -0.024961334 -0.10701989
-0.16419862 -0.024885042 -0.10697279
-0.16421086 -0.024810644 -0.10692972
-0.16422166 -0.024737708 -0.10691065
-0.16423188 -0.024664517 -0.10690355
-0.16424295 -0.024589602 -0.10688444
-0.16425471 -0.024514988 -0.10685137
-0.16426493 -0.024441794 -0.10684427
-0.16427344 -0.024372047 -0.1068612
-0.16428328 -0.024298679 -0.1068621
-0.16429304 -0.024227384 -0.10685902
-0.16430372 -0.024152294 -0.1068479
-0.16431423 -0.02407923 -0.10683482
-0.1643236 -0.02400776 -0.10683975
-0.16433237 -0.02393603 -0.10685665
-0.16434155 -0.023864472 -0.10686556
-0.16435187 -0.023791322 -0.10685647
-0.16436267 -0.023718387 -0.10683739
-0.16437347 -0.023645455 -0.10681832
-0.16438407 -0.023570322 -0.10680921
-0.16439238 -0.023500487 -0.10683013
-0.16440068 -0.023428544 -0.10685701
-0.16441004 -0.023357071 -0.10686193
-0.16441952 -0.023285646 -0.10686485
-0.16442914 -0.023212193 -0.10686974
-0.16443871 -0.023140807 -0.10687067
-0.16444863 -0.023067486 -0.10686957
-0.16445886 -0.022994291 -0.10686248
-0.16446871 -0.022923037 -0.10685741
-0.16447854 -0.022849672 -0.10685831
-0.1644883 -0.022778373 -0.10685524
-0.16449851 -0.022705179 -0.10684815
-0.16450834 -0.022631813 -0.10684904
-0.1645178 -0.022560388 -0.10685197
-0.16452794 -0.022487151 -0.10684687
-0.16453749 -0.022415766 -0.10684779
-0.16454609 -0.022343948 -0.10686869
-0.16455486 -0.02227222 -0.1068856
-0.16456518 -0.02219907 -0.10687651
-0.16457608 -0.022126179 -0.10685543
-0.16458555 -0.022054752 -0.10685835
-0.16459404 -0.021982893 -0.10688125
-0.16460273 -0.021911118 -0.10690015
-0.16461284 -0.021837883 -0.10689506
-0.16462335 -0.021764819 -0.10688197
-0.16463292 -0.021693435 -0.10688289
-0.16464245 -0.021619938 -0.10688978
-0.16465192 -0.021548511 -0.1068927
-0.16466233 -0.021475405 -0.10688161
-0.16467236 -0.021402124 -0.10687851
-0.16468163 -0.021330612 -0.10688543
-0.16469109 -0.021259185 -0.10688835
-0.16470112 -0.021185905 -0.10688526
-0.16471134 -0.02111271 -0.10687817
-0.16472119 -0.021041457 -0.1068731
-0.16473073 -0.02096796 -0.10687998
-0.16474086 -0.020894725 -0.1068749
-0.16475129 -0.020823728 -0.10685784
-0.16476122 -0.020750407 -0.10685674
-0.16477001 -0.020678677 -0.10687364
-0.16477859 -0.020606861 -0.10689454
-0.16478747 -0.020535173 -0.10690944
-0.1647972 -0.020461764 -0.10691234
-0.16480696 -0.020390466 -0.10690928
-0.16481727 -0.020317316 -0.10690018
-0.16482741 -0.020244081 -0.10689508
-0.16483676 -0.020172611 -0.1069
-0.16484633 -0.020101225 -0.10690092
-0.16485664 -0.020028075 -0.10689183
-0.16486667 -0.019954795 -0.10688874
-0.16487613 -0.019883368 -0.10689167
-0.16488616 -0.019810088 -0.10688856
-0.16489601 -0.019738834 -0.1068835
-0.16490574 -0.019665424 -0.10688639
-0.16491531 -0.01959404 -0.10688732
-0.16492495 -0.019520588 -0.10689221
-0.1649345 -0.019449204 -0.10689313
-0.16494463 -0.019375967 -0.10688803
-0.16495468 -0.019304799 -0.10687897
-0.1649649 -0.019231606 -0.10687187
-0.16497493 -0.019158326 -0.10686878
-0.16498458 -0.019086987 -0.10686772
-0.16499402 -0.019013446 -0.1068766
-0.165003 -0.018941803 -0.1068895
-0.16501236 -0.018870331 -0.10689443
-0.16502173 -0.018798862 -0.10689934
-0.16503099 -0.018725237 -0.10691222
-0.16504005 -0.018653637 -0.10692313
-0.16504942 -0.018582165 -0.10692806
-0.16505857 -0.018508498 -0.10694293
-0.16506784 -0.018436983 -0.10694984
-0.16507757 -0.018363575 -0.10695274
-0.16508675 -0.018292017 -0.10696165
-0.16510701 -0.018147655 -0.1069455
-0.16511762 -0.018074635 -0.10693042
-0.1651264 -0.018002905 -0.10694733
-0.16265166 -0.035119057 -0.11019278
-0.16266093 -0.035047546 -0.11019968
-0.16267131 -0.034972325 -0.11019456
-0.16268171 -0.034897111 -0.11018944
-0.16269049 -0.034825377 -0.11020634
-0.16270033 -0.034752011 -0.11020724
-0.16271071 -0.034676794 -0.11020211
-0.16272044 -0.034603387 -0.110205
-0.16273008 -0.034529932 -0.11020989
-0.16273971 -0.03445648 -0.11021478
-0.16274981 -0.034381133 -0.11021564
-0.16275889 -0.034309532 -0.11022656
-0.16276833 -0.034235992 -0.11023545
-0.16277806 -0.034162588 -0.11023834
-0.1627878 -0.034089174 -0.11024123
-0.16279733 -0.034015682 -0.11024811
-0.16280697 -0.033942226 -0.11025301
-0.16281706 -0.033866882 -0.11025388
-0.16282681 -0.033793472 -0.11025677
-0.16283654 -0.033720061 -0.11025966
-0.16284588 -0.033646479 -0.11027054
-0.16285531 -0.033572942 -0.11027943
-0.16286543 -0.033499703 -0.11027433
-0.16287573 -0.033424444 -0.1102712
-0.16288567 -0.033351123 -0.1102701
-0.16289641 -0.033273965 -0.11026295
-0.16290615 -0.033200555 -0.11026584
-0.16291483 -0.033128783 -0.11028473
-0.16292351 -0.033057012 -0.11030364
-0.16293392 -0.032981791 -0.11029851
-0.1629442 -0.032906532 -0.11029539
-0.16295403 -0.032833166 -0.11029628
-0.16296396 -0.032759838 -0.11029518
-0.1629733 -0.03268626 -0.11030605
-0.16298218 -0.032614574 -0.11032096
-0.16299152 -0.032540992 -0.11033186
-0.16300106 -0.032467496 -0.11033873
-0.16300975 -0.03239572 -0.11035763
-0.16301948 -0.032322314 -0.11036053
-0.16303092 -0.032245457 -0.1103394
-0.16304141 -0.032170285 -0.11033227
-0.16305104 -0.032096833 -0.11033717
-0.16306114 -0.032021485 -0.11033803
-0.16307068 -0.031947985 -0.11034492
-0.16307975 -0.031876385 -0.11035582
-0.16308901 -0.031802766 -0.11036871
-0.16309778 -0.031731032 -0.1103856
-0.16310722 -0.031657495 -0.11039449
-0.16311751 -0.031582229 -0.11039137
-0.163128 -0.03150706 -0.11038424
-0.16313849 -0.031431884 -0.11037712
-0.16314833 -0.031358518 -0.11037801
-0.16315806 -0.031285107 -0.1103809
-0.16316749 -0.03121157 -0.11038978
-0.16317664 -0.031137902 -0.11040467
-0.16318637 -0.031064492 -0.11040756
-0.16319621 -0.030991126 -0.11040846
-0.16320565 -0.030917587 -0.11041734
-0.163215 -0.030844005 -0.11042822
-0.16322434 -0.030770425 -0.1104391
-0.16323397 -0.030696971 -0.11044399
-0.16324437 -0.030621752 -0.11043887
-0.16325438 -0.030548474 -0.11043577
-0.16326402 -0.03047502 -0.11044066
-0.16327356 -0.030401524 -0.11044755
-0.16328375 -0.030326221 -0.11044642
-0.16329424 -0.030251047 -0.11043929
-0.16330418 -0.030177724 -0.11043819
-0.16331407 -0.030102288 -0.11044306
-0.16332391 -0.030028924 -0.11044394
-0.16333354 -0.029955469 -0.11044883
-0.16334268 -0.029881803 -0.11046371
-0.16335213 -0.029808264 -0.1104726
-0.16336186 -0.029734856 -0.11047549
-0.16337159 -0.029661445 -0.11047839
-0.16338131 -0.029585924 -0.11048724
-0.16339104 -0.029512517 -0.11049013
-0.16340116 -0.029439278 -0.11048503
-0.16341135 -0.029363975 -0.11048391
-0.1634209 -0.029290479 -0.11049079
-0.16343024 -0.029216897 -0.11050167
-0.16343959 -0.029143317 -0.11051255
-0.16344912 -0.029069819 -0.11051944
-0.16345866 -0.028996326 -0.11052632
-0.16346829 -0.028922871 -0.11053122
-0.16347793 -0.028849419 -0.11053611
-0.16348793 -0.028774029 -0.11053897
-0.16349785 -0.028700706 -0.11053786
-0.16350825 -0.028625488 -0.11053274
-0.16351818 -0.028552167 -0.11053164
-0.16352808 -0.02847673 -0.1105365
-0.16353771 -0.028403278 -0.1105414
-0.16354755 -0.028329914 -0.11054229
-0.16355745 -0.028254479 -0.11054714
-0.16356699 -0.028180985 -0.11055403
-0.16357672 -0.028107572 -0.11055692
-0.16358635 -0.028034123 -0.11056182
-0.16359599 -0.027960669 -0.11056671
-0.16360599 -0.027885279 -0.11056957
-0.16361591 -0.027811956 -0.11056847
-0.16362582 -0.027736522 -0.11057333
-0.16363536 -0.027663026 -0.11058021
-0.16412432 -0.025335897 -0.10718296
-0.16413654 -0.025259387 -0.10714585
-0.16414918 -0.025185164 -0.10709478
-0.16416085 -0.025110506 -0.10706369
-0.16417173 -0.025035504 -0.10704858
-0.16418327 -0.024960805 -0.10701948
-0.16419609 -0.024884555 -0.1069704
-0.16420823 -0.024810115 -0.10692932
-0.16421913 -0.024737224 -0.10690825
-0.16422935 -0.024664031 -0.10690116
-0.16424052 -0.024589159 -0.10688005
-0.16425228 -0.024514547 -0.10684697
-0.1642624 -0.024441309 -0.10684187
-0.16427101 -0.024371605 -0.10685681
-0.16428074 -0.024298195 -0.1068597
-0.1642905 -0.024226896 -0.10685663
-0.16430119 -0.02415181 -0.10684551
-0.1643118 -0.024078786 -0.10683043
-0.16432117 -0.024007317 -0.10683535
-0.16432995 -0.023935588 -0.10685226
-0.16433902 -0.023863988 -0.10686317
-0.16434933 -0.023790836 -0.10685407
-0.16436014 -0.023717903 -0.106835
-0.16437095 -0.023644969 -0.10681592
-0.16438153 -0.023569837 -0.10680681
-0.16438985 -0.023500003 -0.10682773
-0.16439824 -0.023428101 -0.10685262
-0.16440761 -0.02335663 -0.10685754
-0.16441707 -0.023285203 -0.10686046
-0.1644268 -0.023211794 -0.10686336
-0.16443628 -0.023140367 -0.10686629
-0.1644462 -0.023067044 -0.10686518
-0.16445643 -0.022993851 -0.10685809
-0.16446628 -0.022922594 -0.10685302
-0.16447601 -0.022849187 -0.10685591
-0.16448577 -0.022777889 -0.10685284
-0.16449599 -0.022704694 -0.10684575
-0.16450581 -0.022631329 -0.10684665
-0.16451529 -0.022559902 -0.10684957
-0.1645253 -0.022486623 -0.10684647
-0.16453487 -0.022415239 -0.10684739
-0.16454355 -0.022343464 -0.1068663
-0.16455233 -0.022271736 -0.10688319
-0.16456275 -0.022198629 -0.10687211
-0.16457365 -0.022125738 -0.10685104
-0.16458301 -0.022054268 -0.10685596
-0.16459142 -0.021982364 -0.10688085
-0.1646001 -0.021910593 -0.10689975
-0.16461031 -0.021837398 -0.10689265
-0.16462083 -0.021764334 -0.10687957
-0.16463038 -0.02169295 -0.1068805
-0.16463993 -0.021619456 -0.10688738
-0.1646494 -0.021548027 -0.10689031
-0.16465981 -0.02147492 -0.10687922
-0.16466984 -0.02140164 -0.10687612
-0.16467911 -0.021330127 -0.10688303
-0.16468857 -0.021258701 -0.10688596
-0.1646986 -0.02118542 -0.10688286
-0.16470881 -0.021112226 -0.10687577
-0.16471867 -0.021040972 -0.1068707
-0.16472821 -0.020967478 -0.10687758
-0.16473833 -0.020894241 -0.10687249
-0.16474877 -0.020823244 -0.10685544
-0.16475879 -0.020749966 -0.10685235
-0.16476747 -0.020678192 -0.10687125
-0.16477607 -0.020606376 -0.10689215
-0.16478494 -0.020534689 -0.10690705
-0.16479468 -0.02046128 -0.10690994
-0.16480453 -0.020390026 -0.10690488
-0.16481476 -0.020316832 -0.10689779
-0.16482487 -0.020243596 -0.10689269
-0.16483425 -0.020172127 -0.1068976
-0.1648438 -0.020100743 -0.10689853
-0.16485412 -0.020027591 -0.10688944
-0.16486415 -0.019954313 -0.10688635
-0.16487361 -0.019882884 -0.10688927
-0.16488364 -0.019809606 -0.10688617
-0.16489339 -0.019738307 -0.1068831
-0.16490322 -0.019664941 -0.106884
-0.16491279 -0.019593555 -0.10688492
-0.16492242 -0.019520104 -0.10688981
-0.16493198 -0.01944872 -0.10689074
-0.1649421 -0.019375484 -0.10688563
-0.16495216 -0.019304316 -0.10687658
-0.16496238 -0.019231122 -0.10686948
-0.16497231 -0.019157801 -0.10686838
-0.16498207 -0.019086502 -0.10686531
-0.1649916 -0.019013006 -0.10687221
-0.16500048 -0.01894132 -0.10688711
-0.16500984 -0.018869849 -0.10689203
-0.16501957 -0.01879644 -0.10689492
-0.16502845 -0.018724753 -0.10690983
-0.16503753 -0.018653153 -0.10692073
-0.1650469 -0.018581681 -0.10692566
-0.16505605 -0.018508013 -0.10694053
-0.16506532 -0.018436499 -0.10694745
-0.16507505 -0.01836309 -0.10695034
-0.16508423 -0.018291533 -0.10695925
-0.16510449 -0.018147172 -0.10694311
-0.1651151 -0.018074151 -0.10692803
-0.16512388 -0.018002421 -0.10694493
-0.16265221 -0.035119377 -0.11019575
-0.16266149 -0.035047866 -0.11020267
-0.16267188 -0.034972645 -0.11019754
-0.16268227 -0.034897428 -0.11019242
-0.16269104 -0.034825701 -0.11020932
-0.16270088 -0.034752332 -0.11021021
-0.16271126 -0.034677118 -0.11020508
-0.16272101 -0.034603707 -0.11020798
-0.16273063 -0.034530252 -0.11021287
-0.16274028 -0.034456804 -0.11021776
-0.16275038 -0.034381453 -0.11021863
-0.16275945 -0.034309857 -0.11022954
-0.16276889 -0.034236312 -0.11023842
-0.16277862 -0.034162905 -0.11024132
-0.16278826 -0.034089454 -0.1102462
-0.16279788 -0.034015998 -0.11025109
-0.16280752 -0.03394255 -0.11025599
-0.16281763 -0.033867203 -0.11025685
-0.16282745 -0.033793837 -0.11025774
-0.16283709 -0.033720382 -0.11026263
-0.16284643 -0.0336468 -0.11027353
-0.16285586 -0.033573262 -0.11028241
-0.162866 -0.033500023 -0.11027731
-0.16287629 -0.033424765 -0.11027417
-0.16288622 -0.03335144 -0.11027307
-0.16289698 -0.033274285 -0.11026592
-0.16290671 -0.033200875 -0.11026882
-0.16291539 -0.033129103 -0.11028772
-0.16292398 -0.033057287 -0.11030862
-0.16293447 -0.032982111 -0.11030149
-0.16294476 -0.032906849 -0.11029836
-0.16295458 -0.032833487 -0.11029926
-0.16296451 -0.032760158 -0.11029816
-0.16297385 -0.03268658 -0.11030903
-0.16298273 -0.032614894 -0.11032394
-0.16299208 -0.032541312 -0.11033483
-0.16300161 -0.032467812 -0.11034171
-0.1630104 -0.032396086 -0.11035861
-0.16302003 -0.03232263 -0.11036351
-0.16303147 -0.032245778 -0.11034238
-0.16304196 -0.032170605 -0.11033525
-0.16305159 -0.032097153 -0.11034014
-0.16306169 -0.032021806 -0.11034101
-0.16307114 -0.031948265 -0.11034989
-0.1630803 -0.031876706 -0.1103588
-0.16308956 -0.031803083 -0.11037169
-0.16309834 -0.031731352 -0.11038858
-0.16310777 -0.031657815 -0.11039747
-0.16311806 -0.031582549 -0.11039434
-0.16312866 -0.031507421 -0.11038522
-0.16313905 -0.031432204 -0.11038009
-0.16314888 -0.031358838 -0.11038099
-0.16315861 -0.031285428 -0.11038388
-0.16316804 -0.03121189 -0.11039276
-0.16317719 -0.031138221 -0.11040764
-0.16318703 -0.031064855 -0.11040854
-0.16319676 -0.030991446 -0.11041143
-0.16320619 -0.030917907 -0.11042032
-0.16321555 -0.030844323 -0.1104312
-0.16322498 -0.030770786 -0.11044008
-0.16323452 -0.030697292 -0.11044697
-0.1632449 -0.030622071 -0.11044184
-0.16325493 -0.030548792 -0.11043875
-0.16326457 -0.030475341 -0.11044364
-0.16327411 -0.030401845 -0.11045053
-0.1632843 -0.030326542 -0.1104494
-0.16329479 -0.030251365 -0.11044227
-0.16330472 -0.030178044 -0.11044116
-0.16331472 -0.030102652 -0.11044402
-0.16332445 -0.030029243 -0.11044692
-0.16333409 -0.029955789 -0.11045181
-0.16334324 -0.029882124 -0.11046669
-0.16335267 -0.029808583 -0.11047557
-0.16336241 -0.029735174 -0.11047847
-0.16337223 -0.029661806 -0.11047935
-0.16338195 -0.029586287 -0.11048821
-0.16339158 -0.029512834 -0.11049311
-0.16340171 -0.029439598 -0.11048801
-0.1634119 -0.029364293 -0.11048688
-0.16342144 -0.029290799 -0.11049376
-0.16343078 -0.029217215 -0.11050464
-0.16344012 -0.029143635 -0.11051553
-0.16344966 -0.029070139 -0.11052242
-0.1634592 -0.028996643 -0.11052931
-0.16346873 -0.028923148 -0.11053619
-0.16347846 -0.028849738 -0.11053908
-0.16348846 -0.028774349 -0.11054195
-0.1634983 -0.028700981 -0.11054283
-0.16350879 -0.028625807 -0.11053572
-0.16351871 -0.028552484 -0.11053462
-0.16352862 -0.02847705 -0.11053947
-0.16353835 -0.02840364 -0.11054237
-0.16354819 -0.028330276 -0.11054327
-0.16355799 -0.028254796 -0.11055012
-0.16356753 -0.028181303 -0.11055701
-0.16357726 -0.028107891 -0.1105599
-0.1635869 -0.028034441 -0.11056479
-0.16359653 -0.02796099 -0.11056969
-0.16360652 -0.027885597 -0.11057255
-0.16361645 -0.027812276 -0.11057144
-0.16362636 -0.027736841 -0.11057631
-0.16363589 -0.027663345 -0.1105832
-0.16411263 -0.025410611 -0.107229
-0.16412497 -0.025336258 -0.10718393
-0.16413708 -0.025259705 -0.10714882
-0.16414972 -0.025185481 -0.10709775
-0.16416137 -0.025110824 -0.10706666
-0.16417235 -0.025035866 -0.10704956
-0.16418391 -0.024961166 -0.10702047
-0.16419661 -0.024884874 -0.10697337
-0.16420886 -0.024810476 -0.1069303
-0.16421966 -0.024737541 -0.10691123
-0.16422988 -0.02466435 -0.10690413
-0.16424096 -0.024589434 -0.10688503
-0.16425271 -0.02451482 -0.10685194
-0.16426294 -0.024441626 -0.10684485
-0.16427155 -0.024371922 -0.10685979
-0.16428128 -0.024298511 -0.10686268
-0.16429104 -0.024227215 -0.1068596
-0.16430172 -0.024152126 -0.10684849
-0.16431233 -0.024079105 -0.10683341
-0.16432169 -0.024007635 -0.10683833
-0.16433048 -0.023935907 -0.10685523
-0.16433954 -0.023864305 -0.10686614
-0.16434987 -0.023791155 -0.10685705
-0.16436067 -0.023718221 -0.10683798
-0.16437148 -0.023645286 -0.1068189
-0.16438206 -0.023570154 -0.10680979
-0.16439039 -0.02350032 -0.10683071
-0.16439877 -0.023428418 -0.1068556
-0.16440815 -0.023356948 -0.10686051
-0.16441761 -0.023285519 -0.10686344
-0.16442724 -0.023212068 -0.10686833
-0.1644368 -0.023140684 -0.10686926
-0.16444673 -0.023067361 -0.10686816
-0.16445684 -0.022994123 -0.10686306
-0.16446671 -0.02292287 -0.10685799
-0.16447663 -0.022849547 -0.10685689
-0.16448629 -0.022778206 -0.10685582
-0.16449651 -0.022705011 -0.10684873
-0.16450635 -0.022631645 -0.10684962
-0.1645159 -0.022560261 -0.10685055
-0.16452593 -0.022486983 -0.10684744
-0.16453539 -0.022415556 -0.10685037
-0.16454408 -0.022343781 -0.10686928
-0.16455287 -0.022272052 -0.10688617
-0.16456318 -0.022198902 -0.10687709
-0.16457409 -0.022126012 -0.10685601
-0.16458355 -0.022054585 -0.10685893
-0.16459194 -0.021982681 -0.10688382
-0.16460063 -0.02191091 -0.10690272
-0.16461083 -0.021837715 -0.10689563
-0.16462135 -0.021764651 -0.10688255
-0.16463092 -0.021693267 -0.10688347
-0.16464046 -0.021619771 -0.10689036
-0.16464992 -0.021548344 -0.10689328
-0.16466033 -0.021475237 -0.10688219
-0.16467036 -0.021401957 -0.1068791
-0.16467963 -0.021330442 -0.10688601
-0.16468909 -0.021259017 -0.10688893
-0.16469912 -0.021185737 -0.10688584
-0.16470933 -0.021112543 -0.10687875
-0.16471909 -0.021041246 -0.10687567
-0.16472873 -0.020967793 -0.10688057
-0.16473885 -0.020894557 -0.10687548
-0.16474929 -0.020823561 -0.10685842
-0.16475922 -0.020750238 -0.10685732
-0.164768 -0.020678509 -0.10687422
-0.16477658 -0.020606693 -0.10689512
-0.16478546 -0.020535005 -0.10691002
-0.16479492 -0.020463578 -0.10691295
-0.16480495 -0.020390298 -0.10690986
-0.16481528 -0.020317148 -0.10690076
-0.16482539 -0.020243913 -0.10689566
-0.16483477 -0.020172441 -0.10690058
-0.16484432 -0.020101057 -0.1069015
-0.16485474 -0.02002795 -0.10689043
-0.16486476 -0.01995467 -0.10688733
-0.16487414 -0.019883201 -0.10689224
-0.16488415 -0.01980992 -0.10688914
-0.16489401 -0.019738667 -0.10688408
-0.16490375 -0.019665256 -0.10688697
-0.1649133 -0.019593872 -0.1068879
-0.16492294 -0.019520421 -0.10689279
-0.1649325 -0.019449037 -0.10689371
-0.16494262 -0.019375799 -0.10688861
-0.16495267 -0.019304631 -0.10687955
-0.16496289 -0.019231439 -0.10687245
-0.16497281 -0.019158116 -0.10687135
-0.16498257 -0.019086817 -0.1068683
-0.16499211 -0.019013321 -0.10687518
-0.16500099 -0.018941635 -0.10689008
-0.16501036 -0.018870164 -0.10689501
-0.16502009 -0.018796755 -0.10689789
-0.16502897 -0.018725067 -0.1069128
-0.16503805 -0.018653467 -0.10692371
-0.16504741 -0.018581998 -0.10692864
-0.16505656 -0.01850833 -0.10694351
-0.16506582 -0.018436816 -0.10695042
-0.16507557 -0.018363405 -0.10695332
-0.16508473 -0.01829185 -0.10696223
-0.165105 -0.018147487 -0.10694608
-0.16511561 -0.018074468 -0.106931
-0.1651244 -0.018002737 -0.1069479
-0.16265398 -0.035119537 -0.11019852
-0.16266315 -0.035047982 -0.11020743
-0.16267364 -0.034972802 -0.11020031
-0.16268393 -0.034897543 -0.11019718
-0.16269282 -0.034825858 -0.1102121
-0.16270255 -0.034752447 -0.11021499
-0.16271304 -0.034677275 -0.11020786
-0.16272266 -0.034603819 -0.11021275
-0.16273241 -0.034530409 -0.11021563
-0.16274214 -0.034457006 -0.11021852
-0.16275214 -0.034381609 -0.11022139
-0.1627613 -0.034310054 -0.11023031
-0.16277055 -0.034236431 -0.11024319
-0.16278037 -0.034163065 -0.11024409
-0.16279002 -0.03408961 -0.11024897
-0.16279955 -0.034016114 -0.11025586
-0.16280919 -0.033942662 -0.11026075
-0.16281939 -0.033867359 -0.11025962
-0.16282912 -0.033793949 -0.11026251
-0.16283885 -0.033720538 -0.1102654
-0.16284819 -0.033646956 -0.11027629
-0.16285726 -0.033575356 -0.1102872
-0.16286775 -0.033500183 -0.11028007
-0.16287805 -0.033424921 -0.11027694
-0.16288824 -0.033349618 -0.11027581
-0.16289873 -0.033274442 -0.11026869
-0.16290846 -0.033201031 -0.11027159
-0.16291705 -0.033129215 -0.11029248
-0.16292574 -0.033057444 -0.11031138
-0.16293612 -0.032982223 -0.11030625
-0.16294625 -0.032908991 -0.11030115
-0.16295634 -0.032833643 -0.11030203
-0.16296618 -0.032760274 -0.11030292
-0.16297562 -0.032686736 -0.1103118
-0.1629844 -0.032615006 -0.1103287
-0.16299383 -0.032541469 -0.11033759
-0.16300328 -0.032467928 -0.11034647
-0.16301216 -0.032396242 -0.11036138
-0.16302179 -0.03232279 -0.11036627
-0.16303323 -0.032245934 -0.11034514
-0.16304372 -0.032170761 -0.11033802
-0.16305335 -0.03209731 -0.1103429
-0.16306345 -0.032021962 -0.11034377
-0.16307299 -0.031948462 -0.11035065
-0.16308206 -0.031876862 -0.11036158
-0.16309132 -0.031803243 -0.11037445
-0.16310009 -0.031731509 -0.11039135
-0.16310953 -0.031657971 -0.11040024
-0.16311982 -0.031582706 -0.11039711
-0.16313042 -0.031507578 -0.11038798
-0.16314089 -0.031432405 -0.11038087
-0.16315064 -0.031358995 -0.11038376
-0.16316037 -0.031285584 -0.11038665
-0.1631698 -0.031212047 -0.11039553
-0.16317895 -0.031138375 -0.11041041
-0.16318868 -0.031064969 -0.1104133
-0.16319852 -0.030991603 -0.11041419
-0.16320795 -0.030918064 -0.11042308
-0.16321729 -0.030844482 -0.11043397
-0.16322663 -0.030770898 -0.11044485
-0.16323617 -0.030697405 -0.11045173
-0.16324657 -0.030622184 -0.11044661
-0.1632566 -0.030548906 -0.1104435
-0.16326623 -0.030475453 -0.11044839
-0.16327576 -0.030401958 -0.11045528
-0.16328606 -0.030326696 -0.11045216
-0.16329655 -0.030251523 -0.11044503
-0.16330647 -0.030178199 -0.11044393
-0.16331638 -0.030102765 -0.11044879
-0.1633262 -0.030029399 -0.11044968
-0.16333584 -0.029955946 -0.11045457
-0.16334499 -0.029882278 -0.11046945
-0.16335443 -0.029808739 -0.11047833
-0.16336416 -0.02973533 -0.11048123
-0.16337399 -0.029661963 -0.11048212
-0.16338371 -0.029586444 -0.11049098
-0.16339333 -0.029512992 -0.11049587
-0.16340347 -0.029439755 -0.11049078
-0.16341366 -0.02936445 -0.11048964
-0.1634232 -0.029290956 -0.11049653
-0.16343254 -0.029217372 -0.11050741
-0.16344188 -0.029143792 -0.11051829
-0.16345142 -0.029070294 -0.11052518
-0.16346096 -0.028996799 -0.11053207
-0.16347058 -0.028923348 -0.11053696
-0.16348022 -0.028849894 -0.11054184
-0.16349022 -0.028774505 -0.11054471
-0.16350006 -0.028701138 -0.1105456
-0.16351044 -0.028625919 -0.11054048
-0.16352047 -0.02855264 -0.11053737
-0.16353038 -0.028477205 -0.11054224
-0.16354001 -0.028403753 -0.11054713
-0.16354984 -0.028330389 -0.11054803
-0.16355973 -0.028254952 -0.11055288
-0.16356927 -0.02818146 -0.11055977
-0.16357902 -0.028108047 -0.11056266
-0.16358864 -0.028034598 -0.11056755
-0.16359828 -0.027961144 -0.11057245
-0.16360828 -0.027885754 -0.11057531
-0.16361821 -0.027812429 -0.11057421
-0.16362812 -0.027736997 -0.11057907
-0.16363755 -0.027663456 -0.11058795
-0.16412662 -0.025336374 -0.10718869
-0.16413884 -0.025259864 -0.10715158
-0.16415146 -0.025185641 -0.10710051
-0.16416313 -0.025110982 -0.10706943
-0.16417401 -0.025035981 -0.10705432
-0.16418555 -0.024961282 -0.10702522
-0.16419837 -0.024885032 -0.10697613
-0.16421051 -0.024810592 -0.10693505
-0.16422141 -0.024737701 -0.10691398
-0.16423163 -0.024664508 -0.10690689
-0.1642427 -0.024589591 -0.10688779
-0.16425446 -0.024514979 -0.1068547
-0.16426468 -0.024441786 -0.10684761
-0.16427319 -0.024372038 -0.10686453
-0.16428302 -0.024298672 -0.10686544
-0.16429278 -0.024227373 -0.10686236
-0.16430347 -0.024152286 -0.10685124
-0.16431397 -0.024079222 -0.10683816
-0.16432334 -0.024007751 -0.10684308
-0.16433212 -0.023936022 -0.10685999
-0.1643413 -0.023864463 -0.1068689
-0.16435161 -0.023791313 -0.1068598
-0.16436242 -0.023718379 -0.10684073
-0.16437322 -0.023645446 -0.10682166
-0.16438381 -0.023570314 -0.10681254
-0.16439213 -0.02350048 -0.10683347
-0.16440041 -0.023428533 -0.10686035
-0.16440979 -0.023357064 -0.10686527
-0.16441925 -0.023285635 -0.10686819
-0.16442898 -0.023212226 -0.10687108
-0.16443855 -0.023140842 -0.10687201
-0.16444838 -0.023067476 -0.10687291
-0.1644586 -0.022994284 -0.10686582
-0.16446845 -0.022923026 -0.10686075
-0.16447827 -0.022849662 -0.10686164
-0.16448803 -0.022778364 -0.10685857
-0.16449825 -0.022705171 -0.10685148
-0.16450809 -0.022631805 -0.10685237
-0.16451755 -0.022560377 -0.1068553
-0.16452767 -0.022487141 -0.1068502
-0.16453713 -0.022415712 -0.10685313
-0.16454582 -0.022343941 -0.10687203
-0.1645546 -0.022272211 -0.10688892
-0.16456492 -0.022199061 -0.10687984
-0.16457582 -0.02212617 -0.10685877
-0.16458529 -0.022054743 -0.10686169
-0.16459368 -0.021982839 -0.10688658
-0.16460237 -0.021911066 -0.10690548
-0.16461258 -0.021837873 -0.10689838
-0.1646231 -0.021764809 -0.1068853
-0.16463266 -0.021693427 -0.10688623
-0.1646422 -0.021619931 -0.10689311
-0.16465166 -0.021548502 -0.10689604
-0.16466208 -0.021475395 -0.10688495
-0.16467211 -0.021402117 -0.10688185
-0.16468138 -0.021330602 -0.10688876
-0.16469084 -0.021259176 -0.10689168
-0.16470085 -0.021185895 -0.10688859
-0.16471107 -0.021112703 -0.10688151
-0.16472083 -0.021041403 -0.10687843
-0.16473047 -0.020967953 -0.10688332
-0.16474059 -0.020894716 -0.10687823
-0.16475093 -0.020823676 -0.10686317
-0.16476096 -0.020750396 -0.10686007
-0.16476974 -0.020678667 -0.10687698
-0.16477832 -0.020606851 -0.10689788
-0.1647872 -0.020535164 -0.10691278
-0.16479667 -0.020463737 -0.1069157
-0.16480669 -0.020390457 -0.10691261
-0.16481701 -0.020317307 -0.10690351
-0.16482677 -0.020246008 -0.10690044
-0.16483641 -0.020172557 -0.10690533
-0.16484606 -0.020101216 -0.10690426
-0.16485637 -0.020028066 -0.10689517
-0.1648664 -0.019954786 -0.10689207
-0.16487586 -0.019883357 -0.10689499
-0.16488589 -0.019810079 -0.10689189
-0.16489574 -0.019738823 -0.10688683
-0.16490558 -0.019665457 -0.10688773
-0.16491504 -0.01959403 -0.10689065
-0.16492468 -0.019520577 -0.10689554
-0.16493423 -0.019449193 -0.10689646
-0.16494437 -0.019375958 -0.10689136
-0.16495441 -0.01930479 -0.1068823
-0.16496453 -0.019231552 -0.10687722
-0.16497456 -0.019158274 -0.10687411
-0.16498421 -0.019086933 -0.10687304
-0.16499375 -0.019013437 -0.10687993
-0.16500273 -0.018941794 -0.10689283
-0.16501209 -0.018870322 -0.10689776
-0.16502146 -0.01879885 -0.10690267
-0.1650307 -0.018725226 -0.10691556
-0.16503978 -0.018653626 -0.10692646
-0.16504915 -0.018582154 -0.10693139
-0.1650583 -0.018508486 -0.10694626
-0.16506757 -0.018436972 -0.10695317
-0.1650773 -0.018363563 -0.10695606
-0.16510674 -0.018147646 -0.10694883
-0.16511735 -0.018074624 -0.10693375
-0.16265245 -0.035118904 -0.11019651
-0.16266161 -0.035047349 -0.11020542
-0.1626721 -0.034972169 -0.1101983
-0.16268249 -0.034896955 -0.11019317
-0.16269128 -0.034825224 -0.11021007
-0.16270101 -0.034751818 -0.11021297
-0.1627115 -0.034676641 -0.11020584
-0.16272123 -0.034603231 -0.11020873
-0.16273086 -0.034529775 -0.11021362
-0.1627405 -0.034456328 -0.11021852
-0.1627506 -0.034380976 -0.11021937
-0.16275968 -0.03430938 -0.11023029
-0.16276911 -0.034235839 -0.11023918
-0.16277884 -0.034162432 -0.11024207
-0.16278858 -0.034089021 -0.11024497
-0.16279812 -0.034015525 -0.11025184
-0.16280775 -0.033942074 -0.11025674
-0.16281785 -0.033866726 -0.1102576
-0.16282769 -0.03379336 -0.1102585
-0.16283731 -0.033719905 -0.11026339
-0.16284665 -0.033646323 -0.11027428
-0.1628561 -0.033572786 -0.11028316
-0.16286622 -0.03349955 -0.11027806
-0.16287652 -0.033424288 -0.11027493
-0.16288644 -0.033350967 -0.11027382
-0.1628972 -0.033273809 -0.11026667
-0.16290693 -0.033200398 -0.11026957
-0.16291551 -0.033128582 -0.11029047
-0.1629242 -0.03305681 -0.11030936
-0.16293469 -0.032981634 -0.11030224
-0.16294499 -0.032906376 -0.11029911
-0.16295482 -0.03283301 -0.1103
-0.16296475 -0.032759685 -0.1102989
-0.16297409 -0.032686103 -0.11030979
-0.16298297 -0.032614417 -0.1103247
-0.16299231 -0.032540835 -0.11033558
-0.16300185 -0.032467339 -0.11034246
-0.16301054 -0.032395568 -0.11036136
-0.16302027 -0.032322157 -0.11036425
-0.16303161 -0.03224526 -0.11034513
-0.16304219 -0.032170128 -0.11033601
-0.16305183 -0.032096677 -0.11034089
-0.16306193 -0.032021329 -0.11034176
-0.16307136 -0.031947792 -0.11035064
-0.16308054 -0.031876232 -0.11035955
-0.16308978 -0.03180261 -0.11037243
-0.16309857 -0.031730875 -0.11038934
-0.16310801 -0.031657338 -0.11039822
-0.1631183 -0.031582076 -0.1103951
-0.16312888 -0.031506944 -0.11038597
-0.16313928 -0.031431727 -0.11038084
-0.1631491 -0.031358361 -0.11038174
-0.16315883 -0.031284951 -0.11038463
-0.16316828 -0.031211415 -0.11039352
-0.16317743 -0.031137746 -0.1104084
-0.16318716 -0.031064337 -0.11041129
-0.163197 -0.030990969 -0.11041218
-0.16320643 -0.030917432 -0.11042106
-0.16321577 -0.03084385 -0.11043195
-0.16322522 -0.030770311 -0.11044083
-0.16323476 -0.030696817 -0.11044772
-0.16324505 -0.030621553 -0.11044459
-0.16325517 -0.030548319 -0.11043949
-0.16326481 -0.030474864 -0.11044438
-0.16327435 -0.03040137 -0.11045127
-0.16328454 -0.030326065 -0.11045014
-0.16329503 -0.030250892 -0.11044302
-0.16330495 -0.030177567 -0.11044192
-0.16331495 -0.030102177 -0.11044478
-0.16332479 -0.030028811 -0.11044568
-0.16333432 -0.029955316 -0.11045256
-0.16334347 -0.029881649 -0.11046743
-0.16335291 -0.029808108 -0.11047632
-0.16336265 -0.029734701 -0.11047921
-0.16337238 -0.029661288 -0.11048211
-0.16338208 -0.029585769 -0.11049096
-0.16339181 -0.029512361 -0.11049385
-0.16340195 -0.029439123 -0.11048876
-0.16341214 -0.029363818 -0.11048763
-0.16342168 -0.029290324 -0.11049451
-0.16343102 -0.029216742 -0.11050539
-0.16344036 -0.02914316 -0.11051628
-0.1634499 -0.029069664 -0.11052316
-0.16345944 -0.02899617 -0.11053005
-0.16346908 -0.028922716 -0.11053494
-0.1634787 -0.028849265 -0.11053982
-0.16348872 -0.028773874 -0.11054268
-0.16349854 -0.028700508 -0.11054359
-0.16350903 -0.028625332 -0.11053646
-0.16351895 -0.028552011 -0.11053536
-0.16352886 -0.028476575 -0.11054022
-0.1635385 -0.028403124 -0.11054511
-0.16354832 -0.028329758 -0.11054601
-0.16355823 -0.028254323 -0.11055087
-0.16356777 -0.028180826 -0.11055776
-0.1635775 -0.028107418 -0.11056065
-0.16358714 -0.028033966 -0.11056554
-0.16359676 -0.027960515 -0.11057043
-0.16360676 -0.02788512 -0.11057329
-0.1636167 -0.027811799 -0.11057219
-0.1636266 -0.027736366 -0.11057705
-0.16363613 -0.02766287 -0.11058394
-0.16412511 -0.025335744 -0.10718668
-0.16413733 -0.025259238 -0.10714956
-0.16414995 -0.025185013 -0.1070985
-0.16416162 -0.025110355 -0.10706741
-0.16417259 -0.025035396 -0.1070503
-0.16418406 -0.024960654 -0.1070232
-0.16419686 -0.024884406 -0.10697411
-0.16420901 -0.024809964 -0.10693304
-0.1642199 -0.024737073 -0.10691196
-0.16423012 -0.02466388 -0.10690488
-0.1642413 -0.024589008 -0.10688376
-0.16425295 -0.024514351 -0.10685268
-0.16426317 -0.024441158 -0.10684558
-0.16427179 -0.024371453 -0.10686052
-0.16428152 -0.024298044 -0.10686342
-0.16429128 -0.024226747 -0.10686035
-0.16430196 -0.024151657 -0.10684923
-0.16431257 -0.024078637 -0.10683414
-0.16432194 -0.024007168 -0.10683906
-0.16433072 -0.023935437 -0.10685597
-0.1643398 -0.023863837 -0.10686688
-0.16435011 -0.023790687 -0.10685779
-0.16436091 -0.023717754 -0.10683872
-0.16437173 -0.023644818 -0.10681964
-0.16438231 -0.023569688 -0.10681052
-0.16439062 -0.023499852 -0.10683144
-0.16439901 -0.02342795 -0.10685633
-0.16440839 -0.023356479 -0.10686126
-0.16441785 -0.023285052 -0.10686418
-0.16442758 -0.023211643 -0.10686707
-0.16443704 -0.023140214 -0.10687
-0.16444698 -0.023066893 -0.10686889
-0.1644571 -0.022993658 -0.1068638
-0.16446695 -0.0229224 -0.10685872
-0.16447678 -0.022849035 -0.10685963
-0.16448654 -0.022777738 -0.10685655
-0.16449676 -0.022704544 -0.10684947
-0.16450658 -0.022631178 -0.10685036
-0.16451606 -0.022559751 -0.10685328
-0.16452608 -0.022486471 -0.10685018
-0.16453564 -0.022415087 -0.1068511
-0.16454433 -0.022343313 -0.10687002
-0.16455311 -0.022271585 -0.10688691
-0.16456343 -0.022198435 -0.10687783
-0.16457433 -0.022125544 -0.10685675
-0.16458379 -0.022054117 -0.10685967
-0.16459219 -0.021982213 -0.10688456
-0.16460086 -0.02191044 -0.10690346
-0.16461109 -0.021837248 -0.10689637
-0.16462161 -0.021764183 -0.10688328
-0.16463116 -0.021692799 -0.10688421
-0.16464069 -0.021619303 -0.10689109
-0.16465017 -0.021547876 -0.10689402
-0.16466059 -0.021474769 -0.10688293
-0.1646706 -0.021401489 -0.10687983
-0.16467987 -0.021329977 -0.10688674
-0.16468935 -0.021258548 -0.10688967
-0.16469936 -0.02118527 -0.10688657
-0.16470958 -0.021112077 -0.10687948
-0.16471934 -0.021040777 -0.10687641
-0.16472898 -0.020967325 -0.10688129
-0.1647391 -0.02089409 -0.1068762
-0.16474953 -0.020823093 -0.10685915
-0.16475956 -0.020749813 -0.10685606
-0.16476835 -0.020678084 -0.10687296
-0.16477694 -0.020606268 -0.10689385
-0.16478571 -0.020534538 -0.10691076
-0.16479544 -0.020461129 -0.10691365
-0.16480531 -0.020389875 -0.10690858
-0.16481553 -0.020316681 -0.1069015
-0.16482565 -0.020243445 -0.1068964
-0.16483502 -0.020171974 -0.10690131
-0.16484457 -0.02010059 -0.10690224
-0.1648549 -0.02002744 -0.10689315
-0.16486502 -0.019954203 -0.10688805
-0.16487439 -0.019882733 -0.10689297
-0.1648844 -0.019809453 -0.10688988
-0.16489416 -0.019738156 -0.10688681
-0.164904 -0.01966479 -0.10688771
-0.16491355 -0.019593405 -0.10688863
-0.16492319 -0.019519953 -0.10689352
-0.16493276 -0.019448569 -0.10689444
-0.16494288 -0.019375332 -0.10688934
-0.16495292 -0.019304164 -0.10688029
-0.16496314 -0.019230971 -0.10687319
-0.16497317 -0.019157691 -0.10687009
-0.16498283 -0.01908635 -0.10686902
-0.16499227 -0.019012813 -0.10687791
-0.16500124 -0.018941168 -0.10689081
-0.16501062 -0.018869698 -0.10689574
-0.16501999 -0.018798226 -0.10690066
-0.16502923 -0.018724602 -0.10691354
-0.1650383 -0.018653002 -0.10692444
-0.16504768 -0.01858153 -0.10692936
-0.16505682 -0.018507862 -0.10694423
-0.16506609 -0.018436348 -0.10695115
-0.16507582 -0.018362939 -0.10695405
-0.16508499 -0.018291382 -0.10696296
-0.16510527 -0.018147022 -0.10694681
-0.16511588 -0.018074 -0.10693173
-0.16512465 -0.01800227 -0.10694863
-0.16265155 -0.035118744 -0.11019543
-0.16266072 -0.035047188 -0.11020434
-0.16267121 -0.034972012 -0.11019722
-0.16268159 -0.034896798 -0.11019209
-0.16269048 -0.034825109 -0.11020699
-0.16270021 -0.034751698 -0.11020988
-0.16271061 -0.034676485 -0.11020476
-0.16272034 -0.034603074 -0.11020765
-0.16273007 -0.034529664 -0.11021055
-0.16273971 -0.034456212 -0.11021543
-0.16274971 -0.034380823 -0.1102183
-0.16275887 -0.034309264 -0.11022721
-0.16276813 -0.034235641 -0.11024009
-0.16277795 -0.034162275 -0.110241
-0.16278769 -0.034088865 -0.11024389
-0.16279712 -0.034015328 -0.11025277
-0.16280685 -0.033941917 -0.11025566
-0.16281696 -0.033866569 -0.11025652
-0.16282679 -0.033793204 -0.11025742
-0.16283642 -0.033719748 -0.1102623
-0.16284576 -0.03364617 -0.1102732
-0.16285521 -0.033572629 -0.11028208
-0.16286543 -0.033499435 -0.11027498
-0.16287562 -0.033424132 -0.11027385
-0.16288581 -0.033348829 -0.11027271
-0.16289631 -0.033273652 -0.11026559
-0.16290604 -0.033200242 -0.1102685
-0.16291472 -0.03312847 -0.11028739
-0.16292331 -0.033056654 -0.11030829
-0.1629338 -0.032981478 -0.11030117
-0.16294409 -0.032906219 -0.11029803
-0.16295393 -0.032832853 -0.11029893
-0.16296385 -0.032759529 -0.11029783
-0.1629732 -0.03268595 -0.11030871
-0.16298208 -0.032614261 -0.11032362
-0.16299142 -0.032540679 -0.1103345
-0.16300096 -0.032467183 -0.11034139
-0.16300973 -0.032395452 -0.11035828
-0.16301973 -0.03232006 -0.11036114
-0.16303082 -0.032245144 -0.11034204
-0.16304129 -0.032169972 -0.11033493
-0.16305093 -0.03209652 -0.11033981
-0.16306104 -0.032021172 -0.11034068
-0.16307057 -0.031947676 -0.11034756
-0.16307965 -0.031876076 -0.11035848
-0.16308889 -0.031802453 -0.11037135
-0.16309768 -0.031730719 -0.11038825
-0.16310711 -0.031657182 -0.11039715
-0.16311741 -0.03158192 -0.11039402
-0.16312799 -0.031506788 -0.11038489
-0.16313848 -0.031431615 -0.11037777
-0.16314821 -0.031358205 -0.11038066
-0.16315795 -0.031284794 -0.11038355
-0.16316739 -0.031211257 -0.11039244
-0.16317654 -0.031137589 -0.11040732
-0.16318637 -0.031064223 -0.11040821
-0.1631961 -0.030990813 -0.1104111
-0.16320564 -0.030917317 -0.11041798
-0.16321488 -0.030843692 -0.11043087
-0.16322422 -0.030770112 -0.11044175
-0.16323376 -0.030696616 -0.11044864
-0.16324416 -0.030621398 -0.11044352
-0.16325428 -0.030548161 -0.11043842
-0.16326392 -0.030474707 -0.1104433
-0.16327345 -0.030401211 -0.11045019
-0.16328365 -0.030325908 -0.11044906
-0.16329414 -0.030250734 -0.11044193
-0.16330406 -0.030177411 -0.11044084
-0.16331406 -0.03010202 -0.1104437
-0.16332389 -0.030028656 -0.1104446
-0.16333343 -0.029955158 -0.11045147
-0.16334268 -0.029881533 -0.11046436
-0.16335201 -0.029807951 -0.11047523
