# .PCD v0.7 - Point Cloud Data file format
VERSION 0.7
FIELDS x y z
SIZE 4 4 4
TYPE F F F
COUNT 1 1 1
WIDTH 1286
HEIGHT 1
VIEWPOINT 0 0 0 1 0 0 0
POINTS 1286
DATA ascii
-0.19495271 -0.0088498406 -0.10874083
-0.19496217 -0.0087784138 -0.10874374
-0.19497113 -0.0087046586 -0.10876261
-0.19498047 -0.0086310767 -0.10877349
-0.19499072 -0.0085599953 -0.10876044
-0.19500163 -0.0084871054 -0.10873936
-0.19501208 -0.0084161106 -0.10872231
-0.19502173 -0.0083447695 -0.10872124
-0.19503118 -0.0082712313 -0.10873012
-0.19504052 -0.0081976494 -0.10874101
-0.19504987 -0.0081240674 -0.10875188
-0.19505914 -0.008052554 -0.10875879
-0.19506936 -0.0079793613 -0.1087517
-0.19507931 -0.0079081506 -0.10874464
-0.19508904 -0.0078347409 -0.10874753
-0.1950981 -0.0077610295 -0.1087644
-0.19510698 -0.0076893428 -0.1087793
-0.19511691 -0.0076160198 -0.1087782
-0.19512704 -0.0075427843 -0.1087731
-0.1951367 -0.0074714436 -0.10877203
-0.19514702 -0.0073982943 -0.10876293
-0.19515707 -0.0073271263 -0.10875387
-0.19516602 -0.0072533712 -0.10877275
-0.1951745 -0.0071794004 -0.10880159
-0.19518423 -0.0071059912 -0.10880449
-0.19519438 -0.0070348671 -0.10879343
-0.19520421 -0.0069615012 -0.10879432
-0.19521387 -0.0068901605 -0.10879324
-0.19522341 -0.0068166652 -0.10880014
-0.19523257 -0.0067429962 -0.10881501
-0.1952422 -0.0066695446 -0.10881989
-0.19525187 -0.0065982034 -0.10881882
-0.19526199 -0.0065249675 -0.10881373
-0.19527201 -0.0064516887 -0.10881063
-0.19528148 -0.0063802609 -0.10881355
-0.1952915 -0.0063069821 -0.10881045
-0.19530165 -0.0062358575 -0.10879939
-0.19531187 -0.0061626649 -0.10879229
-0.19532193 -0.0060914969 -0.10878323
-0.19533265 -0.0060185203 -0.10876615
-0.19534279 -0.0059473962 -0.10875509
-0.19535194 -0.0058737276 -0.10876997
-0.19536138 -0.005800189 -0.10877885
-0.19537133 -0.0057289782 -0.10877179
-0.19538195 -0.0056559583 -0.10875671
-0.19539249 -0.0055850069 -0.10873765
-0.19540213 -0.0055115544 -0.10874254
-0.19541079 -0.0054376703 -0.10876741
-0.19541945 -0.0053637857 -0.10879226
-0.1954284 -0.0052900305 -0.10881113
-0.19543755 -0.005216362 -0.108826
-0.19544722 -0.0051450212 -0.10882492
-0.19545783 -0.0050720018 -0.10880984
-0.19546779 -0.0050007906 -0.10880278
-0.19547752 -0.0049273809 -0.10880567
-0.19548745 -0.0048540588 -0.10880457
-0.19549721 -0.0047827614 -0.1088015
-0.19550684 -0.0047093094 -0.10880638
-0.19551618 -0.0046357275 -0.10881726
-0.19552524 -0.0045620156 -0.10883414
-0.19553478 -0.0044885199 -0.10884102
-0.19554435 -0.0044171363 -0.10884195
-0.19555379 -0.0043435977 -0.10885083
-0.19556253 -0.0042676446 -0.10887965
-0.19557109 -0.0041937171 -0.10890651
-0.19558044 -0.0041201347 -0.10891739
-0.19559059 -0.0040490106 -0.10890632
-0.19560093 -0.0039779725 -0.10889127
-0.19561067 -0.0039045634 -0.10889416
-0.19561952 -0.0038307654 -0.10891503
-0.19562826 -0.0037548123 -0.10894386
-0.19563702 -0.0036809715 -0.10896672
-0.19564655 -0.0036074761 -0.10897361
-0.19565678 -0.0035342835 -0.10896651
-0.19566722 -0.0034632878 -0.10894946
-0.19567756 -0.0033922503 -0.10893441
-0.19568731 -0.0033188416 -0.10893729
-0.19569665 -0.0032452596 -0.10894817
-0.19570589 -0.0031716339 -0.10896105
-0.19571534 -0.0030980948 -0.10896993
-0.19572479 -0.0030245567 -0.10897882
-0.19573402 -0.0029509319 -0.1089917
-0.19574367 -0.0028774794 -0.10899659
-0.1957538 -0.0028042439 -0.10899149
-0.19576354 -0.0027329456 -0.10898842
-0.19577338 -0.0026595797 -0.10898931
-0.19578302 -0.0025861282 -0.10899419
-0.19579247 -0.0025125891 -0.10900309
-0.1958022 -0.0024391804 -0.10900597
-0.19581226 -0.0023680124 -0.10899691
-0.19582237 -0.002294776 -0.10899181
-0.19583152 -0.0022211084 -0.10900668
-0.19584039 -0.0021473104 -0.10902755
-0.19584973 -0.0020737275 -0.10903843
-0.19585937 -0.002000276 -0.10904332
-0.19586939 -0.0019269958 -0.10904022
-0.19587913 -0.001853588 -0.10904311
-0.19588859 -0.0017821603 -0.10904603
-0.19589882 -0.0017089685 -0.10903893
-0.19590896 -0.0016378434 -0.10902788
-0.19591896 -0.0015624529 -0.10903074
-0.19592834 -0.0014909822 -0.10903566
-0.19593886 -0.0014179191 -0.10902257
-0.19594949 -0.001347011 -0.10900152
-0.19595954 -0.001275843 -0.10899246
-0.19596934 -0.0012003668 -0.10899931
-0.19597849 -0.0011266973 -0.10901419
-0.19598745 -0.0010529431 -0.10903306
-0.19599658 -0.0009771632 -0.10905389
-0.19600582 -0.0009035375 -0.10906678
-0.19601595 -0.00083030201 -0.10906167
-0.19602621 -0.00075922161 -0.10904862
-0.19603595 -0.00068792328 -0.10904555
-0.19604586 -0.00061248988 -0.10905041
-0.19605531 -0.00053894985 -0.10905929
-0.19606504 -0.00046554208 -0.10906218
-0.19607499 -0.00039433129 -0.10905511
-0.19608444 -0.0003207922 -0.109064
-0.19609366 -0.00024505518 -0.10908283
-0.19610301 -0.00017147418 -0.10909371
-0.19611265 -9.802077e-05 -0.1090986
-0.19612199 -2.4439767e-05 -0.10910948
-0.19613144 4.9099326e-05 -0.10911836
-0.19614087 0.00012263842 -0.10912725
-0.19615071 0.00019600429 -0.10912815
-0.19616084 0.00026923977 -0.10912305
-0.19617046 0.00034269132 -0.10912793
-0.19618049 0.00041597057 -0.10912484
-0.19619055 0.00048713852 -0.10911577
-0.19620039 0.00056050532 -0.10911666
-0.19621061 0.00063369796 -0.10910957
-0.19622076 0.0007048212 -0.10909851
-0.19623099 0.00077590253 -0.10908545
-0.19624102 0.00084918179 -0.10908236
-0.19625024 0.00092491973 -0.10910119
-0.19625938 0.0010006977 -0.10912203
-0.19626892 0.001074194 -0.10912891
-0.19627887 0.0011454048 -0.10912184
-0.19628909 0.0012185965 -0.10911475
-0.19629915 0.0012897663 -0.10910569
-0.19630888 0.001363175 -0.10910858
-0.19631842 0.0014366703 -0.10911547
-0.19632803 0.0015122332 -0.10912631
-0.19633698 0.0015859883 -0.10914519
-0.1963467 0.0016615093 -0.10915404
-0.19635673 0.0017347876 -0.10915094
-0.19636658 0.0018060412 -0.10914587
-0.19637671 0.0018792786 -0.10914078
-0.19638674 0.0019525569 -0.10913768
-0.19639608 0.0020261398 -0.10914855
-0.19640569 0.0021017035 -0.1091594
-0.19641526 0.0021730876 -0.10916033
-0.1964248 0.0022465829 -0.10916721
-0.19643432 0.0023221895 -0.10918006
-0.19644435 0.0023954678 -0.10917696
-0.19645469 0.0024665073 -0.10916191
-0.19646472 0.0025397856 -0.1091588
-0.19647406 0.0026133675 -0.10916968
-0.1964839 0.0026867334 -0.10917058
-0.1964944 0.0027597956 -0.1091575
-0.19650434 0.0028331187 -0.10915639
-0.19651377 0.0029066568 -0.10916527
-0.19652332 0.0029801531 -0.10917215
-0.19653322 0.0030555865 -0.10917702
-0.19654278 0.0031269714 -0.10917794
-0.19655269 0.0032024048 -0.1091828
-0.19656175 0.0032761162 -0.10919967
-0.19657157 0.0033494821 -0.10920057
-0.1965819 0.0034226319 -0.10919146
-0.19659144 0.0034961272 -0.10919835
-0.19660138 0.0035694484 -0.10919725
-0.1966116 0.003642641 -0.10919016
-0.19662145 0.0037138965 -0.10918509
-0.19663197 0.0037869588 -0.109172
-0.1966424 0.0038579535 -0.10915495
-0.19665234 0.0039312765 -0.10915385
-0.19666085 0.0040094275 -0.10919263
-0.19666927 0.0040876213 -0.10923341
-0.19667862 0.0041612033 -0.10924429
-0.19668874 0.0042344388 -0.10923919
-0.19669899 0.004305521 -0.10922614
-0.19670902 0.0043787993 -0.10922303
-0.19671905 0.0044520795 -0.10921993
-0.19672909 0.0045232456 -0.10921087
-0.19673851 0.0045988951 -0.10922571
-0.19674781 0.0046767015 -0.10924852
-0.19675796 0.0047478266 -0.10923745
-0.19676837 0.0048209317 -0.10922637
-0.19677812 0.0048943404 -0.10922926
-0.19678727 0.0049680099 -0.10924414
-0.19679688 0.0050435737 -0.10925499
-0.19680668 0.0051190499 -0.10926184
-0.19681641 0.0051924586 -0.10926473
-0.19682635 0.0052657817 -0.10926363
-0.19683628 0.0053391047 -0.10926252
-0.1968462 0.0054124258 -0.10926142
-0.19685633 0.0054856632 -0.10925632
-0.19686598 0.0055591147 -0.10926121
-0.19687501 0.0056349374 -0.10928404
-0.19688442 0.0057105869 -0.10929888
-0.19689426 0.0057839528 -0.10929978
-0.19690418 0.0058572758 -0.10929868
-0.19691399 0.0059327539 -0.10930553
-0.1969236 0.0060083158 -0.10931639
-0.19693305 0.0060818531 -0.10932527
-0.19694304 0.0061572473 -0.10932813
-0.1969528 0.0062285438 -0.10932506
-0.19696301 0.0063038468 -0.10932392
-0.19697264 0.0063773002 -0.10932881
-0.19698189 0.006450925 -0.10934169
-0.19699158 0.0065285563 -0.1093565
-0.19700122 0.0066020098 -0.1093614
-0.19701114 0.0066753309 -0.10936029
-0.19702086 0.00675085 -0.10936914
-0.19703011 0.0068244766 -0.10938202
-0.19703969 0.0069021527 -0.10939883
-0.19704904 0.0069757327 -0.10940971
-0.19705924 0.0070510376 -0.10940858
-0.19706878 0.0071245339 -0.10941546
-0.19707842 0.0071979854 -0.10942035
-0.19708893 0.0072710477 -0.10940726
-0.19709899 0.0073422138 -0.1093982
-0.19710879 0.0074176937 -0.10940506
-0.19711851 0.0074932128 -0.10941391
-0.19712804 0.0075667091 -0.1094208
-0.19713804 0.0076420996 -0.10942366
-0.19714849 0.0077130944 -0.10940661
-0.19715902 0.0077840462 -0.10938755
-0.19716886 0.0078574102 -0.10938846
-0.19717857 0.0079329312 -0.10939731
-0.1971885 0.0080062542 -0.1093962
-0.19719872 0.0080794469 -0.1093891
-0.19720905 0.0081525967 -0.10938002
-0.19721916 0.0082258321 -0.10937492
-0.197229 0.008299198 -0.1093758
-0.19723903 0.0083724763 -0.10937271
-0.19724761 0.0084526967 -0.10941545
-0.19725762 0.0085280873 -0.10941831
-0.19726713 0.0086036939 -0.10943116
-0.19727626 0.0086794719 -0.109452
-0.19728626 0.0087548643 -0.10945486
-0.19729672 0.0088237487 -0.10943185
-0.19730775 0.0088944808 -0.10940281
-0.19731832 0.0089633223 -0.10937781
-0.19732884 0.0090363882 -0.10936472
-0.19733857 0.0091097951 -0.10936761
-0.19734848 0.0091852285 -0.10937247
-0.197358 0.009260837 -0.10938531
-0.19736812 0.0093340725 -0.10938022
-0.19737977 0.0094003249 -0.10932727
-0.19739082 0.0094689485 -0.10929228
-0.19740158 0.0095377006 -0.10926328
-0.19741151 0.0096110255 -0.10926218
-0.19742225 0.0096818898 -0.10923913
-0.19743352 0.0097483136 -0.10919418
-0.19744363 0.0098215528 -0.10918909
-0.19745266 0.0098973736 -0.10921192
-0.19746153 0.0099795759 -0.10925464
-0.19747238 0.010048287 -0.10922363
-0.19748521 0.010105617 -0.10912488
-0.19750078 0.010151222 -0.10894239
-0.19754669 0.010540508 -0.10906839
-0.19755706 0.010609433 -0.10904737
-0.19756725 0.010684736 -0.10904624
-0.19262688 -0.025535319 -0.11034758
-0.19263841 -0.025458511 -0.11032444
-0.19266067 -0.025369652 -0.11012533
-0.19267604 -0.025288239 -0.1100402
-0.19269048 -0.025210615 -0.10996312
-0.19270365 -0.025132429 -0.10991199
-0.1927197 -0.025051316 -0.10981287
-0.19273394 -0.024973605 -0.10973979
-0.19274855 -0.024893956 -0.10966467
-0.19276038 -0.024817277 -0.10963554
-0.19277224 -0.024742708 -0.10960046
-0.19278465 -0.024666287 -0.10955935
-0.19279611 -0.024591545 -0.10953226
-0.19280699 -0.024516542 -0.10951715
-0.19281806 -0.024441628 -0.10949804
-0.19283096 -0.024365423 -0.10944694
-0.19416097 -0.014869797 -0.10845099
-0.19416943 -0.014795826 -0.10847984
-0.19417793 -0.014723966 -0.10850273
-0.19418749 -0.014652582 -0.10850365
-0.19419722 -0.014579173 -0.10850655
-0.1942063 -0.014507572 -0.10851746
-0.19421633 -0.014434293 -0.10851435
-0.19422638 -0.014363126 -0.10850529
-0.19423699 -0.014290106 -0.10849021
-0.19424731 -0.014216956 -0.10848112
-0.19425677 -0.014145529 -0.10848404
-0.19426671 -0.014072206 -0.10848293
-0.19427636 -0.014000865 -0.10848185
-0.19428551 -0.013927197 -0.10849673
-0.19429439 -0.01385551 -0.10851163
-0.19430338 -0.013783867 -0.10852455
-0.19431272 -0.013710285 -0.10853542
-0.19432169 -0.013638641 -0.10854834
-0.19433153 -0.013565275 -0.10854923
-0.19434148 -0.013494064 -0.10854216
-0.19435239 -0.013421174 -0.10852109
-0.1943633 -0.013348284 -0.10850002
-0.19437265 -0.013276814 -0.10850494
-0.1943818 -0.013203145 -0.1085198
-0.19439068 -0.013131458 -0.10853471
-0.19439957 -0.013059771 -0.10854961
-0.19440891 -0.012986189 -0.10856049
-0.19441809 -0.012914632 -0.10856941
-0.19442743 -0.01284105 -0.10858028
-0.19443765 -0.012767858 -0.10857318
-0.1944479 -0.012696777 -0.10856014
-0.19445832 -0.01262367 -0.10854905
-0.19446827 -0.012552459 -0.10854198
-0.19447762 -0.012478877 -0.10855286
-0.19448659 -0.012407233 -0.10856577
-0.19449593 -0.012333651 -0.10857664
-0.1945053 -0.01226218 -0.10858156
-0.19451582 -0.012189117 -0.10856847
-0.19452605 -0.012115925 -0.10856138
-0.19453521 -0.012044367 -0.10857029
-0.1945442 -0.011972724 -0.1085832
-0.19455384 -0.011899272 -0.10858809
-0.19456349 -0.011827931 -0.10858702
-0.1945738 -0.011754781 -0.10857793
-0.19458383 -0.011681502 -0.10857482
-0.19459252 -0.011609728 -0.10859372
-0.19460072 -0.011537739 -0.1086226
-0.19460967 -0.011463984 -0.10864148
-0.19461827 -0.011392168 -0.10866236
-0.19462761 -0.011318586 -0.10867324
-0.19463708 -0.011247158 -0.10867617
-0.19464691 -0.011173792 -0.10867706
-0.19465667 -0.011102495 -0.10867399
-0.19466689 -0.011029302 -0.1086669
-0.1946775 -0.010956282 -0.10865181
-0.19468804 -0.010885331 -0.10863277
-0.19469903 -0.010812484 -0.1086097
-0.19470918 -0.01074136 -0.10859863
-0.19471805 -0.010667561 -0.10861949
-0.19472632 -0.010593504 -0.10865235
-0.19473509 -0.010521773 -0.10866925
-0.19474415 -0.010448061 -0.10868612
-0.19475333 -0.010376504 -0.10869503
-0.19476326 -0.010303182 -0.10869393
-0.19477272 -0.010231754 -0.10869685
-0.19478264 -0.010158432 -0.10869575
-0.19479297 -0.010085282 -0.10868666
-0.19480331 -0.010014244 -0.10867161
-0.19481353 -0.0099410517 -0.10866451
-0.19482271 -0.0098694945 -0.10867342
-0.19483215 -0.0097959554 -0.1086823
-0.19484143 -0.0097244419 -0.10868921
-0.19485086 -0.0096509028 -0.1086981
-0.19486012 -0.009577278 -0.10871097
-0.19486947 -0.0095058074 -0.10871589
-0.1948795 -0.0094325282 -0.10871279
-0.19488907 -0.0093611442 -0.10871372
-0.19489773 -0.0092872586 -0.10873858
-0.19490668 -0.0092135035 -0.10875744
-0.19491616 -0.0091420766 -0.10876036
-0.19492619 -0.0090687973 -0.10875726
-0.19493634 -0.0089976732 -0.10874619
-0.19494635 -0.008924393 -0.1087431
-0.19495638 -0.0088511147 -0.10874
-0.19496575 -0.0087796431 -0.10874492
-0.19497471 -0.0087058889 -0.10876378
-0.19498415 -0.0086323498 -0.10877267
-0.19499439 -0.0085612684 -0.10875962
-0.1950053 -0.0084883785 -0.10873853
-0.19501564 -0.00841734 -0.10872348
-0.1950253 -0.0083459998 -0.1087224
-0.19503485 -0.0082725044 -0.1087293
-0.19504409 -0.0081988787 -0.10874217
-0.19505343 -0.0081252968 -0.10875306
-0.1950627 -0.0080537833 -0.10875997
-0.19507292 -0.0079805907 -0.10875287
-0.19508298 -0.0079094227 -0.10874382
-0.19509262 -0.0078359693 -0.1087487
-0.19510166 -0.0077622579 -0.10876557
-0.19511065 -0.0076906146 -0.10877848
-0.19512057 -0.007617292 -0.10877738
-0.19513069 -0.007544056 -0.10877227
-0.19514036 -0.0074727153 -0.1087712
-0.19515058 -0.0073995227 -0.1087641
-0.19516063 -0.0073283548 -0.10875504
-0.19516969 -0.0072546424 -0.10877192
-0.19517815 -0.0071806717 -0.10880077
-0.19518788 -0.0071072625 -0.10880366
-0.19519803 -0.0070361379 -0.1087926
-0.19520786 -0.0069627725 -0.1087935
-0.19521752 -0.0068914313 -0.10879242
-0.19522706 -0.006817936 -0.10879931
-0.19523622 -0.006744267 -0.10881418
-0.19524585 -0.0066708149 -0.10881907
-0.19525541 -0.0065994309 -0.10881998
-0.19526553 -0.0065261945 -0.1088149
-0.19527566 -0.006452959 -0.1088098
-0.19528513 -0.0063815312 -0.10881272
-0.19529516 -0.006308252 -0.10880962
-0.1953053 -0.0062371278 -0.10879856
-0.19531552 -0.0061639347 -0.10879147
-0.19532558 -0.0060927672 -0.1087824
-0.19533628 -0.0060197907 -0.10876532
-0.19534634 -0.0059486227 -0.10875626
-0.19535558 -0.0058749975 -0.10876913
-0.19536503 -0.0058014584 -0.10877801
-0.19537488 -0.0057302043 -0.10877295
-0.19538559 -0.0056572277 -0.10875587
-0.19539613 -0.0055862758 -0.10873682
-0.19540577 -0.0055128234 -0.10874171
-0.19541442 -0.0054389392 -0.10876657
-0.19542308 -0.0053650546 -0.10879143
-0.19543214 -0.0052913427 -0.1088083
-0.19544119 -0.0052176304 -0.10882518
-0.19545086 -0.0051462897 -0.1088241
-0.19546147 -0.0050732703 -0.10880901
-0.19547142 -0.005002059 -0.10880195
-0.19548115 -0.0049286499 -0.10880484
-0.19549108 -0.0048553273 -0.10880374
-0.19550084 -0.0047840299 -0.10880066
-0.19551048 -0.0047105784 -0.10880555
-0.19551973 -0.0046369522 -0.10881843
-0.19552888 -0.0045632836 -0.10883331
-0.19553842 -0.0044897879 -0.1088402
-0.19554798 -0.0044184043 -0.10884111
-0.19555742 -0.0043448657 -0.10884999
-0.19556616 -0.0042689126 -0.10887882
-0.19557472 -0.0041949847 -0.10890567
-0.19558406 -0.0041214023 -0.10891656
-0.19559421 -0.0040502781 -0.10890549
-0.19560456 -0.0039792401 -0.10889044
-0.19561429 -0.0039058309 -0.10889333
-0.19562314 -0.0038320324 -0.1089142
-0.19563188 -0.0037560789 -0.10894303
-0.19564055 -0.0036821952 -0.10896789
-0.19565009 -0.003608699 -0.10897477
-0.1956604 -0.0035355501 -0.10896567
-0.19567095 -0.0034645982 -0.10894662
-0.19568118 -0.0033935169 -0.10893358
-0.19569102 -0.003320151 -0.10893446
-0.19570027 -0.0032465262 -0.10894734
-0.19570951 -0.0031729005 -0.10896022
-0.19571896 -0.0030993614 -0.1089691
-0.1957283 -0.0030257795 -0.10897999
-0.19573754 -0.0029521547 -0.10899286
-0.19574718 -0.0028787022 -0.10899775
-0.19575731 -0.0028054658 -0.10899266
-0.19576706 -0.0027341684 -0.10898957
-0.195777 -0.0026608454 -0.10898847
-0.19578654 -0.0025873501 -0.10899536
-0.19579598 -0.0025138119 -0.10900424
-0.1958058 -0.0024404461 -0.10900513
-0.19581586 -0.0023692781 -0.10899608
-0.19582589 -0.0022959989 -0.10899297
-0.19583513 -0.0022223732 -0.10900585
-0.19584399 -0.0021485751 -0.10902672
-0.19585334 -0.0020749932 -0.1090376
-0.19586307 -0.0020015836 -0.10904049
-0.19587301 -0.0019282615 -0.10903938
-0.19588274 -0.0018548528 -0.10904226
-0.1958922 -0.001783425 -0.10904519
-0.19590242 -0.0017102333 -0.1090381
-0.19591257 -0.0016391082 -0.10902704
-0.19592257 -0.0015637176 -0.1090299
-0.19593194 -0.001492247 -0.10903482
-0.19594246 -0.0014191829 -0.10902173
-0.19595309 -0.0013482757 -0.10900069
-0.19596314 -0.0012771077 -0.10899162
-0.19597295 -0.0012016306 -0.10899848
-0.1959821 -0.0011279611 -0.10901336
-0.19599105 -0.0010542069 -0.10903222
-0.19600017 -0.00097842701 -0.10905306
-0.19600943 -0.0009048013 -0.10906594
-0.19601928 -0.00083354767 -0.10906087
-0.1960298 -0.00076048356 -0.10904778
-0.19603956 -0.00068918616 -0.10904472
-0.19604947 -0.00061375275 -0.10904957
-0.1960589 -0.00054021366 -0.10905845
-0.19606863 -0.00046680402 -0.10906135
-0.19607858 -0.00039559416 -0.10905428
-0.19608814 -0.00032209791 -0.10906116
-0.19609736 -0.0002463609 -0.10908
-0.1961066 -0.00017273612 -0.10909288
-0.19611624 -9.9283643e-05 -0.10909776
-0.19612548 -2.5658868e-05 -0.10911064
-0.19613492 4.7880225e-05 -0.10911953
-0.19614446 0.00012137648 -0.10912641
-0.1961543 0.00019474141 -0.10912731
-0.19616441 0.00026797876 -0.10912221
-0.19617406 0.00034143031 -0.1091271
-0.19618408 0.00041470863 -0.10912399
-0.19619414 0.00048587751 -0.10911493
-0.19620396 0.00055924337 -0.10911582
-0.19621418 0.00063243601 -0.10910873
-0.19622424 0.00070360303 -0.10909966
-0.19623475 0.00077666622 -0.10908658
-0.19624451 0.00084796362 -0.10908351
-0.19625384 0.00092365779 -0.10910035
-0.19626287 0.00099948049 -0.10912319
-0.19627249 0.0010729339 -0.10912808
-0.19628245 0.0011441438 -0.10912101
-0.19629267 0.0012173364 -0.10911391
-0.19630273 0.0012885053 -0.10910484
-0.19631246 0.001361914 -0.10910774
-0.1963221 0.0014353665 -0.10911263
-0.19633161 0.0015109731 -0.10912548
-0.19634047 0.0015847711 -0.10914634
-0.19635017 0.0016602911 -0.1091552
-0.1963602 0.0017335713 -0.10915209
-0.19637015 0.0018047821 -0.10914503
-0.19638029 0.0018780185 -0.10913993
-0.19639041 0.001951254 -0.10913484
-0.19639955 0.0020249225 -0.10914971
-0.19640927 0.0021004435 -0.10915856
-0.19641882 0.0021718275 -0.10915948
-0.19642837 0.0022453228 -0.10916637
-0.19643788 0.0023209294 -0.10917921
-0.19644801 0.0023941658 -0.10917412
-0.19645825 0.0024652472 -0.10916106
-0.19646819 0.0025385693 -0.10915996
-0.19647762 0.0026121084 -0.10916884
-0.19648772 0.0026874561 -0.10916971
-0.19649787 0.0027585803 -0.10915865
-0.1965079 0.0028318595 -0.10915554
-0.19651724 0.0029054424 -0.10916642
-0.19652669 0.0029789805 -0.1091753
-0.19653669 0.0030543711 -0.10917816
-0.19654626 0.0031257551 -0.10917909
-0.19655615 0.0032011895 -0.10918395
-0.1965653 0.003274858 -0.10919882
-0.19657524 0.0033481801 -0.10919772
-0.19658546 0.0034213737 -0.10919063
-0.196595 0.003494869 -0.10919751
-0.19660492 0.0035681911 -0.10919641
-0.19661525 0.0036413409 -0.10918731
-0.1966251 0.0037125954 -0.10918225
-0.19663543 0.0037857443 -0.10917315
-0.19664596 0.0038566962 -0.10915411
-0.19665599 0.0039299754 -0.10915101
-0.1966646 0.0040080827 -0.10918779
-0.19667283 0.0040863641 -0.10923256
-0.19668226 0.0041599032 -0.10924145
-0.19669229 0.0042331815 -0.10923834
-0.19670244 0.0043043066 -0.10922728
-0.19671257 0.0043775439 -0.10922219
-0.1967226 0.0044508222 -0.10921908
-0.19673264 0.0045219883 -0.10921002
-0.19674206 0.0045976397 -0.10922486
-0.19675136 0.0046754442 -0.10924767
-0.1967615 0.0047465693 -0.10923661
-0.19677192 0.0048196763 -0.10922552
-0.19678165 0.004893085 -0.10922841
-0.19679098 0.0049687773 -0.10924526
-0.19680023 0.0050424039 -0.10925813
-0.19681013 0.0051178373 -0.10926299
-0.19681996 0.0051912032 -0.10926389
-0.19682989 0.0052645244 -0.10926278
-0.19683982 0.0053378474 -0.10926168
-0.19684985 0.0054111276 -0.10925857
-0.19685987 0.0054844059 -0.10925548
-0.19686951 0.0055578593 -0.10926036
-0.19687854 0.005633682 -0.1092832
-0.19688806 0.0057092886 -0.10929605
-0.19689779 0.0057826973 -0.10929893
-0.19690779 0.0058580898 -0.1093018
-0.19691743 0.0059315413 -0.10930669
-0.19692697 0.0060050357 -0.10931357
-0.19693668 0.0060805567 -0.10932242
-0.19694658 0.0061559919 -0.10932728
-0.19695634 0.0062272884 -0.1093242
-0.19696654 0.0063025933 -0.10932307
-0.19697617 0.0063760448 -0.10932796
-0.19698542 0.0064496696 -0.10934084
-0.19699511 0.0065273028 -0.10935565
-0.19700475 0.0066007543 -0.10936055
-0.19701467 0.0066740755 -0.10935944
-0.19702448 0.0067495536 -0.1093663
-0.19703373 0.0068231802 -0.10937916
-0.19704331 0.0069008563 -0.10939598
-0.19705266 0.0069744363 -0.10940686
-0.19706286 0.0070497394 -0.10940573
-0.1970723 0.0071232803 -0.10941461
-0.19708185 0.0071967747 -0.1094215
-0.19709235 0.0072698388 -0.10940841
-0.1971025 0.0073409621 -0.10939735
-0.19711231 0.007416442 -0.10940421
-0.19712213 0.0074919164 -0.10941106
-0.19713156 0.0075654574 -0.10941995
-0.19714166 0.0076408032 -0.10942081
-0.197152 0.0077118408 -0.10940575
-0.19716264 0.0077827498 -0.10938471
-0.19717237 0.0078561604 -0.1093876
-0.19718209 0.0079316795 -0.10939646
-0.19719201 0.0080050025 -0.10939535
-0.19720224 0.0080781952 -0.10938825
-0.19721256 0.008151345 -0.10937916
-0.19722259 0.0082246233 -0.10937607
-0.19723241 0.0082979891 -0.10937696
-0.19725104 0.0084514897 -0.1094166
-0.19726104 0.0085268784 -0.10941946
-0.19727065 0.0086024404 -0.10943031
-0.19727987 0.0086781792 -0.10944915
-0.1972896 0.0087515879 -0.10945205
-0.19730024 0.008822497 -0.10943099
-0.19731136 0.0088931881 -0.10939997
-0.19732183 0.0089620706 -0.10937695
-0.19733225 0.0090351794 -0.10936587
-0.19734208 0.0091085434 -0.10936676
-0.19735198 0.0091839768 -0.10937162
-0.1973615 0.0092595853 -0.10938445
-0.19737172 0.0093327779 -0.10937736
-0.19738311 0.0093970485 -0.10932446
-0.19739433 0.0094676986 -0.10929143
-0.19740498 0.0095364954 -0.10926442
-0.19741501 0.0096097738 -0.10926133
-0.19742575 0.0096806381 -0.10923828
-0.19743694 0.0097449981 -0.10918937
-0.19744726 0.009818146 -0.10918027
-0.19745636 0.0098960381 -0.10920707
-0.19746523 0.0099782404 -0.10924979
-0.19747581 0.010044966 -0.10921881
-0.19748899 0.010104239 -0.10911803
-0.19750419 0.010150015 -0.10894353
-0.1926266 -0.025536351 -0.11035615
-0.19263862 -0.025459757 -0.11032303
-0.19266108 -0.025370985 -0.11011992
-0.19267625 -0.025289485 -0.11003878
-0.19269069 -0.025211861 -0.1099617
-0.19270396 -0.025133718 -0.10990857
-0.19271991 -0.025052562 -0.10981146
-0.19273442 -0.024972871 -0.10973834
-0.19274884 -0.024895245 -0.10966126
-0.19276068 -0.024818566 -0.10963213
-0.19277243 -0.024743954 -0.10959905
-0.19278486 -0.024667531 -0.10955794
-0.19279632 -0.024592791 -0.10953084
-0.1928072 -0.024517789 -0.10951573
-0.19281827 -0.024442874 -0.10949662
-0.19283128 -0.024366712 -0.10944353
-0.19416128 -0.014871089 -0.10844757
-0.19416964 -0.014797073 -0.10847842
-0.19417813 -0.014725214 -0.10850132
-0.1941877 -0.01465383 -0.10850224
-0.19419743 -0.01458042 -0.10850513
-0.19420651 -0.01450882 -0.10851604
-0.19421653 -0.014435541 -0.10851294
-0.19422659 -0.014364373 -0.10850387
-0.1942372 -0.014291354 -0.10848879
-0.19424751 -0.014218204 -0.10847971
-0.19425699 -0.014146777 -0.10848262
-0.19426692 -0.014073454 -0.10848152
-0.19427657 -0.014002113 -0.10848045
-0.19428572 -0.013928445 -0.10849532
-0.1942946 -0.013856758 -0.10851023
-0.19430368 -0.013785157 -0.10852113
-0.19431293 -0.013711533 -0.10853401
-0.194322 -0.013639932 -0.10854492
-0.19433174 -0.013566523 -0.10854781
-0.19434169 -0.013495312 -0.10854074
-0.1943526 -0.013422422 -0.10851967
-0.1943635 -0.013349532 -0.1084986
-0.19437286 -0.013278062 -0.10850351
-0.19438201 -0.013204393 -0.10851838
-0.19439089 -0.013132706 -0.10853329
-0.19439977 -0.01306102 -0.10854819
-0.19440913 -0.012987437 -0.10855907
-0.1944183 -0.01291588 -0.10856798
-0.19442774 -0.012842341 -0.10857686
-0.19443786 -0.012769105 -0.10857177
-0.19444811 -0.012698024 -0.10855871
-0.19445853 -0.012624918 -0.10854763
-0.19446848 -0.012553707 -0.10854056
-0.19447783 -0.012480125 -0.10855144
-0.19448681 -0.012408481 -0.10856435
-0.19449624 -0.012334942 -0.10857323
-0.19450551 -0.012263428 -0.10858014
-0.19451612 -0.012190409 -0.10856505
-0.19452626 -0.012117173 -0.10855996
-0.19453543 -0.012045615 -0.10856887
-0.19454451 -0.011974015 -0.10857978
-0.19455405 -0.011900519 -0.10858667
-0.1945637 -0.011829179 -0.1085856
-0.19457403 -0.011756029 -0.10857651
-0.19458406 -0.01168275 -0.1085734
-0.19459274 -0.011610976 -0.10859231
-0.19460094 -0.011538987 -0.10862119
-0.1946099 -0.011465232 -0.10864005
-0.19461848 -0.011393416 -0.10866094
-0.19462782 -0.011319834 -0.10867182
-0.19463728 -0.011248406 -0.10867475
-0.19464712 -0.01117504 -0.10867564
-0.19465688 -0.011103743 -0.10867257
-0.19466721 -0.011030593 -0.10866348
-0.19467781 -0.010957574 -0.1086484
-0.19468835 -0.010886622 -0.10862935
-0.19469926 -0.010813732 -0.10860828
-0.19470941 -0.010742608 -0.10859721
-0.19471826 -0.01066881 -0.10861807
-0.19472663 -0.010594795 -0.10864893
-0.19473541 -0.010523064 -0.10866582
-0.19474436 -0.010449309 -0.1086847
-0.19475354 -0.010377753 -0.10869361
-0.19476347 -0.01030443 -0.10869251
-0.19477293 -0.010233003 -0.10869543
-0.19478296 -0.010159723 -0.10869233
-0.19479328 -0.010086574 -0.10868324
-0.19480363 -0.010015536 -0.10866818
-0.19481374 -0.0099422997 -0.10866308
-0.19482292 -0.0098707424 -0.10867199
-0.19483237 -0.0097972043 -0.10868087
-0.19484164 -0.0097256899 -0.1086878
-0.19485109 -0.0096521508 -0.10869668
-0.19486032 -0.009578526 -0.10870955
-0.1948697 -0.0095070554 -0.10871447
-0.19487973 -0.0094337761 -0.10871138
-0.19488929 -0.0093623921 -0.10871229
-0.19489795 -0.0092885075 -0.10873716
-0.19490691 -0.0092147524 -0.10875601
-0.19491637 -0.0091433246 -0.10875894
-0.1949264 -0.0090700453 -0.10875584
-0.19493654 -0.0089989211 -0.10874478
-0.19494657 -0.0089256419 -0.10874168
-0.19495669 -0.0088524055 -0.10873658
-0.19496596 -0.008780892 -0.1087435
-0.19497491 -0.0087071368 -0.10876237
-0.19498447 -0.0086336415 -0.10876925
-0.19499461 -0.0085625164 -0.1087582
-0.19500551 -0.0084896274 -0.10873712
-0.19501585 -0.0084185889 -0.10872206
-0.19502552 -0.0083472477 -0.10872099
-0.19503495 -0.0082737096 -0.10872988
-0.19504431 -0.0082001276 -0.10874075
-0.19505365 -0.0081265457 -0.10875163
-0.19506301 -0.0080550741 -0.10875655
-0.19507323 -0.0079818815 -0.10874946
-0.19508319 -0.0079106707 -0.10874239
-0.19509283 -0.0078372182 -0.10874728
-0.19510189 -0.0077635068 -0.10876416
-0.19511086 -0.007691863 -0.10877706
-0.19512078 -0.0076185404 -0.10877595
-0.19513091 -0.0075453045 -0.10877085
-0.19514057 -0.0074739638 -0.10876978
-0.19515079 -0.0074007711 -0.10876269
-0.19516085 -0.0073296032 -0.10875362
-0.1951699 -0.0072558913 -0.1087705
-0.19517836 -0.0071819201 -0.10879935
-0.19518811 -0.0071085109 -0.10880224
-0.19519825 -0.0070373863 -0.10879118
-0.19520818 -0.0069640642 -0.10879008
-0.19521774 -0.0068926797 -0.10879099
-0.19522718 -0.0068191411 -0.10879988
-0.19523643 -0.0067455159 -0.10881276
-0.19524597 -0.0066720205 -0.10881964
-0.19525564 -0.0066006798 -0.10881857
-0.19526576 -0.0065274434 -0.10881348
-0.19527587 -0.0064542075 -0.10880838
-0.19528535 -0.0063827801 -0.1088113
-0.19529538 -0.0063095009 -0.1088082
-0.19530553 -0.0062383763 -0.10879714
-0.19531575 -0.0061651831 -0.10879005
-0.19532579 -0.0060940157 -0.10878098
-0.19533651 -0.0060210391 -0.1087639
-0.19534665 -0.0059499145 -0.10875284
-0.1953558 -0.0058762459 -0.10876772
-0.19536524 -0.0058027073 -0.1087766
-0.1953751 -0.0057314532 -0.10877153
-0.1953858 -0.0056584766 -0.10875445
-0.19539624 -0.0055874814 -0.10873739
-0.19540597 -0.0055140723 -0.10874029
-0.19541465 -0.0054401881 -0.10876516
-0.19542331 -0.005366303 -0.10879001
-0.19543226 -0.0052925479 -0.10880888
-0.19544141 -0.0052188793 -0.10882375
-0.19545107 -0.0051475381 -0.10882267
-0.19546168 -0.0050745192 -0.10880759
-0.19547154 -0.0050032651 -0.10880252
-0.19548137 -0.0049298983 -0.10880342
-0.1954913 -0.0048565762 -0.10880232
-0.19550095 -0.004785235 -0.10880125
-0.1955106 -0.0047117835 -0.10880613
-0.19551994 -0.0046382016 -0.10881702
-0.19552909 -0.004564533 -0.10883188
-0.19553863 -0.0044910368 -0.10883877
-0.19554819 -0.0044196527 -0.10883969
-0.19555764 -0.0043461146 -0.10884857
-0.19556628 -0.0042701182 -0.10887939
-0.19557494 -0.0041962331 -0.10890426
-0.19558428 -0.0041226512 -0.10891514
-0.19559443 -0.004051527 -0.10890407
-0.19560477 -0.003980489 -0.10888902
-0.1956145 -0.0039070798 -0.10889191
-0.19562337 -0.0038332813 -0.10891278
-0.1956321 -0.0037573283 -0.1089416
-0.19564076 -0.0036834441 -0.10896645
-0.19565031 -0.0036099488 -0.10897335
-0.19566062 -0.003536799 -0.10896425
-0.19567116 -0.0034658471 -0.10894521
-0.19568141 -0.0033947658 -0.10893215
-0.19569124 -0.0033213999 -0.10893305
-0.19570048 -0.0032477751 -0.10894592
-0.19570974 -0.0031741494 -0.1089588
-0.19571918 -0.0031006103 -0.10896768
-0.19572853 -0.0030270284 -0.10897855
-0.19573776 -0.0029534036 -0.10899143
-0.19574741 -0.0028799511 -0.10899632
-0.19575752 -0.0028067147 -0.10899123
-0.19576728 -0.0027354173 -0.10898815
-0.19577722 -0.0026620943 -0.10898705
-0.19578685 -0.0025886428 -0.10899194
-0.19579619 -0.0025150608 -0.10900282
-0.19580603 -0.002441695 -0.10900372
-0.19581608 -0.002370527 -0.10899466
-0.1958262 -0.0022972906 -0.10898956
-0.19583535 -0.002223623 -0.10900442
-0.19584422 -0.0021498241 -0.10902529
-0.19585356 -0.0020762421 -0.10903617
-0.19586319 -0.0020027896 -0.10904106
-0.19587322 -0.0019295104 -0.10903797
-0.19588296 -0.0018561017 -0.10904085
-0.19589242 -0.0017846739 -0.10904377
-0.19590265 -0.0017114822 -0.10903668
-0.19591279 -0.0016403571 -0.10902562
-0.19592279 -0.0015649665 -0.10902848
-0.19593216 -0.0014934959 -0.1090334
-0.19594267 -0.0014204327 -0.1090203
-0.19595331 -0.0013495246 -0.10899926
-0.19596326 -0.0012783138 -0.1089922
-0.19597317 -0.0012028795 -0.10899705
-0.19598232 -0.00112921 -0.10901193
-0.19599128 -0.0010554558 -0.1090308
-0.1960004 -0.00097967591 -0.10905164
-0.19600955 -0.00090600736 -0.10906651
-0.19601977 -0.00083281472 -0.10905942
-0.19603002 -0.00076173339 -0.10904636
-0.19603978 -0.00069043506 -0.10904329
-0.19604968 -0.00061500166 -0.10904814
-0.19605902 -0.00054141972 -0.10905903
-0.19606876 -0.00046801008 -0.10906192
-0.19607881 -0.00039684307 -0.10905285
-0.19608825 -0.00032330398 -0.10906173
-0.19609748 -0.00024756789 -0.10908058
-0.19610672 -0.00017394219 -0.10909345
-0.19611636 -0.00010048971 -0.10909835
-0.1961257 -2.6907772e-05 -0.10910922
-0.19613515 4.6631321e-05 -0.10911811
-0.19614495 0.00012210757 -0.10912495
-0.19615452 0.00019349251 -0.10912588
-0.19616464 0.00026672799 -0.10912078
-0.19617428 0.00034018047 -0.10912567
-0.19618431 0.00041345973 -0.10912257
-0.19619426 0.00048467144 -0.1091155
-0.19620419 0.00055799354 -0.1091144
-0.19621432 0.00063122995 -0.10910931
-0.19622447 0.00070235413 -0.10909824
-0.19623497 0.00077541731 -0.10908516
-0.19624473 0.00084671378 -0.10908208
-0.19625406 0.00092240795 -0.10909893
-0.19626318 0.00099818781 -0.10911977
-0.19627272 0.0010716831 -0.10912665
-0.19628258 0.0011429368 -0.10912158
-0.19629289 0.0012160875 -0.10911249
-0.19630295 0.0012872554 -0.10910343
-0.19631268 0.0013606641 -0.10910632
-0.19632222 0.0014341595 -0.10911321
-0.19633183 0.0015097233 -0.10912406
-0.1963407 0.0015835222 -0.10914492
-0.1963505 0.0016589984 -0.10915177
-0.19636042 0.0017323215 -0.10915066
-0.19637038 0.0018035322 -0.10914361
-0.1963805 0.0018767677 -0.1091385
-0.19639063 0.0019500051 -0.10913341
-0.19639987 0.0020236298 -0.10914628
-0.19640949 0.0020991936 -0.10915714
-0.19641905 0.0021705776 -0.10915806
-0.1964286 0.002244073 -0.10916495
-0.1964381 0.0023196805 -0.1091778
-0.19644813 0.0023929588 -0.10917469
-0.19645847 0.0024639983 -0.10915964
-0.19646841 0.0025373194 -0.10915854
-0.19647776 0.0026109023 -0.10916941
-0.19648795 0.0026862072 -0.10916828
-0.1964982 0.0027572876 -0.10915523
-0.19650812 0.0028306097 -0.10915413
-0.19651757 0.0029041488 -0.10916301
-0.196527 0.0029776869 -0.10917189
-0.19653691 0.0030531213 -0.10917675
-0.19654648 0.0031245062 -0.10917767
-0.19655637 0.0031999405 -0.10918252
-0.19656552 0.0032736082 -0.10919739
-0.19657546 0.0033469312 -0.10919629
-0.19658569 0.0034201238 -0.1091892
-0.19659522 0.0034936192 -0.10919609
-0.19660506 0.0035669841 -0.10919698
-0.19661528 0.0036401767 -0.10918989
-0.19662523 0.0037113884 -0.10918283
-0.19663574 0.0037844516 -0.10916974
-0.19664618 0.0038554464 -0.10915269
-0.19665611 0.0039287684 -0.10915158
-0.19666472 0.0040068766 -0.10918836
-0.19667305 0.0040851142 -0.10923113
-0.19668239 0.0041586962 -0.10924201
-0.19669251 0.0042319316 -0.10923692
-0.19670266 0.0043030567 -0.10922586
-0.19671279 0.0043762922 -0.10922077
-0.19672282 0.0044495724 -0.10921767
-0.19673286 0.0045207404 -0.1092086
-0.19674228 0.0045963898 -0.10922344
-0.19675158 0.0046741944 -0.10924625
-0.19676173 0.0047453195 -0.10923518
-0.19677214 0.0048184264 -0.1092241
-0.19678189 0.0048918352 -0.10922699
-0.1967912 0.0049675275 -0.10924383
-0.19680046 0.0050411541 -0.10925671
-0.19681035 0.0051165875 -0.10926156
-0.19682018 0.0051899534 -0.10926246
-0.19683002 0.0052633192 -0.10926335
-0.19684005 0.0053365976 -0.10926025
-0.19684997 0.0054099206 -0.10925915
-0.1968601 0.0054831561 -0.10925405
-0.19686973 0.0055566095 -0.10925893
-0.19687867 0.005632475 -0.10928377
-0.19688818 0.0057080816 -0.10929661
-0.19689801 0.0057814475 -0.10929751
-0.19690785 0.0058548134 -0.1092984
-0.19691776 0.0059302486 -0.10930326
-0.19692746 0.0060057677 -0.10931211
-0.1969368 0.0060793497 -0.10932299
-0.19694681 0.0061547421 -0.10932586
-0.19695656 0.0062260386 -0.10932279
-0.19696677 0.0063013434 -0.10932165
-0.1969763 0.0063748397 -0.10932853
-0.19698592 0.0064504016 -0.10933939
-0.19699533 0.006526053 -0.10935423
-0.19700487 0.0065995492 -0.10936111
-0.19701481 0.0066728704 -0.10936001
-0.19702461 0.0067483466 -0.10936687
-0.19703396 0.0068219304 -0.10937774
-0.19704355 0.0068996064 -0.10939456
-0.19705279 0.0069732293 -0.10940743
-0.19706298 0.0070485324 -0.10940629
-0.19707254 0.0071220305 -0.10941318
-0.19708216 0.007195482 -0.10941807
-0.19709268 0.0072685443 -0.10940499
-0.19710273 0.0073397122 -0.10939593
-0.19711244 0.007415235 -0.10940478
-0.19712225 0.0074907094 -0.10941163
-0.19713178 0.0075642038 -0.10941853
-0.1971418 0.0076395962 -0.10942139
-0.19715223 0.007710591 -0.10940433
-0.19716267 0.0077815857 -0.10938729
-0.1971726 0.0078549068 -0.10938618
-0.19718231 0.0079304278 -0.10939503
-0.19719224 0.0080037508 -0.10939392
-0.19720246 0.0080769435 -0.10938682
-0.19721279 0.0081500951 -0.10937774
-0.19722281 0.0082233734 -0.10937463
-0.19723265 0.0082967393 -0.10937554
-0.19724277 0.0083699748 -0.10937043
-0.19725135 0.0084501933 -0.10941318
-0.19726136 0.0085255858 -0.10941604
-0.19727078 0.0086012334 -0.10943088
-0.19728 0.0086769722 -0.10944971
-0.19729 0.0087523628 -0.10945258
-0.19730046 0.0088212471 -0.10942957
-0.1973114 0.0088920239 -0.10940254
-0.19732195 0.0089608636 -0.10937752
-0.19733247 0.0090339277 -0.10936444
-0.19734231 0.0091072936 -0.10936533
-0.19735222 0.009182727 -0.10937019
-0.19736172 0.0092583355 -0.10938303
-0.19737186 0.0093315709 -0.10937794
-0.19738351 0.0093978234 -0.10932499
-0.19739446 0.0094664916 -0.10929199
-0.19740522 0.0095352456 -0.109263
-0.19741525 0.0096085239 -0.1092599
-0.19742598 0.0096793883 -0.10923685
-0.19743735 0.0097457711 -0.10918991
-0.19744746 0.0098190065 -0.10918481
-0.19745639 0.0098948721 -0.10920964
-0.19746526 0.0099770743 -0.10925235
-0.19747591 0.010045871 -0.10922535
-0.19748874 0.010103201 -0.10912658
-0.19750442 0.010148766 -0.1089421
-0.19755034 0.010535939 -0.10906214
-0.19756097 0.010606848 -0.10904109
-0.19262604 -0.025537327 -0.11034451
-0.19263758 -0.025460519 -0.11032139
-0.19265994 -0.025371704 -0.11012027
-0.19267511 -0.025290202 -0.11003912
-0.19268991 -0.025210641 -0.10996001
-0.19270281 -0.025134437 -0.10990892
-0.19271876 -0.025053281 -0.10981181
-0.19273336 -0.024973631 -0.10973669
-0.19274798 -0.024893984 -0.10966157
-0.19275954 -0.024819285 -0.10963248
-0.19277149 -0.024744758 -0.1095954
-0.1927838 -0.024668295 -0.10955629
-0.19279528 -0.024593553 -0.10952919
-0.19280615 -0.024518549 -0.10951407
-0.19281723 -0.024443636 -0.10949497
-0.19283022 -0.024367474 -0.10944188
-0.19416013 -0.014871807 -0.10844792
-0.19416851 -0.014797792 -0.10847877
-0.19417709 -0.014725976 -0.10849967
-0.19418655 -0.014654549 -0.10850259
-0.19419628 -0.014581139 -0.10850547
-0.19420546 -0.014509582 -0.10851438
-0.19421539 -0.01443626 -0.10851328
-0.19422555 -0.014365135 -0.10850222
-0.19423606 -0.014292073 -0.10848914
-0.19424638 -0.014218923 -0.10848005
-0.19425593 -0.014147539 -0.10848098
-0.19426587 -0.014074216 -0.10847987
-0.19427544 -0.014002832 -0.10848079
-0.19428468 -0.013929207 -0.10849368
-0.19429347 -0.013857476 -0.10851057
-0.19430254 -0.013785876 -0.10852148
-0.19431189 -0.013712294 -0.10853236
-0.19432086 -0.013640651 -0.10854527
-0.19433069 -0.013567285 -0.10854616
-0.19434065 -0.013496074 -0.1085391
-0.19435155 -0.013423184 -0.10851802
-0.19436246 -0.013350294 -0.10849694
-0.19437182 -0.013278823 -0.10850186
-0.19438088 -0.013205111 -0.10851873
-0.19438985 -0.013133468 -0.10853164
-0.194399 -0.0130598 -0.10854651
-0.19440807 -0.012988199 -0.10855742
-0.19441716 -0.012916598 -0.10856833
-0.1944266 -0.012843059 -0.10857721
-0.19443673 -0.012769824 -0.10857211
-0.19444697 -0.012698743 -0.10855906
-0.19445738 -0.012625637 -0.10854798
-0.19446734 -0.012554426 -0.10854091
-0.19447678 -0.012480887 -0.10854979
-0.19448575 -0.012409243 -0.1085627
-0.19449511 -0.012335661 -0.10857358
-0.19450447 -0.01226419 -0.10857849
-0.19451499 -0.012191127 -0.10856541
-0.19452521 -0.012117934 -0.10855831
-0.19453429 -0.012046333 -0.10856922
-0.19454336 -0.011974733 -0.10858013
-0.194553 -0.011901282 -0.10858501
-0.19456255 -0.011829898 -0.10858595
-0.19457288 -0.011756748 -0.10857686
-0.194583 -0.011683512 -0.10857175
-0.1945916 -0.011611695 -0.10859265
-0.1945999 -0.011539749 -0.10861954
-0.19460875 -0.011465951 -0.1086404
-0.19461733 -0.011394134 -0.10866129
-0.19462667 -0.011320552 -0.10867217
-0.19463615 -0.011249125 -0.10867509
-0.19464599 -0.011175759 -0.10867599
-0.19465573 -0.011104462 -0.10867292
-0.19466606 -0.011031312 -0.10866383
-0.19467667 -0.010958293 -0.10864875
-0.1946872 -0.010887341 -0.1086297
-0.19469811 -0.010814451 -0.10860863
-0.19470826 -0.010743326 -0.10859756
-0.19471711 -0.010669528 -0.10861842
-0.19472548 -0.010595514 -0.10864927
-0.19473428 -0.010523783 -0.10866617
-0.19474332 -0.010450071 -0.10868305
-0.1947525 -0.010378514 -0.10869196
-0.19476232 -0.010305149 -0.10869285
-0.19477189 -0.010233765 -0.10869378
-0.19478182 -0.010160442 -0.10869268
-0.19479214 -0.010087293 -0.10868359
-0.19480248 -0.010016254 -0.10866853
-0.19481261 -0.0099430177 -0.10866343
-0.19482188 -0.0098715043 -0.10867034
-0.19483122 -0.0097979223 -0.10868122
-0.1948406 -0.0097264517 -0.10868614
-0.19485003 -0.0096529126 -0.10869502
-0.19485918 -0.009579245 -0.1087099
-0.19486855 -0.0095077734 -0.10871482
-0.19487867 -0.009434538 -0.10870972
-0.19488814 -0.0093631111 -0.10871264
-0.19489691 -0.0092892693 -0.1087355
-0.19490576 -0.0092154704 -0.10875636
-0.19491522 -0.0091440435 -0.10875928
-0.19492525 -0.0090707643 -0.10875619
-0.19493531 -0.0089995963 -0.10874712
-0.19494542 -0.0089263599 -0.10874203
-0.19495556 -0.0088531245 -0.10873693
-0.19496492 -0.0087816538 -0.10874184
-0.19497387 -0.0087078987 -0.10876072
-0.19498321 -0.0086343167 -0.10877159
-0.19499356 -0.0085632782 -0.10875654
-0.19500446 -0.0084903892 -0.10873547
-0.1950148 -0.0084193507 -0.10872041
-0.19502448 -0.0083480095 -0.10871934
-0.19503391 -0.0082744714 -0.10872822
-0.19504325 -0.0082008885 -0.1087391
-0.19505259 -0.0081273075 -0.10874998
-0.19506188 -0.0080557931 -0.1087569
-0.1950721 -0.0079826005 -0.10874981
-0.19508204 -0.0079113897 -0.10874274
-0.19509178 -0.0078379801 -0.10874563
-0.19510083 -0.0077642687 -0.1087625
-0.19510971 -0.0076925815 -0.10877741
-0.19511965 -0.0076192589 -0.1087763
-0.19512977 -0.007546023 -0.1087712
-0.19513942 -0.0074746823 -0.10877012
-0.19514965 -0.0074014897 -0.10876303
-0.19515979 -0.007330365 -0.10875197
-0.19516875 -0.0072566099 -0.10877085
-0.19517723 -0.0071826386 -0.1087997
-0.19518696 -0.0071092295 -0.10880259
-0.19519711 -0.0070381053 -0.10879153
-0.19520703 -0.0069647823 -0.10879043
-0.1952166 -0.0068933982 -0.10879134
-0.19522613 -0.0068199029 -0.10879823
-0.19523539 -0.0067462777 -0.1088111
-0.19524492 -0.0066727819 -0.10881799
-0.19525458 -0.0066014412 -0.10881692
-0.19526471 -0.0065282052 -0.10881183
-0.19527474 -0.006454926 -0.10880873
-0.19528429 -0.006383542 -0.10880965
-0.19529423 -0.0063102194 -0.10880855
-0.19530438 -0.0062390948 -0.10879749
-0.1953145 -0.0061658588 -0.10879239
-0.19532464 -0.0060947342 -0.10878132
-0.19533536 -0.0060217576 -0.10876424
-0.19534551 -0.005950633 -0.10875318
-0.19535466 -0.0058769649 -0.10876806
-0.19536419 -0.0058034691 -0.10877495
-0.19537406 -0.005732215 -0.10876988
-0.19538467 -0.0056591951 -0.1087548
-0.1953952 -0.0055882432 -0.10873575
-0.19540484 -0.0055147908 -0.10874064
-0.1954135 -0.0054409066 -0.1087655
-0.19542216 -0.005367022 -0.10879035
-0.19543111 -0.0052932668 -0.10880923
-0.19544026 -0.0052195983 -0.1088241
-0.19544993 -0.0051482571 -0.10882302
-0.19546054 -0.0050752377 -0.10880794
-0.19547039 -0.0050039832 -0.10880287
-0.19548023 -0.0049306173 -0.10880377
-0.19549015 -0.0048572943 -0.10880267
-0.19549991 -0.0047859969 -0.10879959
-0.19550955 -0.0047125453 -0.10880448
-0.1955189 -0.0046389634 -0.10881536
-0.19552805 -0.0045652944 -0.10883023
-0.19553749 -0.0044917553 -0.10883912
-0.19554704 -0.0044203713 -0.10884003
-0.19555649 -0.0043468331 -0.10884891
-0.19556522 -0.0042708796 -0.10887775
-0.19557379 -0.0041969516 -0.1089046
-0.19558313 -0.0041233697 -0.10891549
-0.19559328 -0.0040522451 -0.10890442
-0.19560373 -0.0039812503 -0.10888737
-0.19561337 -0.0039077983 -0.10889226
-0.19562222 -0.0038339999 -0.10891313
-0.19563095 -0.0037580468 -0.10894195
-0.19563963 -0.0036841622 -0.10896681
-0.19564916 -0.0036106668 -0.10897369
-0.19565947 -0.003537517 -0.1089646
-0.19566992 -0.0034665223 -0.10894755
-0.19568026 -0.0033954838 -0.1089325
-0.1956901 -0.0033221189 -0.10893339
-0.19569933 -0.0032484932 -0.10894627
-0.19570859 -0.0031748675 -0.10895915
-0.19571804 -0.0031013293 -0.10896803
-0.19572738 -0.0030277465 -0.1089789
-0.19573662 -0.0029541217 -0.10899178
-0.19574626 -0.0028806701 -0.10899667
-0.19575638 -0.0028074337 -0.10899158
-0.19576614 -0.0027361354 -0.1089885
-0.19577616 -0.0026628561 -0.1089854
-0.1957857 -0.0025893617 -0.10899229
-0.19579515 -0.0025158226 -0.10900117
-0.19580488 -0.0024424139 -0.10900406
-0.19581494 -0.0023712451 -0.10899501
-0.19582497 -0.0022979658 -0.1089919
-0.1958342 -0.002224341 -0.10900477
-0.19584307 -0.002150543 -0.10902563
-0.19585231 -0.0020769173 -0.10903852
-0.19586204 -0.0020035086 -0.10904141
-0.19587207 -0.0019302294 -0.10903831
-0.1958819 -0.0018568635 -0.1090392
-0.19589128 -0.0017853919 -0.10904412
-0.1959015 -0.0017122002 -0.10903703
-0.19591165 -0.0016410751 -0.10902597
-0.19592164 -0.0015656855 -0.10902883
-0.19593102 -0.0014942139 -0.10903374
-0.19594143 -0.001421107 -0.10902265
-0.19595216 -0.0013502426 -0.10899961
-0.19596212 -0.0012790319 -0.10899255
-0.19597203 -0.0012035975 -0.1089974
-0.19598117 -0.001129929 -0.10901228
-0.19599013 -0.0010561738 -0.10903115
-0.19599925 -0.00098039396 -0.10905199
-0.1960084 -0.00090672541 -0.10906686
-0.19601862 -0.00083353277 -0.10905977
-0.19602887 -0.00076245144 -0.10904671
-0.19603863 -0.00069115311 -0.10904364
-0.19604853 -0.00061571971 -0.10904849
-0.19605798 -0.00054218154 -0.10905737
-0.19606771 -0.0004687719 -0.10906027
-0.19607766 -0.00039756112 -0.1090532
-0.19608711 -0.00032402202 -0.10906208
-0.19609633 -0.00024828594 -0.10908092
-0.19610557 -0.00017466117 -0.10909379
-0.19611531 -0.00010125153 -0.10909669
-0.19612455 -2.7626753e-05 -0.10910957
-0.196134 4.5913272e-05 -0.10911845
-0.19614354 0.00011940766 -0.10912533
-0.19615337 0.00019277446 -0.10912623
-0.19616349 0.00026600994 -0.10912113
-0.19617324 0.00033941958 -0.10912402
-0.19618316 0.00041274168 -0.10912292
-0.19619311 0.00048395246 -0.10911585
-0.19620304 0.00055727456 -0.10911474
-0.19621326 0.00063046813 -0.10910766
-0.19622332 0.00070163514 -0.10909859
-0.19623366 0.00077267271 -0.10908354
-0.19624369 0.00084595289 -0.10908043
-0.19625291 0.00092168991 -0.10909927
-0.19626203 0.00099746976 -0.10912011
-0.19627157 0.0010709651 -0.109127
-0.19628152 0.0011421749 -0.10911993
-0.19629174 0.0012153685 -0.10911284
-0.1963018 0.0012865365 -0.10910377
-0.19631153 0.0013599461 -0.10910667
-0.19632107 0.0014334414 -0.10911355
-0.19633068 0.0015090052 -0.10912441
-0.19633955 0.0015828032 -0.10914526
-0.19634935 0.0016582804 -0.10915212
-0.19635938 0.0017315596 -0.10914902
-0.19636923 0.0018028142 -0.10914395
-0.19637936 0.0018760497 -0.10913885
-0.19638938 0.0019493299 -0.10913575
-0.19639874 0.0020229109 -0.10914663
-0.19640835 0.0020984756 -0.10915749
-0.1964179 0.0021698587 -0.1091584
-0.19642745 0.0022433549 -0.1091653
-0.19643696 0.0023189615 -0.10917814
-0.19644699 0.0023922408 -0.10917504
-0.19645733 0.0024632802 -0.10915998
-0.19646727 0.0025366014 -0.10915888
-0.1964767 0.0026101405 -0.10916776
-0.19648653 0.0026835054 -0.10916866
-0.19649705 0.0027565695 -0.10915557
-0.19650698 0.0028298916 -0.10915447
-0.19651642 0.0029034307 -0.10916335
-0.19652596 0.002976926 -0.10917024
-0.19653586 0.0030523594 -0.1091751
-0.19654542 0.0031237444 -0.10917601
-0.19655523 0.0031992216 -0.10918287
-0.19656438 0.0032728901 -0.10919774
-0.19657421 0.003346256 -0.10919864
-0.19658443 0.0034194486 -0.10919154
-0.19659407 0.0034929011 -0.10919643
-0.196604 0.0035662223 -0.10919533
-0.19661422 0.0036394158 -0.10918824
-0.19662409 0.0037106704 -0.10918317
-0.19663459 0.0037837336 -0.10917009
-0.19664504 0.0038547283 -0.10915304
-0.19665496 0.0039280504 -0.10915193
-0.19666348 0.0040062014 -0.1091907
-0.1966719 0.0040843962 -0.10923148
-0.19668125 0.0041579772 -0.10924236
-0.19669136 0.0042312127 -0.10923726
-0.19670151 0.0043023378 -0.1092262
-0.19671164 0.0043755751 -0.10922111
-0.19672167 0.0044488534 -0.10921801
-0.19673172 0.0045200214 -0.10920895
-0.19674113 0.0045956708 -0.10922379
-0.19675043 0.0046734773 -0.10924659
-0.19676049 0.0047446452 -0.10923753
-0.196771 0.0048177075 -0.10922444
-0.19678074 0.0048911162 -0.10922733
-0.19678979 0.0049648285 -0.10924421
-0.1967994 0.0050403923 -0.10925506
-0.1968092 0.0051158685 -0.10926191
-0.19681904 0.0051892344 -0.10926281
-0.19682887 0.0052626003 -0.1092637
-0.1968389 0.0053358804 -0.1092606
-0.19684893 0.0054091588 -0.1092575
-0.19685905 0.0054823961 -0.1092524
-0.19686869 0.0055558477 -0.10925729
-0.19687761 0.0056317151 -0.10928212
-0.19688703 0.0057073645 -0.10929696
-0.19689687 0.0057807285 -0.10929785
-0.1969067 0.0058540963 -0.10929875
