# .PCD v0.7 - Point Cloud Data file format
VERSION 0.7
FIELDS x y z
SIZE 4 4 4
TYPE F F F
COUNT 1 1 1
WIDTH 1260
HEIGHT 1
VIEWPOINT 0 0 0 1 0 0 0
POINTS 1260
DATA ascii
-0.041713178 -0.014966547 -0.10146852
-0.041722231 -0.014892835 -0.10148539
-0.041731868 -0.014819383 -0.10149027
-0.041741628 -0.014748085 -0.10148721
-0.04175175 -0.014674849 -0.10148211
-0.041761875 -0.014601612 -0.10147702
-0.041771438 -0.014530228 -0.10147794
-0.041781466 -0.01445695 -0.10147484
-0.041791324 -0.014385696 -0.10146978
-0.041801546 -0.014312502 -0.10146268
-0.041811962 -0.014239396 -0.1014516
-0.041822597 -0.014168488 -0.10143055
-0.041832749 -0.014097363 -0.10141949
-0.041841701 -0.014023608 -0.10143836
-0.041851144 -0.013950069 -0.10144725
-0.04186156 -0.013876963 -0.10143615
-0.041872099 -0.013806012 -0.10141711
-0.041882347 -0.013734929 -0.10140406
-0.041891888 -0.013661435 -0.10141094
-0.041900549 -0.01358755 -0.1014358
-0.041909307 -0.013513708 -0.10145866
-0.04191836 -0.013439998 -0.10147553
-0.041927218 -0.0133662 -0.1014964
-0.041937344 -0.013292964 -0.10149131
-0.041947782 -0.013221969 -0.10147426
-0.041957907 -0.013148732 -0.10146916
-0.041967474 -0.013077348 -0.10147008
-0.041977402 -0.013004025 -0.10146898
-0.041986965 -0.012932641 -0.10146991
-0.041996311 -0.01285906 -0.10148079
-0.042005461 -0.012785392 -0.10149566
-0.04201461 -0.012711724 -0.10151053
-0.042024344 -0.012638315 -0.10151343
-0.04203447 -0.012565078 -0.10150833
-0.042043447 -0.012493435 -0.10152125
-0.042052086 -0.012417439 -0.10155206
-0.042060945 -0.012343641 -0.10157292
-0.042070191 -0.012270017 -0.10158581
-0.042080339 -0.012198891 -0.10157475
-0.042090952 -0.012125872 -0.10155966
-0.042100687 -0.012052463 -0.10156256
-0.042109445 -0.011978622 -0.10158543
-0.042118013 -0.011904694 -0.10161228
-0.042126674 -0.01183081 -0.10163715
-0.042136312 -0.011757358 -0.10164203
-0.042146727 -0.011684251 -0.10163094
-0.042157073 -0.011613213 -0.10161589
-0.042167585 -0.011540149 -0.1016028
-0.042177051 -0.011468722 -0.10160573
-0.042186398 -0.011395141 -0.10161661
-0.042195644 -0.011321516 -0.10162949
-0.042205088 -0.011247978 -0.10163837
-0.042214528 -0.011174439 -0.10164725
-0.042223778 -0.011100814 -0.10166012
-0.042233415 -0.011027361 -0.10166502
-0.042243734 -0.010954211 -0.10165592
-0.042253591 -0.010882957 -0.10165086
-0.042263422 -0.010809591 -0.10165177
-0.042272765 -0.01073601 -0.10166264
-0.042282209 -0.010662471 -0.10167152
-0.04229214 -0.010589149 -0.10167042
-0.042302191 -0.010517981 -0.10166136
-0.042312313 -0.010444744 -0.10165627
-0.042321268 -0.01037099 -0.10167513
-0.04233003 -0.010297149 -0.101698
-0.042339642 -0.010221586 -0.10170884
-0.042349305 -0.010150244 -0.10170777
-0.042359233 -0.010076922 -0.10170667
-0.042368967 -0.010003514 -0.10170956
-0.042378604 -0.0099300612 -0.10171445
-0.042388462 -0.0098588075 -0.10170938
-0.042398781 -0.0097856577 -0.10170029
-0.042408515 -0.0097122481 -0.10170318
-0.042418346 -0.0096388822 -0.10170408
-0.042428885 -0.0095679294 -0.10168503
-0.042439524 -0.0094970223 -0.10166399
-0.042449377 -0.0094257686 -0.10165893
-0.042459186 -0.0093502905 -0.10166578
-0.042468436 -0.0092766657 -0.10167865
-0.042477194 -0.009202824 -0.10170153
-0.042486321 -0.0091270451 -0.10172235
-0.042495858 -0.0090535497 -0.10172924
-0.04250608 -0.0089803562 -0.10172215
-0.042516034 -0.0089091454 -0.10171509
-0.042525966 -0.0088358223 -0.10171399
-0.042535603 -0.0087623708 -0.10171887
-0.042545043 -0.0086888317 -0.10172775
-0.042554781 -0.008615423 -0.10173064
-0.042564731 -0.0085442122 -0.10172359
-0.042574368 -0.0084707597 -0.10172847
-0.042583592 -0.0083950236 -0.10174731
-0.042592842 -0.0083213989 -0.10176019
-0.042602282 -0.0082478598 -0.10176907
-0.042611822 -0.0081743654 -0.10177597
-0.042621266 -0.0081008263 -0.10178485
-0.042631075 -0.0080253491 -0.1017917
-0.042640734 -0.0079540079 -0.10179063
-0.042650566 -0.0078806421 -0.10179153
-0.042660203 -0.0078071896 -0.10179642
-0.042670231 -0.0077339122 -0.10179331
-0.042680454 -0.0076607186 -0.10178622
-0.042690311 -0.0075894641 -0.10178115
-0.04270063 -0.0075163133 -0.10177206
-0.042710777 -0.0074451892 -0.101761
-0.04272129 -0.0073721269 -0.10174792
-0.042731222 -0.0072988039 -0.10174682
-0.042740077 -0.0072250059 -0.10176768
-0.042749107 -0.0071491832 -0.10179052
-0.042758938 -0.0070758173 -0.1017914
-0.042768992 -0.0070046503 -0.10178235
-0.042779114 -0.0069314139 -0.10177726
-0.042789165 -0.006860245 -0.1017682
-0.042799097 -0.0067869229 -0.10176709
-0.04280854 -0.0067133838 -0.10177597
-0.042817958 -0.0066377344 -0.10179082
-0.042827081 -0.0065619554 -0.10181165
-0.042836621 -0.0064884592 -0.10181855
-0.042846553 -0.006415138 -0.10181744
-0.042856507 -0.0063439263 -0.10181038
-0.042866729 -0.0062707337 -0.10180328
-0.042876657 -0.0061974106 -0.10180218
-0.042885806 -0.006123743 -0.10181706
-0.042895518 -0.0060482221 -0.10182591
-0.042905349 -0.0059748562 -0.1018268
-0.04291489 -0.0059013609 -0.10183369
-0.042924136 -0.0058277361 -0.10184656
-0.042934261 -0.0057545006 -0.10184147
-0.042944875 -0.0056814793 -0.10182639
-0.042954631 -0.0056101829 -0.10182332
-0.042964172 -0.0055366876 -0.10183021
-0.042974174 -0.0054612961 -0.10183308
-0.042984225 -0.0053901291 -0.10182401
-0.042994156 -0.005316806 -0.10182291
-0.043003671 -0.0052411994 -0.10183576
-0.043013308 -0.0051677478 -0.10184065
-0.043023139 -0.005094381 -0.10184154
-0.043032877 -0.0050209733 -0.10184442
-0.043042414 -0.004947477 -0.10185131
-0.043051761 -0.0048738951 -0.1018622
-0.043061789 -0.0048006158 -0.10185909
-0.043071911 -0.0047273804 -0.101854
-0.043081548 -0.0046539269 -0.10185889
-0.04309148 -0.0045806048 -0.10185779
-0.043101605 -0.0045073694 -0.10185269
-0.04311163 -0.0044340901 -0.1018496
-0.043122072 -0.0043630945 -0.10183255
-0.043132514 -0.0042920997 -0.1018155
-0.043142151 -0.0042186482 -0.10182039
-0.043150667 -0.0041404972 -0.10185917
-0.04315928 -0.00406239 -0.10189595
-0.04316853 -0.0039887652 -0.10190883
-0.043178752 -0.0039155725 -0.10190173
-0.043189093 -0.003844535 -0.10188668
-0.043199025 -0.003771212 -0.10188558
-0.043208953 -0.0036978889 -0.10188448
-0.043219175 -0.0036246963 -0.10187738
-0.043228205 -0.0035488736 -0.10190021
-0.043237817 -0.0034733117 -0.10191106
-0.043248162 -0.0034022704 -0.10189601
-0.043258578 -0.0033291653 -0.10188492
-0.043267924 -0.0032555833 -0.1018958
-0.043277245 -0.003179891 -0.10191265
-0.043286782 -0.0031063948 -0.10191954
-0.043296687 -0.0030309614 -0.10192439
-0.043306522 -0.0029575955 -0.10192529
-0.043316353 -0.0028842296 -0.10192619
-0.043326281 -0.0028109085 -0.10192508
-0.043336406 -0.0027376711 -0.10191998
-0.043346435 -0.0026643928 -0.10191689
-0.043355949 -0.0025887862 -0.10192973
-0.043364782 -0.0025128759 -0.10195656
-0.043374225 -0.0024393369 -0.10196544
-0.043384522 -0.0023640767 -0.10196231
-0.043394256 -0.002290668 -0.1019652
-0.043403868 -0.0022151042 -0.10197605
-0.043413311 -0.0021415651 -0.10198494
-0.043422755 -0.0020680279 -0.10199382
-0.043432854 -0.0019926783 -0.10199469
-0.043442979 -0.0019194447 -0.1019896
-0.043453105 -0.0018462092 -0.10198449
-0.043462642 -0.0017727111 -0.10199139
-0.043472059 -0.0016970616 -0.10200623
-0.043481577 -0.001621455 -0.10201908
-0.043491215 -0.0015480015 -0.10202397
-0.043501142 -0.0014746804 -0.10202286
-0.043510854 -0.0013991594 -0.10203172
-0.043520369 -0.0013235528 -0.10204456
-0.043529786 -0.0012479033 -0.10205941
-0.043539133 -0.0011743214 -0.10207029
-0.043549329 -0.0010990184 -0.10206915
-0.043558966 -0.001025565 -0.10207405
-0.043568801 -0.0009521991 -0.10207494
-0.043579217 -0.00087909214 -0.10206386
-0.043589074 -0.00080784038 -0.10205878
-0.043598883 -0.00073236227 -0.10206565
-0.043608591 -0.00065684132 -0.1020745
-0.043618012 -0.00058119185 -0.10208935
-0.043627843 -0.00050782785 -0.10209024
-0.043638382 -0.00043687411 -0.1020712
-0.043649018 -0.00036596507 -0.10205016
-0.043658849 -0.00029260106 -0.10205104
-0.043668561 -0.00021708198 -0.10205989
-0.043678589 -0.00014379993 -0.1020568
-0.043688908 -7.0651993e-05 -0.1020477
-0.043699324 2.4549663e-06 -0.10203662
-0.043709353 7.5733289e-05 -0.10203352
-0.043719184 0.00014910102 -0.10203441
-0.043729309 0.0002223365 -0.10202932
-0.043737605 0.00030268542 -0.10207805
-0.043747708 0.00037803128 -0.10207891
-0.043757342 0.00045148283 -0.10208381
-0.043766763 0.00052713603 -0.10209866
-0.043776471 0.00060265511 -0.10210751
-0.043787207 0.00067351945 -0.10208447
-0.04379816 0.00074218772 -0.10205147
-0.043808598 0.00081318058 -0.10203442
-0.04381882 0.00088637695 -0.10202733
-0.043828726 0.00096180849 -0.10203218
-0.043838266 0.0010353029 -0.10203908
-0.043847952 0.0011129361 -0.10205389
-0.043857906 0.0011841469 -0.10204682
-0.043869689 0.0012482461 -0.10198592
-0.043880835 0.0013168268 -0.10194893
-0.043891374 0.0013877787 -0.10192989
-0.043901693 0.0014609303 -0.10192079
-0.043912452 0.0015296843 -0.10189179
-0.043923501 0.001598306 -0.1018568
-0.043933846 0.0016693454 -0.10184175
-0.04394336 0.0017449502 -0.10185459
-0.043951731 0.0018273685 -0.10190731
-0.043962881 0.0018959492 -0.10187031
-0.043976415 0.0019508675 -0.10175161
-0.043988924 0.0020104405 -0.1016648
-0.043998223 0.0020882469 -0.10168762
-0.044028524 0.0023058858 -0.10166836
-0.044038136 0.0023814496 -0.10167921
-0.044046801 0.0024637356 -0.10172592
-0.044055875 0.00254374 -0.10175868
-0.037955049 -0.04179775 -0.10423654
-0.037965052 -0.041722361 -0.1042394
-0.037974227 -0.041650802 -0.10424832
-0.037984814 -0.04157567 -0.1042392
-0.03799567 -0.041498557 -0.10423005
-0.038004458 -0.04142683 -0.10424694
-0.038013436 -0.041355185 -0.10425985
-0.038023636 -0.041279882 -0.10425872
-0.038033564 -0.041206561 -0.10425761
-0.038043298 -0.04113315 -0.1042605
-0.038053304 -0.041057758 -0.10426337
-0.038063135 -0.040984392 -0.10426427
-0.038072579 -0.040910855 -0.10427315
-0.038081653 -0.040839255 -0.10428406
-0.038091291 -0.0407658 -0.10428896
-0.038101122 -0.040692437 -0.10428985
-0.038111128 -0.040617049 -0.10429271
-0.038120765 -0.040543593 -0.1042976
-0.038130693 -0.040470272 -0.1042965
-0.038140893 -0.040394969 -0.10429537
-0.03815053 -0.040321514 -0.10430025
-0.038159415 -0.040249832 -0.10431515
-0.038169611 -0.040174525 -0.10431402
-0.03817964 -0.040101245 -0.10431093
-0.03818918 -0.040027753 -0.10431781
-0.038199279 -0.039952405 -0.10431868
-0.038209867 -0.039877273 -0.10430955
-0.038219798 -0.039803952 -0.10430846
-0.038228583 -0.039732222 -0.10432536
-0.038236976 -0.03966032 -0.10435025
-0.038246714 -0.039586909 -0.10435314
-0.03825691 -0.039511606 -0.10435201
-0.038266744 -0.03943824 -0.10435291
-0.038277037 -0.039362978 -0.10434978
-0.038286775 -0.039289568 -0.10435267
-0.038296215 -0.03921603 -0.10436156
-0.038305659 -0.039142489 -0.10437044
-0.038315199 -0.039068997 -0.10437732
-0.038324177 -0.038997352 -0.10439023
-0.038333718 -0.03892386 -0.10439711
-0.038344868 -0.038846873 -0.10438197
-0.038355261 -0.038771659 -0.10437685
-0.038364436 -0.0387001 -0.10438576
-0.038373977 -0.038626604 -0.10439265
-0.038383417 -0.038553067 -0.10440154
-0.038392957 -0.03847957 -0.10440842
-0.03840296 -0.038404182 -0.10441128
-0.038411941 -0.038332537 -0.10442419
-0.038420629 -0.038260765 -0.10444309
-0.038430922 -0.038185503 -0.10443996
-0.038441513 -0.038110372 -0.10443083
-0.038451806 -0.03803511 -0.10442771
-0.038461931 -0.037961874 -0.10442261
-0.038471572 -0.037888423 -0.10442749
-0.038480915 -0.037814841 -0.10443838
-0.038490456 -0.037741344 -0.10444527
-0.038500652 -0.037666041 -0.10444414
-0.038510196 -0.037592545 -0.10445102
-0.038519368 -0.03752099 -0.10445994
-0.038529176 -0.037445512 -0.10446679
-0.038538352 -0.037373953 -0.10447571
-0.038547598 -0.03730033 -0.10448859
-0.038557991 -0.037225112 -0.10448346
-0.03856802 -0.037151832 -0.10448036
-0.038577363 -0.037078254 -0.10449124
-0.038586907 -0.037004754 -0.10449813
-0.038597398 -0.036929581 -0.104491
-0.03860769 -0.036854319 -0.10448787
-0.038617425 -0.036780909 -0.10449076
-0.038626965 -0.036707416 -0.10449766
-0.038637165 -0.036632113 -0.10449652
-0.038647462 -0.036556855 -0.10449339
-0.038656536 -0.036485255 -0.1045043
-0.03866569 -0.036411583 -0.10451917
-0.038675327 -0.036338128 -0.10452407
-0.038685523 -0.036262825 -0.10452294
-0.038694967 -0.036189288 -0.10453182
-0.038704701 -0.036115877 -0.10453472
-0.038714729 -0.036042601 -0.10453161
-0.038724732 -0.035967208 -0.10453447
-0.038734466 -0.035893798 -0.10453736
-0.038743716 -0.035820175 -0.10455024
-0.038752962 -0.035746552 -0.10456312
-0.038762599 -0.035673101 -0.10456801
-0.038772237 -0.035599649 -0.10457291
-0.038781874 -0.035526194 -0.10457779
-0.038791515 -0.035452742 -0.10458268
-0.038801517 -0.035377353 -0.10458554
-0.038811542 -0.035304073 -0.10458244
-0.038821742 -0.035228767 -0.10458131
-0.038831577 -0.035155404 -0.10458221
-0.038841676 -0.035080057 -0.10458307
-0.038851216 -0.03500656 -0.10458995
-0.038861047 -0.034933195 -0.10459085
-0.03887115 -0.034857847 -0.10459171
-0.038880885 -0.034784436 -0.1045946
-0.038890228 -0.034710858 -0.10460549
-0.038899869 -0.034637406 -0.10461038
-0.038909603 -0.034563996 -0.10461327
-0.038919799 -0.034488693 -0.10461214
-0.038930096 -0.034413431 -0.10460901
-0.038939733 -0.034339979 -0.1046139
-0.038949274 -0.034266483 -0.10462078
-0.03895862 -0.034192901 -0.10463167
-0.038997192 -0.03407976 -0.10418046
-0.039007023 -0.034006394 -0.10418135
-0.03914557 -0.03351745 -0.10277554
-0.039159987 -0.033437714 -0.10270442
-0.039174791 -0.033358149 -0.10262531
-0.039187111 -0.033281684 -0.1025862
-0.039203256 -0.033200614 -0.10248509
-0.039217964 -0.033121008 -0.10240798
-0.039232183 -0.033041183 -0.10234085
-0.039244037 -0.032966614 -0.10230577
-0.039255798 -0.032892004 -0.10227268
-0.039268482 -0.032813601 -0.10223154
-0.039280046 -0.032738902 -0.10220245
-0.039290924 -0.032663897 -0.10218734
-0.039301731 -0.032590963 -0.10216827
-0.039315198 -0.032512911 -0.10211115
-0.039387472 -0.032242455 -0.10141785
-0.039399717 -0.032168061 -0.10137478
-0.039411377 -0.032093406 -0.10134368
-0.039425328 -0.032015562 -0.10127658
-0.039438039 -0.031939272 -0.10122949
-0.039449699 -0.031864613 -0.1011984
-0.039462507 -0.031788368 -0.10114931
-0.039474264 -0.031713754 -0.10111622
-0.039484974 -0.031640779 -0.10109914
-0.039496243 -0.031565949 -0.10107604
-0.039508853 -0.031489614 -0.10103095
-0.039521955 -0.031413496 -0.10097586
-0.039532762 -0.031340562 -0.10095678
-0.039542593 -0.031267196 -0.10095768
-0.039552547 -0.031195985 -0.10095061
-0.039564475 -0.031119347 -0.10091949
-0.039575186 -0.031046372 -0.10090241
-0.039584845 -0.030975029 -0.10090134
-0.039594777 -0.030901708 -0.10090023
-0.03960434 -0.030830324 -0.10090116
-0.039614566 -0.030757131 -0.10089407
-0.039624982 -0.030684024 -0.10088298
-0.039634254 -0.03061251 -0.1008899
-0.039643135 -0.030540824 -0.10090481
-0.039652113 -0.030469181 -0.10091772
-0.039662436 -0.030396031 -0.10090862
-0.039673898 -0.030321289 -0.10088152
-0.039684806 -0.0302484 -0.10086045
-0.039694928 -0.030175162 -0.10085536
-0.039703421 -0.030103303 -0.10087825
-0.039711256 -0.030033253 -0.10090916
-0.039720431 -0.029961696 -0.10091807
-0.039730262 -0.02988833 -0.10091897
-0.039739631 -0.02981686 -0.10092389
-0.039749563 -0.029743537 -0.10092279
-0.039759319 -0.029672239 -0.10091972
-0.039769348 -0.029598963 -0.10091661
-0.039779205 -0.029527705 -0.10091155
-0.03978933 -0.02945447 -0.10090646
-0.039799552 -0.029381279 -0.10089936
-0.039809577 -0.029307999 -0.10089626
-0.039819144 -0.029236615 -0.10089719
-0.039829072 -0.029163292 -0.10089608
-0.039838832 -0.029091995 -0.10089301
-0.03984886 -0.029018715 -0.10088991
-0.039857645 -0.028946986 -0.10090681
-0.039866038 -0.028875083 -0.1009317
-0.039875895 -0.028803829 -0.10092664
-0.039887067 -0.028728958 -0.10090554
-0.039896924 -0.028657701 -0.10090047
-0.039905708 -0.028585972 -0.10091737
-0.039914299 -0.028514156 -0.10093828
-0.039923765 -0.028442729 -0.10094119
-0.039934281 -0.028369665 -0.10092811
-0.039944306 -0.028296387 -0.10092501
-0.039953481 -0.02822483 -0.10093392
-0.039963216 -0.028151421 -0.10093681
-0.039973464 -0.02808034 -0.10092376
-0.039983392 -0.028007017 -0.10092266
-0.039992373 -0.027935375 -0.10093556
-0.040002011 -0.027861923 -0.10094045
-0.040012158 -0.027790798 -0.10092939
-0.040022578 -0.027717691 -0.10091831
-0.040032215 -0.027644239 -0.10092319
-0.04004129 -0.027572639 -0.1009341
-0.040051609 -0.027499489 -0.10092502
-0.040062223 -0.02742647 -0.10090993
-0.040071789 -0.027355086 -0.10091086
-0.040080767 -0.027283443 -0.10092376
-0.040089745 -0.027211798 -0.10093667
-0.040098995 -0.027138174 -0.10094956
-0.04010807 -0.027066574 -0.10096046
-0.040117636 -0.026995189 -0.10096139
-0.040127955 -0.02692204 -0.1009523
-0.040138081 -0.026848804 -0.1009472
-0.04014745 -0.026777335 -0.10095211
-0.040157281 -0.026703969 -0.10095301
-0.040167429 -0.026632844 -0.10094196
-0.040177457 -0.026559565 -0.10093885
-0.040187024 -0.026488179 -0.10093979
-0.040197145 -0.026414944 -0.10093469
-0.04020698 -0.026341578 -0.10093558
-0.040216543 -0.026270194 -0.10093651
-0.040226668 -0.026196958 -0.10093141
-0.040236134 -0.026125532 -0.10093433
-0.040245771 -0.02605208 -0.10093922
-0.040255338 -0.025980696 -0.10094014
-0.040265657 -0.025907546 -0.10093106
-0.040275879 -0.025834352 -0.10092396
-0.040285833 -0.025763143 -0.10091689
-0.040295862 -0.025689863 -0.10091379
-0.040305134 -0.025618348 -0.10092071
-0.040314112 -0.025546705 -0.10093361
-0.040323749 -0.025473254 -0.10093851
-0.040333215 -0.025401827 -0.10094143
-0.0403421 -0.025330139 -0.10095634
-0.040350884 -0.025258411 -0.10097324
-0.040360056 -0.025186853 -0.10098215
-0.040369499 -0.025113314 -0.10099103
-0.040378869 -0.025041845 -0.10099596
-0.040388603 -0.024968436 -0.10099884
-0.040397584 -0.024896793 -0.10101175
-0.040406853 -0.024825279 -0.10101867
-0.040417761 -0.02475239 -0.1009976
-0.040428273 -0.024679326 -0.10098451
-0.040437154 -0.024607638 -0.10099941
-0.040446308 -0.02453397 -0.10101429
-0.040455285 -0.024462327 -0.10102719
-0.040464263 -0.024390684 -0.10104011
-0.040473245 -0.024319042 -0.10105301
-0.040482588 -0.02424546 -0.1010639
-0.040492058 -0.024174031 -0.10106682
-0.040501889 -0.024100665 -0.10106771
-0.040511549 -0.024029326 -0.10106664
-0.040521089 -0.023955829 -0.10107353
-0.040529776 -0.023884058 -0.10109242
-0.040538464 -0.023812283 -0.10111132
-0.040547542 -0.023740683 -0.10112223
-0.04055747 -0.023667362 -0.10112113
-0.040567424 -0.023596151 -0.10111406
-0.040577844 -0.023523044 -0.10110298
-0.040587772 -0.023449721 -0.10110188
-0.040597335 -0.023378337 -0.10110281
-0.040607657 -0.023305187 -0.10109372
-0.040617123 -0.02323376 -0.10109664
-0.040626857 -0.023160351 -0.10109953
-0.040636323 -0.023088925 -0.10110245
-0.040644817 -0.023017066 -0.10112534
-0.040652819 -0.022944991 -0.10115822
-0.040661603 -0.02287326 -0.10117513
-0.040671632 -0.02279998 -0.10117202
-0.040681269 -0.022726528 -0.10117692
-0.040690251 -0.022654885 -0.10118982
-0.040700376 -0.022581648 -0.10118473
-0.040710621 -0.022510568 -0.10117166
-0.040721331 -0.022437591 -0.10115459
-0.040731553 -0.022364398 -0.1011475
-0.040740632 -0.022292798 -0.10115841
-0.040750463 -0.022219433 -0.1011593
-0.040759929 -0.022148006 -0.10116223
-0.040769275 -0.022074424 -0.10117311
-0.04077835 -0.022002824 -0.10118401
-0.040787429 -0.021931224 -0.10119493
-0.040796675 -0.021857599 -0.1012078
-0.040805753 -0.021785999 -0.10121872
-0.040815681 -0.021712676 -0.10121761
-0.040825736 -0.021641508 -0.10120855
-0.040836442 -0.021568531 -0.10119148
-0.040847249 -0.021495597 -0.1011724
-0.040856622 -0.021424128 -0.10117731
-0.040865675 -0.021350415 -0.1011942
-0.040874653 -0.021278773 -0.1012071
-0.040883437 -0.021207044 -0.101224
-0.040892586 -0.021133374 -0.10123887
-0.040901858 -0.021061862 -0.10124579
-0.040911399 -0.020988366 -0.10125268
-0.040921353 -0.020917155 -0.1012456
-0.040932063 -0.020844178 -0.10122854
-0.040942479 -0.020771071 -0.10121744
-0.040952239 -0.020699775 -0.10121437
-0.040961683 -0.020626236 -0.10122326
-0.040970758 -0.020554636 -0.10123417
-0.040980298 -0.020481139 -0.10124105
-0.040989764 -0.020409713 -0.10124397
-0.041000281 -0.02033665 -0.10123089
-0.041010406 -0.020263413 -0.10122579
-0.041019384 -0.02019177 -0.10123871
-0.041028462 -0.02012017 -0.10124961
-0.041038197 -0.020046761 -0.10125251
-0.041047856 -0.01997542 -0.10125144
-0.041057982 -0.019902185 -0.10124633
-0.041067645 -0.019830843 -0.10124526
-0.041076794 -0.019757176 -0.10126013
-0.04108509 -0.019685229 -0.10128703
-0.041093756 -0.019611346 -0.10131188
-0.04110254 -0.019539617 -0.10132879
-0.041111983 -0.019466078 -0.10133767
-0.041121349 -0.019394606 -0.1013426
-0.041131087 -0.019321198 -0.10134548
-0.041140746 -0.019249858 -0.10134441
-0.041151069 -0.019176709 -0.10133532
-0.041161485 -0.019103602 -0.10132424
-0.041172024 -0.01903265 -0.10130519
-0.041183416 -0.018959975 -0.10127413
-0.041193467 -0.018888807 -0.10126507
-0.041202229 -0.018814966 -0.10128793
-0.041210502 -0.018740909 -0.10132078
-0.04121919 -0.018669136 -0.10133968
-0.041228142 -0.018595383 -0.10135855
-0.041237414 -0.018523868 -0.10136546
-0.041247539 -0.018450633 -0.10136037
-0.041257102 -0.018379249 -0.10136129
-0.04126684 -0.01830584 -0.10136418
-0.041277062 -0.018232647 -0.10135709
-0.041287504 -0.018161651 -0.10134005
-0.04129792 -0.018088546 -0.10132895
-0.041306995 -0.018016946 -0.10133987
-0.041316342 -0.017943364 -0.10135075
-0.041325808 -0.017871937 -0.10135367
-0.041334961 -0.017798267 -0.10136854
-0.041344207 -0.017724643 -0.10138142
-0.041353673 -0.017653216 -0.10138434
-0.041363701 -0.017579935 -0.10138124
-0.04137307 -0.017508466 -0.10138616
-0.041381635 -0.017434539 -0.10141301
-0.041390784 -0.01736087 -0.10142789
-0.041400447 -0.01728953 -0.10142682
-0.041410573 -0.017216293 -0.10142173
-0.041420721 -0.017145168 -0.10141067
-0.041430846 -0.017071933 -0.10140558
-0.041440777 -0.016998611 -0.10140447
-0.041450147 -0.01692714 -0.10140939
-0.041459199 -0.016853429 -0.10142626
-0.041468639 -0.01677989 -0.10143514
-0.04147879 -0.016708765 -0.10142408
-0.0414894 -0.016635746 -0.101409
-0.041499745 -0.016564708 -0.10139395
-0.04150987 -0.016491471 -0.10138885
-0.041518949 -0.016419871 -0.10139976
-0.041528292 -0.016346289 -0.10141064
-0.041537639 -0.016272709 -0.10142153
-0.041547105 -0.01620128 -0.10142446
-0.041557521 -0.016128175 -0.10141337
-0.041567475 -0.016056962 -0.1014063
-0.041576821 -0.01598338 -0.10141718
-0.04158568 -0.015909582 -0.10143805
-0.041595023 -0.015836002 -0.10144892
-0.041604783 -0.015764704 -0.10144585
-0.041615006 -0.015691511 -0.10143877
-0.041624766 -0.015620214 -0.10143569
-0.041635085 -0.015547064 -0.10142659
-0.041645039 -0.015475853 -0.10141954
-0.041653994 -0.015402098 -0.10143841
-0.041662462 -0.015328128 -0.10146726
-0.041672196 -0.015254719 -0.10147015
-0.04168215 -0.015183508 -0.10146309
-0.041692179 -0.015110228 -0.10145999
-0.041701939 -0.015038931 -0.10145693
-0.041711379 -0.014965393 -0.10146581
-0.041720431 -0.01489168 -0.10148268
-0.041730069 -0.014818229 -0.10148757
-0.041739829 -0.014746931 -0.1014845
-0.041749954 -0.014673695 -0.1014794
-0.04176008 -0.014600459 -0.10147431
-0.041769546 -0.014529032 -0.10147723
-0.041779671 -0.014455796 -0.10147213
-0.041789528 -0.014384542 -0.10146706
-0.04179975 -0.014311349 -0.10145997
-0.041810166 -0.014238242 -0.10144888
-0.041820705 -0.01416729 -0.10142983
-0.041830953 -0.01409621 -0.10141678
-0.041840006 -0.014022497 -0.10143366
-0.041849352 -0.013948916 -0.10144453
-0.041859768 -0.01387581 -0.10143344
-0.041870307 -0.013804859 -0.1014144
-0.041880555 -0.013733776 -0.10140134
-0.041890092 -0.013660281 -0.10140824
-0.041898854 -0.013586441 -0.10143109
-0.041907515 -0.013512556 -0.10145596
-0.041916572 -0.013438845 -0.10147282
-0.041925427 -0.013365047 -0.10149369
-0.041935552 -0.013291811 -0.10148859
-0.041945897 -0.013220772 -0.10147354
-0.041956119 -0.01314758 -0.10146645
-0.041965682 -0.013076195 -0.10146738
-0.041975614 -0.013002873 -0.10146628
-0.041985177 -0.012931488 -0.1014672
-0.041994523 -0.012857908 -0.10147808
-0.042003673 -0.01278424 -0.10149296
-0.042012822 -0.012710571 -0.10150783
-0.042022556 -0.012637163 -0.10151072
-0.042032681 -0.012563926 -0.10150562
-0.04204176 -0.012492326 -0.10151654
-0.042050399 -0.012416331 -0.10154735
-0.042059161 -0.012342489 -0.10157022
-0.042068504 -0.012268907 -0.1015811
-0.042078555 -0.01219774 -0.10157204
-0.042089265 -0.012124764 -0.10155496
-0.042098902 -0.012051311 -0.10155986
-0.042107761 -0.011977513 -0.10158072
-0.042116228 -0.011903542 -0.10160957
-0.04212489 -0.011829658 -0.10163444
-0.042134527 -0.011756206 -0.10163932
-0.042144947 -0.0116831 -0.10162824
-0.042155292 -0.011612061 -0.10161319
-0.042165805 -0.011538998 -0.1016001
-0.042175271 -0.011467571 -0.10160302
-0.042184617 -0.011393989 -0.1016139
-0.04219396 -0.011320408 -0.10162478
-0.042203307 -0.011246826 -0.10163566
-0.042212751 -0.011173287 -0.10164454
-0.042221997 -0.011099663 -0.10165742
-0.042231634 -0.01102621 -0.10166232
-0.042241856 -0.010953018 -0.10165522
-0.04225181 -0.010881806 -0.10164816
-0.042261645 -0.01080844 -0.10164905
-0.042270988 -0.010734859 -0.10165993
-0.042280432 -0.01066132 -0.10166881
-0.04229036 -0.010587998 -0.10166771
-0.042300414 -0.01051683 -0.10165866
-0.042310439 -0.010443551 -0.10165555
-0.042319492 -0.010369839 -0.10167243
-0.042328253 -0.010295998 -0.10169528
-0.042337868 -0.010220435 -0.10170614
-0.042347528 -0.010149093 -0.10170507
-0.042357363 -0.010075727 -0.10170595
-0.042367097 -0.01000232 -0.10170886
-0.042376831 -0.009928911 -0.10171175
-0.042386688 -0.0098576574 -0.10170668
-0.042397007 -0.0097845066 -0.10169759
-0.042406842 -0.0097111417 -0.10169849
-0.042416576 -0.0096377321 -0.10170138
-0.042427115 -0.0095667802 -0.10168233
-0.042437848 -0.0094959149 -0.10165929
-0.042447608 -0.0094246175 -0.10165622
-0.042457417 -0.0093491403 -0.10166307
-0.042466663 -0.0092755146 -0.10167595
-0.042475425 -0.0092016738 -0.10169882
-0.042484649 -0.0091259377 -0.10171765
-0.042494088 -0.0090523995 -0.10172654
-0.042504314 -0.008979206 -0.10171945
-0.042514265 -0.0089079952 -0.10171239
-0.042524196 -0.0088346731 -0.10171129
-0.04253393 -0.0087612644 -0.10171417
-0.042543374 -0.0086877253 -0.10172306
-0.042553011 -0.0086142728 -0.10172795
-0.042562965 -0.008543063 -0.10172088
-0.042572603 -0.0084696105 -0.10172577
-0.042581826 -0.0083938744 -0.10174461
-0.042590976 -0.0083202058 -0.10175949
-0.042600516 -0.0082467105 -0.10176637
-0.042610057 -0.0081732152 -0.10177325
-0.0426195 -0.008099677 -0.10178214
-0.042629309 -0.0080241999 -0.101789
-0.042638972 -0.0079528587 -0.10178793
-0.0426489 -0.0078795357 -0.10178683
-0.042658441 -0.0078060403 -0.10179371
-0.042668469 -0.007732762 -0.10179061
-0.042678691 -0.0076595694 -0.10178352
-0.042688549 -0.0075883148 -0.10177845
-0.042698868 -0.0075151641 -0.10176937
-0.042709015 -0.0074440408 -0.1017583
-0.042719532 -0.0073709777 -0.10174522
-0.042729288 -0.0072996803 -0.10174214
-0.042738318 -0.0072238566 -0.10176498
-0.042747349 -0.0071480349 -0.10178781
-0.04275718 -0.0070746681 -0.10178871
-0.042767134 -0.0070034573 -0.10178164
-0.042777356 -0.0069302656 -0.10177456
-0.04278731 -0.0068590539 -0.10176749
-0.042797241 -0.0067857308 -0.10176639
-0.042806782 -0.0067122355 -0.10177328
-0.042816199 -0.006636586 -0.10178812
-0.042825423 -0.00656085 -0.10180696
-0.042834867 -0.0064873118 -0.10181584
-0.042844795 -0.0064139888 -0.10181474
-0.042854749 -0.006342778 -0.10180768
-0.042864971 -0.0062695844 -0.10180058
-0.042874806 -0.0061962195 -0.10180148
-0.042884052 -0.0061225947 -0.10181435
-0.042893764 -0.0060470738 -0.1018232
-0.042903692 -0.0059737517 -0.1018221
-0.042913135 -0.0059002135 -0.10183099
-0.042922385 -0.0058265878 -0.10184387
-0.04293251 -0.0057533523 -0.10183877
-0.04294312 -0.005680332 -0.10182369
-0.04295288 -0.0056090346 -0.10182063
-0.042962324 -0.0055354964 -0.10182951
-0.042972423 -0.0054601487 -0.10183037
-0.042982571 -0.0053890245 -0.10181931
-0.042992309 -0.0053156149 -0.1018222
-0.04300192 -0.0052400511 -0.10183305
-0.043011557 -0.0051665995 -0.10183794
-0.043021392 -0.0050932337 -0.10183884
-0.043031126 -0.005019825 -0.10184173
-0.043040667 -0.0049463306 -0.10184861
-0.04305011 -0.0048727905 -0.1018575
-0.043060038 -0.0047994684 -0.1018564
-0.043070164 -0.004726232 -0.10185131
-0.043079801 -0.0046527805 -0.10185619
-0.043089733 -0.0045794584 -0.10185509
-0.043099858 -0.0045062229 -0.10185
-0.043109983 -0.0044329865 -0.1018449
-0.043120325 -0.004361948 -0.10182984
-0.043130767 -0.0042909533 -0.10181279
-0.043140404 -0.0042174999 -0.10181768
-0.04314892 -0.0041393498 -0.10185647
-0.043157537 -0.0040612426 -0.10189325
-0.043166783 -0.0039876178 -0.10190613
-0.043177005 -0.0039144251 -0.10189904
-0.04318735 -0.0038433876 -0.10188398
-0.043197282 -0.0037700646 -0.10188288
-0.04320721 -0.0036967415 -0.10188178
-0.043217432 -0.0036235489 -0.10187469
-0.043226559 -0.0035477709 -0.10189552
-0.043236174 -0.0034722071 -0.10190637
-0.043246515 -0.0034011677 -0.10189132
-0.043256838 -0.0033280179 -0.10188223
-0.043266084 -0.0032543931 -0.10189511
-0.043275502 -0.0031787436 -0.10190995
-0.043285042 -0.0031052493 -0.10191683
-0.043294948 -0.0030298159 -0.10192169
-0.043304782 -0.00295645 -0.10192259
-0.043314613 -0.0028830841 -0.10192348
-0.043324545 -0.0028097611 -0.10192239
-0.04333467 -0.0027365256 -0.10191729
-0.043344695 -0.0026632454 -0.10191419
-0.043354213 -0.0025876407 -0.10192704
-0.043363046 -0.0025117304 -0.10195386
-0.04337249 -0.0024381913 -0.10196275
-0.043382786 -0.0023629293 -0.10195962
-0.04339252 -0.0022895206 -0.10196251
-0.043402132 -0.0022139587 -0.10197336
-0.043411575 -0.0021404196 -0.10198225
-0.043421116 -0.0020669252 -0.10198913
-0.043431118 -0.0019915327 -0.10199199
-0.043441072 -0.0019203238 -0.10198493
-0.043451369 -0.0018450618 -0.1019818
-0.043460812 -0.0017715227 -0.10199069
-0.043470327 -0.0016959179 -0.10200354
-0.043479845 -0.0016203094 -0.10201639
-0.043489482 -0.0015468579 -0.10202128
-0.04349941 -0.0014735367 -0.10202017
-0.043509122 -0.0013980158 -0.10202903
-0.04351864 -0.0013224073 -0.10204187
-0.043527961 -0.001246715 -0.10205872
-0.043537401 -0.0011731777 -0.1020676
-0.043547697 -0.0010979176 -0.10206447
-0.043557238 -0.0010244213 -0.10207136
-0.043567073 -0.00095105544 -0.10207225
-0.043577489 -0.00087794848 -0.10206116
-0.043587346 -0.00080669485 -0.10205609
-0.043597154 -0.00073121674 -0.10206296
-0.043606866 -0.0006556958 -0.10207181
-0.043616284 -0.00058004819 -0.10208665
-0.043626115 -0.00050668232 -0.10208755
-0.043636654 -0.00043572858 -0.1020685
-0.043647289 -0.00036481954 -0.10204746
-0.043657124 -0.00029145554 -0.10204835
-0.043666836 -0.00021593645 -0.1020572
-0.043676861 -0.0001426544 -0.1020541
-0.043687183 -6.9506466e-05 -0.10204501
-0.043697599 3.6004931e-06 -0.10203393
-0.043707628 7.6878816e-05 -0.10203082
-0.043717459 0.00015024468 -0.10203172
-0.043727584 0.00022348017 -0.10202663
-0.043735981 0.00030378439 -0.10207336
-0.043745983 0.00037917681 -0.10207623
-0.043755621 0.0004526265 -0.10208112
-0.043765038 0.00052827969 -0.10209596
-0.043774653 0.00060384162 -0.10210682
-0.043785386 0.00067470782 -0.10208377
-0.043796439 0.00074333325 -0.10204878
-0.043806877 0.00081432611 -0.10203173
-0.043817103 0.00088751875 -0.10202464
-0.043826837 0.00096092746 -0.10202753
-0.043836549 0.0010364484 -0.10203638
-0.043846235 0.0011140779 -0.10205119
-0.043856286 0.0011852458 -0.10204213
-0.043867968 0.0012493897 -0.10198323
-0.043879118 0.0013179705 -0.10194625
-0.043889657 0.0013889223 -0.1019272
-0.043899976 0.0014620721 -0.10191811
-0.043910734 0.0015308261 -0.1018891
-0.043921687 0.0015994925 -0.10185611
-0.043932032 0.0016705319 -0.10184105
-0.043941546 0.0017461386 -0.1018539
-0.043950014 0.0018285103 -0.10190461
-0.043961164 0.0018970929 -0.10186762
-0.04397472 0.0019499008 -0.10174296
-0.043987915 0.002009172 -0.10164218
-0.043996822 0.0020871479 -0.10167297
-0.044019043 0.0022222437 -0.10159501
-0.044027198 0.0023068581 -0.10165767
-0.044036712 0.0023824628 -0.10167053
-0.044045281 0.0024647918 -0.10171924
-0.044053748 0.0025471672 -0.10176995
-0.037956167 -0.041798361 -0.10424101
-0.037966169 -0.041722968 -0.10424387
-0.037975345 -0.041651409 -0.10425278
-0.037985932 -0.041576281 -0.10424365
-0.037996519 -0.04150115 -0.10423453
-0.038005304 -0.041429415 -0.10425144
-0.038014553 -0.041355792 -0.10426431
-0.03802485 -0.04128053 -0.10426118
-0.038034778 -0.041207209 -0.10426008
-0.038044609 -0.041133843 -0.10426097
-0.038054347 -0.041060433 -0.10426386
-0.038064349 -0.040985048 -0.10426673
-0.038073521 -0.040913485 -0.10427564
-0.038082771 -0.040839862 -0.10428853
-0.038092408 -0.040766411 -0.10429342
-0.038102143 -0.040693 -0.10429631
-0.038112242 -0.040617652 -0.10429717
-0.038121976 -0.040544245 -0.10430007
-0.038131908 -0.040470924 -0.10429896
-0.038142107 -0.040395617 -0.10429783
-0.038151741 -0.040322166 -0.10430272
-0.038160723 -0.040250525 -0.10431562
-0.038170822 -0.040175177 -0.1043165
-0.03818085 -0.040101897 -0.10431339
-0.038190391 -0.040028401 -0.10432028
-0.038200125 -0.039954994 -0.10432318
-0.038210981 -0.039877877 -0.10431402
-0.038220912 -0.039804555 -0.10431292
-0.038229696 -0.039732829 -0.10432982
-0.03823809 -0.039660923 -0.10435472
-0.038247921 -0.039587557 -0.1043556
-0.03825812 -0.039512254 -0.10435447
-0.038267951 -0.039438888 -0.10435537
-0.038278248 -0.03936363 -0.10435224
-0.038287982 -0.03929022 -0.10435513
-0.038297329 -0.039216638 -0.10436601
-0.038306773 -0.0391431 -0.1043749
-0.038316406 -0.039069645 -0.10437979
-0.038325388 -0.038998 -0.1043927
-0.038334928 -0.038924508 -0.10439958
-0.038346075 -0.038847525 -0.10438444
-0.038356468 -0.038772307 -0.10437931
-0.038365643 -0.038700752 -0.10438823
-0.038375281 -0.038627297 -0.10439311
-0.038384624 -0.038553715 -0.10440399
-0.038394164 -0.038480218 -0.10441089
-0.038404267 -0.038404875 -0.10441174
-0.038413052 -0.038333144 -0.10442865
-0.038421836 -0.038261414 -0.10444555
-0.038432226 -0.038186196 -0.10444043
-0.038442716 -0.03811102 -0.10443331
-0.03845311 -0.038035803 -0.10442818
-0.038463138 -0.037962526 -0.10442508
-0.038472775 -0.037889071 -0.10442997
-0.038482025 -0.037815448 -0.10444285
-0.038491659 -0.037741996 -0.10444773
-0.038501859 -0.03766669 -0.1044466
-0.038511399 -0.037593197 -0.10445349
-0.038520474 -0.037521593 -0.1044644
-0.038530014 -0.037448101 -0.10447128
-0.038539458 -0.037374564 -0.10448016
-0.038548704 -0.037300937 -0.10449306
-0.038559098 -0.03722572 -0.10448793
-0.038569126 -0.037152439 -0.10448483
-0.03857857 -0.037078902 -0.10449371
-0.038588203 -0.037005447 -0.1044986
-0.038598597 -0.036930233 -0.10449347
-0.038608894 -0.036854971 -0.10449034
-0.038618628 -0.036781561 -0.10449323
-0.038628168 -0.036708064 -0.10450011
-0.038638368 -0.036632761 -0.10449898
-0.038648296 -0.03655944 -0.10449788
-0.03865774 -0.036485903 -0.10450677
-0.038666792 -0.036412187 -0.10452364
-0.038676526 -0.03633878 -0.10452653
-0.038686454 -0.036265459 -0.10452543
-0.038696267 -0.036189981 -0.10453229
-0.038706001 -0.03611657 -0.10453518
-0.038715929 -0.036043249 -0.10453408
-0.038726032 -0.035967901 -0.10453495
-0.038735669 -0.03589445 -0.10453983
-0.038744915 -0.035820827 -0.10455271
-0.038753893 -0.035749182 -0.10456561
-0.038763799 -0.035673749 -0.10457048
-0.038773339 -0.035600252 -0.10457736
-0.038782977 -0.035526801 -0.10458225
-0.038792711 -0.03545339 -0.10458516
-0.038802445 -0.035379983 -0.10458805
-0.038812645 -0.03530468 -0.10458691
-0.038822941 -0.035229415 -0.10458378
-0.038832873 -0.035156094 -0.10458267
-0.038842872 -0.035080705 -0.10458554
-0.038852412 -0.035007209 -0.10459243
-0.03886215 -0.034933798 -0.10459532
-0.038872249 -0.034858454 -0.10459618
-0.038881984 -0.034785043 -0.10459907
-0.038891427 -0.034711506 -0.10460795
-0.038900968 -0.03463801 -0.10461485
-0.038910799 -0.034564644 -0.10461574
-0.038920999 -0.034489341 -0.10461461
-0.038931023 -0.034416061 -0.10461152
-0.038941026 -0.034340672 -0.10461438
-0.038950469 -0.034267131 -0.10462326
-0.038959816 -0.034193549 -0.10463414
-0.038998384 -0.034080409 -0.10418293
-0.039008118 -0.034007002 -0.10418582
-0.039146859 -0.033518136 -0.10277602
-0.039161079 -0.033438314 -0.10270888
-0.03917598 -0.033358794 -0.10262778
-0.039188102 -0.033282243 -0.10259266
-0.039204348 -0.033201218 -0.10248956
-0.039219152 -0.033121653 -0.10241044
-0.039233103 -0.033043813 -0.10234335
-0.039245225 -0.032967262 -0.10230824
-0.039257079 -0.032892689 -0.10227315
-0.039269667 -0.032814242 -0.10223401
-0.03928123 -0.032739546 -0.10220493
-0.039291844 -0.032666527 -0.10218985
-0.039303016 -0.032591652 -0.10216874
-0.039316479 -0.032513596 -0.10211163
-0.039388388 -0.032245081 -0.10142034
-0.039400999 -0.032168746 -0.10137525
-0.039412562 -0.032094046 -0.10134616
-0.039426416 -0.032016166 -0.10128105
-0.03943922 -0.031939916 -0.10123195
-0.03945088 -0.031865261 -0.10120088
-0.039463688 -0.031789009 -0.10115178
-0.039475445 -0.031714398 -0.10111869
-0.039486155 -0.03164142 -0.10110161
-0.039497327 -0.031566549 -0.10108051
-0.039510034 -0.031490259 -0.10103341
-0.039523132 -0.031414136 -0.10097833
-0.039533939 -0.031341203 -0.10095926
-0.039543774 -0.03126784 -0.10096014
-0.039553728 -0.031196628 -0.10095308
-0.039565753 -0.031120032 -0.10091997
-0.039576367 -0.031047013 -0.10090488
-0.039585929 -0.030975629 -0.10090581
-0.039595954 -0.03090235 -0.10090271
-0.039605521 -0.030830966 -0.10090364
-0.039615646 -0.030757731 -0.10089854
-0.039626062 -0.030684624 -0.10088745
-0.039635334 -0.030613109 -0.10089437
-0.039644215 -0.030541424 -0.10090928
-0.03965329 -0.030469824 -0.10092019
-0.039663613 -0.030396674 -0.10091109
-0.039675076 -0.030321931 -0.100884
-0.039685979 -0.030249041 -0.10086292
-0.039696105 -0.030175805 -0.10085782
-0.039704695 -0.030103989 -0.10087872
-0.039712429 -0.030033896 -0.10091164
-0.039721604 -0.029962339 -0.10092055
-0.03973107 -0.029890912 -0.10092347
-0.039740808 -0.029817503 -0.10092637
-0.039750736 -0.02974418 -0.10092527
-0.039760496 -0.029672883 -0.10092219
-0.039770521 -0.029599603 -0.10091909
-0.039780281 -0.029528305 -0.10091602
-0.039790504 -0.029455112 -0.10090893
-0.039800726 -0.02938192 -0.10090183
-0.039810754 -0.029308639 -0.10089873
-0.039820317 -0.029237255 -0.10089966
-0.039830245 -0.029163934 -0.10089856
-0.039840005 -0.029092636 -0.10089549
-0.039850034 -0.029019358 -0.10089239
-0.039858818 -0.028947629 -0.10090929
-0.039866943 -0.028877707 -0.10093421
-0.039877068 -0.02880447 -0.10092912
-0.039887972 -0.028731581 -0.10090804
-0.039898001 -0.028658301 -0.10090494
-0.039906882 -0.028586615 -0.10091984
-0.039915372 -0.028514754 -0.10094274
-0.039924938 -0.02844337 -0.10094366
-0.039935451 -0.02837031 -0.10093058
-0.039945479 -0.028297029 -0.10092748
-0.039954655 -0.028225472 -0.1009364
-0.039964024 -0.028154001 -0.10094132
-0.039974537 -0.028080937 -0.10092823
-0.039984565 -0.02800766 -0.10092513
-0.039993543 -0.027936015 -0.10093804
-0.040003181 -0.027862564 -0.10094293
-0.040013231 -0.027791396 -0.10093386
-0.040023647 -0.027718289 -0.10092278
-0.040033385 -0.02764488 -0.10092567
-0.040042557 -0.027573325 -0.10093459
-0.040052779 -0.02750013 -0.10092749
-0.040063392 -0.027427111 -0.1009124
-0.040073052 -0.02735577 -0.10091133
-0.040081937 -0.027284082 -0.10092624
-0.040090818 -0.027212396 -0.10094114
-0.040100064 -0.027138773 -0.10095403
-0.04010924 -0.027067214 -0.10096294
-0.040118802 -0.02699583 -0.10096386
-0.040129121 -0.026922682 -0.10095477
-0.040139247 -0.026849445 -0.10094967
-0.040148616 -0.026777975 -0.10095459
-0.040158447 -0.026704609 -0.10095549
-0.040168501 -0.026633441 -0.10094643
-0.040178623 -0.026560206 -0.10094133
-0.040188089 -0.026488777 -0.10094425
-0.040198311 -0.026415585 -0.10093717
-0.040208146 -0.026342221 -0.10093806
-0.040217709 -0.026270837 -0.10093898
-0.040227834 -0.026197599 -0.10093389
-0.0402373 -0.026126172 -0.10093681
-0.040246841 -0.026052676 -0.10094369
-0.040256601 -0.02598138 -0.10094062
-0.040266823 -0.025908187 -0.10093353
-0.040276676 -0.025836933 -0.10092846
-0.040286995 -0.025763784 -0.10091937
-0.040297024 -0.025690503 -0.10091627
-0.040306296 -0.025618989 -0.10092319
-0.040315274 -0.025547346 -0.10093609
-0.040324911 -0.025473895 -0.10094099
-0.040334381 -0.025402468 -0.10094392
-0.040343262 -0.025330782 -0.10095881
-0.040352046 -0.025259051 -0.10097571
-0.040361315 -0.025187537 -0.10098263
-0.040370759 -0.025114 -0.10099152
-0.040380128 -0.025042528 -0.10099643
-0.040389765 -0.024969077 -0.10100132
-0.040398747 -0.024897432 -0.10101423
-0.040408015 -0.024825919 -0.10102115
-0.040418923 -0.024753029 -0.10100007
-0.040429436 -0.024679966 -0.10098699
-0.040438317 -0.024608281 -0.1010019
-0.040447466 -0.024534611 -0.10101677
-0.040456444 -0.024462968 -0.10102968
-0.040465426 -0.024391323 -0.10104259
-0.040474404 -0.024319682 -0.1010555
-0.040483847 -0.024246143 -0.10106438
-0.040493313 -0.024174714 -0.1010673
-0.040502779 -0.024103288 -0.10107023
-0.040512711 -0.024029966 -0.10106912
-0.040522348 -0.023956513 -0.10107401
-0.040530935 -0.023884697 -0.1010949
-0.040539622 -0.023812924 -0.1011138
-0.040548701 -0.023741324 -0.10112471
-0.040558629 -0.023668002 -0.10112362
-0.040568583 -0.02359679 -0.10111655
-0.040579099 -0.023523727 -0.10110347
-0.04058893 -0.023450362 -0.10110436
-0.040598594 -0.02337902 -0.10110328
-0.040608816 -0.023305828 -0.10109619
-0.040618379 -0.023234444 -0.10109711
-0.040628113 -0.023161035 -0.10110001
-0.040637579 -0.023089608 -0.10110293
-0.040645972 -0.023017704 -0.10112783
-0.040653978 -0.022945629 -0.1011607
-0.040662859 -0.022873944 -0.10117561
-0.040672887 -0.022800663 -0.1011725
-0.040682524 -0.022727212 -0.1011774
-0.040691502 -0.022655569 -0.10119031
-0.040701531 -0.022582289 -0.10118721
-0.040711775 -0.022511208 -0.10117415
-0.040722486 -0.022438232 -0.10115707
-0.040732708 -0.022365039 -0.10114998
-0.040741786 -0.022293437 -0.10116088
-0.040751521 -0.022220029 -0.10116377
-0.040761083 -0.022148645 -0.10116471
-0.04077043 -0.022075064 -0.10117558
-0.040779505 -0.022003464 -0.10118649
-0.040788583 -0.021931862 -0.10119741
-0.04079783 -0.021858238 -0.10121029
-0.040806908 -0.021786638 -0.1012212
-0.040816836 -0.021713316 -0.10122009
-0.04082679 -0.021642104 -0.10121303
-0.040837694 -0.021569215 -0.10119196
-0.040848404 -0.021496238 -0.10117488
-0.040857676 -0.021424724 -0.1011818
-0.040866826 -0.021351056 -0.10119667
-0.040875804 -0.021279413 -0.10120957
-0.040884491 -0.02120764 -0.10122848
-0.040893741 -0.021134015 -0.10124135
-0.040903009 -0.021062501 -0.10124826
-0.040912453 -0.020988962 -0.10125715
-0.040922504 -0.020917794 -0.1012481
-0.040933214 -0.020844817 -0.10123102
-0.04094363 -0.020771712 -0.10121992
-0.040953487 -0.020700457 -0.10121486
-0.040962834 -0.020626875 -0.10122574
-0.040971909 -0.020555275 -0.10123666
-0.040981546 -0.020481823 -0.10124154
-0.040991012 -0.020410396 -0.10124446
-0.041001432 -0.020337289 -0.10123338
-0.041011553 -0.020264054 -0.10122827
-0.041020632 -0.020192454 -0.10123918
-0.04102961 -0.020120811 -0.10125209
-0.041039344 -0.0200474 -0.10125498
-0.041049007 -0.019976061 -0.10125392
-0.041059133 -0.019902823 -0.10124882
-0.041068792 -0.019831484 -0.10124774
-0.041077942 -0.019757815 -0.10126262
-0.041086338 -0.019685913 -0.10128751
-0.041095 -0.019612029 -0.10131237
-0.041103687 -0.019540256 -0.10133128
-0.041113131 -0.019466717 -0.10134016
-0.041122496 -0.019395247 -0.10134508
-0.041132331 -0.019321881 -0.10134596
-0.041141991 -0.01925054 -0.10134489
-0.041152313 -0.01917739 -0.10133581
-0.041162632 -0.01910424 -0.10132672
-0.041173171 -0.019033289 -0.10130768
-0.04118466 -0.018960658 -0.10127462
-0.041194711 -0.018889491 -0.10126555
-0.041203469 -0.01881565 -0.10128842
-0.041211743 -0.018741591 -0.10132127
-0.04122043 -0.018669819 -0.10134016
-0.041229289 -0.018596021 -0.10136103
-0.041238461 -0.018524464 -0.10136994
-0.041248683 -0.018451272 -0.10136285
-0.041258249 -0.018379888 -0.10136377
-0.041267984 -0.018306479 -0.10136666
-0.041278206 -0.018233286 -0.10135957
-0.041288648 -0.01816229 -0.10134254
-0.041299064 -0.018089185 -0.10133144
-0.041308142 -0.018017584 -0.10134235
-0.041317582 -0.017944045 -0.10135123
-0.041326951 -0.017872576 -0.10135615
-0.041336101 -0.017798906 -0.10137103
-0.04134535 -0.017725281 -0.1013839
-0.041354816 -0.017653855 -0.10138683
-0.041364942 -0.017580619 -0.10138173
-0.041374214 -0.017509105 -0.10138865
-0.041382875 -0.017435221 -0.1014135
-0.041391928 -0.017361509 -0.10143037
-0.041401587 -0.017290168 -0.10142931
-0.041411616 -0.017216889 -0.10142621
-0.04142186 -0.017145807 -0.10141315
-0.041431986 -0.017072571 -0.10140806
-0.041441917 -0.016999248 -0.10140695
-0.041451287 -0.016927779 -0.10141188
-0.041460339 -0.016854066 -0.10142875
-0.041469779 -0.016780529 -0.10143763
-0.04147993 -0.016709404 -0.10142657
-0.04149054 -0.016636383 -0.10141149
-0.041500982 -0.01656539 -0.10139444
-0.04151101 -0.01649211 -0.10139134
-0.041520085 -0.01642051 -0.10140225
-0.041529529 -0.016346971 -0.10141113
-0.041538775 -0.016273346 -0.10142402
-0.041548245 -0.016201919 -0.10142694
-0.041558661 -0.016128812 -0.10141585
-0.041568615 -0.016057601 -0.10140879
-0.041577958 -0.015984019 -0.10141966
-0.041586913 -0.015910264 -0.10143854
-0.04159626 -0.015836682 -0.10144941
-0.04160592 -0.015765343 -0.10144833
-0.041616142 -0.01569215 -0.10144125
-0.041625999 -0.015620895 -0.10143618
-0.041636318 -0.015547746 -0.10142709
-0.041646175 -0.015476491 -0.10142203
-0.041655228 -0.015402779 -0.1014389
-0.041663695 -0.01532881 -0.10146775
-0.041673429 -0.0152554 -0.10147065
-0.041683383 -0.015184189 -0.10146359
-0.041693412 -0.01511091 -0.10146048
-0.041703071 -0.015039569 -0.10145941
-0.041712515 -0.014966031 -0.10146829
-0.041721664 -0.014892362 -0.10148317
-0.041731302 -0.014818911 -0.10148805
-0.041740965 -0.014747569 -0.10148698
-0.041751187 -0.014674377 -0.10147989
-0.041761309 -0.01460114 -0.10147479
-0.041770779 -0.014529712 -0.10147772
-0.041780904 -0.014456477 -0.10147262
-0.041790757 -0.014385223 -0.10146756
-0.041800883 -0.014311987 -0.10146246
-0.041811302 -0.014238881 -0.10145137
-0.041821938 -0.014167972 -0.10143033
-0.041832086 -0.014096847 -0.10141927
-0.041841138 -0.014023136 -0.10143614
-0.041850481 -0.013949554 -0.10144702
-0.041860901 -0.013876447 -0.10143593
-0.04187144 -0.013805496 -0.10141689
-0.041881684 -0.013734414 -0.10140382
-0.041891225 -0.013660919 -0.10141072
-0.041899987 -0.013587078 -0.10143358
-0.041908648 -0.013513193 -0.10145845
-0.0419177 -0.013439482 -0.10147532
-0.041926656 -0.013365727 -0.10149419
-0.041936684 -0.013292449 -0.10149109
-0.041947123 -0.013221453 -0.10147403
-0.041957345 -0.01314826 -0.10146694
-0.041966911 -0.013076876 -0.10146786
-0.041976839 -0.013003554 -0.10146676
-0.041986573 -0.012930145 -0.10146965
-0.041995652 -0.012858545 -0.10148057
-0.042004801 -0.012784877 -0.10149544
-0.042014048 -0.012711251 -0.10150832
-0.042023785 -0.012637842 -0.10151121
-0.04203381 -0.012564563 -0.10150812
-0.042042889 -0.012492963 -0.10151903
-0.042051625 -0.012417011 -0.10154785
-0.042060383 -0.01234317 -0.10157071
-0.042069633 -0.012269545 -0.10158359
-0.04207978 -0.01219842 -0.10157253
-0.042090394 -0.012125401 -0.10155745
-0.042100128 -0.012051991 -0.10156034
-0.042108886 -0.011978149 -0.10158321
-0.042117454 -0.011904223 -0.10161006
-0.042126115 -0.011830338 -0.10163492
-0.042135753 -0.011756886 -0.10163981
-0.042146072 -0.011683736 -0.10163073
-0.042156514 -0.011612741 -0.10161368
-0.04216693 -0.011539635 -0.10160259
-0.042176496 -0.011468251 -0.10160351
-0.042185742 -0.011394626 -0.10161639
-0.042195085 -0.011321045 -0.10162727
-0.042204432 -0.011247463 -0.10163815
-0.042213876 -0.011173923 -0.10164703
-0.042223122 -0.011100299 -0.10165992
-0.042232759 -0.011026847 -0.1016648
-0.042243078 -0.010953697 -0.10165571
-0.042252935 -0.010882443 -0.10165066
-0.042262767 -0.010809077 -0.10165154
-0.042272113 -0.010735496 -0.10166243
-0.042281557 -0.010661957 -0.10167131
-0.042291582 -0.010588678 -0.10166821
-0.042301632 -0.01051751 -0.10165915
-0.042311661 -0.01044423 -0.10165604
-0.042320617 -0.010370476 -0.10167491
-0.042329572 -0.010296721 -0.10169379
-0.042339183 -0.010221158 -0.10170463
-0.04234875 -0.010149774 -0.10170556
