# .PCD v0.7 - Point Cloud Data file format
VERSION 0.7
FIELDS x y z
SIZE 4 4 4
TYPE F F F
COUNT 1 1 1
WIDTH 1295
HEIGHT 1
VIEWPOINT 0 0 0 1 0 0 0
POINTS 1295
DATA ascii
-0.11933306 -0.034115221 -0.10825136
-0.11934221 -0.034041554 -0.10826623
-0.1193509 -0.033969779 -0.10828512
-0.11936129 -0.033894561 -0.10828
-0.11937197 -0.033819474 -0.10826888
-0.11938171 -0.033746064 -0.10827177
-0.1193919 -0.033670761 -0.10827064
-0.11940154 -0.033597305 -0.10827553
-0.11941052 -0.033525664 -0.10828844
-0.11942006 -0.033452168 -0.10829533
-0.11943007 -0.033376776 -0.10829819
-0.1194397 -0.033303328 -0.10830308
-0.11944933 -0.033229873 -0.10830797
-0.11945897 -0.033156421 -0.10831286
-0.11946822 -0.033082798 -0.10832573
-0.11947766 -0.033009257 -0.10833462
-0.11948769 -0.032935977 -0.10833152
-0.11949761 -0.032862656 -0.10833042
-0.11950696 -0.032789074 -0.10834129
-0.11951706 -0.032713726 -0.10834216
-0.11952755 -0.03263855 -0.10833504
-0.11953729 -0.032565139 -0.10833792
-0.11954692 -0.032491691 -0.10834283
-0.11955692 -0.032416299 -0.10834569
-0.11956704 -0.03234306 -0.10834059
-0.11957744 -0.032267846 -0.10833547
-0.11958688 -0.032194309 -0.10834435
-0.11959556 -0.032122534 -0.10836324
-0.11960511 -0.032049038 -0.10837013
-0.1196152 -0.03197369 -0.108371
-0.11962474 -0.031900197 -0.10837788
-0.11963448 -0.031826787 -0.10838077
-0.11964431 -0.031753421 -0.10838167
-0.11965431 -0.031678028 -0.10838453
-0.11966395 -0.031604577 -0.10838942
-0.1196733 -0.031530999 -0.10840029
-0.11968283 -0.031457499 -0.10840719
-0.11969237 -0.031384006 -0.10841408
-0.11970201 -0.031310551 -0.10841896
-0.11971184 -0.031237187 -0.10841987
-0.11972145 -0.031161623 -0.10843071
-0.11973109 -0.031088172 -0.1084356
-0.11974131 -0.031014977 -0.10842851
-0.11975131 -0.030939588 -0.10843137
-0.11976105 -0.030866176 -0.10843426
-0.11977105 -0.030790787 -0.10843712
-0.11978078 -0.03071738 -0.10844001
-0.11979061 -0.030644011 -0.10844091
-0.11980062 -0.030568622 -0.10844377
-0.11981025 -0.030495171 -0.10844865
-0.11981979 -0.030421674 -0.10845555
-0.11982943 -0.030348223 -0.10846043
-0.11983916 -0.030274814 -0.10846333
-0.11984956 -0.030199595 -0.1084582
-0.11985976 -0.030124292 -0.10845707
-0.1198691 -0.030050708 -0.10846795
-0.11987863 -0.029977214 -0.10847484
-0.11988817 -0.029903717 -0.10848173
-0.1199277 -0.0297889 -0.10801651
-0.11993743 -0.02971549 -0.1080194
-0.12005123 -0.0293185 -0.10685271
-0.12007454 -0.029228006 -0.10663759
-0.12008914 -0.029148353 -0.10656247
-0.12010395 -0.02906879 -0.10648336
-0.12011695 -0.028992629 -0.10643027
-0.12013309 -0.028911557 -0.10632917
-0.12014741 -0.02883178 -0.10626004
-0.12016165 -0.028754067 -0.10618694
-0.12017348 -0.028677385 -0.10615782
-0.12018534 -0.028602816 -0.10612274
-0.12019776 -0.028526396 -0.10608163
-0.12020922 -0.028451653 -0.10605454
-0.1202201 -0.02837665 -0.10603943
-0.12023127 -0.028301779 -0.10601833
-0.12024398 -0.028225485 -0.10597123
-0.1203155 -0.027956801 -0.10528794
-0.12032935 -0.027878916 -0.10522284
-0.1203412 -0.027804345 -0.10518775
-0.12035486 -0.027726375 -0.10512664
-0.12036757 -0.027650082 -0.10507955
-0.12037933 -0.027575471 -0.10504646
-0.12039233 -0.027499309 -0.10499337
-0.12040389 -0.027424607 -0.10496428
-0.1204145 -0.027351588 -0.10494921
-0.12042567 -0.027276717 -0.10492811
-0.12043858 -0.027200511 -0.10487701
-0.12045158 -0.027124349 -0.10482392
-0.12046228 -0.027051371 -0.10480684
-0.12047231 -0.026978094 -0.10480374
-0.12048217 -0.026906839 -0.10479867
-0.12049364 -0.026832096 -0.10477158
-0.12050454 -0.026759207 -0.10475051
-0.12051437 -0.02668584 -0.1047514
-0.12052429 -0.026612516 -0.1047503
-0.12053396 -0.026541177 -0.10474923
-0.12054408 -0.02646794 -0.10474413
-0.1205544 -0.026394792 -0.10473503
-0.12056357 -0.026323233 -0.10474396
-0.12057255 -0.02625159 -0.10475687
-0.12058182 -0.026180077 -0.10476378
-0.12059224 -0.02610697 -0.10475269
-0.12060351 -0.02603214 -0.10472959
-0.12061412 -0.025959121 -0.10471451
-0.12062415 -0.025885843 -0.10471141
-0.12063247 -0.025816008 -0.10473233
-0.12064076 -0.025744062 -0.10475922
-0.12064984 -0.025672462 -0.10477012
-0.12065931 -0.025601033 -0.10477305
-0.12066913 -0.025527667 -0.10477395
-0.12067899 -0.025456414 -0.10476888
-0.12068892 -0.025383091 -0.10476778
-0.12069848 -0.025311708 -0.10476871
-0.12070851 -0.025238428 -0.10476561
-0.12071873 -0.025165234 -0.10475852
-0.12072905 -0.025092084 -0.10474943
-0.12073927 -0.025018891 -0.10474233
-0.12074883 -0.024947509 -0.10474325
-0.1207584 -0.024876123 -0.10474417
-0.12076823 -0.024802759 -0.10474508
-0.12077789 -0.024731416 -0.104744
-0.12078694 -0.024657704 -0.10476087
-0.12079536 -0.024587914 -0.10477979
-0.12080539 -0.024514634 -0.1047767
-0.12081629 -0.024441745 -0.10475563
-0.12082622 -0.024368422 -0.10475452
-0.1208351 -0.024296734 -0.10476944
-0.12084351 -0.024226943 -0.10478836
-0.12085325 -0.024153534 -0.10479125
-0.12086377 -0.02408047 -0.10477816
-0.12087362 -0.024009217 -0.1047731
-0.12088297 -0.023935635 -0.10478398
-0.12089233 -0.023864165 -0.1047889
-0.12090295 -0.023791146 -0.10477381
-0.12091287 -0.023717821 -0.10477271
-0.12092185 -0.02364618 -0.10478562
-0.12093132 -0.023574751 -0.10478854
-0.12094164 -0.023501601 -0.10477945
-0.12095205 -0.023428494 -0.10476836
-0.12096132 -0.023356982 -0.10477528
-0.1209705 -0.023285424 -0.1047842
-0.12098081 -0.023212275 -0.10477511
-0.12099123 -0.023139168 -0.10476401
-0.1210006 -0.023067698 -0.10476894
-0.12101004 -0.022994159 -0.10477782
-0.12101931 -0.022922644 -0.10478474
-0.12102886 -0.02284915 -0.10479162
-0.12103803 -0.022777593 -0.10480053
-0.12104739 -0.022706121 -0.10480545
-0.12105771 -0.022632971 -0.10479636
-0.12106784 -0.022559736 -0.10479126
-0.12107701 -0.022488181 -0.10480017
-0.12108648 -0.022416752 -0.1048031
-0.12109689 -0.022343647 -0.10479201
-0.12110682 -0.022270322 -0.10479091
-0.12111629 -0.022198897 -0.10479384
-0.12112632 -0.022125617 -0.10479073
-0.12113588 -0.022054233 -0.10479166
-0.12114544 -0.021982849 -0.10479258
-0.12115546 -0.021909568 -0.10478949
-0.12116549 -0.02183629 -0.10478638
-0.12117477 -0.021764776 -0.1047933
-0.12118433 -0.021693392 -0.10479423
-0.12119445 -0.021620154 -0.10478913
-0.12120477 -0.021547005 -0.10478004
-0.12121482 -0.021475837 -0.10477097
-0.12122514 -0.021402687 -0.10476189
-0.12123431 -0.021331131 -0.1047708
-0.1212431 -0.021259401 -0.1047877
-0.12125273 -0.021185949 -0.10479259
-0.1212623 -0.021114565 -0.10479352
-0.12127145 -0.021040896 -0.1048084
-0.12128003 -0.02096908 -0.1048293
-0.12128931 -0.020897565 -0.1048362
-0.12129867 -0.020826096 -0.10484113
-0.12130821 -0.020752601 -0.104848
-0.12131758 -0.02068113 -0.10485293
-0.12132666 -0.02060953 -0.10486384
-0.12133629 -0.020536076 -0.10486873
-0.1213471 -0.020463143 -0.10484965
-0.12135734 -0.020392062 -0.10483659
-0.12136649 -0.020318393 -0.10485147
-0.12137547 -0.02024675 -0.10486438
-0.12138445 -0.020175107 -0.10487729
-0.12139333 -0.020103421 -0.10489219
-0.12140248 -0.020029752 -0.10490707
-0.12141155 -0.019958152 -0.10491798
-0.12142122 -0.01988681 -0.10491691
-0.12143114 -0.019813489 -0.10491581
-0.12144088 -0.019740079 -0.1049187
-0.12145025 -0.019668609 -0.10492362
-0.12145913 -0.019596921 -0.10493852
-0.12146743 -0.019524977 -0.1049654
-0.1214764 -0.019453332 -0.10497832
-0.12148633 -0.019380011 -0.10497721
-0.12149619 -0.019308757 -0.10497214
-0.1215066 -0.019235648 -0.10496105
-0.12151663 -0.01916237 -0.10495796
-0.12152649 -0.019091114 -0.10495289
-0.12153661 -0.019017879 -0.1049478
-0.12154617 -0.018946495 -0.10494872
-0.12155601 -0.018873129 -0.10494962
-0.12156537 -0.018801659 -0.10495453
-0.12157396 -0.018729843 -0.10497543
-0.12158223 -0.018655784 -0.10500828
-0.12159092 -0.018584013 -0.10502718
-0.12160048 -0.018512629 -0.1050281
-0.12161022 -0.018439218 -0.105031
-0.12161929 -0.018367618 -0.10504191
-0.12162932 -0.018294338 -0.10503881
-0.12163956 -0.018223258 -0.10502575
-0.12165017 -0.018150238 -0.10501067
-0.1216603 -0.018077001 -0.10500558
-0.12166966 -0.018005531 -0.10501049
-0.1216796 -0.017932208 -0.10500939
-0.12168916 -0.017860824 -0.10501032
-0.12169841 -0.017787199 -0.10502319
-0.12170738 -0.017715557 -0.1050361
-0.12171646 -0.017643955 -0.10504701
-0.12172571 -0.01757033 -0.10505989
-0.12173478 -0.01749873 -0.1050708
-0.12174461 -0.017425364 -0.10507169
-0.12175456 -0.017354153 -0.10506463
-0.12176538 -0.017281219 -0.10504556
-0.12177628 -0.017208328 -0.10502448
-0.12178555 -0.017136816 -0.10503139
-0.1217946 -0.017063104 -0.10504827
-0.12180357 -0.016991461 -0.10506118
-0.12181255 -0.016919818 -0.10507409
-0.1218219 -0.016846236 -0.10508497
-0.12183098 -0.016774636 -0.10509589
-0.12184051 -0.01670114 -0.10510276
-0.12185064 -0.016627904 -0.10509767
-0.12186098 -0.016556865 -0.10508261
-0.1218714 -0.016483758 -0.10507152
-0.12188135 -0.016412547 -0.10506446
-0.12189069 -0.016338965 -0.10507534
-0.12189957 -0.016267279 -0.10509025
-0.12190901 -0.01619374 -0.10509913
-0.12191848 -0.016122313 -0.10510205
-0.12192909 -0.016049292 -0.10508697
-0.12193912 -0.015976014 -0.10508388
-0.1219481 -0.015904371 -0.10509679
-0.12195708 -0.015832726 -0.10510969
-0.12196671 -0.015759274 -0.10511458
-0.12197667 -0.015688064 -0.10510752
-0.12198689 -0.01561487 -0.10510042
-0.12199692 -0.015541591 -0.10509732
-0.12200551 -0.015469775 -0.10511822
-0.1220137 -0.015397785 -0.1051471
-0.12202256 -0.015323987 -0.10516797
-0.12203124 -0.015252214 -0.10518686
-0.12204069 -0.015178676 -0.10519575
-0.12205025 -0.015107291 -0.10519667
-0.12205999 -0.015033882 -0.10519957
-0.12206964 -0.014962541 -0.1051985
-0.12207986 -0.014889348 -0.10519141
-0.12209038 -0.014816285 -0.10517832
-0.12210102 -0.014745377 -0.10515728
-0.12211201 -0.014672529 -0.1051342
-0.12212216 -0.014601405 -0.10512315
-0.12213092 -0.014527563 -0.10514601
-0.12213919 -0.014453506 -0.10517886
-0.12214807 -0.014381819 -0.10519376
-0.12215713 -0.014308108 -0.10521064
-0.1221664 -0.014236595 -0.10521755
-0.12217642 -0.014163315 -0.10521445
-0.12218589 -0.014091888 -0.10521737
-0.12219562 -0.014018478 -0.10522027
-0.12220594 -0.013945329 -0.10521118
-0.12221649 -0.013874377 -0.10519213
-0.1222268 -0.013801227 -0.10518304
-0.12223568 -0.013729541 -0.10519794
-0.12224513 -0.013656002 -0.10520682
-0.12225449 -0.013584531 -0.10521174
-0.12226374 -0.013510906 -0.10522462
-0.12227289 -0.013437238 -0.1052395
-0.12228225 -0.013365767 -0.10524441
-0.12229238 -0.013292531 -0.10523932
-0.12230185 -0.013221104 -0.10524224
-0.1223106 -0.013147263 -0.1052651
-0.12231965 -0.013073551 -0.10528197
-0.12232912 -0.013002124 -0.1052849
-0.12233925 -0.012928887 -0.1052798
-0.1223494 -0.012857763 -0.10526875
-0.12235942 -0.012784483 -0.10526565
-0.12236945 -0.012711205 -0.10526255
-0.12237881 -0.012639733 -0.10526747
-0.12238777 -0.012565979 -0.10528634
-0.12239721 -0.012492441 -0.10529522
-0.12240746 -0.012421358 -0.10528216
-0.12241826 -0.012348425 -0.10526308
-0.1224286 -0.012277387 -0.10524803
-0.12243827 -0.012206046 -0.10524696
-0.12244771 -0.012132507 -0.10525585
-0.12245705 -0.012058925 -0.10526672
-0.12246639 -0.011985343 -0.10527761
-0.12247577 -0.011913873 -0.10528252
-0.12248599 -0.01184068 -0.10527544
-0.12249604 -0.011769512 -0.10526638
-0.12250558 -0.011696016 -0.10527326
-0.12251453 -0.011622261 -0.10529213
-0.12252351 -0.011550618 -0.10530504
-0.12253354 -0.011477338 -0.10530194
-0.12254366 -0.011404103 -0.10529684
-0.12255342 -0.011332804 -0.10529377
-0.12256373 -0.011259655 -0.10528468
-0.12257369 -0.011188444 -0.10527761
-0.12258264 -0.011114689 -0.10529649
-0.12259111 -0.011040718 -0.10532533
-0.12260085 -0.01096731 -0.10532822
-0.1226109 -0.010896142 -0.10531916
-0.12262082 -0.010822819 -0.10531807
-0.12263058 -0.010751521 -0.105315
-0.12264002 -0.010677982 -0.10532388
-0.12264917 -0.010604315 -0.10533876
-0.12265871 -0.010530818 -0.10534564
-0.12266837 -0.010459478 -0.10534457
-0.1226785 -0.010386242 -0.10533948
-0.12268852 -0.010312962 -0.10533638
-0.12269808 -0.010241577 -0.10533731
-0.12270821 -0.010168342 -0.1053322
-0.12271826 -0.010097174 -0.10532314
-0.12272858 -0.010024024 -0.10531405
-0.12273873 -0.0099528991 -0.10530299
-0.12274943 -0.0098799225 -0.10528591
-0.12275939 -0.0098087117 -0.10527886
-0.12276863 -0.0097350869 -0.10529173
-0.12277808 -0.0096615478 -0.10530061
-0.12278803 -0.0095903371 -0.10529355
-0.12279864 -0.0095173158 -0.10527847
-0.12280899 -0.0094462782 -0.10526341
-0.12281852 -0.009372782 -0.1052703
-0.12282728 -0.0092989411 -0.10529316
-0.12283605 -0.0092251003 -0.10531603
-0.12284509 -0.009151388 -0.1053329
-0.12285424 -0.0090777203 -0.10534777
-0.1228639 -0.0090063792 -0.1053467
-0.12287442 -0.008933316 -0.10533362
-0.12288437 -0.0088621052 -0.10532656
-0.1228943 -0.0087887822 -0.10532546
-0.12290423 -0.0087154591 -0.10532436
-0.1229137 -0.0086440323 -0.10532728
-0.12292323 -0.008570537 -0.10533416
-0.12293258 -0.008496955 -0.10534504
-0.12294172 -0.0084232865 -0.10535991
-0.12295137 -0.008349834 -0.10536481
-0.12296102 -0.0082784928 -0.10536373
-0.12297036 -0.0082049118 -0.10537461
-0.12297901 -0.0081289159 -0.10540543
-0.12298767 -0.0080550313 -0.1054303
-0.12299711 -0.0079814922 -0.10543918
-0.12300716 -0.0079103252 -0.10543011
-0.1230175 -0.0078392867 -0.10541506
-0.12302714 -0.0077658342 -0.10541996
-0.123036 -0.0076920362 -0.10544083
-0.12304473 -0.0076160831 -0.10546965
-0.12305339 -0.0075421995 -0.10549451
-0.12306303 -0.007468747 -0.1054994
-0.12307318 -0.0073976219 -0.10548835
-0.12308379 -0.0073246025 -0.10547326
-0.12309413 -0.007253563 -0.10545821
-0.12310406 -0.0071802409 -0.1054571
-0.12311321 -0.0071065733 -0.10547198
-0.12312245 -0.0070329476 -0.10548485
-0.1231319 -0.0069594085 -0.10549373
-0.12314134 -0.0068858704 -0.10550262
-0.12315049 -0.0068122018 -0.10551749
-0.12316022 -0.0067387931 -0.10552039
-0.12317035 -0.0066655567 -0.10551529
-0.12318011 -0.0065942593 -0.10551223
-0.12318994 -0.0065208934 -0.10551312
-0.12319948 -0.0064473981 -0.10552001
-0.12320892 -0.006373859 -0.10552889
-0.12321875 -0.0063004941 -0.10552979
-0.1232289 -0.006229369 -0.10551872
-0.12323892 -0.0061560888 -0.10551563
-0.12324807 -0.0060824212 -0.1055305
-0.12325683 -0.0060085803 -0.10555337
-0.12326627 -0.0059350412 -0.10556225
-0.12327601 -0.0058616316 -0.10556514
-0.12328593 -0.0057883095 -0.10556404
-0.12329567 -0.0057149008 -0.10556693
-0.12330504 -0.0056434292 -0.10557186
-0.12331526 -0.0055702375 -0.10556476
-0.12332558 -0.0054970877 -0.10555567
-0.12333541 -0.0054237219 -0.10555656
-0.12334488 -0.0053522941 -0.10555948
-0.12335549 -0.0052792737 -0.1055444
-0.12336622 -0.0052084085 -0.10552136
-0.12337598 -0.005137112 -0.10551829
-0.12338579 -0.0050616339 -0.10552514
-0.12339503 -0.0049880082 -0.10553803
-0.12340389 -0.0049142102 -0.10555889
-0.12341291 -0.0048383875 -0.10558172
-0.12342236 -0.0047648493 -0.1055906
-0.12343221 -0.0046935957 -0.10558554
-0.12344253 -0.004620445 -0.10557646
-0.12345239 -0.0045491904 -0.10557139
-0.12346239 -0.0044737998 -0.10557425
-0.12347183 -0.0044002607 -0.10558313
-0.12348147 -0.0043268083 -0.10558803
-0.12349152 -0.0042556413 -0.10557896
-0.12350106 -0.0041821459 -0.10558585
-0.12351018 -0.004106367 -0.10560668
-0.12351943 -0.0040327413 -0.10561956
-0.12352897 -0.003959245 -0.10562644
-0.12353841 -0.0038857069 -0.10563532
-0.12354795 -0.0038122106 -0.10564221
-0.12355739 -0.0037386725 -0.1056511
-0.12356732 -0.0036653494 -0.10564999
-0.12357725 -0.0035920264 -0.1056489
-0.12358698 -0.0035186186 -0.10565179
-0.12359691 -0.0034452956 -0.10565069
-0.12360696 -0.0033741277 -0.10564163
-0.1236169 -0.0033008046 -0.10564052
-0.12362722 -0.0032276558 -0.10563143
-0.12363736 -0.0031565307 -0.10562037
-0.1236477 -0.0030854931 -0.10560532
-0.12365763 -0.0030121701 -0.10560422
-0.12366666 -0.0029363465 -0.10562705
-0.12367569 -0.0028605238 -0.10564989
-0.12368542 -0.0027871151 -0.10565278
-0.12369528 -0.0027158605 -0.10564771
-0.12370569 -0.0026427545 -0.10563663
-0.12371565 -0.0025715427 -0.10562956
-0.12372548 -0.0024981769 -0.10563046
-0.12373492 -0.0024246378 -0.10563934
-0.12374444 -0.0023490312 -0.10565219
-0.12375339 -0.0022752769 -0.10567106
-0.12376293 -0.0022017807 -0.10567794
-0.12377322 -0.0021265205 -0.10567482
-0.12378308 -0.0020552659 -0.10566975
-0.1237933 -0.0019820724 -0.10566266
-0.12380332 -0.001908794 -0.10565955
-0.12381238 -0.0018350817 -0.10567643
-0.12382218 -0.0017596046 -0.10568328
-0.12383185 -0.0016882643 -0.10568221
-0.12384129 -0.0016147252 -0.10569109
-0.1238509 -0.0015391614 -0.10570195
-0.12386102 -0.0014659259 -0.10569686
-0.12387117 -0.0013947999 -0.1056858
-0.1238811 -0.0013214787 -0.1056847
-0.12389044 -0.0012478968 -0.10569557
-0.12390064 -0.0011725919 -0.10569444
-0.12391099 -0.0011015534 -0.10567939
-0.12392101 -0.0010282742 -0.10567629
-0.12393016 -0.00095460657 -0.10569116
-0.1239396 -0.00088106748 -0.10570004
-0.1239496 -0.00080567691 -0.10570291
-0.12395944 -0.00073231012 -0.1057038
-0.12396907 -0.00065885857 -0.10570869
-0.12397822 -0.00058519002 -0.10572356
-0.12398815 -0.00051186793 -0.10572246
-0.12399818 -0.00043858774 -0.10571937
-0.12400762 -0.00036504865 -0.10572825
-0.12401775 -0.0002918141 -0.10572315
-0.12402816 -0.00021870714 -0.10571206
-0.12403802 -0.00014745258 -0.105707
-0.12404843 -7.4345618e-05 -0.10569591
-0.12405878 -3.3080578e-06 -0.10568086
-0.12406871 7.0014969e-05 -0.10567976
-0.12407722 0.00014816597 -0.10571854
-0.12408564 0.00022635888 -0.10575932
-0.12409499 0.00029994175 -0.10577019
-0.12410521 0.00037313439 -0.1057631
-0.12411545 0.00044421479 -0.10575005
-0.12412538 0.00051753782 -0.10574895
-0.1241354 0.000590818 -0.10574584
-0.12414572 0.0006639678 -0.10573675
-0.12415478 0.00073767826 -0.10575363
-0.12416427 0.00081539713 -0.10577244
-0.12417442 0.00088652223 -0.10576138
-0.12418493 0.00095958635 -0.1057483
-0.12419447 0.0010330807 -0.10575518
-0.12420379 0.0011087731 -0.10577203
-0.12421323 0.0011823121 -0.10578091
-0.12422304 0.0012577884 -0.10578775
-0.12423287 0.0013311543 -0.10578866
-0.1242428 0.0014044773 -0.10578755
-0.12425273 0.0014778003 -0.10578645
-0.12426275 0.0015510786 -0.10578335
-0.12427288 0.001624316 -0.10577826
-0.12428242 0.0016978104 -0.10578515
-0.12429152 0.0017757025 -0.10581194
-0.12430086 0.0018492825 -0.10582282
-0.12431069 0.0019226503 -0.10582372
-0.12432069 0.0019980408 -0.10582658
-0.12433024 0.0020715371 -0.10583346
-0.12433995 0.0021470562 -0.10584232
-0.12434939 0.0022205934 -0.1058512
-0.12435939 0.0022959877 -0.10585406
-0.12436924 0.0023672394 -0.105849
-0.12437944 0.0024425425 -0.10584787
-0.12438888 0.0025160834 -0.10585675
-0.1243984 0.00259169 -0.10586961
-0.12440791 0.0026672948 -0.10588245
-0.12441765 0.0027407072 -0.10588535
-0.12442768 0.0028139837 -0.10588224
-0.12443721 0.00288748 -0.10588913
-0.12444663 0.0029631313 -0.10590397
-0.12445612 0.0030408502 -0.10592279
-0.12446547 0.0031144302 -0.10593366
-0.12447567 0.0031897333 -0.10593253
-0.12448511 0.0032632742 -0.10594141
-0.12449474 0.0033367258 -0.1059463
-0.12450535 0.0034097452 -0.10593122
-0.1245154 0.0034809131 -0.10592216
-0.12452521 0.0035563912 -0.10592902
-0.12453502 0.0036318675 -0.10593587
-0.12454446 0.0037054066 -0.10594476
-0.12455446 0.0037807971 -0.10594763
-0.1245649 0.0038517918 -0.10593057
-0.12457534 0.0039227866 -0.10591353
-0.12458517 0.0039961543 -0.10591441
-0.12459488 0.0040716734 -0.10592327
-0.12460501 0.0041449107 -0.10591817
-0.12461523 0.0042181034 -0.10591108
-0.12462545 0.004291296 -0.10590399
-0.12463548 0.0043645743 -0.10590088
-0.12464531 0.0044379421 -0.10590179
-0.12466402 0.0045913961 -0.10593943
-0.12467393 0.0046668295 -0.1059443
-0.12468354 0.0047423933 -0.10595514
-0.12469286 0.0048180856 -0.10597198
-0.1247026 0.0048914962 -0.10597488
-0.12471342 0.0049623195 -0.10594984
-0.12472445 0.0050330535 -0.10592081
-0.12473482 0.0051019806 -0.10589979
-0.12474506 0.0051730629 -0.10588674
-0.12475506 0.0052484535 -0.1058896
-0.12476478 0.0053239726 -0.10589845
-0.12477429 0.005399581 -0.1059113
-0.12478461 0.0054727308 -0.10590221
-0.12479658 0.0055367406 -0.10583732
-0.12480763 0.0056053661 -0.10580232
-0.12481817 0.0056763198 -0.10578328
-0.12482771 0.0057498161 -0.10579017
-0.12483834 0.0058207233 -0.10576912
-0.12484981 0.0058870632 -0.10572018
-0.12486025 0.0059580579 -0.10570312
-0.12486957 0.0060337503 -0.10571997
-0.12487862 0.006115865 -0.10575869
-0.12488982 0.0061802231 -0.10570978
-0.12497332 0.0067502968 -0.10557935
-0.11888725 -0.03750474 -0.10807739
-0.11889698 -0.037431329 -0.10808028
-0.11890642 -0.037357792 -0.10808916
-0.11891664 -0.037284598 -0.10808207
-0.11892749 -0.037207484 -0.10807292
-0.11893637 -0.037135798 -0.10808783
-0.11894526 -0.037064113 -0.10810273
-0.11895499 -0.036990698 -0.10810562
-0.11896453 -0.036917206 -0.10811251
-0.11897473 -0.036841903 -0.10811138
-0.11898485 -0.036768664 -0.10810629
-0.11899505 -0.036693361 -0.10810515
-0.11900449 -0.03661982 -0.10811403
-0.11901291 -0.03655003 -0.10813297
-0.11902225 -0.036476448 -0.10814384
-0.11903245 -0.036401145 -0.10814271
-0.11904228 -0.036327779 -0.10814361
-0.11905192 -0.036254324 -0.1081485
-0.11906231 -0.03617911 -0.10814337
-0.1190726 -0.036103848 -0.10814025
-0.11908188 -0.036032334 -0.10814715
-0.11909093 -0.035958625 -0.10816403
-0.11910095 -0.035885341 -0.10816093
-0.11911115 -0.035810038 -0.1081598
-0.11912088 -0.035736628 -0.10816269
-0.11913137 -0.035661452 -0.10815556
-0.11914196 -0.035586324 -0.10814645
-0.11915179 -0.035512958 -0.10814735
-0.11916028 -0.035441097 -0.10817023
-0.11916887 -0.035369281 -0.10819113
-0.11917841 -0.035295788 -0.10819802
-0.11918805 -0.035222333 -0.1082029
-0.11919778 -0.035148926 -0.1082058
-0.11920817 -0.035073705 -0.10820067
-0.11921827 -0.034998361 -0.10820154
-0.11922791 -0.034924909 -0.10820643
-0.11923755 -0.034851454 -0.10821131
-0.11924662 -0.034779854 -0.10822222
-0.11925577 -0.03470619 -0.1082371
-0.11926512 -0.034632605 -0.10824799
-0.11927599 -0.034557603 -0.10823288
-0.11928649 -0.034482427 -0.10822576
-0.11929583 -0.034408845 -0.10823663
-0.1193051 -0.034337334 -0.10824355
-0.11931501 -0.034261897 -0.10824841
-0.11932474 -0.034188487 -0.1082513
-0.11933457 -0.034115124 -0.1082522
-0.11934372 -0.034041457 -0.10826706
-0.11935241 -0.033969682 -0.10828596
-0.11936279 -0.033894464 -0.10828083
-0.11937338 -0.033819333 -0.10827172
-0.11938312 -0.033745922 -0.10827461
-0.11939304 -0.033672601 -0.10827351
-0.11940305 -0.033597209 -0.10827636
-0.11941193 -0.033525523 -0.10829128
-0.11942147 -0.033452027 -0.10829817
-0.11943157 -0.033376683 -0.10829902
-0.1194412 -0.033303231 -0.10830391
-0.11945084 -0.033229776 -0.10830881
-0.11946048 -0.033156324 -0.10831369
-0.11946982 -0.033082742 -0.10832458
-0.11947916 -0.03300916 -0.10833545
-0.11948919 -0.03293588 -0.10833236
-0.11949912 -0.032862559 -0.10833126
-0.11950847 -0.032788977 -0.10834213
-0.11951837 -0.032713544 -0.10834699
-0.11952896 -0.032638412 -0.10833787
-0.11953879 -0.032565046 -0.10833877
-0.11954852 -0.032491636 -0.10834166
-0.11955853 -0.032416247 -0.10834453
-0.11956855 -0.032342967 -0.10834143
-0.11957894 -0.032267749 -0.1083363
-0.11958839 -0.032194212 -0.10834518
-0.11959707 -0.032122441 -0.10836408
-0.11960661 -0.032048941 -0.10837097
-0.11961671 -0.031973593 -0.10837184
-0.11962615 -0.031900056 -0.10838072
-0.11963589 -0.031826645 -0.10838361
-0.11964571 -0.031753279 -0.1083845
-0.11965582 -0.031677932 -0.10838537
-0.11966535 -0.031604439 -0.10839225
-0.1196747 -0.031530857 -0.10840313
-0.11968424 -0.031457357 -0.10841002
-0.11969378 -0.031383865 -0.10841691
-0.11970341 -0.031310409 -0.1084218
-0.11971325 -0.031237047 -0.1084227
-0.11972259 -0.031163463 -0.10843357
-0.1197326 -0.031088073 -0.10843644
-0.11974282 -0.03101488 -0.10842934
-0.11975282 -0.030939491 -0.1084322
-0.11976255 -0.030866083 -0.10843509
-0.11977255 -0.03079069 -0.10843796
-0.11978219 -0.030717239 -0.10844284
-0.11979212 -0.030643914 -0.10844174
-0.11980212 -0.030568525 -0.10844461
-0.11981139 -0.030497011 -0.10845152
-0.1198213 -0.030421577 -0.10845638
-0.11983094 -0.030348126 -0.10846127
-0.11984076 -0.03027476 -0.10846217
-0.11985106 -0.030199498 -0.10845904
-0.11986126 -0.030124195 -0.10845791
-0.1198706 -0.030050609 -0.10846879
-0.11988014 -0.029977117 -0.10847568
-0.11988958 -0.029903578 -0.10848456
-0.11992901 -0.029788716 -0.10802133
-0.11993884 -0.02971535 -0.10802224
-0.12005217 -0.029320257 -0.10685956
-0.12007634 -0.029228039 -0.10663243
-0.12009055 -0.029148214 -0.1065653
-0.12010536 -0.029068651 -0.10648619
-0.12011845 -0.028992532 -0.1064311
-0.1201345 -0.028911419 -0.106332
-0.12014882 -0.028831638 -0.10626287
-0.12016306 -0.028753927 -0.10618978
-0.12017489 -0.028677247 -0.10616066
-0.12018675 -0.028602678 -0.10612557
-0.12019917 -0.028526256 -0.10608447
-0.12021072 -0.028451558 -0.10605537
-0.12022161 -0.028376553 -0.10604026
-0.12023278 -0.028301682 -0.10601916
-0.12024558 -0.028225433 -0.10597006
-0.1203171 -0.027956747 -0.10528678
-0.12033066 -0.027878733 -0.10522767
-0.12034252 -0.027804162 -0.10519258
-0.12035627 -0.027726237 -0.10512948
-0.12036898 -0.027649943 -0.10508239
-0.12038074 -0.027575333 -0.1050493
-0.12039374 -0.027499169 -0.1049962
-0.1204054 -0.027424512 -0.10496512
-0.12041601 -0.027351491 -0.10495003
-0.12042718 -0.02727662 -0.10492893
-0.12043998 -0.027200371 -0.10487983
-0.12045272 -0.027126193 -0.10482678
-0.12046379 -0.027051277 -0.10480768
-0.12047382 -0.026977997 -0.10480458
-0.12048367 -0.026906744 -0.10479952
-0.12049514 -0.026831999 -0.10477242
-0.12050594 -0.026759066 -0.10475334
-0.12051588 -0.026685745 -0.10475224
-0.1205257 -0.026612379 -0.10475313
-0.12053546 -0.02654108 -0.10475006
-0.12054559 -0.026467845 -0.10474496
-0.120556 -0.026394738 -0.10473388
-0.12056518 -0.026323181 -0.10474279
-0.12057415 -0.026251538 -0.10475569
-0.12058333 -0.02617998 -0.1047646
-0.12059364 -0.026106831 -0.10475552
-0.12060501 -0.026032045 -0.10473041
-0.12061562 -0.025959024 -0.10471534
-0.12062565 -0.025885746 -0.10471224
-0.12063397 -0.025815912 -0.10473317
-0.12064227 -0.025743965 -0.10476006
-0.12065134 -0.025672365 -0.10477097
-0.12066081 -0.025600936 -0.10477389
-0.12067074 -0.025527615 -0.10477278
-0.1206805 -0.025456317 -0.10476971
-0.12069043 -0.025382994 -0.10476861
-0.12070026 -0.02530963 -0.10476951
-0.12071002 -0.025238331 -0.10476644
-0.12072024 -0.025165139 -0.10475934
-0.12073056 -0.025091987 -0.10475025
-0.12074078 -0.025018796 -0.10474315
-0.12075034 -0.024947412 -0.10474408
-0.12075981 -0.024875984 -0.10474701
-0.12076973 -0.024802662 -0.10474591
-0.1207794 -0.024731319 -0.10474484
-0.12078845 -0.024657609 -0.1047617
-0.12079676 -0.024587773 -0.10478263
-0.12080689 -0.024514537 -0.10477754
-0.1208178 -0.024441648 -0.10475646
-0.12082772 -0.024368327 -0.10475536
-0.1208365 -0.024296595 -0.10477225
-0.12084502 -0.024226848 -0.10478919
-0.12085466 -0.024153396 -0.10479408
-0.12086527 -0.024080373 -0.104779
-0.12087502 -0.024009079 -0.10477593
-0.12088437 -0.023935495 -0.10478681
-0.12089384 -0.023864068 -0.10478973
-0.12090435 -0.023791004 -0.10477665
-0.12091428 -0.023717683 -0.10477555
-0.12092336 -0.023646083 -0.10478646
-0.12093272 -0.023574611 -0.10479138
-0.12094314 -0.023501504 -0.10478029
-0.12095336 -0.023428313 -0.10477319
-0.12096273 -0.02335684 -0.10477812
-0.12097181 -0.023285242 -0.10478902
-0.12098222 -0.023212135 -0.10477793
-0.12099264 -0.02313903 -0.10476685
-0.1210021 -0.023067601 -0.10476977
-0.12101154 -0.022994062 -0.10477865
-0.12102082 -0.022922549 -0.10478557
-0.12103026 -0.02284901 -0.10479445
-0.12103943 -0.022777453 -0.10480336
-0.1210489 -0.022706024 -0.10480629
-0.12105912 -0.022632834 -0.1047992
-0.12106907 -0.022561621 -0.10479213
-0.12107842 -0.022488039 -0.10480301
-0.12108798 -0.022416655 -0.10480393
-0.12109839 -0.02234355 -0.10479285
-0.12110832 -0.022270225 -0.10479175
-0.12111769 -0.022198755 -0.10479666
-0.12112772 -0.022125477 -0.10479356
-0.12113738 -0.022054136 -0.10479249
-0.12114684 -0.021982709 -0.10479541
-0.12115697 -0.021909472 -0.10479032
-0.12116662 -0.02183813 -0.10478924
-0.12117627 -0.021764679 -0.10479413
-0.12118573 -0.021693252 -0.10479705
-0.12119595 -0.021620058 -0.10478996
-0.12120627 -0.021546908 -0.10478088
-0.12121632 -0.02147574 -0.10477181
-0.12122654 -0.021402549 -0.10476472
-0.12123581 -0.021331035 -0.10477164
-0.12124459 -0.021259304 -0.10478854
-0.12125424 -0.021185853 -0.10479342
-0.12126379 -0.021114469 -0.10479435
-0.12127294 -0.021040799 -0.10480922
-0.12128153 -0.020968983 -0.10483012
-0.1212908 -0.02089747 -0.10483703
-0.12130007 -0.020825956 -0.10484395
-0.12130962 -0.02075246 -0.10485084
-0.12131908 -0.020681033 -0.10485376
-0.12132806 -0.02060939 -0.10486667
-0.1213377 -0.020535937 -0.10487156
-0.1213486 -0.020463048 -0.10485049
-0.12135874 -0.020391922 -0.10483943
-0.12136789 -0.020318255 -0.1048543
-0.12137687 -0.02024661 -0.10486721
-0.12138585 -0.020174967 -0.10488012
-0.12139473 -0.02010328 -0.10489503
-0.12140361 -0.020031594 -0.10490993
-0.12141296 -0.019958012 -0.10492081
-0.12142262 -0.019886671 -0.10491974
-0.12143265 -0.01981339 -0.10491663
-0.12144238 -0.019739982 -0.10491952
-0.12145165 -0.019668469 -0.10492644
-0.12146043 -0.019596739 -0.10494334
-0.12146892 -0.01952488 -0.10496624
-0.1214779 -0.019453235 -0.10497915
-0.12148783 -0.019379914 -0.10497805
-0.12149768 -0.019308658 -0.10497298
-0.1215081 -0.019235551 -0.10496189
-0.12151813 -0.019162273 -0.1049588
-0.12152789 -0.019090975 -0.10495572
-0.12153811 -0.019017782 -0.10494863
-0.12154767 -0.018946398 -0.10494955
-0.12155741 -0.018872989 -0.10495244
-0.12156677 -0.018801518 -0.10495736
-0.12157536 -0.018729702 -0.10497826
-0.12158373 -0.018655688 -0.10500911
-0.12159242 -0.018583916 -0.10502801
-0.12160188 -0.018512487 -0.10503093
-0.12161162 -0.018439079 -0.10503382
-0.12162069 -0.018367479 -0.10504474
-0.12163082 -0.018294241 -0.10503964
-0.12164097 -0.018223118 -0.10502858
-0.12165167 -0.01815014 -0.1050115
-0.1216618 -0.018076904 -0.10500641
-0.12167116 -0.018005434 -0.10501133
-0.12168109 -0.017932111 -0.10501023
-0.12169065 -0.017860727 -0.10501114
-0.1216999 -0.017787103 -0.10502402
-0.12170888 -0.017715458 -0.10503693
-0.12171796 -0.017643858 -0.10504784
-0.12172711 -0.01757019 -0.10506272
-0.12173618 -0.01749859 -0.10507362
-0.12174611 -0.017425267 -0.10507252
-0.12175606 -0.017354056 -0.10506546
-0.12176687 -0.017281123 -0.10504639
-0.12177777 -0.017208232 -0.10502532
-0.12178704 -0.017136719 -0.10503223
-0.12179609 -0.017063007 -0.1050491
-0.12180497 -0.016991319 -0.10506401
-0.12181395 -0.016919676 -0.10507692
-0.1218234 -0.016846137 -0.1050858
-0.12183248 -0.016774537 -0.10509671
-0.12184201 -0.016701043 -0.10510359
-0.12185214 -0.016627805 -0.10509849
-0.12186238 -0.016556725 -0.10508544
-0.12187289 -0.016483661 -0.10507236
-0.12188285 -0.01641245 -0.10506529
-0.12189219 -0.016338868 -0.10507616
-0.12190107 -0.016267182 -0.10509107
-0.12191051 -0.016193643 -0.10509996
-0.12191998 -0.016122214 -0.10510289
-0.12193049 -0.016049152 -0.1050898
-0.12194062 -0.015975915 -0.10508471
-0.1219496 -0.015904272 -0.10509761
-0.12195858 -0.015832629 -0.10511052
-0.12196831 -0.01575922 -0.10511342
-0.12197816 -0.015687965 -0.10510834
-0.12198839 -0.015614773 -0.10510125
-0.12199841 -0.015541493 -0.10509815
-0.122007 -0.015469677 -0.10511905
-0.1220151 -0.015397645 -0.10514993
-0.12202395 -0.015323847 -0.10517079
-0.12203274 -0.015252117 -0.10518769
-0.12204218 -0.015178578 -0.10519658
-0.12205175 -0.015107194 -0.1051975
-0.12206148 -0.015033785 -0.1052004
-0.12207114 -0.014962444 -0.10519933
-0.12208136 -0.014889251 -0.10519224
-0.12209187 -0.014816187 -0.10517915
-0.12210251 -0.014745279 -0.10515811
-0.12211351 -0.014672432 -0.10513503
-0.12212366 -0.014601307 -0.10512397
-0.12213242 -0.014527466 -0.10514684
-0.12214069 -0.014453408 -0.10517968
-0.12214957 -0.014381722 -0.10519459
-0.12215862 -0.01430801 -0.10521147
-0.1221678 -0.014236453 -0.10522038
-0.12217782 -0.014163174 -0.10521727
-0.12218738 -0.01409179 -0.1052182
-0.12219712 -0.014018381 -0.10522109
-0.12220744 -0.013945231 -0.10521201
-0.12221798 -0.013874279 -0.10519296
-0.12222829 -0.01380113 -0.10518387
-0.12223718 -0.013729443 -0.10519878
-0.12224662 -0.013655904 -0.10520766
-0.12225599 -0.013584433 -0.10521258
-0.12226523 -0.013510808 -0.10522545
-0.12227438 -0.01343714 -0.10524033
-0.12228375 -0.013365669 -0.10524525
-0.12229387 -0.013292434 -0.10524014
-0.12230334 -0.013221006 -0.10524307
-0.1223121 -0.013147165 -0.10526593
-0.12232115 -0.013073454 -0.10528281
-0.12233061 -0.013002026 -0.10528573
-0.12234074 -0.012928789 -0.10528063
-0.12235089 -0.012857664 -0.10526958
-0.12236101 -0.012784429 -0.10526448
-0.12237094 -0.012711106 -0.10526337
-0.12238031 -0.012639636 -0.10526829
-0.12238926 -0.012565881 -0.10528716
-0.1223987 -0.012492342 -0.10529605
-0.12240895 -0.012421261 -0.10528299
-0.12241976 -0.012348327 -0.10526391
-0.1224301 -0.012277288 -0.10524886
-0.12243966 -0.012205904 -0.10524978
-0.1224492 -0.012132409 -0.10525668
-0.12245845 -0.012058783 -0.10526955
-0.12246779 -0.011985201 -0.10528043
-0.12247726 -0.011913775 -0.10528335
-0.12248748 -0.011840582 -0.10527626
-0.12249753 -0.011769414 -0.1052672
-0.12250707 -0.011695918 -0.10527409
-0.12251602 -0.011622163 -0.10529296
-0.122525 -0.01155052 -0.10530587
-0.12253503 -0.01147724 -0.10530277
-0.12254515 -0.011404004 -0.10529767
-0.12255491 -0.011332707 -0.10529459
-0.12256522 -0.011259558 -0.10528551
-0.12257518 -0.011188346 -0.10527844
-0.12258413 -0.011114592 -0.10529731
-0.1225925 -0.011040577 -0.10532816
-0.12260224 -0.010967168 -0.10533106
-0.12261239 -0.010896044 -0.10531999
-0.12262232 -0.010822721 -0.10531889
-0.12263197 -0.01075138 -0.10531782
-0.12264152 -0.010677884 -0.10532472
-0.12265067 -0.010604216 -0.10533959
-0.1226602 -0.01053072 -0.10534647
-0.12266986 -0.01045938 -0.1053454
-0.12267999 -0.010386143 -0.10534031
-0.12269001 -0.010312865 -0.1053372
-0.12269958 -0.01024148 -0.10533813
-0.1227097 -0.010168243 -0.10533304
-0.12271975 -0.010097075 -0.10532397
-0.12273007 -0.010023926 -0.10531488
-0.12274022 -0.0099528013 -0.10530382
-0.12275093 -0.0098798238 -0.10528675
-0.12276088 -0.009808613 -0.10527968
-0.12277003 -0.0097349454 -0.10529456
-0.12277957 -0.0096614491 -0.10530143
-0.12278952 -0.0095902383 -0.10529438
-0.12280013 -0.009517218 -0.1052793
-0.12281038 -0.0094461367 -0.10526624
-0.12282001 -0.0093726842 -0.10527113
-0.12282877 -0.0092988433 -0.105294
-0.12283754 -0.0092250016 -0.10531686
-0.12284648 -0.0091512464 -0.10533573
-0.12285563 -0.0090775788 -0.1053506
-0.1228653 -0.0090062376 -0.10534953
-0.12287591 -0.0089332182 -0.10533445
-0.12288586 -0.0088620065 -0.10532738
-0.1228957 -0.0087886406 -0.10532828
-0.12290562 -0.0087153185 -0.10532717
-0.12291519 -0.0086439345 -0.1053281
-0.12292463 -0.0085703954 -0.10533698
-0.12293407 -0.0084968563 -0.10534587
-0.12294322 -0.0084231887 -0.10536074
-0.12295276 -0.0083496924 -0.10536763
-0.12296251 -0.008278395 -0.10536456
-0.12297176 -0.0082047703 -0.10537744
-0.1229805 -0.0081288181 -0.10540626
-0.12298916 -0.0080549326 -0.10543112
-0.12299851 -0.0079813506 -0.10544201
-0.12300865 -0.0079102265 -0.10543094
-0.12301899 -0.007839188 -0.10541589
-0.12302863 -0.0077657355 -0.10542078
-0.12303739 -0.0076918947 -0.10544364
-0.12304612 -0.007615942 -0.10547247
-0.12305479 -0.007542057 -0.10549733
-0.12306452 -0.0074686483 -0.10550022
-0.12307484 -0.0073954985 -0.10549113
-0.12308528 -0.0073245037 -0.10547409
-0.12309562 -0.0072534652 -0.10545903
-0.12310555 -0.0071801422 -0.10545793
-0.1231147 -0.0071064746 -0.1054728
-0.12312394 -0.0070328489 -0.10548568
-0.12313339 -0.0069593107 -0.10549457
-0.12314273 -0.0068857279 -0.10550544
-0.12315198 -0.0068121031 -0.10551833
-0.12316171 -0.0067386944 -0.10552122
-0.12317184 -0.006665458 -0.10551612
-0.1231816 -0.0065941606 -0.10551305
-0.12319142 -0.0065207947 -0.10551395
-0.12320097 -0.0064472994 -0.10552083
-0.12321031 -0.0063737174 -0.10553171
-0.12322024 -0.0063003944 -0.10553061
-0.12323038 -0.0062292693 -0.10551956
-0.12324041 -0.0061559901 -0.10551646
-0.12324956 -0.0060823224 -0.10553133
-0.12325832 -0.0060084816 -0.10555419
-0.12326767 -0.0059348987 -0.10556507
-0.12327749 -0.0058615329 -0.10556597
-0.12328733 -0.005788167 -0.10556686
-0.12329707 -0.0057147592 -0.10556976
-0.12330653 -0.0056433305 -0.10557268
-0.12331675 -0.0055701379 -0.10556558
-0.12332707 -0.005496989 -0.1055565
-0.1233368 -0.0054235794 -0.10555939
-0.12334637 -0.0053521954 -0.1055603
-0.12335698 -0.005279175 -0.10554522
-0.12336762 -0.0052082669 -0.10552419
-0.12337746 -0.0051370133 -0.10551912
-0.12338728 -0.0050615352 -0.10552597
-0.12339652 -0.0049879095 -0.10553885
-0.12340538 -0.0049141115 -0.10555971
-0.1234145 -0.0048383316 -0.10558055
-0.12342384 -0.0047647506 -0.10559144
-0.1234337 -0.0046934951 -0.10558637
-0.12344402 -0.0046203462 -0.10557728
-0.12345388 -0.0045490917 -0.10557221
-0.12346388 -0.0044737011 -0.10557507
-0.12347323 -0.0044001192 -0.10558596
-0.12348296 -0.0043267095 -0.10558885
-0.12349291 -0.0042554988 -0.10558178
-0.12350255 -0.0041820463 -0.10558667
-0.12351167 -0.0041062664 -0.10560751
-0.12352092 -0.0040326416 -0.10562038
-0.12353045 -0.0039591463 -0.10562728
-0.1235399 -0.0038856082 -0.10563616
-0.12354944 -0.0038121119 -0.10564304
-0.12355898 -0.0037386157 -0.10564993
-0.12356881 -0.0036652507 -0.10565082
-0.12357873 -0.0035919277 -0.10564972
-0.12358838 -0.0035184752 -0.10565461
-0.1235984 -0.0034451969 -0.10565151
-0.12360846 -0.003374028 -0.10564245
-0.12361848 -0.0033007488 -0.10563935
-0.1236287 -0.0032275561 -0.10563226
-0.12363885 -0.003156432 -0.10562119
-0.12364919 -0.0030853935 -0.10560614
-0.12365902 -0.0030120276 -0.10560705
-0.12366815 -0.0029362477 -0.10562789
-0.12367717 -0.002860425 -0.10565072
-0.12368691 -0.0027870154 -0.10565361
-0.12369677 -0.0027157618 -0.10564854
-0.12370718 -0.0026426548 -0.10563745
-0.12371714 -0.0025714431 -0.10563038
-0.12372696 -0.0024980772 -0.10563128
-0.1237364 -0.0024245381 -0.10564017
-0.12374592 -0.0023489324 -0.10565301
-0.12375487 -0.0022751763 -0.10567188
-0.12376441 -0.002201682 -0.10567877
-0.12377471 -0.0021264208 -0.10567564
-0.12378456 -0.0020551663 -0.10567057
-0.12379479 -0.0019819736 -0.10566349
-0.12380482 -0.0019086944 -0.10566038
-0.12381387 -0.001834983 -0.10567725
-0.12382367 -0.0017595049 -0.10568411
-0.12383323 -0.0016881209 -0.10568503
-0.12384278 -0.0016146256 -0.10569192
-0.12385239 -0.0015390627 -0.10570277
-0.12386251 -0.0014658263 -0.10569768
-0.12387266 -0.0013947012 -0.10568662
-0.12388249 -0.0013213353 -0.10568751
-0.12389193 -0.0012477962 -0.1056964
-0.12390203 -0.0011724494 -0.10569726
-0.12391247 -0.0011014538 -0.1056802
-0.1239224 -0.0010281317 -0.1056791
-0.12393165 -0.00095450599 -0.10569198
-0.12394109 -0.00088096689 -0.10570087
-0.12395109 -0.00080557726 -0.10570373
-0.12396092 -0.0007322114 -0.10570464
-0.12397056 -0.00065875892 -0.10570952
-0.12397981 -0.00058513321 -0.1057224
-0.12398963 -0.00051176827 -0.10572328
-0.12399966 -0.00043848809 -0.10572019
-0.1240092 -0.00036499277 -0.10572708
-0.12401923 -0.00029171444 -0.10572398
-0.12402955 -0.00021856371 -0.10571489
-0.1240394 -0.00014730915 -0.10570982
-0.12404992 -7.4245967e-05 -0.10569673
-0.12406026 -3.2074749e-06 -0.10568168
-0.12407019 7.0115551e-05 -0.10568058
-0.12407871 0.00014826562 -0.10571936
-0.12408713 0.00022645853 -0.10576014
-0.12409647 0.00030004047 -0.10577102
-0.12410669 0.00037323311 -0.10576393
-0.12411693 0.00044431537 -0.10575087
-0.12412687 0.0005176384 -0.10574977
-0.12413679 0.00059096143 -0.10574867
-0.12414721 0.00066406652 -0.10573757
-0.12415626 0.00073777698 -0.10575445
-0.12416575 0.00081549585 -0.10577326
-0.1241759 0.00088662095 -0.1057622
-0.12418631 0.00095972791 -0.10575111
-0.12419595 0.0010331795 -0.10575601
-0.12420527 0.0011088736 -0.10577285
-0.12421472 0.0011824127 -0.10578173
-0.12422452 0.001257889 -0.10578858
-0.12423435 0.0013312548 -0.10578948
-0.12424418 0.0014046207 -0.10579038
-0.12425411 0.0014779437 -0.10578927
-0.12426424 0.0015511792 -0.10578418
-0.12427436 0.0016244166 -0.10577909
-0.1242839 0.0016979109 -0.10578597
-0.124293 0.0017758012 -0.10581277
-0.12430234 0.0018493831 -0.10582364
-0.12431218 0.001922749 -0.10582454
-0.12432218 0.0019981414 -0.1058274
-0.12433172 0.0020716377 -0.10583429
-0.12434133 0.0021471996 -0.10584514
-0.12435087 0.002220694 -0.10585202
-0.12436097 0.0022960436 -0.10585289
-0.12437072 0.00236734 -0.10584982
-0.12438092 0.002442643 -0.10584869
-0.12439036 0.002516184 -0.10585758
-0.12439988 0.0025917906 -0.10587043
-0.12440939 0.0026673973 -0.10588328
-0.12441923 0.0027407631 -0.10588416
-0.12442916 0.0028140843 -0.10588306
-0.1244387 0.0028875805 -0.10588995
-0.12444811 0.0029632319 -0.1059048
-0.12445761 0.0030409507 -0.10592361
-0.12446695 0.0031145308 -0.10593449
-0.12447715 0.0031898338 -0.10593335
-0.12448659 0.0032633748 -0.10594223
-0.12449622 0.0033368263 -0.10594713
-0.12450683 0.0034098458 -0.10593204
-0.12451688 0.0034810137 -0.10592299
-0.12452669 0.0035564918 -0.10592984
-0.1245365 0.0036319681 -0.1059367
-0.12454594 0.0037055071 -0.10594559
-0.12455595 0.0037808958 -0.10594845
-0.12456638 0.0038518924 -0.10593139
-0.12457682 0.003922889 -0.10591435
-0.12458666 0.003996253 -0.10591524
-0.12459646 0.0040717293 -0.1059221
-0.12460649 0.0041450113 -0.105919
-0.12461671 0.0042182021 -0.1059119
-0.12462693 0.0042913966 -0.10590481
-0.12463696 0.0043646768 -0.1059017
-0.12464679 0.0044380426 -0.1059026
-0.12465557 0.0045181736 -0.10594135
-0.12466541 0.0045915395 -0.10594226
-0.12467541 0.0046669301 -0.10594512
-0.12468502 0.0047424939 -0.10595597
-0.12469434 0.0048181862 -0.1059728
-0.12470408 0.0048915967 -0.1059757
-0.1247149 0.0049624182 -0.10595066
-0.12472593 0.005033154 -0.10592163
-0.12473629 0.0051020794 -0.10590061
-0.12474655 0.0051731616 -0.10588756
-0.12475654 0.0052485541 -0.10589042
-0.12476635 0.0053240284 -0.10589727
-0.12477577 0.0053996816 -0.10591212
-0.12478602 0.005470762 -0.10589907
-0.12479807 0.0055368431 -0.10583813
-0.12480902 0.0056055114 -0.10580514
-0.12481955 0.0056764632 -0.1057861
-0.12482919 0.0057499148 -0.10579099
-0.12483983 0.005820822 -0.10576994
-0.12485129 0.0058871619 -0.105721
-0.12486164 0.0059582014 -0.10570595
-0.12487112 0.0060359202 -0.10572475
-0.1248799 0.0061160531 -0.10576351
-0.12489137 0.0061823912 -0.10571456
-0.12490461 0.0062374417 -0.10560185
-0.12497502 0.0067481976 -0.10557021
-0.12498605 0.0068189353 -0.10554118
-0.11888815 -0.03750658 -0.10808014
-0.11889815 -0.037431188 -0.108083
-0.11890732 -0.037359629 -0.10809191
-0.11891782 -0.037284456 -0.10808478
-0.1189284 -0.037209325 -0.10807567
-0.11893755 -0.037135657 -0.10809054
-0.11894643 -0.037063967 -0.10810545
-0.11895616 -0.036990561 -0.10810835
-0.1189657 -0.036917064 -0.10811523
-0.1189759 -0.036841758 -0.10811409
-0.11898603 -0.036768526 -0.108109
-0.11899632 -0.036693264 -0.10810587
-0.1190054 -0.03662166 -0.10811678
-0.11901417 -0.036549933 -0.10813369
-0.11902352 -0.036476351 -0.10814456
-0.11903335 -0.036402985 -0.10814546
-0.11904345 -0.036327638 -0.10814632
-0.11905318 -0.036254227 -0.10814922
-0.11906358 -0.03617901 -0.10814409
-0.11907388 -0.036103748 -0.10814096
-0.11908305 -0.036032192 -0.10814987
-0.1190922 -0.035958525 -0.10816475
-0.11910213 -0.0358852 -0.10816365
-0.11911242 -0.035809942 -0.10816052
-0.11912216 -0.035736531 -0.10816342
-0.11913244 -0.035661273 -0.10816028
-0.11914304 -0.035586141 -0.10815117
-0.11915296 -0.03551282 -0.10815006
-0.11916155 -0.035441 -0.10817095
-0.11917004 -0.035369143 -0.10819385
-0.11917949 -0.035295602 -0.10820273
-0.11918922 -0.035222191 -0.10820562
-0.11919905 -0.035148829 -0.10820652
-0.11920934 -0.035073563 -0.10820339
-0.11921954 -0.03499826 -0.10820226
-0.11922908 -0.034924768 -0.10820914
-0.11923872 -0.034851313 -0.10821403
-0.11924779 -0.034779713 -0.10822494
-0.11925694 -0.034706049 -0.10823982
-0.11926602 -0.034634445 -0.10825073
-0.11927726 -0.034557506 -0.10823359
-0.11928765 -0.034482285 -0.10822847
-0.119297 -0.034408703 -0.10823935
-0.11930637 -0.034337237 -0.10824426
-0.11931618 -0.034261756 -0.10825112
-0.11932591 -0.034188349 -0.10825402
-0.11933574 -0.034114987 -0.1082549
-0.11934489 -0.034041315 -0.10826977
-0.11935358 -0.03396954 -0.10828868
-0.11936396 -0.033894323 -0.10828355
-0.11937466 -0.033819236 -0.10827243
-0.11938439 -0.033745825 -0.10827532
-0.11939422 -0.033672459 -0.10827622
-0.11940395 -0.033599049 -0.10827912
-0.1194132 -0.033525426 -0.108292
-0.11942273 -0.03345193 -0.10829888
-0.11943284 -0.033376582 -0.10829975
-0.11944247 -0.03330313 -0.10830463
-0.11945175 -0.033231616 -0.10831155
-0.11946175 -0.033156224 -0.10831441
-0.11947072 -0.033084586 -0.10832732
-0.11948007 -0.033011001 -0.1083382
-0.11949046 -0.032935783 -0.10833307
-0.11950029 -0.032862417 -0.10833397
-0.11950964 -0.032788835 -0.10834485
-0.11951937 -0.032715425 -0.10834774
-0.11953013 -0.032638274 -0.10834058
-0.11953996 -0.032564901 -0.10834148
-0.11954969 -0.032491498 -0.10834438
-0.1195597 -0.032416105 -0.10834724
-0.11956972 -0.032342825 -0.10834414
-0.11958002 -0.032267563 -0.10834102
-0.11958955 -0.032194067 -0.1083479
-0.11959824 -0.032122295 -0.10836679
-0.11960778 -0.032048799 -0.10837369
-0.11961788 -0.031973451 -0.10837454
-0.11962742 -0.031899959 -0.10838144
-0.11963715 -0.031826548 -0.10838433
-0.11964698 -0.031753182 -0.10838522
-0.11965699 -0.03167779 -0.10838808
-0.11966662 -0.031604342 -0.10839297
-0.11967596 -0.031530757 -0.10840385
-0.11968551 -0.03145726 -0.10841074
-0.11969505 -0.031383768 -0.10841762
-0.11970458 -0.031310268 -0.10842451
-0.11971442 -0.031236906 -0.10842542
-0.11972386 -0.031163367 -0.1084343
-0.11973376 -0.031087931 -0.10843915
-0.11974398 -0.03101474 -0.10843206
-0.11975399 -0.030939348 -0.10843492
-0.11976372 -0.030865939 -0.10843781
-0.11977345 -0.030792531 -0.1084407
-0.11978345 -0.03071714 -0.10844357
-0.11979339 -0.030643817 -0.10844246
-0.11980312 -0.03057041 -0.10844535
-0.11981266 -0.030496912 -0.10845224
-0.11982246 -0.030421436 -0.1084591
-0.1198321 -0.030347984 -0.10846399
-0.11984193 -0.030274617 -0.10846487
-0.11985223 -0.030199356 -0.10846175
-0.11986215 -0.030126031 -0.10846066
-0.11987187 -0.030050512 -0.10846951
-0.11988141 -0.02997702 -0.10847639
-0.11989058 -0.029905461 -0.1084853
-0.1199299 -0.029790556 -0.10802408
-0.1199401 -0.029715251 -0.10802295
-0.12005353 -0.029320203 -0.10685828
-0.1200773 -0.029227812 -0.10663913
-0.12009192 -0.029148161 -0.10656402
-0.12010635 -0.029070538 -0.10648693
-0.12011962 -0.028992392 -0.10643382
-0.12013567 -0.028911278 -0.10633471
-0.12015008 -0.028831542 -0.10626359
-0.12016433 -0.028753828 -0.1061905
-0.12017616 -0.028677149 -0.10616137
-0.12018801 -0.02860258 -0.10612629
-0.12020033 -0.028526116 -0.10608719
-0.12021189 -0.028451417 -0.10605809
-0.12022287 -0.028376456 -0.10604098
-0.12023395 -0.028301543 -0.10602187
-0.12024665 -0.028225251 -0.10597477
-0.12031817 -0.027956564 -0.10529148
-0.12033193 -0.027878636 -0.10522839
-0.12034378 -0.027804065 -0.10519329
-0.12035754 -0.02772614 -0.1051302
-0.12036998 -0.027651828 -0.10508313
-0.120382 -0.027575236 -0.10505001
-0.1203949 -0.027499029 -0.10499892
-0.12040666 -0.027424417 -0.10496584
-0.12041718 -0.027351353 -0.10495275
-0.12042844 -0.027276523 -0.10492965
-0.12044089 -0.027202215 -0.10488258
-0.12045389 -0.027126051 -0.10482949
-0.12046496 -0.027051136 -0.10481039
-0.12047472 -0.026979838 -0.10480732
-0.12048484 -0.026906602 -0.10480222
-0.1204963 -0.026831862 -0.10477512
-0.12050721 -0.026758969 -0.10475405
-0.12051713 -0.026685648 -0.10475295
-0.12052697 -0.026612282 -0.10475384
-0.12053663 -0.026540942 -0.10475277
-0.12054675 -0.026467703 -0.10474768
-0.12055717 -0.026394598 -0.10473659
-0.12056644 -0.026323084 -0.1047435
-0.12057532 -0.026251398 -0.10475841
-0.1205845 -0.026179841 -0.10476732
-0.12059491 -0.026106734 -0.10475624
-0.12060618 -0.026031904 -0.10473313
-0.12061689 -0.025958927 -0.10471605
-0.12062692 -0.025885649 -0.10471296
-0.12063514 -0.025815772 -0.10473587
-0.12064333 -0.025743783 -0.10476476
-0.12065251 -0.025672225 -0.10477368
-0.12066197 -0.025600798 -0.10477661
-0.12067181 -0.025527433 -0.10477749
-0.12068166 -0.025456177 -0.10477243
-0.12069159 -0.025382854 -0.10477132
-0.12070116 -0.02531147 -0.10477225
