# .PCD v0.7 - Point Cloud Data file format
VERSION 0.7
FIELDS x y z
SIZE 4 4 4
TYPE F F F
COUNT 1 1 1
WIDTH 1255
HEIGHT 1
VIEWPOINT 0 0 0 1 0 0 0
POINTS 1255
DATA ascii
-0.01362622 -0.017142674 -0.10024609
-0.013636146 -0.017069351 -0.100245
-0.013645292 -0.016995683 -0.10025988
-0.013654171 -0.016923996 -0.10027477
-0.013664 -0.01685063 -0.10027568
-0.013674024 -0.01677735 -0.10027257
-0.013683682 -0.016706008 -0.1002715
-0.013693511 -0.016632643 -0.10027241
-0.01370295 -0.016559104 -0.10028129
-0.013711901 -0.016485348 -0.10030016
-0.013721268 -0.016413879 -0.10030508
-0.013731292 -0.016340598 -0.10030199
-0.013741608 -0.016267449 -0.10029289
-0.013751656 -0.016196281 -0.10028384
-0.013761777 -0.016123043 -0.10027874
-0.013772095 -0.016049892 -0.10026965
-0.01378224 -0.015978768 -0.1002586
-0.013791873 -0.015905315 -0.10026349
-0.013801215 -0.015831733 -0.10027437
-0.013810873 -0.015760392 -0.1002733
-0.013820898 -0.015687112 -0.1002702
-0.01383114 -0.01561603 -0.10025715
-0.013842237 -0.015543225 -0.10023209
-0.01385209 -0.01547197 -0.10022701
-0.013860749 -0.015398085 -0.10025188
-0.013869505 -0.015324245 -0.10027475
-0.013878847 -0.015250663 -0.10028563
-0.013888286 -0.015177124 -0.10029452
-0.01389792 -0.015103672 -0.10029941
-0.013907969 -0.015032504 -0.10029035
-0.013918968 -0.014959655 -0.10026728
-0.013929503 -0.014888702 -0.10024824
-0.013939332 -0.014815336 -0.10024913
-0.013948869 -0.014741841 -0.10025602
-0.013957845 -0.014670198 -0.10026893
-0.013966772 -0.014594331 -0.10029376
-0.013976016 -0.014520707 -0.10030664
-0.013985675 -0.014449365 -0.10030557
-0.013995601 -0.014376042 -0.10030447
-0.014005454 -0.014304787 -0.1002994
-0.014015259 -0.01422931 -0.10030627
-0.014023528 -0.014155253 -0.10033911
-0.01403209 -0.014081325 -0.10036597
-0.014041918 -0.01400796 -0.10036688
-0.01405187 -0.013936749 -0.10035981
-0.014061991 -0.013863511 -0.10035472
-0.014071625 -0.013790059 -0.10035961
-0.014080089 -0.013716089 -0.10038847
-0.014088845 -0.013642248 -0.10041133
-0.014098479 -0.013568795 -0.10041623
-0.014108601 -0.013495559 -0.10041113
-0.014118845 -0.013424477 -0.10039807
-0.014129746 -0.013351585 -0.10037701
-0.014139501 -0.013280287 -0.10037394
-0.014148843 -0.013206705 -0.10038482
-0.014158379 -0.013133209 -0.10039171
-0.014168208 -0.013059843 -0.1003926
-0.014177745 -0.012986348 -0.10039949
-0.014187281 -0.012912853 -0.10040639
-0.014196623 -0.012839271 -0.10041727
-0.014205964 -0.012765689 -0.10042814
-0.014215696 -0.012692279 -0.10043104
-0.01422572 -0.012619 -0.10042795
-0.014235378 -0.012547658 -0.10042688
-0.014245305 -0.012474335 -0.10042578
-0.014255329 -0.012401056 -0.10042267
-0.014265158 -0.012327689 -0.10042357
-0.01427489 -0.01225428 -0.10042647
-0.014284353 -0.012182852 -0.10042939
-0.014293792 -0.012109314 -0.10043827
-0.014303206 -0.012033664 -0.10045312
-0.014312353 -0.011959995 -0.10046799
-0.014322084 -0.011886586 -0.1004709
-0.014331938 -0.011815332 -0.10046583
-0.01434245 -0.011742268 -0.10045275
-0.014352789 -0.011671228 -0.1004377
-0.014362716 -0.011597905 -0.1004366
-0.014372253 -0.011524409 -0.10044349
-0.01438179 -0.011450914 -0.10045037
-0.014391838 -0.011379745 -0.10044132
-0.014402544 -0.011306767 -0.10042424
-0.014412982 -0.011235772 -0.1004072
-0.014422908 -0.011162449 -0.1004061
-0.014431958 -0.011088737 -0.10042296
-0.014441201 -0.011015112 -0.10043585
-0.014450519 -0.010939419 -0.10045268
-0.014459764 -0.010865794 -0.10046557
-0.014469691 -0.010792471 -0.10046447
-0.014479641 -0.010721259 -0.10045741
-0.01448947 -0.010647894 -0.1004583
-0.014498811 -0.010574312 -0.10046919
-0.01450786 -0.010500601 -0.10048606
-0.014517957 -0.010425252 -0.10048693
-0.014527909 -0.01035404 -0.10047986
-0.014537956 -0.010282872 -0.10047081
-0.014548054 -0.010207524 -0.10047168
-0.014557298 -0.010133899 -0.10048456
-0.014567029 -0.010060489 -0.10048745
-0.014576663 -0.0099870367 -0.10049234
-0.014585908 -0.0099134129 -0.10050522
-0.014595443 -0.0098399166 -0.10051211
-0.01460537 -0.0097665936 -0.10051101
-0.0146152 -0.0096932277 -0.1005119
-0.014624638 -0.0096196886 -0.1005208
-0.014634272 -0.0095462361 -0.10052568
-0.014644297 -0.0094729569 -0.10052259
-0.014654321 -0.0093996767 -0.10051949
-0.014664466 -0.0093285516 -0.10050843
-0.014674978 -0.0092554875 -0.10049535
-0.01468522 -0.0091844061 -0.1004823
-0.014695561 -0.0091133658 -0.10046724
-0.014705488 -0.0090400428 -0.10046615
-0.014715098 -0.0089644799 -0.100477
-0.014724049 -0.0088907257 -0.10049587
-0.014733294 -0.0088171 -0.10050876
-0.014743123 -0.0087437341 -0.10050964
-0.014753146 -0.0086704539 -0.10050655
-0.014763365 -0.0085972603 -0.10049946
-0.014773023 -0.0085259192 -0.10049839
-0.014782536 -0.0084503135 -0.10051123
-0.014791877 -0.0083767315 -0.10052212
-0.014801706 -0.0083033647 -0.10052301
-0.01481173 -0.0082300855 -0.10051992
-0.014821755 -0.0081568044 -0.10051683
-0.014831607 -0.0080855507 -0.10051176
-0.014841729 -0.0080123134 -0.10050666
-0.014851558 -0.0079389475 -0.10050756
-0.014861095 -0.0078654522 -0.10051445
-0.014870436 -0.0077918693 -0.10052533
-0.014880265 -0.0077185035 -0.10052623
-0.014889972 -0.0076429825 -0.10053508
-0.014898924 -0.0075692283 -0.10055395
-0.014909022 -0.0074938815 -0.10055482
-0.014919654 -0.0074229706 -0.10053378
-0.01492941 -0.0073516741 -0.10053071
-0.014939215 -0.0072761951 -0.10053758
-0.014949165 -0.0072049843 -0.10053051
-0.01495958 -0.0071318774 -0.10051942
-0.014969116 -0.007058382 -0.10052631
-0.014978629 -0.0069827745 -0.10053916
-0.014988262 -0.006909322 -0.10054405
-0.014998287 -0.0068360418 -0.10054096
-0.015008213 -0.0067627188 -0.10053986
-0.015017848 -0.0066892663 -0.10054474
-0.015027286 -0.0066157281 -0.10055364
-0.015036896 -0.0065401644 -0.10056448
-0.015046652 -0.006468866 -0.10056142
-0.01505675 -0.0063935183 -0.10056228
-0.01506648 -0.0063201096 -0.10056518
-0.015076431 -0.0062488979 -0.10055812
-0.01508704 -0.0061758766 -0.10054304
-0.015096991 -0.0061046639 -0.10053597
-0.015106917 -0.0060313419 -0.10053487
-0.015116941 -0.0059580626 -0.10053178
-0.015126185 -0.0058844369 -0.10054465
-0.015134869 -0.0058042621 -0.1005854
-0.015144113 -0.0057306383 -0.10059829
-0.015154431 -0.0056574875 -0.10058919
-0.015164869 -0.0055864919 -0.10057215
-0.015174991 -0.0055132546 -0.10056706
-0.015184721 -0.0054398458 -0.10056995
-0.015194453 -0.0053664371 -0.10057284
-0.015203891 -0.005292898 -0.10058173
-0.015213209 -0.0052172039 -0.10059857
-0.015223331 -0.0051439665 -0.10059348
-0.015233671 -0.005072929 -0.10057843
-0.015243817 -0.0050018039 -0.10056737
-0.015253427 -0.0049262401 -0.10057822
-0.015262526 -0.004848348 -0.10060503
-0.015271964 -0.0047748107 -0.10061391
-0.015282184 -0.0047016181 -0.10060681
-0.015291914 -0.0046282075 -0.10060971
-0.015301719 -0.0045527294 -0.10061657
-0.015311548 -0.0044793636 -0.10061746
-0.015321694 -0.0044082385 -0.10060641
-0.015331718 -0.0043349583 -0.10060332
-0.015341328 -0.0042593963 -0.10061416
-0.01535084 -0.0041837879 -0.10062703
-0.015360767 -0.0041104648 -0.10062592
-0.015370596 -0.0040371008 -0.10062681
-0.015380108 -0.0039614923 -0.10063967
-0.015389352 -0.0038878676 -0.10065255
-0.015399157 -0.0038123894 -0.10065941
-0.015408986 -0.0037390236 -0.1006603
-0.01541901 -0.0036657434 -0.1006572
-0.015428839 -0.0035923794 -0.1006581
-0.015438571 -0.0035189688 -0.10066099
-0.015447985 -0.0034433194 -0.10067584
-0.015457693 -0.0033677984 -0.1006847
-0.015467716 -0.0032945182 -0.1006816
-0.015477838 -0.0032212827 -0.1006765
-0.015487375 -0.0031477865 -0.1006834
-0.015496692 -0.0030720923 -0.10070024
-0.015506302 -0.0029965285 -0.10071109
-0.015516205 -0.002921097 -0.10071596
-0.015525741 -0.0028475989 -0.10072284
-0.015535351 -0.0027720351 -0.10073369
-0.015545058 -0.002696516 -0.10074256
-0.015555106 -0.0026253462 -0.1007335
-0.015565544 -0.0025543515 -0.10071644
-0.015575642 -0.0024790019 -0.10071731
-0.015585275 -0.0024055522 -0.1007222
-0.015594909 -0.0023320988 -0.10072709
-0.01560491 -0.0022567082 -0.10072996
-0.015615128 -0.0021835137 -0.10072287
-0.015625566 -0.002112519 -0.10070582
-0.01563542 -0.0020412635 -0.10070076
-0.015645321 -0.0019658282 -0.10070562
-0.015655151 -0.0018924624 -0.10070651
-0.015665371 -0.0018192697 -0.10069942
-0.015675589 -0.0017460752 -0.10069233
-0.015685637 -0.0016749073 -0.10068327
-0.015695734 -0.0015995596 -0.10068414
-0.015705759 -0.0015262812 -0.10068104
-0.015716076 -0.0014531296 -0.10067195
-0.015724368 -0.0013727807 -0.1007207
-0.015734004 -0.001299331 -0.10072558
-0.015743613 -0.0012237672 -0.10073643
-0.015753126 -0.0011481605 -0.10074929
-0.01576354 -0.0010750517 -0.1007382
-0.015774684 -0.001006471 -0.10070121
-0.015785415 -0.0009356048 -0.10067818
-0.015795561 -0.00086447783 -0.10066711
-0.015805462 -0.00078904442 -0.10067197
-0.015815072 -0.00071348064 -0.10068283
-0.015824487 -0.0006378293 -0.10069768
-0.015834 -0.00056222267 -0.10071053
-0.01586814 -0.00035888888 -0.10057962
-0.015877774 -0.00028543733 -0.10058451
-0.015887896 -0.00021219999 -0.10057941
-0.015898433 -0.00014124811 -0.10056037
-0.015909187 -7.2492287e-05 -0.10053137
-0.015919916 -1.6260892e-06 -0.10050832
-0.015930355 6.9370493e-05 -0.10049128
-0.015939575 0.00014510565 -0.10051013
-0.01594804 0.00022747926 -0.10056084
-0.015959281 0.00029601716 -0.10052184
-0.015971377 0.00035787746 -0.100449
-0.015977284 0.00045188516 -0.10057943
-0.01601509 0.00075862184 -0.10064676
-0.016024699 0.00083418563 -0.10065761
-0.016034333 0.00090763718 -0.1006625
-0.016051667 0.00094407424 -0.10042222
-0.01642208 -0.00064616092 -0.089122534
-0.016431713 -0.0005811099 -0.089105569
-0.016440958 -0.00051588565 -0.089096598
-0.0099435803 -0.043311849 -0.10332485
-0.0099523617 -0.043240119 -0.10334175
-0.0099613369 -0.043168478 -0.10335466
-0.0099716298 -0.043093212 -0.10335153
-0.0099818241 -0.043017909 -0.10335041
-0.0099913608 -0.042944416 -0.10335729
-0.010001848 -0.04286924 -0.10335016
-0.010011872 -0.04279596 -0.10334708
-0.010021117 -0.042722337 -0.10335995
-0.010030556 -0.042648796 -0.10336883
-0.010040092 -0.0425753 -0.10337573
-0.010049824 -0.042501889 -0.10337862
-0.010060117 -0.042426631 -0.10337549
-0.010069946 -0.042353265 -0.10337639
-0.010079848 -0.042277828 -0.10338125
-0.010089579 -0.042204421 -0.10338414
-0.010099408 -0.042131051 -0.10338504
-0.01010875 -0.042057473 -0.10339592
-0.010118482 -0.041984063 -0.10339882
-0.01012953 -0.041907035 -0.10338567
-0.010139359 -0.041833669 -0.10338658
-0.010148505 -0.041760001 -0.10340144
-0.010157945 -0.04168646 -0.10341033
-0.010167872 -0.041613139 -0.10340924
-0.010177968 -0.041537791 -0.1034101
-0.010187505 -0.041464295 -0.10341699
-0.010197237 -0.041390888 -0.10341989
-0.010206969 -0.041317478 -0.10342278
-0.010216407 -0.041243941 -0.10343166
-0.010225846 -0.0411704 -0.10344055
-0.010236042 -0.041095093 -0.10343942
-0.010245675 -0.041021645 -0.10344431
-0.010255504 -0.040948275 -0.10344521
-0.010265602 -0.040872931 -0.10344607
-0.010275041 -0.040799391 -0.10345495
-0.010284772 -0.040725984 -0.10345785
-0.01029487 -0.040650632 -0.10345872
-0.010304504 -0.040577181 -0.10346361
-0.010314041 -0.040503684 -0.1034705
-0.010324431 -0.040428467 -0.10346537
-0.010334723 -0.040353209 -0.10346225
-0.010344357 -0.040279754 -0.10346714
-0.010353893 -0.040206257 -0.10347403
-0.010363723 -0.040132888 -0.10347492
-0.01037382 -0.040057544 -0.10347579
-0.010383747 -0.039984219 -0.10347469
-0.010394039 -0.03990896 -0.10347156
-0.010403186 -0.039835289 -0.10348644
-0.010411967 -0.039763559 -0.10350335
-0.0104216 -0.039690107 -0.10350823
-0.01043199 -0.03961489 -0.10350311
-0.01044238 -0.039539672 -0.10349799
-0.010451917 -0.039466176 -0.10350487
-0.010461063 -0.039392509 -0.10351975
-0.010470698 -0.039319053 -0.10352464
-0.010481087 -0.039243836 -0.10351952
-0.010491574 -0.039168663 -0.1035124
-0.010501403 -0.039095297 -0.10351329
-0.010510648 -0.039021671 -0.10352618
-0.010520184 -0.038948175 -0.10353306
-0.010529819 -0.038874723 -0.10353795
-0.010539624 -0.038799245 -0.10354482
-0.010549355 -0.038725838 -0.10354771
-0.010560135 -0.038650788 -0.10353459
-0.010570331 -0.038575485 -0.10353346
-0.010579672 -0.038501903 -0.10354435
-0.010589305 -0.038428452 -0.10354923
-0.0105995 -0.038353149 -0.10354811
-0.010609134 -0.038279697 -0.103553
-0.010619037 -0.03820426 -0.10355785
-0.010628305 -0.038132749 -0.10356478
-0.01063811 -0.038057268 -0.10357163
-0.010647842 -0.037983861 -0.10357453
-0.010657939 -0.037908513 -0.1035754
-0.010668231 -0.037833251 -0.10357227
-0.010677865 -0.037759796 -0.10357716
-0.010687305 -0.037686259 -0.10358604
-0.010696939 -0.037612807 -0.10359094
-0.010707133 -0.0375375 -0.1035898
-0.010717329 -0.037462197 -0.10358867
-0.01072706 -0.037388787 -0.10359158
-0.010736401 -0.037315205 -0.10360245
-0.010745743 -0.037241623 -0.10361333
-0.010755767 -0.037168346 -0.10361024
-0.010766523 -0.037091188 -0.10360309
-0.010776254 -0.037017778 -0.10360598
-0.010785499 -0.036944155 -0.10361886
-0.010794475 -0.03687251 -0.10363176
-0.01080467 -0.036797203 -0.10363063
-0.01081506 -0.036721986 -0.10362551
-0.010824791 -0.036648579 -0.1036284
-0.010834595 -0.036573101 -0.10363527
-0.010844035 -0.03649956 -0.10364415
-0.010853474 -0.036426023 -0.10365304
-0.010863205 -0.036352612 -0.10365593
-0.010873693 -0.036277439 -0.10364881
-0.010884083 -0.036202222 -0.10364369
-0.01089362 -0.036128726 -0.10365058
-0.010903253 -0.036055274 -0.10365546
-0.010913545 -0.035980009 -0.10365234
-0.010923935 -0.035904795 -0.10364722
-0.010933277 -0.035831209 -0.10365809
-0.010972016 -0.035716034 -0.10320886
-0.010981651 -0.035642583 -0.10321375
-0.011144127 -0.035059169 -0.10159077
-0.011156246 -0.034982622 -0.10155566
-0.011168562 -0.034906153 -0.10151656
-0.011182779 -0.034826327 -0.10144943
-0.011196434 -0.034748357 -0.10138832
-0.011209237 -0.034672104 -0.10133924
-0.011222797 -0.034594089 -0.10128012
-0.011235673 -0.034515768 -0.101235
-0.011247329 -0.034441113 -0.10120391
-0.011258402 -0.034366198 -0.10118481
-0.01126967 -0.034291364 -0.1011617
-0.011280644 -0.034216408 -0.1011446
-0.011328821 -0.034036092 -0.1006824
-0.011353203 -0.033946067 -0.10044531
-0.011366859 -0.033868093 -0.1003842
-0.011380905 -0.03379029 -0.1003151
-0.011394171 -0.033712149 -0.10026199
-0.011405926 -0.033637531 -0.10022891
-0.011418826 -0.033561327 -0.10017782
-0.011432019 -0.033485249 -0.10012075
-0.011443188 -0.033410374 -0.10009964
-0.011454359 -0.033335499 -0.10007853
-0.011466113 -0.033260889 -0.10004545
-0.011478452 -0.033186533 -0.10000039
-0.011490671 -0.033110023 -0.099963278
-0.011501377 -0.033037044 -0.099946208
-0.011512547 -0.032962173 -0.099925093
-0.011523912 -0.032887384 -0.0999
-0.01153452 -0.032814365 -0.099884927
-0.011544739 -0.032741174 -0.099877834
-0.011554008 -0.032669656 -0.099884741
-0.011562593 -0.032597844 -0.099905647
-0.011572812 -0.032524649 -0.099898554
-0.011584372 -0.032449946 -0.099869467
-0.011594786 -0.032376841 -0.099858388
-0.011604153 -0.032305371 -0.099863298
-0.011614079 -0.032232046 -0.099862196
-0.011624493 -0.032158941 -0.099851117
-0.011634809 -0.032085791 -0.099842027
-0.011644638 -0.032012425 -0.099842913
-0.011653614 -0.031940781 -0.099855825
-0.011663638 -0.0318675 -0.099852733
-0.011674247 -0.031794481 -0.099837653
-0.011684198 -0.031723268 -0.09983059
-0.01169432 -0.031650033 -0.099825501
-0.011704246 -0.031576708 -0.099824399
-0.011713782 -0.031503215 -0.099831283
-0.011722101 -0.031433381 -0.099852212
-0.011730784 -0.031361606 -0.099871114
-0.011740905 -0.03128837 -0.099866018
-0.011751612 -0.031215392 -0.099848941
-0.011761928 -0.031142242 -0.099839859
-0.011771562 -0.031068789 -0.099844739
-0.011780733 -0.030997232 -0.09985365
-0.011790002 -0.030925717 -0.099860579
-0.011799733 -0.030852308 -0.09986347
-0.011809294 -0.030780924 -0.099864393
-0.011819805 -0.03070786 -0.09985131
-0.01183022 -0.030634753 -0.099840224
-0.011839001 -0.030563025 -0.099857129
-0.01184644 -0.030492801 -0.099896036
-0.011855977 -0.030419305 -0.09990292
-0.011866391 -0.030346198 -0.099891834
-0.011876244 -0.030274944 -0.099886775
-0.01188617 -0.030201621 -0.099885672
-0.011896585 -0.030128514 -0.099874578
-0.011906512 -0.030055191 -0.099873483
-0.011915974 -0.029983763 -0.099876404
-0.011925803 -0.029910397 -0.099877305
-0.011935267 -0.029838968 -0.099880226
-0.011944804 -0.029765472 -0.099887118
-0.01195417 -0.029694002 -0.099892035
-0.011963999 -0.029620636 -0.099892929
-0.011973462 -0.029549209 -0.099895857
-0.011983097 -0.029475756 -0.099900745
-0.011992559 -0.029404327 -0.099903665
-0.012002486 -0.029331006 -0.09990257
-0.012012047 -0.029259622 -0.099903502
-0.012022167 -0.029186387 -0.099898405
-0.012032875 -0.029113408 -0.099881329
-0.012043484 -0.029040387 -0.099866241
-0.012053117 -0.028966933 -0.099871136
-0.012062093 -0.028895291 -0.099884048
-0.012071922 -0.028821925 -0.099884942
-0.01208224 -0.028748775 -0.099875852
-0.012091801 -0.028677389 -0.099876776
-0.012101142 -0.028603807 -0.099887662
-0.012110215 -0.028532209 -0.099898577
-0.012119679 -0.02846078 -0.099901497
-0.012129409 -0.028387371 -0.099904396
-0.012138776 -0.0283159 -0.099909313
-0.012148605 -0.028242534 -0.099910207
-0.012159019 -0.028169427 -0.099899128
-0.012169531 -0.028096363 -0.099886045
-0.012179092 -0.028024979 -0.099886969
-0.012188262 -0.027953422 -0.099895887
-0.012198091 -0.027880056 -0.099896781
-0.012208506 -0.027806949 -0.099885687
-0.012219016 -0.027733885 -0.099872604
-0.012229333 -0.027660735 -0.099863522
-0.012239186 -0.027589479 -0.099858455
-0.012249015 -0.027516112 -0.099859349
-0.012258844 -0.027442748 -0.099860251
-0.012268502 -0.027371407 -0.099859178
-0.012278331 -0.027298041 -0.09986008
-0.012287502 -0.027226483 -0.099868998
-0.012296576 -0.027154882 -0.099879898
-0.012306795 -0.027081689 -0.099872813
-0.012317306 -0.027008627 -0.099859729
-0.012326673 -0.026937155 -0.099864654
-0.012335819 -0.026863487 -0.099879526
-0.012344502 -0.026791714 -0.099898428
-0.012352991 -0.026719853 -0.099921323
-0.012362162 -0.026648298 -0.099930234
-0.012372088 -0.026574975 -0.099929132
-0.012381746 -0.026503634 -0.099928066
-0.01239177 -0.026430354 -0.099924974
-0.012401404 -0.0263569 -0.099929862
-0.01241116 -0.026285604 -0.099926792
-0.012421184 -0.026212323 -0.099923693
-0.01242977 -0.026140507 -0.099944592
-0.012437771 -0.026068432 -0.099977478
-0.012446649 -0.025996745 -0.099992387
-0.012456479 -0.025923379 -0.099993274
-0.012465942 -0.025851952 -0.099996202
-0.012475478 -0.025778456 -0.10000309
-0.012484747 -0.025706943 -0.10001
-0.012494576 -0.025633575 -0.1000109
-0.012504235 -0.025562234 -0.10000984
-0.012514453 -0.025489042 -0.10000274
-0.012524771 -0.025415892 -0.099993654
-0.012534793 -0.025342612 -0.099990554
-0.01254416 -0.02527114 -0.099995479
-0.012552746 -0.025199324 -0.10001637
-0.01256199 -0.025125699 -0.10002926
-0.012571843 -0.025054444 -0.10002419
-0.012581673 -0.024981078 -0.10002508
-0.012591038 -0.024909608 -0.10003
-0.01260116 -0.024836371 -0.10002492
-0.012610793 -0.024762919 -0.1000298
-0.012619672 -0.024691232 -0.1000447
-0.01262816 -0.024619373 -0.10006761
-0.012636844 -0.024547599 -0.1000865
-0.012646869 -0.024474319 -0.1000834
-0.012657965 -0.024401516 -0.10005834
-0.012668768 -0.02432858 -0.10003927
-0.012678597 -0.024255214 -0.10004016
-0.012687573 -0.024183571 -0.10005308
-0.012696549 -0.024111927 -0.10006598
-0.012705988 -0.024038389 -0.10007486
-0.012715744 -0.023967091 -0.10007181
-0.012725476 -0.023893682 -0.10007469
-0.012734842 -0.023822211 -0.10007962
-0.012744671 -0.023748845 -0.10008051
-0.012754597 -0.023675522 -0.10007941
-0.01276445 -0.023604266 -0.10007434
-0.012774962 -0.023531202 -0.10006126
-0.012785278 -0.023458052 -0.10005218
-0.012795034 -0.023386754 -0.10004911
-0.012804473 -0.023313217 -0.10005799
-0.012813547 -0.023241617 -0.1000689
-0.012823083 -0.023168121 -0.1000758
-0.012832254 -0.023096563 -0.10008471
-0.012841303 -0.023022851 -0.10010158
-0.012850181 -0.022951165 -0.10011649
-0.012859718 -0.022877669 -0.10012338
-0.01286906 -0.022804087 -0.10013426
-0.012878816 -0.022732789 -0.1001312
-0.012889815 -0.022659941 -0.10010812
-0.012900521 -0.022586964 -0.10009104
-0.012910472 -0.022515751 -0.10008398
-0.012920301 -0.022442386 -0.10008488
-0.012929374 -0.022370785 -0.10009579
-0.012938716 -0.022297204 -0.10010668
-0.012948545 -0.022223838 -0.10010757
-0.012958594 -0.02215267 -0.10009851
-0.012969299 -0.022079691 -0.10008144
-0.012979055 -0.022008393 -0.10007837
-0.012987422 -0.021934381 -0.10010922
-0.012996203 -0.02186265 -0.10012612
-0.013006909 -0.021789672 -0.10010905
-0.013017323 -0.021716565 -0.10009796
-0.013026689 -0.021645095 -0.10010289
-0.013035739 -0.021571383 -0.10011976
-0.013044324 -0.021499567 -0.10014065
-0.013052594 -0.02142551 -0.1001735
-0.013060886 -0.021353565 -0.1002004
-0.013070522 -0.021280112 -0.10020528
-0.013080277 -0.021208815 -0.10020222
-0.013090301 -0.021135535 -0.10019913
-0.013100715 -0.021062428 -0.10018803
-0.013110958 -0.020991346 -0.10017498
-0.01312147 -0.020918282 -0.1001619
-0.013131616 -0.020847157 -0.10015085
-0.013142029 -0.020774048 -0.10013975
-0.013152248 -0.020700855 -0.10013267
-0.013162175 -0.020627532 -0.10013157
-0.013171151 -0.020555889 -0.10014448
-0.013180589 -0.02048235 -0.10015336
-0.013189565 -0.020410707 -0.10016627
-0.013198907 -0.020337125 -0.10017715
-0.013208639 -0.020263715 -0.10018004
-0.013218589 -0.020192504 -0.10017298
-0.013228517 -0.020119181 -0.10017188
-0.013237493 -0.020047538 -0.10018479
-0.013247614 -0.019974301 -0.1001797
-0.013258711 -0.019901495 -0.10015463
-0.013268465 -0.019830197 -0.10015157
-0.013277709 -0.019756572 -0.10016445
-0.01328676 -0.019682862 -0.10018131
-0.013295345 -0.019611046 -0.10020221
-0.013304297 -0.019537291 -0.10022109
-0.01331376 -0.019465864 -0.10022401
-0.013323979 -0.019392669 -0.10021692
-0.013333809 -0.019319303 -0.10021781
-0.013342492 -0.01924753 -0.10023672
-0.013351053 -0.019173604 -0.10026357
-0.013360297 -0.019099979 -0.10027646
-0.013370346 -0.019028809 -0.1002674
-0.013381053 -0.018955832 -0.10025032
-0.013391199 -0.018884707 -0.10023926
-0.013400929 -0.018811297 -0.10024216
-0.013410271 -0.018737715 -0.10025304
-0.01341954 -0.018666202 -0.10025995
-0.013429174 -0.018592749 -0.10026485
-0.013438905 -0.01851934 -0.10026775
-0.013449027 -0.018446103 -0.10026264
-0.013459465 -0.018375108 -0.1002456
-0.013470001 -0.018304154 -0.10022656
-0.013479732 -0.018230746 -0.10022945
-0.013489074 -0.018157164 -0.10024033
-0.013498708 -0.01808371 -0.10024523
-0.013508171 -0.018012283 -0.10024815
-0.013518 -0.017938918 -0.10024904
-0.013527927 -0.017865594 -0.10024794
-0.013537779 -0.017794339 -0.10024288
-0.013547512 -0.01772093 -0.10024577
-0.013556659 -0.017647263 -0.10026065
-0.013566414 -0.017575964 -0.10025758
-0.013576536 -0.017502727 -0.10025249
-0.013586194 -0.017431386 -0.10025142
-0.013596706 -0.017358322 -0.10023834
-0.013607021 -0.017285172 -0.10022924
-0.013616096 -0.017213572 -0.10024016
-0.01362573 -0.01714012 -0.10024505
-0.013635559 -0.017066753 -0.10024595
-0.013644705 -0.016993085 -0.10026082
-0.013653584 -0.016921397 -0.10027573
-0.013663412 -0.016848031 -0.10027663
-0.013673437 -0.016774751 -0.10027352
-0.013683096 -0.016703412 -0.10027245
-0.013692924 -0.016630046 -0.10027336
-0.013702266 -0.016556464 -0.10028423
-0.013711315 -0.016482752 -0.10030111
-0.013720681 -0.016411282 -0.10030603
-0.013730802 -0.016338045 -0.10030093
-0.013741021 -0.016264852 -0.10029384
-0.01375107 -0.016193682 -0.10028479
-0.013761191 -0.016120445 -0.10027969
-0.013771508 -0.016047295 -0.1002706
-0.013781653 -0.01597617 -0.10025955
-0.013791287 -0.015902717 -0.10026444
-0.013800628 -0.015829135 -0.10027532
-0.013810287 -0.015757795 -0.10027425
-0.013820409 -0.015684558 -0.10026915
-0.013830554 -0.015613432 -0.1002581
-0.013841651 -0.015540628 -0.10023303
-0.013851602 -0.015469415 -0.10022597
-0.013860163 -0.015395489 -0.10025282
-0.013869017 -0.015321691 -0.1002737
-0.013878262 -0.015248066 -0.10028658
-0.013887702 -0.015174527 -0.10029546
-0.013897335 -0.015101075 -0.10030036
-0.013907383 -0.015029905 -0.1002913
-0.013918382 -0.014957057 -0.10026822
-0.01392882 -0.014886062 -0.10025117
-0.013938747 -0.014812739 -0.10025007
-0.013948185 -0.0147392 -0.10025896
-0.013957161 -0.014667557 -0.10027187
-0.013966187 -0.014591734 -0.10029471
-0.013975431 -0.014518108 -0.10030758
-0.013985089 -0.014446767 -0.10030651
-0.013995016 -0.014373445 -0.10030542
-0.014004869 -0.01430219 -0.10030035
-0.014014674 -0.014226712 -0.10030721
-0.014022943 -0.014152655 -0.10034006
-0.014031505 -0.014078729 -0.10036692
-0.014041237 -0.01400532 -0.10036981
-0.014051285 -0.01393415 -0.10036076
-0.014061406 -0.013860914 -0.10035566
-0.014070943 -0.013787419 -0.10036255
-0.014079506 -0.01371349 -0.10038941
-0.014088262 -0.01363965 -0.10041228
-0.014097993 -0.013566241 -0.10041516
-0.014108017 -0.01349296 -0.10041207
-0.01411826 -0.013421879 -0.10039902
-0.014129162 -0.013348987 -0.10037795
-0.014139015 -0.013277733 -0.10037287
-0.01414826 -0.013204108 -0.10038576
-0.014157795 -0.013130613 -0.10039265
-0.014167625 -0.013057246 -0.10039354
-0.014177259 -0.012983793 -0.10039844
-0.014186698 -0.012910255 -0.10040732
-0.01419604 -0.012836673 -0.10041821
-0.014205381 -0.012763091 -0.10042909
-0.01421521 -0.012689725 -0.10042999
-0.014225136 -0.012616402 -0.10042889
-0.014234795 -0.01254506 -0.10042781
-0.014244722 -0.012471737 -0.10042672
-0.014254648 -0.012398414 -0.10042562
-0.014264306 -0.012327073 -0.10042454
-0.014274403 -0.012251725 -0.10042541
-0.014283964 -0.012180341 -0.10042633
-0.014293307 -0.012106759 -0.10043722
-0.014302623 -0.012031066 -0.10045406
-0.014311771 -0.011957398 -0.10046893
-0.014321502 -0.011883989 -0.10047183
-0.014331258 -0.011812691 -0.10046877
-0.01434177 -0.011739627 -0.10045568
-0.014352208 -0.011668631 -0.10043863
-0.014362134 -0.011595307 -0.10043754
-0.014371671 -0.011521813 -0.10044443
-0.014381208 -0.011448316 -0.10045131
-0.014391255 -0.011377148 -0.10044225
-0.014401962 -0.01130417 -0.10042518
-0.0144124 -0.011233174 -0.10040813
-0.014422326 -0.011159851 -0.10040703
-0.014431376 -0.01108614 -0.10042389
-0.01444062 -0.011012515 -0.10043678
-0.014449937 -0.010936823 -0.10045362
-0.014459182 -0.010863197 -0.1004665
-0.014469109 -0.010789874 -0.1004654
-0.014479059 -0.010718661 -0.10045834
-0.014488986 -0.010645339 -0.10045724
-0.014498327 -0.010571757 -0.10046812
-0.014507279 -0.010498002 -0.10048699
-0.014517376 -0.010422654 -0.10048787
-0.014527327 -0.010351443 -0.10048079
-0.014537375 -0.010280275 -0.10047174
-0.014547473 -0.010204926 -0.10047261
-0.014556814 -0.010131344 -0.10048349
-0.014566449 -0.010057892 -0.10048838
-0.014576083 -0.0099844392 -0.10049327
-0.014585229 -0.0099107716 -0.10050815
-0.014594863 -0.0098373191 -0.10051304
-0.01460479 -0.0097639961 -0.10051194
-0.014614619 -0.0096906302 -0.10051283
-0.014624156 -0.009617134 -0.10051972
-0.01463379 -0.0095436815 -0.10052461
-0.014643717 -0.0094703585 -0.10052352
-0.01465374 -0.0093970783 -0.10052042
-0.014663886 -0.0093259541 -0.10050936
-0.014674397 -0.0092528909 -0.10049628
-0.014684543 -0.0091817649 -0.10048522
-0.014694884 -0.0091107255 -0.10047017
-0.014704907 -0.0090374453 -0.10046708
-0.014714518 -0.0089618824 -0.10047793
-0.01472347 -0.0088881273 -0.1004968
-0.014732714 -0.0088145025 -0.10050968
-0.014742445 -0.0087410929 -0.10051257
-0.014752567 -0.0086678565 -0.10050748
-0.014762883 -0.0085947057 -0.10049839
-0.014772444 -0.0085233217 -0.10049932
-0.014781957 -0.008447716 -0.10051216
-0.014791299 -0.0083741331 -0.10052305
-0.014801127 -0.0083007673 -0.10052394
-0.014811152 -0.0082274871 -0.10052085
-0.014821175 -0.0081542078 -0.10051775
-0.014831029 -0.0080829524 -0.10051269
-0.01484115 -0.0080097159 -0.10050759
-0.01485098 -0.0079363501 -0.10050848
-0.014860516 -0.0078628538 -0.10051538
-0.014869858 -0.0077892719 -0.10052626
-0.014879687 -0.007715906 -0.10052715
-0.014889394 -0.007640386 -0.100536
-0.014898345 -0.0075666308 -0.10055488
-0.014908442 -0.0074912841 -0.10055575
-0.014918979 -0.0074203312 -0.1005367
-0.014928832 -0.0073490757 -0.10053164
-0.014938638 -0.0072735986 -0.1005385
-0.014948588 -0.0072023869 -0.10053144
-0.014959002 -0.0071292799 -0.10052035
-0.014968539 -0.0070557836 -0.10052723
-0.014978051 -0.0069801779 -0.10054008
-0.014987685 -0.0069067255 -0.10054498
-0.014997709 -0.0068334453 -0.10054188
-0.015007636 -0.0067601223 -0.10054078
-0.015017269 -0.0066866698 -0.10054567
-0.015026709 -0.0066131307 -0.10055456
-0.015036318 -0.0065375669 -0.1005654
-0.015046074 -0.0064662686 -0.10056235
-0.015056269 -0.0063909637 -0.10056122
-0.015066001 -0.006317555 -0.10056411
-0.015075952 -0.0062463442 -0.10055704
-0.015086561 -0.0061733229 -0.10054196
-0.015096609 -0.006102154 -0.1005329
-0.015106438 -0.0060287882 -0.1005338
-0.015116364 -0.0059554651 -0.1005327
-0.015125779 -0.0058798157 -0.10054754
-0.015134195 -0.0058016218 -0.10058833
-0.015143439 -0.005727997 -0.10060121
-0.015153853 -0.0056548901 -0.10059012
-0.015164291 -0.0055838935 -0.10057307
-0.015174413 -0.0055106571 -0.10056798
-0.015184242 -0.0054372903 -0.10056888
-0.015193974 -0.0053638816 -0.10057177
-0.015203316 -0.0052902997 -0.10058265
-0.015212731 -0.0052146502 -0.1005975
-0.015222754 -0.00514137 -0.1005944
-0.015233096 -0.0050703306 -0.10057935
-0.015243338 -0.0049992502 -0.1005663
-0.015252948 -0.0049236845 -0.10057715
-0.015261851 -0.0048457086 -0.10060794
-0.015271291 -0.0047721695 -0.10061683
-0.01528151 -0.0046989769 -0.10060974
-0.015291339 -0.004625611 -0.10061063
-0.015301144 -0.0045501329 -0.1006175
-0.015310973 -0.004476767 -0.10061838
-0.015321289 -0.0044036154 -0.1006093
-0.015331143 -0.0043323617 -0.10060424
-0.015340753 -0.004256798 -0.10061508
-0.015350264 -0.0041811913 -0.10062794
-0.015360191 -0.0041078683 -0.10062685
-0.015370021 -0.0040345024 -0.10062774
-0.015379533 -0.0039588958 -0.10064059
-0.015388777 -0.003885271 -0.10065347
-0.015398485 -0.0038097501 -0.10066232
-0.015408412 -0.0037364271 -0.10066122
-0.015418338 -0.003663104 -0.10066012
-0.015428264 -0.003589781 -0.10065902
-0.015437898 -0.0035163295 -0.10066392
-0.015447411 -0.0034407228 -0.10067676
-0.015457118 -0.0033652019 -0.10068562
-0.01546724 -0.0032919645 -0.10068052
-0.015477361 -0.0032187272 -0.10067543
-0.015486898 -0.0031452328 -0.10068232
-0.015496288 -0.0030674711 -0.10070313
-0.015505631 -0.0029938892 -0.10071401
-0.01551563 -0.0029184986 -0.10071687
-0.015525265 -0.0028450452 -0.10072176
-0.015534874 -0.0027694814 -0.10073262
-0.015544483 -0.0026939195 -0.10074347
-0.015554532 -0.0026227478 -0.10073441
-0.015564971 -0.0025517549 -0.10071736
-0.0155748 -0.0024783891 -0.10071826
-0.015584702 -0.0024029538 -0.10072312
-0.015594335 -0.0023295023 -0.10072801
-0.015604336 -0.0022541098 -0.10073087
-0.015614554 -0.0021809172 -0.10072379
-0.015624993 -0.0021099206 -0.10070673
-0.015634846 -0.0020386651 -0.10070167
-0.01564475 -0.0019632317 -0.10070653
-0.015654579 -0.0018898658 -0.10070743
-0.015664797 -0.0018166713 -0.10070033
-0.015675016 -0.0017434787 -0.10069325
-0.015685065 -0.0016723108 -0.10068419
-0.015695162 -0.0015969612 -0.10068505
-0.015705185 -0.0015236847 -0.10068196
-0.015715502 -0.0014505312 -0.10067286
-0.015723797 -0.0013701841 -0.10072161
-0.01573343 -0.0012967326 -0.1007265
-0.01574304 -0.0012211688 -0.10073735
-0.015752455 -0.0011455212 -0.1007522
-0.015762966 -0.0010724552 -0.10073911
-0.015774112 -0.0010038726 -0.10070212
-0.015784841 -0.00093300827 -0.10067908
-0.015795158 -0.00085985661 -0.10067
-0.015804695 -0.00078636222 -0.10067689
-0.0158145 -0.00071088225 -0.10068374
-0.015824109 -0.00063531846 -0.1006946
-0.015833622 -0.00055971369 -0.10070745
-0.015867397 -0.00035831705 -0.10057856
-0.015877202 -0.00028283894 -0.10058542
-0.015887324 -0.00020960346 -0.10058032
-0.015897861 -0.00013864972 -0.10056128
-0.015908517 -6.9852918e-05 -0.10053428
-0.015919248 1.013279e-06 -0.10051124
-0.01592949 7.2095543e-05 -0.10049818
-0.015938979 0.00014981441 -0.100517
-0.015947444 0.00023218617 -0.1005677
-0.015958223 0.00029883161 -0.10053274
-0.015970685 0.00036262907 -0.10045786
-0.015976615 0.00045452453 -0.10058235
-0.016014934 0.00075893477 -0.10063371
-0.016024154 0.00083466992 -0.10065256
-0.016034056 0.00091010332 -0.10065742
-0.016051095 0.00094667077 -0.10042313
-0.016421491 -0.0006435886 -0.08912345
-0.016431125 -0.00057853572 -0.089106485
-0.016440369 -0.00051331334 -0.089097507
-0.0099436827 -0.043312889 -0.10332423
-0.0099524632 -0.043241158 -0.10334113
-0.0099614393 -0.043169513 -0.10335404
-0.0099717313 -0.043094255 -0.10335092
-0.0099819256 -0.043018948 -0.10334979
-0.0099914614 -0.042945456 -0.10335667
-0.010002047 -0.04287032 -0.10334755
-0.010012241 -0.042795017 -0.10334642
-0.010021315 -0.042723417 -0.10335734
-0.010030656 -0.042649835 -0.10336822
-0.01004029 -0.042576384 -0.1033731
-0.010049923 -0.042502932 -0.10337801
-0.010060216 -0.042427666 -0.10337487
-0.010070142 -0.042354345 -0.10337377
-0.010079946 -0.042278871 -0.10338064
-0.010089679 -0.04220546 -0.10338353
-0.010099508 -0.042132095 -0.10338442
-0.010108849 -0.042058513 -0.10339531
-0.010118579 -0.041985102 -0.1033982
-0.010129628 -0.041908078 -0.10338505
-0.010139457 -0.041834708 -0.10338596
-0.010148603 -0.041761041 -0.10340083
-0.010158042 -0.0416875 -0.10340971
-0.010167968 -0.041614179 -0.10340862
-0.010178066 -0.041538831 -0.10340948
-0.010187602 -0.041465335 -0.10341638
-0.010197334 -0.041391924 -0.10341926
-0.010207064 -0.041318513 -0.10342216
-0.010216503 -0.041244976 -0.10343104
-0.010226138 -0.041171521 -0.10343593
-0.010236138 -0.041096136 -0.1034388
-0.010245869 -0.041022725 -0.10344169
-0.010255698 -0.04094936 -0.10344259
-0.010265697 -0.040873967 -0.10344546
-0.010275234 -0.040800471 -0.10345235
-0.010284867 -0.040727019 -0.10345723
-0.010295061 -0.040651716 -0.10345611
-0.010304598 -0.04057822 -0.10346299
-0.010314233 -0.040504765 -0.10346788
-0.010324525 -0.040429503 -0.10346476
-0.010334915 -0.040354289 -0.10345963
-0.010344451 -0.040280789 -0.10346652
-0.010354084 -0.040207341 -0.10347142
-0.010363816 -0.040133927 -0.1034743
-0.010373913 -0.040058583 -0.10347517
-0.010383937 -0.039985303 -0.10347208
-0.010394229 -0.039910041 -0.10346895
-0.010403278 -0.039836328 -0.10348582
-0.010412058 -0.039764598 -0.10350272
-0.010421692 -0.039691146 -0.10350762
-0.010432179 -0.03961597 -0.10350049
-0.010442569 -0.039540753 -0.10349537
-0.010452105 -0.039467257 -0.10350227
-0.010461154 -0.039393548 -0.10351913
-0.010470788 -0.039320093 -0.10352402
-0.010481178 -0.039244875 -0.1035189
-0.010491762 -0.039169744 -0.10350978
-0.010501495 -0.039096333 -0.10351267
-0.010510835 -0.039022751 -0.10352356
-0.010520275 -0.038949214 -0.10353244
-0.010530274 -0.038873821 -0.10353531
-0.01053981 -0.038800329 -0.1035422
-0.010549542 -0.038726915 -0.10354509
-0.010560322 -0.038651869 -0.10353198
-0.010570419 -0.038576521 -0.10353284
-0.010579759 -0.038502939 -0.10354373
-0.010589492 -0.038429532 -0.10354662
-0.010599686 -0.038354225 -0.10354549
-0.010609319 -0.038280778 -0.10355038
-0.010619222 -0.038205341 -0.10355524
-0.010628758 -0.038131848 -0.10356212
-0.010638198 -0.038058303 -0.10357101
-0.010647928 -0.0379849 -0.10357391
-0.010658026 -0.037909552 -0.10357478
-0.010668318 -0.037834287 -0.10357165
-0.010677952 -0.037760835 -0.10357654
-0.01068739 -0.037687294 -0.10358543
-0.010697122 -0.037613887 -0.10358833
-0.010707317 -0.037538581 -0.1035872
-0.010717511 -0.037463278 -0.10358606
-0.010727243 -0.037389867 -0.10358895
-0.010736487 -0.037316244 -0.10360184
-0.010745828 -0.037242662 -0.10361271
-0.010755852 -0.037169382 -0.10360962
-0.010766705 -0.037092268 -0.10360047
-0.010776436 -0.037018858 -0.10360336
-0.010785582 -0.03694519 -0.10361824
-0.010794826 -0.036871567 -0.10363112
-0.010804851 -0.036798283 -0.10362802
-0.010815143 -0.036723025 -0.10362489
-0.010824971 -0.036649659 -0.1036258
-0.010834776 -0.036574181 -0.10363265
-0.010844215 -0.03650064 -0.10364153
-0.010853556 -0.036427058 -0.10365242
-0.010863385 -0.036353692 -0.10365332
-0.010873872 -0.036278516 -0.1036462
-0.010884164 -0.036203258 -0.10364307
-0.010893701 -0.036129761 -0.10364996
-0.010903335 -0.03605631 -0.10365485
-0.010913627 -0.035981048 -0.10365172
-0.010924016 -0.035905831 -0.1036466
-0.010933358 -0.035832245 -0.10365747
-0.010972099 -0.03571707 -0.10320824
-0.010981635 -0.035643574 -0.10321513
-0.011144215 -0.035060208 -0.10159015
-0.011156335 -0.034983657 -0.10155504
-0.01116865 -0.034907192 -0.10151593
-0.011182867 -0.034827363 -0.10144881
-0.011196523 -0.034749392 -0.1013877
-0.011209326 -0.034673139 -0.10133862
-0.011222885 -0.034595124 -0.1012795
-0.011235761 -0.034516804 -0.10123438
-0.011247516 -0.034442194 -0.1012013
-0.011258587 -0.034367278 -0.10118219
-0.011269758 -0.034292404 -0.10116109
-0.011280732 -0.034217443 -0.10114398
-0.011329009 -0.034037173 -0.10067978
-0.011353293 -0.033947103 -0.10044469
-0.011367047 -0.03386917 -0.10038159
-0.011380997 -0.03379133 -0.10031448
-0.011394359 -0.033713225 -0.10025939
-0.011406017 -0.03363857 -0.10022829
-0.011419015 -0.033562407 -0.1001752
-0.011432207 -0.033486329 -0.10011813
-0.01144328 -0.033411413 -0.10009903
-0.01145445 -0.033336539 -0.10007791
-0.011466204 -0.033261925 -0.10004483
-0.011479007 -0.033185676 -0.099995747
-0.011490761 -0.033111062 -0.099962659
-0.011501566 -0.033038124 -0.099943586
-0.011512735 -0.032963254 -0.099922486
-0.0115241 -0.032888465 -0.099897392
-0.011534611 -0.032815404 -0.099884309
-0.011544927 -0.032742251 -0.099875212
-0.011554098 -0.032670695 -0.09988413
-0.011562683 -0.032598879 -0.099905029
-0.011572902 -0.032525688 -0.099897936
-0.011584559 -0.032451026 -0.099866845
-0.011594876 -0.032377876 -0.099857762
-0.011604241 -0.032306407 -0.099862687
-0.011614168 -0.032233085 -0.099861585
-0.011624679 -0.032160021 -0.099848494
-0.011634898 -0.032086827 -0.099841408
-0.011644727 -0.032013461 -0.099842303
-0.011653703 -0.031941816 -0.099855207
-0.011663727 -0.03186854 -0.099852115
-0.011674432 -0.031795561 -0.099835038
-0.011684651 -0.031722367 -0.099827945
-0.011694407 -0.031651068 -0.099824883
-0.011704431 -0.031577788 -0.099821776
-0.01171387 -0.031504251 -0.099830665
-0.011722284 -0.031434458 -0.099849604
-0.011730968 -0.031362686 -0.099868499
-0.01174109 -0.031289451 -0.099863403
-0.011751795 -0.031216472 -0.099846326
-0.011762014 -0.031143278 -0.09983924
-0.011771746 -0.031069869 -0.099842124
-0.011780917 -0.030998312 -0.099851042
-0.011790087 -0.030926755 -0.09985996
-0.011799818 -0.030853346 -0.099862851
-0.011809477 -0.030782003 -0.099861778
-0.01181989 -0.030708898 -0.099850692
-0.011830304 -0.030635789 -0.099839605
-0.011839085 -0.03056406 -0.099856511
-0.011846622 -0.030493882 -0.099893421
-0.01185606 -0.030420341 -0.099902309
-0.011866475 -0.030347236 -0.099891216
-0.011876328 -0.03027598 -0.099886157
-0.011886353 -0.0302027 -0.099883057
-0.011896668 -0.03012955 -0.09987396
-0.011906594 -0.030056227 -0.099872857
-0.011916058 -0.029984798 -0.099875785
-0.011925984 -0.029911477 -0.099874683
-0.011935447 -0.029840048 -0.099877611
-0.011944886 -0.029766507 -0.099886499
-0.011954349 -0.029695082 -0.09988942
-0.011964178 -0.029621717 -0.099890321
-0.011973543 -0.029550245 -0.099895239
-0.011983178 -0.029476792 -0.099900126
-0.011992738 -0.029405408 -0.099901058
-0.012002567 -0.029332042 -0.099901959
-0.012012226 -0.029260701 -0.099900886
-0.012022346 -0.029187463 -0.099895783
-0.012033053 -0.029114487 -0.099878706
-0.012043565 -0.029041423 -0.09986563
-0.012053198 -0.028967969 -0.099870518
-0.012062173 -0.028896326 -0.09988343
-0.012072099 -0.028823003 -0.099882334
-0.012082319 -0.028749811 -0.099875234
-0.012091978 -0.028678469 -0.099874161
-0.012101222 -0.028604843 -0.099887043
-0.012110294 -0.028533243 -0.099897958
-0.012119757 -0.028461816 -0.099900879
-0.012129586 -0.02838845 -0.09990178
-0.012138952 -0.028316978 -0.099906705
-0.012148781 -0.028243612 -0.099907592
-0.012159195 -0.028170506 -0.099896513
-0.012169706 -0.028097441 -0.09988343
-0.012179169 -0.028026015 -0.09988635
-0.01218834 -0.027954457 -0.099895261
-0.012198266 -0.027881134 -0.099894166
-0.01220868 -0.027808027 -0.09988308
-0.012219094 -0.02773492 -0.099871993
-0.01222941 -0.027661771 -0.099862903
-0.012239262 -0.027590515 -0.099857837
-0.012249092 -0.027517147 -0.099858738
-0.012258921 -0.027443783 -0.099859633
-0.012268579 -0.027372442 -0.09985856
-0.012278408 -0.027299074 -0.099859461
-0.012287578 -0.027227517 -0.09986838
-0.012296651 -0.027155917 -0.099879287
-0.012306968 -0.027082767 -0.099870197
-0.012317382 -0.02700966 -0.099859111
-0.012326747 -0.026938189 -0.099864036
-0.012335894 -0.026864521 -0.099878907
-0.012344576 -0.026792748 -0.099897809
-0.012353162 -0.026720932 -0.099918708
-0.012362235 -0.026649332 -0.099929623
-0.012372162 -0.026576009 -0.099928521
-0.01238182 -0.026504667 -0.099927455
-0.012391844 -0.026431387 -0.099924356
-0.012401477 -0.026357936 -0.099929243
-0.012411233 -0.026286637 -0.099926174
-0.012421355 -0.0262134 -0.099921085
-0.012429843 -0.026141541 -0.099943973
-0.012437843 -0.026069466 -0.09997686
-0.012446819 -0.025997823 -0.099989764
-0.012456648 -0.025924455 -0.099990666
-0.012466013 -0.025852986 -0.099995583
-0.012475549 -0.025779489 -0.10000248
-0.012484819 -0.025707977 -0.10000939
-0.012494647 -0.025634609 -0.10001028
-0.012504305 -0.02556327 -0.10000922
-0.012514524 -0.025490075 -0.10000212
-0.012524839 -0.025416926 -0.099993035
-0.012534864 -0.025343645 -0.099989936
-0.01254423 -0.025272176 -0.099994861
-0.012552913 -0.025200401 -0.10001376
-0.012562059 -0.025126733 -0.10002864
-0.012571912 -0.025055479 -0.10002358
-0.012581838 -0.024982156 -0.10002247
-0.012591204 -0.024910685 -0.1000274
-0.012601228 -0.024837404 -0.1000243
-0.012610862 -0.024763953 -0.10002919
-0.012619837 -0.024692308 -0.10004209
-0.012628326 -0.024620449 -0.10006499
-0.012636911 -0.024548633 -0.10008589
-0.012646935 -0.024475355 -0.10008278
-0.012658129 -0.024402592 -0.10005573
-0.012668933 -0.024329657 -0.10003665
-0.012678664 -0.024256248 -0.10003955
-0.012687737 -0.024184648 -0.10005046
-0.012696615 -0.024112962 -0.10006537
-0.012706054 -0.024039423 -0.10007425
-0.012715809 -0.023968125 -0.10007119
-0.012725638 -0.023894759 -0.10007208
-0.012735004 -0.023823287 -0.100077
-0.012744736 -0.023749879 -0.10007989
-0.012754662 -0.023676556 -0.1000788
-0.012764613 -0.023605343 -0.10007174
-0.012775124 -0.023532281 -0.10005865
-0.01278544 -0.023459129 -0.10004956
-0.012795098 -0.023387788 -0.10004849
-0.012804537 -0.023314249 -0.10005738
-0.012813611 -0.023242649 -0.10006829
-0.012823147 -0.023169154 -0.10007518
-0.012832414 -0.02309764 -0.10008209
-0.012841366 -0.023023885 -0.10010096
-0.012850342 -0.022952242 -0.10011388
-0.012859878 -0.022878746 -0.10012076
-0.01286922 -0.022805164 -0.10013165
-0.012878976 -0.022733865 -0.10012858
-0.012889974 -0.022661017 -0.1001055
-0.012900583 -0.022587996 -0.10009042
-0.012910534 -0.022516785 -0.10008337
-0.012920363 -0.022443419 -0.10008426
-0.012929436 -0.022371819 -0.10009518
-0.012938777 -0.022298237 -0.10010606
-0.012948606 -0.02222487 -0.10010695
-0.012958752 -0.022153744 -0.1000959
-0.012969458 -0.022080768 -0.10007882
-0.012979116 -0.022009427 -0.10007775
-0.01298758 -0.021935456 -0.1001066
-0.012996264 -0.021863682 -0.10012551
-0.013006968 -0.021790706 -0.10010843
-0.013017382 -0.021717599 -0.10009734
-0.013026749 -0.021646127 -0.10010227
-0.013035798 -0.021572415 -0.10011914
-0.013044383 -0.021500599 -0.10014004
-0.013052653 -0.021426544 -0.10017288
-0.013060945 -0.021354597 -0.10019978
-0.01307058 -0.021281146 -0.10020467
-0.013080335 -0.021209847 -0.1002016
-0.013090359 -0.021136567 -0.10019851
-0.013100773 -0.02106346 -0.10018741
-0.013111016 -0.020992378 -0.10017437
-0.013121624 -0.020919356 -0.10015929
-0.013131769 -0.020848231 -0.10014823
-0.013142087 -0.020775082 -0.10013914
-0.013152305 -0.020701887 -0.10013206
-0.013162231 -0.020628564 -0.10013095
-0.013171207 -0.020556921 -0.10014386
-0.013180645 -0.020483382 -0.10015274
-0.013189621 -0.020411739 -0.10016566
-0.013198963 -0.020338157 -0.10017653
-0.013208695 -0.020264748 -0.10017942
-0.013218645 -0.020193536 -0.10017237
-0.013228571 -0.020120213 -0.10017127
-0.013237644 -0.020048613 -0.10018218
-0.013247766 -0.019975375 -0.10017709
-0.013258765 -0.019902527 -0.10015401
-0.01326852 -0.019831229 -0.10015095
-0.013277764 -0.019757604 -0.10016383
-0.013286813 -0.019683894 -0.1001807
-0.013295399 -0.019612078 -0.10020159
-0.013304448 -0.019538365 -0.10021847
-0.013313813 -0.019466896 -0.10022339
-0.013324129 -0.019393744 -0.1002143
-0.013333861 -0.019320335 -0.1002172
-0.013342544 -0.019248562 -0.1002361
-0.013351105 -0.019174635 -0.10026295
-0.013360349 -0.019101009 -0.10027584
-0.013370398 -0.019029841 -0.10026678
-0.013381104 -0.018956864 -0.1002497
-0.013391249 -0.018885739 -0.10023864
-0.013401078 -0.018812371 -0.10023955
-0.013410419 -0.018738789 -0.10025043
-0.01341959 -0.018667232 -0.10025934
-0.013429224 -0.018593781 -0.10026423
-0.013438956 -0.01852037 -0.10026713
-0.013449077 -0.018447135 -0.10026202
-0.013459418 -0.018376095 -0.10024698
-0.013469953 -0.018305143 -0.10022794
-0.013479782 -0.018231776 -0.10022883
-0.013489123 -0.018158196 -0.10023971
-0.013498757 -0.018084742 -0.10024461
-0.013508122 -0.018013272 -0.10024953
-0.013517952 -0.017939905 -0.10025042
-0.013528073 -0.017866669 -0.10024533
-0.013537828 -0.017795371 -0.10024226
-0.01354756 -0.017721962 -0.10024516
-0.013556707 -0.017648293 -0.10026003
-0.013566462 -0.017576994 -0.10025696
-0.013576584 -0.017503759 -0.10025187
-0.013586242 -0.017432418 -0.1002508
-0.013596753 -0.017359354 -0.10023772
-0.013606971 -0.017286159 -0.10023062
-0.013616143 -0.017214602 -0.10023954
-0.013625776 -0.01714115 -0.10024443
-0.013635606 -0.017067783 -0.10024533
-0.013644751 -0.016994115 -0.10026021
-0.013653727 -0.016922472 -0.10027312
-0.013663458 -0.016849063 -0.10027601
-0.013673482 -0.016775783 -0.10027291
-0.01368314 -0.016704442 -0.10027184
-0.013692969 -0.016631076 -0.10027274
-0.013702407 -0.016557537 -0.10028162
-0.013711359 -0.016483782 -0.1003005
-0.013720725 -0.01641231 -0.10030541
-0.013730846 -0.016339075 -0.10030031
-0.013741164 -0.016265925 -0.10029124
-0.013751114 -0.016194712 -0.10028417
-0.013761234 -0.016121477 -0.10027908
-0.013771551 -0.016048325 -0.10026999
-0.013781697 -0.0159772 -0.10025893
-0.01379133 -0.015903749 -0.10026382
-0.01380077 -0.015830209 -0.1002727
-0.01381033 -0.015758824 -0.10027364
-0.013820354 -0.015685545 -0.10027053
-0.013830597 -0.015614463 -0.10025748
-0.013841693 -0.015541658 -0.10023241
-0.013851547 -0.015470403 -0.10022735
-0.013860205 -0.015396519 -0.10025221
-0.013869059 -0.015322721 -0.10027308
-0.013878401 -0.015249139 -0.10028396
-0.013887743 -0.015175557 -0.10029484
-0.013897376 -0.015102104 -0.10029974
-0.013907424 -0.015030935 -0.10029068
-0.013918422 -0.014958087 -0.1002676
-0.013928959 -0.014887135 -0.10024856
-0.013938787 -0.01481377 -0.10024945
-0.013948323 -0.014740273 -0.10025635
-0.013957299 -0.01466863 -0.10026925
-0.013966324 -0.014592807 -0.10029209
-0.01397547 -0.014519138 -0.10030697
-0.013985129 -0.014447797 -0.1003059
-0.013995055 -0.014374475 -0.1003048
-0.014004909 -0.01430322 -0.10029973
-0.014014713 -0.014227742 -0.10030659
-0.014022982 -0.014153685 -0.10033944
-0.01403164 -0.014079802 -0.10036431
-0.014041275 -0.014006349 -0.10036919
-0.014051323 -0.01393518 -0.10036014
-0.014061444 -0.013861943 -0.10035505
-0.014071078 -0.013788491 -0.10035993
-0.014079542 -0.01371452 -0.1003888
-0.014088297 -0.013640679 -0.10041166
-0.01409803 -0.013567271 -0.10041454
-0.014108052 -0.013493991 -0.10041145
-0.014118297 -0.013422908 -0.1003984
-0.014129197 -0.013350016 -0.10037733
-0.014139051 -0.013278762 -0.10037226
-0.014148295 -0.013205137 -0.10038514
-0.014157831 -0.013131642 -0.10039203
-0.01416766 -0.013058275 -0.10039292
-0.014177196 -0.01298478 -0.10039982
-0.014186732 -0.012911284 -0.10040671
-0.014196074 -0.012837702 -0.10041759
-0.014205415 -0.01276412 -0.10042847
-0.014215147 -0.01269071 -0.10043137
-0.01422517 -0.012617431 -0.10042827
-0.014234828 -0.012546089 -0.1004272
-0.014244755 -0.012472766 -0.1004261
-0.014254779 -0.012399487 -0.10042299
-0.014264608 -0.01232612 -0.10042389
