# .PCD v0.7 - Point Cloud Data file format
VERSION 0.7
FIELDS x y z
SIZE 4 4 4
TYPE F F F
COUNT 1 1 1
WIDTH 1264
HEIGHT 1
VIEWPOINT 0 0 0 1 0 0 0
POINTS 1264
DATA ascii
-0.04274435 -0.015607383 -0.11666258
-0.046335462 0.00099701807 -0.090441994
-0.046344586 0.0010643955 -0.090440989
-0.04103183 -0.039153147 -0.088484034
-0.041036319 -0.039096322 -0.088545114
-0.041042246 -0.039038032 -0.088582195
-0.041048445 -0.038977765 -0.088619247
-0.041051228 -0.038924381 -0.088704363
-0.041054402 -0.038871177 -0.088781476
-0.041058499 -0.03881418 -0.088850535
-0.041061576 -0.038760927 -0.088929653
-0.041068528 -0.038698889 -0.088956691
-0.04107397 -0.038640384 -0.089003764
-0.041075803 -0.038588684 -0.089102879
-0.041080952 -0.038530048 -0.089155935
-0.041085243 -0.038473137 -0.089221016
-0.041090783 -0.038414676 -0.089266084
-0.041095834 -0.038355999 -0.089321136
-0.041098226 -0.038302444 -0.089414231
-0.041109014 -0.038134981 -0.089641474
-0.041114066 -0.038076304 -0.089696534
-0.041119214 -0.038017668 -0.089749582
-0.041123971 -0.037958864 -0.08981064
-0.041127875 -0.037901778 -0.0898837
-0.041131783 -0.037844695 -0.08995676
-0.041136637 -0.037785932 -0.090015814
-0.041141495 -0.037727166 -0.090074867
-0.041146643 -0.037668534 -0.09012793
-0.041153204 -0.037606321 -0.090162955
-0.041159675 -0.037493657 -0.090331085
-0.041181732 -0.037200958 -0.090666316
-0.041188002 -0.037138619 -0.090707332
-0.041192833 -0.03707774 -0.090772346
-0.041197788 -0.037019022 -0.090829402
-0.04120357 -0.036956467 -0.090880401
-0.041205574 -0.036902741 -0.090981498
-0.041207358 -0.036846817 -0.091092534
-0.041212969 -0.036786288 -0.091141567
-0.041219335 -0.036723994 -0.091180585
-0.041226558 -0.036659975 -0.091207601
-0.041232266 -0.036599487 -0.091254637
-0.041229393 -0.036552005 -0.091433719
-0.04123576 -0.03648971 -0.091472752
-0.041241176 -0.036429092 -0.091525786
-0.041247912 -0.036364861 -0.09156277
-0.041253228 -0.036304198 -0.0916178
-0.042607069 -0.018417289 -0.11199278
-0.042614024 -0.018338449 -0.11206351
-0.042621661 -0.018259911 -0.11212027
-0.0426291 -0.018181287 -0.11218102
-0.042636126 -0.018100379 -0.11225572
-0.042642985 -0.018021496 -0.11232846
-0.042676371 -0.017540565 -0.11293457
-0.042703632 -0.01713464 -0.11346389
-0.042712316 -0.017054465 -0.11350464
-0.042721391 -0.016974464 -0.11353741
-0.042721301 -0.016890405 -0.1137579
-0.042731449 -0.016810877 -0.1137687
-0.042747557 -0.016565952 -0.11409466
-0.042754561 -0.016482932 -0.11417532
-0.042762171 -0.016402284 -0.11423805
-0.042777281 -0.016154816 -0.11458994
-0.042786747 -0.016074987 -0.11461471
-0.042819645 -0.015577037 -0.11527451
-0.042829379 -0.015495226 -0.11529925
-0.042838354 -0.01541518 -0.11533401
-0.046335317 0.00099570677 -0.090430923
-0.046344247 0.0010631718 -0.09043391
-0.041059226 -0.038623475 -0.089347087
-0.041064277 -0.038564794 -0.089402139
-0.041071132 -0.038502716 -0.089431174
-0.04108946 -0.038223065 -0.089804567
-0.041097071 -0.038159218 -0.089823589
-0.041101269 -0.038102262 -0.089890659
-0.041108027 -0.038040139 -0.089921698
-0.042054467 -0.02598026 -0.10300821
-0.042061515 -0.025909863 -0.1030551
-0.042064108 -0.025839595 -0.1031879
-0.042072691 -0.025767779 -0.1032088
-0.042087041 -0.025555685 -0.10348331
-0.042558447 -0.019528091 -0.11005557
-0.042597175 -0.018980211 -0.1107326
-0.042626336 -0.018587731 -0.11119021
-0.042635337 -0.018509796 -0.111219
-0.042657107 -0.01819176 -0.11162578
-0.042666987 -0.018114217 -0.1116366
-0.042698421 -0.017632423 -0.11228266
-0.042706154 -0.017553927 -0.11233743
-0.042715449 -0.017476123 -0.11236022
-0.042724621 -0.017396165 -0.112391
-0.042768035 -0.016749538 -0.11323436
-0.042777207 -0.016669581 -0.11326513
-0.042783648 -0.016588412 -0.11335181
-0.04278763 -0.016504057 -0.11349438
-0.042796437 -0.016426036 -0.11352718
-0.042805884 -0.01626008 -0.11377642
-0.042811934 -0.016178742 -0.11387109
-0.042820718 -0.016098611 -0.11390983
-0.042909417 -0.014942712 -0.11520306
-0.042934112 -0.014609169 -0.11559362
-0.042943608 -0.014439034 -0.11585278
-0.042953439 -0.014357267 -0.11587552
-0.042961828 -0.014276963 -0.11592227
-0.046335947 0.00099529326 -0.09043096
-0.046345163 0.0010626279 -0.090427957
-0.041800085 -0.027955187 -0.10280561
-0.041806258 -0.027884401 -0.10287048
-0.041811943 -0.027813403 -0.10294533
-0.04181736 -0.027744386 -0.10302021
-0.041823629 -0.027673645 -0.10308308
-0.04183029 -0.027603077 -0.10313796
-0.041835319 -0.027533885 -0.10322083
-0.041840613 -0.027462713 -0.10330366
-0.041845448 -0.027393438 -0.10339054
-0.041852109 -0.02732287 -0.10344542
-0.041859619 -0.027250579 -0.10348828
-0.041866452 -0.027177986 -0.10354512
-0.042531371 -0.01896332 -0.11206838
-0.042541545 -0.018885905 -0.11207322
-0.042550642 -0.018808015 -0.11210001
-0.042570341 -0.01848696 -0.11255469
-0.042578466 -0.018408637 -0.11260147
-0.042587858 -0.018330878 -0.11262227
-0.042625315 -0.017849647 -0.11315047
-0.042629052 -0.017769383 -0.11328711
-0.04263803 -0.017689338 -0.11332187
-0.042646129 -0.017608903 -0.11337461
-0.042652596 -0.017529849 -0.11345533
-0.042659525 -0.017448897 -0.11353204
-0.042695764 -0.016962927 -0.11409611
-0.042703547 -0.016880253 -0.1141608
-0.042711183 -0.016801715 -0.11421756
-0.042720258 -0.016721712 -0.11425032
-0.046336737 0.00099315681 -0.090430446
-0.046345882 0.0010584239 -0.090423465
-0.04136502 -0.036726274 -0.0883644
-0.041370824 -0.036665831 -0.088409446
-0.041376829 -0.036605474 -0.088450491
-0.04138273 -0.036545075 -0.088493541
-0.041388635 -0.036484674 -0.088536583
-0.041394342 -0.036424186 -0.088583626
-0.041400246 -0.036363784 -0.088626668
-0.041406244 -0.036303431 -0.088667721
-0.041411564 -0.036242768 -0.088722751
-0.041416418 -0.036184005 -0.088781796
-0.041422226 -0.036123559 -0.088826843
-0.04142813 -0.036063157 -0.088869885
-0.04143374 -0.036002629 -0.088918924
-0.041438304 -0.035943739 -0.088983968
-0.04144267 -0.035884753 -0.089053012
-0.041446283 -0.03582754 -0.089132056
-0.041449234 -0.035772137 -0.089219131
-0.041452091 -0.03571669 -0.089308195
-0.041455872 -0.035657451 -0.089389227
-0.041459877 -0.035600409 -0.089460291
-0.041465558 -0.035537809 -0.089513287
-0.041473072 -0.03547392 -0.089534312
-0.04148107 -0.035410248 -0.089545339
-0.041488487 -0.035346314 -0.089568354
-0.041494951 -0.035284065 -0.089605369
-0.041499026 -0.035224952 -0.089680411
-0.041500345 -0.035170928 -0.08979547
-0.041307017 -0.031304508 -0.10359423
-0.041315503 -0.031232651 -0.10361713
-0.042499844 -0.017620826 -0.11614093
-0.042546909 -0.017047228 -0.11672368
-0.042557321 -0.016965721 -0.11673444
-0.042563472 -0.016884424 -0.11682712
-0.042569205 -0.016800843 -0.11693374
-0.042577669 -0.016718471 -0.11698446
-0.042585671 -0.016637996 -0.11703918
-0.04633569 0.0009967871 -0.090429604
-0.046344832 0.0010620523 -0.090422623
-0.040755086 -0.039917298 -0.091862381
-0.040761258 -0.039854914 -0.0919054
-0.040766113 -0.039796151 -0.091964453
-0.040771823 -0.03973566 -0.092011489
-0.040777337 -0.03967509 -0.092062525
-0.040782951 -0.039614558 -0.092111558
-0.040788658 -0.039554074 -0.092158601
-0.040794171 -0.039493501 -0.09220963
-0.040799126 -0.039434779 -0.092266694
-0.040805005 -0.039372265 -0.092315704
-0.040810812 -0.039311826 -0.092360742
-0.040816791 -0.039249357 -0.092407748
-0.040821549 -0.039190546 -0.092468806
-0.040825259 -0.039133377 -0.09254586
-0.040829629 -0.039074399 -0.092614897
-0.040833533 -0.039017312 -0.092687964
-0.040838949 -0.038956694 -0.09274099
-0.040845025 -0.038894273 -0.092785999
-0.040851392 -0.038831975 -0.092825018
-0.040857174 -0.03876942 -0.092876032
-0.040861543 -0.038710438 -0.092945069
-0.040865351 -0.038653314 -0.093020126
-0.040868476 -0.038595885 -0.093109168
-0.040873602 -0.038535137 -0.093168184
-0.040879019 -0.038474519 -0.093221217
-0.040883385 -0.03841554 -0.093290254
-0.040888682 -0.038352773 -0.093351252
-0.040893242 -0.038293876 -0.093416288
-0.040899124 -0.038231365 -0.093465298
-0.0409052 -0.038168937 -0.093510315
-0.040910687 -0.038106255 -0.093567312
-0.040910594 -0.0380558 -0.093700401
-0.040918086 -0.037989803 -0.09372738
-0.040921502 -0.0379325 -0.093810432
-0.040925846 -0.037871413 -0.093885437
-0.040927827 -0.037815575 -0.093992472
-0.040934853 -0.03775147 -0.094023481
-0.040941488 -0.03768719 -0.09406247
-0.040941179 -0.037634544 -0.094205521
-0.040941156 -0.037582021 -0.094342574
-0.040942945 -0.037526101 -0.094453625
-0.040946726 -0.037466861 -0.094534643
-0.040950414 -0.037407577 -0.094617657
-0.040954951 -0.037346572 -0.094688669
-0.040957786 -0.037289012 -0.094783694
-0.040960886 -0.037229471 -0.094878696
-0.04096438 -0.037170105 -0.094965704
-0.040967967 -0.037110779 -0.09505073
-0.040972896 -0.037049949 -0.095113747
-0.040979434 -0.036985628 -0.095154732
-0.040675338 -0.035132788 -0.10585714
-0.04070925 -0.03478232 -0.1061136
-0.040719055 -0.034706842 -0.10612045
-0.040734846 -0.034501687 -0.10634912
-0.040739119 -0.034434259 -0.106442
-0.04074578 -0.034363691 -0.10649689
-0.040752828 -0.034293294 -0.10654378
-0.040797137 -0.033800393 -0.1069699
-0.040808674 -0.033723582 -0.10694678
-0.040819917 -0.033646643 -0.10692964
-0.040836588 -0.03337466 -0.10731513
-0.040847443 -0.033297546 -0.10730599
-0.040976286 -0.031936765 -0.10835639
-0.041045804 -0.031146254 -0.10906973
-0.04105607 -0.03106888 -0.10907257
-0.041066069 -0.030993491 -0.10907543
-0.041076533 -0.030916205 -0.10907427
-0.041553311 -0.025693342 -0.11344903
-0.041564237 -0.025614161 -0.11344384
-0.041575357 -0.025535066 -0.11343466
-0.041597955 -0.025229998 -0.1137917
-0.041609272 -0.02515099 -0.11377852
-0.041619834 -0.025073746 -0.11377537
-0.04192391 -0.021778286 -0.11647291
-0.041935105 -0.021697123 -0.11646769
-0.046326872 0.00092988089 -0.090440467
-0.046336409 0.00099497475 -0.090425506
-0.046345651 0.001060199 -0.090416536
-0.040238984 -0.040942959 -0.099168845
-0.040245693 -0.040876616 -0.09921179
-0.040253613 -0.04065327 -0.099639967
-0.040260322 -0.040586926 -0.09968292
-0.040265422 -0.040524065 -0.099747911
-0.040256776 -0.040488735 -0.10000709
-0.040260632 -0.040427424 -0.10009208
-0.040263172 -0.040369734 -0.1001931
-0.040255282 -0.040332634 -0.10044227
-0.040257528 -0.040274814 -0.10054929
-0.040261485 -0.040213555 -0.10063227
-0.039791636 -0.04103896 -0.10756904
-0.039798222 -0.04097046 -0.10761996
-0.039808124 -0.040895022 -0.10762482
-0.039818879 -0.040817868 -0.10761766
-0.039829172 -0.040742606 -0.10761455
-0.039957952 -0.039367091 -0.10870469
-0.039990623 -0.039018173 -0.10898115
-0.040000327 -0.03894265 -0.10899
-0.040009938 -0.038867086 -0.10900085
-0.040040873 -0.038578313 -0.10915435
-0.04011282 -0.037864495 -0.10962111
-0.040218055 -0.036728512 -0.11054303
-0.040226787 -0.036652558 -0.11057186
-0.040236399 -0.036576997 -0.11058272
-0.04024725 -0.03649988 -0.11057357
-0.046327952 0.00092716143 -0.090411618
-0.046337072 0.00099453889 -0.090410605
-0.046346415 0.0010597166 -0.09039963
-0.039700683 -0.039344508 -0.11374503
-0.039710268 -0.039266832 -0.11376185
-0.039718829 -0.039192908 -0.1137887
-0.039727926 -0.039115015 -0.1138155
-0.040525779 -0.031429708 -0.11839104
-0.040536679 -0.031348415 -0.11839183
-0.040573567 -0.030961454 -0.11868569
-0.040581595 -0.030883089 -0.11873446
-0.040592499 -0.030801795 -0.11873523
-0.040601864 -0.030721923 -0.11876202
-0.040680468 -0.029937536 -0.11928365
-0.040690809 -0.029858096 -0.11929046
-0.040736336 -0.029386738 -0.119637
-0.040747043 -0.029305359 -0.11964177
-0.041081451 -0.026092643 -0.12153744
-0.041090429 -0.026012599 -0.12157219
-0.041099772 -0.025930615 -0.12160493
-0.041117467 -0.025688492 -0.12189297
-0.041127492 -0.025606809 -0.12191173
-0.046327654 0.00092625059 -0.090419829
-0.046337068 0.00099349953 -0.090412825
-0.046346411 0.0010586791 -0.090401866
-0.039102525 -0.043198328 -0.1152717
-0.03911145 -0.043122463 -0.11529654
-0.039120477 -0.043046638 -0.11531937
-0.039129868 -0.042968877 -0.11534018
-0.039137747 -0.04289465 -0.11538102
-0.039145432 -0.042820334 -0.11542585
-0.039152555 -0.04274787 -0.11547671
-0.039159581 -0.042675365 -0.11552956
-0.039167825 -0.042599194 -0.11556838
-0.039177217 -0.042521432 -0.11558918
-0.039183781 -0.042450823 -0.11564606
-0.039193634 -0.042371169 -0.11566285
-0.039201804 -0.042297069 -0.1156977
-0.039209098 -0.042222578 -0.11575052
-0.039217174 -0.042148437 -0.11578736
-0.039227124 -0.042068824 -0.11580215
-0.039233759 -0.041996144 -0.115863
-0.039241079 -0.041923769 -0.11590985
-0.039250374 -0.041845962 -0.11593266
-0.039258715 -0.04176984 -0.11596948
-0.03926735 -0.041693844 -0.1160003
-0.039273888 -0.041621119 -0.11606315
-0.039281379 -0.041546717 -0.11611197
-0.039289914 -0.04147068 -0.11614479
-0.039298549 -0.041394684 -0.11617562
-0.039306894 -0.041318562 -0.11621244
-0.039314944 -0.041242309 -0.11625524
-0.039322432 -0.041167904 -0.11630408
-0.039330408 -0.041093718 -0.11634291
-0.039340168 -0.041014016 -0.1163617
-0.039349556 -0.040936258 -0.1163825
-0.039356194 -0.040863581 -0.11644334
-0.039364047 -0.040787235 -0.11649015
-0.039373342 -0.040709432 -0.11651296
-0.03938093 -0.040635075 -0.11655978
-0.039389834 -0.040557098 -0.11659058
-0.039397612 -0.040482827 -0.11663342
-0.03940681 -0.040404975 -0.11665822
-0.039413713 -0.040330317 -0.11671904
-0.039422713 -0.040252384 -0.11674783
-0.039429154 -0.040179618 -0.11681268
-0.039438449 -0.040101815 -0.11683547
-0.039447449 -0.040023878 -0.11686426
-0.039456841 -0.039946117 -0.11688508
-0.039463088 -0.039873268 -0.11695391
-0.039471623 -0.039797228 -0.11698673
-0.039481089 -0.039717399 -0.1170115
-0.039489429 -0.039641276 -0.11704832
-0.039497308 -0.039567046 -0.11708917
-0.039504871 -0.039490573 -0.11714196
-0.039513409 -0.039414536 -0.11717477
-0.039523363 -0.039334923 -0.11718957
-0.039637111 -0.038265727 -0.11777287
-0.039677434 -0.037882388 -0.11799087
-0.039686434 -0.037804455 -0.11801966
-0.039696291 -0.0377248 -0.11803645
-0.039706435 -0.037645273 -0.11804725
-0.039770592 -0.037030932 -0.11840563
-0.04021873 -0.032883447 -0.120535
-0.040228389 -0.032803703 -0.12055578
-0.040235829 -0.032725081 -0.12061653
-0.040243268 -0.032646455 -0.12067728
-0.040269736 -0.032408215 -0.12078559
-0.040279761 -0.032326534 -0.12080434
-0.040289786 -0.032244854 -0.12082309
-0.046327069 0.00092689134 -0.09042231
-0.046336483 0.00099413842 -0.090415314
-0.046345923 0.0010592751 -0.09040235
-0.038960189 -0.043415397 -0.11744647
-0.038967777 -0.043341041 -0.11749331
-0.038976777 -0.043263108 -0.1175221
-0.038986072 -0.043185305 -0.1175449
-0.038993001 -0.043112755 -0.11759976
-0.03900066 -0.043036327 -0.11765055
-0.039009392 -0.042960376 -0.11767938
-0.039018586 -0.042882528 -0.11770418
-0.039028347 -0.042802826 -0.11772296
-0.039036982 -0.04272683 -0.11775379
-0.039044641 -0.042650409 -0.11780459
-0.039052419 -0.042576134 -0.11784743
-0.039062276 -0.042496476 -0.11786421
-0.039071932 -0.042416733 -0.11788499
-0.039079912 -0.042342551 -0.11792384
-0.039086916 -0.04226793 -0.11798265
-0.039094962 -0.042191677 -0.11802545
-0.039103962 -0.042113744 -0.11805426
-0.039111454 -0.042039342 -0.11810309
-0.039120357 -0.041961364 -0.11813388
-0.039130405 -0.041881792 -0.11814667
-0.039138749 -0.04180567 -0.11818349
-0.039145947 -0.041731134 -0.11823831
-0.039154947 -0.041653201 -0.1182671
-0.039163947 -0.041575268 -0.11829589
-0.039172947 -0.041497335 -0.1183247
-0.039180145 -0.041422807 -0.11837952
-0.039189048 -0.041344829 -0.11841032
-0.039197855 -0.041266806 -0.1184431
-0.039205808 -0.041190509 -0.11848791
-0.039215006 -0.041112661 -0.11851272
-0.039224759 -0.041032963 -0.1185315
-0.0392332 -0.040956881 -0.11856631
-0.039242469 -0.04087697 -0.11859509
-0.039249107 -0.040804289 -0.11865592
-0.03925696 -0.040727947 -0.11870273
-0.03926662 -0.040648203 -0.11872351
-0.039275818 -0.040570356 -0.11874831
-0.039284624 -0.040492337 -0.11878111
-0.039299186 -0.040341251 -0.11889271
-0.039430715 -0.039172798 -0.11939061
-0.039437328 -0.039098009 -0.11945742
-0.039446987 -0.039018266 -0.1194782
-0.039506044 -0.038475186 -0.11974975
-0.039515607 -0.038395397 -0.11977252
-0.039524876 -0.038315482 -0.11980129
-0.03953217 -0.038240992 -0.11985411
-0.039542291 -0.038159356 -0.11987087
-0.039552703 -0.038077846 -0.11988162
-0.039561607 -0.037999872 -0.11991242
-0.046326704 0.00093055516 -0.090428151
-0.046336047 0.00099573471 -0.090417191
-0.046345387 0.0010609142 -0.090406224
-0.039117269 -0.041538782 -0.11930472
-0.039149933 -0.041231871 -0.11947193
-0.039160445 -0.041150406 -0.11948069
-0.039169252 -0.041072384 -0.11951348
-0.039177202 -0.04099609 -0.11955829
-0.039186008 -0.040918067 -0.11959108
-0.039195374 -0.040838197 -0.11961786
-0.039205521 -0.040758669 -0.11962865
-0.039214522 -0.040680733 -0.11965744
-0.039230503 -0.04052607 -0.11975102
-0.03923865 -0.040449861 -0.11979183
-0.039248966 -0.040368311 -0.11980459
-0.039256066 -0.040293731 -0.11986141
-0.039299708 -0.039903462 -0.12003335
-0.039307833 -0.039825141 -0.12008013
-0.039317977 -0.039745614 -0.12009092
-0.039328393 -0.039664105 -0.12010168
-0.039337955 -0.039584316 -0.12012445
-0.039345808 -0.039507978 -0.12017126
-0.039353371 -0.039431505 -0.12022406
-0.039363034 -0.039351761 -0.12024483
-0.039386865 -0.03912076 -0.12038521
-0.039397843 -0.039037399 -0.12038995
-0.03940855 -0.03895602 -0.12039472
-0.0394185 -0.038876407 -0.12040952
-0.039427575 -0.038796403 -0.12044228
-0.03943985 -0.038648505 -0.1205899
-0.03964356 -0.036829352 -0.12138569
-0.039653879 -0.036747806 -0.12139846
-0.039664 -0.036666162 -0.12141521
-0.046326883 0.00092735328 -0.090428598
-0.046336129 0.00099257752 -0.090419628
-0.046345565 0.0010577124 -0.090406664
-0.038952127 -0.043193564 -0.11818264
-0.03896074 -0.043115459 -0.11821944
-0.038968522 -0.043041185 -0.11826226
-0.038976476 -0.042964891 -0.11830708
-0.038985863 -0.042887129 -0.11832788
-0.038995426 -0.042807341 -0.11835066
-0.039002161 -0.042734705 -0.1184095
-0.039011355 -0.042656858 -0.1184343
-0.039020918 -0.042577069 -0.11845709
-0.039030015 -0.042499181 -0.11848389
-0.039038163 -0.042422969 -0.11852469
-0.03904707 -0.042344991 -0.11855549
-0.039055604 -0.042268954 -0.11858831
-0.039064605 -0.042191021 -0.1186171
-0.03907302 -0.042112827 -0.11865789
-0.039082121 -0.042034939 -0.11868469
-0.039091878 -0.041955236 -0.11870348
-0.039099269 -0.041880794 -0.1187543
-0.039108563 -0.041802987 -0.1187771
-0.03911832 -0.041723289 -0.11879589
-0.039125882 -0.041646816 -0.11884868
-0.039134324 -0.041570738 -0.1188835
-0.039143883 -0.04149095 -0.11890628
-0.039152883 -0.041413017 -0.11893507
-0.039161984 -0.041335125 -0.11896188
-0.039171543 -0.04125534 -0.11898465
-0.03918035 -0.041177318 -0.11901744
-0.039189156 -0.041099302 -0.11905023
-0.039198156 -0.041021369 -0.11907904
-0.039207257 -0.040943474 -0.11910583
-0.03921511 -0.040867135 -0.11915264
-0.039223917 -0.040789112 -0.11918543
-0.039232627 -0.040711053 -0.11922022
-0.039241433 -0.04063303 -0.11925301
-0.039249189 -0.040556647 -0.11930181
-0.03925753 -0.040480524 -0.11933862
-0.039268702 -0.040397249 -0.11933938
-0.039278947 -0.040317766 -0.11934817
-0.039285947 -0.040243145 -0.11940699
-0.039293513 -0.040166676 -0.11945978
-0.039303925 -0.040085167 -0.11947054
-0.039313681 -0.040005468 -0.11948933
-0.039321635 -0.039929174 -0.11953413
-0.039339051 -0.039773047 -0.11960371
-0.039348442 -0.039695285 -0.11962452
-0.03935837 -0.03961356 -0.11964527
-0.039366517 -0.039537348 -0.11968607
-0.039374568 -0.039461095 -0.11972889
-0.039383084 -0.039382942 -0.11976767
-0.039392836 -0.039303243 -0.11978646
-0.039401256 -0.039225053 -0.11982723
-0.039410815 -0.039145268 -0.11985001
-0.039420865 -0.039065696 -0.11986279
-0.039428134 -0.038989097 -0.11992159
-0.039438184 -0.038909525 -0.11993437
-0.03944565 -0.038833011 -0.11998916
-0.039454453 -0.038754992 -0.12002196
-0.039461724 -0.038678393 -0.12008075
-0.039472044 -0.038596842 -0.1200935
-0.039482556 -0.038515374 -0.12010227
-0.039490972 -0.038437184 -0.12014305
-0.039507534 -0.038282778 -0.12022464
-0.039517656 -0.038201142 -0.12024139
-0.039527901 -0.038121656 -0.1202502
-0.039535925 -0.03804329 -0.12029896
-0.039544247 -0.037965056 -0.12034174
-0.039552562 -0.037886821 -0.12038452
-0.039561931 -0.037806951 -0.12041129
-0.039571028 -0.037729055 -0.1204381
-0.039581053 -0.037647374 -0.12045684
-0.039590321 -0.037567459 -0.12048561
-0.039599322 -0.037489526 -0.12051441
-0.03960735 -0.037411161 -0.12056318
-0.039614618 -0.037334561 -0.12062196
-0.039624084 -0.037254736 -0.12064674
-0.0396345 -0.037173226 -0.1206575
-0.039644159 -0.037093483 -0.12067828
-0.039653815 -0.037013739 -0.12069906
-0.039661646 -0.036935285 -0.12075182
-0.039669212 -0.036858816 -0.12080462
-0.039678775 -0.036779031 -0.12082739
-0.039688334 -0.036699243 -0.12085017
-0.039698064 -0.036617436 -0.12087492
-0.039706871 -0.036539413 -0.1209077
-0.039715752 -0.036459327 -0.12094446
-0.039723314 -0.036382854 -0.12099726
-0.039732099 -0.036302723 -0.12103601
-0.03974117 -0.036222722 -0.12106878
-0.039750829 -0.036142983 -0.12108956
-0.039760757 -0.036061257 -0.1211103
-0.039770611 -0.035981599 -0.12112709
-0.039779879 -0.035901684 -0.12115585
-0.039788198 -0.035823449 -0.12119863
-0.039797567 -0.035743576 -0.1212254
-0.039806444 -0.035663489 -0.12126216
-0.03981591 -0.03558366 -0.12128694
-0.039824031 -0.035505336 -0.1213337
-0.039833374 -0.035423353 -0.12136644
-0.039843228 -0.035343699 -0.12138323
-0.039852962 -0.035261884 -0.12140796
-0.039861839 -0.035181798 -0.12144472
-0.046326261 0.00092635863 -0.090430476
-0.0463356 0.00099154003 -0.090419509
-0.046344943 0.0010567196 -0.090408541
-0.038988154 -0.043425117 -0.11687553
-0.038998861 -0.043343738 -0.11688029
-0.039009009 -0.04326421 -0.11689109
-0.039017741 -0.043188259 -0.11691991
-0.039026178 -0.043112181 -0.11695474
-0.039035279 -0.043034289 -0.11698154
-0.039044183 -0.042956311 -0.11701233
-0.039053012 -0.042880401 -0.11703916
-0.039062209 -0.042802557 -0.11706397
-0.039071307 -0.042724665 -0.11709076
-0.039080795 -0.042646945 -0.11710958
-0.039090943 -0.042567417 -0.11712037
-0.03909938 -0.042491339 -0.11715519
-0.039107431 -0.042415082 -0.117198
-0.039116822 -0.042337321 -0.11721881
-0.039127164 -0.042257883 -0.1172256
-0.039135873 -0.042179815 -0.1172604
-0.039142508 -0.042107139 -0.11732124
-0.039150752 -0.042030971 -0.11736005
-0.039160144 -0.04195321 -0.11738086
-0.039170191 -0.041873641 -0.11739365
-0.039179292 -0.041795749 -0.11742046
-0.039187633 -0.041719623 -0.11745727
-0.03919588 -0.041643456 -0.11749608
-0.039204881 -0.041565523 -0.11752488
-0.039213978 -0.041487634 -0.11755168
-0.039222125 -0.041411422 -0.11759249
-0.039230835 -0.041333355 -0.11762728
-0.039241172 -0.041253917 -0.11763407
-0.039252177 -0.041172668 -0.11763286
-0.039261833 -0.041092925 -0.11765364
-0.039269321 -0.041018523 -0.11770247
-0.039277472 -0.040942311 -0.11774328
-0.039286859 -0.04086455 -0.11776409
-0.039297275 -0.04078304 -0.11777484
-0.039306667 -0.040705282 -0.11779566
-0.039315373 -0.040627219 -0.11783045
-0.039324377 -0.040549286 -0.11785925
-0.039333571 -0.040471435 -0.11788405
-0.039342768 -0.040393587 -0.11790886
-0.039351575 -0.040315568 -0.11794165
-0.039360281 -0.040237505 -0.11797643
-0.039368916 -0.040161513 -0.11800726
-0.03937716 -0.040085342 -0.11804608
-0.039385773 -0.040007234 -0.11808286
-0.039395161 -0.039929476 -0.11810368
-0.039404724 -0.039849691 -0.11812644
-0.039414115 -0.039771929 -0.11814725
-0.039424725 -0.039690506 -0.11815403
-0.039434213 -0.039612789 -0.11817284
-0.039441973 -0.039536402 -0.11822163
-0.039450776 -0.039458383 -0.11825443
-0.039460264 -0.039380666 -0.11827324
-0.039469168 -0.039302688 -0.11830404
-0.039476924 -0.039226308 -0.11835283
-0.039484978 -0.039150052 -0.11839564
-0.039495293 -0.039068498 -0.1184084
-0.039505437 -0.038988974 -0.1184192
-0.039513975 -0.038912933 -0.11845202
-0.039522298 -0.038834698 -0.1184948
-0.039531395 -0.038756806 -0.1185216
-0.039540954 -0.038677022 -0.11854438
-0.039549857 -0.038599044 -0.11857517
-0.039558202 -0.038522922 -0.11861198
-0.039566811 -0.038444813 -0.11864877
-0.039575618 -0.038366795 -0.11868156
-0.039585374 -0.038287096 -0.11870034
-0.039595034 -0.038207352 -0.11872113
-0.039603472 -0.038131267 -0.11875594
-0.039611597 -0.038052946 -0.11880272
-0.039620403 -0.037974928 -0.11883552
-0.039629869 -0.037895098 -0.11886028
-0.039638307 -0.037819017 -0.11889511
-0.03964626 -0.037742719 -0.11893991
-0.039655335 -0.037662715 -0.11897267
-0.039664626 -0.037584912 -0.11899548
-0.039674554 -0.037503187 -0.11901623
-0.039682992 -0.037427105 -0.11905105
-0.039691314 -0.03734887 -0.11909382
-0.039700218 -0.037270896 -0.11912461
-0.03970968 -0.037191067 -0.11914939
-0.039718095 -0.037112873 -0.11919017
-0.039726339 -0.037036706 -0.11922899
-0.039735511 -0.036956746 -0.11925976
-0.039744414 -0.036878768 -0.11929054
-0.03975388 -0.036798939 -0.11931533
-0.039763831 -0.036719326 -0.11933011
-0.039774634 -0.036637992 -0.11933288
-0.03978439 -0.036558293 -0.11935167
-0.039792418 -0.036479928 -0.11940043
-0.039800372 -0.036403626 -0.11944524
-0.039809443 -0.036323626 -0.119478
-0.039818641 -0.036245778 -0.11950281
-0.039829053 -0.036164269 -0.11951357
-0.039838713 -0.036084525 -0.11953435
-0.039846472 -0.036008146 -0.11958314
-0.039854303 -0.035929695 -0.11963592
-0.0398634 -0.035851803 -0.11966271
-0.039872866 -0.035771973 -0.11968748
-0.039881378 -0.035693824 -0.11972627
-0.039889891 -0.035615675 -0.11976505
-0.039899722 -0.035533905 -0.1197878
-0.039909672 -0.035454292 -0.11980259
-0.039919138 -0.035374463 -0.11982736
-0.039927457 -0.035296224 -0.11987014
-0.039936259 -0.035218209 -0.11990293
-0.039946288 -0.035136525 -0.11992168
-0.039956335 -0.035056956 -0.11993448
-0.039965212 -0.03497687 -0.11997123
-0.039972387 -0.034900226 -0.12003202
-0.039980996 -0.034822118 -0.1200688
-0.039991412 -0.034740608 -0.12007956
-0.040000778 -0.034660738 -0.12010634
-0.040007852 -0.034584049 -0.12016911
-0.040015783 -0.034505643 -0.12021989
-0.040026002 -0.034424048 -0.12023464
-0.040036708 -0.034342669 -0.12023941
-0.040046174 -0.03426284 -0.12026419
-0.040054005 -0.034184389 -0.12031695
-0.040062029 -0.034106024 -0.12036572
-0.040071592 -0.034026235 -0.1203885
-0.04008152 -0.03394451 -0.12040924
-0.040090032 -0.033866361 -0.12044804
-0.040099204 -0.033786401 -0.1204788
-0.040109422 -0.03370481 -0.12049355
-0.040119275 -0.033625152 -0.12051034
-0.040128157 -0.033545066 -0.12054709
-0.040136669 -0.033466913 -0.12058587
-0.04014584 -0.033386957 -0.12061664
-0.040155012 -0.033306997 -0.12064741
-0.040164478 -0.033227168 -0.12067219
-0.040173918 -0.033145227 -0.12070292
-0.04018243 -0.033067077 -0.1207417
-0.040191308 -0.032986991 -0.12077846
-0.040200092 -0.03290686 -0.12081721
-0.040208314 -0.032828581 -0.12086199
-0.040216804 -0.032748319 -0.12090673
-0.040225971 -0.03266836 -0.1209375
-0.040236291 -0.032586809 -0.12095026
-0.046325538 0.00092534907 -0.090434477
-0.046335246 0.00099246949 -0.090421483
-0.046344414 0.0010556243 -0.090408549
-0.039056864 -0.043295305 -0.11595315
-0.039065666 -0.043217286 -0.11598594
-0.039075352 -0.043139651 -0.11600076
-0.039084375 -0.043063834 -0.11602361
-0.039092913 -0.042987794 -0.11605642
-0.039102864 -0.042908181 -0.11607121
-0.039111789 -0.042832315 -0.11609604
-0.039120987 -0.042754464 -0.11612085
-0.039129816 -0.042678557 -0.11614768
-0.03913901 -0.04260071 -0.11617249
-0.039148301 -0.042522907 -0.11619529
-0.039156083 -0.042448632 -0.11623812
-0.039165571 -0.042370915 -0.11625694
-0.039174959 -0.042293154 -0.11627775
-0.039184447 -0.042215437 -0.11629656
-0.039192498 -0.042139184 -0.11633936
-0.039200939 -0.042063102 -0.11637419
-0.039210521 -0.041985426 -0.116391
-0.039219253 -0.041909471 -0.11641984
-0.039227962 -0.041831411 -0.11645462
-0.039236501 -0.041755371 -0.11648744
-0.039245985 -0.041677654 -0.11650625
-0.039255474 -0.041599937 -0.11652507
-0.039264768 -0.04152213 -0.11654787
-0.039272159 -0.041447684 -0.1165987
-0.039281912 -0.041367985 -0.11661748
-0.03929301 -0.041286781 -0.11661426
-0.039302692 -0.041209146 -0.11662909
-0.039311498 -0.041131124 -0.11666187
-0.039319083 -0.041056767 -0.11670871
-0.039327525 -0.040980689 -0.11674352
-0.039335672 -0.040904477 -0.11678433
-0.039344769 -0.040826581 -0.11681114
-0.039354257 -0.040748864 -0.11682995
-0.039363913 -0.040669125 -0.11685073
-0.039373305 -0.040591363 -0.11687154
-0.039382108 -0.040513344 -0.11690433
-0.039390452 -0.040437218 -0.11694115
-0.039399743 -0.040359415 -0.11696395
-0.039409596 -0.040279757 -0.11698073
-0.039419182 -0.040202081 -0.11699755
-0.039428376 -0.040124234 -0.11702235
-0.039436623 -0.040048067 -0.11706117
-0.039445523 -0.039970089 -0.11709197
-0.039454721 -0.039892241 -0.11711676
-0.039463818 -0.039814349 -0.11714356
-0.039472915 -0.039736457 -0.11717036
-0.039481454 -0.039660424 -0.11720319
-0.039490648 -0.039582573 -0.117228
-0.039500304 -0.039502833 -0.11724877
-0.039509304 -0.039424896 -0.11727757
-0.039517451 -0.039348684 -0.11731838
-0.039525792 -0.039272562 -0.11735519
-0.039534695 -0.039194584 -0.11738598
-0.039544549 -0.03911493 -0.11740278
-0.039554134 -0.039037254 -0.11741959
-0.039563697 -0.038957469 -0.11744237
-0.039571747 -0.038881212 -0.11748517
-0.039581623 -0.038803667 -0.11749599
-0.039591283 -0.038723923 -0.11751678
-0.039599329 -0.03864767 -0.11755959
-0.039607845 -0.038569521 -0.11759837
-0.039616942 -0.038491629 -0.11762518
-0.039626233 -0.038413823 -0.11764798
-0.03963599 -0.038334128 -0.11766675
-0.039645087 -0.038256235 -0.11769356
-0.039654285 -0.038178388 -0.11771836
-0.039663672 -0.038100626 -0.11773918
-0.039672673 -0.03802269 -0.11776797
-0.039681941 -0.037942775 -0.11779673
-0.039690576 -0.037866782 -0.11782756
-0.039699942 -0.037786908 -0.11785433
-0.039709989 -0.03770734 -0.11786712
-0.039719842 -0.037627682 -0.11788391
-0.039728843 -0.037549749 -0.1179127
-0.039736137 -0.037475262 -0.11796553
-0.03974599 -0.037395604 -0.11798231
-0.039754696 -0.03731754 -0.1180171
-0.039762944 -0.037241373 -0.11805592
-0.039771456 -0.03716322 -0.1180947
-0.039781015 -0.037083436 -0.11811747
-0.039790966 -0.037003823 -0.11813226
-0.039800063 -0.036925934 -0.11815906
-0.039809261 -0.036848083 -0.11818387
-0.039818916 -0.03676834 -0.11820465
-0.03982782 -0.036690366 -0.11823545
-0.039837576 -0.036610663 -0.11825423
-0.039845917 -0.03653454 -0.11829104
-0.039853577 -0.036458112 -0.11834184
-0.039863795 -0.036376521 -0.1183566
-0.039873186 -0.036298759 -0.11837741
-0.03988209 -0.036220782 -0.1184082
-0.039890602 -0.036142632 -0.11844698
-0.039899409 -0.03606461 -0.11847977
-0.039909065 -0.035984866 -0.11850056
-0.039919015 -0.035905257 -0.11851534
-0.039928868 -0.035825599 -0.11853213
-0.039938528 -0.035745855 -0.11855291
-0.039947823 -0.035668053 -0.11857571
-0.039957188 -0.035588183 -0.11860248
-0.039966088 -0.035510205 -0.11863328
-0.039975457 -0.035430331 -0.11866005
-0.03998331 -0.035353988 -0.11870686
-0.039992675 -0.035274118 -0.11873363
-0.040002529 -0.035194457 -0.11875041
-0.040012091 -0.035114676 -0.11877319
-0.040020991 -0.035036698 -0.11880398
-0.040029503 -0.034958549 -0.11884277
-0.04003926 -0.034878846 -0.11886155
-0.040048625 -0.034798976 -0.11888832
-0.040056482 -0.034722634 -0.11893513
-0.040065359 -0.034642547 -0.11897188
-0.040074654 -0.034564741 -0.11899468
-0.040084407 -0.034485042 -0.11901347
-0.040093776 -0.034405168 -0.11904024
-0.040102944 -0.034325212 -0.11907099
-0.040112406 -0.034245379 -0.11909577
-0.040121507 -0.034167491 -0.11912257
-0.040131167 -0.034087747 -0.11914336
-0.040140532 -0.034007877 -0.11917013
-0.040149044 -0.033929728 -0.11920891
-0.040157922 -0.033849634 -0.11924567
-0.040167481 -0.033769853 -0.11926844
-0.040176287 -0.033691831 -0.11930124
-0.040185846 -0.033612043 -0.11932401
-0.040195704 -0.033532389 -0.1193408
-0.040205263 -0.033452604 -0.11936358
-0.040214922 -0.03337286 -0.11938436
-0.040224385 -0.033293031 -0.11940912
-0.040233456 -0.033213031 -0.11944189
-0.040241677 -0.033134751 -0.11948667
-0.040250652 -0.033054706 -0.11952142
-0.040260702 -0.032975134 -0.11953422
-0.04026863 -0.032896727 -0.11958498
-0.040277705 -0.032816723 -0.11961775
-0.040287558 -0.032737069 -0.11963452
-0.040297214 -0.032657325 -0.1196553
-0.040306386 -0.032577366 -0.11968607
-0.040315557 -0.032497406 -0.11971684
-0.040324826 -0.032417491 -0.1197456
-0.040334385 -0.032337703 -0.11976839
-0.040343948 -0.032257918 -0.11979116
-0.040353507 -0.032178134 -0.11981393
-0.040362969 -0.032098304 -0.11983871
-0.040372703 -0.032016493 -0.11986345
-0.040381972 -0.031936578 -0.11989222
-0.040390849 -0.031856488 -0.11992898
-0.040398873 -0.031778123 -0.11997775
-0.040408142 -0.031698208 -0.12000652
-0.040418461 -0.031616658 -0.12001928
-0.040428214 -0.031536955 -0.12003806
-0.040437482 -0.03145704 -0.12006683
-0.040445875 -0.031376738 -0.12011357
-0.040455535 -0.031296995 -0.12013435
-0.040464997 -0.031217165 -0.12015913
-0.040474921 -0.03113544 -0.12017988
-0.040482171 -0.031056728 -0.12024462
-0.04049078 -0.030978624 -0.12028141
-0.040501289 -0.030897157 -0.12029018
-0.040511314 -0.030815477 -0.12030893
-0.04051961 -0.030735128 -0.12035766
-0.040527828 -0.03065685 -0.12040245
-0.04053795 -0.030575212 -0.1204192
-0.040548462 -0.030493746 -0.12042797
-0.040558584 -0.030412108 -0.12044472
-0.040660463 -0.029526703 -0.12077904
-0.040670391 -0.029444978 -0.1207998
-0.040679853 -0.029365148 -0.12082458
-0.040688999 -0.02928308 -0.1208613
-0.040698171 -0.029203121 -0.12089207
-0.040707901 -0.02912131 -0.12091681
-0.040717732 -0.029039543 -0.12093955
-0.040727001 -0.028959626 -0.12096833
-0.040736634 -0.028877772 -0.12099507
-0.040745221 -0.028797554 -0.12103782
-0.040754098 -0.028717466 -0.12107457
-0.040763929 -0.028635697 -0.12109732
-0.040774148 -0.028554104 -0.12111208
-0.04098193 -0.02676197 -0.12175845
-0.040991466 -0.026680073 -0.12178719
-0.0410011 -0.026598219 -0.12181393
-0.041010052 -0.026516061 -0.12185465
-0.041018639 -0.026435845 -0.1218974
-0.041028541 -0.026352009 -0.12192411
-0.041038271 -0.026270198 -0.12194886
-0.041047908 -0.026188344 -0.12197559
-0.041057345 -0.026106404 -0.12200633
-0.041066125 -0.026026271 -0.12204508
-0.041075639 -0.025942264 -0.12207979
-0.041085467 -0.025860496 -0.12210254
-0.046329003 0.00093058124 -0.090440944
-0.046338636 0.00099563412 -0.090423986
-0.046347879 0.0010608565 -0.090415008
-0.039076596 -0.043252684 -0.11566716
-0.039086279 -0.043175053 -0.11568198
-0.039093401 -0.043102589 -0.11573283
-0.039102793 -0.043024831 -0.11575364
-0.039113037 -0.042945344 -0.11576244
-0.039121207 -0.042871244 -0.11579729
-0.039130598 -0.042793483 -0.1158181
-0.039139792 -0.042715635 -0.11584291
-0.039148819 -0.042639814 -0.11586574
-0.03915792 -0.042561922 -0.11589254
-0.039167795 -0.042484377 -0.11590337
-0.03917443 -0.0424117 -0.1159642
-0.039183918 -0.042333979 -0.11598302
-0.039193407 -0.042256258 -0.11600183
-0.039202601 -0.042178415 -0.11602663
-0.039212286 -0.04210078 -0.11604145
-0.039221287 -0.04202285 -0.11607026
-0.039227922 -0.04195017 -0.11613109
-0.03923836 -0.041870773 -0.1161359
-0.039247192 -0.041794866 -0.11616272
-0.039255239 -0.04171861 -0.11620553
-0.039263681 -0.041642528 -0.11624035
-0.039273828 -0.041563001 -0.11625114
-0.039283607 -0.041485414 -0.11626397
-0.039292999 -0.041407652 -0.11628477
-0.039300852 -0.041331314 -0.11633158
-0.039309584 -0.041255359 -0.1163604
-0.039319634 -0.04117579 -0.11637319
-0.039328828 -0.041097939 -0.11639799
-0.039337464 -0.041021943 -0.11642882
-0.039346855 -0.040944181 -0.11644963
-0.039356053 -0.040866338 -0.11647443
-0.03936439 -0.040790215 -0.11651126
-0.039373785 -0.040712453 -0.11653206
-0.039382588 -0.040634431 -0.11656485
-0.039391786 -0.040556584 -0.11658966
-0.039400883 -0.040478691 -0.11661646
-0.039409518 -0.040402696 -0.11664729
-0.039417665 -0.040326487 -0.1166881
-0.039426666 -0.04024855 -0.11671689
-0.03943681 -0.040169023 -0.11672769
-0.039446399 -0.040091351 -0.1167445
-0.039455105 -0.040013287 -0.11677929
-0.039461739 -0.039940611 -0.11684013
-0.03947074 -0.039862677 -0.11686893
-0.039480329 -0.039784998 -0.11688574
-0.039490473 -0.03970547 -0.11689653
-0.03949967 -0.039627627 -0.11692134
-0.039508864 -0.039549775 -0.11694615
-0.039518524 -0.039470032 -0.11696692
-0.039527353 -0.039394125 -0.11699376
-0.039536819 -0.0393143 -0.11701853
-0.03954421 -0.039239854 -0.11706935
-0.039552748 -0.039163813 -0.11710218
-0.039562698 -0.039084196 -0.11711696
-0.039572358 -0.039004456 -0.11713774
-0.039581552 -0.038926609 -0.11716255
-0.039590746 -0.038848765 -0.11718734
-0.039599944 -0.038770914 -0.11721215
-0.039608553 -0.03869281 -0.11724894
-0.039617188 -0.038616814 -0.11727976
-0.039626092 -0.038538836 -0.11731056
-0.039634995 -0.038460858 -0.11734135
-0.039644092 -0.03838297 -0.11736815
-0.039653651 -0.038303182 -0.11739094
-0.039662849 -0.038225338 -0.11741573
-0.039671753 -0.03814736 -0.11744653
-0.039681047 -0.038069554 -0.11746933
-0.039690338 -0.037991751 -0.11749214
-0.039699901 -0.037911966 -0.11751492
-0.039708998 -0.037834071 -0.11754172
-0.039717704 -0.037756011 -0.11757651
-0.039726902 -0.03767816 -0.11760131
-0.039735537 -0.037602168 -0.11763214
-0.039744243 -0.037524104 -0.11766693
-0.039753146 -0.037446126 -0.11769772
-0.039763659 -0.037364662 -0.11770649
-0.03977371 -0.037285089 -0.11771928
-0.03978271 -0.037207156 -0.11774807
-0.039791517 -0.037129138 -0.11778086
-0.039798614 -0.037054561 -0.11783769
-0.039807811 -0.036976714 -0.11786249
-0.03981737 -0.036896929 -0.11788527
-0.039825518 -0.036820717 -0.11792608
-0.039834127 -0.036742613 -0.11796286
-0.039844081 -0.036662996 -0.11797766
-0.039854128 -0.036583431 -0.11799044
-0.039863519 -0.036505669 -0.11801125
-0.039873078 -0.036425881 -0.11803403
-0.039882276 -0.036348034 -0.11805883
-0.039891373 -0.036270142 -0.11808563
-0.039900545 -0.036190182 -0.1181164
-0.039907936 -0.036115736 -0.11816722
-0.039916743 -0.036037721 -0.11820002
-0.039926499 -0.035958022 -0.1182188
-0.039935403 -0.035880044 -0.1182496
-0.039944865 -0.035800215 -0.11827437
-0.039954621 -0.035720512 -0.11829315
-0.039963916 -0.03564271 -0.11831595
-0.039972525 -0.035564601 -0.11835274
-0.039982088 -0.035484821 -0.11837551
-0.039991844 -0.035405118 -0.11839431
-0.0399996 -0.035328735 -0.1184431
-0.040007845 -0.035252564 -0.1184819
-0.04001797 -0.035170928 -0.11849867
-0.040027723 -0.035091229 -0.11851745
-0.040036824 -0.035013337 -0.11854425
-0.040045239 -0.034935147 -0.11858504
-0.040055189 -0.03485553 -0.11859982
-0.040065043 -0.034775876 -0.1186166
-0.040074408 -0.034696002 -0.11864337
-0.040083408 -0.034618068 -0.11867217
-0.040092874 -0.034538239 -0.11869695
-0.040101483 -0.034460131 -0.11873373
-0.040109999 -0.034381982 -0.11877252
-0.040118609 -0.034303878 -0.11880931
-0.04012873 -0.034222238 -0.11882606
-0.040137537 -0.034144219 -0.11885885
-0.04014644 -0.034066241 -0.11888964
-0.040155709 -0.033986326 -0.11891841
-0.040165465 -0.033906624 -0.1189372
-0.040175222 -0.033826925 -0.11895598
-0.040184878 -0.033747181 -0.11897676
-0.040194638 -0.033667482 -0.11899554
-0.040202469 -0.033589032 -0.1190483
-0.040210884 -0.033510841 -0.11908908
-0.04021959 -0.033432778 -0.11912388
-0.040229809 -0.033351179 -0.11913864
-0.040239103 -0.033273377 -0.11916144
-0.04024769 -0.03319316 -0.11920419
-0.04025764 -0.033113547 -0.11921898
-0.040267006 -0.033033673 -0.11924575
-0.040275812 -0.032955654 -0.11927854
-0.040285569 -0.032875955 -0.11929733
-0.040294252 -0.032795779 -0.11933807
-0.040303718 -0.03271595 -0.11936285
-0.040312521 -0.032637931 -0.11939564
-0.040321499 -0.032557886 -0.1194304
-0.040330209 -0.032479823 -0.11946519
-0.040339939 -0.032398012 -0.11948993
-0.040349793 -0.032318354 -0.11950671
-0.040360011 -0.032236759 -0.11952148
-0.040369108 -0.03215887 -0.11954828
-0.040377039 -0.03208046 -0.11959904
-0.040386967 -0.031998735 -0.11961979
-0.040397111 -0.031919207 -0.11963058
-0.040406283 -0.031839252 -0.11966135
-0.040414311 -0.031760886 -0.11971012
-0.04042387 -0.031681098 -0.11973289
-0.040433701 -0.031599332 -0.11975565
-0.040443458 -0.031519629 -0.11977442
-0.040452141 -0.031439457 -0.11981518
-0.04046046 -0.031361222 -0.11985795
-0.040469728 -0.031281307 -0.11988673
-0.040479653 -0.031199582 -0.11990748
-0.040488925 -0.031119665 -0.11993624
-0.040497705 -0.031039534 -0.11997499
-0.040507656 -0.030959921 -0.11998978
-0.040517487 -0.030878153 -0.12001253
-0.04052617 -0.030797977 -0.12005328
-0.04053583 -0.030718235 -0.12007406
-0.04054461 -0.030638104 -0.12011281
-0.040553782 -0.030558145 -0.12014358
-0.040562853 -0.030478144 -0.12017634
-0.040571734 -0.030398056 -0.12021311
-0.040580053 -0.030319821 -0.12025587
-0.040589981 -0.030238096 -0.12027662
-0.040600393 -0.030156586 -0.1202874
-0.040610809 -0.030075077 -0.12029815
-0.04100325 -0.026671711 -0.12156764
-0.041012883 -0.026589856 -0.12159438
-0.041022811 -0.026508132 -0.12161513
-0.041032542 -0.026426321 -0.12163988
-0.041041885 -0.026344337 -0.12167261
-0.041050348 -0.026261967 -0.12172331
-0.041059691 -0.026179982 -0.12175605
-0.041069426 -0.026098171 -0.12178079
-0.041078694 -0.026018256 -0.12180956
-0.041088693 -0.025934462 -0.12183428
-0.041098814 -0.025852825 -0.12185103
-0.041108549 -0.025771014 -0.12187578
-0.041118085 -0.025689118 -0.12190451
-0.041127231 -0.025607048 -0.12194124
-0.046328656 0.00092966482 -0.090435304
-0.046338364 0.0009967871 -0.090422317
-0.046347607 0.0010620076 -0.090413347
-0.039052349 -0.043242697 -0.11616514
-0.039062787 -0.0431633 -0.11616994
-0.039070472 -0.043088984 -0.11621477
-0.039078057 -0.043014627 -0.1162616
-0.039094374 -0.042864315 -0.11633726
-0.039103668 -0.042786509 -0.11636008
-0.03911306 -0.042708747 -0.11638088
-0.039139129 -0.04247874 -0.11647533
-0.039144449 -0.042409677 -0.1165522
-0.039154205 -0.042329974 -0.11657098
-0.039164349 -0.042250451 -0.11658178
-0.039174132 -0.042172864 -0.1165946
-0.039184179 -0.042093292 -0.11660739
-0.039216988 -0.041790646 -0.11676067
-0.039226841 -0.041710988 -0.11677746
-0.039235279 -0.041634906 -0.11681228
-0.039244011 -0.041558955 -0.1168411
-0.039251868 -0.041482612 -0.1168879
-0.039260868 -0.041404679 -0.11691671
-0.039270062 -0.041326832 -0.11694151
-0.039279256 -0.041248985 -0.11696632
-0.039288647 -0.041171223 -0.11698712
-0.039297745 -0.041093335 -0.11701392
-0.039305039 -0.041018847 -0.11706675
-0.039315086 -0.040939275 -0.11707953
-0.03932533 -0.040859789 -0.11708833
-0.039335281 -0.040780179 -0.11710312
-0.039343722 -0.040704094 -0.11713794
-0.039350819 -0.040629521 -0.11719476
-0.039359722 -0.040551543 -0.11722555
-0.039368819 -0.040473655 -0.11725236
-0.039377064 -0.040397488 -0.11729117
-0.039406061 -0.040160369 -0.11734755
-0.039430507 -0.039931737 -0.11746998
-0.039438747 -0.03985557 -0.11750878
-0.039448336 -0.039777894 -0.11752561
-0.039457235 -0.039699916 -0.11755639
-0.039466992 -0.039620213 -0.11757518
-0.039476283 -0.039542411 -0.11759799
-0.039484531 -0.039466243 -0.1176368
-0.039493237 -0.03938818 -0.11767159
-0.039501872 -0.039312184 -0.11770241
-0.039524581 -0.039084889 -0.11785483
-0.039534435 -0.039005231 -0.11787161
-0.039543726 -0.038927428 -0.11789443
-0.039553218 -0.038849708 -0.11791324
-0.039562386 -0.038769752 -0.11794401
-0.039571021 -0.038693756 -0.11797483
-0.039579924 -0.038615778 -0.11800563
-0.039589483 -0.03853599 -0.1180284
-0.039595924 -0.038463227 -0.11809323
-0.039604537 -0.038385119 -0.11813002
-0.039614778 -0.038305636 -0.11813882
-0.039624728 -0.03822602 -0.1181536
-0.039634682 -0.038146406 -0.1181684
-0.039641682 -0.038071789 -0.11822721
-0.039651245 -0.037992004 -0.11824998
-0.039669611 -0.037834197 -0.11830556
-0.039678048 -0.037758119 -0.11834038
-0.039686561 -0.037679967 -0.11837915
-0.039696317 -0.037600268 -0.11839794
-0.039706171 -0.03752061 -0.11841473
-0.039713927 -0.037444226 -0.11846352
-0.03972178 -0.037367888 -0.11851033
-0.039730977 -0.03729004 -0.11853514
-0.039741196 -0.037208445 -0.11854989
-0.03975039 -0.037130594 -0.1185747
-0.039757952 -0.037054129 -0.11862748
-0.039766565 -0.036976021 -0.11866427
-0.039775003 -0.036899939 -0.1186991
-0.039785124 -0.036818299 -0.11871585
-0.039792418 -0.036743812 -0.11876866
-0.039801296 -0.036663726 -0.11880543
-0.039810199 -0.036585748 -0.11883622
-0.039819494 -0.036507942 -0.11885903
-0.039828956 -0.036428113 -0.1188838
-0.039837003 -0.03635186 -0.11892661
-0.039846174 -0.0362719 -0.11895738
-0.039856128 -0.036192287 -0.11897216
-0.039866075 -0.036112674 -0.11898696
-0.039875638 -0.036032885 -0.11900973
-0.039885104 -0.03595306 -0.1190345
-0.039894663 -0.035873272 -0.11905728
-0.039903469 -0.035795249 -0.11909007
-0.039912663 -0.035717405 -0.11911487
-0.039920982 -0.035639167 -0.11915766
-0.039930835 -0.035559513 -0.11917444
-0.039936859 -0.035484463 -0.11925323
-0.039945472 -0.035406359 -0.11929001
-0.039954446 -0.035326313 -0.11932477
-0.039963055 -0.035248205 -0.11936156
-0.039972521 -0.035168376 -0.11938633
-0.039983131 -0.035086952 -0.1193931
-0.039992981 -0.035007298 -0.11940989
-0.040001981 -0.034929361 -0.11943868
-0.040010009 -0.034850996 -0.11948746
-0.040017471 -0.034774486 -0.11954224
-0.040027302 -0.034692716 -0.11956499
-0.040036596 -0.034614913 -0.1195878
-0.040045474 -0.034534823 -0.11962456
-0.040053695 -0.034456544 -0.11966933
-0.040063448 -0.034376845 -0.11968811
-0.04007357 -0.034295209 -0.11970486
-0.040082768 -0.034217358 -0.11972968
-0.040090792 -0.034138992 -0.11977844
-0.040100351 -0.034059208 -0.11980121
-0.040110767 -0.033977699 -0.11981198
-0.040134575 -0.033744585 -0.11995832
-0.040144499 -0.033662859 -0.11997906
-0.040153671 -0.033582903 -0.12000983
-0.04016294 -0.033502985 -0.12003861
-0.040171355 -0.033424795 -0.12007938
-0.040179964 -0.033346687 -0.12011617
-0.040190477 -0.033265222 -0.12012493
-0.040226016 -0.032946981 -0.120266
-0.040233552 -0.0328684 -0.12032475
-0.040241577 -0.032790035 -0.12037352
-0.040251993 -0.032708526 -0.12038429
-0.040261552 -0.032628737 -0.12040707
-0.040271383 -0.032546971 -0.12042981
-0.040281236 -0.032467313 -0.1204466
-0.040298041 -0.032308817 -0.12053412
-0.040307213 -0.032228857 -0.12056489
-0.040316481 -0.032148942 -0.12059366
-0.040326409 -0.032067217 -0.1206144
-0.04033548 -0.031987216 -0.12064717
-0.040481169 -0.030701114 -0.12117727
-0.04049129 -0.030619474 -0.12119403
-0.040500462 -0.030539516 -0.12122479
-0.04051695 -0.030378779 -0.12132426
-0.040525831 -0.030298689 -0.12136102
-0.040534612 -0.030218558 -0.12139978
-0.040544536 -0.030136835 -0.12142053
-0.040553316 -0.030056704 -0.12145928
-0.040562101 -0.029976571 -0.12149803
-0.040571637 -0.029894676 -0.12152678
-0.046328451 0.00092892908 -0.090434015
-0.046338156 0.00099604949 -0.090421028
-0.046347495 0.0010612309 -0.090410061
-0.039119907 -0.04202541 -0.11797851
-0.039129004 -0.041947521 -0.11800531
-0.039153252 -0.0417188 -0.11813174
-0.039162911 -0.04163906 -0.11815252
-0.039172009 -0.041561168 -0.11817932
-0.039295018 -0.040412057 -0.11879139
-0.039303068 -0.0403358 -0.1188342
-0.039312728 -0.040256061 -0.11885498
-0.039322115 -0.040178299 -0.11887579
-0.039333481 -0.040095113 -0.11887254
-0.039344631 -0.039950915 -0.1190322
-0.039356388 -0.0398679 -0.11902097
-0.039364435 -0.039791644 -0.11906378
-0.039372098 -0.039715219 -0.11911457
-0.039380342 -0.039639048 -0.11915339
-0.039389048 -0.039560985 -0.11918817
-0.039398611 -0.0394812 -0.11921095
-0.039408267 -0.039401457 -0.11923173
-0.039416879 -0.039323352 -0.11926851
-0.039456055 -0.038941603 -0.11950453
-0.039465517 -0.038861774 -0.11952929
-0.039474983 -0.038781948 -0.11955407
-0.039483983 -0.038704012 -0.11958286
-0.039491836 -0.038627669 -0.11962967
-0.039501105 -0.038547754 -0.11965844
-0.039510861 -0.038468055 -0.11967722
-0.039520226 -0.038388185 -0.11970399
-0.039527033 -0.038313478 -0.1197668
-0.03953423 -0.03823895 -0.11982162
-0.039544642 -0.038157441 -0.11983239
-0.039552964 -0.038079202 -0.11987516
-0.039560623 -0.038002774 -0.11992596
-0.039569795 -0.037922822 -0.11995672
-0.039577939 -0.037846606 -0.11999754
-0.03958711 -0.03776665 -0.12002831
-0.039596576 -0.037686817 -0.12005308
-0.039605942 -0.037606947 -0.12007984
-0.039634749 -0.037302531 -0.12031502
-0.039685611 -0.036831439 -0.12055767
-0.039695755 -0.036751911 -0.12056848
-0.039705217 -0.036672082 -0.12059324
-0.039860696 -0.035249576 -0.12128912
-0.046326324 0.00093151443 -0.090435632
-0.046335861 0.00099661015 -0.090420671
