# .PCD v0.7 - Point Cloud Data file format
VERSION 0.7
FIELDS x y z
SIZE 4 4 4
TYPE F F F
COUNT 1 1 1
WIDTH 1268
HEIGHT 1
VIEWPOINT 0 0 0 1 0 0 0
POINTS 1268
DATA ascii
0.04508331 -0.034147568 -0.09696015
0.04507358 -0.034074161 -0.096963041
0.045064505 -0.034002557 -0.096973948
0.04505438 -0.033929322 -0.096968852
0.04504377 -0.033856302 -0.096953772
0.045033552 -0.033783108 -0.096946679
0.045023892 -0.033711769 -0.096945606
0.045014523 -0.033640299 -0.096950531
0.045005936 -0.033568479 -0.096971422
0.044996962 -0.033496838 -0.096984334
0.044986933 -0.033423558 -0.096981242
0.044977009 -0.033350237 -0.09698014
0.04496764 -0.033278767 -0.09698505
0.044958662 -0.033207122 -0.096997961
0.044949688 -0.033135477 -0.097010873
0.044939563 -0.033062242 -0.097005777
0.044929147 -0.032989137 -0.096994691
0.0449191 -0.032917969 -0.096985631
0.044909462 -0.032844514 -0.096990526
0.044900388 -0.032772914 -0.097001433
0.044890366 -0.032699637 -0.096998334
0.044880338 -0.032626357 -0.096995242
0.044870678 -0.032555014 -0.096994169
0.044860654 -0.032481734 -0.09699107
0.044851676 -0.032410093 -0.097003974
0.044842407 -0.032338578 -0.097010896
0.044831894 -0.032265514 -0.096997805
0.044821773 -0.032192279 -0.096992716
0.044811651 -0.032119043 -0.096987627
0.044801041 -0.03204602 -0.09697254
0.044790428 -0.031973001 -0.096957453
0.044781357 -0.031901401 -0.096968368
0.044772964 -0.031829499 -0.096993268
0.044764083 -0.031757809 -0.097008169
0.044754621 -0.031686381 -0.097011089
0.04474479 -0.031613018 -0.097011983
0.044734765 -0.031539738 -0.097008891
0.044725008 -0.03146844 -0.097005822
0.04471498 -0.03139516 -0.097002722
0.044704858 -0.031321924 -0.096997619
0.044695199 -0.031250581 -0.096996546
0.044685174 -0.031177303 -0.096993461
0.044675808 -0.031105833 -0.096998379
0.044666734 -0.031034231 -0.097009286
0.044656999 -0.030960824 -0.097012185
0.044646878 -0.030887587 -0.097007088
0.044637024 -0.030816332 -0.097002022
0.044627756 -0.030744819 -0.097008944
0.044617631 -0.030671582 -0.09700384
0.044606827 -0.030598648 -0.096984766
0.044596508 -0.030525498 -0.096975677
0.044586189 -0.030452348 -0.096966587
0.044575579 -0.030379329 -0.0969515
0.044566117 -0.0303079 -0.096954428
0.04455743 -0.030236127 -0.096973337
0.044548746 -0.030164354 -0.096992232
0.044539012 -0.030090945 -0.096995123
0.044528965 -0.030019777 -0.096986063
0.044519134 -0.029946411 -0.096986957
0.044510353 -0.029874681 -0.097003862
0.044501767 -0.029802864 -0.097024761
0.044492692 -0.029731264 -0.097035676
0.04448352 -0.029659707 -0.097044587
0.044473883 -0.029586256 -0.097049475
0.044463858 -0.029512975 -0.097046383
0.04445364 -0.029439783 -0.09703929
0.044443395 -0.0293687 -0.097026229
0.044433758 -0.029295247 -0.097031116
0.04442488 -0.029223561 -0.097046033
0.044415608 -0.029152047 -0.097052954
0.044406462 -0.029078379 -0.097067825
0.044398729 -0.029008286 -0.097100727
0.044390142 -0.02893647 -0.097121626
0.044380508 -0.028863017 -0.097126529
0.044369996 -0.028789954 -0.097113438
0.044359773 -0.028716762 -0.097106345
0.044350892 -0.028645074 -0.097121246
0.044341918 -0.028573431 -0.097134158
0.044332575 -0.028499849 -0.097145043
0.044323597 -0.028428206 -0.097157948
0.044314329 -0.028356692 -0.097164869
0.044304304 -0.028283412 -0.097161762
0.044294447 -0.028212156 -0.097156703
0.044284716 -0.028138747 -0.097159594
0.044275153 -0.028067363 -0.097160526
0.044265129 -0.027994085 -0.097157419
0.044254713 -0.027920976 -0.09714634
0.044244468 -0.027849896 -0.097133279
0.04423425 -0.027776701 -0.097126193
0.044225175 -0.027705103 -0.097137101
0.044216808 -0.027631089 -0.097167954
0.044208512 -0.027559143 -0.09719485
0.044199631 -0.027487457 -0.097209752
0.044190362 -0.027415942 -0.097216666
0.044180728 -0.027342489 -0.097221553
0.044170704 -0.027269211 -0.097218469
0.04416075 -0.027197998 -0.097211398
0.044150531 -0.027124805 -0.097204305
0.044140775 -0.027053507 -0.097201236
0.044130847 -0.026980184 -0.097200133
0.044120722 -0.026906949 -0.097195044
0.044111356 -0.026835479 -0.097199962
0.044102378 -0.026763834 -0.097212866
0.044092841 -0.026690338 -0.097219758
0.044083476 -0.026618868 -0.097224675
0.044074327 -0.0265452 -0.097239554
0.044064961 -0.026473729 -0.097244471
0.044054642 -0.026400579 -0.097235382
0.04404413 -0.026327515 -0.097222298
0.044033594 -0.026256563 -0.097203262
0.044023566 -0.026183285 -0.097200155
0.044014689 -0.026111597 -0.097215064
0.04400564 -0.026037885 -0.097231932
0.043996662 -0.025966242 -0.097244851
0.043987125 -0.025892746 -0.097251736
0.043977756 -0.025821276 -0.097256653
0.043968022 -0.025747867 -0.097259544
0.043958656 -0.025676396 -0.097264461
0.043948632 -0.025603117 -0.097261377
0.04393841 -0.025529923 -0.097254276
0.043928459 -0.025458712 -0.097247213
0.043917947 -0.025385648 -0.097234122
0.043908581 -0.025314178 -0.097239055
0.043899529 -0.025240466 -0.09725593
0.043890163 -0.025168996 -0.09726084
0.043880526 -0.025095543 -0.097265728
0.043870673 -0.025024289 -0.097260661
0.043859869 -0.024951356 -0.097241588
0.043850232 -0.024877902 -0.097246483
0.043842036 -0.024805913 -0.097275369
0.043832887 -0.024732245 -0.097290248
0.043822449 -0.024661249 -0.097273201
0.043811839 -0.024588229 -0.097258113
0.043802276 -0.024516845 -0.097259045
0.04379303 -0.02444322 -0.097271919
0.043784931 -0.024371188 -0.097302802
0.043776952 -0.024297001 -0.097341642
0.043768268 -0.024225228 -0.097360551
0.043758634 -0.024151776 -0.097365431
0.043748878 -0.024080478 -0.097362369
0.04373895 -0.024007155 -0.097361274
0.043729194 -0.023935858 -0.097358197
0.043718584 -0.023862837 -0.097343117
0.04370768 -0.023789946 -0.097322047
0.043697238 -0.023718949 -0.097304992
0.043686826 -0.023645844 -0.097293913
0.04367641 -0.023572737 -0.097282827
0.043667141 -0.023501223 -0.097289741
0.043658771 -0.023427209 -0.097320594
0.043650381 -0.023355307 -0.097345486
0.043641232 -0.023281638 -0.097360365
0.043632157 -0.023210037 -0.097371273
0.04362233 -0.023136672 -0.097372167
0.043612204 -0.023063436 -0.097367071
0.043602742 -0.022992007 -0.097369999
0.043593105 -0.022918556 -0.097374886
0.04358257 -0.022847604 -0.097355843
0.043571178 -0.022774929 -0.097324781
0.043561444 -0.022701519 -0.097327687
0.043553054 -0.022629617 -0.097352572
0.043544102 -0.022555862 -0.097371444
0.043535516 -0.022484045 -0.097392336
0.043526072 -0.022410508 -0.097401217
0.043516245 -0.022337141 -0.097402118
0.043506585 -0.022265799 -0.097401045
0.043496754 -0.022192433 -0.097401939
0.043487974 -0.022120705 -0.097418837
0.043479215 -0.022046864 -0.097441718
0.043469481 -0.021973453 -0.097444601
0.04345914 -0.021902416 -0.097429551
0.043448433 -0.021829437 -0.097412474
0.043438479 -0.021758227 -0.097405411
0.043428943 -0.021684732 -0.097412296
0.043419696 -0.021611106 -0.097425178
0.043410819 -0.02153942 -0.097440086
0.043400988 -0.021466054 -0.097440973
0.043390669 -0.021392904 -0.097431898
0.043380328 -0.021321865 -0.09741684
0.043369815 -0.021248801 -0.097403757
0.043359764 -0.021177633 -0.09739469
0.043350033 -0.021104224 -0.097397588
0.043340884 -0.021030556 -0.097412467
0.043332007 -0.020958869 -0.097427368
0.043322369 -0.020885417 -0.097432256
0.043312222 -0.020814292 -0.097421199
0.043302003 -0.020741098 -0.097414114
0.04329237 -0.020667646 -0.097419001
0.043283682 -0.020595873 -0.097437896
0.043274339 -0.020522291 -0.097448781
0.043264609 -0.020448882 -0.097451672
0.043254655 -0.020377669 -0.097444624
0.043244436 -0.020304477 -0.097437523
0.043234386 -0.020233309 -0.097428463
0.043224264 -0.020160072 -0.097423367
0.043215018 -0.020086449 -0.097436249
0.043206066 -0.020012693 -0.097455114
0.043197285 -0.019940963 -0.097472019
0.043187454 -0.019867597 -0.097472914
0.043177333 -0.01979436 -0.097467817
0.04316777 -0.019722976 -0.097468749
0.043158133 -0.019649524 -0.097473636
0.043149181 -0.019575769 -0.097492509
0.043140106 -0.019504169 -0.097503416
0.043129887 -0.019430976 -0.097496331
0.043119762 -0.019357739 -0.097491235
0.043109935 -0.019284375 -0.097492129
0.043100078 -0.01921312 -0.097487062
0.043089956 -0.019139882 -0.097481966
0.0430802 -0.019068584 -0.097478896
0.043069981 -0.018995391 -0.097471803
0.043059565 -0.018922284 -0.097460717
0.043049417 -0.018851159 -0.09744966
0.043038882 -0.018780207 -0.097430617
0.043028854 -0.018706929 -0.097427517
0.043020096 -0.018633086 -0.097450383
0.043010756 -0.018559504 -0.097461261
0.043000218 -0.018488552 -0.097442217
0.042989388 -0.018417729 -0.097417183
0.04297946 -0.018344406 -0.097416081
0.042970315 -0.018270738 -0.097430959
0.042961556 -0.018196898 -0.097453825
0.042952504 -0.018123187 -0.097470701
0.042943161 -0.018049605 -0.097481579
0.042933818 -0.017976023 -0.097492456
0.042923868 -0.017904811 -0.097485401
0.042913161 -0.017831832 -0.097468317
0.042903304 -0.017760579 -0.09746325
0.042893376 -0.017687257 -0.097462147
0.042883646 -0.017613847 -0.097465046
0.042874668 -0.017542204 -0.09747795
0.042865422 -0.017468579 -0.097490832
0.042855494 -0.017395256 -0.09748973
0.042845935 -0.017323872 -0.097490661
0.042836223 -0.017248351 -0.097499512
0.042827051 -0.017176794 -0.097508423
0.042818099 -0.017103039 -0.097527295
0.042809367 -0.017027088 -0.097556129
0.042800583 -0.016955357 -0.097573027
0.042790756 -0.016881991 -0.097573921
0.042780045 -0.016809013 -0.097556852
0.042769998 -0.016737845 -0.097547784
0.042761043 -0.016664091 -0.097566657
0.042752385 -0.016590208 -0.097591519
0.042743359 -0.016514383 -0.097614348
0.042734504 -0.016440585 -0.097635224
0.042724866 -0.016367134 -0.097640112
0.042714331 -0.016296182 -0.097621061
0.042703889 -0.016225185 -0.097604014
0.042693671 -0.016151993 -0.097596928
0.042683549 -0.016078755 -0.097591832
0.042674109 -0.016005218 -0.097600713
0.04266496 -0.01593155 -0.097615585
0.042655617 -0.015857968 -0.09762647
0.042646371 -0.015784342 -0.097639352
0.042637322 -0.01571063 -0.097656228
0.042627491 -0.015637264 -0.097657114
0.04261744 -0.015566097 -0.097648062
0.042607415 -0.015492817 -0.097644962
0.042597588 -0.015419451 -0.097645864
0.042587951 -0.015345998 -0.097650751
0.04257812 -0.015272632 -0.097651638
0.042568073 -0.015201464 -0.097642586
0.042558048 -0.015128185 -0.097639486
0.042548604 -0.015054646 -0.097648367
0.04253985 -0.014980805 -0.097671241
0.042530797 -0.014907094 -0.097688109
0.04252087 -0.014833771 -0.097687013
0.042510845 -0.014760491 -0.097683914
0.042501211 -0.014687039 -0.097688802
0.042491455 -0.014615741 -0.097685732
0.042481039 -0.014542635 -0.097674645
0.042471305 -0.014469225 -0.097677544
0.042461865 -0.014395686 -0.097686425
0.042451937 -0.014322365 -0.097685322
0.04244189 -0.014251195 -0.097676262
0.042431254 -0.014180287 -0.097655222
0.042420644 -0.014107266 -0.097640142
0.042411469 -0.014035709 -0.097649053
0.042402055 -0.013960058 -0.097663894
0.042392809 -0.013886434 -0.097676776
0.04238376 -0.013812723 -0.097693652
0.04237432 -0.013739184 -0.09770254
0.042364098 -0.01366599 -0.09769544
0.042353585 -0.013592927 -0.097682364
0.04234422 -0.013521456 -0.097687282
0.042334706 -0.01344585 -0.097700134
0.042325169 -0.013372354 -0.097707018
0.042315923 -0.013298729 -0.0977199
0.042305898 -0.013225449 -0.097716793
0.042295557 -0.013154411 -0.097701751
0.042285919 -0.013080958 -0.097706646
0.042276796 -0.013005178 -0.09772747
0.042267554 -0.012931554 -0.097740352
0.042258013 -0.012858058 -0.097747244
0.042248379 -0.012784606 -0.097752132
0.042238742 -0.012711152 -0.097757027
0.042229302 -0.012637614 -0.097765908
0.042219374 -0.012564292 -0.097764805
0.04220935 -0.012491012 -0.097761713
0.042199496 -0.012419757 -0.097756647
0.042189471 -0.012346478 -0.09775354
0.042179346 -0.012273242 -0.097748443
0.04216959 -0.012201943 -0.097745389
0.042159468 -0.012128707 -0.097740285
0.042149149 -0.012055557 -0.097731195
0.042138908 -0.011984475 -0.097718142
0.042129077 -0.011911108 -0.097719036
0.042120341 -0.011835157 -0.09774787
0.042111196 -0.011761488 -0.097762741
0.042100877 -0.011688338 -0.097753651
0.042090658 -0.011615145 -0.097746558
0.042080998 -0.011543804 -0.097745493
0.042071071 -0.011470481 -0.09774439
0.042061239 -0.011397116 -0.097745284
0.042051993 -0.01132349 -0.097758166
0.04204258 -0.011247841 -0.097773008
0.042033039 -0.011174345 -0.0977799
0.042023309 -0.011100936 -0.097782791
0.04201328 -0.011027656 -0.097779691
0.04200333 -0.010956446 -0.097772628
0.041993015 -0.010883295 -0.097763538
0.041983183 -0.010809929 -0.09776444
0.041974034 -0.010736261 -0.097779311
0.041964326 -0.010660741 -0.097788163
0.041954592 -0.010587331 -0.097791061
0.041945349 -0.010513706 -0.097803943
0.041935444 -0.010438272 -0.097808801
0.041925102 -0.010367233 -0.097793743
0.041914955 -0.010296108 -0.097782686
0.041905247 -0.010220587 -0.097791545
0.041895613 -0.010147135 -0.09779644
0.041885659 -0.010075924 -0.09778937
0.041875344 -0.010002773 -0.097780287
0.04186561 -0.0099293645 -0.097783186
0.041855875 -0.0098559549 -0.097786069
0.041846145 -0.0097825453 -0.09778896
0.041836437 -0.0097070253 -0.097797818
0.041826896 -0.0096335299 -0.097804703
0.041817263 -0.0095600784 -0.097809605
0.041807432 -0.0094867116 -0.097810492
0.041797213 -0.0094135189 -0.097803399
0.041787479 -0.0093401102 -0.097806297
0.041777942 -0.009266614 -0.097813182
0.041767918 -0.0091933347 -0.09781009
0.041757673 -0.0091222525 -0.097797029
0.041747354 -0.0090491027 -0.097787939
0.041737303 -0.0089779347 -0.097778879
0.041726891 -0.0089048278 -0.0977678
0.041717667 -0.0088290917 -0.097786635
0.041709542 -0.0087507684 -0.097833402
0.04170052 -0.0086749457 -0.097856238
0.041690882 -0.0086014932 -0.097861134
0.041680664 -0.0085282996 -0.097854041
0.041670516 -0.0084571745 -0.097842976
0.041660395 -0.008383939 -0.097837888
0.041650563 -0.0083105732 -0.097838782
0.041641027 -0.0082370769 -0.097845674
0.041631609 -0.0081614275 -0.097860515
0.041621584 -0.0080881473 -0.097857416
0.041611046 -0.0080171954 -0.097838372
0.041601021 -0.0079439152 -0.097835273
0.041591704 -0.0078682229 -0.097852118
0.04158248 -0.0077924859 -0.097870961
0.041573141 -0.0077189058 -0.097881839
0.041563138 -0.0076435134 -0.097884707
0.04155321 -0.0075701904 -0.097883604
0.041543379 -0.0074968245 -0.097884499
0.041533355 -0.0074235443 -0.097881399
0.041523036 -0.0073503945 -0.097872302
0.041513279 -0.007279098 -0.097869247
0.041503865 -0.0072034486 -0.097884096
0.041494545 -0.0071277544 -0.097900927
0.041484423 -0.007054517 -0.097895838
0.041474592 -0.006981153 -0.09789674
0.041465078 -0.0069055445 -0.097909585
0.041455857 -0.0068298094 -0.09792842
0.041446149 -0.0067542866 -0.097937278
0.041436516 -0.0066808369 -0.097942166
0.041426487 -0.0066075567 -0.097939074
0.041416366 -0.0065343194 -0.097933978
0.041406631 -0.0064609107 -0.097936869
0.041396827 -0.0063854326 -0.097943723
0.041387312 -0.0063098259 -0.097956575
0.041377872 -0.0062362887 -0.097965457
0.041368045 -0.0061629228 -0.097966358
0.041358236 -0.0060874447 -0.097973213
0.041348726 -0.0060118381 -0.097986065
0.041339383 -0.0059382562 -0.09799695
0.041329574 -0.0058627781 -0.098003805
0.041319646 -0.0057894569 -0.098002702
0.041309841 -0.0057139788 -0.098009557
0.041300498 -0.0056403968 -0.098020442
0.041290279 -0.0055672061 -0.098013349
0.041279938 -0.0054961648 -0.097998299
0.041270204 -0.0054227561 -0.09800119
0.041260496 -0.0053472351 -0.098010048
0.041250788 -0.005271716 -0.0980189
0.04124108 -0.0051961951 -0.098027758
0.041231319 -0.0051248968 -0.098024689
0.04122049 -0.0050540734 -0.097999647
0.04120988 -0.0049810521 -0.097984575
0.04120044 -0.0049075149 -0.097993456
0.041190442 -0.0048321225 -0.097996317
0.04118022 -0.0047589317 -0.097989224
0.041169975 -0.0046878494 -0.097976178
0.04115966 -0.0046146996 -0.097967081
0.041149925 -0.0045412891 -0.097969979
0.04114012 -0.004465811 -0.097976834
0.041129995 -0.0043925773 -0.097971737
0.041121285 -0.004314512 -0.098006532
0.04111148 -0.0042390358 -0.098013386
0.041102063 -0.0041633844 -0.098028228
0.041092355 -0.0040878635 -0.098037086
0.041082211 -0.0040167402 -0.09802603
0.041071281 -0.0039459616 -0.097998992
0.041060649 -0.0038750507 -0.097977951
0.041050427 -0.0038018581 -0.097970858
0.04104089 -0.0037283618 -0.097977743
0.041030888 -0.0036529712 -0.097980611
0.041021157 -0.0035795644 -0.097983502
0.041011348 -0.0035040844 -0.097990364
0.04100113 -0.0034308918 -0.097983263
0.04098874 -0.0033691619 -0.097904436
0.040977594 -0.0033005793 -0.097867444
0.040967353 -0.0032294989 -0.097854383
0.04095735 -0.0031541064 -0.097857244
0.040947299 -0.0030829404 -0.097848184
0.040936351 -0.0030142721 -0.097815193
0.040925715 -0.0029433612 -0.097794153
0.04091569 -0.0028700829 -0.097791046
0.040906712 -0.0027900357 -0.097825803
0.040896785 -0.0027167127 -0.097824708
0.040883567 -0.0026595518 -0.097717963
0.040872078 -0.0025953222 -0.09766306
0.040830504 -0.0021852255 -0.097926602
0.040813588 -0.0021465085 -0.097700268
0.04080366 -0.0020731855 -0.097699173
0.040792804 -0.0020044744 -0.097668171
0.040433243 -0.00366145 -0.086405456
0.040424023 -0.0035941154 -0.086402461
0.040414684 -0.0035289358 -0.086391494
0.046892669 -0.046287179 -0.10033507
0.046883691 -0.046215534 -0.10034797
0.046875104 -0.046143718 -0.10036887
0.046866227 -0.046072032 -0.10038377
0.046855178 -0.045995004 -0.10037064
0.046843737 -0.045918152 -0.1003495
0.046833348 -0.045842931 -0.10034437
0.046824664 -0.045771159 -0.10036328
0.046816345 -0.045701325 -0.10038421
0.04680644 -0.045625892 -0.10038907
0.046796516 -0.045552567 -0.10038797
0.046786416 -0.045477219 -0.10038882
0.046777148 -0.045405705 -0.10039575
0.046767805 -0.045332126 -0.10040664
0.046757706 -0.045256775 -0.1004075
0.046747483 -0.045183584 -0.1004004
0.046737388 -0.045108236 -0.10040127
0.046727095 -0.045032974 -0.10039814
0.046717457 -0.044959519 -0.10040303
0.04670858 -0.044887833 -0.10041793
0.046699602 -0.044816192 -0.10043084
0.046689894 -0.044740669 -0.1004397
0.046680819 -0.044669069 -0.10045061
0.046670526 -0.044593811 -0.10044749
0.046659648 -0.044518806 -0.10043237
0.046649355 -0.044443548 -0.10042924
0.046640109 -0.044369921 -0.10044212
0.046631232 -0.044298232 -0.10045704
0.046621792 -0.044224694 -0.10046592
0.046612158 -0.044151247 -0.1004708
0.046601862 -0.044075981 -0.10046767
0.046591938 -0.04400266 -0.10046657
0.046582203 -0.043929249 -0.10046948
0.04657191 -0.043853991 -0.10046634
0.046561811 -0.043778643 -0.10046721
0.046552736 -0.043707043 -0.10047811
0.046543397 -0.043633457 -0.10048901
0.046533857 -0.043559961 -0.10049589
0.046524417 -0.043486424 -0.10050478
0.046515539 -0.043414734 -0.10051967
0.046505537 -0.043339346 -0.10052254
0.046494953 -0.043264214 -0.10051343
0.046484657 -0.043188952 -0.1005103
0.046474829 -0.043115586 -0.10051119
0.046465095 -0.043042175 -0.10051408
0.046455462 -0.042968728 -0.10051897
0.046445265 -0.042893421 -0.10051785
0.046435531 -0.042820014 -0.10052074
0.046426751 -0.042748284 -0.10053764
0.046417702 -0.042674571 -0.10055451
0.046407312 -0.04259935 -0.10054939
0.046396919 -0.042524137 -0.10054427
0.046387188 -0.042450726 -0.10054716
0.04637726 -0.042377401 -0.10054605
0.046367161 -0.042302057 -0.10054692
0.046357624 -0.042228557 -0.10055382
0.046348281 -0.042154975 -0.10056469
0.046338841 -0.042081438 -0.10057358
0.046329208 -0.042007986 -0.10057846
0.046319377 -0.041934621 -0.10057936
0.046309277 -0.041859273 -0.10058023
0.046299446 -0.041785903 -0.10058112
0.046289716 -0.0417125 -0.10058402
0.046279617 -0.041637149 -0.10058488
0.046269983 -0.041563697 -0.10058978
0.046260346 -0.041490246 -0.10059467
0.046250053 -0.041414984 -0.10059154
0.046240225 -0.041341618 -0.10059243
0.046230685 -0.041268125 -0.10059932
0.046220686 -0.041192729 -0.10060219
0.046210296 -0.041117512 -0.10059706
0.046200562 -0.041044101 -0.10059995
0.046190828 -0.040970694 -0.10060285
0.046181098 -0.040897287 -0.10060573
0.04617139 -0.040821765 -0.1006146
0.046162605 -0.040750034 -0.1006315
0.046153266 -0.040676452 -0.10064238
0.046142776 -0.040601276 -0.10063525
0.046132386 -0.040526062 -0.10063013
0.046122946 -0.040452525 -0.10063902
0.046114162 -0.040380791 -0.10065592
0.046104357 -0.040305316 -0.10066278
0.046094626 -0.040231906 -0.10066567
0.046085089 -0.04015841 -0.10067256
0.046075258 -0.040085047 -0.10067346
0.046064869 -0.040009826 -0.10066833
0.046054672 -0.03993452 -0.10066719
0.046044841 -0.039861158 -0.10066809
0.046035208 -0.039787702 -0.10067299
0.046025302 -0.039712269 -0.10067785
0.046015669 -0.039638817 -0.10068273
0.046006229 -0.039565276 -0.10069162
0.045996591 -0.039491825 -0.10069651
0.045987055 -0.039418329 -0.1007034
0.045977056 -0.03934294 -0.10070626
0.045966931 -0.039269701 -0.10070117
0.045956638 -0.039194442 -0.10069803
0.045947004 -0.039120987 -0.10070293
0.045937661 -0.039047409 -0.10071381
0.045927756 -0.038971972 -0.10071867
0.045918122 -0.03889852 -0.10072356
0.045908879 -0.038824894 -0.10073644
0.045868501 -0.038708344 -0.10025921
0.045858767 -0.038634941 -0.10026211
0.045690246 -0.0379849 -0.098696053
0.045677271 -0.037906624 -0.098648928
0.045662176 -0.03782719 -0.098563828
0.045648225 -0.037749346 -0.098496735
0.045635346 -0.03767103 -0.098451599
0.045623127 -0.03759452 -0.098414496
0.045610033 -0.037518401 -0.098359406
0.045596473 -0.037440382 -0.098300308
0.045585107 -0.0373656 -0.098275207
0.045574129 -0.03729064 -0.0982581
0.045562107 -0.037214044 -0.098224983
0.045548644 -0.037135988 -0.098167874
0.045497194 -0.036952924 -0.097649693
0.045479804 -0.036870301 -0.097528577
0.045466904 -0.036794096 -0.097477496
0.045453805 -0.036717974 -0.097422406
0.045438614 -0.036638584 -0.097335316
0.045426201 -0.03656216 -0.097294204
0.045414541 -0.036487505 -0.09726312
0.045400202 -0.036409836 -0.097188033
0.045388836 -0.036335047 -0.09716294
0.045378614 -0.036261857 -0.097155847
0.045367811 -0.036188923 -0.097136766
0.045355007 -0.036112674 -0.097087681
0.045342859 -0.036038231 -0.097046606
0.045331128 -0.035961505 -0.097019479
0.045319933 -0.035888746 -0.096992411
0.045308761 -0.035813872 -0.096971311
0.045298249 -0.035740808 -0.096958227
0.045289077 -0.035669252 -0.096967138
0.045280296 -0.035597522 -0.096984044
0.045269981 -0.035524372 -0.096974954
0.045259759 -0.035451181 -0.096967869
0.045250297 -0.035379753 -0.096970789
0.045240466 -0.035306387 -0.096971683
0.045230441 -0.035233106 -0.096968584
0.045220487 -0.035161894 -0.096961521
0.045210268 -0.035088699 -0.096954435
0.04520034 -0.035015378 -0.096953332
0.045190487 -0.034944125 -0.096948266
0.045180559 -0.0348708 -0.096947163
0.045170341 -0.034797609 -0.096940063
0.045160219 -0.03472437 -0.096934982
0.045151044 -0.034652814 -0.096943893
0.045142069 -0.034581169 -0.096956797
0.045132045 -0.034507893 -0.096953698
0.045122188 -0.034436636 -0.096948624
0.04511236 -0.03436327 -0.096949533
0.045102626 -0.034289859 -0.096952423
0.045093261 -0.03421839 -0.096957341
0.045083795 -0.034146965 -0.096960261
0.045074064 -0.034073554 -0.09696316
0.045064989 -0.034001954 -0.096974067
0.045054868 -0.033928715 -0.096968979
0.045044258 -0.033855699 -0.096953899
0.045034036 -0.033782504 -0.096946798
0.04502428 -0.033711206 -0.096943736
0.045015011 -0.033639692 -0.096950658
0.045006424 -0.033567876 -0.096971542
0.044997543 -0.03349619 -0.09698645
0.044987421 -0.033422951 -0.096981354
0.044977397 -0.03334967 -0.096978262
0.044968031 -0.033278205 -0.096983179
0.044959053 -0.03320656 -0.096996091
0.044950176 -0.03313487 -0.097010992
0.044940051 -0.033061635 -0.097005889
0.044929542 -0.032988571 -0.096992821
0.044919588 -0.032917362 -0.096985757
0.044910051 -0.032843865 -0.096992634
0.044900879 -0.032772306 -0.097001545
0.044890855 -0.032699026 -0.096998461
0.04488083 -0.03262575 -0.096995361
0.04487117 -0.032554407 -0.096994288
0.044861145 -0.032481126 -0.096991189
0.044852167 -0.032409485 -0.097004093
0.044842899 -0.032337971 -0.097011015
0.044832386 -0.032264907 -0.096997932
0.044822264 -0.032191671 -0.096992828
0.044812143 -0.032118432 -0.096987739
0.044801533 -0.032045413 -0.096972659
0.04479092 -0.031972393 -0.096957579
0.044781849 -0.031900793 -0.096968487
0.044773456 -0.031828891 -0.096993379
0.044764478 -0.031757247 -0.097006291
0.044755016 -0.031685818 -0.097009212
0.044745281 -0.031612411 -0.09701211
0.044735257 -0.031539131 -0.097009003
0.044725403 -0.031467874 -0.097003937
0.044715475 -0.031394552 -0.097002834
0.044705354 -0.031321317 -0.096997745
0.044695597 -0.031250019 -0.096994676
0.044685669 -0.031176696 -0.096993573
0.044676203 -0.031105269 -0.096996501
0.044667132 -0.031033669 -0.097007401
0.044657398 -0.030960258 -0.097010307
0.044647276 -0.030887023 -0.097005203
0.04463752 -0.030815724 -0.097002141
0.044628248 -0.030744212 -0.097009055
0.044618029 -0.030671019 -0.097001955
0.044607323 -0.030598041 -0.096984886
0.044597004 -0.030524891 -0.096975796
0.044586688 -0.030451741 -0.096966699
0.044576347 -0.030380702 -0.096951649
0.044566613 -0.030307293 -0.096954547
0.044557929 -0.030235518 -0.096973456
0.044549245 -0.030163746 -0.096992351
0.044539511 -0.030090336 -0.096995242
0.044529464 -0.03001917 -0.096986175
0.044519633 -0.029945802 -0.096987084
0.044510849 -0.029874073 -0.097003981
0.044502266 -0.029802257 -0.097024873
0.044493191 -0.029730655 -0.097035788
0.044484019 -0.0296591 -0.097044699
0.044474382 -0.029585646 -0.097049594
0.044464357 -0.029512368 -0.097046494
0.044454139 -0.029439174 -0.097039409
0.044443894 -0.029368091 -0.097026348
0.044434257 -0.02929464 -0.097031236
0.044425379 -0.029222954 -0.097046152
0.044416111 -0.02915144 -0.097053066
0.044406962 -0.029077772 -0.097067937
0.044399135 -0.02900772 -0.09709885
0.044390544 -0.028935904 -0.097119749
0.044381008 -0.028862409 -0.09712664
0.044370495 -0.028789345 -0.097113557
0.044360276 -0.028716151 -0.097106464
0.044351395 -0.028644465 -0.097121365
0.044342421 -0.028572822 -0.097134277
0.044333078 -0.02849924 -0.097145163
0.0443241 -0.028427597 -0.097158067
0.044314831 -0.028356083 -0.097164981
0.044304807 -0.028282803 -0.097161882
0.044294953 -0.028211549 -0.097156823
0.044285122 -0.028138183 -0.097157717
0.04427566 -0.028066754 -0.097160637
0.044265635 -0.027993474 -0.097157538
0.044255219 -0.027920369 -0.097146451
0.044244975 -0.027849287 -0.097133398
0.044234753 -0.027776092 -0.097126305
0.044225682 -0.027704492 -0.09713722
0.044217214 -0.027630523 -0.097166069
0.044208921 -0.027558576 -0.097192958
0.04420004 -0.027486891 -0.097207874
0.044190869 -0.027415333 -0.097216785
0.044181332 -0.027341837 -0.097223669
0.044171307 -0.027268557 -0.09722057
0.044161256 -0.027197389 -0.09721151
0.044151135 -0.027124153 -0.097206421
0.044141281 -0.027052898 -0.097201355
0.044131257 -0.026979618 -0.097198248
0.044121232 -0.026906339 -0.097195156
0.044111766 -0.026834911 -0.097198084
0.044102889 -0.026763225 -0.097212985
0.044093352 -0.026689729 -0.097219869
0.044083983 -0.026618257 -0.097224787
0.044074837 -0.02654459 -0.097239666
0.044065468 -0.02647312 -0.097244591
0.044055153 -0.02639997 -0.097235493
0.04404464 -0.026326906 -0.097222418
0.044034101 -0.026255954 -0.097203366
0.044024076 -0.026182674 -0.097200267
0.044014931 -0.026109006 -0.097215146
0.04400605 -0.026037319 -0.097230047
0.043997172 -0.025965633 -0.097244956
0.043987636 -0.025892137 -0.097251847
0.043978266 -0.025820665 -0.097256772
0.043968633 -0.025747214 -0.09726166
0.043959171 -0.025675787 -0.09726458
0.043949142 -0.025602506 -0.097261481
0.043938924 -0.025529314 -0.097254381
0.043928877 -0.025458144 -0.097245336
0.043918461 -0.025385039 -0.097234242
0.043908995 -0.02531361 -0.097237162
0.043900043 -0.025239855 -0.097256035
0.043890581 -0.025168428 -0.097258948
0.04388104 -0.025094934 -0.097265847
0.043871187 -0.025023678 -0.097260781
0.043860383 -0.024950745 -0.0972417
0.043850649 -0.024877334 -0.097244591
0.043842454 -0.024805347 -0.097273484
0.043833405 -0.024731634 -0.097290359
0.043822963 -0.024660639 -0.097273305
0.043812353 -0.024587618 -0.097258225
0.04380279 -0.024516234 -0.097259149
0.043793548 -0.024442609 -0.097272038
0.043785449 -0.024370577 -0.097302921
0.04377747 -0.02429639 -0.097341754
0.043768786 -0.024224617 -0.097360656
0.043759152 -0.024151165 -0.097365543
0.043749396 -0.024079867 -0.097362481
0.043739468 -0.024006544 -0.097361378
0.043729711 -0.023935245 -0.097358309
0.043719102 -0.023862226 -0.097343229
0.043708101 -0.023789378 -0.097320154
0.04369776 -0.023718338 -0.097305104
0.043687344 -0.023645233 -0.097294018
0.043676928 -0.023572126 -0.097282931
0.043667659 -0.023500612 -0.097289853
0.043659292 -0.023426598 -0.097320706
0.043650899 -0.023354696 -0.097345598
0.043641753 -0.023281027 -0.097360477
0.043632679 -0.023209427 -0.097371377
0.043622848 -0.023136061 -0.097372279
0.043612726 -0.023062823 -0.09736719
0.043603264 -0.022991396 -0.09737011
0.043593626 -0.022917945 -0.097374998
0.043583091 -0.022846991 -0.097355947
0.043571699 -0.022774316 -0.097324893
0.043561969 -0.022700908 -0.097327791
0.043553479 -0.022629049 -0.097350687
0.043544624 -0.022555251 -0.097371548
0.043536037 -0.022483435 -0.09739244
0.043526597 -0.022409895 -0.097401321
0.043516669 -0.022336572 -0.097400226
0.043507107 -0.022265188 -0.097401157
0.043497279 -0.022191823 -0.097402044
0.043488495 -0.022120092 -0.097418949
0.04347964 -0.022046294 -0.097439818
0.043470006 -0.021972843 -0.097444713
0.043459665 -0.021901803 -0.097429655
0.043449055 -0.021828784 -0.097414576
0.043439005 -0.021757614 -0.097405523
0.043429371 -0.021684162 -0.097410411
0.043420222 -0.021610495 -0.097425282
0.043411344 -0.021538807 -0.097440191
0.043401513 -0.021465441 -0.097441085
0.043391198 -0.021392291 -0.097431995
0.043380953 -0.021321209 -0.097418949
0.043370344 -0.02124819 -0.097403862
0.043360293 -0.02117702 -0.097394802
0.043350559 -0.021103611 -0.097397693
0.043341413 -0.021029944 -0.097412564
0.043332532 -0.020958256 -0.09742748
0.043322802 -0.020884847 -0.097430371
0.043312654 -0.020813722 -0.097419314
0.043302435 -0.02074053 -0.097412214
0.043292895 -0.020667033 -0.097419113
0.043284211 -0.02059526 -0.097438008
0.043274872 -0.020521678 -0.097448893
0.043265138 -0.020448269 -0.097451784
0.043255016 -0.020375032 -0.097446688
0.043245062 -0.020303821 -0.097439632
0.043234918 -0.020232696 -0.097428575
0.043224793 -0.020159461 -0.097423479
0.04321555 -0.020085834 -0.097436354
0.043206595 -0.020012081 -0.097455218
0.043197814 -0.01994035 -0.097472131
0.043188084 -0.01986694 -0.097475022
0.043177862 -0.019793749 -0.097467929
0.043168299 -0.019722363 -0.097468853
0.043158665 -0.019648911 -0.097473733
0.043149713 -0.019575156 -0.09749262
0.043140639 -0.019503556 -0.097503521
0.04313042 -0.019430362 -0.097496435
0.043120295 -0.019357126 -0.097491331
0.043110467 -0.01928376 -0.09749224
0.043100614 -0.019212507 -0.097487174
0.043090489 -0.019139269 -0.09748207
0.043080732 -0.019067971 -0.097479001
0.043070514 -0.018994778 -0.097471908
0.043060098 -0.018921671 -0.097460829
0.04304995 -0.018850546 -0.097449772
0.043039415 -0.018779594 -0.097430721
0.04302939 -0.018706314 -0.097427621
0.043020632 -0.018632473 -0.097450487
0.043011289 -0.018558891 -0.097461373
0.043000754 -0.01848794 -0.097442321
0.042989925 -0.018417116 -0.097417288
0.042979997 -0.018343793 -0.097416185
0.042970847 -0.018270124 -0.097431064
0.042962093 -0.018196285 -0.097453929
0.042952944 -0.018122615 -0.097468801
0.042943697 -0.018048991 -0.097481675
0.042934358 -0.017975409 -0.097492561
0.042924404 -0.017904196 -0.097485505
0.042913698 -0.017831219 -0.097468421
0.042903844 -0.017759964 -0.097463354
0.042893916 -0.017686643 -0.097462252
0.042884182 -0.017613232 -0.097465143
0.042875208 -0.017541589 -0.097478062
0.042865962 -0.017467964 -0.097490937
0.042856034 -0.017394641 -0.097489834
0.042846374 -0.0173233 -0.097488761
0.042836666 -0.017247781 -0.097497612
0.042827591 -0.017176179 -0.097508535
0.042818639 -0.017102424 -0.0975274
0.04280981 -0.017026516 -0.097554229
0.042801123 -0.016954742 -0.097573131
0.042791296 -0.016881377 -0.097574018
0.042780586 -0.016808398 -0.097556949
0.042770538 -0.01673723 -0.097547889
0.042761587 -0.016663477 -0.097566754
0.042752925 -0.016589593 -0.097591616
0.042743802 -0.016513813 -0.097612463
0.042734947 -0.016440015 -0.097633332
0.042725313 -0.016366562 -0.09763822
0.042714871 -0.016295567 -0.097621165
0.042704433 -0.016224571 -0.097604118
0.042694114 -0.016151421 -0.097595029
0.042684093 -0.016078141 -0.097591937
0.042674653 -0.016004603 -0.097600818
0.042665504 -0.015930936 -0.097615689
0.042656064 -0.015857395 -0.097624578
0.042646915 -0.015783727 -0.097639456
0.042637866 -0.015710015 -0.097656325
0.042628035 -0.015636649 -0.097657219
0.042617988 -0.015565481 -0.097648159
0.042607963 -0.015492203 -0.097645067
0.042598132 -0.015418836 -0.097645961
0.042588498 -0.015345383 -0.097650848
0.042578571 -0.01527206 -0.097649746
0.042568617 -0.01520085 -0.097642682
0.042558495 -0.015127613 -0.097637594
0.042549152 -0.015054031 -0.097648472
0.042540297 -0.014980232 -0.097669341
0.042531248 -0.014906521 -0.097686209
0.042521417 -0.014833156 -0.09768711
0.042511392 -0.014759876 -0.097684011
0.042501662 -0.014686466 -0.097686902
0.042491905 -0.014615169 -0.097683839
0.042481586 -0.014542019 -0.097674742
0.042471856 -0.014468609 -0.097677648
0.042462315 -0.014395113 -0.097684525
0.042452484 -0.014321748 -0.097685426
0.042442437 -0.01425058 -0.097676359
0.042431802 -0.01417967 -0.097655319
0.042421192 -0.01410665 -0.097640246
0.04241202 -0.014035093 -0.097649157
0.042402606 -0.013959443 -0.097663999
0.04239336 -0.013885817 -0.097676873
0.042384215 -0.013812149 -0.097691752
0.042374872 -0.013738567 -0.097702645
0.042364746 -0.013665331 -0.097697549
0.042354137 -0.01359231 -0.097682461
0.042344771 -0.01352084 -0.097687379
0.042335257 -0.013445234 -0.097700223
0.04232572 -0.013371738 -0.097707123
0.042316377 -0.013298156 -0.097718
0.042306449 -0.013224833 -0.097716898
0.042296108 -0.013153795 -0.09770184
0.042286474 -0.013080342 -0.097706743
0.042277351 -0.013004561 -0.097727574
0.042268105 -0.012930938 -0.097740449
0.042258568 -0.012857442 -0.097747341
0.042248935 -0.012783989 -0.097752228
0.042239297 -0.012710537 -0.097757123
0.042229857 -0.012636998 -0.097766005
0.042219929 -0.012563675 -0.097764902
0.042209905 -0.012490395 -0.09776181
0.042200051 -0.012419141 -0.097756743
0.042190026 -0.012345862 -0.097753644
0.042179905 -0.012272624 -0.097748548
0.042170245 -0.012201284 -0.097747475
0.042160023 -0.01212809 -0.097740382
0.042149708 -0.012054941 -0.097731292
0.04213956 -0.011983815 -0.097720236
0.042129632 -0.011910493 -0.097719133
0.042120803 -0.011834582 -0.097745962
0.042111654 -0.011760915 -0.097760841
0.042101435 -0.011687722 -0.097753748
0.042091213 -0.011614528 -0.097746655
0.042081654 -0.011543144 -0.097747587
0.042071629 -0.011469864 -0.09774448
0.042061798 -0.011396498 -0.097745381
0.042052552 -0.011322874 -0.097758263
0.042043138 -0.011247224 -0.097773105
0.042033598 -0.011173728 -0.097779997
0.042023771 -0.011100362 -0.097780883
0.042013746 -0.011027082 -0.097777799
0.042003892 -0.010955827 -0.097772725
0.041993573 -0.010882678 -0.097763635
0.041983742 -0.010809312 -0.097764537
0.0419745 -0.010735686 -0.097777411
0.041964788 -0.010660166 -0.09778627
0.041955154 -0.010586713 -0.097791158
0.041945908 -0.010513089 -0.097804032
0.041936006 -0.010437654 -0.097808897
0.041925665 -0.010366615 -0.09779384
0.041915517 -0.010295491 -0.097782791
0.041905809 -0.01021997 -0.097791642
0.041896176 -0.010146517 -0.097796537
0.041886222 -0.010075306 -0.097789466
0.041875906 -0.010002156 -0.097780377
0.041866172 -0.0099287461 -0.097783275
0.041856442 -0.0098553374 -0.097786166
0.041846536 -0.0097799031 -0.097791031
0.041836999 -0.0097064078 -0.097797915
0.041827463 -0.0096329125 -0.0978048
0.041817829 -0.00955946 -0.097809695
0.041807998 -0.0094860941 -0.097810589
0.04179778 -0.0094129015 -0.097803496
0.041788045 -0.0093394918 -0.097806387
0.041778408 -0.0092660394 -0.097811282
0.041768484 -0.0091927173 -0.097810179
0.041758142 -0.0091216769 -0.097795129
0.04174792 -0.0090484843 -0.097788036
0.041737869 -0.0089773163 -0.097778976
0.041727457 -0.0089042094 -0.097767889
0.041718137 -0.008828517 -0.097784735
0.041710015 -0.0087501928 -0.097831503
0.041701086 -0.0086743273 -0.097856335
0.041691452 -0.0086008748 -0.09786123
0.04168123 -0.0085276812 -0.097854137
0.041671082 -0.0084565561 -0.097843073
0.041660961 -0.0083833206 -0.097837985
0.04165113 -0.0083099548 -0.097838871
0.041641496 -0.0082365014 -0.097843766
0.041632082 -0.0081608519 -0.097858615
0.041622054 -0.0080875717 -0.097855508
0.041611616 -0.0080165751 -0.097838461
0.041601591 -0.0079432968 -0.097835362
0.041592274 -0.0078676045 -0.097852208
0.041583054 -0.0077918675 -0.097871058
0.041573614 -0.0077183284 -0.097879939
0.041563708 -0.007642895 -0.097884789
0.04155378 -0.007569572 -0.097883694
0.041543953 -0.0074962042 -0.097884595
0.041533925 -0.0074229259 -0.097881489
0.041523609 -0.0073497761 -0.097872399
0.041513853 -0.0072784778 -0.097869329
0.041504435 -0.0072028283 -0.097884186
0.041495118 -0.0071271341 -0.097901024
0.041484997 -0.0070538986 -0.097895935
0.041475166 -0.0069805328 -0.097896822
0.041465651 -0.0069049262 -0.097909674
0.041456431 -0.0068291891 -0.097928517
0.041446723 -0.0067536682 -0.097937375
0.041437089 -0.0066802166 -0.097942263
0.041427061 -0.0066069365 -0.097939156
0.04141704 -0.0065336563 -0.097936064
0.041407209 -0.0064602904 -0.097936958
0.041397404 -0.0063848123 -0.09794382
0.04138789 -0.0063092075 -0.097956665
0.04137845 -0.0062356684 -0.097965546
0.041368619 -0.0061623026 -0.097966455
0.041358814 -0.0060868245 -0.097973309
0.041349299 -0.0060112197 -0.097986154
0.041339859 -0.0059376787 -0.097995035
0.041330054 -0.0058622025 -0.098001905
0.041320127 -0.0057888795 -0.098000802
0.041310418 -0.0057133604 -0.098009653
0.041301075 -0.0056397766 -0.098020531
0.041290857 -0.0055665858 -0.098013438
0.041280515 -0.0054955464 -0.097998396
0.041270781 -0.005422134 -0.098001286
0.041261073 -0.0053466149 -0.098010138
0.041251268 -0.0052711386 -0.098016992
0.041241657 -0.0051955748 -0.09802784
0.0412319 -0.0051242765 -0.098024778
0.041221071 -0.0050534531 -0.097999744
0.041210558 -0.004980389 -0.097986653
0.041201022 -0.0049068946 -0.097993545
0.041191019 -0.0048315022 -0.097996414
0.041180801 -0.0047583114 -0.097989313
0.041170556 -0.0046872292 -0.09797626
0.04116014 -0.0046141222 -0.097965173
0.041150507 -0.0045406688 -0.097970061
0.041140702 -0.0044651907 -0.09797693
0.041130479 -0.0043919999 -0.09796983
0.041121967 -0.0043138489 -0.09800861
0.041112062 -0.0042384155 -0.098013468
0.041102648 -0.0041627642 -0.098028317
0.04109294 -0.0040872432 -0.098037176
0.041082792 -0.00401612 -0.098026119
0.041071769 -0.0039453842 -0.097997084
0.04106123 -0.0038744286 -0.097978041
0.041051183 -0.0038032606 -0.097968973
0.041041374 -0.0037277844 -0.097975843
0.041031376 -0.0036523938 -0.097978704
0.041021742 -0.0035789423 -0.097983591
0.041011933 -0.0035034642 -0.097990446
0.041001618 -0.0034303144 -0.097981364
0.040989522 -0.0033684541 -0.097908512
0.040978279 -0.0032999162 -0.097869523
0.040968034 -0.0032288358 -0.097856462
0.040958032 -0.0031534433 -0.097859323
0.040947884 -0.0030823201 -0.097848274
0.040937033 -0.0030136071 -0.097817279
0.040926494 -0.0029426534 -0.097798236
0.040916372 -0.0028694198 -0.097793132
0.040907297 -0.0027894154 -0.097825892
0.040897444 -0.0027181618 -0.097820833
0.040884152 -0.0026589297 -0.097718053
0.040872764 -0.0025946591 -0.097665146
0.040832665 -0.0023015402 -0.097652748
0.040830292 -0.0021870602 -0.097904749
0.040813953 -0.0021480862 -0.097690403
0.040804051 -0.0020726528 -0.097695269
0.040793516 -0.0020016991 -0.097676218
0.040433709 -0.0036608875 -0.086403564
0.040424589 -0.0035935082 -0.08640255
0.040415343 -0.0035282858 -0.086393572
0.046894241 -0.046287015 -0.10033386
0.046884898 -0.046213433 -0.10034473
0.04687668 -0.046143558 -0.10036767
0.046867799 -0.046071872 -0.10038257
0.04685675 -0.045994844 -0.10036942
0.046845309 -0.045917988 -0.10034829
0.04683492 -0.045842774 -0.10034317
0.046826139 -0.04577104 -0.10036007
0.046817649 -0.045699183 -0.10038295
0.046808016 -0.045625731 -0.10038785
0.046798088 -0.045552406 -0.10038675
0.046787988 -0.045477059 -0.10038762
0.046778452 -0.045403562 -0.1003945
0.04676928 -0.045332007 -0.10040342
0.046759181 -0.045256659 -0.10040429
0.046748791 -0.045181442 -0.10039917
0.046738863 -0.045108117 -0.10039806
0.046728667 -0.045032814 -0.10039693
0.046719033 -0.044959359 -0.10040182
0.046710152 -0.044887677 -0.10041673
0.04670091 -0.04481405 -0.1004296
0.046691373 -0.044740554 -0.10043649
0.046682395 -0.044668913 -0.1004494
0.046672102 -0.044593647 -0.10044628
0.046661224 -0.044518646 -0.10043117
0.046650834 -0.044443429 -0.10042604
0.046641685 -0.044369761 -0.10044091
0.046632804 -0.044298075 -0.10045582
0.046623364 -0.044224538 -0.10046471
0.046613634 -0.044151127 -0.1004676
0.046603438 -0.044075824 -0.10046647
0.046593413 -0.04400254 -0.10046337
0.046583779 -0.043929089 -0.10046826
0.046573482 -0.043853827 -0.10046513
0.046563387 -0.043778479 -0.100466
0.046554312 -0.043706879 -0.10047691
0.046544969 -0.043633297 -0.10048779
0.046535432 -0.043559801 -0.10049468
0.046526089 -0.043486223 -0.10050556
0.046517111 -0.043414578 -0.10051847
0.046507016 -0.04333923 -0.10051934
0.046496525 -0.043264054 -0.10051221
0.046486232 -0.043188795 -0.10050908
0.046476401 -0.04311543 -0.10050999
0.046466671 -0.043042019 -0.10051287
0.046457037 -0.042968564 -0.10051776
0.046446837 -0.042893261 -0.10051664
0.046437107 -0.042819854 -0.10051953
0.046428327 -0.042748123 -0.10053644
0.046419278 -0.042674411 -0.1005533
0.046408884 -0.042599194 -0.10054818
0.046398494 -0.042523973 -0.10054306
0.04638876 -0.042450566 -0.10054595
0.046378836 -0.042377241 -0.10054485
0.046368737 -0.042301893 -0.10054571
0.046359196 -0.042228401 -0.1005526
0.046349857 -0.042154819 -0.10056348
0.046340317 -0.042081323 -0.10057037
0.046330683 -0.042007871 -0.10057525
0.046320856 -0.041934505 -0.10057615
0.046310756 -0.041859157 -0.10057702
0.046301022 -0.041785747 -0.10057992
0.046291292 -0.041712336 -0.10058281
0.046281192 -0.041636989 -0.10058367
0.046271458 -0.041563582 -0.10058656
0.046261825 -0.04149013 -0.10059147
0.046251629 -0.041414827 -0.10059033
0.046241798 -0.041341458 -0.10059122
0.046232261 -0.041267961 -0.10059811
0.046222262 -0.041192569 -0.10060098
0.046211869 -0.041117352 -0.10059585
0.046202138 -0.041043945 -0.10059875
0.046192404 -0.040970534 -0.10060164
0.046182405 -0.040895142 -0.10060449
0.046172965 -0.040821604 -0.10061339
0.046164181 -0.040749874 -0.10063029
0.046154842 -0.040676296 -0.10064117
0.046144351 -0.040601119 -0.10063405
0.046133962 -0.040525898 -0.10062893
0.046124522 -0.040452361 -0.10063781
0.046115741 -0.040380631 -0.10065471
0.046105932 -0.040305153 -0.10066157
0.046096202 -0.040231742 -0.10066446
0.046086662 -0.040158249 -0.10067134
0.046076834 -0.040084884 -0.10067225
0.046066541 -0.040009625 -0.10066911
0.046056248 -0.039934359 -0.10066599
0.04604632 -0.039861038 -0.10066489
0.046036784 -0.039787542 -0.10067178
0.046026878 -0.039712109 -0.10067663
0.046017244 -0.039638657 -0.10068152
0.046007805 -0.039565116 -0.10069041
0.045998171 -0.039491665 -0.1006953
0.045988631 -0.039418168 -0.10070219
0.045978632 -0.03934278 -0.10070505
0.04596851 -0.039269544 -0.10069995
0.045958214 -0.039194278 -0.10069683
0.04594858 -0.039120831 -0.10070172
0.04593914 -0.03904729 -0.10071061
0.045929238 -0.038971856 -0.10071547
0.045919701 -0.03889836 -0.10072235
0.045910455 -0.038824737 -0.10073523
0.045870077 -0.038708188 -0.100258
0.045860343 -0.038634777 -0.1002609
0.045691915 -0.037984695 -0.098696843
0.045678847 -0.037906464 -0.098647721
0.045663845 -0.037826985 -0.098564617
0.0456497 -0.037749231 -0.098493531
0.045636922 -0.037670866 -0.098450392
0.045624703 -0.037594359 -0.098413289
0.045611337 -0.037516259 -0.098358177
0.045598045 -0.037440225 -0.098299094
0.045586679 -0.037365437 -0.098274
0.045575604 -0.037290521 -0.098254889
0.045563582 -0.037213929 -0.098221779
0.045550216 -0.037135825 -0.098166667
0.045498766 -0.036952764 -0.097648479
0.045481376 -0.036870141 -0.097527377
0.045468476 -0.036793936 -0.097476289
0.045455378 -0.036717813 -0.097421199
0.045440283 -0.036638379 -0.097336099
0.045428135 -0.03656394 -0.097295031
0.045416113 -0.036487341 -0.097261913
0.045401771 -0.036409672 -0.097186826
0.045390308 -0.036334932 -0.097159736
0.045380186 -0.036261693 -0.09715464
0.045369383 -0.036188759 -0.097135566
0.045356579 -0.03611251 -0.097086467
0.045344431 -0.036038071 -0.097045399
0.0453327 -0.035961345 -0.097018272
0.045321602 -0.035888541 -0.096993208
0.04531043 -0.035813667 -0.0969721
0.045299821 -0.035740647 -0.09695702
0.045290649 -0.035669092 -0.096965931
0.045281868 -0.035597362 -0.096982829
0.045271549 -0.035524212 -0.096973754
0.045261331 -0.035451017 -0.096966654
0.045251865 -0.035379589 -0.096969575
0.045241937 -0.035306267 -0.096968472
0.045232013 -0.035232946 -0.096967369
0.045222059 -0.035161734 -0.096960321
0.04521184 -0.035088539 -0.096953228
0.045201816 -0.035015259 -0.096950121
0.04519169 -0.034942023 -0.096945025
0.045182034 -0.034870684 -0.09694396
0.045171909 -0.034797445 -0.096938863
0.045161787 -0.034724209 -0.096933767
0.045152616 -0.03465265 -0.096942678
0.045143541 -0.034581054 -0.096953586
0.045133613 -0.034507729 -0.096952491
0.045123491 -0.034434494 -0.096947394
0.045113929 -0.03436311 -0.096948326
0.045104198 -0.034289699 -0.096951216
0.045094833 -0.034218229 -0.096956134
0.045085367 -0.034146801 -0.096959062
0.045075633 -0.034073394 -0.096961953
0.045066461 -0.034001835 -0.096970864
0.04505644 -0.033928558 -0.096967772
0.04504583 -0.033855535 -0.096952692
0.045035608 -0.033782341 -0.096945591
0.045025852 -0.033711046 -0.096942529
0.045016486 -0.033639573 -0.096947446
0.045007899 -0.033567756 -0.096968338
0.044999018 -0.033496071 -0.096983247
0.044988994 -0.03342279 -0.096980155
0.044978969 -0.03334951 -0.096977048
0.044969603 -0.033278041 -0.096981972
0.044960625 -0.033206396 -0.096994877
0.044951648 -0.033134755 -0.097007796
0.044941623 -0.033061475 -0.097004689
0.04493111 -0.03298841 -0.096991606
0.04492116 -0.032917198 -0.096984543
0.044911526 -0.032843746 -0.096989438
0.044902451 -0.032772146 -0.097000346
0.044892427 -0.03269887 -0.096997246
0.044882402 -0.032625586 -0.096994154
0.044872645 -0.032554291 -0.096991077
0.044862621 -0.032481011 -0.096987993
0.044853739 -0.032409325 -0.097002886
0.044844374 -0.032337852 -0.097007804
0.044833958 -0.032264747 -0.096996717
0.04482374 -0.032191552 -0.096989624
0.044813715 -0.032118272 -0.09698654
0.044803105 -0.032045253 -0.096971452
0.044792492 -0.031972229 -0.096956365
0.044783421 -0.031900633 -0.09696728
0.044774931 -0.031828772 -0.096990176
0.04476605 -0.031757087 -0.097005084
0.044756588 -0.031685658 -0.097008005
0.044746853 -0.031612247 -0.097010903
0.044736829 -0.031538971 -0.097007796
0.044726975 -0.031467713 -0.097002737
0.044717047 -0.031394392 -0.097001635
0.044706926 -0.031321153 -0.096996538
0.044697169 -0.031249858 -0.096993469
0.044687241 -0.031176534 -0.096992366
0.044677779 -0.031105107 -0.096995294
0.044668704 -0.031033507 -0.097006202
0.04465897 -0.030960098 -0.097009093
0.044648848 -0.030886862 -0.097003996
0.044639092 -0.030815564 -0.097000934
0.044629823 -0.03074405 -0.097007856
0.044619601 -0.030670855 -0.097000755
0.044608798 -0.030597921 -0.096981674
0.044598576 -0.030524729 -0.096974581
0.04458826 -0.030451579 -0.096965499
0.044577651 -0.030378558 -0.096950419
0.044568185 -0.030307131 -0.09695334
0.044559404 -0.0302354 -0.096970238
0.044550817 -0.030163584 -0.096991137
0.044541083 -0.030090176 -0.096994042
0.044531036 -0.030019008 -0.096984975
0.044521205 -0.029945642 -0.096985877
0.044512425 -0.029873911 -0.097002767
0.044503741 -0.029802138 -0.097021677
0.044494763 -0.029730495 -0.097034588
0.044485226 -0.029656999 -0.097041473
0.044475958 -0.029585486 -0.097048387
0.044465929 -0.029512206 -0.097045287
0.044455711 -0.029439013 -0.097038202
0.044445466 -0.029367931 -0.097025141
0.044435736 -0.029294521 -0.097028039
0.044426855 -0.029222835 -0.097042941
0.044417683 -0.029151278 -0.097051859
0.044408537 -0.02907761 -0.097066738
0.044400707 -0.02900756 -0.09709765
0.04439212 -0.028935743 -0.097118542
0.044382583 -0.028862247 -0.097125433
0.044372071 -0.028789185 -0.09711235
0.044361848 -0.02871599 -0.097105257
0.044352971 -0.028644305 -0.097120158
