# .PCD v0.7 - Point Cloud Data file format
VERSION 0.7
FIELDS x y z
SIZE 4 4 4
TYPE F F F
COUNT 1 1 1
WIDTH 1295
HEIGHT 1
VIEWPOINT 0 0 0 1 0 0 0
POINTS 1295
DATA ascii
-0.16501828 -0.018797636 -0.1069586
-0.16502781 -0.018724142 -0.10696549
-0.16503689 -0.018652542 -0.1069764
-0.16504557 -0.018580768 -0.10699531
-0.16505407 -0.018508907 -0.1070182
-0.16506344 -0.018437438 -0.10702311
-0.16507345 -0.018364158 -0.10702001
-0.16508321 -0.018292859 -0.10701694
-0.16509382 -0.01821984 -0.10700186
-0.16510424 -0.018146733 -0.10699077
-0.16511342 -0.018075176 -0.10699969
-0.16512246 -0.018001463 -0.10701656
-0.16513184 -0.017929994 -0.10702148
-0.16514042 -0.017858177 -0.10704238
-0.16514842 -0.017786102 -0.10707526
-0.1651572 -0.017714372 -0.10709216
-0.16516684 -0.01764092 -0.10709704
-0.16517745 -0.017567899 -0.10708197
-0.16518691 -0.01749647 -0.10708489
-0.1651956 -0.017424699 -0.10710379
-0.16520448 -0.017353013 -0.1071187
-0.16521391 -0.017279472 -0.10712758
-0.16522309 -0.017207917 -0.1071365
-0.16523312 -0.017134637 -0.10713339
-0.16524324 -0.017061399 -0.1071283
-0.16525309 -0.016990146 -0.10712324
-0.16526312 -0.016916865 -0.10712013
-0.16527288 -0.016845569 -0.10711706
-0.16528299 -0.016772332 -0.10711197
-0.16529322 -0.016699139 -0.10710488
-0.16530307 -0.016627884 -0.10709981
-0.16531271 -0.016554432 -0.1071047
-0.16532129 -0.016482616 -0.1071256
-0.1653294 -0.016410582 -0.10715649
-0.16533788 -0.016338723 -0.10717937
-0.16534695 -0.016267123 -0.10719029
-0.16535659 -0.016193671 -0.10719518
-0.16536616 -0.016122285 -0.10719609
-0.16537638 -0.016049093 -0.107189
-0.16538659 -0.0159759 -0.10718191
-0.16539665 -0.015904732 -0.10717285
-0.16540687 -0.015831538 -0.10716576
-0.16541633 -0.015760111 -0.10716868
-0.16542615 -0.015686745 -0.10716958
-0.1654356 -0.015613206 -0.10717846
-0.16544448 -0.01554152 -0.10719337
-0.16545375 -0.015470006 -0.10720028
-0.16546339 -0.015396554 -0.10720517
-0.16547236 -0.01532491 -0.10721809
-0.1654819 -0.015251415 -0.10722497
-0.16549194 -0.015180246 -0.10721591
-0.16550304 -0.015107442 -0.10719084
-0.16551346 -0.015034335 -0.10717975
-0.16552292 -0.014962908 -0.10718267
-0.16553237 -0.014889369 -0.10719156
-0.16554125 -0.014817682 -0.10720646
-0.16555049 -0.014744056 -0.10721935
-0.16555966 -0.0146725 -0.10722826
-0.16556901 -0.014598918 -0.10723914
-0.16557856 -0.014527533 -0.10724006
-0.16558839 -0.014454167 -0.10724096
-0.16559851 -0.014380931 -0.10723586
-0.16560847 -0.01430972 -0.10722879
-0.16561861 -0.014238595 -0.10721774
-0.16562894 -0.014165444 -0.10720865
-0.16563828 -0.014091862 -0.10721953
-0.16564696 -0.01402009 -0.10723843
-0.1656564 -0.013946551 -0.10724732
-0.16566586 -0.013875123 -0.10725024
-0.16567658 -0.013802147 -0.10723315
-0.16568673 -0.013731021 -0.1072221
-0.16569607 -0.01365744 -0.10723299
-0.16570465 -0.013585622 -0.10725388
-0.16571477 -0.013512386 -0.10724878
-0.16572557 -0.013439452 -0.10722971
-0.16573523 -0.013368111 -0.10722864
-0.16574457 -0.013294529 -0.10723951
-0.16575336 -0.0132228 -0.10725641
-0.16576137 -0.013150724 -0.10728929
-0.16576964 -0.013076667 -0.10732215
-0.16577822 -0.013004851 -0.10734305
-0.16578805 -0.012931485 -0.10734394
-0.16579837 -0.012858335 -0.10733484
-0.16580783 -0.012786907 -0.10733777
-0.16581805 -0.012713714 -0.10733068
-0.16582908 -0.012642978 -0.10730164
-0.16584007 -0.01257013 -0.10727857
-0.16585021 -0.012496894 -0.10727348
-0.16586006 -0.012425639 -0.10726842
-0.16587028 -0.012352446 -0.10726132
-0.16587916 -0.012280759 -0.10727622
-0.16588733 -0.012206659 -0.10731107
-0.16589601 -0.012134885 -0.10732997
-0.16590536 -0.012061303 -0.10734085
-0.16591509 -0.011987895 -0.10734374
-0.16592465 -0.011916511 -0.10734468
-0.16593447 -0.011843144 -0.10734557
-0.16594404 -0.01177176 -0.10734649
-0.16595426 -0.011698566 -0.1073394
-0.16596565 -0.011625892 -0.10730834
-0.16597618 -0.01155494 -0.10728929
-0.16598505 -0.011481142 -0.10731015
-0.16599324 -0.011409152 -0.10733905
-0.1660022 -0.011335398 -0.10735792
-0.16601154 -0.011261816 -0.1073688
-0.16602081 -0.011190302 -0.10737572
-0.16603044 -0.011116849 -0.10738061
-0.16604 -0.011045465 -0.10738152
-0.16604984 -0.010972099 -0.10738242
-0.1660585 -0.010898215 -0.10740729
-0.16606718 -0.010826442 -0.10742619
-0.16607741 -0.010753249 -0.1074191
-0.16608755 -0.010682124 -0.10740803
-0.16609806 -0.010609061 -0.10739495
-0.16610837 -0.010535911 -0.10738586
-0.16611765 -0.010464396 -0.10739277
-0.16612659 -0.010390641 -0.10741165
-0.16613567 -0.010319041 -0.10742255
-0.1661458 -0.010245805 -0.10741746
-0.16615631 -0.010172741 -0.10740437
-0.16616645 -0.010101616 -0.10739332
-0.16617657 -0.01002838 -0.10738822
-0.16618614 -0.009956995 -0.10738915
-0.16619568 -0.0098835006 -0.10739603
-0.16620493 -0.0098098749 -0.1074089
-0.16621429 -0.0097384043 -0.10741384
-0.16622442 -0.0096651679 -0.10740874
-0.16623463 -0.0095919743 -0.10740165
-0.16624439 -0.0095206769 -0.10739858
-0.16625373 -0.009447095 -0.10740945
-0.16626278 -0.0093733836 -0.10742633
-0.16627215 -0.009301912 -0.10743125
-0.16628218 -0.0092286328 -0.10742815
-0.16629213 -0.0091574211 -0.10742109
-0.16630235 -0.0090842284 -0.10741399
-0.16631229 -0.0090130167 -0.10740693
-0.16632243 -0.0089397803 -0.10740183
-0.16633147 -0.0088660689 -0.10741871
-0.16634013 -0.0087921843 -0.10744356
-0.16634957 -0.0087186452 -0.10745245
-0.16635923 -0.008647304 -0.10745138
-0.16636907 -0.0085739382 -0.10745228
-0.16637853 -0.0085025113 -0.1074552
-0.16638806 -0.0084290151 -0.10746209
-0.16639741 -0.0083554331 -0.10747296
-0.16640714 -0.0082820244 -0.10747585
-0.16641709 -0.0082108127 -0.10746879
-0.16642673 -0.0081373602 -0.10747368
-0.16643636 -0.0080639087 -0.10747857
-0.16644612 -0.0079926103 -0.1074755
-0.16645643 -0.0079194605 -0.10746641
-0.16646685 -0.0078463536 -0.10745533
-0.1664771 -0.0077752718 -0.10744227
-0.16648705 -0.0077040601 -0.1074352
-0.16649756 -0.0076309969 -0.10742212
-0.16650771 -0.0075598718 -0.10741106
-0.16651696 -0.0074862465 -0.10742395
-0.16652581 -0.0074124485 -0.10744482
-0.16653584 -0.0073391688 -0.10744172
-0.16654676 -0.0072683897 -0.10741468
-0.16655739 -0.0071974806 -0.10739364
-0.16656703 -0.0071240282 -0.10739852
-0.16657569 -0.0070501431 -0.10742339
-0.16658464 -0.0069763893 -0.10744225
-0.1665936 -0.0069026342 -0.10746112
-0.16660264 -0.0068289223 -0.107478
-0.16661248 -0.0067555564 -0.10747889
-0.16662301 -0.0066846041 -0.10745985
-0.16663326 -0.0066135228 -0.10744679
-0.16664319 -0.0065401997 -0.10744569
-0.16665281 -0.0064667473 -0.10745057
-0.16666235 -0.0063932515 -0.10745746
-0.1666718 -0.0063197128 -0.10746635
-0.16668126 -0.0062482855 -0.10746928
-0.1666909 -0.0061748326 -0.10747417
-0.16670024 -0.0061012511 -0.10748504
-0.16670997 -0.0060278415 -0.10748793
-0.16671932 -0.00595426 -0.10749882
-0.16672789 -0.0058803326 -0.10752568
-0.16673654 -0.0058064479 -0.10755054
-0.16674598 -0.0057329088 -0.10755943
-0.1667562 -0.0056597157 -0.10755233
-0.16676654 -0.0055886777 -0.10753728
-0.16677611 -0.0055172928 -0.1075382
-0.16678514 -0.0054414701 -0.10756104
-0.16679369 -0.0053675422 -0.10758789
-0.16680256 -0.0052937442 -0.10760876
-0.16681199 -0.0052202065 -0.10761765
-0.16682231 -0.0051470557 -0.10760856
-0.16683294 -0.0050761467 -0.10758752
-0.16684309 -0.0050050216 -0.10757646
-0.16685301 -0.0049316986 -0.10757536
-0.16686265 -0.004858247 -0.10758024
-0.16687199 -0.0047846641 -0.10759112
-0.16688134 -0.0047110822 -0.107602
-0.16689049 -0.0046374137 -0.10761689
-0.16689983 -0.0045638317 -0.10762776
-0.16690937 -0.0044903364 -0.10763465
-0.16691929 -0.0044170134 -0.10763355
-0.16692922 -0.0043436904 -0.10763244
-0.16693869 -0.0042722635 -0.10763536
-0.16694842 -0.0041988539 -0.10763825
-0.16695824 -0.0041254889 -0.10763916
-0.16696827 -0.0040522087 -0.10763606
-0.16697793 -0.0039808676 -0.10763498
-0.16698806 -0.0039076312 -0.10762989
-0.1669976 -0.0038341358 -0.10763678
-0.16700633 -0.0037581827 -0.1076656
-0.16701528 -0.0036844285 -0.10768447
-0.1670253 -0.0036111483 -0.10768137
-0.16703536 -0.0035399804 -0.10767231
-0.16704547 -0.003466744 -0.10766722
-0.16705504 -0.00339536 -0.10766814
-0.16706477 -0.0033219513 -0.10767104
-0.16707461 -0.0032485854 -0.10767192
-0.16708462 -0.0031753052 -0.10766883
-0.16709484 -0.0031021116 -0.10766174
-0.16710548 -0.0030312026 -0.10764069
-0.16711582 -0.0029601641 -0.10762564
-0.16712566 -0.0028867982 -0.10762654
-0.1671349 -0.0028131735 -0.10763942
-0.16714385 -0.0027394192 -0.10765828
-0.16715308 -0.0026636813 -0.10767712
-0.16716222 -0.0025900137 -0.107692
-0.16717185 -0.0025165621 -0.10769688
-0.16718198 -0.0024433248 -0.10769179
-0.16719192 -0.0023721121 -0.10768473
-0.16720206 -0.0022988766 -0.10767964
-0.16721168 -0.0022254242 -0.10768452
-0.16722094 -0.0021518003 -0.1076974
-0.16723047 -0.0020783041 -0.10770429
-0.16724078 -0.0020051543 -0.10769519
-0.16725074 -0.0019339425 -0.10768813
-0.16725999 -0.0018603168 -0.10770102
-0.1672693 -0.0017846236 -0.10771786
-0.16727854 -0.0017109988 -0.10773074
-0.16728796 -0.0016353484 -0.10774559
-0.1672973 -0.0015617665 -0.10775646
-0.16730724 -0.0014884435 -0.10775536
-0.16731709 -0.0014171898 -0.10775029
-0.16732721 -0.0013439534 -0.1077452
-0.16733705 -0.0012705866 -0.10774609
-0.16734669 -0.0011971341 -0.10775098
-0.1673568 -0.0011238977 -0.10774589
-0.16736685 -0.0010527298 -0.10773683
-0.16737698 -0.00097949337 -0.10773173
-0.1673874 -0.00090638641 -0.10772064
-0.16739753 -0.00083526131 -0.10770958
-0.1674072 -0.00076392014 -0.10770851
-0.16741662 -0.00068827067 -0.10772336
-0.16742556 -0.00061451551 -0.10774223
-0.16743536 -0.00053903833 -0.10774909
-0.16744523 -0.00046778284 -0.10774402
-0.16745526 -0.00039450452 -0.10774092
-0.16746527 -0.00032122433 -0.10773782
-0.16747521 -0.00024790131 -0.10773671
-0.16748455 -0.00017431937 -0.10774761
-0.16749369 -0.00010065082 -0.10776248
-0.1675033 -2.5087036e-05 -0.10777333
-0.16751313 4.8278831e-05 -0.10777422
-0.16752298 0.00011953246 -0.10776916
-0.16753292 0.00019285548 -0.10776806
-0.16754304 0.0002660919 -0.10776296
-0.16755316 0.00033932924 -0.10775787
-0.1675628 0.00041278079 -0.10776275
-0.16757223 0.00048631988 -0.10777164
-0.16758205 0.00056179613 -0.1077785
-0.16759159 0.00063529238 -0.10778539
-0.16760083 0.00070891809 -0.10779826
-0.16761094 0.0007821545 -0.10779317
-0.16762139 0.00085314922 -0.10777611
-0.16763131 0.00092647225 -0.10777502
-0.16764085 0.00099996757 -0.1077819
-0.16765068 0.0010733344 -0.1077828
-0.1676608 0.0011465708 -0.10777771
-0.16767073 0.0012198938 -0.1077766
-0.16768047 0.0012933025 -0.1077795
-0.1676901 0.0013667541 -0.10778438
-0.16769974 0.0014402065 -0.10778926
-0.16770947 0.0015136162 -0.10779217
-0.16771919 0.0015891371 -0.10780102
-0.16772853 0.0016627181 -0.10781191
-0.16773854 0.0017359983 -0.1078088
-0.16774867 0.0018092347 -0.10780371
-0.16775802 0.0018828157 -0.10781458
-0.16776775 0.0019562254 -0.10781748
-0.16777836 0.0020292457 -0.1078024
-0.16778859 0.002100328 -0.10778935
-0.16779873 0.0021735635 -0.10778425
-0.16780885 0.0022468008 -0.10777915
-0.16781831 0.0023182286 -0.10778207
-0.16782741 0.0023961188 -0.10780887
-0.16783576 0.0024722442 -0.10784569
-0.16784546 0.0025477652 -0.10785454
-0.16785568 0.0026209578 -0.10784745
-0.16786563 0.0026921686 -0.10784038
-0.16787575 0.0027654059 -0.10783529
-0.16788588 0.0028386433 -0.1078302
-0.1678957 0.0029120073 -0.10783108
-0.16790496 0.0029856339 -0.10784397
-0.16791447 0.0030612387 -0.10785681
-0.16792439 0.0031345617 -0.10785571
-0.16793454 0.0032056887 -0.10784466
-0.16794474 0.0032809936 -0.10784353
-0.16795406 0.0033566859 -0.10786036
-0.1679633 0.0034303106 -0.10787325
-0.16797331 0.0035057031 -0.10787611
-0.16798297 0.0035770424 -0.10787503
-0.16799296 0.0036524348 -0.1078779
-0.1680028 0.0037258007 -0.1078788
-0.16801281 0.003799079 -0.1078757
-0.16802303 0.0038722716 -0.1078686
-0.1680328 0.0039435718 -0.10786553
-0.16804229 0.0040212888 -0.10788434
-0.16805151 0.0040970258 -0.10790318
-0.16806144 0.0041703489 -0.10790208
-0.16807155 0.0042435843 -0.10789698
-0.16808109 0.0043170806 -0.10790388
-0.16809042 0.0043927729 -0.10792072
-0.16809992 0.0044683814 -0.10793357
-0.16810957 0.004541833 -0.10793845
-0.16811968 0.0046150703 -0.10793336
-0.16812952 0.0046884343 -0.10793424
-0.16813913 0.0047639981 -0.1079451
-0.16814874 0.0048395619 -0.10795596
-0.16815817 0.004913101 -0.10796484
-0.16816801 0.004986465 -0.10796574
-0.16817784 0.0050598346 -0.10796663
-0.16818745 0.0051353965 -0.10797748
-0.16819696 0.0052110031 -0.10799032
-0.16820668 0.0052865241 -0.10799918
-0.16821621 0.0053600203 -0.10800607
-0.16822605 0.0054333843 -0.10800697
-0.16823585 0.0055088624 -0.10801382
-0.16824575 0.0055842996 -0.10801869
-0.1682559 0.0056554228 -0.10800763
-0.16826622 0.0057285726 -0.10799854
-0.16827565 0.0058021117 -0.10800742
-0.16828527 0.0058776736 -0.10801827
-0.1682951 0.0059510414 -0.10801917
-0.16830483 0.0060244482 -0.10802206
-0.16831522 0.0060996674 -0.10801694
-0.16832566 0.006170664 -0.10799989
-0.16833578 0.0062438995 -0.10799479
-0.16834523 0.0063174386 -0.10800368
-0.16835524 0.0063907169 -0.10800057
-0.16836566 0.0064638257 -0.10798948
-0.16837618 0.006536888 -0.10797641
-0.16838621 0.0066101663 -0.1079733
-0.16839583 0.0066836197 -0.10797819
-0.16840616 0.0067567695 -0.10796911
-0.16841631 0.0068278927 -0.10795805
-0.16842447 0.0069103986 -0.10801474
-0.16843389 0.0069860481 -0.10802959
-0.16844368 0.0070636366 -0.10804241
-0.16845331 0.0071370862 -0.1080473
-0.16846395 0.007207999 -0.10802626
-0.16847476 0.0072788205 -0.10800122
-0.16848521 0.0073498171 -0.10798416
-0.16849552 0.007422965 -0.10797507
-0.16850527 0.0074963737 -0.10797796
-0.168515 0.0075697843 -0.10798085
-0.1685247 0.0076453052 -0.10798971
-0.1685349 0.0077206083 -0.10798858
-0.16854721 0.0077802707 -0.10790578
-0.16855805 0.0078510921 -0.10788074
-0.16856848 0.0079220887 -0.10786369
-0.16857812 0.0079955403 -0.10786858
-0.16858862 0.0080686044 -0.10785549
-0.16859999 0.0081349891 -0.10780855
-0.16861075 0.008203743 -0.10777955
-0.16862036 0.0082793068 -0.1077904
-0.16862987 0.0083549134 -0.10780325
-0.16863875 0.0084350016 -0.10784
-0.16865033 0.0084991883 -0.10778309
-0.16866446 0.0085538495 -0.10765242
-0.16867757 0.0086110532 -0.10754767
-0.16870514 0.0089664496 -0.1079399
-0.16872212 0.0090072304 -0.10771752
-0.16873433 0.0090669356 -0.10763672
-0.16874415 0.0091424119 -0.10764357
-0.16875377 0.0092158671 -0.10764846
-0.16875565 0.0093326736 -0.10791642
-0.16263629 -0.035212237 -0.1103181
-0.16264744 -0.035135254 -0.11030296
-0.16265813 -0.035060167 -0.11029185
-0.16266711 -0.034988523 -0.11030475
-0.16267531 -0.034916535 -0.11033364
-0.16268495 -0.03484308 -0.11033852
-0.16269638 -0.034766227 -0.1103174
-0.16270716 -0.034691181 -0.11030428
-0.16271736 -0.034615874 -0.11030315
-0.16272633 -0.034544233 -0.11031605
-0.16273521 -0.034472547 -0.11033096
-0.16274512 -0.03439711 -0.11033582
-0.16275504 -0.034323789 -0.11033472
-0.16276497 -0.034250468 -0.11033362
-0.16277468 -0.034174949 -0.11034247
-0.16278404 -0.034103476 -0.11034739
-0.16279414 -0.034028128 -0.11034826
-0.16280398 -0.033954762 -0.11034915
-0.16281417 -0.033879459 -0.11034802
-0.16282381 -0.033806004 -0.11035292
-0.16283259 -0.033734277 -0.11036982
-0.16284212 -0.033660781 -0.1103767
-0.16285242 -0.033585519 -0.11037358
-0.1628613 -0.033513833 -0.11038848
-0.16287018 -0.033442147 -0.11040339
-0.16288057 -0.033366926 -0.11039826
-0.16289106 -0.033291753 -0.11039114
-0.1629006 -0.033218257 -0.11039802
-0.16291022 -0.033144806 -0.11040292
-0.16291967 -0.033071265 -0.1104118
-0.16292912 -0.032997727 -0.11042068
-0.16293931 -0.032922424 -0.11041955
-0.16294923 -0.032849099 -0.11041845
-0.16295907 -0.03277573 -0.11041935
-0.16296935 -0.032700472 -0.11041622
-0.16297965 -0.032625213 -0.11041308
-0.16298938 -0.032551803 -0.11041598
-0.16299863 -0.032478176 -0.11042885
-0.16300751 -0.03240649 -0.11044376
-0.16301666 -0.032332823 -0.11045863
-0.1630262 -0.032259323 -0.11046553
-0.16303623 -0.032186046 -0.11046243
-0.16304642 -0.032110739 -0.1104613
-0.16305654 -0.032037504 -0.1104562
-0.16306683 -0.031962246 -0.11045307
-0.16307646 -0.03188879 -0.11045796
-0.16308561 -0.031815127 -0.11047284
-0.16309525 -0.031741671 -0.11047772
-0.16310489 -0.03166822 -0.11048262
-0.16311404 -0.031594552 -0.11049749
-0.16312377 -0.031521142 -0.11050039
-0.16313426 -0.031445965 -0.11049327
-0.16314408 -0.031372599 -0.11049415
-0.16315353 -0.031299062 -0.11050304
-0.16316307 -0.031225566 -0.11050993
-0.1631728 -0.031152157 -0.11051282
-0.16318309 -0.031076895 -0.11050969
-0.16319318 -0.031001547 -0.11051056
-0.16320236 -0.03092999 -0.11051947
-0.16321217 -0.030854514 -0.11052633
-0.163222 -0.030781146 -0.11052722
-0.16323173 -0.030707739 -0.11053012
-0.16324162 -0.030632304 -0.11053498
-0.16325091 -0.03056079 -0.1105419
-0.16326061 -0.030485269 -0.11055075
-0.16326988 -0.030413756 -0.11055766
-0.16328017 -0.030338494 -0.11055454
-0.16329056 -0.030263277 -0.11054942
-0.16330029 -0.030189866 -0.11055231
-0.1633102 -0.030114433 -0.11055717
-0.16332078 -0.030039301 -0.11054804
-0.16333137 -0.029964171 -0.11053893
-0.163341 -0.029890716 -0.11054382
-0.16334988 -0.029819032 -0.11055871
-0.1633596 -0.029743509 -0.11056758
-0.16336922 -0.029670058 -0.11057246
-0.1633781 -0.02959837 -0.11058737
-0.16338755 -0.029524833 -0.11059625
-0.16339794 -0.029449616 -0.11059113
-0.16340853 -0.029374484 -0.11058201
-0.16341797 -0.029300945 -0.1105909
-0.16342703 -0.029227233 -0.11060777
-0.16343656 -0.029153736 -0.11061466
-0.16344629 -0.029080329 -0.11061755
-0.16345564 -0.029006746 -0.11062843
-0.16346517 -0.028933251 -0.11063531
-0.16347536 -0.028857946 -0.11063418
-0.16348594 -0.028782815 -0.11062507
-0.16349663 -0.028707726 -0.11061395
-0.16350657 -0.028634403 -0.11061285
-0.16351551 -0.028560648 -0.11063171
-0.16352466 -0.02848698 -0.11064659
-0.16353449 -0.028413612 -0.11064748
-0.16354433 -0.028340248 -0.11064838
-0.16355376 -0.028266709 -0.11065727
-0.1635631 -0.028193127 -0.11066815
-0.1635734 -0.028117865 -0.11066502
-0.16358359 -0.028042562 -0.11066388
-0.16359332 -0.027969152 -0.11066678
-0.16360353 -0.027893849 -0.11066565
-0.16361345 -0.027820524 -0.11066455
-0.1636228 -0.027746942 -0.11067543
-0.16363214 -0.027673362 -0.11068631
-0.16364092 -0.027601629 -0.11070322
-0.16368204 -0.027483318 -0.11021596
-0.16369112 -0.027411718 -0.11022688
-0.16384919 -0.026834793 -0.10867191
-0.16386105 -0.026760222 -0.10863683
-0.16387412 -0.026681993 -0.1085877
-0.16388941 -0.026602643 -0.10849861
-0.16390392 -0.026522949 -0.10842549
-0.16391614 -0.026446439 -0.10838837
-0.16392769 -0.026371742 -0.10835928
-0.16394211 -0.026292004 -0.10828817
-0.163955 -0.026215797 -0.10823708
-0.16396579 -0.026140753 -0.10822397
-0.16397676 -0.026065793 -0.10820685
-0.16398966 -0.025989586 -0.10815576
-0.16405524 -0.02572877 -0.10756649
-0.16407195 -0.025645848 -0.10745937
-0.16408409 -0.025571406 -0.10741828
-0.16409804 -0.025493564 -0.10735118
-0.16411209 -0.025415765 -0.10728209
-0.16412355 -0.025341023 -0.107255
-0.16413684 -0.02526499 -0.10719592
-0.16414994 -0.025188871 -0.10714084
-0.16416036 -0.025115762 -0.10712975
-0.16417104 -0.025040675 -0.10711863
-0.16418308 -0.024966192 -0.10707955
-0.16419598 -0.024889983 -0.10702846
-0.16420744 -0.024815243 -0.10700137
-0.16421865 -0.02474248 -0.10697431
-0.16423067 -0.024665885 -0.10694119
-0.16424167 -0.024593038 -0.10691812
-0.16425198 -0.024519887 -0.10690902
-0.16426201 -0.024446607 -0.10690593
-0.16427128 -0.024375096 -0.10691285
-0.16427997 -0.024303321 -0.10693175
-0.16428933 -0.024231851 -0.10693666
-0.16429965 -0.024158701 -0.10692757
-0.16430996 -0.024085552 -0.10691848
-0.16431999 -0.024012271 -0.10691538
-0.16432936 -0.023940802 -0.10692031
-0.16433872 -0.02386933 -0.10692523
-0.16434884 -0.023796093 -0.10692013
-0.16435917 -0.023722943 -0.10691104
-0.16436929 -0.023649707 -0.10690594
-0.16437942 -0.023576472 -0.10690085
-0.16438897 -0.023505086 -0.10690177
-0.16439795 -0.023433443 -0.10691468
-0.16440758 -0.023359992 -0.10691957
-0.16441764 -0.023288824 -0.10691052
-0.16442765 -0.023215543 -0.10690741
-0.1644374 -0.023142133 -0.1069103
-0.16444676 -0.023070663 -0.10691522
-0.16445602 -0.022999149 -0.10692214
-0.16446586 -0.022925783 -0.10692304
-0.16447502 -0.022854228 -0.10693195
-0.1644844 -0.022782756 -0.10693687
-0.1644949 -0.022709692 -0.10692378
-0.16450588 -0.022634733 -0.10690668
-0.16451573 -0.02256348 -0.10690161
-0.16452548 -0.022490069 -0.10690451
-0.16453426 -0.022418339 -0.1069214
-0.16454257 -0.022348505 -0.10694234
-0.16455211 -0.022275008 -0.10694922
-0.16456206 -0.022203797 -0.10694215
-0.1645717 -0.022130344 -0.10694704
-0.16458067 -0.022058703 -0.10695995
-0.16458975 -0.021987103 -0.10697086
-0.16459958 -0.021913735 -0.10697176
-0.16460963 -0.021842567 -0.10696271
-0.16461985 -0.021769375 -0.10695561
-0.16462997 -0.021696139 -0.10695051
-0.16463915 -0.02162458 -0.10695943
-0.16464877 -0.021551128 -0.10696431
-0.16465864 -0.021479873 -0.10695925
-0.16466846 -0.021406507 -0.10696015
-0.16467802 -0.021335123 -0.10696107
-0.16468795 -0.0212618 -0.10695997
-0.16469713 -0.021190245 -0.10696888
-0.16470715 -0.021116965 -0.10696579
-0.16471776 -0.021043943 -0.10695071
-0.16472761 -0.020972688 -0.10694563
-0.16473784 -0.020899497 -0.10693854
-0.16474853 -0.020826519 -0.10692146
-0.16475856 -0.020753238 -0.10691837
-0.16476715 -0.020681422 -0.10693926
-0.16477536 -0.020609433 -0.10696815
-0.16478422 -0.020537745 -0.10698305
-0.1647937 -0.02046632 -0.10698597
-0.16480371 -0.02039304 -0.10698289
-0.16481404 -0.02031989 -0.10697379
-0.1648237 -0.020248547 -0.10697272
-0.16483353 -0.020175183 -0.10697362
-0.16484338 -0.020103928 -0.10696854
-0.16485341 -0.020030648 -0.10696544
-0.16486333 -0.019957326 -0.10696434
-0.1648726 -0.019885812 -0.10697126
-0.16488187 -0.019814298 -0.10697819
-0.1648919 -0.019741019 -0.10697508
-0.16490175 -0.019669764 -0.10697001
-0.16491187 -0.019596528 -0.10696492
-0.16492124 -0.019525057 -0.10696984
-0.16493116 -0.019451734 -0.10696874
-0.16494149 -0.019378584 -0.10695965
-0.1649518 -0.019305434 -0.10695056
-0.16496176 -0.019234221 -0.1069435
-0.16497198 -0.019161029 -0.1069364
-0.16498201 -0.01908775 -0.1069333
-0.16499127 -0.019016236 -0.10694022
-0.16500005 -0.018944506 -0.10695712
-0.16500932 -0.018872991 -0.10696404
-0.16501944 -0.018799756 -0.10695895
-0.16502897 -0.018726259 -0.10696583
-0.16503805 -0.018654659 -0.10697674
-0.16504665 -0.018582843 -0.10699764
-0.16505513 -0.018510984 -0.10702053
-0.1650646 -0.018439557 -0.10702345
-0.16507462 -0.018366277 -0.10702036
-0.16508448 -0.018295022 -0.10701529
-0.16509499 -0.018221959 -0.10700221
-0.1651054 -0.018148853 -0.10699112
-0.16511458 -0.018077295 -0.10700003
-0.16512363 -0.018003583 -0.1070169
-0.165133 -0.017932113 -0.10702182
-0.16514148 -0.017860252 -0.10704472
-0.16514967 -0.017788263 -0.10707361
-0.16515836 -0.01771649 -0.10709251
-0.16516809 -0.017643083 -0.10709539
-0.16517861 -0.017570019 -0.10708231
-0.16518807 -0.01749859 -0.10708524
-0.16519676 -0.017426817 -0.10710413
-0.16520573 -0.017355174 -0.10711704
-0.16521508 -0.017281592 -0.10712793
-0.16522434 -0.017210077 -0.10713483
-0.16523428 -0.017136756 -0.10713373
-0.1652444 -0.017063519 -0.10712864
-0.16525435 -0.016992308 -0.10712157
-0.16526428 -0.016918985 -0.10712047
-0.16527404 -0.016847687 -0.10711741
-0.16528416 -0.016774449 -0.10711231
-0.16529438 -0.016701257 -0.10710523
-0.16530423 -0.016630003 -0.10710015
-0.16531387 -0.01655655 -0.10710504
-0.16532245 -0.016484734 -0.10712594
-0.16533056 -0.016412701 -0.10715682
-0.16533904 -0.016340842 -0.10717972
-0.16534811 -0.016269242 -0.10719063
-0.16535775 -0.016195789 -0.10719552
-0.16536732 -0.016124405 -0.10719644
-0.16537754 -0.016051212 -0.10718935
-0.16538775 -0.01597802 -0.10718226
-0.16539781 -0.015906852 -0.10717319
-0.16540793 -0.015833614 -0.1071681
-0.16541749 -0.01576223 -0.10716903
-0.16542733 -0.015688865 -0.10716992
-0.16543676 -0.015615325 -0.1071788
-0.16544564 -0.015543639 -0.10719371
-0.16545491 -0.015472125 -0.10720062
-0.16546455 -0.015398672 -0.10720552
-0.16547352 -0.015327029 -0.10721843
-0.16548306 -0.015253533 -0.10722531
-0.1654931 -0.015182365 -0.10721625
-0.1655042 -0.015109561 -0.10719119
-0.16551462 -0.015036454 -0.10718009
-0.16552408 -0.014965027 -0.10718302
-0.16553353 -0.014891488 -0.10719191
-0.1655423 -0.014819758 -0.1072088
-0.16555165 -0.014746176 -0.10721969
-0.16556083 -0.014674619 -0.1072286
-0.16557017 -0.014601037 -0.10723948
-0.16557972 -0.014529652 -0.10724041
-0.16558956 -0.014456286 -0.1072413
-0.16559967 -0.01438305 -0.10723621
-0.16560963 -0.014311839 -0.10722914
-0.16561978 -0.014240714 -0.10721809
-0.1656301 -0.014167564 -0.107209
-0.16563945 -0.014093982 -0.10721987
-0.16564812 -0.014022209 -0.10723878
-0.16565756 -0.01394867 -0.10724766
-0.16566703 -0.013877242 -0.10725059
-0.16567774 -0.013804265 -0.10723351
-0.16568789 -0.01373314 -0.10722245
-0.16569713 -0.013659514 -0.10723533
-0.16570581 -0.013587741 -0.10725422
-0.16571593 -0.013514506 -0.10724913
-0.16572674 -0.013441571 -0.10723005
-0.16573639 -0.013370231 -0.10722899
-0.16574574 -0.013296648 -0.10723986
-0.16575453 -0.013224918 -0.10725677
-0.16576253 -0.013152843 -0.10728964
-0.16577069 -0.013078743 -0.10732449
-0.16577938 -0.013006969 -0.10734339
-0.16578922 -0.012933603 -0.10734428
-0.16579953 -0.012860454 -0.1073352
-0.16580899 -0.012789026 -0.10733812
-0.16581921 -0.012715833 -0.10733103
-0.16583024 -0.012645097 -0.107302
-0.16584124 -0.012572249 -0.10727893
-0.16585135 -0.012499013 -0.10727382
-0.16586111 -0.012427715 -0.10727076
-0.16587144 -0.012354565 -0.10726167
-0.16588032 -0.012282878 -0.10727657
-0.16588849 -0.012208777 -0.10731142
-0.16589707 -0.012136961 -0.10733232
-0.16590652 -0.012063423 -0.1073412
-0.16591625 -0.011990014 -0.10734409
-0.16592582 -0.01191863 -0.10734502
-0.16593555 -0.01184522 -0.10734791
-0.1659452 -0.011773879 -0.10734684
-0.16595532 -0.011700642 -0.10734175
-0.16596681 -0.011628011 -0.10730869
-0.16597725 -0.011557016 -0.10729164
-0.16598621 -0.011483261 -0.1073105
-0.16599441 -0.011411272 -0.1073394
-0.16600345 -0.01133756 -0.10735627
-0.1660127 -0.011263935 -0.10736915
-0.16602197 -0.011192421 -0.10737607
-0.1660316 -0.011118969 -0.10738096
-0.16604106 -0.011047541 -0.10738388
-0.1660509 -0.010974175 -0.10738477
-0.16605966 -0.010900334 -0.10740764
-0.16606835 -0.010828561 -0.10742654
-0.16607866 -0.010755411 -0.10741745
-0.1660887 -0.010684242 -0.10740838
-0.16609922 -0.010611179 -0.10739531
-0.16610953 -0.010538029 -0.10738621
-0.1661188 -0.010466515 -0.10739313
-0.16612776 -0.010392761 -0.107412
-0.16613683 -0.010321161 -0.10742292
-0.16614686 -0.010247881 -0.10741981
-0.16615736 -0.010174816 -0.10740673
-0.16616762 -0.010103735 -0.10739367
-0.16617773 -0.010030499 -0.10738857
-0.1661873 -0.0099591147 -0.1073895
-0.16619684 -0.0098856194 -0.10739639
-0.16620608 -0.0098119937 -0.10740927
-0.16621545 -0.0097405231 -0.10741419
-0.16622557 -0.0096672866 -0.10740909
-0.16623579 -0.009594094 -0.107402
-0.16624555 -0.0095227957 -0.10739893
-0.16625489 -0.0094492137 -0.10740981
-0.16626394 -0.0093755024 -0.10742669
-0.16627331 -0.0093040317 -0.10743161
-0.16628334 -0.0092307515 -0.10742851
-0.16629328 -0.0091595408 -0.10742144
-0.1663036 -0.009086391 -0.10741235
-0.16631345 -0.0090151355 -0.10740729
-0.16632357 -0.0089419 -0.10740219
-0.16633263 -0.0088681877 -0.10741907
-0.16634129 -0.008794304 -0.10744392
-0.16635074 -0.0087207649 -0.10745281
-0.16636029 -0.0086493809 -0.10745373
-0.16637012 -0.008576015 -0.10745462
-0.16637969 -0.0085046301 -0.10745555
-0.16638923 -0.0084311347 -0.10746244
-0.16639847 -0.00835751 -0.10747533
-0.1664083 -0.0082841432 -0.10747622
-0.16641815 -0.0082128886 -0.10747115
-0.16642788 -0.0081394799 -0.10747404
-0.16643752 -0.0080660274 -0.10747892
-0.16644728 -0.0079947291 -0.10747586
-0.1664577 -0.0079216231 -0.10746478
-0.16646811 -0.0078485161 -0.1074537
-0.16647825 -0.0077773905 -0.10744262
-0.1664883 -0.0077062221 -0.10743357
-0.16649872 -0.0076331156 -0.10742248
-0.16650887 -0.0075619905 -0.10741142
-0.16651811 -0.0074883658 -0.1074243
-0.16652696 -0.0074145673 -0.10744517
-0.16653709 -0.0073413309 -0.10744008
-0.16654791 -0.0072705084 -0.10741504
-0.16655855 -0.0071995994 -0.10739399
-0.16656819 -0.0071261465 -0.10739888
-0.16657685 -0.0070522623 -0.10742375
-0.1665858 -0.0069785081 -0.10744261
-0.16659476 -0.0069047529 -0.10746147
-0.1666038 -0.0068310415 -0.10747836
-0.16661364 -0.0067576752 -0.10747926
-0.16662417 -0.0066867229 -0.10746021
-0.16663441 -0.0066156415 -0.10744715
-0.16664433 -0.0065423185 -0.10744604
-0.16665398 -0.006468866 -0.10745093
-0.16666351 -0.0063953702 -0.10745783
-0.16667296 -0.0063218316 -0.10746671
-0.16668242 -0.0062504043 -0.10746963
-0.16669215 -0.0061769951 -0.10747252
-0.1667015 -0.0061034132 -0.10748341
-0.16671114 -0.0060299602 -0.1074883
-0.16672048 -0.0059563788 -0.10749917
-0.16672894 -0.005882408 -0.10752804
-0.16673769 -0.0058085667 -0.1075509
-0.16674714 -0.0057350281 -0.10755979
-0.16675736 -0.0056618345 -0.10755268
-0.1667677 -0.0055907965 -0.10753763
-0.16677716 -0.0055193687 -0.10754056
-0.16678619 -0.005443546 -0.10756339
-0.16679485 -0.0053696614 -0.10758826
-0.1668037 -0.0052958629 -0.10760913
-0.16681315 -0.0052223252 -0.10761801
-0.16682346 -0.0051491745 -0.10760891
-0.1668341 -0.0050782654 -0.10758787
-0.16684425 -0.0050071403 -0.10757682
-0.16685417 -0.0049338173 -0.10757571
-0.1668638 -0.0048603658 -0.10758061
-0.16687314 -0.0047867838 -0.10759149
-0.16688249 -0.0047132019 -0.10760237
-0.16689163 -0.0046395333 -0.10761724
-0.16690089 -0.0045659076 -0.10763012
-0.16691042 -0.0044924123 -0.10763701
-0.16692035 -0.0044190893 -0.10763591
-0.16693027 -0.0043457663 -0.10763481
-0.16693984 -0.0042743823 -0.10763574
-0.16694957 -0.0042009735 -0.10763863
-0.1669594 -0.0041276077 -0.10763951
-0.16696943 -0.0040543275 -0.10763642
-0.16697936 -0.0039810054 -0.10763532
-0.16698921 -0.0039097499 -0.10763025
-0.16699874 -0.0038362546 -0.10763714
-0.16700748 -0.0037603024 -0.10766596
-0.16701643 -0.0036865473 -0.10768484
-0.16702655 -0.0036133109 -0.10767974
-0.1670365 -0.0035420991 -0.10767267
-0.16704673 -0.0034689065 -0.10766558
-0.16705629 -0.0033975225 -0.10766651
-0.16706592 -0.00332407 -0.1076714
-0.16707575 -0.0032507032 -0.1076723
-0.16708578 -0.003177424 -0.1076692
-0.16709609 -0.0031042732 -0.10766011
-0.16710663 -0.0030333223 -0.10764106
-0.16711697 -0.0029622829 -0.10762601
-0.1671268 -0.0028889179 -0.10762691
-0.16713606 -0.0028152922 -0.10763979
-0.167145 -0.002741538 -0.10765865
-0.16715422 -0.002665801 -0.10767749
-0.16716337 -0.0025921324 -0.10769237
-0.16717301 -0.0025186799 -0.10769726
-0.16718313 -0.0024454435 -0.10769216
-0.16719308 -0.0023742318 -0.1076851
-0.1672032 -0.0023009954 -0.10768
-0.16721274 -0.0022275001 -0.10768689
-0.16722208 -0.0021539181 -0.10769777
-0.16723162 -0.0020804228 -0.10770465
-0.16724195 -0.002007273 -0.10769556
-0.1672518 -0.0019360175 -0.1076905
-0.16726132 -0.0018604109 -0.10770336
-0.16727045 -0.0017867424 -0.10771823
-0.16727971 -0.0017131176 -0.1077311
-0.16728902 -0.0016374243 -0.10774795
-0.16729847 -0.0015638852 -0.10775683
-0.16730839 -0.0014905622 -0.10775573
-0.16731824 -0.0014193086 -0.10775065
-0.16732837 -0.0013460722 -0.10774557
-0.16733819 -0.0012727054 -0.10774647
-0.16734783 -0.0011992529 -0.10775135
-0.16735795 -0.0011260174 -0.10774625
-0.16736801 -0.0010548495 -0.1077372
-0.16737802 -0.00098156929 -0.10773409
-0.16738844 -0.00090846233 -0.10772301
-0.16739869 -0.00083738007 -0.10770996
-0.16740835 -0.00076603889 -0.10770889
-0.16741776 -0.00069038942 -0.10772373
-0.16742672 -0.00061663426 -0.1077426
-0.16743653 -0.00054115709 -0.10774945
-0.16744637 -0.00046990253 -0.10774439
-0.16745649 -0.00039666612 -0.10773929
-0.16746652 -0.00032338686 -0.1077362
-0.16747636 -0.00025002006 -0.10773709
-0.16748579 -0.00017648097 -0.10774598
-0.16749485 -0.00010277051 -0.10776284
-0.16750446 -2.7205795e-05 -0.1077737
-0.16751438 4.6115369e-05 -0.1077726
-0.16752404 0.00011745654 -0.10777153
-0.16753407 0.00019073673 -0.10776843
-0.16754419 0.00026397314 -0.10776334
-0.16755432 0.00033720955 -0.10775824
-0.16756395 0.00041066203 -0.10776313
-0.16757339 0.00048420113 -0.10777201
-0.1675832 0.00055967737 -0.10777886
-0.16759273 0.00063317362 -0.10778576
-0.16760188 0.00070684217 -0.10780063
-0.167612 0.00078007858 -0.10779554
-0.16762254 0.00085102953 -0.10777649
-0.16763246 0.00092435256 -0.10777538
-0.16764201 0.00099784881 -0.10778227
-0.16765174 0.0010712584 -0.10778517
-0.16766196 0.001144452 -0.10777808
-0.16767189 0.0012177741 -0.10777698
-0.16768162 0.0012911838 -0.10777987
-0.16769126 0.0013646353 -0.10778476
-0.16770089 0.0014380878 -0.10778964
-0.1677108 0.0015135221 -0.10779451
-0.16772023 0.0015870612 -0.10780339
-0.16772957 0.0016606422 -0.10781427
-0.1677397 0.0017338786 -0.10780917
-0.16774982 0.001807115 -0.10780408
-0.16775925 0.0018806541 -0.10781296
-0.1677689 0.0019541066 -0.10781785
-0.16777951 0.002027127 -0.10780277
-0.16778976 0.0020982083 -0.10778971
-0.16779988 0.0021714447 -0.10778463
-0.1678099 0.0022447249 -0.10778152
-0.16781956 0.002316067 -0.10778045
-0.16782886 0.0023938697 -0.10780325
-0.1678371 0.0024700388 -0.10784207
-0.16784662 0.0025456455 -0.10785491
-0.16785683 0.0026188381 -0.10784782
-0.16786689 0.002690006 -0.10783876
-0.167877 0.0027632434 -0.10783367
-0.16788703 0.0028365217 -0.10783057
-0.16789687 0.0029098894 -0.10783146
-0.16790611 0.0029835142 -0.10784434
-0.16791561 0.0030591208 -0.10785718
-0.16792564 0.003132401 -0.1078541
-0.16793579 0.0032035261 -0.10784303
-0.16794598 0.003278831 -0.1078419
-0.1679552 0.0033545662 -0.10786074
-0.16796435 0.0034282357 -0.10787562
-0.16797446 0.0035035834 -0.10787648
-0.16798428 0.0035769492 -0.10787737
-0.16799402 0.0036503579 -0.10788027
-0.16800395 0.003723681 -0.10787917
-0.16801398 0.0037969593 -0.10787607
-0.16802429 0.0038701091 -0.10786698
-0.16803405 0.0039414093 -0.10786391
-0.16804343 0.0040191691 -0.10788471
-0.16805266 0.0040949062 -0.10790356
-0.16806249 0.004168272 -0.10790446
-0.16807261 0.0042415094 -0.10789936
-0.16808204 0.0043150485 -0.10790824
-0.16809157 0.0043906532 -0.10792109
-0.16810107 0.0044662617 -0.10793394
-0.16811071 0.0045397133 -0.10793883
-0.16812083 0.0046129487 -0.10793374
-0.16813056 0.0046863593 -0.10793663
-0.16814028 0.0047618784 -0.10794548
-0.16814978 0.004837485 -0.10795833
-0.16815923 0.0049110241 -0.10796721
-0.16816916 0.0049843471 -0.10796611
-0.16817908 0.0050576702 -0.10796501
-0.1681886 0.0051332787 -0.10797786
-0.16819821 0.0052088406 -0.10798872
-0.16820791 0.0052843615 -0.10799757
-0.16821745 0.0053578559 -0.10800445
-0.16822729 0.0054312237 -0.10800534
-0.168237 0.0055067446 -0.1080142
-0.1682469 0.005582178 -0.10801906
-0.16825704 0.0056533013 -0.10800801
-0.16826737 0.0057264529 -0.10799892
-0.1682768 0.0057999901 -0.1080078
-0.16828641 0.0058755558 -0.10801865
-0.16829625 0.0059489217 -0.10801955
-0.16830598 0.0060223304 -0.10802244
-0.16831636 0.0060975477 -0.10801731
-0.16832681 0.0061685424 -0.10800027
-0.16833693 0.0062417816 -0.10799517
-0.16834646 0.006315276 -0.10800205
-0.16835639 0.0063885991 -0.10800095
-0.1683668 0.006461706 -0.10798986
-0.16837732 0.0065347701 -0.10797678
-0.16838735 0.0066080485 -0.10797369
-0.16839698 0.0066815 -0.10797858
-0.1684072 0.0067546945 -0.10797148
-0.16841601 0.006832717 -0.10800427
-0.16842562 0.0069082789 -0.10801512
-0.16843504 0.0069839284 -0.10802997
-0.16844472 0.0070615597 -0.10804478
-0.16845456 0.0071349256 -0.10804568
-0.16846509 0.0072058775 -0.10802664
-0.16847575 0.0072746761 -0.10799963
-0.16848636 0.0073476974 -0.10798455
-0.16849658 0.00742089 -0.10797746
-0.16850631 0.0074942969 -0.10798035
-0.16851614 0.0075676646 -0.10798124
-0.16852576 0.0076432284 -0.1079921
-0.16853575 0.007718619 -0.10799497
-0.16854845 0.0077781063 -0.10790417
-0.16855909 0.0078490172 -0.10788312
-0.16856962 0.0079199709 -0.10786407
-0.16857927 0.0079934206 -0.10786896
-0.16858977 0.0080664866 -0.10785587
-0.16860104 0.0081329141 -0.10781093
-0.16861179 0.008201668 -0.10778193
-0.16862141 0.00827723 -0.10779278
-0.16863112 0.0083527509 -0.10780163
-0.16864009 0.0084327981 -0.10783639
-0.16865148 0.0084970705 -0.10778348
-0.16866501 0.0085519906 -0.10766478
-0.16867894 0.0086067375 -0.1075381
-0.16870587 0.0089666136 -0.10795423
-0.16872473 0.008996062 -0.10766611
-0.16873497 0.0090671461 -0.10765304
-0.16874526 0.0091424063 -0.10764992
-0.16875541 0.0092135333 -0.10763887
-0.16875738 0.009330295 -0.10790481
-0.16263665 -0.035212874 -0.11031634
-0.16264769 -0.03513585 -0.11030319
-0.16265838 -0.03506076 -0.11029207
-0.16266736 -0.034989115 -0.11030497
-0.16267546 -0.034917083 -0.11033586
-0.16268519 -0.034843676 -0.11033876
-0.16269663 -0.034766819 -0.11031763
-0.16270751 -0.034691818 -0.11030252
-0.16271761 -0.03461647 -0.11030338
-0.16272658 -0.034544826 -0.11031628
-0.16273546 -0.03447314 -0.11033119
-0.16274537 -0.034397706 -0.11033605
-0.1627553 -0.034324385 -0.11033496
-0.16276522 -0.034251057 -0.11033385
-0.16277494 -0.034175541 -0.1103427
-0.16278429 -0.034104072 -0.11034762
-0.1627944 -0.034028724 -0.11034849
-0.16280423 -0.033955354 -0.11034938
-0.16281442 -0.033880051 -0.11034825
-0.16282406 -0.0338066 -0.11035315
-0.16283284 -0.033734865 -0.11037004
-0.16284238 -0.033661373 -0.11037693
-0.16285267 -0.033586111 -0.1103738
-0.16286165 -0.03351447 -0.11038671
-0.16287071 -0.033440758 -0.11040358
-0.16288082 -0.033367522 -0.11039849
-0.16289131 -0.033292346 -0.11039137
-0.16290085 -0.033218849 -0.11039825
-0.16291048 -0.033145398 -0.11040314
-0.16291992 -0.033071861 -0.11041202
-0.16292936 -0.03299832 -0.11042091
-0.16293956 -0.032923013 -0.11041978
-0.16294949 -0.032849692 -0.11041868
-0.16295932 -0.032776326 -0.11041957
-0.1629696 -0.032701068 -0.11041645
-0.1629799 -0.032625802 -0.11041331
-0.16298954 -0.032552354 -0.11041821
-0.16299888 -0.032478772 -0.11042908
-0.16300777 -0.032407083 -0.11044399
-0.16301692 -0.032333415 -0.11045887
-0.16302645 -0.032259919 -0.11046576
-0.16303647 -0.032186642 -0.11046266
-0.16304667 -0.032111332 -0.11046153
-0.16305669 -0.032038055 -0.11045843
-0.16306709 -0.031962838 -0.11045329
-0.16307671 -0.031889386 -0.11045819
-0.16308586 -0.031815715 -0.11047307
-0.1630955 -0.031742267 -0.11047795
-0.16310513 -0.031668812 -0.11048285
-0.16311428 -0.031595144 -0.11049772
-0.16312402 -0.031521734 -0.11050061
-0.1631346 -0.031446602 -0.11049149
-0.16314444 -0.03137324 -0.11049239
-0.16315378 -0.031299654 -0.11050327
-0.16316321 -0.031226117 -0.11051216
-0.16317305 -0.031152751 -0.11051305
-0.16318335 -0.031077489 -0.11050992
-0.16319335 -0.031002097 -0.11051278
-0.16320261 -0.030930584 -0.1105197
-0.16321242 -0.030855108 -0.11052655
-0.16322225 -0.03078174 -0.11052746
-0.16323198 -0.030708332 -0.11053035
-0.16324188 -0.030632898 -0.11053521
-0.16325115 -0.030561384 -0.11054212
-0.16326086 -0.030485863 -0.11055098
-0.16327013 -0.030414348 -0.11055789
-0.16328032 -0.030339044 -0.11055677
-0.16329081 -0.030263871 -0.11054964
-0.16330054 -0.030190459 -0.11055253
-0.16331045 -0.030115027 -0.11055739
-0.16332103 -0.030039895 -0.11054827
-0.16333163 -0.029964764 -0.11053915
-0.16334125 -0.02989131 -0.11054404
-0.16335014 -0.029819624 -0.11055895
-0.16335985 -0.029744102 -0.11056781
-0.16336948 -0.029670652 -0.1105727
-0.16337836 -0.029598964 -0.1105876
-0.16338781 -0.029525425 -0.11059649
-0.16339819 -0.029450208 -0.11059136
-0.16340877 -0.029375076 -0.11058223
-0.16341822 -0.029301537 -0.11059112
-0.16342726 -0.029227827 -0.110608
-0.1634368 -0.02915433 -0.11061488
-0.16344655 -0.029080922 -0.11061778
-0.16345589 -0.029007338 -0.11062865
-0.16346543 -0.028933844 -0.11063554
-0.16347562 -0.028858539 -0.11063441
-0.1634862 -0.028783407 -0.11062529
-0.16349688 -0.028708318 -0.11061417
-0.16350681 -0.028634997 -0.11061307
-0.16351576 -0.02856124 -0.11063194
-0.16352455 -0.028489511 -0.11064884
-0.16353475 -0.028414205 -0.11064771
-0.16354458 -0.028340841 -0.11064861
-0.16355401 -0.028267302 -0.1106575
-0.16356336 -0.02819372 -0.11066838
-0.16357365 -0.028118458 -0.11066525
-0.16358384 -0.028043155 -0.11066411
-0.16359358 -0.027969744 -0.11066701
-0.16360387 -0.027894484 -0.11066388
-0.16361371 -0.027821118 -0.11066478
-0.16362305 -0.027747536 -0.11067566
-0.16363239 -0.027673956 -0.11068654
-0.16364117 -0.027602224 -0.11070344
-0.1636823 -0.027483912 -0.11021619
-0.16369127 -0.027412269 -0.1102291
-0.16384898 -0.026837282 -0.10867617
-0.1638612 -0.026760774 -0.10863905
-0.16387437 -0.026682585 -0.10858794
-0.16388966 -0.026603237 -0.10849883
-0.16390418 -0.026523542 -0.10842571
-0.16391639 -0.026447035 -0.1083886
-0.16392796 -0.026372336 -0.10835952
-0.16394237 -0.026292596 -0.1082884
-0.16395527 -0.026216391 -0.1082373
-0.16396604 -0.026141346 -0.1082242
-0.16397712 -0.02606643 -0.10820509
-0.16398992 -0.025990181 -0.10815599
-0.16405606 -0.025727514 -0.10756069
-0.1640723 -0.025646485 -0.10745759
-0.16408436 -0.025572002 -0.10741851
-0.16409831 -0.025494158 -0.10735141
-0.16411234 -0.025416359 -0.10728232
-0.16412382 -0.025341617 -0.10725523
-0.16413711 -0.025265584 -0.10719614
-0.16415019 -0.025189463 -0.10714107
-0.16416061 -0.025116358 -0.10712998
-0.16417129 -0.025041267 -0.10711886
-0.16418324 -0.024966743 -0.10708177
-0.16419625 -0.024890579 -0.10702869
-0.16420771 -0.024815837 -0.1070016
-0.1642189 -0.024743075 -0.10697453
-0.16423082 -0.024666436 -0.10694341
-0.16424192 -0.024593633 -0.10691835
-0.16425215 -0.024520438 -0.10691126
-0.16426226 -0.024447203 -0.10690615
-0.16427153 -0.024375688 -0.10691308
-0.16428033 -0.02430396 -0.10692997
-0.16428968 -0.024232488 -0.1069349
-0.16429991 -0.024159295 -0.1069278
-0.16431023 -0.024086144 -0.10691871
-0.16432025 -0.024012865 -0.10691561
-0.16432962 -0.023941396 -0.10692053
-0.16433899 -0.023869924 -0.10692546
-0.16434911 -0.023796689 -0.10692036
-0.16435942 -0.023723539 -0.10691126
-0.16436955 -0.023650303 -0.10690617
-0.16437967 -0.023577064 -0.10690108
-0.16438924 -0.02350568 -0.106902
-0.16439821 -0.023434037 -0.10691491
-0.16440785 -0.023360584 -0.1069198
-0.1644178 -0.023289375 -0.10691274
-0.16442792 -0.023216138 -0.10690764
-0.16443765 -0.023142729 -0.10691053
-0.16444702 -0.023071257 -0.10691545
-0.16445629 -0.022999743 -0.10692237
-0.16446611 -0.022926377 -0.10692327
-0.16447529 -0.02285482 -0.10693219
-0.16448465 -0.02278335 -0.1069371
-0.16449507 -0.022710243 -0.10692602
-0.16450587 -0.022637308 -0.10690694
-0.164516 -0.022564072 -0.10690184
-0.16452573 -0.022490663 -0.10690473
-0.16453451 -0.022418935 -0.10692164
-0.16454284 -0.022349101 -0.10694256
-0.16455238 -0.022275604 -0.10694945
-0.16456231 -0.022204392 -0.10694239
-0.16457196 -0.02213094 -0.10694727
-0.16458094 -0.022059297 -0.10696018
-0.16459 -0.021987695 -0.10697109
-0.16459948 -0.021916268 -0.10697401
-0.16460989 -0.021843161 -0.10696293
-0.1646201 -0.021769969 -0.10695583
-0.16463023 -0.021696731 -0.10695074
-0.1646394 -0.021625176 -0.10695966
-0.16464904 -0.021551723 -0.10696454
-0.16465889 -0.021480467 -0.10695948
-0.16466872 -0.021407101 -0.10696038
-0.16467829 -0.021335717 -0.1069613
-0.16468821 -0.021262396 -0.1069602
-0.16469738 -0.021190837 -0.10696911
-0.16470741 -0.021117559 -0.10696601
-0.16471802 -0.021044537 -0.10695093
-0.16472787 -0.020973284 -0.10694586
-0.16473809 -0.020900089 -0.10693878
-0.1647488 -0.020827113 -0.1069217
-0.16475883 -0.020753833 -0.1069186
-0.16476741 -0.020682016 -0.10693949
-0.16477561 -0.020610027 -0.10696838
-0.16478449 -0.020538341 -0.10698328
-0.16479395 -0.020466914 -0.1069862
-0.16480398 -0.020393634 -0.10698311
-0.16481429 -0.020320484 -0.10697402
-0.16482395 -0.020249143 -0.10697295
-0.16483369 -0.020175735 -0.10697584
-0.16484363 -0.020104524 -0.10696878
-0.16485366 -0.020031244 -0.10696567
-0.16486359 -0.019957921 -0.10696457
-0.16487285 -0.019886406 -0.10697149
-0.16488212 -0.019814894 -0.10697841
-0.16489206 -0.019741569 -0.10697731
-0.16490202 -0.019670358 -0.10697024
-0.16491213 -0.019597121 -0.10696515
-0.1649214 -0.019525608 -0.10697206
-0.16493143 -0.019452328 -0.10696896
-0.16494174 -0.01937918 -0.10695988
-0.16495207 -0.019306028 -0.10695078
-0.16496201 -0.019234817 -0.10694372
-0.16497223 -0.019161623 -0.10693663
-0.16498226 -0.019088345 -0.10693353
-0.16499153 -0.01901683 -0.10694044
-0.1650003 -0.0189451 -0.10695735
-0.16500959 -0.018873587 -0.10696427
-0.16501971 -0.01880035 -0.10695917
-0.16502924 -0.018726856 -0.10696606
-0.16503832 -0.018655255 -0.10697696
-0.1650469 -0.018583437 -0.10699786
-0.16505539 -0.018511578 -0.10702076
-0.16506486 -0.018440152 -0.10702368
-0.16507488 -0.018366871 -0.10702059
-0.16508473 -0.018295616 -0.10701552
-0.16509525 -0.018222554 -0.10700243
-0.16510566 -0.018149447 -0.10699134
-0.16511483 -0.018077889 -0.10700025
-0.16512388 -0.018004177 -0.10701713
-0.16513325 -0.017932707 -0.10702205
-0.16514175 -0.017860848 -0.10704495
-0.16514994 -0.017788857 -0.10707383
-0.16515863 -0.017717086 -0.10709273
-0.16516836 -0.017643677 -0.10709562
-0.16517887 -0.017570613 -0.10708254
-0.16518833 -0.017499186 -0.10708546
-0.16519701 -0.017427411 -0.10710435
-0.1652059 -0.017355725 -0.10711927
-0.16521534 -0.017282186 -0.10712815
-0.16522451 -0.017210629 -0.10713707
-0.16523454 -0.017137351 -0.10713396
-0.16524465 -0.017064113 -0.10712887
-0.16525452 -0.01699286 -0.1071238
-0.16526464 -0.016919622 -0.1071187
-0.16527429 -0.016848281 -0.10711764
-0.16528441 -0.016775046 -0.10711254
-0.16529463 -0.016701851 -0.10710545
-0.16530439 -0.016630555 -0.10710238
-0.16531412 -0.016557146 -0.10710527
-0.16532271 -0.01648533 -0.10712617
-0.16533081 -0.016413296 -0.10715704
-0.1653392 -0.016341394 -0.10718194
-0.16534828 -0.016269794 -0.10719285
-0.16535792 -0.01619634 -0.10719774
-0.16536757 -0.016125001 -0.10719667
-0.1653778 -0.016051807 -0.10718957
-0.16538802 -0.015978614 -0.10718248
-0.16539806 -0.015907444 -0.10717342
-0.16540818 -0.015834209 -0.10716833
-0.16541775 -0.015762825 -0.10716926
-0.16542758 -0.015689459 -0.10717015
-0.16543701 -0.01561592 -0.10717903
-0.16544589 -0.015544233 -0.10719394
-0.16545516 -0.015472719 -0.10720085
-0.1654648 -0.015399267 -0.10720575
-0.16547377 -0.015327623 -0.10721866
-0.16548331 -0.015254127 -0.10722554
-0.16549337 -0.015182959 -0.10721648
-0.16550437 -0.015110113 -0.10719341
-0.16551478 -0.015037006 -0.10718232
-0.16552435 -0.014965621 -0.10718324
-0.16553378 -0.014892082 -0.10719213
-0.16554266 -0.014820395 -0.10720704
-0.1655519 -0.01474677 -0.10721992
-0.16556108 -0.014675213 -0.10722883
-0.16557042 -0.014601631 -0.10723971
-0.16557999 -0.014530247 -0.10724063
-0.16558981 -0.014456881 -0.10724153
-0.16559994 -0.014383645 -0.10723644
-0.1656099 -0.014312433 -0.10722937
-0.1656203 -0.014239326 -0.10721829
-0.16563036 -0.014168158 -0.10720923
-0.1656397 -0.014094576 -0.10722011
-0.16564839 -0.014022803 -0.10723901
-0.16565782 -0.013949264 -0.10724789
-0.16566728 -0.013877837 -0.10725082
-0.16567799 -0.013804859 -0.10723373
-0.16568814 -0.013733734 -0.10722268
-0.16569738 -0.013660109 -0.10723556
-0.16570607 -0.013588336 -0.10725445
-0.16571619 -0.0135151 -0.10724936
-0.1657269 -0.013442122 -0.10723228
-0.16573666 -0.013370825 -0.10722922
-0.165746 -0.013297243 -0.1072401
-0.16575478 -0.013225513 -0.10725699
-0.16576278 -0.013153438 -0.10728987
-0.16577105 -0.013079381 -0.10732272
-0.16577964 -0.013007564 -0.10734362
-0.16578947 -0.012934198 -0.10734452
-0.16579978 -0.012861048 -0.10733543
-0.16580915 -0.012789577 -0.10734035
-0.16581938 -0.012716385 -0.10733325
-0.16583049 -0.012645691 -0.10730223
-0.16584149 -0.012572844 -0.10727915
-0.16585162 -0.012499607 -0.10727406
-0.16586137 -0.012428309 -0.10727099
-0.16587169 -0.012355159 -0.1072619
-0.16588058 -0.012283472 -0.1072768
-0.16588874 -0.012209373 -0.10731165
-0.16589734 -0.012137556 -0.10733255
-0.16590677 -0.012064017 -0.10734143
-0.1659165 -0.011990608 -0.10734432
-0.16592607 -0.011919224 -0.10734525
-0.1659358 -0.011845814 -0.10734814
-0.16594546 -0.011774474 -0.10734707
-0.16595559 -0.011701237 -0.10734198
-0.16596706 -0.011628605 -0.10730892
-0.16597751 -0.01155761 -0.10729187
-0.16598646 -0.011483856 -0.10731073
-0.16599466 -0.011411866 -0.10733962
