# .PCD v0.7 - Point Cloud Data file format
VERSION 0.7
FIELDS x y z
SIZE 4 4 4
TYPE F F F
COUNT 1 1 1
WIDTH 1293
HEIGHT 1
VIEWPOINT 0 0 0 1 0 0 0
POINTS 1293
DATA ascii
-0.16522522 -0.017206209 -0.10706101
-0.16523451 -0.017134696 -0.10706793
-0.16524433 -0.017061329 -0.10706881
-0.16525418 -0.016990075 -0.10706376
-0.1652644 -0.016916882 -0.10705666
-0.16527396 -0.016845498 -0.10705759
-0.16528428 -0.016772347 -0.1070485
-0.16529469 -0.01669924 -0.10703741
-0.16530396 -0.016627727 -0.10704433
-0.16531351 -0.016554231 -0.10705121
-0.16532278 -0.016482718 -0.10705813
-0.16533098 -0.016410727 -0.10708702
-0.16533926 -0.016338782 -0.10711391
-0.16534814 -0.016267095 -0.10712881
-0.16535808 -0.016193772 -0.1071277
-0.16536735 -0.016122259 -0.10713463
-0.16537678 -0.01604872 -0.10714351
-0.16538654 -0.015977422 -0.10714044
-0.16539705 -0.01590436 -0.10712735
-0.16540757 -0.015831295 -0.10711426
-0.16541733 -0.015759997 -0.1071112
-0.16542715 -0.015686631 -0.10711209
-0.16543682 -0.01561529 -0.10711102
-0.16544645 -0.015541837 -0.10711592
-0.16545552 -0.015470237 -0.10712682
-0.16546477 -0.015396612 -0.1071397
-0.16547385 -0.015325012 -0.10715061
-0.16548319 -0.01525143 -0.10716149
-0.16549216 -0.015179786 -0.10717441
-0.16550228 -0.01510655 -0.10716931
-0.16551262 -0.015035511 -0.10715426
-0.16552353 -0.014962621 -0.10713318
-0.16553424 -0.014889644 -0.1071161
-0.16554321 -0.014818 -0.10712901
-0.16555198 -0.014744159 -0.10715187
-0.16556095 -0.014672516 -0.10716478
-0.16556983 -0.014600828 -0.10717969
-0.16557908 -0.014527204 -0.10719257
-0.16558854 -0.014455776 -0.10719549
-0.16559817 -0.014382323 -0.10720038
-0.16560803 -0.014311069 -0.10719531
-0.16561884 -0.014238135 -0.10717624
-0.16562925 -0.014165028 -0.10716514
-0.16563891 -0.014093687 -0.10716407
-0.16564806 -0.014020019 -0.10717894
-0.16565722 -0.013948462 -0.10718786
-0.16566649 -0.013876948 -0.10719478
-0.16567652 -0.013803668 -0.10719168
-0.16568732 -0.013730735 -0.10717261
-0.16569678 -0.013659307 -0.10717553
-0.16570584 -0.013585595 -0.1071924
-0.16571492 -0.013513995 -0.1072033
-0.16572504 -0.013440758 -0.10719822
-0.16573499 -0.013369547 -0.10719115
-0.16574502 -0.013296267 -0.10718806
-0.16575448 -0.01322484 -0.10719098
-0.16576344 -0.013151085 -0.10720985
-0.16577134 -0.013078966 -0.10724472
-0.1657799 -0.013005039 -0.10727158
-0.16578907 -0.012933481 -0.10728049
-0.16579871 -0.012860029 -0.10728538
-0.16580798 -0.012788516 -0.10729229
-0.16581781 -0.01271515 -0.1072932
-0.16582777 -0.012643938 -0.10728613
-0.16583827 -0.012570875 -0.10727305
-0.16584839 -0.012497638 -0.10726795
-0.16585873 -0.012426599 -0.1072529
-0.16587003 -0.012353881 -0.10722384
-0.16588008 -0.012282713 -0.10721478
-0.16588874 -0.012208829 -0.10723964
-0.16589683 -0.012136796 -0.10727052
-0.16590551 -0.012062912 -0.10729539
-0.16591455 -0.0119892 -0.10731225
-0.16592421 -0.011917859 -0.10731118
-0.16593453 -0.01184471 -0.10730209
-0.16594408 -0.011773326 -0.10730302
-0.16595381 -0.011699916 -0.10730591
-0.16596404 -0.011626723 -0.10729881
-0.16597438 -0.011555685 -0.10728376
-0.16598451 -0.011482447 -0.10727867
-0.16599339 -0.011410762 -0.10729358
-0.16600282 -0.011337223 -0.10730246
-0.16601229 -0.011265795 -0.10730538
-0.16602154 -0.01119217 -0.10731826
-0.16603078 -0.011118544 -0.10733113
-0.16604024 -0.011047117 -0.10733406
-0.16605018 -0.010973794 -0.10733295
-0.16605935 -0.010902237 -0.10734186
-0.166068 -0.010828353 -0.10736673
-0.16607735 -0.010754771 -0.10737761
-0.166087 -0.010683429 -0.10737654
-0.16609713 -0.010610193 -0.10737145
-0.16610748 -0.010539155 -0.1073564
-0.1661175 -0.010465875 -0.10735329
-0.16612723 -0.010392466 -0.10735618
-0.1661364 -0.010320909 -0.10736509
-0.16614574 -0.010247327 -0.10737598
-0.16615547 -0.010173918 -0.10737888
-0.16616562 -0.010102793 -0.10736781
-0.16617604 -0.010029686 -0.10735673
-0.16618629 -0.0099586044 -0.10734367
-0.16619632 -0.0098853242 -0.10734057
-0.16620529 -0.0098136812 -0.10735348
-0.16621453 -0.0097400555 -0.10736635
-0.16622397 -0.0096665174 -0.10737523
-0.16623373 -0.009595219 -0.10737217
-0.16624434 -0.0095221987 -0.10735709
-0.16625437 -0.0094489194 -0.107354
-0.16626334 -0.0093772756 -0.1073669
-0.16627219 -0.0093034776 -0.10738777
-0.16628173 -0.0092299823 -0.10739465
-0.16629168 -0.0091587706 -0.10738759
-0.16630191 -0.009085577 -0.1073805
-0.16631156 -0.0090142358 -0.10737943
-0.16632189 -0.0089410869 -0.10737034
-0.16633154 -0.0088697458 -0.10736927
-0.1663405 -0.0087959906 -0.10738813
-0.16634916 -0.008722106 -0.10741299
-0.16635899 -0.0086487401 -0.10741389
-0.16636884 -0.0085774856 -0.10740882
-0.16637906 -0.008504292 -0.10740173
-0.16638853 -0.0084328651 -0.10740465
-0.16639768 -0.0083591966 -0.10741952
-0.16640711 -0.0082856575 -0.10742842
-0.16641705 -0.0082123354 -0.10742731
-0.16642651 -0.0081409076 -0.10743023
-0.16643643 -0.0080675846 -0.10742913
-0.16644655 -0.0079943482 -0.10742404
-0.16645622 -0.007923007 -0.10742296
-0.16646634 -0.0078497715 -0.10741787
-0.16647629 -0.0077785593 -0.1074108
-0.16648652 -0.0077053662 -0.10740371
-0.16649672 -0.0076321731 -0.10739662
-0.16650736 -0.0075612646 -0.10737557
-0.16651759 -0.0074880715 -0.10736848
-0.16652617 -0.0074162548 -0.10738938
-0.16653562 -0.0073427157 -0.10739826
-0.16654642 -0.007269782 -0.10737918
-0.16655734 -0.0071990029 -0.10735215
-0.1665674 -0.0071278345 -0.10734309
-0.16657664 -0.0070542088 -0.10735597
-0.1665854 -0.0069803679 -0.10737883
-0.16659415 -0.0069065271 -0.10740169
-0.1666031 -0.0068327719 -0.10742057
-0.16661206 -0.0067590168 -0.10743944
-0.16662198 -0.0066856942 -0.10743833
-0.16663243 -0.006614699 -0.10742129
-0.16664274 -0.0065415488 -0.10741219
-0.1666526 -0.0064702942 -0.10740713
-0.16666242 -0.0063969283 -0.10740802
-0.16667196 -0.0063234325 -0.10741491
-0.16668095 -0.0062517896 -0.10742782
-0.16669029 -0.0061782072 -0.1074387
-0.16669972 -0.0061046686 -0.10744758
-0.16670926 -0.0060311724 -0.10745447
-0.166719 -0.0059577636 -0.10745736
-0.16672805 -0.0058840523 -0.10747423
-0.16673671 -0.0058101676 -0.1074991
-0.16674556 -0.0057363696 -0.10751996
-0.16675511 -0.0056628739 -0.10752685
-0.16676535 -0.0055917925 -0.10751379
-0.16677606 -0.005518815 -0.10749672
-0.1667856 -0.0054453197 -0.1075036
-0.16679406 -0.0053713485 -0.10753246
-0.16680253 -0.0052973772 -0.10756131
-0.16681157 -0.0052236663 -0.10757819
-0.16682141 -0.0051503005 -0.10757908
-0.16683172 -0.0050771507 -0.10756999
-0.16684206 -0.0050061122 -0.10755494
-0.16685219 -0.0049328748 -0.10754984
-0.16686165 -0.004861448 -0.10755277
-0.16687119 -0.0047879517 -0.10755965
-0.16688043 -0.0047143269 -0.10757253
-0.16688977 -0.004640745 -0.1075834
-0.16689931 -0.0045672487 -0.1075903
-0.16690856 -0.004493624 -0.10760318
-0.16691829 -0.0044202153 -0.10760607
-0.16692851 -0.0043470217 -0.10759898
-0.16693828 -0.0042757243 -0.10759591
-0.16694809 -0.0042023575 -0.1075968
-0.16695744 -0.0041287765 -0.10760768
-0.16696697 -0.0040552802 -0.10761457
-0.16697691 -0.0039819572 -0.10761347
-0.16698715 -0.0039108759 -0.10760041
-0.16699699 -0.0038375091 -0.10760131
-0.16700584 -0.003763712 -0.10762218
-0.16701487 -0.0036878884 -0.10764501
-0.1670244 -0.0036143931 -0.1076519
-0.16703416 -0.0035430957 -0.10764883
-0.16704419 -0.0034698155 -0.10764573
-0.16705401 -0.0033964505 -0.10764662
-0.16706374 -0.0033230409 -0.10764952
-0.16707361 -0.0032517863 -0.10764445
-0.16708362 -0.0031785071 -0.10764135
-0.16709317 -0.0031050108 -0.10764823
-0.16710319 -0.0030317316 -0.10764514
-0.16711383 -0.0029608216 -0.1076241
-0.16712427 -0.0028898269 -0.10760704
-0.16713428 -0.0028165476 -0.10760394
-0.16714393 -0.0027430952 -0.10760884
-0.16715308 -0.0026694257 -0.10762372
-0.16716184 -0.0025955848 -0.10764658
-0.16717115 -0.0025198916 -0.10766342
-0.16718099 -0.0024465257 -0.10766431
-0.16719119 -0.0023733322 -0.10765722
-0.16720106 -0.0023020785 -0.10765215
-0.16721079 -0.0022286689 -0.10765505
-0.16722022 -0.0021551298 -0.10766393
-0.16722956 -0.0020815488 -0.10767481
-0.1672392 -0.0020080954 -0.1076797
-0.16724952 -0.0019349456 -0.10767061
-0.16725935 -0.0018615797 -0.10767151
-0.16726841 -0.0017878683 -0.10768838
-0.16727775 -0.0017142864 -0.10769926
-0.16728726 -0.0016386788 -0.1077121
-0.1672968 -0.0015651826 -0.10771899
-0.16730633 -0.0014916891 -0.10772589
-0.16731597 -0.0014182366 -0.10773078
-0.16732563 -0.0013468945 -0.1077297
-0.16733573 -0.0012715477 -0.10773056
-0.167345 -0.0012000334 -0.10773748
-0.16735493 -0.0011267113 -0.10773638
-0.16736515 -0.0010535177 -0.10772929
-0.1673751 -0.00098230597 -0.10772222
-0.16738552 -0.00090919901 -0.10771113
-0.16739567 -0.0008380739 -0.10770008
-0.16740617 -0.00076500978 -0.107687
-0.1674159 -0.00069160201 -0.10768989
-0.16742486 -0.00061784685 -0.10770876
-0.16743408 -0.00054211076 -0.10772759
-0.16744401 -0.00046878774 -0.10772649
-0.16745386 -0.00039753318 -0.10772143
-0.16746388 -0.00032425392 -0.10771833
-0.16747421 -0.00025110412 -0.10770924
-0.16748413 -0.0001777811 -0.10770814
-0.16749367 -0.00010428485 -0.10771503
-0.16750272 -3.0572526e-05 -0.1077319
-0.16751204 4.5119785e-05 -0.10774874
-0.16752158 0.00011861604 -0.10775562
-0.16753151 0.00019193906 -0.10775452
-0.16754146 0.00026314892 -0.10774746
-0.16755168 0.00033634249 -0.10774036
-0.16756161 0.00040966552 -0.10773927
-0.16757084 0.00048329029 -0.10775214
-0.16758046 0.00055885501 -0.107763
-0.1675901 0.00063230656 -0.10776789
-0.16759934 0.00070593134 -0.10778076
-0.16760924 0.0007813666 -0.10778562
-0.16761939 0.00085249171 -0.10777456
-0.1676297 0.00092564151 -0.10776547
-0.16763946 0.00099693891 -0.10776241
-0.167649 0.0010704342 -0.1077693
-0.1676591 0.0011457829 -0.10777016
-0.16766886 0.0012170803 -0.10776709
-0.16767895 0.0012924289 -0.10776795
-0.16768859 0.0013658805 -0.10777284
-0.16769813 0.0014393749 -0.10777973
-0.16770786 0.0015127845 -0.10778262
-0.1677175 0.001586237 -0.1077875
-0.16772713 0.0016596904 -0.10779241
-0.16773695 0.0017351666 -0.10779926
-0.16774669 0.0018064659 -0.10779619
-0.16775653 0.0018798308 -0.10779709
-0.16776636 0.0019531976 -0.10779798
-0.16777648 0.0020264331 -0.10779288
-0.1677864 0.0020997562 -0.10779178
-0.16779643 0.0021730354 -0.10778867
-0.16780688 0.0022440311 -0.10777164
-0.16781731 0.0023150267 -0.10775459
-0.16782711 0.0023905039 -0.10776144
-0.16783544 0.0024687396 -0.10780422
-0.16784398 0.0025447793 -0.10783704
-0.16785359 0.0026203431 -0.10784789
-0.16786355 0.0026915539 -0.10784082
-0.16787425 0.0027645305 -0.10782374
-0.16788381 0.0028359164 -0.10782467
-0.16789401 0.0029112212 -0.10782354
-0.16790377 0.0029825177 -0.10782047
-0.16791278 0.0030583404 -0.1078433
-0.16792279 0.003133731 -0.10784617
-0.16793323 0.0032047275 -0.10782912
-0.16794355 0.0032778773 -0.10782003
-0.1679526 0.0033515897 -0.1078369
-0.16796191 0.003427282 -0.10785374
-0.16797182 0.0035027154 -0.10785861
-0.16798155 0.0035761259 -0.1078615
-0.16799128 0.0036495347 -0.10786439
-0.16800112 0.0037229005 -0.10786528
-0.16801114 0.0037961807 -0.10786219
-0.16802126 0.0038694162 -0.10785709
-0.16803129 0.0039426964 -0.10785399
-0.1680406 0.0040183887 -0.10787082
-0.16804953 0.0040942542 -0.10789566
-0.16805935 0.0041697323 -0.10790253
-0.16806947 0.0042429697 -0.10789743
-0.1680792 0.0043163784 -0.10790032
-0.1680887 0.004391985 -0.10791317
-0.16809815 0.0044655241 -0.10792205
-0.16810779 0.0045389757 -0.10792693
-0.16811779 0.0046143681 -0.1079298
-0.16812782 0.0046876464 -0.1079267
-0.16813783 0.0047609266 -0.1079236
-0.16814747 0.0048343781 -0.1079285
-0.16815679 0.0049100723 -0.10794535
-0.16816621 0.0049857218 -0.10796019
-0.16817594 0.0050591324 -0.10796308
-0.16818595 0.0051345229 -0.10796594
-0.16819558 0.0052079745 -0.10797083
-0.16820519 0.0052835383 -0.10798168
-0.16821451 0.0053592324 -0.10799853
-0.16822395 0.0054327697 -0.10800741
-0.16823414 0.0055080745 -0.10800628
-0.16824368 0.0055815708 -0.10801316
-0.1682537 0.005654851 -0.10801006
-0.16826412 0.0057279579 -0.10799897
-0.16827396 0.0058013238 -0.10799987
-0.16828349 0.0058748201 -0.10800675
-0.16829339 0.0059502535 -0.10801161
-0.1683028 0.0060259029 -0.10802647
-0.16831283 0.0060991831 -0.10802336
-0.16832349 0.0061679799 -0.10799636
-0.1683342 0.0062409565 -0.10797928
-0.16834392 0.0063164774 -0.10798813
-0.16835335 0.0063900147 -0.10799702
-0.16836347 0.006463252 -0.10799192
-0.16837388 0.006536359 -0.10798083
-0.1683843 0.0066094659 -0.10796975
-0.16839403 0.0066828746 -0.10797264
-0.16840386 0.0067562424 -0.10797354
-0.16841409 0.0068294331 -0.10796644
-0.16843247 0.0069851298 -0.10801604
-0.16844189 0.0070607811 -0.10803089
-0.16845143 0.0071342774 -0.10803778
-0.16846164 0.0072095804 -0.10803665
-0.1684721 0.0072784647 -0.10801364
-0.16848312 0.0073492024 -0.1079846
-0.16849333 0.0074223932 -0.10797751
-0.16850327 0.0074957162 -0.10797641
-0.16851319 0.0075690392 -0.1079753
-0.168523 0.0076445173 -0.10798216
-0.16853264 0.0077179689 -0.10798705
-0.16854315 0.0077910312 -0.10797396
-0.16855463 0.0078552607 -0.10791906
-0.16856566 0.0079259966 -0.10789003
-0.16857609 0.007996995 -0.10787299
-0.16858631 0.0080701858 -0.10786589
-0.16859727 0.0081388541 -0.10783289
-0.16860853 0.0082052797 -0.10778794
-0.16861856 0.0082785599 -0.10778484
-0.16862798 0.0083542112 -0.10779969
-0.16863728 0.0084320158 -0.10782249
-0.16864802 0.0085007697 -0.10779349
-0.16866043 0.0085603874 -0.10770869
-0.16264378 -0.035187788 -0.11018474
-0.16265351 -0.035114378 -0.11018763
-0.16266304 -0.035040881 -0.11019452
-0.16267316 -0.034967646 -0.11018942
-0.16268346 -0.034892384 -0.11018629
-0.16269214 -0.034820613 -0.1102052
-0.16270225 -0.034745265 -0.11020606
-0.16271283 -0.034670133 -0.11019693
-0.16272256 -0.034596726 -0.11019982
-0.1627322 -0.034523271 -0.11020472
-0.16274182 -0.034449819 -0.11020961
-0.16275157 -0.034376409 -0.1102125
-0.16276091 -0.034302831 -0.11022338
-0.16277008 -0.034231272 -0.11023229
-0.16278018 -0.034155924 -0.11023317
-0.16278991 -0.034082517 -0.11023606
-0.16279945 -0.034009017 -0.11024295
-0.16280898 -0.033935525 -0.11024982
-0.16281891 -0.0338622 -0.11024872
-0.16282912 -0.033786897 -0.11024759
-0.16283874 -0.033713445 -0.11025248
-0.16284762 -0.033641756 -0.11026739
-0.16285735 -0.033568345 -0.11027028
-0.16286784 -0.033493172 -0.11026316
-0.16287784 -0.033417784 -0.11026602
-0.16288768 -0.033344418 -0.11026692
-0.16289817 -0.033269241 -0.11025979
-0.1629079 -0.033195831 -0.11026268
-0.16291668 -0.0331241 -0.11027959
-0.16292563 -0.033050347 -0.11029845
-0.16293576 -0.032977112 -0.11029337
-0.16294605 -0.03290185 -0.11029024
-0.16295588 -0.032828484 -0.11029113
-0.16296607 -0.032753181 -0.11029
-0.16297542 -0.032679595 -0.11030088
-0.16298421 -0.032607868 -0.11031778
-0.16299355 -0.032534286 -0.11032866
-0.16300263 -0.032462686 -0.11033957
-0.16301151 -0.032390997 -0.11035448
-0.16302159 -0.032315649 -0.11035535
-0.16303293 -0.032238752 -0.11033621
-0.16304342 -0.032163575 -0.11032909
-0.16305296 -0.032090083 -0.11033597
-0.1630628 -0.032016717 -0.11033687
-0.16307233 -0.031943221 -0.11034375
-0.16308178 -0.03186968 -0.11035264
-0.16309102 -0.031796057 -0.11036552
-0.1630999 -0.031724371 -0.11038043
-0.16310897 -0.031652771 -0.11039133
-0.16311927 -0.031577505 -0.1103882
-0.16312985 -0.031502377 -0.11037908
-0.16314034 -0.031427205 -0.11037195
-0.16315044 -0.031351857 -0.11037283
-0.16316009 -0.031278402 -0.11037771
-0.16316906 -0.031206761 -0.11039062
-0.1631784 -0.031133177 -0.1104015
-0.16318859 -0.031057872 -0.11040038
-0.16319832 -0.030984465 -0.11040327
-0.1632074 -0.030912863 -0.11041418
-0.16321684 -0.030839324 -0.11042306
-0.16322619 -0.030765744 -0.11043394
-0.16323619 -0.030690352 -0.1104368
-0.1632463 -0.030617116 -0.11043171
-0.16325651 -0.030541811 -0.11043058
-0.16326594 -0.030468274 -0.11043946
-0.16327558 -0.030394819 -0.11044435
-0.16328588 -0.030319558 -0.11044122
-0.16329609 -0.030246366 -0.11043413
-0.16330619 -0.030171018 -0.11043499
-0.16331592 -0.030097608 -0.11043788
-0.16332603 -0.030022262 -0.11043875
-0.16333567 -0.029948808 -0.11044364
-0.16368522 -0.027471665 -0.11013272
-0.16369551 -0.027396403 -0.11012959
-0.16381982 -0.026987268 -0.1087909
-0.1638328 -0.026908994 -0.10874378
-0.16386384 -0.026748402 -0.10856157
-0.16387606 -0.026671894 -0.10852446
-0.16389211 -0.026590778 -0.10842534
-0.16390651 -0.02651104 -0.10835423
-0.16392036 -0.026433155 -0.10828912
-0.16393258 -0.026356649 -0.10825201
-0.16394444 -0.026282076 -0.10821692
-0.16395694 -0.0262057 -0.10817382
-0.16396841 -0.026130956 -0.10814673
-0.16397929 -0.026055954 -0.10813162
-0.16399075 -0.02598121 -0.10810453
-0.16407563 -0.025634417 -0.10736612
-0.16408767 -0.025559936 -0.10732704
-0.16410008 -0.025483513 -0.10728594
-0.16411383 -0.025405584 -0.10722284
-0.16412617 -0.025331231 -0.10717776
-0.1641382 -0.025254635 -0.10714465
-0.16415121 -0.025178473 -0.10709156
-0.16416286 -0.025103815 -0.10706047
-0.16417357 -0.02503084 -0.10704339
-0.16418512 -0.024956141 -0.10701431
-0.16419783 -0.024879847 -0.10696721
-0.16421008 -0.024805449 -0.10692413
-0.16422115 -0.024730533 -0.10690504
-0.16423127 -0.024657298 -0.10689993
-0.16424198 -0.024584321 -0.10688285
-0.16425364 -0.024509665 -0.10685176
-0.16426386 -0.024436472 -0.10684466
-0.16427267 -0.024366852 -0.10685562
-0.1642825 -0.024293486 -0.10685651
-0.16429251 -0.024220206 -0.10685341
-0.16430293 -0.024147101 -0.10684232
-0.16431345 -0.024074037 -0.10682923
-0.16432281 -0.024002567 -0.10683415
-0.1643316 -0.023930836 -0.10685106
-0.16434067 -0.023859236 -0.10686196
-0.16435099 -0.023786087 -0.10685288
-0.16436216 -0.023711214 -0.10683178
-0.16437297 -0.02363828 -0.1068127
-0.16438319 -0.023565087 -0.10680561
-0.16439141 -0.023495208 -0.10682853
-0.1643998 -0.023423307 -0.10685343
-0.16440926 -0.023351878 -0.10685634
-0.1644191 -0.023278512 -0.10685724
-0.16442846 -0.023207042 -0.10686215
-0.16443829 -0.023133676 -0.10686306
-0.16444786 -0.023062292 -0.10686398
-0.16445808 -0.0229891 -0.10685689
-0.16446802 -0.022917887 -0.10684982
-0.16447785 -0.022844523 -0.10685072
-0.16448778 -0.0227712 -0.10684962
-0.16449791 -0.022697963 -0.10684451
-0.16450746 -0.022626579 -0.10684544
-0.16451703 -0.022555195 -0.10684638
-0.16452715 -0.022481957 -0.10684127
-0.16453663 -0.022410531 -0.1068442
-0.1645453 -0.022338757 -0.1068631
-0.16455398 -0.022266984 -0.106882
-0.1645644 -0.022193879 -0.1068709
-0.16457531 -0.022120986 -0.10684983
-0.16458504 -0.022047577 -0.10685273
-0.16459362 -0.021975761 -0.10687362
-0.16460195 -0.021905927 -0.10689455
-0.16461207 -0.02183269 -0.10688946
-0.16462258 -0.021759626 -0.10687637
-0.16463214 -0.021688243 -0.10687729
-0.16464159 -0.021614704 -0.10688618
-0.16465114 -0.02154332 -0.1068871
-0.16466156 -0.021470213 -0.10687602
-0.16467158 -0.021396933 -0.10687291
-0.16468076 -0.021325376 -0.10688183
-0.16469049 -0.021251965 -0.10688472
-0.16470045 -0.021180756 -0.10687766
-0.16471066 -0.021107562 -0.10687057
-0.16472022 -0.021036178 -0.10687149
-0.16472976 -0.020962683 -0.10687838
-0.16473998 -0.020889491 -0.10687128
-0.16475078 -0.020816555 -0.1068522
-0.16476065 -0.0207453 -0.10684714
-0.16476932 -0.020673528 -0.10686604
-0.16477782 -0.020601669 -0.10688894
-0.16478659 -0.020529939 -0.10690583
-0.16479634 -0.02045653 -0.10690873
-0.16480608 -0.020385232 -0.10690566
-0.1648165 -0.020312125 -0.10689458
-0.16482653 -0.020238847 -0.10689147
-0.1648359 -0.020167375 -0.10689639
-0.16484582 -0.020094052 -0.1068953
-0.16485587 -0.020022884 -0.10688624
-0.1648659 -0.019949604 -0.10688313
-0.16487536 -0.019878177 -0.10688605
-0.16488539 -0.019804897 -0.10688296
-0.16489542 -0.019731618 -0.10687985
-0.16490498 -0.019660234 -0.10688078
-0.16491471 -0.019586824 -0.10688367
-0.16492407 -0.019515352 -0.10688859
-0.16493364 -0.01944397 -0.10688952
-0.16494375 -0.019370733 -0.10688443
-0.16495417 -0.019297626 -0.10687333
-0.16496404 -0.019226372 -0.10686827
-0.16497405 -0.019153092 -0.10686517
-0.16498408 -0.019079812 -0.10686208
-0.16499326 -0.019008256 -0.10687099
-0.16500214 -0.018936569 -0.10688589
-0.16501169 -0.018865185 -0.10688681
-0.16502143 -0.018791776 -0.10688971
-0.16503021 -0.018720046 -0.10690662
-0.16503929 -0.018648446 -0.10691752
-0.16504845 -0.018576887 -0.10692643
-0.1650577 -0.018503264 -0.10693931
-0.16506687 -0.018431704 -0.10694823
-0.1650767 -0.018358339 -0.10694912
-0.16508588 -0.018286783 -0.10695803
-0.16509524 -0.018215312 -0.10696296
-0.16510624 -0.018142466 -0.10693989
-0.16511676 -0.018069401 -0.1069268
-0.16512544 -0.017997628 -0.1069457
-0.16513422 -0.017925898 -0.1069626
-0.1651431 -0.017854212 -0.10697751
-0.16515215 -0.0177805 -0.10699438
-0.16516122 -0.017708899 -0.10700528
-0.16517097 -0.017635491 -0.10700818
-0.16518043 -0.017564062 -0.10701111
-0.16518998 -0.017492678 -0.10701203
-0.16519962 -0.017419226 -0.10701692
-0.1652087 -0.017347626 -0.10702783
-0.16521774 -0.017273914 -0.1070447
-0.16522673 -0.017202271 -0.10705761
-0.16523609 -0.0171308 -0.10706253
-0.16524592 -0.017057434 -0.10706342
-0.16525578 -0.01698618 -0.10705836
-0.1652661 -0.01691303 -0.10704928
-0.16527566 -0.016841646 -0.1070502
-0.16528589 -0.016768452 -0.1070431
-0.1652962 -0.016695302 -0.10703401
-0.16530547 -0.016623789 -0.10704093
-0.16531511 -0.016550336 -0.10704581
-0.16532438 -0.016478822 -0.10705274
-0.16533266 -0.016406875 -0.10707962
-0.16534086 -0.016334888 -0.10710851
-0.16534984 -0.016263243 -0.10712142
-0.16535977 -0.016189922 -0.10712031
-0.16536903 -0.016118407 -0.10712723
-0.16537848 -0.016044868 -0.10713612
-0.16538824 -0.01597357 -0.10713305
-0.16539866 -0.015900463 -0.10712196
-0.16540927 -0.015827443 -0.10710687
-0.16541912 -0.015756188 -0.10710181
-0.16542874 -0.015682736 -0.1071067
-0.16543868 -0.015609413 -0.1071056
-0.16544804 -0.015537943 -0.10711052
-0.16545711 -0.015466343 -0.10712143
-0.16546626 -0.015392674 -0.10713631
-0.16547544 -0.015321117 -0.10714522
-0.16548479 -0.015247535 -0.10715609
-0.16549376 -0.015175891 -0.107169
-0.16550398 -0.015102699 -0.10716192
-0.16551423 -0.015031617 -0.10714886
-0.16552493 -0.01495864 -0.10713178
-0.16553564 -0.014885663 -0.1071147
-0.16554472 -0.014814062 -0.10712561
-0.16555357 -0.014740264 -0.10714648
-0.16556264 -0.014668664 -0.10715739
-0.16557142 -0.014596933 -0.10717428
-0.16558068 -0.014523309 -0.10718717
-0.16559003 -0.014451838 -0.10719209
-0.16559978 -0.014378428 -0.10719498
-0.16560972 -0.014307218 -0.10718792
-0.16562043 -0.01423424 -0.10717084
-0.16563085 -0.014161134 -0.10715976
-0.1656405 -0.014089793 -0.10715868
-0.16564976 -0.014016167 -0.10717156
-0.16565883 -0.013944567 -0.10718247
-0.16566819 -0.013873097 -0.10718739
-0.16567822 -0.013799817 -0.10718429
-0.16568883 -0.013726797 -0.10716921
-0.16569839 -0.013655413 -0.10717013
-0.16570735 -0.013581658 -0.107189
-0.16571642 -0.013510058 -0.10719991
-0.16572644 -0.013436778 -0.10719681
-0.16573639 -0.013365567 -0.10718975
-0.16574652 -0.01329233 -0.10718466
-0.16575608 -0.013220945 -0.10718558
-0.16576503 -0.013147191 -0.10720445
-0.16577294 -0.013075072 -0.10723933
-0.1657815 -0.013001145 -0.10726619
-0.16579068 -0.012929588 -0.1072751
-0.16580041 -0.012856178 -0.10727799
-0.16580959 -0.012784621 -0.1072869
-0.16581932 -0.012711212 -0.1072898
-0.16582917 -0.012639957 -0.10728473
-0.16583978 -0.012566937 -0.10726965
-0.16585019 -0.01249383 -0.10725857
-0.16586034 -0.012422705 -0.1072475
-0.16587153 -0.012349945 -0.10722044
-0.16588159 -0.012278777 -0.10721137
-0.16589025 -0.012204892 -0.10723624
-0.16589861 -0.012130878 -0.10726709
-0.16590701 -0.012058975 -0.10729198
-0.16591606 -0.011985263 -0.10730886
-0.16592571 -0.011913923 -0.10730778
-0.16593604 -0.011840772 -0.10729869
-0.1659455 -0.011769345 -0.10730162
-0.16595533 -0.011695979 -0.10730251
-0.16596554 -0.011622786 -0.10729542
-0.16597579 -0.011551704 -0.10728236
-0.16598602 -0.011478511 -0.10727527
-0.16599499 -0.011406867 -0.10728818
-0.16600443 -0.011333329 -0.10729706
-0.1660139 -0.011261901 -0.10729998
-0.16602305 -0.011188233 -0.10731485
-0.16603239 -0.01111465 -0.10732574
-0.16604185 -0.011043224 -0.10732866
-0.16605178 -0.010969901 -0.10732756
-0.16606095 -0.010898343 -0.10733647
-0.16606951 -0.010824416 -0.10736334
-0.16607876 -0.010750791 -0.10737621
-0.16608852 -0.010679493 -0.10737315
-0.16609874 -0.0106063 -0.10736605
-0.16610909 -0.010535261 -0.107351
-0.1661191 -0.010461981 -0.1073479
-0.16612874 -0.010388529 -0.10735279
-0.16613811 -0.010317058 -0.1073577
-0.16614735 -0.010243434 -0.10737058
-0.16615708 -0.010170024 -0.10737348
-0.16616714 -0.010098856 -0.10736442
-0.16617754 -0.010025749 -0.10735333
-0.1661879 -0.0099547105 -0.10733827
-0.16619791 -0.0098814312 -0.10733518
-0.1662069 -0.0098097883 -0.10734808
-0.16621614 -0.0097361626 -0.10736096
-0.16622558 -0.0096626235 -0.10736985
-0.16623533 -0.0095913261 -0.10736679
-0.16624585 -0.009518262 -0.10735369
-0.1662557 -0.0094470084 -0.10734863
-0.16626495 -0.0093733827 -0.1073615
-0.16627371 -0.0092995409 -0.10738438
-0.16628325 -0.0092260456 -0.10739125
-0.16629329 -0.0091548767 -0.1073822
-0.16630332 -0.0090815984 -0.10737909
-0.16631298 -0.0090102572 -0.10737802
-0.16632329 -0.0089371074 -0.10736894
-0.16633305 -0.0088658091 -0.10736587
-0.16634201 -0.0087920539 -0.10738473
-0.16635077 -0.0087182131 -0.10740761
-0.1663605 -0.0086448044 -0.10741049
-0.16637045 -0.0085735926 -0.10740343
-0.16638057 -0.0085003562 -0.10739833
-0.16639003 -0.0084289284 -0.10740125
-0.16639929 -0.0083553037 -0.10741413
-0.16640872 -0.0082817646 -0.10742301
-0.16641846 -0.0082083559 -0.10742591
-0.16642801 -0.0081369709 -0.10742684
-0.16643794 -0.0080636479 -0.10742573
-0.16644816 -0.0079904553 -0.10741863
-0.16645773 -0.0079190712 -0.10741957
-0.16646785 -0.0078458348 -0.10741447
-0.1664778 -0.0077746231 -0.10740741
-0.16648793 -0.0077013872 -0.10740232
-0.16649833 -0.0076282802 -0.10739123
-0.16650897 -0.0075573716 -0.10737018
-0.166519 -0.0074840919 -0.10736708
-0.16652769 -0.0074123191 -0.10738598
-0.16653723 -0.0073388228 -0.10739286
-0.16654803 -0.0072658891 -0.10737379
-0.16655895 -0.00719511 -0.10734675
-0.16656891 -0.0071238987 -0.1073397
-0.16657814 -0.007050273 -0.10735257
-0.16658691 -0.0069764326 -0.10737544
-0.16659577 -0.0069026342 -0.1073963
-0.16660462 -0.0068288357 -0.10741717
-0.16661358 -0.006755081 -0.10743604
-0.16662359 -0.0066818013 -0.10743294
-0.16663404 -0.0066108061 -0.10741588
-0.16664416 -0.0065375702 -0.10741079
-0.16665392 -0.0064662723 -0.10740773
-0.16666384 -0.0063929493 -0.10740662
-0.16667359 -0.0063195401 -0.10740951
-0.16668245 -0.0062478539 -0.10742442
-0.16669179 -0.0061742715 -0.1074353
-0.16670114 -0.0061006895 -0.10744618
-0.16671078 -0.006027237 -0.10745107
-0.16672061 -0.0059538707 -0.10745196
-0.16672966 -0.0058801603 -0.10746884
-0.16673823 -0.0058062319 -0.1074957
-0.16674708 -0.0057324339 -0.10751656
-0.16675662 -0.0056589385 -0.10752346
-0.16676687 -0.0055878568 -0.1075104
-0.16677748 -0.0055148364 -0.10749532
-0.16678701 -0.0054413406 -0.1075022
-0.16679557 -0.0053674132 -0.10752906
-0.16680405 -0.0052934419 -0.10755791
-0.16681309 -0.0052197305 -0.10757479
-0.16682282 -0.0051463218 -0.10757768
-0.16683324 -0.0050732149 -0.1075666
-0.16684358 -0.0050021764 -0.10755154
-0.1668538 -0.0049289828 -0.10754445
-0.16686326 -0.004857556 -0.10754737
-0.1668728 -0.0047840606 -0.10755425
-0.16688195 -0.0047103912 -0.10756913
-0.16689129 -0.0046368092 -0.10758001
-0.16690083 -0.0045633139 -0.1075869
-0.16691008 -0.0044896891 -0.10759978
-0.16691981 -0.0044162795 -0.10760267
-0.16693003 -0.0043430869 -0.10759558
-0.16693978 -0.0042717885 -0.10759251
-0.16694961 -0.0041984227 -0.1075934
-0.16695896 -0.0041248407 -0.10760428
-0.16696841 -0.0040513016 -0.10761317
-0.16697833 -0.0039779795 -0.10761207
-0.16698857 -0.0039068973 -0.10759901
-0.16699859 -0.003833618 -0.10759592
-0.16700746 -0.00375982 -0.10761677
-0.16701621 -0.0036859792 -0.10763965
-0.16702601 -0.0036105011 -0.1076465
-0.16703568 -0.0035391599 -0.10764542
-0.16704561 -0.0034658369 -0.10764432
-0.16705544 -0.0033924719 -0.10764523
-0.16706507 -0.0033190195 -0.10765012
-0.16707502 -0.0032478087 -0.10764305
-0.16708514 -0.0031745713 -0.10763796
-0.16709468 -0.003101076 -0.10764484
-0.16710462 -0.0030277539 -0.10764374
-0.16711524 -0.0029568439 -0.10762269
-0.16712588 -0.0028859358 -0.10760165
-0.1671358 -0.0028126128 -0.10760055
-0.16714554 -0.0027392032 -0.10760345
-0.16715479 -0.0026655775 -0.10761632
-0.16716345 -0.0025916938 -0.10764118
-0.16717257 -0.0025159139 -0.10766201
-0.1671823 -0.0024425052 -0.10766491
-0.16719235 -0.0023713373 -0.10765585
-0.16720247 -0.0022980999 -0.10765076
-0.16721231 -0.0022247341 -0.10765164
-0.16722174 -0.0021511959 -0.10766053
-0.16723099 -0.0020775702 -0.10767341
-0.16724063 -0.0020041177 -0.10767831
-0.16725105 -0.0019310107 -0.10766722
-0.16726051 -0.0018595839 -0.10767014
-0.16727002 -0.0017839773 -0.10768298
-0.16727917 -0.0017103087 -0.10769786
-0.16728878 -0.0016347449 -0.10770871
-0.16729823 -0.0015612058 -0.1077176
-0.16730759 -0.0014897352 -0.10772252
-0.16731739 -0.001414258 -0.10772938
-0.16732715 -0.0013429606 -0.10772631
-0.16733688 -0.001269551 -0.1077292
-0.16734642 -0.0011960547 -0.10773608
-0.16735636 -0.0011227326 -0.10773498
-0.16736656 -0.0010495409 -0.10772788
-0.16737652 -0.00097832829 -0.10772082
-0.16738684 -0.00090517756 -0.10771173
-0.16739719 -0.00083414 -0.10769668
-0.1674076 -0.00076103304 -0.1076856
-0.16741742 -0.00068766624 -0.10768649
-0.16742629 -0.00061386917 -0.10770735
-0.1674355 -0.00053813215 -0.10772619
-0.16744544 -0.00046481006 -0.10772509
-0.16745529 -0.0003935555 -0.10772002
-0.16746531 -0.00032027625 -0.10771693
-0.16747536 -0.00024910737 -0.10770787
-0.16748539 -0.00017582718 -0.10770477
-0.167495 -0.00010026433 -0.10771562
-0.16750415 -2.6595779e-05 -0.10773049
-0.16751346 4.9097463e-05 -0.10774734
-0.167523 0.00012259278 -0.10775422
-0.16753294 0.00019591581 -0.10775312
-0.16754279 0.00026717037 -0.10774805
-0.16755301 0.00034036301 -0.10774097
-0.16756293 0.00041368604 -0.10773987
-0.16757219 0.00048731081 -0.10775274
-0.16758189 0.00056283269 -0.10776159
-0.16759162 0.00063624047 -0.10776449
-0.16760096 0.0007098224 -0.10777537
-0.1676105 0.00078331865 -0.10778225
-0.16762072 0.00085651223 -0.10777516
-0.16763104 0.00092966203 -0.10776607
-0.16764079 0.0010009594 -0.10776301
-0.16765043 0.0010744119 -0.10776789
-0.16766043 0.0011498034 -0.10777076
-0.16767028 0.001221057 -0.10776569
-0.16768038 0.0012964057 -0.10776655
-0.16768992 0.0013699001 -0.10777344
-0.16769956 0.0014433526 -0.10777833
-0.16770929 0.0015167622 -0.10778122
-0.16771902 0.0015901718 -0.10778411
-0.16772866 0.0016636243 -0.10778901
-0.16773827 0.0017391872 -0.10779986
-0.16774793 0.0018105283 -0.10779878
-0.16775796 0.0018838085 -0.10779569
-0.16776769 0.0019572172 -0.10779858
-0.16777781 0.0020304536 -0.10779348
-0.16778784 0.002103732 -0.10779037
-0.16779786 0.0021770122 -0.10778729
-0.16780831 0.0022480087 -0.10777023
-0.16781874 0.0023190035 -0.10775319
-0.16782854 0.0023944797 -0.10776004
-0.1678367 0.0024706926 -0.10780085
-0.1678455 0.0025487132 -0.10783364
-0.16785476 0.002622338 -0.10784651
-0.16786496 0.0026955307 -0.10783942
-0.16787541 0.0027665272 -0.10782238
-0.16788524 0.0028398931 -0.10782328
-0.16789517 0.0029132161 -0.10782217
-0.1679052 0.0029864945 -0.10781907
-0.16791432 0.0030622743 -0.1078399
-0.16792423 0.0031377096 -0.10784477
-0.16793476 0.0032086615 -0.10782573
-0.16794471 0.0032798722 -0.10781866
-0.16795403 0.0033555664 -0.10783549
-0.16796345 0.0034312159 -0.10785035
-0.16797325 0.0035066921 -0.10785721
-0.16798308 0.0035800599 -0.1078581
-0.16799282 0.0036534686 -0.10786099
-0.16800265 0.0037268344 -0.10786188
-0.16801257 0.0038001575 -0.10786078
-0.16802269 0.0038733929 -0.10785569
-0.16803262 0.003946716 -0.10785458
-0.16804203 0.0040223654 -0.10786944
-0.16805087 0.0040982738 -0.10789626
-0.16806059 0.0041737966 -0.10790512
-0.16807079 0.0042469893 -0.10789803
-0.16808063 0.0043203551 -0.10789891
-0.16809024 0.0043959171 -0.10790977
-0.16809958 0.0044695009 -0.10792065
-0.16810922 0.0045429524 -0.10792554
-0.16811912 0.0046183877 -0.1079304
-0.16812915 0.004691666 -0.10792731
-0.16813937 0.0047648586 -0.10792021
-0.16814891 0.0048383549 -0.10792709
-0.16815822 0.0049140491 -0.10794394
-0.16816774 0.0049896538 -0.10795678
-0.16817728 0.0050631519 -0.10796367
-0.16818738 0.0051384978 -0.10796453
-0.16819701 0.0052119512 -0.10796943
-0.16820662 0.005287515 -0.10798028
-0.16821595 0.0053632092 -0.10799713
-0.16822538 0.0054367464 -0.10800601
-0.16823559 0.0055120513 -0.10800488
-0.16824512 0.0055855475 -0.10801176
-0.16825505 0.0056588706 -0.10801066
-0.16826555 0.0057319328 -0.10799757
-0.16827522 0.0058032721 -0.10799649
-0.16828503 0.0058787521 -0.10800336
-0.16829483 0.0059542283 -0.10801022
-0.16830415 0.0060299225 -0.10802706
-0.16831407 0.0061032437 -0.10802596
-0.16832483 0.0061719976 -0.10799696
-0.16833583 0.0062448476 -0.10797388
-0.16834517 0.0063184276 -0.10798477
-0.16835469 0.0063940343 -0.10799762
-0.16836472 0.0064673144 -0.10799452
-0.16837522 0.0065403786 -0.10798144
-0.16838564 0.0066134855 -0.10797034
-0.16839537 0.0066868924 -0.10797323
-0.16840521 0.006760262 -0.10797413
-0.16842392 0.0069137141 -0.10801177
-0.16843353 0.0069892798 -0.10802263
-0.16844323 0.0070647988 -0.10803148
-0.16845296 0.0071382094 -0.10803438
-0.16846307 0.0072135553 -0.10803525
-0.16847344 0.0072824825 -0.10801423
-0.16848455 0.0073531754 -0.10798321
-0.1684947 0.0074243005 -0.10797214
-0.16850473 0.0074975807 -0.10796905
-0.16851473 0.0075729731 -0.10797191
-0.16852434 0.0076485351 -0.10798275
-0.16853398 0.0077219885 -0.10798766
-0.1685448 0.00779281 -0.10796262
-0.16855606 0.0078592375 -0.10791767
-0.1685672 0.0079299305 -0.10788663
-0.16857754 0.008000968 -0.10787158
-0.16858758 0.0080721378 -0.10786252
-0.1685985 0.0081429165 -0.10783548
-0.16860937 0.0082116276 -0.10780448
-0.1686198 0.0082826242 -0.10778743
-0.16862921 0.0083582737 -0.10780228
-0.1686381 0.0084383618 -0.10783904
-0.16264378 -0.035187699 -0.11018474
-0.16265351 -0.035114288 -0.11018763
-0.16266285 -0.035040706 -0.11019851
-0.16267307 -0.034967512 -0.11019141
-0.16268346 -0.034892295 -0.11018629
-0.16269214 -0.034820523 -0.1102052
-0.16270223 -0.034745175 -0.11020606
-0.16271283 -0.034670044 -0.11019693
-0.16272256 -0.034596637 -0.11019982
-0.1627322 -0.034523182 -0.11020472
-0.16274182 -0.03444973 -0.11020961
-0.16275156 -0.034376319 -0.1102125
-0.16276091 -0.034302741 -0.11022338
-0.16276997 -0.034231137 -0.11023429
-0.16278008 -0.03415579 -0.11023516
-0.16278981 -0.034082383 -0.11023805
-0.16279934 -0.034008883 -0.11024494
-0.1628089 -0.03393539 -0.11025183
-0.16281882 -0.033862069 -0.11025073
-0.16282901 -0.033786763 -0.11024959
-0.16283865 -0.033713311 -0.11025448
-0.16284762 -0.033641666 -0.11026739
-0.16285726 -0.033568215 -0.11027229
-0.16286775 -0.033493038 -0.11026516
-0.16287784 -0.033417694 -0.11026602
-0.16288768 -0.033344328 -0.11026692
-0.16289817 -0.033269152 -0.11025979
-0.1629079 -0.033195741 -0.11026268
-0.16291659 -0.03312397 -0.11028159
-0.16292527 -0.033052199 -0.11030048
-0.16293576 -0.032977022 -0.11029336
-0.16294596 -0.032901719 -0.11029223
-0.16295569 -0.032828309 -0.11029512
-0.16296598 -0.03275305 -0.110292
-0.16297533 -0.032679461 -0.11030287
-0.1629841 -0.032607734 -0.11031978
-0.16299355 -0.032534197 -0.11032866
-0.16300263 -0.032462597 -0.11033957
-0.1630114 -0.032390866 -0.11035647
-0.16302159 -0.03231556 -0.11035535
-0.16303304 -0.032238707 -0.11033421
-0.16304342 -0.032163486 -0.11032909
-0.16305296 -0.032089993 -0.11033597
-0.1630628 -0.032016627 -0.11033687
-0.16307233 -0.031943131 -0.11034375
-0.16308178 -0.03186959 -0.11035264
-0.16309102 -0.031795967 -0.11036552
-0.1630999 -0.031724282 -0.11038043
-0.16310897 -0.031652682 -0.11039133
-0.16311927 -0.031577416 -0.1103882
-0.16312985 -0.031502288 -0.11037908
-0.16314034 -0.031427115 -0.11037195
-0.16315044 -0.031351767 -0.11037283
-0.16316007 -0.031278312 -0.11037771
-0.16316915 -0.031206714 -0.11038863
-0.1631784 -0.031133087 -0.1104015
-0.16318859 -0.031057782 -0.11040038
-0.16319823 -0.030984333 -0.11040527
-0.1632074 -0.030912774 -0.11041418
-0.16321684 -0.030839235 -0.11042306
-0.16322619 -0.030765655 -0.11043394
-0.16323608 -0.030690219 -0.1104388
-0.1632463 -0.030617027 -0.11043171
-0.16325651 -0.030541722 -0.11043058
-0.16326594 -0.030468185 -0.11043946
-0.16327558 -0.030394729 -0.11044435
-0.16328588 -0.030319469 -0.11044122
-0.16329609 -0.030246276 -0.11043413
-0.16330619 -0.030170929 -0.11043499
-0.16331583 -0.030097475 -0.11043988
-0.16332603 -0.030022172 -0.11043875
-0.16333567 -0.029948719 -0.11044364
-0.16368522 -0.027471576 -0.11013272
-0.16369551 -0.027396314 -0.11012959
-0.16382018 -0.026985239 -0.10878888
-0.16386384 -0.026748313 -0.10856157
-0.16387606 -0.026671804 -0.10852446
-0.16389211 -0.026590688 -0.10842534
-0.16390651 -0.02651095 -0.10835423
-0.16392046 -0.02643311 -0.10828712
-0.16393258 -0.026356559 -0.10825201
-0.16394444 -0.026281986 -0.10821692
-0.16395704 -0.026205651 -0.10817184
-0.16396841 -0.026130866 -0.10814673
-0.16397929 -0.026055865 -0.10813162
-0.16399075 -0.025981121 -0.10810453
-0.16407563 -0.025634328 -0.10736612
-0.16408767 -0.025559846 -0.10732704
-0.16410008 -0.025483424 -0.10728594
-0.16411383 -0.025405494 -0.10722284
-0.16412617 -0.025331141 -0.10717776
-0.1641382 -0.025254546 -0.10714465
-0.16415121 -0.025178384 -0.10709156
-0.16416286 -0.025103725 -0.10706047
-0.16417357 -0.025030751 -0.10704339
-0.16418503 -0.024956007 -0.1070163
-0.16419783 -0.024879757 -0.10696721
-0.16421008 -0.02480536 -0.10692413
-0.16422115 -0.024730444 -0.10690504
-0.16423127 -0.024657208 -0.10689993
-0.16424198 -0.024584232 -0.10688285
-0.16425364 -0.024509575 -0.10685176
-0.16426386 -0.024436383 -0.10684466
-0.16427267 -0.024366762 -0.10685562
-0.1642824 -0.024293354 -0.10685851
-0.16429242 -0.024220075 -0.10685541
-0.16430284 -0.024146968 -0.10684432
-0.16431345 -0.024073947 -0.10682923
-0.16432272 -0.024002433 -0.10683616
-0.1643315 -0.023930704 -0.10685305
-0.16434057 -0.023859102 -0.10686396
-0.1643509 -0.023785954 -0.10685488
-0.16436189 -0.023713106 -0.10683181
-0.16437297 -0.023638191 -0.1068127
-0.16438319 -0.023564998 -0.10680561
-0.16439141 -0.023495119 -0.10682853
-0.1643998 -0.023423217 -0.10685343
-0.16440926 -0.023351789 -0.10685634
-0.1644191 -0.023278423 -0.10685724
-0.16442846 -0.023206953 -0.10686215
-0.16443802 -0.023135569 -0.10686309
-0.16444786 -0.023062203 -0.10686398
-0.16445807 -0.02298901 -0.10685689
-0.16446802 -0.022917798 -0.10684982
-0.16447785 -0.022844434 -0.10685072
-0.16448778 -0.022771111 -0.10684962
-0.16449791 -0.022697873 -0.10684451
-0.16450746 -0.022626489 -0.10684544
-0.16451703 -0.022555105 -0.10684638
-0.16452706 -0.022481825 -0.10684327
-0.16453663 -0.022410441 -0.1068442
-0.1645453 -0.022338668 -0.1068631
-0.16455398 -0.022266895 -0.106882
-0.1645644 -0.022193789 -0.1068709
-0.16457531 -0.022120897 -0.10684983
-0.16458504 -0.022047488 -0.10685273
-0.16459362 -0.021975672 -0.10687362
-0.16460204 -0.02190588 -0.10689256
-0.16461207 -0.0218326 -0.10688946
-0.16462258 -0.021759536 -0.10687637
-0.16463214 -0.021688154 -0.10687729
-0.16464159 -0.021614615 -0.10688618
-0.16465114 -0.021543231 -0.1068871
-0.16466156 -0.021470124 -0.10687602
-0.16467158 -0.021396844 -0.10687291
-0.16468076 -0.021325286 -0.10688183
-0.16469049 -0.021251876 -0.10688472
-0.16470034 -0.021180622 -0.10687966
-0.16471057 -0.02110743 -0.10687256
-0.16472013 -0.021036046 -0.10687349
-0.16472976 -0.020962594 -0.10687838
-0.16473998 -0.020889401 -0.10687128
-0.16475078 -0.020816466 -0.1068522
-0.16476054 -0.020745169 -0.10684913
-0.16476923 -0.020673394 -0.10686804
-0.16477782 -0.02060158 -0.10688894
-0.16478659 -0.020529849 -0.10690583
-0.16479634 -0.020456441 -0.10690873
-0.16480599 -0.020385098 -0.10690766
-0.16481641 -0.020311993 -0.10689657
-0.16482653 -0.020238757 -0.10689147
-0.1648359 -0.020167286 -0.10689639
-0.16484572 -0.02009392 -0.10689729
-0.16485587 -0.020022795 -0.10688624
-0.1648659 -0.019949514 -0.10688313
-0.16487536 -0.019878088 -0.10688605
-0.16488539 -0.019804807 -0.10688296
-0.16489542 -0.019731529 -0.10687985
-0.16490498 -0.019660145 -0.10688078
-0.1649148 -0.019586779 -0.10688167
-0.16492407 -0.019515263 -0.10688859
-0.16493364 -0.019443881 -0.10688952
-0.16494375 -0.019370643 -0.10688443
-0.16495417 -0.019297536 -0.10687333
-0.16496404 -0.019226283 -0.10686827
-0.16497405 -0.019153003 -0.10686517
-0.16498408 -0.019079722 -0.10686208
-0.16499326 -0.019008167 -0.10687099
-0.16500214 -0.018936479 -0.10688589
-0.1650116 -0.018865053 -0.10688881
-0.16502133 -0.018791642 -0.10689171
-0.16503021 -0.018719956 -0.10690662
-0.16503929 -0.018648356 -0.10691752
-0.16504845 -0.018576797 -0.10692643
-0.1650577 -0.018503174 -0.10693931
-0.16506687 -0.018431615 -0.10694823
-0.1650767 -0.018358249 -0.10694912
-0.16508588 -0.018286694 -0.10695803
-0.16509524 -0.018215222 -0.10696296
-0.16510615 -0.018142331 -0.10694189
-0.16511676 -0.018069312 -0.1069268
-0.16512544 -0.017997539 -0.1069457
-0.16513422 -0.017925808 -0.1069626
-0.1651431 -0.017854122 -0.10697751
-0.16515215 -0.01778041 -0.10699438
-0.16516122 -0.01770881 -0.10700528
-0.16517097 -0.017635401 -0.10700818
-0.16518043 -0.017563973 -0.10701111
-0.16518998 -0.017492589 -0.10701203
-0.16519962 -0.017419137 -0.10701692
-0.1652087 -0.017347537 -0.10702783
-0.16521774 -0.017273825 -0.1070447
-0.16522673 -0.017202182 -0.10705761
-0.165236 -0.017130667 -0.10706452
-0.16524592 -0.017057344 -0.10706342
-0.16525578 -0.016986091 -0.10705836
-0.1652661 -0.016912941 -0.10704928
-0.16527566 -0.016841557 -0.1070502
-0.16528589 -0.016768362 -0.1070431
-0.1652962 -0.016695213 -0.10703401
-0.16530547 -0.0166237 -0.10704093
-0.16531511 -0.016550247 -0.10704581
-0.16532438 -0.016478732 -0.10705274
-0.16533266 -0.016406786 -0.10707962
-0.16534086 -0.016334798 -0.10710851
-0.16534974 -0.016263111 -0.10712342
-0.16535968 -0.016189788 -0.10712232
-0.16536903 -0.016118318 -0.10712723
-0.16537848 -0.016044779 -0.10713612
-0.16538824 -0.01597348 -0.10713305
-0.16539875 -0.015900418 -0.10711996
-0.16540927 -0.015827354 -0.10710687
-0.16541912 -0.015756099 -0.10710181
-0.16542874 -0.015682647 -0.1071067
-0.16543868 -0.015609324 -0.1071056
-0.16544804 -0.015537853 -0.10711052
-0.16545711 -0.015466253 -0.10712143
-0.16546626 -0.015392585 -0.10713631
-0.16547544 -0.015321027 -0.10714522
-0.16548479 -0.015247446 -0.10715609
-0.16549376 -0.015175802 -0.107169
-0.16550398 -0.01510261 -0.10716192
-0.16551423 -0.015031528 -0.10714886
-0.16552493 -0.01495855 -0.10713178
-0.16553564 -0.014885574 -0.1071147
-0.16554472 -0.014813973 -0.10712561
-0.16555357 -0.014740175 -0.10714648
-0.16556254 -0.014668532 -0.10715938
-0.16557142 -0.014596844 -0.10717428
-0.16558057 -0.014523176 -0.10718917
-0.16559003 -0.014451749 -0.10719209
-0.16559967 -0.014378296 -0.10719698
-0.16560972 -0.014307128 -0.10718792
-0.16562043 -0.014234151 -0.10717084
-0.16563085 -0.014161045 -0.10715976
-0.1656405 -0.014089704 -0.10715868
-0.16564976 -0.014016078 -0.10717156
-0.16565873 -0.013944435 -0.10718446
-0.16566819 -0.013873007 -0.10718739
-0.16567811 -0.013799684 -0.10718629
-0.16568883 -0.013726708 -0.10716921
-0.16569839 -0.013655324 -0.10717013
-0.16570735 -0.013581568 -0.107189
-0.16571642 -0.013509968 -0.10719991
-0.16572644 -0.013436688 -0.10719681
-0.16573639 -0.013365477 -0.10718975
-0.16574652 -0.013292241 -0.10718466
-0.16575599 -0.013220813 -0.10718758
-0.16576503 -0.013147102 -0.10720445
-0.16577294 -0.013074983 -0.10723933
-0.1657815 -0.013001055 -0.10726619
-0.16579068 -0.012929498 -0.1072751
-0.16580041 -0.012856089 -0.10727799
-0.16580959 -0.012784531 -0.1072869
-0.16581932 -0.012711123 -0.1072898
-0.16582917 -0.012639868 -0.10728473
-0.16583978 -0.012566848 -0.10726965
-0.16585009 -0.012493698 -0.10726056
-0.16586034 -0.012422616 -0.1072475
-0.16587153 -0.012349855 -0.10722044
-0.16588159 -0.012278687 -0.10721137
-0.16589025 -0.012204803 -0.10723624
-0.16589871 -0.012130831 -0.10726509
-0.16590701 -0.012058886 -0.10729198
-0.16591595 -0.011985131 -0.10731085
-0.16592571 -0.011913833 -0.10730778
-0.16593604 -0.011840682 -0.10729869
-0.1659455 -0.011769256 -0.10730162
-0.16595533 -0.01169589 -0.10730251
-0.16596545 -0.011622653 -0.10729741
-0.16597579 -0.011551615 -0.10728236
-0.16598602 -0.011478421 -0.10727527
-0.1659949 -0.011406735 -0.10729018
-0.16600443 -0.011333239 -0.10729706
-0.1660139 -0.011261811 -0.10729998
-0.16602305 -0.011188144 -0.10731485
-0.16603239 -0.011114561 -0.10732574
-0.16604185 -0.011043134 -0.10732866
-0.16605178 -0.010969811 -0.10732756
-0.16606095 -0.010898254 -0.10733647
-0.16606951 -0.010824326 -0.10736334
-0.16607876 -0.010750702 -0.10737621
-0.16608852 -0.010679403 -0.10737315
-0.16609874 -0.010606211 -0.10736605
-0.16610909 -0.010535171 -0.107351
-0.1661191 -0.010461892 -0.1073479
-0.16612874 -0.01038844 -0.10735279
-0.16613801 -0.010316926 -0.1073597
-0.16614735 -0.010243344 -0.10737058
-0.16615708 -0.010169934 -0.10737348
-0.16616714 -0.010098767 -0.10736442
-0.16617754 -0.01002566 -0.10735333
-0.1661879 -0.0099546211 -0.10733827
-0.16619791 -0.0098813418 -0.10733518
-0.16620699 -0.0098097418 -0.1073461
-0.16621624 -0.009736116 -0.10735897
-0.16622558 -0.0096625341 -0.10736985
-0.16623534 -0.0095912367 -0.10736679
-0.16624574 -0.0095181298 -0.1073557
-0.16625561 -0.0094468752 -0.10735063
-0.16626485 -0.0093732495 -0.10736351
-0.16627371 -0.0092994515 -0.10738438
-0.16628325 -0.0092259562 -0.10739125
-0.16629329 -0.0091547873 -0.1073822
-0.16630332 -0.009081509 -0.10737909
-0.16631287 -0.009010124 -0.10738003
-0.16632329 -0.008937018 -0.10736894
-0.16633296 -0.0088656768 -0.10736787
-0.16634201 -0.0087919645 -0.10738473
-0.16635077 -0.0087181237 -0.10740761
-0.1663605 -0.008644715 -0.10741049
-0.16637045 -0.0085735032 -0.10740343
-0.16638057 -0.0085002668 -0.10739833
-0.16639003 -0.008428839 -0.10740125
-0.16639929 -0.0083552143 -0.10741413
-0.16640872 -0.0082816752 -0.10742301
-0.16641855 -0.0082083093 -0.10742392
-0.16642801 -0.0081368815 -0.10742684
-0.16643794 -0.0080635585 -0.10742573
-0.16644816 -0.0079903658 -0.10741863
-0.16645783 -0.0079190247 -0.10741756
-0.16646785 -0.0078457454 -0.10741447
-0.1664778 -0.0077745337 -0.10740741
-0.16648793 -0.0077012978 -0.10740232
-0.16649833 -0.0076281908 -0.10739123
-0.16650897 -0.0075572822 -0.10737018
-0.166519 -0.0074840025 -0.10736708
-0.16652769 -0.0074122297 -0.10738598
-0.16653712 -0.0073386906 -0.10739486
-0.16654803 -0.0072657997 -0.10737379
-0.16655886 -0.0071949773 -0.10734875
-0.16656891 -0.0071238093 -0.1073397
-0.16657814 -0.0070501836 -0.10735257
-0.16658701 -0.0069763861 -0.10737344
-0.16659577 -0.0069025448 -0.1073963
-0.16660462 -0.0068287463 -0.10741717
-0.16661358 -0.0067549916 -0.10743604
-0.16662359 -0.0066817119 -0.10743294
-0.16663404 -0.0066107167 -0.10741588
-0.16664416 -0.0065374807 -0.10741079
-0.16665392 -0.0064661829 -0.10740773
-0.16666384 -0.0063928599 -0.10740662
-0.16667359 -0.0063194507 -0.10740951
-0.16668245 -0.0062477645 -0.10742442
-0.16669171 -0.0061741392 -0.1074373
-0.16670114 -0.0061006001 -0.10744618
-0.16671078 -0.0060271476 -0.10745107
-0.16672051 -0.0059537385 -0.10745396
-0.16672957 -0.0058800271 -0.10747084
-0.16673823 -0.0058061425 -0.1074957
-0.16674708 -0.0057323445 -0.10751656
-0.16675662 -0.0056588491 -0.10752346
-0.16676687 -0.0055877673 -0.1075104
-0.16677748 -0.005514747 -0.10749532
-0.16678701 -0.0054412512 -0.1075022
-0.16679548 -0.0053672804 -0.10753105
-0.16680405 -0.0052933525 -0.10755791
-0.16681299 -0.0052195983 -0.10757679
-0.16682273 -0.0051461887 -0.10757968
-0.16683315 -0.0050730826 -0.10756859
-0.16684358 -0.005002087 -0.10755154
-0.1668538 -0.0049288934 -0.10754445
-0.16686326 -0.0048574666 -0.10754737
-0.16687271 -0.0047839275 -0.10755625
-0.16688195 -0.0047103018 -0.10756913
-0.1668912 -0.004636677 -0.10758202
-0.16690083 -0.0045632245 -0.1075869
-0.16691008 -0.0044895997 -0.10759978
-0.16691981 -0.0044161901 -0.10760267
-0.16692993 -0.0043429537 -0.10759757
-0.16693978 -0.0042716991 -0.10759251
-0.16694961 -0.0041983332 -0.1075934
-0.16695896 -0.0041247513 -0.10760428
-0.16696841 -0.0040512122 -0.10761317
-0.16697842 -0.003977933 -0.10761007
-0.16698857 -0.0039068079 -0.10759901
