# .PCD v0.7 - Point Cloud Data file format
VERSION 0.7
FIELDS x y z
SIZE 4 4 4
TYPE F F F
COUNT 1 1 1
WIDTH 1254
HEIGHT 1
VIEWPOINT 0 0 0 1 0 0 0
POINTS 1254
DATA ascii
-0.012673499 -0.024327975 -0.099993728
-0.012683352 -0.024256721 -0.099988662
-0.012693472 -0.024183484 -0.099983573
-0.012703326 -0.024112228 -0.099978499
-0.012713154 -0.024038862 -0.099979401
-0.012722129 -0.02396722 -0.099992312
-0.012731568 -0.02389368 -0.10000119
-0.012741396 -0.023820315 -0.10000209
-0.012750859 -0.023748886 -0.10000502
-0.012760883 -0.023675606 -0.10000192
-0.012770345 -0.023604179 -0.10000484
-0.012779979 -0.023530727 -0.10000974
-0.012790392 -0.023457618 -0.099998653
-0.012800829 -0.023386624 -0.099981599
-0.012810561 -0.023313213 -0.099984497
-0.012819439 -0.023241527 -0.099999405
-0.01282878 -0.023167945 -0.10001028
-0.012838243 -0.023096517 -0.10001321
-0.012847291 -0.023022806 -0.10003008
-0.012855974 -0.022951033 -0.10004898
-0.012865608 -0.022877581 -0.10005388
-0.012874973 -0.02280611 -0.10005879
-0.012884704 -0.022732701 -0.10006169
-0.012894752 -0.022661531 -0.10005262
-0.012905262 -0.022588467 -0.10003954
-0.012915872 -0.022515448 -0.10002446
-0.012926285 -0.022442341 -0.10001338
-0.012935553 -0.022370826 -0.1000203
-0.012944235 -0.022299053 -0.1000392
-0.012953479 -0.022225428 -0.10005207
-0.01296304 -0.022154044 -0.10005301
-0.012974038 -0.022081194 -0.10002994
-0.012985134 -0.022008389 -0.10000487
-0.012994109 -0.021936746 -0.10001779
-0.013002378 -0.021862689 -0.10005063
-0.013010963 -0.021790873 -0.10007153
-0.013021572 -0.021717854 -0.10005645
-0.013032667 -0.021645049 -0.10003138
-0.01304213 -0.02157362 -0.10003431
-0.013050886 -0.021499779 -0.10005718
-0.013058985 -0.021427747 -0.10008806
-0.013067253 -0.02135369 -0.1001209
-0.01307613 -0.021282004 -0.10013582
-0.013085593 -0.021210575 -0.10013875
-0.013095519 -0.021137252 -0.10013764
-0.013105445 -0.021063929 -0.10013655
-0.013115469 -0.020990651 -0.10013344
-0.013125712 -0.020919569 -0.10012038
-0.013136223 -0.020846505 -0.1001073
-0.013147026 -0.020773569 -0.10008823
-0.013157465 -0.020702574 -0.10007118
-0.013167975 -0.02062951 -0.1000581
-0.013177242 -0.020557996 -0.10006502
-0.013186097 -0.020484198 -0.10008588
-0.01319439 -0.020412251 -0.10011277
-0.013203243 -0.020338455 -0.10013364
-0.013212876 -0.020265002 -0.10013854
-0.013222827 -0.020193789 -0.10013147
-0.013233338 -0.020120727 -0.10011839
-0.013242606 -0.020049213 -0.10012531
-0.013251849 -0.019975588 -0.10013819
-0.013262751 -0.019902695 -0.10011712
-0.013273871 -0.019832002 -0.10008609
-0.013283893 -0.019758722 -0.10008299
-0.013292455 -0.019684795 -0.10010985
-0.013300553 -0.019612763 -0.10014074
-0.013309602 -0.019539051 -0.1001576
-0.013318967 -0.019467581 -0.10016253
-0.013328698 -0.01939417 -0.10016542
-0.013338428 -0.019320762 -0.10016831
-0.013347599 -0.019249205 -0.10017724
-0.01335655 -0.019175449 -0.10019611
-0.013365502 -0.019101694 -0.10021497
-0.013374964 -0.019030267 -0.1002179
-0.013385475 -0.018957203 -0.10020481
-0.013395717 -0.018886121 -0.10019176
-0.013406228 -0.018813057 -0.10017868
-0.01341596 -0.018739648 -0.10018157
-0.013424642 -0.018667875 -0.10020047
-0.013433691 -0.018594164 -0.10021735
-0.013443422 -0.018520754 -0.10022024
-0.013453471 -0.018449586 -0.10021118
-0.013464078 -0.018376565 -0.1001961
-0.013474711 -0.018305656 -0.10017506
-0.013484832 -0.018232418 -0.10016996
-0.013494271 -0.018158879 -0.10017885
-0.013503538 -0.018087365 -0.10018577
-0.013512783 -0.01801374 -0.10019865
-0.013522513 -0.017940331 -0.10020155
-0.013532463 -0.017869119 -0.10019448
-0.013542682 -0.017795926 -0.10018738
-0.013552413 -0.017722517 -0.10019029
-0.013561096 -0.017650744 -0.10020919
-0.013570339 -0.017577119 -0.10022207
-0.013580656 -0.017503968 -0.10021298
-0.013590606 -0.017432757 -0.10020592
-0.013600727 -0.017359519 -0.10020082
-0.013610775 -0.017288351 -0.10019176
-0.013620798 -0.017215071 -0.10018867
-0.013630529 -0.017141663 -0.10019156
-0.013639601 -0.017070062 -0.10020247
-0.013648748 -0.016996393 -0.10021734
-0.013658186 -0.016922854 -0.10022623
-0.013667649 -0.016851427 -0.10022917
-0.01367738 -0.016778018 -0.10023205
-0.013687014 -0.016704565 -0.10023694
-0.01369616 -0.016630895 -0.10025182
-0.013705404 -0.016557271 -0.1002647
-0.013715159 -0.016485972 -0.10026163
-0.013724987 -0.016412606 -0.10026253
-0.013734937 -0.016341396 -0.10025547
-0.013745546 -0.016268374 -0.10024039
-0.013755472 -0.016195051 -0.10023928
-0.01376513 -0.01612371 -0.10023822
-0.013775446 -0.016050559 -0.10022912
-0.013785688 -0.015979476 -0.10021608
-0.013795712 -0.015906198 -0.10021298
-0.01380554 -0.01583283 -0.10021388
-0.013815198 -0.015761491 -0.1002128
-0.013824929 -0.01568808 -0.1002157
-0.013834661 -0.015614672 -0.10021859
-0.013845392 -0.015543805 -0.10019554
-0.013856292 -0.015470914 -0.10017448
-0.013865365 -0.015399313 -0.10018539
-0.013874389 -0.01532349 -0.10020822
-0.013882974 -0.015251674 -0.10022913
-0.013892315 -0.015178092 -0.10024001
-0.013901949 -0.01510464 -0.1002449
-0.013911679 -0.015031231 -0.1002478
-0.013921825 -0.014960105 -0.10023674
-0.013932531 -0.014887127 -0.10021966
-0.013942579 -0.014815958 -0.1002106
-0.013952212 -0.014742507 -0.10021549
-0.013961554 -0.014668925 -0.10022637
-0.01397031 -0.014595084 -0.10024924
-0.013979359 -0.014521372 -0.10026611
-0.013989381 -0.014448091 -0.10026301
-0.013999137 -0.014376794 -0.10025995
-0.014009063 -0.014303471 -0.10025885
-0.014018989 -0.014230148 -0.10025775
-0.014028038 -0.014156437 -0.10027462
-0.014036306 -0.01408238 -0.10030748
-0.014045355 -0.014008668 -0.10032435
-0.014055086 -0.013935259 -0.10032725
-0.014065231 -0.013864134 -0.10031619
-0.014075352 -0.013790896 -0.10031109
-0.014084303 -0.013717142 -0.10032997
-0.014092962 -0.013643257 -0.10035483
-0.014102302 -0.013569675 -0.10036571
-0.014111936 -0.013496223 -0.1003706
-0.014121667 -0.013422813 -0.10037349
-0.014132081 -0.013349706 -0.10036241
-0.014142519 -0.013278711 -0.10034537
-0.014152469 -0.013207499 -0.1003383
-0.014162201 -0.013134089 -0.10034119
-0.014171931 -0.013060681 -0.10034409
-0.014181272 -0.012987098 -0.10035498
-0.014190613 -0.012913516 -0.10036585
-0.014199954 -0.012839934 -0.10037674
-0.014209003 -0.012766222 -0.10039362
-0.014218539 -0.012692727 -0.10040049
-0.014228465 -0.012619404 -0.1003994
-0.014238489 -0.012546124 -0.1003963
-0.014248341 -0.012474869 -0.10039123
-0.014258267 -0.012401546 -0.10039014
-0.014268096 -0.01232818 -0.10039104
-0.014277925 -0.012254814 -0.10039192
-0.014287582 -0.012183473 -0.10039086
-0.014297215 -0.01211002 -0.10039575
-0.014306435 -0.012034284 -0.10041459
-0.014315679 -0.011960658 -0.10042748
-0.014325311 -0.011887207 -0.10043237
-0.014334775 -0.011815778 -0.10043529
-0.014344798 -0.011742499 -0.10043218
-0.014355309 -0.011669435 -0.10041911
-0.014365552 -0.011598352 -0.10040605
-0.014375381 -0.011524986 -0.10040694
-0.014384722 -0.011451405 -0.10041783
-0.014394453 -0.011377995 -0.10042072
-0.014404599 -0.01130687 -0.10040966
-0.014415134 -0.011235917 -0.10039063
-0.014425449 -0.011162765 -0.10038153
-0.014434596 -0.011089097 -0.10039641
-0.014443643 -0.011015385 -0.10041329
-0.014453253 -0.010939823 -0.10042414
-0.014462497 -0.010866198 -0.10043702
-0.014472325 -0.010792831 -0.10043792
-0.014482373 -0.010721663 -0.10042886
-0.014492592 -0.010648469 -0.10042176
-0.014502225 -0.010575017 -0.10042666
-0.014511176 -0.010501262 -0.10044552
-0.014520591 -0.010425611 -0.10046037
-0.014530322 -0.010352203 -0.10046327
-0.014540175 -0.010280947 -0.1004582
-0.014550978 -0.010208013 -0.10043913
-0.014560636 -0.010136671 -0.10043807
-0.014569758 -0.010060892 -0.1004589
-0.014579099 -0.0099873105 -0.10046978
-0.014588732 -0.009913858 -0.10047468
-0.014598366 -0.0098404046 -0.10047957
-0.014608195 -0.0097670387 -0.10048045
-0.014617828 -0.0096935863 -0.10048535
-0.014627461 -0.0096201338 -0.10049024
-0.01463729 -0.0095467689 -0.10049114
-0.014647119 -0.0094734021 -0.10049204
-0.014656947 -0.0094000362 -0.10049293
-0.014666897 -0.0093288235 -0.10048587
-0.014677018 -0.0092555871 -0.10048078
-0.01468714 -0.0091823507 -0.10047568
-0.014697578 -0.0091113541 -0.10045864
-0.01470782 -0.0090402719 -0.10044558
-0.014717721 -0.0089648375 -0.10045045
-0.014726771 -0.0088911261 -0.10046731
-0.014735795 -0.0088153034 -0.10049016
-0.014745526 -0.0087418938 -0.10049305
-0.014755671 -0.0086707687 -0.10048199
-0.014765987 -0.008597618 -0.1004729
-0.014775718 -0.0085242093 -0.1004758
-0.014785181 -0.0084527824 -0.10047872
-0.014795277 -0.0083774338 -0.1004796
-0.014804522 -0.008303808 -0.10049247
-0.01481396 -0.008230269 -0.10050135
-0.014824178 -0.0081570763 -0.10049427
-0.014834031 -0.0080858208 -0.1004892
-0.01484386 -0.008012455 -0.10049009
-0.014853884 -0.0079391748 -0.100487
-0.01486381 -0.0078658517 -0.1004859
-0.014873344 -0.0077923574 -0.10049278
-0.014882784 -0.0077188183 -0.10050167
-0.014892295 -0.0076432107 -0.10051452
-0.014901539 -0.007569585 -0.1005274
-0.014911441 -0.0074941516 -0.10053226
-0.014921684 -0.0074230693 -0.10051921
-0.014931927 -0.0073519861 -0.10050616
-0.014941828 -0.0072765527 -0.10051101
-0.014951266 -0.0072030146 -0.1005199
-0.014961583 -0.0071298638 -0.10051081
-0.014971631 -0.007058695 -0.10050176
-0.014981069 -0.0069851568 -0.10051064
-0.014990776 -0.0069096349 -0.10051949
-0.015000897 -0.0068363985 -0.1005144
-0.015010823 -0.0067630764 -0.1005133
-0.015020456 -0.006689623 -0.10051819
-0.015029895 -0.0066160848 -0.10052708
-0.015039407 -0.0065404773 -0.10053993
-0.015048968 -0.0064690933 -0.10054085
-0.015059259 -0.0063938322 -0.10053773
-0.01506899 -0.0063204225 -0.10054062
-0.015078648 -0.0062490813 -0.10053955
-0.015089159 -0.0061760172 -0.10052647
-0.015099402 -0.006104935 -0.10051342
-0.01510962 -0.0060317414 -0.10050632
-0.015119765 -0.0059606163 -0.10049526
-0.015129594 -0.0058872495 -0.10049617
-0.015137888 -0.0058069024 -0.1005449
-0.015146034 -0.0057306904 -0.10058571
-0.015156155 -0.005657454 -0.10058062
-0.015166594 -0.0055864593 -0.10056357
-0.015177007 -0.0055133514 -0.10055248
-0.015186835 -0.0054399855 -0.10055339
-0.015196566 -0.005366575 -0.10055627
-0.01520659 -0.0052932948 -0.10055318
-0.015216028 -0.0052197576 -0.10056207
-0.015225638 -0.0051441938 -0.10057291
-0.015235686 -0.005073024 -0.10056385
-0.015246002 -0.0049998742 -0.10055477
-0.015255708 -0.0049243532 -0.10056362
-0.015264757 -0.0048506428 -0.10058049
-0.015274171 -0.0047749914 -0.10059535
-0.015284073 -0.004699558 -0.10060021
-0.015293999 -0.0046262369 -0.1005991
-0.015303925 -0.004552912 -0.10059801
-0.015313754 -0.0044795461 -0.10059891
-0.015323777 -0.0044062659 -0.1005958
-0.015333898 -0.0043330286 -0.10059071
-0.015343434 -0.0042595342 -0.1005976
-0.015352653 -0.0041837972 -0.10061643
-0.015362775 -0.0041105617 -0.10061134
-0.015372896 -0.0040373243 -0.10060626
-0.015382505 -0.0039617606 -0.1006171
-0.015391652 -0.0038880929 -0.10063199
-0.015401358 -0.003812572 -0.10064084
-0.015410991 -0.0037391186 -0.10064573
-0.015421088 -0.0036637709 -0.1006466
-0.015430917 -0.003590405 -0.10064749
-0.015440647 -0.0035169944 -0.10065039
-0.015450257 -0.0034414325 -0.10066125
-0.015459598 -0.0033678506 -0.10067212
-0.015469501 -0.0032924153 -0.10067698
-0.015479524 -0.003219137 -0.10067389
-0.015489353 -0.0031457674 -0.10067478
-0.015499059 -0.0030702502 -0.10068364
-0.015508302 -0.0029966235 -0.10069653
-0.015517814 -0.0029210169 -0.10070937
-0.015527814 -0.0028456263 -0.10071223
-0.015537642 -0.0027722605 -0.10071313
-0.015547081 -0.0026987232 -0.10072201
-0.015557105 -0.0026254412 -0.10071892
-0.015567616 -0.0025523789 -0.10070584
-0.015577444 -0.0024790112 -0.10070673
-0.015586883 -0.0024054721 -0.10071561
-0.015596686 -0.0023299959 -0.10072248
-0.01560632 -0.0022565424 -0.10072737
-0.015616709 -0.0021813251 -0.10072224
-0.015626976 -0.0021123532 -0.10070323
-0.015637586 -0.0020393319 -0.10068815
-0.015647292 -0.001963811 -0.100697
-0.015656829 -0.0018903166 -0.1007039
-0.015667047 -0.0018171221 -0.1006968
-0.015677266 -0.0017439276 -0.1006897
-0.01568741 -0.0016728025 -0.10067865
-0.015697435 -0.0015995242 -0.10067556
-0.015707433 -0.0015241336 -0.10067842
-0.015717456 -0.0014508516 -0.10067532
-0.015725946 -0.0013705902 -0.10072007
-0.015736165 -0.0012973994 -0.10071298
-0.015745383 -0.0012216624 -0.10073182
-0.0157547 -0.0011459682 -0.10074866
-0.015764797 -0.0010706205 -0.10074953
-0.015775356 -0.001001779 -0.10072453
-0.015786598 -0.0009332411 -0.10068554
-0.015797133 -0.00086228736 -0.10066649
-0.015807157 -0.00078900531 -0.1006634
-0.015817156 -0.00071361661 -0.10066626
-0.015826765 -0.00063805282 -0.10067711
-0.015836082 -0.00056235865 -0.10069396
-0.015845887 -0.0004868824 -0.10070082
-0.015869102 -0.00035432726 -0.10059694
-0.015879758 -0.0002855286 -0.10056993
-0.015890002 -0.0002144482 -0.10055687
-0.015900122 -0.00014120899 -0.10055178
-0.015910756 -7.0299953e-05 -0.10053074
-0.015921997 -1.7601997e-06 -0.10049175
-0.015932532 6.9191679e-05 -0.10047272
-0.01594197 0.00014273077 -0.1004816
-0.015950337 0.00022514537 -0.1005343
-0.015959922 0.00030281954 -0.10055112
-0.015973674 0.00035554543 -0.10042246
-0.01598862 0.00040564127 -0.10026389
-0.016025873 0.00083655119 -0.10066497
-0.016046226 0.00085484609 -0.10031908
-0.016424093 -0.0006462615 -0.089107946
-0.01643341 -0.00057896785 -0.089102954
-0.016442556 -0.00051370263 -0.089095972
-0.0099514686 -0.043299586 -0.10321789
-0.0099614682 -0.043224193 -0.10322075
-0.0099699805 -0.043154445 -0.10323769
-0.0099795163 -0.043080948 -0.10324458
-0.0099899061 -0.043005727 -0.10323945
-0.0099992473 -0.042932149 -0.10325034
-0.010008394 -0.042858478 -0.10326521
-0.010018979 -0.04278335 -0.10325609
-0.010029758 -0.0427083 -0.10324299
-0.01003949 -0.042634893 -0.10324588
-0.010048929 -0.042561352 -0.10325476
-0.010058562 -0.042487897 -0.10325965
-0.010068294 -0.042414494 -0.10326255
-0.01007783 -0.042340994 -0.10326944
-0.010087367 -0.042267501 -0.10327632
-0.010096707 -0.042193919 -0.10328721
-0.010106146 -0.042120378 -0.10329609
-0.010116438 -0.042045116 -0.10329297
-0.010127218 -0.041970074 -0.10327985
-0.010137608 -0.041894853 -0.10327473
-0.010147046 -0.041821316 -0.10328361
-0.010156583 -0.04174782 -0.1032905
-0.010166314 -0.041674409 -0.10329339
-0.010176143 -0.041601047 -0.1032943
-0.010186045 -0.04152561 -0.10329916
-0.010195581 -0.041452114 -0.10330604
-0.010205874 -0.041376851 -0.10330292
-0.010215508 -0.0413034 -0.10330781
-0.010224484 -0.041231759 -0.10332071
-0.010234385 -0.041156322 -0.10332558
-0.010244506 -0.041083086 -0.10332049
-0.010254506 -0.041007694 -0.10332335
-0.010263384 -0.040936008 -0.10333825
-0.010272823 -0.040862471 -0.10334714
-0.010283115 -0.040787205 -0.10334401
-0.010293992 -0.040712208 -0.1033289
-0.010303992 -0.040636815 -0.10333177
-0.010313066 -0.040565215 -0.10334267
-0.010322504 -0.040491674 -0.10335156
-0.010332894 -0.040416457 -0.10334644
-0.01034338 -0.04034128 -0.10333931
-0.010352721 -0.040267698 -0.1033502
-0.010361405 -0.040195927 -0.1033691
-0.010371234 -0.040122561 -0.10337
-0.010381429 -0.040047258 -0.10336886
-0.010391062 -0.039973803 -0.10337376
-0.010401062 -0.03989841 -0.10337663
-0.010410891 -0.039825045 -0.10337751
-0.010420134 -0.039751418 -0.1033904
-0.010428817 -0.039679646 -0.10340931
-0.010438646 -0.039606281 -0.10341019
-0.010449499 -0.039529167 -0.10340106
-0.010459523 -0.039455891 -0.10339795
-0.010469059 -0.039382391 -0.10340484
-0.010478864 -0.039306916 -0.1034117
-0.010488498 -0.039233461 -0.10341659
-0.010498229 -0.039160054 -0.10341948
-0.010508327 -0.039084706 -0.10342035
-0.010517959 -0.039011255 -0.10342525
-0.010527789 -0.038937889 -0.10342614
-0.010538276 -0.038862713 -0.10341902
-0.010548374 -0.038787365 -0.10341989
-0.010557812 -0.038713824 -0.10342877
-0.010567252 -0.038640287 -0.10343765
-0.010577738 -0.038565114 -0.10343053
-0.010587372 -0.038491659 -0.10343542
-0.010596616 -0.038418032 -0.1034483
-0.010605957 -0.03834445 -0.10345919
-0.010614933 -0.038272809 -0.1034721
-0.010624468 -0.038199313 -0.10347898
-0.010635054 -0.038124181 -0.10346987
-0.010645906 -0.038047068 -0.10346071
-0.010655735 -0.037973702 -0.10346162
-0.010665369 -0.037900247 -0.10346651
-0.010675271 -0.037824813 -0.10347136
-0.010685002 -0.037751406 -0.10347426
-0.010694539 -0.037677906 -0.10348115
-0.010703685 -0.037604243 -0.10349603
-0.010713417 -0.037530832 -0.10349891
-0.010724368 -0.037453759 -0.10348777
-0.010734196 -0.037380397 -0.10348868
-0.010743634 -0.037306856 -0.10349756
-0.010753171 -0.03723336 -0.10350445
-0.010762902 -0.03715995 -0.10350734
-0.010772903 -0.037084561 -0.1035102
-0.010782341 -0.03701102 -0.1035191
-0.010792072 -0.036937613 -0.10352198
-0.010802267 -0.036862306 -0.10352085
-0.010812558 -0.036787048 -0.10351773
-0.010822192 -0.036713596 -0.10352261
-0.010831436 -0.036639966 -0.1035355
-0.010840777 -0.036566388 -0.10354639
-0.010850314 -0.036492892 -0.10355327
-0.01086024 -0.036419567 -0.10355217
-0.010870533 -0.036344308 -0.10354904
-0.010880167 -0.036270853 -0.10355394
-0.010890264 -0.036195509 -0.1035548
-0.010900751 -0.036120333 -0.10354768
-0.01091058 -0.036046963 -0.10354858
-0.010920579 -0.035971574 -0.10355144
-0.010930408 -0.035898209 -0.10355233
-0.010940213 -0.035822731 -0.1035592
-0.010980124 -0.03570807 -0.10308599
-0.010990805 -0.035632983 -0.10307488
-0.011148409 -0.035055812 -0.1015299
-0.011162431 -0.034975901 -0.10146677
-0.011174649 -0.034899391 -0.10142966
-0.011187549 -0.034823187 -0.10137857
-0.011201205 -0.034745213 -0.10131747
-0.01121447 -0.034667067 -0.10126436
-0.01122803 -0.034589052 -0.10120524
-0.011241198 -0.034510862 -0.10115413
-0.011252953 -0.034436248 -0.10112105
-0.011263732 -0.034361202 -0.10110793
-0.011274707 -0.034286242 -0.10109083
-0.011286266 -0.034211542 -0.10106174
-0.011337883 -0.034026451 -0.10054553
-0.011350685 -0.033950198 -0.10049643
-0.011371898 -0.033862971 -0.10031333
-0.011384798 -0.033786763 -0.10026223
-0.011399429 -0.033709221 -0.10018115
-0.011411087 -0.033634562 -0.10015007
-0.011422744 -0.033559904 -0.10011899
-0.011436595 -0.033482019 -0.10005388
-0.011449494 -0.033405811 -0.1000028
-0.011460762 -0.033330981 -0.099979699
-0.011471736 -0.033256024 -0.099962592
-0.011483978 -0.033181623 -0.09991952
-0.011496684 -0.033105332 -0.099872425
-0.011507487 -0.033032395 -0.099853352
-0.01151895 -0.032957654 -0.099826261
-0.011530606 -0.032882996 -0.09979517
-0.011541484 -0.032807995 -0.099780053
-0.011551142 -0.032736652 -0.099778987
-0.011560215 -0.032665052 -0.099789903
-0.011569556 -0.03259147 -0.099800788
-0.011579409 -0.032520216 -0.099795729
-0.011590017 -0.032447197 -0.099780641
-0.011600042 -0.032373913 -0.099777542
-0.011609675 -0.032300461 -0.099782437
-0.011619236 -0.032229077 -0.099783361
-0.011629553 -0.032155927 -0.099774271
-0.011640063 -0.032082863 -0.099761195
-0.011650185 -0.032009628 -0.099756099
-0.011659916 -0.031936217 -0.09975899
-0.01166994 -0.031862937 -0.099755891
-0.011679988 -0.031791769 -0.099746831
-0.01168972 -0.031718358 -0.099749722
-0.011699183 -0.031646933 -0.09975265
-0.011708817 -0.031573482 -0.099757537
-0.011718182 -0.031502008 -0.099762462
-0.011727815 -0.031428557 -0.09976735
-0.011737084 -0.031357042 -0.099774271
-0.011747108 -0.031283762 -0.099771172
-0.011757521 -0.031210655 -0.099760085
-0.011767643 -0.031137418 -0.099754989
-0.011777106 -0.031065991 -0.099757917
-0.011786569 -0.030994564 -0.099760838
-0.011796398 -0.030921198 -0.099761739
-0.01180586 -0.03084977 -0.09976466
-0.011815397 -0.030776273 -0.099771544
-0.011824762 -0.030704804 -0.099776469
-0.011834786 -0.030631524 -0.09977337
-0.011844542 -0.030560225 -0.099770308
-0.011853226 -0.030488454 -0.09978921
-0.011862201 -0.030416809 -0.099802114
-0.01187203 -0.030343443 -0.099803008
-0.011881493 -0.030272014 -0.099805936
-0.011891321 -0.030198649 -0.099806838
-0.011901345 -0.030125368 -0.099803731
-0.011911467 -0.030052133 -0.099798635
-0.01192132 -0.029980879 -0.099793576
-0.011931051 -0.029907469 -0.099796467
-0.011940319 -0.029835954 -0.099803381
-0.011949588 -0.02976444 -0.09981031
-0.011959318 -0.029691033 -0.099813201
-0.01196944 -0.029617796 -0.099808104
-0.011978805 -0.029546324 -0.099813029
-0.011987781 -0.029474681 -0.099825934
-0.01199705 -0.029403167 -0.099832855
-0.012007267 -0.029329974 -0.09982577
-0.012017876 -0.029256953 -0.099810682
-0.012027705 -0.029183587 -0.099811576
-0.012036876 -0.02911203 -0.099820495
-0.012047192 -0.02903888 -0.099811405
-0.012057801 -0.028965859 -0.099796318
-0.012067338 -0.028892362 -0.099803217
-0.012076215 -0.028820675 -0.099818125
-0.012085874 -0.028749336 -0.099817052
-0.012096092 -0.028676141 -0.09980996
-0.012105921 -0.028602775 -0.099810854
-0.012115287 -0.028531305 -0.099815771
-0.012125018 -0.028457895 -0.099818669
-0.012134481 -0.028386466 -0.099821597
-0.01214431 -0.0283131 -0.099822484
-0.012154333 -0.028239822 -0.099819392
-0.01216409 -0.028168524 -0.099816322
-0.012173552 -0.028097097 -0.099819243
-0.012183186 -0.028023643 -0.099824138
-0.01219265 -0.027952217 -0.099827066
-0.01220277 -0.027878979 -0.09982197
-0.012212891 -0.027805742 -0.099816874
-0.012222842 -0.027734531 -0.099809811
-0.012233915 -0.027659616 -0.099790707
-0.012244157 -0.027588531 -0.099777654
-0.012254376 -0.027515339 -0.099770568
-0.012264498 -0.027442103 -0.099765472
-0.012273863 -0.027370632 -0.099770389
-0.0122834 -0.027297135 -0.099777281
-0.012292862 -0.027225709 -0.099780202
-0.012302496 -0.027152255 -0.099785089
-0.01231196 -0.027080828 -0.099788018
-0.012322081 -0.027007591 -0.099782921
-0.012331154 -0.026935991 -0.099793829
-0.012340032 -0.026864305 -0.099808738
-0.012349568 -0.026790809 -0.099815629
-0.012358447 -0.026719123 -0.099830531
-0.012367227 -0.026647393 -0.099847436
-0.012377446 -0.026574198 -0.09984035
-0.01238786 -0.026501093 -0.099829264
-0.012397323 -0.026429664 -0.099832185
-0.0124062 -0.026357979 -0.099847093
-0.012415079 -0.026286291 -0.099861994
-0.012425298 -0.026213098 -0.099854901
-0.012435321 -0.026139818 -0.099851817
-0.01244342 -0.026067786 -0.099882692
-0.012451517 -0.025995754 -0.099913575
-0.012460591 -0.025924154 -0.09992449
-0.012470614 -0.025850873 -0.09992139
-0.012480272 -0.025779534 -0.099920318
-0.012490003 -0.025706124 -0.099923223
-0.012499077 -0.025634523 -0.099934123
-0.012508223 -0.025560854 -0.099949002
-0.012517881 -0.025489513 -0.099947929
-0.012528295 -0.025416408 -0.09993685
-0.012538416 -0.02534317 -0.099931754
-0.012547879 -0.025271742 -0.099934675
-0.012557221 -0.02519816 -0.09994556
-0.012566295 -0.02512656 -0.099956475
-0.012576317 -0.025053281 -0.099953368
-0.012587024 -0.024980303 -0.099936299
-0.012597559 -0.024909349 -0.099917255
-0.012607291 -0.02483594 -0.099920146
-0.012615876 -0.024764124 -0.099941052
-0.012624072 -0.024692135 -0.099969931
-0.012632268 -0.024620147 -0.099998817
-0.012641316 -0.024546435 -0.1000157
-0.012650779 -0.024475008 -0.10001862
-0.012661291 -0.024401944 -0.10000553
-0.012671704 -0.024328835 -0.099994451
-0.012681558 -0.024257582 -0.099989384
-0.012691678 -0.024184344 -0.099984288
-0.012701532 -0.024113091 -0.099979214
-0.012711361 -0.024039723 -0.099980123
-0.012720336 -0.02396808 -0.099993028
-0.012729775 -0.023894541 -0.10000191
-0.012739604 -0.023821175 -0.10000281
-0.012749068 -0.023749748 -0.10000573
-0.012759091 -0.023676468 -0.10000264
-0.012768554 -0.023605041 -0.10000557
-0.012778187 -0.023531588 -0.10001045
-0.012788601 -0.023458481 -0.099999368
-0.012799039 -0.023387484 -0.099982321
-0.012808771 -0.023314076 -0.099985212
-0.012817649 -0.023242388 -0.10000012
-0.01282699 -0.023168808 -0.10001101
-0.012836356 -0.023097336 -0.10001592
-0.012845502 -0.023023669 -0.10003079
-0.012854186 -0.022951895 -0.1000497
-0.012863819 -0.022878442 -0.1000546
-0.012873185 -0.022806972 -0.10005951
-0.012882916 -0.022733562 -0.10006242
-0.012892867 -0.022662351 -0.10005534
-0.012903476 -0.02258933 -0.10004026
-0.012914084 -0.02251631 -0.10002518
-0.012924498 -0.022443201 -0.1000141
-0.012933766 -0.022371687 -0.10002101
-0.01294245 -0.022299916 -0.10003991
-0.012951693 -0.022226291 -0.1000528
-0.012961254 -0.022154905 -0.10005373
-0.012972252 -0.022082057 -0.10003065
-0.012983348 -0.022009252 -0.10000559
-0.012992324 -0.021937609 -0.1000185
-0.013000593 -0.021863552 -0.10005134
-0.013009179 -0.021791736 -0.10007225
-0.013019788 -0.021718714 -0.10005717
-0.013030786 -0.021645866 -0.1000341
-0.013040347 -0.021574482 -0.10003503
-0.013049103 -0.021500641 -0.10005789
-0.013057104 -0.021428566 -0.10009076
-0.01306547 -0.021354552 -0.10012162
-0.013074348 -0.021282867 -0.10013653
-0.013083812 -0.021211438 -0.10013946
-0.013093738 -0.021138115 -0.10013837
-0.013103664 -0.021064792 -0.10013726
-0.013113688 -0.020991514 -0.10013416
-0.013123931 -0.020920431 -0.1001211
-0.013134442 -0.020847367 -0.10010802
-0.013145246 -0.020774432 -0.10008895
-0.013155684 -0.020703437 -0.10007189
-0.013166195 -0.020630373 -0.10005882
-0.013175463 -0.020558858 -0.10006574
-0.013184317 -0.02048506 -0.1000866
-0.013192611 -0.020413116 -0.10011349
-0.013201464 -0.020339318 -0.10013436
-0.013211098 -0.020265864 -0.10013925
-0.013221049 -0.020194653 -0.10013219
-0.01323156 -0.020121589 -0.10011911
-0.013240829 -0.020050075 -0.10012602
-0.013250072 -0.01997645 -0.1001389
-0.013260876 -0.019903515 -0.10011984
-0.013271997 -0.019832822 -0.1000888
-0.013282117 -0.019759584 -0.10008371
-0.013290679 -0.019685658 -0.10011057
-0.013298777 -0.019613625 -0.10014145
-0.013307827 -0.019539915 -0.10015833
-0.013317192 -0.019468443 -0.10016324
-0.013326922 -0.019395035 -0.10016613
-0.013336654 -0.019321624 -0.10016903
-0.013345825 -0.019250069 -0.10017795
-0.013354775 -0.019176314 -0.10019682
-0.013363727 -0.019102558 -0.10021569
-0.013373191 -0.019031132 -0.10021862
-0.013383701 -0.018958068 -0.10020553
-0.013393944 -0.018886985 -0.10019248
-0.013404456 -0.018813921 -0.1001794
-0.01341409 -0.018740468 -0.10018428
-0.013422871 -0.018668739 -0.10020118
-0.01343192 -0.018595027 -0.10021807
-0.013441651 -0.018521618 -0.10022096
-0.0134516 -0.018450405 -0.10021389
-0.013462308 -0.018377429 -0.10019682
-0.013472941 -0.01830652 -0.10017578
-0.013482964 -0.01823324 -0.10017268
-0.0134925 -0.018159743 -0.10017957
-0.013501672 -0.018088186 -0.10018848
-0.013511013 -0.018014604 -0.10019936
-0.013520744 -0.017941196 -0.10020226
-0.013530694 -0.017869983 -0.1001952
-0.013540913 -0.01779679 -0.1001881
-0.013550645 -0.017723382 -0.100191
-0.013559231 -0.017651565 -0.1002119
-0.013568571 -0.017577982 -0.10022278
-0.013578888 -0.017504832 -0.10021369
-0.013588741 -0.017433576 -0.10020863
-0.013598863 -0.017360341 -0.10020353
-0.013609007 -0.017289216 -0.10019247
-0.013619032 -0.017215936 -0.10018938
-0.013628763 -0.017142527 -0.10019227
-0.013637836 -0.017070927 -0.10020318
-0.013646983 -0.016997257 -0.10021806
-0.013656421 -0.016923718 -0.10022695
-0.013665885 -0.016852291 -0.10022987
-0.013675615 -0.016778883 -0.10023277
-0.013685249 -0.016705429 -0.10023766
-0.013694396 -0.016631762 -0.10025253
-0.01370364 -0.016558137 -0.10026541
-0.013713298 -0.016486794 -0.10026434
-0.013723224 -0.016413473 -0.10026324
-0.013733175 -0.01634226 -0.10025618
-0.013743783 -0.016269239 -0.1002411
-0.013753709 -0.016195916 -0.10024
-0.013763367 -0.016124574 -0.10023893
-0.013773683 -0.016051425 -0.10022984
-0.013783927 -0.015980342 -0.10021679
-0.013793951 -0.015907062 -0.10021368
-0.013803682 -0.015833654 -0.10021658
-0.01381334 -0.015762312 -0.10021551
-0.013823169 -0.015688946 -0.1002164
-0.013832901 -0.015615536 -0.1002193
-0.013843631 -0.01554467 -0.10019626
-0.013854533 -0.015471779 -0.10017519
-0.013863508 -0.015400135 -0.10018811
-0.013872532 -0.015324313 -0.10021093
-0.013881215 -0.01525254 -0.10022984
-0.013890557 -0.015178958 -0.10024072
-0.013900191 -0.015105505 -0.10024562
-0.013909922 -0.015032096 -0.10024851
-0.013920068 -0.014960971 -0.10023745
-0.013930773 -0.014887992 -0.10022037
-0.013940724 -0.014816781 -0.10021331
-0.013950456 -0.014743372 -0.1002162
-0.013959797 -0.01466979 -0.10022709
-0.013968553 -0.014595949 -0.10024995
-0.013977602 -0.014522238 -0.10026682
-0.013987626 -0.014448958 -0.10026373
-0.013997382 -0.014377659 -0.10026066
-0.014007308 -0.014304336 -0.10025956
-0.014017235 -0.014231013 -0.10025846
-0.014026185 -0.014157259 -0.10027733
-0.014034552 -0.014083245 -0.10030819
-0.014043503 -0.014009491 -0.10032706
-0.014053333 -0.013936125 -0.10032795
-0.014063381 -0.013864955 -0.10031889
-0.014073599 -0.013791762 -0.1003118
-0.014082452 -0.013717964 -0.10033267
-0.01409121 -0.013644123 -0.10035554
-0.014100551 -0.013570542 -0.10036642
-0.014110185 -0.013497089 -0.10037131
-0.014119916 -0.013423679 -0.1003742
-0.01413033 -0.013350572 -0.10036312
-0.014140767 -0.013279577 -0.10034607
-0.014150718 -0.013208365 -0.100339
-0.01416045 -0.013134955 -0.10034191
-0.014170083 -0.013061503 -0.1003468
-0.014179522 -0.012987964 -0.10035568
-0.014188863 -0.012914383 -0.10036656
-0.014198205 -0.012840801 -0.10037745
-0.014207253 -0.012767089 -0.10039432
-0.01421679 -0.012693593 -0.1004012
-0.014226814 -0.012620313 -0.10039811
-0.014236741 -0.01254699 -0.10039701
-0.014246593 -0.012475736 -0.10039194
-0.01425652 -0.012402412 -0.10039084
-0.014266348 -0.012329047 -0.10039175
-0.014276274 -0.012255724 -0.10039064
-0.014285835 -0.012184339 -0.10039157
-0.014295469 -0.012110886 -0.10039645
-0.014304688 -0.01203515 -0.1004153
-0.014313933 -0.011961524 -0.10042819
-0.014323469 -0.01188803 -0.10043506
-0.01433303 -0.011816645 -0.10043599
-0.014343053 -0.011743366 -0.1004329
-0.014353564 -0.011670302 -0.10041982
-0.014363808 -0.011599218 -0.10040676
-0.014373636 -0.011525853 -0.10040766
-0.014382978 -0.011452271 -0.10041854
-0.014392612 -0.011378818 -0.10042343
-0.014402855 -0.011307736 -0.10041038
-0.01441339 -0.011236783 -0.10039134
-0.014423707 -0.011163633 -0.10038224
-0.014432853 -0.011089965 -0.10039712
-0.014441902 -0.011016253 -0.100414
-0.014451511 -0.01094069 -0.10042485
-0.014460756 -0.010867064 -0.10043772
-0.014470584 -0.010793698 -0.10043862
-0.014480632 -0.010722529 -0.10042956
-0.01449085 -0.010649336 -0.10042247
-0.014500583 -0.010575927 -0.10042537
-0.014509437 -0.010502129 -0.10044623
-0.01451885 -0.010426479 -0.10046108
-0.014528485 -0.010353027 -0.10046598
-0.014538435 -0.010281815 -0.10045891
-0.014549239 -0.010208881 -0.10043984
-0.014558897 -0.010137538 -0.10043877
-0.01456802 -0.01006176 -0.10045961
-0.014577361 -0.0099881776 -0.10047048
-0.014586897 -0.0099146822 -0.10047738
-0.014596628 -0.0098412726 -0.10048027
-0.014606457 -0.0097679067 -0.10048116
-0.014616091 -0.0096944543 -0.10048606
-0.014625628 -0.009620958 -0.10049295
-0.014635456 -0.0095475931 -0.10049384
-0.014645383 -0.00947427 -0.10049275
-0.014655212 -0.0094009042 -0.10049364
-0.014665162 -0.0093296915 -0.10048658
-0.014675284 -0.0092564542 -0.10048149
-0.014685307 -0.0091831759 -0.10047839
-0.014695842 -0.0091122221 -0.10045934
-0.014706085 -0.0090411399 -0.10044628
-0.014715987 -0.0089657055 -0.10045116
-0.014725037 -0.0088919941 -0.10046802
-0.014734061 -0.0088161714 -0.10049086
-0.014743695 -0.0087427199 -0.10049576
-0.014753938 -0.0086716376 -0.10048269
-0.014764254 -0.0085984869 -0.10047361
-0.014773985 -0.0085250773 -0.10047651
-0.014783449 -0.0084536504 -0.10047942
-0.014793545 -0.0083783017 -0.1004803
-0.014802789 -0.008304677 -0.10049318
-0.014812228 -0.0082311379 -0.10050206
-0.014822448 -0.0081579452 -0.10049497
-0.0148323 -0.0080866897 -0.10048991
-0.014842128 -0.0080133229 -0.1004908
-0.014852055 -0.0079399999 -0.1004897
-0.014861981 -0.0078666769 -0.1004886
-0.014871616 -0.0077932253 -0.10049349
-0.014881054 -0.0077196872 -0.10050237
-0.014890566 -0.0076440787 -0.10051523
-0.014899811 -0.0075704539 -0.10052811
-0.014909713 -0.0074950205 -0.10053296
-0.014919955 -0.0074239383 -0.10051992
-0.014930198 -0.0073528551 -0.10050686
-0.014940101 -0.0072774217 -0.10051171
-0.01494954 -0.0072038826 -0.10052061
-0.014959856 -0.0071307318 -0.10051152
-0.014969904 -0.0070595639 -0.10050246
-0.014979343 -0.0069860248 -0.10051134
-0.01498905 -0.0069105038 -0.1005202
-0.014998903 -0.0068392493 -0.10051513
-0.015009195 -0.0067639882 -0.10051201
-0.015018731 -0.0066904929 -0.1005189
-0.015028169 -0.0066169538 -0.10052778
-0.015037682 -0.0065413462 -0.10054063
-0.01504734 -0.006470006 -0.10053957
-0.015057364 -0.0063967258 -0.10053647
-0.015067169 -0.0063212486 -0.10054332
-0.015076924 -0.0062499493 -0.10054026
-0.015087436 -0.0061768852 -0.10052717
-0.015097581 -0.006105761 -0.10051611
-0.015107799 -0.0060325675 -0.10050903
-0.015117945 -0.0059614424 -0.10049797
-0.015127677 -0.0058880327 -0.10050086
-0.015136068 -0.0058077285 -0.1005476
-0.015144313 -0.0057315603 -0.10058642
-0.015154531 -0.0056583667 -0.10057932
-0.015164969 -0.0055873711 -0.10056228
-0.015175384 -0.0055142641 -0.1005512
-0.015185213 -0.0054408982 -0.10055208
-0.015194846 -0.0053674448 -0.10055698
-0.01520487 -0.0052941665 -0.10055389
-0.015214309 -0.0052206255 -0.10056277
-0.015224015 -0.0051451065 -0.10057162
-0.015234063 -0.0050739367 -0.10056257
-0.01524438 -0.0050007869 -0.10055348
-0.015254088 -0.0049252659 -0.10056233
-0.015263039 -0.0048515126 -0.1005812
-0.015272625 -0.0047738366 -0.10059801
-0.015282355 -0.0047004279 -0.10060091
-0.015292014 -0.0046290867 -0.10059984
-0.015302306 -0.0045538247 -0.10059671
-0.015312036 -0.004480416 -0.10059961
-0.015322061 -0.0044071358 -0.10059651
-0.015332183 -0.0043339003 -0.10059141
-0.015341719 -0.004260404 -0.1005983
-0.015350938 -0.004184667 -0.10061714
-0.015361059 -0.0041114297 -0.10061204
-0.01537118 -0.0040381942 -0.10060696
-0.01538079 -0.0039626304 -0.10061781
-0.015390035 -0.0038890056 -0.10063069
-0.015399644 -0.0038134418 -0.10064154
-0.01540918 -0.0037399456 -0.10064843
-0.01541918 -0.003664555 -0.10065129
-0.015429106 -0.003591232 -0.10065019
-0.015438935 -0.0035178661 -0.10065109
-0.015448544 -0.0034423023 -0.10066195
-0.015457886 -0.0033687204 -0.10067282
-0.015467788 -0.003293287 -0.10067768
-0.015477715 -0.003219964 -0.10067658
-0.015487641 -0.003146641 -0.10067548
-0.015497177 -0.0030731447 -0.10068238
-0.015506689 -0.0029975381 -0.10069522
-0.015516006 -0.0029218458 -0.10071207
-0.015525932 -0.0028485209 -0.10071097
-0.015535932 -0.0027731303 -0.10071383
-0.015545371 -0.0026995931 -0.10072272
-0.015555395 -0.002626311 -0.10071962
-0.015565906 -0.0025532488 -0.10070654
-0.015575735 -0.002479881 -0.10070743
-0.015585174 -0.0024063438 -0.10071632
-0.015595076 -0.0023309086 -0.10072118
-0.01560471 -0.002257457 -0.10072607
-0.015615001 -0.002182195 -0.10072295
-0.015625268 -0.0021132249 -0.10070393
-0.015635878 -0.0020402018 -0.10068885
-0.015645586 -0.0019646827 -0.1006977
-0.015655121 -0.0018911865 -0.1007046
-0.015665339 -0.001817992 -0.1006975
-0.01567556 -0.0017447993 -0.1006904
-0.015685802 -0.0016737171 -0.10067736
-0.015695825 -0.0016004387 -0.10067426
-0.015705727 -0.0015250035 -0.10067912
-0.015715849 -0.0014517661 -0.10067403
-0.015724532 -0.0013715923 -0.10071478
-0.015734289 -0.001300294 -0.1007117
-0.015743678 -0.0012225341 -0.10073252
-0.015753167 -0.0011448152 -0.10075133
-0.015763093 -0.0010714903 -0.10075023
-0.015773751 -0.0010026954 -0.10072323
-0.015784895 -0.00093411282 -0.10068624
-0.015795406 -0.00086104684 -0.10067315
-0.015805334 -0.00078772567 -0.10067205
-0.01581526 -0.00071440078 -0.10067095
-0.015824966 -0.0006388817 -0.10067981
-0.015834283 -0.00056318752 -0.10069666
-0.015844088 -0.00048771128 -0.10070351
-0.015867012 -0.00035502575 -0.10060563
-0.015877863 -0.00028631464 -0.10057463
-0.015888374 -0.00021325238 -0.10056154
-0.015898325 -0.00014203787 -0.10055448
-0.015909152 -7.1214512e-05 -0.10052945
-0.015920591 -2.7623028e-06 -0.10048646
-0.01593093 6.8277121e-05 -0.10047141
-0.015940247 0.00014396757 -0.10048826
-0.015948541 0.00022431649 -0.10053699
-0.015958223 0.00030194782 -0.10055181
-0.015972681 0.00035225973 -0.10040323
-0.015986532 0.00040494278 -0.10027257
-0.016034264 0.00078500248 -0.10033879
-0.016043799 0.00085849687 -0.10034569
-0.016053068 0.0009384118 -0.10037445
-0.016422391 -0.00064714439 -0.089108646
-0.016431609 -0.00057980791 -0.089105651
-0.016440853 -0.00051458552 -0.089096673
-0.0099513624 -0.043298952 -0.10321663
-0.0099613629 -0.04322356 -0.10321949
-0.0099701434 -0.043151833 -0.1032364
-0.009979412 -0.043080315 -0.10324331
-0.009989704 -0.043005057 -0.10324018
-0.0099990442 -0.042931475 -0.10325108
-0.010008289 -0.042857848 -0.10326395
-0.010018874 -0.042782716 -0.10325482
-0.010029556 -0.04270763 -0.10324372
-0.010039287 -0.042634219 -0.10324661
-0.010048727 -0.042560682 -0.1032555
-0.01005836 -0.042487226 -0.10326039
-0.01006836 -0.042411834 -0.10326325
-0.010077726 -0.042340368 -0.10326817
-0.010087433 -0.042264845 -0.10327703
-0.010096604 -0.04219329 -0.10328595
-0.010106042 -0.042119749 -0.10329483
-0.010116335 -0.042044487 -0.1032917
-0.010127114 -0.041969441 -0.10327859
-0.010137406 -0.041894183 -0.10327546
-0.010146943 -0.041820686 -0.10328234
-0.010156382 -0.041747145 -0.10329124
-0.010166113 -0.041673739 -0.10329413
-0.010175942 -0.041600369 -0.10329502
-0.010185942 -0.04152498 -0.10329789
-0.010195479 -0.041451484 -0.10330477
-0.010205673 -0.041376181 -0.10330364
-0.010215404 -0.04130277 -0.10330654
-0.010224283 -0.041231085 -0.10332144
-0.010234282 -0.041155696 -0.10332431
-0.010244404 -0.041082457 -0.10331921
-0.010254404 -0.041007064 -0.10332208
-0.010263184 -0.040935338 -0.10333898
-0.010272624 -0.0408618 -0.10334787
-0.010283013 -0.040786579 -0.10334275
-0.010293793 -0.04071153 -0.10332963
-0.010303793 -0.040636145 -0.1033325
-0.010312865 -0.040564544 -0.1033434
-0.010322304 -0.040491004 -0.10335229
-0.010332792 -0.040415827 -0.10334516
-0.010343181 -0.04034061 -0.10334004
-0.010352523 -0.040267028 -0.10335093
-0.010361304 -0.040195297 -0.10336783
-0.010371401 -0.04011995 -0.1033687
-0.010381327 -0.040046625 -0.1033676
-0.010390864 -0.039973132 -0.10337449
-0.010400863 -0.03989774 -0.10337736
-0.010410693 -0.039824374 -0.10337824
-0.010420034 -0.039750792 -0.10338913
-0.010428717 -0.039679021 -0.10340803
-0.010438449 -0.03960561 -0.10341093
-0.010449399 -0.039528538 -0.10339978
-0.010459423 -0.039455261 -0.10339669
-0.01046896 -0.039381765 -0.10340357
-0.010478666 -0.039306246 -0.10341243
-0.010488301 -0.03923279 -0.10341731
-0.010498032 -0.03915938 -0.10342021
-0.010508226 -0.039084077 -0.10341908
-0.010517861 -0.039010625 -0.10342397
-0.010527689 -0.038937256 -0.10342488
-0.010538079 -0.038862042 -0.10341975
-0.010548176 -0.038786694 -0.10342061
-0.010557616 -0.038713153 -0.1034295
-0.010567152 -0.038639657 -0.10343639
-0.010577639 -0.038564485 -0.10342927
-0.010587273 -0.038491029 -0.10343416
-0.01059642 -0.038417362 -0.10344903
-0.010605859 -0.038343824 -0.10345792
-0.010614736 -0.038272135 -0.10347283
-0.010624639 -0.038196705 -0.10347769
-0.010634858 -0.038123511 -0.10347059
-0.010645711 -0.038046397 -0.10346144
-0.010655539 -0.037973031 -0.10346235
-0.010665174 -0.037899576 -0.10346723
-0.010675076 -0.037824143 -0.10347209
-0.010684905 -0.037750777 -0.10347299
-0.010694441 -0.037677281 -0.10347988
-0.01070349 -0.037603572 -0.10349675
-0.010713222 -0.037530161 -0.10349965
-0.010724172 -0.037453089 -0.1034885
-0.010734098 -0.037379768 -0.1034874
-0.01074344 -0.037306186 -0.10349829
-0.010752976 -0.03723269 -0.10350518
-0.010762805 -0.037159324 -0.10350607
-0.010772708 -0.037083887 -0.10351093
-0.010782244 -0.037010394 -0.10351782
-0.010791878 -0.036936942 -0.10352271
-0.01080217 -0.03686168 -0.10351959
-0.010812365 -0.036786374 -0.10351846
-0.010821999 -0.036712922 -0.10352334
-0.01083134 -0.03663934 -0.10353423
-0.010840585 -0.036565717 -0.10354711
-0.010850218 -0.036492262 -0.103552
-0.010860046 -0.0364189 -0.10355289
-0.010870339 -0.036343634 -0.10354977
-0.010879973 -0.036270183 -0.10355466
-0.010890167 -0.03619488 -0.10355353
-0.010900656 -0.036119703 -0.10354641
-0.010910386 -0.036046293 -0.1035493
-0.010920387 -0.035970904 -0.10355216
-0.010930581 -0.035895597 -0.10355104
-0.010940117 -0.035822105 -0.10355793
-0.010979931 -0.035707399 -0.10308672
-0.010990613 -0.035632312 -0.1030756
-0.011148317 -0.03505519 -0.10152863
-0.011162241 -0.034975234 -0.10146751
-0.011174459 -0.034898728 -0.10143039
-0.011187457 -0.034822561 -0.1013773
-0.011201015 -0.034744546 -0.1013182
-0.011214379 -0.034666441 -0.10126308
-0.011227841 -0.034588382 -0.10120597
-0.011241009 -0.034510195 -0.10115486
-0.011252764 -0.034435581 -0.10112177
-0.011263641 -0.03436058 -0.10110666
-0.011274518 -0.034285575 -0.10109155
-0.011286175 -0.03421092 -0.10106046
-0.011337792 -0.034025826 -0.10054425
-0.01135079 -0.033949658 -0.10049116
-0.01137171 -0.0338623 -0.10031405
-0.011384708 -0.033786137 -0.10026097
-0.01139934 -0.033708595 -0.10017988
-0.011410899 -0.033633895 -0.10015079
-0.011422922 -0.033557303 -0.10011768
-0.011436407 -0.033481352 -0.10005461
-0.011449307 -0.033405147 -0.10000353
-0.011460575 -0.033330314 -0.099980421
-0.011471647 -0.033255398 -0.099961318
-0.011483792 -0.03318096 -0.099920243
-0.011496497 -0.033104666 -0.099873148
-0.011507301 -0.033031732 -0.099854074
-0.011519032 -0.032955006 -0.099826954
-0.011530518 -0.032882374 -0.099793896
-0.011541298 -0.032807328 -0.099780783
-0.011550955 -0.032735985 -0.09977971
-0.011560028 -0.032664388 -0.099790625
-0.01156937 -0.032590803 -0.099801511
-0.011579223 -0.032519549 -0.099796444
-0.011590198 -0.032444589 -0.099779338
-0.011599856 -0.03237325 -0.099778265
-0.011609588 -0.032299839 -0.099781156
-0.011619051 -0.03222841 -0.099784084
-0.011629367 -0.03215526 -0.099774994
-0.011639976 -0.032082241 -0.099759914
-0.011650098 -0.032009006 -0.099754818
-0.011659731 -0.03193555 -0.099759713
-0.011669755 -0.031862274 -0.099756613
-0.011679804 -0.031791102 -0.099747546
-0.011689632 -0.031717736 -0.099748455
-0.011698999 -0.031646267 -0.099753372
-0.011708632 -0.031572815 -0.09975826
-0.011717997 -0.031501345 -0.099763185
-0.011727729 -0.031427935 -0.099766083
-0.0117369 -0.031356376 -0.099774994
-0.011746924 -0.031283095 -0.099771895
-0.011757435 -0.031210033 -0.099758811
-0.01176746 -0.031136753 -0.099755712
-0.011776922 -0.031065326 -0.09975864
-0.011786385 -0.030993897 -0.099761561
-0.011796215 -0.030920532 -0.099762455
-0.011805678 -0.030849105 -0.099765375
-0.011815214 -0.030775608 -0.099772274
-0.01182458 -0.030704139 -0.099777184
-0.011834603 -0.030630859 -0.099774092
-0.011844359 -0.03055956 -0.09977103
-0.01185314 -0.030487832 -0.099787928
-0.011862017 -0.030416144 -0.099802837
-0.011871846 -0.030342778 -0.099803731
-0.01188131 -0.030271351 -0.099806659
-0.01189114 -0.030197984 -0.099807553
-0.011901163 -0.030124705 -0.099804461
-0.011911381 -0.030051511 -0.099797368
-0.011921234 -0.029980257 -0.099792294
-0.011930967 -0.029906847 -0.099795192
-0.011940137 -0.029835289 -0.099804111
-0.011949405 -0.029763777 -0.099811025
-0.011959136 -0.029690366 -0.099813916
-0.011969258 -0.029617131 -0.099808827
-0.011978624 -0.029545659 -0.099813744
-0.0119876 -0.029474016 -0.099826649
-0.011996867 -0.029402502 -0.099833578
-0.012007087 -0.029329309 -0.099826485
-0.012017695 -0.029256288 -0.099811405
-0.012027524 -0.029182922 -0.099812299
-0.012036695 -0.029111363 -0.09982121
-0.012047109 -0.029038258 -0.099810123
-0.012057718 -0.028965237 -0.099795043
-0.012067255 -0.028891742 -0.099801935
-0.012076133 -0.028820053 -0.099816836
-0.012085693 -0.028748671 -0.099817768
-0.012095911 -0.028675478 -0.099810675
-0.012105741 -0.02860211 -0.099811576
-0.012115107 -0.028530641 -0.099816494
-0.012124838 -0.028457232 -0.099819392
-0.012134301 -0.028385803 -0.099822313
-0.012144131 -0.028312437 -0.099823207
-0.012154154 -0.028239157 -0.099820115
-0.01216391 -0.028167859 -0.099817045
-0.01217347 -0.028096475 -0.099817969
-0.012183007 -0.028022978 -0.099824861
-0.01219247 -0.02795155 -0.099827781
-0.012202591 -0.027878314 -0.099822693
-0.012212811 -0.027805122 -0.099815592
-0.012222663 -0.027733866 -0.099810533
-0.012233736 -0.027658951 -0.099791422
-0.012244247 -0.027585886 -0.099778339
-0.012254197 -0.027514674 -0.099771284
-0.012264319 -0.027441438 -0.099766187
-0.012273685 -0.027369967 -0.099771105
-0.012283221 -0.027296472 -0.099777997
-0.012292684 -0.027225044 -0.099780925
-0.012302319 -0.027151592 -0.099785812
-0.01231188 -0.027080208 -0.099786736
-0.012321902 -0.027006928 -0.099783644
-0.012330976 -0.026935328 -0.099794544
-0.012339855 -0.02686364 -0.099809453
-0.012349391 -0.026790146 -0.099816352
-0.012358269 -0.026718458 -0.099831253
-0.012367147 -0.026646771 -0.099846162
-0.012377366 -0.026573578 -0.099839069
-0.012387682 -0.026500428 -0.099829979
-0.012397146 -0.026429001 -0.0998329
-0.012406024 -0.026357314 -0.099847808
-0.012415171 -0.026283644 -0.09986268
-0.012425218 -0.026212476 -0.099853627
-0.012435145 -0.026139153 -0.099852532
-0.01244334 -0.026067166 -0.099881411
-0.012451438 -0.025995132 -0.099912293
-0.012460511 -0.025923532 -0.099923208
-0.012470438 -0.02585021 -0.099922113
-0.012480096 -0.025778869 -0.09992104
-0.012489827 -0.02570546 -0.099923931
-0.012498901 -0.025633859 -0.099934846
-0.012508048 -0.025560191 -0.099949725
-0.012517706 -0.02548885 -0.099948652
-0.012528217 -0.025415786 -0.099935569
-0.012538338 -0.02534255 -0.099930473
-0.012547703 -0.025271077 -0.099935398
-0.012557046 -0.025197495 -0.099946275
-0.012566119 -0.025125895 -0.09995719
-0.012576143 -0.025052616 -0.099954084
-0.012586849 -0.024979638 -0.099937007
-0.012597385 -0.024908686 -0.099917971
-0.012607116 -0.024835277 -0.099920861
-0.012615702 -0.024763459 -0.09994176
-0.012623897 -0.024691472 -0.099970646
-0.012632092 -0.024619482 -0.099999532
-0.012641142 -0.024545772 -0.10001641
-0.012650605 -0.024474343 -0.10001934
-0.012661117 -0.024401279 -0.10000625
-0.01267153 -0.024328172 -0.099995159
-0.012681384 -0.024256919 -0.0999901
-0.012691505 -0.024183681 -0.099985003
-0.012701359 -0.024112426 -0.099979937
-0.012711187 -0.02403906 -0.099980831
-0.012720163 -0.023967417 -0.09999375
-0.012729602 -0.023893878 -0.10000263
-0.012739431 -0.023820512 -0.10000352
-0.012748894 -0.023749083 -0.10000645
-0.012758918 -0.023675805 -0.10000335
-0.01276838 -0.023604376 -0.10000627
-0.012778015 -0.023530925 -0.10001117
-0.012788429 -0.023457818 -0.10000008
-0.012798867 -0.023386821 -0.099983029
-0.012808599 -0.023313412 -0.099985927
-0.012817476 -0.023241725 -0.10000084
-0.012826818 -0.023168143 -0.10001171
-0.012836184 -0.023096673 -0.10001663
-0.01284533 -0.023023004 -0.10003152
-0.012854014 -0.022951232 -0.10005041
-0.012863647 -0.022877779 -0.10005531
-0.012873013 -0.022806309 -0.10006023
-0.012882745 -0.022732899 -0.10006312
-0.012892792 -0.022661731 -0.10005406
-0.012903305 -0.022588667 -0.10004098
-0.012913913 -0.022515645 -0.10002589
-0.012924327 -0.022442538 -0.10001481
-0.012933595 -0.022371024 -0.10002173
-0.01294218 -0.022299208 -0.10004263
-0.012951522 -0.022225626 -0.1000535
-0.012961082 -0.022154242 -0.10005444
-0.012972082 -0.022081394 -0.10003137
-0.012983179 -0.022008589 -0.1000063
-0.012992153 -0.021936946 -0.10001921
-0.013000423 -0.021862889 -0.10005207
-0.013009008 -0.021791073 -0.10007296
-0.013019618 -0.021718051 -0.10005788
-0.013030617 -0.021645203 -0.10003481
-0.013040177 -0.021573819 -0.10003574
-0.013048934 -0.021499978 -0.1000586
-0.013057032 -0.021427946 -0.10008949
-0.013065301 -0.021353889 -0.10012234
-0.013074178 -0.021282203 -0.10013725
-0.013083642 -0.021210775 -0.10014017
-0.013093568 -0.021137452 -0.10013907
-0.013103494 -0.021064129 -0.10013797
-0.013113519 -0.02099085 -0.10013486
-0.013123762 -0.020919768 -0.10012181
-0.013134273 -0.020846704 -0.10010874
-0.013144979 -0.020773726 -0.10009165
-0.013155515 -0.020702774 -0.10007261
-0.013166027 -0.02062971 -0.10005953
-0.013175295 -0.020558195 -0.10006645
-0.013184246 -0.02048444 -0.10008532
-0.013192442 -0.020412453 -0.1001142
-0.013201296 -0.020338655 -0.10013507
-0.01321093 -0.020265201 -0.10013996
-0.01322088 -0.02019399 -0.1001329
-0.013231391 -0.020120926 -0.10011982
-0.01324066 -0.020049412 -0.10012673
-0.013249904 -0.019975787 -0.10013961
-0.013260806 -0.019902896 -0.10011854
-0.013271926 -0.019832201 -0.10008752
-0.01328195 -0.019758923 -0.10008442
-0.013290511 -0.019684995 -0.10011128
-0.01329861 -0.019612962 -0.10014216
-0.013307659 -0.019539252 -0.10015903
