# .PCD v0.7 - Point Cloud Data file format
VERSION 0.7
FIELDS x y z
SIZE 4 4 4
TYPE F F F
COUNT 1 1 1
WIDTH 1250
HEIGHT 1
VIEWPOINT 0 0 0 1 0 0 0
POINTS 1250
DATA ascii
-0.012234826 -0.027654938 -0.099762142
-0.012245167 -0.027583901 -0.099747099
-0.012256239 -0.027508985 -0.099727988
-0.012266092 -0.027437728 -0.099722922
-0.012276117 -0.02736445 -0.099719837
-0.012285775 -0.027293108 -0.099718764
-0.012294751 -0.027221464 -0.099731669
-0.012303703 -0.02714771 -0.099750541
-0.012313166 -0.027076282 -0.099753462
-0.012323287 -0.027003046 -0.099748366
-0.012332361 -0.026931446 -0.099759288
-0.012341142 -0.026859716 -0.099776186
-0.012350678 -0.026786219 -0.09978307
-0.012359459 -0.026714491 -0.099799968
-0.012368435 -0.026642848 -0.099812888
-0.012378654 -0.026569653 -0.099805795
-0.012388898 -0.026498571 -0.099792734
-0.012398921 -0.026425291 -0.099789642
-0.012408361 -0.026351754 -0.09979853
-0.012416678 -0.026281919 -0.099819452
-0.012426215 -0.026208423 -0.099826351
-0.012436239 -0.026135143 -0.099823244
-0.012444923 -0.026063371 -0.099842146
-0.012452729 -0.025991209 -0.099879019
-0.012461704 -0.025919566 -0.099891931
-0.012471826 -0.025846329 -0.099886835
-0.012481679 -0.025775075 -0.099881768
-0.012491118 -0.025701536 -0.099890657
-0.012500192 -0.025629934 -0.099901572
-0.012509363 -0.025558379 -0.099910483
-0.012518997 -0.025484925 -0.099915378
-0.012529118 -0.025411688 -0.099910289
-0.012538875 -0.025340391 -0.099907212
-0.012548606 -0.025266983 -0.09991011
-0.012558167 -0.025195597 -0.099911034
-0.012567996 -0.025122231 -0.099911928
-0.012577752 -0.025050933 -0.099908859
-0.012588166 -0.024977826 -0.09989778
-0.012598386 -0.024904633 -0.099890687
-0.012607947 -0.024833247 -0.099891603
-0.012617385 -0.02475971 -0.099900506
-0.012625873 -0.024687851 -0.099923395
-0.012633875 -0.024615776 -0.099956267
-0.012642558 -0.024544002 -0.099975184
-0.012652289 -0.024470592 -0.099978067
-0.012662509 -0.024397399 -0.099970974
-0.012672655 -0.024326274 -0.099959917
-0.012682776 -0.024253037 -0.099954829
-0.012692435 -0.024181696 -0.099953756
-0.012702264 -0.02410833 -0.099954642
-0.012711996 -0.024034921 -0.099957548
-0.012721458 -0.023963492 -0.099960469
-0.012731191 -0.023890084 -0.09996336
-0.012740556 -0.023818614 -0.099968284
-0.012749922 -0.023747142 -0.099973209
-0.012759848 -0.023673819 -0.099972107
-0.012769775 -0.023600496 -0.099971011
-0.012778848 -0.023528896 -0.099981911
-0.012789068 -0.023455702 -0.099974826
-0.012799872 -0.023382768 -0.099955745
-0.012809823 -0.023311557 -0.099948689
-0.012819262 -0.023238018 -0.09995757
-0.012828141 -0.023166332 -0.099972472
-0.012837579 -0.023092793 -0.099981368
-0.012846556 -0.023021149 -0.099994279
-0.012855702 -0.022947481 -0.10000915
-0.012864971 -0.022875967 -0.10001607
-0.012874507 -0.022802472 -0.10002296
-0.012883971 -0.022731043 -0.10002588
-0.01289419 -0.022657851 -0.10001878
-0.012904702 -0.022584787 -0.10000571
-0.012914652 -0.022513576 -0.099998638
-0.012924774 -0.022440339 -0.099993542
-0.012934627 -0.022369083 -0.09998849
-0.012943774 -0.022295415 -0.10000336
-0.012952359 -0.022223599 -0.10002426
-0.012961994 -0.022150146 -0.10002915
-0.012972798 -0.022077212 -0.10001007
-0.012983919 -0.022006519 -0.09997905
-0.012993554 -0.021933066 -0.099983938
-0.013001749 -0.021861076 -0.10001283
-0.013009945 -0.021789089 -0.10004171
-0.013020359 -0.021715982 -0.10003062
-0.013031553 -0.02164322 -0.10000356
-0.013041309 -0.021571921 -0.10000049
-0.013050359 -0.021498211 -0.10001737
-0.013058457 -0.021426179 -0.10004826
-0.013066629 -0.021352079 -0.1000831
-0.013075018 -0.021280175 -0.10010799
-0.013084654 -0.021206724 -0.10011289
-0.013094507 -0.021135468 -0.10010783
-0.013104433 -0.021062145 -0.10010672
-0.01311436 -0.020988822 -0.10010562
-0.013124116 -0.020917524 -0.10010255
-0.01313453 -0.020844417 -0.10009146
-0.013145627 -0.020771611 -0.10006639
-0.013156358 -0.020700745 -0.10004336
-0.013166772 -0.020627638 -0.10003227
-0.01317643 -0.020556297 -0.1000312
-0.013185577 -0.02048263 -0.10004608
-0.013193944 -0.020408615 -0.10007693
-0.013202237 -0.020336671 -0.10010382
-0.013211676 -0.020263132 -0.10011271
-0.013221627 -0.020191919 -0.10010564
-0.013231943 -0.020118769 -0.10009655
-0.013241675 -0.020045361 -0.10009944
-0.013250651 -0.019973718 -0.10011236
-0.013260676 -0.019900437 -0.10010926
-0.013271699 -0.0198297 -0.10008023
-0.013282502 -0.019756766 -0.10006116
-0.013291259 -0.019682925 -0.10008402
-0.013299065 -0.019610763 -0.10012089
-0.013308114 -0.019537052 -0.10013777
-0.013317578 -0.019465625 -0.10014069
-0.01332731 -0.019392215 -0.10014359
-0.01333704 -0.019318806 -0.10014648
-0.013346407 -0.019247334 -0.1001514
-0.013355652 -0.01917371 -0.10016428
-0.013363944 -0.019101765 -0.10019117
-0.013373383 -0.019028226 -0.10020006
-0.013383798 -0.018955119 -0.10018897
-0.013394626 -0.018884296 -0.10016393
-0.013405235 -0.018811274 -0.10014886
-0.013414601 -0.018739805 -0.10015377
-0.013423651 -0.018666092 -0.10017064
-0.013432797 -0.018592425 -0.10018553
-0.013442162 -0.018520953 -0.10019045
-0.013452576 -0.018447846 -0.10017936
-0.013462991 -0.018374739 -0.10016827
-0.013473332 -0.0183037 -0.10015323
-0.013483746 -0.018230593 -0.10014214
-0.01349321 -0.018159166 -0.10014506
-0.013502551 -0.018085584 -0.10015595
-0.013511697 -0.018011915 -0.10017083
-0.013520868 -0.017940357 -0.10017974
-0.01353099 -0.017867122 -0.10017464
-0.013541404 -0.017794015 -0.10016356
-0.013551062 -0.017722674 -0.10016248
-0.013560015 -0.017648919 -0.10018136
-0.013569064 -0.017575208 -0.10019823
-0.013579087 -0.017501928 -0.10019512
-0.013589039 -0.017430715 -0.10018807
-0.013599258 -0.017357523 -0.10018098
-0.013609404 -0.017286398 -0.10016993
-0.013619525 -0.01721316 -0.10016482
-0.01362916 -0.017139709 -0.10016972
-0.013638038 -0.017068021 -0.10018463
-0.013647282 -0.016994396 -0.1001975
-0.013656916 -0.016920943 -0.1002024
-0.013666282 -0.016849473 -0.10020731
-0.013676111 -0.016776107 -0.10020822
-0.013685843 -0.016702697 -0.10021111
-0.013694795 -0.016628943 -0.10022998
-0.013703673 -0.016557258 -0.10024488
-0.013713697 -0.016483977 -0.10024179
-0.013723624 -0.016410654 -0.10024069
-0.013733575 -0.016339442 -0.10023363
-0.013743891 -0.016266292 -0.10022453
-0.013753623 -0.016192883 -0.10022743
-0.013763379 -0.016121585 -0.10022436
-0.0137735 -0.016048348 -0.10021927
-0.013783647 -0.015977222 -0.10020822
-0.013793865 -0.015904028 -0.10020112
-0.01380389 -0.01583075 -0.10019802
-0.013813743 -0.015759494 -0.10019296
-0.013823475 -0.015686085 -0.10019585
-0.013833012 -0.015612589 -0.10020274
-0.013843352 -0.015541551 -0.10018768
-0.01385418 -0.015470727 -0.10016266
-0.013864011 -0.015397361 -0.10016354
-0.013872767 -0.015323521 -0.10018642
-0.013881718 -0.015249765 -0.10020529
-0.013891255 -0.01517627 -0.10021217
-0.013900401 -0.015102603 -0.10022704
-0.013909474 -0.015031002 -0.10023797
-0.013919889 -0.014957895 -0.10022688
-0.013930327 -0.014886899 -0.10020982
-0.013940741 -0.014813792 -0.10019874
-0.013950863 -0.014740556 -0.10019365
-0.013960229 -0.014669085 -0.10019857
-0.013969083 -0.014595287 -0.10021943
-0.013978132 -0.014521575 -0.10023631
-0.013987863 -0.014448166 -0.1002392
-0.013997888 -0.014374886 -0.10023611
-0.014007644 -0.014303587 -0.10023304
-0.014017473 -0.014230222 -0.10023394
-0.014026425 -0.014156466 -0.10025281
-0.014034768 -0.014080342 -0.10028963
-0.014043622 -0.014006545 -0.10031049
-0.014053084 -0.013935117 -0.10031342
-0.014063694 -0.013862096 -0.10029833
-0.014074133 -0.0137911 -0.10028128
-0.014083572 -0.013717561 -0.10029017
-0.014092206 -0.013641566 -0.10032099
-0.014100865 -0.013567682 -0.10034586
-0.01411011 -0.013494057 -0.10035874
-0.014119743 -0.013420604 -0.10036363
-0.014129695 -0.013349392 -0.10035657
-0.014140597 -0.013276502 -0.10033549
-0.014150742 -0.013205376 -0.10032444
-0.014160668 -0.013132053 -0.10032333
-0.014170108 -0.013058514 -0.10033222
-0.014179353 -0.01298489 -0.1003451
-0.014188694 -0.012911308 -0.10035598
-0.014197938 -0.012837682 -0.10036887
-0.014206987 -0.012763971 -0.10038574
-0.014216524 -0.012690475 -0.10039262
-0.014226841 -0.012617324 -0.10038354
-0.014236694 -0.01254607 -0.10037848
-0.014246718 -0.012472791 -0.10037538
-0.014256742 -0.01239951 -0.10037228
-0.014266206 -0.012328083 -0.10037521
-0.014276035 -0.012254717 -0.1003761
-0.014286059 -0.012181437 -0.100373
-0.01429579 -0.012108028 -0.1003759
-0.014304937 -0.012034359 -0.10039077
-0.014313889 -0.011960604 -0.10040964
-0.014323133 -0.01188698 -0.10042252
-0.014332864 -0.011813571 -0.10042541
-0.014342889 -0.011740291 -0.10042232
-0.014353011 -0.011667054 -0.10041723
-0.014363253 -0.011595972 -0.10040417
-0.014373375 -0.011522735 -0.10039908
-0.014382839 -0.011451308 -0.10040201
-0.014392376 -0.011377811 -0.10040889
-0.0144024 -0.011304532 -0.10040579
-0.014412936 -0.011233579 -0.10038675
-0.014423545 -0.011160559 -0.10037167
-0.014433081 -0.011087064 -0.10037855
-0.014442326 -0.011013438 -0.10039143
-0.01445196 -0.010939986 -0.10039633
-0.014461106 -0.010866318 -0.1004112
-0.014470155 -0.010792607 -0.10042807
-0.014480179 -0.010719326 -0.10042498
-0.014490325 -0.0106482 -0.10041393
-0.014500447 -0.010574965 -0.10040883
-0.014509691 -0.010501339 -0.10042171
-0.014519301 -0.010425775 -0.10043256
-0.01452874 -0.010352236 -0.10044145
-0.014538398 -0.010280895 -0.10044038
-0.014549008 -0.010207875 -0.1004253
-0.014558935 -0.010134552 -0.10042419
-0.014567886 -0.010060797 -0.10044307
-0.014577203 -0.0099851042 -0.10045991
-0.014586642 -0.0099115651 -0.10046879
-0.014596277 -0.0098381126 -0.10047368
-0.014606008 -0.0097647039 -0.10047658
-0.014615643 -0.0096912514 -0.10048147
-0.014625374 -0.0096178418 -0.10048436
-0.014635033 -0.0095465006 -0.1004833
-0.014645129 -0.0094711529 -0.10048416
-0.01465469 -0.009399768 -0.10048509
-0.014665105 -0.009326661 -0.100474
-0.014675325 -0.0092534674 -0.10046691
-0.014684886 -0.0091820844 -0.10046783
-0.0146953 -0.0091089765 -0.10045674
-0.014705835 -0.0090380237 -0.10043771
-0.01471586 -0.0089647444 -0.10043461
-0.014724714 -0.0088909464 -0.10045547
-0.014733349 -0.0088149514 -0.1004863
-0.014743177 -0.0087415855 -0.10048719
-0.014753494 -0.0086684348 -0.10047811
-0.014763812 -0.008595285 -0.10046902
-0.014773566 -0.0085239857 -0.10046595
-0.014783688 -0.0084507503 -0.10046086
-0.01479342 -0.0083773406 -0.10046375
-0.014802274 -0.0083035426 -0.10048462
-0.014811787 -0.008227936 -0.10049747
-0.014821811 -0.0081546567 -0.10049436
-0.014831567 -0.0080833575 -0.10049131
-0.014841299 -0.0080099488 -0.1004942
-0.01485142 -0.0079367114 -0.1004891
-0.01486164 -0.0078635179 -0.10048202
-0.014871469 -0.0077901529 -0.10048291
-0.014880712 -0.0077165281 -0.10049579
-0.014890322 -0.0076409634 -0.10050665
-0.014900054 -0.0075675547 -0.10050954
-0.014909493 -0.0074940156 -0.10051842
-0.014919518 -0.0074207364 -0.10051531
-0.014929663 -0.0073496103 -0.10050426
-0.01493959 -0.0072762873 -0.10050316
-0.014949029 -0.0072027482 -0.10051204
-0.014959419 -0.0071275309 -0.10050692
-0.01496937 -0.0070563192 -0.10049986
-0.014979005 -0.0069828667 -0.10050475
-0.014988541 -0.0069093714 -0.10051165
-0.01499876 -0.0068361778 -0.10050455
-0.015008589 -0.006762811 -0.10050544
-0.015018199 -0.0066872481 -0.1005163
-0.015027639 -0.006613709 -0.10052519
-0.015036883 -0.0065400843 -0.10053806
-0.015047101 -0.0064668907 -0.10053097
-0.015057126 -0.0063936114 -0.10052788
-0.01506676 -0.006320158 -0.10053277
-0.015076687 -0.006246835 -0.10053167
-0.015087003 -0.0061736852 -0.10052258
-0.015097149 -0.0061025601 -0.10051152
-0.015107661 -0.006029496 -0.10049844
-0.015118002 -0.0059584575 -0.10048339
-0.01512783 -0.0058850916 -0.10048429
-0.015135954 -0.0058067683 -0.10053106
-0.015144272 -0.0057285316 -0.10057384
-0.015154004 -0.0056551229 -0.10057672
-0.015164346 -0.0055840835 -0.10056167
-0.015174856 -0.0055110194 -0.1005486
-0.015184686 -0.0054376535 -0.10054949
-0.015194319 -0.005364202 -0.10055438
-0.015204246 -0.0052908789 -0.10055328
-0.015213685 -0.0052173398 -0.10056217
-0.015223393 -0.0051418189 -0.10057102
-0.015233637 -0.0050707366 -0.10055796
-0.015243685 -0.0049995687 -0.10054892
-0.015253685 -0.0049241781 -0.10055177
-0.015263002 -0.0048484839 -0.10056861
-0.015272222 -0.0047727488 -0.10058746
-0.015281759 -0.0046992525 -0.10059434
-0.015291685 -0.0046259295 -0.10059324
-0.015301612 -0.0045526065 -0.10059214
-0.015311441 -0.0044792406 -0.10059305
-0.015321733 -0.0044039804 -0.10058991
-0.01533149 -0.0043326821 -0.10058685
-0.015341319 -0.0042593163 -0.10058774
-0.015350807 -0.0041815974 -0.10060656
-0.015360246 -0.0041080583 -0.10061544
-0.015370465 -0.0040348638 -0.10060836
-0.015380392 -0.0039615408 -0.10060725
-0.015389709 -0.0038858484 -0.10062409
-0.015399221 -0.0038102418 -0.10063695
-0.015408661 -0.0037367027 -0.10064583
-0.015418661 -0.0036613122 -0.10064869
-0.015428416 -0.0035900138 -0.10064562
-0.015438417 -0.0035146233 -0.10064849
-0.015447953 -0.003441127 -0.10065538
-0.015457563 -0.0033655632 -0.10066623
-0.015467271 -0.0032900423 -0.10067509
-0.015477197 -0.0032167193 -0.10067399
-0.015486953 -0.0031454228 -0.10067091
-0.015496563 -0.003069859 -0.10068177
-0.015505978 -0.0029942095 -0.10069662
-0.015515588 -0.0029186457 -0.10070747
-0.01552532 -0.0028452352 -0.10071037
-0.015535247 -0.002771914 -0.10070927
-0.015544954 -0.0026963931 -0.10071812
-0.015554588 -0.0026229396 -0.10072301
-0.015565002 -0.0025498327 -0.10071193
-0.015575124 -0.0024765972 -0.10070683
-0.015584465 -0.0024030134 -0.10071772
-0.015594075 -0.0023274515 -0.10072856
-0.015603904 -0.0022540838 -0.10072947
-0.015614294 -0.0021788664 -0.10072433
-0.015624734 -0.0021078698 -0.10070729
-0.015635172 -0.0020368733 -0.10069024
-0.015644806 -0.0019634217 -0.10069513
-0.015654707 -0.0018879883 -0.1007
-0.015664829 -0.001814751 -0.1006949
-0.015675049 -0.0017415583 -0.1006878
-0.015685292 -0.0016704742 -0.10067476
-0.015695317 -0.0015971959 -0.10067166
-0.015705122 -0.0015217196 -0.10067851
-0.015715048 -0.0014483966 -0.10067742
-0.01572356 -0.0013702456 -0.1007162
-0.01573378 -0.0012970529 -0.10070911
-0.01574339 -0.001221491 -0.10071996
-0.015752975 -0.001143815 -0.10073677
-0.015762415 -0.001070274 -0.10074566
-0.015773244 -0.00099945255 -0.10072062
-0.015784096 -0.00093074143 -0.10068962
-0.01579451 -0.00085763261 -0.10067853
-0.015804656 -0.0007865075 -0.10066748
-0.015814753 -0.00071115978 -0.10066836
-0.015824461 -0.0006356407 -0.10067721
-0.015833803 -0.00056205876 -0.10068808
-0.015843511 -0.00048653595 -0.10069695
-0.015866287 -0.00034958683 -0.10061298
-0.015877165 -0.00028298609 -0.10057601
-0.01588748 -0.00020983815 -0.10056693
-0.015897408 -0.00013651326 -0.10056583
-0.01590826 -6.7802146e-05 -0.10053483
-0.015919479 2.8479844e-06 -0.10050181
-0.015929721 7.3930249e-05 -0.10048875
-0.015939161 0.00014746748 -0.10049763
-0.015948357 0.00022531673 -0.10052244
-0.01595787 0.00030092523 -0.10053529
-0.016422121 -0.00064401329 -0.08910206
-0.016431341 -0.0005766768 -0.089099042
-0.01644039 -0.00051136687 -0.089094073
-0.0099561512 -0.043282919 -0.10314731
-0.0099649318 -0.043211192 -0.10316422
-0.0099738101 -0.043139502 -0.10317913
-0.0099841999 -0.043064285 -0.10317399
-0.0099947844 -0.042989153 -0.10316487
-0.010004882 -0.042913802 -0.10316575
-0.010014517 -0.042840354 -0.10317063
-0.010024053 -0.042766858 -0.10317753
-0.01003359 -0.042693362 -0.10318441
-0.010043127 -0.042619865 -0.1031913
-0.010052395 -0.042548351 -0.10319822
-0.010062298 -0.042472918 -0.10320307
-0.010071931 -0.042399466 -0.10320797
-0.010081566 -0.042326011 -0.10321286
-0.010091297 -0.042252604 -0.10321575
-0.010101127 -0.042179238 -0.10321665
-0.010111028 -0.042103805 -0.10322152
-0.010120858 -0.042030439 -0.10322241
-0.010131248 -0.041955218 -0.10321728
-0.010140883 -0.04188177 -0.10322218
-0.010150516 -0.041808315 -0.10322707
-0.010160712 -0.041733012 -0.10322594
-0.010170054 -0.04165943 -0.10323681
-0.010179223 -0.041587871 -0.10324574
-0.010189126 -0.041512437 -0.10325059
-0.010198859 -0.041439027 -0.10325349
-0.010209151 -0.041363765 -0.10325036
-0.01021898 -0.041290399 -0.10325126
-0.010227956 -0.041218758 -0.10326417
-0.010237858 -0.041143321 -0.10326903
-0.010247492 -0.041069869 -0.10327392
-0.010257126 -0.040996417 -0.10327881
-0.010266956 -0.040923052 -0.1032797
-0.010277248 -0.040847786 -0.10327658
-0.010287638 -0.040772572 -0.10327145
-0.010297931 -0.04069731 -0.10326833
-0.010307467 -0.040623814 -0.10327521
-0.010316248 -0.040552083 -0.10329212
-0.010325589 -0.040478501 -0.103303
-0.010336175 -0.04040337 -0.10329388
-0.010346564 -0.040328152 -0.10328876
-0.010355809 -0.040254526 -0.10330164
-0.01036498 -0.04018297 -0.10331055
-0.010375272 -0.040107708 -0.10330742
-0.010385468 -0.040032402 -0.10330629
-0.010395101 -0.039958954 -0.10331118
-0.01040493 -0.039885584 -0.10331208
-0.010414565 -0.039812133 -0.10331698
-0.010423053 -0.039740272 -0.10333987
-0.010431443 -0.039668374 -0.10336476
-0.010441736 -0.039593108 -0.10336163
-0.010452321 -0.039517976 -0.10335252
-0.010462906 -0.039442845 -0.1033434
-0.010473199 -0.039367586 -0.10334026
-0.010482736 -0.039294086 -0.10334716
-0.010492272 -0.039220594 -0.10335404
-0.010501906 -0.039147139 -0.10335893
-0.010511346 -0.039073601 -0.10336782
-0.01052098 -0.03900015 -0.10337272
-0.010531467 -0.038924973 -0.10336559
-0.010541759 -0.038849711 -0.10336246
-0.010551199 -0.038776174 -0.10337134
-0.010560443 -0.038702548 -0.10338423
-0.010570077 -0.038629096 -0.10338912
-0.010580369 -0.038553834 -0.10338599
-0.010589906 -0.038480341 -0.10339288
-0.010599248 -0.03840676 -0.10340375
-0.010608589 -0.038333174 -0.10341464
-0.010618321 -0.038259767 -0.10341754
-0.010628151 -0.038186401 -0.10341843
-0.010638443 -0.038111135 -0.1034153
-0.010649027 -0.038036004 -0.10340619
-0.010659125 -0.03796066 -0.10340706
-0.010668759 -0.037887204 -0.10341194
-0.010679051 -0.037811942 -0.10340881
-0.010688393 -0.03773836 -0.1034197
-0.010697077 -0.037666589 -0.10343859
-0.010706905 -0.037593223 -0.10343949
-0.010717394 -0.037518047 -0.10343238
-0.010727588 -0.037442744 -0.10343125
-0.01073732 -0.037369333 -0.10343413
-0.010746565 -0.037295707 -0.10344703
-0.010756004 -0.037222169 -0.10345591
-0.010766199 -0.037146866 -0.10345478
-0.010775638 -0.037073325 -0.10346366
-0.010785077 -0.036999788 -0.10347255
-0.010795467 -0.036924571 -0.10346742
-0.010805296 -0.036851205 -0.10346831
-0.010814736 -0.036777668 -0.1034772
-0.010824833 -0.036702316 -0.10347807
-0.010834467 -0.036628865 -0.10348296
-0.010843711 -0.036555238 -0.10349584
-0.010852589 -0.036483552 -0.10351074
-0.010862784 -0.036408249 -0.10350961
-0.010873467 -0.036333159 -0.1034985
-0.01088376 -0.036257897 -0.10349537
-0.010893856 -0.036182549 -0.10349624
-0.010903491 -0.036109097 -0.10350113
-0.010913027 -0.036035601 -0.10350801
-0.010923417 -0.035960384 -0.10350289
-0.01093315 -0.035886973 -0.10350578
-0.010942491 -0.035813391 -0.10351667
-0.010982964 -0.035696883 -0.10303744
-0.010992402 -0.035623342 -0.10304633
-0.011163377 -0.034968078 -0.10144624
-0.011176839 -0.034890018 -0.10138913
-0.011190593 -0.034812093 -0.10132603
-0.011204055 -0.034734033 -0.10126892
-0.011216663 -0.034657694 -0.10122383
-0.011230222 -0.034579679 -0.10116471
-0.011243293 -0.034501448 -0.1011156
-0.011255804 -0.034425069 -0.10107249
-0.011266413 -0.034352049 -0.10105741
-0.011277291 -0.034277044 -0.10104231
-0.011289704 -0.034200624 -0.1010012
-0.011341907 -0.03401579 -0.10047301
-0.011355953 -0.033937991 -0.10040391
-0.011373048 -0.033855237 -0.10028879
-0.011386435 -0.033779249 -0.10022772
-0.011402287 -0.033698045 -0.10013261
-0.011414042 -0.033623431 -0.10009952
-0.011425504 -0.033548687 -0.10007243
-0.011438794 -0.033472653 -0.10001335
-0.011452354 -0.033394635 -0.09995424
-0.01146306 -0.03332166 -0.099937163
-0.011473938 -0.033246659 -0.099922054
-0.011485985 -0.033172172 -0.099882975
-0.011498984 -0.033096008 -0.09982989
-0.011510251 -0.033021182 -0.099806793
-0.01152125 -0.03294833 -0.099783719
-0.011532615 -0.032873545 -0.099758625
-0.011543419 -0.032800611 -0.099739552
-0.011553345 -0.032727286 -0.099738449
-0.011562127 -0.032655559 -0.099755354
-0.011571297 -0.032584 -0.099764265
-0.011581517 -0.03251081 -0.09975718
-0.011592126 -0.032437786 -0.0997421
-0.011602443 -0.032364637 -0.099733002
-0.011612174 -0.032291226 -0.099735908
-0.011621443 -0.032219715 -0.099742822
-0.011631466 -0.032146432 -0.099739715
-0.01164188 -0.032073326 -0.099728629
-0.0116521 -0.032000132 -0.099721543
-0.011661563 -0.031928707 -0.099724472
-0.011671392 -0.031855341 -0.099725358
-0.011681806 -0.031782232 -0.099714279
-0.01169127 -0.031710804 -0.0997172
-0.011700807 -0.031637311 -0.099724092
-0.01171027 -0.031565882 -0.099727005
-0.011720099 -0.031492516 -0.099727914
-0.011729855 -0.031421218 -0.099724837
-0.01173949 -0.031347767 -0.099729732
-0.011749051 -0.031276383 -0.099730663
-0.011759465 -0.031203274 -0.099719577
-0.011769294 -0.031129908 -0.099720463
-0.011778465 -0.031058349 -0.099729382
-0.01178783 -0.030986879 -0.099734306
-0.011797952 -0.030913644 -0.09972921
-0.011808074 -0.030840408 -0.099724114
-0.011817903 -0.03076704 -0.099725015
-0.011827269 -0.030695569 -0.099729933
-0.011836635 -0.030624099 -0.09973485
-0.011846366 -0.030550689 -0.099737741
-0.011855635 -0.030479176 -0.09974467
-0.011864709 -0.030407576 -0.09975557
-0.011873977 -0.030336061 -0.099762492
-0.011883513 -0.030262567 -0.099769384
-0.011892976 -0.030191138 -0.099772312
-0.011902805 -0.030117773 -0.099773198
-0.011912732 -0.030044449 -0.099772096
-0.011922684 -0.029973239 -0.09976504
-0.011932707 -0.029899959 -0.099761948
-0.011942268 -0.029828575 -0.099762864
-0.01195161 -0.029754993 -0.09977375
-0.011960781 -0.029683433 -0.099782668
-0.011970805 -0.029610153 -0.099779569
-0.011980756 -0.029538943 -0.099772505
-0.011990195 -0.029465403 -0.099781394
-0.011999073 -0.029393718 -0.099796303
-0.012009585 -0.029320654 -0.099783212
-0.012020682 -0.02924785 -0.099758148
-0.012030609 -0.029174525 -0.099757053
-0.01203978 -0.029102968 -0.099765964
-0.012049901 -0.029029731 -0.09976086
-0.012060218 -0.028956583 -0.099751778
-0.012069194 -0.028884938 -0.099764682
-0.012077974 -0.028813209 -0.099781588
-0.012087901 -0.028739886 -0.099780485
-0.012097852 -0.028668674 -0.099773429
-0.012107974 -0.028595438 -0.099768333
-0.012117705 -0.02852203 -0.099771224
-0.012126974 -0.028450513 -0.099778146
-0.012136705 -0.028377105 -0.099781044
-0.012146462 -0.028305806 -0.099777967
-0.012156583 -0.028232571 -0.099772871
-0.012166339 -0.028161272 -0.099769808
-0.012176266 -0.028087949 -0.099768706
-0.012185997 -0.028014541 -0.099771596
-0.012195364 -0.027943069 -0.099776521
-0.012205192 -0.027869705 -0.099777423
-0.012214948 -0.027798405 -0.099774346
-0.01222507 -0.027725168 -0.09976925
-0.012235289 -0.027651975 -0.099762164
-0.01224563 -0.027580936 -0.099747114
-0.012256606 -0.027505977 -0.09973
-0.012266556 -0.027434764 -0.099722944
-0.01227658 -0.027361486 -0.099719852
-0.012286238 -0.027290145 -0.099718779
-0.012295214 -0.0272185 -0.099731684
-0.012304166 -0.027144745 -0.099750556
-0.012313532 -0.027073275 -0.099755473
-0.012323751 -0.027000083 -0.09974838
-0.012332824 -0.026928481 -0.099759303
-0.012341605 -0.026856752 -0.099776201
-0.012351044 -0.026783213 -0.099785082
-0.012359923 -0.026711527 -0.099799983
-0.012368899 -0.026639882 -0.099812903
-0.012379118 -0.02656669 -0.09980581
-0.012389263 -0.026495565 -0.099794753
-0.012399288 -0.026422285 -0.099791653
-0.012408825 -0.026348788 -0.099798545
-0.012417142 -0.026278954 -0.099819466
-0.012426678 -0.026205458 -0.099826358
-0.012436703 -0.026132179 -0.099823259
-0.012445289 -0.026060363 -0.099844158
-0.012453193 -0.025988244 -0.099879034
-0.012462168 -0.025916601 -0.099891946
-0.01247229 -0.025843363 -0.09988685
-0.012482143 -0.02577211 -0.099881783
-0.012491582 -0.025698572 -0.099890664
-0.012500558 -0.025626928 -0.099903576
-0.012509729 -0.02555537 -0.099912502
-0.012519461 -0.025481962 -0.099915385
-0.012529582 -0.025408724 -0.099910304
-0.012539241 -0.025337383 -0.099909231
-0.01254907 -0.025264017 -0.099910118
-0.012558533 -0.025192589 -0.099913038
-0.01256846 -0.025119267 -0.099911943
-0.012578215 -0.025047969 -0.099908873
-0.01258863 -0.024974862 -0.099897787
-0.01259885 -0.024901668 -0.099890701
-0.012608411 -0.024830284 -0.099891618
-0.012617752 -0.024756702 -0.099902503
-0.012626338 -0.024684886 -0.099923402
-0.012634339 -0.02461281 -0.099956281
-0.012643022 -0.024541037 -0.099975191
-0.012652656 -0.024467586 -0.099980071
-0.012662606 -0.024396373 -0.099973023
-0.012673021 -0.024323266 -0.099961929
-0.012683144 -0.024250031 -0.099956825
-0.012692802 -0.024178689 -0.099955752
-0.012702728 -0.024105366 -0.099954657
-0.012712362 -0.024031913 -0.099959552
-0.012721825 -0.023960486 -0.099962473
-0.012731655 -0.02388712 -0.099963374
-0.01274102 -0.023815649 -0.099968292
-0.012750387 -0.023744177 -0.099973217
-0.012760313 -0.023670856 -0.099972114
-0.012770142 -0.023597488 -0.099973008
-0.012779215 -0.023525888 -0.099983923
-0.012789436 -0.023452695 -0.099976823
-0.012800336 -0.023379805 -0.09995576
-0.012810287 -0.023308592 -0.099948697
-0.012819629 -0.02323501 -0.099959575
-0.012828605 -0.023163367 -0.099972479
-0.012838043 -0.023089828 -0.099981375
-0.012846923 -0.023018142 -0.099996276
-0.012856167 -0.022944516 -0.10000916
-0.012865435 -0.022873003 -0.10001608
-0.012874874 -0.022799464 -0.10002496
-0.012884435 -0.02272808 -0.10002589
-0.012894655 -0.022654885 -0.10001879
-0.012905166 -0.022581821 -0.10000572
-0.012915118 -0.022510611 -0.099998645
-0.012925239 -0.022437373 -0.099993549
-0.012935092 -0.022366118 -0.099988498
-0.012944238 -0.02229245 -0.10000337
-0.012952825 -0.022220634 -0.10002427
-0.012962459 -0.022147182 -0.10002915
-0.012973263 -0.022074247 -0.10001008
-0.012984286 -0.022003511 -0.099981047
-0.012994017 -0.021930102 -0.099983938
-0.013002116 -0.02185807 -0.10001483
-0.01301041 -0.021786124 -0.10004172
-0.013020824 -0.021713017 -0.10003063
-0.013032017 -0.021640254 -0.10000356
-0.013041774 -0.021568958 -0.1000005
-0.013050823 -0.021495245 -0.10001738
-0.013058921 -0.021423213 -0.10004826
-0.013067093 -0.021349113 -0.10008311
-0.013075484 -0.021277212 -0.100108
-0.013085118 -0.021203758 -0.10011289
-0.013094874 -0.02113246 -0.10010982
-0.013104898 -0.02105918 -0.10010673
-0.013114825 -0.020985857 -0.10010563
-0.01312458 -0.02091456 -0.10010255
-0.013134898 -0.020841409 -0.10009346
-0.013146091 -0.020768648 -0.1000664
-0.013156822 -0.020697782 -0.10004336
-0.013167237 -0.020624675 -0.10003227
-0.013176896 -0.020553334 -0.1000312
-0.013186041 -0.020479664 -0.10004608
-0.013194408 -0.020405652 -0.10007693
-0.013202703 -0.020333705 -0.10010383
-0.013212238 -0.020260209 -0.10011071
-0.013222092 -0.020188956 -0.10010564
-0.013232408 -0.020115804 -0.10009655
-0.013242043 -0.020042352 -0.10010146
-0.013251116 -0.019970752 -0.10011236
-0.01326114 -0.019897472 -0.10010926
-0.013272163 -0.019826736 -0.10008024
-0.013282968 -0.019753801 -0.10006116
-0.013291724 -0.01967996 -0.10008402
-0.01329953 -0.019607799 -0.10012089
-0.013308579 -0.019534087 -0.10013777
-0.013317944 -0.019462615 -0.1001427
-0.013327775 -0.019389249 -0.10014359
-0.013337409 -0.019315798 -0.10014848
-0.013346871 -0.019244371 -0.1001514
-0.013356117 -0.019170744 -0.10016428
-0.013364507 -0.019098843 -0.10018917
-0.013373751 -0.019025218 -0.10020205
-0.013384263 -0.018952154 -0.10018897
-0.013394994 -0.018881287 -0.10016593
-0.0134057 -0.018808309 -0.10014886
-0.013415238 -0.018734815 -0.10015574
-0.013424115 -0.018663127 -0.10017064
-0.013433263 -0.018589459 -0.10018552
-0.013442628 -0.018517988 -0.10019045
-0.013453042 -0.018444881 -0.10017936
-0.013463456 -0.018371774 -0.10016827
-0.013473798 -0.018300734 -0.10015323
-0.013484212 -0.018227628 -0.10014214
-0.013493676 -0.018156201 -0.10014506
-0.013503017 -0.018082619 -0.10015594
-0.013512163 -0.018008951 -0.10017083
-0.013521334 -0.017937394 -0.10017974
-0.013531456 -0.017864157 -0.10017464
-0.013541773 -0.017791007 -0.10016555
-0.013551431 -0.017719666 -0.10016448
-0.013560383 -0.01764591 -0.10018335
-0.013569529 -0.017572243 -0.10019822
-0.013579553 -0.017498963 -0.10019512
-0.013589504 -0.01742775 -0.10018807
-0.013599627 -0.017354514 -0.10018297
-0.013609869 -0.017283432 -0.10016993
-0.013619991 -0.017210195 -0.10016482
-0.013629625 -0.017136743 -0.10016971
-0.013638504 -0.017065056 -0.10018462
-0.013647748 -0.016991431 -0.1001975
-0.013657285 -0.016917937 -0.10020439
-0.013666748 -0.016846508 -0.10020731
-0.013676576 -0.016773142 -0.10020822
-0.013686309 -0.016699731 -0.10021111
-0.013695164 -0.016625935 -0.10023197
-0.013704041 -0.016554248 -0.10024688
-0.013714066 -0.016480967 -0.10024378
-0.01372409 -0.016407689 -0.10024069
-0.013734138 -0.016336519 -0.10023162
-0.013744357 -0.016263327 -0.10022453
-0.013754088 -0.016189918 -0.10022742
-0.013763747 -0.016118575 -0.10022635
-0.013773967 -0.016045382 -0.10021926
-0.013784112 -0.015974257 -0.10020821
-0.013794331 -0.015901065 -0.10020112
-0.013804452 -0.015827827 -0.10019601
-0.013814307 -0.015756574 -0.10019095
-0.01382394 -0.01568312 -0.10019585
-0.013833379 -0.015609581 -0.10020473
-0.013843818 -0.015538585 -0.10018767
-0.013854646 -0.015467763 -0.10016265
-0.013864476 -0.015394396 -0.10016353
-0.013873233 -0.015320555 -0.10018641
-0.013882281 -0.015246844 -0.10020328
-0.013891721 -0.015173305 -0.10021216
-0.013900867 -0.015099637 -0.10022704
-0.013909941 -0.015028036 -0.10023795
-0.013920355 -0.014954929 -0.10022687
-0.013930794 -0.014883934 -0.10020982
-0.01394111 -0.014810783 -0.10020074
-0.013951232 -0.014737546 -0.10019564
-0.013960695 -0.01466612 -0.10019857
-0.013969647 -0.014592364 -0.10021743
-0.013978599 -0.01451861 -0.1002363
-0.01398833 -0.014445201 -0.10023919
-0.013998257 -0.014371878 -0.10023809
-0.01400811 -0.014300623 -0.10023303
-0.01401794 -0.014227256 -0.10023393
-0.014026891 -0.014153502 -0.1002528
-0.014035233 -0.014077377 -0.10028961
-0.014044087 -0.01400358 -0.10031047
-0.014053454 -0.013932109 -0.1003154
-0.01406416 -0.01385913 -0.10029832
-0.014074598 -0.013788135 -0.10028127
-0.014083941 -0.013714553 -0.10029216
-0.014092673 -0.013638601 -0.10032099
-0.014101332 -0.013564717 -0.10034584
-0.014110576 -0.013491091 -0.10035872
-0.01412021 -0.013417639 -0.10036362
-0.014130063 -0.013346383 -0.10035855
-0.014141062 -0.013273536 -0.10033548
-0.014151208 -0.013202411 -0.10032443
-0.014161135 -0.013129088 -0.10032333
-0.014170574 -0.013055549 -0.10033221
-0.014179818 -0.012981923 -0.10034509
-0.01418916 -0.012908342 -0.10035598
-0.014198404 -0.012834717 -0.10036886
-0.014207453 -0.012761005 -0.10038573
-0.01421699 -0.01268751 -0.10039262
-0.01422721 -0.012614316 -0.10038552
-0.014237063 -0.012543062 -0.10038046
-0.014247185 -0.012469825 -0.10037536
-0.014257208 -0.012396545 -0.10037227
-0.014266672 -0.012325117 -0.10037519
-0.014276502 -0.012251751 -0.10037608
-0.014286428 -0.012178428 -0.10037499
-0.014296257 -0.012105063 -0.10037588
-0.014305403 -0.012031394 -0.10039075
-0.014314258 -0.011957596 -0.10041162
-0.0143236 -0.011884014 -0.10042251
-0.014333331 -0.011810604 -0.1004254
-0.014343355 -0.011737325 -0.1004223
-0.014353476 -0.011664088 -0.10041721
-0.014363721 -0.011593007 -0.10040416
-0.014373843 -0.01151977 -0.10039906
-0.014383306 -0.011448342 -0.10040198
-0.014392843 -0.011374846 -0.10040887
-0.014402866 -0.011301567 -0.10040578
-0.014413305 -0.011230571 -0.10038872
-0.014424011 -0.011157594 -0.10037165
-0.014433548 -0.011084097 -0.10037854
-0.014442792 -0.011010473 -0.10039142
-0.014452426 -0.010937021 -0.10039631
-0.014461573 -0.010863353 -0.10041118
-0.014470622 -0.010789641 -0.10042806
-0.014480647 -0.010716361 -0.10042496
-0.014490793 -0.010645235 -0.10041391
-0.014500914 -0.010571999 -0.10040881
-0.014510158 -0.010498374 -0.10042169
-0.014519671 -0.010422766 -0.10043453
-0.014529207 -0.010349271 -0.10044143
-0.014538866 -0.01027793 -0.10044036
-0.014549475 -0.010204908 -0.10042527
-0.014559401 -0.010131585 -0.10042418
-0.014568353 -0.010057831 -0.10044305
-0.01457767 -0.0099821389 -0.10045989
-0.014587012 -0.0099085569 -0.10047077
-0.014596744 -0.0098351473 -0.10047366
-0.014606476 -0.0097617377 -0.10047656
-0.014616109 -0.0096882852 -0.10048144
-0.014625842 -0.0096148755 -0.10048435
-0.0146355 -0.0095435344 -0.10048328
-0.014645597 -0.0094681876 -0.10048414
-0.014655158 -0.0093968026 -0.10048507
-0.014665475 -0.0093236519 -0.10047597
-0.014675694 -0.0092504583 -0.10046888
-0.014685352 -0.0091791181 -0.10046781
-0.014695766 -0.0091060111 -0.10045673
-0.014706302 -0.0090350583 -0.10043769
-0.014716327 -0.0089617781 -0.10043459
-0.01472518 -0.0088879801 -0.10045546
-0.014733816 -0.0088119861 -0.10048628
-0.014743645 -0.0087386193 -0.10048717
-0.014754059 -0.0086655123 -0.10047609
-0.014764279 -0.0085923187 -0.100469
-0.014774034 -0.0085210204 -0.10046593
-0.014784155 -0.008447784 -0.10046083
-0.014793888 -0.0083743753 -0.10046373
-0.014802741 -0.0083005773 -0.1004846
-0.014812254 -0.0082249697 -0.10049745
-0.014822278 -0.0081516914 -0.10049434
-0.014831936 -0.0080803484 -0.10049327
-0.014841766 -0.0080069825 -0.10049418
-0.01485179 -0.0079337023 -0.10049107
-0.014862106 -0.0078605525 -0.10048199
-0.014871839 -0.0077871438 -0.10048488
-0.014881181 -0.0077135619 -0.10049576
-0.01489079 -0.0076379981 -0.10050662
-0.014900424 -0.0075645456 -0.10051151
-0.014909961 -0.0074910494 -0.1005184
-0.014920082 -0.0074178139 -0.1005133
-0.014930131 -0.007346645 -0.10050424
-0.014940057 -0.007273322 -0.10050314
-0.014949497 -0.0071997829 -0.10051202
-0.014959887 -0.0071245655 -0.10050689
-0.014969837 -0.0070533529 -0.10049984
-0.014979471 -0.0069799013 -0.10050473
-0.014989009 -0.0069064051 -0.10051162
-0.014999228 -0.0068332115 -0.10050453
-0.015009057 -0.0067598457 -0.10050542
-0.015018666 -0.0066842828 -0.10051627
-0.015028106 -0.0066107437 -0.10052516
-0.01503735 -0.006537118 -0.10053804
-0.015047569 -0.0064639244 -0.10053095
-0.015057594 -0.0063906452 -0.10052785
-0.015067227 -0.0063171927 -0.10053275
-0.015077154 -0.0062438697 -0.10053165
-0.01508747 -0.0061707189 -0.10052255
-0.015097616 -0.0060995938 -0.10051149
-0.015108129 -0.0060265297 -0.10049842
-0.015118469 -0.0059554912 -0.10048336
-0.015128298 -0.0058821253 -0.10048426
-0.015136422 -0.005803803 -0.10053103
-0.015144739 -0.0057255663 -0.10057381
-0.015154472 -0.0056521567 -0.10057669
-0.015164715 -0.0055810744 -0.10056365
-0.015175324 -0.005508054 -0.10054857
-0.015185153 -0.0054346882 -0.10054946
-0.015194787 -0.0053612366 -0.10055435
-0.015204714 -0.0052879117 -0.10055326
-0.015214154 -0.0052143745 -0.10056214
-0.015223959 -0.0051388964 -0.10056899
-0.015234104 -0.0050677713 -0.10055794
-0.01524425 -0.0049966462 -0.10054688
-0.015254153 -0.0049212128 -0.10055174
-0.01526347 -0.0048455186 -0.10056859
-0.01527269 -0.0047697816 -0.10058744
-0.015282227 -0.0046962872 -0.10059431
-0.015292154 -0.0046229642 -0.10059321
-0.015302081 -0.0045496412 -0.10059211
-0.015311909 -0.0044762734 -0.10059302
-0.015322202 -0.0044010133 -0.10058988
-0.015331957 -0.0043297149 -0.10058682
-0.015341884 -0.0042563919 -0.10058572
-0.015351275 -0.0041786302 -0.10060653
-0.015360714 -0.0041050911 -0.10061541
-0.015370836 -0.0040318556 -0.10061032
-0.015380763 -0.0039585326 -0.10060921
-0.015390177 -0.0038828831 -0.10062406
-0.01539969 -0.0038072746 -0.10063691
-0.015409129 -0.0037337374 -0.1006458
-0.015419129 -0.003658345 -0.10064866
-0.015428885 -0.0035870466 -0.10064559
-0.015438714 -0.0035136826 -0.1006465
-0.015448519 -0.0034382045 -0.10065334
-0.015458128 -0.0033626407 -0.1006642
-0.015467739 -0.003287077 -0.10067506
-0.015477666 -0.0032137539 -0.10067396
-0.015487421 -0.0031424556 -0.10067088
-0.015497032 -0.0030668918 -0.10068174
-0.015506446 -0.0029912442 -0.10069659
-0.015515959 -0.0029156357 -0.10070943
-0.015525691 -0.0028422251 -0.10071233
-0.015535714 -0.0027689468 -0.10070924
-0.015545422 -0.0026934259 -0.10071809
-0.015555056 -0.0026199743 -0.10072298
-0.015565471 -0.0025468674 -0.10071189
-0.015575495 -0.0024735872 -0.1007088
-0.015584836 -0.0024000052 -0.10071968
-0.015594544 -0.0023244862 -0.10072853
-0.015604544 -0.0022490919 -0.1007314
-0.015614763 -0.0021758992 -0.1007243
-0.015625201 -0.0021049026 -0.10070725
-0.015635468 -0.0020359326 -0.10068824
-0.015645275 -0.0019604545 -0.1006951
-0.015655177 -0.001885023 -0.10069996
-0.015665395 -0.0018118266 -0.10069286
-0.015675517 -0.001738593 -0.10068777
-0.015685759 -0.0016675089 -0.10067472
-0.015695784 -0.0015942305 -0.10067162
-0.015705589 -0.0015187524 -0.10067847
-0.015715517 -0.0014454294 -0.10067738
-0.015724029 -0.0013672803 -0.10071617
-0.015734248 -0.0012940858 -0.10070907
-0.015743956 -0.0012185667 -0.10071793
-0.015753347 -0.001140805 -0.10073874
-0.015762884 -0.0010673087 -0.10074562
-0.015773712 -0.00099648722 -0.10072059
-0.015784565 -0.00092777424 -0.10068958
-0.015794881 -0.00085462257 -0.1006805
-0.015805295 -0.00078151748 -0.10066941
-0.015815223 -0.00070819259 -0.10066832
-0.015824929 -0.0006326735 -0.10067717
-0.015834441 -0.00055706687 -0.10069001
-0.015844246 -0.00048158877 -0.10069688
-0.01586666 -0.00034657679 -0.10061494
-0.015877632 -0.00028002076 -0.10057598
-0.015888046 -0.00020691566 -0.1005649
-0.015897974 -0.00013359077 -0.10056379
-0.015908632 -6.4792112e-05 -0.10053679
-0.015919849 5.8561563e-06 -0.10050376
-0.015930094 7.6940283e-05 -0.1004907
-0.015939631 0.00015043467 -0.1004976
-0.015948899 0.0002303496 -0.10052636
-0.015958631 0.00030376203 -0.10052926
-0.016422478 -0.0006410256 -0.089104019
-0.016431795 -0.00057373196 -0.089099005
-0.016440844 -0.00050842203 -0.089094028
-0.0099578947 -0.043284439 -0.10314859
-0.0099666743 -0.043212712 -0.10316549
-0.0099755526 -0.043141026 -0.1031804
-0.0099859424 -0.043065809 -0.10317528
-0.0099965269 -0.042990677 -0.10316616
-0.010006356 -0.042917311 -0.10316706
-0.010016161 -0.042841833 -0.10317392
-0.010025429 -0.042770319 -0.10318083
-0.010035428 -0.042694926 -0.10318369
-0.010044965 -0.042621434 -0.10319059
-0.010054136 -0.042549875 -0.1031995
-0.010064038 -0.042474441 -0.10320436
-0.010073672 -0.042400986 -0.10320926
-0.010083306 -0.042327538 -0.10321414
-0.010093037 -0.042254128 -0.10321704
-0.010102768 -0.042180717 -0.10321993
-0.010112768 -0.042105325 -0.10322279
-0.010122694 -0.042032003 -0.10322169
-0.010133084 -0.041956786 -0.10321657
-0.01014262 -0.04188329 -0.10322346
-0.010152254 -0.041809835 -0.10322835
-0.010162449 -0.041734532 -0.10322721
-0.01017162 -0.041662976 -0.10323613
-0.010181058 -0.041589435 -0.10324502
-0.01019096 -0.041514002 -0.10324988
-0.010200595 -0.041440547 -0.10325477
-0.010210984 -0.041365333 -0.10324965
-0.010220813 -0.041291967 -0.10325055
-0.010229789 -0.041220322 -0.10326345
-0.010239593 -0.041144844 -0.10327031
-0.010249325 -0.041071434 -0.10327321
-0.010258958 -0.040997982 -0.10327809
-0.010268787 -0.040924616 -0.10327899
-0.010278982 -0.040849309 -0.10327786
-0.010289372 -0.040774092 -0.10327274
-0.010299396 -0.040700816 -0.10326964
-0.010309201 -0.040625334 -0.10327651
-0.010318078 -0.040553652 -0.10329141
-0.010327322 -0.040480025 -0.10330428
-0.010338005 -0.040404934 -0.10329317
-0.010348395 -0.040329717 -0.10328805
-0.010357638 -0.04025609 -0.10330092
-0.010366711 -0.04018449 -0.10331184
-0.010377003 -0.040109232 -0.10330871
-0.010387198 -0.040033925 -0.10330757
-0.010396929 -0.039960518 -0.10331047
-0.010406661 -0.039887108 -0.10331336
-0.010416392 -0.039813697 -0.10331626
-0.01042488 -0.039741836 -0.10333915
-0.010433271 -0.039669938 -0.10336404
-0.010443564 -0.039594673 -0.10336092
-0.010454148 -0.039519541 -0.1033518
-0.010464733 -0.039444409 -0.10334268
-0.010474927 -0.039369106 -0.10334156
-0.010484464 -0.03929561 -0.10334844
-0.010494097 -0.039222158 -0.10335333
-0.010503732 -0.039148703 -0.10335822
-0.01051317 -0.039075166 -0.10336711
-0.010522804 -0.039001714 -0.103372
-0.010533291 -0.038926538 -0.10336487
-0.010543486 -0.038851231 -0.10336374
-0.010553023 -0.038777739 -0.10337063
-0.010562266 -0.038704112 -0.10338351
-0.0105719 -0.038630661 -0.10338841
-0.010582094 -0.038555354 -0.10338728
-0.010591631 -0.038481861 -0.10339416
-0.010600973 -0.038408279 -0.10340504
-0.010610411 -0.038334738 -0.10341393
-0.010620045 -0.038261287 -0.10341882
-0.010629972 -0.038187962 -0.10341772
-0.010640264 -0.0381127 -0.10341459
-0.01065075 -0.038037527 -0.10340747
-0.010660848 -0.03796218 -0.10340834
-0.010670482 -0.037888728 -0.10341322
-0.010680774 -0.037813462 -0.1034101
-0.010689847 -0.037741862 -0.10342102
-0.010698799 -0.037668109 -0.10343988
-0.010708627 -0.037594743 -0.10344078
-0.010719212 -0.037519611 -0.10343166
-0.010729309 -0.037444264 -0.10343253
-0.010738944 -0.037370812 -0.10343742
-0.010748285 -0.037297226 -0.1034483
-0.010757724 -0.037223689 -0.10345718
-0.01076765 -0.037150368 -0.10345608
-0.010777357 -0.037074849 -0.10346495
-0.010786796 -0.037001308 -0.10347383
-0.010797186 -0.036926091 -0.1034687
-0.010807015 -0.036852725 -0.1034696
-0.010816453 -0.036779188 -0.10347848
-0.01082655 -0.036703836 -0.10347936
-0.010836185 -0.036630385 -0.10348424
-0.010845525 -0.036556803 -0.10349513
-0.010854404 -0.036485117 -0.10351003
-0.010864501 -0.036409769 -0.1035109
-0.010875085 -0.036334638 -0.10350177
-0.010885475 -0.036259416 -0.10349666
-0.010895573 -0.036184072 -0.10349752
-0.010905206 -0.036110617 -0.10350242
-0.01091484 -0.036037166 -0.1035073
-0.01092523 -0.035961948 -0.10350218
-0.010934961 -0.035888538 -0.10350507
-0.010944303 -0.035814956 -0.10351595
-0.010984776 -0.035698447 -0.10303672
-0.010994215 -0.035624906 -0.10304561
-0.01116509 -0.034969602 -0.10144752
-0.011178453 -0.034891497 -0.10139241
-0.011192207 -0.034813568 -0.10132931
-0.011205765 -0.034735553 -0.10127021
-0.011218471 -0.034659259 -0.10122311
-0.011231835 -0.034581158 -0.101168
-0.011245004 -0.034502968 -0.10111688
-0.011257246 -0.03442857 -0.10107381
-0.011268123 -0.034353569 -0.1010587
-0.011279098 -0.034278609 -0.10104159
-0.011291218 -0.034202058 -0.10100648
-0.011343616 -0.03401731 -0.10047428
-0.011357857 -0.033939596 -0.1004012
-0.011374756 -0.033856757 -0.10029007
-0.011388144 -0.033780769 -0.100229
-0.011403897 -0.03369952 -0.10013589
-0.011415651 -0.033624906 -0.1001028
-0.011427211 -0.033550207 -0.10007372
-0.011440502 -0.033474173 -0.10001463
-0.011454061 -0.033396155 -0.099955522
-0.011464767 -0.03332318 -0.099938452
-0.011475375 -0.033250161 -0.099923365
-0.011487691 -0.033173691 -0.099884264
-0.011500787 -0.033097573 -0.099829175
-0.011511955 -0.033022698 -0.099808082
-0.011522955 -0.03294985 -0.099785008
-0.01153432 -0.032875065 -0.099759907
-0.011545124 -0.032802127 -0.09974084
-0.011555147 -0.032728851 -0.099737734
-0.011563928 -0.03265712 -0.099754639
-0.011573001 -0.03258552 -0.099765554
-0.011583317 -0.03251237 -0.099756464
-0.011593927 -0.032439351 -0.099741384
-0.011604243 -0.032366198 -0.099732287
-0.011613877 -0.032292746 -0.099737182
-0.011623243 -0.032221276 -0.099742107
-0.011633267 -0.032147996 -0.099739
-0.011643583 -0.032074846 -0.099729918
-0.011653898 -0.032001697 -0.099720828
-0.011663362 -0.031930268 -0.099723756
-0.011673191 -0.031856902 -0.099724643
-0.011683605 -0.031783793 -0.099713564
-0.011693068 -0.031712368 -0.099716485
-0.011702605 -0.031638872 -0.099723376
-0.01171197 -0.031567402 -0.099728294
-0.011721799 -0.031494036 -0.099729188
-0.011731555 -0.031422734 -0.099726126
-0.011741188 -0.031349283 -0.099731013
-0.011750847 -0.031277943 -0.099729948
-0.011761162 -0.031204794 -0.099720851
-0.011770992 -0.031131428 -0.099721752
-0.01178026 -0.031059911 -0.099728666
-0.011789723 -0.030988485 -0.099731594
-0.011799747 -0.030915204 -0.099728495
-0.011809869 -0.030841969 -0.099723399
-0.011819599 -0.030768558 -0.099726297
-0.011829063 -0.030697132 -0.099729218
-0.011838429 -0.03062566 -0.099734135
-0.01184816 -0.030552251 -0.099737026
-0.011857428 -0.030480737 -0.099743955
-0.011866502 -0.030409139 -0.099754855
-0.011875769 -0.030337624 -0.099761777
-0.011885306 -0.030264128 -0.099768668
-0.011894768 -0.030192699 -0.099771596
-0.011904499 -0.030119291 -0.099774487
-0.011914523 -0.03004601 -0.09977138
-0.011924377 -0.029974755 -0.099766321
-0.011934498 -0.029901519 -0.099761233
-0.011944059 -0.029830135 -0.099762149
-0.011953304 -0.029756509 -0.099775039
-0.011962571 -0.029684994 -0.099781953
-0.011972595 -0.029611716 -0.099778853
-0.011982448 -0.029540461 -0.09977378
-0.011991985 -0.029466964 -0.099780679
-0.012000765 -0.029395236 -0.099797577
-0.012011373 -0.029322214 -0.099782497
-0.012022372 -0.029249366 -0.09975943
-0.012032299 -0.029176045 -0.099758327
-0.01204147 -0.029104486 -0.099767238
-0.012051592 -0.029031251 -0.099762149
-0.012061907 -0.028958101 -0.099753067
-0.012070883 -0.028886456 -0.099765971
-0.012079761 -0.02881477 -0.099780872
-0.01208959 -0.028741403 -0.099781774
-0.012099541 -0.028670192 -0.099774711
-0.012109661 -0.028596956 -0.099769615
-0.012119491 -0.02852359 -0.099770509
-0.012128662 -0.028452031 -0.099779427
-0.012138393 -0.028378623 -0.099782318
-0.012148246 -0.028307367 -0.099777251
-0.01215827 -0.028234087 -0.099774159
-0.012168026 -0.02816279 -0.09977109
-0.012178049 -0.02808951 -0.09976799
-0.012187781 -0.028016102 -0.099770881
-0.012197146 -0.02794463 -0.099775806
-0.012206975 -0.027871264 -0.099776708
-0.012216633 -0.027799923 -0.099775635
-0.012226755 -0.027726686 -0.099770546
-0.012237071 -0.027653536 -0.099761449
-0.012247412 -0.027582496 -0.099746399
-0.012258386 -0.027507538 -0.099729285
-0.01226824 -0.027436282 -0.099724233
-0.012278263 -0.027363002 -0.099721126
-0.012287922 -0.027291663 -0.099720053
-0.012296897 -0.027220018 -0.099732965
-0.012305946 -0.027146306 -0.099749841
-0.012315312 -0.027074836 -0.099754758
-0.012325531 -0.027001642 -0.099747665
-0.012334506 -0.026929999 -0.099760577
-0.012343287 -0.02685827 -0.099777482
-0.012352823 -0.026784774 -0.099784367
-0.012361702 -0.026713086 -0.099799275
-0.012370678 -0.026641443 -0.099812187
-0.012380896 -0.026568249 -0.099805094
-0.012391041 -0.026497126 -0.099794038
-0.012401065 -0.026423845 -0.099790938
-0.012410602 -0.026350349 -0.09979783
-0.012418919 -0.026280515 -0.099818751
-0.012428455 -0.026207019 -0.099825643
-0.01243848 -0.026133738 -0.099822544
-0.012447065 -0.026061922 -0.099843442
-0.012454968 -0.025989804 -0.099878319
-0.012463944 -0.02591816 -0.09989123
-0.012474066 -0.025844924 -0.099886134
-0.012483918 -0.025773671 -0.099881068
-0.012493357 -0.025700131 -0.099889949
-0.012502333 -0.025628487 -0.099902861
-0.012511503 -0.025556929 -0.099911787
-0.012521235 -0.025483521 -0.09991467
-0.012531258 -0.025410242 -0.099911578
-0.012541014 -0.025338944 -0.099908516
-0.012550843 -0.025265578 -0.099909402
-0.012560306 -0.025194149 -0.099912323
-0.012570135 -0.025120784 -0.099913225
-0.012579989 -0.025049528 -0.099908158
-0.012590403 -0.024976421 -0.099897072
-0.012600621 -0.024903229 -0.099889986
-0.012610084 -0.0248318 -0.099892907
-0.012619523 -0.024758261 -0.099901788
-0.012628011 -0.024686402 -0.099924684
-0.012636011 -0.024614327 -0.09995757
-0.012644695 -0.024542553 -0.099976465
-0.012654426 -0.024469145 -0.099979356
-0.012664377 -0.024397932 -0.099972308
-0.012674791 -0.024324825 -0.099961214
-0.012684912 -0.02425159 -0.09995611
-0.012694571 -0.024180248 -0.099955037
-0.012704399 -0.024106881 -0.099955946
-0.012714131 -0.024033472 -0.099958837
-0.012723593 -0.023962045 -0.099961758
-0.012733325 -0.023888636 -0.099964663
-0.012742788 -0.023817208 -0.099967577
-0.012752056 -0.023745693 -0.099974491
-0.01276208 -0.023672413 -0.099971399
-0.012771909 -0.023599047 -0.099972293
-0.012780982 -0.023527447 -0.099983208
-0.012791201 -0.023454254 -0.099976107
-0.012802103 -0.023381364 -0.099955045
-0.012812053 -0.023310151 -0.099947982
-0.012821395 -0.023236569 -0.099958859
-0.012830272 -0.023164883 -0.099973768
-0.012839711 -0.023091344 -0.099982657
-0.012848686 -0.023019701 -0.099995561
-0.012857931 -0.022946075 -0.10000844
-0.012867199 -0.02287456 -0.10001536
-0.012876637 -0.022801023 -0.10002425
-0.012886101 -0.022729594 -0.10002717
-0.01289632 -0.022656402 -0.10002008
-0.012906831 -0.022583338 -0.100007
-0.012916782 -0.022512127 -0.099999934
-0.012927001 -0.022438932 -0.099992834
-0.012936756 -0.022367634 -0.099989772
