# .PCD v0.7 - Point Cloud Data file format
VERSION 0.7
FIELDS x y z
SIZE 4 4 4
TYPE F F F
COUNT 1 1 1
WIDTH 1296
HEIGHT 1
VIEWPOINT 0 0 0 1 0 0 0
POINTS 1296
DATA ascii
-0.19167572 -0.032096423 -0.11162402
-0.19168545 -0.032023013 -0.11162692
-0.19169538 -0.031949688 -0.11162581
-0.19170548 -0.031874344 -0.11162668
-0.19171551 -0.03180106 -0.11162358
-0.191726 -0.031725887 -0.11161646
-0.19173619 -0.031650584 -0.11161532
-0.19174518 -0.031578939 -0.11162823
-0.19175357 -0.031507038 -0.11165312
-0.19176255 -0.031435393 -0.11166602
-0.19177255 -0.031360004 -0.11166888
-0.19178239 -0.031286638 -0.11166978
-0.19179232 -0.031213317 -0.11166868
-0.19180241 -0.031137967 -0.11166953
-0.19181205 -0.031064516 -0.11167443
-0.19182169 -0.030991064 -0.11167932
-0.19183114 -0.030917525 -0.1116882
-0.19184011 -0.030845884 -0.1117011
-0.19184926 -0.030772213 -0.11171598
-0.19185995 -0.030697126 -0.11170486
-0.191871 -0.030620098 -0.11169172
-0.19188054 -0.030546604 -0.11169861
-0.19188972 -0.030475046 -0.11170752
-0.19189917 -0.030401507 -0.1117164
-0.1919089 -0.030328101 -0.1117193
-0.19191919 -0.030252839 -0.11171615
-0.19192845 -0.030179212 -0.11172903
-0.19193712 -0.03010744 -0.11174793
-0.19194695 -0.030034075 -0.11174882
-0.19195744 -0.0299589 -0.1117417
-0.19196793 -0.029883726 -0.11173458
-0.19197823 -0.029808465 -0.11173145
-0.19198731 -0.029736863 -0.11174235
-0.19199637 -0.029663151 -0.11175923
-0.19200601 -0.029589701 -0.11176412
-0.19201574 -0.029516293 -0.11176701
-0.19202518 -0.029442752 -0.11177589
-0.19203492 -0.029369345 -0.11177878
-0.19204475 -0.029295977 -0.11177967
-0.19205399 -0.029222354 -0.11179255
-0.19206335 -0.02914877 -0.11180343
-0.19207336 -0.029075492 -0.11180033
-0.19208346 -0.029000146 -0.11180119
-0.1920931 -0.028926691 -0.11180608
-0.19210283 -0.028853284 -0.11180897
-0.19211324 -0.028778067 -0.11180384
-0.19212297 -0.028704658 -0.11180674
-0.1921325 -0.028631162 -0.11181363
-0.19214261 -0.028555814 -0.11181448
-0.19215263 -0.028482536 -0.11181139
-0.19216293 -0.028407274 -0.11180826
-0.19217257 -0.02833382 -0.11181315
-0.19218162 -0.02826011 -0.11183002
-0.19219117 -0.028186616 -0.1118369
-0.19220099 -0.028113248 -0.1118378
-0.19221044 -0.028039711 -0.11184669
-0.19222008 -0.027966257 -0.11185157
-0.19223018 -0.027890909 -0.11185243
-0.1922401 -0.027817588 -0.11185133
-0.19224955 -0.027744049 -0.11186021
-0.19225889 -0.027670469 -0.11187109
-0.19226854 -0.027597014 -0.11187598
-0.19227807 -0.027523519 -0.11188287
-0.19228807 -0.027448131 -0.11188572
-0.19229801 -0.027374808 -0.11188462
-0.19230735 -0.027301226 -0.1118955
-0.19231689 -0.02722773 -0.11190239
-0.19232728 -0.027152512 -0.11189726
-0.19233692 -0.027079061 -0.11190215
-0.19234675 -0.027005695 -0.11190305
-0.19235694 -0.026930392 -0.11190192
-0.19236639 -0.026856851 -0.1119108
-0.19237633 -0.026783528 -0.11190969
-0.19238652 -0.026708225 -0.11190856
-0.19239578 -0.0266346 -0.11192143
-0.19240521 -0.026561061 -0.11193031
-0.19241485 -0.026487609 -0.1119352
-0.19242477 -0.026414286 -0.1119341
-0.19243518 -0.026339069 -0.11192898
-0.19244547 -0.026263809 -0.11192584
-0.19245511 -0.026190355 -0.11193073
-0.19246446 -0.026116775 -0.11194161
-0.19247408 -0.02604332 -0.1119465
-0.19248314 -0.02596961 -0.11196337
-0.19252314 -0.025855012 -0.11148817
-0.19253278 -0.025781561 -0.11149306
-0.19263627 -0.025459846 -0.11032949
-0.19265889 -0.02536905 -0.11012834
-0.19267389 -0.025289573 -0.11004523
-0.19268858 -0.025209969 -0.10996812
-0.19270205 -0.025131911 -0.10991101
-0.19271772 -0.025050625 -0.10981988
-0.19273224 -0.024973044 -0.1097408
-0.19274741 -0.024891544 -0.10965966
-0.19275908 -0.024816887 -0.10962857
-0.19277065 -0.02474219 -0.10959948
-0.19278306 -0.024665769 -0.10955837
-0.19279471 -0.024591114 -0.10952729
-0.19280559 -0.024516111 -0.10951217
-0.19281676 -0.02444124 -0.10949107
-0.19282909 -0.024364777 -0.10945195
-0.19290164 -0.024094461 -0.10875265
-0.19291474 -0.024018344 -0.10869757
-0.1929263 -0.023943644 -0.10866848
-0.1929393 -0.023867482 -0.10861538
-0.19295239 -0.023791365 -0.1085603
-0.19296452 -0.023714814 -0.10852519
-0.19297743 -0.02363861 -0.10847409
-0.19298908 -0.023563953 -0.10844301
-0.1929996 -0.023490891 -0.10842992
-0.1930104 -0.023417957 -0.10841084
-0.19302301 -0.023341624 -0.10836574
-0.1930365 -0.023265678 -0.10830267
-0.19304767 -0.023190806 -0.10828156
-0.1930576 -0.023117483 -0.10828046
-0.19306736 -0.023046186 -0.10827738
-0.19307902 -0.02297153 -0.1082463
-0.19309029 -0.022896701 -0.10822319
-0.19310005 -0.022825405 -0.10822012
-0.19310988 -0.022752039 -0.10822102
-0.19311945 -0.022680655 -0.10822195
-0.19312948 -0.022607375 -0.10821884
-0.1931399 -0.02253427 -0.10820775
-0.19314936 -0.022462841 -0.10821068
-0.19315815 -0.022391111 -0.10822758
-0.19316722 -0.022319512 -0.10823848
-0.19317754 -0.022246363 -0.1082294
-0.19318891 -0.022171577 -0.10820429
-0.1931999 -0.022098729 -0.10818123
-0.19321012 -0.022025539 -0.10817412
-0.19321862 -0.02195368 -0.10819701
-0.19322656 -0.02188367 -0.10822593
-0.19323564 -0.02181207 -0.10823684
-0.1932448 -0.021740513 -0.10824575
-0.19325455 -0.021667104 -0.10824865
-0.19326439 -0.021595851 -0.10824358
-0.19327442 -0.02152257 -0.10824048
-0.19328415 -0.021449162 -0.10824337
-0.19329402 -0.021377908 -0.1082383
-0.19330452 -0.021304844 -0.10822522
-0.19331475 -0.021231651 -0.10821812
-0.19332477 -0.021158371 -0.10821503
-0.19333425 -0.021086946 -0.10821795
-0.19334391 -0.021015603 -0.10821687
-0.19335394 -0.020942327 -0.10821377
-0.19336386 -0.020869004 -0.10821266
-0.19337285 -0.020797359 -0.10822557
-0.19338097 -0.020727437 -0.10825049
-0.19339025 -0.020655924 -0.10825741
-0.19340152 -0.020581096 -0.1082343
-0.19341202 -0.020508034 -0.10822122
-0.1934209 -0.020436347 -0.10823612
-0.1934294 -0.020364486 -0.10825901
-0.19343857 -0.02029293 -0.10826793
-0.19344918 -0.020219911 -0.10825285
-0.1934596 -0.020146804 -0.10824176
-0.19346868 -0.020075202 -0.10825267
-0.19347796 -0.020003691 -0.10825959
-0.19348837 -0.019930584 -0.10824849
-0.1934986 -0.019857392 -0.1082414
-0.19350776 -0.019785834 -0.10825031
-0.1935174 -0.019712381 -0.10825521
-0.19352736 -0.01964117 -0.10824813
-0.19353788 -0.019568108 -0.10823505
-0.19354741 -0.019494612 -0.10824193
-0.1935564 -0.019422969 -0.10825484
-0.19356614 -0.019351672 -0.10825177
-0.19357666 -0.019278608 -0.10823868
-0.19358659 -0.019205287 -0.10823758
-0.19359577 -0.019133728 -0.1082465
-0.19360484 -0.019062128 -0.1082574
-0.19361439 -0.018988634 -0.10826429
-0.19362366 -0.018917119 -0.1082712
-0.19363312 -0.018845692 -0.10827412
-0.19364324 -0.018772457 -0.10826903
-0.19365337 -0.018699221 -0.10826393
-0.19366284 -0.018627793 -0.10826685
-0.19367221 -0.018556323 -0.10827177
-0.19368224 -0.018483043 -0.10826866
-0.19369236 -0.018409807 -0.10826357
-0.19370183 -0.018338382 -0.10826649
-0.19371176 -0.018265057 -0.10826539
-0.19372152 -0.018193759 -0.10826232
-0.19373089 -0.018122289 -0.10826723
-0.19374092 -0.018049011 -0.10826413
-0.19375095 -0.017975733 -0.10826103
-0.19376022 -0.017904218 -0.10826795
-0.19376987 -0.017832877 -0.10826688
-0.1937802 -0.017759727 -0.10825779
-0.19379042 -0.017686535 -0.10825069
-0.19380018 -0.017615236 -0.10824762
-0.1938106 -0.017542131 -0.10823654
-0.19382052 -0.017468808 -0.10823543
-0.19382931 -0.01739708 -0.10825233
-0.19383839 -0.01732548 -0.10826324
-0.19384795 -0.017254094 -0.10826416
-0.1938571 -0.017180426 -0.10827903
-0.1938656 -0.017108567 -0.10830192
-0.19387487 -0.017037053 -0.10830884
-0.19388479 -0.016963731 -0.10830774
-0.19389416 -0.01689226 -0.10831266
-0.19390333 -0.016820703 -0.10832157
-0.19391242 -0.016749103 -0.10833248
-0.19392204 -0.016675651 -0.10833737
-0.19393276 -0.016602674 -0.10832029
-0.19394337 -0.016529653 -0.10830521
-0.19395255 -0.016458098 -0.10831412
-0.19396132 -0.016386367 -0.10833102
-0.19397041 -0.016314767 -0.10834193
-0.19397956 -0.0162411 -0.1083568
-0.19398825 -0.016169325 -0.1083757
-0.19399732 -0.016097724 -0.10838661
-0.19400716 -0.016024359 -0.1083875
-0.1940169 -0.015953062 -0.10838443
-0.19402665 -0.015879653 -0.10838732
-0.19403581 -0.015808096 -0.10839624
-0.1940448 -0.015736453 -0.10840914
-0.19405329 -0.015664592 -0.10843203
-0.19406208 -0.015592863 -0.10844894
-0.1940719 -0.015519497 -0.10844983
-0.19408166 -0.0154482 -0.10844676
-0.19409199 -0.01537505 -0.10843767
-0.19410241 -0.015301944 -0.10842658
-0.19411217 -0.015230646 -0.10842352
-0.1941222 -0.015157366 -0.10842041
-0.19413166 -0.01508594 -0.10842333
-0.19414158 -0.015012617 -0.10842223
-0.19415115 -0.014941233 -0.10842315
-0.19416021 -0.014867522 -0.10844002
-0.1941683 -0.01479549 -0.1084709
-0.1941767 -0.014723586 -0.10849579
-0.19418617 -0.014652159 -0.10849871
-0.19419611 -0.014578836 -0.10849761
-0.19420527 -0.01450728 -0.10850652
-0.194215 -0.01443387 -0.10850941
-0.19422486 -0.014362616 -0.10850435
-0.19423538 -0.014289554 -0.10849126
-0.19424589 -0.01421649 -0.10847817
-0.19425546 -0.014145106 -0.1084791
-0.19426529 -0.01407174 -0.10848
-0.19427495 -0.014000399 -0.10847893
-0.1942842 -0.013926774 -0.1084918
-0.19429289 -0.013855002 -0.1085107
-0.19430205 -0.013783445 -0.10851961
-0.1943115 -0.013709906 -0.10852849
-0.19432038 -0.013638219 -0.10854339
-0.19433013 -0.01356481 -0.10854628
-0.19434017 -0.013493642 -0.10853722
-0.19435097 -0.013420709 -0.10851814
-0.19436198 -0.013347862 -0.10849508
-0.19437145 -0.013276435 -0.108498
-0.19438049 -0.013202724 -0.10851486
-0.19438928 -0.013130994 -0.10853177
-0.19439863 -0.013057412 -0.10854265
-0.1944077 -0.012985812 -0.10855356
-0.19441704 -0.01291223 -0.10856444
-0.19442612 -0.01284063 -0.10857535
-0.19443606 -0.012767307 -0.10857425
-0.1944464 -0.012696269 -0.10855919
-0.19445692 -0.012623206 -0.10854611
-0.19446696 -0.012552038 -0.10853703
-0.19447631 -0.012478456 -0.10854792
-0.19448538 -0.012406856 -0.10855883
-0.19449493 -0.012333361 -0.10856571
-0.1945041 -0.012261803 -0.10857463
-0.19451442 -0.012188654 -0.10856554
-0.19452484 -0.012115547 -0.10855445
-0.19453421 -0.012044077 -0.10855937
-0.19454309 -0.011972391 -0.10857427
-0.19455233 -0.011898765 -0.10858715
-0.1945619 -0.011827381 -0.10858807
-0.19457242 -0.011754318 -0.10857499
-0.19458264 -0.011681125 -0.10856789
-0.19459161 -0.011609483 -0.1085808
-0.19459963 -0.011537407 -0.10861368
-0.19460829 -0.011463522 -0.10863854
-0.19461706 -0.011391792 -0.10865544
-0.19462642 -0.01131821 -0.10866632
-0.19463578 -0.011246739 -0.10867123
-0.19464561 -0.011173374 -0.10867213
-0.19465528 -0.011102033 -0.10867105
-0.1946656 -0.011028883 -0.10866196
-0.19467612 -0.010955821 -0.10864887
-0.19468635 -0.010884739 -0.10863582
-0.19469745 -0.010811936 -0.10861075
-0.1947078 -0.010740898 -0.1085957
-0.19471695 -0.010667229 -0.10861058
-0.19472542 -0.010593258 -0.10863943
-0.19473401 -0.010521442 -0.10866033
-0.19474287 -0.010447644 -0.10868119
-0.19475204 -0.010376086 -0.10869011
-0.19476198 -0.010302764 -0.108689
-0.19477153 -0.01023138 -0.10868992
-0.19478147 -0.010158058 -0.10868881
-0.19479169 -0.010084865 -0.10868172
-0.19480184 -0.010013741 -0.10867066
-0.19481236 -0.0099406773 -0.10865758
-0.19482172 -0.0098692067 -0.1086625
-0.19483086 -0.0097955391 -0.10867737
-0.19484004 -0.0097239818 -0.10868628
-0.19484968 -0.0096505294 -0.10869118
-0.19485903 -0.0095769474 -0.10870205
-0.19486821 -0.0095053911 -0.10871096
-0.19487803 -0.0094320253 -0.10871186
-0.19488759 -0.0093606412 -0.10871278
-0.19489646 -0.0092868432 -0.10873365
-0.19490531 -0.0092130443 -0.10875452
-0.19491468 -0.0091415737 -0.10875943
-0.1949248 -0.0090683382 -0.10875434
-0.19493495 -0.0089972131 -0.10874327
-0.19494528 -0.0089240642 -0.10873418
-0.1949553 -0.008850785 -0.10873108
-0.19496468 -0.0087793143 -0.10873599
-0.19497353 -0.0087055163 -0.10875686
-0.19498307 -0.008632021 -0.10876375
-0.19499321 -0.0085608959 -0.1087527
-0.19500384 -0.0084878765 -0.1087376
-0.19501407 -0.0084167952 -0.10872456
-0.19502383 -0.0083454978 -0.10872148
-0.19503357 -0.0082720891 -0.10872437
-0.19504292 -0.0081985071 -0.10873526
-0.19505216 -0.0081248824 -0.10874813
-0.19506143 -0.008053368 -0.10875505
-0.19507146 -0.0079800887 -0.10875195
-0.19508141 -0.0079088779 -0.10874488
-0.19509125 -0.007835512 -0.10874578
-0.1951004 -0.0077618435 -0.10876065
-0.19510928 -0.0076901573 -0.10877555
-0.19511922 -0.0076168347 -0.10877445
-0.19512944 -0.0075436416 -0.10876735
-0.19513899 -0.0074722581 -0.10876828
-0.19514921 -0.0073990654 -0.10876118
-0.19515957 -0.0073280269 -0.10874613
-0.19516872 -0.0072543584 -0.10876101
-0.19517688 -0.0071802577 -0.10879584
-0.19518644 -0.0071067624 -0.10880274
-0.19519667 -0.007035681 -0.10878968
-0.19520661 -0.0069623585 -0.10878858
-0.19521616 -0.0068909745 -0.1087895
-0.19522572 -0.0068174792 -0.10879639
-0.19523495 -0.0067438539 -0.10880927
-0.19524449 -0.0066703586 -0.10881615
-0.19525416 -0.0065990179 -0.10881507
-0.19526438 -0.0065258252 -0.10880797
-0.19527422 -0.0064524594 -0.10880888
-0.19528358 -0.0063809892 -0.10881379
-0.19529352 -0.0063076667 -0.10881269
-0.19530366 -0.006236542 -0.10880163
-0.19531408 -0.0061634355 -0.10879054
-0.19532403 -0.0060922247 -0.10878348
-0.19533464 -0.0060192049 -0.10876839
-0.1953449 -0.0059481235 -0.10875534
-0.19535452 -0.0058746715 -0.10876022
-0.19536388 -0.0058010896 -0.10877111
-0.19537361 -0.0057276809 -0.10877399
-0.19538406 -0.0056566857 -0.10875694
-0.19539478 -0.0055858204 -0.10873391
-0.19540471 -0.0055124983 -0.1087328
-0.19541328 -0.0054385709 -0.10875965
-0.19542204 -0.0053647291 -0.10878252
-0.19543089 -0.0052909311 -0.10880338
-0.19543995 -0.0052172192 -0.10882025
-0.19544961 -0.0051458781 -0.10881918
-0.19545993 -0.0050727292 -0.10881009
-0.19547008 -0.0050016046 -0.10879903
-0.19548 -0.004928282 -0.10879793
-0.19548984 -0.0048549161 -0.10879882
-0.19549951 -0.0047835754 -0.10879775
-0.19550905 -0.0047100806 -0.10880464
-0.19551839 -0.0046364982 -0.10881551
-0.19552754 -0.0045628296 -0.10883039
-0.19553699 -0.004489291 -0.10883927
-0.19554664 -0.0044179503 -0.1088382
-0.19555609 -0.0043444121 -0.10884708
-0.19556466 -0.0042704842 -0.10887394
-0.1955734 -0.0041966429 -0.1088968
-0.19558293 -0.0041210353 -0.10890964
-0.19559269 -0.0040497384 -0.10890657
-0.19560294 -0.0039786575 -0.10889352
-0.19561306 -0.0039054211 -0.10888842
-0.19562221 -0.0038317526 -0.1089033
-0.19563085 -0.0037557567 -0.10893412
-0.19563951 -0.003681872 -0.10895897
-0.19564876 -0.0036082473 -0.10897186
-0.19565888 -0.0035350109 -0.10896676
-0.19566932 -0.0034640161 -0.10894971
-0.19567966 -0.0033929776 -0.10893466
-0.19568969 -0.0033196993 -0.10893156
-0.19569933 -0.0032462468 -0.10893644
-0.19570838 -0.0031725354 -0.10895332
-0.19571753 -0.0030988669 -0.10896819
-0.19572698 -0.0030253278 -0.10897707
-0.19573642 -0.0029517896 -0.10898595
-0.19574615 -0.0028783809 -0.10898884
-0.19575581 -0.0028070398 -0.10898777
-0.19576584 -0.0027337596 -0.10898467
-0.19577567 -0.0026603937 -0.10898557
-0.19578521 -0.0025868993 -0.10899245
-0.19579476 -0.002513404 -0.10899933
-0.19580449 -0.0024399953 -0.10900223
-0.19581425 -0.002368697 -0.10899916
-0.19582437 -0.0022954606 -0.10899407
-0.19583382 -0.0022219224 -0.10900295
-0.19584267 -0.0021481244 -0.10902381
-0.19585183 -0.0020744558 -0.10903868
-0.19586176 -0.0020011337 -0.10903758
-0.19587179 -0.0019278545 -0.10903449
-0.19588143 -0.0018544029 -0.10903937
-0.19589089 -0.0017829742 -0.10904229
-0.19590081 -0.0017096531 -0.10904118
-0.19591123 -0.001636547 -0.1090301
-0.19592117 -0.001563224 -0.109029
-0.19593044 -0.0014917096 -0.1090359
-0.19594076 -0.0014185607 -0.10902682
-0.19595139 -0.0013476517 -0.10900577
-0.19596164 -0.0012765713 -0.10899272
-0.19597147 -0.0012032064 -0.1089936
-0.19598071 -0.0011295807 -0.10900649
-0.19599004 -0.0010538865 -0.10902333
-0.1959987 -0.00098000281 -0.10904819
-0.19600792 -0.00090426579 -0.10906703
-0.19601788 -0.000833055 -0.10905997
-0.1960284 -0.00075999275 -0.10904688
-0.19603816 -0.00068869349 -0.1090438
-0.19604796 -0.00061321724 -0.10905066
-0.19605741 -0.00053967815 -0.10905954
-0.19606714 -0.00046626944 -0.10906243
-0.19607699 -0.00039501488 -0.10905737
-0.19608673 -0.00032160617 -0.10906026
-0.19609605 -0.00024591293 -0.1090771
-0.19610539 -0.00017233193 -0.10908797
-0.19611484 -9.8792836e-05 -0.10909686
-0.19612399 -2.5124289e-05 -0.10911174
-0.19613343 4.8414804e-05 -0.10912062
-0.19614317 0.00012182351 -0.10912351
-0.1961531 0.00019514654 -0.10912241
-0.19616322 0.00026838202 -0.10911731
-0.19617286 0.0003418345 -0.10912219
-0.1961824 0.00041532889 -0.10912909
-0.19619252 0.0004885653 -0.10912399
-0.19620258 0.00055973325 -0.10911492
-0.1962126 0.0006330125 -0.10911182
-0.19622275 0.00070413668 -0.10910077
-0.19623327 0.00077719986 -0.10908768
-0.19624329 0.00085047912 -0.10908458
-0.19625264 0.00092406105 -0.10909545
-0.19626176 0.00099984091 -0.10911629
-0.19627103 0.0010713553 -0.10912321
-0.19628097 0.0011446765 -0.1091221
-0.196291 0.0012179557 -0.10911901
-0.19630122 0.0012911484 -0.10911191
-0.19631107 0.0013624039 -0.10910684
-0.1963208 0.0014358126 -0.10910974
-0.19633006 0.0015094364 -0.10912261
-0.19633918 0.0015852172 -0.10914345
-0.19634862 0.0016587563 -0.10915233
-0.19635892 0.0017340174 -0.1091492
-0.19636877 0.001805271 -0.10914413
-0.19637899 0.0018784637 -0.10913704
-0.19638894 0.0019496744 -0.10912997
-0.19639857 0.0020252382 -0.10914082
-0.19640779 0.0021009753 -0.10915966
-0.19641742 0.0021744277 -0.10916455
-0.19642706 0.0022478793 -0.10916944
-0.19643651 0.0023214174 -0.10917832
-0.19644654 0.0023946976 -0.10917522
-0.19645688 0.0024657361 -0.10916017
-0.19646671 0.0025391011 -0.10916106
-0.19647606 0.002612683 -0.10917194
-0.19648635 0.0026879441 -0.10916881
-0.1964965 0.0027590683 -0.10915776
-0.19650653 0.0028323475 -0.10915466
-0.19651607 0.0029058428 -0.10916153
-0.19652541 0.0029794257 -0.10917241
-0.19653532 0.0030548582 -0.10917727
-0.19654508 0.0031261565 -0.10917421
-0.19655479 0.0032016765 -0.10918306
-0.19656384 0.0032753889 -0.10919993
-0.19657357 0.0033487976 -0.10920282
-0.19658399 0.0034219045 -0.10919173
-0.19659382 0.0034952695 -0.10919262
-0.19660346 0.003568721 -0.10919751
-0.19661359 0.0036419565 -0.10919242
-0.19662364 0.0037131254 -0.10918336
-0.19663386 0.003786318 -0.10917626
-0.1966442 0.0038573556 -0.10916121
-0.19665462 0.0039304616 -0.10915012
-0.19666326 0.0040064575 -0.10918094
-0.19667175 0.0040867208 -0.10922568
-0.19668081 0.0041604321 -0.10924254
-0.19669083 0.0042337105 -0.10923945
-0.19670135 0.0043067727 -0.10922636
-0.19671121 0.0043780282 -0.10922129
-0.19672114 0.0044513512 -0.10922019
-0.19673145 0.004524501 -0.10921109
-0.19674081 0.0045980811 -0.10922198
-0.19674984 0.0046739057 -0.10924482
-0.19676006 0.0047470983 -0.10923772
-0.19677067 0.0048201177 -0.10922264
-0.19678032 0.0048914589 -0.10922156
-0.19678952 0.0049693063 -0.10924637
-0.19679904 0.0050449129 -0.10925922
-0.1968087 0.0051162541 -0.10925815
-0.19681871 0.0051916447 -0.109261
-0.19682863 0.0052649677 -0.10925989
-0.19683856 0.0053382907 -0.10925879
-0.19684839 0.0054116547 -0.10925969
-0.19685853 0.0054848921 -0.10925458
-0.19686836 0.0055582579 -0.10925548
-0.19687748 0.0056340359 -0.10927632
-0.1968867 0.0057097729 -0.10929516
-0.19689651 0.005785251 -0.10930201
-0.19690634 0.0058586169 -0.10930291
-0.19691618 0.0059319828 -0.1093038
-0.19692563 0.00600552 -0.10931268
-0.19693533 0.0060810391 -0.10932154
-0.19694516 0.0061544068 -0.10932244
-0.1969551 0.006227728 -0.10932133
-0.19696499 0.0063031614 -0.10932618
-0.19697464 0.0063766167 -0.10933108
-0.19698435 0.0064521357 -0.10933992
-0.19699357 0.0065278709 -0.10935876
-0.19700322 0.0066013243 -0.10936365
-0.19701333 0.0066745598 -0.10935856
-0.19702317 0.0067479257 -0.10935945
-0.19703278 0.0068234913 -0.1093703
-0.1970422 0.0068991389 -0.10938514
-0.19705142 0.0069748741 -0.10940398
-0.19706133 0.0070503093 -0.10940884
-0.19707097 0.0071237627 -0.10941373
-0.1970804 0.0071973 -0.10942261
-0.19709073 0.0072704498 -0.10941352
-0.19710134 0.0073434692 -0.10939844
-0.19711117 0.0074168369 -0.10939933
-0.19712071 0.0074903313 -0.10940623
-0.19713043 0.0075658523 -0.10941508
-0.19714014 0.0076413713 -0.10942392
-0.19715019 0.0077125393 -0.10941485
-0.19716109 0.0077854302 -0.10939378
-0.19717094 0.0078566819 -0.10938872
-0.19718066 0.0079322029 -0.10939757
-0.19719076 0.0080075525 -0.10939844
-0.19720072 0.0080787614 -0.10939137
-0.19721103 0.0081519131 -0.10938228
-0.19722116 0.0082251485 -0.10937718
-0.19723108 0.0082984716 -0.10937608
-0.19724122 0.0083717052 -0.10937098
-0.19724999 0.0084518399 -0.10940973
-0.19725952 0.0085274447 -0.10942259
-0.19726913 0.0086030085 -0.10943343
-0.19727865 0.0086786151 -0.10944628
-0.19728838 0.0087520257 -0.10944917
-0.19729882 0.0088230222 -0.10943212
-0.19730975 0.008893799 -0.10940508
-0.19732048 0.0089646634 -0.10938203
-0.19733092 0.00903566 -0.10936499
-0.19734095 0.0091089364 -0.10936188
-0.19735067 0.0091844555 -0.10937074
-0.19736008 0.0092601087 -0.10938559
-0.19737011 0.009333387 -0.10938248
-0.19738157 0.009399727 -0.10933354
-0.19739261 0.0094683506 -0.10929855
-0.19740337 0.0095371045 -0.10926954
-0.19741358 0.0096124075 -0.10926841
-0.19742343 0.009683663 -0.10926335
-0.19743468 0.0097521991 -0.10922435
-0.19744502 0.0098232385 -0.1092093
-0.19745493 0.0098986737 -0.10921416
-0.19746415 0.0099744089 -0.109233
-0.19747478 0.010045318 -0.10921194
-0.19748729 0.010104889 -0.10912514
-0.19749968 0.010166619 -0.1090463
-0.1975099 0.01023981 -0.10903921
-0.19753049 0.01038193 -0.1090111
-0.19753917 0.010464218 -0.10905781
-0.19754939 0.010537408 -0.10905071
-0.19755766 0.010619869 -0.10910541
-0.19756922 0.010686167 -0.10905447
-0.19757845 0.010761902 -0.10907331
-0.19147147 -0.033642359 -0.11154046
-0.19148131 -0.033568989 -0.11154135
-0.19149095 -0.033495538 -0.11154624
-0.19150011 -0.033423983 -0.11155516
-0.19151041 -0.033348721 -0.11155202
-0.19152071 -0.033273458 -0.1115489
-0.19153005 -0.033199877 -0.11155978
-0.19153893 -0.033128191 -0.11157467
-0.19154868 -0.033054784 -0.11157757
-0.1915585 -0.032981418 -0.11157846
-0.19156899 -0.032906242 -0.11157133
-0.19157939 -0.032831024 -0.11156621
-0.19158892 -0.032757528 -0.1115731
-0.19159772 -0.032685798 -0.11159
-0.19160706 -0.032612219 -0.11160088
-0.19161622 -0.03254066 -0.11160979
-0.19162567 -0.032467119 -0.11161868
-0.1916355 -0.032393754 -0.11161957
-0.19164646 -0.032316685 -0.11160842
-0.19165695 -0.032241508 -0.1116013
-0.19166613 -0.032169953 -0.11161021
-0.19167528 -0.032096285 -0.11162508
-0.19168501 -0.032022879 -0.11162797
-0.19169493 -0.031949554 -0.11162686
-0.19170503 -0.031874206 -0.11162774
-0.19171506 -0.031800926 -0.11162463
-0.19172545 -0.031725708 -0.1116195
-0.19173574 -0.031650446 -0.11161637
-0.19174463 -0.031578764 -0.11163127
-0.19175312 -0.031506903 -0.11165417
-0.19176246 -0.031433322 -0.11166505
-0.1917721 -0.031359866 -0.11166994
-0.19178203 -0.031286545 -0.11166883
-0.19179223 -0.031211242 -0.1116677
-0.19180197 -0.031137833 -0.11167059
-0.19181161 -0.03106438 -0.11167549
-0.19182134 -0.030990973 -0.11167838
-0.19183078 -0.03091743 -0.11168727
-0.19183967 -0.030845746 -0.11170216
-0.1918489 -0.03077212 -0.11171503
-0.1918596 -0.030697033 -0.11170392
-0.19187064 -0.030620007 -0.11169077
-0.19188018 -0.030546512 -0.11169766
-0.19188926 -0.030474911 -0.11170857
-0.1918987 -0.03040137 -0.11171745
-0.19190843 -0.030327963 -0.11172035
-0.19191873 -0.030252703 -0.11171721
-0.19192798 -0.030179078 -0.11173008
-0.19193667 -0.030107303 -0.11174899
-0.19194651 -0.030033937 -0.11174988
-0.19195709 -0.029958807 -0.11174076
-0.19196749 -0.029883588 -0.11173563
-0.19197787 -0.029808372 -0.11173051
-0.19198695 -0.029736772 -0.11174142
-0.1919959 -0.029663015 -0.11176028
-0.19200554 -0.029589564 -0.11176517
-0.19201528 -0.029516155 -0.11176806
-0.19202472 -0.029442616 -0.11177694
-0.19203445 -0.029369209 -0.11177983
-0.1920442 -0.029295797 -0.11178273
-0.19205354 -0.029222216 -0.1117936
-0.19206288 -0.029148635 -0.11180449
-0.19207291 -0.029075354 -0.11180139
-0.19208302 -0.029000008 -0.11180225
-0.19209264 -0.028926555 -0.11180714
-0.19210239 -0.028853148 -0.11181003
-0.19211288 -0.028777972 -0.11180291
-0.1921225 -0.02870452 -0.11180779
-0.19213206 -0.028631026 -0.11181469
-0.19214205 -0.028555634 -0.11181755
-0.19215208 -0.028482355 -0.11181443
-0.19216247 -0.028407136 -0.11180931
-0.19217211 -0.028333683 -0.1118142
-0.19218126 -0.028260017 -0.11182907
-0.1921908 -0.028186522 -0.11183596
-0.19220063 -0.028113155 -0.11183685
-0.19221008 -0.028039616 -0.11184574
-0.19221997 -0.027964182 -0.1118506
-0.19222972 -0.027890773 -0.11185349
-0.19223964 -0.02781745 -0.11185239
-0.19224918 -0.027743954 -0.11185928
-0.19225852 -0.027670374 -0.11187015
-0.19226816 -0.027596921 -0.11187503
-0.1922777 -0.027523426 -0.11188193
-0.19228771 -0.027448036 -0.11188479
-0.19229764 -0.027374713 -0.11188368
-0.19230698 -0.027301131 -0.11189456
-0.19231652 -0.027227635 -0.11190144
-0.19232681 -0.027152374 -0.11189831
-0.19233645 -0.027078923 -0.1119032
-0.19234638 -0.0270056 -0.1119021
-0.19235648 -0.026930254 -0.11190297
-0.19236602 -0.026856758 -0.11190984
-0.19237585 -0.026783392 -0.11191075
-0.19238606 -0.026708089 -0.11190961
-0.1923954 -0.026634503 -0.1119205
-0.19240475 -0.026560923 -0.11193137
-0.19241448 -0.026487514 -0.11193427
-0.19242431 -0.026414149 -0.11193515
-0.1924347 -0.026338931 -0.11193004
-0.192445 -0.026263671 -0.1119269
-0.19245464 -0.026190218 -0.11193178
-0.19246408 -0.026116678 -0.11194067
-0.19247372 -0.026043225 -0.11194555
-0.19248277 -0.025969516 -0.11196243
-0.19252267 -0.025854874 -0.11148922
-0.19253267 -0.025779484 -0.11149208
-0.1926358 -0.025459709 -0.11033054
-0.19265853 -0.025368955 -0.1101274
-0.19267352 -0.02528948 -0.11004429
-0.19268823 -0.025209874 -0.10996718
-0.1927017 -0.025131818 -0.10991007
-0.19271725 -0.025050487 -0.10982093
-0.19273178 -0.024972908 -0.10974185
-0.19274706 -0.024891451 -0.10965872
-0.19275881 -0.024816837 -0.10962563
-0.19277027 -0.024742095 -0.10959854
-0.19278269 -0.024665674 -0.10955743
-0.19279462 -0.024589038 -0.10952631
-0.19280523 -0.024516016 -0.10951123
-0.19281641 -0.024441145 -0.10949013
-0.19282871 -0.02436468 -0.10945102
-0.19290118 -0.024094325 -0.10875371
-0.19291437 -0.02401825 -0.10869662
-0.19292593 -0.023943551 -0.10866752
-0.19293894 -0.023867387 -0.10861444
-0.19295193 -0.023791227 -0.10856135
-0.19296415 -0.023714721 -0.10852424
-0.19297706 -0.023638517 -0.10847315
-0.19298872 -0.02356386 -0.10844205
-0.19299923 -0.023490796 -0.10842898
-0.19301003 -0.023417864 -0.1084099
-0.19302255 -0.023341486 -0.10836679
-0.19303603 -0.023265541 -0.10830372
-0.19304721 -0.02319067 -0.10828262
-0.19305724 -0.02311739 -0.10827951
-0.193067 -0.023046091 -0.10827645
-0.19307865 -0.022971436 -0.10824535
-0.19308993 -0.022896606 -0.10822226
-0.19309969 -0.02282531 -0.10821918
-0.19310951 -0.022751946 -0.10822008
-0.19311908 -0.022680562 -0.10822099
-0.19312911 -0.022607282 -0.1082179
-0.19313943 -0.022534132 -0.10820881
-0.1931489 -0.022462703 -0.10821173
-0.19315778 -0.022391018 -0.10822663
-0.19316676 -0.022319375 -0.10823954
-0.19317707 -0.022246225 -0.10823045
-0.19318855 -0.022171482 -0.10820335
-0.19319955 -0.022098636 -0.10818028
-0.19320977 -0.022025444 -0.10817318
-0.19321826 -0.021953583 -0.10819608
-0.19322608 -0.021883532 -0.10822699
-0.19323507 -0.021811889 -0.1082399
-0.19324434 -0.021740375 -0.10824682
-0.19325407 -0.021666966 -0.1082497
-0.19326393 -0.021595713 -0.10824464
-0.19327405 -0.021522477 -0.10823953
-0.1932838 -0.021449067 -0.10824243
-0.19329354 -0.021377768 -0.10823935
-0.19330397 -0.021304663 -0.10822827
-0.19331428 -0.021231513 -0.10821917
-0.19332431 -0.021158235 -0.10821608
-0.19333388 -0.021086849 -0.10821699
-0.19334345 -0.021015465 -0.10821792
-0.19335347 -0.020942189 -0.10821482
-0.1933634 -0.020868864 -0.10821372
-0.19337247 -0.020797264 -0.10822463
-0.19338059 -0.020727344 -0.10824955
-0.19339024 -0.020653892 -0.10825444
-0.19340114 -0.020581001 -0.10823337
-0.19341165 -0.020507939 -0.10822027
-0.19342053 -0.02043625 -0.10823518
-0.19342902 -0.020364393 -0.10825807
-0.1934381 -0.020292791 -0.10826898
-0.19344872 -0.020219771 -0.1082539
-0.19345914 -0.020146666 -0.10824281
-0.19346821 -0.020075064 -0.10825372
-0.19347759 -0.020003594 -0.10825863
-0.193488 -0.019930489 -0.10824755
-0.19349812 -0.019857254 -0.10824245
-0.1935073 -0.019785697 -0.10825136
-0.19351692 -0.019712243 -0.10825626
-0.19352698 -0.019641075 -0.10824719
-0.1935375 -0.019568011 -0.10823411
-0.19354704 -0.019494517 -0.10824099
-0.19355601 -0.019422874 -0.1082539
-0.19356577 -0.019351576 -0.10825083
-0.19357619 -0.01927847 -0.10823973
-0.19358613 -0.019205147 -0.10823863
-0.19359529 -0.01913359 -0.10824755
-0.19360436 -0.01906199 -0.10825846
-0.19361392 -0.018988494 -0.10826534
-0.19362327 -0.018917024 -0.10827026
-0.19363265 -0.018845553 -0.10827518
-0.19364278 -0.018772317 -0.10827009
-0.1936529 -0.018699082 -0.10826498
-0.19366246 -0.018627698 -0.10826591
-0.19367173 -0.018556185 -0.10827282
-0.19368176 -0.018482905 -0.10826972
-0.19369188 -0.018409669 -0.10826463
-0.19370136 -0.018338243 -0.10826755
-0.19371128 -0.01826492 -0.10826644
-0.19372104 -0.018193621 -0.10826337
-0.1937305 -0.018122194 -0.10826629
-0.19374053 -0.018048914 -0.10826319
-0.19375046 -0.017975593 -0.10826208
-0.19375983 -0.017904121 -0.10826701
-0.1937695 -0.01783278 -0.10826594
-0.19377981 -0.017759632 -0.10825684
-0.19378993 -0.017686395 -0.10825174
-0.19379969 -0.017615099 -0.10824867
-0.19381011 -0.017541992 -0.10823759
-0.19382004 -0.017468669 -0.10823648
-0.19382882 -0.01739694 -0.10825338
-0.193838 -0.017325383 -0.1082623
-0.19384757 -0.017253999 -0.10826322
-0.19385661 -0.017180286 -0.10828009
-0.19386511 -0.017108425 -0.10830298
-0.19387437 -0.017036913 -0.10830989
-0.19388431 -0.01696359 -0.10830879
-0.19389367 -0.01689212 -0.10831371
-0.19390285 -0.016820563 -0.10832262
-0.19391192 -0.016748961 -0.10833354
-0.19392157 -0.01667551 -0.10833842
-0.19393228 -0.016602535 -0.10832135
-0.19394289 -0.016529514 -0.10830626
-0.19395205 -0.016457956 -0.10831517
-0.19396093 -0.016386271 -0.10833008
-0.19396992 -0.016314626 -0.10834299
-0.19397907 -0.016240958 -0.10835786
-0.19398776 -0.016169185 -0.10837676
-0.19399683 -0.016097585 -0.10838766
-0.19400677 -0.016024262 -0.10838656
-0.19401643 -0.015952922 -0.10838549
-0.19402616 -0.015879512 -0.10838838
-0.19403543 -0.015807997 -0.10839529
-0.19404441 -0.015736356 -0.1084082
-0.19405271 -0.01566441 -0.10843509
-0.19406159 -0.015592722 -0.10844999
-0.19407143 -0.015519356 -0.10845089
-0.19408119 -0.015448059 -0.10844781
-0.1940915 -0.01537491 -0.10843873
-0.19410191 -0.015301803 -0.10842763
-0.19411168 -0.015230506 -0.10842457
-0.1941217 -0.015157226 -0.10842146
-0.19413127 -0.015085842 -0.10842239
-0.1941411 -0.015012477 -0.10842328
-0.19415066 -0.014941093 -0.10842421
-0.19415972 -0.014867381 -0.10844108
-0.19416782 -0.014795348 -0.10847197
-0.19417621 -0.014723445 -0.10849684
-0.19418594 -0.014650037 -0.10849974
-0.1941957 -0.014578739 -0.10849667
-0.19420478 -0.014507138 -0.10850757
-0.19421452 -0.014433729 -0.10851046
-0.19422448 -0.014362519 -0.1085034
-0.19423489 -0.014289413 -0.10849231
-0.1942454 -0.014216349 -0.10847923
-0.19425496 -0.014144965 -0.10848016
-0.1942648 -0.014071599 -0.10848105
-0.19427446 -0.014000258 -0.10847998
-0.19428371 -0.013926634 -0.10849285
-0.1942924 -0.01385486 -0.10851175
-0.19430156 -0.013783303 -0.10852066
-0.19431101 -0.013709764 -0.10852955
-0.19431999 -0.013638121 -0.10854246
-0.19432962 -0.013564669 -0.10854734
-0.19433968 -0.013493501 -0.10853827
-0.19435048 -0.013420568 -0.1085192
-0.19436148 -0.013347721 -0.10849613
-0.19437096 -0.013276294 -0.10849905
-0.19438 -0.013202582 -0.10851592
-0.19438888 -0.013130895 -0.10853083
-0.19439813 -0.01305727 -0.1085437
-0.19440721 -0.01298567 -0.10855462
-0.19441655 -0.012912088 -0.10856549
-0.19442563 -0.012840487 -0.1085764
-0.19443557 -0.012767165 -0.1085753
-0.19444591 -0.012696126 -0.10856025
-0.19445652 -0.012623107 -0.10854516
-0.19446647 -0.012551896 -0.10853809
-0.19447581 -0.012478314 -0.10854897
-0.19448499 -0.012406757 -0.10855788
-0.19449443 -0.012333218 -0.10856676
-0.19450361 -0.012261662 -0.10857568
-0.19451392 -0.012188512 -0.10856659
-0.19452444 -0.012115449 -0.1085535
-0.19453371 -0.012043935 -0.10856042
-0.19454269 -0.011972291 -0.10857332
-0.19455184 -0.011898623 -0.1085882
-0.19456141 -0.011827239 -0.10858913
-0.19457191 -0.011754177 -0.10857604
-0.19458213 -0.011680983 -0.10856894
-0.19459112 -0.01160934 -0.10858185
-0.19459923 -0.011537307 -0.10861273
-0.19460788 -0.011463422 -0.10863759
-0.19461657 -0.011391649 -0.1086565
-0.19462591 -0.011318067 -0.10866737
-0.19463529 -0.011246596 -0.10867228
-0.19464512 -0.011173232 -0.10867318
-0.19465478 -0.01110189 -0.1086721
-0.19466509 -0.011028741 -0.10866302
-0.19467561 -0.010955678 -0.10864993
-0.19468586 -0.010884597 -0.10863687
-0.19469696 -0.010811793 -0.1086118
-0.19470739 -0.010740798 -0.10859475
-0.19471645 -0.010667087 -0.10861163
-0.19472501 -0.010593158 -0.10863849
-0.1947336 -0.010521342 -0.10865938
-0.19474246 -0.010447544 -0.10868024
-0.19475153 -0.010375944 -0.10869116
-0.19476147 -0.010302621 -0.10869005
-0.19477113 -0.010231281 -0.10868898
-0.19478096 -0.010157915 -0.10868987
-0.19479118 -0.010084722 -0.10868277
-0.19480124 -0.010013554 -0.10867371
-0.19481185 -0.0099405348 -0.10865863
-0.19482121 -0.0098690633 -0.10866355
-0.19483046 -0.0097954385 -0.10867643
-0.19483964 -0.0097238813 -0.10868534
-0.19484918 -0.0096503859 -0.10869223
-0.19485852 -0.009576804 -0.1087031
-0.1948677 -0.0095052477 -0.10871201
-0.19487752 -0.0094318818 -0.10871291
-0.19488709 -0.0093604978 -0.10871384
-0.19489595 -0.0092866998 -0.1087347
-0.1949048 -0.0092129009 -0.10875557
-0.19491427 -0.009141474 -0.10875849
-0.19492429 -0.0090681948 -0.10875539
-0.19493444 -0.0089970697 -0.10874432
-0.19494477 -0.0089239208 -0.10873523
-0.1949548 -0.0088506415 -0.10873213
-0.19496426 -0.0087792138 -0.10873505
-0.19497311 -0.0087054158 -0.10875592
-0.19498256 -0.0086318776 -0.1087648
-0.19499271 -0.0085607525 -0.10875375
-0.19500332 -0.0084877331 -0.10873865
-0.19501357 -0.0084166508 -0.10872561
-0.19502333 -0.0083453543 -0.10872253
-0.19503306 -0.0082719456 -0.10872542
-0.19504251 -0.0081984065 -0.1087343
-0.19505174 -0.0081247808 -0.10874719
-0.19506092 -0.0080532245 -0.1087561
-0.19507095 -0.0079799443 -0.108753
-0.19508091 -0.0079087336 -0.10874593
-0.19509074 -0.0078353677 -0.10874682
-0.19509989 -0.0077616996 -0.1087617
-0.19510877 -0.0076900129 -0.1087766
-0.1951187 -0.0076166904 -0.1087755
-0.19512892 -0.0075434977 -0.1087684
-0.19513848 -0.0074721137 -0.10876933
-0.19514871 -0.0073989211 -0.10876223
-0.19515905 -0.0073278826 -0.10874718
-0.1951683 -0.0072542573 -0.10876006
-0.19517647 -0.0071801567 -0.10879491
-0.19518602 -0.0071066609 -0.10880179
-0.19519617 -0.0070355367 -0.10879073
-0.19520609 -0.0069622141 -0.10878963
-0.19521566 -0.0068908301 -0.10879055
-0.19522519 -0.0068173343 -0.10879744
-0.19523445 -0.0067437096 -0.10881032
-0.19524398 -0.0066702142 -0.1088172
-0.19525364 -0.0065988731 -0.10881612
-0.19526386 -0.0065256804 -0.10880902
-0.1952738 -0.0064523579 -0.10880792
-0.19528307 -0.0063808444 -0.10881484
-0.19529299 -0.0063075218 -0.10881374
-0.19530314 -0.0062363972 -0.10880268
-0.19531356 -0.0061632907 -0.1087916
-0.19532351 -0.0060920799 -0.10878453
-0.19533412 -0.00601906 -0.10876945
-0.19534437 -0.0059479787 -0.10875639
-0.19535401 -0.0058745267 -0.10876128
-0.19536336 -0.0058009448 -0.10877216
-0.19537309 -0.005727536 -0.10877505
-0.19538353 -0.0056565409 -0.108758
-0.19539426 -0.0055856756 -0.10873496
-0.19540419 -0.005512353 -0.10873385
-0.19541276 -0.0054384256 -0.10876071
-0.19542152 -0.0053645838 -0.10878357
-0.19543038 -0.0052907858 -0.10880443
-0.19543943 -0.0052170744 -0.1088213
-0.19544908 -0.0051457332 -0.10882023
-0.1954595 -0.0050726272 -0.10880914
-0.19546956 -0.0050014593 -0.10880008
-0.19547948 -0.0049281367 -0.10879898
-0.19548942 -0.0048548141 -0.10879788
-0.19549897 -0.0047834301 -0.1087988
-0.19550852 -0.0047099348 -0.10880569
-0.19551787 -0.0046363529 -0.10881657
-0.19552702 -0.0045626843 -0.10883144
-0.19553646 -0.0044891452 -0.10884033
-0.19554621 -0.0044178478 -0.10883725
-0.19555557 -0.0043442664 -0.10884813
-0.19556412 -0.0042703385 -0.10887498
-0.19557288 -0.0041964967 -0.10889785
-0.1955824 -0.0041208901 -0.10891069
-0.19559216 -0.0040495927 -0.10890763
-0.1956024 -0.0039785113 -0.10889457
-0.19561253 -0.0039052749 -0.10888947
-0.19562168 -0.0038316064 -0.10890435
-0.19563033 -0.0037556104 -0.10893517
-0.19563898 -0.0036817268 -0.10896003
-0.19564824 -0.003608101 -0.10897291
-0.19565836 -0.0035348646 -0.10896781
-0.1956688 -0.0034638699 -0.10895076
-0.19567904 -0.0033927886 -0.10893771
-0.19568917 -0.0033195531 -0.10893261
-0.1956988 -0.0032461006 -0.10893749
-0.19570775 -0.0031723455 -0.10895636
-0.19571701 -0.0030987207 -0.10896923
-0.19572645 -0.0030251816 -0.10897812
-0.19573589 -0.0029516434 -0.108987
-0.19574563 -0.0028782338 -0.10898989
-0.19575539 -0.0028069364 -0.10898682
-0.19576532 -0.0027336134 -0.10898572
-0.19577515 -0.0026602475 -0.10898662
-0.19578469 -0.0025867531 -0.1089935
-0.19579422 -0.0025132578 -0.10900038
-0.19580396 -0.0024398481 -0.10900328
-0.19581372 -0.0023685507 -0.10900021
-0.19582385 -0.0022953143 -0.10899512
-0.19583328 -0.0022217762 -0.109004
-0.19584215 -0.0021479782 -0.10902487
-0.1958513 -0.0020743096 -0.10903973
-0.19586122 -0.0020009875 -0.10903863
-0.19587125 -0.0019277073 -0.10903553
-0.19588089 -0.0018542558 -0.10904042
-0.19589035 -0.001782828 -0.10904334
-0.19590029 -0.0017095068 -0.10904223
-0.19591071 -0.0016363999 -0.10903115
-0.19592063 -0.0015630778 -0.10903005
-0.1959299 -0.0014915625 -0.10903695
-0.19594023 -0.0014184136 -0.10902787
-0.19595085 -0.0013475055 -0.10900682
-0.1959611 -0.0012764242 -0.10899377
-0.19597094 -0.0012030583 -0.10899466
-0.19598018 -0.0011294326 -0.10900754
-0.1959895 -0.0010537393 -0.10902438
-0.19599807 -0.00097981282 -0.10905124
-0.19600739 -0.00090411864 -0.10906807
-0.19601734 -0.00083290786 -0.10906101
-0.19602786 -0.0007598456 -0.10904792
-0.19603762 -0.00068854634 -0.10904486
-0.19604743 -0.00061306916 -0.10905171
-0.19605687 -0.000539531 -0.10906059
-0.1960666 -0.00046612136 -0.10906348
-0.19607645 -0.00039486773 -0.10905842
-0.19608609 -0.00032141618 -0.1090633
-0.19609551 -0.00024576578 -0.10907815
-0.19610485 -0.00017218385 -0.10908903
-0.1961143 -9.8645687e-05 -0.10909791
-0.19612345 -2.4976209e-05 -0.10911279
-0.1961329 4.8561953e-05 -0.10912167
-0.19614263 0.00012197159 -0.10912456
-0.19615246 0.00019533746 -0.10912546
-0.19616258 0.00026857387 -0.10912035
-0.19617233 0.00034198165 -0.10912324
-0.19618186 0.00041547697 -0.10913013
-0.19619198 0.00048871245 -0.10912503
-0.19620194 0.00055992417 -0.10911797
-0.19621207 0.00063316058 -0.10911287
-0.19622222 0.00070428476 -0.10910182
-0.19623272 0.00077734888 -0.10908873
-0.19624275 0.0008506272 -0.10908563
-0.19625209 0.00092421006 -0.1090965
-0.19626123 0.00099998899 -0.10911734
-0.1962705 0.0010715034 -0.10912426
-0.19628042 0.0011448245 -0.10912316
-0.19629036 0.0012181476 -0.10912205
-0.19630067 0.0012912964 -0.10911296
-0.19631054 0.001362551 -0.10910789
-0.19632027 0.0014359606 -0.10911078
-0.19632977 0.0015115673 -0.10912362
-0.19633864 0.0015853653 -0.10914449
-0.19634809 0.0016589044 -0.10915338
-0.19635837 0.0017341655 -0.10915025
-0.19636813 0.0018054619 -0.10914718
-0.19637845 0.0018786117 -0.10913809
-0.19638868 0.0019518044 -0.10913099
-0.19639802 0.0020253863 -0.10914187
-0.19640724 0.0021011233 -0.10916071
-0.19641688 0.0021745758 -0.1091656
-0.19642651 0.0022480274 -0.10917049
-0.19643596 0.0023215665 -0.10917937
-0.19644599 0.0023948457 -0.10917628
-0.19645633 0.0024658851 -0.10916122
-0.19646616 0.0025392491 -0.10916211
-0.19647551 0.002612832 -0.10917299
-0.1964858 0.0026880922 -0.10916986
-0.19649595 0.0027592173 -0.1091588
-0.19650598 0.0028324965 -0.1091557
-0.19651543 0.0029060356 -0.10916458
-0.19652486 0.0029795738 -0.10917346
-0.19653477 0.0030550072 -0.10917832
-0.19654453 0.0031263055 -0.10917526
-0.19655424 0.0032018255 -0.10918411
-0.19656356 0.0032775188 -0.10920095
-0.19657302 0.0033489466 -0.10920388
-0.19658345 0.0034220535 -0.10919278
-0.19659327 0.0034954185 -0.10919368
-0.19660291 0.00356887 -0.10919856
-0.19661304 0.0036421064 -0.10919347
-0.19662309 0.0037132744 -0.1091844
-0.19663331 0.003786467 -0.1091773
-0.19664365 0.0038575046 -0.10916225
-0.19665398 0.0039306553 -0.10915317
-0.19666271 0.0040066065 -0.10918199
-0.1966712 0.0040868698 -0.10922673
-0.19668025 0.0041605812 -0.1092436
-0.19669019 0.0042339042 -0.1092425
-0.1967008 0.0043069236 -0.10922741
-0.19671065 0.0043781791 -0.10922235
-0.19672059 0.0044515003 -0.10922124
-0.1967309 0.0045246501 -0.10921215
-0.19674024 0.004598232 -0.10922303
-0.19674927 0.0046740547 -0.10924587
-0.19675949 0.0047472492 -0.10923877
-0.1967701 0.0048202686 -0.10922369
-0.19677977 0.0048916079 -0.10922261
-0.19678897 0.0049694572 -0.10924742
-0.19679849 0.0050450619 -0.10926026
-0.19680814 0.005116405 -0.10925919
-0.19681814 0.0051917937 -0.10926204
-0.19682808 0.0052651167 -0.10926094
-0.19683801 0.0053384397 -0.10925984
-0.19684784 0.0054118056 -0.10926074
-0.19685787 0.0054850839 -0.10925763
-0.19686779 0.0055584069 -0.10925653
-0.19687693 0.0056341868 -0.10927737
-0.19688615 0.0057099238 -0.10929621
-0.19689596 0.0057854019 -0.10930306
-0.19690579 0.0058587659 -0.10930396
-0.19691563 0.0059321336 -0.10930485
-0.19692506 0.0060056709 -0.10931373
-0.19693477 0.00608119 -0.10932259
-0.19694461 0.0061545558 -0.10932348
-0.19695453 0.006227877 -0.10932238
-0.19696444 0.0063033123 -0.10932723
-0.19697408 0.0063767657 -0.10933212
-0.19698352 0.0064503029 -0.109341
-0.19699311 0.0065279789 -0.10935782
-0.19700265 0.0066014752 -0.1093647
-0.19701277 0.0066747107 -0.10935961
-0.1970226 0.0067480765 -0.1093605
-0.19703221 0.0068236403 -0.10937136
-0.19704163 0.0068992898 -0.1093862
-0.19705085 0.0069750268 -0.10940503
-0.19706076 0.0070504602 -0.1094099
-0.1970704 0.0071239136 -0.10941477
-0.19707985 0.0071974508 -0.10942366
-0.19709007 0.0072706435 -0.10941657
-0.19710077 0.0073436219 -0.10939948
-0.19711052 0.0074170306 -0.10940237
-0.19712006 0.007490525 -0.10940926
-0.19712986 0.0075660031 -0.10941612
-0.19713958 0.0076415222 -0.10942497
-0.19714962 0.0077126902 -0.10941591
-0.19716053 0.0077855811 -0.10939483
-0.19717038 0.0078568347 -0.10938977
-0.19718009 0.0079323556 -0.10939862
-0.1971902 0.0080077033 -0.10939949
-0.19720015 0.0080789123 -0.10939242
-0.19721046 0.0081520639 -0.10938333
-0.19722059 0.0082252994 -0.10937823
-0.19723052 0.0082986224 -0.10937712
-0.19724065 0.0083718561 -0.10937203
-0.19724953 0.0084519461 -0.10940878
-0.19725895 0.0085275974 -0.10942363
-0.19726856 0.0086031612 -0.10943447
-0.19727808 0.008678766 -0.10944732
-0.19728771 0.0087522212 -0.10945222
-0.19729826 0.0088231731 -0.10943317
-0.19730927 0.0088939071 -0.10940413
-0.19731991 0.0089648161 -0.10938308
-0.19733036 0.0090358108 -0.10936604
-0.19734038 0.0091090892 -0.10936294
-0.19735019 0.0091845654 -0.10936979
-0.19735952 0.0092602596 -0.10938664
-0.19736953 0.0093335379 -0.10938353
-0.197381 0.0093998779 -0.10933459
-0.19739205 0.0094685014 -0.10929959
-0.19740281 0.0095372554 -0.10927059
-0.19741291 0.0096126013 -0.10927145
-0.19742294 0.0096858833 -0.10926835
-0.1974339 0.0097524375 -0.10922939
-0.19744462 0.009825414 -0.10921231
-0.19745435 0.0098988246 -0.10921521
-0.19746384 0.0099765435 -0.10923401
-0.19747432 0.010045426 -0.109211
-0.19748673 0.010105044 -0.1091262
-0.1974995 0.010166597 -0.10903936
-0.19750963 0.010239832 -0.10903426
-0.19753043 0.010379754 -0.1089962
-0.19753827 0.010466611 -0.10907082
-0.19754833 0.010537777 -0.10906175
-0.19755708 0.010620022 -0.10910645
-0.19756825 0.010686491 -0.1090635
-0.19757733 0.010766493 -0.10909627
-0.19147517 -0.033641495 -0.11154214
-0.1914849 -0.033568084 -0.11154503
-0.19149454 -0.033494629 -0.11154992
-0.1915037 -0.033423074 -0.11155883
-0.1915141 -0.033347856 -0.11155371
-0.1915244 -0.033272594 -0.11155058
-0.19153374 -0.033199012 -0.11156145
-0.19154263 -0.033127327 -0.11157636
-0.19155225 -0.033053875 -0.11158125
-0.19156219 -0.032980554 -0.11158015
-0.19157267 -0.032905377 -0.11157303
-0.19158307 -0.032830156 -0.1115679
-0.1915926 -0.032756664 -0.11157478
-0.19160138 -0.03268493 -0.11159168
-0.19161037 -0.032613292 -0.11160459
-0.19161981 -0.032539751 -0.11161347
-0.19162935 -0.032466255 -0.11162035
-0.19163917 -0.032392889 -0.11162125
-0.19164985 -0.032317802 -0.11161013
-0.19166052 -0.032240599 -0.11160497
-0.19166979 -0.032169089 -0.11161189
-0.19167894 -0.032095417 -0.11162676
-0.19168867 -0.032022011 -0.11162965
-0.1916986 -0.031948686 -0.11162855
-0.19170861 -0.031873297 -0.11163142
-0.19171873 -0.031800061 -0.11162631
-0.19172911 -0.03172484 -0.11162118
-0.19173941 -0.031649582 -0.11161806
-0.19174829 -0.031577893 -0.11163295
-0.19175678 -0.031506035 -0.11165585
-0.19176613 -0.03143245 -0.11166673
-0.19177577 -0.031359002 -0.11167161
-0.19178569 -0.031285677 -0.11167051
-0.19179589 -0.031210374 -0.11166938
-0.19180563 -0.031136965 -0.11167227
-0.19181526 -0.031063512 -0.11167717
-0.1918249 -0.03099006 -0.11168205
-0.19183433 -0.030916521 -0.11169094
-0.19184332 -0.030844877 -0.11170384
-0.19185247 -0.030771207 -0.11171872
-0.19186324 -0.030696165 -0.1117056
-0.19187421 -0.030619094 -0.11169445
-0.19188383 -0.030545643 -0.11169934
-0.19189291 -0.030474041 -0.11171025
-0.19190235 -0.030400502 -0.11171913
-0.19191208 -0.030327093 -0.11172202
-0.19192238 -0.030251833 -0.11171889
-0.19193162 -0.030178206 -0.11173177
-0.19194004 -0.030108415 -0.1117507
-0.19195014 -0.030033067 -0.11175156
-0.19196063 -0.029957892 -0.11174444
-0.19197112 -0.029882718 -0.11173732
-0.19198142 -0.029807458 -0.11173418
-0.19199049 -0.029735858 -0.1117451
-0.19199954 -0.029662143 -0.11176196
-0.19200918 -0.029588692 -0.11176684
-0.19201891 -0.029515285 -0.11176974
-0.19202836 -0.029441744 -0.11177862
-0.19203809 -0.029368335 -0.11178152
-0.19204792 -0.02929497 -0.1117824
-0.19205716 -0.029221345 -0.11179528
-0.19206651 -0.029147761 -0.11180616
-0.19207653 -0.029074483 -0.11180307
-0.19208664 -0.028999135 -0.11180393
-0.19209626 -0.028925683 -0.11180881
-0.19210601 -0.028852275 -0.11181171
-0.1921165 -0.0287771 -0.11180459
-0.19212613 -0.028703647 -0.11180948
-0.19213566 -0.02863015 -0.11181636
-0.19214576 -0.028554805 -0.11181722
-0.19215579 -0.028481524 -0.11181412
-0.19216609 -0.028406264 -0.11181098
-0.19217573 -0.028332811 -0.11181588
-0.19218488 -0.028259141 -0.11183075
-0.19219431 -0.028185604 -0.11183963
-0.19220415 -0.028112238 -0.11184053
-0.19221359 -0.028038699 -0.11184941
-0.19222359 -0.027963307 -0.11185227
-0.19223332 -0.027889898 -0.11185516
-0.19224325 -0.027816577 -0.11185406
-0.19225278 -0.027743081 -0.11186095
-0.19226213 -0.027669499 -0.11187183
-0.19227177 -0.027596045 -0.11187671
-0.19228131 -0.027522551 -0.1118836
-0.1922913 -0.02744716 -0.11188646
-0.19230124 -0.027373837 -0.11188535
-0.19231059 -0.027300257 -0.11189624
-0.19232012 -0.027226759 -0.11190312
-0.19233042 -0.027151499 -0.11189999
-0.19234005 -0.027078046 -0.11190488
-0.19234988 -0.02700468 -0.11190578
-0.19236007 -0.026929377 -0.11190464
-0.19236952 -0.026855838 -0.11191352
-0.19237944 -0.026782515 -0.11191242
-0.19238965 -0.02670721 -0.11191129
-0.192399 -0.026633628 -0.11192217
-0.19240834 -0.026560046 -0.11193305
-0.19241798 -0.026486594 -0.11193793
-0.1924279 -0.026413271 -0.11193683
-0.19243829 -0.026338054 -0.1119317
-0.19244869 -0.026262835 -0.11192658
-0.19245823 -0.02618934 -0.11193346
-0.19246766 -0.026115801 -0.11194235
-0.1924772 -0.026042305 -0.11194923
-0.19248635 -0.025968637 -0.11196411
-0.19252625 -0.025853995 -0.1114909
-0.19253589 -0.025780544 -0.11149579
-0.19262744 -0.025535466 -0.11036333
-0.19263974 -0.025456892 -0.11033019
-0.19266209 -0.025368076 -0.11012907
-0.1926771 -0.0252886 -0.11004597
-0.1926917 -0.02520895 -0.10997085
-0.19270517 -0.025130894 -0.10991374
-0.19272092 -0.025049653 -0.10982062
-0.19273536 -0.024972027 -0.10974353
-0.19275053 -0.024890527 -0.1096624
-0.19276237 -0.024815958 -0.10962731
