# .PCD v0.7 - Point Cloud Data file format
VERSION 0.7
FIELDS x y z
SIZE 4 4 4
TYPE F F F
COUNT 1 1 1
WIDTH 1261
HEIGHT 1
VIEWPOINT 0 0 0 1 0 0 0
POINTS 1261
DATA ascii
-0.041549232 -0.016201232 -0.10142144
-0.041559551 -0.016128084 -0.10141234
-0.041569602 -0.016056916 -0.10140328
-0.041579142 -0.015983419 -0.10141017
-0.041588098 -0.015909664 -0.10142904
-0.041597076 -0.015838021 -0.10144194
-0.041607104 -0.015764743 -0.10143884
-0.04161723 -0.015691508 -0.10143375
-0.041626986 -0.015620209 -0.10143068
-0.041637309 -0.015547059 -0.10142159
-0.041647263 -0.015475849 -0.10141452
-0.041656215 -0.015402094 -0.1014334
-0.041664585 -0.015328079 -0.10146425
-0.04167432 -0.015254671 -0.10146714
-0.041684471 -0.015183546 -0.10145608
-0.041694399 -0.015110224 -0.10145497
-0.041704062 -0.015038883 -0.1014539
-0.041713603 -0.014965387 -0.10146079
-0.041722752 -0.014891719 -0.10147567
-0.041732293 -0.014818224 -0.10148255
-0.041741855 -0.014746839 -0.10148348
-0.041751981 -0.014673604 -0.10147838
-0.041762009 -0.014600324 -0.10147528
-0.041771669 -0.014528984 -0.10147421
-0.041781697 -0.014455705 -0.1014711
-0.041791845 -0.01438458 -0.10146005
-0.041802164 -0.01431143 -0.10145096
-0.041812316 -0.014240306 -0.10143991
-0.041822925 -0.014167286 -0.10142482
-0.041832879 -0.014096075 -0.10141777
-0.041842129 -0.014022449 -0.10143064
-0.04185167 -0.013948955 -0.10143752
-0.041861523 -0.0138777 -0.10143246
-0.041872233 -0.013804724 -0.10141537
-0.041882578 -0.013733685 -0.10140032
-0.041892119 -0.013660189 -0.10140721
-0.041900877 -0.013586349 -0.10143007
-0.041909639 -0.013512507 -0.10145293
-0.041918691 -0.013438797 -0.10146981
-0.041927744 -0.013365084 -0.10148668
-0.041937403 -0.013293743 -0.1014856
-0.041948017 -0.013220724 -0.10147052
-0.041957971 -0.013149513 -0.10146346
-0.041967802 -0.013076147 -0.10146435
-0.04197783 -0.013002868 -0.10146125
-0.041987393 -0.012931484 -0.10146218
-0.041996837 -0.012857946 -0.10147107
-0.042006183 -0.012784364 -0.10148195
-0.04201543 -0.012710739 -0.10149483
-0.04202497 -0.012637243 -0.10150171
-0.042034533 -0.012565859 -0.10150263
-0.04204388 -0.012492277 -0.10151352
-0.042052615 -0.012416326 -0.10154234
-0.042061277 -0.01234244 -0.1015672
-0.04207072 -0.012268902 -0.10157608
-0.042080771 -0.012197734 -0.10156702
-0.042091116 -0.012126695 -0.10155196
-0.042100754 -0.012053244 -0.10155686
-0.042109512 -0.011979403 -0.10157973
-0.042118248 -0.01190345 -0.10160854
-0.042126913 -0.011829565 -0.10163341
-0.04213655 -0.011756114 -0.10163829
-0.042146966 -0.011683008 -0.10162721
-0.042157408 -0.011612012 -0.10161016
-0.042167753 -0.011540974 -0.1015951
-0.042177681 -0.011467651 -0.10159401
-0.04218683 -0.011393983 -0.10160888
-0.04219608 -0.011320358 -0.10162176
-0.04220552 -0.01124682 -0.10163064
-0.042214867 -0.011173238 -0.10164152
-0.042224113 -0.011099613 -0.1016544
-0.042233847 -0.011026204 -0.10165729
-0.042243972 -0.010952968 -0.1016522
-0.042253733 -0.010881671 -0.10164913
-0.042263564 -0.010808305 -0.10165002
-0.042273104 -0.01073481 -0.10165691
-0.042282451 -0.010661228 -0.10166778
-0.042292379 -0.010587906 -0.10166668
-0.042302527 -0.01051678 -0.10165562
-0.042312555 -0.010443501 -0.10165253
-0.042321704 -0.010369833 -0.1016674
-0.042330563 -0.010296035 -0.10168827
-0.042339809 -0.01022241 -0.10170114
-0.042349644 -0.010149044 -0.10170204
-0.042359475 -0.010075679 -0.10170294
-0.042369209 -0.01000227 -0.10170583
-0.042378679 -0.0099308416 -0.10170875
-0.042388901 -0.0098576499 -0.10170165
-0.04239922 -0.009784501 -0.10169257
-0.042408954 -0.0097110914 -0.10169546
-0.042418517 -0.0096397065 -0.10169639
-0.042429131 -0.0095666861 -0.1016813
-0.042439669 -0.0094957352 -0.10166226
-0.042449623 -0.0094245244 -0.10165519
-0.042459432 -0.0093490472 -0.10166204
-0.042468581 -0.0092753787 -0.10167692
-0.04247744 -0.0092015807 -0.10169779
-0.042486563 -0.0091258017 -0.10171863
-0.042496007 -0.0090522626 -0.10172751
-0.042506132 -0.0089790272 -0.10172241
-0.04251628 -0.0089079021 -0.10171136
-0.04252604 -0.0088366047 -0.10170828
-0.042536043 -0.0087612141 -0.10171114
-0.042545389 -0.0086876322 -0.10172203
-0.042555027 -0.0086141797 -0.10172692
-0.042565078 -0.0085430127 -0.10171785
-0.042574618 -0.0084695173 -0.10172474
-0.042583842 -0.0083937813 -0.10174358
-0.042593088 -0.0083201556 -0.10175645
-0.042602628 -0.0082466602 -0.10176335
-0.042612072 -0.0081731211 -0.10177223
-0.042621512 -0.008099583 -0.10178111
-0.042631052 -0.0080260877 -0.10178799
-0.042640887 -0.0079527218 -0.10178889
-0.042650912 -0.0078794425 -0.10178579
-0.04266065 -0.0078060338 -0.10178868
-0.042670675 -0.0077327546 -0.10178559
-0.042680725 -0.0076615866 -0.10177653
-0.042690657 -0.0075882645 -0.10177542
-0.042700879 -0.007515071 -0.10176833
-0.042711027 -0.0074439468 -0.10175727
-0.042721275 -0.0073728664 -0.10174421
-0.042731203 -0.0072995443 -0.10174312
-0.04274033 -0.0072237635 -0.10176396
-0.04274936 -0.0071479408 -0.10178678
-0.042758998 -0.0070744883 -0.10179167
-0.042768952 -0.0070032775 -0.10178461
-0.042779271 -0.0069301287 -0.10177552
-0.042789321 -0.0068589598 -0.10176645
-0.042799152 -0.0067855939 -0.10176735
-0.042808596 -0.0067120558 -0.10177623
-0.04281811 -0.0066364491 -0.10178908
-0.042827066 -0.006562694 -0.10180794
-0.042836607 -0.0064891987 -0.10181484
-0.042846903 -0.0064139385 -0.10181171
-0.04285676 -0.0063426849 -0.10180664
-0.042867079 -0.0062695341 -0.10179755
-0.042877011 -0.006196212 -0.10179645
-0.042886063 -0.0061224997 -0.10181332
-0.042895772 -0.0060469788 -0.10182217
-0.042905435 -0.0059756394 -0.1018211
-0.042914975 -0.0059021441 -0.10182799
-0.042924587 -0.0058265803 -0.10183884
-0.042934615 -0.0057533011 -0.10183574
-0.04294486 -0.0056822188 -0.10182269
-0.042954791 -0.0056088977 -0.10182159
-0.042964134 -0.0055353157 -0.10183246
-0.042974334 -0.0054600118 -0.10183133
-0.042984679 -0.0053889733 -0.10181627
-0.042994704 -0.005315694 -0.10181318
-0.043003954 -0.0052420683 -0.10182606
-0.043013394 -0.0051685302 -0.10183494
-0.043023299 -0.0050930968 -0.1018398
-0.043033134 -0.0050197309 -0.1018407
-0.043042772 -0.0049462784 -0.10184558
-0.043052018 -0.0048726536 -0.10185846
-0.043061852 -0.0047992878 -0.10185935
-0.043071877 -0.0047260085 -0.10185625
-0.043081418 -0.0046525132 -0.10186314
-0.043091543 -0.0045792777 -0.10185805
-0.043101862 -0.0045061279 -0.10184896
-0.043111719 -0.0044348733 -0.10184389
-0.043122038 -0.0043617235 -0.1018348
-0.043132383 -0.0042906851 -0.10181975
-0.043142311 -0.0042173639 -0.10181864
-0.043150928 -0.0041392567 -0.10185543
-0.043159444 -0.0040611047 -0.10189421
-0.043168694 -0.00398748 -0.10190708
-0.043178815 -0.0039142445 -0.10190199
-0.043189332 -0.0038411822 -0.1018889
-0.043199092 -0.0037698839 -0.10188583
-0.043209117 -0.0036966037 -0.10188273
-0.043219436 -0.0036234558 -0.10187364
-0.043228589 -0.0035497881 -0.10188852
-0.04323798 -0.0034720264 -0.10190932
-0.043248132 -0.0034009013 -0.10189826
-0.043258548 -0.0033277944 -0.10188717
-0.043268088 -0.0032542981 -0.10189406
-0.043277603 -0.0031786934 -0.10190692
-0.043286949 -0.0031051114 -0.1019178
-0.043296855 -0.003029678 -0.10192265
-0.043306589 -0.0029562674 -0.10192555
-0.043316424 -0.0028829034 -0.10192644
-0.043326352 -0.0028095804 -0.10192534
-0.04333638 -0.0027363002 -0.10192224
-0.043346602 -0.0026631076 -0.10191515
-0.043356143 -0.0025896132 -0.10192203
-0.043365244 -0.002511723 -0.10194883
-0.04337449 -0.0024380963 -0.1019617
-0.043384422 -0.0023647752 -0.1019606
-0.043394424 -0.0022893827 -0.10196346
-0.043403964 -0.0022158884 -0.10197035
-0.043413676 -0.0021403693 -0.1019792
-0.043423213 -0.0020668749 -0.10198609
-0.043433219 -0.0019914806 -0.10198896
-0.043442976 -0.0019201841 -0.10198588
-0.043453176 -0.0018448811 -0.10198475
-0.043462619 -0.0017713401 -0.10199364
-0.043472134 -0.0016957354 -0.10200649
-0.043481648 -0.0016201288 -0.10201934
-0.043491386 -0.0015467182 -0.10202223
-0.043501314 -0.001473397 -0.10202113
-0.043510951 -0.0013999436 -0.10202602
-0.043520469 -0.001324337 -0.10203886
-0.043529961 -0.00124662 -0.10205767
-0.043539111 -0.0011729524 -0.10207254
-0.043549307 -0.0010976475 -0.10207141
-0.043558847 -0.0010241531 -0.1020783
-0.043568484 -0.00095070153 -0.10208319
-0.043579001 -0.00087763555 -0.1020701
-0.043589052 -0.00080646947 -0.10206103
-0.043598861 -0.00073099136 -0.1020679
-0.043608669 -0.00065551512 -0.10207475
-0.04361821 -0.00058201887 -0.10208164
-0.043628212 -0.00050663017 -0.1020845
-0.043638654 -0.00043563545 -0.10206746
-0.043649092 -0.00036463886 -0.10205041
-0.043659098 -0.0002892483 -0.10205326
-0.043668639 -0.00021575391 -0.10206015
-0.043678764 -0.00014251843 -0.10205506
-0.043688886 -6.9282949e-05 -0.10204995
-0.043699205 3.868714e-06 -0.10204087
-0.043709137 7.7189878e-05 -0.10203977
-0.043719068 0.0001505129 -0.10203867
-0.043727852 0.0002306439 -0.10207741
-0.043737683 0.00030401163 -0.10207831
-0.043747786 0.00037935935 -0.10207918
-0.043757226 0.00045289658 -0.10208806
-0.043766718 0.00053061359 -0.10210687
-0.043776356 0.000604067 -0.10211176
-0.043787189 0.00067489035 -0.10208672
-0.043798044 0.00074360147 -0.10205571
-0.043808483 0.00081459433 -0.10203867
-0.043818902 0.00088770129 -0.10202758
-0.043828733 0.00096106529 -0.10202848
-0.043838639 0.0010365006 -0.10203333
-0.043847963 0.0011121947 -0.10205018
-0.043858305 0.0011832304 -0.10203513
-0.043869965 0.0012494847 -0.10198219
-0.043880917 0.001318153 -0.10194919
-0.04389165 0.0013890192 -0.10192615
-0.043901678 0.0014622975 -0.10192305
-0.043912608 0.0015330762 -0.10189601
-0.043923777 0.0015995447 -0.10185306
-0.043933902 0.001672782 -0.10184796
-0.043943126 0.001748519 -0.1018668
-0.043951914 0.00182865 -0.10190555
-0.043962549 0.0018995591 -0.10188451
-0.043975983 0.0019545201 -0.10176782
-0.043987863 0.0020185784 -0.10170491
-0.044029213 0.0023048408 -0.10165066
-0.044037391 0.002387343 -0.10170737
-0.044047516 0.0024605803 -0.10170227
-0.044057641 0.0025338158 -0.10169717
-0.044065185 0.0026207995 -0.10177778
-0.037958514 -0.041785322 -0.10421832
-0.037968516 -0.041709933 -0.10422118
-0.037977789 -0.041638419 -0.10422809
-0.037988279 -0.041563243 -0.10422097
-0.037998769 -0.04148807 -0.10421385
-0.038007747 -0.041416429 -0.10422677
-0.038016796 -0.041342713 -0.10424364
-0.038026534 -0.041269306 -0.10424653
-0.038036168 -0.041195855 -0.10425141
-0.038045999 -0.041122489 -0.10425231
-0.038056489 -0.041047312 -0.10424519
-0.038066689 -0.040972009 -0.10424405
-0.038075861 -0.040900454 -0.10425296
-0.038084645 -0.040828723 -0.10426987
-0.038093988 -0.040755142 -0.10428075
-0.038103916 -0.04068182 -0.10427965
-0.038113922 -0.040606428 -0.10428251
-0.038123652 -0.040533021 -0.1042854
-0.038133949 -0.040457755 -0.10428227
-0.038143978 -0.040384479 -0.10427918
-0.038153321 -0.040310897 -0.10429006
-0.038162299 -0.040239252 -0.10430297
-0.038172591 -0.040163994 -0.10429984
-0.038182519 -0.040090673 -0.10429873
-0.038192526 -0.04001528 -0.10430159
-0.038202915 -0.039940059 -0.10429647
-0.038213503 -0.039864928 -0.10428735
-0.038223334 -0.039791562 -0.10428824
-0.038231924 -0.039719746 -0.10430914
-0.038240414 -0.039647888 -0.10433204
-0.038249955 -0.039574392 -0.10433892
-0.038259689 -0.039500982 -0.10434181
-0.038269423 -0.039427575 -0.10434471
-0.038279813 -0.039352357 -0.10433958
-0.038289644 -0.039278992 -0.10434047
-0.038299281 -0.03920554 -0.10434537
-0.038309187 -0.039130107 -0.10435022
-0.038318165 -0.039058462 -0.10436313
-0.038327143 -0.038986817 -0.10437603
-0.038336486 -0.038913235 -0.10438693
-0.038347732 -0.038836297 -0.10436978
-0.038358126 -0.038761079 -0.10436466
-0.038367201 -0.038689479 -0.10437557
-0.038376838 -0.038616024 -0.10438045
-0.038386278 -0.038542487 -0.10438934
-0.038396016 -0.03846908 -0.10439223
-0.038406212 -0.038393773 -0.1043911
-0.038415093 -0.038322087 -0.10440601
-0.038423777 -0.038250312 -0.1044249
-0.03843417 -0.038175095 -0.10441978
-0.038444757 -0.038099967 -0.10441066
-0.03845476 -0.038024575 -0.10441352
-0.038464688 -0.037951253 -0.10441241
-0.038474422 -0.037877843 -0.10441531
-0.038483672 -0.037804216 -0.10442819
-0.038493209 -0.037730724 -0.10443507
-0.038503308 -0.037655376 -0.10443594
-0.038512945 -0.037581921 -0.10444083
-0.038522217 -0.03751041 -0.10444774
-0.038532123 -0.037434973 -0.1044526
-0.038541198 -0.037363376 -0.10446352
-0.038550444 -0.037289746 -0.1044764
-0.038560838 -0.037214532 -0.10447127
-0.038570765 -0.037141208 -0.10447017
-0.038580108 -0.037067629 -0.10448105
-0.038589843 -0.036994219 -0.10448394
-0.038600601 -0.036917061 -0.10447679
-0.038610432 -0.036843695 -0.10447768
-0.038620166 -0.036770288 -0.10448057
-0.038629901 -0.036696877 -0.10448346
-0.038640194 -0.036621615 -0.10448034
-0.03865049 -0.036546357 -0.1044772
-0.03865993 -0.036472816 -0.10448609
-0.038668714 -0.036401086 -0.104503
-0.038678255 -0.036327593 -0.10450988
-0.038688086 -0.036254227 -0.10451078
-0.038697794 -0.036178708 -0.10451964
-0.038707532 -0.036105298 -0.10452253
-0.038717363 -0.036031932 -0.10452342
-0.038727462 -0.035956584 -0.10452428
-0.0387371 -0.035883129 -0.10452917
-0.038746346 -0.035809506 -0.10454205
-0.038755883 -0.035736009 -0.10454893
-0.038765155 -0.035664499 -0.10455585
-0.03877506 -0.035589062 -0.10456072
-0.038784795 -0.035515655 -0.1045636
-0.038794331 -0.035442159 -0.10457049
-0.038803969 -0.035368703 -0.10457538
-0.038814459 -0.035293534 -0.10456826
-0.038824461 -0.035218142 -0.10457112
-0.038834196 -0.035144731 -0.10457401
-0.038844027 -0.035071366 -0.1045749
-0.038853664 -0.03499791 -0.1045798
-0.03886386 -0.034922607 -0.10457867
-0.038873695 -0.034849245 -0.10457956
-0.038883232 -0.034775749 -0.10458645
-0.03889294 -0.03470023 -0.1045953
-0.038902577 -0.034626774 -0.10460019
-0.038912408 -0.034553409 -0.10460109
-0.038922705 -0.03447815 -0.10459796
-0.038932633 -0.034404825 -0.10459685
-0.038942344 -0.034329306 -0.1046057
-0.038951881 -0.03425581 -0.10461259
-0.038961057 -0.034184255 -0.10462151
-0.039000288 -0.034069303 -0.10416228
-0.039010122 -0.033995938 -0.10416318
-0.039123636 -0.033598818 -0.10300247
-0.039148193 -0.033506773 -0.10276735
-0.039162047 -0.033428889 -0.10270225
-0.039176852 -0.033349328 -0.10262314
-0.039190024 -0.033271138 -0.10257202
-0.03920617 -0.033190068 -0.10247091
-0.039220314 -0.033112314 -0.10239983
-0.039234925 -0.033032663 -0.10232471
-0.039246757 -0.032955982 -0.10229558
-0.039258514 -0.032881368 -0.1022625
-0.039270833 -0.032804906 -0.10222339
-0.039282393 -0.032730207 -0.10219429
-0.039293371 -0.032655247 -0.10217719
-0.039304446 -0.032580331 -0.10215808
-0.039317057 -0.032503996 -0.10211298
-0.039388776 -0.032235395 -0.1014257
-0.039402433 -0.032157425 -0.10136459
-0.039414193 -0.032082811 -0.10133151
-0.039428048 -0.032004926 -0.10126641
-0.039440487 -0.031930618 -0.10121934
-0.039452415 -0.031853981 -0.10118822
-0.039465416 -0.031777818 -0.10113513
-0.039476804 -0.031705141 -0.10110407
-0.039487686 -0.03163014 -0.10108896
-0.039498687 -0.031557295 -0.10106589
-0.039511301 -0.031480961 -0.10102079
-0.039524399 -0.031404838 -0.10096571
-0.039535202 -0.031331904 -0.10094664
-0.039545134 -0.031258583 -0.10094553
-0.039555255 -0.031185348 -0.10094044
-0.039566819 -0.031110648 -0.10091134
-0.039577723 -0.031037759 -0.10089026
-0.039587654 -0.030964434 -0.10088916
-0.039597485 -0.030891068 -0.10089006
-0.039607145 -0.030819729 -0.10088898
-0.03961727 -0.030746493 -0.10088389
-0.039627783 -0.030673429 -0.10087081
-0.039636955 -0.030601872 -0.10087973
-0.039645836 -0.030530185 -0.10089463
-0.039655011 -0.030458629 -0.10090354
-0.03966533 -0.030385479 -0.10089444
-0.039676696 -0.030310694 -0.10086935
-0.039687406 -0.030237716 -0.10085227
-0.039697528 -0.03016448 -0.10084718
-0.039705653 -0.03009456 -0.1008721
-0.039713852 -0.030022569 -0.10090098
-0.039723124 -0.029951056 -0.10090789
-0.03973259 -0.02987963 -0.10091082
-0.039742321 -0.029806221 -0.10091372
-0.039752081 -0.029734923 -0.10091064
-0.03976211 -0.029661642 -0.10090755
-0.039771672 -0.02959026 -0.10090847
-0.039781697 -0.02951698 -0.10090537
-0.039791919 -0.029443787 -0.10089827
-0.039802238 -0.029370636 -0.10088918
-0.039812095 -0.029299382 -0.10088412
-0.039821927 -0.029226016 -0.10088501
-0.039831489 -0.029154632 -0.10088594
-0.039841417 -0.029081311 -0.10088483
-0.039851177 -0.029010013 -0.10088177
-0.039859861 -0.028938241 -0.10090067
-0.039868549 -0.028866466 -0.10091957
-0.039878573 -0.028793186 -0.10091646
-0.039889477 -0.028720297 -0.10089539
-0.039899237 -0.028648999 -0.10089233
-0.039908286 -0.028575286 -0.1009092
-0.039916802 -0.028505538 -0.10092613
-0.03992644 -0.028432086 -0.10093102
-0.039937049 -0.028359067 -0.10091593
-0.039946809 -0.028287768 -0.10091286
-0.039956152 -0.028214186 -0.10092374
-0.039965618 -0.028142761 -0.10092667
-0.039976135 -0.028069697 -0.10091358
-0.039986063 -0.027996374 -0.10091248
-0.039995041 -0.027924731 -0.10092539
-0.040004507 -0.027853303 -0.10092831
-0.040014923 -0.027780198 -0.10091722
-0.040025242 -0.027707048 -0.10090813
-0.040034413 -0.027635491 -0.10091704
-0.040043492 -0.02756389 -0.10092796
-0.040053908 -0.027490783 -0.10091687
-0.040064421 -0.027417721 -0.10090378
-0.040073983 -0.027346335 -0.10090471
-0.04008333 -0.027272753 -0.10091559
-0.040092502 -0.027201198 -0.1009245
-0.040101673 -0.027129641 -0.10093342
-0.040111117 -0.027056102 -0.1009423
-0.040120583 -0.026984675 -0.10094523
-0.040130805 -0.026911482 -0.10093813
-0.040140659 -0.026840229 -0.10093306
-0.040150199 -0.026766732 -0.10093994
-0.040159665 -0.026695305 -0.10094287
-0.040170081 -0.026622199 -0.10093178
-0.040180206 -0.026548963 -0.10092668
-0.040189572 -0.026477491 -0.10093161
-0.0401996 -0.026404213 -0.10092851
-0.040209163 -0.026332827 -0.10092943
-0.040218629 -0.0262614 -0.10093235
-0.040228754 -0.026188165 -0.10092726
-0.040238414 -0.026116822 -0.10092618
-0.040248051 -0.026043372 -0.10093108
-0.040257514 -0.025971944 -0.100934
-0.040267836 -0.025898794 -0.1009249
-0.040278155 -0.025825644 -0.10091581
-0.040288106 -0.025754433 -0.10090875
-0.040298328 -0.02568124 -0.10090166
-0.040307503 -0.025609683 -0.10091057
-0.040316284 -0.025537953 -0.10092748
-0.040325921 -0.025464501 -0.10093237
-0.040335484 -0.025393117 -0.10093328
-0.040344633 -0.02531945 -0.10094816
-0.040352955 -0.025249615 -0.10096909
-0.040362492 -0.025176119 -0.10097598
-0.040371861 -0.025104649 -0.10098089
-0.04038123 -0.025033178 -0.10098581
-0.040390864 -0.024959724 -0.1009907
-0.040399846 -0.024888083 -0.10100361
-0.040409211 -0.024816612 -0.10100853
-0.040420383 -0.024741739 -0.10098743
-0.040430531 -0.024670616 -0.10097637
-0.04043968 -0.024596946 -0.10099125
-0.040448561 -0.024525259 -0.10100615
-0.040457636 -0.024453659 -0.10101707
-0.040466521 -0.024381973 -0.10103197
-0.040475398 -0.024310287 -0.10104688
-0.040484745 -0.024236705 -0.10105775
-0.040494405 -0.024165364 -0.10105667
-0.040504333 -0.024092041 -0.10105557
-0.040514164 -0.024018675 -0.10105647
-0.040523436 -0.023947161 -0.10106339
-0.04053222 -0.023875432 -0.10108029
-0.040540613 -0.023803528 -0.10110518
-0.040549688 -0.023731928 -0.1011161
-0.040559616 -0.023658605 -0.101115
-0.040569473 -0.023587352 -0.10110992
-0.040579792 -0.023514202 -0.10110083
-0.040589817 -0.023440922 -0.10109773
-0.040599674 -0.023369668 -0.10109267
-0.040609799 -0.023296433 -0.10108757
-0.040619265 -0.023225006 -0.10109049
-0.040629096 -0.02315164 -0.10109139
-0.040638562 -0.023080211 -0.10109431
-0.040647149 -0.023008395 -0.10111521
-0.04065552 -0.022934381 -0.10114606
-0.040664107 -0.022862565 -0.10116696
-0.040673766 -0.022791224 -0.10116588
-0.040683404 -0.022717772 -0.10117077
-0.040692478 -0.022646172 -0.10118168
-0.04070241 -0.022572849 -0.10118058
-0.040712655 -0.022501767 -0.10116752
-0.040723365 -0.022428792 -0.10115044
-0.040733587 -0.022355597 -0.10114335
-0.040742856 -0.022284083 -0.10115027
-0.040752884 -0.022210805 -0.10114717
-0.040762447 -0.022139421 -0.1011481
-0.040771693 -0.022065796 -0.10116097
-0.040780671 -0.021994151 -0.10117389
-0.040789649 -0.021922508 -0.10118679
-0.040798895 -0.021848883 -0.10119966
-0.040807873 -0.021777241 -0.10121258
-0.040817805 -0.021703918 -0.10121147
-0.040827855 -0.02163275 -0.10120241
-0.040838659 -0.021559816 -0.10118333
-0.040849466 -0.021486882 -0.10116426
-0.040858835 -0.021415412 -0.10116918
-0.040867887 -0.0213417 -0.10118605
-0.040876769 -0.021270014 -0.10120095
-0.040885746 -0.02119837 -0.10121386
-0.04089509 -0.021124788 -0.10122474
-0.040904261 -0.021053232 -0.10123366
-0.040913802 -0.020979736 -0.10124055
-0.040923927 -0.020906501 -0.10123545
-0.040934268 -0.020835461 -0.10122039
-0.040944684 -0.020762354 -0.10120931
-0.040954541 -0.020691101 -0.10120424
-0.040963884 -0.020617519 -0.10121512
-0.040972766 -0.020545833 -0.10123003
-0.040982209 -0.020472294 -0.10123891
-0.040991772 -0.02040091 -0.10123983
-0.041002382 -0.020327888 -0.10122475
-0.04101241 -0.02025461 -0.10122166
-0.041021388 -0.020182965 -0.10123456
-0.041030269 -0.02011128 -0.10124947
-0.0410401 -0.020037914 -0.10125036
-0.041049957 -0.01996666 -0.10124529
-0.041060176 -0.019893467 -0.1012382
-0.041070107 -0.019820144 -0.1012371
-0.041078791 -0.019748371 -0.10125601
-0.04108699 -0.019676382 -0.10128489
-0.041095749 -0.019602541 -0.10130775
-0.041104436 -0.019530768 -0.10132664
-0.041113973 -0.019457271 -0.10133354
-0.041123539 -0.019385887 -0.10133445
-0.04113327 -0.019312479 -0.10133735
-0.041142933 -0.019241137 -0.10133628
-0.041153252 -0.019167988 -0.10132719
-0.041163668 -0.019094883 -0.10131609
-0.041174304 -0.019023973 -0.10129505
-0.041185401 -0.018951168 -0.10127
-0.041195452 -0.018880002 -0.10126093
-0.041204214 -0.018806159 -0.10128379
-0.041212484 -0.018732103 -0.10131665
-0.041221268 -0.018660372 -0.10133355
-0.041230317 -0.018586662 -0.10135042
-0.041239589 -0.018515147 -0.10135733
-0.041249614 -0.018441867 -0.10135423
-0.041259181 -0.018370485 -0.10135516
-0.041268915 -0.018297074 -0.10135805
-0.041279133 -0.018223882 -0.10135096
-0.041289769 -0.018152973 -0.10132992
-0.041299991 -0.01807978 -0.10132282
-0.041308969 -0.018008137 -0.10133573
-0.041318413 -0.017934598 -0.10134461
-0.041327778 -0.017863128 -0.10134953
-0.041337028 -0.017789504 -0.10136241
-0.041346077 -0.017715791 -0.10137928
-0.041355543 -0.017644364 -0.1013822
-0.041365668 -0.017571127 -0.10137711
-0.041375134 -0.0174997 -0.10138003
-0.041383795 -0.017425817 -0.10140488
-0.041392945 -0.017352147 -0.10141976
-0.041402508 -0.017280763 -0.10142069
-0.041412532 -0.017207485 -0.10141759
-0.041422684 -0.01713636 -0.10140653
-0.041432805 -0.017063122 -0.10140144
-0.041442737 -0.016989801 -0.10140034
-0.041452102 -0.01691833 -0.10140526
-0.041461155 -0.016844619 -0.10142212
-0.041470498 -0.016771037 -0.101433
-0.041480746 -0.016699955 -0.10141995
-0.041491553 -0.016627021 -0.10140087
-0.041501798 -0.016555941 -0.10138781
-0.041511361 -0.016484555 -0.10138875
-0.041520901 -0.01641106 -0.10139563
-0.041530244 -0.016337479 -0.10140651
-0.041539587 -0.016263897 -0.1014174
-0.041549053 -0.01619247 -0.10142032
-0.041559372 -0.01611932 -0.10141122
-0.041569423 -0.016048152 -0.10140216
-0.041578963 -0.015974656 -0.10140905
-0.041587818 -0.015900858 -0.10142992
-0.041596796 -0.015829215 -0.10144283
-0.041606825 -0.015755937 -0.10143972
-0.041616946 -0.015682699 -0.10143463
-0.041626707 -0.015611402 -0.10143156
-0.041637026 -0.015538252 -0.10142247
-0.04164698 -0.01546704 -0.10141541
-0.041655932 -0.015393286 -0.10143428
-0.041664302 -0.015319272 -0.10146513
-0.041674133 -0.015245906 -0.10146602
-0.041684184 -0.015174738 -0.10145696
-0.041694112 -0.015101416 -0.10145586
-0.041703772 -0.015030075 -0.10145479
-0.041713312 -0.014956579 -0.10146167
-0.041722462 -0.014882911 -0.10147654
-0.041732002 -0.014809416 -0.10148344
-0.041741662 -0.014738075 -0.10148237
-0.041751686 -0.014664795 -0.10147926
-0.041761812 -0.014591559 -0.10147417
-0.041771375 -0.014520175 -0.1014751
-0.0417815 -0.014446938 -0.10146999
-0.041791551 -0.01437577 -0.10146093
-0.041801773 -0.014302578 -0.10145384
-0.041812018 -0.014231496 -0.10144078
-0.041822631 -0.014158476 -0.1014257
-0.041832581 -0.014087265 -0.10141864
-0.041841827 -0.014013641 -0.10143151
-0.041851368 -0.013940144 -0.10143841
-0.041861322 -0.013868934 -0.10143135
-0.041871931 -0.013795913 -0.10141627
-0.041882277 -0.013724875 -0.1014012
-0.04189191 -0.013651423 -0.1014061
-0.041900672 -0.013577582 -0.10142896
-0.04190943 -0.013503741 -0.10145182
-0.041918483 -0.013430029 -0.1014687
-0.041927435 -0.013356274 -0.10148757
-0.041937098 -0.013284933 -0.1014865
-0.041947708 -0.013211913 -0.10147141
-0.041957662 -0.013140702 -0.10146435
-0.041967493 -0.013067336 -0.10146525
-0.041977521 -0.012994057 -0.10146215
-0.041986987 -0.012922629 -0.10146507
-0.041996427 -0.012849091 -0.10147395
-0.04200577 -0.012775509 -0.10148484
-0.042014919 -0.012701841 -0.10149971
-0.042024557 -0.012628389 -0.1015046
-0.042034317 -0.01255709 -0.10150152
-0.042043563 -0.012483466 -0.1015144
-0.042052295 -0.012407513 -0.10154323
-0.04206096 -0.012333629 -0.10156809
-0.042070303 -0.012260046 -0.10157897
-0.042080451 -0.012188923 -0.10156792
-0.042090893 -0.012117927 -0.10155086
-0.04210043 -0.012044432 -0.10155775
-0.042109188 -0.011970591 -0.10158061
-0.042117923 -0.011894638 -0.10160944
-0.042126585 -0.011820753 -0.1016343
-0.042136222 -0.011747301 -0.10163919
-0.042146638 -0.011674195 -0.1016281
-0.04215708 -0.011603199 -0.10161105
-0.042167522 -0.011532204 -0.101594
-0.042177353 -0.011458838 -0.1015949
-0.042186502 -0.011385171 -0.10160978
-0.042195749 -0.011311545 -0.10162266
-0.042205188 -0.011238006 -0.10163154
-0.042214535 -0.011164424 -0.10164241
-0.042223781 -0.011090799 -0.1016553
-0.042233516 -0.011017391 -0.10165819
-0.042243734 -0.010944197 -0.10165109
-0.042253397 -0.010872857 -0.10165002
-0.042263228 -0.01079949 -0.10165092
-0.042272765 -0.010725996 -0.1016578
-0.042282112 -0.010652414 -0.10166868
-0.04229204 -0.010579091 -0.10166758
-0.042302188 -0.010507965 -0.10165653
-0.042312313 -0.01043473 -0.10165143
-0.042321365 -0.010361019 -0.10166831
-0.042330123 -0.010287177 -0.10169116
-0.042339563 -0.010213639 -0.10170005
-0.042349298 -0.010140229 -0.10170294
-0.042359229 -0.010066907 -0.10170183
-0.042368863 -0.0099934554 -0.10170672
-0.042378329 -0.0099220267 -0.10170965
-0.042388551 -0.0098488349 -0.10170256
-0.04239887 -0.0097756851 -0.10169347
-0.042408604 -0.0097022764 -0.10169636
-0.04241807 -0.0096308477 -0.10169929
-0.04242878 -0.0095578711 -0.1016822
-0.042439513 -0.0094870059 -0.10165916
-0.04244937 -0.0094157513 -0.1016541
-0.042459078 -0.0093402304 -0.10166295
-0.042468324 -0.0092666065 -0.10167582
-0.042477183 -0.0091928076 -0.10169669
-0.042486306 -0.0091170277 -0.10171753
-0.04249575 -0.0090434887 -0.10172641
-0.042505603 -0.008972235 -0.10172135
-0.042515922 -0.0088990862 -0.10171226
-0.042525679 -0.0088277869 -0.10170919
-0.042535685 -0.0087523963 -0.10171206
-0.042545028 -0.0086788153 -0.10172293
-0.042554762 -0.0086054057 -0.10172582
-0.042564716 -0.0085341949 -0.10171876
-0.04257435 -0.0084607424 -0.10172365
-0.042583574 -0.0083850063 -0.10174248
-0.042592723 -0.0083113387 -0.10175736
-0.042602263 -0.0082378425 -0.10176425
-0.042611703 -0.0081643034 -0.10177313
-0.042621244 -0.008090809 -0.10178003
-0.042631049 -0.0080153318 -0.10178687
-0.042640515 -0.007943904 -0.1017898
-0.042650446 -0.007870581 -0.1017887
-0.042660277 -0.0077972151 -0.10178959
-0.042670302 -0.0077239368 -0.10178649
-0.042680256 -0.0076527242 -0.10177943
-0.042690184 -0.007579403 -0.10177833
-0.042700406 -0.0075062094 -0.10177124
-0.042710651 -0.0074351281 -0.10175817
-0.042721093 -0.0073641334 -0.10174112
-0.042730924 -0.0072907675 -0.10174203
-0.042740051 -0.0072149877 -0.10176287
-0.042749077 -0.007139165 -0.1017857
-0.042758714 -0.0070657115 -0.10179058
-0.042768665 -0.0069945017 -0.10178352
-0.042778987 -0.0069213519 -0.10177443
-0.042789038 -0.006850183 -0.10176536
-0.042798772 -0.0067767743 -0.10176826
-0.042808309 -0.006703278 -0.10177515
-0.042817727 -0.0066276286 -0.10178999
-0.042826779 -0.0065539172 -0.10180686
-0.042836584 -0.0064784409 -0.10181372
-0.042846516 -0.0064051179 -0.10181262
-0.04285647 -0.0063339071 -0.10180556
-0.042866688 -0.0062607136 -0.10179847
-0.042876717 -0.0061874343 -0.10179536
-0.042885769 -0.0061137229 -0.10181224
-0.042895477 -0.006038202 -0.10182109
-0.042905141 -0.0059668617 -0.10182001
-0.042914849 -0.0058913417 -0.10182887
-0.042924192 -0.0058177598 -0.10183975
-0.042934317 -0.0057445224 -0.10183465
-0.042944562 -0.0056734411 -0.1018216
-0.042954393 -0.0056000762 -0.1018225
-0.042963836 -0.0055265371 -0.10183138
-0.042973936 -0.0054511894 -0.10183225
-0.042984277 -0.0053801518 -0.1018172
-0.042994209 -0.0053068288 -0.1018161
-0.043003552 -0.0052332468 -0.10182697
-0.043012995 -0.0051597077 -0.10183585
-0.043022998 -0.0050843181 -0.10183872
-0.043032829 -0.0050109513 -0.10183962
-0.043042466 -0.0049374998 -0.1018445
-0.043051712 -0.0048638741 -0.10185738
-0.043061543 -0.0047905082 -0.10185827
-0.043071568 -0.0047172289 -0.10185518
-0.043081108 -0.0046437327 -0.10186207
-0.043091133 -0.0045704544 -0.10185897
-0.043101355 -0.0044972617 -0.10185187
-0.043111309 -0.00442605 -0.10184481
-0.043121822 -0.0043529868 -0.10183172
-0.043132167 -0.0042819493 -0.10181667
-0.043142095 -0.0042086262 -0.10181557
-0.043150611 -0.0041304752 -0.10185435
-0.043159127 -0.0040523242 -0.10189313
-0.043168373 -0.0039786994 -0.101906
-0.043178596 -0.0039055068 -0.10189892
-0.04318884 -0.0038344264 -0.10188586
-0.043198772 -0.0037611034 -0.10188476
-0.0432087 -0.0036877804 -0.10188366
-0.043219116 -0.0036146734 -0.10187256
-0.043228071 -0.0035409201 -0.10189144
-0.043237559 -0.0034632012 -0.10191025
-0.043247905 -0.0033921618 -0.10189519
-0.043258321 -0.0033190548 -0.1018841
-0.043267861 -0.0032455605 -0.101891
-0.043277178 -0.0031698681 -0.10190783
-0.043286622 -0.003096329 -0.10191672
-0.04329643 -0.0030208528 -0.10192358
-0.043306261 -0.0029474869 -0.10192447
-0.043316092 -0.0028741211 -0.10192537
-0.043326117 -0.0028008409 -0.10192227
-0.043336146 -0.0027275607 -0.10191917
-0.043346267 -0.0026543252 -0.10191408
-0.043355711 -0.0025807861 -0.10192296
-0.043364812 -0.0025028959 -0.10194975
-0.043374155 -0.002429314 -0.10196063
-0.043384254 -0.0023539662 -0.1019615
-0.043393988 -0.0022805575 -0.10196439
-0.043403529 -0.0022070613 -0.10197128
-0.043413337 -0.002131585 -0.10197814
-0.043422777 -0.0020580459 -0.10198702
-0.04343278 -0.0019826554 -0.10198988
-0.04344254 -0.0019113589 -0.10198682
-0.043452833 -0.0018360969 -0.10198368
-0.043462276 -0.0017625578 -0.10199257
-0.043471888 -0.0016869958 -0.10200342
-0.043481402 -0.0016113874 -0.10201626
-0.043491136 -0.0015379786 -0.10201915
-0.043501064 -0.0014646556 -0.10201805
-0.043510776 -0.0013891365 -0.10202691
-0.043520022 -0.0013155118 -0.10203979
-0.043529611 -0.0012378357 -0.1020566
-0.043538857 -0.001164211 -0.10206948
-0.043549053 -0.0010889061 -0.10206835
-0.043558594 -0.0010154098 -0.10207523
-0.043568231 -0.00094196014 -0.10208012
-0.043578744 -0.00086889416 -0.10206704
-0.043588795 -0.00079772808 -0.10205798
-0.0435986 -0.00072224997 -0.10206483
-0.043608408 -0.00064677186 -0.10207169
-0.043617852 -0.00057323463 -0.10208058
-0.043627951 -0.00049788691 -0.10208144
-0.043638293 -0.00042684749 -0.10206639
-0.043648735 -0.00035585277 -0.10204934
-0.043658566 -0.00028248876 -0.10205024
-0.043668374 -0.00020701066 -0.10205709
-0.043678399 -0.00013373047 -0.10205399
-0.043688525 -6.0496852e-05 -0.10204889
-0.043698747 1.2699515e-05 -0.1020418
-0.043708771 8.5977837e-05 -0.1020387
-0.043718703 0.00015930086 -0.1020376
-0.043727584 0.00023938715 -0.10207436
-0.043737121 0.00031288341 -0.10208125
-0.043747224 0.00038823113 -0.10208211
-0.043756858 0.00046168268 -0.102087
-0.043766178 0.00053737871 -0.10210384
-0.043775987 0.00061285496 -0.1021107
-0.043786913 0.00068363361 -0.10208366
-0.043797769 0.00075234473 -0.10205266
-0.043808114 0.00082338229 -0.10203761
-0.043818433 0.00089653395 -0.10202851
-0.043828361 0.00096985511 -0.10202741
-0.043838166 0.0010453314 -0.10203427
-0.043847587 0.0011209827 -0.10204912
-0.043857928 0.0011920203 -0.10203407
-0.043869589 0.0012582727 -0.10198113
-0.043880638 0.0013268981 -0.10194614
-0.043891273 0.0013978072 -0.10192509
-0.043901298 0.0014710873 -0.10192199
-0.043912057 0.0015398413 -0.10189299
-0.043923497 0.0016082916 -0.10185001
-0.043933522 0.00168157 -0.1018469
-0.043942235 0.0017596353 -0.10188169
-0.04395102 0.0018397681 -0.10192044
-0.043960851 0.0019131321 -0.10192134
-0.043974482 0.0019680094 -0.10180065
-0.043987699 0.0020251684 -0.10169391
-0.044023689 0.0023390166 -0.10181504
-0.044034399 0.0024119951 -0.10179797
-0.044045057 0.0024807919 -0.10177096
-0.04405601 0.0025494602 -0.10173796
-0.037958771 -0.041784771 -0.10421432
-0.037968677 -0.041709337 -0.10421918
-0.037977945 -0.041637823 -0.1042261
-0.037988435 -0.041562647 -0.10421897
-0.037998926 -0.041487474 -0.10421185
-0.038008172 -0.041413851 -0.10422473
-0.038017053 -0.041342162 -0.10423964
-0.03802669 -0.04126871 -0.10424452
-0.038036324 -0.041195258 -0.10424941
-0.038046159 -0.041121893 -0.1042503
-0.038056549 -0.041046672 -0.10424518
-0.038066749 -0.040971369 -0.10424405
-0.03807592 -0.040899813 -0.10425296
-0.038084801 -0.040828127 -0.10426787
-0.038094144 -0.040754545 -0.10427875
-0.038103975 -0.040681176 -0.10427965
-0.038114078 -0.040605832 -0.10428051
-0.038123712 -0.04053238 -0.1042854
-0.038134202 -0.040457204 -0.10427827
-0.038144134 -0.040383883 -0.10427717
-0.038153477 -0.040310301 -0.10428806
-0.038162723 -0.040236674 -0.10430093
-0.038172748 -0.040163398 -0.10429783
-0.038182948 -0.040088091 -0.1042967
-0.038192682 -0.040014684 -0.1042996
-0.038203072 -0.039939463 -0.10429447
-0.038213659 -0.039864331 -0.10428535
-0.038223587 -0.03979101 -0.10428425
-0.038232081 -0.039719149 -0.10430714
-0.038240571 -0.039647289 -0.10433003
-0.038250111 -0.039573796 -0.10433692
-0.038259842 -0.039500386 -0.10433982
-0.038269579 -0.039426979 -0.1043427
-0.038279969 -0.039351761 -0.10433758
-0.038290165 -0.039276458 -0.10433645
-0.038299706 -0.039202958 -0.10434333
-0.038309343 -0.039129511 -0.10434823
-0.038318418 -0.03905791 -0.10435914
-0.038327299 -0.038986221 -0.10437404
-0.038336545 -0.038912594 -0.10438692
-0.038347792 -0.038835656 -0.10436977
-0.038358282 -0.038760483 -0.10436265
-0.038367357 -0.038688883 -0.10437357
-0.038376898 -0.038615387 -0.10438044
-0.038386799 -0.03853995 -0.10438531
-0.038396534 -0.038466543 -0.1043882
-0.038406365 -0.038393177 -0.1043891
-0.038415246 -0.038321491 -0.104404
-0.038424201 -0.038247734 -0.10442287
-0.038434595 -0.038172517 -0.10441775
-0.038444914 -0.038099367 -0.10440866
-0.038455013 -0.038024023 -0.10440952
-0.038464941 -0.037950698 -0.10440842
-0.038474578 -0.037877247 -0.10441331
-0.038483825 -0.03780362 -0.10442618
-0.038493365 -0.037730128 -0.10443307
-0.038503464 -0.03765478 -0.10443393
-0.038513001 -0.03758128 -0.10444083
-0.038522273 -0.037509769 -0.10444774
-0.038532276 -0.037434377 -0.10445061
-0.038541351 -0.037362777 -0.10446151
-0.038550694 -0.037289195 -0.1044724
-0.038561087 -0.037213977 -0.10446727
-0.038570918 -0.037140612 -0.10446816
-0.038580261 -0.03706703 -0.10447904
-0.038589898 -0.036993578 -0.10448393
-0.038600657 -0.036916424 -0.10447678
-0.038610585 -0.036843099 -0.10447568
-0.038620319 -0.036769688 -0.10447858
-0.038630322 -0.036694303 -0.10448144
-0.03864035 -0.036621019 -0.10447834
-0.038650643 -0.036545761 -0.10447521
-0.038660087 -0.03647222 -0.10448409
-0.038668871 -0.03640049 -0.10450099
-0.038678408 -0.036326993 -0.10450788
-0.038688507 -0.036251649 -0.10450874
-0.038697951 -0.036178108 -0.10451762
-0.038707584 -0.036104657 -0.10452252
-0.038717516 -0.036031336 -0.10452142
-0.038727615 -0.035955988 -0.10452229
-0.038737252 -0.035882533 -0.10452717
-0.038746499 -0.03580891 -0.10454005
-0.038756035 -0.035735413 -0.10454693
-0.038765576 -0.035661921 -0.10455383
-0.038775116 -0.035588421 -0.10456071
-0.038784947 -0.035515055 -0.1045616
-0.038794387 -0.035441518 -0.10457049
-0.03880439 -0.035366125 -0.10457335
-0.038814612 -0.035292935 -0.10456625
-0.038824711 -0.035217587 -0.10456712
-0.038834348 -0.035144135 -0.10457201
-0.038844083 -0.035070725 -0.1045749
-0.038854085 -0.034995336 -0.10457776
-0.038864013 -0.034922011 -0.10457666
-0.038874015 -0.034846622 -0.10457953
-0.038883287 -0.034775108 -0.10458644
-0.038893092 -0.03469963 -0.1045933
-0.03890273 -0.034626178 -0.10459819
-0.038912561 -0.034552813 -0.10459908
-0.038922857 -0.034477551 -0.10459595
-0.038932785 -0.034404229 -0.10459485
-0.038942497 -0.034328707 -0.10460371
-0.038952034 -0.034255214 -0.1046106
-0.038961209 -0.034183659 -0.10461951
-0.03900044 -0.034068707 -0.10416028
-0.03901064 -0.033993404 -0.10415915
-0.039123885 -0.033598267 -0.10299848
-0.039148148 -0.033506088 -0.10276935
-0.039162468 -0.033426307 -0.10270023
-0.039176904 -0.033348683 -0.10262314
-0.039190173 -0.033270542 -0.10257002
-0.039206322 -0.033189468 -0.10246891
-0.03922037 -0.033111673 -0.10239982
-0.039234981 -0.033032022 -0.1023247
-0.039246812 -0.032955341 -0.10229558
-0.039258569 -0.032880731 -0.10226249
-0.039270982 -0.032804307 -0.10222138
-0.039282449 -0.032729566 -0.10219429
-0.039293427 -0.032654606 -0.10217719
-0.039304599 -0.032579735 -0.10215608
-0.039317306 -0.032503441 -0.10210899
-0.039388832 -0.032234754 -0.10142569
-0.039402589 -0.032156825 -0.10136259
-0.039414346 -0.032082215 -0.10132951
-0.039428003 -0.032004245 -0.1012684
-0.039440542 -0.031929977 -0.10121934
-0.039452568 -0.031853382 -0.10118622
-0.039465569 -0.031777218 -0.10113314
-0.039477229 -0.031702563 -0.10110204
-0.039487742 -0.031629499 -0.10108896
-0.039499011 -0.031554669 -0.10106586
-0.039511353 -0.03148032 -0.10102078
-0.039524451 -0.031404197 -0.1009657
-0.039535627 -0.031329326 -0.10094459
-0.039545286 -0.031257987 -0.10094352
-0.039555408 -0.03118475 -0.10093842
-0.039566971 -0.03111005 -0.10090934
-0.039577778 -0.031037118 -0.10089026
-0.039587706 -0.030963793 -0.10088916
-0.039597638 -0.030890472 -0.10088806
-0.039607201 -0.030819088 -0.10088898
-0.039617419 -0.030745894 -0.1008819
-0.039627839 -0.030672789 -0.1008708
-0.039637107 -0.030601274 -0.10087772
-0.039645988 -0.030529588 -0.10089263
-0.039655164 -0.030458031 -0.10090154
-0.039665483 -0.030384881 -0.10089245
-0.039676849 -0.030310094 -0.10086735
-0.039687458 -0.030237075 -0.10085227
-0.039697584 -0.030163839 -0.10084718
-0.039705805 -0.03009396 -0.1008701
-0.039714005 -0.030021973 -0.10089898
-0.039723277 -0.029950459 -0.1009059
-0.039732739 -0.02987903 -0.10090882
-0.039742574 -0.029805666 -0.10090972
-0.039752331 -0.029734368 -0.10090664
-0.039762259 -0.029661044 -0.10090554
-0.039771821 -0.02958966 -0.10090647
-0.03978185 -0.029516382 -0.10090337
-0.039792072 -0.02944319 -0.10089628
-0.039802391 -0.02937004 -0.10088719
-0.039812513 -0.029296802 -0.10088208
-0.039822076 -0.02922542 -0.10088301
-0.039831638 -0.029154034 -0.10088394
-0.03984157 -0.029080713 -0.10088284
-0.03985123 -0.029009372 -0.10088176
-0.039860014 -0.028937642 -0.10089866
-0.039868601 -0.028865825 -0.10091956
-0.039878726 -0.028792588 -0.10091446
-0.03988963 -0.028719699 -0.1008934
-0.039899558 -0.028646376 -0.1008923
-0.039908439 -0.02857469 -0.1009072
-0.039916955 -0.028504942 -0.10092413
-0.039926492 -0.028431445 -0.10093102
-0.039937105 -0.028358426 -0.10091593
-0.039946958 -0.02828717 -0.10091086
-0.039956301 -0.02821359 -0.10092175
-0.039965671 -0.028142119 -0.10092667
-0.039976284 -0.028069099 -0.10091158
-0.039986212 -0.027995776 -0.10091048
-0.03999519 -0.027924133 -0.10092339
-0.040004559 -0.027852662 -0.10092831
-0.040014975 -0.027779557 -0.10091722
-0.040025294 -0.027706405 -0.10090813
-0.040034566 -0.027634893 -0.10091504
-0.040043641 -0.027563293 -0.10092596
-0.04005396 -0.027490143 -0.10091687
-0.040064473 -0.02741708 -0.10090378
-0.040074036 -0.027345695 -0.1009047
-0.040083479 -0.027272157 -0.10091359
-0.040092651 -0.027200598 -0.1009225
-0.040101826 -0.027129043 -0.10093141
-0.040111266 -0.027055506 -0.1009403
-0.040120732 -0.026984077 -0.10094322
-0.040130954 -0.026910882 -0.10093613
-0.040140808 -0.026839629 -0.10093106
-0.040150251 -0.026766092 -0.10093994
-0.040159814 -0.026694706 -0.10094088
-0.040170133 -0.026621558 -0.10093178
-0.040180162 -0.026548278 -0.10092868
-0.040189624 -0.026476851 -0.1009316
-0.040199652 -0.026403571 -0.1009285
-0.040209215 -0.026332187 -0.10092942
-0.040218681 -0.02626076 -0.10093235
-0.040228806 -0.026187524 -0.10092726
-0.040238466 -0.026116181 -0.10092618
-0.0402481 -0.02604273 -0.10093108
-0.040257566 -0.025971303 -0.100934
-0.040267885 -0.025898153 -0.1009249
-0.040278204 -0.025825003 -0.10091581
-0.040288158 -0.025753792 -0.10090875
-0.040298477 -0.025680643 -0.10089966
-0.040307552 -0.025609042 -0.10091057
-0.040316336 -0.025537312 -0.10092747
-0.040325973 -0.02546386 -0.10093237
-0.040335633 -0.025392519 -0.10093129
-0.040344782 -0.02531885 -0.10094617
-0.040353101 -0.025249016 -0.10096709
-0.040362641 -0.025175519 -0.10097398
-0.04037201 -0.02510405 -0.1009789
-0.040381279 -0.025032537 -0.10098581
-0.040390916 -0.024959084 -0.1009907
-0.040399991 -0.024887484 -0.10100161
-0.04040936 -0.024816014 -0.10100653
-0.040420435 -0.024741098 -0.10098742
-0.040430583 -0.024669973 -0.10097636
-0.040439732 -0.024596304 -0.10099125
-0.04044871 -0.024524663 -0.10100415
-0.040457785 -0.024453061 -0.10101506
-0.040466666 -0.024381375 -0.10102997
-0.04047545 -0.024309644 -0.10104688
-0.04048489 -0.024236105 -0.10105576
-0.040494453 -0.024164721 -0.10105667
-0.040504482 -0.024091443 -0.10105358
-0.040514216 -0.024018034 -0.10105647
-0.040523484 -0.02394652 -0.10106338
-0.040532269 -0.023874789 -0.10108028
-0.040540759 -0.02380293 -0.10110319
-0.040549837 -0.02373133 -0.10111409
-0.040559765 -0.023658007 -0.10111299
-0.040569521 -0.023586711 -0.10110992
-0.040579937 -0.023513604 -0.10109884
-0.040589966 -0.023440324 -0.10109574
-0.040599823 -0.02336907 -0.10109067
-0.040609848 -0.02329579 -0.10108757
-0.040619411 -0.023224406 -0.10108849
-0.040629242 -0.02315104 -0.10108939
-0.040638611 -0.02307957 -0.10109431
-0.040647198 -0.023007754 -0.10111521
-0.040655568 -0.02293374 -0.10114606
-0.040664256 -0.022861967 -0.10116496
-0.040673815 -0.022790583 -0.10116588
-0.040683452 -0.022717129 -0.10117077
-0.040692531 -0.022645529 -0.10118168
-0.040702652 -0.022572294 -0.10117659
-0.0407128 -0.022501169 -0.10116553
-0.040723413 -0.022428149 -0.10115044
-0.040733635 -0.022354957 -0.10114335
-0.040743001 -0.022283485 -0.10114826
-0.040752932 -0.022210162 -0.10114717
-0.040762495 -0.022138778 -0.1011481
-0.040771741 -0.022065153 -0.10116097
-0.040780719 -0.02199351 -0.10117389
-0.040789697 -0.021921868 -0.10118679
-0.040798943 -0.021848243 -0.10119966
-0.040808018 -0.021776641 -0.10121058
-0.04081795 -0.02170332 -0.10120948
-0.0408279 -0.021632109 -0.10120241
-0.040838707 -0.021559175 -0.10118333
-0.040849611 -0.021486284 -0.10116225
-0.040858883 -0.02141477 -0.10116918
-0.040867936 -0.021341059 -0.10118605
-0.040876914 -0.021269415 -0.10119896
-0.040885795 -0.021197729 -0.10121386
-0.040895138 -0.021124147 -0.10122474
-0.040904406 -0.021052632 -0.10123166
-0.040913947 -0.020979138 -0.10123854
-0.040924072 -0.020905901 -0.10123345
-0.040934317 -0.02083482 -0.10122039
-0.040944733 -0.020761713 -0.10120931
-0.04095459 -0.02069046 -0.10120424
-0.04096403 -0.020616921 -0.10121312
-0.040972911 -0.020545233 -0.10122803
-0.040982351 -0.020471694 -0.10123692
-0.04099182 -0.020400267 -0.10123983
-0.04100243 -0.020327248 -0.10122475
-0.041012459 -0.020253967 -0.10122166
-0.041021436 -0.020182325 -0.10123456
-0.041030414 -0.020110682 -0.10124747
-0.041040145 -0.020037273 -0.10125036
-0.041050002 -0.019966017 -0.10124529
-0.041060321 -0.019892868 -0.1012362
-0.041070249 -0.019819545 -0.1012351
-0.041078839 -0.019747728 -0.10125601
-0.041087039 -0.019675739 -0.10128489
-0.041095894 -0.019601941 -0.10130575
-0.041104577 -0.01953017 -0.10132466
-0.041114118 -0.019456673 -0.10133154
-0.041123584 -0.019385247 -0.10133445
-0.041133318 -0.019311838 -0.10133735
-0.041143075 -0.01924054 -0.10133428
-0.041153297 -0.019167347 -0.10132719
-0.04116381 -0.019094283 -0.10131411
-0.041174445 -0.019023374 -0.10129306
-0.041185446 -0.018950528 -0.10127
-0.041195597 -0.018879402 -0.10125893
-0.041204259 -0.018805519 -0.10128379
-0.041212529 -0.01873146 -0.10131665
-0.04122141 -0.018659774 -0.10133155
-0.041230462 -0.018586062 -0.10134842
-0.041239634 -0.018514507 -0.10135733
-0.041249759 -0.018441269 -0.10135223
-0.041259225 -0.018369842 -0.10135516
-0.041269056 -0.018296476 -0.10135605
-0.041279279 -0.018223284 -0.10134895
-0.041289914 -0.018152375 -0.10132791
-0.041300133 -0.018079182 -0.10132083
-0.041309115 -0.018007539 -0.10133374
-0.041318554 -0.017934 -0.10134262
-0.041327924 -0.017862529 -0.10134754
-0.041337073 -0.017788861 -0.10136241
-0.041346222 -0.017715193 -0.10137728
-0.041355684 -0.017643765 -0.10138021
-0.04136581 -0.017570529 -0.1013751
-0.041375276 -0.017499102 -0.10137803
-0.041383937 -0.017425217 -0.10140289
-0.041392989 -0.017351506 -0.10141976
-0.041402552 -0.017280122 -0.10142069
-0.041412678 -0.017206885 -0.1014156
-0.041422728 -0.017135717 -0.10140653
-0.04143285 -0.017062481 -0.10140144
-0.041442782 -0.016989158 -0.10140034
-0.041452147 -0.016917689 -0.10140526
-0.0414612 -0.016843976 -0.10142212
-0.041470543 -0.016770395 -0.101433
-0.041480787 -0.016699314 -0.10141995
-0.041491598 -0.01662638 -0.10140087
-0.041501939 -0.016555341 -0.10138582
-0.041511502 -0.016483957 -0.10138675
-0.041521043 -0.016410463 -0.10139364
-0.041530386 -0.016336881 -0.10140452
-0.041539729 -0.016263299 -0.1014154
-0.041549098 -0.016191827 -0.10142032
-0.04155932 -0.016118634 -0.10141322
-0.041569468 -0.016047509 -0.10140216
-0.041579004 -0.015974015 -0.10140905
-0.041587863 -0.015900217 -0.10142992
-0.041596841 -0.015828572 -0.10144283
-0.041606866 -0.015755294 -0.10143972
-0.041617088 -0.015682101 -0.10143264
-0.041626848 -0.015610803 -0.10142956
-0.04163707 -0.01553761 -0.10142247
-0.041647021 -0.015466399 -0.10141541
-0.041656073 -0.015392687 -0.10143228
-0.041664444 -0.015318673 -0.10146313
-0.041674174 -0.015245264 -0.10146602
-0.041684225 -0.015174096 -0.10145696
-0.041694157 -0.015100773 -0.10145586
-0.041703817 -0.015029432 -0.10145479
-0.041713357 -0.014955938 -0.10146167
-0.041722603 -0.014882312 -0.10147456
-0.041732043 -0.014808774 -0.10148344
-0.041741703 -0.014737433 -0.10148237
-0.041751828 -0.014664196 -0.10147727
-0.041761853 -0.014590917 -0.10147417
-0.041771419 -0.014519533 -0.1014751
-0.041781541 -0.014446298 -0.10146999
-0.041791592 -0.014375129 -0.10146093
-0.041801911 -0.014301979 -0.10145184
-0.041812059 -0.014230855 -0.10144078
-0.041822672 -0.014157834 -0.1014257
-0.041832626 -0.014086623 -0.10141864
-0.041841872 -0.014012998 -0.10143152
-0.041851409 -0.013939503 -0.10143841
-0.041861363 -0.013868291 -0.10143135
-0.041871976 -0.013795272 -0.10141627
-0.041882318 -0.013724233 -0.1014012
-0.041891955 -0.013650781 -0.1014061
-0.041900616 -0.013576897 -0.10143095
-0.041909374 -0.013503055 -0.10145383
-0.041918427 -0.013429344 -0.10147069
-0.041927576 -0.013355675 -0.10148557
-0.041937236 -0.013284335 -0.10148449
-0.041947752 -0.013211271 -0.10147142
-0.041957702 -0.01314006 -0.10146435
-0.041967634 -0.013066737 -0.10146325
-0.041977562 -0.012993414 -0.10146215
-0.041987028 -0.012921987 -0.10146507
-0.041996565 -0.012848493 -0.10147195
-0.042005911 -0.01277491 -0.10148283
-0.042015061 -0.012701241 -0.10149771
-0.042024598 -0.012627746 -0.1015046
-0.042034358 -0.012556449 -0.10150152
-0.042043701 -0.012482867 -0.10151241
-0.042052336 -0.012406871 -0.10154323
-0.042061001 -0.012332987 -0.1015681
-0.042070441 -0.012259448 -0.10157698
-0.042080492 -0.01218828 -0.10156792
-0.042090934 -0.012117285 -0.10155086
-0.042100567 -0.012043832 -0.10155576
-0.042109329 -0.011969991 -0.10157862
-0.042118061 -0.011894038 -0.10160744
-0.042126723 -0.011820154 -0.1016323
-0.04213636 -0.011746703 -0.10163719
-0.042146679 -0.011673552 -0.1016281
-0.042157121 -0.011602557 -0.10161106
-0.042167559 -0.011531562 -0.10159401
-0.042177394 -0.011458197 -0.1015949
-0.04218664 -0.011384571 -0.10160778
-0.04219579 -0.011310903 -0.10162266
