# .PCD v0.7 - Point Cloud Data file format
VERSION 0.7
FIELDS x y z
SIZE 4 4 4
TYPE F F F
COUNT 1 1 1
WIDTH 1259
HEIGHT 1
VIEWPOINT 0 0 0 1 0 0 0
POINTS 1259
DATA ascii
-0.014121175 -0.011618515 -0.10504986
-0.014131565 -0.011543298 -0.10504473
-0.01414166 -0.011467949 -0.1050456
-0.014151685 -0.01139467 -0.1050425
-0.014162659 -0.01131971 -0.1050254
-0.014173463 -0.011246775 -0.10500632
-0.014183925 -0.011169489 -0.10500517
-0.014193827 -0.011094055 -0.10501003
-0.014203949 -0.011020819 -0.10500493
-0.014214728 -0.010945774 -0.10499182
-0.014225215 -0.010870597 -0.10498469
-0.014235117 -0.010795164 -0.10498956
-0.014245531 -0.010722056 -0.10497848
-0.014256798 -0.010647226 -0.10495538
-0.014266992 -0.010571921 -0.10495424
-0.014276601 -0.010496359 -0.1049651
-0.014286991 -0.01042114 -0.10495997
-0.014298087 -0.010348335 -0.1049349
-0.014308988 -0.010275444 -0.10491384
-0.014319086 -0.010200096 -0.1049147
-0.01432928 -0.010124791 -0.10491356
-0.014340157 -0.010049789 -0.10489846
-0.014350741 -0.0099746557 -0.10488935
-0.01436135 -0.0099016353 -0.10487426
-0.014372543 -0.009828873 -0.1048472
-0.014383323 -0.0097538279 -0.10483409
-0.014393518 -0.0096785231 -0.10483296
-0.01440342 -0.0096030887 -0.10483782
-0.014413419 -0.0095276982 -0.10484068
-0.014423906 -0.0094525237 -0.10483357
-0.014435221 -0.0093819145 -0.10479854
-0.014447292 -0.0093095414 -0.1047535
-0.014458291 -0.0092366934 -0.10473043
-0.014468389 -0.0091613457 -0.1047313
-0.014477973 -0.0090836715 -0.10474811
-0.014486901 -0.009007806 -0.10477295
-0.014497193 -0.008932543 -0.10476982
-0.014508094 -0.0088596521 -0.10474875
-0.014519092 -0.008786805 -0.10472568
-0.01452936 -0.0087094316 -0.10472852
-0.014538677 -0.0086337384 -0.10474536
-0.014549164 -0.0085585639 -0.10473824
-0.014560552 -0.0084858881 -0.10470718
-0.014571259 -0.0084129097 -0.1046901
-0.014581064 -0.0083374325 -0.10469697
-0.01459155 -0.008262258 -0.10468984
-0.014602354 -0.0081893243 -0.10467076
-0.014612938 -0.0081141908 -0.10466165
-0.014622742 -0.0080387145 -0.10466851
-0.014633132 -0.0079634944 -0.10466338
-0.014643546 -0.0078903874 -0.1046523
-0.014654228 -0.0078152996 -0.10464118
-0.014664423 -0.0077399947 -0.10464005
-0.014675226 -0.00766706 -0.10462098
-0.014685933 -0.0075940825 -0.10460389
-0.014696419 -0.007518908 -0.10459678
-0.014706906 -0.0074437326 -0.10458966
-0.014717222 -0.0073705809 -0.10458057
-0.014727514 -0.0072953198 -0.10457744
-0.014737416 -0.0072198864 -0.1045823
-0.014747513 -0.0071445378 -0.10458317
-0.014757903 -0.0070693204 -0.10457805
-0.014768487 -0.0069941869 -0.10456893
-0.014778901 -0.0069210799 -0.10455783
-0.014789291 -0.0068458626 -0.10455272
-0.014799777 -0.0067706872 -0.10454559
-0.014810288 -0.0066976231 -0.10453251
-0.014820873 -0.0066224905 -0.1045234
-0.01483097 -0.0065471437 -0.10452426
-0.014840872 -0.0064717093 -0.10452912
-0.014851066 -0.0063964045 -0.10452799
-0.014861554 -0.006321229 -0.10452087
-0.014872357 -0.0062482944 -0.10450179
-0.014883161 -0.0061753597 -0.10448272
-0.014893964 -0.006102425 -0.10446365
-0.014904476 -0.0060293609 -0.10445056
-0.014915256 -0.0059543159 -0.10443745
-0.014925864 -0.0058812955 -0.10442237
-0.01493618 -0.0058081448 -0.10441329
-0.014946374 -0.0057328399 -0.10441216
-0.014956276 -0.0056574056 -0.10441701
-0.014966739 -0.0055801198 -0.10441585
-0.01497686 -0.0055068834 -0.10441076
-0.014987348 -0.0054317061 -0.10440364
-0.014997663 -0.0053585563 -0.10439456
-0.015008345 -0.0052834675 -0.10438344
-0.01501893 -0.0052083377 -0.10437431
-0.015029148 -0.0051351432 -0.10436723
-0.015039928 -0.0050600972 -0.10435411
-0.015050439 -0.0049870331 -0.10434102
-0.015060853 -0.0049139261 -0.10432994
-0.015071437 -0.0048387945 -0.10432083
-0.015081754 -0.0047656447 -0.10431173
-0.015092362 -0.0046926215 -0.10429666
-0.015103068 -0.004619645 -0.10427958
-0.01511375 -0.0045445561 -0.10426846
-0.015124165 -0.0044714492 -0.10425738
-0.01513487 -0.0043984707 -0.1042403
-0.015145747 -0.0043234676 -0.10422518
-0.015155966 -0.004250275 -0.1042181
-0.015166355 -0.0041750576 -0.10421297
-0.015176769 -0.0041019507 -0.10420188
-0.015187548 -0.0040269028 -0.10418877
-0.015198059 -0.0039538406 -0.10417569
-0.015208473 -0.0038807336 -0.10416461
-0.015218668 -0.0038054287 -0.10416348
-0.015228741 -0.0037279688 -0.1041703
-0.015238667 -0.0036546476 -0.1041692
-0.015249544 -0.0035796445 -0.1041541
-0.01525986 -0.0035064947 -0.10414501
-0.015269957 -0.0034311451 -0.10414587
-0.015280152 -0.0033558402 -0.10414474
-0.015290346 -0.0032805353 -0.10414361
-0.015300321 -0.0032030325 -0.10415243
-0.0093163261 -0.044561848 -0.11224763
-0.0093277143 -0.044480771 -0.11223841
-0.0093388353 -0.044401675 -0.11222924
-0.0093507851 -0.044318743 -0.11221401
-0.0093626613 -0.044237886 -0.11219482
-0.0093740504 -0.044156808 -0.1121856
-0.009384878 -0.044077583 -0.11218242
-0.0093964618 -0.043996591 -0.11216922
-0.0094081424 -0.043915644 -0.11215402
-0.0094190687 -0.04383646 -0.11214883
-0.0094302623 -0.0437553 -0.11214363
-0.0094417483 -0.043674264 -0.11213242
-0.0094526736 -0.043595083 -0.11212724
-0.009463599 -0.043515898 -0.11212206
-0.0094752805 -0.043434955 -0.11210685
-0.0094863037 -0.043355815 -0.11209967
-0.0094973994 -0.043274611 -0.11209646
-0.0095076673 -0.043197237 -0.11209929
-0.0095183002 -0.043117926 -0.1121001
-0.0095293233 -0.043038785 -0.11209292
-0.0095411018 -0.04295788 -0.11207572
-0.0095532462 -0.042875037 -0.11205649
-0.0095649278 -0.04279409 -0.11204129
-0.0095751947 -0.042716719 -0.11204413
-0.0095849745 -0.042639129 -0.11205696
-0.0095963627 -0.042558052 -0.11204775
-0.0096081421 -0.042477146 -0.11203055
-0.0096191652 -0.042398006 -0.11202337
-0.009630749 -0.042317018 -0.11201017
-0.0096424296 -0.042236067 -0.11199497
-0.0096531603 -0.042156801 -0.11199377
-0.0096637933 -0.042077489 -0.11199459
-0.0096748164 -0.041998349 -0.1119874
-0.0096854493 -0.041919038 -0.11198822
-0.0096967407 -0.04183792 -0.111981
-0.0097087147 -0.041757103 -0.11195982
-0.0097202985 -0.041676112 -0.11194661
-0.0097310282 -0.041596845 -0.11194542
-0.0097411005 -0.041519381 -0.11195225
-0.009751929 -0.041440159 -0.11194906
-0.0097633172 -0.041359082 -0.11193985
-0.0097740479 -0.041279815 -0.11193866
-0.0097849742 -0.04120063 -0.11193348
-0.0099910405 -0.040544093 -0.10965812
-0.010007109 -0.040456686 -0.10957491
-0.010023374 -0.040369369 -0.10948768
-0.010039443 -0.040281959 -0.10940447
-0.010051904 -0.040201358 -0.10937328
-0.010066267 -0.040117398 -0.1093141
-0.010079484 -0.040035024 -0.1092729
-0.01009175 -0.039954338 -0.10924571
-0.010107161 -0.039868742 -0.10917051
-0.010120671 -0.039786503 -0.10912333
-0.010131328 -0.0397093 -0.10911817
-0.01014045 -0.03963352 -0.10913902
-0.010179289 -0.039509982 -0.10870963
-0.010188799 -0.039434377 -0.10872249
-0.010197824 -0.039358556 -0.10874531
-0.010208286 -0.039281271 -0.10874415
-0.010217895 -0.039205708 -0.10875501
-0.010227601 -0.039130185 -0.10876387
-0.010238918 -0.039051175 -0.10875069
-0.010251378 -0.038970575 -0.10871952
-0.010263741 -0.03888993 -0.10869034
-0.010274203 -0.038812641 -0.10868918
-0.010316772 -0.038684454 -0.10819979
-0.01032209 -0.038615391 -0.10827667
-0.010333601 -0.03853647 -0.10825951
-0.010344843 -0.038459532 -0.10824237
-0.010355111 -0.038382158 -0.1082452
-0.010417734 -0.037981384 -0.10807736
-0.010429341 -0.037902504 -0.1080582
-0.010440096 -0.03782535 -0.10805105
-0.010450924 -0.037746124 -0.10804787
-0.010477114 -0.037585478 -0.10795955
-0.010489015 -0.037506729 -0.1079344
-0.01050033 -0.03742772 -0.10792122
-0.010511475 -0.037350737 -0.10790608
-0.01052223 -0.037273578 -0.10789894
-0.010533082 -0.037196465 -0.10788978
-0.0105443 -0.037117414 -0.1078786
-0.010554957 -0.037040211 -0.10787345
-0.010565614 -0.036963012 -0.1078683
-0.010576564 -0.03688594 -0.10785715
-0.01058788 -0.036806934 -0.10784398
-0.010598537 -0.036729731 -0.10783882
-0.010609389 -0.036652621 -0.10782968
-0.010621388 -0.036573909 -0.10780253
-0.010632337 -0.03649684 -0.10779138
-0.010643189 -0.036419727 -0.10778224
-0.010654602 -0.036340762 -0.10776706
-0.010665259 -0.036263563 -0.1077619
-0.010676112 -0.036186449 -0.10775276
-0.010688109 -0.036107741 -0.10772561
-0.010699522 -0.036028773 -0.10771044
-0.010710374 -0.035951663 -0.10770129
-0.010721032 -0.035874464 -0.10769614
-0.010731786 -0.035797305 -0.10768899
-0.01074359 -0.035718512 -0.10766583
-0.01075588 -0.035639934 -0.10763268
-0.010768342 -0.03555933 -0.10760151
-0.010779876 -0.035482518 -0.10757838
-0.010790631 -0.03540536 -0.10757122
-0.010801288 -0.035328161 -0.10756607
-0.010811848 -0.035250917 -0.10756291
-0.010824602 -0.035170443 -0.10752574
-0.010836331 -0.035093717 -0.10749862
-0.010846891 -0.035016477 -0.10749546
-0.010857158 -0.034939103 -0.1074983
-0.010867353 -0.0348638 -0.10749718
-0.010878108 -0.034786642 -0.10749003
-0.010889715 -0.034707762 -0.10747086
-0.010901324 -0.034628883 -0.1074517
-0.010911809 -0.034553707 -0.10744457
-0.010922174 -0.034476377 -0.10744541
-0.010933124 -0.034399308 -0.10743427
-0.010945414 -0.034320731 -0.10740112
-0.010957218 -0.034241937 -0.10737797
-0.010968362 -0.034164954 -0.10736282
-0.010978654 -0.034089692 -0.10735969
-0.010989018 -0.034012362 -0.10736053
-0.010999017 -0.03393697 -0.1073634
-0.011009187 -0.033859555 -0.10736822
-0.011019479 -0.033784293 -0.10736511
-0.011030233 -0.033707134 -0.10735795
-0.011040891 -0.033629935 -0.10735279
-0.011051548 -0.033552736 -0.10734764
-0.011062303 -0.033475578 -0.10734049
-0.011073155 -0.033398464 -0.10733134
-0.011083836 -0.033323377 -0.10732023
-0.011095445 -0.033244498 -0.10730106
-0.011106881 -0.033167642 -0.10727993
-0.011118197 -0.033088632 -0.10726676
-0.011128586 -0.033013411 -0.10726164
-0.011139341 -0.032936256 -0.10725449
-0.01115029 -0.032859188 -0.10724334
-0.01116124 -0.032782115 -0.10723219
-0.011171898 -0.032704916 -0.10722704
-0.011181897 -0.032629523 -0.1072299
-0.011192748 -0.03255241 -0.10722075
-0.011203503 -0.032475255 -0.10721361
-0.011213502 -0.032399863 -0.10721647
-0.011223769 -0.032322489 -0.1072193
-0.011234061 -0.032247227 -0.10721618
-0.011245401 -0.032170329 -0.10719704
-0.011256911 -0.032091409 -0.10717987
-0.01126691 -0.032016017 -0.10718275
-0.011277372 -0.031938732 -0.10718159
-0.011287566 -0.031863425 -0.10718045
-0.011298029 -0.031786136 -0.1071793
-0.011307931 -0.031710707 -0.10718415
-0.011316199 -0.031636648 -0.10721701
-0.011326099 -0.031561211 -0.10722187
-0.011339244 -0.031480912 -0.10717671
-0.011350681 -0.031404056 -0.10715558
-0.011360193 -0.031328451 -0.10716843
-0.011369703 -0.031252846 -0.10718128
-0.01138019 -0.03117767 -0.10717417
-0.011391334 -0.031100683 -0.10715902
-0.011401895 -0.031023441 -0.10715586
-0.011411796 -0.030948007 -0.10716072
-0.011421991 -0.030872703 -0.10715959
-0.01143255 -0.030795459 -0.10715643
-0.011443109 -0.030718215 -0.10715328
-0.011453791 -0.030643126 -0.10714216
-0.011464642 -0.030566012 -0.10713302
-0.011475495 -0.030488901 -0.10712387
-0.011486543 -0.030411873 -0.10711072
-0.011496834 -0.030336609 -0.10710759
-0.011507492 -0.030259412 -0.10710245
-0.011518734 -0.03018247 -0.1070853
-0.011530073 -0.030105572 -0.10706618
-0.011541218 -0.030028585 -0.10705103
-0.01155207 -0.029951472 -0.10704189
-0.011562557 -0.029876299 -0.10703477
-0.011573409 -0.029799184 -0.10702562
-0.011584164 -0.029722027 -0.10701846
-0.011594821 -0.029644826 -0.10701331
-0.0116056 -0.029569782 -0.10700019
-0.01161694 -0.029492883 -0.10698106
-0.011628376 -0.029416028 -0.10695994
-0.011639131 -0.02933887 -0.10695278
-0.011648741 -0.029263308 -0.10696363
-0.0116593 -0.029186064 -0.10696048
-0.011670566 -0.029111234 -0.10693738
-0.011681883 -0.029032225 -0.1069242
-0.011691686 -0.028956749 -0.10693107
-0.011701491 -0.02888127 -0.10693792
-0.011711586 -0.028805923 -0.10693879
-0.011722926 -0.028729025 -0.10691965
-0.011735899 -0.028650749 -0.10687253
-0.011747629 -0.028574023 -0.10684541
-0.011757896 -0.028496651 -0.10684824
-0.011767993 -0.028421301 -0.10684911
-0.011778479 -0.028346127 -0.10684199
-0.011789429 -0.028269056 -0.10683084
-0.011801451 -0.028192461 -0.10679772
-0.011812596 -0.028115477 -0.10678259
-0.011822887 -0.028040215 -0.10677946
-0.011833277 -0.027964996 -0.10677434
-0.011843934 -0.027887797 -0.10676919
-0.011854981 -0.027810769 -0.10675604
-0.011866223 -0.027733829 -0.1067389
-0.011877295 -0.027658911 -0.10671981
-0.01188805 -0.027581755 -0.10671265
-0.011897463 -0.027506106 -0.1067275
-0.011906413 -0.02743235 -0.10674638
-0.011916487 -0.02735489 -0.10675319
-0.011927947 -0.027280148 -0.1067261
-0.011941115 -0.027201958 -0.10667499
-0.011952065 -0.027124887 -0.10666385
-0.011961114 -0.027051177 -0.10668072
-0.011970333 -0.02697544 -0.10669956
-0.011980332 -0.026900049 -0.10670242
-0.011991086 -0.026822891 -0.10669527
-0.012002232 -0.026745908 -0.10668013
-0.012013985 -0.026671294 -0.10664704
-0.012025885 -0.026592543 -0.10662189
-0.01203608 -0.026517238 -0.10662076
-0.012046078 -0.026441846 -0.10662362
-0.012056176 -0.026366498 -0.10662449
-0.012066467 -0.026291238 -0.10662136
-0.012077514 -0.02621421 -0.10660822
-0.012087805 -0.026138948 -0.1066051
-0.012097511 -0.026063427 -0.10661395
-0.012107681 -0.025986012 -0.10661878
-0.01211807 -0.025910795 -0.10661367
-0.012129409 -0.025833895 -0.10659453
-0.012140286 -0.025758892 -0.10657942
-0.012151334 -0.025681866 -0.10656627
-0.012162113 -0.02560682 -0.10655316
-0.012172965 -0.025529705 -0.10654401
-0.012183452 -0.02545453 -0.10653689
-0.012194229 -0.025379485 -0.10652377
-0.01220518 -0.025302414 -0.10651264
-0.012215276 -0.025227066 -0.1065135
-0.012225665 -0.025151849 -0.10650837
-0.01223681 -0.025074864 -0.10649323
-0.012247199 -0.024999645 -0.10648811
-0.01225749 -0.024924383 -0.10648499
-0.01226883 -0.024847485 -0.10646585
-0.012280097 -0.024772655 -0.10644275
-0.012291145 -0.024695629 -0.10642961
-0.012301143 -0.024620237 -0.10643248
-0.012311142 -0.024544846 -0.10643534
-0.012321531 -0.024469629 -0.10643021
-0.01233192 -0.02439441 -0.10642509
-0.012342479 -0.024317166 -0.10642193
-0.012353356 -0.024242163 -0.10640682
-0.012364037 -0.024167074 -0.10639571
-0.012374304 -0.024089701 -0.10639855
-0.012384206 -0.024014268 -0.1064034
-0.0123944 -0.023938963 -0.10640228
-0.012405082 -0.023863874 -0.10639115
-0.012416227 -0.023786889 -0.10637601
-0.012427297 -0.023711974 -0.10635692
-0.01243837 -0.023637056 -0.10633781
-0.012449222 -0.023559943 -0.10632866
-0.012459416 -0.023484638 -0.10632753
-0.012469903 -0.023409463 -0.10632041
-0.012480462 -0.02333222 -0.10631725
-0.012491241 -0.023257174 -0.10630414
-0.012502507 -0.023182344 -0.10628104
-0.012513652 -0.023105361 -0.1062659
-0.012523651 -0.023029968 -0.10626876
-0.012533357 -0.022954449 -0.10627762
-0.012543648 -0.022879187 -0.1062745
-0.012554331 -0.022804098 -0.10626338
-0.012565207 -0.022729095 -0.10624827
-0.012576156 -0.022652024 -0.10623712
-0.012586448 -0.022576762 -0.106234
-0.012596544 -0.022501415 -0.10623486
-0.012607128 -0.022426283 -0.10622574
-0.01261781 -0.022351194 -0.10621463
-0.012628857 -0.022274166 -0.10620148
-0.012639441 -0.022199035 -0.10619237
-0.01264983 -0.022123815 -0.10618724
-0.012660706 -0.022048812 -0.10617213
-0.012672242 -0.021972001 -0.106149
-0.012683313 -0.021897085 -0.1061299
-0.012693897 -0.021821953 -0.10612078
-0.012704188 -0.021746691 -0.10611766
-0.012714772 -0.02167156 -0.10610853
-0.012725161 -0.02159634 -0.10610341
-0.012736233 -0.021521425 -0.10608431
-0.01274806 -0.021444743 -0.10605519
-0.012759326 -0.021369912 -0.1060321
-0.012770202 -0.02129491 -0.10601699
-0.012781469 -0.021220081 -0.10599388
-0.012792053 -0.021144949 -0.10598476
-0.012802125 -0.021067489 -0.10599159
-0.012812417 -0.020992227 -0.10598846
-0.012824073 -0.02091757 -0.10595738
-0.012835048 -0.02084261 -0.10594027
-0.01284417 -0.020766832 -0.10596111
-0.012853095 -0.020690965 -0.10598595
-0.012862899 -0.020615488 -0.1059928
-0.012873581 -0.020540399 -0.10598168
-0.012885237 -0.020465741 -0.1059506
-0.012896504 -0.020390911 -0.1059275
-0.012905917 -0.020315262 -0.10594235
-0.012915136 -0.020239525 -0.10596119
-0.012925696 -0.020162283 -0.10595804
-0.012936475 -0.020087237 -0.10594492
-0.012946889 -0.02001413 -0.10593384
-0.012957545 -0.019936929 -0.10592868
-0.012967154 -0.019861365 -0.10593952
-0.012977543 -0.019786146 -0.10593441
-0.012989102 -0.019711446 -0.10590531
-0.013000077 -0.019636486 -0.1058882
-0.013010953 -0.019561484 -0.1058731
-0.013021342 -0.019486265 -0.10586797
-0.013030561 -0.019410528 -0.10588681
-0.01304017 -0.019334964 -0.10589767
-0.01305173 -0.019260265 -0.10586858
-0.013063287 -0.019185565 -0.10583948
-0.013072994 -0.019110044 -0.10584835
-0.013082116 -0.019034265 -0.10586918
-0.013092212 -0.018958917 -0.10587005
-0.013102699 -0.018883741 -0.10586293
-0.013113088 -0.018808523 -0.1058578
-0.013123477 -0.018733304 -0.10585269
-0.013134232 -0.018656148 -0.10584553
-0.01314484 -0.018583126 -0.10583045
-0.013155813 -0.018508168 -0.10581335
-0.013166983 -0.018433293 -0.10579224
-0.013177664 -0.018358205 -0.10578112
-0.013188517 -0.018281091 -0.10577198
-0.013198734 -0.018207898 -0.10576489
-0.013209708 -0.018132938 -0.10574777
-0.013220877 -0.018058065 -0.10572668
-0.013231754 -0.017983062 -0.10571156
-0.013242143 -0.017907845 -0.10570644
-0.013252044 -0.01783241 -0.1057113
-0.013262043 -0.017757019 -0.10571416
-0.013273017 -0.017682059 -0.10569706
-0.013283797 -0.017607015 -0.10568395
-0.013294088 -0.017531753 -0.10568082
-0.013304086 -0.01745636 -0.10568368
-0.013314281 -0.017381057 -0.10568256
-0.01332467 -0.017305838 -0.10567743
-0.013335058 -0.017230619 -0.10567231
-0.01334535 -0.017155357 -0.10566918
-0.013355544 -0.017080054 -0.10566805
-0.013365543 -0.017004661 -0.10567091
-0.013376419 -0.01692966 -0.1056558
-0.013387686 -0.01685483 -0.1056327
-0.013398269 -0.016779698 -0.10562359
-0.013408855 -0.016704565 -0.10561447
-0.013419657 -0.016631631 -0.10559539
-0.013430826 -0.016556758 -0.1055743
-0.01344141 -0.016481625 -0.10556518
-0.013451312 -0.016406192 -0.10557003
-0.013461797 -0.016331017 -0.10556292
-0.013472967 -0.016256142 -0.10554182
-0.013484135 -0.01618127 -0.10552071
-0.013494818 -0.016106181 -0.1055096
-0.013505206 -0.016030964 -0.10550447
-0.013515692 -0.015955787 -0.10549735
-0.013525814 -0.01588255 -0.10549226
-0.0135363 -0.015807375 -0.10548514
-0.013547176 -0.015732372 -0.10547002
-0.01355815 -0.015657414 -0.10545292
-0.013568636 -0.015582237 -0.10544579
-0.013578246 -0.015506674 -0.10545664
-0.013587855 -0.01543111 -0.10546751
-0.013598731 -0.015356108 -0.10545239
-0.013609705 -0.015281148 -0.10543529
-0.013619997 -0.015205886 -0.10543216
-0.0136298 -0.015130409 -0.10543901
-0.013639994 -0.015055104 -0.10543788
-0.013650481 -0.01497993 -0.10543077
-0.013660967 -0.014904754 -0.10542364
-0.013671284 -0.014831604 -0.10541455
-0.013682452 -0.01475673 -0.10539345
-0.013692939 -0.014681555 -0.10538633
-0.01370245 -0.014605949 -0.10539918
-0.013712449 -0.014530557 -0.10540205
-0.013723033 -0.014455425 -0.10539293
-0.013733715 -0.014380336 -0.10538181
-0.013744104 -0.014305118 -0.10537669
-0.013754517 -0.014232011 -0.1053656
-0.013765296 -0.014156965 -0.10535248
-0.013775782 -0.014081789 -0.10534537
-0.013785781 -0.014006399 -0.10534824
-0.013795682 -0.013930964 -0.10535309
-0.013806364 -0.013855875 -0.10534198
-0.013817533 -0.013781002 -0.10532088
-0.013827848 -0.013707852 -0.1053118
-0.013838628 -0.013632806 -0.10529868
-0.013849991 -0.013558019 -0.10527357
-0.013860502 -0.013484955 -0.1052605
-0.013870794 -0.013409694 -0.10525737
-0.013880988 -0.013334389 -0.10525624
-0.01389128 -0.013259128 -0.10525312
-0.013901961 -0.013184038 -0.10524199
-0.013912667 -0.01311106 -0.10522492
-0.013923543 -0.013036058 -0.10520981
-0.013934517 -0.012961099 -0.1051927
-0.013945125 -0.012888078 -0.10517762
-0.013956002 -0.012813075 -0.10516252
-0.013966586 -0.012737943 -0.10515339
-0.013976487 -0.012662509 -0.10515825
-0.013987266 -0.012587463 -0.10514514
-0.013998167 -0.012514571 -0.10512407
-0.014008653 -0.012439396 -0.10511694
-0.014019139 -0.012364221 -0.10510983
-0.014029626 -0.012289045 -0.10510271
-0.01403982 -0.01221374 -0.10510158
-0.014050233 -0.012140634 -0.10509049
-0.014060818 -0.012065502 -0.10508137
-0.014070621 -0.011990024 -0.10508823
-0.014080718 -0.011914676 -0.1050891
-0.014091691 -0.011839717 -0.10507199
-0.014102105 -0.01176661 -0.1050609
-0.014112592 -0.011691434 -0.10505378
-0.014122981 -0.011616216 -0.10504866
-0.01413337 -0.011540998 -0.10504353
-0.014143465 -0.01146565 -0.1050444
-0.014153391 -0.011392327 -0.1050433
-0.014164463 -0.011317411 -0.1050242
-0.014175437 -0.011242451 -0.10500709
-0.014185729 -0.011167189 -0.10500396
-0.01419563 -0.011091755 -0.10500883
-0.014205653 -0.011018475 -0.10500573
-0.014216529 -0.010943472 -0.10499062
-0.014226918 -0.010868253 -0.1049855
-0.014236918 -0.010792863 -0.10498836
-0.01424733 -0.010719756 -0.10497727
-0.014258597 -0.010644926 -0.10495418
-0.014268791 -0.010569621 -0.10495304
-0.014278401 -0.010494057 -0.10496389
-0.014288886 -0.010418883 -0.10495678
-0.014299982 -0.010346077 -0.10493171
-0.014310688 -0.010273099 -0.10491463
-0.014320882 -0.010197794 -0.1049135
-0.014331076 -0.01012249 -0.10491237
-0.014341854 -0.010047444 -0.10489926
-0.014352536 -0.0099723553 -0.10488815
-0.014363145 -0.0098993331 -0.10487307
-0.014374338 -0.0098265717 -0.104846
-0.014385117 -0.0097515266 -0.10483289
-0.014395311 -0.0096762218 -0.10483176
-0.014405211 -0.0096007874 -0.10483662
-0.014415211 -0.0095253959 -0.10483948
-0.014425698 -0.0094502214 -0.10483236
-0.014437012 -0.0093796132 -0.10479734
-0.014449083 -0.0093072401 -0.1047523
-0.014460081 -0.0092343921 -0.10472923
-0.01447008 -0.0091590006 -0.10473209
-0.014479665 -0.0090813255 -0.10474891
-0.01448869 -0.0090055037 -0.10477174
-0.014499078 -0.0089302836 -0.10476662
-0.01450998 -0.0088573927 -0.10474555
-0.014520977 -0.0087845456 -0.10472248
-0.014531147 -0.0087071285 -0.10472731
-0.014540464 -0.0086314362 -0.10474417
-0.014550949 -0.0085562598 -0.10473704
-0.014562338 -0.008483585 -0.10470597
-0.014573043 -0.0084106065 -0.1046889
-0.014582847 -0.0083351303 -0.10469576
-0.014593236 -0.0082599111 -0.10469063
-0.014604137 -0.0081870202 -0.10466957
-0.014614722 -0.0081118885 -0.10466044
-0.014624623 -0.0080364542 -0.10466531
-0.014634915 -0.0079611922 -0.10466218
-0.014645327 -0.0078880843 -0.10465109
-0.014655911 -0.0078129526 -0.10464198
-0.014666202 -0.0077376906 -0.10463885
-0.014677006 -0.0076647568 -0.10461978
-0.014687809 -0.0075918222 -0.10460071
-0.014698198 -0.0075166039 -0.10459558
-0.014708685 -0.0074414276 -0.10458846
-0.014719098 -0.0073683206 -0.10457737
-0.014729291 -0.0072930166 -0.10457624
-0.014739193 -0.0072175823 -0.1045811
-0.01474929 -0.0071422346 -0.10458197
-0.014759678 -0.0070670163 -0.10457684
-0.014770263 -0.0069918837 -0.10456773
-0.014780676 -0.0069187768 -0.10455664
-0.014791163 -0.0068436014 -0.10454952
-0.014801552 -0.0067683831 -0.10454439
-0.014812062 -0.006695319 -0.10453132
-0.014822645 -0.0066201864 -0.10452219
-0.014832645 -0.0065447949 -0.10452505
-0.014842644 -0.0064694043 -0.10452793
-0.014852838 -0.0063940994 -0.1045268
-0.014863324 -0.0063189249 -0.10451967
-0.01487403 -0.0062459465 -0.1045026
-0.014884833 -0.0061730128 -0.10448352
-0.014895733 -0.006100121 -0.10446244
-0.014906342 -0.0060270987 -0.10444736
-0.01491712 -0.0059520546 -0.10443425
-0.014927632 -0.0058789905 -0.10442116
-0.014937948 -0.0058058398 -0.10441209
-0.014948141 -0.0057305349 -0.10441095
-0.014958043 -0.0056551006 -0.10441581
-0.014968505 -0.0055778148 -0.10441466
-0.014978626 -0.0055045784 -0.10440956
-0.014989113 -0.005429402 -0.10440244
-0.014999526 -0.005356295 -0.10439135
-0.015010109 -0.0052811634 -0.10438223
-0.015020596 -0.0052059889 -0.1043751
-0.015030911 -0.0051328372 -0.10436603
-0.01504169 -0.0050577912 -0.10435291
-0.015052299 -0.00498477 -0.10433783
-0.015062615 -0.0049116202 -0.10432874
-0.015073198 -0.0048364885 -0.10431962
-0.015083514 -0.0047633387 -0.10431053
-0.015094122 -0.0046903156 -0.10429545
-0.015104828 -0.004617339 -0.10427837
-0.01511551 -0.0045422502 -0.10426725
-0.015125826 -0.0044691004 -0.10425816
-0.015136628 -0.0043961648 -0.10423909
-0.015147505 -0.0043211617 -0.10422399
-0.015157626 -0.0042479262 -0.10421889
-0.015168112 -0.0041727498 -0.10421176
-0.015178623 -0.0040996857 -0.10419869
-0.015189305 -0.0040245969 -0.10418757
-0.015199815 -0.0039515346 -0.10417449
-0.015210228 -0.0038784277 -0.10416341
-0.015220422 -0.0038031209 -0.10416228
-0.015230495 -0.0037256628 -0.10416909
-0.015240421 -0.0036523398 -0.104168
-0.015251297 -0.0035773367 -0.10415289
-0.015261612 -0.0035041869 -0.10414381
-0.015271708 -0.0034288373 -0.10414467
-0.015281903 -0.0033535324 -0.10414354
-0.015292097 -0.0032782294 -0.10414241
-0.015302071 -0.0032007266 -0.10415123
-0.0093157608 -0.044560894 -0.1122473
-0.0093270522 -0.044479772 -0.11224009
-0.009338174 -0.044400677 -0.1122309
-0.0093502216 -0.044317789 -0.11221368
-0.009362001 -0.044236891 -0.11219648
-0.009373391 -0.04415581 -0.11218727
-0.0093842186 -0.044076584 -0.11218408
-0.0093958043 -0.043995596 -0.11217089
-0.0094074849 -0.043914646 -0.11215568
-0.0094184121 -0.043835465 -0.11215051
-0.0094296057 -0.043754302 -0.1121453
-0.0094410926 -0.043673269 -0.11213408
-0.0094520189 -0.043594085 -0.11212891
-0.009463043 -0.043514945 -0.11212172
-0.0094746277 -0.043433957 -0.11210852
-0.0094856508 -0.043354817 -0.11210134
-0.0094967484 -0.043273613 -0.11209812
-0.0095071141 -0.043196283 -0.11209895
-0.0095176492 -0.043116927 -0.11210176
-0.0095290393 -0.04303585 -0.11209255
-0.0095408186 -0.042954948 -0.11207537
-0.0095526949 -0.042874083 -0.11205617
-0.0095642805 -0.042793095 -0.11204296
-0.0095745474 -0.042715721 -0.1120458
-0.0095843282 -0.042638134 -0.11205862
-0.0095958151 -0.042557098 -0.11204741
-0.0096074976 -0.042476155 -0.11203222
-0.0096185207 -0.042397015 -0.11202504
-0.0096302023 -0.042316064 -0.11200985
-0.009642153 -0.042233136 -0.11199461
-0.0096525187 -0.042155806 -0.11199544
-0.0096632494 -0.042076539 -0.11199426
-0.0096745417 -0.041995417 -0.11198705
-0.0096849073 -0.041918088 -0.11198788
-0.0096961986 -0.04183697 -0.11198068
-0.0097080758 -0.041756108 -0.11196148
-0.0097197574 -0.041675158 -0.11194628
-0.0097303912 -0.04159585 -0.11194709
-0.0097404644 -0.04151839 -0.11195391
-0.0097513907 -0.041439209 -0.11194874
-0.009762682 -0.041358087 -0.11194152
-0.0097735114 -0.041278861 -0.11193834
-0.0097844377 -0.04119968 -0.11193316
-0.0099898446 -0.040544953 -0.10966581
-0.010006573 -0.040455736 -0.10957457
-0.010022741 -0.040368371 -0.10948936
-0.010038811 -0.040280968 -0.10940613
-0.01005137 -0.040200409 -0.10937296
-0.010065636 -0.040116403 -0.10931576
-0.010078854 -0.040034033 -0.10927457
-0.010091315 -0.039953433 -0.10924339
-0.010106532 -0.039867748 -0.10917218
-0.010120139 -0.039785549 -0.10912301
-0.010130798 -0.03970835 -0.10911785
-0.01013992 -0.039632574 -0.10913869
-0.010178661 -0.039508991 -0.1087113
-0.010188174 -0.039433382 -0.10872415
-0.010197295 -0.039357603 -0.10874499
-0.01020766 -0.039280277 -0.10874583
-0.01021727 -0.039204713 -0.10875668
-0.010226977 -0.03912919 -0.10876554
-0.010238391 -0.039050225 -0.10875037
-0.010250853 -0.038969625 -0.10871918
-0.010263218 -0.03888898 -0.10869001
-0.010273583 -0.038811646 -0.10869085
-0.010316053 -0.038683418 -0.10820346
-0.010321202 -0.038616382 -0.10827837
-0.010332981 -0.038535476 -0.10826117
-0.010344322 -0.038458582 -0.10824203
-0.01035459 -0.038381211 -0.10824487
-0.010417119 -0.037980393 -0.10807903
-0.010428824 -0.037901558 -0.10805787
-0.010439483 -0.037824359 -0.10805272
-0.010450409 -0.037745178 -0.10804754
-0.010476697 -0.037584573 -0.10795722
-0.010488501 -0.037505783 -0.10793407
-0.010499817 -0.037426773 -0.1079209
-0.010511231 -0.037347808 -0.10790572
-0.010521987 -0.03727065 -0.10789857
-0.010532839 -0.037193537 -0.10788942
-0.010543692 -0.037116423 -0.10788028
-0.01055435 -0.03703922 -0.10787512
-0.010565007 -0.036962025 -0.10786997
-0.010576056 -0.036884993 -0.10785682
-0.010587372 -0.036805987 -0.10784366
-0.010598127 -0.036728829 -0.1078365
-0.010608883 -0.036651671 -0.10782935
-0.010620882 -0.036572963 -0.1078022
-0.010631735 -0.036495849 -0.10779306
-0.010642586 -0.036418736 -0.1077839
-0.010654098 -0.036339816 -0.10776673
-0.010664659 -0.036262572 -0.10776358
-0.010675609 -0.036185503 -0.10775243
-0.010687608 -0.036106795 -0.10772528
-0.010698924 -0.036027785 -0.10771211
-0.010709777 -0.035950672 -0.10770296
-0.010720435 -0.035873473 -0.10769781
-0.010731287 -0.035796359 -0.10768866
-0.010742994 -0.035717521 -0.1076675
-0.010755285 -0.035638943 -0.10763436
-0.010767747 -0.035558343 -0.10760317
-0.010779282 -0.035481531 -0.10758005
-0.010790038 -0.035404373 -0.1075729
-0.010800695 -0.035327174 -0.10756774
-0.010811353 -0.035249971 -0.10756259
-0.010824108 -0.035169501 -0.10752542
-0.010836009 -0.035090752 -0.10750027
-0.0108463 -0.035015486 -0.10749714
-0.010856666 -0.034938157 -0.10749798
-0.010866861 -0.034862854 -0.10749685
-0.010877885 -0.034783714 -0.10748967
-0.010889128 -0.034706775 -0.10747253
-0.010900834 -0.034627937 -0.10745137
-0.010911223 -0.034552723 -0.10744624
-0.010921588 -0.03447539 -0.10744708
-0.010932539 -0.034398317 -0.10743594
-0.01094483 -0.034319744 -0.10740279
-0.010956731 -0.034240991 -0.10737765
-0.010967779 -0.034163967 -0.1073645
-0.010978071 -0.034088705 -0.10736136
-0.010988534 -0.034011416 -0.10736021
-0.010998534 -0.033936027 -0.10736307
-0.011008704 -0.033858612 -0.1073679
-0.011019264 -0.033781365 -0.10736475
-0.011029654 -0.033706151 -0.10735962
-0.011040312 -0.033628948 -0.10735446
-0.011050969 -0.033551749 -0.10734932
-0.011061726 -0.033474591 -0.10734216
-0.011072578 -0.033397481 -0.10733302
-0.01108326 -0.03332239 -0.1073219
-0.011094869 -0.033243511 -0.10730273
-0.011106307 -0.033166654 -0.1072816
-0.011117525 -0.033087604 -0.10727043
-0.011128013 -0.033012427 -0.10726331
-0.011138768 -0.032935269 -0.10725616
-0.011149718 -0.0328582 -0.10724501
-0.011160767 -0.032781173 -0.10723187
-0.011171326 -0.032703929 -0.10722872
-0.011181327 -0.032628536 -0.10723158
-0.011192179 -0.032551426 -0.10722242
-0.011203032 -0.032474309 -0.10721328
-0.011212934 -0.032398876 -0.10721815
-0.011223203 -0.032321505 -0.10722098
-0.011233591 -0.032246284 -0.10721586
-0.011244835 -0.032169346 -0.10719872
-0.011256346 -0.032090422 -0.10718155
-0.011266443 -0.032015074 -0.10718241
-0.011276906 -0.031937789 -0.10718125
-0.011287003 -0.031862441 -0.10718213
-0.011297563 -0.031785198 -0.10717896
-0.011307465 -0.03170976 -0.10718383
-0.011315637 -0.031635664 -0.10721868
-0.011325905 -0.03155829 -0.10722151
-0.011338684 -0.031479929 -0.10717838
-0.011350121 -0.031403072 -0.10715726
-0.011359731 -0.031327508 -0.1071681
-0.011369146 -0.031251859 -0.10718295
-0.011379901 -0.031174703 -0.1071758
-0.011390778 -0.031099701 -0.10716069
-0.011401339 -0.031022457 -0.10715753
-0.011411241 -0.030947024 -0.10716239
-0.011421436 -0.030871719 -0.10716126
-0.011431996 -0.030794475 -0.10715812
-0.011442654 -0.030717276 -0.10715295
-0.011453336 -0.030642185 -0.10714184
-0.011464091 -0.030565031 -0.10713469
-0.011474945 -0.030487917 -0.10712554
-0.011485992 -0.03041089 -0.10711239
-0.011496285 -0.030335627 -0.10710928
-0.011506942 -0.030258428 -0.10710412
-0.011518185 -0.030181486 -0.10708697
-0.011529525 -0.030104589 -0.10706785
-0.011540671 -0.030027606 -0.10705271
-0.011551524 -0.02995049 -0.10704356
-0.01156201 -0.029875316 -0.10703643
-0.011572961 -0.029798245 -0.10702529
-0.011583717 -0.029721089 -0.10701814
-0.011594375 -0.029643888 -0.10701299
-0.011605056 -0.029568799 -0.10700187
-0.011616398 -0.029491901 -0.10698274
-0.011628201 -0.029413108 -0.10695958
-0.011638688 -0.029337931 -0.10695246
-0.011648297 -0.029262368 -0.10696331
-0.01165876 -0.029185083 -0.10696215
-0.011670027 -0.029110253 -0.10693906
-0.011681343 -0.029031243 -0.10692588
-0.011691147 -0.028955767 -0.10693274
-0.01170105 -0.028880332 -0.10693759
-0.01171105 -0.028804941 -0.10694047
-0.011722488 -0.028728087 -0.10691933
-0.011735364 -0.028649768 -0.10687421
-0.011747094 -0.028573044 -0.10684709
-0.011757363 -0.028495669 -0.10684992
-0.011767459 -0.028420322 -0.1068508
-0.011777947 -0.028345147 -0.10684367
-0.011788994 -0.028268119 -0.10683052
-0.01180092 -0.028191481 -0.10679941
-0.011812065 -0.028114498 -0.10678426
-0.011822358 -0.028039236 -0.10678114
-0.011832844 -0.027964059 -0.10677402
-0.011843405 -0.027886815 -0.10677086
-0.011854453 -0.027809788 -0.10675772
-0.011865695 -0.027732849 -0.10674059
-0.011876768 -0.027657932 -0.10672148
-0.011887522 -0.027580775 -0.10671432
-0.011896938 -0.027505126 -0.10672917
-0.011905889 -0.027431371 -0.10674804
-0.011915962 -0.027353911 -0.10675488
-0.011927424 -0.027279168 -0.10672779
-0.011940593 -0.027200978 -0.10667666
-0.01195164 -0.02712395 -0.10666353
-0.011960592 -0.027050197 -0.1066824
-0.011969811 -0.026974462 -0.10670123
-0.011979811 -0.02689907 -0.1067041
-0.011990567 -0.026821913 -0.10669694
-0.01200181 -0.026744973 -0.1066798
-0.012013564 -0.026670357 -0.10664673
-0.012025465 -0.026591608 -0.10662157
-0.012035563 -0.026516259 -0.10662244
-0.012045562 -0.026440868 -0.1066253
-0.01205566 -0.02636552 -0.10662617
-0.012065951 -0.02629026 -0.10662304
-0.012077 -0.026213232 -0.1066099
-0.012087291 -0.02613797 -0.10660677
-0.012097096 -0.026062492 -0.10661364
-0.012107169 -0.025985034 -0.10662046
-0.012117656 -0.02590986 -0.10661334
-0.012128899 -0.025832918 -0.10659621
-0.012139776 -0.025757916 -0.10658109
-0.012150824 -0.025680888 -0.10656795
-0.012161701 -0.025605885 -0.10655284
-0.012172554 -0.025528772 -0.10654369
-0.012183041 -0.025453597 -0.10653657
-0.012193723 -0.025378508 -0.10652546
-0.012204673 -0.025301438 -0.10651431
-0.012214867 -0.025226133 -0.10651318
-0.012225257 -0.025150914 -0.10650806
-0.012236306 -0.025073886 -0.10649491
-0.012246695 -0.024998669 -0.10648979
-0.012257084 -0.024923451 -0.10648466
-0.012268425 -0.024846552 -0.10646553
-0.012279692 -0.024771722 -0.10644244
-0.012290643 -0.024694651 -0.10643128
-0.012300642 -0.024619261 -0.10643414
-0.012310643 -0.02454387 -0.10643701
-0.012321032 -0.024468653 -0.10643189
-0.012331421 -0.024393434 -0.10642676
-0.012341982 -0.02431619 -0.10642361
-0.012352859 -0.024241189 -0.1064085
-0.012363541 -0.0241661 -0.10639738
-0.012373809 -0.024088725 -0.10640022
-0.012383711 -0.024013292 -0.10640508
-0.012393905 -0.023937987 -0.10640395
-0.012404685 -0.023862941 -0.10639083
-0.01241583 -0.023785956 -0.10637569
-0.012426805 -0.023710998 -0.10635859
-0.012437975 -0.023636125 -0.10633749
-0.01244873 -0.023558969 -0.10633034
-0.012459023 -0.023483707 -0.10632721
-0.012469411 -0.023408487 -0.10632209
-0.012480069 -0.023331288 -0.10631693
-0.012490751 -0.023256199 -0.10630582
-0.012502018 -0.02318137 -0.10628272
-0.012513164 -0.023104385 -0.10626758
-0.012523164 -0.023028994 -0.10627045
-0.012532871 -0.022953475 -0.1062793
-0.012543162 -0.022878213 -0.10627617
-0.012553943 -0.022803167 -0.10626306
-0.012564819 -0.022728164 -0.10624795
-0.012575673 -0.02265105 -0.1062388
-0.012585965 -0.022575788 -0.10623568
-0.012596062 -0.02250044 -0.10623654
-0.012606647 -0.022425309 -0.10622741
-0.012617329 -0.02235022 -0.1062163
-0.012628376 -0.022273192 -0.10620317
-0.012638962 -0.022198061 -0.10619404
-0.012649449 -0.022122886 -0.10618693
-0.012660326 -0.022047883 -0.10617182
-0.012671763 -0.021971028 -0.10615069
-0.012682836 -0.021896113 -0.10613158
-0.01269342 -0.021820981 -0.10612246
-0.012703712 -0.021745719 -0.10611933
-0.012714297 -0.021670587 -0.10611022
-0.012724784 -0.021595411 -0.10610309
-0.012735856 -0.021520495 -0.10608399
-0.012747586 -0.021443771 -0.10605686
-0.012758951 -0.021368984 -0.10603177
-0.012769731 -0.021293938 -0.10601866
-0.012780998 -0.021219108 -0.10599556
-0.012791582 -0.021143977 -0.10598644
-0.012801655 -0.021066517 -0.10599327
-0.012811948 -0.020991256 -0.10599014
-0.012823604 -0.020916598 -0.10595905
-0.012834677 -0.020841682 -0.10593995
-0.012843799 -0.020765902 -0.10596079
-0.012852727 -0.020690037 -0.10598562
-0.012862433 -0.020614516 -0.10599449
-0.012873115 -0.020539427 -0.10598336
-0.012884771 -0.02046477 -0.10595228
-0.012896039 -0.020389941 -0.10592918
-0.012905454 -0.020314291 -0.10594403
-0.012914673 -0.020238554 -0.10596287
-0.012925234 -0.02016131 -0.10595971
-0.012936013 -0.020086266 -0.10594659
-0.012946427 -0.020013157 -0.10593551
-0.012957085 -0.019935958 -0.10593036
-0.012966695 -0.019860394 -0.10594121
-0.012977084 -0.019785177 -0.1059361
-0.012988644 -0.019710476 -0.10590699
-0.012999618 -0.019635517 -0.10588989
-0.013010496 -0.019560514 -0.10587478
-0.013020886 -0.019485295 -0.10586965
-0.013030105 -0.01940956 -0.10588849
-0.013039715 -0.019333996 -0.10589935
-0.013051274 -0.019259294 -0.10587026
-0.013062834 -0.019184595 -0.10584117
-0.013072638 -0.019109117 -0.10584803
-0.013081761 -0.019033339 -0.10586886
-0.01309176 -0.018957946 -0.10587173
-0.013102247 -0.018882772 -0.10586461
-0.013112735 -0.018807597 -0.10585749
-0.013123027 -0.018732335 -0.10585436
-0.01313388 -0.018655222 -0.10584521
-0.013144391 -0.018582158 -0.10583213
-0.013155365 -0.018507197 -0.10581502
-0.013166536 -0.018432325 -0.10579392
-0.013177315 -0.018357281 -0.1057808
-0.013188167 -0.018280165 -0.10577167
-0.013198288 -0.01820693 -0.10576656
-0.013209263 -0.018131969 -0.10574945
-0.013220433 -0.018057097 -0.10572836
-0.01323131 -0.017982094 -0.10571325
-0.013241798 -0.017906919 -0.10570613
-0.013251505 -0.017831398 -0.10571498
-0.013261504 -0.017756008 -0.10571785
-0.013272576 -0.017681092 -0.10569874
-0.013283356 -0.017606046 -0.10568563
-0.013293551 -0.017530741 -0.1056845
-0.013303648 -0.017455393 -0.10568538
-0.013313842 -0.017380089 -0.10568424
-0.013324232 -0.017304871 -0.10567912
-0.013334621 -0.017229652 -0.10567399
-0.013344914 -0.01715439 -0.10567086
-0.013355108 -0.017079085 -0.10566973
-0.013365108 -0.017003695 -0.1056726
-0.013375985 -0.016928691 -0.10565749
-0.013387252 -0.016853862 -0.10563438
-0.013397837 -0.01677873 -0.10562527
-0.013408422 -0.016703598 -0.10561615
-0.013419225 -0.016630664 -0.10559707
-0.013430394 -0.01655579 -0.10557598
-0.01344098 -0.016480658 -0.10556686
-0.013450881 -0.016405225 -0.10557172
-0.013461368 -0.016330048 -0.1055646
-0.013472441 -0.016255133 -0.10554549
-0.013483708 -0.016180303 -0.10552239
-0.013494389 -0.016105214 -0.10551128
-0.013504779 -0.016029997 -0.10550615
-0.013515267 -0.01595482 -0.10549903
-0.013525485 -0.015881628 -0.10549194
-0.013535973 -0.015806451 -0.10548481
-0.013546752 -0.015731407 -0.10547172
-0.013557727 -0.015656447 -0.1054546
-0.013568214 -0.015581273 -0.10544748
-0.013577824 -0.015505709 -0.10545833
-0.013587531 -0.015430188 -0.10546719
-0.01359831 -0.015355142 -0.10545407
-0.013609285 -0.015280183 -0.10543697
-0.013619578 -0.015204921 -0.10543384
-0.013629382 -0.015129444 -0.1054407
-0.013639577 -0.015054139 -0.10543957
-0.013650063 -0.014978964 -0.10543245
-0.01366055 -0.014903789 -0.10542532
-0.013670867 -0.014830639 -0.10541624
-0.013682037 -0.014755765 -0.10539514
-0.013692523 -0.01468059 -0.10538802
-0.013702036 -0.014604984 -0.10540087
-0.013712035 -0.014529592 -0.10540373
-0.013722718 -0.014454504 -0.10539261
-0.013733302 -0.014379373 -0.1053835
-0.013743692 -0.014304154 -0.10537837
-0.013754203 -0.01423109 -0.10536529
-0.013764885 -0.014156001 -0.10535417
-0.013775372 -0.014080826 -0.10534705
-0.013785372 -0.014005435 -0.10534992
-0.013795273 -0.01393 -0.10535478
-0.013805956 -0.013854912 -0.10534366
-0.013817126 -0.013780039 -0.10532257
-0.013827442 -0.013706889 -0.10531347
-0.013838319 -0.013631886 -0.10529836
-0.013849684 -0.013557099 -0.10527326
-0.013860097 -0.013483992 -0.10526218
-0.01387039 -0.013408731 -0.10525905
-0.013880584 -0.013333426 -0.10525793
-0.013890974 -0.013258208 -0.10525279
-0.013901559 -0.013183075 -0.10524368
-0.013912264 -0.013110097 -0.10522661
-0.013923142 -0.013035095 -0.1052115
-0.013934117 -0.012960136 -0.10519438
-0.013944726 -0.012887115 -0.1051793
-0.013955602 -0.012812113 -0.10516419
-0.013966285 -0.012737024 -0.10515308
-0.013976089 -0.012661546 -0.10515994
-0.013986869 -0.0125865 -0.10514683
-0.01399777 -0.01251361 -0.10512576
-0.014008258 -0.012438435 -0.10511863
-0.014018744 -0.012363259 -0.10511151
-0.014029232 -0.012288084 -0.10510439
-0.014039426 -0.012212779 -0.10510326
-0.014049839 -0.012139672 -0.10509218
-0.014060425 -0.01206454 -0.10508306
-0.01407023 -0.011989063 -0.10508992
-0.014080326 -0.011913715 -0.10509078
-0.014091301 -0.011838756 -0.10507368
-0.014101715 -0.011765649 -0.10506258
-0.014112202 -0.011690473 -0.10505547
-0.014122689 -0.011615298 -0.10504835
-0.014132981 -0.011540037 -0.10504521
-0.014143078 -0.011464689 -0.10504609
-0.014153102 -0.011391409 -0.10504299
-0.014164077 -0.011316449 -0.10502588
-0.014174978 -0.011243558 -0.10500481
-0.014185344 -0.011166228 -0.10500565
-0.014195246 -0.011090795 -0.10501051
-0.014205367 -0.011017558 -0.10500541
-0.014216146 -0.010942512 -0.10499231
-0.014226536 -0.010867294 -0.10498717
-0.014236536 -0.010791903 -0.10499004
-0.01424695 -0.010718796 -0.10497896
-0.014258217 -0.010643966 -0.10495586
-0.014268411 -0.010568662 -0.10495473
-0.014278022 -0.010493098 -0.10496558
-0.014288508 -0.010417923 -0.10495846
-0.014299605 -0.010345118 -0.1049334
-0.014310408 -0.010272183 -0.10491432
-0.014320506 -0.010196835 -0.10491518
-0.0143307 -0.01012153 -0.10491405
-0.014341479 -0.010046486 -0.10490094
-0.014352161 -0.0099713951 -0.10488982
-0.014362771 -0.0098983748 -0.10487475
-0.014373964 -0.0098256124 -0.10484768
-0.014384646 -0.0097505245 -0.10483657
-0.014394939 -0.0096752625 -0.10483344
-0.014404841 -0.0095998282 -0.1048383
-0.01441484 -0.0095244385 -0.10484116
-0.014425328 -0.0094492631 -0.10483405
-0.014436644 -0.0093786549 -0.10479902
-0.014448714 -0.0093062818 -0.10475398
-0.014459712 -0.0092334338 -0.10473092
-0.01446981 -0.009158086 -0.10473178
-0.014479395 -0.00908041 -0.1047486
-0.01448842 -0.0090045892 -0.10477144
-0.014498712 -0.0089293271 -0.10476831
-0.014509614 -0.0088564353 -0.10474723
-0.014520613 -0.0087835882 -0.10472417
-0.014530784 -0.008706172 -0.104729
-0.0145401 -0.0086304778 -0.10474585
-0.014550587 -0.0085553033 -0.10473872
-0.014561975 -0.0084826276 -0.10470767
-0.014572682 -0.0084096501 -0.10469059
-0.014582487 -0.0083341729 -0.10469744
-0.014592877 -0.0082589537 -0.10469232
-0.014603778 -0.0081860637 -0.10467125
-0.014614362 -0.0081109311 -0.10466214
-0.014624265 -0.0080354968 -0.10466699
-0.014634557 -0.0079602357 -0.10466387
-0.014644971 -0.0078871278 -0.10465278
-0.014655458 -0.0078119533 -0.10464565
-0.014665848 -0.007736735 -0.10464054
-0.014676554 -0.0076637575 -0.10462346
-0.014687357 -0.0075908229 -0.10460438
-0.014697844 -0.0075156484 -0.10459726
-0.014708332 -0.007440472 -0.10459014
-0.014718746 -0.0073673651 -0.10457905
-0.01472894 -0.0072920611 -0.10457792
-0.014738843 -0.0072166268 -0.10458279
-0.01474894 -0.0071412781 -0.10458365
-0.014759329 -0.0070660608 -0.10457853
-0.014769817 -0.0069908844 -0.10457141
-0.01478023 -0.0069177775 -0.10456033
-0.014790718 -0.006842603 -0.1045532
-0.014801204 -0.0067674275 -0.10454608
-0.014811715 -0.0066943634 -0.104533
-0.014822301 -0.0066192308 -0.10452388
-0.0148323 -0.0065438412 -0.10452674
-0.0148423 -0.0064684497 -0.10452961
-0.014852494 -0.0063931448 -0.10452848
-0.014862884 -0.0063179266 -0.10452335
-0.014873687 -0.0062449919 -0.10450428
-0.014884491 -0.0061720572 -0.10448521
-0.014895296 -0.0060991226 -0.10446613
-0.014905904 -0.0060261013 -0.10445105
-0.014916586 -0.0059510134 -0.10443994
-0.014927195 -0.0058779921 -0.10442485
-0.014937609 -0.0058048852 -0.10441377
-0.014947804 -0.0057295803 -0.10441264
-0.014957706 -0.005654146 -0.1044175
-0.014968168 -0.0055768602 -0.10441634
-0.01497829 -0.0055036237 -0.10441124
-0.014988875 -0.0054284912 -0.10440212
-0.014999191 -0.0053553414 -0.10439304
-0.015009776 -0.0052802078 -0.10438392
-0.015020262 -0.0052050352 -0.10437679
-0.015030579 -0.0051318835 -0.10436771
-0.015041359 -0.0050568376 -0.1043546
-0.015051967 -0.0049838163 -0.10433951
-0.015062284 -0.0049106684 -0.10433043
-0.015072868 -0.0048355348 -0.10432131
-0.015083184 -0.004762385 -0.10431223
-0.015093793 -0.0046893638 -0.10429714
-0.0151045 -0.0046163872 -0.10428006
-0.015115182 -0.0045412984 -0.10426895
-0.015125596 -0.0044681896 -0.10425786
-0.015136302 -0.004395213 -0.10424078
-0.015147179 -0.0043202098 -0.10422567
-0.015157398 -0.0042470172 -0.10421858
-0.015167788 -0.004171798 -0.10421345
-0.015178299 -0.0040987339 -0.10420038
-0.015188907 -0.0040257145 -0.1041853
-0.015199492 -0.003950581 -0.10417617
-0.015209906 -0.003877474 -0.10416509
-0.015220003 -0.0038021263 -0.10416596
-0.015230173 -0.003724711 -0.10417078
-0.0152401 -0.003651388 -0.10416969
-0.015250977 -0.0035763849 -0.10415458
-0.015261293 -0.0035032351 -0.10414549
-0.015271489 -0.0034279283 -0.10414436
-0.015281683 -0.0033526234 -0.10414323
-0.01529178 -0.0032772776 -0.1041441
-0.015301756 -0.0031997748 -0.10415293
-0.009314389 -0.04456291 -0.11224546
-0.0093257781 -0.044481833 -0.11223625
-0.0093370704 -0.044400711 -0.11222904
-0.0093489476 -0.044319849 -0.11220985
-0.0093610929 -0.04423701 -0.11219063
-0.0093720192 -0.044157825 -0.11218544
-0.0093830423 -0.044078689 -0.11217827
-0.0093946271 -0.043997698 -0.11216506
-0.0094063096 -0.043916747 -0.11214986
-0.0094174063 -0.043835543 -0.11214665
-0.0094283316 -0.043756358 -0.11214146
-0.0094398186 -0.043675326 -0.11213025
-0.009450648 -0.043596104 -0.11212707
-0.0094616711 -0.043516964 -0.11211988
-0.0094733536 -0.043436013 -0.11210468
-0.0094846459 -0.043354895 -0.11209747
-0.0094953766 -0.043275628 -0.11209628
-0.0095061082 -0.043196358 -0.11209509
-0.0095164729 -0.043119028 -0.11209594
-0.009527863 -0.043037951 -0.11208672
-0.0095396424 -0.042957049 -0.11206952
-0.0095517877 -0.042874202 -0.11205031
-0.0095631042 -0.042795196 -0.11203713
-0.0095736403 -0.04271584 -0.11203993
-0.0095834201 -0.042638253 -0.11205276
-0.0095946388 -0.042559199 -0.11204159
-0.0096061258 -0.042478167 -0.11203039
-0.0096174181 -0.042397045 -0.11202317
-0.0096291974 -0.042316142 -0.11200597
-0.0096407821 -0.042235151 -0.11199277
-0.0096512446 -0.042157866 -0.11199161
-0.0096623413 -0.042076658 -0.11198839
-0.0096733654 -0.041997518 -0.11198122
-0.0096839992 -0.041918211 -0.11198202
-0.0096949255 -0.041839026 -0.11197683
-0.0097068995 -0.041758209 -0.11195565
-0.0097184842 -0.041677218 -0.11194244
-0.0097290203 -0.041597866 -0.11194524
-0.0097390935 -0.041520406 -0.11195208
-0.009750288 -0.041439243 -0.11194687
-0.0097615067 -0.041360192 -0.11193568
-0.0097723352 -0.041280966 -0.1119325
-0.0097834561 -0.041201867 -0.11192332
-0.0099883806 -0.040546931 -0.10966597
-0.010005401 -0.040457845 -0.10956874
-0.010021569 -0.040370479 -0.10948351
-0.010037638 -0.040283073 -0.10940029
-0.010050198 -0.040202513 -0.10936712
-0.010064366 -0.040118467 -0.10931192
-0.010077681 -0.040036142 -0.10926872
-0.010089949 -0.039955452 -0.10924155
-0.010105458 -0.039869897 -0.10916435
-0.010118871 -0.03978762 -0.10911916
-0.010129796 -0.039708436 -0.10911398
-0.010138554 -0.039634593 -0.10913683
-0.010177295 -0.039511014 -0.10870946
-0.010186905 -0.03943545 -0.1087203
-0.010196026 -0.039359674 -0.10874114
-0.01020649 -0.039282385 -0.10873999
-0.0102161 -0.039206821 -0.10875084
-0.010226075 -0.039129321 -0.10875966
-0.010237025 -0.039052248 -0.10874853
-0.010249488 -0.038971648 -0.10871734
-0.010261852 -0.038891003 -0.10868816
-0.010272218 -0.038813673 -0.108689
-0.010314494 -0.038685359 -0.1082056
-0.010319544 -0.038618278 -0.10828251
-0.010331715 -0.038537547 -0.10825732
-0.010343323 -0.038458668 -0.10823816
-0.010353322 -0.038383275 -0.10824103
-0.010415656 -0.037982374 -0.10807918
-0.010427728 -0.037901603 -0.10805599
-0.010438484 -0.037824444 -0.10804884
-0.010449239 -0.037747286 -0.10804169
-0.010475796 -0.037584707 -0.10795135
-0.010487405 -0.037505828 -0.10793219
-0.010498453 -0.037428796 -0.10791904
-0.010509866 -0.037349835 -0.10790387
-0.010520622 -0.037272677 -0.10789673
-0.010531573 -0.037195604 -0.10788558
-0.010542425 -0.037118491 -0.10787643
-0.010553083 -0.037041292 -0.10787128
-0.010563644 -0.036964048 -0.10786812
-0.010574691 -0.03688702 -0.10785497
-0.010586008 -0.03680801 -0.1078418
