# .PCD v0.7 - Point Cloud Data file format
VERSION 0.7
FIELDS x y z
SIZE 4 4 4
TYPE F F F
COUNT 1 1 1
WIDTH 1304
HEIGHT 1
VIEWPOINT 0 0 0 1 0 0 0
POINTS 1304
DATA ascii
-0.061036706 -0.33514276 -0.41406378
-0.061034486 -0.33507502 -0.41405416
-0.061032537 -0.33500934 -0.41404063
-0.061030764 -0.33494571 -0.4140251
-0.06095342 -0.33419412 -0.41502428
-0.060950622 -0.33412609 -0.41502663
-0.060947821 -0.33405808 -0.41502902
-0.060955331 -0.33326048 -0.41421071
-0.060954258 -0.33319521 -0.41417918
-0.06095231 -0.33312953 -0.41416562
-0.060950071 -0.33306372 -0.41415805
-0.06093426 -0.332232 -0.41380051
-0.060895685 -0.33117205 -0.41373128
-0.060891934 -0.33110163 -0.41375157
-0.060855839 -0.33096555 -0.41439575
-0.060855594 -0.33090457 -0.41435033
-0.060880642 -0.33065087 -0.41361493
-0.060876969 -0.33058247 -0.41363528
-0.060873684 -0.33051422 -0.41364765
-0.060756136 -0.33019987 -0.41585219
-0.060756203 -0.33013707 -0.41579872
-0.060755398 -0.33007389 -0.41576326
-0.060755078 -0.33001092 -0.41571778
-0.060754176 -0.32994768 -0.41568428
-0.060750816 -0.32987747 -0.41569662
-0.060745243 -0.32980424 -0.41575283
-0.060740445 -0.3297314 -0.41579303
-0.060733303 -0.3294062 -0.41567338
-0.060732305 -0.32934293 -0.4156419
-0.06076045 -0.32752591 -0.41354638
-0.06075763 -0.32745987 -0.41355082
-0.060754828 -0.32739183 -0.41355318
-0.060751542 -0.32732362 -0.41356555
-0.062055595 -0.36396113 -0.41655833
-0.062052872 -0.36389512 -0.41656077
-0.062050246 -0.36382914 -0.41656119
-0.062047832 -0.36376131 -0.41655558
-0.062045537 -0.36369154 -0.41654593
-0.062043298 -0.36362574 -0.41653836
-0.062040903 -0.36355594 -0.4165307
-0.062038977 -0.36348832 -0.41651508
-0.062036876 -0.36341867 -0.41650146
-0.062034775 -0.36334899 -0.41648778
-0.062032651 -0.36328128 -0.41647619
-0.062030625 -0.3632136 -0.41646257
-0.062028717 -0.36314404 -0.41644493
-0.062026598 -0.36307633 -0.41643333
-0.062024202 -0.36300653 -0.41642568
-0.062021866 -0.3629407 -0.4164201
-0.062019452 -0.36287284 -0.4164145
-0.062017139 -0.36280504 -0.41640687
-0.062014919 -0.3627373 -0.41639727
-0.062012721 -0.36266759 -0.41638562
-0.062010288 -0.3626017 -0.41638204
-0.062007681 -0.36253375 -0.41638044
-0.06200546 -0.36246601 -0.41637081
-0.062003244 -0.36239824 -0.41636121
-0.06200083 -0.36233041 -0.41635561
-0.061998513 -0.36226261 -0.41634798
-0.061996002 -0.36219472 -0.41634437
-0.061993882 -0.36212701 -0.41633275
-0.061991546 -0.36206117 -0.41632718
-0.061989132 -0.36199331 -0.41632158
-0.061986718 -0.36192548 -0.41631597
-0.061984207 -0.36185759 -0.41631234
-0.061981991 -0.36178982 -0.41630274
-0.061980277 -0.36172035 -0.4162811
-0.061978154 -0.36165264 -0.41626948
-0.061975837 -0.36158484 -0.41626188
-0.061973523 -0.36151704 -0.41625428
-0.061971206 -0.36144924 -0.41624665
-0.061969064 -0.3613835 -0.41623709
-0.061966553 -0.36131561 -0.41623348
-0.061964143 -0.36124775 -0.41622785
-0.06196202 -0.36118004 -0.41621625
-0.061959606 -0.36111221 -0.41621065
-0.061957076 -0.36104625 -0.41620907
-0.061954685 -0.36097646 -0.41620141
-0.061952561 -0.36090875 -0.41618979
-0.061950341 -0.36084101 -0.41618019
-0.061948318 -0.36077332 -0.4161666
-0.061946388 -0.3607057 -0.41615099
-0.06194419 -0.360636 -0.41613933
-0.061942168 -0.36056834 -0.41612574
-0.061940063 -0.36049867 -0.41611207
-0.061937921 -0.36043292 -0.41610253
-0.061935414 -0.36036503 -0.41609889
-0.061933 -0.36029717 -0.41609329
-0.061930779 -0.36022943 -0.41608369
-0.061928269 -0.36016154 -0.41608006
-0.061925739 -0.36009562 -0.41607851
-0.061923228 -0.36002773 -0.41607487
-0.061920915 -0.35995993 -0.41606724
-0.061918385 -0.35989398 -0.41606569
-0.061915681 -0.35982603 -0.41606605
-0.061913248 -0.35976014 -0.41606247
-0.061910931 -0.35969234 -0.41605487
-0.061909001 -0.35962471 -0.41603929
-0.0619069 -0.35955504 -0.41602564
-0.061904583 -0.35948724 -0.41601801
-0.061901957 -0.35942125 -0.41601843
-0.06189964 -0.35935345 -0.41601083
-0.061897926 -0.35928398 -0.41598919
-0.061895903 -0.3592163 -0.41597557
-0.061893489 -0.35914847 -0.41596997
-0.061891057 -0.35908258 -0.41596639
-0.061888643 -0.35901475 -0.41596079
-0.061886426 -0.35894698 -0.41595119
-0.061884303 -0.35887927 -0.41593957
-0.061882276 -0.35881159 -0.41592598
-0.061880253 -0.35874394 -0.41591236
-0.061878033 -0.35867617 -0.41590276
-0.06187591 -0.35860845 -0.41589117
-0.06187379 -0.35854074 -0.41587955
-0.061871473 -0.35847294 -0.41587192
-0.061869062 -0.35840511 -0.41586632
-0.061866648 -0.35833728 -0.41586071
-0.061864525 -0.35826957 -0.41584909
-0.061862599 -0.35820195 -0.4158335
-0.061860379 -0.35813418 -0.41582388
-0.061857868 -0.35806629 -0.41582027
-0.061855339 -0.35800037 -0.41581869
-0.061853021 -0.35793257 -0.41581109
-0.061850805 -0.3578648 -0.41580147
-0.061848488 -0.35779703 -0.41579387
-0.061846074 -0.35772917 -0.41578826
-0.061843663 -0.35766134 -0.41578263
-0.061841227 -0.35759544 -0.41577905
-0.06183872 -0.35752755 -0.41577545
-0.061836597 -0.35745984 -0.41576385
-0.06183457 -0.35739216 -0.41575024
-0.061832353 -0.35732442 -0.41574064
-0.06183023 -0.35725671 -0.41572902
-0.061827913 -0.35718891 -0.41572142
-0.0618256 -0.35712111 -0.41571379
-0.061823379 -0.35705334 -0.41570419
-0.061821062 -0.35698554 -0.41569659
-0.061818846 -0.3569178 -0.41568696
-0.061816625 -0.35685003 -0.41567737
-0.061814308 -0.35678226 -0.41566974
-0.061811779 -0.35671631 -0.41566819
-0.061809152 -0.35665032 -0.41566861
-0.061806545 -0.3565824 -0.415667
-0.061803918 -0.35651642 -0.41566741
-0.061801311 -0.3564485 -0.41566581
-0.061799187 -0.35638079 -0.41565418
-0.061796874 -0.35631299 -0.41564655
-0.061794538 -0.35624713 -0.41564101
-0.061792124 -0.3561793 -0.41563541
-0.06178971 -0.35611147 -0.41562977
-0.061787494 -0.3560437 -0.41562015
-0.061785467 -0.35597605 -0.41560656
-0.061783731 -0.35590851 -0.41558695
-0.061781902 -0.35584092 -0.41556937
-0.061779898 -0.3557713 -0.41555372
-0.061777968 -0.35570368 -0.41553813
-0.061775945 -0.355636 -0.41552451
-0.061773725 -0.35556826 -0.41551489
-0.061771408 -0.35550046 -0.41550729
-0.061769094 -0.35543266 -0.41549969
-0.061766759 -0.3553668 -0.41549411
-0.061764345 -0.35529897 -0.41548851
-0.061761834 -0.35523108 -0.41548491
-0.061759401 -0.35516518 -0.41548133
-0.06175689 -0.35509729 -0.41547769
-0.061754379 -0.3550294 -0.41547409
-0.06175185 -0.35496348 -0.41547251
-0.061749436 -0.35489565 -0.4154669
-0.061747123 -0.35482785 -0.41545928
-0.061744709 -0.35475999 -0.41545367
-0.061742276 -0.3546941 -0.4154501
-0.061739959 -0.3546263 -0.4154425
-0.061737835 -0.35455859 -0.41543087
-0.061735619 -0.35449085 -0.41542128
-0.061733399 -0.35442311 -0.41541165
-0.061731063 -0.35435724 -0.41540611
-0.061729133 -0.35428962 -0.41539049
-0.061727323 -0.35422009 -0.41537085
-0.0617253 -0.35415241 -0.41535723
-0.061723176 -0.3540847 -0.41534564
-0.061721057 -0.35401699 -0.41533405
-0.061718814 -0.35395119 -0.41532648
-0.061716113 -0.35388324 -0.41532683
-0.061713777 -0.35381737 -0.41532129
-0.061711673 -0.35374773 -0.41530764
-0.061709747 -0.3536801 -0.41529202
-0.061707702 -0.35361439 -0.41528046
-0.061705384 -0.35354659 -0.41527286
-0.061702874 -0.3534787 -0.41526926
-0.061700657 -0.35341093 -0.41525963
-0.06169863 -0.35334328 -0.41524601
-0.061696779 -0.35327765 -0.41523048
-0.061694559 -0.35320988 -0.41522086
-0.061692052 -0.35314199 -0.41521725
-0.061689831 -0.35307425 -0.41520762
-0.061687708 -0.35300654 -0.41519603
-0.061685372 -0.35294068 -0.41519046
-0.061682962 -0.35287285 -0.41518486
-0.061680645 -0.35280505 -0.41517723
-0.061678212 -0.35273916 -0.41517368
-0.061675701 -0.35267127 -0.41517004
-0.061673366 -0.35260543 -0.4151645
-0.061670758 -0.35253751 -0.41516286
-0.061668228 -0.35247156 -0.41516131
-0.061665814 -0.35240373 -0.41515568
-0.061663594 -0.35233596 -0.41514608
-0.061661378 -0.35226822 -0.41513646
-0.061659448 -0.3522006 -0.41512087
-0.061657306 -0.35213482 -0.4151113
-0.061654989 -0.35206702 -0.41510367
-0.061652482 -0.35199913 -0.41510007
-0.06165034 -0.35193339 -0.4150905
-0.06164841 -0.35186577 -0.41507491
-0.06164619 -0.351798 -0.41506529
-0.061643682 -0.35173014 -0.41506168
-0.061641559 -0.35166243 -0.41505009
-0.061639708 -0.3515968 -0.41503453
-0.061637197 -0.35152891 -0.4150309
-0.061634667 -0.35146296 -0.41502935
-0.061632156 -0.35139507 -0.41502571
-0.061630037 -0.35132736 -0.41501412
-0.061627895 -0.35126162 -0.41500455
-0.061625481 -0.35119379 -0.41499895
-0.061623164 -0.35112599 -0.41499132
-0.061620828 -0.35106012 -0.41498578
-0.061618414 -0.35099229 -0.41498014
-0.061616078 -0.35092643 -0.41497457
-0.061613761 -0.35085863 -0.41496697
-0.061611447 -0.35079083 -0.41495934
-0.061609015 -0.35072497 -0.41495579
-0.061606601 -0.35065711 -0.41495016
-0.061604362 -0.3505913 -0.41494262
-0.061601948 -0.35052347 -0.41493699
-0.061599534 -0.35045561 -0.41493136
-0.061597489 -0.3503899 -0.41491982
-0.061595466 -0.35032225 -0.4149062
-0.061593536 -0.35025463 -0.41489062
-0.061591417 -0.35018691 -0.41487902
-0.061589077 -0.35012105 -0.41487342
-0.061586667 -0.35005322 -0.41486782
-0.061584234 -0.34998733 -0.41486424
-0.061581723 -0.34991944 -0.41486064
-0.061579484 -0.34985363 -0.41485307
-0.061577167 -0.34978583 -0.41484547
-0.061574638 -0.34971991 -0.41484389
-0.061572127 -0.34965202 -0.41484028
-0.061569791 -0.34958619 -0.41483471
-0.061567474 -0.34951839 -0.41482711
-0.061565138 -0.34945253 -0.41482151
-0.061562724 -0.3493847 -0.4148159
-0.061560389 -0.34931886 -0.41481033
-0.061558269 -0.34925115 -0.41479874
-0.061556242 -0.34918347 -0.41478515
-0.061554197 -0.34911776 -0.41477358
-0.061552074 -0.34905005 -0.41476196
-0.061550051 -0.34898239 -0.41474837
-0.061547715 -0.34891653 -0.4147428
-0.061545398 -0.34884873 -0.4147352
-0.061543353 -0.34878302 -0.41472363
-0.061541036 -0.34871522 -0.41471601
-0.0615387 -0.34864938 -0.41471046
-0.061536189 -0.34858149 -0.41470683
-0.061533853 -0.34851566 -0.41470128
-0.061531343 -0.34844777 -0.41469765
-0.06152891 -0.34838188 -0.41469407
-0.061526593 -0.34831408 -0.41468647
-0.061524548 -0.34824836 -0.41467491
-0.061522428 -0.34818065 -0.41466331
-0.061520286 -0.34811488 -0.41465375
-0.061517969 -0.34804708 -0.41464612
-0.061515924 -0.34798139 -0.41463459
-0.061513901 -0.34791371 -0.41462097
-0.061512068 -0.34784612 -0.41460335
-0.061510216 -0.3477805 -0.41458783
-0.061507802 -0.34771267 -0.41458219
-0.061505176 -0.34764668 -0.41458261
-0.061502937 -0.34758088 -0.41457507
-0.06150062 -0.34751308 -0.41456744
-0.061498187 -0.34744719 -0.41456389
-0.06149587 -0.34737939 -0.41455626
-0.061493922 -0.34731373 -0.4145427
-0.061491705 -0.34724596 -0.41453311
-0.061489467 -0.34718019 -0.41452554
-0.061486837 -0.34711421 -0.41452596
-0.061484233 -0.34704626 -0.41452435
-0.061481796 -0.34698039 -0.41452077
-0.061479364 -0.3469145 -0.41451719
-0.061477341 -0.34684682 -0.4145036
-0.061475296 -0.3467811 -0.41449204
-0.061472688 -0.34671319 -0.4144904
-0.061470255 -0.34664729 -0.41448686
-0.061468307 -0.34658161 -0.4144733
-0.06146599 -0.34651381 -0.4144657
-0.061463654 -0.34644797 -0.41446012
-0.061461434 -0.34638023 -0.4144505
-0.061459389 -0.34631452 -0.41443896
-0.061457168 -0.34624675 -0.41442934
-0.061455123 -0.34618104 -0.41441777
-0.061453078 -0.34611532 -0.41440624
-0.061450861 -0.34604758 -0.41439661
-0.061448619 -0.34598178 -0.41438904
-0.061446209 -0.34591392 -0.41438344
-0.061444163 -0.3458482 -0.41437188
-0.061442021 -0.34578246 -0.41436231
-0.061439704 -0.34571466 -0.41435471
-0.061437272 -0.34564877 -0.41435114
-0.061435033 -0.34558296 -0.41434357
-0.061432812 -0.34551522 -0.41433397
-0.061430186 -0.34544924 -0.41433439
-0.061427385 -0.34538123 -0.41433677
-0.061424952 -0.34531534 -0.41433319
-0.061422713 -0.34524953 -0.41432562
-0.061420377 -0.34518367 -0.41432005
-0.061418157 -0.34511593 -0.41431046
-0.061416306 -0.34505031 -0.4142949
-0.061414551 -0.34498471 -0.41427734
-0.061412428 -0.344917 -0.41426575
-0.061410286 -0.34485126 -0.41425619
-0.061408434 -0.34478563 -0.41424063
-0.061406411 -0.34471795 -0.41422701
-0.061403979 -0.34465209 -0.41422346
-0.061401837 -0.34458631 -0.4142139
-0.061399713 -0.3445186 -0.41420227
-0.061397571 -0.34445286 -0.41419274
-0.061395139 -0.34438697 -0.41418916
-0.061392725 -0.34431911 -0.41418356
-0.061390195 -0.34425318 -0.41418198
-0.061387565 -0.3441872 -0.41418239
-0.061385326 -0.3441214 -0.41417482
-0.0613834 -0.34405378 -0.41415924
-0.061381064 -0.34398794 -0.41415367
-0.061378628 -0.34392205 -0.41415009
-0.061376486 -0.3438563 -0.41414052
-0.061374366 -0.34378859 -0.41412893
-0.061069261 -0.33823973 -0.41592884
-0.061073191 -0.33818066 -0.41579753
-0.061044645 -0.33743936 -0.41578186
-0.061035872 -0.3373647 -0.41590399
-0.061028942 -0.33729091 -0.41598815
-0.061021894 -0.337219 -0.41607633
-0.061015718 -0.33714747 -0.41614658
-0.061010998 -0.33707663 -0.41618684
-0.061007809 -0.33700845 -0.41619721
-0.061004136 -0.33694002 -0.41621757
-0.061001237 -0.33687195 -0.41622192
-0.060993753 -0.33615789 -0.41578728
-0.060910754 -0.33552739 -0.41700512
-0.060906693 -0.33545882 -0.41703346
-0.061048336 -0.33535019 -0.4139736
-0.061042842 -0.33527899 -0.41402987
-0.061039653 -0.33521077 -0.41404021
-0.061037317 -0.33514494 -0.41403466
-0.061035175 -0.33507919 -0.4140251
-0.061033323 -0.33501357 -0.41400954
-0.061031375 -0.33494788 -0.41399598
-0.060953438 -0.334196 -0.41500711
-0.060950734 -0.33412805 -0.4150075
-0.060947254 -0.33405972 -0.41502386
-0.060957734 -0.33326739 -0.41414773
-0.060955495 -0.33320159 -0.41414016
-0.060953256 -0.33313578 -0.4141326
-0.060950551 -0.3330678 -0.41413298
-0.060938943 -0.33224389 -0.4136937
-0.060896061 -0.3311761 -0.41370821
-0.060893357 -0.33110812 -0.41370857
-0.060856305 -0.3309696 -0.41437066
-0.060855597 -0.33090648 -0.41433319
-0.060881481 -0.33065706 -0.4135839
-0.060878098 -0.33058879 -0.41359827
-0.060874619 -0.33052048 -0.41361463
-0.060758024 -0.33020657 -0.41579917
-0.060756851 -0.33014125 -0.41576964
-0.060756046 -0.33007807 -0.41573417
-0.060756288 -0.3300173 -0.41567877
-0.060755193 -0.329954 -0.41564929
-0.060751364 -0.32988158 -0.41566953
-0.060745887 -0.32980841 -0.41572374
-0.060741168 -0.32973757 -0.415764
-0.060733832 -0.32941228 -0.41564834
-0.060733028 -0.3293491 -0.41561288
-0.060762879 -0.32753679 -0.41348553
-0.060759593 -0.32746854 -0.41349787
-0.060756695 -0.32740051 -0.41350225
-0.062055916 -0.36396056 -0.41656592
-0.062053211 -0.36389259 -0.41656631
-0.062050682 -0.36382666 -0.41656473
-0.062048268 -0.36375883 -0.4165591
-0.062045973 -0.36368906 -0.41654944
-0.06204373 -0.36362326 -0.41654187
-0.062041435 -0.36355352 -0.41653222
-0.062039413 -0.36348584 -0.41651863
-0.062037114 -0.36341611 -0.41650897
-0.062035091 -0.36334842 -0.41649538
-0.062032968 -0.36328071 -0.41648376
-0.06203077 -0.36321101 -0.41647211
-0.062028959 -0.36314148 -0.41645247
-0.062026933 -0.3630738 -0.41643888
-0.062024638 -0.36300406 -0.41642919
-0.062022302 -0.36293823 -0.41642362
-0.062019791 -0.36287034 -0.41642001
-0.062017474 -0.36280254 -0.41641241
-0.062015254 -0.36273476 -0.41640282
-0.062013038 -0.36266702 -0.41639319
-0.062010624 -0.36259916 -0.41638756
-0.06200821 -0.36253133 -0.41638196
-0.062005892 -0.36246353 -0.41637436
-0.062003579 -0.36239573 -0.41636673
-0.062001165 -0.36232787 -0.41636112
-0.061998829 -0.36226204 -0.41635555
-0.061996512 -0.36219424 -0.41634795
-0.061994314 -0.36212453 -0.4163363
-0.061992075 -0.36205873 -0.41632873
-0.061989468 -0.36199081 -0.41632709
-0.061987054 -0.36192295 -0.41632149
-0.061984543 -0.36185509 -0.41631788
-0.061982401 -0.36178932 -0.41630831
-0.06198059 -0.36171979 -0.41628867
-0.061978489 -0.36165011 -0.41627502
-0.061976172 -0.36158231 -0.4162674
-0.061973855 -0.36151451 -0.4162598
-0.061971616 -0.36144873 -0.41625223
-0.061969299 -0.36138093 -0.41624463
-0.061966792 -0.36131305 -0.41624099
-0.061964475 -0.36124524 -0.41623339
-0.061962448 -0.36117756 -0.41621977
-0.061960034 -0.36110973 -0.41621417
-0.061957505 -0.36104378 -0.41621259
-0.061955113 -0.36097398 -0.41620493
-0.061953086 -0.36090633 -0.41619134
-0.061950866 -0.36083856 -0.41618171
-0.061948746 -0.36077085 -0.41617012
-0.061946817 -0.36070323 -0.4161545
-0.061944425 -0.36063343 -0.41614684
-0.061942399 -0.36056578 -0.41613325
-0.061940473 -0.36049816 -0.41611764
-0.061938059 -0.3604303 -0.41611204
-0.061935645 -0.36036247 -0.4161064
-0.061933424 -0.3602947 -0.41609681
-0.061931208 -0.36022696 -0.41608721
-0.061928794 -0.36015913 -0.41608158
-0.061926264 -0.36009318 -0.41608
-0.061923753 -0.36002529 -0.41607639
-0.061921224 -0.35995936 -0.41607481
-0.061918616 -0.35989144 -0.4160732
-0.061916009 -0.3598235 -0.41607159
-0.061913576 -0.3597576 -0.41606802
-0.061911356 -0.35968986 -0.41605839
-0.061909329 -0.35962218 -0.4160448
-0.061907306 -0.35955453 -0.41603118
-0.061904795 -0.35948664 -0.41602758
-0.061902188 -0.35941869 -0.41602594
-0.061900064 -0.35935098 -0.41601434
-0.061898235 -0.35928342 -0.41599673
-0.061896209 -0.35921574 -0.41598314
-0.061893798 -0.35914791 -0.41597754
-0.061891191 -0.35907999 -0.41597593
-0.061888851 -0.35901412 -0.41597033
-0.061886653 -0.35894442 -0.4159587
-0.06188463 -0.35887676 -0.41594508
-0.06188241 -0.35880899 -0.41593546
-0.061880384 -0.35874134 -0.41592187
-0.061878361 -0.35867366 -0.41590828
-0.061876334 -0.35860601 -0.41589466
-0.061874211 -0.3585383 -0.41588306
-0.061871897 -0.3584705 -0.41587543
-0.061869387 -0.35840261 -0.41587183
-0.061866954 -0.35833672 -0.41586825
-0.061864752 -0.35826701 -0.4158566
-0.061862826 -0.35819939 -0.41584101
-0.0618608 -0.35813171 -0.41582739
-0.061858386 -0.35806388 -0.41582179
-0.061855976 -0.35799602 -0.41581619
-0.061853442 -0.35793009 -0.41581461
-0.061851129 -0.35786229 -0.41580698
-0.061848812 -0.35779449 -0.41579938
-0.061846398 -0.35772666 -0.41579375
-0.061843965 -0.35766077 -0.4157902
-0.061841357 -0.35759282 -0.41578856
-0.061838944 -0.35752499 -0.41578296
-0.061837018 -0.35745737 -0.41576737
-0.061835088 -0.35738975 -0.41575176
-0.061832868 -0.35732198 -0.41574216
-0.061830457 -0.35725415 -0.41573653
-0.061828043 -0.35718632 -0.41573089
-0.061825823 -0.35711855 -0.4157213
-0.061823703 -0.35705084 -0.4157097
-0.061821483 -0.3569831 -0.41570008
-0.061819069 -0.35691524 -0.41569448
-0.06181683 -0.35684943 -0.41568691
-0.061814513 -0.35678163 -0.41567928
-0.061811905 -0.35671371 -0.41567767
-0.061809279 -0.35664773 -0.41567808
-0.061806865 -0.3565799 -0.41567248
-0.061804336 -0.35651395 -0.41567093
-0.061801825 -0.35644606 -0.4156673
-0.061799411 -0.35637823 -0.41566169
-0.061797075 -0.35631239 -0.41565612
-0.061794661 -0.35624453 -0.41565049
-0.061792348 -0.35617673 -0.41564289
-0.06179003 -0.35610893 -0.41563529
-0.061787907 -0.35604122 -0.41562366
-0.061785981 -0.3559736 -0.41560805
-0.061784148 -0.35590604 -0.41559047
-0.061782222 -0.35583842 -0.41557485
-0.061780311 -0.35576883 -0.41555721
-0.061778385 -0.35570121 -0.41554162
-0.061776262 -0.3556335 -0.41553003
-0.061774042 -0.35556573 -0.4155204
-0.061771728 -0.35549793 -0.4155128
-0.061769314 -0.3554301 -0.4155072
-0.061767075 -0.35536429 -0.41549963
-0.061764661 -0.35529646 -0.41549399
-0.06176215 -0.35522857 -0.41549039
-0.061759621 -0.35516262 -0.41548881
-0.06175711 -0.35509476 -0.4154852
-0.061754696 -0.3550269 -0.41547957
-0.06175236 -0.35496107 -0.415474
-0.061749946 -0.35489321 -0.41546839
-0.061747536 -0.35482538 -0.41546279
-0.061745025 -0.35475749 -0.41545916
-0.061742689 -0.35469165 -0.41545358
-0.061740469 -0.35462388 -0.41544399
-0.061738249 -0.35455614 -0.41543436
-0.061736129 -0.35448843 -0.41542277
-0.061733715 -0.35442057 -0.41541713
-0.061731476 -0.35435477 -0.41540959
-0.061729547 -0.35428715 -0.41539398
-0.061727736 -0.35421762 -0.41537434
-0.06172571 -0.35414997 -0.41536075
-0.06172359 -0.35408226 -0.41534913
-0.061721563 -0.35401458 -0.41533554
-0.061719228 -0.35394874 -0.41532996
-0.061716523 -0.35388076 -0.41533035
-0.061714206 -0.35381296 -0.41532272
-0.061712183 -0.35374528 -0.41530913
-0.06170994 -0.35367948 -0.41530156
-0.061707724 -0.35361174 -0.41529197
-0.0617056 -0.35354403 -0.41528034
-0.06170338 -0.35347626 -0.41527075
-0.061701067 -0.35340846 -0.41526312
-0.06169904 -0.3533408 -0.41524953
-0.061697111 -0.35327318 -0.41523391
-0.061694894 -0.35320541 -0.41522431
-0.061692558 -0.35313958 -0.41521874
-0.061690241 -0.35307178 -0.41521114
-0.061687924 -0.35300398 -0.41520351
-0.061685588 -0.35293815 -0.41519794
-0.061683174 -0.35287029 -0.41519234
-0.061680857 -0.35280249 -0.41518474
-0.061678618 -0.35273668 -0.41517717
-0.06167601 -0.35266876 -0.41517556
-0.061673675 -0.35260293 -0.41516995
-0.061671261 -0.35253507 -0.41516435
-0.061668731 -0.35246915 -0.4151628
-0.061666027 -0.35240117 -0.41516316
-0.061663713 -0.35233337 -0.41515553
-0.061661664 -0.35226765 -0.415144
-0.06165966 -0.35219803 -0.41512835
-0.061657615 -0.35213232 -0.41511679
-0.061655395 -0.35206458 -0.41510719
-0.061652888 -0.35199669 -0.41510355
-0.061650649 -0.35193089 -0.41509598
-0.061648719 -0.35186327 -0.4150804
-0.061646596 -0.35179555 -0.41506878
-0.061644282 -0.35172775 -0.41506118
-0.061642062 -0.35165998 -0.41505158
-0.061640114 -0.35159433 -0.41503799
-0.061637506 -0.35152638 -0.41503638
-0.061634976 -0.35146046 -0.4150348
-0.061632466 -0.35139257 -0.41503119
-0.061630245 -0.35132483 -0.4150216
-0.061628103 -0.35125905 -0.41501203
-0.061625786 -0.35119125 -0.4150044
-0.061623473 -0.35112345 -0.4149968
-0.061621036 -0.35105759 -0.41499323
-0.061618626 -0.35098973 -0.41498762
-0.061616383 -0.35092393 -0.41498005
-0.061614167 -0.35085618 -0.41497046
-0.061611753 -0.35078833 -0.41496482
-0.061609417 -0.35072249 -0.41495925
-0.061606906 -0.3506546 -0.41495565
-0.061604571 -0.35058877 -0.41495007
-0.061602253 -0.35052097 -0.41494244
-0.061599839 -0.35045311 -0.41493684
-0.061597794 -0.35038739 -0.41492528
-0.061595675 -0.35031968 -0.41491368
-0.061593648 -0.35025203 -0.41490006
-0.061591718 -0.35018441 -0.41488448
-0.061589479 -0.35011861 -0.41487691
-0.061586969 -0.35005072 -0.4148733
-0.061584633 -0.34998485 -0.41486773
-0.061582122 -0.34991699 -0.41486412
-0.061579689 -0.3498511 -0.41486055
-0.061577179 -0.34978321 -0.41485691
-0.061574843 -0.34971735 -0.41485137
-0.061572526 -0.34964955 -0.41484374
-0.061570287 -0.34958375 -0.41483617
-0.061567873 -0.34951591 -0.41483057
-0.061565634 -0.34945011 -0.414823
-0.06156303 -0.34938219 -0.41482139
-0.061560497 -0.34931624 -0.41481981
-0.06155828 -0.3492485 -0.41481018
-0.061556254 -0.34918082 -0.41479659
-0.061554305 -0.34911516 -0.41478303
-0.061552279 -0.34904748 -0.41476944
-0.061550159 -0.34897977 -0.41475782
-0.061547916 -0.34891397 -0.41475028
-0.061545797 -0.34884626 -0.41473866
-0.061543945 -0.34878063 -0.4147231
-0.061541434 -0.34871277 -0.41471949
-0.061538905 -0.34864682 -0.41471791
-0.061536394 -0.34857893 -0.41471431
-0.061534155 -0.34851313 -0.41470674
-0.061531644 -0.34844527 -0.41470313
-0.061529212 -0.34837937 -0.41469955
-0.061526895 -0.34831157 -0.41469193
-0.061524753 -0.3482458 -0.41468236
-0.061522532 -0.34817806 -0.41467276
-0.061520293 -0.34811226 -0.41466519
-0.06151817 -0.34804454 -0.4146536
-0.061516222 -0.34797886 -0.41464004
-0.061514102 -0.34791115 -0.41462842
-0.061512172 -0.34784353 -0.41461283
-0.061510321 -0.3477779 -0.41459727
-0.0615081 -0.34771016 -0.41458768
-0.061505571 -0.34764421 -0.4145861
-0.061503332 -0.34757844 -0.41457853
-0.061500918 -0.34751058 -0.41457289
-0.061498486 -0.34744468 -0.41456935
-0.061496265 -0.34737694 -0.41455972
-0.06149422 -0.34731123 -0.41454816
-0.061492004 -0.34724346 -0.41453856
-0.061489567 -0.34717757 -0.41453499
-0.061487038 -0.34711164 -0.41453344
-0.061484527 -0.34704375 -0.4145298
-0.061482191 -0.34697792 -0.41452423
-0.061479855 -0.34691206 -0.41451865
-0.061477635 -0.34684432 -0.41450906
-0.061475299 -0.34677848 -0.41450348
-0.061472692 -0.34671053 -0.41450188
-0.061470356 -0.3466447 -0.4144963
-0.061468408 -0.34657902 -0.41448274
-0.06146609 -0.34651121 -0.41447514
-0.061463851 -0.34644544 -0.41446757
-0.061461631 -0.34637767 -0.41445798
-0.061459586 -0.34631196 -0.41444641
-0.061457444 -0.34624621 -0.41443685
-0.061455417 -0.34617853 -0.41442323
-0.061453491 -0.34611091 -0.41440764
-0.061451253 -0.34604511 -0.41440007
-0.061448917 -0.34597927 -0.4143945
-0.06144648 -0.34591338 -0.41439092
-0.061444361 -0.34584567 -0.41437933
-0.061442412 -0.34577999 -0.41436577
-0.061439998 -0.34571216 -0.41436017
-0.061437566 -0.34564626 -0.41435659
-0.06143542 -0.34558052 -0.41434702
-0.06143301 -0.34551266 -0.41434142
-0.061430283 -0.34544665 -0.41434383
-0.061427657 -0.34538066 -0.41434425
-0.061425243 -0.34531283 -0.41433865
-0.061423004 -0.34524703 -0.41433108
-0.061420958 -0.34518132 -0.41431952
-0.061418545 -0.34511346 -0.41431391
-0.061416499 -0.34504774 -0.41430235
-0.061414745 -0.34498218 -0.4142848
-0.061412625 -0.34491447 -0.4142732
-0.061410673 -0.34484878 -0.41425964
-0.061408728 -0.34478313 -0.41424608
-0.061406508 -0.34471536 -0.41423649
-0.061404269 -0.34464955 -0.41422892
-0.061402418 -0.34458393 -0.41421336
-0.061400197 -0.34451619 -0.41420373
-0.061397959 -0.34445038 -0.41419619
-0.061395526 -0.34438449 -0.41419262
-0.061392918 -0.34431657 -0.41419098
-0.061390482 -0.34425068 -0.41418743
-0.061387856 -0.3441847 -0.41418785
-0.06138552 -0.34411886 -0.41418228
-0.061383396 -0.34405115 -0.41417068
-0.061381351 -0.34398544 -0.41415912
-0.061379112 -0.34391963 -0.41415155
-0.061376873 -0.34385383 -0.41414398
-0.061374635 -0.34378803 -0.41413641
-0.061071351 -0.33824 -0.41589835
-0.061043479 -0.33743423 -0.41581517
-0.061036333 -0.33736229 -0.41590539
-0.061030447 -0.33729091 -0.41596964
-0.061023321 -0.337217 -0.4160578
-0.061016466 -0.33714518 -0.41614199
-0.061012793 -0.33707678 -0.41616234
-0.061010089 -0.3370088 -0.41616273
-0.061006609 -0.33694047 -0.41617906
-0.061001696 -0.33686954 -0.41622335
-0.061000966 -0.33622724 -0.41570646
-0.060996711 -0.33615854 -0.41573879
-0.061049186 -0.33534795 -0.41396701
-0.061044637 -0.33527914 -0.41400534
-0.061041448 -0.33521095 -0.41401571
-0.061038919 -0.335145 -0.41401416
-0.061036486 -0.3350791 -0.41401058
-0.061034441 -0.33501339 -0.41399902
-0.061032198 -0.33494759 -0.41399145
-0.061028816 -0.33487931 -0.41400582
-0.060955714 -0.33419639 -0.41497263
-0.060952816 -0.33412832 -0.41497701
-0.060949609 -0.33406207 -0.41498941
-0.060958866 -0.33326527 -0.41413516
-0.060956627 -0.33319947 -0.41412759
-0.060954385 -0.33313367 -0.41412002
-0.060951952 -0.33306777 -0.41411644
-0.060939394 -0.33224148 -0.4136951
-0.060896993 -0.3311739 -0.4136996
-0.060894173 -0.33110783 -0.41370404
-0.060858186 -0.33096981 -0.41434413
-0.060856409 -0.33090618 -0.41432863
-0.060884215 -0.33065963 -0.41354147
-0.06088027 -0.33058912 -0.41356575
-0.060759045 -0.3302044 -0.41578859
-0.060758799 -0.33014345 -0.41574317
-0.060758092 -0.3300803 -0.41570568
-0.060758162 -0.33001751 -0.41565225
-0.060757164 -0.32995424 -0.41562074
-0.060753025 -0.32988364 -0.41564906
-0.060747277 -0.32980838 -0.4157072
-0.060742751 -0.32973763 -0.41574347
-0.060735606 -0.32941243 -0.41562381
-0.060765602 -0.32753932 -0.41344303
-0.060761467 -0.32746875 -0.41347134
-0.060758546 -0.32740265 -0.41347775
-0.062055945 -0.36396298 -0.41656917
-0.062053241 -0.363895 -0.41656953
-0.062050711 -0.36382908 -0.41656798
-0.062048297 -0.36376125 -0.41656238
-0.062046081 -0.36369348 -0.41655275
-0.062043667 -0.36362565 -0.41654712
-0.06204135 -0.36355785 -0.41653952
-0.06203923 -0.36349013 -0.41652793
-0.062037028 -0.36342043 -0.41651624
-0.062034909 -0.36335272 -0.41650465
-0.062032711 -0.36328301 -0.416493
-0.062030684 -0.36321533 -0.41647941
-0.062028874 -0.3631458 -0.41645974
-0.06202687 -0.36307618 -0.41644412
-0.062024649 -0.36300841 -0.4164345
-0.062022235 -0.36294058 -0.41642889
-0.062019825 -0.36287275 -0.41642326
-0.062017508 -0.36280495 -0.41641566
-0.062015288 -0.36273718 -0.41640604
-0.062012974 -0.36266938 -0.41639844
-0.06201056 -0.36260155 -0.41639283
-0.062008243 -0.36253375 -0.4163852
-0.06200593 -0.36246595 -0.4163776
-0.06200359 -0.36240008 -0.41637203
-0.06200118 -0.36233225 -0.4163664
-0.061998669 -0.36226436 -0.41636279
-0.061996255 -0.36219653 -0.41635719
-0.061994135 -0.36212882 -0.4163456
-0.061992012 -0.36206111 -0.41633397
-0.061989501 -0.36199322 -0.41633034
-0.061987165 -0.36192736 -0.41632479
-0.061984655 -0.36185947 -0.41632116
-0.061982438 -0.36179173 -0.41631156
-0.061980531 -0.36172214 -0.41629392
-0.061978504 -0.36165449 -0.4162803
-0.061976284 -0.36158672 -0.4162707
-0.061974067 -0.36151898 -0.41626108
-0.06197175 -0.36145118 -0.41625348
-0.06196934 -0.36138332 -0.41624784
-0.061966829 -0.36131546 -0.41624424
-0.061964493 -0.3612496 -0.41623867
-0.061962292 -0.36117989 -0.41622704
-0.061959978 -0.36111209 -0.41621941
-0.061957546 -0.3610462 -0.41621584
-0.061955228 -0.36097839 -0.41620824
-0.061953202 -0.36091074 -0.41619462
-0.06195081 -0.36084095 -0.41618696
-0.061948687 -0.36077324 -0.41617537
-0.061946761 -0.36070561 -0.41615975
-0.061944347 -0.36063775 -0.41615415
-0.061942227 -0.36057004 -0.41614255
-0.061940316 -0.36050048 -0.41612488
-0.061937906 -0.36043262 -0.41611928
-0.06193557 -0.36036679 -0.4161137
-0.061933368 -0.36029708 -0.41610205
-0.061931346 -0.3602294 -0.41608846
-0.061928835 -0.36016151 -0.41608483
-0.061926305 -0.36009559 -0.41608328
-0.061923776 -0.36002967 -0.4160817
-0.061921168 -0.35996172 -0.41608006
-0.061918542 -0.35989577 -0.4160805
-0.061916128 -0.35982791 -0.41607487
-0.061913617 -0.35976002 -0.41607127
-0.061911397 -0.35969228 -0.41606164
-0.061909374 -0.35962459 -0.41604805
-0.06190725 -0.35955688 -0.41603646
-0.061904743 -0.35948899 -0.41603282
-0.061902329 -0.35942116 -0.41602722
-0.061900187 -0.35935539 -0.41601765
-0.061898183 -0.35928577 -0.41600201
-0.061895963 -0.35921803 -0.41599238
-0.061893646 -0.35915023 -0.41598478
-0.061891213 -0.35908434 -0.4159812
-0.061888702 -0.35901645 -0.4159776
-0.061886583 -0.35894874 -0.41596597
-0.061884556 -0.35888109 -0.41595238
-0.061882436 -0.35881338 -0.41594076
-0.061880331 -0.3587437 -0.41592711
-0.061878212 -0.35867599 -0.41591552
-0.061876088 -0.35860828 -0.41590393
-0.061874162 -0.35854065 -0.41588831
-0.061871845 -0.35847285 -0.41588068
-0.061869431 -0.35840502 -0.41587508
-0.061866999 -0.35833913 -0.4158715
-0.061864778 -0.35827136 -0.4158619
-0.061862677 -0.35820171 -0.41584826
-0.061860751 -0.35813409 -0.41583264
-0.061858337 -0.35806623 -0.41582704
-0.061856002 -0.3580004 -0.41582146
-0.061853491 -0.35793251 -0.41581786
-0.061851077 -0.35786465 -0.41581225
-0.061848763 -0.35779685 -0.41580462
-0.061846349 -0.35772902 -0.41579902
-0.061843917 -0.35766312 -0.41579545
-0.061841309 -0.35759521 -0.41579384
-0.061838973 -0.35752934 -0.41578826
-0.061837066 -0.35745978 -0.41577062
-0.061835233 -0.35739219 -0.41575301
-0.061833017 -0.35732445 -0.41574341
-0.061830506 -0.35725656 -0.41573977
-0.061828092 -0.3571887 -0.41573417
-0.061825775 -0.3571209 -0.41572654
-0.061823655 -0.35705319 -0.41571495
-0.061821416 -0.35698742 -0.41570738
-0.061819099 -0.35691962 -0.41569978
-0.061816685 -0.35685176 -0.41569418
-0.061814468 -0.35678402 -0.41568455
-0.061811939 -0.35671806 -0.41568297
-0.061809331 -0.35665014 -0.41568136
-0.061806917 -0.35658231 -0.41567576
-0.061804388 -0.35651636 -0.41567418
-0.06180178 -0.35644844 -0.41567254
-0.061799444 -0.35638258 -0.415667
-0.061796933 -0.35631472 -0.41566336
-0.061794616 -0.35624692 -0.41565576
-0.061792303 -0.35617912 -0.41564816
-0.061790083 -0.35611135 -0.41563854
-0.06178806 -0.3560437 -0.41562492
-0.061786033 -0.35597602 -0.41561133
-0.061784104 -0.35590839 -0.41559571
-0.061782274 -0.3558408 -0.41557813
-0.06178027 -0.35577118 -0.41556248
-0.06177834 -0.35570356 -0.41554689
-0.061776221 -0.35563585 -0.41553527
-0.061774001 -0.35556811 -0.41552567
-0.061771762 -0.35550231 -0.41551811
-0.061769348 -0.35543445 -0.4155125
-0.061767034 -0.35536665 -0.41550487
-0.06176462 -0.35529882 -0.41549927
-0.061762188 -0.35523292 -0.41549569
-0.06175958 -0.355165 -0.41549405
-0.061757069 -0.35509712 -0.41549045
-0.06175483 -0.35503131 -0.41548288
-0.061752416 -0.35496348 -0.41547728
-0.061750006 -0.35489562 -0.41547167
-0.06174757 -0.35482973 -0.4154681
-0.061745062 -0.35476184 -0.41546446
-0.061742552 -0.35469395 -0.41546085
-0.06174041 -0.35462821 -0.41545129
-0.061738212 -0.3545585 -0.41543964
-0.061736185 -0.35449082 -0.41542602
-0.061733849 -0.35442498 -0.41542047
-0.061731532 -0.35435718 -0.41541284
-0.061729509 -0.35428953 -0.41539925
-0.061727796 -0.35422003 -0.41537762
-0.061725847 -0.35415435 -0.41536406
-0.061723549 -0.35408461 -0.4153544
-0.061721601 -0.35401893 -0.41534084
-0.061719287 -0.35395113 -0.41533324
-0.061716583 -0.35388318 -0.4153336
-0.061714441 -0.3538174 -0.41532403
-0.061712243 -0.3537477 -0.41531238
-0.061709907 -0.35368186 -0.41530681
-0.06170759 -0.35361406 -0.41529921
-0.061705466 -0.35354635 -0.41528761
-0.061703347 -0.35347864 -0.41527599
-0.06170103 -0.35341084 -0.41526839
-0.061698984 -0.35334513 -0.41525683
-0.061696958 -0.35327744 -0.41524321
-0.061694741 -0.3532097 -0.41523361
-0.061692424 -0.3531419 -0.41522601
-0.061690204 -0.35307413 -0.41521639
-0.061687868 -0.3530083 -0.41521084
-0.061685361 -0.35294041 -0.41520721
-0.061683044 -0.35287261 -0.41519958
-0.061681096 -0.35280696 -0.41518605
-0.061678778 -0.35273916 -0.41517842
-0.061676074 -0.35267118 -0.41517881
-0.061673544 -0.35260522 -0.41517723
-0.061671227 -0.35253745 -0.41516963
-0.061668795 -0.35247156 -0.41516605
-0.061666187 -0.35240361 -0.41516444
-0.061663777 -0.35233578 -0.41515881
-0.061661731 -0.35227007 -0.41514724
-0.061659802 -0.35220245 -0.41513166
-0.061657779 -0.35213476 -0.41511804
-0.061655559 -0.35206702 -0.41510844
-0.061652951 -0.3519991 -0.41510683
-0.061650712 -0.3519333 -0.41509926
-0.061648685 -0.35186562 -0.41508567
-0.061646469 -0.35179788 -0.41507605
-0.061644055 -0.35173002 -0.41507041
-0.061642107 -0.35166436 -0.41505688
-0.061640181 -0.35159674 -0.41504127
-0.06163767 -0.35152885 -0.41503766
-0.061635043 -0.35146287 -0.41503808
-0.061632533 -0.35139498 -0.41503447
-0.061630409 -0.35132727 -0.41502285
-0.06162817 -0.35126147 -0.41501528
-0.061625756 -0.35119364 -0.41500968
-0.061623517 -0.35112783 -0.41500211
-0.06162101 -0.35105994 -0.4149985
-0.061618499 -0.35099205 -0.41499487
-0.061616357 -0.35092628 -0.41498533
-0.061614137 -0.35085854 -0.4149757
-0.061611801 -0.35079271 -0.41497013
-0.061609291 -0.35072482 -0.41496652
-0.061606877 -0.35065696 -0.41496092
-0.061604638 -0.35059115 -0.41495335
-0.061602131 -0.35052326 -0.41494972
-0.061599791 -0.35045743 -0.41494417
-0.061597768 -0.35038978 -0.41493055
-0.061595548 -0.35032201 -0.41492096
-0.061593503 -0.35025629 -0.41490939
-0.061591674 -0.35018873 -0.41489178
-0.06158955 -0.35012102 -0.41488019
-0.061587039 -0.35005313 -0.41487658
-0.06158451 -0.34998718 -0.414875
-0.061582174 -0.34992135 -0.41486943
-0.06157976 -0.34985349 -0.41486382
-0.061577231 -0.34978756 -0.41486225
-0.061574817 -0.34971973 -0.41485661
-0.0615726 -0.34965196 -0.41484702
-0.061570264 -0.34958613 -0.41484144
-0.061567657 -0.34951818 -0.41483983
-0.061565321 -0.34945235 -0.41483426
-0.061562907 -0.34938452 -0.41482866
-0.061560474 -0.34931862 -0.41482508
-0.061558332 -0.34925285 -0.41481552
-0.061556306 -0.3491852 -0.4148019
-0.061554283 -0.34911752 -0.41478831
-0.061552256 -0.34904987 -0.41477472
-0.061550211 -0.34898415 -0.41476315
-0.061547991 -0.34891638 -0.41475356
-0.061545774 -0.34884864 -0.41474393
-0.061543923 -0.34878302 -0.41472837
-0.061541509 -0.34871516 -0.41472274
-0.061538979 -0.34864923 -0.41472119
-0.061536547 -0.34858334 -0.41471761
-0.061534133 -0.34851551 -0.41471201
-0.0615317 -0.34844962 -0.41470844
-0.061529189 -0.34838173 -0.4147048
-0.06152695 -0.34831592 -0.41469723
-0.061524924 -0.34824824 -0.41468364
-0.06152261 -0.34818047 -0.41467601
-0.061520174 -0.34811458 -0.41467246
-0.061518151 -0.3480469 -0.41465884
-0.061516203 -0.34798124 -0.41464531
-0.061513983 -0.34791347 -0.41463569
-0.061512131 -0.34784785 -0.41462013
-0.061510302 -0.34778029 -0.41460255
-0.061508082 -0.34771252 -0.41459292
-0.061505649 -0.34764662 -0.41458935
-0.061503313 -0.34758079 -0.4145838
-0.061500899 -0.34751293 -0.4145782
-0.061498467 -0.34744707 -0.41457462
-0.061496247 -0.3473793 -0.414565
-0.061494298 -0.34731364 -0.41455144
-0.061492059 -0.34724784 -0.4145439
-0.061489549 -0.34717995 -0.41454026
-0.061487019 -0.347114 -0.41453868
-0.061484605 -0.34704617 -0.41453308
-0.061482269 -0.34698033 -0.41452751
-0.061479837 -0.34691444 -0.41452396
-0.06147752 -0.34684664 -0.41451633
-0.061475184 -0.34678078 -0.41451076
-0.061472576 -0.34671286 -0.41450915
-0.061470434 -0.34664711 -0.41449958
-0.061468486 -0.34658143 -0.41448602
-0.061466075 -0.3465136 -0.41448039
-0.06146374 -0.34644774 -0.41447484
-0.061461713 -0.34638008 -0.41446126
-0.061459474 -0.34631428 -0.41445369
-0.061457429 -0.34624857 -0.41444212
-0.061455403 -0.34618089 -0.4144285
-0.061453551 -0.34611526 -0.41441298
-0.061451141 -0.34604743 -0.41440734
-0.061448704 -0.34598154 -0.41440377
-0.061446369 -0.3459157 -0.41439819
-0.061444249 -0.34584799 -0.4143866
-0.061442398 -0.34578237 -0.41437104
-0.06144008 -0.34571457 -0.41436344
-0.061437745 -0.34564871 -0.41435787
-0.061435409 -0.34558287 -0.4143523
-0.061432898 -0.34551498 -0.41434869
-0.061430272 -0.345449 -0.41434911
-0.061427742 -0.34538308 -0.41434753
-0.061425231 -0.34531519 -0.41434392
-0.061423089 -0.34524944 -0.41433436
-0.061421044 -0.34518373 -0.41432279
-0.061418727 -0.34511593 -0.41431519
-0.061416585 -0.34505016 -0.41430563
-0.061414734 -0.34498453 -0.41429007
-0.061412513 -0.34491679 -0.41428047
-0.061410468 -0.34485108 -0.41426891
-0.061408617 -0.34478545 -0.41425335
-0.0614064 -0.34471768 -0.41424373
-0.061404355 -0.34465197 -0.41423219
-0.061402407 -0.34458631 -0.4142186
-0.061400283 -0.3445186 -0.41420701
-0.061398044 -0.3444528 -0.41419947
-0.061395708 -0.34438694 -0.4141939
-0.061393179 -0.34432101 -0.41419232
-0.061390571 -0.34425309 -0.41419071
-0.061387945 -0.34418711 -0.41419113
-0.061385512 -0.34412122 -0.41418755
-0.061383389 -0.34405351 -0.41417593
-0.061381344 -0.34398779 -0.41416439
-0.061379105 -0.34392199 -0.41415682
-0.061376866 -0.34385619 -0.41414925
-0.06137453 -0.34379035 -0.41414368
-0.061070584 -0.33824202 -0.41591963
-0.061067007 -0.33817366 -0.41593796
-0.06104473 -0.33743912 -0.41579658
-0.061037604 -0.33736521 -0.41588473
-0.061031722 -0.33729383 -0.41594896
-0.061024576 -0.33722189 -0.41603917
-0.061017256 -0.33714792 -0.41613132
-0.061013095 -0.33707929 -0.41616166
-0.061010104 -0.33701116 -0.41616803
-0.061006814 -0.33694294 -0.41618037
-0.061002292 -0.33687216 -0.41621664
-0.061001465 -0.3362298 -0.41570178
-0.060997501 -0.33616126 -0.41572812
-0.061049685 -0.33535051 -0.41396233
-0.061045043 -0.33528167 -0.41400266
-0.061042145 -0.3352136 -0.41400704
-0.061039418 -0.33514759 -0.41400945
-0.061036792 -0.33508161 -0.41400987
-0.061034746 -0.33501589 -0.41399831
-0.061032701 -0.33495018 -0.41398674
-0.061030753 -0.33488452 -0.41397321
-0.060955733 -0.33419874 -0.41497794
-0.060952738 -0.33413064 -0.41498429
-0.060950112 -0.33406466 -0.4149847
-0.060959276 -0.33326781 -0.41413248
-0.060957424 -0.33320218 -0.41411692
-0.060955089 -0.33313635 -0.41411135
-0.060952269 -0.33307028 -0.41411576
-0.060941048 -0.33224651 -0.41366848
-0.060899213 -0.33118117 -0.41366306
-0.060895171 -0.33111063 -0.41368935
-0.060859166 -0.33097458 -0.41433153
-0.060858652 -0.33091152 -0.41429007
-0.060884342 -0.33066204 -0.41354477
-0.060881056 -0.33059379 -0.41355711
-0.060761169 -0.33021164 -0.41575402
-0.060759321 -0.33014601 -0.41573849
-0.060758222 -0.33008271 -0.41570899
-0.06075868 -0.33002007 -0.41564757
-0.060757101 -0.32995653 -0.41562808
-0.060753349 -0.32988614 -0.41564834
-0.060747698 -0.32981095 -0.41570452
-0.060743559 -0.32974035 -0.4157328
-0.060736127 -0.32941502 -0.41561913
-0.060735613 -0.32935196 -0.41557765
-0.060766689 -0.32754412 -0.41342843
-0.060763501 -0.32747594 -0.4134388
-0.060759827 -0.32740754 -0.41345912
-0.062055573 -0.36396867 -0.41657519
-0.062052868 -0.36390069 -0.41657555
-0.062050551 -0.36383289 -0.41656795
-0.062048331 -0.36376512 -0.41655833
-0.062045727 -0.3636972 -0.41655672
-0.062043097 -0.36363122 -0.41655713
-0.06204088 -0.36356348 -0.41654754
-0.062038779 -0.3634938 -0.41653389
-0.062036753 -0.36342615 -0.4165203
-0.062034555 -0.36335641 -0.41650862
-0.062032335 -0.36328867 -0.41649902
-0.06203033 -0.36321905 -0.41648337
-0.062028714 -0.36314961 -0.41645974
-0.06202659 -0.3630819 -0.41644812
-0.062024374 -0.36301413 -0.41643852
-0.062022056 -0.36294633 -0.41643092
-0.062019762 -0.36287659 -0.41642123
-0.062017426 -0.36281073 -0.41641569
-0.062014915 -0.36274284 -0.41641206
-0.062012695 -0.3626751 -0.41640246
-0.062010478 -0.36260733 -0.41639286
-0.062008064 -0.3625395 -0.41638723
-0.062005747 -0.3624717 -0.41637963
-0.062003434 -0.3624039 -0.416372
-0.06200102 -0.36233607 -0.4163664
-0.061998297 -0.36227003 -0.41636881
-0.061995786 -0.36220217 -0.41636521
-0.061993565 -0.3621344 -0.41635558
-0.061991349 -0.36206663 -0.41634598
-0.061988935 -0.3619988 -0.41634035
-0.061986811 -0.36193109 -0.41632876
-0.061984595 -0.36186334 -0.41631916
-0.061982375 -0.36179557 -0.41630954
-0.061980352 -0.36172792 -0.41629595
-0.06197815 -0.36165822 -0.41628429
-0.061975837 -0.36159042 -0.41627669
-0.06197352 -0.36152261 -0.41626906
-0.061971299 -0.36145484 -0.41625947
-0.061969083 -0.3613871 -0.41624984
-0.06196665 -0.36132121 -0.41624629
-0.061964236 -0.36125335 -0.41624066
-0.061962016 -0.36118561 -0.41623104
-0.061959699 -0.36111781 -0.41622344
-0.061957482 -0.36105007 -0.41621384
-0.061955068 -0.36098221 -0.41620821
-0.061952658 -0.36091438 -0.4162026
-0.061950438 -0.36084661 -0.41619301
-0.061948314 -0.3607789 -0.41618139
-0.061946195 -0.36071119 -0.41616976
-0.061943896 -0.36064145 -0.41616014
-0.061941776 -0.36057374 -0.41614851
-0.061939966 -0.36050418 -0.41612887
-0.061937824 -0.36043844 -0.41611931
-0.061935216 -0.36037052 -0.4161177
-0.061933093 -0.36030281 -0.4161061
-0.061931089 -0.36023319 -0.41609043
-0.061928675 -0.36016533 -0.41608483
-0.061925951 -0.36009932 -0.41608724
-0.061923422 -0.36003339 -0.41608566
-0.061920814 -0.35996544 -0.41608405
-0.061918091 -0.35989943 -0.41608647
-0.06191558 -0.35983154 -0.41608286
-0.061913364 -0.35976377 -0.41607326
-0.061911121 -0.359698 -0.41606569
-0.061908904 -0.35963023 -0.41605607
-0.061906707 -0.35956052 -0.41604441
-0.061904293 -0.35949269 -0.41603881
-0.061902151 -0.35942692 -0.41602924
-0.061900027 -0.3593592 -0.41601765
-0.061897829 -0.3592895 -0.41600597
-0.061895609 -0.35922176 -0.41599637
-0.061893392 -0.35915399 -0.41598678
-0.061891153 -0.35908818 -0.41597921
-0.061888739 -0.35902035 -0.4159736
-0.061886713 -0.35895267 -0.41595998
-0.061884593 -0.35888496 -0.41594839
-0.061882179 -0.35881713 -0.41594276
-0.061879862 -0.35874933 -0.41593516
-0.061877646 -0.35868156 -0.41592556
-0.061875328 -0.35861376 -0.41591793
-0.061873496 -0.3585462 -0.41590035
-0.061871395 -0.35847652 -0.4158867
-0.061869252 -0.35841078 -0.4158771
-0.061866842 -0.35834292 -0.4158715
-0.061864525 -0.35827512 -0.4158639
-0.061862402 -0.3582074 -0.41585231
-0.061860282 -0.35813969 -0.41584069
-0.061857965 -0.35807192 -0.41583309
-0.061855551 -0.35800406 -0.41582745
-0.061853141 -0.35793623 -0.41582185
-0.061850727 -0.35786837 -0.41581622
-0.061848506 -0.35780063 -0.41580662
-0.061846267 -0.35773483 -0.41579905
-0.061843757 -0.35766694 -0.41579545
-0.061841346 -0.35759908 -0.41578984
-0.061839126 -0.35753134 -0.41578022
-0.0618372 -0.35746372 -0.41576463
-0.06183527 -0.3573961 -0.41574901
-0.061832856 -0.35732824 -0.41574341
-0.061830349 -0.35726035 -0.41573977
-0.06182801 -0.35719451 -0.41573423
-0.0618256 -0.35712668 -0.4157286
-0.061823186 -0.35705882 -0.415723
-0.061820868 -0.35699102 -0.41571537
-0.061818555 -0.35692322 -0.41570777
-0.061816119 -0.35685733 -0.41570419
-0.061814114 -0.35678771 -0.41568854
-0.061811972 -0.35672197 -0.41567898
-0.061809171 -0.35665396 -0.41568136
-0.061806545 -0.35658798 -0.41568178
-0.061803937 -0.35652003 -0.41568017
-0.06180143 -0.35645217 -0.41567653
-0.061799094 -0.3563863 -0.41567099
-0.06179668 -0.35631847 -0.41566536
-0.061794363 -0.35625067 -0.41565776
-0.061792124 -0.35618487 -0.41565019
-0.061790023 -0.35611519 -0.41563654
-0.061788093 -0.35604757 -0.41562092
-0.061785951 -0.35598183 -0.41561139
-0.061783753 -0.35591212 -0.4155997
-0.061781924 -0.35584453 -0.41558212
-0.061779995 -0.35577691 -0.4155665
-0.061777972 -0.35570925 -0.41555291
-0.061775751 -0.35564148 -0.41554332
-0.061773725 -0.35557383 -0.41552973
-0.061771411 -0.35550603 -0.4155221
-0.061768997 -0.35543817 -0.41551647
-0.06176668 -0.35537037 -0.41550887
-0.061764345 -0.35530454 -0.41550329
-0.061761737 -0.35523659 -0.41550168
-0.06175923 -0.3551687 -0.41549808
-0.061756793 -0.35510284 -0.4154945
-0.061754383 -0.35503498 -0.41548887
-0.061752357 -0.35496733 -0.41547528
-0.061749846 -0.35489944 -0.41547167
-0.061747123 -0.35483342 -0.41547409
-0.061744515 -0.35476547 -0.41547245
-0.061742373 -0.35469973 -0.41546291
-0.061740156 -0.35463196 -0.41545328
-0.061738148 -0.35456234 -0.41543764
-0.061736222 -0.35449472 -0.41542205
-0.061733808 -0.35442689 -0.41541642
-0.061731376 -0.354361 -0.41541284
-0.061729349 -0.35429332 -0.41539925
-0.061727617 -0.35422578 -0.41537964
-0.061725691 -0.35415816 -0.41536406
-0.061723489 -0.35408846 -0.4153524
-0.061721347 -0.35402271 -0.41534284
-0.06171874 -0.35395476 -0.41534123
-0.06171621 -0.35388884 -0.41533965
-0.061713994 -0.35382107 -0.41533005
-0.06171187 -0.35375336 -0.41531843
-0.061709553 -0.35368556 -0.41531083
-0.061707217 -0.35361972 -0.41530526
-0.061705001 -0.35355198 -0.41529566
-0.061702974 -0.3534843 -0.41528204
-0.061700851 -0.35341659 -0.41527045
-0.061698537 -0.35334879 -0.41526282
-0.061696511 -0.35328114 -0.41524923
-0.061694197 -0.35321334 -0.4152416
-0.061692052 -0.35314757 -0.41523206
-0.061690047 -0.35307795 -0.41521639
-0.061687712 -0.35301211 -0.41521084
-0.061685085 -0.35294613 -0.41521126
-0.061682887 -0.35287642 -0.41519961
-0.061680842 -0.35281071 -0.41518804
-0.061678331 -0.35274282 -0.41518444
-0.061675705 -0.35267684 -0.41518486
-0.061673097 -0.35260892 -0.41518325
-0.061670877 -0.35254115 -0.41517362
-0.061668638 -0.35247535 -0.41516605
-0.061666127 -0.35240746 -0.41516244
-0.061663717 -0.35233963 -0.41515684
-0.061661672 -0.35227391 -0.41514528
-0.061659742 -0.35220629 -0.41512966
-0.061657622 -0.35213858 -0.41511807
-0.061655402 -0.35207081 -0.41510844
-0.061652891 -0.35200295 -0.41510484
-0.061650652 -0.35193714 -0.41509727
-0.061648335 -0.35186934 -0.41508967
-0.061646022 -0.35180154 -0.41508204
-0.061643783 -0.35173574 -0.41507447
-0.061641756 -0.35166806 -0.41506088
-0.061639637 -0.35160035 -0.41504925
-0.061637223 -0.35153252 -0.41504365
-0.06163479 -0.35146663 -0.41504008
-0.061632376 -0.3513988 -0.41503447
-0.061630253 -0.35133108 -0.41502288
-0.061628111 -0.35126531 -0.41501331
-0.061625503 -0.35119739 -0.41501167
-0.061623167 -0.35113153 -0.41500613
-0.06162066 -0.35106364 -0.4150025
-0.061618321 -0.35099781 -0.41499692
-0.061616201 -0.35093009 -0.41498533
-0.06161369 -0.35086221 -0.41498172
-0.061611257 -0.35079631 -0.41497815
-0.061608747 -0.35072842 -0.41497451
-0.061606411 -0.35066259 -0.41496897
-0.061604094 -0.35059479 -0.41496134
-0.06160178 -0.35052699 -0.41495374
-0.061599638 -0.35046124 -0.41494417
-0.061597612 -0.35039356 -0.41493058
-0.061595391 -0.35032582 -0.41492096
-0.061593056 -0.35025996 -0.41491538
-0.061591033 -0.35019231 -0.41490179
-0.061589006 -0.35012463 -0.4148882
-0.061586887 -0.35005692 -0.41487658
-0.061584644 -0.34999111 -0.41486901
-0.061582211 -0.34992522 -0.41486543
-0.061579507 -0.34985727 -0.41486582
-0.061576881 -0.34979129 -0.41486624
-0.061574467 -0.34972343 -0.41486064
-0.061572324 -0.34965768 -0.41485107
-0.061569817 -0.34958979 -0.41484746
-0.061567381 -0.3495239 -0.41484389
-0.061564874 -0.34945601 -0.41484028
-0.061562557 -0.34938821 -0.41483265
-0.061560318 -0.34932241 -0.41482508
-0.061558273 -0.34925669 -0.41481352
-0.061556246 -0.34918904 -0.41479993
-0.06155403 -0.34912127 -0.41479033
-0.061551906 -0.34905356 -0.41477871
-0.061550152 -0.348988 -0.41476116
-0.061547935 -0.34892023 -0.41475156
-0.061545521 -0.3488524 -0.41474593
