# .PCD v0.7 - Point Cloud Data file format
VERSION 0.7
FIELDS x y z
SIZE 4 4 4
TYPE F F F
COUNT 1 1 1
WIDTH 1304
HEIGHT 1
VIEWPOINT 0 0 0 1 0 0 0
POINTS 1304
DATA ascii
-0.061298862 -0.35097986 -0.42168233
-0.061296277 -0.35090998 -0.42167866
-0.061294369 -0.35084039 -0.42166102
-0.06129219 -0.35076874 -0.42164731
-0.061289702 -0.35069889 -0.42164165
-0.061287116 -0.350629 -0.42163801
-0.061284527 -0.35055912 -0.42163432
-0.061282039 -0.35048929 -0.42162865
-0.061279569 -0.35041749 -0.42162097
-0.061277177 -0.3503477 -0.42161331
-0.061274592 -0.35027781 -0.42160964
-0.061272006 -0.35020792 -0.42160597
-0.06126973 -0.35013622 -0.42159426
-0.061267242 -0.35006636 -0.4215886
-0.061264362 -0.34999636 -0.42159092
-0.061261777 -0.34992647 -0.42158729
-0.061259288 -0.34985662 -0.4215816
-0.061256602 -0.3497867 -0.42157996
-0.061254136 -0.34971491 -0.42157221
-0.061251547 -0.34964502 -0.42156857
-0.061248768 -0.34957504 -0.4215689
-0.06124628 -0.34950522 -0.42156324
-0.061243981 -0.34943545 -0.42155358
-0.061241493 -0.34936562 -0.42154792
-0.061238907 -0.34929574 -0.42154425
-0.061236631 -0.34922403 -0.42153254
-0.06123453 -0.34915435 -0.42151889
-0.061232235 -0.34908462 -0.42150924
-0.061229765 -0.34901282 -0.42150152
-0.061227277 -0.34894297 -0.42149585
-0.061224692 -0.34887308 -0.42149219
-0.061222203 -0.34880325 -0.42148653
-0.061219808 -0.34873345 -0.42147887
-0.061217338 -0.34866166 -0.42147118
-0.061214946 -0.34859186 -0.42146352
-0.061212555 -0.34852207 -0.42145586
-0.06121026 -0.3484523 -0.4214462
-0.061207868 -0.3483825 -0.42143854
-0.061205398 -0.34831071 -0.42143083
-0.061203007 -0.34824091 -0.42142317
-0.061200611 -0.34817111 -0.42141551
-0.061198123 -0.34810129 -0.42140985
-0.061195731 -0.34803149 -0.42140219
-0.061193243 -0.34796163 -0.42139652
-0.061190948 -0.3478919 -0.42138687
-0.061188575 -0.34782013 -0.42137718
-0.061186377 -0.34775043 -0.4213655
-0.061184272 -0.34768075 -0.42135185
-0.061182268 -0.34761113 -0.4213362
-0.061180092 -0.34753948 -0.42132252
-0.061177798 -0.34746972 -0.42131287
-0.061175499 -0.34739998 -0.42130321
-0.061173107 -0.34733018 -0.42129552
-0.061170813 -0.34726042 -0.42128587
-0.061168324 -0.34719059 -0.42128021
-0.061165836 -0.34712073 -0.42127454
-0.06116344 -0.34705094 -0.42126691
-0.061160758 -0.34698102 -0.42126524
-0.061158173 -0.34691113 -0.42126155
-0.061155781 -0.34684134 -0.42125392
-0.061153214 -0.34676948 -0.4212482
-0.061150704 -0.34670159 -0.42124459
-0.061148312 -0.3466318 -0.42123693
-0.061146036 -0.34656009 -0.42122522
-0.061143644 -0.34649029 -0.42121756
-0.061141156 -0.34642047 -0.4212119
-0.061138663 -0.34635061 -0.42120624
-0.061136078 -0.34628072 -0.42120257
-0.06113359 -0.3462109 -0.42119691
-0.061131198 -0.3461411 -0.42118925
-0.061128899 -0.34607136 -0.42117959
-0.061126508 -0.34600157 -0.42117193
-0.061124019 -0.34593171 -0.42116627
-0.061121531 -0.34586188 -0.42116061
-0.061119042 -0.34579203 -0.42115495
-0.061116453 -0.34572214 -0.42115128
-0.061113965 -0.34565231 -0.42114562
-0.061111961 -0.34558269 -0.42112997
-0.061109956 -0.34551305 -0.42111433
-0.061107758 -0.34544334 -0.42110267
-0.061105579 -0.34537169 -0.42108896
-0.061103381 -0.34530199 -0.42107731
-0.061101086 -0.34523222 -0.42106766
-0.061099663 -0.34516287 -0.42104003
-0.06109824 -0.34509352 -0.4210124
-0.061094876 -0.34502327 -0.42102471
-0.061090816 -0.3449547 -0.42105305
-0.061087746 -0.34488457 -0.42105937
-0.061085254 -0.34481475 -0.42105371
-0.061083153 -0.34474507 -0.42104006
-0.061080955 -0.34467536 -0.42102841
-0.061078757 -0.34460565 -0.42101675
-0.061076947 -0.34453613 -0.42099708
-0.061075136 -0.3444666 -0.42097747
-0.061073132 -0.34439698 -0.4209618
-0.061071243 -0.34432542 -0.42094213
-0.061069801 -0.34425804 -0.42091653
-0.061068378 -0.34418869 -0.4208889
-0.061066493 -0.34411713 -0.4208692
-0.061063692 -0.34404913 -0.42087159
-0.06106101 -0.34397921 -0.42086992
-0.061059199 -0.34390965 -0.42085028
-0.061059229 -0.34384096 -0.4207927
-0.061060056 -0.34377065 -0.42071706
-0.061049305 -0.34369904 -0.42088321
-0.061047107 -0.34362933 -0.42087156
-0.061044518 -0.34355944 -0.42086789
-0.06104172 -0.34349144 -0.42087027
-0.061038841 -0.34342143 -0.4208726
-0.061036158 -0.34335148 -0.42087093
-0.06103396 -0.34328178 -0.42085928
-0.061031763 -0.34321207 -0.42084762
-0.061029464 -0.3431423 -0.42083797
-0.061027072 -0.3430725 -0.42083031
-0.061024778 -0.34300277 -0.42082065
-0.061022192 -0.34293288 -0.42081699
-0.06101951 -0.34286296 -0.42081532
-0.061016999 -0.34279507 -0.42081171
-0.061014511 -0.34272522 -0.42080605
-0.061012115 -0.34265542 -0.42079836
-0.061009627 -0.34258559 -0.4207927
-0.061007429 -0.34251589 -0.42078105
-0.061005522 -0.3424463 -0.4207634
-0.061003517 -0.34237668 -0.42074776
-0.061001297 -0.34230894 -0.42073816
-0.060999002 -0.34223917 -0.4207285
-0.060996804 -0.34216946 -0.42071685
-0.060994703 -0.34209979 -0.4207032
-0.060992602 -0.34203014 -0.42068955
-0.060990501 -0.34196046 -0.42067587
-0.0609883 -0.34189075 -0.42066425
-0.060985696 -0.34182283 -0.42066261
-0.0609833 -0.34175304 -0.42065495
-0.060981005 -0.34168327 -0.4206453
-0.060978808 -0.34161356 -0.42063364
-0.060976222 -0.34154367 -0.42062998
-0.060972665 -0.34147337 -0.42064628
-0.060969673 -0.34140524 -0.42065266
-0.060967278 -0.34133545 -0.420645
-0.06096508 -0.34126574 -0.42063335
-0.060962785 -0.341196 -0.42062369
-0.060960684 -0.34112632 -0.42061004
-0.060958464 -0.34105858 -0.42060041
-0.060955781 -0.34098864 -0.42059875
-0.060953487 -0.3409189 -0.42058909
-0.060951386 -0.34084922 -0.42057544
-0.060949281 -0.34077957 -0.42056179
-0.060948811 -0.34071261 -0.42051625
-0.060947195 -0.34064314 -0.42049259
-0.060943928 -0.34057295 -0.42050293
-0.060938433 -0.34050176 -0.42055917
-0.060931578 -0.34042993 -0.42064339
-0.060925715 -0.34035662 -0.42070556
-0.060924951 -0.3402895 -0.42066601
-0.060926806 -0.34022361 -0.42057252
-0.060926642 -0.34015483 -0.42051893
-0.060924057 -0.34008494 -0.42051524
-0.060921546 -0.34001705 -0.42051163
-0.060919445 -0.33994737 -0.42049798
-0.060917441 -0.33987775 -0.42048234
-0.060915049 -0.33980796 -0.42047468
-0.060912538 -0.33974007 -0.42047107
-0.060910244 -0.33967033 -0.42046142
-0.060907949 -0.33960056 -0.42045176
-0.060905363 -0.33953068 -0.42044806
-0.060902871 -0.33946085 -0.4204424
-0.060900655 -0.33939308 -0.42043281
-0.060898457 -0.33932337 -0.42042115
-0.060896061 -0.33925357 -0.42041349
-0.060893457 -0.33918566 -0.42041188
-0.060890481 -0.33911559 -0.42041621
-0.060887508 -0.33904552 -0.42042053
-0.06088531 -0.33897582 -0.42040887
-0.060883597 -0.33890632 -0.42038724
-0.060881473 -0.33883861 -0.42037562
-0.060878985 -0.33876878 -0.42036995
-0.060876496 -0.33869892 -0.42036429
-0.060873888 -0.338631 -0.42036268
-0.060871594 -0.33856127 -0.42035303
-0.060869299 -0.3384915 -0.42034337
-0.06086671 -0.33842161 -0.4203397
-0.060864203 -0.33835372 -0.42033607
-0.06086171 -0.3382839 -0.42033041
-0.060859222 -0.33821404 -0.42032474
-0.060857296 -0.33814642 -0.42030916
-0.060855389 -0.33807686 -0.42029151
-0.060853187 -0.33800715 -0.42027986
-0.060851067 -0.33793944 -0.42026824
-0.060847141 -0.33786696 -0.4202905
-0.060844451 -0.33773226 -0.42023534
-0.060842544 -0.33766267 -0.42021769
-0.060840517 -0.33759502 -0.4202041
-0.060838319 -0.33752531 -0.42019242
-0.060836103 -0.33745754 -0.42018282
-0.060832664 -0.3373853 -0.4201951
-0.06082736 -0.33731419 -0.42024735
-0.060823049 -0.33724156 -0.4202776
-0.060820829 -0.33717382 -0.42026797
-0.060819872 -0.33710662 -0.42023242
-0.060818739 -0.33703741 -0.4201988
-0.060817007 -0.33696985 -0.42017919
-0.060814906 -0.3369002 -0.42016554
-0.060812976 -0.33683258 -0.42014992
-0.060811069 -0.33676299 -0.42013228
-0.060809046 -0.33669534 -0.42011869
-0.060806751 -0.33662558 -0.42010903
-0.060804918 -0.33655801 -0.42009142
-0.060803108 -0.33648846 -0.42007178
-0.060801085 -0.3364208 -0.42005819
-0.060797721 -0.33635056 -0.4200705
-0.060792826 -0.33627766 -0.42011273
-0.060789175 -0.3362073 -0.42013103
-0.06078802 -0.33614004 -0.42009944
-0.060787745 -0.33607316 -0.42004991
-0.060785253 -0.3360033 -0.42004424
-0.060781892 -0.33593309 -0.42005655
-0.060779382 -0.3358652 -0.42005292
-0.060779199 -0.33579835 -0.42000139
-0.060781986 -0.33573681 -0.41989201
-0.0607819 -0.33566999 -0.41983846
-0.060775939 -0.33559662 -0.41990265
-0.060768545 -0.33552065 -0.41999474
-0.060765665 -0.33545062 -0.41999707
-0.06076308 -0.33538073 -0.4199934
-0.060760666 -0.3353129 -0.4199878
-0.060758952 -0.3352434 -0.41996616
-0.060757879 -0.33517814 -0.41993463
-0.060754247 -0.33510581 -0.4199509
-0.060750205 -0.33503526 -0.41997719
-0.060747907 -0.33496553 -0.41996753
-0.060746755 -0.33489823 -0.41993594
-0.060746361 -0.33483326 -0.41989043
-0.060746469 -0.33476657 -0.41983289
-0.060752802 -0.33471054 -0.41965371
-0.06075855 -0.33465424 -0.41948652
-0.06075988 -0.33459204 -0.4194071
-0.060758438 -0.33452463 -0.41938153
-0.060755558 -0.3344546 -0.41938385
-0.060751714 -0.33438414 -0.41940615
-0.060746819 -0.33431128 -0.41944838
-0.060742214 -0.3342385 -0.41948459
-0.060736641 -0.3341653 -0.41954079
-0.060722735 -0.33407852 -0.41976053
-0.060719661 -0.3340084 -0.41976684
-0.060717076 -0.33393851 -0.41976318
-0.060714297 -0.33386856 -0.41976351
-0.060710449 -0.33379808 -0.4197858
-0.060706526 -0.33372563 -0.41980806
-0.060703725 -0.33365762 -0.41981044
-0.060701333 -0.33358783 -0.41980278
-0.06069855 -0.33351785 -0.41980311
-0.060695849 -0.33344987 -0.41980347
-0.060693454 -0.33338007 -0.41979581
-0.060691431 -0.33331242 -0.41978222
-0.060689718 -0.33324292 -0.41976058
-0.060687982 -0.33317539 -0.41974097
-0.06068778 -0.33311051 -0.41969147
-0.060690545 -0.33305091 -0.41958416
-0.060691215 -0.33298641 -0.41951668
-0.060687657 -0.33291608 -0.41953298
-0.060679898 -0.33283797 -0.41963103
-0.060676146 -0.33276758 -0.41965133
-0.060672902 -0.33269542 -0.41965958
-0.060669731 -0.33262527 -0.4196679
-0.060666759 -0.3325552 -0.41967225
-0.060664538 -0.33248746 -0.41966262
-0.06066329 -0.33242014 -0.41963306
-0.060663283 -0.33235535 -0.41957954
-0.060662206 -0.33229008 -0.41954803
-0.060658962 -0.33221793 -0.41955629
-0.06065521 -0.33214751 -0.41957659
-0.06065309 -0.3320798 -0.41956499
-0.060651839 -0.33201247 -0.4195354
-0.0606503 -0.33194503 -0.41951182
-0.060648374 -0.33187741 -0.41949621
-0.060646832 -0.33180997 -0.41947263
-0.060645759 -0.3317447 -0.4194411
-0.06064412 -0.3316772 -0.4194195
-0.060626823 -0.33157906 -0.41970092
-0.060618691 -0.3314988 -0.4198049
-0.060617715 -0.33143359 -0.41977137
-0.060623616 -0.33138129 -0.41960427
-0.060621418 -0.33131158 -0.41959262
-0.060621217 -0.3312467 -0.41954312
-0.060621012 -0.33118182 -0.41949362
-0.060619842 -0.3311165 -0.41946408
-0.060618009 -0.33104891 -0.41944647
-0.06061618 -0.33098134 -0.41942888
-0.060614347 -0.33091375 -0.41941127
-0.060612518 -0.33084619 -0.41939369
-0.060608983 -0.33077389 -0.41940793
-0.06060341 -0.3307007 -0.41946414
-0.060597975 -0.33062363 -0.41951427
-0.060595173 -0.33055562 -0.41951662
-0.060598131 -0.3304961 -0.41940531
-0.060595524 -0.33042818 -0.4194037
-0.060592841 -0.33035824 -0.41940203
-0.060590256 -0.33028835 -0.41939837
-0.060587551 -0.33022037 -0.41939873
-0.060584869 -0.33015046 -0.41939706
-0.06058228 -0.33008057 -0.41939342
-0.06057987 -0.33001274 -0.41938779
-0.060577087 -0.32994276 -0.41938812
-0.060574774 -0.32987496 -0.41938052
-0.060572378 -0.32980517 -0.41937286
-0.060569871 -0.32973728 -0.41936922
-0.060567748 -0.32966956 -0.41935763
-0.060565356 -0.32959977 -0.41934997
-0.060562577 -0.32952979 -0.4193503
-0.060560066 -0.3294619 -0.41934669
-0.060557675 -0.32939211 -0.419339
-0.060555745 -0.32932448 -0.41932341
-0.060554475 -0.32925913 -0.41929588
-0.060553499 -0.32919389 -0.41926235
-0.06055196 -0.32912645 -0.41923875
-0.060549643 -0.32905865 -0.41923115
-0.060547058 -0.32898876 -0.41922748
-0.060545128 -0.32892114 -0.41921189
-0.060542718 -0.32885328 -0.41920626
-0.060539179 -0.32878101 -0.41922054
-0.060536109 -0.32871091 -0.41922686
-0.060534179 -0.32864329 -0.41921124
-0.060532253 -0.32857567 -0.41919565
-0.060529277 -0.32850561 -0.41919997
-0.060526013 -0.32843542 -0.41921028
-0.060523234 -0.32836545 -0.41921061
-0.060520742 -0.32829559 -0.41920495
-0.060518429 -0.32822779 -0.41919735
-0.060516112 -0.32815999 -0.41918972
-0.060513623 -0.32809016 -0.41918406
-0.060511209 -0.3280223 -0.41917846
-0.060509186 -0.32795465 -0.41916484
-0.060507063 -0.32788694 -0.41915324
-0.060504846 -0.32781917 -0.41914365
-0.060502645 -0.32774946 -0.41913199
-0.060500793 -0.32768384 -0.41911644
-0.060499914 -0.32761866 -0.41908091
-0.060501318 -0.32755843 -0.41900152
-0.060500417 -0.32749522 -0.41896805
-0.060495641 -0.32742041 -0.41900623
-0.060490575 -0.32734546 -0.4190504
-0.060487136 -0.32727325 -0.41906267
-0.060484353 -0.32720327 -0.419063
-0.060481943 -0.32713541 -0.4190574
-0.060479626 -0.32706761 -0.41904977
-0.060477138 -0.32699779 -0.41904411
-0.06047453 -0.32692984 -0.4190425
-0.060471945 -0.32685995 -0.41903883
-0.060469724 -0.32679221 -0.41902921
-0.060467504 -0.32672447 -0.41901961
-0.060465094 -0.32665661 -0.41901401
-0.060462508 -0.32658672 -0.41901034
-0.060459822 -0.32651681 -0.41900867
-0.060457315 -0.32644892 -0.41900504
-0.060454823 -0.32637906 -0.41899937
-0.060452413 -0.32631123 -0.41899377
-0.060450386 -0.32624355 -0.41898018
-0.06044931 -0.32617828 -0.41894865
-0.060448505 -0.3261151 -0.41891316
-0.060447432 -0.32604983 -0.41888162
-0.060445309 -0.32598212 -0.41887003
-0.060442626 -0.32591218 -0.41886836
-0.060440309 -0.32584438 -0.41886073
-0.060436949 -0.32577416 -0.41887307
-0.06043322 -0.32570177 -0.41889131
-0.060430244 -0.32563174 -0.41889563
-0.060427271 -0.32556167 -0.41889995
-0.060424492 -0.3254917 -0.41890028
-0.060421981 -0.32542381 -0.41889668
-0.060419396 -0.32535392 -0.41889301
-0.060416885 -0.32528603 -0.4188894
-0.060414664 -0.32521829 -0.41887978
-0.060413104 -0.32515278 -0.41885823
-0.060411565 -0.32508534 -0.41883463
-0.060410198 -0.32501993 -0.41880912
-0.060408734 -0.32495448 -0.41878557
-0.060406517 -0.32488674 -0.41877595
-0.060403813 -0.32481876 -0.41877633
-0.060400937 -0.32474872 -0.41877866
-0.060397863 -0.32467863 -0.41878498
-0.060394697 -0.32460847 -0.41879329
-0.060391821 -0.32453847 -0.41879562
-0.060389135 -0.32446855 -0.41879395
-0.06038643 -0.32440057 -0.41879433
-0.060383845 -0.32433069 -0.41879067
-0.060381237 -0.32426274 -0.41878903
-0.060378458 -0.32419276 -0.41878939
-0.060375776 -0.32412285 -0.41878772
-0.060373362 -0.32405502 -0.41878209
-0.060371239 -0.32398731 -0.41877049
-0.060369875 -0.32392189 -0.41874495
-0.060369264 -0.3238588 -0.41870546
-0.060368169 -0.32379547 -0.41867599
-0.060366802 -0.32373005 -0.41865045
-0.060364679 -0.32366234 -0.41863886
-0.060361803 -0.32359233 -0.41864115
-0.060358267 -0.32352006 -0.41865543
-0.060355097 -0.32344991 -0.41866374
-0.060352124 -0.32337984 -0.41866806
-0.060349517 -0.32331192 -0.41866645
-0.060346931 -0.32324204 -0.41866279
-0.060344227 -0.32317406 -0.41866314
-0.06034191 -0.32310626 -0.41865554
-0.06033979 -0.32303855 -0.41864395
-0.06033757 -0.32297078 -0.41863433
-0.060335353 -0.32290304 -0.41862473
-0.060333036 -0.32283524 -0.41861713
-0.060330719 -0.32276744 -0.4186095
-0.060328308 -0.32269961 -0.4186039
-0.060326088 -0.32263184 -0.41859427
-0.060323969 -0.32256413 -0.41858268
-0.060321555 -0.32249629 -0.41857705
-0.060318947 -0.32242835 -0.41857544
-0.060316537 -0.32236052 -0.4185698
-0.060314413 -0.3222928 -0.41855821
-0.060311999 -0.32222494 -0.41855261
-0.060309414 -0.32215509 -0.41854894
-0.060307175 -0.32208928 -0.41854137
-0.060305052 -0.32202157 -0.41852975
-0.060303126 -0.32195395 -0.41851416
-0.060301274 -0.32188833 -0.41849861
-0.060299054 -0.32182056 -0.41848901
-0.060296644 -0.32175273 -0.41848338
-0.06029423 -0.32168487 -0.41847777
-0.060292207 -0.32161722 -0.41846418
-0.060290065 -0.32155144 -0.41845459
-0.060287748 -0.32148364 -0.41844699
-0.060285725 -0.32141599 -0.4184334
-0.060283773 -0.32135031 -0.41841984
-0.060281556 -0.32128257 -0.41841024
-0.060279142 -0.32121471 -0.41840461
-0.060276732 -0.32114688 -0.41839901
-0.060274415 -0.32107908 -0.41839138
-0.060272098 -0.32101128 -0.41838378
-0.060269687 -0.32094344 -0.41837817
-0.06026737 -0.32087564 -0.41837054
-0.060265053 -0.32080784 -0.41836295
-0.060262546 -0.32073995 -0.41835931
-0.060259666 -0.32066992 -0.41836166
-0.060257256 -0.32060209 -0.41835603
-0.060255211 -0.32053638 -0.41834447
-0.060252991 -0.3204686 -0.41833487
-0.06025048 -0.32040074 -0.41833124
-0.061778169 -0.36492509 -0.42321873
-0.061775606 -0.36485323 -0.42321303
-0.06177333 -0.36478153 -0.42320132
-0.061771151 -0.36470985 -0.42318764
-0.0617688 -0.36463615 -0.42317587
-0.061766427 -0.36456442 -0.42316619
-0.061763957 -0.36449262 -0.42315847
-0.061761685 -0.36442089 -0.42314678
-0.061759409 -0.36434919 -0.42313507
-0.061756961 -0.36427546 -0.42312533
-0.061754685 -0.36420375 -0.42311361
-0.061752215 -0.36413196 -0.4231059
-0.061749846 -0.36406019 -0.42309621
-0.061747473 -0.36398846 -0.42308649
-0.061744906 -0.36391661 -0.4230808
-0.061742242 -0.36384472 -0.42307708
-0.061739773 -0.36377293 -0.42306936
-0.0617375 -0.36370122 -0.42305768
-0.061734933 -0.36362937 -0.42305195
-0.061732057 -0.36355937 -0.42305428
-0.061729178 -0.36348936 -0.4230566
-0.061726514 -0.36341748 -0.42305291
-0.061723832 -0.36334753 -0.42305124
-0.061721072 -0.36327562 -0.42304951
-0.061718408 -0.36320373 -0.42304581
-0.061716039 -0.36313197 -0.4230361
-0.061713763 -0.36306027 -0.42302442
-0.061711702 -0.36298671 -0.42300665
-0.061709911 -0.36291522 -0.42298496
-0.061707657 -0.36284155 -0.42297122
-0.06170509 -0.36276972 -0.42296553
-0.061702818 -0.36269802 -0.42295381
-0.061700657 -0.36262438 -0.42293808
-0.061698169 -0.36255455 -0.42293239
-0.061695311 -0.36248258 -0.42293268
-0.061692726 -0.36241269 -0.42292902
-0.061690472 -0.36233902 -0.42291528
-0.061688196 -0.36226732 -0.4229036
-0.06168592 -0.36219561 -0.42289186
-0.06168355 -0.36212388 -0.42288217
-0.061681371 -0.3620522 -0.42286846
-0.061678827 -0.36197841 -0.42286071
-0.061676335 -0.36190856 -0.42285505
-0.061673772 -0.36183673 -0.42284936
-0.061671399 -0.36176497 -0.42283964
-0.06166891 -0.36169514 -0.42283398
-0.06166615 -0.36162323 -0.42283225
-0.061663486 -0.36155134 -0.42282856
-0.061661094 -0.36148155 -0.4228209
-0.061658528 -0.36140969 -0.42281517
-0.061655864 -0.36133781 -0.42281145
-0.061653182 -0.36126789 -0.42280978
-0.061650712 -0.3611961 -0.42280209
-0.061648339 -0.36112434 -0.42279238
-0.061645873 -0.36105254 -0.42278469
-0.061643478 -0.36098275 -0.42277703
-0.061641127 -0.36090904 -0.42276525
-0.061639048 -0.36083743 -0.42274958
-0.061636869 -0.36076576 -0.42273587
-0.061634593 -0.36069405 -0.42272419
-0.061632417 -0.36062238 -0.42271048
-0.061629754 -0.36055049 -0.42270678
-0.061627068 -0.36048058 -0.42270511
-0.061624311 -0.36040866 -0.42270339
-0.061621744 -0.36033681 -0.42269766
-0.061619468 -0.36026511 -0.42268598
-0.061617289 -0.36019343 -0.42267227
-0.061615016 -0.36012173 -0.42266059
-0.061612427 -0.36005184 -0.42265689
-0.061609864 -0.35998002 -0.4226512
-0.061607685 -0.35990834 -0.42263749
-0.061605409 -0.35983664 -0.42262578
-0.061602846 -0.35976481 -0.42262009
-0.061600376 -0.35969302 -0.42261237
-0.061597884 -0.35962316 -0.42260671
-0.061595127 -0.35955125 -0.42260501
-0.061592344 -0.35948128 -0.42260534
-0.061589781 -0.35940942 -0.42259961
-0.061587505 -0.35933772 -0.42258793
-0.061585113 -0.35926792 -0.42258027
-0.061582644 -0.35919613 -0.42257255
-0.061580077 -0.3591243 -0.42256683
-0.061577588 -0.35905445 -0.42256117
-0.061575022 -0.35898262 -0.42255548
-0.061572939 -0.35891098 -0.42253977
-0.061570667 -0.35883927 -0.42252806
-0.061568294 -0.35876754 -0.42251837
-0.061565921 -0.35869578 -0.42250866
-0.061563723 -0.35862607 -0.422497
-0.061561469 -0.3585524 -0.42248327
-0.061559174 -0.35848266 -0.42247361
-0.061556704 -0.35841087 -0.42246589
-0.061554138 -0.35833901 -0.4224602
-0.061551359 -0.35826907 -0.42246053
-0.061548773 -0.35819918 -0.42245686
-0.061546206 -0.35812733 -0.42245114
-0.061543718 -0.3580575 -0.42244548
-0.061541248 -0.35798571 -0.42243779
-0.061538972 -0.357914 -0.42242607
-0.061536502 -0.35784218 -0.42241836
-0.06153411 -0.35777238 -0.4224107
-0.061531447 -0.3577005 -0.422407
-0.061529055 -0.3576307 -0.42239934
-0.061526373 -0.35756078 -0.42239767
-0.061523516 -0.35748881 -0.42239794
-0.06152093 -0.35741892 -0.42239428
-0.061518364 -0.3573471 -0.42238858
-0.061516184 -0.35727543 -0.42237487
-0.061514106 -0.35720381 -0.42235917
-0.061511617 -0.35713395 -0.42235351
-0.061508931 -0.35706404 -0.42235184
-0.061506562 -0.35699227 -0.42234215
-0.061504189 -0.35692054 -0.42233244
-0.061501816 -0.35684878 -0.42232275
-0.061499231 -0.35677889 -0.42231908
-0.061496858 -0.35670716 -0.42230937
-0.061494973 -0.35663563 -0.42228967
-0.061492793 -0.35656396 -0.42227596
-0.061490517 -0.35649225 -0.42226428
-0.061488125 -0.35642245 -0.42225662
-0.061485365 -0.35635051 -0.42225492
-0.061482683 -0.3562806 -0.42225325
-0.061480097 -0.35621071 -0.42224956
-0.061477508 -0.35614082 -0.42224592
-0.061475042 -0.35606903 -0.4222382
-0.061472766 -0.35599732 -0.42222649
-0.06147049 -0.35592562 -0.42221481
-0.061468098 -0.35585582 -0.42220712
-0.061465628 -0.35578403 -0.42219943
-0.061463431 -0.35571432 -0.42218778
-0.061461058 -0.35564256 -0.42217806
-0.061458785 -0.35557085 -0.42216638
-0.061456196 -0.35550097 -0.42216271
-0.061453804 -0.35543117 -0.42215505
-0.061451629 -0.35535952 -0.42214134
-0.061449546 -0.35528791 -0.42212564
-0.061447076 -0.35521609 -0.42211795
-0.061444201 -0.35514608 -0.42212027
-0.061441422 -0.3550761 -0.4221206
-0.061438952 -0.35500431 -0.42211288
-0.061436851 -0.35493466 -0.42209923
-0.061434574 -0.35486296 -0.42208755
-0.061431892 -0.35479301 -0.42208588
-0.061429307 -0.35472313 -0.42208222
-0.06142674 -0.3546513 -0.42207649
-0.061424345 -0.35458151 -0.42206883
-0.061421879 -0.35450971 -0.42206112
-0.061419196 -0.35443977 -0.42205948
-0.061416607 -0.35436988 -0.42205578
-0.061414432 -0.35429823 -0.4220421
-0.061412446 -0.35422665 -0.4220244
-0.061409861 -0.35415676 -0.42202073
-0.061407197 -0.35408488 -0.42201704
-0.061404806 -0.35401508 -0.42200938
-0.061402239 -0.35394326 -0.42200366
-0.061399944 -0.35387349 -0.421994
-0.061397668 -0.35380179 -0.42198229
-0.06139547 -0.35373208 -0.42197067
-0.061393194 -0.35366037 -0.42195892
-0.061390825 -0.35358861 -0.42194924
-0.061388817 -0.35351899 -0.42193359
-0.061386351 -0.3534472 -0.42192587
-0.061383471 -0.35337719 -0.42192823
-0.061381079 -0.3533074 -0.42192054
-0.061378609 -0.3532356 -0.42191285
-0.061376315 -0.35316584 -0.42190319
-0.061373945 -0.3530941 -0.42189348
-0.061371047 -0.35302603 -0.42189786
-0.061368071 -0.35295597 -0.42190218
-0.061365604 -0.35288417 -0.42189446
-0.061363112 -0.35281432 -0.42188883
-0.061360527 -0.35274446 -0.42188513
-0.061358251 -0.35267276 -0.42187345
-0.061356053 -0.35260302 -0.4218618
-0.06135349 -0.35253119 -0.42185608
-0.061350998 -0.35246134 -0.42185041
-0.061348725 -0.35238963 -0.4218387
-0.061346523 -0.35231993 -0.42182708
-0.061344326 -0.35225022 -0.4218154
-0.061342053 -0.35217851 -0.42180371
-0.061339952 -0.35210887 -0.42179006
-0.061337676 -0.35203713 -0.42177835
-0.061335381 -0.35196739 -0.4217687
-0.061333202 -0.35189572 -0.42175499
-0.061330829 -0.35182399 -0.4217453
-0.061328631 -0.35175428 -0.42173365
-0.061326358 -0.35168257 -0.42172194
-0.061323963 -0.35161278 -0.42171428
-0.061321475 -0.35154292 -0.42170861
-0.061319083 -0.35147312 -0.42170095
-0.061316613 -0.35140133 -0.42169327
-0.061314125 -0.3513315 -0.4216876
-0.061311539 -0.35126162 -0.42168391
-0.06130895 -0.35119173 -0.42168027
-0.06130629 -0.35111985 -0.42167655
-0.061303895 -0.35105005 -0.42166889
-0.061301503 -0.35098025 -0.42166123
-0.061299112 -0.35091045 -0.42165357
-0.061296642 -0.35083866 -0.42164585
-0.061294056 -0.35076877 -0.42164218
-0.061291471 -0.35069889 -0.42163852
-0.061289098 -0.35062712 -0.42162883
-0.061287288 -0.3505576 -0.42160916
-0.061285187 -0.35048795 -0.42159554
-0.061282523 -0.35041606 -0.42159182
-0.061279938 -0.35034618 -0.42158815
-0.061277449 -0.35027632 -0.42158249
-0.061275251 -0.35020661 -0.42157084
-0.061272975 -0.35013491 -0.42155915
-0.06127039 -0.35006502 -0.42155546
-0.061267704 -0.34999511 -0.42155379
-0.061264925 -0.34992513 -0.42155415
-0.061261855 -0.34985504 -0.42156047
-0.061259072 -0.34978506 -0.42156079
-0.061256681 -0.34971526 -0.42155313
-0.061254483 -0.34964556 -0.42154145
-0.061251916 -0.3495737 -0.42153576
-0.061249524 -0.3495039 -0.4215281
-0.061247133 -0.34943411 -0.42152044
-0.061244354 -0.34936413 -0.42152077
-0.061241765 -0.34929425 -0.4215171
-0.061239686 -0.34922263 -0.4215014
-0.061237682 -0.34915301 -0.42148575
-0.061235189 -0.34908319 -0.42148009
-0.061232895 -0.34901342 -0.42147043
-0.061230719 -0.34894174 -0.42145675
-0.061228324 -0.34887195 -0.42144907
-0.061225738 -0.34880206 -0.42144543
-0.06122325 -0.34873223 -0.42143977
-0.061220955 -0.3486625 -0.42143011
-0.061218679 -0.34859076 -0.4214184
-0.06121619 -0.34852093 -0.42141274
-0.061213799 -0.34845114 -0.42140508
-0.061211601 -0.34838143 -0.42139342
-0.061209422 -0.34830976 -0.42137972
-0.061206933 -0.34823993 -0.42137405
-0.061203957 -0.34816986 -0.42137837
-0.061201274 -0.34809995 -0.42137671
-0.06119898 -0.34803018 -0.42136705
-0.061196685 -0.34796041 -0.42135739
-0.061194099 -0.34789056 -0.42135373
-0.06119151 -0.34782067 -0.42135006
-0.061189312 -0.34775096 -0.42133844
-0.061187331 -0.34767938 -0.42132074
-0.061185129 -0.34760967 -0.42130905
-0.061182834 -0.3475399 -0.4212994
-0.061180733 -0.34747025 -0.42128575
-0.061178535 -0.34740055 -0.42127413
-0.061176434 -0.34733087 -0.42126048
-0.061174158 -0.34725916 -0.42124876
-0.061171476 -0.34718925 -0.42124709
-0.061168794 -0.3471193 -0.42124543
-0.061166499 -0.34704956 -0.42123577
-0.061164007 -0.34697971 -0.42123011
-0.061161615 -0.34690991 -0.42122245
-0.06115932 -0.34684017 -0.42121279
-0.061156929 -0.34677038 -0.42120513
-0.061154537 -0.34670058 -0.42119747
-0.061152242 -0.34663081 -0.42118782
-0.061149556 -0.3465609 -0.42118615
-0.061146777 -0.34649092 -0.42118648
-0.061144482 -0.34642115 -0.42117682
-0.061142284 -0.34635144 -0.42116517
-0.061139695 -0.34628156 -0.4211615
-0.061137207 -0.34621173 -0.42115584
-0.061134912 -0.34614196 -0.42114618
-0.061132345 -0.34607014 -0.42114046
-0.061129857 -0.34600028 -0.42113483
-0.061127637 -0.34593254 -0.4211252
-0.061125074 -0.34586069 -0.42111948
-0.061122581 -0.34579086 -0.42111382
-0.06112019 -0.34572107 -0.42110616
-0.061117798 -0.34565127 -0.42109853
-0.0611156 -0.34558156 -0.42108685
-0.061113499 -0.34551188 -0.4210732
-0.061111301 -0.34544218 -0.42106155
-0.0611092 -0.34537253 -0.4210479
-0.061107777 -0.34530315 -0.42102027
-0.061106741 -0.34523398 -0.42098466
-0.061104465 -0.34516227 -0.42097294
-0.061101377 -0.34509411 -0.42098132
-0.061097723 -0.34502375 -0.42099962
-0.061094262 -0.34495348 -0.42101392
-0.061091483 -0.3448835 -0.42101425
-0.061088897 -0.34481362 -0.42101058
-0.061086386 -0.34474573 -0.42100698
-0.061084013 -0.34467399 -0.42099726
-0.061082009 -0.34460434 -0.42098162
-0.061080392 -0.3445349 -0.42095798
-0.061078683 -0.34446543 -0.42093635
-0.061076578 -0.34439576 -0.4209227
-0.061074283 -0.34432599 -0.42091304
-0.061072569 -0.34425652 -0.4208914
-0.061071146 -0.34418717 -0.42086375
-0.061068948 -0.34411743 -0.42085212
-0.061065469 -0.34404913 -0.42086846
-0.061060362 -0.34397811 -0.42091674
-0.061056323 -0.34390756 -0.42094302
-0.061056256 -0.34383881 -0.42088741
-0.061058424 -0.34377107 -0.4207859
-0.061059229 -0.34370273 -0.42071232
-0.061058603 -0.34363177 -0.42066669
-0.061055511 -0.34356362 -0.42067504
-0.061048076 -0.34349152 -0.42077124
-0.061042193 -0.34342015 -0.42083549
-0.061039686 -0.34335226 -0.42083186
-0.061037194 -0.34328243 -0.4208262
-0.061035093 -0.34321275 -0.42081255
-0.061033186 -0.34314319 -0.4207949
-0.061031181 -0.34307358 -0.42077926
-0.061028499 -0.34300363 -0.42077759
-0.061025135 -0.34293342 -0.4207899
-0.061022066 -0.34286329 -0.42079622
-0.061019652 -0.34279546 -0.42079061
-0.06101726 -0.34272566 -0.42078295
-0.061014868 -0.34265587 -0.42077529
-0.061012574 -0.3425861 -0.42076564
-0.061010182 -0.3425163 -0.42075798
-0.061008077 -0.34244666 -0.42074433
-0.061006561 -0.34237725 -0.42071867
-0.061004728 -0.34230965 -0.42070109
-0.061002046 -0.34223974 -0.42069942
-0.060999557 -0.34216991 -0.42069376
-0.060997263 -0.34210014 -0.4206841
-0.060994577 -0.34203023 -0.42068243
-0.060992088 -0.34196037 -0.42067677
-0.06098989 -0.34189066 -0.42066512
-0.06098767 -0.34182292 -0.42065552
-0.060985085 -0.34175304 -0.42065185
-0.06098279 -0.34168327 -0.4206422
-0.060980689 -0.34161362 -0.42062855
-0.0609782 -0.34154376 -0.42062289
-0.060975496 -0.34147578 -0.42062324
-0.060972616 -0.34140578 -0.42062557
-0.060969934 -0.34133583 -0.4206239
-0.060967542 -0.34126604 -0.42061624
-0.060965247 -0.3411963 -0.42060658
-0.06096305 -0.34112659 -0.42059493
-0.060960926 -0.34105888 -0.42058334
-0.060958631 -0.34098911 -0.42057368
-0.06095653 -0.34091946 -0.42056003
-0.060954623 -0.34084988 -0.42054236
-0.060953181 -0.34078246 -0.42051679
-0.060951758 -0.34071311 -0.42048916
-0.060949266 -0.34064329 -0.4204835
-0.060945615 -0.34057292 -0.4205018
-0.06094012 -0.3405017 -0.42055807
-0.060935691 -0.34043097 -0.42059234
-0.060933881 -0.34036145 -0.4205727
-0.060932923 -0.34029427 -0.42053711
-0.060931113 -0.34022474 -0.42051747
-0.060929108 -0.34015512 -0.42050183
-0.060927082 -0.34008744 -0.42048824
-0.060924787 -0.34001771 -0.42047858
-0.06092288 -0.33994812 -0.42046094
-0.060920857 -0.33988047 -0.42044732
-0.060918268 -0.33981058 -0.42044365
-0.060915876 -0.33974078 -0.42043599
-0.060913485 -0.33967099 -0.42042834
-0.060910899 -0.3396011 -0.42042467
-0.060908485 -0.33953324 -0.42041904
-0.0609059 -0.33946335 -0.4204154
-0.060903799 -0.33939371 -0.42040175
-0.060902063 -0.33932617 -0.42038214
-0.060899574 -0.33925632 -0.42037648
-0.060896989 -0.33918643 -0.42037281
-0.060894303 -0.33911651 -0.42037115
-0.060890943 -0.33904627 -0.42038345
-0.060888626 -0.33897847 -0.42037585
-0.060887206 -0.33890912 -0.42034823
-0.060885664 -0.33884168 -0.42032462
-0.060883272 -0.33877188 -0.42031696
-0.060880493 -0.3387019 -0.42031729
-0.060877614 -0.33863187 -0.42031962
-0.060874738 -0.33856186 -0.42032194
-0.060872324 -0.33849403 -0.42031634
-0.060870126 -0.33842432 -0.42030469
-0.060867928 -0.33835459 -0.42029303
-0.060865611 -0.33828682 -0.42028543
-0.060863413 -0.33821708 -0.42027378
-0.060861021 -0.33814728 -0.42026609
-0.060858727 -0.33807755 -0.42025644
-0.060856409 -0.33800974 -0.42024884
-0.060854308 -0.33794007 -0.42023519
-0.06085277 -0.33787262 -0.42021161
-0.060848568 -0.3377333 -0.42018428
-0.060846057 -0.33766541 -0.42018068
-0.060843665 -0.33759561 -0.42017302
-0.06084108 -0.33752573 -0.42016935
-0.060836941 -0.33745515 -0.42019764
-0.06083069 -0.33738163 -0.42026782
-0.060824051 -0.33730796 -0.42034599
-0.0608203 -0.33723754 -0.42036629
-0.060819827 -0.33717057 -0.42032075
-0.060820617 -0.33710417 -0.42024922
-0.060821015 -0.33703762 -0.42018569
-0.060820814 -0.33697274 -0.42013618
-0.06081881 -0.33690313 -0.42012054
-0.060816687 -0.33683541 -0.42010891
-0.060814973 -0.33676592 -0.42008728
-0.060813047 -0.33669829 -0.42007169
-0.060810558 -0.33662844 -0.42006603
-0.060808145 -0.33656061 -0.42006043
-0.060805947 -0.3364909 -0.42004877
-0.060803749 -0.33642119 -0.42003709
-0.060799997 -0.33635077 -0.42005742
-0.060794037 -0.3362774 -0.42012161
-0.06079106 -0.33620733 -0.42012593
-0.060792122 -0.33614305 -0.42005044
-0.060792692 -0.33607849 -0.41998497
-0.060790688 -0.33600888 -0.41996932
-0.060787231 -0.3359386 -0.41998363
-0.060783189 -0.33586806 -0.42000991
-0.060781475 -0.33579856 -0.41998827
-0.060782634 -0.33573431 -0.41991082
-0.060782157 -0.33566734 -0.41986525
-0.060777828 -0.33559668 -0.41989756
-0.060772642 -0.33552364 -0.41994578
-0.060769375 -0.33545345 -0.41995609
-0.060767546 -0.33538586 -0.41993847
-0.060765252 -0.33531612 -0.41992882
-0.060762081 -0.33524597 -0.41993713
-0.060758624 -0.33517569 -0.41995144
-0.060755745 -0.33510569 -0.41995376
-0.060754303 -0.33503827 -0.41992819
-0.060753733 -0.33497125 -0.41988462
-0.060752388 -0.3349039 -0.41985703
-0.060750753 -0.33483642 -0.41983545
-0.06075152 -0.33477196 -0.41976598
-0.060756784 -0.33471546 -0.41960877
-0.060760535 -0.33465433 -0.41947943
-0.060760237 -0.33458942 -0.41943192
-0.06075792 -0.33452162 -0.4194243
-0.060754754 -0.33445147 -0.41943264
-0.060751099 -0.3343811 -0.41945094
-0.060748611 -0.33431125 -0.41944528
-0.060743816 -0.33423841 -0.41948548
-0.060739115 -0.3341656 -0.41952372
-0.060725402 -0.33407891 -0.41973945
-0.060722988 -0.33401105 -0.41973382
-0.060720596 -0.33394125 -0.41972619
-0.060717717 -0.33387125 -0.41972852
-0.060714453 -0.33380106 -0.41973883
-0.060710412 -0.33373052 -0.41976511
-0.060706005 -0.33365783 -0.41979736
-0.060702931 -0.33358774 -0.41980368
-0.060701393 -0.33352029 -0.41978008
-0.060700145 -0.33345297 -0.41975051
-0.060698509 -0.33338547 -0.4197289
-0.060696676 -0.33331791 -0.41971129
-0.060694478 -0.3332482 -0.41969967
-0.060692839 -0.3331807 -0.41967806
-0.060692154 -0.33311561 -0.41963854
-0.060691971 -0.33304876 -0.41958702
-0.06069041 -0.33298329 -0.41956544
-0.060687166 -0.33291113 -0.41957372
-0.060682639 -0.33284035 -0.41960999
-0.060677476 -0.33276537 -0.41965616
-0.0606746 -0.33269536 -0.41965848
-0.060672186 -0.33262753 -0.41965288
-0.060669892 -0.33255777 -0.41964322
-0.06066845 -0.33249035 -0.41961765
-0.060667567 -0.33242518 -0.41958213
-0.060666513 -0.33235794 -0.41954854
-0.06066449 -0.33229029 -0.41953492
-0.060661513 -0.33222023 -0.41953927
-0.060664084 -0.33216053 -0.41943592
-0.060662057 -0.33209285 -0.41942233
-0.060656313 -0.33201763 -0.41948047
-0.060653143 -0.33194748 -0.41948879
-0.060651992 -0.33188021 -0.4194572
-0.060649581 -0.33181235 -0.41945159
-0.060646895 -0.33174244 -0.41944993
-0.060644116 -0.33167246 -0.41945025
-0.060642093 -0.33160478 -0.41943666
-0.060621344 -0.33150116 -0.41978586
-0.060624667 -0.33144376 -0.41966861
-0.060630299 -0.33138937 -0.41950545
-0.060627889 -0.33132154 -0.41949984
-0.060626153 -0.33125401 -0.41948026
-0.060623858 -0.33118424 -0.41947058
-0.06062125 -0.33111632 -0.41946897
-0.060618859 -0.33104652 -0.41946131
-0.060616449 -0.33097869 -0.41945571
-0.060613763 -0.33090875 -0.41945404
-0.06061079 -0.33083868 -0.41945833
-0.06060677 -0.3307662 -0.41948259
-0.060603019 -0.33069578 -0.41950291
-0.060599096 -0.33062333 -0.41952515
-0.060603853 -0.33056855 -0.41937995
-0.06060183 -0.33050087 -0.41936636
-0.060598854 -0.33043081 -0.41937068
-0.060595978 -0.3303608 -0.41937301
-0.060593199 -0.33029082 -0.41937333
-0.060590494 -0.33022285 -0.41937372
-0.060588297 -0.33015314 -0.41936207
-0.060585883 -0.33008531 -0.41935647
-0.060583375 -0.33001742 -0.41935283
-0.060580786 -0.32994753 -0.41934916
-0.060578298 -0.3298777 -0.4193435
-0.060575787 -0.32980981 -0.4193399
-0.060573298 -0.32973996 -0.41933423
-0.060570985 -0.32967216 -0.4193266
-0.060568593 -0.32960236 -0.41931897
-0.060566276 -0.32953456 -0.41931134
-0.060564443 -0.329467 -0.41929376
-0.060562517 -0.32939938 -0.41927814
-0.060560297 -0.32933161 -0.41926855
-0.060558759 -0.32926416 -0.41924495
-0.060557026 -0.32919663 -0.41922536
-0.060555097 -0.32912901 -0.41920975
-0.060553536 -0.3290635 -0.4191882
-0.060551532 -0.32899389 -0.41917256
-0.060549878 -0.32892835 -0.419153
-0.060542591 -0.32878566 -0.41918758
-0.060538203 -0.32871103 -0.41921777
-0.060535885 -0.32864323 -0.41921014
-0.060534813 -0.32857797 -0.41917863
-0.060533173 -0.32851046 -0.41915703
-0.060530297 -0.32844046 -0.41915935
-0.06052674 -0.32837012 -0.41917568
-0.060524154 -0.32830024 -0.41917199
-0.060521547 -0.32823232 -0.41917038
-0.060518865 -0.32816237 -0.41916871
-0.060516547 -0.3280946 -0.41916111
-0.060514718 -0.32802701 -0.4191435
-0.060513373 -0.32795966 -0.4191159
-0.060513616 -0.32789889 -0.41906053
-0.060511686 -0.32783127 -0.41904491
-0.060508713 -0.3277612 -0.41904926
-0.06050659 -0.32769349 -0.41903764
-0.060504761 -0.32762593 -0.41902006
-0.060503121 -0.32755843 -0.41899845
-0.060501002 -0.32749072 -0.41898686
-0.060497735 -0.32742053 -0.41899717
-0.060494374 -0.32735029 -0.41900948
-0.060491398 -0.32728022 -0.4190138
-0.060488328 -0.32721013 -0.41902012
-0.060485549 -0.32714015 -0.41902044
-0.06048277 -0.32707018 -0.41902077
-0.060480066 -0.3270022 -0.41902116
-0.06047738 -0.32693228 -0.41901949
-0.060475163 -0.32686451 -0.41900986
-0.06047304 -0.3267968 -0.41899827
-0.060470551 -0.32672697 -0.41899261
-0.060467944 -0.32665905 -0.41899097
-0.060465358 -0.32658917 -0.41898733
-0.060463045 -0.32652137 -0.4189797
-0.060460728 -0.32645357 -0.4189721
-0.060458336 -0.32638377 -0.41896445
-0.060456116 -0.326316 -0.41895482
-0.060453046 -0.3262459 -0.41896117
-0.060449585 -0.32617563 -0.41897547
-0.060447097 -0.32610577 -0.41896981
-0.060445264 -0.32603821 -0.4189522
-0.060443223 -0.3259725 -0.41894063
-0.060441487 -0.32590497 -0.41892105
-0.060439657 -0.32583737 -0.41890344
-0.060437437 -0.3257696 -0.41889384
-0.060435317 -0.32570189 -0.41888222
-0.060433194 -0.32563421 -0.41887063
-0.060430415 -0.32556424 -0.41887096
-0.060427614 -0.3254962 -0.41887331
-0.0604252 -0.32542837 -0.41886771
-0.060422711 -0.32535851 -0.41886204
-0.060420103 -0.32529059 -0.41886044
-0.060417518 -0.3252207 -0.41885677
-0.060415205 -0.3251529 -0.41884917
-0.060412887 -0.3250851 -0.41884154
-0.060410962 -0.32501748 -0.41882595
-0.060409497 -0.32495204 -0.41880241
-0.060407937 -0.32488653 -0.41878086
-0.060405619 -0.32481873 -0.41877323
-0.060402647 -0.32474869 -0.41877756
-0.060399771 -0.32467866 -0.41877991
-0.06039726 -0.32461077 -0.41877627
-0.060394578 -0.32454085 -0.4187746
-0.060391892 -0.32447094 -0.41877294
-0.060389385 -0.32440305 -0.41876933
-0.060386606 -0.32433307 -0.41876966
-0.060383901 -0.32426509 -0.41877002
-0.060381219 -0.32419515 -0.41876835
-0.060378805 -0.32412732 -0.41876274
-0.060376488 -0.32405952 -0.41875514
-0.060374465 -0.32399184 -0.41874152
-0.060373195 -0.32392648 -0.41871399
-0.060372487 -0.32386336 -0.41867653
-0.060371682 -0.32380015 -0.41864103
-0.060370024 -0.32373461 -0.41862151
-0.060367536 -0.32366478 -0.41861585
-0.060365122 -0.32359692 -0.41861022
-0.060362712 -0.32352909 -0.41860461
-0.060359176 -0.32345682 -0.41861886
-0.060355619 -0.32338649 -0.41863519
-0.06035284 -0.32331651 -0.41863549
-0.060350329 -0.32324862 -0.41863188
-0.06034784 -0.3231788 -0.41862622
-0.060345329 -0.32311091 -0.41862261
-0.060342818 -0.32304302 -0.41861898
-0.060340136 -0.32297307 -0.41861731
-0.060337726 -0.32290524 -0.41861171
-0.060335699 -0.32283759 -0.41859812
-0.060333654 -0.32277188 -0.41858655
-0.060331337 -0.32270408 -0.41857892
-0.060328927 -0.32263622 -0.41857332
-0.060326707 -0.32256848 -0.41856372
-0.060324315 -0.32249868 -0.41855603
-0.060321808 -0.32243079 -0.41855243
-0.060319297 -0.3223629 -0.41854882
-0.060316883 -0.32229504 -0.41854319
-0.060314469 -0.32222721 -0.41853759
-0.060312349 -0.3221595 -0.41852599
-0.060310498 -0.32209387 -0.41851044
-0.060308646 -0.32202825 -0.41849488
-0.06030672 -0.32196063 -0.41847926
-0.0603045 -0.32189286 -0.41846967
-0.060302183 -0.32182509 -0.41846204
-0.060299676 -0.3217572 -0.41845843
-0.060297262 -0.32168934 -0.41845283
-0.060295045 -0.3216216 -0.4184432
-0.060293 -0.32155588 -0.41843164
-0.06029107 -0.32148826 -0.41841605
-0.060288951 -0.32142055 -0.41840446
-0.060286809 -0.32135478 -0.41839489
-0.060284492 -0.32128698 -0.41838726
-0.060282178 -0.32121918 -0.41837966
-0.060280055 -0.32115147 -0.41836804
-0.06027801 -0.32108575 -0.41835651
-0.060275793 -0.32101801 -0.41834688
-0.060273282 -0.32095012 -0.41834328
-0.060270771 -0.32088223 -0.41833967
-0.060268186 -0.32081234 -0.41833597
-0.060265481 -0.32074437 -0.41833636
-0.060262702 -0.32067439 -0.41833669
-0.060260095 -0.32060647 -0.41833508
-0.060257681 -0.32053864 -0.41832948
-0.060255367 -0.32047084 -0.41832185
-0.06025305 -0.32040304 -0.41831422
-0.061777677 -0.36492345 -0.42319283
-0.061775401 -0.36485174 -0.42318112
-0.061773147 -0.36477807 -0.42316738
-0.061770871 -0.36470637 -0.42315567
-0.061768498 -0.3646346 -0.42314598
-0.061765935 -0.36456278 -0.42314026
-0.061763678 -0.36448911 -0.42312652
-0.061761405 -0.3644174 -0.42311481
-0.061758913 -0.36434758 -0.42310914
-0.061756369 -0.36427379 -0.4231014
-0.061754189 -0.36420211 -0.42308772
-0.061751936 -0.36412844 -0.42307395
-0.061749447 -0.36405861 -0.42306828
-0.061746977 -0.36398682 -0.4230606
-0.061744623 -0.36391312 -0.42304885
-0.061742231 -0.36384332 -0.42304116
-0.061739471 -0.36377138 -0.42303947
-0.061736807 -0.3636995 -0.42303574
-0.061734125 -0.36362958 -0.42303407
-0.061731268 -0.36355761 -0.42303437
-0.061728682 -0.36348772 -0.4230307
-0.061726116 -0.3634159 -0.42302498
-0.061723549 -0.36334404 -0.42301929
-0.061720964 -0.36327416 -0.42301562
-0.061718415 -0.36320037 -0.42300785
-0.061716337 -0.36312875 -0.42299217
-0.061713964 -0.36305699 -0.42298245
-0.061711397 -0.36298516 -0.42297673
-0.061708927 -0.36291337 -0.42296904
-0.061706651 -0.36284167 -0.42295733
-0.061704475 -0.36276999 -0.42294365
-0.061702412 -0.36269641 -0.42292589
-0.061700255 -0.3626228 -0.42291015
-0.061697669 -0.36255291 -0.42290649
-0.061695199 -0.36248112 -0.42289877
-0.061692923 -0.36240941 -0.42288709
-0.061690357 -0.36233759 -0.42288136
-0.061687794 -0.36226574 -0.42287564
-0.061685324 -0.36219394 -0.42286795
-0.061683144 -0.36212227 -0.42285424
-0.061680965 -0.36205062 -0.42284057
-0.061678421 -0.36197683 -0.42283282
-0.061676029 -0.36190704 -0.42282516
-0.061673462 -0.36183518 -0.42281944
-0.06167068 -0.36176521 -0.42281976
-0.061667919 -0.36169329 -0.42281806
-0.061665356 -0.36162144 -0.42281234
-0.061662961 -0.36155164 -0.42280468
-0.061660301 -0.36147976 -0.42280096
-0.061657712 -0.36140987 -0.42279732
-0.061654951 -0.36133796 -0.42279559
-0.061652366 -0.36126807 -0.42279193
-0.061649799 -0.36119622 -0.42278621
-0.061647117 -0.3611263 -0.42278454
-0.061644647 -0.36105451 -0.42277682
-0.061642587 -0.36098093 -0.42275912
-0.061640505 -0.36090931 -0.42274341
-0.061638422 -0.3608377 -0.4227277
-0.06163615 -0.36076599 -0.42271599
-0.061633583 -0.36069417 -0.4227103
-0.06163092 -0.36062226 -0.42270657
-0.061628353 -0.36055043 -0.42270088
-0.061625671 -0.36048052 -0.42269921
-0.061623082 -0.36041063 -0.42269555
-0.061620828 -0.36033696 -0.42268181
-0.061618552 -0.36026525 -0.4226701
-0.061616182 -0.36019349 -0.42266038
-0.0616141 -0.36012188 -0.42264467
-0.061611727 -0.36005014 -0.42263499
-0.06160916 -0.35997829 -0.4226293
-0.061606672 -0.35990846 -0.42262363
-0.061604396 -0.35983676 -0.42261192
-0.061602022 -0.35976499 -0.42260221
-0.061599556 -0.3596932 -0.42259452
-0.06159728 -0.3596215 -0.42258281
-0.061594907 -0.35954973 -0.42257309
-0.061592031 -0.35947973 -0.42257541
-0.061589539 -0.35940987 -0.42256975
-0.061587073 -0.35933807 -0.42256206
-0.061584409 -0.35926619 -0.42255834
-0.06158182 -0.35919634 -0.42255467
-0.061579254 -0.35912448 -0.42254898
-0.061576884 -0.35905272 -0.42253926
-0.061574586 -0.35898298 -0.42252961
-0.06157212 -0.35891119 -0.42252189
-0.061570037 -0.35883957 -0.42250621
-0.061567761 -0.35876787 -0.4224945
-0.061565388 -0.3586961 -0.42248482
-0.061563212 -0.35862443 -0.42247111
-0.061560839 -0.35855269 -0.42246139
-0.061558254 -0.35848281 -0.42245772
-0.061555494 -0.35841089 -0.42245603
-0.061553098 -0.3583411 -0.42244837
-0.061550535 -0.35826924 -0.42244264
-0.061547849 -0.35819933 -0.42244098
-0.061545379 -0.35812753 -0.42243326
-0.06154301 -0.35805577 -0.42242357
-0.061540809 -0.35798606 -0.42241192
-0.061538439 -0.3579143 -0.4224022
-0.061535776 -0.35784242 -0.42239851
-0.061533578 -0.35777271 -0.42238683
-0.06153132 -0.35769907 -0.42237312
-0.061528929 -0.35762927 -0.42236543
-0.06152615 -0.35755929 -0.42236578
-0.061523389 -0.35748735 -0.42236406
-0.0615208 -0.35741746 -0.42236039
-0.061518237 -0.35734564 -0.42235467
-0.061515648 -0.35727575 -0.422351
-0.061513159 -0.3572059 -0.42234534
-0.06151098 -0.35713425 -0.42233166
-0.061508317 -0.35706237 -0.42232794
-0.061505828 -0.35699251 -0.42232227
-0.061503746 -0.3569209 -0.42230657
-0.061501279 -0.3568491 -0.42229888
-0.06149869 -0.35677922 -0.42229521
-0.061496124 -0.35670739 -0.42228949
-0.061493635 -0.35663754 -0.42228383
-0.061491359 -0.35656583 -0.42227215
-0.061489087 -0.35649413 -0.42226043
-0.061486594 -0.3564243 -0.42225477
-0.061483838 -0.35635236 -0.42225304
-0.061481539 -0.35628262 -0.42224342
-0.061479364 -0.35621095 -0.42222971
-0.061476775 -0.35614106 -0.42222604
-0.061473917 -0.35606909 -0.42222631
-0.061471429 -0.35599926 -0.42222065
-0.061469153 -0.35592756 -0.42220896
-0.06146688 -0.35585582 -0.42219725
-0.061464872 -0.3557862 -0.42218161
-0.061462503 -0.35571447 -0.42217189
-0.06146013 -0.35564271 -0.42216218
-0.061457757 -0.35557097 -0.42215249
-0.061455559 -0.35550126 -0.42214084
-0.061453283 -0.35542956 -0.42212912
-0.061451007 -0.35535783 -0.42211744
-0.061448712 -0.35528809 -0.42210779
-0.061446339 -0.35521632 -0.42209807
-0.06144385 -0.3551465 -0.42209241
-0.061441265 -0.35507661 -0.42208874
-0.061438601 -0.35500473 -0.42208505
-0.06143621 -0.35493493 -0.42207739
-0.06143374 -0.35486314 -0.42206967
-0.061431348 -0.35479334 -0.42206201
-0.061428975 -0.35472158 -0.42205229
-0.061426584 -0.35465178 -0.42204463
-0.061424211 -0.35458004 -0.42203495
-0.061421722 -0.35451019 -0.42202929
-0.061419155 -0.35443836 -0.42202356
-0.06141676 -0.35436857 -0.42201591
-0.061414391 -0.3542968 -0.42200619
-0.061411802 -0.35422692 -0.42200255
-0.061409216 -0.35415703 -0.42199886
-0.061406747 -0.35408524 -0.42199117
-0.061404452 -0.3540155 -0.42198151
-0.061402079 -0.35394374 -0.4219718
-0.061399687 -0.35387394 -0.42196414
-0.061397314 -0.3538022 -0.42195445
-0.061395332 -0.35373062 -0.42193675
-0.061393227 -0.35366097 -0.4219231
-0.061390661 -0.35358912 -0.42191738
-0.061388172 -0.35351929 -0.42191172
-0.061385803 -0.35344753 -0.42190203
-0.061383311 -0.3533777 -0.42189637
-0.061380822 -0.35330784 -0.42189071
-0.061378159 -0.35323596 -0.42188698
-0.061375573 -0.35316607 -0.42188331
-0.061372887 -0.35309616 -0.42188165
-0.061370496 -0.35302636 -0.42187399
-0.061368007 -0.3529565 -0.42186832
-0.061365344 -0.35288462 -0.42186463
-0.061362952 -0.35281482 -0.42185697
-0.061360482 -0.35274303 -0.42184925
-0.061357994 -0.3526732 -0.42184359
-0.061355695 -0.35260344 -0.42183393
-0.061353132 -0.35253161 -0.42182821
-0.061350446 -0.35246167 -0.42182654
-0.061347958 -0.35239184 -0.42182088
-0.061345682 -0.35232013 -0.4218092
-0.061343387 -0.35225037 -0.42179954
-0.061341207 -0.35217872 -0.42178583
-0.061339203 -0.35210907 -0.42177019
-0.061336927 -0.35203737 -0.42175847
-0.061334826 -0.35196772 -0.42174485
-0.06133265 -0.35189605 -0.42173114
-0.061330158 -0.35182622 -0.42172548
-0.06132767 -0.35175636 -0.42171982
-0.061325297 -0.35168463 -0.4217101
-0.061322905 -0.35161483 -0.42170244
-0.061320223 -0.35154489 -0.42170078
-0.06131785 -0.35147315 -0.42169106
-0.061315555 -0.35140339 -0.42168143
-0.061313182 -0.35133165 -0.42167172
-0.061310597 -0.35126176 -0.42166805
-0.061307717 -0.35119173 -0.42167038
-0.061305132 -0.35112184 -0.42166671
-0.061303031 -0.35105219 -0.42165306
-0.061300464 -0.35098034 -0.42164737
-0.061297879 -0.35091045 -0.42164367
-0.06129558 -0.35084072 -0.42163402
-0.061293308 -0.35076901 -0.42162234
-0.0612913 -0.35069939 -0.42160669
-0.061289221 -0.35062778 -0.42159098
-0.061286632 -0.35055789 -0.42158732
-0.061283756 -0.35048786 -0.42158964
-0.061281171 -0.35041797 -0.42158598
-0.061278775 -0.35034817 -0.42157832
-0.061276481 -0.35027844 -0.42156866
-0.061274014 -0.35020664 -0.42156097
-0.061271522 -0.35013679 -0.42155531
-0.061269131 -0.35006699 -0.42154765
-0.061266642 -0.34999716 -0.42154199
-0.061263956 -0.34992722 -0.42154032
-0.061261274 -0.3498573 -0.42153865
-0.061258785 -0.34978744 -0.42153299
-0.061256316 -0.34971565 -0.42152527
-0.061254214 -0.349646 -0.42151162
-0.061251938 -0.3495743 -0.42149991
-0.06124945 -0.34950444 -0.42149425
-0.061246961 -0.34943461 -0.42148858
-0.061244566 -0.34936482 -0.42148095
-0.061242174 -0.34929502 -0.42147326
-0.061239589 -0.34922513 -0.42146963
-0.061237216 -0.34915337 -0.42145991
