# .PCD v0.7 - Point Cloud Data file format
VERSION 0.7
FIELDS x y z
SIZE 4 4 4
TYPE F F F
COUNT 1 1 1
WIDTH 1303
HEIGHT 1
VIEWPOINT 0 0 0 1 0 0 0
POINTS 1303
DATA ascii
-0.062092479 -0.36367312 -0.41553676
-0.062090065 -0.36360526 -0.41553116
-0.062087826 -0.36353946 -0.41552359
-0.062085804 -0.36347181 -0.41551
-0.062083505 -0.36340204 -0.41550034
-0.062081363 -0.36333629 -0.41549078
-0.062079147 -0.36326852 -0.41548115
-0.062076926 -0.36320078 -0.41547155
-0.062074807 -0.36313307 -0.41545993
-0.06207278 -0.36306539 -0.41544634
-0.06207066 -0.36299768 -0.41543472
-0.062068731 -0.36293006 -0.41541913
-0.062066611 -0.36286235 -0.41540754
-0.062064178 -0.36279646 -0.41540396
-0.062061861 -0.36272866 -0.41539633
-0.062059544 -0.36266086 -0.41538873
-0.062057015 -0.36259493 -0.41538715
-0.062054485 -0.36252901 -0.4153856
-0.062051762 -0.36246297 -0.41538802
-0.062049232 -0.36239704 -0.41538644
-0.062047012 -0.3623293 -0.41537684
-0.062044773 -0.3622635 -0.41536927
-0.062042654 -0.36219579 -0.41535765
-0.062040627 -0.36212811 -0.41534406
-0.06203841 -0.36206037 -0.41533443
-0.062036268 -0.36199459 -0.4153249
-0.062034145 -0.36192688 -0.41531327
-0.062032025 -0.36185917 -0.41530168
-0.062029708 -0.36179137 -0.41529405
-0.062027585 -0.36172366 -0.41528246
-0.062025659 -0.36165604 -0.41526687
-0.062023517 -0.3615903 -0.41525728
-0.0620212 -0.3615225 -0.41524968
-0.062018961 -0.36145669 -0.41524211
-0.062016763 -0.36138698 -0.41523045
-0.062014718 -0.36132127 -0.41521889
-0.062012404 -0.36125347 -0.41521129
-0.062010165 -0.36118767 -0.41520372
-0.062007848 -0.36111987 -0.41519612
-0.062005512 -0.36105403 -0.41519055
-0.062003389 -0.36098632 -0.41517895
-0.062001269 -0.36091861 -0.41516733
-0.061999049 -0.36085084 -0.41515774
-0.06199681 -0.36078504 -0.41515017
-0.061994303 -0.36071715 -0.41514653
-0.061992083 -0.36064941 -0.41513693
-0.061990134 -0.36058372 -0.41512337
-0.061987821 -0.36051592 -0.41511577
-0.061985407 -0.36044809 -0.41511017
-0.061983071 -0.36038226 -0.4151046
-0.061980851 -0.36031449 -0.41509497
-0.061978634 -0.36024675 -0.41508538
-0.061976511 -0.36017904 -0.41507375
-0.061974369 -0.36011326 -0.41506422
-0.061972152 -0.36004552 -0.41505459
-0.061969932 -0.35997775 -0.41504499
-0.061967909 -0.3599101 -0.41503137
-0.061965473 -0.35984421 -0.4150278
-0.061962556 -0.35977811 -0.41503423
-0.061959833 -0.35971206 -0.41503665
-0.061957594 -0.35964626 -0.41502908
-0.061955571 -0.35957861 -0.41501549
-0.061953448 -0.3595109 -0.4150039
-0.061951131 -0.3594431 -0.41499627
-0.061948601 -0.35937718 -0.41499469
-0.061946072 -0.35931122 -0.41499311
-0.061943542 -0.3592453 -0.41499156
-0.061941031 -0.35917741 -0.41498792
-0.061938889 -0.35911167 -0.41497836
-0.061936673 -0.3590439 -0.41496876
-0.061934646 -0.35897624 -0.41495514
-0.061932623 -0.35890856 -0.41494155
-0.061930384 -0.35884276 -0.41493398
-0.06192797 -0.35877493 -0.41492838
-0.061925828 -0.35870916 -0.41491881
-0.061923806 -0.35864151 -0.41490519
-0.061921876 -0.35857388 -0.4148896
-0.061919853 -0.3585062 -0.41487598
-0.061917633 -0.35843846 -0.41486639
-0.061915394 -0.35837266 -0.41485882
-0.061913077 -0.35830486 -0.41485122
-0.061910838 -0.35823905 -0.41484365
-0.061908524 -0.35817125 -0.41483605
-0.061906304 -0.35810348 -0.41482642
-0.061903894 -0.35803565 -0.41482082
-0.061901361 -0.35796973 -0.41481924
-0.061898831 -0.35790378 -0.41481766
-0.061896808 -0.35783613 -0.41480407
-0.061894685 -0.35776842 -0.41479248
-0.061892468 -0.35770065 -0.41478285
-0.061890326 -0.3576349 -0.41477329
-0.061888106 -0.35756713 -0.41476369
-0.061885692 -0.3574993 -0.41475809
-0.061883163 -0.35743338 -0.41475651
-0.061880946 -0.35736561 -0.41474688
-0.061878901 -0.35729989 -0.41473532
-0.061876487 -0.35723206 -0.41472971
-0.061874054 -0.35716617 -0.41472614
-0.061871644 -0.35709831 -0.41472054
-0.061869521 -0.3570306 -0.41470891
-0.061867476 -0.35696489 -0.41469735
-0.061865158 -0.35689712 -0.41468975
-0.061862845 -0.35682932 -0.41468215
-0.0618608 -0.3567636 -0.41467059
-0.061858386 -0.35669574 -0.41466495
-0.06185605 -0.35662991 -0.41465941
-0.061853833 -0.35656214 -0.41464978
-0.061851591 -0.35649633 -0.41464221
-0.061849181 -0.3564285 -0.41463661
-0.06184696 -0.35636073 -0.41462702
-0.061844818 -0.35629499 -0.41461745
-0.061842505 -0.35622719 -0.41460982
-0.061840285 -0.35615945 -0.41460022
-0.061837852 -0.35609356 -0.41459665
-0.061835613 -0.35602775 -0.41458908
-0.06183359 -0.35596007 -0.41457549
-0.061831467 -0.35589236 -0.41456389
-0.061829131 -0.35582653 -0.41455832
-0.061826717 -0.35575867 -0.41455269
-0.061824501 -0.35569093 -0.41454309
-0.061822455 -0.35562521 -0.41453153
-0.061820235 -0.35555744 -0.41452193
-0.061818212 -0.35548979 -0.41450831
-0.061816186 -0.35542211 -0.41449469
-0.061814066 -0.3553544 -0.4144831
-0.06181173 -0.35528857 -0.41447753
-0.061809491 -0.35522276 -0.41446999
-0.061807271 -0.35515502 -0.41446036
-0.061805151 -0.35508731 -0.41444877
-0.061802834 -0.35501951 -0.41444114
-0.061800402 -0.35495362 -0.41443759
-0.061798066 -0.35488775 -0.41443202
-0.061795361 -0.3548198 -0.41443238
-0.061792929 -0.35475391 -0.41442883
-0.061790593 -0.35468805 -0.41442326
-0.061788276 -0.35462025 -0.41441563
-0.061786134 -0.3545545 -0.41440606
-0.061784014 -0.35448679 -0.41439447
-0.061781697 -0.35441899 -0.41438687
-0.061779361 -0.35435316 -0.4143813
-0.061776947 -0.3542853 -0.41437566
-0.061774902 -0.35421959 -0.41436413
-0.061772589 -0.35415179 -0.4143565
-0.061192617 -0.33932778 -0.41423669
-0.061158393 -0.33903939 -0.41471538
-0.061157413 -0.33897415 -0.41468185
-0.061160002 -0.33891252 -0.41457647
-0.061158929 -0.33884722 -0.41454494
-0.061156496 -0.33878133 -0.41454136
-0.061153792 -0.33871338 -0.41454175
-0.061154343 -0.33865079 -0.4144783
-0.0620973 -0.36380842 -0.41556236
-0.06209518 -0.36374071 -0.41555077
-0.062093057 -0.363673 -0.41553915
-0.062090818 -0.3636072 -0.41553158
-0.062088404 -0.36353934 -0.41552597
-0.062086381 -0.36347169 -0.41551238
-0.062084258 -0.36340398 -0.41550076
-0.062082041 -0.36333621 -0.41549116
-0.062079724 -0.36326841 -0.41548353
-0.062077504 -0.36320066 -0.41547394
-0.062075384 -0.36313295 -0.41546232
-0.062073261 -0.36306524 -0.41545072
-0.062071238 -0.36299756 -0.4154371
-0.062069405 -0.36293 -0.41541952
-0.062067285 -0.36286229 -0.4154079
-0.062064853 -0.3627964 -0.41540435
-0.062062439 -0.36272854 -0.41539872
-0.062060121 -0.36266074 -0.41539112
-0.062057689 -0.36259487 -0.41538754
-0.062055063 -0.36252889 -0.41538796
-0.062052436 -0.36246291 -0.41538841
-0.062049907 -0.36239699 -0.41538683
-0.062047668 -0.36233118 -0.41537926
-0.062045448 -0.36226341 -0.41536963
-0.062043227 -0.36219567 -0.41536003
-0.062041204 -0.36212799 -0.41534644
-0.062039081 -0.36206028 -0.41533482
-0.062036842 -0.36199448 -0.41532725
-0.062034722 -0.36192676 -0.41531566
-0.062032696 -0.36185911 -0.41530204
-0.062030382 -0.36179131 -0.41529444
-0.062028259 -0.3617236 -0.41528285
-0.062026329 -0.36165598 -0.41526723
-0.06202409 -0.36159018 -0.41525966
-0.062021777 -0.36152238 -0.41525206
-0.062019538 -0.36145657 -0.41524449
-0.062017512 -0.36138889 -0.41523087
-0.062015392 -0.36132118 -0.41521928
-0.062013052 -0.36125535 -0.4152137
-0.062010836 -0.36118758 -0.41520411
-0.062008422 -0.36111975 -0.4151985
-0.062006086 -0.36105391 -0.41519293
-0.062003966 -0.3609862 -0.41518134
-0.06200194 -0.36091852 -0.41516772
-0.061999723 -0.36085078 -0.41515809
-0.061997384 -0.36078492 -0.41515255
-0.061994974 -0.36071709 -0.41514692
-0.061992753 -0.36064932 -0.41513732
-0.061990708 -0.3605836 -0.41512576
-0.061988488 -0.36051586 -0.41511613
-0.061986078 -0.360448 -0.41511053
-0.061983742 -0.36038217 -0.41510496
-0.061981425 -0.36031437 -0.41509736
-0.061979301 -0.36024666 -0.41508573
-0.061977182 -0.36017895 -0.41507414
-0.06197504 -0.3601132 -0.41506457
-0.061972722 -0.3600454 -0.41505697
-0.061970603 -0.35997769 -0.41504535
-0.061968479 -0.35990998 -0.41503376
-0.061966144 -0.35984412 -0.41502818
-0.061963227 -0.35977802 -0.41503459
-0.061960407 -0.35971195 -0.415039
-0.061958164 -0.35964614 -0.41503146
-0.061956141 -0.35957849 -0.41501784
-0.061954115 -0.35951081 -0.41500425
-0.061951801 -0.35944301 -0.41499662
-0.061949272 -0.35937709 -0.41499507
-0.061946742 -0.35931116 -0.41499349
-0.061944209 -0.35924521 -0.41499192
-0.061941776 -0.35917935 -0.41498834
-0.06193956 -0.35911158 -0.41497874
-0.06193734 -0.35904384 -0.41496915
-0.061935216 -0.35897613 -0.41495752
-0.06193329 -0.3589085 -0.41494191
-0.061931051 -0.3588427 -0.41493437
-0.061928637 -0.35877484 -0.41492873
-0.061926495 -0.3587091 -0.4149192
-0.061924472 -0.35864142 -0.41490558
-0.061922543 -0.35857379 -0.41488999
-0.06192052 -0.35850614 -0.41487637
-0.0619183 -0.35843837 -0.41486678
-0.061915964 -0.35837254 -0.4148612
-0.061913647 -0.35830474 -0.41485357
-0.061911408 -0.35823894 -0.41484603
-0.061909191 -0.35817116 -0.41483641
-0.061906971 -0.35810342 -0.41482681
-0.061904557 -0.35803556 -0.41482118
-0.061901931 -0.35796961 -0.41482162
-0.061899498 -0.35790372 -0.41481805
-0.061897475 -0.35783604 -0.41480446
-0.061895352 -0.35776833 -0.41479284
-0.061893035 -0.35770053 -0.41478521
-0.061890893 -0.35763478 -0.41477567
-0.061888773 -0.35756707 -0.41476405
-0.061886359 -0.35749921 -0.41475844
-0.06188383 -0.35743329 -0.41475686
-0.061881609 -0.35736555 -0.41474727
-0.061879564 -0.35729983 -0.4147357
-0.061877057 -0.35723194 -0.4147321
-0.061874721 -0.35716608 -0.4147265
-0.061872307 -0.35709825 -0.41472089
-0.061870087 -0.35703048 -0.4147113
-0.061868139 -0.35696483 -0.41469774
-0.061865825 -0.35689703 -0.41469014
-0.061863411 -0.3568292 -0.4146845
-0.061861366 -0.35676348 -0.41467297
-0.061859053 -0.35669568 -0.41466534
-0.061856713 -0.35662982 -0.41465977
-0.0618544 -0.35656202 -0.41465217
-0.061852161 -0.35649621 -0.4146446
-0.061849747 -0.35642838 -0.414639
-0.061847627 -0.35636067 -0.41462737
-0.061845385 -0.35629487 -0.4146198
-0.061843168 -0.35622713 -0.41461021
-0.061840948 -0.35615936 -0.41460058
-0.061838515 -0.35609347 -0.41459703
-0.061836179 -0.35602763 -0.41459146
-0.061834157 -0.35595995 -0.41457784
-0.061832033 -0.35589224 -0.41456625
-0.061829697 -0.35582641 -0.41456068
-0.061827283 -0.35575858 -0.41455507
-0.061825164 -0.35569084 -0.41454345
-0.061823118 -0.35562515 -0.41453189
-0.061820898 -0.35555738 -0.41452229
-0.061818775 -0.35548967 -0.41451067
-0.061816752 -0.35542202 -0.41449708
-0.061814707 -0.35535631 -0.41448551
-0.06181239 -0.35528851 -0.41447791
-0.061810151 -0.3552227 -0.41447034
-0.061807934 -0.35515493 -0.41446072
-0.061805811 -0.35508722 -0.41444913
-0.061803397 -0.35501939 -0.41444352
-0.061801158 -0.35495359 -0.41443595
-0.061798725 -0.35488769 -0.41443238
-0.061796002 -0.35482168 -0.41443479
-0.061793491 -0.35475379 -0.41443118
-0.061791252 -0.35468799 -0.41442361
-0.061788842 -0.35462013 -0.41441801
-0.0617867 -0.35455438 -0.41440845
-0.061784577 -0.35448667 -0.41439682
-0.061782259 -0.35441887 -0.41438922
-0.061780021 -0.35435307 -0.41438165
-0.06177761 -0.35428524 -0.41437605
-0.061775565 -0.35421953 -0.41436449
-0.061773248 -0.35415173 -0.41435689
-0.061770912 -0.35408586 -0.41435131
-0.061193347 -0.33932775 -0.41423506
-0.061159026 -0.3390393 -0.41471574
-0.061157856 -0.338974 -0.4146862
-0.061160542 -0.3389124 -0.41457883
-0.061159465 -0.3388471 -0.41454729
-0.06115713 -0.33878127 -0.41454172
-0.061154522 -0.33871335 -0.41454011
-0.061155561 -0.33865097 -0.41446668
-0.062100217 -0.36380956 -0.41556042
-0.062098093 -0.36374184 -0.4155488
-0.06209597 -0.36367413 -0.41553721
-0.062093731 -0.36360833 -0.41552964
-0.062091418 -0.36354053 -0.41552201
-0.062089294 -0.36347282 -0.41551042
-0.062087096 -0.36340311 -0.41549876
-0.062084951 -0.36333737 -0.4154892
-0.062082734 -0.3632696 -0.4154796
-0.062080417 -0.3632018 -0.41547197
-0.062078293 -0.36313409 -0.41546038
-0.062076271 -0.36306643 -0.41544676
-0.062074244 -0.36299875 -0.41543317
-0.062072314 -0.36293113 -0.41541755
-0.062070195 -0.36286342 -0.41540596
-0.062067762 -0.36279753 -0.41540238
-0.062065348 -0.3627297 -0.41539678
-0.062063031 -0.3626619 -0.41538918
-0.062060598 -0.36259601 -0.4153856
-0.062057972 -0.36253002 -0.41538602
-0.062055342 -0.36246404 -0.41538644
-0.062052812 -0.36239812 -0.41538486
-0.06205067 -0.36233234 -0.41537529
-0.062048353 -0.36226457 -0.41536769
-0.062046133 -0.3621968 -0.41535807
-0.06204411 -0.36212915 -0.41534448
-0.062041987 -0.36206144 -0.41533285
-0.062039845 -0.36199567 -0.41532332
-0.062037721 -0.36192796 -0.41531169
-0.062035602 -0.36186025 -0.4153001
-0.062033284 -0.36179245 -0.4152925
-0.062031161 -0.36172473 -0.41528088
-0.062029235 -0.36165711 -0.41526526
-0.062027093 -0.36159137 -0.41525573
-0.062024679 -0.36152351 -0.41525009
-0.062022537 -0.36145777 -0.41524053
-0.062020414 -0.36139005 -0.41522893
-0.06201829 -0.36132234 -0.41521734
-0.062015977 -0.36125454 -0.41520971
-0.062013734 -0.36118874 -0.41520214
-0.062011324 -0.36112088 -0.41519654
-0.062008984 -0.36105505 -0.41519096
-0.062006865 -0.36098734 -0.41517937
-0.062004838 -0.36091965 -0.41516575
-0.062002618 -0.36085191 -0.41515616
-0.062000282 -0.36078608 -0.41515058
-0.061997868 -0.36071822 -0.41514498
-0.061995652 -0.36065048 -0.41513535
-0.061993606 -0.36058477 -0.41512382
-0.061991386 -0.360517 -0.41511419
-0.061988972 -0.36044917 -0.41510856
-0.061986636 -0.36038333 -0.41510302
-0.061984319 -0.3603155 -0.41509539
-0.0619822 -0.36024779 -0.4150838
-0.061980076 -0.36018008 -0.41507217
-0.061977934 -0.36011434 -0.41506264
-0.061975617 -0.36004654 -0.41505501
-0.061973494 -0.35997882 -0.41504341
-0.061971471 -0.35991117 -0.41502979
-0.061969038 -0.35984528 -0.41502625
-0.061966021 -0.35977912 -0.41503465
-0.061963297 -0.35971311 -0.41503707
-0.061961059 -0.3596473 -0.4150295
-0.061959032 -0.35957962 -0.41501591
-0.061957005 -0.35951197 -0.41500229
-0.06195467 -0.35944611 -0.41499674
-0.061952159 -0.35937822 -0.41499311
-0.061949629 -0.3593123 -0.41499153
-0.0619471 -0.35924637 -0.41498995
-0.061944589 -0.35917848 -0.41498634
-0.061942447 -0.35911271 -0.41497678
-0.061940227 -0.35904497 -0.41496718
-0.061938107 -0.35897726 -0.41495556
-0.061936177 -0.35890964 -0.41493997
-0.061933938 -0.35884383 -0.4149324
-0.061931524 -0.358776 -0.4149268
-0.061929382 -0.35871023 -0.41491723
-0.061927356 -0.35864258 -0.41490364
-0.06192543 -0.35857496 -0.41488802
-0.061923403 -0.35850728 -0.41487443
-0.061921183 -0.35843951 -0.41486481
-0.061918944 -0.35837373 -0.41485724
-0.061916627 -0.35830593 -0.41484964
-0.061914388 -0.35824013 -0.41484207
-0.061912075 -0.35817233 -0.41483444
-0.061909854 -0.35810456 -0.41482484
-0.061907344 -0.35803667 -0.41482124
-0.061904814 -0.35797074 -0.41481966
-0.061902381 -0.35790485 -0.41481608
-0.061900258 -0.35783714 -0.41480449
-0.061898232 -0.35776949 -0.41479087
-0.061896011 -0.35770172 -0.41478127
-0.061893869 -0.35763597 -0.41477171
-0.061891653 -0.3575682 -0.41476208
-0.061889239 -0.35750037 -0.41475648
-0.061886709 -0.35743442 -0.41475493
-0.061884489 -0.35736668 -0.4147453
-0.061882444 -0.35730097 -0.41473374
-0.061879933 -0.35723308 -0.41473013
-0.061877597 -0.35716724 -0.41472456
-0.061875183 -0.35709938 -0.41471893
-0.061872963 -0.35703164 -0.41470933
-0.061871015 -0.35696596 -0.41469577
-0.061868701 -0.35689816 -0.41468817
-0.061866287 -0.35683033 -0.41468257
-0.061864242 -0.35676461 -0.414671
-0.061861925 -0.35669681 -0.41466337
-0.061859589 -0.35663098 -0.41465783
-0.061857369 -0.35656321 -0.41464821
-0.06185513 -0.35649741 -0.41464064
-0.061852716 -0.35642958 -0.41463503
-0.061850496 -0.35636181 -0.41462541
-0.061848354 -0.35629606 -0.41461587
-0.06184604 -0.35622826 -0.41460824
-0.06184382 -0.35616052 -0.41459864
-0.061841387 -0.35609463 -0.41459507
-0.061839048 -0.35602877 -0.41458949
-0.061837025 -0.35596111 -0.41457587
-0.061834902 -0.3558934 -0.41456428
-0.061832566 -0.35582754 -0.41455871
-0.061830249 -0.35575974 -0.41455111
-0.061828032 -0.355692 -0.41454148
-0.061825886 -0.35562623 -0.41453195
-0.061823767 -0.35555851 -0.41452032
-0.061821643 -0.3554908 -0.41450873
-0.061819714 -0.35542318 -0.41449311
-0.061817497 -0.35535544 -0.41448352
-0.061815258 -0.35528964 -0.41447595
-0.061813015 -0.35522383 -0.41446838
-0.061810799 -0.35515609 -0.41445878
-0.061808579 -0.35508832 -0.41444916
-0.061806262 -0.35502052 -0.41444156
-0.061803926 -0.35495469 -0.41443598
-0.06180159 -0.35488883 -0.41443041
-0.061798867 -0.35482281 -0.41443285
-0.061796356 -0.35475492 -0.41442922
-0.061794117 -0.35468912 -0.41442165
-0.0617918 -0.35462132 -0.41441405
-0.061789561 -0.35455552 -0.41440648
-0.061787438 -0.35448781 -0.41439489
-0.061785217 -0.35442007 -0.41438526
-0.061782882 -0.35435423 -0.41437972
-0.061780371 -0.35428634 -0.41437608
-0.061778422 -0.35422066 -0.41436252
-0.061776109 -0.35415286 -0.41435492
-0.061196022 -0.33932886 -0.41423506
-0.061161797 -0.33904046 -0.41471374
-0.061160721 -0.33897519 -0.41468224
-0.06116331 -0.33891353 -0.41457686
-0.061162334 -0.33884829 -0.41454333
-0.061159898 -0.33878243 -0.41453975
-0.061157193 -0.33871445 -0.41454011
-0.061157942 -0.33865196 -0.4144727
-0.062100831 -0.36380872 -0.41555899
-0.062098712 -0.36374101 -0.41554737
-0.062096588 -0.3636733 -0.41553578
-0.062094349 -0.3636075 -0.41552821
-0.062091935 -0.36353967 -0.41552258
-0.062089909 -0.36347198 -0.41550899
-0.062087711 -0.36340228 -0.41549733
-0.062085569 -0.36333653 -0.41548777
-0.062083252 -0.36326873 -0.41548017
-0.062081032 -0.36320096 -0.41547054
-0.062078912 -0.36313325 -0.41545895
-0.062076885 -0.3630656 -0.41544533
-0.062074762 -0.36299789 -0.41543373
-0.062072933 -0.3629303 -0.41541612
-0.062070809 -0.36286259 -0.41540453
-0.062068377 -0.36279669 -0.41540098
-0.062065963 -0.36272886 -0.41539535
-0.062063646 -0.36266106 -0.41538775
-0.062061213 -0.36259517 -0.41538417
-0.062058587 -0.36252919 -0.41538459
-0.062055957 -0.36246324 -0.41538501
-0.062053427 -0.36239728 -0.41538346
-0.062051188 -0.36233148 -0.41537589
-0.062048968 -0.36226374 -0.41536626
-0.062046751 -0.36219597 -0.41535667
-0.062044725 -0.36212832 -0.41534305
-0.062042601 -0.36206061 -0.41533145
-0.062040459 -0.36199483 -0.41532189
-0.062038336 -0.36192712 -0.41531029
-0.062036216 -0.36185941 -0.41529867
-0.062033899 -0.36179161 -0.41529107
-0.062031776 -0.3617239 -0.41527945
-0.06202985 -0.36165628 -0.41526386
-0.062027607 -0.36159047 -0.41525629
-0.062025294 -0.36152267 -0.41524869
-0.062023051 -0.36145687 -0.41524112
-0.062021028 -0.36138922 -0.4152275
-0.062018905 -0.36132151 -0.41521591
-0.062016588 -0.36125371 -0.41520828
-0.062014349 -0.36118791 -0.41520071
-0.062011935 -0.36112007 -0.41519511
-0.062009599 -0.36105421 -0.41518956
-0.062007479 -0.3609865 -0.41517794
-0.062005453 -0.36091885 -0.41516435
-0.062003233 -0.36085108 -0.41515473
-0.062000994 -0.36078528 -0.41514716
-0.061998483 -0.36071739 -0.41514355
-0.061996263 -0.36064965 -0.41513395
-0.061994217 -0.36058393 -0.41512239
-0.061992001 -0.36051619 -0.41511276
-0.061989587 -0.36044833 -0.41510716
-0.061987251 -0.3603825 -0.41510159
-0.061984934 -0.3603147 -0.41509396
-0.061982714 -0.36024693 -0.41508436
-0.061980687 -0.36017928 -0.41507077
-0.061978545 -0.3601135 -0.41506121
-0.061976232 -0.3600457 -0.41505358
-0.061974108 -0.35997799 -0.41504198
-0.061972082 -0.35991034 -0.41502839
-0.061969649 -0.35984445 -0.41502482
-0.061966732 -0.35977834 -0.41503122
-0.061964005 -0.3597123 -0.41503364
-0.061961669 -0.35964647 -0.4150281
-0.061959643 -0.35957882 -0.41501448
-0.06195762 -0.35951114 -0.41500086
-0.061955303 -0.35944334 -0.41499326
-0.061952773 -0.35937741 -0.41499168
-0.06195024 -0.35931146 -0.41499013
-0.061947711 -0.35924554 -0.41498852
-0.0619452 -0.35917765 -0.41498491
-0.061943058 -0.35911191 -0.41497535
-0.061940838 -0.35904413 -0.41496575
-0.061938718 -0.35897642 -0.41495413
-0.061936788 -0.3589088 -0.41493854
-0.061934549 -0.358843 -0.41493097
-0.061932135 -0.35877517 -0.41492537
-0.061929993 -0.35870939 -0.4149158
-0.061927967 -0.35864174 -0.41490221
-0.061926041 -0.35857412 -0.41488659
-0.061924014 -0.35850644 -0.414873
-0.061921794 -0.3584387 -0.41486338
-0.061919458 -0.35837284 -0.4148578
-0.061917141 -0.35830504 -0.41485021
-0.061914902 -0.35823926 -0.41484264
-0.061912686 -0.35817149 -0.41483304
-0.061910465 -0.35810375 -0.41482341
-0.061908051 -0.35803589 -0.41481781
-0.061905425 -0.35796991 -0.41481823
-0.061902989 -0.35790402 -0.41481465
-0.061900869 -0.35783631 -0.41480306
-0.061898842 -0.35776865 -0.41478944
-0.061896622 -0.35770088 -0.41477984
-0.06189448 -0.35763514 -0.41477028
-0.061892264 -0.3575674 -0.41476068
-0.06188985 -0.35749954 -0.41475505
-0.061887316 -0.35743362 -0.4147535
-0.0618851 -0.35736585 -0.41474387
-0.061883055 -0.35730013 -0.41473234
-0.061880544 -0.35723224 -0.4147287
-0.061878208 -0.35716641 -0.41472313
-0.061875794 -0.35709858 -0.4147175
-0.061873574 -0.35703081 -0.4147079
-0.061871625 -0.35696515 -0.41469437
-0.061869308 -0.35689735 -0.41468674
-0.061866991 -0.35682955 -0.41467911
-0.061864946 -0.35676384 -0.41466758
-0.061862536 -0.35669598 -0.41466194
-0.061860196 -0.35663015 -0.4146564
-0.06185798 -0.35656238 -0.41464677
-0.061855737 -0.3564966 -0.41463923
-0.061853327 -0.35642874 -0.4146336
-0.061851107 -0.356361 -0.41462398
-0.061848868 -0.3562952 -0.41461644
-0.061846647 -0.35622743 -0.41460681
-0.061844505 -0.35616168 -0.41459724
-0.061841995 -0.35609379 -0.41459364
-0.061839659 -0.35602796 -0.41458806
-0.061837632 -0.35596028 -0.41457447
-0.061835513 -0.35589257 -0.41456285
-0.061833173 -0.35582674 -0.41455728
-0.061830856 -0.35575894 -0.41454968
-0.061828639 -0.35569116 -0.41454005
-0.061826594 -0.35562545 -0.41452852
-0.061824374 -0.35555771 -0.41451889
-0.06182225 -0.35549 -0.4145073
-0.061820228 -0.35542232 -0.41449368
-0.061818104 -0.35535461 -0.41448209
-0.061815865 -0.3552888 -0.41447452
-0.061813626 -0.355223 -0.41446698
-0.061811406 -0.35515526 -0.41445735
-0.061809283 -0.35508755 -0.41444576
-0.061806869 -0.35501969 -0.41444013
-0.061804533 -0.35495386 -0.41443455
-0.061802197 -0.35488802 -0.41442901
-0.061799474 -0.35482198 -0.41443142
-0.061796963 -0.35475409 -0.41442779
-0.061794724 -0.35468832 -0.41442025
-0.061792407 -0.35462052 -0.41441262
-0.061790168 -0.35455471 -0.41440505
-0.061788045 -0.354487 -0.41439345
-0.061783489 -0.3543534 -0.41437829
-0.061781075 -0.35428554 -0.41437265
-0.06177903 -0.35421982 -0.41436109
-0.061776713 -0.35415202 -0.41435349
-0.061774377 -0.35408619 -0.41434792
-0.061196513 -0.33932799 -0.41423562
-0.061162479 -0.33903968 -0.41471031
-0.061161309 -0.33897436 -0.41468078
-0.061163802 -0.33891267 -0.41457739
-0.061162822 -0.33884743 -0.41454387
-0.061160486 -0.3387816 -0.41453832
-0.061157878 -0.33871365 -0.41453668
-0.061158918 -0.3386513 -0.41446328
-0.062100068 -0.36380693 -0.4155581
-0.062097944 -0.36373922 -0.41554648
-0.062095921 -0.36367157 -0.41553289
-0.062093507 -0.36360371 -0.41552728
-0.062091269 -0.36353791 -0.41551971
-0.062089145 -0.3634702 -0.41550809
-0.062086947 -0.36340049 -0.41549647
-0.062084805 -0.36333475 -0.41548687
-0.062082585 -0.363267 -0.41547728
-0.062080268 -0.3631992 -0.41546968
-0.062078148 -0.36313146 -0.41545805
-0.062076122 -0.36306381 -0.41544446
-0.062074095 -0.36299613 -0.41543084
-0.062072169 -0.36292851 -0.41541526
-0.062070142 -0.36286086 -0.41540164
-0.062067613 -0.36279494 -0.41540009
-0.062065199 -0.36272708 -0.41539446
-0.062062979 -0.36265934 -0.41538486
-0.062060449 -0.36259338 -0.41538328
-0.06205792 -0.36252746 -0.4153817
-0.062055197 -0.36246145 -0.41538411
-0.062052663 -0.3623955 -0.41538256
-0.062050521 -0.36232975 -0.415373
-0.062048204 -0.36226195 -0.4153654
-0.062045988 -0.36219418 -0.41535577
-0.062043961 -0.36212653 -0.41534215
-0.062041841 -0.36205882 -0.41533056
-0.062039696 -0.36199307 -0.41532099
-0.062037576 -0.36192536 -0.4153094
-0.062035453 -0.36185762 -0.41529778
-0.062033135 -0.36178985 -0.41529018
-0.062031113 -0.36172217 -0.41527656
-0.062029086 -0.36165452 -0.41526297
-0.062026944 -0.36158875 -0.4152534
-0.062024627 -0.36152095 -0.4152458
-0.062022388 -0.36145514 -0.41523823
-0.06202019 -0.36138543 -0.41522658
-0.062018145 -0.36131972 -0.41521502
-0.062015828 -0.36125192 -0.41520742
-0.062013589 -0.36118612 -0.41519985
-0.062011272 -0.36111832 -0.41519222
-0.062008936 -0.36105248 -0.41518664
-0.062006813 -0.36098477 -0.41517505
-0.062004693 -0.36091706 -0.41516346
-0.062002473 -0.36084929 -0.41515383
-0.062000137 -0.36078346 -0.41514826
-0.061997723 -0.36071563 -0.41514266
-0.061995503 -0.36064786 -0.41513306
-0.06199348 -0.36058021 -0.41511944
-0.061991241 -0.3605144 -0.41511187
-0.061988827 -0.36044654 -0.41510627
-0.061986588 -0.36038074 -0.4150987
-0.061984174 -0.36031291 -0.41509309
-0.061982051 -0.3602452 -0.41508147
-0.061979931 -0.36017749 -0.41506988
-0.061977785 -0.36011171 -0.41506031
-0.061975569 -0.36004397 -0.41505069
-0.061973445 -0.35997626 -0.41503909
-0.061971322 -0.35990855 -0.4150275
-0.061968889 -0.35984266 -0.41502392
-0.061965972 -0.35977656 -0.41503033
-0.061963245 -0.35971054 -0.41503274
-0.06196091 -0.35964468 -0.4150272
-0.061958887 -0.35957703 -0.41501358
-0.061956957 -0.35950941 -0.41499799
-0.061954543 -0.35944155 -0.41499236
-0.061952014 -0.35937563 -0.41499078
-0.061949581 -0.35930973 -0.41498721
-0.061946955 -0.35924375 -0.41498765
-0.061944444 -0.35917586 -0.41498405
-0.061942302 -0.35911012 -0.41497445
-0.061940081 -0.35904235 -0.41496485
-0.061937958 -0.35897464 -0.41495326
-0.061936032 -0.35890701 -0.41493765
-0.06193389 -0.35884127 -0.41492808
-0.061931379 -0.35877338 -0.41492447
-0.061929237 -0.35870764 -0.41491491
-0.061927211 -0.35863996 -0.41490132
-0.061925281 -0.35857233 -0.4148857
-0.061923258 -0.35850465 -0.41487211
-0.061921038 -0.35843691 -0.41486248
-0.061918799 -0.35837111 -0.41485494
-0.061916482 -0.35830331 -0.41484731
-0.061914243 -0.3582375 -0.41483974
-0.061912023 -0.35816976 -0.41483015
-0.061909709 -0.35810196 -0.41482252
-0.061907295 -0.3580341 -0.41481692
-0.061904766 -0.35796818 -0.41481534
-0.061902232 -0.35790226 -0.41481376
-0.06190021 -0.35783458 -0.41480017
-0.061898183 -0.35776693 -0.41478658
-0.061895866 -0.35769913 -0.41477895
-0.061893724 -0.35763335 -0.41476938
-0.061891507 -0.35756561 -0.41475978
-0.06188919 -0.35749781 -0.41475219
-0.061886661 -0.35743186 -0.41475061
-0.06188444 -0.35736412 -0.41474098
-0.061882395 -0.3572984 -0.41472942
-0.061879884 -0.35723051 -0.41472581
-0.061877549 -0.35716468 -0.41472024
-0.061875038 -0.35709679 -0.41471663
-0.061872914 -0.35702908 -0.41470501
-0.061870869 -0.35696337 -0.41469347
-0.061868556 -0.35689557 -0.41468585
-0.061866239 -0.35682777 -0.41467822
-0.061864194 -0.35676205 -0.41466668
-0.061861876 -0.35669425 -0.41465905
-0.061859444 -0.35662836 -0.41465551
-0.061857224 -0.35656062 -0.41464588
-0.061854985 -0.35649481 -0.41463834
-0.061852571 -0.35642695 -0.41463271
-0.061850451 -0.35635924 -0.41462108
-0.061848208 -0.35629344 -0.41461354
-0.061845895 -0.35622564 -0.41460592
-0.061843771 -0.35615793 -0.41459432
-0.061841242 -0.35609201 -0.41459274
-0.061839003 -0.3560262 -0.41458517
-0.06183688 -0.35595849 -0.41457358
-0.061834756 -0.35589078 -0.41456196
-0.061832421 -0.35582495 -0.41455638
-0.061830103 -0.35575715 -0.41454878
-0.061827887 -0.35568938 -0.41453916
-0.061825842 -0.35562366 -0.41452762
-0.061823621 -0.35555592 -0.414518
-0.061821595 -0.35548824 -0.41450441
-0.061819572 -0.35542059 -0.41449082
-0.061817352 -0.35535282 -0.41448119
-0.061815113 -0.35528702 -0.41447362
-0.061812874 -0.35522124 -0.41446608
-0.061810751 -0.35515353 -0.41445446
-0.06180853 -0.35508576 -0.41444486
-0.061806217 -0.35501796 -0.41443723
-0.061803877 -0.35495213 -0.41443166
-0.061801445 -0.35488623 -0.41442811
-0.061798722 -0.35482022 -0.41443053
-0.061796211 -0.35475233 -0.41442689
-0.061793972 -0.35468653 -0.41441935
-0.061791655 -0.35461873 -0.41441172
-0.061789416 -0.35455292 -0.41440415
-0.061787292 -0.35448521 -0.41439256
-0.061785076 -0.35441744 -0.41438293
-0.06178274 -0.35435161 -0.41437739
-0.061780423 -0.35428381 -0.41436976
-0.061778281 -0.35421807 -0.4143602
-0.061776061 -0.3541503 -0.4143506
-0.061773628 -0.3540844 -0.41434702
-0.061195783 -0.3393262 -0.41423473
-0.061161749 -0.3390379 -0.41470942
-0.061160576 -0.33897257 -0.41467988
-0.061163262 -0.33891097 -0.41457251
-0.061162092 -0.33884564 -0.41454297
-0.061159752 -0.33877981 -0.4145374
-0.061157245 -0.33871192 -0.41453379
-0.061158281 -0.33864957 -0.41446036
-0.06209993 -0.36380741 -0.41555688
-0.062097806 -0.3637397 -0.41554528
-0.062095784 -0.36367202 -0.41553167
-0.06209337 -0.36360419 -0.41552606
-0.062091053 -0.36353639 -0.41551843
-0.062089026 -0.36346874 -0.41550484
-0.062086809 -0.36340097 -0.41549522
-0.062084667 -0.36333522 -0.41548565
-0.062082447 -0.36326745 -0.41547605
-0.062080227 -0.36319971 -0.41546646
-0.062078107 -0.363132 -0.41545483
-0.062076081 -0.36306432 -0.41544124
-0.062074054 -0.36299667 -0.41542763
-0.062072031 -0.36292899 -0.41541404
-0.062069908 -0.36286128 -0.41540241
-0.062067397 -0.36279339 -0.41539881
-0.062065061 -0.36272755 -0.41539323
-0.062062845 -0.36265978 -0.41538364
-0.062060311 -0.36259386 -0.41538206
-0.062057685 -0.36252788 -0.41538247
-0.062054962 -0.36246186 -0.41538489
-0.062052526 -0.36239597 -0.41538134
-0.062050309 -0.36232823 -0.41537172
-0.062048167 -0.36226246 -0.41536215
-0.062045947 -0.36219472 -0.41535255
-0.062043823 -0.36212701 -0.41534096
-0.062041704 -0.3620593 -0.41532934
-0.062039386 -0.36199149 -0.41532174
-0.062037438 -0.36192581 -0.41530818
-0.06203524 -0.3618561 -0.41529652
-0.062032998 -0.3617903 -0.41528895
-0.062030878 -0.36172259 -0.41527733
-0.062028948 -0.36165497 -0.41526175
-0.062026732 -0.36158723 -0.41525215
-0.062024392 -0.36152136 -0.41524658
-0.062022176 -0.36145362 -0.41523695
-0.062020052 -0.36138591 -0.41522536
-0.062018007 -0.3613202 -0.41521379
-0.06201569 -0.3612524 -0.41520619
-0.062013451 -0.36118659 -0.41519862
-0.062011134 -0.36111879 -0.41519099
-0.062008798 -0.36105296 -0.41518545
-0.062006675 -0.36098525 -0.41517383
-0.062004555 -0.36091754 -0.41516224
-0.062002335 -0.36084977 -0.41515261
-0.062000096 -0.36078396 -0.41514504
-0.061997585 -0.36071607 -0.41514143
-0.061995368 -0.36064833 -0.41513181
-0.061993342 -0.36058065 -0.41511822
-0.061991122 -0.36051291 -0.41510862
-0.061988689 -0.36044702 -0.41510504
-0.061986275 -0.36037916 -0.41509944
-0.061984133 -0.36031342 -0.41508985
-0.061981913 -0.36024567 -0.41508025
-0.061979793 -0.36017796 -0.41506866
-0.061977651 -0.36011219 -0.41505909
-0.061975334 -0.36004439 -0.41505146
-0.06197321 -0.35997668 -0.41503987
-0.061971188 -0.35990903 -0.41502625
-0.061968654 -0.35984308 -0.4150247
-0.061965834 -0.35977703 -0.41502911
-0.061963111 -0.35971099 -0.41503152
-0.061960872 -0.35964519 -0.41502398
-0.061958749 -0.35957748 -0.41501236
-0.061956722 -0.35950983 -0.41499877
-0.061954312 -0.35944197 -0.41499314
-0.061951876 -0.35937607 -0.41498956
-0.061949443 -0.35931021 -0.41498601
-0.061946817 -0.35924423 -0.41498643
-0.061944306 -0.35917634 -0.4149828
-0.061942164 -0.35911059 -0.41497326
-0.06194004 -0.35904288 -0.41496164
-0.061937921 -0.35897517 -0.41495001
-0.061935991 -0.35890752 -0.41493443
-0.061933752 -0.35884172 -0.41492686
-0.061931241 -0.35877386 -0.41492325
-0.061929021 -0.35870609 -0.41491365
-0.06192717 -0.35864046 -0.4148981
-0.061925244 -0.35857284 -0.41488248
-0.06192312 -0.35850513 -0.41487089
-0.0619209 -0.35843739 -0.41486126
-0.06191849 -0.35836953 -0.41485566
-0.061916348 -0.35830379 -0.41484609
-0.06191403 -0.35823599 -0.41483849
-0.06191181 -0.35816821 -0.41482887
-0.061909571 -0.35810241 -0.41482133
-0.061907157 -0.35803458 -0.41481569
-0.061904628 -0.35796866 -0.41481411
-0.061902195 -0.35790277 -0.41481054
-0.061900072 -0.35783505 -0.41479895
-0.061898045 -0.35776737 -0.41478533
-0.061895732 -0.35769957 -0.41477773
-0.06189359 -0.35763383 -0.41476816
-0.06189137 -0.35756606 -0.41475856
-0.061888956 -0.35749823 -0.41475296
-0.061886523 -0.35743234 -0.41474938
-0.061884303 -0.35736459 -0.41473976
-0.061882086 -0.35729682 -0.41473016
-0.061879747 -0.35723099 -0.41472459
-0.061877314 -0.3571651 -0.41472101
-0.0618749 -0.35709724 -0.41471541
-0.061872683 -0.3570295 -0.41470578
-0.061870735 -0.35696381 -0.41469222
-0.061868418 -0.35689601 -0.41468462
-0.061866101 -0.35682824 -0.41467702
-0.061864056 -0.35676253 -0.41466546
-0.061861642 -0.35669467 -0.41465983
-0.061859306 -0.35662884 -0.41465425
-0.061857089 -0.35656106 -0.41464466
-0.061854675 -0.35649323 -0.41463906
-0.061852437 -0.35642743 -0.41463149
-0.061850216 -0.35635966 -0.41462186
-0.061848074 -0.35629392 -0.41461232
-0.061845757 -0.35622612 -0.41460469
-0.061843537 -0.35615838 -0.4145951
-0.061841104 -0.35609248 -0.41459152
-0.061838787 -0.35602468 -0.41458392
-0.061836839 -0.355959 -0.41457033
-0.061834622 -0.35589126 -0.41456074
-0.061832383 -0.35582545 -0.41455317
-0.061829969 -0.35575759 -0.41454756
-0.061827749 -0.35568985 -0.41453797
-0.061825704 -0.35562414 -0.4145264
-0.061823484 -0.3555564 -0.41451678
-0.061821461 -0.35548872 -0.41450319
-0.061819434 -0.35542104 -0.41448957
-0.061817214 -0.3553533 -0.41447997
-0.061814975 -0.35528749 -0.4144724
-0.061812736 -0.35522169 -0.41446483
-0.061810516 -0.35515395 -0.41445524
-0.061808396 -0.35508624 -0.41444361
-0.061806079 -0.35501844 -0.41443601
-0.061803646 -0.35495254 -0.41443244
-0.061801311 -0.35488668 -0.41442686
-0.061798606 -0.35481873 -0.41442725
-0.061796077 -0.35475278 -0.41442567
-0.061793759 -0.35468498 -0.41441807
-0.061791424 -0.35461915 -0.4144125
-0.061789379 -0.35455343 -0.41440094
-0.061787255 -0.35448572 -0.41438934
-0.061782602 -0.35435209 -0.41437614
-0.061780188 -0.35428423 -0.41437054
-0.061778143 -0.35421851 -0.41435897
-0.061775826 -0.35415071 -0.41435137
-0.061195552 -0.33932662 -0.4142355
-0.061161421 -0.33903828 -0.41471219
-0.061160639 -0.33897313 -0.41467467
-0.061163034 -0.33891138 -0.41457328
-0.061161958 -0.33884612 -0.41454175
-0.061159525 -0.33878022 -0.41453817
-0.061156821 -0.33871225 -0.41453856
-0.061156813 -0.33864745 -0.41448507
-0.062099453 -0.36380932 -0.41555819
-0.062097233 -0.36374158 -0.41554856
-0.06209521 -0.3636739 -0.41553497
-0.062092796 -0.36360607 -0.41552934
-0.062090557 -0.36354026 -0.4155218
-0.062088531 -0.36347258 -0.41550818
-0.062086236 -0.36340284 -0.41549852
-0.062084094 -0.36333707 -0.41548896
-0.062081873 -0.36326933 -0.41547936
-0.062079556 -0.36320153 -0.41547173
-0.062077437 -0.36313382 -0.41546014
-0.062075507 -0.3630662 -0.41544455
-0.062073383 -0.36299849 -0.41543293
-0.062071458 -0.36293086 -0.41541731
-0.062069431 -0.36286318 -0.41540372
-0.062066901 -0.36279726 -0.41540214
-0.062064487 -0.3627294 -0.41539654
-0.062062271 -0.36266166 -0.41538692
-0.062059738 -0.36259574 -0.41538537
-0.062057208 -0.36252978 -0.41538379
-0.062054485 -0.36246377 -0.4153862
-0.062051952 -0.36239785 -0.41538462
-0.06204981 -0.36233208 -0.41537505
-0.062047496 -0.36226428 -0.41536745
-0.062045276 -0.36219653 -0.41535783
-0.06204325 -0.36212885 -0.41534424
-0.06204113 -0.36206114 -0.41533262
-0.062038984 -0.3619954 -0.41532308
-0.062036864 -0.36192769 -0.41531146
-0.062034741 -0.36185998 -0.41529986
-0.062032424 -0.36179218 -0.41529226
-0.062030401 -0.3617245 -0.41527864
-0.062028375 -0.36165684 -0.41526505
-0.062026232 -0.36159107 -0.41525549
-0.062023915 -0.36152327 -0.41524786
-0.062021676 -0.36145747 -0.41524029
-0.062019479 -0.36138776 -0.41522866
-0.062017433 -0.36132205 -0.4152171
-0.062015116 -0.36125425 -0.41520947
-0.062012877 -0.36118844 -0.4152019
-0.06201056 -0.36112067 -0.4151943
-0.062008224 -0.36105481 -0.41518873
-0.062006101 -0.3609871 -0.41517714
-0.062003981 -0.36091939 -0.41516551
-0.062001761 -0.36085165 -0.41515592
-0.061999522 -0.36078584 -0.41514835
-0.061997011 -0.36071795 -0.41514474
-0.061994791 -0.36065018 -0.41513512
-0.061992768 -0.36058253 -0.41512153
-0.061990626 -0.36051676 -0.41511196
-0.061988115 -0.36044887 -0.41510832
-0.061985876 -0.36038309 -0.41510078
-0.061983559 -0.36031529 -0.41509315
-0.061981339 -0.36024752 -0.41508356
-0.061979219 -0.36017981 -0.41507196
-0.061977074 -0.36011407 -0.4150624
-0.061974857 -0.3600463 -0.41505277
-0.061972734 -0.35997859 -0.41504118
-0.06197061 -0.35991088 -0.41502959
-0.061968178 -0.35984498 -0.41502601
-0.061965358 -0.35977894 -0.41503042
-0.061962534 -0.35971287 -0.41503483
-0.061960295 -0.35964707 -0.41502726
-0.061958175 -0.35957935 -0.41501567
-0.061956245 -0.35951173 -0.41500005
-0.061953831 -0.35944387 -0.41499445
-0.061951399 -0.35937801 -0.41499087
-0.061948869 -0.35931206 -0.41498929
-0.06194634 -0.35924613 -0.41498774
-0.061943829 -0.35917825 -0.41498411
-0.06194159 -0.35911244 -0.41497654
-0.06193937 -0.3590447 -0.41496694
-0.061937343 -0.35897702 -0.41495335
-0.061935417 -0.3589094 -0.41493773
-0.061933175 -0.35884359 -0.41493016
-0.061930764 -0.35877576 -0.41492456
-0.061928526 -0.35870996 -0.41491699
-0.061926499 -0.35864228 -0.4149034
-0.061924569 -0.35857466 -0.41488779
-0.061922546 -0.35850701 -0.4148742
-0.061920326 -0.35843924 -0.41486457
-0.061918087 -0.35837343 -0.414857
-0.06191577 -0.35830563 -0.4148494
-0.061913531 -0.35823983 -0.41484183
-0.061911311 -0.35817209 -0.41483223
-0.061908998 -0.35810429 -0.4148246
-0.061906584 -0.35803643 -0.414819
-0.061904054 -0.35797051 -0.41481742
-0.061901618 -0.35790461 -0.41481385
-0.061899498 -0.3578369 -0.41480225
-0.061897472 -0.35776925 -0.41478863
-0.061895154 -0.35770145 -0.41478103
-0.061893012 -0.35763568 -0.41477147
-0.061890893 -0.35756797 -0.41475987
-0.061888479 -0.35750014 -0.41475424
-0.061885945 -0.35743421 -0.41475266
-0.061883729 -0.35736644 -0.41474307
-0.061881587 -0.3573007 -0.4147335
-0.061879173 -0.35723284 -0.4147279
-0.06187674 -0.35716695 -0.41472432
-0.061874326 -0.35709912 -0.41471869
-0.061872203 -0.3570314 -0.41470709
-0.061870255 -0.35696572 -0.41469353
-0.061867937 -0.35689795 -0.41468593
-0.061865527 -0.35683009 -0.4146803
-0.061863482 -0.35676438 -0.41466874
-0.061861165 -0.35669658 -0.41466114
-0.061858732 -0.35663068 -0.41465759
-0.061856512 -0.35656294 -0.41464797
-0.061854195 -0.35649514 -0.41464037
-0.061851859 -0.35642928 -0.41463479
-0.061849639 -0.35636154 -0.41462517
-0.0618474 -0.35629573 -0.4146176
-0.061845183 -0.35622799 -0.414608
-0.061842963 -0.35616022 -0.41459841
-0.06184053 -0.35609433 -0.41459483
-0.061838288 -0.35602853 -0.41458726
-0.061836265 -0.35596088 -0.41457367
-0.061834142 -0.35589316 -0.41456205
-0.061831806 -0.3558273 -0.4145565
-0.061829392 -0.35575947 -0.41455087
-0.061827175 -0.35569173 -0.41454124
-0.061825126 -0.35562602 -0.41452971
-0.06182291 -0.35555825 -0.41452008
-0.061820883 -0.3554906 -0.41450649
-0.061818857 -0.35542291 -0.41449288
-0.06181664 -0.35535517 -0.41448328
-0.061814401 -0.35528937 -0.41447571
-0.061812159 -0.35522357 -0.41446814
-0.061810039 -0.35515586 -0.41445655
-0.061807819 -0.35508808 -0.41444695
-0.061805502 -0.35502028 -0.41443932
-0.061803166 -0.35495445 -0.41443375
-0.061800733 -0.35488856 -0.41443017
-0.061798029 -0.35482058 -0.41443056
-0.061795499 -0.35475466 -0.41442898
-0.06179326 -0.35468885 -0.41442141
-0.061790943 -0.35462105 -0.41441381
-0.061788704 -0.35455525 -0.41440624
-0.061786581 -0.35448754 -0.41439462
-0.061784361 -0.3544198 -0.41438502
-0.061782025 -0.35435393 -0.41437948
-0.061779611 -0.3542861 -0.41437384
-0.061777566 -0.35422039 -0.41436228
-0.061775349 -0.35415262 -0.41435269
-0.061772913 -0.35408673 -0.41434911
-0.061195072 -0.33932853 -0.41423681
-0.061160941 -0.33904019 -0.4147135
-0.061159864 -0.33897489 -0.41468197
-0.061162457 -0.33891326 -0.41457659
-0.06116138 -0.33884799 -0.41454506
-0.061159045 -0.33878213 -0.41453952
-0.061156437 -0.33871421 -0.41453788
-0.061157376 -0.33865181 -0.41446644
-0.062098097 -0.3638089 -0.41555849
-0.062095977 -0.36374119 -0.41554689
-0.062093854 -0.36367348 -0.41553527
-0.062091615 -0.36360767 -0.4155277
-0.062089201 -0.36353984 -0.4155221
-0.062087178 -0.36347216 -0.41550851
-0.062085055 -0.36340445 -0.41549689
-0.062082835 -0.36333671 -0.41548729
-0.062080521 -0.36326891 -0.41547966
-0.062078301 -0.36320114 -0.41547006
-0.062076177 -0.36313343 -0.41545844
-0.062074058 -0.36306572 -0.41544685
-0.062072031 -0.36299807 -0.41543323
-0.062070202 -0.36293048 -0.41541564
-0.062068079 -0.36286277 -0.41540402
-0.062065646 -0.36279687 -0.41540048
-0.062063232 -0.36272904 -0.41539484
-0.062060915 -0.36266124 -0.41538724
-0.062058482 -0.36259535 -0.41538367
-0.062055856 -0.36252937 -0.41538411
-0.06205323 -0.36246338 -0.41538453
-0.062050696 -0.36239746 -0.41538295
-0.062048458 -0.36233166 -0.41537538
-0.062046241 -0.36226392 -0.41536579
-0.062044021 -0.36219615 -0.41535616
-0.062041994 -0.3621285 -0.41534257
-0.062039778 -0.36206073 -0.41533294
-0.062037636 -0.36199498 -0.41532338
-0.062035512 -0.36192727 -0.41531178
-0.062033389 -0.36185956 -0.41530019
-0.062031172 -0.36179179 -0.41529056
-0.062029049 -0.36172408 -0.41527897
-0.062027123 -0.36165646 -0.41526335
-0.06202488 -0.36159065 -0.41525578
-0.062022567 -0.36152285 -0.41524819
-0.062020328 -0.36145705 -0.41524062
-0.062018301 -0.3613894 -0.41522703
-0.062016081 -0.36132163 -0.4152174
-0.062013842 -0.36125582 -0.41520983
-0.062011626 -0.36118808 -0.41520023
-0.062009286 -0.36112225 -0.41519469
-0.062006876 -0.36105439 -0.41518906
-0.062004752 -0.36098668 -0.41517746
-0.062002629 -0.36091897 -0.41516584
-0.062000509 -0.36085126 -0.41515422
-0.061998174 -0.36078542 -0.41514868
-0.06199576 -0.36071756 -0.41514304
-0.061993539 -0.36064982 -0.41513345
-0.061991494 -0.36058411 -0.41512188
-0.061989181 -0.36051631 -0.41511428
-0.061986767 -0.36044845 -0.41510865
-0.061984528 -0.36038268 -0.41510111
-0.061982211 -0.36031485 -0.41509348
-0.06197999 -0.36024711 -0.41508389
-0.061977968 -0.36017942 -0.41507027
-0.061975729 -0.36011365 -0.4150627
-0.061973508 -0.36004588 -0.4150531
-0.061971385 -0.35997817 -0.41504151
-0.061969265 -0.35991046 -0.41502988
-0.06196693 -0.35984462 -0.41502431
-0.061964009 -0.35977849 -0.41503072
-0.061961189 -0.35971245 -0.41503516
-0.06195895 -0.35964665 -0.41502759
-0.061956923 -0.35957897 -0.41501397
-0.061954901 -0.35951132 -0.41500038
-0.061952583 -0.35944352 -0.41499275
-0.061950054 -0.35937756 -0.4149912
-0.061947521 -0.35931164 -0.41498962
-0.061944991 -0.35924572 -0.41498804
-0.061942559 -0.35917982 -0.41498446
-0.061940338 -0.35911205 -0.41497487
-0.061938122 -0.35904431 -0.41496527
-0.061935902 -0.35897654 -0.41495565
-0.061934069 -0.35890898 -0.41493803
-0.06193183 -0.35884318 -0.41493049
-0.06192942 -0.35877535 -0.41492486
-0.061927278 -0.35870957 -0.41491532
-0.061925154 -0.35864186 -0.4149037
-0.061923224 -0.35857424 -0.41488811
-0.061921299 -0.35850662 -0.4148725
-0.061919078 -0.35843885 -0.4148629
-0.061916742 -0.35837302 -0.41485733
-0.061914425 -0.35830522 -0.4148497
-0.061912186 -0.35823941 -0.41484216
-0.061909966 -0.35817167 -0.41483253
-0.06190775 -0.3581039 -0.41482294
-0.061905336 -0.35803607 -0.41481733
-0.061902709 -0.35797009 -0.41481775
-0.061900277 -0.3579042 -0.41481417
-0.061898153 -0.35783648 -0.41480255
-0.061896127 -0.35776883 -0.41478896
-0.061893813 -0.35770103 -0.41478133
-0.061891671 -0.35763526 -0.4147718
-0.061889548 -0.35756755 -0.41476017
-0.061887134 -0.35749972 -0.41475457
-0.061884604 -0.35743377 -0.41475299
-0.061882287 -0.357366 -0.41474539
-0.061880242 -0.35730028 -0.41473383
-0.061877832 -0.35723242 -0.41472822
-0.061875492 -0.35716659 -0.41472262
-0.061873082 -0.35709873 -0.41471702
-0.061870862 -0.35703099 -0.41470742
-0.061868913 -0.3569653 -0.41469386
-0.061866596 -0.3568975 -0.41468626
-0.061864186 -0.35682967 -0.41468063
-0.061862141 -0.35676396 -0.4146691
-0.061859824 -0.35669616 -0.41466147
-0.061857391 -0.35663027 -0.41465789
-0.061855171 -0.35656253 -0.41464829
-0.061852932 -0.35649672 -0.41464072
-0.061850518 -0.35642886 -0.41463512
-0.061848395 -0.35636115 -0.4146235
-0.061846156 -0.35629535 -0.41461593
-0.061843939 -0.35622761 -0.41460633
-0.061841719 -0.35615987 -0.41459671
-0.061839286 -0.35609397 -0.41459316
-0.06183695 -0.35602811 -0.41458759
-0.061834924 -0.35596046 -0.41457397
-0.061832801 -0.35589275 -0.41456237
-0.061830465 -0.35582688 -0.4145568
-0.061828054 -0.35575905 -0.4145512
-0.061825931 -0.35569134 -0.41453958
-0.061823789 -0.35562557 -0.41453001
-0.061821569 -0.35555783 -0.41452041
-0.061819546 -0.35549015 -0.41450679
-0.061817519 -0.3554225 -0.4144932
-0.061815474 -0.35535678 -0.41448164
-0.061813157 -0.35528898 -0.41447404
-0.061810918 -0.35522318 -0.41446647
-0.061808698 -0.35515544 -0.41445684
-0.061806481 -0.35508767 -0.41444725
-0.061804164 -0.35501987 -0.41443965
-0.061801828 -0.35495403 -0.41443408
-0.061799396 -0.35488814 -0.4144305
-0.061796769 -0.35482216 -0.41443092
-0.061794259 -0.35475427 -0.41442731
-0.06179202 -0.35468847 -0.41441974
-0.061789606 -0.35462064 -0.41441414
-0.061787464 -0.35455486 -0.41440457
-0.06178534 -0.35448715 -0.41439295
-0.06178312 -0.35441941 -0.41438335
-0.061780784 -0.35435358 -0.41437778
-0.061778374 -0.35428572 -0.41437218
-0.061776329 -0.35422 -0.41436061
-0.061774012 -0.3541522 -0.41435301
-0.061771676 -0.35408637 -0.41434744
-0.061196465 -0.33939609 -0.41423678
-0.061194055 -0.33932823 -0.41423115
-0.061190844 -0.33926201 -0.41424358
-0.061159827 -0.33903983 -0.41470984
-0.061158653 -0.33897454 -0.4146803
-0.061161339 -0.33891293 -0.41457295
-0.06116017 -0.33884761 -0.41454339
-0.061157659 -0.33877972 -0.41453978
-0.061155226 -0.33871382 -0.41453621
-0.061156455 -0.33865157 -0.41445881
-0.062097363 -0.36380851 -0.41555518
-0.062095147 -0.36374074 -0.41554558
-0.062093023 -0.36367303 -0.41553396
-0.062090784 -0.36360726 -0.41552639
-0.062088467 -0.36353946 -0.41551879
-0.062086347 -0.36347175 -0.41550717
-0.06208415 -0.36340204 -0.41549551
-0.062082008 -0.36333627 -0.41548598
-0.062079787 -0.36326852 -0.41547635
-0.06207747 -0.36320072 -0.41546875
-0.06207535 -0.36313301 -0.41545713
-0.062073324 -0.36306533 -0.41544354
-0.062071301 -0.36299768 -0.41542992
-0.062069371 -0.36293006 -0.41541433
-0.062067252 -0.36286235 -0.41540271
-0.062064815 -0.36279646 -0.41539913
-0.062062405 -0.3627286 -0.41539353
-0.062060088 -0.3626608 -0.41538593
-0.062057655 -0.3625949 -0.41538236
-0.062055029 -0.36252895 -0.41538277
-0.062052302 -0.36246291 -0.41538519
-0.062049869 -0.36239702 -0.41538161
-0.062047727 -0.36233127 -0.41537207
-0.062045414 -0.36226347 -0.41536444
-0.062043194 -0.36219573 -0.41535485
-0.062041167 -0.36212805 -0.41534126
-0.062039047 -0.36206034 -0.41532964
-0.062036905 -0.36199459 -0.41532007
-0.062034782 -0.36192688 -0.41530848
-0.062032662 -0.36185917 -0.41529685
-0.062030345 -0.36179137 -0.41528925
-0.062028222 -0.36172366 -0.41527766
-0.062026296 -0.36165604 -0.41526204
-0.062024154 -0.36159027 -0.41525248
-0.06202174 -0.36152244 -0.41524687
-0.062019598 -0.36145666 -0.41523731
-0.0620174 -0.36138695 -0.41522565
-0.062015355 -0.36132124 -0.41521409
-0.062013038 -0.36125344 -0.41520649
-0.062010799 -0.36118764 -0.41519892
-0.062008385 -0.36111981 -0.41519332
-0.062006049 -0.36105397 -0.41518775
-0.062003929 -0.36098623 -0.41517612
-0.062001903 -0.36091858 -0.41516253
-0.061999686 -0.36085084 -0.41515291
-0.061997347 -0.36078498 -0.41514733
-0.061994936 -0.36071715 -0.41514173
-0.061992716 -0.36064938 -0.41513214
-0.061990671 -0.36058366 -0.41512057
-0.061988451 -0.36051592 -0.41511095
-0.061985943 -0.36044803 -0.41510734
-0.061983705 -0.36038223 -0.41509977
-0.061981387 -0.36031443 -0.41509217
-0.061979167 -0.36024666 -0.41508254
-0.061977144 -0.36017901 -0.41506895
-0.061975002 -0.36011326 -0.41505939
-0.061972685 -0.36004546 -0.41505176
-0.061970562 -0.35997775 -0.41504017
-0.061968539 -0.35991007 -0.41502658
-0.061966106 -0.35984418 -0.415023
-0.061963089 -0.35977805 -0.4150314
-0.061960462 -0.35971206 -0.41503185
-0.061958127 -0.3596462 -0.41502628
-0.0619561 -0.35957855 -0.41501266
-0.061954077 -0.35951087 -0.41499907
-0.061951742 -0.35944504 -0.41499349
-0.061949231 -0.35937715 -0.41498989
-0.061946701 -0.35931122 -0.41498831
-0.061944172 -0.35924527 -0.41498673
-0.061941758 -0.35917744 -0.41498113
-0.061939519 -0.35911164 -0.41497356
-0.061937395 -0.35904393 -0.41496193
-0.061935276 -0.35897622 -0.41495034
-0.061933249 -0.35890853 -0.41493672
-0.06193101 -0.35884276 -0.41492918
-0.061928596 -0.3587749 -0.41492355
