# .PCD v0.7 - Point Cloud Data file format
VERSION 0.7
FIELDS x y z
SIZE 4 4 4
TYPE F F F
COUNT 1 1 1
WIDTH 1305
HEIGHT 1
VIEWPOINT 0 0 0 1 0 0 0
POINTS 1305
DATA ascii
-0.061151858 -0.34676996 -0.42119178
-0.061149366 -0.3467001 -0.42118612
-0.061146975 -0.34663031 -0.42117846
-0.061144602 -0.34655857 -0.42116874
-0.061142091 -0.34649068 -0.42116514
-0.061139718 -0.34641892 -0.42115542
-0.06113752 -0.34634921 -0.42114377
-0.061134934 -0.34627932 -0.4211401
-0.061132248 -0.34620941 -0.42113844
-0.061129857 -0.34613961 -0.42113078
-0.061127659 -0.3460699 -0.42111912
-0.061125558 -0.34600022 -0.42110547
-0.061123356 -0.34593052 -0.42109382
-0.061120868 -0.34586069 -0.42108816
-0.061118379 -0.34579083 -0.4210825
-0.061116084 -0.3457211 -0.42107284
-0.061113883 -0.34565139 -0.42106119
-0.061111782 -0.34558171 -0.42104754
-0.061109681 -0.34551206 -0.42103389
-0.06110758 -0.34544238 -0.42102024
-0.06110511 -0.34537059 -0.42101252
-0.061102986 -0.34530288 -0.42100093
-0.061101273 -0.34523338 -0.42097929
-0.061098319 -0.34516138 -0.42098156
-0.061094355 -0.34509283 -0.4210079
-0.061091088 -0.34502265 -0.42101821
-0.061088696 -0.34495285 -0.42101055
-0.061086494 -0.34488314 -0.4209989
-0.061084103 -0.34481335 -0.42099124
-0.061081905 -0.34474361 -0.42097959
-0.061079901 -0.34467399 -0.42096394
-0.061077796 -0.34460434 -0.42095029
-0.061075792 -0.34453472 -0.42093465
-0.061073884 -0.34446514 -0.420917
-0.061071977 -0.34439555 -0.42089936
-0.061069779 -0.34432584 -0.42088771
-0.061067387 -0.34425604 -0.42088005
-0.061065089 -0.34418631 -0.42087039
-0.061063085 -0.34411669 -0.42085475
-0.061061081 -0.34404707 -0.42083907
-0.061056338 -0.34397817 -0.42088139
-0.061052784 -0.34390783 -0.42089772
-0.061052524 -0.34383902 -0.4208461
-0.061052945 -0.34377047 -0.42078054
-0.061052974 -0.34370178 -0.42072296
-0.061051767 -0.34363055 -0.42068928
-0.061048869 -0.34356251 -0.42069364
-0.061044052 -0.34349161 -0.42073593
-0.061039235 -0.34342071 -0.42077819
-0.061035559 -0.34335229 -0.42079854
-0.061032489 -0.34328219 -0.42080486
-0.0610299 -0.34321231 -0.42080119
-0.061027605 -0.34314254 -0.42079154
-0.061025117 -0.34307271 -0.42078587
-0.06102214 -0.34300265 -0.4207902
-0.061019361 -0.34293267 -0.42079052
-0.061016966 -0.34286287 -0.42078286
-0.061014652 -0.34279507 -0.42077526
-0.06101216 -0.34272525 -0.4207696
-0.061009865 -0.34265548 -0.42075995
-0.061007958 -0.34258592 -0.4207423
-0.061005857 -0.34251624 -0.42072862
-0.061003756 -0.3424466 -0.42071497
-0.061001554 -0.34237689 -0.42070335
-0.060999043 -0.342309 -0.42069972
-0.060996652 -0.3422392 -0.42069206
-0.060994357 -0.34216943 -0.4206824
-0.060992159 -0.34209973 -0.42067075
-0.060989961 -0.34203002 -0.4206591
-0.060987566 -0.34196022 -0.42065144
-0.060985077 -0.34189039 -0.42064577
-0.060982373 -0.34182242 -0.42064616
-0.060979396 -0.34175235 -0.42065048
-0.060976908 -0.34168249 -0.42064482
-0.060974903 -0.34161288 -0.42062914
-0.060972899 -0.34154326 -0.42061353
-0.060970098 -0.34147525 -0.42061588
-0.060967218 -0.34140524 -0.42061821
-0.060964826 -0.34133545 -0.42061055
-0.060962822 -0.3412658 -0.4205949
-0.060960427 -0.341196 -0.42058724
-0.060957938 -0.34112617 -0.42058158
-0.060955718 -0.3410584 -0.42057198
-0.060953908 -0.34098887 -0.42055234
-0.060952097 -0.34091935 -0.4205327
-0.060950674 -0.34085 -0.42050505
-0.060949232 -0.34078258 -0.42047948
-0.060947325 -0.34071302 -0.42046183
-0.060945027 -0.34064326 -0.42045218
-0.060941838 -0.34057507 -0.42046255
-0.060936946 -0.34050217 -0.42050475
-0.060935695 -0.34043485 -0.42047518
-0.060932916 -0.34036487 -0.42047551
-0.060930133 -0.3402949 -0.42047584
-0.060927548 -0.34022504 -0.42047217
-0.060925156 -0.34015524 -0.42046452
-0.060922839 -0.34008744 -0.42045689
-0.060920738 -0.34001777 -0.42044324
-0.060918637 -0.33994809 -0.42042959
-0.060916416 -0.33988035 -0.42041999
-0.060913928 -0.33981049 -0.42041433
-0.060911436 -0.33974066 -0.42040867
-0.060909122 -0.33967286 -0.42040104
-0.060906921 -0.33960316 -0.42038938
-0.060904916 -0.33953354 -0.42037374
-0.060903009 -0.33946395 -0.42035609
-0.060900789 -0.33939621 -0.4203465
-0.060898203 -0.33932632 -0.42034283
-0.060895614 -0.33925644 -0.42033917
-0.060893029 -0.33918655 -0.4203355
-0.060890347 -0.33911663 -0.42033383
-0.060887739 -0.33904868 -0.42033222
-0.060885251 -0.33897886 -0.42032653
-0.060882758 -0.338909 -0.42032087
-0.060880542 -0.33884126 -0.42031127
-0.060878146 -0.33877146 -0.42030361
-0.060875658 -0.33870161 -0.42029795
-0.060873244 -0.33863378 -0.42029235
-0.060870852 -0.33856398 -0.42028469
-0.060868554 -0.33849421 -0.42027503
-0.060866162 -0.33842441 -0.42026737
-0.060863845 -0.33835661 -0.42025977
-0.060861453 -0.33828682 -0.42025208
-0.060859449 -0.3382172 -0.42023644
-0.060857035 -0.33814937 -0.42023084
-0.06085445 -0.33807948 -0.42022717
-0.060852252 -0.33800977 -0.42021552
-0.060849838 -0.33794191 -0.42020988
-0.060847349 -0.33787209 -0.42020422
-0.060845051 -0.33780232 -0.42019457
-0.060842562 -0.33773249 -0.4201889
-0.060840342 -0.33766472 -0.42017931
-0.060837757 -0.33759487 -0.42017564
-0.060835458 -0.3375251 -0.42016599
-0.060833242 -0.33745736 -0.42015636
-0.060825165 -0.33738104 -0.42026246
-0.060815539 -0.33730406 -0.4204005
-0.060810063 -0.33723089 -0.42045471
-0.060810074 -0.33716416 -0.42039916
-0.060821041 -0.33711219 -0.42012617
-0.060819134 -0.3370426 -0.4201085
-0.060817208 -0.33697498 -0.42009291
-0.06081491 -0.33690524 -0.42008325
-0.060812518 -0.33683544 -0.4200756
-0.060810007 -0.33676755 -0.42007199
-0.060807616 -0.33669776 -0.42006433
-0.060805514 -0.33662808 -0.42005068
-0.060803391 -0.33656037 -0.42003906
-0.060801096 -0.33649063 -0.4200294
-0.060798876 -0.33642286 -0.42001981
-0.06079505 -0.33635044 -0.42004007
-0.060785323 -0.3362734 -0.42018008
-0.060781401 -0.33620095 -0.42020234
-0.060783893 -0.33613926 -0.42009896
-0.060786698 -0.33607575 -0.41998756
-0.060784966 -0.33600822 -0.41996795
-0.06078257 -0.33593842 -0.41996029
-0.060780451 -0.33587071 -0.4199487
-0.060772665 -0.33579454 -0.42004877
-0.060776614 -0.3357335 -0.41991544
-0.060774878 -0.33566597 -0.41989583
-0.060773242 -0.33559847 -0.41987425
-0.060770363 -0.33552846 -0.41987658
-0.060765956 -0.33545578 -0.41990882
-0.060762301 -0.33538541 -0.41992712
-0.060760394 -0.33531582 -0.41990948
-0.060757689 -0.33524787 -0.41990983
-0.06075481 -0.33517784 -0.41991216
-0.060752708 -0.33510819 -0.41989851
-0.060751729 -0.33504295 -0.41986501
-0.060749628 -0.33497328 -0.41985133
-0.060746461 -0.33490315 -0.41985965
-0.060744725 -0.33483559 -0.41984007
-0.060744815 -0.33477086 -0.41978458
-0.060745485 -0.33470637 -0.41971707
-0.060745787 -0.33463976 -0.41965556
-0.060745779 -0.33457497 -0.41960207
-0.06074509 -0.33450988 -0.41956255
-0.060742408 -0.33443993 -0.41956088
-0.060739532 -0.33436993 -0.4195632
-0.060737506 -0.33430225 -0.41954958
-0.06073492 -0.33423236 -0.41954592
-0.060731363 -0.33416206 -0.41956222
-0.060727321 -0.33409151 -0.41958851
-0.060726654 -0.33402446 -0.41954696
-0.06073029 -0.33396524 -0.41942167
-0.060732588 -0.33390346 -0.41932228
-0.060728159 -0.33383274 -0.41935655
-0.060711283 -0.33374068 -0.4196341
-0.060705051 -0.33366522 -0.41970223
-0.060702462 -0.33359534 -0.4196986
-0.060700245 -0.33352757 -0.41968897
-0.060698606 -0.33346009 -0.41966739
-0.060696602 -0.33339047 -0.41965175
-0.060694382 -0.3333227 -0.41964212
-0.06069199 -0.33325291 -0.41963446
-0.060689576 -0.33318508 -0.41962886
-0.060686894 -0.33311513 -0.41962719
-0.060684502 -0.33304533 -0.41961953
-0.060681894 -0.33297741 -0.41961789
-0.060678162 -0.33290505 -0.41963616
-0.06067536 -0.33283702 -0.41963854
-0.060674112 -0.33276972 -0.41960895
-0.060672011 -0.33270004 -0.4195953
-0.060668647 -0.3326298 -0.41960761
-0.060665675 -0.33255976 -0.41961193
-0.060662873 -0.33249173 -0.41961432
-0.060660481 -0.33242193 -0.41960666
-0.060658842 -0.33235446 -0.41958505
-0.060656622 -0.33228669 -0.41957545
-0.060655762 -0.33221954 -0.41953787
-0.060657654 -0.33215955 -0.41944852
-0.060656793 -0.3320924 -0.41941094
-0.060650755 -0.33201703 -0.41947511
-0.060646344 -0.33194435 -0.41950732
-0.06064843 -0.33188444 -0.41941398
-0.060652725 -0.33182749 -0.41927674
-0.060651455 -0.33176214 -0.41924924
-0.060644079 -0.33168417 -0.41933927
-0.060621332 -0.33157572 -0.41972634
-0.060612619 -0.3314952 -0.4198423
-0.060614314 -0.33143511 -0.41975695
-0.060625859 -0.33139321 -0.4194802
-0.06062682 -0.33132887 -0.41940674
-0.060627375 -0.33126631 -0.41934329
-0.060618468 -0.3311857 -0.41946328
-0.060622375 -0.33112857 -0.41933402
-0.060613759 -0.3310481 -0.41944799
-0.060608301 -0.330973 -0.41950014
-0.060604647 -0.33090264 -0.41951847
-0.060602352 -0.33083287 -0.41950881
-0.060600523 -0.33076531 -0.4194912
-0.060602896 -0.33070552 -0.41939187
-0.060600679 -0.33063775 -0.41938224
-0.060598653 -0.3305701 -0.41936865
-0.060596552 -0.33050042 -0.41935501
-0.0605947 -0.3304348 -0.41933945
-0.060592502 -0.33036509 -0.4193278
-0.060589992 -0.3302972 -0.41932419
-0.060587402 -0.33022732 -0.41932052
-0.060584623 -0.33015734 -0.41932085
-0.060581919 -0.33008936 -0.41932121
-0.060579237 -0.33001944 -0.41931954
-0.060576551 -0.3299495 -0.41931787
-0.060573943 -0.32988158 -0.41931626
-0.060571164 -0.3298116 -0.41931659
-0.060568675 -0.32974178 -0.41931093
-0.060566358 -0.32967398 -0.4193033
-0.06056387 -0.32960412 -0.41929764
-0.060561359 -0.32953623 -0.41929403
-0.060558673 -0.32946631 -0.41929236
-0.0605557 -0.32939625 -0.41929668
-0.06055253 -0.32932609 -0.419305
-0.06055031 -0.32925835 -0.4192954
-0.060548287 -0.32919067 -0.41928178
-0.060545139 -0.32911858 -0.41928807
-0.060542047 -0.32905042 -0.41929644
-0.060539845 -0.32898071 -0.41928479
-0.060537823 -0.32891306 -0.41927117
-0.060535893 -0.32884544 -0.41925558
-0.060531288 -0.32877266 -0.41929179
-0.060524322 -0.32869294 -0.41937184
-0.060521737 -0.32862306 -0.41936818
-0.06052446 -0.32856736 -0.41926494
-0.060526524 -0.32850939 -0.41917363
-0.060524423 -0.32843974 -0.41915998
-0.060522009 -0.32837188 -0.41915438
-0.060519323 -0.32830197 -0.41915271
-0.060516816 -0.32823408 -0.41914907
-0.060514227 -0.32816419 -0.41914541
-0.060511719 -0.3280963 -0.4191418
-0.060509596 -0.32802859 -0.41913021
-0.060507763 -0.32796103 -0.41911259
-0.060506225 -0.32789356 -0.41908902
-0.060504761 -0.32782811 -0.41906548
-0.060503125 -0.32776064 -0.41904387
-0.060501195 -0.32769302 -0.41902828
-0.060498223 -0.32762295 -0.4190326
-0.060494859 -0.32755271 -0.41904491
-0.060492638 -0.32748497 -0.41903529
-0.060491003 -0.32741746 -0.41901371
-0.060489345 -0.32735193 -0.41899416
-0.060486466 -0.32728189 -0.41899648
-0.060482834 -0.32720959 -0.41901273
-0.060480226 -0.32714164 -0.41901112
-0.060477931 -0.32707191 -0.41900146
-0.060475517 -0.32700405 -0.41899586
-0.060472835 -0.32693413 -0.41899419
-0.060470421 -0.3268663 -0.41898856
-0.060468007 -0.32679844 -0.41898295
-0.060465615 -0.32672864 -0.41897529
-0.060463298 -0.32666084 -0.41896769
-0.060460981 -0.32659304 -0.41896006
-0.060458299 -0.32652313 -0.4189584
-0.060455594 -0.32645515 -0.41895878
-0.060453106 -0.32638532 -0.41895312
-0.060450789 -0.32631752 -0.41894549
-0.060448203 -0.32624763 -0.41894183
-0.060445499 -0.32617965 -0.41894221
-0.060440354 -0.3261027 -0.41898635
-0.060435478 -0.32602787 -0.41902652
-0.06043192 -0.32595754 -0.41904283
-0.060430381 -0.32589009 -0.41901922
-0.060431477 -0.32583168 -0.41894791
-0.0604323 -0.32577121 -0.41888052
-0.060430467 -0.32570362 -0.41886294
-0.060428154 -0.32563582 -0.41885531
-0.06042574 -0.32556799 -0.41884971
-0.060423616 -0.32550028 -0.41883808
-0.060421593 -0.3254326 -0.41882449
-0.060418986 -0.32536468 -0.41882288
-0.060416207 -0.3252947 -0.41882318
-0.060413618 -0.32522482 -0.41881955
-0.060411397 -0.32515708 -0.41880992
-0.060409158 -0.32509127 -0.41880235
-0.060405817 -0.32501906 -0.41881263
-0.06040255 -0.32494888 -0.41882294
-0.060400914 -0.32488137 -0.41880134
-0.06040011 -0.32481819 -0.41876587
-0.060397986 -0.32475048 -0.41875428
-0.060395379 -0.32468256 -0.41875264
-0.060392793 -0.32461268 -0.41874897
-0.060390282 -0.32454479 -0.41874537
-0.060387697 -0.3244749 -0.4187417
-0.060385089 -0.32440698 -0.41874009
-0.060382403 -0.32433704 -0.41873842
-0.060379703 -0.32426906 -0.41873878
-0.06037721 -0.32419923 -0.41873312
-0.060374893 -0.32413143 -0.41872549
-0.060372386 -0.32406354 -0.41872188
-0.060369603 -0.32399356 -0.41872221
-0.060366705 -0.3239255 -0.41872659
-0.060363557 -0.3238534 -0.41873288
-0.06036029 -0.32378322 -0.41874319
-0.060357686 -0.32371527 -0.41874155
-0.060355853 -0.32364771 -0.41872397
-0.060355049 -0.32358453 -0.41868848
-0.060354341 -0.32352138 -0.41865101
-0.060352609 -0.32345384 -0.41863143
-0.060350366 -0.32338804 -0.41862386
-0.060347877 -0.32331818 -0.4186182
-0.060345463 -0.32325035 -0.41861257
-0.06034315 -0.32318255 -0.41860497
-0.060340833 -0.32311475 -0.41859734
-0.060338516 -0.32304695 -0.41858974
-0.060336027 -0.32297713 -0.41858408
-0.060333788 -0.32291132 -0.41857651
-0.060331393 -0.32284153 -0.41856885
-0.060328983 -0.32277367 -0.41856325
-0.060326375 -0.32270575 -0.41856164
-0.060324058 -0.32263795 -0.41855401
-0.060321935 -0.32257023 -0.41854239
-0.060319524 -0.32250237 -0.41853678
-0.06031711 -0.32243454 -0.41853118
-0.060314696 -0.32236671 -0.41852558
-0.060312379 -0.32229891 -0.41851795
-0.060310259 -0.3222312 -0.41850632
-0.060308311 -0.32216552 -0.41849279
-0.060305994 -0.32209772 -0.41848516
-0.060303211 -0.32202774 -0.41848549
-0.060300801 -0.32195991 -0.41847989
-0.060298949 -0.32189429 -0.41846433
-0.060297117 -0.3218267 -0.41844672
-0.060295168 -0.32176104 -0.41843319
-0.060292855 -0.32169324 -0.41842556
-0.060290635 -0.32162547 -0.41841596
-0.060288414 -0.32155773 -0.41840637
-0.060286097 -0.32148993 -0.41839874
-0.060283683 -0.32142207 -0.41839314
-0.060281638 -0.32135636 -0.41838157
-0.060279615 -0.3212887 -0.41836795
-0.060277376 -0.3212229 -0.41836041
-0.060274884 -0.32115307 -0.41835475
-0.060272474 -0.32108521 -0.41834912
-0.060270157 -0.32101741 -0.41834152
-0.06026784 -0.32094961 -0.41833389
-0.060265329 -0.32088172 -0.41833028
-0.060262822 -0.32081383 -0.41832668
-0.060260504 -0.32074606 -0.41831905
-0.060257897 -0.32067811 -0.41831744
-0.060255311 -0.32060823 -0.41831377
-0.060253359 -0.32054257 -0.41830021
-0.06025124 -0.32047486 -0.41828859
-0.060248826 -0.320407 -0.41828299
-0.061776094 -0.36491984 -0.42318207
-0.061773527 -0.36484802 -0.42317635
-0.061771173 -0.36477429 -0.42316461
-0.061768994 -0.36470264 -0.4231509
-0.06176674 -0.36462897 -0.42313716
-0.061764151 -0.36455908 -0.42313349
-0.061761681 -0.36448729 -0.42312577
-0.061759312 -0.36441556 -0.42311609
-0.061756939 -0.36434379 -0.42310637
-0.061754681 -0.36427012 -0.42309263
-0.061752405 -0.36419842 -0.42308092
-0.061749935 -0.36412662 -0.4230732
-0.061747465 -0.36405483 -0.42306551
-0.061745189 -0.36398312 -0.4230538
-0.061742742 -0.36390939 -0.42304406
-0.061740369 -0.36383763 -0.42303434
-0.061737802 -0.36376578 -0.42302865
-0.061735213 -0.36369592 -0.42302498
-0.061732452 -0.36362398 -0.42302325
-0.06172948 -0.36355391 -0.42302758
-0.0617266 -0.36348391 -0.4230299
-0.061723743 -0.36341193 -0.4230302
-0.061721057 -0.36334202 -0.42302853
-0.061718393 -0.36327013 -0.4230248
-0.061716117 -0.3631984 -0.42301309
-0.061714038 -0.36312678 -0.42299742
-0.061711878 -0.36305317 -0.42298168
-0.061709698 -0.36298153 -0.42296797
-0.061707325 -0.36290976 -0.42295825
-0.061704975 -0.36283606 -0.42294651
-0.061702602 -0.3627643 -0.4229368
-0.061700229 -0.36269256 -0.42292711
-0.061698243 -0.36262098 -0.42290941
-0.061696183 -0.3625474 -0.42289168
-0.061693713 -0.3624756 -0.42288396
-0.061691027 -0.36240569 -0.42288232
-0.061688483 -0.3623319 -0.42287454
-0.061686087 -0.3622621 -0.42286688
-0.061683618 -0.36219031 -0.42285919
-0.061681245 -0.36211854 -0.42284948
-0.061678678 -0.36204672 -0.42284375
-0.061676208 -0.36197492 -0.42283607
-0.061673932 -0.36190322 -0.42282435
-0.061671462 -0.36183143 -0.42281663
-0.061668798 -0.36175954 -0.42281294
-0.061666504 -0.36168978 -0.42280328
-0.061664052 -0.36161602 -0.42279351
-0.061661273 -0.36154607 -0.42279387
-0.061658394 -0.36147603 -0.42279619
-0.061655615 -0.36140606 -0.42279652
-0.061652854 -0.36133415 -0.42279479
-0.061650265 -0.36126426 -0.42279112
-0.061647505 -0.36119232 -0.42278942
-0.061645016 -0.36112249 -0.42278376
-0.061642546 -0.3610507 -0.42277604
-0.06163986 -0.36098075 -0.42277437
-0.061637316 -0.36090696 -0.42276663
-0.06163533 -0.3608354 -0.42274892
-0.061633442 -0.36076388 -0.42272925
-0.061631188 -0.36069021 -0.42271549
-0.061628792 -0.36062041 -0.42270783
-0.061626032 -0.3605485 -0.42270613
-0.061623465 -0.36047664 -0.42270041
-0.06162088 -0.36040676 -0.42269674
-0.061618119 -0.36033484 -0.42269504
-0.061615843 -0.36026311 -0.42268333
-0.061613761 -0.36019149 -0.42266762
-0.061611775 -0.36011994 -0.42264992
-0.061609499 -0.36004823 -0.42263824
-0.061607126 -0.35997647 -0.42262852
-0.061604656 -0.35990468 -0.42262083
-0.061602186 -0.35983288 -0.42261311
-0.06159991 -0.35976118 -0.4226014
-0.061597422 -0.35969132 -0.42259574
-0.061594855 -0.3596195 -0.42259005
-0.061592288 -0.35954764 -0.42258435
-0.061589722 -0.35947582 -0.42257863
-0.061587036 -0.35940588 -0.42257696
-0.06158445 -0.35933602 -0.4225733
-0.061581787 -0.35926414 -0.42256957
-0.061579414 -0.35919237 -0.42255986
-0.061576944 -0.35912058 -0.42255217
-0.061574452 -0.35905075 -0.42254651
-0.061572175 -0.35897902 -0.42253479
-0.061569609 -0.35890719 -0.4225291
-0.06156712 -0.35883734 -0.42252344
-0.061565157 -0.35876381 -0.42250371
-0.061563171 -0.35869226 -0.42248601
-0.061560679 -0.3586224 -0.42248034
-0.061558209 -0.35855061 -0.42247263
-0.061556131 -0.35847899 -0.42245692
-0.061553661 -0.3584072 -0.42244923
-0.061551072 -0.35833731 -0.42244557
-0.061548699 -0.35826555 -0.42243585
-0.061546229 -0.35819376 -0.42242816
-0.061543547 -0.35812384 -0.42242649
-0.061540883 -0.35805196 -0.42242277
-0.061538488 -0.35798216 -0.42241511
-0.061536212 -0.35791045 -0.4224034
-0.061533645 -0.3578386 -0.4223977
-0.06153135 -0.35776886 -0.42238805
-0.061529268 -0.35769725 -0.42237234
-0.061526701 -0.3576254 -0.42236662
-0.061524116 -0.35755551 -0.42236298
-0.061521646 -0.35748371 -0.42235526
-0.061519057 -0.35741383 -0.4223516
-0.061516296 -0.35734192 -0.42234987
-0.061513707 -0.35727203 -0.42234623
-0.061511241 -0.35720024 -0.42233852
-0.061508846 -0.35713044 -0.42233086
-0.061506473 -0.35705867 -0.42232114
-0.0615041 -0.35698694 -0.42231143
-0.061501611 -0.35691708 -0.42230579
-0.061498947 -0.3568452 -0.42230207
-0.061496455 -0.35677537 -0.4222964
-0.061494082 -0.35670361 -0.42228669
-0.061491612 -0.35663182 -0.422279
-0.061489318 -0.35656208 -0.42226934
-0.061486848 -0.35649028 -0.42226163
-0.061484262 -0.3564204 -0.42225796
-0.061481673 -0.35635051 -0.42225429
-0.061478913 -0.35627857 -0.4222526
-0.061476327 -0.35620868 -0.42224893
-0.061473932 -0.35613889 -0.42224127
-0.061471656 -0.35606718 -0.42222956
-0.061469283 -0.35599545 -0.42221987
-0.061466813 -0.35592365 -0.42221215
-0.061464518 -0.35585389 -0.4222025
-0.061462339 -0.35578221 -0.42218879
-0.061460063 -0.35571051 -0.42217708
-0.06145798 -0.35563889 -0.4221614
-0.061455801 -0.35556725 -0.42214769
-0.061453603 -0.35549754 -0.42213604
-0.061451327 -0.35542583 -0.42212433
-0.061448857 -0.35535401 -0.42211664
-0.061446562 -0.35528427 -0.42210698
-0.061444286 -0.35521257 -0.42209527
-0.061441988 -0.3551428 -0.42208561
-0.061439618 -0.35507107 -0.42207593
-0.061436933 -0.35500112 -0.42207426
-0.06143425 -0.35493121 -0.42207259
-0.06143178 -0.35485941 -0.42206487
-0.061429385 -0.35478961 -0.42205721
-0.061426915 -0.35471782 -0.42204952
-0.06142462 -0.35464805 -0.42203984
-0.061422247 -0.35457632 -0.42203015
-0.061419778 -0.35450453 -0.42202243
-0.06141758 -0.35443482 -0.42201078
-0.061414991 -0.35436493 -0.42200711
-0.06141223 -0.35429299 -0.42200541
-0.061409742 -0.35422316 -0.42199975
-0.061407369 -0.3541514 -0.42199004
-0.061404973 -0.3540816 -0.42198238
-0.061402697 -0.3540099 -0.42197067
-0.061400499 -0.35394019 -0.42195904
-0.061398126 -0.35386845 -0.42194933
-0.061395541 -0.35379857 -0.42194566
-0.061392952 -0.35372868 -0.421942
-0.061390385 -0.35365683 -0.42193627
-0.061388303 -0.35358521 -0.4219206
-0.061386105 -0.35351551 -0.42190892
-0.061383538 -0.35344368 -0.42190322
-0.061380852 -0.35337374 -0.42190155
-0.061378267 -0.35330385 -0.42189789
-0.061375774 -0.35323402 -0.42189223
-0.061373405 -0.35316226 -0.42188251
-0.061371107 -0.35309252 -0.42187285
-0.061368424 -0.35302258 -0.42187119
-0.061365932 -0.35295275 -0.42186552
-0.061363559 -0.35288098 -0.42185584
-0.061360974 -0.3528111 -0.42185217
-0.061358407 -0.35273927 -0.42184645
-0.061355721 -0.35266933 -0.42184478
-0.061352845 -0.35259932 -0.42184711
-0.061350353 -0.35252947 -0.42184144
-0.061348058 -0.35245973 -0.42183179
-0.061345588 -0.35238793 -0.4218241
-0.061343487 -0.35231826 -0.42181045
-0.061340824 -0.35224637 -0.42180672
-0.061338332 -0.35217655 -0.42180106
-0.061336346 -0.35210496 -0.42178336
-0.061334342 -0.35203534 -0.42176771
-0.061332162 -0.3519637 -0.421754
-0.061330158 -0.35189405 -0.42173839
-0.061327882 -0.35182235 -0.42172667
-0.061325684 -0.35175264 -0.42171502
-0.061323311 -0.3516809 -0.42170531
-0.061320819 -0.35161105 -0.42169964
-0.06131833 -0.35154122 -0.42169398
-0.061315764 -0.35146937 -0.42168826
-0.061313465 -0.35139963 -0.42167863
-0.061310999 -0.35132784 -0.42167091
-0.061308198 -0.3512598 -0.4216733
-0.061305609 -0.35118991 -0.42166963
-0.061303236 -0.35111818 -0.42165992
-0.061300844 -0.35104838 -0.42165226
-0.06129818 -0.3509765 -0.42164856
-0.061295398 -0.35090652 -0.42164886
-0.061292909 -0.35083669 -0.4216432
-0.061290611 -0.35076693 -0.42163354
-0.061288219 -0.35069713 -0.42162591
-0.061285749 -0.35062534 -0.42161819
-0.061283745 -0.35055572 -0.42160255
-0.061281543 -0.35048601 -0.42159089
-0.061278977 -0.35041416 -0.42158517
-0.061276779 -0.35034445 -0.42157352
-0.061274406 -0.35027272 -0.4215638
-0.061271798 -0.35020477 -0.42156219
-0.061269116 -0.35013485 -0.42156053
-0.061266646 -0.35006306 -0.42155284
-0.06126396 -0.34999311 -0.42155117
-0.061261177 -0.34992316 -0.4215515
-0.061258689 -0.34985331 -0.42154583
-0.061256491 -0.3497836 -0.42153418
-0.061254021 -0.34971181 -0.42152646
-0.061251625 -0.34964201 -0.4215188
-0.061249621 -0.34957239 -0.42150316
-0.061247151 -0.3495006 -0.42149544
-0.061244566 -0.34943071 -0.42149177
-0.061242267 -0.34936094 -0.42148212
-0.061239973 -0.34929121 -0.42147249
-0.061237503 -0.34921941 -0.42146477
-0.061235014 -0.34914955 -0.42145908
-0.061232425 -0.34907967 -0.42145544
-0.061229743 -0.34900975 -0.42145377
-0.061227541 -0.34894004 -0.42144212
-0.061225459 -0.34886843 -0.42142642
-0.061223358 -0.34879875 -0.42141277
-0.061220966 -0.34872895 -0.42140511
-0.061218668 -0.34865922 -0.42139545
-0.061216276 -0.34858942 -0.42138779
-0.061213806 -0.34851763 -0.4213801
-0.061211511 -0.34844786 -0.42137045
-0.061209213 -0.34837812 -0.42136076
-0.061206821 -0.34830832 -0.4213531
-0.061204426 -0.34823853 -0.42134544
-0.061201937 -0.34816867 -0.42133981
-0.061199564 -0.34809694 -0.42133009
-0.061197173 -0.34802714 -0.42132244
-0.061194584 -0.34795725 -0.42131877
-0.061191805 -0.34788728 -0.4213191
-0.061188925 -0.34781724 -0.42132142
-0.061186437 -0.34774742 -0.42131576
-0.061184332 -0.34767774 -0.42130211
-0.06118194 -0.34760794 -0.42129445
-0.061179645 -0.3475382 -0.42128479
-0.06117725 -0.34746841 -0.42127714
-0.061174955 -0.34739864 -0.42126748
-0.061173066 -0.34732711 -0.42124778
-0.061171256 -0.34725758 -0.42122814
-0.061169252 -0.34718797 -0.42121249
-0.061166879 -0.3471162 -0.42120278
-0.061164465 -0.34704837 -0.42119718
-0.061161973 -0.34697855 -0.42119151
-0.061159097 -0.34690851 -0.42119384
-0.061156314 -0.34683853 -0.42119417
-0.061153825 -0.34676871 -0.4211885
-0.061151236 -0.34669882 -0.42118484
-0.061148942 -0.34662905 -0.42117518
-0.061146569 -0.34655732 -0.42116547
-0.061144058 -0.34648943 -0.42116186
-0.061141685 -0.34641767 -0.42115217
-0.061139487 -0.34634796 -0.42114049
-0.061136898 -0.34627807 -0.42113683
-0.061134215 -0.34620816 -0.42113516
-0.06113182 -0.34613836 -0.4211275
-0.061129622 -0.34606865 -0.42111588
-0.061127521 -0.34599897 -0.4211022
-0.061125323 -0.34592927 -0.42109054
-0.061122831 -0.34585944 -0.42108488
-0.061120342 -0.34578958 -0.42107922
-0.061118044 -0.34571984 -0.42106956
-0.061115943 -0.34565017 -0.42105591
-0.061113745 -0.34558046 -0.42104426
-0.06111164 -0.34551081 -0.42103061
-0.061109539 -0.34544113 -0.42101696
-0.061107069 -0.34536934 -0.42100924
-0.061104946 -0.34530163 -0.42099765
-0.061103232 -0.34523213 -0.42097601
-0.061100278 -0.34516013 -0.42097828
-0.061096411 -0.34509161 -0.42100263
-0.061093144 -0.34502143 -0.42101294
-0.061090752 -0.34495163 -0.42100528
-0.061088454 -0.34488189 -0.42099562
-0.061086062 -0.3448121 -0.42098796
-0.061083861 -0.34474239 -0.42097631
-0.061081953 -0.3446728 -0.42095867
-0.061079852 -0.34460312 -0.42094502
-0.061077848 -0.3445335 -0.42092937
-0.06107584 -0.34446388 -0.42091373
-0.061073933 -0.34439433 -0.42089608
-0.061071735 -0.34432459 -0.42088443
-0.06106934 -0.34425479 -0.42087677
-0.061067045 -0.34418505 -0.42086712
-0.061065041 -0.34411544 -0.42085147
-0.061063036 -0.34404582 -0.42083582
-0.061058294 -0.34397691 -0.42087814
-0.061054736 -0.34390658 -0.42089444
-0.061054572 -0.3438378 -0.42084083
-0.061054897 -0.34376922 -0.42077726
-0.06105493 -0.34370053 -0.42071968
-0.061053816 -0.34362936 -0.42068401
-0.061050918 -0.34356129 -0.42068839
-0.061046004 -0.34349036 -0.42073265
-0.061041184 -0.34341946 -0.42077491
-0.061037511 -0.34335104 -0.42079526
-0.061034437 -0.34328094 -0.42080158
-0.061031949 -0.34321111 -0.42079592
-0.061029557 -0.34314132 -0.42078826
-0.061027065 -0.34307146 -0.4207826
-0.061024092 -0.3430014 -0.42078692
-0.061021309 -0.34293142 -0.42078725
-0.061018918 -0.34286162 -0.42077959
-0.061016601 -0.34279382 -0.42077199
-0.061014108 -0.342724 -0.42076632
-0.061011814 -0.34265423 -0.42075667
-0.061010003 -0.3425847 -0.42073703
-0.061007805 -0.34251499 -0.42072538
-0.0610057 -0.34244534 -0.4207117
-0.061003502 -0.34237564 -0.42070007
-0.061000992 -0.34230775 -0.42069644
-0.060998596 -0.34223795 -0.42068878
-0.060996301 -0.34216818 -0.42067912
-0.060994104 -0.34209847 -0.42066747
-0.060991906 -0.34202877 -0.42065582
-0.06098951 -0.34195897 -0.42064816
-0.060987022 -0.34188914 -0.4206425
-0.060984317 -0.34182116 -0.42064288
-0.060981341 -0.3417511 -0.4206472
-0.060978852 -0.34168124 -0.42064154
-0.060976945 -0.34161168 -0.4206239
-0.06097484 -0.34154201 -0.42061025
-0.060972039 -0.341474 -0.42061263
-0.060969163 -0.34140399 -0.42061496
-0.060966767 -0.34133419 -0.42060727
-0.060964763 -0.34126455 -0.42059162
-0.060962372 -0.34119475 -0.42058396
-0.060959879 -0.34112492 -0.4205783
-0.060957659 -0.34105718 -0.4205687
-0.060955849 -0.34098762 -0.42054906
-0.060954038 -0.34091809 -0.42052943
-0.060952518 -0.34084871 -0.4205038
-0.060951173 -0.34078133 -0.4204762
-0.060949262 -0.34071177 -0.42045856
-0.060946967 -0.34064201 -0.4204489
-0.060943779 -0.34057382 -0.42045927
-0.060938884 -0.34050092 -0.42050147
-0.060937732 -0.34043366 -0.42046991
-0.060934853 -0.34036362 -0.42047223
-0.06093207 -0.34029368 -0.42047256
-0.060929485 -0.34022379 -0.4204689
-0.060927093 -0.34015399 -0.42046124
-0.060924873 -0.34008622 -0.42045164
-0.060922671 -0.34001651 -0.42043996
-0.06092057 -0.33994684 -0.42042631
-0.06091835 -0.3398791 -0.42041671
-0.060915861 -0.33980927 -0.42041105
-0.060913369 -0.33973941 -0.42040539
-0.060911056 -0.33967161 -0.42039776
-0.060908854 -0.3396019 -0.42038614
-0.06090685 -0.33953229 -0.42037046
-0.060904942 -0.3394627 -0.42035282
-0.060902722 -0.33939496 -0.42034322
-0.060900137 -0.33932507 -0.42033955
-0.060897548 -0.33925518 -0.42033589
-0.060894962 -0.3391853 -0.42033222
-0.060892276 -0.33911538 -0.42033055
-0.060889766 -0.33904749 -0.42032695
-0.060887277 -0.33897763 -0.42032129
-0.060884688 -0.33890775 -0.42031762
-0.060882472 -0.33884001 -0.42030799
-0.060880076 -0.33877021 -0.42030033
-0.060877588 -0.33870035 -0.42029467
-0.060875174 -0.33863252 -0.42028907
-0.060872681 -0.33856267 -0.42028341
-0.060870484 -0.33849296 -0.42027175
-0.060868092 -0.33842316 -0.4202641
-0.060865775 -0.33835536 -0.4202565
-0.060863383 -0.33828557 -0.42024881
-0.060861375 -0.33821595 -0.42023319
-0.060858965 -0.33814812 -0.42022756
-0.060856376 -0.33807823 -0.42022389
-0.060854081 -0.33800846 -0.42021424
-0.060851667 -0.33794063 -0.42020863
-0.060849272 -0.33787084 -0.42020097
-0.060846977 -0.3378011 -0.42019129
-0.060844488 -0.33773124 -0.42018563
-0.060842268 -0.3376635 -0.42017603
-0.060839776 -0.33759364 -0.42017037
-0.060837287 -0.33752382 -0.4201647
-0.060835164 -0.33745611 -0.42015311
-0.060827188 -0.33737984 -0.42025721
-0.060817558 -0.33730283 -0.42039523
-0.060811985 -0.33722964 -0.42045143
-0.060811996 -0.33716291 -0.42039588
-0.060822964 -0.33711094 -0.42012289
-0.060821056 -0.33704135 -0.42010525
-0.060819127 -0.33697373 -0.42008963
-0.060816832 -0.33690399 -0.42008001
-0.06081444 -0.33683419 -0.42007232
-0.060811833 -0.33676624 -0.42007071
-0.060809437 -0.33669645 -0.42006305
-0.060807336 -0.3366268 -0.4200494
-0.06080531 -0.33655912 -0.42003578
-0.060803015 -0.33648938 -0.42002612
-0.060800698 -0.33642158 -0.42001852
-0.060796969 -0.33634919 -0.42003679
-0.060787242 -0.33627215 -0.4201768
-0.060783222 -0.33619967 -0.42020106
-0.060785715 -0.33613798 -0.42009768
-0.06078852 -0.33607444 -0.41998625
-0.060786784 -0.33600691 -0.41996667
-0.060784489 -0.33593717 -0.41995701
-0.060782366 -0.33586946 -0.41994542
-0.060774483 -0.33579326 -0.42004749
-0.060778528 -0.33573225 -0.41991216
-0.060776792 -0.33566472 -0.41989258
-0.060775157 -0.33559722 -0.41987097
-0.060772374 -0.33552724 -0.4198713
-0.060767964 -0.33545458 -0.41990355
-0.060764216 -0.33538416 -0.41992384
-0.060761433 -0.33531418 -0.41992417
-0.060759604 -0.33524662 -0.41990656
-0.060756821 -0.33517665 -0.41990691
-0.06075472 -0.33510697 -0.41989326
-0.060753644 -0.3350417 -0.41986173
-0.060751542 -0.33497202 -0.41984808
-0.060748372 -0.3349019 -0.4198564
-0.060746539 -0.33483431 -0.41983879
-0.060746629 -0.33476958 -0.41978329
-0.060747299 -0.33470508 -0.41971582
-0.060747601 -0.33463848 -0.41965428
-0.06074769 -0.33457372 -0.41959879
-0.060746904 -0.33450857 -0.41956127
-0.060744315 -0.33443868 -0.4195576
-0.060741439 -0.33436868 -0.41955993
-0.060739316 -0.33430097 -0.41954833
-0.060736924 -0.33423117 -0.41954064
-0.06073327 -0.3341608 -0.41955897
-0.060729131 -0.3340902 -0.41958725
-0.060728461 -0.33402315 -0.41954568
-0.060732193 -0.33396399 -0.41941839
-0.060734496 -0.33390221 -0.419319
-0.060729966 -0.33383143 -0.41935527
-0.060713187 -0.33373943 -0.41963083
-0.060707051 -0.333664 -0.41969699
-0.060704369 -0.33359408 -0.41969532
-0.060702149 -0.33352631 -0.41968572
-0.06070051 -0.33345884 -0.41966411
-0.060698409 -0.33338916 -0.41965047
-0.060696188 -0.33332142 -0.41964084
-0.060693797 -0.33325163 -0.41963321
-0.06069148 -0.33318383 -0.41962558
-0.060688797 -0.33311388 -0.41962391
-0.060686305 -0.33304405 -0.41961825
-0.060683697 -0.33297613 -0.41961664
-0.060680065 -0.3329038 -0.41963288
-0.060677167 -0.33283573 -0.41963726
-0.060676016 -0.33276847 -0.41960567
-0.060673911 -0.33269879 -0.41959202
-0.060670547 -0.33262855 -0.41960436
-0.060667574 -0.33255851 -0.41960865
-0.060664773 -0.33249047 -0.41961104
-0.060662281 -0.33242065 -0.41960537
-0.060660645 -0.33235314 -0.4195838
-0.060658425 -0.3322854 -0.41957417
-0.060657468 -0.3322182 -0.41953862
-0.060659356 -0.33215821 -0.41944927
-0.060658593 -0.33209112 -0.41940969
-0.060652554 -0.33201572 -0.41947383
-0.060648143 -0.33194306 -0.41950607
-0.060650229 -0.33188313 -0.41941273
-0.060654428 -0.33182615 -0.41927749
-0.060653254 -0.33176082 -0.41924796
-0.060645878 -0.33168289 -0.41933799
-0.060623229 -0.33157447 -0.41972309
-0.060614515 -0.33149397 -0.41983905
-0.060616307 -0.33143392 -0.4197517
-0.06062758 -0.33138993 -0.41947889
-0.060628522 -0.33132753 -0.41940746
-0.06062917 -0.331265 -0.41934204
-0.06062036 -0.33118445 -0.41946
-0.060624171 -0.33112729 -0.41933274
-0.060615554 -0.33104682 -0.41944671
-0.060610097 -0.33097172 -0.41949889
-0.060605884 -0.33089912 -0.41952711
-0.060604244 -0.33083162 -0.41950554
-0.060602412 -0.33076406 -0.41948792
-0.060604692 -0.33070421 -0.41939059
-0.060602568 -0.3306365 -0.419379
-0.060600448 -0.33056879 -0.41936737
-0.060598344 -0.33049914 -0.41935372
-0.060596589 -0.33043355 -0.41933617
-0.060594391 -0.33036384 -0.41932452
-0.06059188 -0.33029595 -0.41932091
-0.060589291 -0.33022606 -0.41931725
-0.060586512 -0.33015609 -0.41931757
-0.060583711 -0.33008808 -0.41931993
-0.060581125 -0.33001819 -0.41931629
-0.060578439 -0.32994828 -0.41931462
-0.060575832 -0.32988033 -0.41931301
-0.060573053 -0.32981035 -0.41931331
-0.060570464 -0.32974046 -0.41930968
-0.060568146 -0.32967266 -0.41930205
-0.060565755 -0.32960287 -0.41929439
-0.060563244 -0.32953501 -0.41929078
-0.060560562 -0.32946506 -0.41928911
-0.060557585 -0.329395 -0.41929343
-0.060554415 -0.32932487 -0.41930175
-0.060552195 -0.3292571 -0.41929215
-0.060550172 -0.32918945 -0.41927853
-0.060546923 -0.3291173 -0.41928679
-0.060543854 -0.32904717 -0.41929311
-0.060541634 -0.32897943 -0.41928351
-0.060539607 -0.32891175 -0.41926992
-0.060537778 -0.32884419 -0.41925231
-0.06053327 -0.32877147 -0.41928655
-0.060526207 -0.32869169 -0.41936857
-0.060523521 -0.32862177 -0.4193669
-0.060526244 -0.32856607 -0.41926366
-0.060528405 -0.32850814 -0.41917038
-0.060526304 -0.32843849 -0.4191567
-0.06052389 -0.32837063 -0.4191511
-0.060521204 -0.32830071 -0.41914943
-0.060518693 -0.32823282 -0.41914582
-0.060516108 -0.32816294 -0.41914216
-0.060513597 -0.32809505 -0.41913852
-0.060511474 -0.32802734 -0.41912693
-0.060509644 -0.32795978 -0.41910934
-0.060508005 -0.32789227 -0.41908774
-0.060506735 -0.32782692 -0.4190602
-0.0605051 -0.32775941 -0.41903859
-0.060503073 -0.32769176 -0.419025
-0.060500097 -0.3276217 -0.41902933
-0.060496736 -0.32755145 -0.41904163
-0.060494516 -0.32748371 -0.41903204
-0.06049278 -0.32741618 -0.41901243
-0.060490951 -0.32734859 -0.41899484
-0.060488246 -0.32728061 -0.4189952
-0.06048461 -0.32720828 -0.41901147
-0.0604821 -0.32714039 -0.41900787
-0.060479805 -0.32707065 -0.41899818
-0.060477294 -0.32700276 -0.41899458
-0.060474709 -0.32693288 -0.41899091
-0.060472198 -0.32686499 -0.4189873
-0.060469881 -0.32679719 -0.41897967
-0.060467489 -0.32672739 -0.41897202
-0.060465172 -0.32665959 -0.41896442
-0.060462855 -0.32659179 -0.41895682
-0.060460072 -0.32652181 -0.41895714
-0.060457464 -0.32645389 -0.4189555
-0.060454976 -0.32638407 -0.41894984
-0.060452562 -0.32631621 -0.41894424
-0.060450073 -0.32624638 -0.41893858
-0.060447369 -0.3261784 -0.41893896
-0.060442127 -0.32610142 -0.41898507
-0.060437348 -0.32602662 -0.41902325
-0.06043379 -0.32595628 -0.41903955
-0.060432252 -0.32588884 -0.41901597
-0.060433246 -0.3258304 -0.41894662
-0.060434073 -0.3257699 -0.41887927
-0.06043224 -0.32570234 -0.41886166
-0.06043002 -0.32563457 -0.41885203
-0.060427509 -0.32556668 -0.41884843
-0.060425483 -0.32549903 -0.41883484
-0.060423363 -0.32543132 -0.41882321
-0.060420852 -0.32536343 -0.41881961
-0.060418069 -0.32529345 -0.41881993
-0.060415387 -0.32522354 -0.41881827
-0.060413167 -0.32515576 -0.41880864
-0.060410947 -0.32508802 -0.41879904
-0.060407586 -0.32501778 -0.41881135
-0.060404416 -0.32494763 -0.41881967
-0.060402777 -0.32488015 -0.41879809
-0.060401876 -0.32481691 -0.41876459
-0.060399752 -0.3247492 -0.418753
-0.06039707 -0.32467926 -0.41875133
-0.060394656 -0.32461143 -0.41874573
-0.060392145 -0.32454354 -0.41874209
-0.06038956 -0.32447365 -0.41873842
-0.060386952 -0.32440573 -0.41873682
-0.060384169 -0.32433575 -0.41873714
-0.060381465 -0.32426777 -0.41873753
-0.060379073 -0.32419798 -0.41872984
-0.060376756 -0.32413018 -0.41872224
-0.060374148 -0.32406226 -0.41872063
-0.060371466 -0.32399231 -0.41871896
-0.060368568 -0.32392427 -0.41872334
-0.060365416 -0.32385215 -0.4187296
-0.060362153 -0.32378197 -0.41873991
-0.06035937 -0.32371199 -0.41874024
-0.060357712 -0.32364646 -0.41872069
-0.060356908 -0.32358328 -0.41868523
-0.0603562 -0.32352012 -0.41864777
-0.060354367 -0.32345253 -0.41863015
-0.060352225 -0.32338679 -0.41862059
-0.060349733 -0.32331693 -0.41861492
-0.060347322 -0.3232491 -0.41860932
-0.060345005 -0.3231813 -0.41860169
-0.060342688 -0.3231135 -0.41859409
-0.060340274 -0.32304567 -0.41858849
-0.060337786 -0.32297581 -0.4185828
-0.060335644 -0.32291007 -0.41857326
-0.060333248 -0.32284027 -0.4185656
-0.060330737 -0.32277238 -0.41856197
-0.060328227 -0.32270449 -0.41855836
-0.060325816 -0.32263666 -0.41855276
-0.060323693 -0.32256895 -0.41854113
-0.060321376 -0.32250115 -0.4185335
-0.060318865 -0.32243326 -0.4185299
-0.060316451 -0.3223654 -0.4185243
-0.060314231 -0.32229766 -0.41851467
-0.060312111 -0.32222995 -0.41850308
-0.060310084 -0.32216227 -0.41848949
-0.060307749 -0.32209644 -0.41848391
-0.060304966 -0.32202646 -0.41848424
-0.060302552 -0.32195863 -0.41847861
-0.0603007 -0.32189301 -0.41846305
-0.060298968 -0.32182544 -0.41844347
-0.060296923 -0.32175973 -0.41843191
-0.060294703 -0.32169199 -0.41842231
-0.060292386 -0.32162419 -0.41841471
-0.060290165 -0.32155645 -0.41840509
-0.060287848 -0.32148865 -0.41839749
-0.060285531 -0.32142085 -0.41838986
-0.060283486 -0.32135513 -0.41837829
-0.060281366 -0.32128742 -0.4183667
-0.060279049 -0.32121962 -0.4183591
-0.060276732 -0.32115182 -0.41835147
-0.060274221 -0.32108393 -0.41834787
-0.060271904 -0.32101613 -0.41834024
-0.060269687 -0.32094836 -0.41833064
-0.060267176 -0.32088047 -0.41832703
-0.060264569 -0.32081255 -0.41832539
-0.060262349 -0.32074481 -0.4183158
-0.060259644 -0.32067683 -0.41831619
-0.060257059 -0.32060695 -0.41831249
-0.060255207 -0.32054132 -0.41829693
-0.060253084 -0.32047361 -0.41828534
-0.06025067 -0.32040575 -0.41827974
-0.061776243 -0.36492059 -0.42317769
-0.061773676 -0.36484873 -0.42317197
-0.0617714 -0.36477703 -0.42316025
-0.061769221 -0.36470538 -0.42314658
-0.06176687 -0.36463168 -0.42313483
-0.061764378 -0.36456183 -0.42312917
-0.061761834 -0.36448804 -0.42312142
-0.061759461 -0.3644163 -0.42311171
-0.061757088 -0.36434454 -0.42310199
-0.061754812 -0.36427283 -0.42309031
-0.061752535 -0.36420113 -0.4230786
-0.061750066 -0.36412933 -0.42307088
-0.061747693 -0.36405757 -0.42306119
-0.06174532 -0.36398584 -0.42305148
-0.061742969 -0.36391211 -0.42303973
-0.061740499 -0.36384031 -0.42303202
-0.061737932 -0.36376849 -0.42302632
-0.061735366 -0.36369663 -0.4230206
-0.06173268 -0.36362672 -0.42301893
-0.061729707 -0.36355665 -0.42302325
-0.061726827 -0.36348665 -0.42302561
-0.06172397 -0.36341467 -0.42302588
-0.061721288 -0.36334473 -0.42302421
-0.061718624 -0.36327285 -0.42302048
-0.061716348 -0.36320114 -0.4230088
-0.061714265 -0.36312953 -0.42299309
-0.061712109 -0.36305591 -0.42297736
-0.061709832 -0.36298421 -0.42296565
-0.061707556 -0.36291251 -0.42295393
-0.061705109 -0.36283875 -0.42294419
-0.061702833 -0.36276704 -0.42293251
-0.06170046 -0.36269531 -0.42292279
-0.061698299 -0.36262167 -0.42290705
-0.061696414 -0.36255014 -0.42288736
-0.061693944 -0.36247835 -0.42287964
-0.061691184 -0.36240643 -0.42287794
-0.061688714 -0.36233464 -0.42287022
-0.061686318 -0.36226484 -0.42286256
-0.061683849 -0.36219305 -0.42285484
-0.061681379 -0.36212125 -0.42284715
-0.061678812 -0.3620494 -0.42284143
-0.061676443 -0.36197767 -0.42283174
-0.061674166 -0.36190593 -0.42282003
-0.061671697 -0.36183417 -0.42281234
-0.061669033 -0.36176229 -0.42280862
-0.06166666 -0.36169052 -0.42279893
-0.06166419 -0.36161873 -0.42279118
-0.061661407 -0.36154875 -0.42279154
-0.061658628 -0.36147878 -0.42279187
-0.061655749 -0.36140877 -0.42279419
-0.061653085 -0.36133689 -0.42279047
-0.0616505 -0.361267 -0.4227868
-0.061647739 -0.36119506 -0.4227851
-0.061645247 -0.36112523 -0.42277944
-0.06164268 -0.36105338 -0.42277372
-0.061640017 -0.36098149 -0.42277002
-0.061637547 -0.3609097 -0.4227623
-0.061635565 -0.36083815 -0.4227446
-0.061633579 -0.36076656 -0.42272693
-0.061631419 -0.36069295 -0.42271119
-0.061628949 -0.36062115 -0.42270347
-0.061626267 -0.36055121 -0.42270181
-0.0616237 -0.36047938 -0.42269608
-0.061621115 -0.3604095 -0.42269242
-0.06161835 -0.36033759 -0.42269069
-0.061615981 -0.36026582 -0.422681
-0.061613996 -0.36019424 -0.4226633
-0.061611913 -0.36012262 -0.42264763
-0.061609734 -0.36005098 -0.42263392
-0.061607286 -0.35997722 -0.42262417
-0.061604794 -0.35990736 -0.42261851
-0.061602421 -0.35983562 -0.42260879
-0.061600048 -0.35976386 -0.42259908
-0.061597656 -0.35969406 -0.42259145
-0.06159509 -0.35962224 -0.42258573
-0.061592523 -0.35955039 -0.42258
-0.061589859 -0.3594785 -0.42257631
-0.061587274 -0.35940862 -0.42257264
-0.061584588 -0.3593387 -0.42257097
-0.061582021 -0.35926685 -0.42256525
-0.061579648 -0.35919511 -0.42255557
-0.061577082 -0.35912326 -0.42254984
-0.06157469 -0.35905346 -0.42254218
-0.061572317 -0.35898173 -0.4225325
-0.06156975 -0.35890988 -0.42252678
-0.061567262 -0.35884005 -0.42252111
-0.061565392 -0.35876656 -0.42249939
-0.061563313 -0.35869494 -0.42248368
-0.061560821 -0.35862511 -0.42247802
-0.061558448 -0.35855335 -0.4224683
-0.061556365 -0.35848173 -0.42245263
-0.061553799 -0.35840988 -0.42244691
-0.061551213 -0.35834 -0.42244324
-0.061548937 -0.35826829 -0.42243153
-0.06154637 -0.35819647 -0.42242584
-0.061543688 -0.35812652 -0.42242417
-0.061541121 -0.3580547 -0.42241845
-0.061538726 -0.3579849 -0.42241079
-0.061536353 -0.35791314 -0.4224011
-0.061533883 -0.35784134 -0.42239338
-0.061531588 -0.35777161 -0.42238373
-0.061529335 -0.35769793 -0.42236999
-0.061526939 -0.35762814 -0.42236233
-0.061524354 -0.35755825 -0.42235866
-0.061521787 -0.35748643 -0.42235294
-0.061519198 -0.35741654 -0.42234927
-0.061516438 -0.3573446 -0.42234758
-0.061513949 -0.35727477 -0.42234188
-0.061511382 -0.35720292 -0.42233619
-0.061508991 -0.35713312 -0.42232853
-0.061506618 -0.35706139 -0.42231882
-0.061504342 -0.35698968 -0.42230713
-0.061501753 -0.3569198 -0.42230347
-0.061499089 -0.35684791 -0.42229974
-0.061496697 -0.35677812 -0.42229208
-0.061494324 -0.35670635 -0.4222824
-0.061491854 -0.35663456 -0.42227468
-0.061489463 -0.35656476 -0.42226702
-0.06148709 -0.356493 -0.4222573
-0.061484501 -0.35642314 -0.42225364
-0.061481819 -0.35635319 -0.42225197
-0.061479155 -0.35628131 -0.42224827
-0.06147657 -0.35621142 -0.42224461
-0.061474003 -0.3561396 -0.42223889
-0.061471801 -0.35606989 -0.42222723
-0.061469525 -0.35599819 -0.42221552
-0.061466958 -0.35592633 -0.42220983
-0.061464664 -0.3558566 -0.42220017
-0.061462484 -0.35578492 -0.42218646
-0.061460305 -0.35571325 -0.42217278
-0.061458126 -0.3556416 -0.42215908
-0.06145595 -0.35556993 -0.42214537
-0.061453748 -0.35550022 -0.42213371
-0.061451472 -0.35542852 -0.42212203
-0.061449103 -0.35535675 -0.42211232
-0.061446708 -0.35528696 -0.42210466
-0.061444432 -0.35521525 -0.42209297
-0.061442234 -0.35514554 -0.42208129
-0.061439764 -0.35507375 -0.4220736
-0.061437082 -0.35500383 -0.42207193
-0.061434492 -0.35493395 -0.42206827
-0.061432023 -0.35486215 -0.42206055
-0.061429534 -0.3547923 -0.42205489
-0.061427064 -0.3547205 -0.4220472
-0.061424691 -0.35464877 -0.42203748
-0.061422396 -0.354579 -0.42202783
-0.061420023 -0.35450727 -0.42201811
-0.061417725 -0.3544375 -0.42200845
-0.061415236 -0.35436767 -0.42200279
-0.061412476 -0.35429573 -0.42200109
-0.061409891 -0.35422584 -0.42199743
-0.061407518 -0.35415411 -0.42198771
-0.061405219 -0.35408434 -0.42197806
-0.061402846 -0.35401261 -0.42196837
-0.061400745 -0.35394293 -0.42195469
-0.061398372 -0.35387117 -0.42194501
-0.06139569 -0.35380125 -0.42194334
-0.061393101 -0.35373136 -0.42193967
-0.061390631 -0.35365957 -0.42193198
-0.061388455 -0.35358793 -0.42191827
-0.061386351 -0.35351825 -0.42190462
-0.061383687 -0.35344636 -0.4219009
-0.061381005 -0.35337645 -0.42189923
-0.061378513 -0.35330659 -0.42189357
-0.061376024 -0.35323676 -0.4218879
-0.061373651 -0.353165 -0.42187822
-0.061371356 -0.35309526 -0.42186856
-0.06136867 -0.35302532 -0.42186689
-0.061366104 -0.35295349 -0.42186117
-0.061363809 -0.35288373 -0.42185152
-0.061361123 -0.35281381 -0.42184985
-0.061358556 -0.35274196 -0.42184412
-0.061355971 -0.35267207 -0.42184049
-0.061353091 -0.35260206 -0.42184281
-0.061350506 -0.35253218 -0.42183912
-0.061348211 -0.35246241 -0.42182946
-0.061345838 -0.35239068 -0.42181978
-0.061343636 -0.35232097 -0.42180812
-0.061340973 -0.35224909 -0.4218044
-0.061338581 -0.35217929 -0.42179674
-0.061336596 -0.3521077 -0.42177904
-0.061334517 -0.35203609 -0.42176336
-0.061332412 -0.35196641 -0.42174971
-0.061330311 -0.35189676 -0.42173606
-0.061328035 -0.35182506 -0.42172435
-0.061325837 -0.35175535 -0.4217127
-0.061323561 -0.35168365 -0.42170101
-0.061321072 -0.35161379 -0.42169535
-0.061318483 -0.3515439 -0.42169166
-0.061315916 -0.35147208 -0.42168596
-0.061313719 -0.35140237 -0.42167431
-0.061311152 -0.35133052 -0.42166859
-0.061308447 -0.35126254 -0.42166898
-0.061305761 -0.35119262 -0.42166731
-0.061303392 -0.35112086 -0.42165759
-0.061300997 -0.35105106 -0.42164993
-0.061298333 -0.35097918 -0.42164624
-0.061295651 -0.35090926 -0.42164457
-0.061293062 -0.35083938 -0.4216409
-0.061290864 -0.35076967 -0.42162925
-0.061288375 -0.35069981 -0.42162359
-0.061286002 -0.35062808 -0.42161387
-0.061283994 -0.35055846 -0.42159823
-0.0612817 -0.35048869 -0.42158857
-0.06127923 -0.3504169 -0.42158085
-0.061276935 -0.35034716 -0.4215712
-0.061274562 -0.3502754 -0.42156151
-0.061271954 -0.35020748 -0.42155987
-0.061269369 -0.35013759 -0.42155623
-0.061266802 -0.35006574 -0.42155051
-0.061264213 -0.34999585 -0.42154685
-0.061261434 -0.34992588 -0.42154717
-0.061258942 -0.34985605 -0.42154151
-0.061256744 -0.34978634 -0.42152986
-0.061254274 -0.34971455 -0.42152214
-0.061251882 -0.34964475 -0.42151448
-0.061249778 -0.34957507 -0.42150083
-0.061247408 -0.34950334 -0.42149115
-0.061244819 -0.34943345 -0.42148748
-0.061242428 -0.34936365 -0.42147982
-0.061240129 -0.34929389 -0.42147017
-0.061237756 -0.34922215 -0.42146045
-0.061235268 -0.3491523 -0.42145479
-0.061232585 -0.34908238 -0.42145312
-0.0612299 -0.34901243 -0.42145145
-0.061227702 -0.34894273 -0.4214398
-0.061225716 -0.34887117 -0.42142209
-0.061223615 -0.34880149 -0.42140844
-0.06122122 -0.3487317 -0.42140079
-0.061218828 -0.3486619 -0.42139313
-0.061216533 -0.34859216 -0.42138347
-0.061214063 -0.34852037 -0.42137575
-0.061211765 -0.3484506 -0.4213661
-0.06120947 -0.34838086 -0.42135647
-0.061207078 -0.34831107 -0.42134881
-0.061204586 -0.34824121 -0.42134315
-0.061202019 -0.34816939 -0.42133743
-0.061199725 -0.34809962 -0.42132777
-0.06119743 -0.34802988 -0.42131811
-0.061194841 -0.34796 -0.42131445
-0.061192062 -0.34789002 -0.42131478
-0.061189182 -0.34781998 -0.4213171
-0.061186694 -0.34775016 -0.42131144
-0.061184593 -0.34768048 -0.42129779
-0.061182197 -0.34761068 -0.42129013
-0.061179806 -0.34754089 -0.42128247
-0.061177433 -0.34746915 -0.42127275
-0.061175115 -0.34740135 -0.42126516
-0.061173327 -0.34732985 -0.42124346
-0.061171513 -0.34726033 -0.42122382
-0.061169509 -0.34719071 -0.42120817
-0.061167039 -0.34711891 -0.42120045
-0.061164722 -0.34705111 -0.42119285
-0.061162136 -0.34698123 -0.42118919
-0.061159354 -0.34691125 -0.42118952
-0.061156575 -0.34684128 -0.42118984
-0.061154008 -0.34676945 -0.42118412
-0.061151497 -0.34670156 -0.42118052
-0.061149202 -0.3466318 -0.42117086
-0.061146829 -0.34656006 -0.42116117
-0.06114424 -0.34649017 -0.42115748
-0.061141849 -0.34642038 -0.42114985
-0.061139651 -0.34635067 -0.4211382
-0.061137062 -0.34628078 -0.42113453
-0.061134379 -0.34621084 -0.42113286
-0.061131984 -0.34614104 -0.4211252
-0.061129786 -0.34607133 -0.42111355
-0.061127782 -0.34600171 -0.4210979
-0.061125584 -0.34593201 -0.42108625
-0.061123092 -0.34586218 -0.42108059
-0.061120603 -0.34579232 -0.42107493
-0.061118208 -0.34572253 -0.42106724
-0.061116107 -0.34565288 -0.42105359
-0.061114006 -0.3455832 -0.42103994
-0.061111905 -0.34551352 -0.42102629
-0.0611098 -0.34544387 -0.42101264
-0.06110733 -0.34537208 -0.42100495
-0.061105113 -0.34530431 -0.42099532
-0.0611034 -0.34523484 -0.42097369
-0.061100543 -0.34516287 -0.42097399
-0.061096575 -0.34509432 -0.4210003
