# .PCD v0.7 - Point Cloud Data file format
VERSION 0.7
FIELDS x y z
SIZE 4 4 4
TYPE F F F
COUNT 1 1 1
WIDTH 1305
HEIGHT 1
VIEWPOINT 0 0 0 1 0 0 0
POINTS 1305
DATA ascii
-0.061838221 -0.35594523 -0.41447386
-0.061836001 -0.35587746 -0.41446427
-0.061833858 -0.35581172 -0.4144547
-0.061831445 -0.35574389 -0.4144491
-0.061829228 -0.35567611 -0.41443947
-0.061827086 -0.35561037 -0.4144299
-0.061824866 -0.3555426 -0.41442031
-0.061822627 -0.3554768 -0.41441274
-0.061194632 -0.33932355 -0.41419718
-0.061160233 -0.33903313 -0.41467783
-0.061157797 -0.33896723 -0.41467425
-0.061160002 -0.33890539 -0.41457686
-0.061160766 -0.33884096 -0.41450739
-0.061159402 -0.33877558 -0.41448185
-0.061156385 -0.33870941 -0.41449025
-0.061152615 -0.33864096 -0.4145126
-0.062101532 -0.36379164 -0.41546214
-0.062099408 -0.36372396 -0.41545051
-0.062097501 -0.36365438 -0.41543287
-0.062095359 -0.3635886 -0.41542333
-0.062092945 -0.36352077 -0.4154177
-0.062090918 -0.36345309 -0.41540411
-0.062088795 -0.36338538 -0.41539249
-0.062086459 -0.36331955 -0.41538695
-0.062084142 -0.36325175 -0.41537932
-0.062082022 -0.36318403 -0.41536772
-0.062079802 -0.36311629 -0.4153581
-0.062077582 -0.36304852 -0.4153485
-0.062075458 -0.36298081 -0.41533688
-0.062073722 -0.36291328 -0.4153173
-0.062071912 -0.36284375 -0.41529766
-0.062069576 -0.36277789 -0.41529208
-0.062067047 -0.36271197 -0.4152905
-0.06206461 -0.36264607 -0.41528696
-0.0620621 -0.36257818 -0.41528332
-0.06205957 -0.36251226 -0.41528177
-0.062057137 -0.36244637 -0.4152782
-0.062054604 -0.36238045 -0.41527662
-0.062052172 -0.36231455 -0.41527304
-0.062049855 -0.36224675 -0.41526544
-0.062047537 -0.36217895 -0.41525781
-0.062045686 -0.36211333 -0.41524225
-0.062043466 -0.36204559 -0.41523266
-0.062040955 -0.3619777 -0.41522902
-0.062038813 -0.36191192 -0.41521949
-0.062037002 -0.36184239 -0.41519982
-0.062034957 -0.36177668 -0.41518825
-0.062032931 -0.36170903 -0.41517466
-0.062030807 -0.36164132 -0.41516307
-0.062028568 -0.36157551 -0.4151555
-0.062026348 -0.36150774 -0.41514587
-0.062024035 -0.36143994 -0.41513827
-0.062021911 -0.36137223 -0.41512668
-0.062019769 -0.36130649 -0.41511711
-0.062017333 -0.3612406 -0.41511354
-0.062014919 -0.36117274 -0.41510794
-0.06201268 -0.36110696 -0.41510037
-0.06201075 -0.36103934 -0.41508478
-0.06200863 -0.36097163 -0.41507316
-0.06200641 -0.36090386 -0.41506356
-0.062003996 -0.36083603 -0.41505793
-0.062001564 -0.36077014 -0.41505435
-0.061999246 -0.36070234 -0.41504675
-0.061997298 -0.36063665 -0.41503319
-0.061995272 -0.360569 -0.4150196
-0.061992954 -0.3605012 -0.41501197
-0.061990425 -0.36043528 -0.41501039
-0.061988011 -0.36036742 -0.41500479
-0.061985888 -0.36029971 -0.41499317
-0.061983939 -0.36023405 -0.41497964
-0.061981816 -0.36016634 -0.41496801
-0.061979499 -0.36009854 -0.41496041
-0.061977163 -0.36003268 -0.41495484
-0.061974846 -0.35996488 -0.41494721
-0.061972704 -0.35989913 -0.41493767
-0.06197029 -0.35983127 -0.41493207
-0.061967663 -0.35976532 -0.41493249
-0.061965249 -0.35969746 -0.41492686
-0.061963204 -0.35963175 -0.41491532
-0.061960887 -0.35956395 -0.41490769
-0.061958455 -0.35949805 -0.41490412
-0.061956115 -0.35943222 -0.41489854
-0.061953798 -0.35936442 -0.41489094
-0.061951268 -0.3592985 -0.41488937
-0.061948739 -0.35923254 -0.41488779
-0.061946325 -0.35916471 -0.41488218
-0.061944082 -0.35909891 -0.41487461
-0.061941963 -0.3590312 -0.41486302
-0.061940033 -0.35896358 -0.41484743
-0.06193791 -0.35889587 -0.41483581
-0.061935768 -0.35883012 -0.41482624
-0.06193345 -0.35876232 -0.41481864
-0.06193123 -0.35869455 -0.41480902
-0.061929207 -0.3586269 -0.41479543
-0.061927158 -0.35856119 -0.41478387
-0.061925039 -0.35849348 -0.41477227
-0.061923012 -0.3584258 -0.41475865
-0.061920695 -0.358358 -0.41475105
-0.061918262 -0.3582921 -0.41474748
-0.061915927 -0.35822627 -0.4147419
-0.061913706 -0.3581585 -0.41473228
-0.061911389 -0.3580907 -0.41472468
-0.061909053 -0.35802487 -0.4147191
-0.061906639 -0.35795704 -0.4147135
-0.0619043 -0.35789117 -0.41470793
-0.061902083 -0.35782343 -0.41469833
-0.06189996 -0.35775572 -0.41468671
-0.061897933 -0.35768804 -0.41467312
-0.061895695 -0.35762224 -0.41466555
-0.061893377 -0.35755444 -0.41465795
-0.061890848 -0.35748851 -0.41465637
-0.061888218 -0.35742253 -0.41465679
-0.061885998 -0.35735479 -0.41464716
-0.061883878 -0.35728708 -0.41463557
-0.061881538 -0.35722122 -0.41463
-0.061879128 -0.35715339 -0.41462439
-0.061876692 -0.35708749 -0.41462082
-0.061874472 -0.35701975 -0.41461122
-0.061872523 -0.35695407 -0.41459766
-0.06187021 -0.35688627 -0.41459003
-0.061867774 -0.35682037 -0.41458648
-0.061865456 -0.35675257 -0.41457886
-0.061863434 -0.35668492 -0.41456527
-0.061861191 -0.35661912 -0.4145577
-0.061858777 -0.35655126 -0.41455209
-0.06185656 -0.35648352 -0.41454247
-0.061854511 -0.3564178 -0.4145309
-0.061852682 -0.35635021 -0.41451332
-0.061850462 -0.35628247 -0.41450369
-0.061847836 -0.35621649 -0.41450411
-0.061845303 -0.35615057 -0.41450256
-0.061842985 -0.35608277 -0.41449493
-0.061840866 -0.35601506 -0.41448334
-0.061838917 -0.35594937 -0.41446978
-0.0618366 -0.35588157 -0.41446218
-0.061834358 -0.35581577 -0.41445461
-0.061832044 -0.355748 -0.41444701
-0.061829802 -0.35568219 -0.41443944
-0.061827682 -0.35561448 -0.41442782
-0.061825462 -0.35554671 -0.41441822
-0.061823219 -0.35548091 -0.41441065
-0.061194785 -0.33932754 -0.41420114
-0.06115824 -0.33897135 -0.41467223
-0.061160441 -0.33890951 -0.41457483
-0.061161209 -0.33884507 -0.41450536
-0.061159842 -0.33877969 -0.41447982
-0.061156925 -0.33871356 -0.41448623
-0.061153151 -0.3386451 -0.41450858
-0.062102232 -0.36379421 -0.41546291
-0.062100109 -0.3637265 -0.41545129
-0.062098201 -0.36365691 -0.41543365
-0.062096059 -0.36359116 -0.41542408
-0.062093742 -0.36352336 -0.41541648
-0.062091719 -0.36345568 -0.41540286
-0.062089596 -0.36338797 -0.41539127
-0.062087182 -0.36332014 -0.41538566
-0.062084943 -0.36325434 -0.41537809
-0.06208282 -0.36318663 -0.41536647
-0.062080506 -0.36311883 -0.41535887
-0.062078286 -0.36305106 -0.41534925
-0.062076263 -0.36298341 -0.41533566
-0.06207443 -0.36291581 -0.41531807
-0.062072717 -0.36284634 -0.41529644
-0.062070381 -0.36278048 -0.41529083
-0.062067755 -0.3627145 -0.41529128
-0.062065341 -0.36264667 -0.41528565
-0.062062908 -0.36258078 -0.41528207
-0.062060375 -0.36251485 -0.41528052
-0.062057845 -0.3624489 -0.41527894
-0.062055316 -0.36238298 -0.41527736
-0.06205298 -0.36231714 -0.41527182
-0.062050566 -0.36224928 -0.41526619
-0.062048346 -0.36218154 -0.41525659
-0.062046323 -0.36211386 -0.41524297
-0.062044278 -0.36204815 -0.41523141
-0.062041767 -0.36198026 -0.4152278
-0.062039625 -0.36191452 -0.41521823
-0.062037814 -0.36184499 -0.41519859
-0.062035672 -0.36177921 -0.41518903
-0.062033568 -0.36170956 -0.41517538
-0.062031522 -0.36164385 -0.41516382
-0.062029283 -0.36157805 -0.41515625
-0.062027067 -0.36151028 -0.41514665
-0.062024847 -0.36144254 -0.41513705
-0.062022723 -0.36137483 -0.41512543
-0.062020484 -0.36130902 -0.41511786
-0.062018052 -0.36124313 -0.41511431
-0.062015638 -0.3611753 -0.41510868
-0.062013496 -0.36110952 -0.41509914
-0.062011395 -0.36103988 -0.41508549
-0.062009446 -0.36097419 -0.4150719
-0.062007129 -0.36090639 -0.41506431
-0.062004812 -0.36083859 -0.41505671
-0.062002379 -0.3607727 -0.41505313
-0.062000062 -0.3607049 -0.41504553
-0.061998039 -0.36063725 -0.41503191
-0.061996091 -0.36057156 -0.41501835
-0.061993774 -0.36050376 -0.41501075
-0.061991245 -0.36043784 -0.41500917
-0.061988734 -0.36036995 -0.41500556
-0.06198661 -0.36030224 -0.41499394
-0.061984759 -0.36023661 -0.41497838
-0.061982561 -0.36016691 -0.41496673
-0.061980322 -0.3601011 -0.41495919
-0.061977811 -0.36003321 -0.41495556
-0.061975669 -0.35996747 -0.41494602
-0.061973449 -0.3598997 -0.41493639
-0.061971113 -0.35983387 -0.41493082
-0.061968487 -0.35976788 -0.41493124
-0.061965976 -0.35969999 -0.41492763
-0.061963931 -0.35963428 -0.41491607
-0.061961614 -0.35956648 -0.41490847
-0.061959181 -0.35950062 -0.41490489
-0.061956868 -0.35943282 -0.41489726
-0.061954625 -0.35936701 -0.41488972
-0.061952095 -0.35930106 -0.41488814
-0.061949469 -0.35923508 -0.41488856
-0.061947055 -0.35916725 -0.41488296
-0.061944913 -0.3591015 -0.41487339
-0.06194279 -0.35903379 -0.4148618
-0.061940864 -0.35896617 -0.41484618
-0.061938643 -0.3588984 -0.41483659
-0.061936423 -0.35883066 -0.41482696
-0.061934281 -0.35876489 -0.41481739
-0.061932065 -0.35869715 -0.4148078
-0.061930038 -0.35862947 -0.41479421
-0.061927993 -0.35856375 -0.41478264
-0.061925869 -0.35849604 -0.41477102
-0.06192375 -0.35842833 -0.41475943
-0.061921433 -0.35836053 -0.41475183
-0.061919 -0.35829464 -0.41474825
-0.061916664 -0.3582288 -0.41474268
-0.061914444 -0.35816103 -0.41473305
-0.061912127 -0.35809326 -0.41472545
-0.061909888 -0.35802746 -0.41471788
-0.061907474 -0.3579596 -0.41471228
-0.061905138 -0.35789376 -0.41470671
-0.061902918 -0.35782599 -0.41469711
-0.061900798 -0.35775828 -0.41468549
-0.061898675 -0.35769057 -0.41467386
-0.061896436 -0.35762477 -0.41466632
-0.061894119 -0.35755697 -0.41465873
-0.061891589 -0.35749105 -0.41465715
-0.061888963 -0.35742506 -0.41465756
-0.06188684 -0.35735735 -0.41464597
-0.061884716 -0.35728964 -0.41463435
-0.06188238 -0.35722381 -0.41462877
-0.061879873 -0.35715592 -0.41462517
-0.061877534 -0.35709009 -0.41461959
-0.061875317 -0.35702232 -0.41461
-0.061873194 -0.3569546 -0.41459838
-0.061870955 -0.3568888 -0.41459081
-0.061868541 -0.35682097 -0.4145852
-0.061866302 -0.35675517 -0.41457763
-0.061864275 -0.35668749 -0.41456404
-0.06186194 -0.35662165 -0.41455847
-0.061859626 -0.35655385 -0.41455084
-0.061857406 -0.35648608 -0.41454124
-0.061855361 -0.3564204 -0.41452968
-0.061853431 -0.35635275 -0.41451409
-0.061851311 -0.35628504 -0.41450247
-0.061848585 -0.35621902 -0.41450489
-0.061846152 -0.35615313 -0.41450134
-0.061843835 -0.35608533 -0.41449371
-0.061841618 -0.35601759 -0.41448411
-0.06183967 -0.35595191 -0.41447055
-0.06183745 -0.35588416 -0.41446096
-0.061835211 -0.35581836 -0.41445339
-0.061832797 -0.35575053 -0.41444778
-0.061830577 -0.35568276 -0.41443816
-0.061828531 -0.35561705 -0.41442659
-0.061826218 -0.35554925 -0.414419
-0.061823975 -0.35548344 -0.41441143
-0.061196145 -0.33933029 -0.41419196
-0.061159506 -0.33897406 -0.41466504
-0.061161611 -0.33891219 -0.41456965
-0.061162185 -0.33884767 -0.41450417
-0.061160721 -0.33878219 -0.41448063
-0.061157804 -0.33871609 -0.41448703
-0.062102068 -0.36379474 -0.41546315
-0.062099945 -0.36372703 -0.41545156
-0.062098037 -0.36365744 -0.41543391
-0.062095895 -0.3635917 -0.41542435
-0.062093481 -0.36352384 -0.41541874
-0.062091459 -0.36345619 -0.41540512
-0.062089432 -0.36338851 -0.4153915
-0.062086999 -0.36332262 -0.41538796
-0.062084682 -0.36325485 -0.41538033
-0.062082563 -0.36318713 -0.41536874
-0.062080342 -0.36311936 -0.41535914
-0.062078126 -0.36305162 -0.41534951
-0.062076002 -0.36298391 -0.41533792
-0.06207427 -0.36291635 -0.41531831
-0.062072556 -0.36284688 -0.41529667
-0.06207012 -0.36278099 -0.4152931
-0.062067591 -0.36271507 -0.41529155
-0.062065158 -0.36264917 -0.41528797
-0.062062651 -0.36258128 -0.41528434
-0.062060118 -0.36251533 -0.41528279
-0.062057685 -0.36244947 -0.41527921
-0.062055156 -0.36238351 -0.41527763
-0.06205282 -0.36231768 -0.41527206
-0.062050406 -0.36224982 -0.41526645
-0.062048189 -0.36218208 -0.41525683
-0.062046241 -0.3621164 -0.41524327
-0.062044021 -0.36204866 -0.41523367
-0.06204151 -0.36198077 -0.41523007
-0.062039465 -0.36191505 -0.4152185
-0.062037557 -0.36184546 -0.41520086
-0.062035512 -0.36177975 -0.4151893
-0.062033489 -0.3617121 -0.41517568
-0.062031366 -0.36164439 -0.41516408
-0.062029127 -0.36157858 -0.41515651
-0.06202691 -0.36151084 -0.41514692
-0.06202469 -0.36144307 -0.41513729
-0.06202247 -0.36137533 -0.41512769
-0.062020328 -0.36130956 -0.41511813
-0.062017895 -0.36124367 -0.41511455
-0.062015481 -0.36117584 -0.41510895
-0.062013339 -0.36111009 -0.41509938
-0.062011238 -0.36104041 -0.41508573
-0.06200929 -0.36097473 -0.41507217
-0.062006976 -0.36090693 -0.41506457
-0.062004562 -0.3608391 -0.41505897
-0.062002227 -0.36077327 -0.41505337
-0.061999813 -0.36070541 -0.41504776
-0.061997864 -0.36063975 -0.4150342
-0.061995938 -0.36057213 -0.41501862
-0.061993524 -0.36050427 -0.41501299
-0.061990995 -0.36043835 -0.41501141
-0.061988581 -0.36037049 -0.4150058
-0.061986461 -0.36030278 -0.41499421
-0.061984513 -0.36023712 -0.41498065
-0.061982412 -0.36016744 -0.414967
-0.061980076 -0.36010161 -0.41496143
-0.061977737 -0.36003578 -0.41495585
-0.061975423 -0.35996798 -0.41494825
-0.0619733 -0.35990027 -0.41493666
-0.061970964 -0.3598344 -0.41493109
-0.061968338 -0.35976842 -0.41493151
-0.061965827 -0.35970056 -0.4149279
-0.061963782 -0.35963485 -0.41491634
-0.061961465 -0.35956705 -0.41490871
-0.061959032 -0.35950115 -0.41490513
-0.061956719 -0.35943335 -0.41489753
-0.06195448 -0.35936755 -0.41488996
-0.06195185 -0.35930157 -0.41489041
-0.06194932 -0.35923564 -0.41488883
-0.06194691 -0.35916778 -0.4148832
-0.061944671 -0.35910198 -0.41487563
-0.061942644 -0.35903433 -0.41486204
-0.061940618 -0.35896665 -0.41484845
-0.061938498 -0.35889894 -0.41483682
-0.061936278 -0.3588312 -0.41482723
-0.061934136 -0.35876542 -0.41481766
-0.061931919 -0.35869768 -0.41480803
-0.061929796 -0.35862997 -0.41479644
-0.061927848 -0.35856429 -0.41478288
-0.061925724 -0.35849658 -0.41477129
-0.061923604 -0.35842887 -0.41475967
-0.061921287 -0.35836107 -0.41475207
-0.061918855 -0.3582952 -0.41474849
-0.061916519 -0.35822934 -0.41474292
-0.061914299 -0.3581616 -0.41473332
-0.061911985 -0.3580938 -0.41472572
-0.061909746 -0.35802799 -0.41471815
-0.061907332 -0.35796013 -0.41471252
-0.061904997 -0.3578943 -0.41470695
-0.061902776 -0.35782656 -0.41469735
-0.06190056 -0.35775879 -0.41468775
-0.061898533 -0.35769111 -0.41467413
-0.061896294 -0.35762534 -0.41466656
-0.061893977 -0.35755754 -0.41465896
-0.061891448 -0.35749158 -0.41465738
-0.061888821 -0.35742563 -0.41465783
-0.061886698 -0.35735792 -0.41464621
-0.061884578 -0.35729021 -0.41463459
-0.061882243 -0.35722435 -0.41462904
-0.061879732 -0.35715646 -0.41462541
-0.061877299 -0.35709056 -0.41462183
-0.061875176 -0.35702285 -0.41461024
-0.061873131 -0.35695714 -0.41459867
-0.061870817 -0.35688934 -0.41459107
-0.061868384 -0.35682347 -0.4145875
-0.061866164 -0.3567557 -0.4145779
-0.061864041 -0.35668799 -0.41456628
-0.061861802 -0.35662219 -0.41455871
-0.061859488 -0.35655439 -0.41455111
-0.061857268 -0.35648665 -0.41454151
-0.061855126 -0.35642087 -0.41453195
-0.061853297 -0.35635331 -0.41451433
-0.061851174 -0.3562856 -0.41450274
-0.06184845 -0.35621956 -0.41450515
-0.061846018 -0.3561537 -0.41450158
-0.061843701 -0.3560859 -0.41449398
-0.06184148 -0.35601813 -0.41448438
-0.061839536 -0.35595247 -0.41447079
-0.061837316 -0.3558847 -0.4144612
-0.061835077 -0.3558189 -0.41445363
-0.061832663 -0.35575107 -0.41444802
-0.061830446 -0.3556833 -0.41443843
-0.061828401 -0.35561758 -0.41442686
-0.061826084 -0.35554978 -0.41441923
-0.061823845 -0.35548398 -0.41441166
-0.061195884 -0.33933073 -0.41419622
-0.061159346 -0.33897454 -0.41466728
-0.061161645 -0.33891276 -0.41456789
-0.061162122 -0.3388482 -0.41450441
-0.061160658 -0.33878276 -0.41448087
-0.061157838 -0.33871669 -0.41448531
-0.062100176 -0.36379543 -0.41546279
-0.062098149 -0.36372775 -0.41544917
-0.062096145 -0.36365813 -0.41543353
-0.062094003 -0.36359239 -0.41542396
-0.062091686 -0.36352459 -0.41541636
-0.062089663 -0.3634569 -0.41540277
-0.06208754 -0.36338919 -0.41539115
-0.062085107 -0.3633233 -0.41538757
-0.06208279 -0.3632555 -0.41537997
-0.06208067 -0.36318779 -0.41536835
-0.06207845 -0.36312005 -0.41535875
-0.062076233 -0.36305228 -0.41534916
-0.062074207 -0.36298463 -0.41533554
-0.062072374 -0.36291704 -0.41531795
-0.06207066 -0.36284757 -0.41529632
-0.062068228 -0.36278167 -0.41529274
-0.062065698 -0.36271572 -0.41529116
-0.062063284 -0.36264789 -0.41528553
-0.062060852 -0.362582 -0.41528198
-0.062058322 -0.36251608 -0.4152804
-0.062055793 -0.36245012 -0.41527882
-0.062053263 -0.3623842 -0.41527724
-0.062050924 -0.36231837 -0.4152717
-0.062048513 -0.36225051 -0.41526607
-0.062046293 -0.36218277 -0.41525647
-0.062044345 -0.36211708 -0.41524291
-0.062042125 -0.36204934 -0.41523331
-0.062039714 -0.36198148 -0.41522768
-0.062037572 -0.36191574 -0.41521811
-0.062035665 -0.36184615 -0.41520047
-0.062033616 -0.36178043 -0.41518891
-0.062031515 -0.36171079 -0.41517526
-0.06202947 -0.36164507 -0.4151637
-0.062027156 -0.36157727 -0.4151561
-0.062025014 -0.36151153 -0.41514653
-0.062022697 -0.3614437 -0.41513893
-0.062020574 -0.36137599 -0.41512734
-0.062018432 -0.36131024 -0.41511774
-0.062015999 -0.36124435 -0.41511419
-0.062013585 -0.36117652 -0.41510856
-0.062011443 -0.36111075 -0.41509902
-0.06200942 -0.3610431 -0.41508541
-0.062007394 -0.36097541 -0.41507182
-0.062005077 -0.36090761 -0.41506419
-0.062002763 -0.36083981 -0.41505659
-0.062000327 -0.36077392 -0.41505301
-0.061998013 -0.36070615 -0.41504541
-0.061995968 -0.36064044 -0.41503385
-0.061994039 -0.36057279 -0.41501823
-0.061991628 -0.36050496 -0.41501263
-0.061989095 -0.36043903 -0.41501105
-0.061986685 -0.36037117 -0.41500545
-0.061984561 -0.36030346 -0.41499382
-0.06198271 -0.36023784 -0.41497827
-0.061980512 -0.36016813 -0.41496661
-0.061978176 -0.3601023 -0.41496104
-0.061975762 -0.36003444 -0.41495544
-0.061973523 -0.35996866 -0.41494787
-0.061971303 -0.35990089 -0.41493827
-0.061968967 -0.35983506 -0.4149327
-0.061966438 -0.35976911 -0.41493112
-0.061963927 -0.35970122 -0.41492751
-0.061961882 -0.3596355 -0.41491595
-0.061959662 -0.35956776 -0.41490635
-0.061957132 -0.35950184 -0.41490477
-0.061954819 -0.35943404 -0.41489714
-0.061952576 -0.35936823 -0.4148896
-0.06194995 -0.35930225 -0.41489002
-0.06194742 -0.35923633 -0.41488844
-0.061945006 -0.35916847 -0.41488284
-0.061942767 -0.35910267 -0.41487527
-0.061940648 -0.35903496 -0.41486368
-0.061938718 -0.35896733 -0.41484806
-0.061936595 -0.35889962 -0.41483647
-0.061934453 -0.35883388 -0.4148269
-0.061932139 -0.35876608 -0.41481927
-0.061930016 -0.35869837 -0.41480768
-0.061927892 -0.35863066 -0.41479605
-0.061925948 -0.35856497 -0.41478252
-0.061923824 -0.35849726 -0.4147709
-0.061921701 -0.35842955 -0.41475931
-0.061919387 -0.35836175 -0.41475171
-0.061916951 -0.35829586 -0.41474813
-0.061914615 -0.35823002 -0.41474256
-0.061912399 -0.35816228 -0.41473293
-0.061910082 -0.35809448 -0.41472533
-0.061907746 -0.35802862 -0.41471976
-0.061905429 -0.35796082 -0.41471216
-0.061903093 -0.35789499 -0.41470659
-0.061900873 -0.35782722 -0.41469699
-0.061898753 -0.35775951 -0.41468537
-0.06189663 -0.35769179 -0.41467375
-0.061894391 -0.35762599 -0.41466621
-0.061892074 -0.35755822 -0.41465861
-0.061889544 -0.35749227 -0.41465703
-0.061886918 -0.35742629 -0.41465744
-0.061884794 -0.35735857 -0.41464585
-0.061882675 -0.35729086 -0.41463423
-0.061880335 -0.35722503 -0.41462865
-0.061877828 -0.35715714 -0.41462505
-0.061875492 -0.35709131 -0.41461948
-0.061873272 -0.35702354 -0.41460988
-0.061871227 -0.35695782 -0.41459832
-0.06186891 -0.35689002 -0.41459069
-0.061866477 -0.35682413 -0.41458714
-0.061864257 -0.35675639 -0.41457751
-0.061862137 -0.35668868 -0.41456592
-0.061859898 -0.35662287 -0.41455835
-0.061857581 -0.35655507 -0.41455072
-0.061855264 -0.35648727 -0.41454312
-0.061853219 -0.35642156 -0.41453156
-0.06185139 -0.356354 -0.41451398
-0.061849169 -0.35628623 -0.41450435
-0.061846543 -0.35622025 -0.41450477
-0.06184411 -0.35615435 -0.41450122
-0.061841793 -0.35608655 -0.41449359
-0.06183967 -0.35601884 -0.414482
-0.061837625 -0.35595316 -0.41447043
-0.061835408 -0.35588539 -0.41446084
-0.061833169 -0.35581958 -0.41445327
-0.061830755 -0.35575175 -0.41444767
-0.061828535 -0.35568398 -0.41443804
-0.06182649 -0.35561827 -0.41442648
-0.061824176 -0.35555047 -0.41441888
-0.061821938 -0.35548466 -0.41441131
-0.061193645 -0.3393313 -0.41420183
-0.061157394 -0.33897522 -0.41466692
-0.061159596 -0.33891341 -0.41456953
-0.061159976 -0.3388488 -0.41450804
-0.061158706 -0.33878344 -0.41448051
-0.061155885 -0.33871737 -0.41448492
-0.062098332 -0.36379671 -0.41546398
-0.062096212 -0.363729 -0.41545239
-0.062094305 -0.36365941 -0.41543475
-0.062092163 -0.36359364 -0.41542518
-0.062089846 -0.36352587 -0.41541758
-0.062087819 -0.36345819 -0.41540396
-0.062085699 -0.36339048 -0.41539237
-0.062083285 -0.36332265 -0.41538674
-0.062081046 -0.36325684 -0.4153792
-0.062078923 -0.36318913 -0.41536757
-0.06207661 -0.36312133 -0.41535997
-0.062074389 -0.36305356 -0.41535038
-0.062072363 -0.36298591 -0.41533676
-0.06207063 -0.36291838 -0.41531718
-0.06206882 -0.36284882 -0.41529751
-0.062066484 -0.36278298 -0.41529197
-0.062063858 -0.362717 -0.41529238
-0.062061444 -0.36264917 -0.41528678
-0.062059011 -0.36258328 -0.4152832
-0.062056478 -0.36251736 -0.41528162
-0.062053852 -0.36245137 -0.41528204
-0.062051419 -0.36238548 -0.41527846
-0.062049083 -0.36231965 -0.41527292
-0.062046669 -0.36225179 -0.41526729
-0.062044449 -0.36218405 -0.41525769
-0.062042426 -0.36211637 -0.41524407
-0.062040381 -0.36205065 -0.41523254
-0.06203787 -0.36198276 -0.4152289
-0.062035728 -0.36191702 -0.41521934
-0.062033918 -0.36184749 -0.4151997
-0.062031776 -0.36178172 -0.41519013
-0.062029675 -0.36171207 -0.41517648
-0.062027629 -0.36164635 -0.41516492
-0.062025391 -0.36158055 -0.41515738
-0.06202317 -0.36151278 -0.41514775
-0.06202095 -0.36144504 -0.41513816
-0.06201883 -0.36137733 -0.41512656
-0.062016688 -0.36131155 -0.41511697
-0.062014155 -0.36124563 -0.41511542
-0.062011745 -0.3611778 -0.41510981
-0.062009603 -0.36111203 -0.41510022
-0.062007498 -0.36104238 -0.41508657
-0.06200555 -0.3609767 -0.41507304
-0.062003236 -0.3609089 -0.41506541
-0.062000919 -0.3608411 -0.41505781
-0.061998487 -0.3607752 -0.41505423
-0.061996169 -0.3607074 -0.41504663
-0.061994124 -0.36064169 -0.41503507
-0.061992198 -0.36057407 -0.41501945
-0.061989784 -0.36050624 -0.41501385
-0.061987352 -0.36044034 -0.41501027
-0.061984841 -0.36037245 -0.41500667
-0.061982717 -0.36030474 -0.41499504
-0.061980866 -0.36023912 -0.41497949
-0.061978668 -0.36016941 -0.41496783
-0.061976332 -0.36010358 -0.41496229
-0.061973918 -0.36003572 -0.41495666
-0.061971679 -0.35996991 -0.41494909
-0.06196956 -0.3599022 -0.4149375
-0.061967224 -0.35983637 -0.41493192
-0.061964594 -0.35977039 -0.41493237
-0.061962083 -0.3597025 -0.41492873
-0.061960138 -0.35963684 -0.41491517
-0.061957821 -0.35956904 -0.41490757
-0.061955292 -0.35950309 -0.414906
-0.061952975 -0.35943532 -0.4148984
-0.061950736 -0.35936952 -0.41489083
-0.061948203 -0.35930356 -0.41488925
-0.061945576 -0.35923758 -0.41488966
-0.061943166 -0.35916975 -0.41488406
-0.061940923 -0.35910395 -0.41487649
-0.061938901 -0.35903627 -0.41486287
-0.061936971 -0.35896865 -0.41484728
-0.061934754 -0.3589009 -0.41483766
-0.061932534 -0.35883316 -0.41482806
-0.061930392 -0.35876739 -0.41481853
-0.061928172 -0.35869965 -0.4148089
-0.061926052 -0.35863194 -0.41479731
-0.061924104 -0.35856625 -0.41478375
-0.06192198 -0.35849854 -0.41477212
-0.061919861 -0.35843083 -0.41476053
-0.061917543 -0.35836303 -0.4147529
-0.061915111 -0.35829714 -0.41474932
-0.061912775 -0.35823131 -0.41474378
-0.061910555 -0.35816354 -0.41473418
-0.061908238 -0.35809574 -0.41472656
-0.061905999 -0.35802996 -0.41471899
-0.061903585 -0.3579621 -0.41471338
-0.061901249 -0.35789627 -0.41470781
-0.061899029 -0.3578285 -0.41469821
-0.061896812 -0.35776076 -0.41468859
-0.061894689 -0.35769305 -0.41467699
-0.061892547 -0.35762727 -0.41466743
-0.06189023 -0.35755947 -0.4146598
-0.0618877 -0.35749355 -0.41465825
-0.061885074 -0.35742757 -0.41465867
-0.06188295 -0.35735986 -0.41464704
-0.061880831 -0.35729215 -0.41463545
-0.061878495 -0.35722631 -0.41462988
-0.061875984 -0.35715842 -0.41462627
-0.061873648 -0.35709256 -0.4146207
-0.061871428 -0.35702482 -0.4146111
-0.061869383 -0.3569591 -0.41459954
-0.061867066 -0.3568913 -0.41459191
-0.061864633 -0.35682541 -0.41458836
-0.061862417 -0.35675767 -0.41457874
-0.06186039 -0.35668999 -0.41456515
-0.061858151 -0.35662419 -0.41455758
-0.061855737 -0.35655636 -0.41455197
-0.061853517 -0.35648859 -0.41454235
-0.061851472 -0.35642287 -0.41453078
-0.061849643 -0.35635531 -0.4145132
-0.061847422 -0.35628754 -0.41450357
-0.061844796 -0.35622159 -0.41450402
-0.061842266 -0.35615563 -0.41450244
-0.061839949 -0.35608783 -0.41449481
-0.06183783 -0.35602012 -0.41448322
-0.061835781 -0.35595441 -0.41447166
-0.061833564 -0.35588667 -0.41446206
-0.061831325 -0.35582086 -0.41445449
-0.061828911 -0.355753 -0.41444886
-0.061826691 -0.35568526 -0.41443926
-0.061824646 -0.35561955 -0.4144277
-0.061822332 -0.35555175 -0.4144201
-0.06182009 -0.35548595 -0.41441253
-0.061192278 -0.33933279 -0.41419309
-0.061155539 -0.3389765 -0.41466814
-0.061157838 -0.33891472 -0.41456878
-0.061158217 -0.33885011 -0.41450727
-0.061156753 -0.33878466 -0.41448373
-0.061153933 -0.33871859 -0.41448817
-0.062101789 -0.36379415 -0.41546655
-0.062099665 -0.36372644 -0.41545492
-0.062097758 -0.36365685 -0.41543728
-0.062095616 -0.36359107 -0.41542771
-0.062093206 -0.36352324 -0.41542211
-0.062091179 -0.36345556 -0.41540849
-0.062089156 -0.36338791 -0.4153949
-0.062086724 -0.36332202 -0.41539133
-0.062084407 -0.36325422 -0.4153837
-0.062082283 -0.36318651 -0.4153721
-0.062080067 -0.36311877 -0.41536251
-0.062077846 -0.363051 -0.41535288
-0.062075824 -0.36298335 -0.41533929
-0.062073991 -0.36291575 -0.41532168
-0.062072277 -0.36284626 -0.41530004
-0.062069844 -0.36278036 -0.41529649
-0.062067315 -0.36271444 -0.41529492
-0.062064882 -0.36264855 -0.41529134
-0.062062372 -0.36258066 -0.41528773
-0.062059842 -0.36251473 -0.41528615
-0.062057313 -0.36244881 -0.41528457
-0.06205488 -0.36238292 -0.415281
-0.062052544 -0.36231706 -0.41527545
-0.06205013 -0.36224923 -0.41526982
-0.062047813 -0.36218143 -0.41526222
-0.062045965 -0.3621158 -0.41524667
-0.062043745 -0.36204806 -0.41523704
-0.062041234 -0.36198017 -0.41523343
-0.062039189 -0.36191446 -0.41522187
-0.062037282 -0.36184487 -0.41520423
-0.062035237 -0.36177915 -0.41519266
-0.062033214 -0.3617115 -0.41517907
-0.06203109 -0.36164379 -0.41516745
-0.062028851 -0.36157799 -0.41515988
-0.062026635 -0.36151022 -0.41515028
-0.062024318 -0.36144242 -0.41514266
-0.062022194 -0.36137471 -0.41513106
-0.062020052 -0.36130896 -0.4151215
-0.06201762 -0.36124307 -0.41511792
-0.062015209 -0.36117521 -0.41511232
-0.06201297 -0.36110944 -0.41510475
-0.062011041 -0.36104178 -0.41508916
-0.062009014 -0.36097413 -0.41507554
-0.062006701 -0.36090633 -0.41506794
-0.062004287 -0.3608385 -0.41506231
-0.062001854 -0.36077261 -0.41505873
-0.061999537 -0.36070481 -0.41505113
-0.061997592 -0.36063913 -0.41503757
-0.061995663 -0.3605715 -0.41502199
-0.061993249 -0.36050367 -0.41501635
-0.061990719 -0.36043775 -0.4150148
-0.061988309 -0.36036989 -0.4150092
-0.061986186 -0.36030218 -0.41499758
-0.061984237 -0.36023653 -0.41498402
-0.061982118 -0.36016881 -0.41497242
-0.0619798 -0.36010101 -0.4149648
-0.061977465 -0.36003515 -0.41495922
-0.061975148 -0.35996735 -0.41495162
-0.061972931 -0.35989961 -0.41494203
-0.061970592 -0.35983375 -0.41493645
-0.061968062 -0.35976782 -0.41493487
-0.061965555 -0.35969993 -0.41493124
-0.06196351 -0.35963422 -0.4149197
-0.061961289 -0.35956648 -0.41491008
-0.06195876 -0.35950053 -0.41490853
-0.061956443 -0.35943273 -0.4149009
-0.061954204 -0.35936695 -0.41489333
-0.061951578 -0.35930097 -0.41489375
-0.061949048 -0.35923502 -0.4148922
-0.061946537 -0.35916713 -0.41488856
-0.061944395 -0.35910138 -0.41487902
-0.061942372 -0.3590337 -0.4148654
-0.061940346 -0.35896605 -0.41485181
-0.061938226 -0.35889834 -0.41484019
-0.061936084 -0.35883257 -0.41483063
-0.061933767 -0.35876477 -0.41482303
-0.061931647 -0.35869706 -0.4148114
-0.061929524 -0.35862938 -0.41479981
-0.061927479 -0.35856366 -0.41478825
-0.061925355 -0.35849595 -0.41477665
-0.061923333 -0.35842827 -0.41476303
-0.061920997 -0.35836244 -0.41475746
-0.061918583 -0.35829458 -0.41475186
-0.061916247 -0.35822874 -0.41474628
-0.061914027 -0.35816097 -0.41473669
-0.061911713 -0.35809317 -0.41472906
-0.061909378 -0.35802734 -0.41472352
-0.061906964 -0.35795951 -0.41471788
-0.061904725 -0.35789371 -0.41471031
-0.061902508 -0.35782593 -0.41470072
-0.061900288 -0.35775819 -0.41469109
-0.061898164 -0.35769048 -0.4146795
-0.061896022 -0.35762471 -0.41466993
-0.061893709 -0.35755691 -0.41466233
-0.06189118 -0.35749099 -0.41466075
-0.061888549 -0.357425 -0.41466117
-0.061886333 -0.35735726 -0.41465157
-0.06188421 -0.35728955 -0.41463995
-0.061881971 -0.35722375 -0.41463238
-0.061879463 -0.35715586 -0.41462877
-0.061877027 -0.35708997 -0.4146252
-0.061874811 -0.3570222 -0.4146156
-0.061872862 -0.35695654 -0.41460204
-0.061870545 -0.35688874 -0.41459441
-0.061868113 -0.35682285 -0.41459087
-0.061865896 -0.35675511 -0.41458124
-0.061863773 -0.3566874 -0.41456965
-0.061861534 -0.35662159 -0.41456208
-0.061859217 -0.35655379 -0.41455448
-0.061856903 -0.35648599 -0.41454685
-0.061854858 -0.35642028 -0.41453528
-0.061853025 -0.35635269 -0.4145177
-0.061850809 -0.35628495 -0.4145081
-0.061848182 -0.35621896 -0.41450852
-0.061845746 -0.35615307 -0.41450495
-0.061843432 -0.35608527 -0.41449732
-0.061841309 -0.35601756 -0.41448572
-0.061839264 -0.35595185 -0.41447416
-0.061837047 -0.3558841 -0.41446456
-0.061834808 -0.3558183 -0.41445699
-0.061832394 -0.35575044 -0.41445136
-0.061830174 -0.3556827 -0.41444176
-0.061828129 -0.35561699 -0.4144302
-0.061825816 -0.35554919 -0.4144226
-0.061823577 -0.35548338 -0.41441503
-0.061195336 -0.33932999 -0.41420552
-0.061159089 -0.33897394 -0.41467059
-0.061161388 -0.33891216 -0.41457123
-0.061161671 -0.33884749 -0.41451171
-0.061160304 -0.3387821 -0.41448617
-0.061157484 -0.33871603 -0.41449061
-0.062103294 -0.36379665 -0.41546339
-0.062101174 -0.36372894 -0.41545179
-0.062099267 -0.36365938 -0.41543415
-0.062097125 -0.36359361 -0.41542459
-0.062094711 -0.36352578 -0.41541895
-0.062092684 -0.3634581 -0.41540536
-0.062090661 -0.36339045 -0.41539174
-0.062088229 -0.36332455 -0.4153882
-0.062085912 -0.36325675 -0.41538057
-0.062083788 -0.36318904 -0.41536897
-0.062081572 -0.3631213 -0.41535938
-0.062079351 -0.36305353 -0.41534975
-0.062077232 -0.36298582 -0.41533816
-0.062075496 -0.36291829 -0.41531855
-0.062073782 -0.36284879 -0.41529691
-0.062071349 -0.3627829 -0.41529334
-0.06206882 -0.36271697 -0.41529179
-0.062066406 -0.36264914 -0.41528615
-0.062063973 -0.36258325 -0.41528258
-0.062061347 -0.36251727 -0.41528302
-0.062058814 -0.36245134 -0.41528144
-0.062056381 -0.36238545 -0.41527787
-0.062054045 -0.36231959 -0.4152723
-0.062051632 -0.36225176 -0.41526669
-0.062049318 -0.36218396 -0.41525906
-0.062047467 -0.36211833 -0.41524351
-0.062045246 -0.36205059 -0.41523391
-0.062042832 -0.36198273 -0.41522831
-0.06204069 -0.36191699 -0.41521874
-0.062038783 -0.3618474 -0.4152011
-0.062036738 -0.36178169 -0.41518953
-0.062034715 -0.36171404 -0.41517594
-0.062032592 -0.36164632 -0.41516432
-0.062030278 -0.36157852 -0.41515672
-0.062028132 -0.36151275 -0.41514716
-0.062025819 -0.36144495 -0.41513956
-0.062023696 -0.36137724 -0.41512793
-0.062021554 -0.3613115 -0.41511837
-0.062019121 -0.3612456 -0.41511482
-0.062016707 -0.36117774 -0.41510919
-0.062014468 -0.36111197 -0.41510162
-0.062012542 -0.36104432 -0.41508603
-0.062010515 -0.36097667 -0.41507241
-0.062008198 -0.36090887 -0.41506481
-0.062005885 -0.36084107 -0.41505718
-0.062003452 -0.36077517 -0.41505364
-0.062001038 -0.36070734 -0.415048
-0.06199909 -0.36064166 -0.41503447
-0.06199716 -0.36057404 -0.41501886
-0.06199475 -0.36050621 -0.41501325
-0.061992221 -0.36044025 -0.41501167
-0.061989807 -0.36037242 -0.41500604
-0.061987683 -0.36030471 -0.41499445
-0.061985832 -0.36023909 -0.41497889
-0.061983634 -0.36016938 -0.41496724
-0.061981298 -0.36010355 -0.41496167
-0.061978884 -0.36003569 -0.41495606
-0.061976645 -0.35996988 -0.41494849
-0.061974429 -0.35990214 -0.4149389
-0.061972089 -0.35983628 -0.41493332
-0.06196956 -0.35977036 -0.41493174
-0.061967053 -0.35970247 -0.41492814
-0.061965004 -0.35963675 -0.41491657
-0.061962787 -0.35956901 -0.41490698
-0.061960354 -0.35950312 -0.4149034
-0.06195794 -0.35943526 -0.4148978
-0.061955702 -0.35936946 -0.41489023
-0.061953075 -0.3593035 -0.41489065
-0.061950546 -0.35923755 -0.41488907
-0.061948132 -0.35916972 -0.41488343
-0.061945893 -0.35910392 -0.41487589
-0.061943866 -0.35903624 -0.41486228
-0.061941843 -0.35896859 -0.41484869
-0.06193972 -0.35890087 -0.41483706
-0.061937578 -0.3588351 -0.41482753
-0.061935261 -0.3587673 -0.4148199
-0.061933141 -0.35869959 -0.4148083
-0.061931018 -0.35863188 -0.41479671
-0.061929069 -0.35856622 -0.41478312
-0.06192695 -0.35849851 -0.41477153
-0.061924826 -0.3584308 -0.41475993
-0.061922509 -0.358363 -0.4147523
-0.061920077 -0.35829711 -0.41474873
-0.061917741 -0.35823128 -0.41474319
-0.061915521 -0.35816351 -0.41473356
-0.061913207 -0.35809571 -0.41472596
-0.061910968 -0.3580299 -0.41471839
-0.061908554 -0.35796207 -0.41471279
-0.061906219 -0.35789624 -0.41470721
-0.061903998 -0.35782847 -0.41469759
-0.061901879 -0.35776076 -0.41468599
-0.061899755 -0.35769305 -0.4146744
-0.061897516 -0.35762724 -0.41466683
-0.061895199 -0.35755944 -0.4146592
-0.06189267 -0.35749352 -0.41465765
-0.061890043 -0.35742754 -0.41465807
-0.061887823 -0.3573598 -0.41464844
-0.0618858 -0.35729212 -0.41463485
-0.061883464 -0.35722628 -0.41462928
-0.061880954 -0.35715839 -0.41462567
-0.061878618 -0.35709253 -0.4146201
-0.061876398 -0.35702479 -0.41461051
-0.061874274 -0.35695708 -0.41459888
-0.061872035 -0.35689127 -0.41459131
-0.061869603 -0.35682538 -0.41458774
-0.061867386 -0.35675764 -0.41457814
-0.06186536 -0.35668996 -0.41456455
-0.061863024 -0.35662413 -0.41455898
-0.061860707 -0.35655633 -0.41455138
-0.061858393 -0.35648853 -0.41454375
-0.061856348 -0.35642281 -0.41453218
-0.061854515 -0.35635522 -0.4145146
-0.061852396 -0.35628751 -0.41450298
-0.061849669 -0.3562215 -0.41450542
-0.061847236 -0.3561556 -0.41450185
-0.061844919 -0.3560878 -0.41449422
-0.061842799 -0.35602009 -0.41448262
-0.061840754 -0.35595438 -0.41447106
-0.061838534 -0.35588664 -0.41446146
-0.061836295 -0.35582083 -0.41445389
-0.061833881 -0.35575297 -0.41444826
-0.061831664 -0.35568523 -0.41443866
-0.061829619 -0.35561952 -0.4144271
-0.061827302 -0.35555172 -0.4144195
-0.061825063 -0.35548592 -0.41441193
-0.061196692 -0.33933249 -0.41420448
-0.061160635 -0.33897653 -0.41466558
-0.061162934 -0.33891472 -0.41456619
-0.061163217 -0.33885008 -0.4145067
-0.061161947 -0.33878472 -0.41447917
-0.06115903 -0.33871859 -0.41448557
-0.062099937 -0.36379635 -0.41546512
-0.062097818 -0.36372864 -0.41545349
-0.062095888 -0.36366102 -0.41543791
-0.062093768 -0.36359331 -0.41542628
-0.062091451 -0.36352551 -0.41541868
-0.062089428 -0.36345786 -0.41540509
-0.062087305 -0.36339015 -0.41539347
-0.062084891 -0.36332229 -0.41538787
-0.062082652 -0.36325648 -0.4153803
-0.062080435 -0.36318874 -0.41537067
-0.062078215 -0.36312097 -0.41536108
-0.062075995 -0.36305323 -0.41535148
-0.062073972 -0.36298555 -0.41533786
-0.062072236 -0.36291802 -0.41531825
-0.062070426 -0.36284849 -0.41529864
-0.06206809 -0.36278266 -0.41529304
-0.062065464 -0.36271667 -0.41529348
-0.06206305 -0.36264884 -0.41528785
-0.062060617 -0.36258295 -0.41528431
-0.062057991 -0.36251697 -0.41528472
-0.062055461 -0.36245102 -0.41528314
-0.062053025 -0.36238515 -0.41527957
-0.062050689 -0.36231929 -0.41527402
-0.062048279 -0.36225146 -0.41526839
-0.062046058 -0.36218369 -0.4152588
-0.06204411 -0.36211804 -0.41524523
-0.06204189 -0.36205027 -0.41523564
-0.062039383 -0.36198241 -0.415232
-0.062037338 -0.36191666 -0.41522044
-0.06203543 -0.3618471 -0.4152028
-0.062033385 -0.36178139 -0.41519123
-0.062031358 -0.36171371 -0.41517764
-0.062029138 -0.36164597 -0.41516805
-0.062026899 -0.36158016 -0.41516048
-0.06202478 -0.36151245 -0.41514885
-0.062022559 -0.36144471 -0.41513926
-0.062020436 -0.361377 -0.41512764
-0.062018201 -0.3613112 -0.41512007
-0.062015764 -0.3612453 -0.41511652
-0.062013354 -0.36117744 -0.41511089
-0.062011212 -0.3611117 -0.41510135
-0.062009186 -0.36104402 -0.41508773
-0.062007159 -0.36097637 -0.41507414
-0.062004846 -0.36090857 -0.41506651
-0.062002432 -0.36084071 -0.41506091
-0.062000096 -0.36077487 -0.41505533
-0.061997682 -0.36070704 -0.41504973
-0.061995734 -0.36064136 -0.41503617
-0.061993808 -0.36057374 -0.41502056
-0.061991394 -0.36050591 -0.41501495
-0.061988961 -0.36044002 -0.41501138
-0.06198645 -0.36037213 -0.41500777
-0.06198433 -0.36030442 -0.41499615
-0.061982479 -0.36023879 -0.41498059
-0.061980281 -0.36016908 -0.41496894
-0.061977942 -0.36010322 -0.41496336
-0.061975531 -0.36003539 -0.41495776
-0.061973292 -0.35996959 -0.41495019
-0.061971169 -0.35990188 -0.4149386
-0.061968736 -0.35983598 -0.41493502
-0.061966207 -0.35977006 -0.41493344
-0.061963696 -0.35970217 -0.41492984
-0.061961651 -0.35963646 -0.41491827
-0.061959334 -0.35956866 -0.41491067
-0.061956901 -0.35950276 -0.4149071
-0.061954588 -0.35943496 -0.41489947
-0.061952345 -0.35936916 -0.41489193
-0.061949719 -0.35930318 -0.41489235
-0.061947189 -0.35923725 -0.41489077
-0.061944775 -0.35916942 -0.41488516
-0.061942536 -0.35910362 -0.41487759
-0.061940514 -0.35903594 -0.414864
-0.061938487 -0.35896829 -0.41485038
-0.061936367 -0.35890058 -0.41483879
-0.061934147 -0.35883281 -0.41482916
-0.061931908 -0.358767 -0.41482159
-0.061929785 -0.35869929 -0.41481
-0.06192774 -0.35863358 -0.41479844
-0.061925717 -0.35856593 -0.41478485
-0.061923593 -0.35849822 -0.41477323
-0.06192147 -0.3584305 -0.41476163
-0.061919156 -0.3583627 -0.41475403
-0.061916724 -0.35829681 -0.41475046
-0.061914388 -0.35823098 -0.41474488
-0.061912168 -0.35816321 -0.41473526
-0.061909948 -0.35809547 -0.41472566
-0.061907612 -0.3580296 -0.41472009
-0.061905198 -0.35796177 -0.41471449
-0.061902862 -0.35789591 -0.41470891
-0.061900645 -0.35782817 -0.41469932
-0.061898522 -0.35776046 -0.41468769
-0.061896402 -0.35769275 -0.41467607
-0.061894163 -0.35762694 -0.41466853
-0.061891846 -0.35755914 -0.41466093
-0.061889317 -0.35749322 -0.41465935
-0.061886687 -0.35742724 -0.41465977
-0.06188447 -0.35735947 -0.41465014
-0.061882444 -0.35729182 -0.41463655
-0.061880108 -0.35722598 -0.41463098
-0.061877597 -0.35715809 -0.41462737
-0.061875261 -0.35709223 -0.4146218
-0.061873045 -0.35702449 -0.41461217
-0.061871 -0.35695878 -0.41460064
-0.061868683 -0.35689098 -0.41459301
-0.061866269 -0.35682312 -0.41458741
-0.06186403 -0.35675734 -0.41457984
-0.06186191 -0.35668963 -0.41456825
-0.061859667 -0.35662383 -0.41456068
-0.061857354 -0.35655603 -0.41455305
-0.061855134 -0.35648826 -0.41454345
-0.061853088 -0.35642254 -0.41453189
-0.061851162 -0.35635492 -0.41451627
-0.061849039 -0.35628721 -0.41450468
-0.061846316 -0.3562212 -0.41450709
-0.061843883 -0.35615531 -0.41450354
-0.061841566 -0.35608751 -0.41449592
-0.061839346 -0.35601977 -0.41448632
-0.061837398 -0.35595408 -0.41447276
-0.061835181 -0.35588634 -0.41446316
-0.061832942 -0.35582054 -0.41445559
-0.061830528 -0.35575268 -0.41444999
-0.061828308 -0.35568494 -0.41444036
-0.061826263 -0.35561922 -0.4144288
-0.061823949 -0.35555142 -0.4144212
-0.06182171 -0.35548562 -0.41441363
-0.061193727 -0.33933237 -0.41419816
-0.061159424 -0.33904198 -0.41467679
-0.061157379 -0.33897626 -0.41466522
-0.061159872 -0.33891457 -0.41456187
-0.061159961 -0.33884981 -0.41450638
-0.061158497 -0.33878437 -0.41448283
-0.061155774 -0.33871835 -0.41448525
-0.062097747 -0.36379576 -0.41546708
-0.062095627 -0.36372805 -0.41545549
-0.062093697 -0.36366042 -0.4154399
-0.062091574 -0.36359271 -0.41542828
-0.062089164 -0.36352488 -0.41542268
-0.062087137 -0.3634572 -0.41540906
-0.062085018 -0.36338949 -0.41539747
-0.062082678 -0.36332366 -0.41539189
-0.062080268 -0.36325583 -0.41538626
-0.062078241 -0.36318815 -0.41537267
-0.062076025 -0.36312041 -0.41536307
-0.062073804 -0.36305264 -0.41535345
-0.062071681 -0.36298493 -0.41534185
-0.062069949 -0.36291739 -0.41532224
-0.062068138 -0.36284786 -0.4153026
-0.062065803 -0.362782 -0.41529703
-0.062063273 -0.36271608 -0.41529548
-0.06206084 -0.36265019 -0.41529191
-0.06205833 -0.3625823 -0.41528827
-0.0620558 -0.36251637 -0.41528672
-0.062053267 -0.36245045 -0.41528514
-0.062050834 -0.36238456 -0.41528156
-0.062048402 -0.36231866 -0.41527799
-0.062046085 -0.36225086 -0.41527039
-0.062043846 -0.36218506 -0.41526282
-0.062041823 -0.36211741 -0.41524923
-0.062039699 -0.3620497 -0.41523761
-0.062037192 -0.36198181 -0.415234
-0.06203505 -0.36191604 -0.41522443
-0.06203324 -0.36184651 -0.41520479
-0.062031094 -0.36178076 -0.41519523
-0.062029168 -0.36171314 -0.41517961
-0.062026948 -0.36164537 -0.41517001
-0.062024806 -0.36157963 -0.41516045
-0.062022492 -0.36151183 -0.41515285
-0.062020272 -0.36144406 -0.41514325
-0.062018149 -0.36137635 -0.41513163
-0.062016007 -0.3613106 -0.41512206
-0.062013574 -0.36124471 -0.41511852
-0.062011164 -0.36117685 -0.41511288
-0.062008921 -0.36111107 -0.41510531
-0.062006898 -0.36104339 -0.41509172
-0.062004872 -0.36097574 -0.4150781
-0.062002558 -0.36090791 -0.4150705
-0.062000319 -0.36084214 -0.41506293
-0.061997905 -0.36077428 -0.4150573
-0.061995491 -0.36070645 -0.4150517
-0.061993543 -0.36064076 -0.41503814
-0.06199152 -0.36057311 -0.41502455
-0.061989203 -0.36050531 -0.41501692
-0.061986674 -0.36043936 -0.41501534
-0.06198426 -0.36037153 -0.41500974
-0.06198214 -0.36030382 -0.41499814
-0.061980192 -0.36023816 -0.41498458
-0.061978068 -0.36017045 -0.41497296
-0.061975755 -0.36010265 -0.41496536
-0.061973415 -0.36003679 -0.41495979
-0.061971102 -0.35996899 -0.41495219
-0.061968863 -0.35990319 -0.41494462
-0.061966546 -0.35983539 -0.41493702
-0.06196392 -0.3597694 -0.41493744
-0.061961506 -0.35970157 -0.41493183
-0.06195946 -0.35963586 -0.41492027
-0.061957143 -0.35956806 -0.41491264
-0.061954614 -0.35950214 -0.41491109
-0.061952375 -0.35943633 -0.41490352
-0.061950058 -0.35936853 -0.41489589
-0.061947431 -0.35930255 -0.41489631
-0.061944902 -0.35923663 -0.41489476
-0.061942585 -0.35916883 -0.41488713
-0.061940346 -0.35910302 -0.41487956
-0.061938226 -0.35903531 -0.41486797
-0.061936297 -0.35896769 -0.41485238
-0.061934177 -0.35889998 -0.41484076
-0.061932035 -0.35883421 -0.41483119
-0.061929718 -0.35876644 -0.41482359
-0.061927497 -0.35869867 -0.414814
-0.061925549 -0.35863301 -0.41480041
-0.061923429 -0.35856527 -0.41478881
-0.061921306 -0.35849756 -0.41477722
-0.061919186 -0.35842988 -0.4147656
-0.061916947 -0.35836408 -0.41475803
-0.061914437 -0.35829619 -0.41475442
-0.061912198 -0.35823038 -0.41474685
-0.061909977 -0.35816261 -0.41473725
-0.061907664 -0.35809481 -0.41472962
-0.061905324 -0.35802898 -0.41472408
-0.061902914 -0.35796115 -0.41471845
-0.061900578 -0.35789528 -0.41471291
-0.061898358 -0.35782754 -0.41470328
-0.061896235 -0.35775983 -0.41469169
-0.061894212 -0.35769215 -0.41467807
-0.061891973 -0.35762635 -0.4146705
-0.061889656 -0.35755855 -0.4146629
-0.061887126 -0.35749263 -0.41466132
-0.0618845 -0.35742664 -0.41466174
-0.06188228 -0.3573589 -0.41465214
-0.061880156 -0.35729119 -0.41464052
-0.061877821 -0.35722533 -0.41463494
-0.061875314 -0.35715744 -0.41463134
-0.061872978 -0.35709161 -0.41462576
-0.061870854 -0.35702389 -0.41461417
-0.061868809 -0.35695818 -0.41460261
-0.061866395 -0.35689035 -0.414597
-0.061864059 -0.35682449 -0.41459143
-0.061861746 -0.35675669 -0.4145838
-0.061859719 -0.35668904 -0.41457021
-0.061857481 -0.35662323 -0.41456264
-0.061855067 -0.35655537 -0.41455704
-0.06185285 -0.35648763 -0.41454741
-0.061850805 -0.35642192 -0.41453588
-0.061848972 -0.35635433 -0.41451827
-0.061846752 -0.35628659 -0.41450867
-0.061844125 -0.3562206 -0.41450909
-0.061841596 -0.35615468 -0.41450751
-0.061839279 -0.35608688 -0.41449991
-0.061837159 -0.35601917 -0.41448829
-0.061835114 -0.35595345 -0.41447672
-0.061832894 -0.35588568 -0.41446713
-0.061830752 -0.35581994 -0.41445756
-0.061828338 -0.35575208 -0.41445196
-0.061826121 -0.35568434 -0.41444233
-0.061824076 -0.35561863 -0.4144308
-0.061821759 -0.35555083 -0.41442317
-0.061819423 -0.35548499 -0.41441759
-0.061190862 -0.33933145 -0.4142141
-0.061155289 -0.33897573 -0.41466519
-0.061157878 -0.33891407 -0.41455981
-0.061157871 -0.33884928 -0.41450632
-0.061156504 -0.33878386 -0.41448078
-0.061153587 -0.33871776 -0.41448718
-0.062095929 -0.3637946 -0.41546616
-0.062093806 -0.36372688 -0.41545457
-0.062091898 -0.3636573 -0.41543692
-0.062089756 -0.36359155 -0.41542736
-0.062087439 -0.36352375 -0.41541976
-0.062085416 -0.36345607 -0.41540614
-0.062083293 -0.36338836 -0.41539454
-0.06208086 -0.36332247 -0.41539097
-0.062078547 -0.36325467 -0.41538334
-0.062076423 -0.36318696 -0.41537175
-0.062074203 -0.36311921 -0.41536212
-0.062071986 -0.36305147 -0.41535252
-0.062069863 -0.36298376 -0.4153409
-0.062068131 -0.3629162 -0.41532132
-0.062066417 -0.36284673 -0.41529968
-0.062064081 -0.36278087 -0.41529411
-0.062061451 -0.36271492 -0.41529453
-0.062059041 -0.36264706 -0.41528893
-0.062056608 -0.36258116 -0.41528535
-0.062053978 -0.36251518 -0.41528577
-0.062051546 -0.36244929 -0.41528219
-0.062049016 -0.36238337 -0.41528064
-0.062046681 -0.36231753 -0.41527507
-0.062044267 -0.36224967 -0.41526946
-0.062041953 -0.36218187 -0.41526183
-0.062040102 -0.36211625 -0.41524628
-0.062037978 -0.36204854 -0.41523468
-0.062035471 -0.36198068 -0.41523108
-0.062033325 -0.3619149 -0.41522151
-0.062031418 -0.36184531 -0.41520387
-0.062029276 -0.36177957 -0.4151943
-0.06202735 -0.36171195 -0.41517872
-0.06202513 -0.36164418 -0.41516909
-0.062022891 -0.3615784 -0.41516152
-0.062020674 -0.36151063 -0.41515192
-0.062018454 -0.36144289 -0.4151423
-0.062016331 -0.36137518 -0.4151307
-0.062014189 -0.36130941 -0.41512114
-0.062011756 -0.36124352 -0.41511756
-0.062009346 -0.36117569 -0.41511196
-0.062007204 -0.36110991 -0.41510239
-0.062005177 -0.36104226 -0.41508877
-0.062003054 -0.36097455 -0.41507718
-0.062000837 -0.36090678 -0.41506758
-0.061998423 -0.36083895 -0.41506195
-0.061996087 -0.36077312 -0.41505638
-0.061993673 -0.36070526 -0.41505077
-0.061991729 -0.3606396 -0.41503721
-0.061989799 -0.36057198 -0.4150216
-0.061987385 -0.36050412 -0.415016
-0.061984856 -0.3604382 -0.41501442
-0.061982442 -0.36037034 -0.41500881
-0.061980322 -0.36030263 -0.41499722
-0.061978471 -0.360237 -0.41498166
-0.061976273 -0.36016729 -0.41496998
-0.061973937 -0.36010146 -0.41496444
-0.061971601 -0.36003563 -0.41495886
-0.061969284 -0.35996783 -0.41495126
-0.061967142 -0.35990205 -0.4149417
-0.061964728 -0.35983422 -0.41493607
-0.061962102 -0.35976824 -0.41493648
-0.061959591 -0.35970035 -0.41493288
-0.061957642 -0.3596347 -0.41491932
-0.061955329 -0.3595669 -0.41491172
-0.061952896 -0.359501 -0.41490814
-0.061950557 -0.35943514 -0.41490257
-0.06194834 -0.3593674 -0.41489297
-0.061945714 -0.35930142 -0.41489339
-0.061943181 -0.3592355 -0.41489181
-0.061940771 -0.35916764 -0.41488621
-0.061938532 -0.35910183 -0.41487864
-0.061936505 -0.35903418 -0.41486502
-0.061934482 -0.3589665 -0.41485143
-0.061932359 -0.35889879 -0.41483983
-0.061930139 -0.35883105 -0.41483021
-0.0619279 -0.35876524 -0.41482264
-0.06192578 -0.35869753 -0.41481104
-0.061923657 -0.35862982 -0.41479945
-0.061921611 -0.35856411 -0.41478789
-0.061919492 -0.3584964 -0.41477627
-0.061917368 -0.35842869 -0.41476467
-0.061915129 -0.35836288 -0.4147571
-0.061912715 -0.35829505 -0.41475147
-0.06191038 -0.35822919 -0.41474593
-0.061908163 -0.35816145 -0.41473633
-0.061905943 -0.35809368 -0.4147267
-0.061903607 -0.35802785 -0.41472113
-0.061901193 -0.35795999 -0.41471553
-0.061898857 -0.35789415 -0.41470996
-0.061896637 -0.35782641 -0.41470033
-0.061894421 -0.35775864 -0.41469073
-0.061892394 -0.35769099 -0.41467714
-0.061890155 -0.35762519 -0.41466957
-0.061887842 -0.35755739 -0.41466194
-0.061885308 -0.35749143 -0.41466039
-0.061882682 -0.35742548 -0.41466081
-0.061880466 -0.35735771 -0.41465119
-0.061878342 -0.35729 -0.41463959
-0.061876103 -0.3572242 -0.41463202
-0.061873592 -0.35715631 -0.41462842
-0.06187116 -0.35709041 -0.41462484
-0.06186904 -0.3570227 -0.41461325
-0.061866991 -0.35695699 -0.41460168
-0.061864678 -0.35688919 -0.41459405
-0.061862245 -0.35682333 -0.41459048
-0.061860025 -0.35675555 -0.41458088
-0.061857905 -0.35668784 -0.41456926
-0.061855666 -0.35662204 -0.41456172
