# .PCD v0.7 - Point Cloud Data file format
VERSION 0.7
FIELDS x y z
SIZE 4 4 4
TYPE F F F
COUNT 1 1 1
WIDTH 1340
HEIGHT 1
VIEWPOINT 0 0 0 1 0 0 0
POINTS 1340
DATA ascii
-0.095569581 0.16883135 -0.23789841
-0.095566288 0.16890745 -0.23790458
-0.095562793 0.16898364 -0.23791477
-0.095559493 0.16905974 -0.23792094
-0.09555611 0.16913784 -0.23792708
-0.095553003 0.16921385 -0.23792927
-0.095550388 0.16928963 -0.23792146
-0.095547594 0.16936746 -0.23791562
-0.095544778 0.16944334 -0.23791182
-0.095541671 0.16951935 -0.237914
-0.095538951 0.1695952 -0.2379082
-0.095536523 0.16967089 -0.23789641
-0.095533825 0.16974868 -0.23788856
-0.095530622 0.16982473 -0.23789275
-0.095527232 0.16990088 -0.23790091
-0.095524222 0.16997685 -0.23790112
-0.095521405 0.17005272 -0.23789731
-0.095518515 0.1701306 -0.23789346
-0.095515698 0.17020649 -0.23788965
-0.095512882 0.17028236 -0.23788585
-0.095510356 0.17035811 -0.23787606
-0.095507465 0.17043598 -0.2378722
-0.095504165 0.17051208 -0.23787838
-0.095501155 0.17058805 -0.23787856
-0.095498152 0.17066401 -0.23787875
-0.095495164 0.17074193 -0.23787689
-0.095492542 0.17081773 -0.2378691
-0.095489919 0.17089352 -0.23786131
-0.095487297 0.17096931 -0.2378535
-0.09548448 0.17104518 -0.2378497
-0.095481396 0.17112315 -0.23784983
-0.095478386 0.17119911 -0.23785004
-0.095475011 0.17127721 -0.23785616
-0.095471613 0.17135336 -0.23786435
-0.095469087 0.1714291 -0.23785454
-0.095466666 0.17150481 -0.23784275
-0.095463559 0.17158082 -0.23784494
-0.095460474 0.17165878 -0.23784509
-0.095457755 0.17173462 -0.23783928
-0.095454842 0.17181054 -0.23783746
-0.095451929 0.17188646 -0.23783568
-0.095449232 0.17196426 -0.23782782
-0.095446706 0.17204 -0.23781803
-0.0954438 0.17211592 -0.23781621
-0.095440209 0.17219216 -0.23782839
-0.095437117 0.17227012 -0.23782852
-0.095434695 0.17234582 -0.23781674
-0.095431976 0.17242165 -0.23781094
-0.095428966 0.17249762 -0.23781112
-0.095425591 0.17257571 -0.23781726
-0.09542229 0.17265181 -0.23782343
-0.095419377 0.17272773 -0.23782164
-0.095416777 0.17280549 -0.23781179
-0.095414154 0.17288128 -0.237804
-0.095411144 0.17295724 -0.23780417
-0.095408335 0.17303312 -0.23780037
-0.095405519 0.17310899 -0.23779657
-0.095402725 0.17318682 -0.23779072
-0.095399715 0.17326279 -0.23779091
-0.095396511 0.17333885 -0.2377951
-0.095393524 0.17341678 -0.23779324
-0.095390901 0.17349257 -0.23778544
-0.095388182 0.1735684 -0.23777965
-0.095385462 0.17364423 -0.23777384
-0.095382459 0.1737202 -0.23777403
-0.095379174 0.17379825 -0.23777816
-0.09537597 0.1738743 -0.23778236
-0.095372982 0.17395222 -0.2377805
-0.095370173 0.1740281 -0.2377767
-0.09536726 0.17410403 -0.23777488
-0.095364444 0.17417991 -0.23777108
-0.095362015 0.17425561 -0.23775929
-0.095359318 0.17433339 -0.23775144
-0.095356114 0.17440945 -0.23775563
-0.095353007 0.17448546 -0.2377578
-0.09535002 0.17456338 -0.23775595
-0.095346913 0.17463939 -0.23775814
-0.095344096 0.17471528 -0.23775434
-0.095341675 0.17479098 -0.23774254
-0.095338859 0.17486686 -0.23773874
-0.095335677 0.17494486 -0.23774087
-0.095332667 0.17502083 -0.23774107
-0.095329583 0.17509879 -0.2377412
-0.095326863 0.17517462 -0.23773541
-0.095324047 0.17525052 -0.23773161
-0.095321134 0.17532644 -0.23772979
-0.095318422 0.17540227 -0.23772399
-0.095315233 0.17548028 -0.23772612
-0.095312133 0.17555629 -0.23772833
-0.095309317 0.17563216 -0.23772451
-0.095306426 0.17571004 -0.23772067
-0.095303707 0.17578588 -0.23771486
-0.095300891 0.17586176 -0.23771106
-0.095298074 0.17593764 -0.23770726
-0.095295355 0.17601347 -0.23770145
-0.09529227 0.17609143 -0.23770159
-0.095288873 0.17616758 -0.23770976
-0.095285885 0.1762455 -0.23770791
-0.095283069 0.17632137 -0.23770411
-0.095280156 0.17639729 -0.23770231
-0.095277362 0.17647514 -0.23769645
-0.09527465 0.17655097 -0.23769066
-0.095272124 0.17662671 -0.23768085
-0.095269404 0.17670254 -0.23767506
-0.095266394 0.17677851 -0.23767525
-0.095263503 0.1768564 -0.23767139
-0.09526059 0.17693232 -0.23766959
-0.095257118 0.17701045 -0.23767772
-0.095254011 0.17708646 -0.2376799
-0.095251195 0.17716235 -0.2376761
-0.095248207 0.17724027 -0.23767424
-0.095245294 0.17731619 -0.23767243
-0.095242485 0.17739207 -0.23766863
-0.095239595 0.17746994 -0.23766479
-0.095236287 0.17754604 -0.23767096
-0.095232815 0.17762418 -0.23767909
-0.095228761 0.17770258 -0.23769921
-0.095223173 0.17778364 -0.23774922
-0.09521386 0.17787227 -0.23787101
-0.095203578 0.17796133 -0.23801276
-0.096231937 0.1513661 -0.23844758
-0.096205227 0.15205748 -0.23843512
-0.096144721 0.15359266 -0.23843254
-0.09614253 0.15367219 -0.23841268
-0.096140802 0.15374954 -0.23838484
-0.096136883 0.15390642 -0.23833716
-0.096135959 0.15398537 -0.23829132
-0.096126825 0.15405428 -0.23842555
-0.096124016 0.15413016 -0.23842174
-0.096123479 0.15429336 -0.23829797
-0.096120372 0.15436937 -0.23830016
-0.095847376 0.16141742 -0.23818833
-0.095844656 0.16149326 -0.23818251
-0.095841765 0.16157113 -0.23817867
-0.09583886 0.16164705 -0.23817685
-0.095835559 0.16172315 -0.23818304
-0.095832549 0.16179912 -0.23818323
-0.095830046 0.16187683 -0.23817138
-0.095827423 0.16195261 -0.23816359
-0.095824026 0.16202876 -0.23817176
-0.095821232 0.16210659 -0.23816592
-0.09581919 0.16218212 -0.23814613
-0.095816784 0.16225977 -0.2381323
-0.095813394 0.16233592 -0.23814046
-0.095809996 0.16241206 -0.23814864
-0.095807686 0.16248967 -0.2381328
-0.095805451 0.16256529 -0.23811702
-0.095801957 0.16264148 -0.2381272
-0.095798656 0.16271757 -0.23813339
-0.095795862 0.16279541 -0.23812753
-0.095792755 0.16287142 -0.23812973
-0.095789939 0.1629473 -0.23812592
-0.095787615 0.16302295 -0.23811212
-0.095785014 0.1631007 -0.23810229
-0.095782198 0.16317658 -0.23809847
-0.095779404 0.16325441 -0.23809263
-0.095776781 0.1633302 -0.23808482
-0.095773868 0.16340612 -0.23808302
-0.095770784 0.1634841 -0.23808317
-0.09576758 0.16356014 -0.23808736
-0.095764376 0.16363619 -0.23809153
-0.095761366 0.16371216 -0.23809172
-0.095758453 0.16378808 -0.23808992
-0.095755562 0.16386597 -0.23808606
-0.095752746 0.16394185 -0.23808226
-0.095750131 0.16401763 -0.23807445
-0.09574724 0.16409551 -0.23807061
-0.095744133 0.16417152 -0.2380728
-0.09574151 0.16424732 -0.238065
-0.095739298 0.16432488 -0.23804715
-0.095736578 0.16440071 -0.23804136
-0.095733374 0.16447677 -0.23804554
-0.095730171 0.16455282 -0.23804973
-0.095727377 0.16463065 -0.23804387
-0.095724761 0.16470645 -0.23803608
-0.095721848 0.16478238 -0.23803428
-0.095719129 0.16485821 -0.23802847
-0.095716603 0.16493395 -0.23801868
-0.095713615 0.16501188 -0.23801681
-0.095710509 0.16508788 -0.23801902
-0.095708087 0.16516359 -0.23800722
-0.095706068 0.16524108 -0.23798539
-0.095703542 0.16531682 -0.2379756
-0.095700532 0.16539279 -0.23797578
-0.095697038 0.16546898 -0.23798597
-0.09569376 0.16554703 -0.2379901
-0.095691234 0.16562277 -0.23798031
-0.095688716 0.16569851 -0.2379705
-0.09568502 0.16577479 -0.23798467
-0.095681332 0.16585107 -0.23799884
-0.095678054 0.16592912 -0.23800299
-0.095676214 0.16600455 -0.2379792
-0.095674269 0.16608004 -0.23795742
-0.095675163 0.1661562 -0.23787567
-0.09567371 0.16623147 -0.23784392
-0.09567041 0.16630757 -0.2378501
-0.095666818 0.1663838 -0.23786227
-0.095663734 0.16646177 -0.23786241
-0.095659748 0.16653818 -0.23788258
-0.095656551 0.16661422 -0.23788676
-0.095654801 0.16668962 -0.23786098
-0.095652685 0.16676715 -0.23784116
-0.095649578 0.16684316 -0.23784333
-0.095645115 0.16691978 -0.23787349
-0.09563978 0.16699681 -0.23792161
-0.09563677 0.16707277 -0.2379218
-0.095634148 0.16714856 -0.237914
-0.095630966 0.16722657 -0.23791614
-0.095627666 0.16730267 -0.23792231
-0.095624462 0.16737872 -0.23792651
-0.095620893 0.16745691 -0.23793663
-0.095618464 0.16753261 -0.23792484
-0.095616519 0.1676081 -0.23790306
-0.095614292 0.16768371 -0.23788728
-0.095611572 0.16775954 -0.23788148
-0.095606931 0.1678382 -0.23791356
-0.095601983 0.16791505 -0.23795369
-0.095598489 0.16799124 -0.23796389
-0.095595673 0.16806711 -0.23796007
-0.095593147 0.16814286 -0.23795028
-0.095590547 0.16822061 -0.23794043
-0.095587537 0.16829658 -0.23794062
-0.095585696 0.16837202 -0.23791686
-0.095582321 0.16845012 -0.23792297
-0.095578827 0.16852629 -0.23793316
-0.095576301 0.16860205 -0.23792335
-0.095573775 0.16867779 -0.23791356
-0.09557116 0.16875358 -0.23790577
-0.095568553 0.16883133 -0.23789592
-0.095565356 0.16890739 -0.23790011
-0.095561765 0.16898361 -0.23791227
-0.095558368 0.16905975 -0.23792046
-0.095554985 0.16913785 -0.23792659
-0.095551983 0.16921382 -0.23792678
-0.095549263 0.16928965 -0.23792097
-0.095546566 0.16936743 -0.23791313
-0.09554375 0.16944332 -0.23790933
-0.09554074 0.16951929 -0.23790953
-0.095537826 0.16959521 -0.23790771
-0.095535398 0.16967091 -0.23789591
-0.0955327 0.16974869 -0.23788807
-0.095529601 0.1698247 -0.23789024
-0.095526204 0.16990085 -0.23789844
-0.095523097 0.16997686 -0.23790061
-0.09552028 0.17005274 -0.23789681
-0.095517486 0.17013058 -0.23789096
-0.09551467 0.17020646 -0.23788717
-0.095511854 0.17028233 -0.23788336
-0.095509231 0.17035812 -0.23787555
-0.09550634 0.17043599 -0.23787171
-0.095503137 0.17051205 -0.23787589
-0.095500037 0.17058806 -0.23787808
-0.095497124 0.17066398 -0.23787627
-0.095494233 0.17074187 -0.23787242
-0.095491514 0.1708177 -0.23786661
-0.095488891 0.17089349 -0.23785882
-0.095486172 0.17096932 -0.23785302
-0.095483363 0.1710452 -0.23784921
-0.095480271 0.17112318 -0.23784935
-0.095477268 0.17119914 -0.23784953
-0.095473982 0.1712772 -0.23785368
-0.095470585 0.17135333 -0.23786186
-0.09546797 0.17142913 -0.23785406
-0.095465541 0.17150483 -0.23784226
-0.095462434 0.17158084 -0.23784445
-0.095459349 0.1716588 -0.23784459
-0.09545663 0.17173463 -0.23783879
-0.095453717 0.17181055 -0.23783699
-0.095450804 0.17188647 -0.23783517
-0.095448107 0.17196427 -0.23782733
-0.095445588 0.17204002 -0.23781753
-0.095442675 0.17211594 -0.23781574
-0.095439084 0.17219217 -0.2378279
-0.095436096 0.17227009 -0.23782605
-0.09543357 0.17234583 -0.23781624
-0.095430948 0.17242163 -0.23780845
-0.095427938 0.1724976 -0.23780864
-0.095424466 0.17257574 -0.23781678
-0.095421165 0.17265183 -0.23782295
-0.095418349 0.1727277 -0.23781915
-0.095415652 0.1728055 -0.2378113
-0.095413029 0.17288129 -0.23780349
-0.095410123 0.17295721 -0.2378017
-0.09540721 0.17303313 -0.23779988
-0.095404394 0.17310901 -0.23779608
-0.095401503 0.1731869 -0.23779222
-0.09539859 0.17326282 -0.23779044
-0.095395386 0.17333888 -0.23779461
-0.095392399 0.17341679 -0.23779276
-0.095389776 0.17349258 -0.23778495
-0.095387056 0.17356841 -0.23777916
-0.095384344 0.17364424 -0.23777336
-0.095381334 0.17372021 -0.23777354
-0.095378056 0.17379826 -0.23777768
-0.095374949 0.17387427 -0.23777986
-0.095371962 0.17395221 -0.23777801
-0.095369145 0.17402808 -0.23777419
-0.095366232 0.17410401 -0.23777241
-0.095363319 0.17417993 -0.23777059
-0.095360994 0.17425558 -0.23775679
-0.095358193 0.17433342 -0.23775095
-0.095355093 0.17440943 -0.23775312
-0.09535189 0.17448547 -0.23775733
-0.095348805 0.17456345 -0.23775746
-0.095345795 0.17463942 -0.23775765
-0.095342979 0.1747153 -0.23775384
-0.095340647 0.17479095 -0.23774007
-0.09533783 0.17486683 -0.23773625
-0.095334649 0.17494483 -0.2377384
-0.095331639 0.1750208 -0.23773858
-0.095328555 0.17509878 -0.23773873
-0.095325738 0.17517465 -0.23773491
-0.095322929 0.17525053 -0.23773111
-0.095320016 0.17532645 -0.23772931
-0.095317297 0.17540228 -0.2377235
-0.095314212 0.17548025 -0.23772365
-0.095311008 0.1755563 -0.23772782
-0.095308192 0.17563218 -0.23772402
-0.095305398 0.17571002 -0.23771818
-0.095302679 0.17578585 -0.23771238
-0.095299862 0.17586173 -0.23770857
-0.095296957 0.17593765 -0.23770675
-0.095294237 0.17601348 -0.23770097
-0.095291153 0.17609145 -0.2377011
-0.095287755 0.17616759 -0.23770928
-0.095284767 0.17624551 -0.23770744
-0.095282048 0.17632136 -0.23770162
-0.095279135 0.17639728 -0.23769981
-0.095276341 0.17647511 -0.23769397
-0.095273621 0.17655094 -0.23768815
-0.095270999 0.17662673 -0.23768038
-0.095268384 0.17670253 -0.23767257
-0.095265277 0.17677853 -0.23767476
-0.095262386 0.17685641 -0.2376709
-0.095259473 0.17693233 -0.2376691
-0.095256001 0.17701048 -0.23767722
-0.095252991 0.17708644 -0.23767743
-0.095250174 0.17716232 -0.23767361
-0.095247187 0.17724024 -0.23767176
-0.095244274 0.17731616 -0.23766994
-0.095241457 0.17739204 -0.23766614
-0.09523847 0.17746995 -0.23766428
-0.095235169 0.17754605 -0.23767048
-0.095231697 0.1776242 -0.2376786
-0.095227733 0.17770256 -0.23769671
-0.095222145 0.17778361 -0.23774675
-0.095213026 0.17787215 -0.23786452
-0.095202841 0.17796119 -0.23800428
-0.096239626 0.15128772 -0.23842877
-0.096235454 0.15136422 -0.23845291
-0.096212141 0.15197946 -0.23843229
-0.096208252 0.15205581 -0.23845044
-0.096148618 0.1535906 -0.2384299
-0.09614642 0.15367013 -0.23841003
-0.096144691 0.15374748 -0.23838221
-0.096140966 0.15390427 -0.23833051
-0.096139356 0.15398353 -0.23829865
-0.096130714 0.15405223 -0.2384229
-0.096127704 0.15412819 -0.23842311
-0.096127242 0.15428939 -0.23829937
-0.096124157 0.15436736 -0.23829952
-0.095851496 0.16141523 -0.23817971
-0.095848389 0.16149125 -0.23818189
-0.095845498 0.16156912 -0.23817804
-0.095842585 0.16164504 -0.23817624
-0.095839381 0.1617211 -0.23818043
-0.095836371 0.16179706 -0.23818062
-0.095833868 0.16187477 -0.23816878
-0.095831245 0.16195056 -0.23816097
-0.095827848 0.1620267 -0.23816916
-0.095825054 0.16210453 -0.23816331
-0.095823012 0.16218007 -0.23814353
-0.095820606 0.16225772 -0.23812969
-0.095817208 0.16233386 -0.23813787
-0.095813908 0.16240996 -0.23814404
-0.095811501 0.16248761 -0.23813021
-0.095809266 0.16256323 -0.23811442
-0.095805772 0.16263941 -0.23812461
-0.095802568 0.16271546 -0.23812878
-0.095799677 0.16279335 -0.23812494
-0.09579657 0.16286936 -0.23812711
-0.095793754 0.16294524 -0.23812331
-0.095791332 0.16302094 -0.23811153
-0.095788732 0.16309868 -0.23810168
-0.095786013 0.16317452 -0.23809588
-0.095783219 0.16325235 -0.23809002
-0.095780596 0.16332814 -0.23808223
-0.095777683 0.16340406 -0.23808041
-0.095774591 0.16348203 -0.23808056
-0.095771492 0.16355804 -0.23808274
-0.095768183 0.16363414 -0.23808894
-0.095765181 0.1637101 -0.23808911
-0.095762268 0.16378602 -0.23808733
-0.095759273 0.16386394 -0.23808546
-0.095756561 0.16393979 -0.23807967
-0.095753938 0.16401558 -0.23807186
-0.095751047 0.16409345 -0.23806801
-0.09574794 0.16416946 -0.23807019
-0.095745414 0.1642452 -0.2380604
-0.095743105 0.16432282 -0.23804456
-0.095740385 0.16439866 -0.23803876
-0.095737182 0.16447471 -0.23804295
-0.095733881 0.16455081 -0.23804912
-0.095731184 0.1646286 -0.23804128
-0.095728561 0.1647044 -0.23803349
-0.095725551 0.16478036 -0.23803368
-0.095722832 0.1648562 -0.23802787
-0.095720403 0.16493189 -0.23801608
-0.095717415 0.16500981 -0.23801422
-0.095714308 0.16508582 -0.23801641
-0.095711783 0.16516158 -0.23800662
-0.095709763 0.16523905 -0.23798479
-0.095707342 0.16531476 -0.237973
-0.095704429 0.16539069 -0.23797119
-0.095700935 0.16546687 -0.23798136
-0.095697552 0.16554497 -0.2379875
-0.095694833 0.1656208 -0.23798171
-0.095692411 0.1656965 -0.23796991
-0.095688723 0.16577278 -0.23798408
-0.095684931 0.16584909 -0.23800024
-0.095681749 0.1659271 -0.23800239
-0.095679909 0.16600254 -0.23797861
-0.095677964 0.16607803 -0.23795682
-0.095678955 0.16615415 -0.23787309
-0.095677398 0.16622946 -0.23784332
-0.095674001 0.1663056 -0.2378515
-0.095670603 0.16638175 -0.23785968
-0.095667519 0.16645971 -0.23785982
-0.09566354 0.16653611 -0.23787999
-0.095660433 0.16661212 -0.23788217
-0.095658682 0.16668752 -0.23785639
-0.095656566 0.16676505 -0.23783657
-0.095653363 0.1668411 -0.23784076
-0.0956489 0.16691773 -0.2378709
-0.095643558 0.16699474 -0.23791903
-0.095640548 0.16707072 -0.23791921
-0.095635988 0.16714738 -0.23795135
-0.09563455 0.1672246 -0.23791754
-0.095631346 0.16730066 -0.23792174
-0.095628142 0.16737671 -0.23792592
-0.095624477 0.16745493 -0.23793805
-0.095621951 0.16753069 -0.23792824
-0.095620297 0.16760603 -0.23790048
-0.095618166 0.1676816 -0.23788269
-0.09561535 0.16775748 -0.23787889
-0.095610708 0.16783614 -0.23791099
-0.095605664 0.16791303 -0.23795313
-0.095602065 0.16798927 -0.23796529
-0.095599256 0.16806515 -0.23796147
-0.095596828 0.16814084 -0.2379497
-0.095594324 0.16821855 -0.23793785
-0.095591508 0.16829443 -0.23793405
-0.095588885 0.16837022 -0.23792624
-0.095586091 0.16844805 -0.2379204
-0.095582694 0.16852419 -0.23792858
-0.095580071 0.16859998 -0.23792078
-0.095577642 0.16867569 -0.23790899
-0.095574923 0.16875152 -0.23790318
-0.095572226 0.16882931 -0.23789534
-0.095569022 0.16890536 -0.23789951
-0.095565625 0.16898151 -0.23790771
-0.095562324 0.16905761 -0.23791388
-0.095558852 0.16913575 -0.23792201
-0.095555745 0.16921176 -0.2379242
-0.095553122 0.16928755 -0.23791641
-0.095550328 0.16936538 -0.23791055
-0.095547512 0.16944125 -0.23790675
-0.095544502 0.16951722 -0.23790693
-0.095541589 0.16959316 -0.23790513
-0.095539063 0.1696689 -0.23789534
-0.095536366 0.16974668 -0.23788749
-0.095533356 0.16982265 -0.23788768
-0.095529959 0.16989879 -0.23789586
-0.095526852 0.1699748 -0.23789805
-0.095524035 0.17005068 -0.23789424
-0.095521241 0.17012851 -0.2378884
-0.095518522 0.17020436 -0.23788258
-0.095515609 0.17028028 -0.23788078
-0.095512897 0.17035611 -0.23787498
-0.095509999 0.17043398 -0.23787114
-0.095506892 0.17050999 -0.23787332
-0.095503882 0.17058596 -0.23787351
-0.095500775 0.17066197 -0.2378757
-0.095497884 0.17073984 -0.23787186
-0.095495261 0.17081565 -0.23786405
-0.095492549 0.17089148 -0.23785824
-0.095489927 0.17096727 -0.23785044
-0.095487013 0.17104319 -0.23784864
-0.095483832 0.17112119 -0.23785079
-0.095481016 0.17119707 -0.23784697
-0.09547773 0.17127512 -0.23785111
-0.095474333 0.17135127 -0.23785928
-0.095471814 0.17142701 -0.23784949
-0.095469289 0.17150277 -0.2378397
-0.095466085 0.17157882 -0.23784387
-0.095462993 0.17165679 -0.23784402
-0.095460378 0.17173257 -0.23783623
-0.095457368 0.17180854 -0.23783642
-0.09545438 0.17188646 -0.23783457
-0.095451854 0.17196222 -0.23782477
-0.095449328 0.17203796 -0.23781496
-0.095446415 0.17211388 -0.23781316
-0.095442727 0.17219016 -0.23782733
-0.09543974 0.17226808 -0.23782548
-0.095437214 0.17234382 -0.23781568
-0.095434591 0.17241961 -0.23780788
-0.095431581 0.17249557 -0.23780808
-0.095428206 0.17257367 -0.23781422
-0.095424905 0.17264977 -0.23782039
-0.095422089 0.17272565 -0.23781659
-0.095419489 0.1728034 -0.23780674
-0.095416769 0.17287923 -0.23780093
-0.095413759 0.1729552 -0.23780113
-0.095410943 0.17303108 -0.23779732
-0.09540803 0.173107 -0.23779552
-0.095405236 0.17318483 -0.23778968
-0.09540242 0.17326072 -0.23778586
-0.095399119 0.1733368 -0.23779204
-0.095396131 0.17341474 -0.2377902
-0.095393509 0.17349052 -0.23778239
-0.095390789 0.17356636 -0.23777659
-0.09538807 0.17364219 -0.2377708
-0.09538506 0.17371815 -0.23777097
-0.095381781 0.17379621 -0.23777512
-0.095378771 0.17387217 -0.23777531
-0.095375784 0.17395009 -0.23777345
-0.095372967 0.17402598 -0.23776965
-0.095370054 0.1741019 -0.23776785
-0.095367044 0.17417787 -0.23776802
-0.095364712 0.17425352 -0.23775424
-0.095362015 0.17433131 -0.23774639
-0.095358811 0.17440736 -0.23775057
-0.095355608 0.17448342 -0.23775476
-0.095352426 0.17456143 -0.23775691
-0.095349416 0.17463739 -0.23775709
-0.095346697 0.17471324 -0.23775129
-0.095344365 0.17478889 -0.23773751
-0.095341653 0.17486472 -0.2377317
-0.095338367 0.17494278 -0.23773584
-0.095335454 0.1750187 -0.23773402
-0.095332369 0.17509666 -0.23773417
-0.095329456 0.17517258 -0.23773237
-0.09532664 0.17524847 -0.23772857
-0.095323727 0.1753244 -0.23772675
-0.095321015 0.17540023 -0.23772095
-0.095317826 0.17547823 -0.23772308
-0.095314719 0.17555425 -0.23772529
-0.095311806 0.17563017 -0.23772347
-0.095309012 0.175708 -0.23771763
-0.095306292 0.17578384 -0.23771182
-0.09530358 0.17585967 -0.23770602
-0.095300667 0.1759356 -0.23770422
-0.095297948 0.17601143 -0.23769841
-0.095294759 0.17608944 -0.23770055
-0.095291466 0.17616554 -0.23770674
-0.095288374 0.1762435 -0.23770687
-0.095285654 0.17631933 -0.23770109
-0.095282838 0.17639521 -0.23769727
-0.095279947 0.17647308 -0.23769343
-0.095277227 0.17654893 -0.23768762
-0.095274612 0.17662472 -0.23767981
-0.09527199 0.1767005 -0.23767202
-0.09526898 0.17677647 -0.23767221
-0.095266089 0.17685434 -0.23766837
-0.095263079 0.17693031 -0.23766854
-0.095259599 0.17700845 -0.23767668
-0.095256589 0.17708442 -0.23767686
-0.095253974 0.17716022 -0.23766908
-0.095250979 0.17723814 -0.23766722
-0.095247969 0.1773141 -0.23766741
-0.09524516 0.17738998 -0.2376636
-0.095242165 0.1774679 -0.23766175
-0.095238961 0.17754395 -0.23766592
-0.095235392 0.17762214 -0.23767605
-0.095231436 0.17770049 -0.23769417
-0.095225938 0.17778151 -0.2377422
-0.095217019 0.17786996 -0.237856
-0.095206924 0.17795894 -0.23799375
-0.096234396 0.15136728 -0.23845258
-0.096147373 0.15359376 -0.23843357
-0.096145466 0.15367316 -0.2384077
-0.096143551 0.1537506 -0.23838387
-0.096139431 0.15390755 -0.23834017
-0.096138895 0.15398633 -0.23828635
-0.096129671 0.1540553 -0.23842257
-0.096126854 0.15413117 -0.23841877
-0.096126214 0.15429442 -0.238297
-0.096123114 0.15437043 -0.23829919
-0.095849998 0.16141853 -0.23818937
-0.095847286 0.16149436 -0.23818357
-0.095844485 0.16157219 -0.23817773
-0.095841579 0.16164811 -0.23817593
-0.095838279 0.16172421 -0.2381821
-0.095835187 0.16180217 -0.23818225
-0.095832765 0.16187787 -0.23817044
-0.095830142 0.16195367 -0.23816265
-0.095826842 0.16202977 -0.23816884
-0.095823951 0.16210765 -0.23816499
-0.09582191 0.16218317 -0.2381452
-0.095819503 0.16226083 -0.23813136
-0.095816009 0.16233702 -0.23814154
-0.095812611 0.16241315 -0.23814972
-0.095810398 0.16249073 -0.23813188
-0.095808171 0.16256635 -0.23811609
-0.095804676 0.16264252 -0.23812628
-0.095801368 0.16271862 -0.23813245
-0.095798574 0.16279645 -0.23812661
-0.095795467 0.16287246 -0.2381288
-0.095792659 0.16294836 -0.238125
-0.095790327 0.16302401 -0.2381112
-0.095787726 0.16310175 -0.23810136
-0.095785007 0.16317759 -0.23809555
-0.095782116 0.16325547 -0.23809171
-0.095779397 0.1633313 -0.2380859
-0.095776483 0.16340722 -0.23808409
-0.095773399 0.16348518 -0.23808423
-0.095770292 0.1635612 -0.23808643
-0.095766991 0.1636373 -0.2380926
-0.095763981 0.16371326 -0.2380928
-0.095761165 0.16378914 -0.238089
-0.095758274 0.16386701 -0.23808514
-0.095755465 0.1639429 -0.23808134
-0.095752843 0.16401869 -0.23807353
-0.095749855 0.16409661 -0.23807168
-0.095746748 0.16417262 -0.23807386
-0.095744222 0.16424836 -0.23806408
-0.095742106 0.16432589 -0.23804425
-0.09573929 0.16440177 -0.23804043
-0.09573599 0.16447787 -0.23804662
-0.095732786 0.16455393 -0.2380508
-0.095730186 0.16463166 -0.23804095
-0.095727563 0.16470747 -0.23803316
-0.095724553 0.16478343 -0.23803335
-0.095721744 0.16485931 -0.23802954
-0.095719218 0.16493505 -0.23801976
-0.095716231 0.16501297 -0.2380179
-0.095713221 0.16508894 -0.2380181
-0.095710792 0.16516465 -0.23800629
-0.095708773 0.16524212 -0.23798446
-0.09570615 0.16531792 -0.23797667
-0.095702954 0.16539398 -0.23798084
-0.095699549 0.16547011 -0.23798904
-0.095696561 0.16554804 -0.23798719
-0.09569414 0.16562374 -0.23797539
-0.095691517 0.16569953 -0.23796758
-0.095687732 0.16577585 -0.23798376
-0.095684141 0.16585207 -0.23799592
-0.095680758 0.16593017 -0.23800206
-0.095678918 0.16600561 -0.23797828
-0.09567707 0.16608106 -0.2379545
-0.095677868 0.16615726 -0.23787476
-0.095676512 0.16623248 -0.23784101
-0.095673114 0.16630863 -0.23784918
-0.095669426 0.16638491 -0.23786336
-0.095666528 0.16646278 -0.2378595
-0.095662549 0.16653918 -0.23787966
-0.095659249 0.16661528 -0.23788583
-0.095657505 0.16669068 -0.23786007
-0.095655367 0.16676626 -0.23784229
-0.095652089 0.16684431 -0.23784643
-0.095647916 0.1669208 -0.23787057
-0.095642574 0.16699781 -0.2379187
-0.095639467 0.16707382 -0.23792088
-0.095637046 0.16714953 -0.23790909
-0.095633857 0.16722754 -0.23791124
-0.095630459 0.16730368 -0.23791942
-0.095627159 0.16737977 -0.23792559
-0.09562359 0.16745795 -0.23793572
-0.095621161 0.16753367 -0.23792392
-0.095619127 0.16760918 -0.23790415
-0.095616989 0.16768476 -0.23788637
-0.095614269 0.1677606 -0.23788056
-0.095609538 0.1678393 -0.23791465
-0.09560468 0.1679161 -0.2379528
-0.095601283 0.16799225 -0.23796096
-0.09559837 0.16806817 -0.23795918
-0.095595755 0.16814396 -0.23795137
-0.095593251 0.16822167 -0.23793954
-0.095590144 0.16829768 -0.23794171
-0.095588394 0.16837306 -0.23791593
-0.095585018 0.16845116 -0.23792207
-0.095581524 0.16852735 -0.23793225
-0.095578998 0.16860309 -0.23792246
-0.095576473 0.16867885 -0.23791265
-0.095573857 0.16875464 -0.23790485
-0.09557116 0.16883242 -0.23789701
-0.095567957 0.16890848 -0.2379012
-0.095564365 0.16898471 -0.23791337
-0.095561065 0.16906081 -0.23791955
-0.095557682 0.16913891 -0.23792568
-0.095554575 0.16921492 -0.23792788
-0.09555196 0.16929071 -0.23792008
-0.095549256 0.16936849 -0.23791224
-0.09554635 0.16944441 -0.23791042
-0.09554334 0.16952038 -0.23791061
-0.095540524 0.16959627 -0.23790681
-0.095538191 0.16967192 -0.23789302
-0.095535398 0.16974975 -0.23788717
-0.095532194 0.16982581 -0.23789135
-0.095528796 0.16990195 -0.23789954
-0.095525786 0.16997792 -0.23789972
-0.09552297 0.17005379 -0.23789591
-0.095520079 0.17013167 -0.23789206
-0.095517263 0.17020755 -0.23788826
-0.095514551 0.17028339 -0.23788247
-0.095511928 0.17035918 -0.23787466
-0.095509037 0.17043705 -0.23787081
-0.095505834 0.17051311 -0.23787498
-0.095502727 0.17058912 -0.23787719
-0.095499814 0.17066504 -0.23787537
-0.095496826 0.17074296 -0.23787352
-0.095494106 0.17081881 -0.23786771
-0.095491484 0.17089459 -0.23785992
-0.095488861 0.17097038 -0.23785213
-0.095486149 0.17104621 -0.23784631
-0.09548296 0.17112422 -0.23784846
-0.095479958 0.17120019 -0.23784865
-0.095476575 0.17127828 -0.23785478
-0.095473178 0.17135443 -0.23786297
-0.095470659 0.17143017 -0.23785317
-0.095468231 0.17150588 -0.23784137
-0.095465221 0.17158185 -0.23784156
-0.095462039 0.17165986 -0.23784369
-0.095459417 0.17173564 -0.23783591
-0.095456503 0.17181157 -0.2378341
-0.095453493 0.17188753 -0.23783429
-0.095450796 0.17196533 -0.23782644
-0.09544827 0.17204107 -0.23781665
-0.095445365 0.17211699 -0.23781484
-0.095441863 0.17219318 -0.23782501
-0.095438682 0.17227119 -0.23782715
-0.09543626 0.17234689 -0.23781535
-0.095433541 0.17242272 -0.23780957
-0.095430627 0.17249864 -0.23780775
-0.095427155 0.17257679 -0.23781589
-0.095423855 0.17265289 -0.23782206
-0.095421039 0.17272876 -0.23781827
-0.095418341 0.17280656 -0.23781042
-0.095415719 0.17288235 -0.23780261
-0.095412806 0.17295827 -0.23780081
-0.095409989 0.17303415 -0.23779701
-0.095407076 0.17311007 -0.2377952
-0.095404282 0.1731879 -0.23778935
-0.095401369 0.17326382 -0.23778754
-0.095398068 0.17333992 -0.23779371
-0.095395081 0.17341785 -0.23779187
-0.095392458 0.17349364 -0.23778407
-0.095389746 0.17356947 -0.23777828
-0.095387027 0.1736453 -0.23777246
-0.095384017 0.17372127 -0.23777266
-0.095380738 0.17379932 -0.23777679
-0.095377535 0.17387538 -0.23778099
-0.095374547 0.17395329 -0.23777913
-0.095371731 0.17402917 -0.23777533
-0.095368914 0.17410506 -0.23777151
-0.095366001 0.17418098 -0.23776971
-0.095363572 0.17425668 -0.23775792
-0.095360875 0.17433447 -0.23775008
-0.095357768 0.17441048 -0.23775226
-0.095354661 0.17448649 -0.23775443
-0.095351577 0.17456445 -0.23775458
-0.095348567 0.17464042 -0.23775478
-0.095345661 0.17471635 -0.23775297
-0.095343232 0.17479205 -0.23774117
-0.095340416 0.17486793 -0.23773737
-0.095337331 0.17494589 -0.23773751
-0.095334224 0.1750219 -0.23773971
-0.09533114 0.17509986 -0.23773983
-0.09532842 0.1751757 -0.23773405
-0.095325604 0.17525159 -0.23773023
-0.095322691 0.17532751 -0.23772843
-0.095319971 0.17540334 -0.23772264
-0.095316887 0.1754813 -0.23772278
-0.09531378 0.17555732 -0.23772496
-0.095310867 0.17563324 -0.23772314
-0.095307976 0.17571111 -0.2377193
-0.095305257 0.17578694 -0.2377135
-0.095302545 0.17586279 -0.2377077
-0.095299631 0.17593871 -0.23770589
-0.095296912 0.17601454 -0.23770009
-0.095293924 0.17609246 -0.23769823
-0.095290527 0.17616861 -0.23770642
-0.095287442 0.17624657 -0.23770656
-0.095284723 0.1763224 -0.23770076
-0.09528181 0.17639832 -0.23769894
-0.095278919 0.17647621 -0.2376951
-0.095276296 0.176552 -0.23768729
-0.09527377 0.17662774 -0.23767751
-0.095271051 0.17670357 -0.2376717
-0.095267951 0.17677958 -0.23767388
-0.095265053 0.17685747 -0.23767003
-0.095262147 0.17693339 -0.23766822
-0.095258765 0.17701149 -0.23767436
-0.095255658 0.17708749 -0.23767656
-0.095252849 0.17716338 -0.23767275
-0.095249757 0.17724134 -0.2376729
-0.095246851 0.17731726 -0.23767108
-0.095244132 0.17739309 -0.23766528
-0.095241144 0.17747101 -0.23766342
-0.095237844 0.17754711 -0.23766962
-0.095234364 0.17762525 -0.23767774
-0.095230311 0.17770365 -0.23769785
-0.09522482 0.17778467 -0.23774588
-0.09521541 0.17787334 -0.23786965
-0.095205225 0.17796236 -0.23800941
-0.096233979 0.15136507 -0.23845482
-0.096147053 0.1535915 -0.23843381
-0.096144937 0.15366903 -0.23841397
-0.096143231 0.15374833 -0.23838411
-0.096139312 0.15390521 -0.23833641
-0.096138187 0.15398425 -0.23829457
-0.096129149 0.15405312 -0.2384268
-0.096126243 0.15412904 -0.238425
-0.096125685 0.15429029 -0.23830327
-0.096122578 0.1543663 -0.23830545
-0.09584976 0.16141622 -0.2381876
-0.095846944 0.16149209 -0.2381838
-0.095844053 0.16156997 -0.23817995
-0.095841043 0.16164593 -0.23818013
-0.095837936 0.16172194 -0.23818231
-0.095834829 0.16179796 -0.23818451
-0.095832326 0.16187567 -0.23817267
-0.095829703 0.16195145 -0.23816487
-0.095826305 0.1620276 -0.23817304
-0.095823415 0.16210547 -0.23816919
-0.09582147 0.16218096 -0.23814741
-0.095819063 0.16225861 -0.23813358
-0.095815666 0.16233476 -0.23814176
-0.095812269 0.1624109 -0.23814994
-0.095809959 0.16248851 -0.2381341
-0.095807731 0.16256413 -0.23811832
-0.095804334 0.16264027 -0.23812649
-0.095801033 0.16271636 -0.23813269
-0.095798135 0.16279425 -0.23812881
-0.095795035 0.16287026 -0.23813102
-0.095792219 0.16294613 -0.2381272
-0.095789887 0.16302179 -0.2381134
-0.095787287 0.16309954 -0.23810357
-0.095784567 0.16317537 -0.23809776
-0.09578158 0.16325329 -0.23809591
-0.095778957 0.16332908 -0.23808812
-0.095776141 0.16340496 -0.23808432
-0.095773056 0.16348292 -0.23808445
-0.095769949 0.16355893 -0.23808664
-0.095766649 0.16363503 -0.23809282
-0.095763639 0.163711 -0.23809302
-0.095760822 0.16378687 -0.2380892
-0.095757835 0.16386481 -0.23808736
-0.095755018 0.16394068 -0.23808354
-0.095752396 0.16401647 -0.23807575
-0.095749505 0.16409434 -0.23807189
-0.095746398 0.16417035 -0.23807408
-0.095743775 0.16424614 -0.23806629
-0.095741645 0.16432172 -0.23804849
-0.095738851 0.16439955 -0.23804265
-0.095735744 0.16447556 -0.23804484
-0.095732443 0.16455166 -0.23805103
-0.095729746 0.16462944 -0.23804317
-0.095727026 0.16470529 -0.23803738
-0.095724016 0.16478126 -0.23803756
-0.095721394 0.16485704 -0.23802976
-0.095718868 0.16493279 -0.23801997
-0.09571588 0.16501071 -0.23801813
-0.09571287 0.16508667 -0.2380183
-0.095710345 0.16516243 -0.2380085
-0.095708333 0.16523992 -0.23798668
-0.095705807 0.16531566 -0.23797688
-0.095702797 0.16539162 -0.23797709
-0.095699303 0.16546781 -0.23798725
-0.095696025 0.16554587 -0.23799139
-0.095693402 0.16562165 -0.23798358
-0.095690973 0.16569735 -0.2379718
-0.095687285 0.16577363 -0.23798597
-0.0956835 0.16584994 -0.23800212
-0.095680214 0.16592799 -0.23800626
-0.095678374 0.16600344 -0.2379825
-0.09567643 0.16607893 -0.23796073
-0.095677324 0.16615508 -0.23787898
-0.095675774 0.1662304 -0.23784921
-0.09567257 0.16630645 -0.23785338
-0.095668979 0.16638269 -0.23786557
-0.095666066 0.16645861 -0.23786375
-0.095662005 0.166537 -0.23788387
-0.095658801 0.16661306 -0.23788804
-0.095657058 0.16668846 -0.23786227
-0.095655039 0.16676594 -0.23784044
-0.095651932 0.16684195 -0.23784265
-0.095647469 0.16691858 -0.23787278
-0.095642127 0.1669956 -0.23792091
-0.09563902 0.16707161 -0.2379231
-0.095636398 0.1671474 -0.23791531
-0.095633119 0.16722545 -0.23791943
-0.095629819 0.16730155 -0.23792562
-0.095626712 0.16737756 -0.23792779
-0.095623143 0.16745573 -0.23793793
-0.09562052 0.16753154 -0.23793012
-0.09561877 0.16760692 -0.23790435
-0.095616639 0.1676825 -0.23788658
-0.095613822 0.16775838 -0.23788276
-0.095609181 0.16783704 -0.23791486
-0.095604233 0.16791388 -0.237955
-0.095600739 0.16799007 -0.23796517
-0.095597923 0.16806595 -0.23796138
-0.095595397 0.16814169 -0.23795158
-0.095592797 0.16821945 -0.23794174
-0.095589787 0.16829541 -0.23794192
-0.095587939 0.16837086 -0.23791814
-0.095584467 0.16844898 -0.23792627
-0.09558107 0.16852513 -0.23793447
-0.095578544 0.16860089 -0.23792467
-0.095576018 0.16867663 -0.23791486
-0.095573403 0.16875242 -0.23790707
-0.095570803 0.16883017 -0.23789722
-0.095567599 0.16890621 -0.2379014
-0.095564008 0.16898245 -0.23791358
-0.095560707 0.16905855 -0.23791976
-0.095557228 0.16913669 -0.23792788
-0.095554121 0.1692127 -0.23793009
-0.095551506 0.16928849 -0.23792228
-0.095548801 0.16936627 -0.23791444
-0.095545992 0.16944215 -0.23791063
-0.095542982 0.16951813 -0.23791082
-0.095540166 0.169594 -0.23790702
-0.09553764 0.16966975 -0.23789722
-0.095534943 0.16974753 -0.23788938
-0.095531836 0.16982354 -0.23789155
-0.095528439 0.16989969 -0.23789974
-0.095525332 0.1699757 -0.23790193
-0.095522515 0.17005157 -0.23789813
-0.095519625 0.17012945 -0.23789427
-0.095516905 0.1702053 -0.23788846
-0.095514089 0.17028117 -0.23788467
-0.095511466 0.17035696 -0.23787686
-0.095508575 0.17043483 -0.23787302
-0.095505372 0.17051089 -0.23787719
-0.095502362 0.17058685 -0.2378774
-0.095499352 0.17066282 -0.23787758
-0.095496364 0.17074074 -0.23787573
-0.095493749 0.17081654 -0.23786792
-0.095491126 0.17089233 -0.23786013
-0.095488407 0.17096816 -0.23785433
-0.09548559 0.17104404 -0.23785052
-0.095482409 0.17112204 -0.23785266
-0.095479593 0.17119792 -0.23784885
-0.095476218 0.17127602 -0.23785499
-0.095472917 0.17135212 -0.23786117
-0.095470294 0.17142791 -0.23785338
-0.095467865 0.17150362 -0.23784158
-0.095464662 0.17157967 -0.23784576
-0.095461577 0.17165764 -0.2378459
-0.095458955 0.17173342 -0.2378381
-0.095455945 0.17180939 -0.2378383
-0.095452957 0.17188731 -0.23783645
-0.095450334 0.17196311 -0.23782864
-0.095447809 0.17203885 -0.23781885
-0.095444895 0.17211477 -0.23781705
-0.095441304 0.17219101 -0.23782921
-0.095438316 0.17226893 -0.23782736
-0.095435791 0.17234467 -0.23781756
-0.095433176 0.17242046 -0.23780976
-0.095430166 0.17249642 -0.23780996
-0.095426686 0.17257456 -0.23781809
-0.095423386 0.17265067 -0.23782426
-0.095420577 0.17272654 -0.23782045
-0.095417969 0.1728043 -0.23781061
-0.095415354 0.17288008 -0.23780282
-0.095412344 0.17295605 -0.23780301
-0.095409431 0.17303197 -0.23780119
-0.095406614 0.17310785 -0.23779739
-0.095403627 0.17318577 -0.23779553
-0.095400907 0.17326161 -0.23778975
-0.095397606 0.1733377 -0.23779592
-0.095394619 0.17341563 -0.23779407
-0.095391996 0.17349142 -0.23778626
-0.095389374 0.17356721 -0.23777847
-0.095386557 0.17364308 -0.23777467
-0.095383644 0.173719 -0.23777285
-0.095380269 0.1737971 -0.23777899
-0.095377259 0.17387307 -0.23777917
-0.095374271 0.17395099 -0.23777732
-0.095371358 0.17402692 -0.23777552
-0.095368445 0.17410284 -0.23777372
-0.095365629 0.17417872 -0.2377699
-0.095363207 0.17425442 -0.23775811
-0.095360503 0.1743322 -0.23775026
-0.095357306 0.17440826 -0.23775446
-0.095354199 0.17448427 -0.23775664
-0.095351011 0.17456228 -0.23775879
-0.095347904 0.17463829 -0.23776096
-0.095345192 0.17471413 -0.23775516
-0.09534286 0.17478979 -0.23774138
-0.095340043 0.17486566 -0.23773757
-0.095336862 0.17494367 -0.23773971
-0.095333852 0.17501964 -0.23773989
-0.095330767 0.1750976 -0.23774004
-0.095327951 0.17517349 -0.23773624
-0.095325135 0.17524937 -0.23773244
-0.095322222 0.17532529 -0.23773062
-0.095319502 0.17540112 -0.23772483
-0.095316418 0.17547908 -0.23772496
-0.095313214 0.17555514 -0.23772915
-0.095310397 0.17563102 -0.23772535
-0.095307603 0.17570885 -0.23771951
-0.095304884 0.17578469 -0.23771369
-0.095302068 0.17586057 -0.23770989
-0.095299259 0.17593645 -0.23770609
-0.095296443 0.17601232 -0.23770228
-0.095293351 0.17609029 -0.23770243
-0.095289953 0.17616643 -0.2377106
-0.095286965 0.17624435 -0.23770875
-0.095284246 0.17632018 -0.23770295
-0.095281333 0.1763961 -0.23770115
-0.095278539 0.17647395 -0.23769529
-0.095275819 0.17654978 -0.2376895
-0.095273204 0.17662556 -0.23768169
-0.095270582 0.17670135 -0.23767389
-0.095267572 0.17677732 -0.23767409
-0.095264584 0.17685524 -0.23767224
-0.095261671 0.17693117 -0.23767042
-0.095258199 0.17700931 -0.23767856
-0.095255092 0.17708531 -0.23768073
-0.095252372 0.17716116 -0.23767494
-0.095249385 0.17723908 -0.23767307
-0.095246471 0.177315 -0.23767129
-0.095243655 0.17739087 -0.23766747
-0.095240667 0.17746879 -0.23766562
-0.095237464 0.17754485 -0.2376698
-0.095233984 0.17762299 -0.23767793
-0.095229931 0.17770138 -0.23769805
-0.095224343 0.17778245 -0.23774807
-0.095215127 0.17787103 -0.23786785
-0.095205329 0.17795989 -0.23799962
-0.096236728 0.15136737 -0.23845452
-0.096149795 0.15359381 -0.23843348
-0.096147679 0.15367132 -0.23841366
-0.096145973 0.15375063 -0.2383838
-0.09614186 0.1539076 -0.23834008
-0.096140832 0.1539866 -0.23829624
-0.096131898 0.15405542 -0.23842649
-0.096128985 0.15413134 -0.23842469
-0.096128426 0.1542926 -0.23830295
-0.09612532 0.15436861 -0.23830514
-0.095852517 0.16141851 -0.23818728
-0.0958497 0.1614944 -0.23818347
-0.095846809 0.16157228 -0.23817962
-0.095843799 0.16164824 -0.2381798
-0.095840693 0.16172425 -0.23818199
-0.095837586 0.16180027 -0.23818418
-0.095835082 0.16187796 -0.23817235
-0.09583246 0.16195376 -0.23816454
-0.095829159 0.16202985 -0.23817071
-0.095826268 0.16210774 -0.23816687
-0.095824331 0.16218321 -0.2381451
-0.095821925 0.16226088 -0.23813125
-0.09581843 0.16233706 -0.23814143
-0.095815033 0.16241319 -0.23814961
-0.09581282 0.16249077 -0.23813178
-0.095810488 0.16256642 -0.23811799
-0.09580709 0.16264257 -0.23812616
-0.09580379 0.16271867 -0.23813236
-0.095800899 0.16279654 -0.23812848
-0.095797792 0.16287255 -0.23813069
-0.095794976 0.16294843 -0.23812687
-0.095792644 0.1630241 -0.23811309
-0.095790043 0.16310184 -0.23810324
-0.095787227 0.16317771 -0.23809944
-0.095784336 0.1632556 -0.23809558
-0.095781721 0.16333139 -0.23808779
-0.095778905 0.16340727 -0.23808399
-0.095775917 0.16348518 -0.23808214
-0.095772713 0.16356124 -0.23808631
-0.095769413 0.16363734 -0.2380925
-0.095766403 0.16371331 -0.23809269
-0.095763586 0.16378918 -0.23808888
-0.095760599 0.1638671 -0.23808703
-0.095757782 0.16394298 -0.23808321
-0.09575516 0.16401878 -0.23807542
-0.095752269 0.16409665 -0.23807156
-0.095749162 0.16417266 -0.23807375
-0.09574654 0.16424845 -0.23806596
-0.095744401 0.16432403 -0.23804817
-0.095741607 0.16440186 -0.23804232
-0.095738403 0.16447791 -0.23804651
-0.095735207 0.16455397 -0.2380507
-0.095732503 0.16463175 -0.23804285
-0.095729791 0.16470759 -0.23803705
-0.095726781 0.16478355 -0.23803723
-0.095724158 0.16485935 -0.23802944
-0.095721632 0.1649351 -0.23801965
-0.095718645 0.16501302 -0.2380178
-0.095715635 0.16508898 -0.23801798
-0.095713109 0.16516472 -0.23800817
-0.09571109 0.16524221 -0.23798636
-0.095708571 0.16531797 -0.23797655
-0.095705561 0.16539393 -0.23797676
-0.095702067 0.16547011 -0.23798692
-0.095698878 0.16554812 -0.23798907
-0.095696166 0.16562396 -0.23798326
-0.095693737 0.16569966 -0.23797147
-0.095690049 0.16577594 -0.23798564
-0.095686361 0.1658522 -0.2379998
-0.095683083 0.16593026 -0.23800394
-0.095681138 0.16600575 -0.23798217
-0.095679291 0.16608119 -0.23795839
-0.095680185 0.16615735 -0.23787665
-0.095678635 0.16623266 -0.23784688
-0.095675431 0.16630872 -0.23785105
-0.09567184 0.16638495 -0.23786324
-0.09566883 0.16646092 -0.23786342
-0.095664769 0.16653931 -0.23788354
-0.095661566 0.16661537 -0.23788771
-0.095659725 0.16669081 -0.23786396
-0.095657706 0.16676828 -0.23784211
-0.095654599 0.16684429 -0.23784432
-0.095650233 0.16692089 -0.23787245
-0.095644891 0.16699789 -0.23792058
-0.095641784 0.16707391 -0.23792277
-0.095639162 0.16714969 -0.23791496
-0.095635884 0.16722775 -0.23791911
-0.095632583 0.16730385 -0.23792529
-0.095629379 0.1673799 -0.23792948
-0.09562581 0.16745809 -0.2379396
-0.095623285 0.16753383 -0.23792979
-0.095621541 0.16760923 -0.23790403
-0.095619403 0.16768481 -0.23788625
-0.095616587 0.16776069 -0.23788244
-0.095611945 0.16783935 -0.23791453
-0.095606998 0.16791619 -0.23795468
-0.095603503 0.16799238 -0.23796484
-0.095600687 0.16806826 -0.23796104
-0.095598161 0.168144 -0.23795125
-0.095595561 0.16822174 -0.23794141
-0.095592648 0.16829768 -0.2379396
-0.095590711 0.16837315 -0.23791781
-0.095587328 0.16845125 -0.23792395
-0.095583938 0.16852739 -0.23793213
-0.095581315 0.16860318 -0.23792434
-0.095578887 0.16867889 -0.23791254
-0.095576167 0.16875473 -0.23790674
-0.095573567 0.16883247 -0.23789689
-0.095570363 0.16890852 -0.23790108
-0.095566869 0.16898471 -0.23791125
-0.095563471 0.16906086 -0.23791942
-0.095559999 0.16913898 -0.23792756
-0.095556892 0.16921499 -0.23792975
-0.09555427 0.1692908 -0.23792195
-0.095551573 0.16936858 -0.23791412
-0.095548756 0.16944446 -0.2379103
-0.095545746 0.16952042 -0.23791049
-0.09554293 0.1695963 -0.23790669
-0.095540412 0.16967206 -0.23789689
-0.095537715 0.16974984 -0.23788905
-0.095534608 0.16982585 -0.23789123
-0.09553121 0.169902 -0.23789941
-0.095528103 0.16997801 -0.2379016
-0.095525287 0.17005388 -0.23789778
-0.095522396 0.17013176 -0.23789394
-0.095519677 0.17020759 -0.23788813
-0.09551686 0.17028347 -0.23788434
-0.095514238 0.17035927 -0.23787653
-0.095511347 0.17043714 -0.23787269
-0.095508143 0.1705132 -0.23787686
-0.095505133 0.17058916 -0.23787706
-0.095502123 0.17066513 -0.23787725
-0.095499136 0.17074305 -0.23787539
-0.095496513 0.17081884 -0.23786759
-0.095493898 0.17089464 -0.23785979
-0.095491178 0.17097047 -0.237854
-0.095488265 0.17104639 -0.23785219
-0.095485181 0.17112435 -0.23785233
-0.095482364 0.17120023 -0.23784852
-0.095479086 0.17127828 -0.23785266
-0.095475689 0.17135443 -0.23786083
-0.095473066 0.17143022 -0.23785304
-0.09547054 0.17150596 -0.23784325
-0.095467433 0.17158197 -0.23784542
-0.095464349 0.17165995 -0.23784557
-0.095461726 0.17173573 -0.23783776
-0.095458716 0.1718117 -0.23783797
-0.095455728 0.17188962 -0.23783611
-0.095453106 0.17196541 -0.23782831
-0.09545058 0.17204116 -0.23781851
-0.095447674 0.17211708 -0.23781671
-0.095444083 0.1721933 -0.23782888
-0.095441088 0.17227122 -0.23782703
-0.09543857 0.17234698 -0.23781723
-0.095435947 0.17242277 -0.23780943
-0.095432937 0.17249873 -0.23780963
-0.095429562 0.17257683 -0.23781575
-0.095426165 0.17265297 -0.23782393
-0.095423348 0.17272885 -0.23782012
-0.095420748 0.17280659 -0.23781028
-0.095418029 0.17288244 -0.23780447
-0.095415115 0.17295836 -0.23780268
-0.095412202 0.17303428 -0.23780087
-0.095409386 0.17311016 -0.23779705
-0.095406495 0.17318803 -0.23779321
-0.095403679 0.17326391 -0.23778941
-0.095400378 0.17334001 -0.23779559
-0.09539739 0.17341793 -0.23779373
-0.095394865 0.17349368 -0.23778394
-0.095392153 0.17356952 -0.23777813
-0.095389336 0.17364539 -0.23777433
-0.095386423 0.17372131 -0.23777252
-0.095383048 0.17379941 -0.23777866
-0.095380038 0.17387538 -0.23777884
-0.09537705 0.17395329 -0.23777699
-0.095374137 0.17402922 -0.23777518
-0.095371321 0.17410509 -0.23777138
-0.095368408 0.17418101 -0.23776957
-0.095365979 0.17425673 -0.23775777
-0.095363282 0.17433451 -0.23774993
-0.095360078 0.17441057 -0.23775412
-0.095356971 0.17448658 -0.23775631
-0.09535379 0.17456459 -0.23775846
-0.095350683 0.1746406 -0.23776063
-0.095347963 0.17471643 -0.23775482
-0.095345631 0.1747921 -0.23774104
-0.095342919 0.17486793 -0.23773524
-0.095339641 0.17494598 -0.23773937
-0.095336631 0.17502195 -0.23773956
-0.095333539 0.17509991 -0.23773971
-0.09533073 0.17517579 -0.2377359
-0.095327914 0.17525166 -0.2377321
-0.095325001 0.17532758 -0.23773029
-0.095322281 0.17540343 -0.23772448
-0.095319197 0.17548139 -0.23772463
-0.095315993 0.17555745 -0.2377288
-0.095313177 0.17563333 -0.23772502
-0.095310383 0.17571115 -0.23771916
-0.095307663 0.17578699 -0.23771337
-0.095304847 0.17586286 -0.23770955
-0.09530203 0.17593876 -0.23770575
-0.095299214 0.17601463 -0.23770195
-0.09529613 0.17609259 -0.23770209
-0.095292732 0.17616874 -0.23771027
-0.095289648 0.1762467 -0.23771042
-0.095286928 0.17632253 -0.2377046
-0.095284112 0.17639841 -0.23770081
-0.095281318 0.17647624 -0.23769495
-0.095278606 0.17655209 -0.23768915
-0.095275983 0.17662787 -0.23768136
-0.095273361 0.17670366 -0.23767355
-0.095270254 0.17677967 -0.23767574
-0.095267363 0.17685755 -0.23767188
-0.095264353 0.17693351 -0.23767209
-0.095260881 0.17701165 -0.23768021
-0.095257871 0.17708762 -0.23768041
-0.095255248 0.17716341 -0.2376726
-0.095252164 0.17724138 -0.23767275
-0.095249251 0.17731731 -0.23767093
-0.095246434 0.17739318 -0.23766713
-0.095243543 0.17747106 -0.23766328
-0.095240243 0.17754716 -0.23766947
-0.095236771 0.1776253 -0.2376776
-0.095232807 0.17770365 -0.23769571
-0.095227122 0.17778476 -0.23774773
-0.0952181 0.17787325 -0.23786351
-0.095208205 0.17796214 -0.23799728
-0.096236125 0.15136813 -0.23844369
-0.096148722 0.15359478 -0.23843265
-0.096146725 0.15367422 -0.23840877
-0.0961449 0.15375161 -0.23838297
-0.096141174 0.1539084 -0.23833126
-0.096140146 0.15398739 -0.23828742
-0.096131019 0.15405631 -0.23842166
-0.096128203 0.15413219 -0.23841786
-0.096127667 0.15429538 -0.23829408
-0.096124463 0.15437144 -0.23829827
-0.095851459 0.1614195 -0.23818645
-0.095848739 0.16149533 -0.23818064
-0.095845848 0.1615732 -0.23817679
-0.095842935 0.16164912 -0.23817497
-0.095839731 0.16172518 -0.23817918
-0.09583655 0.16180319 -0.23818131
-0.095834225 0.16187885 -0.23816752
-0.095831506 0.16195469 -0.23816171
-0.095828205 0.16203079 -0.2381679
-0.095825315 0.16210866 -0.23816404
-0.095823273 0.16218419 -0.23814426
-0.095820867 0.16226184 -0.23813042
-0.095817372 0.16233803 -0.23814061
-0.095813975 0.16241418 -0.23814878
-0.095811762 0.16249174 -0.23813094
-0.095809534 0.16256736 -0.23811516
-0.09580604 0.16264355 -0.23812532
-0.095802739 0.16271964 -0.23813152
-0.095799938 0.16279748 -0.23812567
-0.095796838 0.16287349 -0.23812786
-0.095794022 0.16294937 -0.23812404
-0.09579169 0.16302502 -0.23811026
-0.09578909 0.16310278 -0.23810041
-0.09578637 0.16317861 -0.23809461
-0.095783576 0.16325644 -0.23808876
-0.095780857 0.16333227 -0.23808296
-0.095777854 0.16340823 -0.23808315
-0.095774762 0.16348621 -0.2380833
-0.095771655 0.16356221 -0.23808548
-0.095768452 0.16363826 -0.23808967
-0.095765449 0.16371423 -0.23808986
-0.095762633 0.16379012 -0.23808604
-0.095759645 0.16386804 -0.2380842
-0.095756829 0.16394392 -0.2380804
-0.095754206 0.1640197 -0.23807259
-0.095751218 0.16409762 -0.23807073
-0.095748112 0.16417363 -0.23807293
-0.095745683 0.16424935 -0.23806113
-0.09574347 0.16432691 -0.23804331
-0.095740758 0.16440274 -0.2380375
-0.095737457 0.16447884 -0.23804368
-0.095734157 0.16455494 -0.23804986
-0.095731556 0.16463269 -0.23804003
-0.095728934 0.16470848 -0.23803222
-0.095725924 0.16478445 -0.23803242
-0.095723107 0.16486032 -0.2380286
-0.095720582 0.16493607 -0.23801881
-0.095717691 0.16501395 -0.23801497
-0.095714584 0.16508996 -0.23801714
-0.095712259 0.16516562 -0.23800334
-0.095710143 0.16524315 -0.23798352
-0.095707424 0.16531898 -0.23797773
-0.095704414 0.16539495 -0.23797792
-0.09570092 0.16547114 -0.23798808
-0.095697932 0.16554905 -0.23798624
-0.095695406 0.1656248 -0.23797643
-0.095692784 0.16570058 -0.23796865
-0.095689096 0.16577686 -0.23798281
-0.095685504 0.1658531 -0.23799498
-0.095682129 0.1659312 -0.23800111
-0.095680289 0.16600662 -0.23797734
-0.095678344 0.16608211 -0.23795557
-0.095679335 0.16615824 -0.23787183
-0.095677778 0.16623355 -0.23784205
-0.095674381 0.16630968 -0.23785023
-0.095670789 0.16638592 -0.23786241
-0.095667802 0.16646384 -0.23786056
-0.09566392 0.16654021 -0.23787871
-0.095660716 0.16661626 -0.23788291
-0.095658973 0.16669165 -0.23785713
-0.09565676 0.16676922 -0.2378393
