# .PCD v0.7 - Point Cloud Data file format
VERSION 0.7
FIELDS x y z
SIZE 4 4 4
TYPE F F F
COUNT 1 1 1
WIDTH 1380
HEIGHT 1
VIEWPOINT 0 0 0 1 0 0 0
POINTS 1380
DATA ascii
-0.19074112 0.16686137 -0.24273503
-0.19073801 0.16693738 -0.2427372
-0.19073501 0.16701531 -0.24273536
-0.19073209 0.16709124 -0.24273354
-0.19072908 0.1671672 -0.24273373
-0.1907263 0.16724503 -0.24272788
-0.19072376 0.16732077 -0.24271807
-0.19072075 0.16739674 -0.24271826
-0.19071744 0.16747284 -0.24272445
-0.19071455 0.16755071 -0.2427206
-0.19071183 0.16762654 -0.24271479
-0.19070911 0.16770239 -0.24270898
-0.1907067 0.16778004 -0.24269514
-0.19070378 0.16785596 -0.24269333
-0.19070049 0.16793206 -0.2426995
-0.19069749 0.16800998 -0.24269766
-0.19069476 0.16808581 -0.24269184
-0.19069214 0.16816162 -0.24268405
-0.19068915 0.16823953 -0.24268219
-0.19068575 0.16831568 -0.24269037
-0.19068284 0.1683916 -0.24268857
-0.19068012 0.16846743 -0.24268275
-0.1906772 0.16854335 -0.24268094
-0.1906745 0.16862114 -0.2426731
-0.19067158 0.16869706 -0.24267128
-0.1906684 0.16877507 -0.24267343
-0.19066568 0.16885091 -0.24266762
-0.19066314 0.16892666 -0.24265783
-0.19108327 0.15788689 -0.24301511
-0.19108026 0.15796286 -0.2430153
-0.19107756 0.15804066 -0.24300745
-0.19107483 0.15811649 -0.24300165
-0.19107182 0.15819246 -0.24300183
-0.19106863 0.15827046 -0.24300396
-0.19106534 0.15834656 -0.24301016
-0.19106224 0.15842453 -0.24301028
-0.19105972 0.15850027 -0.24300051
-0.19105712 0.15857802 -0.24299064
-0.19105431 0.15865585 -0.2429848
-0.1910516 0.15873168 -0.24297899
-0.1910485 0.15880965 -0.24297914
-0.19104569 0.15888552 -0.24297532
-0.19104269 0.15896344 -0.24297348
-0.19103949 0.1590395 -0.24297765
-0.19103639 0.15911551 -0.24297984
-0.19103329 0.15919349 -0.24297997
-0.19103067 0.15926927 -0.24297217
-0.19102825 0.15934692 -0.24295834
-0.19102527 0.15942484 -0.24295649
-0.19102235 0.15950076 -0.24295467
-0.19101916 0.15957877 -0.24295682
-0.19101605 0.1596548 -0.24295899
-0.19101343 0.15973058 -0.24295118
-0.19101053 0.15980846 -0.24294734
-0.19100754 0.15988638 -0.24294549
-0.19100453 0.15996234 -0.24294567
-0.19100153 0.16004026 -0.24294381
-0.19099863 0.16011618 -0.24294201
-0.19099563 0.1601941 -0.24294014
-0.19099231 0.16026825 -0.24294837
-0.19098932 0.16034617 -0.24294651
-0.19098662 0.16042396 -0.24293867
-0.19098409 0.16049971 -0.24292886
-0.190981 0.16057767 -0.24292901
-0.19097799 0.16065364 -0.24292919
-0.19097488 0.16072965 -0.24293137
-0.19097176 0.16080566 -0.24293357
-0.19096898 0.16088349 -0.2429277
-0.19096637 0.16096124 -0.24291787
-0.19096375 0.16103703 -0.24291006
-0.19096066 0.16111499 -0.24291021
-0.19095755 0.161191 -0.24291238
-0.19095434 0.16126706 -0.24291658
-0.19095123 0.16134307 -0.24291876
-0.19094843 0.1614209 -0.2429129
-0.19094573 0.16149868 -0.24290505
-0.1909432 0.16157444 -0.24289526
-0.19094029 0.16165036 -0.24289346
-0.1909371 0.16172837 -0.24289559
-0.19093409 0.16180433 -0.24289578
-0.1909312 0.16188221 -0.24289192
-0.19092856 0.16195799 -0.24288411
-0.19092645 0.16203552 -0.24286428
-0.19092336 0.16211349 -0.24286443
-0.19091985 0.16218773 -0.24287665
-0.19091657 0.16226578 -0.24288078
-0.19091374 0.16234165 -0.24287698
-0.19091134 0.1624193 -0.24286313
-0.19090873 0.16249706 -0.24285328
-0.1909062 0.1625728 -0.24284349
-0.19090408 0.16265033 -0.24282366
-0.19090128 0.16272816 -0.2428178
-0.19089709 0.1628027 -0.24284402
-0.19089329 0.16287902 -0.24286017
-0.19089109 0.16295658 -0.24284233
-0.19088867 0.16303425 -0.24282849
-0.19088528 0.16311038 -0.24283667
-0.19088158 0.16318665 -0.24285084
-0.19087838 0.16326271 -0.24285501
-0.19087565 0.16333854 -0.24284922
-0.19087325 0.16341621 -0.24283537
-0.19087026 0.16349413 -0.24283352
-0.19086695 0.16357023 -0.24283969
-0.19086403 0.16364615 -0.24283789
-0.19086151 0.16372189 -0.24282809
-0.19085862 0.16379976 -0.24282424
-0.19085589 0.16387559 -0.24281844
-0.19085319 0.16395339 -0.24281058
-0.19085038 0.16402927 -0.24280678
-0.19084726 0.16410528 -0.24280897
-0.19084398 0.16418333 -0.2428131
-0.19084096 0.1642593 -0.24281329
-0.19083805 0.16433522 -0.24281147
-0.19083525 0.16441305 -0.24280563
-0.19083244 0.16448893 -0.24280182
-0.19082923 0.16456498 -0.242806
-0.19082604 0.16464299 -0.24280813
-0.19082303 0.16471896 -0.24280833
-0.19082002 0.16479492 -0.24280851
-0.19081691 0.16487093 -0.2428107
-0.19081411 0.16494876 -0.24280484
-0.19081129 0.16502465 -0.24280104
-0.19080837 0.16510057 -0.24279922
-0.19080558 0.1651784 -0.24279338
-0.19080296 0.16525419 -0.24278557
-0.19079977 0.1653322 -0.24278772
-0.19079685 0.16540812 -0.2427859
-0.19079413 0.16548397 -0.2427801
-0.19079134 0.1655618 -0.24277425
-0.19078842 0.16563772 -0.24277243
-0.19078553 0.16571559 -0.24276859
-0.1907829 0.16579138 -0.24276078
-0.19078009 0.16586725 -0.24275698
-0.19077718 0.16594514 -0.24275312
-0.19077437 0.16602102 -0.24274932
-0.19077125 0.16609703 -0.24275151
-0.19076796 0.16617313 -0.24275768
-0.19076467 0.16625118 -0.24276182
-0.19076166 0.16632715 -0.242762
-0.19075856 0.16640316 -0.24276419
-0.19075575 0.16648099 -0.24275833
-0.19075303 0.16655682 -0.24275252
-0.19075012 0.16663274 -0.24275072
-0.19074741 0.16671053 -0.24274287
-0.19074459 0.16678642 -0.24273907
-0.19074169 0.16686234 -0.24273726
-0.19073857 0.16693835 -0.24273944
-0.19073568 0.16701622 -0.24273559
-0.19073266 0.16709219 -0.24273577
-0.19072975 0.16716811 -0.24273397
-0.19072686 0.16724598 -0.24273011
-0.19072422 0.16732177 -0.2427223
-0.19072121 0.16739774 -0.2427225
-0.19071801 0.16747379 -0.24272668
-0.19071521 0.16755164 -0.24272084
-0.19071259 0.16762742 -0.24271303
-0.19070977 0.1677033 -0.24270922
-0.19070727 0.167781 -0.24269739
-0.19070445 0.16785687 -0.24269357
-0.19070095 0.16793306 -0.24270374
-0.19069806 0.16801094 -0.24269989
-0.19069524 0.16808683 -0.24269608
-0.1906926 0.16816261 -0.24268828
-0.19068962 0.16824053 -0.24268642
-0.19068632 0.16831663 -0.24269262
-0.1906835 0.16839251 -0.2426888
-0.19068068 0.16846839 -0.24268499
-0.19067767 0.16854435 -0.24268518
-0.19067496 0.16862214 -0.24267733
-0.19067214 0.16869801 -0.24267352
-0.19066896 0.16877604 -0.24267566
-0.19066633 0.16885182 -0.24266785
-0.19066381 0.16892757 -0.24265806
-0.19108284 0.15788554 -0.24301353
-0.19107972 0.15796155 -0.24301572
-0.19107702 0.15803933 -0.24300787
-0.1910744 0.15811512 -0.24300006
-0.1910713 0.15819308 -0.24300021
-0.1910682 0.15826911 -0.2430024
-0.19106489 0.15834519 -0.24300858
-0.1910619 0.15842313 -0.24300671
-0.19105938 0.15849887 -0.24299693
-0.19105667 0.15857665 -0.24298906
-0.19105388 0.15865448 -0.24298322
-0.19105116 0.15873033 -0.24297743
-0.19104807 0.15880829 -0.24297756
-0.19104525 0.15888417 -0.24297374
-0.19104226 0.15896209 -0.2429719
-0.19103906 0.15903814 -0.24297607
-0.19103594 0.15911415 -0.24297827
-0.19103275 0.15919216 -0.24298041
-0.19103023 0.1592679 -0.2429706
-0.19102782 0.15934557 -0.24295676
-0.19102482 0.15942349 -0.24295491
-0.1910219 0.15949941 -0.24295309
-0.19101873 0.15957741 -0.24295524
-0.19101562 0.15965343 -0.24295741
-0.19101281 0.15973125 -0.24295157
-0.19101 0.15980713 -0.24294776
-0.191007 0.15988505 -0.24294591
-0.1910041 0.15996097 -0.24294409
-0.1910011 0.1600389 -0.24294224
-0.19099818 0.16011482 -0.24294043
-0.19099529 0.1601927 -0.24293658
-0.19099189 0.16026884 -0.24294475
-0.19098887 0.16034481 -0.24294494
-0.19098617 0.16042259 -0.24293709
-0.19098355 0.16049838 -0.24292928
-0.19098055 0.1605763 -0.24292743
-0.19097754 0.16065226 -0.24292763
-0.19097434 0.16072832 -0.24293181
-0.19097133 0.16080429 -0.24293199
-0.19096842 0.16088217 -0.24292815
-0.19096592 0.16095987 -0.24291629
-0.1909633 0.16103566 -0.24290851
-0.19096021 0.16111362 -0.24290863
-0.1909571 0.16118963 -0.24291083
-0.19095398 0.16126564 -0.24291301
-0.19095078 0.1613417 -0.24291718
-0.19094799 0.16141953 -0.24291134
-0.19094528 0.16149732 -0.24290349
-0.19094266 0.16157311 -0.24289569
-0.19093977 0.16165099 -0.24289183
-0.19093665 0.161727 -0.24289402
-0.19093364 0.16180296 -0.2428942
-0.19093075 0.16188084 -0.24289036
-0.19092813 0.16195664 -0.24288255
-0.19092591 0.1620342 -0.24286471
-0.19092302 0.16211209 -0.24286087
-0.19091941 0.16218831 -0.24287304
-0.19091602 0.16226445 -0.24288121
-0.1909133 0.16234028 -0.2428754
-0.19091079 0.16241799 -0.24286357
-0.19090819 0.16249573 -0.24285372
-0.19090566 0.16257147 -0.24284393
-0.19090354 0.16264901 -0.24282409
-0.19090085 0.16272679 -0.24281624
-0.19089665 0.16280133 -0.24284244
-0.19089286 0.16287765 -0.2428586
-0.19089054 0.16295527 -0.24284276
-0.19088803 0.16303296 -0.24283093
-0.19088472 0.16310906 -0.2428371
-0.19088104 0.16318533 -0.24285127
-0.19087784 0.16326138 -0.24285546
-0.19087513 0.16333918 -0.24284761
-0.1908727 0.16341488 -0.24283582
-0.19086981 0.16349275 -0.24283196
-0.1908665 0.16356885 -0.24283814
-0.19086349 0.16364482 -0.24283832
-0.19086096 0.16372056 -0.24282852
-0.19085807 0.16379845 -0.24282467
-0.19085535 0.16387428 -0.24281886
-0.19085264 0.16395207 -0.24281102
-0.19084983 0.16402794 -0.24280721
-0.19084683 0.16410586 -0.24280536
-0.19084343 0.16418201 -0.24281353
-0.19084042 0.16425797 -0.24281374
-0.19083741 0.16433394 -0.24281392
-0.19083472 0.16441174 -0.24280606
-0.19083199 0.16448757 -0.24280027
-0.1908288 0.16456558 -0.2428024
-0.19082569 0.16464159 -0.24280459
-0.19082268 0.16471756 -0.24280477
-0.19081967 0.16479352 -0.24280496
-0.19081646 0.16486958 -0.24280915
-0.19081357 0.16494745 -0.24280527
-0.19081084 0.16502328 -0.24279949
-0.19080783 0.16509925 -0.24279967
-0.19080503 0.16517708 -0.24279383
-0.19080241 0.16525288 -0.24278602
-0.19079942 0.1653308 -0.24278417
-0.19079641 0.16540676 -0.24278435
-0.19079378 0.16548255 -0.24277654
-0.19079089 0.16556042 -0.2427727
-0.19078788 0.16563639 -0.24277288
-0.19078498 0.16571426 -0.24276903
-0.19078246 0.16579002 -0.24275923
-0.19077963 0.1658659 -0.24275541
-0.19077674 0.16594377 -0.24275157
-0.19077392 0.16601965 -0.24274777
-0.19077083 0.16609761 -0.2427479
-0.19076753 0.16617371 -0.24275409
-0.19076432 0.16624977 -0.24275827
-0.19076121 0.16632578 -0.24276045
-0.19075811 0.16640179 -0.24276264
-0.19075531 0.16647962 -0.24275678
-0.19075258 0.16655545 -0.24275097
-0.19074968 0.16663137 -0.24274917
-0.19074677 0.16670926 -0.24274531
-0.19074415 0.16678505 -0.24273752
-0.19074123 0.16686097 -0.24273571
-0.19073813 0.16693698 -0.24273789
-0.19073513 0.1670149 -0.24273604
-0.19073221 0.16709082 -0.24273422
-0.1907292 0.16716678 -0.24273442
-0.19072631 0.16724466 -0.24273056
-0.19072378 0.16732042 -0.24272075
-0.19072087 0.16739634 -0.24271895
-0.19071756 0.16747244 -0.24272513
-0.19071467 0.16755031 -0.24272129
-0.19071195 0.16762614 -0.24271548
-0.19070922 0.16770197 -0.24270967
-0.19070682 0.16777964 -0.24269584
-0.1907039 0.16785556 -0.24269402
-0.19070059 0.16793166 -0.2427002
-0.19069761 0.16800958 -0.24269834
-0.19069488 0.16808541 -0.24269253
-0.19069226 0.1681612 -0.24268475
-0.19068927 0.16823912 -0.24268287
-0.19068587 0.16831526 -0.24269107
-0.19068295 0.16839118 -0.24268925
-0.19068013 0.16846706 -0.24268544
-0.19067721 0.16854298 -0.24268365
-0.19067462 0.16862074 -0.24267378
-0.1906717 0.16869666 -0.24267198
-0.19066851 0.16877466 -0.24267411
-0.1906658 0.1688505 -0.24266832
-0.19066326 0.16892624 -0.24265853
-0.19108048 0.15788755 -0.24301478
-0.19107737 0.15796356 -0.24301696
-0.19107467 0.15804134 -0.24300912
-0.19107205 0.15811715 -0.24300131
-0.19106895 0.15819511 -0.24300146
-0.19106585 0.15827112 -0.24300364
-0.19106254 0.15834722 -0.24300982
-0.19105954 0.15842514 -0.24300796
-0.19105703 0.15850088 -0.24299817
-0.19105431 0.15857866 -0.24299031
-0.19105153 0.15865651 -0.24298447
-0.1910488 0.15873234 -0.24297866
-0.19104572 0.1588103 -0.24297881
-0.1910429 0.15888618 -0.242975
-0.1910399 0.1589641 -0.24297315
-0.1910367 0.15904015 -0.24297732
-0.19103359 0.15911616 -0.2429795
-0.1910304 0.15919417 -0.24298164
-0.19102788 0.15926991 -0.24297184
-0.19102547 0.15934758 -0.24295801
-0.19102247 0.1594255 -0.24295615
-0.19101956 0.15950142 -0.24295434
-0.19101638 0.15957943 -0.24295647
-0.19101326 0.15965544 -0.24295866
-0.19101048 0.15973327 -0.24295281
-0.19100775 0.15980911 -0.24294701
-0.19100475 0.15988703 -0.24294513
-0.19100174 0.159963 -0.24294534
-0.19099875 0.16004092 -0.24294348
-0.19099584 0.16011684 -0.24294168
-0.19099294 0.16019471 -0.2429378
-0.19098954 0.16027085 -0.242946
-0.19098653 0.16034682 -0.24294618
-0.19098383 0.16042461 -0.24293834
-0.19098121 0.16050039 -0.24293053
-0.19097812 0.16057837 -0.24293067
-0.1909752 0.16065429 -0.24292886
-0.190972 0.16073035 -0.24293303
-0.19096899 0.16080631 -0.24293323
-0.19096608 0.16088419 -0.24292937
-0.19096358 0.16096188 -0.24291754
-0.19096106 0.16103764 -0.24290773
-0.19095787 0.16111565 -0.24290988
-0.19095476 0.16119166 -0.24291205
-0.19095156 0.1612677 -0.24291623
-0.19094844 0.16134371 -0.24291842
-0.19094566 0.16142155 -0.24291256
-0.19094294 0.16149934 -0.24290472
-0.19094032 0.16157512 -0.24289691
-0.1909375 0.161651 -0.24289311
-0.19093432 0.16172901 -0.24289525
-0.19093131 0.16180497 -0.24289544
-0.19092841 0.16188286 -0.24289158
-0.19092579 0.16195865 -0.24288379
-0.19092368 0.16203618 -0.24286395
-0.19092068 0.1621141 -0.24286211
-0.19091709 0.16219032 -0.24287426
-0.19091378 0.16226642 -0.24288045
-0.19091097 0.1623423 -0.24287663
-0.19090846 0.16242 -0.24286479
-0.19090585 0.16249774 -0.24285495
-0.19090334 0.16257349 -0.24284515
-0.1909012 0.16265102 -0.24282533
-0.19089861 0.16272876 -0.24281546
-0.19089441 0.16280331 -0.24284166
-0.19089052 0.16287966 -0.24285984
-0.19088821 0.16295728 -0.24284399
-0.1908858 0.16303493 -0.24283016
-0.1908824 0.16311108 -0.24283832
-0.19087872 0.16318735 -0.24285249
-0.1908755 0.16326341 -0.24285668
-0.19087279 0.16333924 -0.24285087
-0.19087037 0.16341689 -0.24283704
-0.19086748 0.16349477 -0.2428332
-0.19086418 0.16357087 -0.24283937
-0.19086117 0.16364683 -0.24283955
-0.19085863 0.16372259 -0.24282975
-0.19085574 0.16380046 -0.2428259
-0.19085303 0.1638763 -0.2428201
-0.19085042 0.16395403 -0.24281025
-0.19084761 0.16402993 -0.24280643
-0.19084452 0.16410789 -0.24280658
-0.19084111 0.16418402 -0.24281475
-0.1908381 0.16426 -0.24281496
-0.19083519 0.16433592 -0.24281314
-0.19083239 0.16441375 -0.24280728
-0.19082977 0.16448954 -0.24279949
-0.19082648 0.16456759 -0.24280362
-0.19082338 0.1646436 -0.24280581
-0.19082037 0.16471957 -0.24280599
-0.19081736 0.16479553 -0.24280618
-0.19081424 0.16487154 -0.24280836
-0.19081125 0.16494946 -0.24280649
-0.19080853 0.16502529 -0.24280071
-0.19080551 0.16510126 -0.24280089
-0.19080272 0.1651791 -0.24279504
-0.1908001 0.16525489 -0.24278724
-0.19079711 0.16533281 -0.24278538
-0.1907941 0.16540878 -0.24278557
-0.19079147 0.16548456 -0.24277776
-0.19078857 0.16556245 -0.24277392
-0.19078556 0.16563842 -0.2427741
-0.19078267 0.16571629 -0.24277025
-0.19078013 0.16579203 -0.24276045
-0.19077732 0.16586791 -0.24275663
-0.19077443 0.16594578 -0.24275279
-0.1907717 0.16602163 -0.24274698
-0.19076853 0.16609964 -0.24274912
-0.19076522 0.16617572 -0.24275529
-0.19076201 0.16625178 -0.24275948
-0.190759 0.16632774 -0.24275967
-0.1907558 0.1664038 -0.24276385
-0.190753 0.16648164 -0.24275801
-0.19075027 0.16655748 -0.24275219
-0.19074737 0.1666334 -0.24275038
-0.19074456 0.16671123 -0.24274454
-0.19074184 0.16678706 -0.24273872
-0.19073893 0.16686298 -0.24273692
-0.19073582 0.16693899 -0.24273911
-0.19073282 0.16701691 -0.24273725
-0.19072992 0.16709284 -0.24273545
-0.19072691 0.16716881 -0.24273562
-0.190724 0.16724668 -0.24273178
-0.19072148 0.16732243 -0.24272197
-0.19071856 0.16739835 -0.24272016
-0.19071525 0.16747445 -0.24272634
-0.19071236 0.16755232 -0.24272248
-0.19070974 0.16762811 -0.24271469
-0.19070692 0.167704 -0.24271089
-0.19070451 0.16778165 -0.24269703
-0.1907016 0.16785757 -0.24269523
-0.1906983 0.16793367 -0.24270141
-0.1906953 0.16801159 -0.24269956
-0.19069259 0.16808742 -0.24269375
-0.19068997 0.16816323 -0.24268594
-0.19068697 0.16824114 -0.2426841
-0.19068357 0.16831729 -0.24269226
-0.19068065 0.16839321 -0.24269046
-0.19067793 0.16846904 -0.24268466
-0.19067502 0.16854496 -0.24268284
-0.19067232 0.16862275 -0.24267501
-0.1906694 0.16869867 -0.24267319
-0.19066621 0.16877668 -0.24267533
-0.1906635 0.16885251 -0.24266952
-0.19066097 0.16892827 -0.24265972
-0.19108009 0.15788841 -0.24301521
-0.19107708 0.15796438 -0.24301541
-0.19107439 0.15804216 -0.24300756
-0.19107176 0.15811795 -0.24299975
-0.19106868 0.15819593 -0.24299988
-0.19106546 0.15827198 -0.24300407
-0.19106217 0.15834807 -0.24301025
-0.19105907 0.15842603 -0.24301039
-0.19105664 0.15850174 -0.2429986
-0.19105394 0.15857953 -0.24299075
-0.19105124 0.15865731 -0.24298289
-0.19104843 0.1587332 -0.24297909
-0.19104533 0.15881117 -0.24297923
-0.19104251 0.15888704 -0.24297543
-0.19103953 0.15896496 -0.24297357
-0.19103631 0.15904102 -0.24297774
-0.19103321 0.15911703 -0.24297994
-0.19103011 0.15919499 -0.24298008
-0.1910276 0.15927073 -0.24297029
-0.19102509 0.15934844 -0.24295843
-0.1910221 0.15942636 -0.24295658
-0.19101918 0.15950228 -0.24295476
-0.19101599 0.15958029 -0.24295691
-0.19101289 0.1596563 -0.2429591
-0.19101016 0.15973213 -0.2429533
-0.19100736 0.15980996 -0.24294743
-0.19100438 0.15988788 -0.24294558
-0.19100136 0.15996385 -0.24294576
-0.19099838 0.16004178 -0.24294391
-0.19099545 0.1601177 -0.24294209
-0.19099256 0.16019557 -0.24293825
-0.19098917 0.16027172 -0.24294642
-0.19098616 0.16034769 -0.24294661
-0.19098344 0.16042547 -0.24293876
-0.19098093 0.16050121 -0.24292895
-0.19097783 0.16057917 -0.2429291
-0.19097482 0.16065514 -0.24292928
-0.19097172 0.16073115 -0.24293149
-0.1909686 0.16080716 -0.24293366
-0.1909658 0.16088501 -0.24292782
-0.19096319 0.16096275 -0.24291795
-0.19096057 0.16103853 -0.24291016
-0.19095759 0.16111645 -0.2429083
-0.19095437 0.16119251 -0.24291249
-0.19095127 0.16126852 -0.24291468
-0.19094807 0.16134457 -0.24291885
-0.19094527 0.1614224 -0.24291301
-0.19094266 0.16150016 -0.24290316
-0.19094004 0.16157594 -0.24289536
-0.19093722 0.16165182 -0.24289155
-0.19093403 0.16172983 -0.2428937
-0.19093092 0.16180584 -0.24289587
-0.19092803 0.16188371 -0.24289203
-0.1909254 0.16195951 -0.24288422
-0.19092329 0.16203703 -0.24286439
-0.1909202 0.16211499 -0.24286452
-0.19091678 0.16218919 -0.24287474
-0.19091339 0.16226728 -0.24288088
-0.19091068 0.16234311 -0.24287507
-0.19090816 0.16242082 -0.24286324
-0.19090557 0.16249856 -0.24285337
-0.19090304 0.16257431 -0.2428436
-0.19090092 0.16265184 -0.24282375
-0.19089812 0.16272967 -0.24281791
-0.19089383 0.16280425 -0.2428461
-0.19089013 0.16288052 -0.24286027
-0.19088793 0.1629581 -0.24284244
-0.19088551 0.16303575 -0.24282859
-0.19088212 0.1631119 -0.24283677
-0.19087842 0.16318817 -0.24285093
-0.19087522 0.16326421 -0.24285513
-0.19087252 0.16334201 -0.24284726
-0.19087009 0.16341771 -0.24283548
-0.1908671 0.16349563 -0.24283361
-0.19086379 0.16357173 -0.2428398
-0.19086087 0.16364765 -0.242838
-0.19085827 0.16372541 -0.24282815
-0.19085555 0.16380124 -0.24282233
-0.19085273 0.16387711 -0.24281853
-0.19085003 0.1639549 -0.2428107
-0.19084722 0.16403078 -0.24280688
-0.1908441 0.16410679 -0.24280906
-0.19084083 0.16418484 -0.2428132
-0.19083782 0.1642608 -0.24281338
-0.19083489 0.16433673 -0.24281158
-0.19083209 0.16441457 -0.24280572
-0.19082928 0.16449045 -0.2428019
-0.19082607 0.1645665 -0.24280611
-0.19082288 0.16464451 -0.24280824
-0.19081987 0.16472048 -0.24280843
-0.19081686 0.16479644 -0.24280861
-0.19081385 0.16487241 -0.24280879
-0.19081095 0.16495028 -0.24280494
-0.19080813 0.16502616 -0.24280113
-0.19080523 0.16510208 -0.24279933
-0.19080243 0.16517991 -0.24279347
-0.1907998 0.16525571 -0.24278568
-0.19079672 0.16533367 -0.24278581
-0.19079369 0.16540964 -0.24278601
-0.19079098 0.16548547 -0.24278021
-0.19078818 0.1655633 -0.24277435
-0.19078526 0.16563922 -0.24277255
-0.19078237 0.16571711 -0.24276869
-0.19077975 0.1657929 -0.24276088
-0.19077682 0.16586882 -0.24275908
-0.19077404 0.16594665 -0.24275322
-0.19077131 0.16602248 -0.24274743
-0.19076812 0.16610049 -0.24274956
-0.1907648 0.16617464 -0.24275778
-0.19076161 0.16625264 -0.24275991
-0.1907586 0.16632861 -0.24276011
-0.1907555 0.16640462 -0.2427623
-0.1907526 0.16648249 -0.24275844
-0.19074988 0.16655833 -0.24275263
-0.19074707 0.16663422 -0.24274883
-0.19074427 0.16671205 -0.24274297
-0.19074154 0.16678788 -0.24273717
-0.19073853 0.16686384 -0.24273735
-0.19073541 0.16693985 -0.24273954
-0.19073243 0.16701777 -0.24273768
-0.19072951 0.16709369 -0.24273588
-0.1907265 0.16716966 -0.24273607
-0.1907237 0.1672475 -0.24273022
-0.19072108 0.16732329 -0.24272242
-0.19071807 0.16739926 -0.2427226
-0.19071487 0.16747531 -0.24272679
-0.19071206 0.16755314 -0.24272093
-0.19070944 0.16762893 -0.24271312
-0.19070663 0.16770481 -0.24270932
-0.19070412 0.16778252 -0.24269748
-0.19070131 0.16785839 -0.24269366
-0.19069789 0.16793454 -0.24270186
-0.19069491 0.16801246 -0.2427
-0.19069219 0.16808829 -0.2426942
-0.19068946 0.16816412 -0.24268839
-0.19068648 0.16824204 -0.24268654
-0.19068317 0.16831814 -0.24269271
-0.19068035 0.16839401 -0.24268889
-0.19067754 0.16846991 -0.24268509
-0.19067462 0.16854583 -0.24268329
-0.19067182 0.16862366 -0.24267744
-0.190669 0.16869953 -0.24267362
-0.19066581 0.16877754 -0.24267575
-0.19066319 0.16885333 -0.24266797
-0.19066067 0.16892909 -0.24265817
-0.19108398 0.15788679 -0.24301291
-0.19108087 0.1579628 -0.24301508
-0.19107817 0.1580406 -0.24300724
-0.19107555 0.15811639 -0.24299943
-0.19107245 0.15819435 -0.24299958
-0.19106935 0.15827036 -0.24300176
-0.19106604 0.15834646 -0.24300794
-0.19106305 0.15842438 -0.24300608
-0.19106062 0.15850008 -0.24299428
-0.19105783 0.1585779 -0.24298844
-0.19105503 0.15865575 -0.2429826
-0.1910523 0.15873158 -0.24297678
-0.19104931 0.1588095 -0.24297494
-0.1910464 0.15888542 -0.24297312
-0.19104341 0.15896334 -0.24297127
-0.1910402 0.15903939 -0.24297544
-0.19103709 0.1591154 -0.24297762
-0.19103391 0.15919341 -0.24297976
-0.19103138 0.15926915 -0.24296996
-0.19102897 0.15934682 -0.24295613
-0.19102597 0.15942474 -0.24295427
-0.19102307 0.15950066 -0.24295247
-0.19101988 0.15957867 -0.2429546
-0.19101676 0.15965468 -0.24295679
-0.19101398 0.15973252 -0.24295093
-0.19101125 0.15980835 -0.24294513
-0.19100825 0.15988627 -0.24294326
-0.19100524 0.15996224 -0.24294347
-0.19100235 0.16004011 -0.24293959
-0.19099934 0.16011608 -0.2429398
-0.19099645 0.16019395 -0.24293593
-0.19099315 0.16027005 -0.24294212
-0.19099003 0.16034606 -0.2429443
-0.19098733 0.16042385 -0.24293646
-0.19098471 0.16049965 -0.24292865
-0.19098163 0.16057761 -0.2429288
-0.19097871 0.16065353 -0.24292699
-0.1909755 0.16072959 -0.24293116
-0.19097249 0.16080555 -0.24293137
-0.1909696 0.16088343 -0.24292749
-0.19096708 0.16096112 -0.24291566
-0.19096456 0.16103688 -0.24290586
-0.19096148 0.16111484 -0.242906
-0.19095826 0.1611909 -0.24291018
-0.19095516 0.16126691 -0.24291237
-0.19095196 0.16134296 -0.24291655
-0.19094916 0.16142079 -0.24291068
-0.19094646 0.16149858 -0.24290285
-0.19094384 0.16157436 -0.24289504
-0.19094093 0.16165225 -0.24289119
-0.19093792 0.16172822 -0.24289137
-0.19093482 0.16180423 -0.24289358
-0.19093192 0.1618821 -0.2428897
-0.19092929 0.16195789 -0.24288191
-0.19092709 0.16203547 -0.24286407
-0.19092418 0.16211334 -0.24286023
-0.19092059 0.16218957 -0.24287239
-0.1909173 0.16226566 -0.24287857
-0.19091447 0.16234154 -0.24287477
-0.19091196 0.16241924 -0.24286291
-0.19090936 0.16249698 -0.24285308
-0.19090684 0.16257274 -0.24284327
-0.19090474 0.16265221 -0.2428214
-0.19090211 0.16272801 -0.2428136
-0.19089791 0.16280255 -0.2428398
-0.19089404 0.1628789 -0.24285796
-0.19089173 0.16295652 -0.24284212
-0.19088931 0.16303417 -0.24282828
-0.19088592 0.16311032 -0.24283646
-0.19088222 0.16318659 -0.24285063
-0.19087902 0.16326265 -0.2428548
-0.19087632 0.16334043 -0.24284697
-0.19087389 0.16341613 -0.24283516
-0.19087099 0.16349402 -0.24283132
-0.19086769 0.16357012 -0.24283749
-0.19086468 0.16364609 -0.24283767
-0.19086204 0.16372187 -0.24282989
-0.19085926 0.1637997 -0.24282402
-0.19085653 0.16387554 -0.24281822
-0.19085392 0.16395329 -0.24280837
-0.19085111 0.16402917 -0.24280457
-0.19084802 0.16410713 -0.24280471
-0.19084471 0.16418323 -0.24281089
-0.19084162 0.16425924 -0.24281308
-0.19083869 0.16433516 -0.24281126
-0.19083589 0.16441299 -0.24280542
-0.19083327 0.16448878 -0.24279761
-0.19082688 0.16464284 -0.24280393
-0.19082387 0.16471881 -0.24280411
-0.19082086 0.16479477 -0.24280432
-0.19081765 0.16487083 -0.24280849
-0.19081476 0.1649487 -0.24280463
-0.19081204 0.16502455 -0.24279884
-0.19080903 0.16510051 -0.24279901
-0.19080622 0.16517834 -0.24279317
-0.1908036 0.16525413 -0.24278536
-0.19080061 0.16533205 -0.24278352
-0.1907977 0.16540797 -0.2427817
-0.19079497 0.1654838 -0.24277589
-0.19079217 0.16556165 -0.24277005
-0.19078907 0.16563766 -0.24277222
-0.19078618 0.16571553 -0.24276838
-0.19078365 0.16579127 -0.24275857
-0.19078083 0.16586715 -0.24275476
-0.19077794 0.16594504 -0.24275091
-0.19077522 0.16602087 -0.2427451
-0.19076873 0.16617498 -0.24275343
-0.19076553 0.16625103 -0.24275762
-0.1907625 0.166327 -0.2427578
-0.1907593 0.16640304 -0.24276197
-0.19075651 0.16648088 -0.24275613
-0.19075388 0.16655667 -0.24274832
-0.19075087 0.16663264 -0.24274851
-0.19074798 0.16671051 -0.24274465
-0.19074535 0.1667863 -0.24273685
-0.19074243 0.16686222 -0.24273506
-0.19073933 0.16693823 -0.24273723
-0.19073634 0.16701616 -0.24273539
-0.19073342 0.16709208 -0.24273357
-0.19073041 0.16716805 -0.24273376
-0.19072762 0.16724588 -0.24272791
-0.19072509 0.16732162 -0.2427181
-0.19072208 0.16739759 -0.24271829
-0.19071877 0.16747369 -0.24272448
-0.19071588 0.16755156 -0.24272062
-0.19071315 0.16762741 -0.24271482
-0.19071044 0.16770324 -0.24270901
-0.19070803 0.16778089 -0.24269517
-0.19070511 0.16785681 -0.24269336
-0.19070181 0.16793291 -0.24269953
-0.19069882 0.16801083 -0.24269769
-0.19069609 0.16808666 -0.24269187
-0.19069347 0.16816247 -0.24268408
-0.19069049 0.16824038 -0.24268222
-0.19068708 0.16831653 -0.2426904
-0.19068417 0.16839245 -0.2426886
-0.19068144 0.16846828 -0.24268278
-0.19067854 0.1685442 -0.24268097
-0.19067582 0.16862199 -0.24267313
-0.19067292 0.16869791 -0.24267131
-0.19066973 0.16877592 -0.24267346
-0.190667 0.16885176 -0.24266765
-0.19108491 0.15788615 -0.24301267
-0.19108181 0.15796216 -0.24301484
-0.1910791 0.15803996 -0.243007
-0.19107647 0.15811574 -0.2429992
-0.19107339 0.15819371 -0.24299935
-0.19107027 0.15826972 -0.24300152
-0.19106698 0.15834582 -0.2430077
-0.1910639 0.15842378 -0.24300784
-0.19106145 0.15849948 -0.24299605
-0.19105875 0.15857728 -0.2429882
-0.19105595 0.15865511 -0.24298236
-0.19105324 0.15873094 -0.24297655
-0.19105016 0.1588089 -0.2429767
-0.19104734 0.15888478 -0.24297288
-0.19104435 0.1589627 -0.24297103
-0.19104114 0.15903875 -0.24297521
-0.19103803 0.15911476 -0.2429774
-0.19103484 0.15919277 -0.24297953
-0.19103232 0.15926853 -0.24296972
-0.19102991 0.15934618 -0.24295589
-0.19102682 0.15942414 -0.24295604
-0.1910239 0.15950006 -0.24295422
-0.19102082 0.15957803 -0.24295436
-0.1910177 0.15965404 -0.24295655
-0.1910149 0.15973188 -0.24295069
-0.19100919 0.15988563 -0.24294303
-0.19100618 0.1599616 -0.24294323
-0.19100319 0.16003951 -0.24294136
-0.19100028 0.16011544 -0.24293956
-0.19099729 0.16019335 -0.2429377
-0.19099398 0.16026945 -0.24294388
-0.19099087 0.16034546 -0.24294606
-0.19098817 0.16042326 -0.24293822
-0.19098565 0.16049901 -0.24292842
-0.19098255 0.16057697 -0.24292856
-0.19097964 0.16065289 -0.24292675
-0.19097644 0.16072895 -0.24293092
-0.19097342 0.16080491 -0.24293113
-0.19096802 0.1609605 -0.24291542
-0.1909654 0.16103628 -0.24290761
-0.19096231 0.16111425 -0.24290776
-0.1909591 0.1611903 -0.24291193
-0.190956 0.16126631 -0.24291413
-0.19095288 0.16134232 -0.24291632
-0.19095008 0.16142015 -0.24291046
-0.19094738 0.16149794 -0.24290261
-0.19094476 0.16157374 -0.24289481
-0.19094194 0.16164961 -0.242891
-0.19093876 0.16172762 -0.24289313
-0.19093575 0.16180359 -0.24289334
-0.19093286 0.16188146 -0.24288946
-0.19093023 0.16195725 -0.24288169
-0.19092801 0.16203482 -0.24286383
-0.19092502 0.16211274 -0.24286199
-0.19092153 0.16218893 -0.24287215
-0.19091812 0.16226508 -0.24288033
-0.19091541 0.16234091 -0.24287453
-0.1909129 0.1624186 -0.24286269
-0.19091029 0.16249636 -0.24285284
-0.19090776 0.1625721 -0.24284305
-0.19090565 0.16264963 -0.24282321
-0.19090295 0.16272742 -0.24281536
-0.19089875 0.16280195 -0.24284156
-0.19089496 0.16287827 -0.24285772
-0.19089265 0.16295588 -0.24284188
-0.19089024 0.16303355 -0.24282804
-0.19088684 0.16310968 -0.24283622
-0.19088314 0.16318595 -0.24285039
-0.19087994 0.16326201 -0.24285457
-0.19087724 0.16333979 -0.24284673
-0.19087481 0.16341551 -0.24283493
-0.19087182 0.16349342 -0.24283308
-0.19086853 0.16356952 -0.24283925
-0.19086561 0.16364545 -0.24283744
-0.19086307 0.16372119 -0.24282765
-0.19086018 0.16379906 -0.24282379
-0.19085747 0.16387489 -0.242818
-0.19085486 0.16395265 -0.24280813
-0.19085194 0.16402857 -0.24280633
-0.19084893 0.16410454 -0.24280652
-0.19084555 0.16418263 -0.24281265
-0.19084254 0.1642586 -0.24281284
-0.19083962 0.16433452 -0.24281102
-0.19083683 0.16441235 -0.24280518
-0.19083411 0.16448818 -0.24279937
-0.19083092 0.16456619 -0.24280152
-0.19082771 0.16464224 -0.24280569
-0.19082481 0.16471817 -0.24280387
-0.19082178 0.16479413 -0.24280408
-0.19081569 0.16494808 -0.24280439
-0.19081296 0.16502391 -0.2427986
-0.19080995 0.16509987 -0.24279878
-0.19080716 0.1651777 -0.24279293
-0.19080454 0.16525349 -0.24278513
-0.19080155 0.16533141 -0.24278328
-0.19079854 0.16540737 -0.24278346
-0.19079591 0.16548318 -0.24277566
-0.19079301 0.16556105 -0.2427718
-0.19079 0.16563702 -0.24277198
-0.19078711 0.16571489 -0.24276814
-0.19078457 0.16579063 -0.24275833
-0.19078176 0.16586652 -0.24275453
-0.19077887 0.1659444 -0.24275067
-0.19077605 0.16602027 -0.24274687
-0.19077286 0.16609828 -0.24274901
-0.19076955 0.16617438 -0.24275519
-0.19076635 0.16625044 -0.24275938
-0.19076334 0.1663264 -0.24275956
-0.19076023 0.16640241 -0.24276175
-0.19075744 0.16648024 -0.24275589
-0.19075471 0.16655608 -0.24275009
-0.19075181 0.166632 -0.24274829
-0.190749 0.16670983 -0.24274242
-0.19074628 0.16678567 -0.24273662
-0.19074327 0.16686164 -0.24273682
-0.19074026 0.1669376 -0.242737
-0.19073726 0.16701552 -0.24273515
-0.19073436 0.16709144 -0.24273333
-0.19073133 0.16716741 -0.24273352
-0.19072844 0.16724528 -0.24272966
-0.19072592 0.16732103 -0.24271986
-0.19072291 0.16739699 -0.24272007
-0.19071969 0.16747305 -0.24272424
-0.1907168 0.16755094 -0.2427204
-0.19071418 0.16762672 -0.24271259
-0.19071136 0.1677026 -0.24270877
-0.19070886 0.1677803 -0.24269694
-0.19070604 0.16785617 -0.24269313
-0.19070274 0.16793227 -0.2426993
-0.19069974 0.16801019 -0.24269745
-0.19069703 0.16808604 -0.24269164
-0.1906943 0.16816187 -0.24268584
-0.19069131 0.16823979 -0.24268398
-0.19068791 0.16831593 -0.24269217
-0.19068509 0.16839181 -0.24268836
-0.19068237 0.16846764 -0.24268255
-0.19067675 0.16862136 -0.24267289
-0.19067384 0.16869728 -0.24267109
-0.19067065 0.16877529 -0.24267322
-0.19066793 0.16885112 -0.24266741
-0.19108285 0.15788709 -0.24301489
-0.19107984 0.15796305 -0.24301508
-0.19107713 0.15804084 -0.24300721
-0.19107442 0.15811667 -0.24300142
-0.19107141 0.15819263 -0.24300161
-0.19106822 0.15827066 -0.24300374
-0.19106491 0.15834674 -0.24300992
-0.19106182 0.15842471 -0.24301006
-0.19105929 0.15850046 -0.24300027
-0.1910567 0.1585782 -0.24299042
-0.1910539 0.15865603 -0.24298456
-0.19105117 0.15873188 -0.24297875
-0.19104809 0.15880984 -0.2429789
-0.19104527 0.15888572 -0.24297509
-0.19104217 0.15896368 -0.24297523
-0.19103907 0.15903969 -0.24297741
-0.19103596 0.1591157 -0.2429796
-0.19103287 0.15919366 -0.24297975
-0.19103025 0.15926945 -0.24297194
-0.19102784 0.15934712 -0.2429581
-0.19102484 0.15942504 -0.24295625
-0.19102193 0.15950096 -0.24295443
-0.19101875 0.15957896 -0.24295658
-0.19101563 0.15965497 -0.24295875
-0.19101301 0.15973076 -0.24295096
-0.19101012 0.15980864 -0.2429471
-0.19100712 0.15988655 -0.24294525
-0.19100401 0.15996256 -0.24294743
-0.1910011 0.1600385 -0.24294563
-0.1909982 0.16011637 -0.24294177
-0.19099522 0.16019429 -0.24293992
-0.19099189 0.16026843 -0.24294814
-0.19098879 0.1603464 -0.24294828
-0.1909862 0.16042414 -0.24293843
-0.19098367 0.16049989 -0.24292862
-0.19098058 0.16057785 -0.24292877
-0.19097757 0.16065381 -0.24292895
-0.19097446 0.16072983 -0.24293114
-0.19097134 0.16080584 -0.24293333
-0.19096856 0.16088368 -0.24292748
-0.19096595 0.16096142 -0.24291763
-0.19096333 0.16103721 -0.24290983
-0.19096023 0.16111517 -0.24290997
-0.19095702 0.16119123 -0.24291416
-0.19095393 0.16126724 -0.24291635
-0.19095081 0.16134325 -0.24291852
-0.19094801 0.16142108 -0.24291268
-0.19094531 0.16149887 -0.24290481
-0.19094269 0.16157466 -0.24289703
-0.19093987 0.16165054 -0.24289322
-0.19093668 0.16172855 -0.24289536
-0.19093367 0.16180451 -0.24289554
-0.19093077 0.16188239 -0.2428917
-0.19092815 0.16195819 -0.24288389
-0.19092594 0.16203575 -0.24286605
-0.19092295 0.16211367 -0.24286419
-0.19091943 0.1621879 -0.24287641
-0.19091615 0.16226596 -0.24288055
-0.19091332 0.16234183 -0.24287674
-0.19091092 0.1624195 -0.24286291
-0.19090831 0.16249724 -0.24285305
-0.19090578 0.16257298 -0.24284327
-0.19090366 0.16265051 -0.24282342
-0.19090086 0.16272834 -0.24281758
-0.19089657 0.16280292 -0.24284577
-0.19089289 0.1628792 -0.24285993
-0.19089057 0.1629568 -0.2428441
-0.19088817 0.16303447 -0.24283026
-0.19088486 0.16311057 -0.24283645
-0.19088116 0.16318683 -0.2428506
-0.19087796 0.16326289 -0.2428548
-0.19087523 0.16333874 -0.24284899
-0.19087273 0.16341643 -0.24283715
-0.19086984 0.1634943 -0.24283329
-0.19086653 0.1635704 -0.24283947
-0.19086362 0.16364633 -0.24283767
-0.19086109 0.16372207 -0.24282786
-0.1908582 0.16379996 -0.24282402
-0.19085547 0.16387579 -0.24281821
-0.19085278 0.16395357 -0.24281037
-0.19084996 0.16402945 -0.24280655
-0.19084685 0.16410546 -0.24280873
-0.19084357 0.16418351 -0.24281287
-0.19084056 0.16425948 -0.24281305
-0.19083764 0.1643354 -0.24281125
-0.19083484 0.16441324 -0.24280539
-0.19083202 0.16448912 -0.24280158
-0.19082882 0.16456518 -0.24280578
-0.19082563 0.16464318 -0.24280791
-0.19082262 0.16471915 -0.2428081
-0.19081961 0.16479512 -0.24280828
-0.19081649 0.16487113 -0.24281046
-0.19081371 0.16494896 -0.24280462
-0.19081087 0.16502483 -0.2428008
-0.19080797 0.16510075 -0.242799
-0.19080517 0.16517858 -0.24279314
-0.19080244 0.16525443 -0.24278733
-0.19079946 0.16533235 -0.24278548
-0.19079643 0.16540831 -0.24278568
-0.19079381 0.1654841 -0.24277787
-0.19079092 0.16556197 -0.24277401
-0.190788 0.1656379 -0.24277221
-0.19078511 0.16571577 -0.24276836
-0.19078249 0.16579157 -0.24276055
-0.19077967 0.16586745 -0.24275675
-0.19077678 0.16594532 -0.24275289
-0.19077396 0.1660212 -0.24274909
-0.19077085 0.16609721 -0.24275127
-0.19076754 0.16617331 -0.24275745
-0.19076426 0.16625136 -0.24276158
-0.19076125 0.16632733 -0.24276176
-0.19075814 0.16640334 -0.24276397
-0.19075534 0.16648117 -0.2427581
-0.19075263 0.166557 -0.2427523
-0.1907497 0.16663292 -0.2427505
-0.19074701 0.16671072 -0.24274264
-0.19074419 0.1667866 -0.24273884
-0.19074127 0.16686252 -0.24273703
-0.19073817 0.16693853 -0.24273922
-0.19073518 0.16701645 -0.24273735
-0.19073226 0.16709237 -0.24273555
-0.19072925 0.16716833 -0.24273574
-0.19072644 0.16724616 -0.24272987
-0.19072382 0.16732197 -0.24272209
-0.19072081 0.16739793 -0.24272227
-0.19071761 0.16747399 -0.24272645
-0.19071481 0.16755182 -0.2427206
-0.19071218 0.1676276 -0.2427128
-0.19070937 0.16770348 -0.242709
-0.19070686 0.16778119 -0.24269715
-0.19070394 0.16785711 -0.24269535
-0.19070055 0.16793326 -0.24270353
-0.19069764 0.16801113 -0.24269967
-0.19069482 0.16808701 -0.24269585
-0.1906922 0.16816279 -0.24268806
-0.19068921 0.16824071 -0.2426862
-0.19068591 0.16831681 -0.24269238
-0.1906831 0.16839269 -0.24268857
-0.19068028 0.16846856 -0.24268477
-0.19067726 0.16854453 -0.24268496
-0.19067456 0.16862233 -0.24267711
-0.19067174 0.16869821 -0.24267329
-0.19066855 0.16877621 -0.24267542
-0.19066593 0.168852 -0.24266765
-0.19066331 0.16892779 -0.24265984
-0.1910817 0.15788755 -0.24301396
-0.19107859 0.15796356 -0.24301615
-0.19107589 0.15804134 -0.24300832
-0.19107327 0.15811715 -0.24300051
-0.19107017 0.15819511 -0.24300064
-0.19106707 0.15827112 -0.24300283
-0.19106385 0.15834717 -0.243007
-0.19106077 0.15842514 -0.24300715
-0.19105834 0.15850084 -0.24299535
-0.19105554 0.15857866 -0.24298951
-0.19105275 0.15865651 -0.24298365
-0.19105002 0.15873234 -0.24297786
-0.19104703 0.15881026 -0.24297599
-0.19104412 0.15888618 -0.24297419
-0.19104113 0.1589641 -0.24297233
-0.19103792 0.15904015 -0.24297652
-0.19103481 0.15911616 -0.24297869
-0.19103162 0.15919417 -0.24298084
-0.1910291 0.15926991 -0.24297103
-0.19102669 0.15934758 -0.24295719
-0.19102369 0.1594255 -0.24295533
-0.19102079 0.15950142 -0.24295351
-0.1910176 0.15957943 -0.24295565
-0.19101448 0.15965544 -0.24295785
-0.19101168 0.15973327 -0.24295199
-0.19100897 0.15980911 -0.24294618
-0.19100598 0.15988703 -0.24294433
-0.19100296 0.159963 -0.24294452
-0.19100007 0.16004087 -0.24294066
-0.19099705 0.16011684 -0.24294086
-0.19099407 0.16019475 -0.242939
-0.19099085 0.16027081 -0.24294317
-0.19098775 0.16034682 -0.24294537
-0.19098505 0.16042461 -0.24293752
-0.19098243 0.16050041 -0.24292971
-0.19097944 0.16057833 -0.24292785
-0.19097652 0.16065425 -0.24292605
-0.19097331 0.1607303 -0.24293023
-0.1909702 0.16080631 -0.24293241
-0.19096731 0.16088419 -0.24292856
-0.1909648 0.16096188 -0.24291672
-0.19096218 0.16103768 -0.24290892
-0.19095908 0.16111565 -0.24290904
-0.19095588 0.1611917 -0.24291323
-0.19095278 0.1612677 -0.24291542
-0.19094966 0.16134372 -0.2429176
-0.19094686 0.16142155 -0.24291176
-0.19094416 0.16149934 -0.2429039
-0.19094154 0.16157512 -0.24289611
-0.19093865 0.16165301 -0.24289225
-0.19093563 0.16172898 -0.24289244
-0.19093253 0.16180497 -0.24289462
-0.19092964 0.16188286 -0.24289078
-0.19092691 0.16195869 -0.24288496
-0.19092479 0.16203623 -0.24286513
-0.1909219 0.1621141 -0.24286127
-0.1909183 0.16219032 -0.24287346
-0.190915 0.16226642 -0.24287963
-0.19091219 0.1623423 -0.24287581
-0.19090967 0.16242 -0.24286398
-0.19090708 0.16249774 -0.24285413
-0.19090465 0.16257346 -0.24284235
-0.19090244 0.16265297 -0.24282247
-0.19089982 0.16272877 -0.24281466
-0.19089562 0.16280331 -0.24284086
-0.19089174 0.16287966 -0.24285901
-0.19088943 0.16295728 -0.24284318
-0.19088702 0.16303493 -0.24282935
-0.19088362 0.16311108 -0.24283752
-0.19088002 0.16318731 -0.24284968
-0.19087681 0.16326337 -0.24285387
-0.19087403 0.16334119 -0.24284801
-0.19087158 0.16341689 -0.24283622
-0.19086869 0.16349478 -0.24283236
-0.1908654 0.16357087 -0.24283855
-0.19086237 0.16364683 -0.24283874
-0.19085985 0.16372259 -0.24282894
-0.19085705 0.16380042 -0.24282309
-0.19085433 0.16387625 -0.24281728
-0.19085163 0.16395405 -0.24280943
-0.19084881 0.16402993 -0.24280563
-0.19084573 0.16410789 -0.24280576
-0.19084233 0.16418402 -0.24281394
-0.19083932 0.16426 -0.24281412
-0.1908364 0.16433592 -0.24281232
-0.1908336 0.16441375 -0.24280646
-0.19083098 0.16448954 -0.24279867
-0.1908277 0.16456759 -0.2428028
-0.19082458 0.1646436 -0.24280499
-0.19082157 0.16471957 -0.24280518
-0.19081856 0.16479553 -0.24280536
-0.19081545 0.16487154 -0.24280754
-0.19081245 0.16494946 -0.24280569
-0.19080974 0.16502529 -0.24279989
-0.19080673 0.16510126 -0.24280007
-0.19080393 0.1651791 -0.24279422
-0.1908014 0.16525485 -0.24278441
-0.19079831 0.16533281 -0.24278456
-0.19079539 0.16540873 -0.24278276
-0.19079268 0.16548456 -0.24277696
-0.19078988 0.16556241 -0.24277109
-0.19078676 0.16563842 -0.24277329
-0.19078387 0.16571629 -0.24276944
-0.19078135 0.16579203 -0.24275963
-0.19077852 0.16586791 -0.24275583
-0.19077563 0.16594578 -0.24275197
-0.19077292 0.16602163 -0.24274617
-0.19076982 0.16609959 -0.24274631
-0.19076642 0.16617572 -0.24275449
-0.19076322 0.16625178 -0.24275866
-0.19076021 0.16632774 -0.24275884
-0.19075701 0.1664038 -0.24276304
-0.1907542 0.16648164 -0.24275719
-0.19075148 0.16655748 -0.24275139
-0.19074857 0.1666334 -0.24274957
-0.19074567 0.16671127 -0.24274573
-0.19074304 0.16678706 -0.24273792
-0.19074014 0.16686298 -0.2427361
-0.19073702 0.16693899 -0.24273829
-0.19073403 0.16701691 -0.24273643
-0.19073112 0.16709284 -0.24273463
-0.19072811 0.16716881 -0.24273482
-0.19072521 0.16724668 -0.24273095
-0.19072278 0.16732238 -0.24271916
-0.19071977 0.16739835 -0.24271935
-0.19071646 0.16747445 -0.24272552
-0.19071357 0.16755232 -0.24272168
-0.19071086 0.16762815 -0.24271587
-0.19070813 0.167704 -0.24271007
-0.19070572 0.16778165 -0.24269623
-0.19070281 0.16785757 -0.24269441
-0.1906995 0.16793367 -0.24270059
-0.19069651 0.16801159 -0.24269873
-0.1906938 0.16808742 -0.24269293
-0.19069116 0.16816323 -0.24268514
-0.19068818 0.16824114 -0.24268328
-0.19068477 0.16831729 -0.24269146
-0.19068186 0.16839321 -0.24268964
-0.19067913 0.16846904 -0.24268383
-0.19067623 0.16854496 -0.24268202
-0.19067352 0.16862275 -0.24267417
-0.19067061 0.16869867 -0.24267237
-0.19066742 0.16877668 -0.2426745
-0.19066469 0.16885251 -0.2426687
-0.19066218 0.16892827 -0.24265891
-0.19108142 0.15788746 -0.24301478
-0.19107831 0.15796347 -0.24301697
-0.19107561 0.15804125 -0.24300912
-0.19107288 0.15811709 -0.24300332
-0.19106989 0.15819502 -0.24300146
-0.19106668 0.15827107 -0.24300565
-0.19106348 0.15834711 -0.24300984
-0.19106039 0.15842509 -0.24300997
-0.19105797 0.15850079 -0.24299818
-0.19105525 0.15857857 -0.24299031
-0.19105247 0.1586564 -0.24298447
-0.19104965 0.1587323 -0.24298066
-0.19104655 0.15881026 -0.24298081
-0.19104384 0.15888609 -0.242975
-0.19104074 0.15896405 -0.24297515
-0.19103764 0.15904006 -0.24297732
-0.19103453 0.15911607 -0.24297953
-0.19103134 0.15919408 -0.24298166
-0.19102882 0.15926982 -0.24297185
-0.1910264 0.15934749 -0.24295801
-0.19102332 0.15942545 -0.24295816
-0.1910204 0.15950137 -0.24295634
-0.19101721 0.15957938 -0.24295849
-0.1910142 0.15965535 -0.24295866
-0.19101149 0.15973118 -0.24295285
-0.19100858 0.15980905 -0.24294901
-0.19100559 0.15988697 -0.24294716
-0.19100268 0.15996289 -0.24294534
-0.19099969 0.16004083 -0.2429435
-0.19099677 0.16011675 -0.24294168
-0.19099388 0.16019462 -0.24293782
-0.19099048 0.16027077 -0.242946
-0.19098736 0.16034678 -0.24294817
-0.19098467 0.16042456 -0.24294034
-0.19098215 0.1605003 -0.24293053
-0.19097905 0.16057827 -0.24293068
-0.19097604 0.16065425 -0.24293086
-0.19097294 0.16073024 -0.24293305
-0.19096982 0.16080625 -0.24293524
-0.19096702 0.1608841 -0.24292938
-0.19096442 0.16096184 -0.24291953
-0.1909619 0.16103758 -0.24290974
-0.19095881 0.16111554 -0.24290988
-0.19095559 0.1611916 -0.24291405
-0.19095249 0.16126761 -0.24291624
-0.19094929 0.16134366 -0.24292043
-0.19094649 0.16142149 -0.24291459
-0.19094388 0.16149925 -0.24290472
-0.19094126 0.16157503 -0.24289693
-0.19093844 0.16165091 -0.24289313
-0.19093525 0.16172892 -0.24289526
-0.19093224 0.16180488 -0.24289545
-0.19092935 0.16188276 -0.24289159
-0.19092673 0.16195856 -0.2428838
-0.19092451 0.16203612 -0.24286595
-0.19092152 0.16211405 -0.2428641
-0.19091792 0.16219027 -0.24287626
-0.19091472 0.16226633 -0.24288046
-0.1909119 0.16234221 -0.24287665
-0.19090939 0.16241992 -0.2428648
-0.19090679 0.16249765 -0.24285495
-0.19090426 0.1625734 -0.24284516
-0.19090214 0.16265093 -0.24282533
-0.19089945 0.16272871 -0.24281748
-0.19089524 0.16280326 -0.24284367
-0.19089136 0.16287962 -0.24286184
-0.19088915 0.16295719 -0.24284402
-0.19088663 0.16303489 -0.24283215
-0.19088334 0.16311099 -0.24283835
-0.19087964 0.16318727 -0.24285251
-0.19087644 0.16326331 -0.2428567
-0.19087374 0.1633411 -0.24284884
-0.19087131 0.1634168 -0.24283704
-0.19086832 0.16349472 -0.24283519
-0.19086501 0.16357082 -0.24284136
-0.1908621 0.16364674 -0.24283956
-0.19085947 0.16372253 -0.24283177
-0.19085668 0.16380037 -0.24282591
-0.19085395 0.16387621 -0.24282011
-0.19085126 0.16395399 -0.24281226
-0.19084844 0.16402987 -0.24280845
-0.19084543 0.16410583 -0.24280864
-0.19084205 0.16418393 -0.24281476
-0.19083904 0.1642599 -0.24281496
-0.19083612 0.16433582 -0.24281314
-0.19083332 0.16441366 -0.2428073
-0.1908306 0.16448949 -0.24280149
-0.19082749 0.1645655 -0.24280368
-0.19082421 0.16464356 -0.24280781
-0.1908212 0.16471952 -0.242808
-0.19081818 0.16479549 -0.24280819
-0.19081508 0.1648715 -0.24281037
-0.19081219 0.16494937 -0.24280652
-0.19080946 0.1650252 -0.24280071
-0.19080645 0.16510117 -0.24280089
-0.19080365 0.165179 -0.24279505
-0.19080102 0.1652548 -0.24278724
-0.19079794 0.16533276 -0.24278739
-0.19079502 0.16540869 -0.24278557
-0.19079229 0.16548452 -0.24277976
-0.19078951 0.16556235 -0.24277392
-0.1907865 0.16563831 -0.24277411
-0.1907835 0.16571623 -0.24277225
-0.19078097 0.16579199 -0.24276245
-0.19077815 0.16586787 -0.24275865
-0.19077526 0.16594574 -0.24275479
-0.19077253 0.16602157 -0.24274899
-0.19076934 0.16609958 -0.24275112
-0.19076605 0.16617568 -0.24275731
-0.19076285 0.16625173 -0.24276149
-0.19075982 0.1663277 -0.24276167
-0.19075672 0.16640371 -0.24276386
-0.19075383 0.16648158 -0.24276
-0.19075119 0.16655739 -0.24275221
-0.19074829 0.16663331 -0.24275041
-0.19074549 0.16671114 -0.24274454
-0.19074267 0.16678701 -0.24274075
-0.19073975 0.16686293 -0.24273893
-0.19073674 0.1669389 -0.24273911
-0.19073375 0.16701682 -0.24273726
-0.19073084 0.16709274 -0.24273545
-0.19072783 0.16716871 -0.24273564
-0.19072492 0.1672466 -0.24273178
-0.1907223 0.16732238 -0.24272399
-0.1907194 0.1673983 -0.24272218
-0.19071619 0.16747436 -0.24272636
-0.19071329 0.16755223 -0.24272251
-0.19071066 0.16762802 -0.2427147
-0.19070785 0.1677039 -0.24271089
-0.19070534 0.16778161 -0.24269906
-0.19070253 0.16785748 -0.24269524
-0.19069913 0.16793363 -0.24270342
-0.19069622 0.1680115 -0.24269956
-0.19069341 0.16808738 -0.24269576
-0.19069079 0.16816317 -0.24268796
-0.19068779 0.16824108 -0.24268609
-0.19068439 0.16831723 -0.24269429
-0.19068158 0.16839311 -0.24269047
-0.19067876 0.168469 -0.24268666
-0.19067584 0.16854492 -0.24268486
-0.19067314 0.1686227 -0.242677
-0.19067033 0.16869858 -0.24267319
-0.19066714 0.16877659 -0.24267533
-0.19066443 0.16885242 -0.24266952
-0.19066189 0.16892818 -0.24265973
-0.19108212 0.157885 -0.24301469
-0.19107911 0.15796097 -0.24301487
-0.19107641 0.15803875 -0.24300703
-0.19107379 0.15811455 -0.24299923
-0.19107071 0.15819252 -0.24299937
-0.19106749 0.15826857 -0.24300355
-0.19106428 0.15834463 -0.24300773
-0.1910612 0.15842259 -0.24300787
-0.19105867 0.15849833 -0.24299808
-0.19105597 0.15857612 -0.24299023
-0.19105327 0.15865391 -0.24298239
-0.19105045 0.15872979 -0.24297857
-0.19104736 0.15880775 -0.24297872
-0.19104464 0.15888359 -0.24297291
-0.19104154 0.15896155 -0.24297306
-0.19103834 0.1590376 -0.24297723
-0.19103533 0.15911357 -0.24297743
-0.19103214 0.15919158 -0.24297956
-0.19102962 0.15926732 -0.24296977
-0.1910271 0.15934503 -0.24295792
-0.19102412 0.15942295 -0.24295607
-0.19102129 0.15949883 -0.24295226
-0.19101812 0.15957683 -0.2429544
-0.19101501 0.15965284 -0.24295658
-0.19101228 0.15972868 -0.24295077
-0.19100939 0.15980655 -0.24294692
-0.19100639 0.15988448 -0.24294508
-0.19100338 0.15996045 -0.24294525
-0.19100039 0.16003837 -0.24294341
-0.19099757 0.16011424 -0.24293959
-0.19099458 0.16019216 -0.24293774
-0.19099118 0.16026831 -0.24294591
-0.19098817 0.16034427 -0.24294609
-0.19098547 0.16042206 -0.24293825
-0.19098294 0.16049781 -0.24292845
-0.19097985 0.16057578 -0.24292859
-0.19097684 0.16065174 -0.24292877
-0.19097373 0.16072775 -0.24293096
-0.19097072 0.16080372 -0.24293116
-0.19096783 0.16088159 -0.2429273
-0.19096531 0.16095929 -0.24291545
-0.1909626 0.16103512 -0.24290965
-0.1909596 0.16111305 -0.24290779
-0.1909564 0.16118911 -0.24291198
-0.19095328 0.16126511 -0.24291417
-0.19095008 0.16134116 -0.24291834
-0.19094728 0.161419 -0.2429125
-0.19094467 0.16149674 -0.24290265
-0.19094205 0.16157253 -0.24289486
-0.19093923 0.16164841 -0.24289104
-0.19093604 0.16172642 -0.24289319
-0.19093303 0.16180238 -0.24289337
-0.19093014 0.16188027 -0.24288952
-0.19092752 0.16195606 -0.24288172
-0.1909253 0.16203362 -0.24286388
