# .PCD v0.7 - Point Cloud Data file format
VERSION 0.7
FIELDS x y z
SIZE 4 4 4
TYPE F F F
COUNT 1 1 1
WIDTH 1379
HEIGHT 1
VIEWPOINT 0 0 0 1 0 0 0
POINTS 1379
DATA ascii
-0.18128009 0.15915751 -0.23552391
-0.18127716 0.15923148 -0.23552416
-0.18127541 0.15930687 -0.23549838
-0.18033877 0.17525014 -0.2419287
-0.18033604 0.17532597 -0.24192289
-0.18033352 0.17540173 -0.24191308
-0.1803306 0.17547765 -0.24191128
-0.18032743 0.17555566 -0.24191341
-0.18032432 0.17563167 -0.24191561
-0.1803215 0.17570755 -0.2419118
-0.18031842 0.17578551 -0.24191195
-0.18031532 0.17586152 -0.24191412
-0.1803124 0.17593744 -0.24191232
-0.18030977 0.17601323 -0.24190453
-0.18030696 0.17608911 -0.24190071
-0.18030396 0.17616704 -0.24189886
-0.18030106 0.17624296 -0.24189705
-0.18029813 0.17631888 -0.24189524
-0.18029563 0.17639658 -0.2418834
-0.18029319 0.17647034 -0.24187365
-0.18028991 0.17654838 -0.24187779
-0.18028641 0.17662457 -0.24188796
-0.18028359 0.17670044 -0.24188416
-0.1802808 0.17677829 -0.2418783
-0.18027788 0.17685421 -0.2418765
-0.18027507 0.17693008 -0.2418727
-0.18027236 0.17700592 -0.24186689
-0.18026946 0.17708379 -0.24186304
-0.18026616 0.17715989 -0.24186921
-0.18026306 0.1772359 -0.24187142
-0.18026026 0.17731373 -0.24186556
-0.18025735 0.17738965 -0.24186376
-0.18025424 0.17746566 -0.24186593
-0.18025096 0.17754371 -0.24187008
-0.18024795 0.17761968 -0.24187027
-0.18024428 0.17769791 -0.24188238
-0.18023972 0.17777458 -0.24191454
-0.18023537 0.17785312 -0.24194065
-0.1802313 0.17793152 -0.24196075
-0.18148473 0.15268131 -0.23653692
-0.18148208 0.15275514 -0.23653117
-0.18148024 0.15283059 -0.23650739
-0.18147698 0.1529852 -0.23644775
-0.181474 0.15313968 -0.23638213
-0.18147346 0.15321846 -0.2363283
-0.18147142 0.15329398 -0.23630852
-0.18146868 0.15336786 -0.23630476
-0.18146625 0.15344357 -0.23629297
-0.1814658 0.15352231 -0.23623714
-0.18146336 0.15359606 -0.23622739
-0.18146083 0.1536718 -0.2362176
-0.181458 0.15374573 -0.23621583
-0.18145576 0.15382135 -0.23620005
-0.1814564 0.15390155 -0.23612021
-0.18144675 0.1542004 -0.23607513
-0.1814443 0.15427417 -0.23606539
-0.18144175 0.15434796 -0.23605762
-0.18143952 0.15442356 -0.23604184
-0.18143748 0.1544991 -0.23602206
-0.18143633 0.15457618 -0.23598225
-0.18143389 0.15464994 -0.23597249
-0.18143076 0.15472399 -0.23597674
-0.1814284 0.1547977 -0.23596498
-0.18142647 0.15487318 -0.23594321
-0.18142372 0.15494706 -0.23593946
-0.18142098 0.15502094 -0.23593569
-0.18141904 0.15509643 -0.23591392
-0.1814172 0.15517187 -0.23589015
-0.18141465 0.15524566 -0.2358824
-0.18141171 0.15531963 -0.23588262
-0.18140878 0.1553936 -0.23588286
-0.18140623 0.15546739 -0.2358751
-0.18140379 0.15554114 -0.23586535
-0.18140095 0.15561506 -0.2358636
-0.1813985 0.15568881 -0.23585385
-0.18139605 0.15576257 -0.23584411
-0.18139322 0.15583649 -0.23584235
-0.18139057 0.15591033 -0.2358366
-0.18138824 0.15598598 -0.2358228
-0.18138561 0.15605982 -0.23581704
-0.18138306 0.15613362 -0.2358093
-0.18138051 0.15620741 -0.23580155
-0.18137847 0.15628293 -0.23578176
-0.1813765 0.15635647 -0.23576203
-0.18137379 0.1564323 -0.23575622
-0.18137123 0.15650414 -0.23575053
-0.18136889 0.15657981 -0.23573673
-0.18136606 0.15665373 -0.23573497
-0.1813632 0.15672569 -0.23573524
-0.18136007 0.15679975 -0.23573948
-0.18135712 0.15687177 -0.23574176
-0.18135507 0.1569473 -0.23572198
-0.18135282 0.15702096 -0.23570824
-0.18134989 0.15709493 -0.23570848
-0.18134734 0.15716872 -0.23570073
-0.18134499 0.15724242 -0.23568898
-0.18134235 0.15731627 -0.23568322
-0.18133971 0.1573901 -0.23567747
-0.18133748 0.15746571 -0.23566169
-0.18133503 0.15753946 -0.23565193
-0.18133219 0.15761338 -0.23565017
-0.18132983 0.1576871 -0.23563841
-0.18132699 0.15775907 -0.23563871
-0.18132375 0.15783316 -0.23564494
-0.1813214 0.15790688 -0.23563319
-0.18131876 0.15798071 -0.23562744
-0.18131632 0.15805446 -0.2356177
-0.18131416 0.15812807 -0.23560195
-0.18131202 0.15820365 -0.23558417
-0.18130928 0.15827753 -0.23558041
-0.18130623 0.15834959 -0.23558468
-0.18130387 0.15842329 -0.23557293
-0.18130162 0.15849695 -0.2355592
-0.18129879 0.15857087 -0.23555744
-0.18129605 0.15864475 -0.23555368
-0.18129331 0.15871863 -0.23554991
-0.18129016 0.15879074 -0.23555619
-0.18128712 0.15886475 -0.23555842
-0.18128477 0.15893845 -0.23554668
-0.18128233 0.15901221 -0.23553693
-0.18127947 0.15908417 -0.23553722
-0.18127634 0.15915823 -0.23554145
-0.18127389 0.15923199 -0.2355317
-0.18127164 0.15930565 -0.23551795
-0.1812696 0.15938117 -0.23549816
-0.1803323 0.17532668 -0.24193838
-0.1803295 0.1754045 -0.24193253
-0.18032679 0.17548034 -0.24192673
-0.18032378 0.1755563 -0.24192691
-0.18032077 0.17563227 -0.2419271
-0.18031776 0.17570823 -0.2419273
-0.18031476 0.17578615 -0.24192543
-0.18031166 0.17586216 -0.24192762
-0.18030874 0.17593808 -0.24192581
-0.18030596 0.17601593 -0.24191996
-0.18030314 0.17609181 -0.24191616
-0.18030022 0.17616773 -0.24191436
-0.18029721 0.17624369 -0.24191454
-0.18029439 0.17631957 -0.24191074
-0.18029189 0.17639728 -0.24189889
-0.18028957 0.17647293 -0.2418851
-0.18028626 0.17654903 -0.24189129
-0.18028268 0.17662722 -0.24190141
-0.18027978 0.17670314 -0.24189961
-0.18027686 0.17677906 -0.24189779
-0.18027395 0.17685498 -0.24189599
-0.18027115 0.17693281 -0.24189015
-0.18026844 0.17700864 -0.24188435
-0.18026562 0.17708454 -0.24188054
-0.18026251 0.17716053 -0.24188271
-0.18025932 0.17723855 -0.24188486
-0.18025661 0.17731439 -0.24187905
-0.18025368 0.17739031 -0.24187726
-0.18025048 0.17746636 -0.24188143
-0.1802472 0.17754441 -0.24188557
-0.1802441 0.17762043 -0.24188775
-0.18024062 0.17769857 -0.24189588
-0.18023609 0.17777719 -0.24192598
-0.18023171 0.17785376 -0.24195413
-0.180227 0.17793442 -0.24198619
-0.18149027 0.15260489 -0.23655762
-0.18148795 0.15268056 -0.23654383
-0.1814854 0.15275435 -0.23653609
-0.18148386 0.15283161 -0.23650426
-0.18148223 0.15290892 -0.23647445
-0.18147998 0.15298258 -0.23646072
-0.18147865 0.1530617 -0.23642285
-0.18147637 0.15321589 -0.23634325
-0.18147445 0.15329333 -0.23631942
-0.1814719 0.15336712 -0.23631167
-0.18146935 0.15344091 -0.23630393
-0.18146902 0.15352155 -0.23624405
-0.18146677 0.15359522 -0.23623031
-0.18146415 0.15367101 -0.23622252
-0.1814613 0.15374494 -0.23622075
-0.18145905 0.15381859 -0.23620701
-0.18145812 0.15389755 -0.23616117
-0.18144977 0.15419975 -0.23608604
-0.1814478 0.15427329 -0.23606631
-0.18144526 0.15434708 -0.23605855
-0.18144313 0.15442264 -0.23604077
-0.18144098 0.15449822 -0.23602298
-0.18143936 0.15457553 -0.23599316
-0.1814373 0.15464909 -0.23597543
-0.18143426 0.15472311 -0.23597766
-0.18143143 0.15479703 -0.23597591
-0.18142907 0.15487075 -0.23596415
-0.18142655 0.15494649 -0.23595437
-0.18142469 0.15501997 -0.23593262
-0.18142226 0.15509568 -0.23592083
-0.18142042 0.15517113 -0.23589706
-0.18141796 0.15524487 -0.23588732
-0.18141504 0.15531884 -0.23588756
-0.18141207 0.15539086 -0.23588982
-0.18140952 0.15546465 -0.23588207
-0.181407 0.15554039 -0.23587228
-0.18140417 0.15561432 -0.23587053
-0.18140133 0.15568824 -0.23586875
-0.18139918 0.15576185 -0.23585302
-0.18139634 0.15583578 -0.23585126
-0.18139359 0.15590966 -0.2358475
-0.18139134 0.15598333 -0.23583376
-0.18138902 0.15605898 -0.23581997
-0.18138647 0.15613279 -0.23581222
-0.18138392 0.15620658 -0.23580447
-0.18138188 0.1562821 -0.23578468
-0.18137982 0.15635568 -0.23576695
-0.18137708 0.15642956 -0.23576319
-0.18137425 0.15650348 -0.23576143
-0.18137218 0.15657705 -0.2357437
-0.18136935 0.15665098 -0.23574194
-0.18136661 0.15672486 -0.23573819
-0.18136358 0.15679887 -0.23574042
-0.18136063 0.15687089 -0.23574269
-0.18135817 0.15694463 -0.23573294
-0.18135604 0.15702021 -0.23571515
-0.18135349 0.157094 -0.2357074
-0.18135066 0.15716793 -0.23570564
-0.18134792 0.15724181 -0.23570189
-0.18134557 0.15731551 -0.23569015
-0.18134302 0.15738931 -0.2356824
-0.18134066 0.15746301 -0.23567066
-0.18133815 0.15753876 -0.23566085
-0.18133558 0.1576106 -0.23565514
-0.18133314 0.15768434 -0.2356454
-0.18132991 0.15775844 -0.23565161
-0.18132696 0.15783046 -0.23565391
-0.18132462 0.15790612 -0.23564011
-0.18132237 0.15797979 -0.23562637
-0.18132001 0.15805349 -0.23561463
-0.18131748 0.15812728 -0.23560688
-0.18131532 0.1582009 -0.23559113
-0.18131267 0.15827474 -0.23558539
-0.18130955 0.1583488 -0.23558962
-0.18130709 0.15842254 -0.23557986
-0.18130474 0.15849625 -0.23556812
-0.18130201 0.15857013 -0.23556437
-0.18129908 0.1586441 -0.23556459
-0.18129651 0.15871593 -0.2355589
-0.18129358 0.1587899 -0.23555914
-0.18129054 0.15886392 -0.23556137
-0.18128808 0.15893571 -0.23555365
-0.18128555 0.15901145 -0.23554386
-0.18128268 0.15908343 -0.23554415
-0.18127957 0.15915748 -0.23554838
-0.18127722 0.15923119 -0.23553663
-0.18127497 0.15930486 -0.2355229
-0.18127242 0.15937865 -0.23551515
-0.18126948 0.15945262 -0.23551537
-0.18033539 0.17532599 -0.24194935
-0.18033269 0.17540379 -0.24194151
-0.18032977 0.17547971 -0.24193969
-0.18032648 0.17555581 -0.24194586
-0.18032318 0.17563386 -0.24195001
-0.18032037 0.17570974 -0.24194621
-0.18031755 0.17578562 -0.24194241
-0.18031454 0.17586158 -0.24194258
-0.18031164 0.1759375 -0.24194078
-0.18030883 0.17601533 -0.24193493
-0.18030612 0.17609118 -0.24192913
-0.1803032 0.1761671 -0.24192733
-0.1803003 0.17624302 -0.24192551
-0.1802973 0.17632094 -0.24192366
-0.18029498 0.17639659 -0.24190986
-0.18029244 0.17647235 -0.24190007
-0.18028915 0.17654845 -0.24190626
-0.18028577 0.17662653 -0.24191239
-0.18028295 0.17670242 -0.24190858
-0.18027985 0.17677844 -0.24191077
-0.18027693 0.17685436 -0.24190897
-0.18027413 0.17693219 -0.24190311
-0.18027122 0.17700811 -0.24190131
-0.1802683 0.17708403 -0.24189949
-0.18026522 0.17716199 -0.24189964
-0.18026231 0.17723791 -0.24189784
-0.1802595 0.17731379 -0.24189404
-0.18025638 0.1773898 -0.24189621
-0.1802533 0.17746776 -0.24189636
-0.1802502 0.17754377 -0.24189854
-0.18024689 0.17761987 -0.24190472
-0.18024331 0.17769806 -0.24191485
-0.18023926 0.17777647 -0.24193496
-0.18023509 0.17785296 -0.24195912
-0.18023103 0.17793135 -0.24197924
-0.18021822 0.17802157 -0.24217291
-0.18148585 0.15260002 -0.23656085
-0.18148354 0.15267764 -0.23654503
-0.181481 0.15275143 -0.23653728
-0.18147956 0.15282865 -0.23650347
-0.18147793 0.15290596 -0.23647365
-0.18147558 0.15297966 -0.23646191
-0.18147394 0.15305696 -0.23643208
-0.18147187 0.15321301 -0.23634644
-0.18146993 0.1532885 -0.23632467
-0.1814674 0.15336424 -0.23631486
-0.18146487 0.15343803 -0.23630711
-0.18146473 0.15351859 -0.23624325
-0.18146247 0.15359226 -0.23622951
-0.18145975 0.15366809 -0.2362237
-0.181457 0.15374002 -0.236222
-0.18145457 0.15381572 -0.2362102
-0.18145382 0.15389459 -0.23616037
-0.18144517 0.15419497 -0.23609327
-0.18144332 0.15427041 -0.23606949
-0.18144087 0.15434416 -0.23605974
-0.18143873 0.15441972 -0.23604196
-0.18143651 0.15449534 -0.23602617
-0.18143475 0.15457074 -0.23600039
-0.18143281 0.15464622 -0.23597862
-0.18142977 0.15472023 -0.23598084
-0.18142694 0.15479416 -0.23597908
-0.18142469 0.15486783 -0.23596534
-0.18142216 0.15494357 -0.23595555
-0.18142021 0.15501709 -0.23593581
-0.18141797 0.15509272 -0.23592003
-0.18141603 0.15516821 -0.23589826
-0.18141368 0.15524191 -0.23588651
-0.18141064 0.15531592 -0.23588873
-0.18140769 0.15538794 -0.23589101
-0.18140514 0.15546173 -0.23588327
-0.18140271 0.15553743 -0.23587146
-0.18139987 0.1556094 -0.23587176
-0.18139702 0.15568332 -0.23587
-0.1813948 0.15575895 -0.23585421
-0.18139195 0.15583286 -0.23585245
-0.18138921 0.15590675 -0.2358487
-0.18138707 0.15598036 -0.23583296
-0.18138473 0.15605602 -0.23581916
-0.18138209 0.15612987 -0.23581341
-0.18137954 0.15620366 -0.23580566
-0.1813776 0.15627913 -0.23578387
-0.18137555 0.15635271 -0.23576614
-0.18137281 0.15642659 -0.23576239
-0.18136987 0.15650056 -0.23576263
-0.18136781 0.15657413 -0.23574488
-0.18136497 0.15664805 -0.23574312
-0.18136224 0.15672193 -0.23573935
-0.1813594 0.15679586 -0.23573759
-0.18135644 0.15686788 -0.23573989
-0.18135381 0.15694171 -0.23573413
-0.18135166 0.15701729 -0.23571634
-0.18134932 0.15709099 -0.2357046
-0.18134639 0.15716496 -0.23570484
-0.18134364 0.15723884 -0.23570108
-0.18134129 0.15731254 -0.23568933
-0.18133865 0.15738639 -0.23568359
-0.18133621 0.15746014 -0.23567383
-0.18133375 0.15753388 -0.23566407
-0.18133122 0.15760767 -0.23565632
-0.18132867 0.15768147 -0.23564857
-0.18132554 0.15775552 -0.2356528
-0.18132259 0.15782754 -0.2356551
-0.18132025 0.15790319 -0.2356413
-0.1813181 0.15797682 -0.23562557
-0.18131575 0.15805052 -0.23561382
-0.18131311 0.15812436 -0.23560806
-0.18131095 0.15819798 -0.23559232
-0.1813083 0.15827182 -0.23558655
-0.18130518 0.15834588 -0.23559079
-0.18130264 0.15841967 -0.23558304
-0.18130039 0.15849333 -0.2355693
-0.18129764 0.15856721 -0.23556554
-0.18129471 0.15864117 -0.23556578
-0.18129215 0.15871301 -0.23556007
-0.1812893 0.15878694 -0.23555832
-0.18128628 0.15886095 -0.23556054
-0.18128371 0.15893279 -0.23555484
-0.18128118 0.15900853 -0.23554504
-0.18127833 0.15908051 -0.23554532
-0.18127538 0.15915252 -0.2355476
-0.18127285 0.15922827 -0.23553781
-0.1812705 0.15930198 -0.23552606
-0.18126777 0.15937586 -0.2355223
-0.181265 0.15944779 -0.2355206
-0.18126217 0.15952171 -0.23551884
-0.1803311 0.1753231 -0.24195048
-0.1803284 0.17540088 -0.24194264
-0.18032548 0.1754768 -0.24194083
-0.18032219 0.1755529 -0.24194701
-0.18031889 0.17563096 -0.24195114
-0.18031609 0.17570683 -0.24194735
-0.18031317 0.17578276 -0.24194553
-0.18031007 0.17585877 -0.24194771
-0.18030725 0.17593464 -0.24194393
-0.18030456 0.17601244 -0.24193607
-0.18030183 0.17608827 -0.24193028
-0.18029892 0.17616419 -0.24192846
-0.18029583 0.17624216 -0.24192861
-0.18029292 0.17631808 -0.24192679
-0.18029049 0.17639378 -0.24191499
-0.18028806 0.17646949 -0.24190322
-0.18028469 0.17654759 -0.24190934
-0.18028149 0.17662364 -0.24191353
-0.18027848 0.17669961 -0.24191371
-0.18027547 0.17677557 -0.2419139
-0.18027256 0.17685345 -0.24191004
-0.18026966 0.17692937 -0.24190824
-0.18026684 0.17700525 -0.24190444
-0.18026394 0.17708117 -0.24190262
-0.18026084 0.17715913 -0.24190277
-0.18025793 0.17723505 -0.24190095
-0.18025503 0.17731097 -0.24189916
-0.18025193 0.17738895 -0.2418993
-0.18024902 0.17746487 -0.24189749
-0.18024582 0.17754093 -0.24190167
-0.18024243 0.17761903 -0.24190781
-0.18023895 0.1776952 -0.24191798
-0.18023498 0.17777357 -0.24193609
-0.180231 0.17784996 -0.24195626
-0.18022715 0.17792828 -0.24197239
-0.18021405 0.17801861 -0.24217205
-0.1814841 0.15268014 -0.23654109
-0.18148156 0.15275395 -0.23653334
-0.18147981 0.15282933 -0.23650756
-0.18147635 0.15298404 -0.23645192
-0.18147288 0.15313679 -0.23639834
-0.18147272 0.15321539 -0.23633651
-0.1814709 0.15329279 -0.23631069
-0.18146797 0.15336674 -0.23631093
-0.18146545 0.1534425 -0.23630114
-0.18146539 0.15352106 -0.23623732
-0.18146284 0.15359485 -0.23622957
-0.18146022 0.15367064 -0.23622176
-0.18145736 0.15374261 -0.23622206
-0.18145493 0.15381832 -0.23621026
-0.18145499 0.15389879 -0.2361424
-0.18144594 0.15419935 -0.2360833
-0.18144378 0.15427296 -0.23606755
-0.18144134 0.1543467 -0.23605779
-0.18143901 0.15442237 -0.23604402
-0.18143708 0.15449785 -0.23602223
-0.18143573 0.15457502 -0.23598643
-0.18143338 0.15464874 -0.23597467
-0.18143035 0.15472275 -0.2359769
-0.1814277 0.15479659 -0.23597115
-0.18142566 0.1548721 -0.23595136
-0.18142293 0.154946 -0.23594761
-0.18142067 0.15501966 -0.23593387
-0.18141845 0.15509526 -0.23591807
-0.1814166 0.15517071 -0.23589431
-0.18141416 0.15524445 -0.23588455
-0.18141112 0.15531847 -0.23588678
-0.18140817 0.15539049 -0.23588908
-0.18140565 0.15546623 -0.23587927
-0.18140329 0.15553994 -0.23586753
-0.18140036 0.1556139 -0.23586777
-0.18139762 0.15568779 -0.23586401
-0.18139537 0.15576145 -0.23585026
-0.18139262 0.15583533 -0.23584652
-0.1813899 0.15590921 -0.23584276
-0.18138774 0.15598282 -0.235827
-0.1813852 0.15605858 -0.23581722
-0.18138257 0.15613241 -0.23581146
-0.18138002 0.15620621 -0.23580371
-0.18137789 0.15628177 -0.23578593
-0.18137592 0.15635531 -0.23576619
-0.18137339 0.1564291 -0.23575844
-0.18137065 0.15650298 -0.23575467
-0.18136841 0.1565786 -0.23573889
-0.18136558 0.15665253 -0.23573712
-0.18136272 0.1567245 -0.23573741
-0.18135969 0.15679851 -0.23573965
-0.18135685 0.15687244 -0.23573789
-0.1813546 0.15694609 -0.23572415
-0.18135247 0.15702167 -0.23570636
-0.18134971 0.15709358 -0.23570465
-0.18134677 0.15716755 -0.23570488
-0.18134423 0.15724136 -0.23569712
-0.18134178 0.15731511 -0.23568738
-0.18133923 0.1573889 -0.23567963
-0.18133698 0.15746255 -0.23566589
-0.18133445 0.15753831 -0.23565608
-0.1813318 0.15761019 -0.23565239
-0.18132935 0.15768394 -0.23564263
-0.18132623 0.157758 -0.23564686
-0.18132308 0.15783009 -0.23565313
-0.18132074 0.15790576 -0.23563935
-0.18131858 0.15797937 -0.2356236
-0.18131614 0.15805312 -0.23561385
-0.1813135 0.15812697 -0.2356081
-0.18131144 0.15820053 -0.23559037
-0.18130882 0.15827632 -0.23558256
-0.18130587 0.15834834 -0.23558486
-0.18130341 0.15842208 -0.23557509
-0.18130107 0.1584958 -0.23556334
-0.18129823 0.15856972 -0.23556158
-0.18129539 0.15864365 -0.23555982
-0.18129276 0.15871748 -0.23555407
-0.18128981 0.15878949 -0.23555636
-0.18128668 0.15886354 -0.23556058
-0.18128431 0.15893531 -0.23555088
-0.18128178 0.15901105 -0.23554109
-0.18127902 0.15908298 -0.23553938
-0.18127589 0.15915704 -0.23554361
-0.18127325 0.15923087 -0.23553786
-0.18127109 0.15930448 -0.23552211
-0.18126895 0.15937811 -0.23550637
-0.18033198 0.17532554 -0.2419425
-0.18032928 0.17540333 -0.24193463
-0.18032657 0.17547916 -0.24192883
-0.18032336 0.17555521 -0.24193302
-0.18032026 0.17563123 -0.24193521
-0.18031734 0.17570715 -0.24193341
-0.18031436 0.17578508 -0.24193154
-0.18031125 0.17586109 -0.24193373
-0.18030824 0.17593706 -0.24193391
-0.18030545 0.17601489 -0.24192807
-0.18030272 0.17609072 -0.24192226
-0.18029982 0.17616664 -0.24192046
-0.18029681 0.1762426 -0.24192065
-0.18029381 0.17632052 -0.2419188
-0.18029138 0.17639624 -0.241907
-0.18028896 0.17647193 -0.2418952
-0.18028586 0.17654794 -0.24189739
-0.18028238 0.17662609 -0.24190551
-0.18027927 0.1767021 -0.24190772
-0.18027636 0.17677802 -0.2419059
-0.18027355 0.1768539 -0.2419021
-0.18027085 0.17693168 -0.24189425
-0.18026793 0.17700762 -0.24189243
-0.18026513 0.17708349 -0.24188864
-0.18026194 0.1771615 -0.24189077
-0.18025883 0.17723751 -0.24189296
-0.18025622 0.1773133 -0.24188516
-0.1802534 0.17738917 -0.24188136
-0.1802502 0.17746523 -0.24188554
-0.18024692 0.17754328 -0.24188969
-0.18024372 0.17761934 -0.24189386
-0.18024004 0.17769757 -0.24190599
-0.1802357 0.1777761 -0.24193209
-0.18023162 0.17785254 -0.24195424
-0.18022726 0.17793109 -0.24198034
-0.18148796 0.15260571 -0.23654705
-0.18148573 0.15268134 -0.23653126
-0.1814831 0.15275712 -0.23652345
-0.18147983 0.15290979 -0.23646587
-0.1814782 0.15298709 -0.23643605
-0.18147714 0.15306413 -0.23639426
-0.18147482 0.1531398 -0.23638046
-0.1814753 0.15322204 -0.23630258
-0.18147255 0.15329592 -0.23629881
-0.18146962 0.15336989 -0.23629905
-0.18146726 0.1534436 -0.23628731
-0.18146682 0.15352233 -0.23623148
-0.18146449 0.15359798 -0.23621768
-0.18146206 0.15367369 -0.23620589
-0.18145952 0.15374748 -0.23619814
-0.18145809 0.1538247 -0.23616433
-0.18144952 0.15412503 -0.23609523
-0.18144789 0.15420234 -0.23606542
-0.18144545 0.1542761 -0.23605567
-0.18144299 0.15434985 -0.23604593
-0.18144095 0.15442537 -0.23602614
-0.18143862 0.15450104 -0.23601234
-0.18143748 0.15457812 -0.23597255
-0.18143514 0.15465182 -0.23596081
-0.1814321 0.15472583 -0.23596305
-0.18142927 0.15479976 -0.23596127
-0.18142761 0.15487511 -0.2359335
-0.18142498 0.15494895 -0.23592775
-0.18142223 0.15502283 -0.23592399
-0.18141998 0.1550965 -0.23591024
-0.18141836 0.15517381 -0.23588043
-0.1814159 0.15524755 -0.23587069
-0.18141297 0.15532152 -0.23587093
-0.18141001 0.15539354 -0.23587319
-0.18140738 0.15546738 -0.23586744
-0.18140514 0.15554298 -0.23585166
-0.1814025 0.15561682 -0.23584589
-0.18139987 0.15569066 -0.23584014
-0.18139751 0.15576437 -0.2358284
-0.18139468 0.1558383 -0.23582664
-0.18139233 0.155912 -0.2358149
-0.18139 0.15598765 -0.2358011
-0.18138716 0.15606159 -0.23579934
-0.18138452 0.15613542 -0.23579359
-0.18138197 0.15620922 -0.23578584
-0.18137982 0.15628283 -0.23577011
-0.18137798 0.15635827 -0.23574632
-0.18137474 0.15643238 -0.23575255
-0.18137202 0.15650626 -0.23574878
-0.18136995 0.15657982 -0.23573105
-0.18136711 0.15665375 -0.23572929
-0.18136407 0.15672581 -0.23573357
-0.18136114 0.15679978 -0.23573381
-0.1813584 0.15687366 -0.23573005
-0.18135604 0.15694736 -0.23571831
-0.18135411 0.15702285 -0.23569652
-0.18134911 0.15717039 -0.23567902
-0.18134637 0.15724427 -0.23567526
-0.18134402 0.15731798 -0.23566352
-0.18134148 0.15739177 -0.23565575
-0.18133913 0.15746547 -0.23564401
-0.18133631 0.15754135 -0.23564021
-0.18133375 0.15761319 -0.23563451
-0.1813314 0.15768689 -0.23562276
-0.18132865 0.15776078 -0.23561899
-0.18132544 0.15783487 -0.23562524
-0.1813228 0.15790871 -0.23561947
-0.18132024 0.15798056 -0.23561376
-0.18131819 0.15805608 -0.23559397
-0.18131565 0.15812987 -0.23558623
-0.18131329 0.15820359 -0.23557448
-0.18131046 0.15827751 -0.23557273
-0.1813076 0.15834948 -0.23557299
-0.18130527 0.15842514 -0.23555923
-0.18130292 0.15849884 -0.23554748
-0.18130007 0.15857081 -0.23554775
-0.18129735 0.15864664 -0.23554194
-0.18129489 0.15871844 -0.23553425
-0.18129185 0.15879245 -0.23553649
-0.1812887 0.15886456 -0.23554274
-0.18128635 0.15893826 -0.235531
-0.18128394 0.15901397 -0.23551922
-0.18128097 0.15908597 -0.2355215
-0.18127783 0.15915808 -0.23552778
-0.1812747 0.15923214 -0.23553202
-0.18127264 0.15930571 -0.23551427
-0.1812707 0.1593812 -0.23549248
-0.1803367 0.17525077 -0.24193244
-0.18033408 0.17532656 -0.24192464
-0.18033145 0.17540236 -0.24191684
-0.18032844 0.17547832 -0.24191703
-0.18032525 0.17555633 -0.24191916
-0.18032224 0.1756323 -0.24191935
-0.18031943 0.17570817 -0.24191555
-0.18031645 0.17578609 -0.24191371
-0.18031324 0.17586215 -0.24191788
-0.18031023 0.17593811 -0.24191806
-0.18030761 0.1760139 -0.24191026
-0.18030462 0.17609182 -0.2419084
-0.18030171 0.17616774 -0.24190661
-0.18029881 0.17624366 -0.2419048
-0.1802958 0.17631963 -0.24190499
-0.18029338 0.17639729 -0.24189115
-0.18029086 0.17647304 -0.24188134
-0.18028775 0.17654905 -0.24188355
-0.18028446 0.17662515 -0.24188972
-0.18028127 0.17670316 -0.24189186
-0.18027845 0.17677903 -0.24188805
-0.18027574 0.17685488 -0.24188223
-0.18027303 0.17693071 -0.24187644
-0.18027022 0.17700854 -0.2418706
-0.18026713 0.17708455 -0.24187279
-0.18026392 0.17716061 -0.24187696
-0.18026081 0.17723662 -0.24187915
-0.18025821 0.17731436 -0.2418693
-0.18025559 0.17739016 -0.24186151
-0.18025239 0.1774662 -0.24186569
-0.18024911 0.17754425 -0.24186982
-0.180246 0.17762026 -0.24187201
-0.18024205 0.17769863 -0.24189013
-0.18023767 0.1777752 -0.24191828
-0.18023342 0.1778537 -0.24194239
-0.18022928 0.17793214 -0.24196449
-0.18148771 0.15260479 -0.23654769
-0.18148538 0.15268046 -0.23653391
-0.18148275 0.15275429 -0.23652816
-0.18148141 0.15283147 -0.23649234
-0.18147814 0.15298608 -0.2364327
-0.18147701 0.15306513 -0.23639086
-0.18147507 0.1531406 -0.23636907
-0.18147434 0.15321948 -0.23631924
-0.18147211 0.15329508 -0.23630346
-0.18146946 0.15336892 -0.23629771
-0.18146743 0.15344445 -0.23627792
-0.18146637 0.15352149 -0.23623613
-0.18146405 0.15359716 -0.23622234
-0.1814618 0.15367082 -0.23620859
-0.18145895 0.15374474 -0.23620683
-0.18145703 0.15382218 -0.23618302
-0.18144937 0.15412408 -0.23609388
-0.18144761 0.15419948 -0.23606811
-0.18144499 0.15427527 -0.23606032
-0.18144245 0.15434906 -0.23605257
-0.18144029 0.15442267 -0.23603682
-0.18143836 0.15449816 -0.23601505
-0.18143703 0.15457729 -0.2359772
-0.18143448 0.15465109 -0.23596945
-0.18143144 0.15472314 -0.23597372
-0.18142901 0.15479885 -0.23596193
-0.18142727 0.15487424 -0.23593616
-0.18142462 0.15494807 -0.2359304
-0.18142177 0.15502004 -0.23593068
-0.18141992 0.15509549 -0.2359069
-0.18141809 0.15517288 -0.23588109
-0.18141536 0.15524676 -0.23587734
-0.1814125 0.15531874 -0.2358776
-0.18140957 0.15539271 -0.23587784
-0.18140712 0.15546645 -0.2358681
-0.18140458 0.15554024 -0.23586035
-0.18140183 0.15561412 -0.23585659
-0.18139941 0.15568984 -0.23584479
-0.18139696 0.15576358 -0.23583505
-0.1813942 0.15583551 -0.23583333
-0.18139139 0.15591139 -0.23582953
-0.18138914 0.15598504 -0.23581579
-0.1813864 0.15605892 -0.23581204
-0.18138385 0.15613273 -0.23580429
-0.18138151 0.15620643 -0.23579252
-0.18137936 0.15628199 -0.23577476
-0.18137723 0.15635757 -0.23575696
-0.18137449 0.15643145 -0.23575321
-0.18137185 0.15650529 -0.23574746
-0.1813696 0.15657894 -0.23573372
-0.18136676 0.15665287 -0.23573196
-0.18136391 0.15672484 -0.23573223
-0.18136078 0.1567989 -0.23573646
-0.18135776 0.15687291 -0.23573869
-0.18135579 0.15694645 -0.23571897
-0.18135366 0.15702201 -0.23570117
-0.18135101 0.15709585 -0.23569542
-0.18134867 0.15716955 -0.23568368
-0.18134612 0.15724336 -0.23567592
-0.18134329 0.15731728 -0.23567416
-0.18134063 0.15739112 -0.23566841
-0.18133858 0.15746468 -0.23565066
-0.18133594 0.15753852 -0.23564491
-0.18133309 0.15761244 -0.23564315
-0.18133084 0.15768611 -0.23562941
-0.18132791 0.15776008 -0.23562965
-0.18132477 0.15783218 -0.23563594
-0.18132232 0.15790594 -0.23562618
-0.18131958 0.15797982 -0.23562242
-0.18131714 0.15805356 -0.23561266
-0.181315 0.15812913 -0.23559488
-0.18131293 0.15820271 -0.23557714
-0.1813101 0.15827663 -0.23557538
-0.18130705 0.15834869 -0.23557967
-0.18130471 0.1584224 -0.23556793
-0.18130228 0.15849809 -0.23555613
-0.18129972 0.15856993 -0.23555042
-0.18129706 0.15864378 -0.23554465
-0.18129423 0.15871769 -0.23554289
-0.18129098 0.15878984 -0.23555118
-0.18128796 0.15886386 -0.23555341
-0.1812858 0.15893747 -0.23553768
-0.18128335 0.15901123 -0.23552792
-0.18128033 0.15908524 -0.23553015
-0.18127728 0.15915729 -0.23553443
-0.18127473 0.1592311 -0.23552668
-0.18127258 0.15930471 -0.23551095
-0.18127054 0.15938023 -0.23549116
-0.18033624 0.17524992 -0.24193713
-0.18033342 0.1753258 -0.24193333
-0.1803308 0.1754016 -0.24192554
-0.18032791 0.17547947 -0.24192168
-0.180325 0.17555539 -0.24191988
-0.18032189 0.1756314 -0.24192205
-0.18031888 0.17570737 -0.24192224
-0.1803159 0.17578529 -0.24192038
-0.18031289 0.17586125 -0.24192059
-0.18030997 0.17593718 -0.24191877
-0.18030718 0.17601502 -0.24191293
-0.18030436 0.1760909 -0.24190912
-0.18030155 0.17616677 -0.2419053
-0.18029854 0.17624274 -0.24190551
-0.18029553 0.17631871 -0.24190569
-0.18029311 0.17639636 -0.24189186
-0.18029068 0.17647207 -0.24188006
-0.18028739 0.17654817 -0.24188624
-0.18028399 0.1766243 -0.24189442
-0.18028091 0.17670228 -0.24189457
-0.18027809 0.17677815 -0.24189076
-0.18027508 0.17685412 -0.24189094
-0.18027239 0.1769319 -0.2418831
-0.18026967 0.17700773 -0.24187729
-0.18026675 0.17708366 -0.24187548
-0.18026374 0.17715962 -0.24187568
-0.18026073 0.17723559 -0.24187586
-0.18025775 0.17731352 -0.24187401
-0.18025483 0.17738944 -0.24187219
-0.18025163 0.1774655 -0.24187639
-0.18024835 0.17754355 -0.24188052
-0.18024525 0.17761955 -0.24188271
-0.18024187 0.17769764 -0.24188884
-0.18023713 0.17777637 -0.24192293
-0.18023287 0.1778529 -0.24194908
-0.18022841 0.17793147 -0.24197719
-0.18148449 0.15267968 -0.23653793
-0.18148185 0.15275352 -0.23653218
-0.18148071 0.1528306 -0.23649237
-0.18147868 0.15290809 -0.23647055
-0.18147652 0.1529817 -0.2364548
-0.18147346 0.15313622 -0.23639117
-0.18147311 0.15321492 -0.23633336
-0.18147109 0.1532924 -0.23631153
-0.18146855 0.15336619 -0.23630378
-0.18146592 0.153442 -0.23629597
-0.18146577 0.1535206 -0.23623416
-0.18146332 0.15359434 -0.23622441
-0.18146069 0.15367013 -0.2362166
-0.18145786 0.15374406 -0.23621485
-0.18145554 0.15381972 -0.23620105
-0.18145487 0.15389659 -0.23615128
-0.18144643 0.15419883 -0.23607814
-0.18144427 0.15427245 -0.23606241
-0.18144172 0.15434624 -0.23605464
-0.18143959 0.15442181 -0.23603687
-0.18143755 0.15449734 -0.23601708
-0.1814363 0.15457447 -0.23597927
-0.18143389 0.15465018 -0.23596749
-0.18143073 0.15472227 -0.23597376
-0.181428 0.15479615 -0.23596999
-0.18142584 0.15486978 -0.23595425
-0.18142322 0.15494557 -0.23594646
-0.18142116 0.15501915 -0.23592871
-0.18141882 0.1550948 -0.23591493
-0.18141708 0.1551702 -0.23588915
-0.18141453 0.15524399 -0.2358814
-0.18141159 0.15531796 -0.23588164
-0.18140857 0.15539198 -0.23588386
-0.1814061 0.15546377 -0.23587617
-0.18140358 0.15553951 -0.23586637
-0.18140075 0.15561344 -0.23586461
-0.18139809 0.15568727 -0.23585886
-0.18139584 0.15576094 -0.23584512
-0.18139291 0.15583491 -0.23584536
-0.18139018 0.15590879 -0.2358416
-0.18138802 0.1559824 -0.23582587
-0.18138549 0.15605816 -0.23581606
-0.18138295 0.15613195 -0.23580831
-0.1813806 0.15620565 -0.23579657
-0.18137856 0.15628117 -0.23577678
-0.1813765 0.15635476 -0.23575905
-0.18137376 0.15642864 -0.23575529
-0.18137102 0.15650252 -0.23575152
-0.18136868 0.15657622 -0.23573978
-0.18136583 0.15665014 -0.23573802
-0.18136309 0.15672404 -0.23573427
-0.18136007 0.15679803 -0.2357365
-0.18135712 0.15687005 -0.23573878
-0.18135476 0.15694377 -0.23572704
-0.18135263 0.15701933 -0.23570925
-0.18135008 0.15709312 -0.2357015
-0.18134725 0.15716705 -0.23569974
-0.1813447 0.15724084 -0.23569199
-0.18134215 0.15731464 -0.23568425
-0.18133952 0.15738848 -0.23567848
-0.18133736 0.15746209 -0.23566274
-0.18133484 0.15753785 -0.23565295
-0.18133217 0.15760972 -0.23564923
-0.18132973 0.15768348 -0.23563948
-0.1813266 0.15775754 -0.23564371
-0.18132365 0.15782954 -0.23564601
-0.18132131 0.15790521 -0.23563221
-0.18131897 0.15797891 -0.23562047
-0.18131651 0.15805265 -0.23561072
-0.18131407 0.15812641 -0.23560098
-0.18131191 0.15820003 -0.23558523
-0.18130919 0.15827586 -0.23557943
-0.18130614 0.15834792 -0.23558369
-0.18130369 0.15842167 -0.23557395
-0.18130134 0.15849537 -0.23556221
-0.18129861 0.15856925 -0.23555845
-0.18129577 0.15864319 -0.23555669
-0.18129313 0.15871702 -0.23555094
-0.18129018 0.15878902 -0.23555322
-0.18128705 0.15886308 -0.23555744
-0.1812847 0.1589368 -0.23554569
-0.18128225 0.15901054 -0.23553595
-0.18127939 0.15908252 -0.23553625
-0.18127626 0.15915656 -0.23554048
-0.18127382 0.15923032 -0.23553072
-0.18127166 0.15930393 -0.23551498
-0.18126932 0.15937763 -0.23550323
-0.18126628 0.15945165 -0.23550546
-0.18033217 0.17532514 -0.24194342
-0.18032947 0.17540292 -0.24193558
-0.18032666 0.1754788 -0.24193177
-0.18032335 0.1755549 -0.24193795
-0.18032014 0.17563096 -0.24194214
-0.18031736 0.17570879 -0.2419363
-0.18031454 0.17578466 -0.24193248
-0.18031143 0.17586067 -0.24193466
-0.18030852 0.17593659 -0.24193287
-0.18030582 0.17601439 -0.24192502
-0.18030301 0.17609027 -0.24192122
-0.18030009 0.17616619 -0.2419194
-0.18029708 0.17624216 -0.24191959
-0.18029419 0.17632003 -0.24191573
-0.18029186 0.1763957 -0.24190195
-0.18028933 0.17647144 -0.24189216
-0.18028603 0.17654754 -0.24189833
-0.18028265 0.17662564 -0.24190447
-0.18027975 0.17670156 -0.24190266
-0.18027674 0.17677753 -0.24190286
-0.18027382 0.17685345 -0.24190104
-0.18027103 0.17693128 -0.2418952
-0.18026821 0.17700715 -0.24189138
-0.1802654 0.17708305 -0.24188757
-0.18026221 0.17716105 -0.24188972
-0.1802593 0.17723697 -0.24188791
-0.18025638 0.1773129 -0.24188611
-0.18025339 0.17738886 -0.24188629
-0.1802502 0.17746687 -0.24188843
-0.18024708 0.17754288 -0.24189061
-0.18024379 0.17761898 -0.24189681
-0.18024032 0.17769712 -0.24190493
-0.18023597 0.17777565 -0.24193104
-0.18023179 0.17785214 -0.24195519
-0.18022774 0.17793055 -0.24197531
-0.1814882 0.15260348 -0.23656002
-0.181486 0.15268104 -0.23654217
-0.18148345 0.15275483 -0.23653442
-0.18148191 0.15283209 -0.23650262
-0.18148029 0.1529094 -0.23647279
-0.18147783 0.15298316 -0.23646306
-0.1814764 0.15306038 -0.23642924
-0.18147422 0.15321645 -0.23634559
-0.18147238 0.1532919 -0.23632182
-0.18146986 0.15336764 -0.23631203
-0.18146731 0.15344144 -0.23630427
-0.18146698 0.15352209 -0.23624441
-0.18146482 0.1535957 -0.23622866
-0.1814622 0.15367149 -0.23622087
-0.18145937 0.15374541 -0.23621911
-0.18145692 0.15381917 -0.23620936
-0.18145609 0.15389808 -0.23616152
-0.18144761 0.15419836 -0.23609042
-0.18144567 0.15427385 -0.23606864
-0.18144323 0.1543476 -0.23605889
-0.18144108 0.15442318 -0.2360411
-0.18143895 0.15449874 -0.23602334
-0.18143721 0.15457414 -0.23599756
-0.18143526 0.15464963 -0.23597577
-0.18143223 0.15472364 -0.23597801
-0.1814293 0.15479761 -0.23597825
-0.18142694 0.15487131 -0.2359665
-0.1814246 0.15494502 -0.23595476
-0.18142265 0.15502051 -0.23593298
-0.18142033 0.15509616 -0.23591918
-0.18141848 0.1551716 -0.2358954
-0.18141603 0.15524535 -0.23588565
-0.18141299 0.15531936 -0.23588789
-0.18141004 0.15539138 -0.23589018
-0.1814075 0.15546517 -0.23588243
-0.18140508 0.15554088 -0.23587063
-0.18140222 0.15561284 -0.23587091
-0.18139939 0.15568677 -0.23586914
-0.18139724 0.15576234 -0.23585138
-0.18139431 0.15583631 -0.2358516
-0.18139167 0.15591015 -0.23584585
-0.18138942 0.15598381 -0.23583211
-0.18138708 0.15605947 -0.23581831
-0.18138444 0.15613331 -0.23581256
-0.181382 0.15620705 -0.23580281
-0.18137996 0.15628259 -0.23578304
-0.1813779 0.15635616 -0.23576529
-0.18137516 0.15643004 -0.23576154
-0.18137214 0.15650405 -0.23576377
-0.18137017 0.15657759 -0.23574403
-0.18136734 0.15665151 -0.23574227
-0.1813646 0.15672539 -0.23573852
-0.18136175 0.15679932 -0.23573676
-0.1813588 0.15687133 -0.23573904
-0.18135616 0.15694517 -0.23573329
-0.18135403 0.15702073 -0.23571551
-0.18135168 0.15709445 -0.23570377
-0.18134865 0.15716845 -0.23570599
-0.18134591 0.15724234 -0.23570223
-0.18134356 0.15731604 -0.23569049
-0.18134111 0.15738979 -0.23568073
-0.18133865 0.15746354 -0.23567098
-0.18133612 0.15753733 -0.23566324
-0.18133357 0.15761113 -0.23565549
-0.18133113 0.15768488 -0.23564574
-0.18132789 0.15775898 -0.23565197
-0.18132494 0.15783098 -0.23565425
-0.18132262 0.15790665 -0.23564047
-0.18132046 0.15798026 -0.23562472
-0.1813181 0.15805398 -0.23561297
-0.18131547 0.15812781 -0.23560721
-0.18131331 0.15820143 -0.23559147
-0.18131067 0.15827526 -0.23558572
-0.18130754 0.15834932 -0.23558995
-0.18130499 0.15842311 -0.2355822
-0.18130274 0.15849678 -0.23556846
-0.1813 0.15857066 -0.23556471
-0.18129706 0.15864463 -0.23556493
-0.1812945 0.15871647 -0.23555923
-0.18129167 0.15879039 -0.23555747
-0.18128863 0.15886441 -0.2355597
-0.18128598 0.15893628 -0.23555599
-0.18128344 0.15901203 -0.2355462
-0.18128069 0.15908396 -0.23554449
-0.18127774 0.15915596 -0.23554677
-0.18127511 0.15923177 -0.23553896
-0.18127295 0.15930538 -0.23552322
-0.18127012 0.1593793 -0.23552147
-0.18126756 0.15945114 -0.23551577
-0.18033348 0.17532654 -0.24194966
-0.18033078 0.17540433 -0.24194181
-0.18032788 0.17548025 -0.24194002
-0.18032457 0.17555635 -0.24194619
-0.18032129 0.1756344 -0.24195033
-0.18031847 0.17571028 -0.24194652
-0.18031555 0.1757862 -0.24194472
-0.18031254 0.17586216 -0.24194491
-0.18030964 0.17593808 -0.24194309
-0.18030694 0.17601588 -0.24193525
-0.18030423 0.17609172 -0.24192944
-0.18030131 0.17616764 -0.24192764
-0.18029822 0.1762456 -0.24192777
-0.18029532 0.17632152 -0.24192597
-0.18029298 0.17639719 -0.24191219
-0.18029046 0.17647293 -0.24190238
-0.18028708 0.17655103 -0.24190852
-0.18028387 0.17662708 -0.24191271
-0.18028097 0.17670301 -0.2419109
-0.18027785 0.17677902 -0.24191308
-0.18027496 0.17685689 -0.24190924
-0.18027215 0.17693277 -0.24190542
-0.18026924 0.17700869 -0.24190362
-0.18026632 0.17708461 -0.24190181
-0.18026324 0.17716257 -0.24190195
-0.18026042 0.17723846 -0.24189815
-0.18025751 0.17731439 -0.24189633
-0.1802545 0.17739035 -0.24189653
-0.1802514 0.17746831 -0.24189667
-0.1802482 0.17754437 -0.24190086
-0.18024483 0.17762247 -0.241907
-0.18024144 0.1776986 -0.24191517
-0.18023738 0.17777701 -0.24193528
-0.18023339 0.17785341 -0.24195544
-0.18022944 0.17793177 -0.24197355
-0.18021604 0.17802224 -0.24217921
-0.18148525 0.15260093 -0.23655245
-0.18148272 0.15267667 -0.23654264
-0.18148017 0.15275046 -0.23653489
-0.18147843 0.15282586 -0.23650911
-0.18147495 0.15297861 -0.23645553
-0.18147114 0.15321201 -0.23634207
-0.18146932 0.15328941 -0.23631625
-0.18146658 0.15336329 -0.23631249
-0.18146403 0.15343708 -0.23630473
-0.1814637 0.15351772 -0.23624487
-0.18146156 0.15359133 -0.23622912
-0.18145883 0.15366717 -0.23622333
-0.18145598 0.15373914 -0.23622361
-0.18145356 0.15381485 -0.23621181
-0.1814533 0.1538935 -0.23615199
-0.18144456 0.15419587 -0.23608485
-0.1814426 0.1542694 -0.23606512
-0.18144006 0.15434319 -0.23605737
-0.18143772 0.15441886 -0.23604357
-0.18143567 0.15449437 -0.2360238
-0.18143415 0.15457164 -0.23599198
-0.18143208 0.15464522 -0.23597425
-0.18142897 0.15471928 -0.23597848
-0.18142642 0.15479307 -0.23597074
-0.18142428 0.15486863 -0.23595294
-0.18142155 0.15494251 -0.23594919
-0.18141939 0.15501614 -0.23593345
-0.18141705 0.15509179 -0.23591965
-0.18141522 0.15516724 -0.23589587
-0.18141276 0.15524098 -0.23588613
-0.18140973 0.155315 -0.23588836
-0.18140678 0.15538701 -0.23589063
-0.18140434 0.15546076 -0.2358809
-0.1814018 0.15553652 -0.23587111
-0.18139894 0.15560848 -0.23587137
-0.18139613 0.15568437 -0.23586757
-0.18139398 0.15575798 -0.23585184
-0.18139113 0.1558319 -0.23585007
-0.18138841 0.15590578 -0.23584631
-0.18138625 0.15597939 -0.23583058
-0.18138382 0.15605511 -0.23581877
-0.18138118 0.15612894 -0.23581302
-0.18137863 0.15620273 -0.23580527
-0.18137659 0.15627827 -0.23578548
-0.18137462 0.15635179 -0.23576576
-0.18137199 0.15642563 -0.23576
-0.18136916 0.15649955 -0.23575824
-0.18136699 0.15657318 -0.23574251
-0.18136418 0.15664905 -0.23573869
-0.18136142 0.15672098 -0.235737
-0.1813584 0.156795 -0.23573923
-0.18135543 0.15686701 -0.23574151
-0.18135311 0.15694267 -0.23572771
-0.18135095 0.15701628 -0.23571198
-0.1813482 0.15709016 -0.23570821
-0.18134518 0.15716417 -0.23571044
-0.18134263 0.15723798 -0.23570269
-0.18134029 0.15731168 -0.23569095
-0.18133783 0.15738542 -0.23568121
-0.18133558 0.15745908 -0.23566747
-0.18133296 0.15753488 -0.23565966
-0.18133029 0.15760677 -0.23565596
-0.18132776 0.15768056 -0.2356482
-0.18132472 0.15775457 -0.23565044
-0.18132158 0.15782666 -0.23565671
-0.18131934 0.15790229 -0.23564091
-0.18131718 0.1579759 -0.23562518
-0.18131484 0.15804961 -0.23561344
-0.1813121 0.15812349 -0.23560968
-0.18131013 0.15819702 -0.23558995
-0.18130749 0.15827085 -0.2355842
-0.18130437 0.15834491 -0.23558843
-0.18130192 0.15841866 -0.23557867
-0.18129967 0.15849233 -0.23556493
-0.18129683 0.15856625 -0.23556317
-0.18129399 0.15864018 -0.23556142
-0.18129133 0.15871206 -0.23555771
-0.1812883 0.15878607 -0.23555994
-0.18128535 0.15885808 -0.23556222
-0.1812828 0.15893188 -0.23555447
-0.18128037 0.15900758 -0.23554267
-0.18127751 0.15907955 -0.23554295
-0.18127437 0.15915164 -0.23554924
-0.18127175 0.15922745 -0.23554143
-0.18126969 0.15930101 -0.2355237
-0.18126744 0.15937468 -0.23550996
-0.18126459 0.15944861 -0.23550819
-0.1803304 0.17532209 -0.24194613
-0.1803277 0.17539987 -0.24193829
-0.18032488 0.17547575 -0.24193448
-0.18032168 0.1755518 -0.24193867
-0.18031847 0.17562786 -0.24194285
-0.18031558 0.17570573 -0.24193901
-0.18031268 0.17578167 -0.24193719
-0.18030956 0.17585766 -0.24193938
-0.18030666 0.1759336 -0.24193758
-0.18030396 0.17601138 -0.24192971
-0.18030104 0.1760873 -0.24192792
-0.18029822 0.17616318 -0.24192411
-0.18029521 0.17623915 -0.2419243
-0.18029223 0.17631707 -0.24192244
-0.18029 0.17639269 -0.24190666
-0.18028747 0.17646843 -0.24189687
-0.18028426 0.17654449 -0.24190104
-0.18028079 0.17662263 -0.24190918
-0.18027788 0.17669855 -0.24190736
-0.18027487 0.17677452 -0.24190757
-0.18027195 0.17685044 -0.24190575
-0.18026917 0.17692827 -0.24189991
-0.18026635 0.17700416 -0.24189609
-0.18026343 0.17708008 -0.24189429
-0.18026035 0.17715804 -0.24189442
-0.18025734 0.17723401 -0.24189462
-0.18025452 0.17730989 -0.24189082
-0.1802517 0.17738576 -0.241887
-0.18024842 0.17746381 -0.24189115
-0.18024522 0.17753987 -0.24189533
-0.18024202 0.17761593 -0.24189952
-0.18023846 0.17769411 -0.24190965
-0.18023419 0.1777726 -0.24193375
-0.18023013 0.17784904 -0.24195591
-0.18022551 0.17792967 -0.24198596
-0.18148756 0.15260687 -0.2365503
-0.18148543 0.15268244 -0.23653251
-0.18148281 0.15275823 -0.2365247
-0.18147951 0.15291089 -0.23646712
-0.18147768 0.15298633 -0.23644334
-0.18147451 0.1531409 -0.23638171
-0.18147495 0.15322119 -0.23630588
-0.18147214 0.15329708 -0.23630206
-0.18146938 0.15336901 -0.23630035
-0.18146695 0.15344471 -0.23628856
-0.1814665 0.15352345 -0.23623273
-0.18146418 0.1535991 -0.23621894
-0.18146175 0.15367481 -0.23620714
-0.1814592 0.1537486 -0.23619939
-0.18145788 0.15382577 -0.23616359
-0.18144755 0.15420151 -0.23606873
-0.18144514 0.15427721 -0.23605692
-0.18144268 0.15435095 -0.23604718
-0.18144064 0.15442649 -0.23602739
-0.18143842 0.15450209 -0.23601161
-0.18143716 0.15457922 -0.23597381
-0.18143481 0.15465294 -0.23596206
-0.18143186 0.15472496 -0.23596433
-0.18142895 0.15480088 -0.23596254
-0.18142711 0.15487631 -0.23593876
-0.18142466 0.15495007 -0.235929
-0.18142192 0.15502395 -0.23592526
-0.18141967 0.1550976 -0.2359115
-0.18141803 0.15517491 -0.23588169
-0.18141559 0.15524866 -0.23587194
-0.18141265 0.15532263 -0.23587218
-0.1814097 0.15539464 -0.23587446
-0.18140706 0.15546848 -0.23586869
-0.18140472 0.15554415 -0.23585491
-0.181402 0.15561803 -0.23585115
-0.18139945 0.15569182 -0.23584341
-0.1813972 0.15576547 -0.23582965
-0.18139435 0.1558394 -0.23582789
-0.18139182 0.15591319 -0.23582014
-0.18138948 0.15598886 -0.23580635
-0.18138674 0.15606274 -0.23580259
-0.1813841 0.15613657 -0.23579684
-0.18138166 0.15621032 -0.23578709
-0.1813795 0.15628394 -0.23577136
-0.18137756 0.15635942 -0.23574957
-0.18137443 0.15643348 -0.2357538
-0.18137176 0.15650536 -0.23575011
-0.18136954 0.15658098 -0.23573431
-0.1813668 0.15665486 -0.23573056
-0.18136385 0.15672687 -0.23573282
-0.18136081 0.15680088 -0.23573506
-0.18135807 0.15687476 -0.2357313
-0.18135592 0.15694839 -0.23571557
-0.18135397 0.15702388 -0.23569378
-0.1813487 0.15717155 -0.23568228
-0.18134595 0.15724543 -0.23567852
-0.18134351 0.15731917 -0.23566878
-0.18134096 0.15739296 -0.23566103
-0.18133871 0.15746664 -0.23564728
-0.18133608 0.15754047 -0.23564151
-0.18133342 0.15761431 -0.23563576
-0.18133108 0.15768801 -0.23562402
-0.18132824 0.15776193 -0.23562226
-0.18132509 0.15783404 -0.23562855
-0.18132247 0.15790983 -0.23562074
-0.1813198 0.15798171 -0.23561703
-0.18131778 0.15805724 -0.23559725
-0.18131523 0.15813103 -0.2355895
-0.18131287 0.15820473 -0.23557775
-0.18131013 0.15827861 -0.23557398
-0.18130718 0.15835063 -0.23557627
-0.18130483 0.15842433 -0.23556453
-0.1813025 0.1585 -0.23555073
-0.18129975 0.15857193 -0.23554902
-0.18129711 0.15864576 -0.23554327
-0.18129456 0.15871955 -0.2355355
-0.18129143 0.15879361 -0.23553975
-0.18128829 0.15886571 -0.23554602
-0.18128593 0.15893942 -0.23553428
-0.1812835 0.15901512 -0.23552248
-0.18128066 0.15908709 -0.23552276
-0.1812775 0.1591592 -0.23552904
-0.18127447 0.15923321 -0.23553127
-0.18127251 0.15930673 -0.23551154
-0.18127038 0.15938231 -0.23549375
-0.18033352 0.17532775 -0.24192995
-0.1803309 0.17540354 -0.24192214
-0.18032801 0.17548141 -0.2419183
-0.18032481 0.17555746 -0.24192247
-0.1803218 0.17563343 -0.24192266
-0.18031889 0.17570935 -0.24192086
-0.180316 0.17578723 -0.241917
-0.1803128 0.17586328 -0.24192119
-0.18030988 0.1759392 -0.24191937
-0.18030709 0.17601705 -0.24191353
-0.18030427 0.17609292 -0.24190971
-0.18030126 0.17616889 -0.24190991
-0.18029834 0.17624481 -0.2419081
-0.18029544 0.17632073 -0.24190629
-0.18029304 0.17639838 -0.24189246
-0.18029051 0.17647414 -0.24188265
-0.1802873 0.17655019 -0.24188684
-0.1802839 0.17662632 -0.24189502
-0.18028082 0.1767043 -0.24189517
-0.180278 0.17678018 -0.24189135
-0.18027529 0.17685601 -0.24188554
-0.18027249 0.17693384 -0.2418797
-0.18026967 0.17700972 -0.2418759
-0.18026666 0.17708568 -0.2418761
-0.18026346 0.17716174 -0.24188027
-0.18026029 0.17723975 -0.24188241
-0.18025766 0.17731555 -0.24187461
-0.18025504 0.17739134 -0.24186681
-0.18025184 0.17746739 -0.241871
-0.18024845 0.17754549 -0.24187714
-0.18024535 0.1776215 -0.24187931
-0.18024158 0.17769976 -0.24189344
-0.18023714 0.17777835 -0.24192154
-0.18023306 0.17785479 -0.24194369
-0.18022892 0.17793323 -0.2419658
-0.18148714 0.15260303 -0.2365507
-0.181485 0.15267859 -0.23653293
-0.18148229 0.15275443 -0.23652712
-0.18148074 0.15282974 -0.23649734
-0.18147746 0.1529824 -0.23643976
-0.18147653 0.15306331 -0.23639187
-0.18147419 0.15313701 -0.23638013
-0.18147415 0.15321752 -0.23631427
-0.18147172 0.15329324 -0.23630247
-0.18146896 0.15336516 -0.23630077
-0.18146653 0.15344086 -0.23628896
-0.18146609 0.1535196 -0.23623314
-0.18146357 0.15359534 -0.23622335
-0.18146113 0.15366909 -0.23621359
-0.18145847 0.15374294 -0.23620784
-0.18145657 0.15382037 -0.23618403
-0.18144879 0.15412231 -0.2360969
-0.18144704 0.15419771 -0.23607112
-0.18144462 0.15427341 -0.23605934
-0.18144207 0.15434721 -0.23605159
-0.18143983 0.15442282 -0.23603579
-0.18143788 0.15449634 -0.23601606
-0.18143666 0.15457544 -0.23597622
-0.18143411 0.15464923 -0.23596846
-0.18143116 0.15472125 -0.23597074
-0.18142863 0.15479699 -0.23596096
-0.18142688 0.15487239 -0.23593518
-0.18142425 0.15494622 -0.23592941
-0.18142141 0.15502015 -0.23592766
-0.18141925 0.15509376 -0.23591191
-0.18141761 0.15517107 -0.2358821
-0.18141508 0.15524487 -0.23587435
-0.18141204 0.15531889 -0.23587659
-0.1814092 0.15539084 -0.23587686
-0.18140665 0.15546465 -0.23586911
-0.18140422 0.15554035 -0.23585734
-0.18140146 0.15561228 -0.23585561
-0.18139884 0.15568806 -0.23584782
-0.18139648 0.15576176 -0.23583606
-0.18139374 0.15583566 -0.2358323
-0.18139111 0.15590948 -0.23582655
-0.18138894 0.15598311 -0.23581082
-0.18138611 0.15605703 -0.23580906
-0.18138348 0.15613087 -0.23580331
-0.18138103 0.15620461 -0.23579356
-0.18137889 0.15628019 -0.23577577
-0.18137695 0.15635568 -0.23575398
-0.18137401 0.15642965 -0.23575422
-0.18137135 0.15650153 -0.23575053
-0.18136913 0.15657714 -0.23573473
-0.18136638 0.15665102 -0.23573098
-0.18136343 0.15672304 -0.23573326
-0.18136039 0.15679705 -0.23573549
-0.18135756 0.15687098 -0.23573372
-0.1813556 0.1569445 -0.23571399
-0.18135346 0.15702008 -0.2356962
-0.18135072 0.15709396 -0.23569244
-0.18134828 0.1571677 -0.2356827
-0.18134554 0.15724158 -0.23567894
-0.1813429 0.15731542 -0.23567319
-0.18134035 0.15738922 -0.23566544
-0.18133819 0.15746284 -0.2356497
-0.18133546 0.15753672 -0.23564595
-0.18133272 0.1576106 -0.23564219
-0.18133047 0.15768425 -0.23562844
-0.18132763 0.15775818 -0.23562668
-0.18132448 0.15783028 -0.23563296
-0.18132196 0.15790603 -0.23562315
-0.1813193 0.15797791 -0.23561946
-0.18131685 0.15805167 -0.23560971
-0.18131462 0.15812728 -0.23559391
-0.18131256 0.15820086 -0.23557618
-0.18130973 0.15827478 -0.23557441
-0.18130668 0.15834683 -0.23557869
-0.18130443 0.1584205 -0.23556495
-0.181302 0.1584962 -0.23555316
-0.18129933 0.15856808 -0.23554945
-0.18129659 0.15864196 -0.23554569
-0.18129405 0.15871575 -0.23553795
-0.18129081 0.15878791 -0.23554622
-0.18128757 0.15886201 -0.23555245
-0.18128532 0.15893567 -0.23553869
-0.18128297 0.15900937 -0.23552695
-0.18128014 0.15908329 -0.23552519
-0.18127699 0.1591554 -0.23553148
-0.18127416 0.15922932 -0.23552972
-0.181272 0.15930294 -0.23551397
-0.18127006 0.15937842 -0.23549218
-0.18033582 0.17524804 -0.24193622
-0.18033311 0.17532389 -0.24193043
-0.18033049 0.17539968 -0.24192262
-0.18032759 0.17547755 -0.24191877
-0.18032458 0.17555352 -0.24191895
-0.18032148 0.17562953 -0.24192116
-0.18031847 0.17570549 -0.24192134
-0.18031558 0.17578337 -0.24191749
-0.18031238 0.17585942 -0.24192166
-0.18030946 0.17593534 -0.24191986
-0.18030657 0.17601323 -0.241916
-0.18030375 0.17608911 -0.2419122
-0.18030085 0.17616503 -0.2419104
-0.18029793 0.17624095 -0.24190858
-0.18029492 0.17631692 -0.24190877
-0.18029241 0.17639461 -0.24189693
-0.18029009 0.17647028 -0.24188314
-0.18028697 0.17654629 -0.24188533
-0.18028358 0.17662244 -0.2418935
-0.1802804 0.17670044 -0.24189565
-0.18027759 0.17677632 -0.24189183
-0.18027467 0.17685224 -0.24189004
