# .PCD v0.7 - Point Cloud Data file format
VERSION 0.7
FIELDS x y z
SIZE 4 4 4
TYPE F F F
COUNT 1 1 1
WIDTH 1379
HEIGHT 1
VIEWPOINT 0 0 0 1 0 0 0
POINTS 1379
DATA ascii
-0.18038979 0.17379992 -0.24197854
-0.18038709 0.1738777 -0.24197069
-0.18038408 0.17395367 -0.24197088
-0.18038088 0.17402972 -0.24197507
-0.18037769 0.17410578 -0.24197924
-0.18037468 0.17418174 -0.24197944
-0.1803716 0.17425971 -0.24197957
-0.18036868 0.17433563 -0.24197777
-0.18036596 0.17441146 -0.24197197
-0.18036316 0.17448929 -0.24196611
-0.18036015 0.17456526 -0.24196631
-0.18035734 0.17464115 -0.24196249
-0.18035424 0.17471716 -0.24196468
-0.18035093 0.17479324 -0.24197087
-0.18034823 0.17487104 -0.24196303
-0.18034562 0.17494683 -0.24195522
-0.1803427 0.17502275 -0.2419534
-0.18033989 0.17509863 -0.2419496
-0.18033691 0.17517655 -0.24194774
-0.18033399 0.17525247 -0.24194594
-0.18033127 0.17532831 -0.24194014
-0.18032858 0.1754061 -0.24193229
-0.18032566 0.17548202 -0.24193048
-0.18032245 0.17555808 -0.24193466
-0.18031935 0.17563409 -0.24193685
-0.18031654 0.17570996 -0.24193305
-0.18031365 0.17578784 -0.24192919
-0.18031055 0.17586385 -0.24193138
-0.18030754 0.17593981 -0.24193156
-0.18030484 0.17601761 -0.24192372
-0.18030202 0.17609349 -0.2419199
-0.1802991 0.17616941 -0.24191812
-0.1802962 0.17624533 -0.2419163
-0.18029329 0.17632125 -0.24191448
-0.18029077 0.17639896 -0.24190265
-0.18028836 0.17647466 -0.24189085
-0.18028516 0.17655072 -0.24189503
-0.18028168 0.17662886 -0.24190316
-0.18027876 0.17670478 -0.24190137
-0.18027586 0.1767807 -0.24189955
-0.18027294 0.17685662 -0.24189773
-0.18027015 0.17693445 -0.24189189
-0.18026742 0.17701028 -0.24188608
-0.18026452 0.1770862 -0.24188428
-0.18026131 0.17716226 -0.24188846
-0.18025823 0.17724022 -0.24188861
-0.18025552 0.17731607 -0.2418828
-0.18025251 0.17739204 -0.24188298
-0.18024939 0.17746805 -0.24188517
-0.18024622 0.17754605 -0.24188732
-0.18024302 0.17762211 -0.2418915
-0.18023944 0.17770028 -0.24190162
-0.18023509 0.17777883 -0.24192773
-0.18023083 0.17785536 -0.24195388
-0.18022677 0.17793377 -0.241974
-0.18153147 0.14809269 -0.23937809
-0.18155324 0.14875039 -0.23837733
-0.18155162 0.1488277 -0.2383475
-0.1815498 0.14890508 -0.23832169
-0.18154667 0.14897914 -0.23832592
-0.1815538 0.14941964 -0.23781188
-0.18155089 0.14949556 -0.23781008
-0.18154824 0.14982072 -0.23759651
-0.18154581 0.14989641 -0.23758471
-0.18154408 0.14997377 -0.2375569
-0.18154345 0.15005454 -0.23750302
-0.18154113 0.1501302 -0.23748922
-0.18154112 0.15021266 -0.23742133
-0.1815401 0.15029362 -0.23737544
-0.18153778 0.15036927 -0.23736164
-0.18153596 0.15044667 -0.23733583
-0.18153463 0.15052581 -0.23729798
-0.1815331 0.15060307 -0.23726615
-0.18153118 0.1506805 -0.23724234
-0.18153018 0.15076146 -0.23719645
-0.18152964 0.15084219 -0.23714057
-0.1815273 0.15091589 -0.23712882
-0.18152538 0.15099333 -0.237105
-0.18152495 0.15107402 -0.23704714
-0.18152262 0.15114968 -0.23703334
-0.1815203 0.15122534 -0.23701954
-0.18151835 0.15130082 -0.23699775
-0.18151735 0.15138178 -0.23695189
-0.1815175 0.1514622 -0.23688203
-0.18151638 0.15154125 -0.23684017
-0.18151385 0.15161699 -0.23683038
-0.1815109 0.15168901 -0.23683265
-0.18150789 0.15176497 -0.23683286
-0.18150553 0.15183868 -0.23682112
-0.18150333 0.15191625 -0.23680326
-0.18150319 0.15199681 -0.23673941
-0.18150154 0.15207216 -0.23671164
-0.1814986 0.15214613 -0.23671186
-0.18149589 0.15222196 -0.23670608
-0.18149424 0.15229732 -0.2366783
-0.18149191 0.15237297 -0.2366645
-0.18148963 0.15252911 -0.23658286
-0.18148568 0.15268207 -0.23653926
-0.18148313 0.15275586 -0.2365315
-0.1814817 0.15283307 -0.23649769
-0.18147774 0.15298605 -0.23645408
-0.18147455 0.15313867 -0.23639449
-0.18147452 0.15321918 -0.23632863
-0.18147257 0.15329467 -0.23630686
-0.18146974 0.15336859 -0.23630509
-0.18146712 0.15344438 -0.23629731
-0.18146697 0.15352298 -0.23623548
-0.18146442 0.15359677 -0.23622772
-0.1814619 0.15367252 -0.23621795
-0.18145916 0.1537464 -0.23621418
-0.18145692 0.15382202 -0.2361984
-0.18145727 0.15390235 -0.23612455
-0.18144763 0.15420122 -0.23607945
-0.18144546 0.15427484 -0.23606372
-0.18144292 0.15434863 -0.23605597
-0.18144068 0.15442425 -0.23604017
-0.18143865 0.15449977 -0.23602039
-0.18143751 0.15457687 -0.2359806
-0.18143497 0.15465261 -0.2359708
-0.18143193 0.15472467 -0.23597507
-0.18142928 0.15479851 -0.23596931
-0.18142715 0.15487407 -0.23595154
-0.1814246 0.15494788 -0.23594378
-0.18142226 0.15502158 -0.23593202
-0.18141992 0.15509723 -0.23591825
-0.18141837 0.15517254 -0.23588848
-0.18141593 0.15524629 -0.23587874
-0.18141289 0.1553203 -0.23588096
-0.18140987 0.15539432 -0.23588319
-0.18140723 0.15546815 -0.23587744
-0.18140468 0.15554194 -0.23586968
-0.18140185 0.15561587 -0.23586792
-0.1813993 0.15568966 -0.23586017
-0.18139714 0.15576328 -0.23584443
-0.18139422 0.15583725 -0.23584467
-0.18139167 0.15591104 -0.23583692
-0.18138933 0.15598671 -0.23582312
-0.18138669 0.15606055 -0.23581737
-0.18138415 0.15613434 -0.23580962
-0.18138181 0.15620804 -0.23579787
-0.18137957 0.15628366 -0.23578209
-0.1813776 0.15635718 -0.23576236
-0.18137489 0.15643302 -0.23575655
-0.18137223 0.1565049 -0.23575284
-0.1813699 0.15658057 -0.23573905
-0.18136697 0.15665454 -0.23573929
-0.18136421 0.15672646 -0.23573756
-0.18136127 0.15680043 -0.2357378
-0.18135834 0.1568744 -0.23573804
-0.18135619 0.15694802 -0.2357223
-0.18135396 0.15702362 -0.23570651
-0.18135129 0.15709551 -0.23570281
-0.18134846 0.15716943 -0.23570104
-0.18134591 0.15724324 -0.23569329
-0.18134347 0.15731698 -0.23568353
-0.18134092 0.15739077 -0.23567578
-0.18133859 0.15746643 -0.235662
-0.18133613 0.15754019 -0.23565224
-0.1813333 0.15761411 -0.23565048
-0.18133095 0.15768781 -0.23563874
-0.181328 0.15775983 -0.23564103
-0.18132487 0.15783389 -0.23564525
-0.18132262 0.15790755 -0.23563151
-0.18132018 0.15798129 -0.23562177
-0.18131773 0.15805504 -0.235612
-0.18131527 0.1581288 -0.23560226
-0.18131313 0.15820241 -0.23558652
-0.1813104 0.15827824 -0.23558071
-0.18130736 0.1583503 -0.235585
-0.18130501 0.158424 -0.23557326
-0.18130276 0.15849768 -0.23555951
-0.18129992 0.1585716 -0.23555775
-0.18129708 0.15864553 -0.23555598
-0.18129444 0.15871936 -0.23555022
-0.18129139 0.15879142 -0.23555452
-0.18128836 0.15886542 -0.23555675
-0.18128601 0.15893914 -0.23554499
-0.18128356 0.15901288 -0.23553526
-0.18128073 0.15908681 -0.23553349
-0.18127759 0.15915892 -0.23553976
-0.18127504 0.15923271 -0.23553202
-0.18127279 0.15930636 -0.23551828
-0.18127055 0.15938199 -0.23550248
-0.18126769 0.15945394 -0.23550276
-0.18126474 0.15952596 -0.23550504
-0.18126231 0.15960167 -0.23549324
-0.18125965 0.15967356 -0.23548955
-0.18125594 0.15974787 -0.23550576
-0.1812527 0.15982002 -0.23551403
-0.18124995 0.15989195 -0.23551232
-0.18124741 0.15996769 -0.23550251
-0.18124527 0.1600413 -0.23548678
-0.18124261 0.16011515 -0.23548102
-0.18124005 0.16018699 -0.23547533
-0.18123692 0.16026103 -0.23547955
-0.18123429 0.16033489 -0.2354738
-0.18123142 0.16040684 -0.23547408
-0.18122801 0.16048104 -0.2354843
-0.18122534 0.16055292 -0.23548059
-0.18122301 0.16062662 -0.23546883
-0.18122046 0.16070041 -0.23546109
-0.1812174 0.16077247 -0.23546538
-0.18121418 0.16084658 -0.23547161
-0.18121155 0.16092041 -0.23546584
-0.18120939 0.16099402 -0.2354501
-0.18120664 0.16106792 -0.23544635
-0.18120408 0.16113976 -0.23544064
-0.18120165 0.16121545 -0.23542884
-0.18119939 0.16128716 -0.23541716
-0.18118039 0.16180229 -0.23538889
-0.18117753 0.16187426 -0.23538917
-0.18117549 0.16194978 -0.2353694
-0.18117331 0.16202144 -0.23535571
-0.18116997 0.16209364 -0.23536597
-0.18116607 0.16216804 -0.23538616
-0.1811638 0.16223976 -0.23537448
-0.18116215 0.1623151 -0.2353467
-0.18116038 0.16238855 -0.23532298
-0.18115872 0.1624639 -0.23529521
-0.18115619 0.16253769 -0.23528746
-0.18115303 0.1626098 -0.23529373
-0.18114941 0.16268212 -0.23530999
-0.18114577 0.16275443 -0.23532626
-0.18114303 0.16282833 -0.23532251
-0.18114127 0.16290176 -0.23529877
-0.18113862 0.16297559 -0.235293
-0.18113548 0.1630477 -0.23529929
-0.18113264 0.16312163 -0.23529753
-0.18112978 0.1631936 -0.23529781
-0.18112704 0.16326748 -0.23529404
-0.18112528 0.16334093 -0.23527032
-0.18112312 0.16341454 -0.23525459
-0.18111999 0.1634886 -0.23525882
-0.18111704 0.16356061 -0.23526108
-0.18111441 0.16363445 -0.23525535
-0.18111165 0.16370638 -0.23525363
-0.1811088 0.1637803 -0.23525187
-0.18110596 0.16385226 -0.23525214
-0.18110302 0.16392623 -0.23525238
-0.18110028 0.16400012 -0.23524863
-0.18109733 0.16407213 -0.23525092
-0.1810943 0.16414614 -0.23525316
-0.18109193 0.16421789 -0.23524344
-0.18108939 0.16429169 -0.23523569
-0.18108675 0.16436553 -0.23522994
-0.18108369 0.16443758 -0.23523422
-0.18108048 0.16451168 -0.23524044
-0.1810777 0.16458361 -0.23523873
-0.18107536 0.16465731 -0.23522699
-0.18107203 0.16472951 -0.23523726
-0.18106909 0.16480348 -0.23523749
-0.18106663 0.16487722 -0.23522773
-0.18106468 0.16495076 -0.235208
-0.18106173 0.16502276 -0.2352103
-0.18105829 0.165095 -0.23522255
-0.18105446 0.16516741 -0.23524281
-0.18105036 0.1652419 -0.23526701
-0.18101603 0.16611737 -0.23526216
-0.18101299 0.16619137 -0.23526439
-0.18101014 0.16626334 -0.23526466
-0.1810073 0.16633727 -0.2352629
-0.18100445 0.16640924 -0.2352632
-0.18100131 0.16648135 -0.23526946
-0.18098591 0.16677298 -0.23535044
-0.1809828 0.16684704 -0.23535468
-0.18097974 0.1669191 -0.23535895
-0.18097623 0.16699332 -0.23537117
-0.18097317 0.16706538 -0.23537546
-0.18097025 0.16713935 -0.23537569
-0.18096709 0.16721146 -0.23538196
-0.18096337 0.16728382 -0.23540023
-0.18095946 0.16735822 -0.23542044
-0.18095574 0.16743059 -0.23543869
-0.18095191 0.167503 -0.23545894
-0.18094827 0.16757531 -0.23547521
-0.18094359 0.16765007 -0.23551139
-0.18093967 0.16772254 -0.23553364
-0.18093595 0.1677949 -0.23555191
-0.18093134 0.16786766 -0.23558813
-0.18092696 0.16794229 -0.23561832
-0.18092342 0.16801456 -0.2356326
-0.18091834 0.16808754 -0.23567882
-0.18091246 0.16816087 -0.23574102
-0.18089692 0.16845454 -0.23582393
-0.18089338 0.16852683 -0.2358382
-0.18089016 0.16860092 -0.23584443
-0.18083706 0.1691177 -0.2365295
-0.18083119 0.16919105 -0.2365917
-0.18082523 0.16926442 -0.23665589
-0.18081811 0.16933832 -0.23674405
-0.18054314 0.16982578 -0.24210362
-0.18054122 0.16990322 -0.24207979
-0.18053831 0.16997914 -0.24207798
-0.1805355 0.17005502 -0.24207419
-0.18053338 0.17013255 -0.24205434
-0.18053105 0.1702082 -0.24204056
-0.18052727 0.17028452 -0.24205673
-0.18052387 0.17036067 -0.24206489
-0.18052107 0.1704385 -0.24205905
-0.18051864 0.1705142 -0.24204725
-0.18051574 0.17059013 -0.24204546
-0.18051262 0.17066614 -0.24204764
-0.18050991 0.17074198 -0.24204183
-0.18050663 0.17082003 -0.24204597
-0.18050343 0.17089608 -0.24205016
-0.18050072 0.17097192 -0.24204436
-0.18049908 0.17104922 -0.24201454
-0.18049656 0.17112496 -0.24200474
-0.18049325 0.17120107 -0.24201092
-0.18049015 0.17127708 -0.24201311
-0.18048772 0.17135277 -0.24200132
-0.18048503 0.17143057 -0.24199346
-0.18048152 0.17150675 -0.24200365
-0.18047842 0.17158276 -0.24200583
-0.1804761 0.17165843 -0.24199203
-0.18047321 0.1717363 -0.24198818
-0.18047 0.17181236 -0.24199237
-0.18046661 0.1718885 -0.24200055
-0.18046331 0.17196655 -0.24200469
-0.18046041 0.17204247 -0.24200287
-0.18045817 0.17211808 -0.24198708
-0.18045633 0.17219353 -0.24196331
-0.18045351 0.1722694 -0.24195951
-0.18044926 0.1723479 -0.24198361
-0.18044616 0.1724239 -0.2419858
-0.18044432 0.17249934 -0.24196202
-0.18044189 0.17257506 -0.24195023
-0.1804381 0.17265137 -0.2419664
-0.18043385 0.17272986 -0.24199051
-0.18043074 0.17280588 -0.24199268
-0.18042852 0.17288148 -0.24197689
-0.18042599 0.17295723 -0.24196711
-0.1804231 0.17303512 -0.24196324
-0.18041931 0.17311142 -0.24197942
-0.18041544 0.17318779 -0.24199757
-0.18041281 0.17326358 -0.24198978
-0.18040992 0.17334145 -0.24198593
-0.18040691 0.17341742 -0.24198613
-0.18040399 0.17349334 -0.24198431
-0.18040167 0.17356901 -0.24197051
-0.18039885 0.17364489 -0.24196671
-0.18039519 0.17372312 -0.24197882
-0.18039207 0.17379913 -0.24198103
-0.18038948 0.17387687 -0.24197116
-0.18038647 0.17395283 -0.24197137
-0.18038327 0.17402889 -0.24197555
-0.18038006 0.17410494 -0.24197973
-0.18037696 0.17418095 -0.24198192
-0.18037388 0.17425892 -0.24198207
-0.18037106 0.17433479 -0.24197826
-0.18036833 0.17441063 -0.24197245
-0.18036555 0.17448846 -0.24196661
-0.18036254 0.17456442 -0.24196678
-0.18035962 0.17464036 -0.241965
-0.18035661 0.17471632 -0.24196517
-0.18035331 0.17479241 -0.24197134
-0.18035062 0.17487021 -0.24196351
-0.18034789 0.17494604 -0.24195771
-0.18034498 0.17502196 -0.24195591
-0.18034227 0.17509779 -0.24195009
-0.18033928 0.17517571 -0.24194825
-0.18033637 0.17525165 -0.24194643
-0.18033364 0.17532748 -0.24194062
-0.18033095 0.17540526 -0.24193278
-0.18032813 0.17548114 -0.24192896
-0.18032493 0.1755572 -0.24193317
-0.18032183 0.17563321 -0.24193534
-0.18031901 0.17570908 -0.24193153
-0.18031602 0.175787 -0.24192968
-0.18031292 0.17586301 -0.24193187
-0.18030991 0.17593898 -0.24193206
-0.18030721 0.17601678 -0.24192421
-0.18030439 0.17609265 -0.24192041
-0.18030149 0.17616858 -0.24191859
-0.18029848 0.17624454 -0.24191879
-0.18029566 0.17632042 -0.24191499
-0.18029316 0.17639813 -0.24190314
-0.18029073 0.17647383 -0.24189135
-0.18028753 0.17654988 -0.24189553
-0.18028405 0.17662802 -0.24190366
-0.18028104 0.17670399 -0.24190384
-0.18027812 0.17677991 -0.24190204
-0.18027522 0.17685583 -0.24190024
-0.18027252 0.17693362 -0.2418924
-0.1802697 0.17700949 -0.24188858
-0.1802668 0.17708543 -0.24188678
-0.18026368 0.17716143 -0.24188896
-0.1802606 0.1772394 -0.2418891
-0.18025789 0.17731524 -0.24188331
-0.18025497 0.17739116 -0.24188149
-0.18025187 0.17746717 -0.24188368
-0.18024859 0.17754522 -0.24188781
-0.18024538 0.17762128 -0.241892
-0.18024172 0.17769949 -0.24190411
-0.18023746 0.17777799 -0.24192822
-0.18023339 0.17785443 -0.24195039
-0.18153057 0.1480964 -0.23936722
-0.18155193 0.14875232 -0.23837647
-0.18155031 0.14882962 -0.23834665
-0.18154839 0.14890705 -0.23832282
-0.18154526 0.14898111 -0.23832706
-0.18155248 0.14942156 -0.23781103
-0.18154955 0.14949553 -0.23781125
-0.18154681 0.14982072 -0.2375997
-0.18154438 0.14989643 -0.2375879
-0.18154277 0.14997569 -0.23755604
-0.18154214 0.15005647 -0.23750216
-0.18153992 0.15013207 -0.23748638
-0.18154001 0.15021646 -0.23741442
-0.18153879 0.15029554 -0.23737457
-0.18153656 0.15037116 -0.23735878
-0.18153474 0.15044856 -0.23733297
-0.18153332 0.15052772 -0.23729712
-0.18153179 0.15060499 -0.23726529
-0.18152986 0.15068242 -0.23724148
-0.18152896 0.15076333 -0.23719358
-0.1815284 0.15084212 -0.23713976
-0.18152589 0.15091786 -0.23712996
-0.18152407 0.15099525 -0.23710415
-0.18152355 0.15107599 -0.23704827
-0.18152131 0.1511516 -0.23703247
-0.18151897 0.15122727 -0.23701869
-0.18151703 0.15130275 -0.2369969
-0.18151613 0.15138365 -0.23694903
-0.18151627 0.15146407 -0.23687917
-0.18151505 0.15154317 -0.23683932
-0.18151243 0.15161896 -0.23683152
-0.18150948 0.15169097 -0.23683381
-0.18150654 0.15176494 -0.23683403
-0.18150413 0.15184064 -0.23682225
-0.18150201 0.15191817 -0.23680241
-0.18150187 0.15199873 -0.23673856
-0.18150023 0.15207408 -0.23671079
-0.18149729 0.15214805 -0.23671101
-0.18149465 0.15222189 -0.23670526
-0.18149282 0.15229928 -0.23667943
-0.18149059 0.15237489 -0.23666364
-0.18148822 0.15253107 -0.23658401
-0.18148436 0.15268399 -0.23653841
-0.18148172 0.15275782 -0.23653264
-0.18148047 0.15283497 -0.23649484
-0.18147846 0.15291244 -0.23647301
-0.18147632 0.15298802 -0.23645523
-0.18147345 0.15314245 -0.23638761
-0.18147309 0.15322115 -0.23632978
-0.18147115 0.15329662 -0.23630799
-0.18146832 0.15337056 -0.23630624
-0.18146579 0.1534463 -0.23629645
-0.18146554 0.15352495 -0.23623662
-0.18146309 0.1535987 -0.23622687
-0.18146057 0.15367444 -0.23621708
-0.18145783 0.15374832 -0.23621333
-0.18145579 0.15382385 -0.23619354
-0.18145534 0.15390259 -0.23613772
-0.1814463 0.15420315 -0.23607859
-0.18144415 0.15427871 -0.23606081
-0.18144159 0.15435055 -0.23605511
-0.18143936 0.15442617 -0.23603931
-0.18143742 0.15450165 -0.23601753
-0.18143618 0.15457878 -0.23597974
-0.18143365 0.15465453 -0.23596993
-0.18143061 0.15472659 -0.23597422
-0.18142787 0.15480047 -0.23597047
-0.18142563 0.15487608 -0.23595467
-0.18142308 0.15494987 -0.23594691
-0.18142083 0.15502355 -0.23593317
-0.1814186 0.15509915 -0.23591739
-0.18141694 0.15517451 -0.23588961
-0.1814145 0.15524825 -0.23587987
-0.18141156 0.15532222 -0.23588011
-0.18140854 0.15539624 -0.23588234
-0.1814059 0.15547007 -0.23587659
-0.18140335 0.15554386 -0.23586883
-0.18140052 0.15561779 -0.23586705
-0.18139797 0.15569159 -0.2358593
-0.18139571 0.15576525 -0.23584557
-0.18139288 0.15583917 -0.23584381
-0.18139014 0.15591305 -0.23584005
-0.18138799 0.15598667 -0.23582432
-0.18138537 0.15606245 -0.23581651
-0.18138282 0.15613626 -0.23580876
-0.18138047 0.15620996 -0.23579702
-0.18137842 0.15628549 -0.23577723
-0.18137628 0.15635911 -0.23576149
-0.18137354 0.15643299 -0.23575774
-0.1813709 0.15650682 -0.23575199
-0.18136847 0.15658253 -0.23574018
-0.1813657 0.15665445 -0.23573847
-0.18136287 0.15672839 -0.23573671
-0.18135993 0.15680236 -0.23573694
-0.18135691 0.15687636 -0.23573917
-0.18135466 0.15695003 -0.23572543
-0.1813525 0.15702364 -0.2357097
-0.18134995 0.15709743 -0.23570195
-0.18134721 0.15717131 -0.23569819
-0.18134467 0.1572451 -0.23569043
-0.18134212 0.1573189 -0.23568268
-0.18133949 0.15739274 -0.23567693
-0.18133725 0.15746835 -0.23566113
-0.1813347 0.15754214 -0.23565339
-0.18133196 0.15761603 -0.23564962
-0.18132961 0.15768974 -0.23563787
-0.18132666 0.15776175 -0.23564017
-0.18132353 0.1578358 -0.2356444
-0.18132128 0.15790947 -0.23563066
-0.18131873 0.15798326 -0.23562291
-0.18131639 0.15805696 -0.23561114
-0.18131393 0.15813071 -0.23560141
-0.18131179 0.15820433 -0.23558566
-0.18130906 0.15828016 -0.23557986
-0.18130602 0.15835223 -0.23558414
-0.18130356 0.15842597 -0.23557439
-0.18130122 0.15849967 -0.23556265
-0.18129848 0.15857357 -0.2355589
-0.18129574 0.15864745 -0.23555513
-0.1812931 0.15872128 -0.23554936
-0.18129005 0.15879333 -0.23555365
-0.18128692 0.15886739 -0.23555788
-0.18128456 0.15894111 -0.23554614
-0.18128212 0.15901485 -0.2355364
-0.18127926 0.15908682 -0.23553666
-0.18127623 0.15916082 -0.2355389
-0.18127368 0.15923463 -0.23553115
-0.18127154 0.15930824 -0.23551542
-0.1812692 0.15938389 -0.23550162
-0.18126616 0.15945596 -0.23550591
-0.18126319 0.15952797 -0.23550819
-0.18126087 0.15960363 -0.23549439
-0.18125811 0.15967555 -0.23549268
-0.18125449 0.15974984 -0.23550689
-0.18125135 0.15982194 -0.23551317
-0.18124849 0.1598939 -0.23551345
-0.18124607 0.15996961 -0.23550165
-0.18124381 0.16004327 -0.23548791
-0.18124127 0.16011706 -0.23548016
-0.18123861 0.16018894 -0.23547646
-0.18123567 0.16026291 -0.23547669
-0.18123293 0.16033679 -0.23547293
-0.18123008 0.16040877 -0.23547322
-0.18122666 0.16048296 -0.23548344
-0.181224 0.16055484 -0.23547974
-0.18122154 0.16062859 -0.23546998
-0.18121901 0.16070238 -0.23546223
-0.18121596 0.16077444 -0.23546651
-0.18121272 0.16084854 -0.23547274
-0.18121009 0.16092238 -0.23546699
-0.18120793 0.16099599 -0.23545125
-0.18120529 0.16106983 -0.23544548
-0.18120272 0.16114166 -0.23543978
-0.18120028 0.16121542 -0.23543003
-0.18119784 0.16128917 -0.23542029
-0.18117893 0.16180424 -0.23539004
-0.18117617 0.16187617 -0.23538831
-0.18117411 0.16194975 -0.23537058
-0.18117185 0.16202341 -0.23535684
-0.18116842 0.16209565 -0.23536912
-0.18116461 0.16217001 -0.23538731
-0.18116234 0.16224171 -0.23537561
-0.18116078 0.16231702 -0.23534584
-0.18115911 0.16239043 -0.23532012
-0.18115737 0.16246583 -0.23529434
-0.18115482 0.16253962 -0.23528659
-0.18115167 0.16261171 -0.23529288
-0.18114814 0.16268399 -0.23530713
-0.18114451 0.16275631 -0.2353234
-0.18114176 0.16283019 -0.23531964
-0.1811399 0.16290368 -0.2352979
-0.18113716 0.16297756 -0.23529415
-0.18113402 0.16304967 -0.23530042
-0.18113118 0.16312359 -0.23529866
-0.18112841 0.16319552 -0.23529695
-0.18112577 0.16326936 -0.2352912
-0.181124 0.16334279 -0.23526746
-0.18112175 0.16341646 -0.23525372
-0.18111873 0.16349047 -0.23525596
-0.18111567 0.16356252 -0.23526023
-0.18111312 0.16363633 -0.23525247
-0.18111028 0.16370828 -0.23525277
-0.18110734 0.16378225 -0.23525301
-0.18110459 0.16385418 -0.23525129
-0.18110165 0.16392815 -0.23525152
-0.18109891 0.16400203 -0.23524776
-0.18109585 0.16407409 -0.23525205
-0.18109283 0.16414811 -0.23525429
-0.18109046 0.16421986 -0.23524457
-0.18108802 0.1642936 -0.23523483
-0.18108536 0.16436744 -0.23522907
-0.18108232 0.1644395 -0.23523335
-0.1810789 0.16451369 -0.23524359
-0.18107614 0.16458562 -0.23524186
-0.18107389 0.16465928 -0.23522812
-0.18107074 0.16473138 -0.23523439
-0.18106762 0.16480544 -0.23523863
-0.18106517 0.16487919 -0.23522887
-0.18106329 0.16495267 -0.23520714
-0.18106025 0.16502473 -0.23521142
-0.18105671 0.16509701 -0.23522568
-0.18105298 0.16516937 -0.23524395
-0.18104868 0.165242 -0.2352742
-0.18101425 0.16611946 -0.23526928
-0.18101151 0.16619334 -0.23526552
-0.18100876 0.16626526 -0.23526379
-0.18100582 0.16633923 -0.23526405
-0.18100306 0.16641116 -0.23526233
-0.18099973 0.16648336 -0.23527259
-0.18098433 0.16677499 -0.23535357
-0.18098131 0.166849 -0.23535581
-0.18097836 0.166921 -0.23535809
-0.18097484 0.16699524 -0.23537031
-0.1809717 0.16706735 -0.2353766
-0.18096885 0.16714127 -0.23537482
-0.18096562 0.16721341 -0.23538309
-0.18096198 0.16728574 -0.23539937
-0.18095808 0.16736014 -0.23541957
-0.18095416 0.16743259 -0.23544182
-0.18095042 0.16750497 -0.23546007
-0.1809468 0.16757728 -0.23547634
-0.18094201 0.16765209 -0.23551452
-0.18093809 0.16772453 -0.23553678
-0.18093446 0.16779687 -0.23555303
-0.18092975 0.16786966 -0.23559126
-0.18092556 0.16794421 -0.23561746
-0.18092193 0.16801652 -0.23563373
-0.18091665 0.16808958 -0.23568395
-0.18091097 0.16816282 -0.23574215
-0.18089455 0.1684569 -0.23584305
-0.18089159 0.16852891 -0.23584533
-0.18088837 0.16860302 -0.23585156
-0.18083605 0.16911945 -0.23652065
-0.1808296 0.16919304 -0.23659483
-0.18082353 0.16926646 -0.23666102
-0.18081652 0.16934031 -0.23674718
-0.18054169 0.1698277 -0.24210276
-0.18053968 0.16990519 -0.24208093
-0.18053676 0.16998111 -0.24207912
-0.18053395 0.17005698 -0.24207531
-0.18053183 0.17013451 -0.24205548
-0.1805294 0.17021021 -0.24204369
-0.18052562 0.17028654 -0.24205986
-0.18052232 0.17036262 -0.24206604
-0.18051952 0.17044047 -0.24206018
-0.180517 0.17051621 -0.24205038
-0.18051428 0.17059204 -0.24204458
-0.18051118 0.17066805 -0.24204677
-0.18050836 0.17074393 -0.24204296
-0.18050508 0.17082198 -0.2420471
-0.18050197 0.17089799 -0.24204929
-0.18049926 0.17097382 -0.2420435
-0.18049753 0.17105117 -0.24201566
-0.1804951 0.17112689 -0.24200387
-0.1804917 0.17120303 -0.24201205
-0.18048869 0.171279 -0.24201223
-0.18048626 0.1713547 -0.24200046
-0.18048356 0.17143248 -0.24199259
-0.18048008 0.17150867 -0.24200279
-0.18047687 0.17158473 -0.24200696
-0.18047453 0.17166038 -0.24199316
-0.18047175 0.17173822 -0.24198732
-0.18046854 0.17181428 -0.24199149
-0.18046504 0.17189045 -0.24200168
-0.18046176 0.1719685 -0.24200581
-0.18045895 0.17204438 -0.24200201
-0.18045662 0.17212005 -0.24198821
-0.18045488 0.17219545 -0.24196243
-0.18045187 0.17227142 -0.24196263
-0.18044771 0.17234986 -0.24198474
-0.1804447 0.17242582 -0.24198493
-0.18044296 0.17250122 -0.24195915
-0.18044034 0.17257701 -0.24195135
-0.18043636 0.17265342 -0.24197152
-0.18043229 0.17273182 -0.24199164
-0.18042928 0.17280778 -0.24199182
-0.18042696 0.17288345 -0.24197802
-0.18042444 0.17295919 -0.24196823
-0.18042144 0.17303711 -0.24196637
-0.18041775 0.17311339 -0.24198055
-0.18041396 0.1731897 -0.24199671
-0.18041095 0.17326567 -0.2419969
-0.18040825 0.17334346 -0.24198905
-0.18040535 0.17341939 -0.24198726
-0.18040253 0.17349526 -0.24198344
-0.18040021 0.17357092 -0.24196965
-0.18039729 0.17364684 -0.24196784
-0.18039371 0.17372502 -0.24197796
-0.18039061 0.17380103 -0.24198015
-0.18038791 0.17387882 -0.2419723
-0.18038499 0.17395476 -0.24197051
-0.18038179 0.1740308 -0.24197468
-0.18037859 0.17410685 -0.24197885
-0.18037549 0.17418286 -0.24198106
-0.1803724 0.17426082 -0.24198119
-0.18036948 0.17433676 -0.24197939
-0.18036687 0.17441255 -0.24197158
-0.18036407 0.17449038 -0.24196574
-0.18036106 0.17456634 -0.24196592
-0.18035816 0.17464226 -0.24196412
-0.18035515 0.17471823 -0.24196431
-0.18035184 0.17479433 -0.24197048
-0.18034914 0.17487212 -0.24196264
-0.18034643 0.17494796 -0.24195683
-0.18034351 0.17502388 -0.24195503
-0.18034069 0.17509976 -0.24195123
-0.1803378 0.17517763 -0.24194737
-0.1803349 0.17525356 -0.24194556
-0.18033208 0.17532943 -0.24194175
-0.18032938 0.17540723 -0.24193391
-0.18032646 0.17548315 -0.24193209
-0.18032326 0.17555921 -0.2419363
-0.18032016 0.17563522 -0.24193847
-0.18031727 0.17571309 -0.24193463
-0.18031445 0.17578897 -0.24193081
-0.18031134 0.17586498 -0.24193299
-0.18030843 0.1759409 -0.24193119
-0.18030563 0.17601873 -0.24192534
-0.18030292 0.17609456 -0.24191955
-0.1803 0.1761705 -0.24191773
-0.18029699 0.17624646 -0.24191791
-0.18029408 0.17632239 -0.24191612
-0.18029167 0.17640004 -0.24190228
-0.18028924 0.17647573 -0.24189048
-0.18028595 0.17655183 -0.24189666
-0.18028247 0.17662998 -0.2419048
-0.18027955 0.1767059 -0.24190298
-0.18027665 0.17678182 -0.24190116
-0.18027373 0.17685774 -0.24189937
-0.18027094 0.17693558 -0.2418935
-0.18026821 0.17701142 -0.24188772
-0.18026531 0.17708734 -0.2418859
-0.18026212 0.17716534 -0.24188805
-0.18025911 0.17724131 -0.24188823
-0.18025631 0.17731719 -0.24188443
-0.1802533 0.17739315 -0.24188462
-0.18025029 0.17746912 -0.2418848
-0.18024699 0.17754717 -0.24188894
-0.18024379 0.17762323 -0.24189311
-0.18024023 0.17770141 -0.24190325
-0.18023598 0.1777799 -0.24192736
-0.18023171 0.17785645 -0.24195351
-0.18022755 0.17793489 -0.24197561
-0.18153085 0.14809242 -0.23937497
-0.18155262 0.14875011 -0.2383742
-0.18155089 0.14882746 -0.23834638
-0.18154907 0.14890486 -0.23832056
-0.18154594 0.14897892 -0.23832479
-0.18155308 0.14941941 -0.23781076
-0.18155015 0.14949338 -0.23781098
-0.18154739 0.14981857 -0.23759943
-0.18154506 0.14989424 -0.23758563
-0.18154335 0.14997354 -0.23755577
-0.18154274 0.15005431 -0.23750189
-0.1815405 0.15012993 -0.23748611
-0.1815405 0.15021434 -0.23741615
-0.18153937 0.15029339 -0.23737431
-0.18153715 0.150369 -0.23735851
-0.18153523 0.15044644 -0.2373347
-0.1815339 0.15052557 -0.23729685
-0.18153237 0.15060283 -0.23726502
-0.18153055 0.15068023 -0.23723921
-0.18152954 0.15076119 -0.23719332
-0.1815289 0.15084001 -0.23714149
-0.18152647 0.15091571 -0.23712969
-0.18152465 0.15099311 -0.23710388
-0.18152422 0.1510738 -0.237046
-0.18152189 0.15114945 -0.2370322
-0.18151955 0.15122512 -0.23701842
-0.18151762 0.15130059 -0.23699665
-0.1815166 0.15138155 -0.23695076
-0.18151687 0.15146193 -0.2368789
-0.18151563 0.15154102 -0.23683906
-0.18151312 0.15161677 -0.23682925
-0.18151006 0.15168883 -0.23683354
-0.18150714 0.15176278 -0.23683378
-0.18150471 0.1518385 -0.23682198
-0.1815026 0.15191603 -0.23680215
-0.18150246 0.15199658 -0.23673829
-0.18150081 0.15207194 -0.23671052
-0.18149798 0.15214586 -0.23670876
-0.18149516 0.15222174 -0.23670495
-0.18149343 0.15229909 -0.23667714
-0.18149127 0.1523727 -0.23666139
-0.1814888 0.15252893 -0.23658374
-0.18148494 0.15268184 -0.23653814
-0.18148239 0.15275563 -0.23653038
-0.18148115 0.15283278 -0.23649257
-0.18147691 0.15298587 -0.23645496
-0.18147381 0.15313844 -0.23639338
-0.18147367 0.153219 -0.23632953
-0.18147174 0.15329447 -0.23630774
-0.1814689 0.1533684 -0.23630598
-0.18146628 0.1534442 -0.23629817
-0.18146612 0.1535228 -0.23623636
-0.18146367 0.15359655 -0.2362266
-0.18146116 0.15367229 -0.23621681
-0.18145841 0.15374617 -0.23621306
-0.18145628 0.15382175 -0.23619527
-0.18145593 0.15390044 -0.23613745
-0.18144678 0.15420103 -0.23608033
-0.18144472 0.15427461 -0.23606259
-0.18144217 0.1543484 -0.23605484
-0.18143994 0.15442403 -0.23603906
-0.181438 0.1544995 -0.23601727
-0.18143676 0.15457663 -0.23597947
-0.18143423 0.15465239 -0.23596968
-0.18143128 0.1547244 -0.23597196
-0.18142854 0.15479828 -0.2359682
-0.1814263 0.15487389 -0.23595241
-0.18142377 0.15494768 -0.23594466
-0.18142141 0.1550214 -0.23593292
-0.18141918 0.15509701 -0.23591712
-0.18141763 0.15517232 -0.23588735
-0.18141517 0.15524606 -0.2358776
-0.18141215 0.15532008 -0.23587984
-0.18140912 0.15539409 -0.23588207
-0.18140648 0.15546793 -0.23587632
-0.18140393 0.15554172 -0.23586857
-0.18140109 0.15561564 -0.23586681
-0.18139845 0.15568948 -0.23586106
-0.18139629 0.1557631 -0.23584533
-0.18139346 0.15583703 -0.23584355
-0.18139082 0.15591086 -0.2358378
-0.18138859 0.15598647 -0.23582202
-0.18138595 0.15606032 -0.23581626
-0.1813834 0.15613411 -0.23580849
-0.18138105 0.15620781 -0.23579675
-0.18137901 0.15628335 -0.23577696
-0.18137686 0.15635696 -0.23576123
-0.18137413 0.15643279 -0.23575543
-0.18137147 0.15650468 -0.23575172
-0.18136905 0.15658039 -0.23573993
-0.18136621 0.15665431 -0.23573816
-0.18136355 0.1567262 -0.23573446
-0.18136051 0.15680021 -0.2357367
-0.18135749 0.15687421 -0.23573893
-0.18135524 0.15694788 -0.23572519
-0.1813532 0.1570234 -0.23570541
-0.18135063 0.15709524 -0.23569968
-0.18134782 0.15717113 -0.23569588
-0.18134525 0.15724297 -0.23569018
-0.18134271 0.15731676 -0.23568243
-0.18134016 0.15739055 -0.23567468
-0.18133783 0.1574662 -0.23566088
-0.18133537 0.15753996 -0.23565114
-0.18133265 0.15761384 -0.23564738
-0.18133019 0.15768759 -0.23563763
-0.18132724 0.15775961 -0.2356399
-0.18132411 0.15783367 -0.23564413
-0.18132186 0.15790732 -0.23563039
-0.18131931 0.15798111 -0.23562264
-0.18131706 0.15805477 -0.23560891
-0.18131462 0.15812853 -0.23559916
-0.18131228 0.15820418 -0.23558536
-0.18130964 0.15827802 -0.23557961
-0.18130659 0.15835008 -0.23558389
-0.18130425 0.15842378 -0.23557214
-0.18130189 0.15849748 -0.23556039
-0.18129915 0.15857138 -0.23555663
-0.18129632 0.1586453 -0.23555487
-0.18129377 0.15871909 -0.23554713
-0.18129063 0.15879118 -0.23555341
-0.18128759 0.1588652 -0.23555565
-0.18128514 0.15893896 -0.23554589
-0.1812827 0.15901271 -0.23553613
-0.18127987 0.15908663 -0.23553437
-0.18127681 0.15915868 -0.23553866
-0.18127418 0.15923253 -0.23553289
-0.1812721 0.15930609 -0.23551516
-0.18126978 0.15938176 -0.23550138
-0.18126683 0.15945376 -0.23550364
-0.18126377 0.15952583 -0.23550794
-0.18126145 0.15960148 -0.23549414
-0.18125869 0.15967341 -0.23549244
-0.18125507 0.15974769 -0.23550664
-0.18125193 0.1598198 -0.23551291
-0.18124917 0.15989172 -0.23551121
-0.18124664 0.15996747 -0.23550141
-0.18124449 0.16004108 -0.23548567
-0.18124184 0.16011491 -0.23547992
-0.18123928 0.16018677 -0.23547421
-0.18123625 0.16026077 -0.23547643
-0.18123351 0.16033465 -0.23547268
-0.18123065 0.16040662 -0.23547298
-0.18122724 0.16048081 -0.2354832
-0.18122457 0.1605527 -0.23547949
-0.18122223 0.1606264 -0.23546773
-0.18121968 0.16070019 -0.23545998
-0.18121666 0.1607742 -0.23546222
-0.18121341 0.16084635 -0.23547049
-0.18121077 0.16092019 -0.23546474
-0.18120861 0.1609938 -0.23544899
-0.18120587 0.16106768 -0.23544523
-0.18120331 0.16113952 -0.23543954
-0.18120086 0.16121328 -0.23542978
-0.18119851 0.16128698 -0.23541804
-0.18117951 0.1618021 -0.23538978
-0.18117675 0.16187403 -0.23538807
-0.18117478 0.16194756 -0.23536834
-0.18117243 0.16202126 -0.2353566
-0.18116909 0.16209346 -0.23536685
-0.18116529 0.16216782 -0.23538506
-0.18116294 0.16224152 -0.23537332
-0.18116136 0.16231488 -0.2353456
-0.1811596 0.16238832 -0.23532188
-0.18115795 0.16246368 -0.2352941
-0.1811554 0.16253747 -0.23528636
-0.18115225 0.16260958 -0.23529263
-0.18114862 0.16268189 -0.23530889
-0.18114498 0.16275421 -0.23532514
-0.18114224 0.16282809 -0.23532139
-0.18114038 0.16290158 -0.23529966
-0.18113774 0.16297542 -0.23529391
-0.1811346 0.16304752 -0.23530018
-0.18113175 0.16312145 -0.23529842
-0.18112899 0.16319337 -0.23529671
-0.18112636 0.16326721 -0.23529094
-0.18112449 0.16334069 -0.23526922
-0.18112224 0.16341436 -0.23525548
-0.18111931 0.16348833 -0.23525572
-0.18111634 0.16356033 -0.235258
-0.18111362 0.16363423 -0.23525424
-0.18111075 0.16370618 -0.23525453
-0.18110792 0.16378011 -0.23525277
-0.18110517 0.16385204 -0.23525104
-0.18110223 0.16392601 -0.23525128
-0.18109958 0.16399984 -0.23524553
-0.18109654 0.1640719 -0.23524982
-0.1810935 0.16414592 -0.23525205
-0.18109113 0.16421767 -0.23524234
-0.18108869 0.16429141 -0.23523259
-0.18108594 0.16436529 -0.23522884
-0.1810829 0.16443735 -0.23523311
-0.18107958 0.1645115 -0.23524134
-0.18107681 0.16458343 -0.23523962
-0.18107447 0.16465713 -0.23522788
-0.18107122 0.16472928 -0.23523615
-0.1810682 0.1648033 -0.23523839
-0.18106584 0.164877 -0.23522663
-0.18106388 0.16495052 -0.2352069
-0.18106093 0.16502254 -0.2352092
-0.18105739 0.16509482 -0.23522344
-0.18105365 0.16516718 -0.23524171
-0.18104935 0.16523981 -0.23527196
-0.18101503 0.16611722 -0.23526505
-0.18101218 0.16619115 -0.23526329
-0.18100934 0.16626312 -0.23526357
-0.18100649 0.16633704 -0.2352618
-0.18100365 0.16640902 -0.2352621
-0.1810004 0.16648117 -0.23527037
-0.18098511 0.16677275 -0.23534936
-0.18098198 0.16684681 -0.23535359
-0.18097892 0.16691887 -0.23535785
-0.18097551 0.16699305 -0.23536807
-0.18097237 0.16706516 -0.23537436
-0.18096934 0.16713917 -0.2353766
-0.18096618 0.16721126 -0.23538285
-0.18096246 0.16728364 -0.23540112
-0.18095866 0.167358 -0.23541933
-0.18095483 0.1674304 -0.2354396
-0.1809511 0.16750278 -0.23545785
-0.18094747 0.16757509 -0.23547411
-0.18094268 0.16764989 -0.23551229
-0.18093877 0.16772234 -0.23553455
-0.18093504 0.16779472 -0.2355528
-0.18093044 0.16786747 -0.23558903
-0.18092614 0.16794206 -0.23561724
-0.18092251 0.16801438 -0.23563349
-0.18091732 0.16808739 -0.23568171
-0.18091136 0.16816077 -0.23574591
-0.18089572 0.1684545 -0.23583083
-0.18089236 0.16852668 -0.2358411
-0.18088914 0.16860078 -0.23584732
-0.18083653 0.16911735 -0.23652241
-0.18083027 0.16919085 -0.23659259
-0.18082422 0.16926427 -0.23665878
-0.18081719 0.16933812 -0.23674494
-0.18054229 0.16982554 -0.24210253
-0.18054028 0.16990303 -0.2420807
-0.18053736 0.16997895 -0.2420789
-0.18053454 0.17005482 -0.24207509
-0.18053243 0.17013235 -0.24205525
-0.1805301 0.17020801 -0.24204147
-0.18052632 0.17028433 -0.24205764
-0.18052292 0.17036048 -0.24206582
-0.18052012 0.1704383 -0.24205996
-0.1805176 0.17051405 -0.24205017
-0.18051487 0.17058988 -0.24204436
-0.18051177 0.17066589 -0.24204655
-0.18050896 0.17074177 -0.24204275
-0.18050568 0.17081982 -0.24204688
-0.18050256 0.17089583 -0.24204907
-0.18049985 0.17097168 -0.24204326
-0.18049812 0.17104903 -0.24201545
-0.18049569 0.17112473 -0.24200365
-0.1804924 0.17120083 -0.24200983
-0.18048929 0.17127684 -0.24201202
-0.18048686 0.17135254 -0.24200022
-0.18048416 0.17143032 -0.24199238
-0.18048067 0.17150651 -0.24200255
-0.18047756 0.17158252 -0.24200474
-0.18047523 0.17165819 -0.24199095
-0.18047234 0.17173606 -0.24198709
-0.18046914 0.17181212 -0.24199128
-0.18046564 0.17188829 -0.24200144
-0.18046245 0.1719663 -0.24200359
-0.18045954 0.17204224 -0.24200179
-0.18045731 0.17211784 -0.24198601
-0.18045546 0.17219329 -0.24196222
-0.18045256 0.17226921 -0.24196041
-0.1804484 0.17234765 -0.24198252
-0.1804453 0.17242366 -0.24198471
-0.18044354 0.17249906 -0.24195895
-0.18044092 0.17257485 -0.24195114
-0.18043704 0.17265122 -0.2419693
-0.18043289 0.17272966 -0.2419914
-0.18042988 0.17280562 -0.24199159
-0.18042755 0.17288129 -0.24197781
-0.18042502 0.17295703 -0.24196801
-0.18042204 0.17303495 -0.24196616
-0.18041834 0.17311123 -0.24198033
-0.18041456 0.17318754 -0.2419965
-0.18041185 0.17326339 -0.24199069
-0.18040895 0.17334126 -0.24198684
-0.18040603 0.17341718 -0.24198502
-0.18040313 0.1734931 -0.24198322
-0.18040079 0.17356876 -0.24196944
-0.18039797 0.17364465 -0.24196562
-0.18039431 0.17372286 -0.24197775
-0.18039121 0.17379887 -0.24197993
-0.18038851 0.17387667 -0.24197209
-0.18038559 0.17395259 -0.24197027
-0.18038239 0.17402865 -0.24197447
-0.18037918 0.17410471 -0.24197865
-0.18037608 0.17418072 -0.24198082
-0.180373 0.17425868 -0.24198097
-0.18037018 0.17433456 -0.24197717
-0.18036745 0.17441039 -0.24197137
-0.18036456 0.17448826 -0.24196751
-0.18036166 0.17456418 -0.24196571
-0.18035874 0.1746401 -0.24196389
-0.18035573 0.17471607 -0.24196409
-0.18035243 0.17479217 -0.24197027
-0.18034974 0.17486997 -0.24196243
-0.18034701 0.1749458 -0.24195662
-0.1803441 0.17502172 -0.2419548
-0.18034129 0.1750976 -0.241951
-0.1803384 0.17517547 -0.24194714
-0.18033548 0.17525139 -0.24194536
-0.18033266 0.17532727 -0.24194154
-0.18032996 0.17540507 -0.24193369
-0.18032715 0.17548095 -0.24192989
-0.18032396 0.175557 -0.24193406
-0.18032075 0.17563306 -0.24193825
-0.18031794 0.17570893 -0.24193445
-0.18031503 0.17578681 -0.2419306
-0.18031193 0.17586282 -0.24193278
-0.18030903 0.17593874 -0.24193096
-0.18030623 0.17601657 -0.24192512
-0.18030351 0.17609242 -0.24191932
-0.18030059 0.17616834 -0.24191752
-0.18029758 0.1762443 -0.2419177
-0.18029468 0.17632023 -0.2419159
-0.18029226 0.17639787 -0.24190205
-0.18028983 0.17647359 -0.24189025
-0.18028654 0.17654969 -0.24189645
-0.18028307 0.17662781 -0.24190457
-0.18028015 0.17670375 -0.24190277
-0.18027724 0.17677967 -0.24190095
-0.18027432 0.17685559 -0.24189915
-0.18027163 0.17693338 -0.24189129
-0.18026881 0.17700925 -0.24188751
-0.1802659 0.17708518 -0.24188569
-0.18026279 0.17716119 -0.24188787
-0.1802597 0.17723915 -0.24188802
-0.18025689 0.17731503 -0.2418842
-0.18025398 0.17739096 -0.24188241
-0.18025087 0.17746696 -0.24188459
-0.18024759 0.17754501 -0.24188873
-0.18024439 0.17762107 -0.2418929
-0.18024082 0.17769925 -0.24190304
-0.18023656 0.17777775 -0.24192715
-0.18023239 0.17785424 -0.2419513
-0.18022834 0.17793263 -0.24197142
-0.18153131 0.14809027 -0.23937446
-0.1815531 0.14874797 -0.23837368
-0.18155146 0.14882527 -0.23834386
-0.18154953 0.14890271 -0.23832005
-0.18154633 0.14897877 -0.23832422
-0.18155354 0.14941727 -0.23781024
-0.18155062 0.14949319 -0.23780844
-0.18154797 0.14981833 -0.23759487
-0.18154554 0.14989404 -0.23758307
-0.18154381 0.14997138 -0.23755527
-0.1815432 0.15005216 -0.23750138
-0.18154086 0.15012783 -0.23748758
-0.18154088 0.15021224 -0.23741764
-0.18153985 0.15029125 -0.2373738
-0.18153761 0.15036686 -0.237358
-0.18153578 0.15044425 -0.2373322
-0.18153436 0.15052342 -0.23729634
-0.18153283 0.15060069 -0.23726451
-0.18153101 0.15067808 -0.23723871
-0.18153 0.15075904 -0.23719281
-0.18152939 0.15083982 -0.23713894
-0.18152703 0.15091352 -0.23712718
-0.1815252 0.15099092 -0.23710138
-0.18152468 0.15107165 -0.2370455
-0.18152244 0.15114726 -0.2370297
-0.18152003 0.15122297 -0.23701793
-0.18151808 0.15129845 -0.23699614
-0.18151708 0.15137941 -0.23695025
-0.18151733 0.15145978 -0.2368784
-0.18151611 0.15153888 -0.23683855
-0.18151358 0.15161462 -0.23682874
-0.18151052 0.15168668 -0.23683304
-0.18150762 0.1517626 -0.23683122
-0.18150526 0.15183631 -0.23681948
-0.18150306 0.15191388 -0.23680165
-0.18150292 0.15199444 -0.23673779
-0.18150127 0.15206979 -0.23671001
-0.18149844 0.15214372 -0.23670825
-0.18149571 0.15221955 -0.23670244
-0.18149389 0.15229695 -0.23667663
-0.18149173 0.15237056 -0.2366609
-0.18148927 0.15252678 -0.23658323
-0.1814855 0.15267965 -0.23653564
-0.18148285 0.15275349 -0.23652989
-0.18148133 0.15283075 -0.23649806
-0.1814796 0.1529081 -0.23647025
-0.18147746 0.15298368 -0.23645246
-0.18147449 0.15313816 -0.23638684
-0.18147424 0.15321681 -0.23632702
-0.1814723 0.1532923 -0.23630524
-0.18146946 0.15336621 -0.23630348
-0.18146674 0.15344205 -0.23629767
-0.18146668 0.15352061 -0.23623386
-0.18146414 0.1535944 -0.23622611
-0.18146162 0.15367015 -0.23621631
-0.18145888 0.15374403 -0.23621255
-0.18145694 0.15381952 -0.23619077
-0.18145639 0.1538983 -0.23613694
-0.18144743 0.15419881 -0.23607585
-0.1814452 0.15427442 -0.23606005
-0.18144256 0.15434825 -0.2360543
-0.1814404 0.15442188 -0.23603857
-0.18143837 0.1544974 -0.23601878
-0.18143722 0.15457448 -0.23597898
-0.18143469 0.15465024 -0.23596919
-0.18143165 0.1547223 -0.23597345
-0.181429 0.15479614 -0.2359677
-0.18142687 0.1548717 -0.23594992
-0.18142432 0.15494549 -0.23594217
-0.18142188 0.15501925 -0.23593241
-0.18141964 0.15509486 -0.23591663
-0.18141809 0.15517017 -0.23588687
-0.18141556 0.15524592 -0.23587707
-0.18141271 0.15531789 -0.23587734
-0.18140958 0.15539195 -0.23588158
-0.18140693 0.15546578 -0.23587582
-0.1814044 0.15553957 -0.23586807
-0.18140155 0.1556135 -0.23586631
-0.18139902 0.1556873 -0.23585856
-0.18139686 0.15576091 -0.23584282
-0.18139392 0.15583488 -0.23584306
-0.18139137 0.15590867 -0.23583531
-0.18138905 0.15598434 -0.23582152
-0.18138641 0.15605818 -0.23581576
-0.18138395 0.15613192 -0.23580602
-0.18138151 0.15620567 -0.23579626
-0.18137947 0.1562812 -0.23577648
-0.18137741 0.15635477 -0.23575875
-0.18137459 0.15643065 -0.23575494
-0.18137193 0.15650253 -0.23575123
-0.1813696 0.1565782 -0.23573744
-0.18136677 0.15665212 -0.23573568
-0.181364 0.15672405 -0.23573396
-0.18136089 0.15679811 -0.23573819
-0.18135795 0.15687206 -0.23573843
-0.18135589 0.15694565 -0.23572069
-0.18135366 0.15702125 -0.2357049
-0.18135099 0.15709314 -0.2357012
-0.18134828 0.15716898 -0.23569539
-0.1813457 0.15724082 -0.23568968
-0.18134317 0.15731461 -0.23568194
-0.18134062 0.1573884 -0.23567419
-0.18133838 0.15746403 -0.23565841
-0.18133584 0.15753782 -0.23565064
-0.18133309 0.1576117 -0.23564689
-0.18133076 0.1576854 -0.23563513
-0.1813278 0.15775742 -0.23563743
-0.18132468 0.15783148 -0.23564166
-0.18132232 0.15790518 -0.23562992
-0.18131977 0.15797897 -0.23562217
-0.18131742 0.15805267 -0.23561041
-0.18131498 0.15812643 -0.23560067
-0.18131281 0.15820004 -0.23558491
-0.1813101 0.15827587 -0.23557912
-0.18130705 0.15834793 -0.23558339
-0.18130469 0.15842164 -0.23557165
-0.18130235 0.15849535 -0.23555991
-0.18129961 0.15856923 -0.23555616
-0.18129678 0.15864316 -0.2355544
-0.18129423 0.15871695 -0.23554663
-0.18129109 0.15878904 -0.23555291
-0.18128805 0.15886305 -0.23555514
-0.1812856 0.15893681 -0.2355454
-0.18128325 0.15901051 -0.23553365
-0.18128031 0.15908448 -0.23553389
-0.18127736 0.1591565 -0.23553617
-0.18127473 0.15923034 -0.23553041
-0.18127257 0.15930395 -0.23551467
-0.18127033 0.15937957 -0.23549889
-0.18126738 0.15945157 -0.23550117
-0.18126433 0.15952364 -0.23550545
-0.181262 0.1595993 -0.23549166
-0.18125924 0.15967123 -0.23548993
-0.18125564 0.1597455 -0.23550415
-0.18125239 0.15981765 -0.23551244
-0.18124963 0.15988958 -0.23551072
-0.1812471 0.15996532 -0.23550093
-0.18124485 0.16003898 -0.23548719
-0.1812423 0.16011278 -0.23547943
-0.18123974 0.16018462 -0.23547372
-0.18123671 0.16025862 -0.23547596
-0.18123397 0.16033252 -0.2354722
-0.18123111 0.16040447 -0.23547247
-0.1812277 0.16047867 -0.23548271
-0.18122503 0.16055055 -0.235479
-0.18122268 0.16062425 -0.23546726
-0.18122004 0.16069809 -0.2354615
-0.18121709 0.1607701 -0.23546377
-0.18121387 0.16084421 -0.23547
-0.18121122 0.16091804 -0.23546425
-0.18120897 0.1609917 -0.23545051
-0.18120633 0.16106555 -0.23544475
-0.18120377 0.16113739 -0.23543905
-0.18120131 0.16121113 -0.23542929
-0.18119897 0.16128483 -0.23541754
-0.18117997 0.16179997 -0.23538931
-0.1811772 0.16187188 -0.23538759
-0.18117525 0.16194542 -0.23536786
-0.181173 0.16201907 -0.23535411
-0.18116955 0.16209131 -0.23536637
-0.18116574 0.16216567 -0.23538458
-0.1811634 0.16223939 -0.23537284
-0.18116182 0.16231273 -0.23534513
-0.18116005 0.16238618 -0.2353214
-0.18115839 0.16246153 -0.23529363
-0.18115586 0.16253532 -0.23528588
-0.1811527 0.16260743 -0.23529214
-0.18114917 0.1626797 -0.23530641
-0.18114553 0.16275203 -0.23532267
-0.18114281 0.16282591 -0.23531891
-0.18114093 0.16289939 -0.23529717
-0.1811382 0.16297327 -0.23529342
-0.18113515 0.16304533 -0.23529771
-0.18113232 0.16311926 -0.23529595
-0.18112946 0.16319123 -0.23529622
-0.18112682 0.16326506 -0.23529047
-0.18112494 0.16333854 -0.23526874
-0.18112279 0.16341217 -0.23525301
-0.18111975 0.16348618 -0.23525524
-0.1811168 0.1635582 -0.23525751
-0.18111417 0.16363204 -0.23525175
-0.18111131 0.16370401 -0.23525205
-0.18110847 0.16377793 -0.23525029
-0.18110561 0.16384989 -0.23525056
-0.18110268 0.16392386 -0.2352508
-0.18110004 0.16399771 -0.23524505
-0.18109709 0.16406971 -0.23524733
-0.18109407 0.16414373 -0.23524956
-0.18109159 0.16421552 -0.23524186
-0.18108915 0.16428928 -0.23523211
-0.1810865 0.16436312 -0.23522636
-0.18108355 0.16443512 -0.23522864
-0.18108022 0.16450927 -0.23523687
-0.18107738 0.16458124 -0.23523715
-0.18107511 0.1646549 -0.23522341
-0.18107177 0.16472709 -0.23523368
-0.18106875 0.16480111 -0.23523591
-0.1810663 0.16487485 -0.23522615
-0.18106434 0.16494839 -0.23520643
-0.18106139 0.16502039 -0.23520872
-0.18105784 0.16509268 -0.23522297
-0.18105412 0.16516504 -0.23524123
-0.18104993 0.16523957 -0.23526743
-0.18101567 0.166115 -0.23526058
-0.18101273 0.16618896 -0.23526081
-0.18100989 0.16626093 -0.23526111
-0.18100695 0.1663349 -0.23526134
-0.18100409 0.16640687 -0.23526162
-0.18100095 0.16647898 -0.23526789
-0.18098557 0.16677061 -0.23534888
-0.18098244 0.16684467 -0.23535311
-0.18097939 0.16691673 -0.23535737
-0.18097597 0.16699091 -0.23536761
-0.18097292 0.16706297 -0.23537189
-0.18096989 0.16713698 -0.23537412
-0.18096675 0.16720909 -0.2353804
-0.18096301 0.16728145 -0.23539865
-0.18095911 0.16735585 -0.23541886
-0.18095538 0.16742823 -0.23543712
-0.18095155 0.16750063 -0.23545738
-0.18094793 0.16757295 -0.23547363
-0.18094315 0.16764775 -0.23551182
-0.18093923 0.1677202 -0.23553407
-0.18093549 0.16779257 -0.23555234
-0.1809307 0.16786541 -0.23559256
-0.18092661 0.16793992 -0.23561677
-0.18092297 0.16801223 -0.23563303
-0.18091798 0.16808517 -0.23567724
-0.18091211 0.1681585 -0.23573944
-0.18089646 0.16845222 -0.23582438
-0.18089302 0.16852444 -0.23583664
-0.1808898 0.16859855 -0.23584287
-0.18083699 0.1691152 -0.23652194
-0.18083093 0.16918862 -0.23658814
-0.18082468 0.16926213 -0.23665832
-0.18081775 0.16933593 -0.2367425
-0.18054277 0.16982338 -0.24210206
-0.18054084 0.16990082 -0.24207824
-0.18053794 0.16997674 -0.24207643
-0.18053512 0.17005262 -0.24207263
-0.18053301 0.17013015 -0.24205279
-0.18053067 0.1702058 -0.242039
-0.18052688 0.17028213 -0.24205518
-0.18052348 0.17035827 -0.24206334
-0.18052068 0.1704361 -0.2420575
-0.18051827 0.1705118 -0.2420457
-0.18051535 0.17058773 -0.2420439
-0.18051225 0.17066374 -0.24204609
-0.18050943 0.17073962 -0.24204227
-0.18050615 0.17081767 -0.24204642
-0.18050295 0.17089373 -0.24205059
-0.18050033 0.17096952 -0.24204281
-0.18049869 0.17104682 -0.24201298
-0.18049626 0.17112252 -0.24200119
-0.18049286 0.17119867 -0.24200937
-0.18048976 0.17127468 -0.24201155
-0.18048733 0.17135037 -0.24199978
-0.18048464 0.17142817 -0.24199191
-0.18048114 0.17150435 -0.2420021
-0.18047804 0.17158036 -0.24200428
-0.18047571 0.17165603 -0.24199048
-0.18047281 0.1717339 -0.24198663
-0.18046971 0.17180991 -0.24198882
-0.1804662 0.1718861 -0.241999
-0.18046293 0.17196415 -0.24200314
-0.18046002 0.17204008 -0.24200132
-0.18045779 0.17211568 -0.24198553
-0.18045594 0.17219113 -0.24196176
-0.18045303 0.17226705 -0.24195996
-0.18044887 0.1723455 -0.24198207
-0.18044576 0.1724215 -0.24198425
-0.18044402 0.1724969 -0.24195847
-0.1804415 0.17257266 -0.24194868
-0.18043761 0.17264901 -0.24196684
-0.18043345 0.17272747 -0.24198896
-0.18043044 0.17280343 -0.24198914
-0.18042812 0.17287908 -0.24197535
-0.1804256 0.17295483 -0.24196556
-0.1804226 0.17303275 -0.2419637
-0.18041882 0.17310907 -0.24197987
-0.18041503 0.17318539 -0.24199602
-0.18041241 0.17326118 -0.24198824
-0.18040952 0.17333905 -0.24198438
-0.18040651 0.17341502 -0.24198458
-0.18040361 0.17349094 -0.24198276
-0.18040127 0.17356661 -0.24196897
-0.18039855 0.17364244 -0.24196318
-0.18039478 0.17372072 -0.24197729
-0.18039177 0.17379668 -0.24197748
-0.18038908 0.17387447 -0.24196963
-0.18038617 0.17395039 -0.24196783
-0.18038286 0.17402649 -0.241974
-0.18037966 0.17410254 -0.2419782
-0.18037665 0.17417851 -0.24197838
-0.18037356 0.17425647 -0.24197853
-0.18037075 0.17433235 -0.24197471
-0.18036793 0.17440823 -0.24197091
-0.18036515 0.17448606 -0.24196506
