# .PCD v0.7 - Point Cloud Data file format
VERSION 0.7
FIELDS x y z
SIZE 4 4 4
TYPE F F F
COUNT 1 1 1
WIDTH 1379
HEIGHT 1
VIEWPOINT 0 0 0 1 0 0 0
POINTS 1379
DATA ascii
-0.14555243 0.15942836 -0.24060585
-0.14554933 0.15950437 -0.24060804
-0.14554663 0.15958215 -0.2406002
-0.14554402 0.15965794 -0.24059239
-0.14554113 0.15973583 -0.24058855
-0.14553851 0.15981162 -0.24058074
-0.14553572 0.15988944 -0.2405749
-0.14553291 0.15996532 -0.24057108
-0.14552979 0.16004133 -0.24057326
-0.14552642 0.16011943 -0.2405794
-0.14552322 0.16019548 -0.24058358
-0.14552031 0.16027141 -0.24058178
-0.14551751 0.16034923 -0.24057592
-0.1455148 0.16042508 -0.24057013
-0.14551172 0.16050304 -0.24057028
-0.14550881 0.16057897 -0.24056846
-0.14550599 0.16065484 -0.24056464
-0.1455031 0.16073272 -0.2405608
-0.14550011 0.16080868 -0.24056098
-0.14549711 0.1608866 -0.24055913
-0.1454943 0.16096249 -0.24055533
-0.1454913 0.16103846 -0.24055552
-0.14548838 0.16111438 -0.24055371
-0.14548549 0.16119225 -0.24054986
-0.14548297 0.161268 -0.24054006
-0.14547987 0.16134401 -0.24054225
-0.14547628 0.16142024 -0.24055442
-0.14547329 0.16149816 -0.24055257
-0.14547087 0.16157386 -0.24054077
-0.14546818 0.16165166 -0.24053293
-0.14546546 0.16172749 -0.24052712
-0.14546235 0.1618035 -0.24052931
-0.14545937 0.16188142 -0.24052745
-0.14545666 0.16195725 -0.24052165
-0.14545357 0.16203521 -0.24052179
-0.14545095 0.16211101 -0.240514
-0.14544871 0.16218662 -0.24049821
-0.14544602 0.16226442 -0.24049036
-0.1454435 0.16234016 -0.24048057
-0.1454408 0.16241795 -0.24047272
-0.14543751 0.16249405 -0.2404789
-0.14543431 0.1625701 -0.24048308
-0.14543121 0.16264611 -0.24048528
-0.14542812 0.16272408 -0.2404854
-0.14542541 0.16279991 -0.24047962
-0.14542259 0.16287579 -0.2404758
-0.1454197 0.16295367 -0.24047196
-0.1454165 0.16302973 -0.24047613
-0.14541329 0.16310579 -0.24048032
-0.14541012 0.16318379 -0.24048245
-0.14540711 0.16325976 -0.24048264
-0.1454041 0.16333573 -0.24048284
-0.1454013 0.1634116 -0.24047902
-0.1453986 0.16348939 -0.24047118
-0.14539598 0.16356517 -0.24046339
-0.14539297 0.16364114 -0.24046358
-0.14538988 0.16371912 -0.2404637
-0.14538707 0.16379499 -0.24045992
-0.14538427 0.16387087 -0.2404561
-0.14538127 0.16394879 -0.24045426
-0.14537807 0.16402484 -0.24045843
-0.14537469 0.16410099 -0.24046661
-0.14537187 0.16417687 -0.24046281
-0.14536935 0.16425261 -0.240453
-0.14536694 0.16433027 -0.24043918
-0.14536403 0.1644062 -0.24043736
-0.14536083 0.16448225 -0.24044156
-0.14535794 0.16456012 -0.24043769
-0.14535542 0.16463587 -0.2404279
-0.14535232 0.16471188 -0.24043009
-0.14534912 0.16478793 -0.24043427
-0.14534603 0.1648659 -0.24043441
-0.14534302 0.16494186 -0.24043459
-0.14533982 0.16501792 -0.24043879
-0.14533691 0.16509384 -0.24043697
-0.14533432 0.16517159 -0.24042714
-0.14533159 0.16524743 -0.24042132
-0.14532879 0.1653233 -0.24041753
-0.14532587 0.16539922 -0.24041572
-0.1453227 0.16547723 -0.24041787
-0.14532018 0.16555297 -0.24040806
-0.14531755 0.16562878 -0.24040025
-0.14531417 0.16570687 -0.24040639
-0.14531098 0.16578293 -0.24041058
-0.14530806 0.16585885 -0.24040878
-0.14530545 0.16593464 -0.24040097
-0.14530276 0.16601242 -0.24039313
-0.14530003 0.16608827 -0.24038732
-0.14529751 0.16616401 -0.24037752
-0.14529453 0.16624193 -0.24037567
-0.14529142 0.16631794 -0.24037784
-0.14528842 0.16639391 -0.24037805
-0.14528541 0.16646987 -0.24037823
-0.14528272 0.16654766 -0.24037039
-0.14528009 0.16662346 -0.24036258
-0.14527699 0.16669947 -0.24036478
-0.14527398 0.16677544 -0.24036497
-0.1452712 0.16685326 -0.24035911
-0.14526838 0.16692914 -0.24035531
-0.14526576 0.16700493 -0.2403475
-0.14526285 0.16708085 -0.2403457
-0.14525957 0.1671589 -0.24034983
-0.14525656 0.16723487 -0.24035004
-0.14525375 0.16731076 -0.24034622
-0.14525115 0.1673885 -0.24033639
-0.14524844 0.16746433 -0.24033058
-0.14524543 0.1675403 -0.24033076
-0.14524242 0.16761626 -0.24033096
-0.1452398 0.16769207 -0.24032316
-0.14523712 0.16776985 -0.24031532
-0.14523391 0.1678459 -0.24031949
-0.14523101 0.16792183 -0.24031767
-0.14522877 0.16799743 -0.24030189
-0.14522646 0.16807505 -0.24028605
-0.14522356 0.16815098 -0.24028425
-0.14522016 0.16822712 -0.24029243
-0.14521706 0.16830313 -0.24029461
-0.14521465 0.16838078 -0.24028078
-0.14521213 0.16845654 -0.24027097
-0.14520961 0.16853228 -0.24026118
-0.1452067 0.1686082 -0.24025938
-0.14520378 0.16868412 -0.24025756
-0.145201 0.16876195 -0.24025172
-0.1451979 0.16883796 -0.2402539
-0.1451942 0.16891424 -0.24026808
-0.145191 0.1689903 -0.24027225
-0.14518858 0.169066 -0.24026047
-0.14518628 0.16914362 -0.24024463
-0.14518316 0.16921963 -0.24024682
-0.14517978 0.16929577 -0.240255
-0.14517696 0.16937165 -0.24025118
-0.14517376 0.16944771 -0.24025539
-0.14516999 0.16952597 -0.2402695
-0.14516766 0.16960163 -0.24025571
-0.14516583 0.16967708 -0.24023193
-0.14516352 0.16975468 -0.24021611
-0.14516129 0.16983031 -0.24020031
-0.14515828 0.16990627 -0.24020049
-0.14515518 0.16998228 -0.24020268
-0.14515305 0.17005785 -0.2401849
-0.14515093 0.17013538 -0.24016507
-0.14514831 0.17021117 -0.24015728
-0.14514521 0.17028718 -0.24015945
-0.14514133 0.17036355 -0.24017763
-0.1451364 0.17044234 -0.2402157
-0.14513193 0.17051896 -0.24024585
-0.14512825 0.17059523 -0.24026003
-0.14512505 0.17067128 -0.24026421
-0.14512204 0.17074725 -0.24026439
-0.14511867 0.17082535 -0.24027053
-0.14511605 0.17090115 -0.24026273
-0.14511479 0.17097633 -0.24022697
-0.14511275 0.17105184 -0.2402072
-0.14510916 0.17112808 -0.24021935
-0.14510579 0.17120618 -0.24022549
-0.14510337 0.17128187 -0.24021369
-0.14510085 0.17135763 -0.2402039
-0.14509784 0.1714336 -0.2402041
-0.14509493 0.17150952 -0.24020228
-0.14509185 0.17158748 -0.24020243
-0.14508922 0.17166327 -0.24019462
-0.1450866 0.17173906 -0.24018684
-0.14508331 0.17181516 -0.24019301
-0.14508012 0.17189316 -0.24019516
-0.14507712 0.17196913 -0.24019533
-0.14507362 0.17204532 -0.24020551
-0.14507061 0.17212129 -0.24020571
-0.14506832 0.17219891 -0.24018987
-0.1450655 0.17227478 -0.24018607
-0.1450623 0.17235084 -0.24019024
-0.14505959 0.17242667 -0.24018444
-0.14505647 0.17250268 -0.24018663
-0.14505319 0.17258073 -0.24019077
-0.14505048 0.17265657 -0.24018496
-0.14504796 0.17273231 -0.24017516
-0.14504495 0.17280829 -0.24017537
-0.14504167 0.17288634 -0.24017949
-0.14503847 0.17296238 -0.24018368
-0.14503548 0.17303835 -0.24018386
-0.14503239 0.17311633 -0.24018401
-0.14502908 0.17319241 -0.24019018
-0.14502648 0.17326821 -0.2401824
-0.14502424 0.17334382 -0.2401666
-0.14502153 0.17341965 -0.24016079
-0.14501834 0.17349766 -0.24016294
-0.14501533 0.17357363 -0.24016312
-0.14501253 0.17364952 -0.24015933
-0.14500961 0.17372544 -0.24015751
-0.14500681 0.17380132 -0.2401537
-0.14500381 0.17387924 -0.24015185
-0.14500052 0.17395534 -0.24015804
-0.14499751 0.1740313 -0.24015823
-0.14499472 0.17410913 -0.24015236
-0.1449919 0.17418501 -0.24014857
-0.14498919 0.17426085 -0.24014276
-0.14498599 0.1743369 -0.24014693
-0.14498298 0.17441288 -0.24014714
-0.14498039 0.17449062 -0.24013729
-0.14497776 0.1745664 -0.2401295
-0.14497475 0.17464237 -0.24012968
-0.14497165 0.17471838 -0.24013187
-0.14496912 0.17479414 -0.24012208
-0.14496644 0.17487192 -0.24011423
-0.14496313 0.17494802 -0.24012041
-0.14495996 0.17502603 -0.24012256
-0.14495751 0.17509978 -0.2401128
-0.14495471 0.1751776 -0.24010694
-0.14495161 0.17525361 -0.24010915
-0.14494851 0.17532963 -0.24011132
-0.14494543 0.17540759 -0.24011147
-0.14494251 0.17548351 -0.24010965
-0.14493951 0.17555948 -0.24010985
-0.1449365 0.17563544 -0.24011004
-0.14493388 0.17571124 -0.24010223
-0.14493099 0.17578912 -0.24009839
-0.14492808 0.17586504 -0.24009657
-0.14492498 0.17594105 -0.24009876
-0.14492171 0.1760191 -0.2401029
-0.14491908 0.17609489 -0.24009509
-0.14491646 0.17617069 -0.2400873
-0.14491364 0.17624657 -0.2400835
-0.14491074 0.17632249 -0.2400817
-0.14490746 0.17640054 -0.24008583
-0.14490464 0.17647642 -0.24008201
-0.14490193 0.17655225 -0.24007621
-0.14489904 0.17663012 -0.24007237
-0.14489594 0.17670614 -0.24007455
-0.14489274 0.17678219 -0.24007873
-0.14488976 0.17686011 -0.24007687
-0.14488694 0.176936 -0.24007307
-0.14488423 0.17701183 -0.24006727
-0.14488122 0.1770878 -0.24006745
-0.14487822 0.17716572 -0.2400656
-0.14487542 0.17724159 -0.24006179
-0.14487222 0.17731765 -0.24006598
-0.14486933 0.17739552 -0.24006213
-0.14486642 0.17747144 -0.24006033
-0.14486361 0.17754734 -0.24005651
-0.14486079 0.17762321 -0.24005271
-0.14485781 0.17770113 -0.24005085
-0.14485469 0.17777714 -0.24005304
-0.1448513 0.17785329 -0.24006122
-0.14484562 0.17793438 -0.24011324
-0.14483935 0.17801575 -0.24017724
-0.14483011 0.17810237 -0.24029908
-0.14630774 0.14543787 -0.24106109
-0.14630504 0.14551565 -0.24105324
-0.14630133 0.14558998 -0.24106947
-0.14629863 0.14566776 -0.24106161
-0.14629593 0.14574555 -0.24105376
-0.14629334 0.1458233 -0.24104393
-0.14629054 0.14590113 -0.24103807
-0.14628763 0.14597705 -0.24103627
-0.14628464 0.14605497 -0.2410344
-0.14628205 0.14613271 -0.24102455
-0.14627935 0.14621051 -0.24101672
-0.14627625 0.14628652 -0.24101891
-0.14627314 0.14636253 -0.24102108
-0.14627035 0.14644036 -0.24101524
-0.14626755 0.14651819 -0.24100938
-0.14626476 0.14659603 -0.24100354
-0.14626195 0.14667191 -0.24099973
-0.14625835 0.14674813 -0.2410119
-0.14625503 0.14682227 -0.24102014
-0.14625245 0.14690198 -0.24100824
-0.14624955 0.1469779 -0.24100643
-0.14624666 0.14705577 -0.24100259
-0.14624394 0.14713161 -0.24099678
-0.14624064 0.14720771 -0.24100296
-0.14623785 0.14728554 -0.24099711
-0.14623524 0.14736329 -0.24098727
-0.14623216 0.14744125 -0.24098742
-0.14622885 0.14751539 -0.24099563
-0.14622624 0.14759314 -0.24098578
-0.14622377 0.1476728 -0.24097189
-0.14622095 0.14774868 -0.24096811
-0.14621796 0.1478266 -0.24096623
-0.14621496 0.14790256 -0.24096642
-0.14621216 0.14798039 -0.24096058
-0.14620918 0.14805831 -0.24095872
-0.14620636 0.1481342 -0.24095492
-0.14620347 0.14821208 -0.24095106
-0.14620027 0.14828813 -0.24095525
-0.14619695 0.14836226 -0.24096347
-0.14619406 0.14844015 -0.24095963
-0.14619136 0.14851794 -0.24095178
-0.14618838 0.14859585 -0.24094993
-0.14618546 0.14867178 -0.24094811
-0.14618227 0.14874783 -0.2409523
-0.14617907 0.14882389 -0.24095649
-0.14617607 0.14890181 -0.24095462
-0.14617287 0.14897786 -0.24095881
-0.14616996 0.14905378 -0.24095699
-0.14616707 0.14913166 -0.24095315
-0.14616427 0.1492095 -0.24094731
-0.14616178 0.14928719 -0.24093546
-0.1461592 0.1493669 -0.24092357
-0.14615658 0.14944269 -0.24091578
-0.14615397 0.14952043 -0.24090593
-0.14615057 0.14959657 -0.24091411
-0.14614677 0.14967093 -0.24093232
-0.14614379 0.14974886 -0.24093047
-0.1461411 0.14982665 -0.24092261
-0.1461384 0.14990443 -0.24091476
-0.14613548 0.14998037 -0.24091296
-0.1461325 0.15005828 -0.2409111
-0.14612958 0.15013421 -0.24090931
-0.14612649 0.15021217 -0.24090943
-0.14612369 0.15028805 -0.24090564
-0.1461207 0.15036596 -0.24090378
-0.146118 0.15044376 -0.24089593
-0.14611521 0.15052159 -0.24089009
-0.1461122 0.15059756 -0.24089026
-0.1461091 0.15067357 -0.24089245
-0.14610621 0.15075144 -0.2408886
-0.14610361 0.1508292 -0.24087876
-0.14610082 0.15090702 -0.24087292
-0.146098 0.1509829 -0.2408691
-0.14609501 0.15106082 -0.24086726
-0.1460921 0.15113674 -0.24086544
-0.14608932 0.15121457 -0.2408596
-0.14608671 0.15129232 -0.24084975
-0.14608361 0.15136833 -0.24085194
-0.14608011 0.15144452 -0.2408621
-0.14607632 0.15152083 -0.24087828
-0.1460731 0.15159494 -0.24088451
-0.14607032 0.15167277 -0.24087866
-0.14606783 0.15175243 -0.24086477
-0.14606532 0.15183012 -0.24085292
-0.14606263 0.15190792 -0.24084508
-0.14605992 0.15198375 -0.24083927
-0.14605702 0.15206163 -0.24083543
-0.14605393 0.15213764 -0.2408376
-0.14605062 0.15221374 -0.24084379
-0.14604773 0.15229161 -0.24083994
-0.14604501 0.15236744 -0.24083415
-0.14604163 0.15244554 -0.24084027
-0.14603843 0.1525216 -0.24084446
-0.14603572 0.15259743 -0.24083865
-0.14603283 0.1526753 -0.2408348
-0.14602982 0.15275127 -0.24083498
-0.14602692 0.15282916 -0.24083114
-0.14602423 0.15290694 -0.2408233
-0.14602132 0.15298286 -0.24082148
-0.14601792 0.15305901 -0.24082965
-0.14601503 0.15313688 -0.2408258
-0.14601244 0.15321463 -0.24081597
-0.14600955 0.15329251 -0.24081212
-0.14600644 0.15336852 -0.2408143
-0.14600344 0.15344448 -0.24081448
-0.14600083 0.15352222 -0.24080464
-0.14599814 0.15360002 -0.2407968
-0.14599513 0.15367599 -0.24079698
-0.14599253 0.15375373 -0.24078715
-0.14599004 0.15383339 -0.24077326
-0.14598684 0.15390944 -0.24077743
-0.14598325 0.15398566 -0.24078962
-0.14597996 0.15406176 -0.24079579
-0.14597705 0.15413769 -0.24079397
-0.14597455 0.1542154 -0.24078214
-0.14597194 0.15429313 -0.24077229
-0.14596905 0.15437101 -0.24076845
-0.14596575 0.15444711 -0.24077463
-0.14596255 0.15452316 -0.2407788
-0.14595935 0.15459922 -0.24078299
-0.14595646 0.15467709 -0.24077913
-0.14595376 0.15475488 -0.24077129
-0.14595124 0.15483063 -0.24076149
-0.14594826 0.15490855 -0.24075964
-0.14594506 0.15498461 -0.24076383
-0.14594205 0.15506057 -0.24076402
-0.14593925 0.1551384 -0.24075817
-0.14593634 0.15521432 -0.24075636
-0.14593324 0.15529034 -0.24075854
-0.14593044 0.15536818 -0.2407527
-0.14592774 0.15544596 -0.24074484
-0.14592466 0.15552393 -0.24074499
-0.14592175 0.15559985 -0.24074319
-0.14591855 0.1556759 -0.24074736
-0.14591564 0.15575182 -0.24074556
-0.14591284 0.15582965 -0.2407397
-0.14591025 0.15590741 -0.24072987
-0.14590752 0.15598324 -0.24072406
-0.14590435 0.15606125 -0.2407262
-0.14590144 0.15613717 -0.24072438
-0.14589855 0.15621504 -0.24072054
-0.14589585 0.15629284 -0.2407127
-0.14589313 0.15636867 -0.24070689
-0.14588994 0.15644473 -0.24071106
-0.14588663 0.15652083 -0.24071726
-0.14588365 0.15659875 -0.2407154
-0.14588124 0.1566764 -0.24070156
-0.14587854 0.1567542 -0.24069372
-0.14587533 0.15683025 -0.24069789
-0.14587204 0.15690634 -0.24070407
-0.14586933 0.15698218 -0.24069828
-0.14586675 0.15706187 -0.24068639
-0.14586374 0.15713784 -0.24068657
-0.14586063 0.15721385 -0.24068877
-0.14585763 0.15728982 -0.24068895
-0.14585444 0.15736783 -0.2406911
-0.14585143 0.15744379 -0.24069127
-0.14584854 0.15752168 -0.24068743
-0.14584553 0.15759765 -0.24068761
-0.14584252 0.15767361 -0.2406878
-0.14583963 0.15775149 -0.24068394
-0.14583695 0.15782927 -0.24067611
-0.14583442 0.15790501 -0.2406663
-0.14583141 0.15798099 -0.24066649
-0.14582832 0.15805896 -0.24066664
-0.14582561 0.15813479 -0.24066085
-0.14582291 0.15821257 -0.24065299
-0.1458199 0.15828854 -0.24065319
-0.145817 0.15836446 -0.24065137
-0.145814 0.15844238 -0.24064952
-0.1458112 0.15851827 -0.24064571
-0.14580792 0.15859632 -0.24064985
-0.14580511 0.1586722 -0.24064605
-0.14580248 0.15874799 -0.24063824
-0.14579949 0.1588259 -0.24063638
-0.14579639 0.15890191 -0.24063858
-0.14579341 0.15897983 -0.24063672
-0.14579079 0.15905564 -0.24062893
-0.14578809 0.15913342 -0.24062106
-0.14578488 0.15920947 -0.24062526
-0.14578168 0.15928553 -0.24062943
-0.14577879 0.1593634 -0.24062559
-0.14577608 0.15943924 -0.24061978
-0.14577307 0.1595152 -0.24061997
-0.14576998 0.15959316 -0.24062012
-0.14576727 0.159669 -0.24061432
-0.14576447 0.15974684 -0.24060847
-0.14576156 0.15982276 -0.24060667
-0.14575866 0.15989868 -0.24060485
-0.14575586 0.15997651 -0.24059901
-0.14575304 0.16005239 -0.24059519
-0.14575006 0.16013032 -0.24059334
-0.14574705 0.16020629 -0.24059352
-0.14574423 0.16028216 -0.24058974
-0.14574106 0.16036017 -0.24059185
-0.14573766 0.16043632 -0.24060005
-0.14573485 0.16051219 -0.24059623
-0.14573254 0.1605898 -0.24058041
-0.14572984 0.1606676 -0.24057256
-0.14572693 0.16074352 -0.24057075
-0.14572412 0.1608194 -0.24056694
-0.14572112 0.16089731 -0.24056509
-0.14571802 0.16097333 -0.24056727
-0.14571501 0.16104929 -0.24056746
-0.14571223 0.16112712 -0.2405616
-0.14570931 0.16120304 -0.2405598
-0.14570621 0.16127905 -0.24056199
-0.14570321 0.16135699 -0.24056014
-0.14570031 0.16143291 -0.24055833
-0.1456973 0.16150887 -0.24055851
-0.1456942 0.16158488 -0.24056071
-0.14569111 0.16166285 -0.24056083
-0.14568868 0.16173854 -0.24054906
-0.14568587 0.16181442 -0.24054524
-0.14568278 0.16189238 -0.24054539
-0.14567988 0.16196831 -0.24054357
-0.14567707 0.16204615 -0.24053773
-0.14567447 0.16212194 -0.24052992
-0.14567184 0.16219772 -0.24052213
-0.14566904 0.16227557 -0.24051628
-0.14566594 0.16235158 -0.24051847
-0.14566255 0.16242771 -0.24052665
-0.14565945 0.16250372 -0.24052882
-0.14565644 0.16257969 -0.24052902
-0.14565383 0.16265744 -0.24051918
-0.14565134 0.16273513 -0.24050733
-0.14564823 0.16281115 -0.24050951
-0.14564493 0.16288725 -0.24051571
-0.14564192 0.16296321 -0.24051589
-0.14563903 0.16304109 -0.24051204
-0.14563622 0.16311696 -0.24050823
-0.1456334 0.16319285 -0.24050443
-0.14563061 0.16327068 -0.24049857
-0.1456276 0.16334665 -0.24049878
-0.14562459 0.16342261 -0.24049896
-0.14562169 0.16349854 -0.24049714
-0.1456186 0.1635765 -0.24049729
-0.14561598 0.16365229 -0.24048948
-0.14561337 0.16373004 -0.24047965
-0.14561018 0.1638061 -0.24048384
-0.14560679 0.16388223 -0.24049202
-0.14560397 0.16395812 -0.2404882
-0.14560147 0.16403581 -0.24047637
-0.14559904 0.16411151 -0.24046457
-0.14559634 0.16418931 -0.24045673
-0.14559333 0.16426528 -0.24045691
-0.14559023 0.16434129 -0.2404591
-0.14558733 0.16441721 -0.2404573
-0.14558432 0.16449317 -0.24045748
-0.14558113 0.16457118 -0.24045962
-0.14557831 0.16464706 -0.24045581
-0.14557551 0.16472293 -0.24045202
-0.14557281 0.16480073 -0.24044415
-0.14557038 0.16487643 -0.24043237
-0.14556709 0.16495253 -0.24043855
-0.14556369 0.16502868 -0.24044672
-0.14556119 0.16510637 -0.24043489
-0.14555876 0.16518207 -0.2404231
-0.14555605 0.16525792 -0.2404173
-0.14555325 0.16533574 -0.24041143
-0.14555004 0.1654118 -0.24041563
-0.14554656 0.16548799 -0.2404258
-0.14554355 0.16556396 -0.24042599
-0.14554092 0.16563974 -0.2404182
-0.14553842 0.16571744 -0.24040635
-0.14553571 0.16579328 -0.24040055
-0.1455324 0.16586937 -0.24040672
-0.14552912 0.16594742 -0.24041086
-0.14552632 0.16602331 -0.24040706
-0.14552331 0.16609928 -0.24040726
-0.14552011 0.16617532 -0.24041143
-0.14551683 0.16625339 -0.24041557
-0.14551401 0.16632926 -0.24041176
-0.14551158 0.16640496 -0.24039997
-0.14550877 0.16648084 -0.24039617
-0.14550588 0.16655871 -0.24039231
-0.14550336 0.16663447 -0.24038252
-0.14550084 0.16671021 -0.24037272
-0.14549802 0.16678609 -0.2403689
-0.14549474 0.16686414 -0.24037305
-0.14549154 0.1669402 -0.24037723
-0.14548825 0.1670163 -0.24038342
-0.14548533 0.16709222 -0.2403816
-0.14548272 0.16716801 -0.24037381
-0.14548002 0.16724581 -0.24036595
-0.1454771 0.16732173 -0.24036415
-0.145474 0.16739774 -0.24036634
-0.1454712 0.16747557 -0.2403605
-0.14546849 0.1675514 -0.24035469
-0.14546539 0.16762741 -0.24035686
-0.14546247 0.16770333 -0.24035507
-0.14545988 0.16778108 -0.24034521
-0.14545687 0.16785705 -0.24034542
-0.14545366 0.16793311 -0.24034959
-0.14545134 0.16800876 -0.24033579
-0.14544901 0.16808441 -0.24032202
-0.14544621 0.16816226 -0.24031615
-0.14544331 0.16823818 -0.24031436
-0.14544021 0.16831419 -0.24031654
-0.14543712 0.16839215 -0.24031669
-0.14543431 0.16846803 -0.24031287
-0.14543138 0.16854395 -0.24031107
-0.14542829 0.16861996 -0.24031326
-0.14542586 0.16869566 -0.24030146
-0.14542355 0.16877328 -0.24028563
-0.14541909 0.1688499 -0.24031577
-0.14541511 0.16892631 -0.24033594
-0.14541307 0.16900183 -0.24031615
-0.14541142 0.16907719 -0.24028838
-0.14540882 0.16915494 -0.24027854
-0.14540708 0.16923033 -0.24025276
-0.14540476 0.169306 -0.24023896
-0.14540136 0.16938214 -0.24024716
-0.14539728 0.16945858 -0.2402693
-0.14539391 0.16953668 -0.24027544
-0.1453909 0.16961265 -0.24027564
-0.14538808 0.16968852 -0.24027182
-0.14538556 0.16976427 -0.24026203
-0.14538248 0.16984223 -0.24026218
-0.14537936 0.16991824 -0.24026436
-0.14537646 0.16999418 -0.24026255
-0.14537376 0.17007196 -0.2402547
-0.14537221 0.17014727 -0.24022493
-0.14536989 0.17022292 -0.24021114
-0.14536677 0.17029893 -0.24021333
-0.14536434 0.17037465 -0.24020153
-0.14536078 0.17045282 -0.24021167
-0.14535661 0.17052932 -0.24023582
-0.14535108 0.17060642 -0.24028793
-0.14534777 0.17068252 -0.24029411
-0.14534526 0.17075826 -0.24028432
-0.14534295 0.17083588 -0.24026848
-0.14534004 0.1709118 -0.24026668
-0.1453377 0.17098746 -0.24025288
-0.14533587 0.1710629 -0.2402291
-0.14533344 0.17113861 -0.24021731
-0.14533025 0.17121662 -0.24021946
-0.14532745 0.1712925 -0.24021564
-0.14532453 0.17136842 -0.24021384
-0.14532132 0.17144448 -0.24021803
-0.14531803 0.17152058 -0.24022421
-0.14531544 0.17159832 -0.24021436
-0.14531291 0.17167406 -0.24020457
-0.1453099 0.17175002 -0.24020475
-0.1453069 0.17182599 -0.24020495
-0.14530361 0.17190404 -0.24020907
-0.14530042 0.1719801 -0.24021326
-0.1452975 0.17205602 -0.24021146
-0.14529479 0.17213187 -0.24020565
-0.14529209 0.17220965 -0.24019781
-0.14528908 0.17228562 -0.240198
-0.14528587 0.17236167 -0.24020219
-0.14528278 0.17243768 -0.24020436
-0.14527968 0.17251369 -0.24020655
-0.14527649 0.1725917 -0.24020869
-0.14527377 0.17266753 -0.24020289
-0.14527124 0.17274328 -0.2401931
-0.14526834 0.1728192 -0.24019128
-0.14526533 0.17289518 -0.24019147
-0.14526224 0.17297314 -0.24019161
-0.14525934 0.17304906 -0.24018982
-0.14525642 0.17312498 -0.240188
-0.14525333 0.17320295 -0.24018814
-0.14525023 0.17327896 -0.24019033
-0.14524722 0.17335492 -0.24019051
-0.1452446 0.17343071 -0.24018273
-0.14524162 0.17350863 -0.24018086
-0.14523891 0.17358448 -0.24017507
-0.14523618 0.17366031 -0.24016926
-0.14523317 0.17373627 -0.24016945
-0.14523026 0.1738122 -0.24016765
-0.14522737 0.17389007 -0.24016377
-0.14522427 0.17396608 -0.24016598
-0.14522126 0.17404205 -0.24016616
-0.14521807 0.17412005 -0.2401683
-0.14521508 0.17419602 -0.24016848
-0.14521216 0.17427194 -0.24016669
-0.14520887 0.17434804 -0.24017286
-0.14520624 0.17442383 -0.24016505
-0.14520413 0.17450136 -0.24014524
-0.14520122 0.17457728 -0.24014343
-0.14519811 0.17465329 -0.24014561
-0.14519471 0.17472944 -0.24015379
-0.14519124 0.17480758 -0.24016193
-0.14518833 0.1748835 -0.24016011
-0.1451859 0.1749592 -0.24014832
-0.14518301 0.17503709 -0.24014446
-0.14517991 0.17511308 -0.24014665
-0.1451769 0.17518906 -0.24014685
-0.14517428 0.17526485 -0.24013904
-0.14517196 0.1753405 -0.24012525
-0.14516917 0.17541835 -0.2401194
-0.14516596 0.17549439 -0.24012358
-0.14516285 0.1755704 -0.24012578
-0.14515994 0.17564632 -0.24012396
-0.14515732 0.17572212 -0.24011618
-0.14515463 0.17579991 -0.24010831
-0.14515162 0.17587587 -0.24010852
-0.14514862 0.17595184 -0.2401087
-0.14514561 0.1760278 -0.24010889
-0.14514233 0.17610586 -0.24011302
-0.14513902 0.17618196 -0.2401192
-0.14513585 0.17625996 -0.24012133
-0.14513323 0.17633575 -0.24011354
-0.14513052 0.1764116 -0.24010774
-0.14512759 0.17648752 -0.24010593
-0.14512481 0.17656535 -0.24010009
-0.14512199 0.17664123 -0.24009627
-0.14511918 0.1767171 -0.24009249
-0.14511608 0.17679311 -0.24009466
-0.1451128 0.17687117 -0.2400988
-0.14511007 0.176947 -0.24009299
-0.14510766 0.17702271 -0.24008121
-0.14510512 0.17709845 -0.2400714
-0.14510213 0.17717442 -0.24007159
-0.14509875 0.17725252 -0.24007773
-0.14509535 0.17732866 -0.2400859
-0.14509273 0.17740445 -0.24007811
-0.14509021 0.17748019 -0.24006832
-0.14508693 0.17755824 -0.24007246
-0.14508373 0.1776343 -0.24007663
-0.14508094 0.17771214 -0.24007078
-0.14507802 0.17778806 -0.24006897
-0.14507492 0.17786407 -0.24007115
-0.14506972 0.17794496 -0.2401132
-0.14506009 0.17803176 -0.240243
-0.14505285 0.17811356 -0.24032697
-0.14650378 0.14544861 -0.2411375
-0.14650077 0.14552458 -0.24113768
-0.14649796 0.14560241 -0.24113184
-0.14649555 0.14568007 -0.241118
-0.14649297 0.14575976 -0.24110611
-0.14649016 0.14583564 -0.24110231
-0.14648676 0.14591178 -0.24111047
-0.14648347 0.14598788 -0.24111667
-0.14648077 0.14606567 -0.24110882
-0.14647797 0.14614351 -0.24110296
-0.14647506 0.14621943 -0.24110116
-0.14647195 0.14629544 -0.24110335
-0.14646886 0.14637341 -0.24110349
-0.14646617 0.14645119 -0.24109563
-0.14646347 0.14652899 -0.24108779
-0.14646086 0.14660673 -0.24107796
-0.14645785 0.14668269 -0.24107814
-0.14645465 0.14675875 -0.24108231
-0.14645195 0.14683653 -0.24107447
-0.14644906 0.14691441 -0.24107063
-0.14644596 0.14699042 -0.2410728
-0.14644335 0.14706817 -0.24106297
-0.14644034 0.14714414 -0.24106315
-0.14643714 0.14722019 -0.24106734
-0.14643444 0.14729798 -0.24105948
-0.14643124 0.14737403 -0.24106367
-0.14642794 0.14745013 -0.24106985
-0.14642525 0.14752792 -0.24106202
-0.14642295 0.14760749 -0.24104413
-0.14642015 0.14768532 -0.24103829
-0.14641725 0.14776124 -0.24103647
-0.14641404 0.1478373 -0.24104065
-0.14641115 0.14791517 -0.2410368
-0.14640884 0.14799279 -0.24102096
-0.14640565 0.1480708 -0.24102311
-0.14640224 0.14814499 -0.24103333
-0.14639884 0.14822114 -0.24104151
-0.14639615 0.14829892 -0.24103367
-0.14639364 0.14837661 -0.24102183
-0.14639065 0.14845453 -0.24101996
-0.14638743 0.14852864 -0.24102619
-0.14638454 0.14860651 -0.24102235
-0.14638253 0.14868595 -0.24099848
-0.14637943 0.14876196 -0.24100065
-0.14637592 0.14883815 -0.24101084
-0.14637272 0.1489142 -0.24101502
-0.14636974 0.14899212 -0.24101317
-0.14636631 0.14906631 -0.24102338
-0.14636314 0.14914432 -0.24102552
-0.14636064 0.14922202 -0.24101368
-0.14635822 0.14929968 -0.24099985
-0.14635514 0.14937764 -0.24099998
-0.14635232 0.14945352 -0.24099618
-0.14634962 0.1495313 -0.24098833
-0.14634635 0.14960936 -0.24099247
-0.14634314 0.14968541 -0.24099666
-0.14634044 0.1497632 -0.24098882
-0.14633784 0.14984095 -0.24097896
-0.14633493 0.14991687 -0.24097715
-0.14633185 0.14999484 -0.24097729
-0.14632884 0.1500708 -0.2409775
-0.14632592 0.15014672 -0.24097568
-0.14632294 0.15022464 -0.24097383
-0.14632002 0.15030056 -0.24097201
-0.14631693 0.15037853 -0.24097216
-0.14631402 0.15045446 -0.24097034
-0.14631133 0.15053225 -0.24096251
-0.14630872 0.15060998 -0.24095266
-0.14630583 0.15068787 -0.24094881
-0.14630271 0.15076387 -0.240951
-0.14629962 0.1508399 -0.24095318
-0.14629662 0.15091781 -0.24095133
-0.14629342 0.15099387 -0.2409555
-0.14629044 0.15107179 -0.24095365
-0.14628783 0.15114953 -0.24094382
-0.14628492 0.15122545 -0.240942
-0.14628203 0.15130332 -0.24093816
-0.14627934 0.15138112 -0.2409303
-0.14627603 0.15145722 -0.24093649
-0.14627282 0.15153328 -0.24094066
-0.14627013 0.15161106 -0.24093282
-0.14626743 0.15168884 -0.24092498
-0.14626461 0.15176472 -0.24092117
-0.14626172 0.15184261 -0.24091733
-0.14625902 0.15192039 -0.24090946
-0.14625601 0.15199636 -0.24090967
-0.14625293 0.15207432 -0.2409098
-0.14624992 0.15215029 -0.24090999
-0.14624712 0.15222812 -0.24090415
-0.14624411 0.15230408 -0.24090433
-0.1462409 0.15238014 -0.24090852
-0.14623792 0.15245807 -0.24090666
-0.14623532 0.15253581 -0.24089682
-0.1462325 0.15261169 -0.24089301
-0.14622961 0.15268956 -0.24088916
-0.14622691 0.15276736 -0.24088132
-0.1462238 0.15284336 -0.2408835
-0.14622059 0.15291941 -0.24088767
-0.14621761 0.15299734 -0.24088582
-0.14621481 0.15307517 -0.24087998
-0.14621152 0.15315127 -0.24088615
-0.14620821 0.15322737 -0.24089235
-0.14620581 0.15330502 -0.24087849
-0.14620331 0.15338273 -0.24086666
-0.14620019 0.15345874 -0.24086885
-0.14619711 0.15353671 -0.24086899
-0.14619422 0.15361458 -0.24086514
-0.14619151 0.15369041 -0.24085933
-0.14618871 0.15376824 -0.24085349
-0.1461857 0.15384421 -0.24085367
-0.14618261 0.15392217 -0.24085382
-0.1461796 0.15399814 -0.240854
-0.14617671 0.15407602 -0.24085015
-0.14617409 0.15415181 -0.24084234
-0.1461709 0.15422982 -0.24084449
-0.14616819 0.15430565 -0.24083868
-0.14616539 0.15438348 -0.24083284
-0.14616241 0.15446141 -0.24083099
-0.14615901 0.15453756 -0.24083917
-0.1461558 0.1546136 -0.24084336
-0.1461532 0.15469135 -0.24083349
-0.14615059 0.15476909 -0.24082366
-0.14614788 0.15484492 -0.24081786
-0.14614508 0.15492277 -0.240812
-0.14614218 0.15500064 -0.24080816
-0.14613937 0.15507652 -0.24080434
-0.14613648 0.15515439 -0.2408005
-0.14613327 0.15523045 -0.24080469
-0.14612979 0.15530664 -0.24081486
-0.14612658 0.15538269 -0.24081904
-0.14612357 0.15545866 -0.24081923
-0.14612107 0.15553635 -0.24080738
-0.14611818 0.15561423 -0.24080354
-0.14611506 0.15569024 -0.24080572
-0.14611237 0.15576804 -0.24079788
-0.14610997 0.15584569 -0.24078405
-0.14610685 0.1559217 -0.24078622
-0.14610356 0.1559978 -0.24079241
-0.14610074 0.15607367 -0.24078861
-0.14609756 0.15615168 -0.24079075
-0.14609465 0.1562276 -0.24078894
-0.14609185 0.15630545 -0.2407831
-0.14608905 0.15638328 -0.24077722
-0.14608604 0.15645924 -0.24077742
-0.14608264 0.15653539 -0.2407856
-0.14607985 0.15661322 -0.24077976
-0.14607693 0.15668914 -0.24077794
-0.14607385 0.1567671 -0.24077809
-0.14607114 0.15684293 -0.24077228
-0.14606825 0.15692082 -0.24076843
-0.14606524 0.15699679 -0.24076861
-0.14606205 0.15707479 -0.24077076
-0.14605895 0.1571508 -0.24077295
-0.14605603 0.15722673 -0.24077114
-0.14605293 0.15730274 -0.24077332
-0.14605004 0.15738061 -0.24076948
-0.14604773 0.15745822 -0.24075364
-0.14604503 0.15753601 -0.24074578
-0.14604172 0.15761212 -0.24075198
-0.14603871 0.15768808 -0.24075216
-0.14603612 0.15776582 -0.24074233
-0.14603312 0.15784374 -0.24074046
-0.14602999 0.1579178 -0.2407447
-0.14602719 0.15799563 -0.24073884
-0.14602469 0.15807334 -0.24072701
-0.14602198 0.15814917 -0.2407212
-0.14601909 0.15822704 -0.24071735
-0.14601627 0.15830292 -0.24071354
-0.14601326 0.15837888 -0.24071373
-0.14601007 0.15845689 -0.24071586
-0.14600706 0.15853286 -0.24071607
-0.14600417 0.15861075 -0.24071221
-0.14600126 0.15868667 -0.24071041
-0.14599845 0.15876254 -0.24070659
-0.14599575 0.15884033 -0.24069875
-0.14599293 0.15891621 -0.24069494
-0.14598994 0.15899414 -0.24069309
-0.14598665 0.15907022 -0.24069928
-0.14598344 0.15914628 -0.24070346
-0.14598055 0.15922417 -0.2406996
-0.14597802 0.15929991 -0.24068981
-0.14597513 0.15937778 -0.24068594
-0.14597222 0.1594537 -0.24068415
-0.14596942 0.15953153 -0.24067831
-0.1459669 0.15960729 -0.24066851
-0.14596401 0.15968516 -0.24066465
-0.1459607 0.15976126 -0.24067083
-0.14595711 0.1598375 -0.24068299
-0.1459541 0.15991347 -0.2406832
-0.1459513 0.15999129 -0.24067734
-0.14594878 0.16006704 -0.24066755
-0.14594609 0.16014484 -0.2406597
-0.14594299 0.16022083 -0.24066189
-0.14593998 0.1602968 -0.24066207
-0.14593726 0.1603746 -0.24065423
-0.14593446 0.16045047 -0.24065042
-0.14593147 0.16052839 -0.24064857
-0.14592855 0.16060431 -0.24064675
-0.14592545 0.16068032 -0.24064896
-0.14592256 0.1607582 -0.2406451
-0.14591974 0.16083409 -0.2406413
-0.14591636 0.16091217 -0.24064742
-0.14591306 0.16098827 -0.2406536
-0.14591034 0.16106412 -0.24064779
-0.14590755 0.16114195 -0.24064195
-0.14590482 0.16121778 -0.24063614
-0.14590192 0.1612937 -0.24063435
-0.14589903 0.16137157 -0.24063049
-0.14589602 0.16144754 -0.24063069
-0.1458931 0.16152346 -0.24062887
-0.14589059 0.16160117 -0.24061704
-0.14588797 0.16167696 -0.24060923
-0.14588489 0.16175492 -0.24060938
-0.14588168 0.16183098 -0.24061355
-0.14587887 0.16190685 -0.24060975
-0.14587624 0.16198266 -0.24060196
-0.14587326 0.16206057 -0.24060011
-0.14587015 0.16213658 -0.24060228
-0.14586733 0.16221246 -0.24059847
-0.14586444 0.16229033 -0.24059463
-0.14586154 0.16236626 -0.24059282
-0.14585833 0.16244231 -0.24059701
-0.14585513 0.16251837 -0.24060118
-0.14585204 0.16259633 -0.24060133
-0.14584912 0.16267225 -0.24059951
-0.1458465 0.16274804 -0.24059172
-0.14584371 0.16282588 -0.24058588
-0.14584079 0.1629018 -0.24058408
-0.14583769 0.16297781 -0.24058625
-0.1458347 0.16305573 -0.2405844
-0.14583227 0.16313143 -0.2405726
-0.14582938 0.16320932 -0.24056876
-0.14582609 0.1632854 -0.24057493
-0.14582346 0.16336121 -0.24056713
-0.14582066 0.16343904 -0.24056128
-0.14581765 0.163515 -0.24056147
-0.14581455 0.16359101 -0.24056366
-0.14581135 0.16366707 -0.24056783
-0.14580846 0.16374494 -0.24056399
-0.14580612 0.16382059 -0.24055019
-0.14580391 0.16389817 -0.24053237
-0.1458011 0.16397405 -0.24052855
-0.1457976 0.16405024 -0.24053875
-0.1457942 0.16412638 -0.24054691
-0.14579102 0.16420439 -0.24054906
-0.1457884 0.16428018 -0.24054125
-0.14578578 0.16435596 -0.24053346
-0.14578289 0.16443385 -0.2405296
-0.14577997 0.16450977 -0.24052781
-0.14577676 0.16458583 -0.24053198
-0.14577395 0.16466171 -0.24052817
-0.14577125 0.16473949 -0.24052033
-0.14576843 0.16481537 -0.24051653
-0.14576542 0.16489133 -0.24051672
-0.14576234 0.1649693 -0.24051686
-0.14575924 0.16504531 -0.24051905
-0.14575604 0.16512136 -0.24052322
-0.14575283 0.16519742 -0.24052741
-0.14575011 0.16527325 -0.24052161
-0.14574751 0.165351 -0.24051176
-0.14574479 0.16542684 -0.24050596
-0.14574188 0.16550276 -0.24050415
-0.1457388 0.16558072 -0.24050429
-0.14573587 0.16565664 -0.24050248
-0.14573325 0.16573243 -0.2404947
-0.14573044 0.16580832 -0.24049088
-0.14572755 0.16588619 -0.24048704
-0.14572473 0.16596207 -0.24048322
-0.14572144 0.16603817 -0.24048941
-0.14571854 0.16611604 -0.24048555
-0.14571592 0.16619183 -0.24047776
-0.145713 0.16626775 -0.24047595
-0.14571029 0.1663436 -0.24047014
-0.14570759 0.16642138 -0.2404623
-0.14570487 0.16649722 -0.24045649
-0.14570177 0.16657323 -0.24045868
-0.14569849 0.16665128 -0.24046282
-0.14569537 0.16672729 -0.240465
-0.14569286 0.16680303 -0.24045521
-0.14569055 0.16688065 -0.24043939
-0.14568754 0.16695662 -0.24043956
-0.14568433 0.16703267 -0.24044374
-0.14568141 0.1671086 -0.24044195
-0.14567851 0.16718452 -0.24044013
-0.14567581 0.1672623 -0.24043229
-0.14567347 0.16733797 -0.24041849
-0.14567065 0.16741385 -0.24041468
-0.14566736 0.16748995 -0.24042088
-0.14566454 0.16756582 -0.24041706
-0.14566155 0.16764374 -0.24041522
-0.14565845 0.16771975 -0.24041739
-0.14565533 0.16779576 -0.24041958
-0.14565232 0.16787173 -0.24041978
-0.14564934 0.16794965 -0.24041793
-0.14564691 0.16802536 -0.24040613
-0.14564449 0.16810106 -0.24039432
-0.14564228 0.16817863 -0.2403765
-0.14563955 0.16825446 -0.24037069
-0.14563665 0.16833039 -0.24036889
-0.14563373 0.16840631 -0.24036708
-0.14563033 0.16848245 -0.24037525
-0.14562696 0.16856055 -0.24038139
-0.14562404 0.16863647 -0.24037959
-0.14562161 0.16871217 -0.2403678
-0.14561921 0.16878983 -0.24035396
-0.14561629 0.16886576 -0.24035215
-0.14561309 0.16894181 -0.24035633
-0.14561144 0.16901715 -0.24032857
-0.14561018 0.16909233 -0.24029279
-0.14560865 0.1691696 -0.24026099
-0.14560708 0.1692449 -0.24023122
-0.14560379 0.169321 -0.2402374
-0.14559971 0.16939746 -0.24025956
-0.14559554 0.16947395 -0.24028371
-0.14559148 0.16955236 -0.24030383
-0.14558867 0.16962823 -0.24030003
-0.14558615 0.16970398 -0.24029022
-0.14558412 0.16978146 -0.24026839
-0.14558266 0.16985673 -0.24023664
-0.14557898 0.16993299 -0.2402508
-0.14557451 0.17000961 -0.24028096
-0.14557162 0.1700875 -0.2402771
-0.1455691 0.17016324 -0.24026731
-0.14556551 0.17023948 -0.24027947
-0.14556181 0.17031574 -0.24029365
-0.14555871 0.17039175 -0.24029583
-0.14555494 0.17047003 -0.24030995
-0.14555155 0.17054617 -0.24031812
-0.14554796 0.17062239 -0.24033031
-0.14554398 0.17069881 -0.24035046
-0.14554116 0.17077468 -0.24034667
-0.14553855 0.17085242 -0.24033681
-0.14553554 0.17092839 -0.240337
-0.14553253 0.17100435 -0.24033719
-0.14552994 0.17108211 -0.24032736
-0.14552732 0.1711579 -0.24031955
-0.14552431 0.17123386 -0.24031973
-0.14552119 0.17130987 -0.24032193
-0.14551809 0.17138588 -0.24032411
-0.14551529 0.17146371 -0.24031827
-0.14551306 0.17153934 -0.24030247
-0.14551082 0.17161494 -0.24028669
-0.1455085 0.17169061 -0.24027289
-0.14550568 0.17176649 -0.24026909
-0.14550202 0.17184472 -0.24028122
-0.14549862 0.17192085 -0.24028939
-0.1454955 0.17199686 -0.24029158
-0.1454926 0.17207278 -0.24028978
-0.14548978 0.17214867 -0.24028596
-0.14548689 0.17222655 -0.24028212
-0.14548397 0.17230247 -0.2402803
-0.14548087 0.17237848 -0.24028251
-0.14547788 0.1724564 -0.24028064
-0.14547516 0.17253223 -0.24027485
-0.14547244 0.17260806 -0.24026904
-0.14546981 0.17268386 -0.24026124
-0.14546673 0.17276183 -0.24026138
-0.14546363 0.17283784 -0.24026357
-0.14546043 0.17291389 -0.24026775
-0.14545693 0.17299007 -0.24027792
-0.14545411 0.17306596 -0.24027413
-0.14545219 0.17314339 -0.24025029
-0.14544928 0.17321931 -0.2402485
-0.14544578 0.1732955 -0.24025866
-0.14544261 0.17337351 -0.24026081
-0.14543949 0.17344952 -0.24026299
-0.14543648 0.17352548 -0.24026318
-0.14543405 0.1736012 -0.24025139
-0.14543134 0.17367703 -0.24024558
-0.14542806 0.17375508 -0.24024972
-0.14542544 0.17383087 -0.24024191
-0.14542282 0.17390665 -0.24023412
-0.1454201 0.1739825 -0.24022833
-0.14541699 0.1740585 -0.2402305
-0.14541401 0.17413643 -0.24022865
-0.14541109 0.17421235 -0.24022684
-0.14540808 0.17428832 -0.24022704
-0.14540489 0.17436633 -0.24022917
-0.14540179 0.17444234 -0.24023136
-0.14539897 0.17451821 -0.24022755
-0.14539646 0.17459396 -0.24021775
-0.14539346 0.17467187 -0.2402159
-0.14539064 0.17474777 -0.2402121
-0.14538774 0.17482369 -0.24021029
-0.14538501 0.17489952 -0.24020448
-0.14538239 0.17497531 -0.24019669
-0.1453796 0.17505313 -0.24019083
-0.14537659 0.1751291 -0.24019103
-0.14537358 0.17520507 -0.24019122
-0.1453703 0.17528312 -0.24019536
-0.14536719 0.17535913 -0.24019754
-0.14536428 0.17543505 -0.24019574
-0.14536175 0.17551081 -0.24018595
-0.14535865 0.17558682 -0.24018812
-0.14535537 0.17566487 -0.24019226
-0.14535256 0.17574075 -0.24018845
-0.14534937 0.17581876 -0.2401906
-0.14534655 0.17589463 -0.24018678
-0.14534412 0.17597033 -0.24017499
-0.14534131 0.17604622 -0.24017119
-0.14533859 0.17612205 -0.24016538
-0.14533551 0.17620002 -0.24016553
-0.14533259 0.17627594 -0.24016371
-0.14533007 0.17635168 -0.24015394
-0.14532706 0.17642765 -0.24015412
-0.14532368 0.17650574 -0.24016026
-0.14532058 0.17658176 -0.24016243
-0.14531766 0.17665768 -0.24016063
-0.14531456 0.17673369 -0.24016282
-0.14531156 0.17681161 -0.24016097
-0.14530894 0.17688741 -0.24015316
-0.14530642 0.17696315 -0.24014336
-0.1453035 0.17703907 -0.24014156
-0.14530052 0.17711699 -0.24013969
-0.14529809 0.1771927 -0.24012791
-0.14529517 0.17726862 -0.2401261
-0.14529209 0.17734659 -0.24012625
-0.14528908 0.17742255 -0.24012643
-0.14528626 0.17749843 -0.24012263
-0.14528336 0.17757435 -0.24012083
-0.14528017 0.17765236 -0.24012296
-0.14527726 0.17772828 -0.24012116
-0.14527434 0.1778042 -0.24011934
-0.1452698 0.17788282 -0.24014944
-0.14526327 0.17796628 -0.24021739
-0.14525737 0.17804551 -0.24027544
-0.14672157 0.1454602 -0.24119052
-0.14671865 0.14553612 -0.2411887
-0.14671555 0.14561214 -0.2411909
-0.14671265 0.14569002 -0.24118705
-0.14671014 0.14576772 -0.2411752
-0.14670706 0.14584568 -0.24117535
-0.14670417 0.14592355 -0.24117151
-0.14670116 0.14599952 -0.24117169
-0.14669795 0.14607558 -0.24117586
-0.14669503 0.1461515 -0.24117406
-0.14669204 0.14622942 -0.24117219
-0.14668985 0.14630894 -0.24115233
-0.14668745 0.14638661 -0.24113849
-0.14668393 0.14646083 -0.24115071
-0.14668055 0.14653893 -0.24115685
-0.14667793 0.14661473 -0.24114904
-0.14667553 0.14669433 -0.24113315
-0.14667264 0.14677221 -0.24112931
-0.14666963 0.14684817 -0.24112949
-0.14666611 0.14692241 -0.24114171
-0.14666271 0.14699855 -0.2411499
-0.14665972 0.14707647 -0.24114805
-0.14665732 0.14715412 -0.2411342
-0.14665411 0.14723018 -0.2411384
-0.14665091 0.14730623 -0.24114257
-0.14664902 0.14738758 -0.24111466
-0.14664683 0.14746711 -0.24109478
-0.1466428 0.1475396 -0.24111903
-0.14663988 0.14761552 -0.24111724
-0.1466368 0.14769349 -0.24111736
-0.1466336 0.14776954 -0.24112155
-0.146631 0.14784729 -0.24111171
-0.14662829 0.14792508 -0.24110386
-0.14662538 0.148001 -0.24110205
-0.14662211 0.14807905 -0.24110618
-0.14661908 0.14815502 -0.24110638
-0.14661638 0.14823282 -0.24109854
-0.14661349 0.14831069 -0.24109468
-0.14661038 0.1483867 -0.24109687
-0.14660749 0.14846458 -0.24109301
-0.14660427 0.14853868 -0.24109924
-0.14660138 0.14861655 -0.24109539
-0.14659908 0.14869612 -0.24107751
-0.14659648 0.14877386 -0.24106768
-0.14659318 0.14884996 -0.24107385
-0.14658988 0.14892606 -0.24108003
-0.14658698 0.14900394 -0.24107617
-0.14658417 0.14907981 -0.24107237
-0.14658117 0.14915773 -0.24107051
-0.14657797 0.14923379 -0.24107471
-0.14657496 0.14930975 -0.24107489
-0.14657207 0.14938763 -0.24107105
-0.14656937 0.14946543 -0.24106318
-0.14656645 0.14954135 -0.24106139
-0.14656326 0.14961936 -0.24106352
-0.14656086 0.14969701 -0.24104968
-0.14655846 0.14977662 -0.24103381
-0.14655505 0.14985082 -0.24104401
-0.14655165 0.14992696 -0.24105221
-0.14654876 0.15000483 -0.24104835
-0.14654596 0.15008266 -0.24104249
-0.14654316 0.15016049 -0.24103665
-0.14653994 0.15023459 -0.24104288
-0.14653704 0.15031247 -0.24103904
-0.14653434 0.15039027 -0.24103117
-0.14653155 0.1504681 -0.24102533
-0.14652894 0.15054584 -0.24101549
-0.14652614 0.15062368 -0.24100964
-0.14652304 0.15069968 -0.24101183
-0.14651954 0.15077586 -0.24102199
-0.14651603 0.1508501 -0.24103421
-0.14651284 0.15092811 -0.24103636
-0.14651033 0.1510058 -0.24102452
-0.14650755 0.15108365 -0.24101867
-0.14650443 0.15115964 -0.24102086
-0.14650142 0.15123563 -0.24102104
-0.14649874 0.15131536 -0.24101116
-0.14649592 0.15139124 -0.24100736
-0.14649293 0.15146916 -0.2410055
-0.14649014 0.15154698 -0.24099964
-0.14648713 0.15162297 -0.24099983
-0.14648391 0.15169901 -0.24100402
-0.14648071 0.15177506 -0.24100819
-0.14647782 0.15185295 -0.24100435
-0.14647542 0.1519306 -0.24099052
-0.14647281 0.15200835 -0.24098067
-0.14646961 0.15208441 -0.24098486
-0.14646642 0.1521624 -0.240987
-0.1464636 0.15223829 -0.24098319
-0.1464608 0.15231612 -0.24097735
-0.14645801 0.15239395 -0.24097149
-0.14645509 0.15246987 -0.24096969
-0.14645198 0.15254588 -0.24097186
-0.146449 0.1526238 -0.24097002
-0.1464465 0.15270151 -0.24095817
-0.1464435 0.15277943 -0.24095631
-0.1464403 0.15285549 -0.24096051
-0.14643729 0.15293145 -0.24096069
-0.14643468 0.15300919 -0.24095085
-0.14643207 0.15308695 -0.240941
-0.14642909 0.15316486 -0.24093914
-0.14642589 0.15324092 -0.24094333
-0.14642277 0.15331693 -0.24094552
-0.14641976 0.1533929 -0.2409457
-0.14641668 0.15347086 -0.24094585
-0.14641398 0.15354864 -0.24093801
-0.14641118 0.15362649 -0.24093215
-0.14640848 0.15370427 -0.2409243
-0.14640576 0.1537801 -0.2409185
-0.14640296 0.15385793 -0.24091265
-0.14640017 0.15393578 -0.2409068
-0.14639737 0.1540136 -0.24090096
-0.14639416 0.15408966 -0.24090514
-0.14639096 0.15416571 -0.24090932
-0.14638807 0.15424359 -0.24090546
-0.14638464 0.15431777 -0.24091569
-0.14638105 0.154394 -0.24092788
-0.14637825 0.15447183 -0.24092202
-0.14637585 0.15454949 -0.24090818
-0.14637335 0.15462719 -0.24089634
-0.14637044 0.15470508 -0.24089248
-0.14636734 0.15478109 -0.24089468
-0.14636433 0.15485705 -0.24089485
-0.14636153 0.15493488 -0.24088901
-0.14635864 0.15501276 -0.24088515
-0.14635563 0.15508872 -0.24088535
-0.14635254 0.15516669 -0.2408855
-0.14634952 0.15524265 -0.24088567
-0.14634661 0.15531857 -0.24088389
-0.14634362 0.15539651 -0.24088202
-0.14634091 0.15547234 -0.24087623
-0.1463384 0.15555003 -0.24086438
-0.1463355 0.15562791 -0.24086052
-0.1463324 0.15570392 -0.24086271
-0.14632919 0.15577997 -0.2408669
-0.1463262 0.15585789 -0.24086504
-0.14632328 0.15593381 -0.24086323
-0.14632019 0.15601179 -0.24086338
-0.14631748 0.15608762 -0.24085757
-0.14631438 0.15616558 -0.24085772
-0.14631128 0.1562416 -0.2408599
-0.14630827 0.15631756 -0.24086009
-0.14630547 0.15639539 -0.24085423
-0.14630276 0.15647122 -0.24084844
-0.14630005 0.15654902 -0.24084058
-0.14629696 0.15662698 -0.24084073
-0.14629376 0.15670304 -0.24084491
-0.14629075 0.15677901 -0.24084511
-0.14628775 0.15685692 -0.24084325
-0.14628497 0.15693475 -0.2408374
-0.14628215 0.15701063 -0.24083361
-0.14627916 0.15708855 -0.24083175
-0.14627673 0.15716426 -0.24081995
-0.14627354 0.15724227 -0.24082208
-0.14627033 0.15731832 -0.24082628
-0.14626752 0.1573942 -0.24082246
-0.14626502 0.1574719 -0.24081063
-0.14626251 0.1575496 -0.24079879
-0.14625971 0.15762743 -0.24079293
-0.14625612 0.15770367 -0.24080512
-0.14625272 0.15777981 -0.24081329
-0.1462498 0.15785573 -0.24081147
-0.146247 0.15793356 -0.24080563
-0.1462436 0.15800971 -0.24081381
-0.14624079 0.15808558 -0.24081001
-0.146238 0.15816341 -0.24080415
-0.14623499 0.15823938 -0.24080434
-0.14623228 0.15831716 -0.24079649
-0.14622965 0.15839297 -0.2407887
-0.14622687 0.15847079 -0.24078286
-0.14622414 0.15854663 -0.24077705
-0.14622115 0.15862454 -0.2407752
-0.14621824 0.15870047 -0.24077338
-0.14621523 0.15877643 -0.24077357
-0.14621215 0.15885441 -0.24077371
-0.14620923 0.15893033 -0.2407719
-0.14620633 0.1590082 -0.24076806
-0.14620332 0.15908417 -0.24076825
-0.14620031 0.15916014 -0.24076843
-0.14619721 0.1592381 -0.24076858
-0.14619431 0.15931402 -0.24076676
-0.14619151 0.15939185 -0.24076092
-0.1461885 0.15946782 -0.2407611
-0.1461852 0.15954392 -0.24076729
-0.14618221 0.15962183 -0.24076542
-0.14617968 0.15969759 -0.24075565
-0.14617689 0.15977542 -0.24074979
-0.14617407 0.1598513 -0.24074599
-0.14617117 0.15992917 -0.24074213
-0.14616787 0.16000527 -0.24074832
-0.14616486 0.16008124 -0.24074849
-0.14616215 0.16015904 -0.24074066
-0.14615934 0.16023491 -0.24073684
-0.14615694 0.16031256 -0.24072301
-0.14615433 0.16039032 -0.24071318
-0.14615113 0.16046636 -0.24071735
-0.14614782 0.16054246 -0.24072354
-0.14614493 0.16062033 -0.24071968
-0.14614202 0.16069627 -0.24071787
-0.14613932 0.16077405 -0.24071002
-0.14613669 0.16084984 -0.24070223
-0.14613371 0.16092776 -0.24070036
-0.1461307 0.16100372 -0.24070056
-0.14612769 0.16107969 -0.24070075
-0.14612457 0.1611557 -0.24070294
-0.14612137 0.16123176 -0.24070713
-0.14611837 0.16130967 -0.24070527
-0.14611585 0.16138543 -0.24069548
-0.14611325 0.16146317 -0.24068563
-0.14611043 0.16153905 -0.24068183
-0.14610712 0.16161515 -0.240688
-0.14610383 0.16169125 -0.24069418
-0.14610055 0.1617693 -0.24069832
-0.14609782 0.16184513 -0.24069253
-0.14609532 0.16192284 -0.24068068
-0.14609279 0.16199858 -0.24067089
-0.14608969 0.1620746 -0.24067307
-0.14608629 0.16215074 -0.24068125
-0.14608349 0.16222857 -0.24067539
-0.14608087 0.16230436 -0.2406676
-0.14607778 0.16238232 -0.24066773
-0.14607447 0.16245842 -0.24067393
-0.14607166 0.1625343 -0.24067011
-0.14606895 0.16261013 -0.24066432
-0.14606585 0.16268811 -0.24066445
-0.14606284 0.16276407 -0.24066465
-0.14605975 0.16284204 -0.24066478
-0.14605713 0.16291782 -0.240657
-0.1460548 0.16299348 -0.2406432
-0.14605181 0.16307141 -0.24064134
-0.14604861 0.16314745 -0.24064553
-0.14604551 0.16322543 -0.24064568
-0.1460426 0.16330135 -0.24064386
-0.14603949 0.16337736 -0.24064605
-0.14603677 0.16345319 -0.24064025
-0.14603446 0.1635308 -0.24062441
-0.14603166 0.16360864 -0.24061856
-0.14602874 0.16368456 -0.24061675
-0.14602593 0.16376044 -0.24061295
-0.14602295 0.16383836 -0.24061111
-0.14601964 0.16391446 -0.24061728
-0.14601652 0.16399047 -0.24061945
-0.146014 0.16406621 -0.24060966
-0.14601138 0.164142 -0.24060187
-0.1460083 0.16421996 -0.24060202
-0.14600518 0.16429597 -0.24060419
-0.14600217 0.16437194 -0.24060439
-0.14599906 0.16444795 -0.24060658
-0.14599608 0.16452588 -0.24060473
-0.14599355 0.16460162 -0.24059492
-0.14599085 0.16467941 -0.24058709
-0.14598773 0.16475542 -0.24058926
-0.14598472 0.16483139 -0.24058944
-0.14598191 0.16490726 -0.24058565
-0.14597882 0.16498522 -0.24058579
-0.14597631 0.16506098 -0.240576
-0.14597349 0.16513686 -0.24057218
-0.1459703 0.16521487 -0.24057433
-0.14596729 0.16529083 -0.24057451
-0.14596467 0.16536662 -0.24056672
-0.14596213 0.16544238 -0.24055693
-0.14595905 0.16552034 -0.24055706
-0.14595623 0.16559622 -0.24055326
-0.14595351 0.16567205 -0.24054745
-0.14595042 0.16575001 -0.2405476
-0.14594732 0.16582602 -0.24054977
-0.14594412 0.16590208 -0.24055398
-0.14594129 0.16597795 -0.24055016
-0.14593831 0.16605587 -0.24054831
-0.14593549 0.16613175 -0.2405445
-0.14593248 0.16620772 -0.24054469
-0.14592919 0.16628577 -0.24054883
-0.14592618 0.16636173 -0.24054903
-0.14592336 0.16643763 -0.24054521
-0.14592084 0.16651337 -0.24053541
-0.14591815 0.16659115 -0.24052757
-0.14591514 0.16666712 -0.24052776
-0.14591192 0.16674317 -0.24053195
-0.14590882 0.16681919 -0.24053413
-0.14590582 0.1668971 -0.24053228
-0.1459032 0.16697289 -0.24052447
