# .PCD v0.7 - Point Cloud Data file format
VERSION 0.7
FIELDS x y z
SIZE 4 4 4
TYPE F F F
COUNT 1 1 1
WIDTH 1341
HEIGHT 1
VIEWPOINT 0 0 0 1 0 0 0
POINTS 1341
DATA ascii
-0.080423117 0.10426079 -0.22729245
-0.080420546 0.10433263 -0.22728676
-0.080417983 0.10440446 -0.22728103
-0.08041551 0.10447627 -0.22727334
-0.080412827 0.1045462 -0.22727168
-0.080410279 0.10461999 -0.22726393
-0.080407903 0.10469174 -0.22725421
-0.080405146 0.10476366 -0.2272525
-0.080402263 0.10483368 -0.22725484
-0.08039929 0.10490374 -0.22725916
-0.080396816 0.10497554 -0.22725144
-0.080394655 0.10504916 -0.2272357
-0.080392577 0.10512077 -0.22722001
-0.080390126 0.10519452 -0.22721025
-0.080387734 0.10526432 -0.22720261
-0.080385476 0.10533798 -0.22718886
-0.0803831 0.10540973 -0.22717917
-0.080380537 0.10548157 -0.22717345
-0.080377653 0.10555159 -0.22717577
-0.080374703 0.1056236 -0.22717807
-0.080372229 0.1056954 -0.22717035
-0.080370151 0.10576702 -0.22715466
-0.080368184 0.10584055 -0.22713491
-0.080366023 0.10591416 -0.22711918
-0.08036346 0.105986 -0.22711347
-0.080360889 0.10605784 -0.22710776
-0.080358513 0.10612959 -0.22709806
-0.080356143 0.10620134 -0.22708836
-0.080353573 0.10627318 -0.22708265
-0.08035101 0.10634502 -0.22707695
-0.080348633 0.10641677 -0.22706725
-0.080346555 0.10648839 -0.22705156
-0.080344103 0.10656214 -0.22704181
-0.08034163 0.10663393 -0.22703409
-0.080339141 0.10670377 -0.22702843
-0.08033599 0.10677588 -0.2270347
-0.08033362 0.10684763 -0.227025
-0.080332041 0.10692099 -0.22699729
-0.08032947 0.10699283 -0.22699156
-0.080326691 0.10706279 -0.22699191
-0.080324434 0.10713646 -0.22697815
-0.080322161 0.10720816 -0.22696647
-0.080319278 0.10727818 -0.2269688
-0.080316402 0.1073482 -0.22697112
-0.080314338 0.10742177 -0.22695339
-0.080312259 0.10749339 -0.22693768
-0.080309279 0.10756345 -0.226942
-0.080306426 0.10763542 -0.2269423
-0.080304146 0.10770713 -0.22693059
-0.080302067 0.10777874 -0.2269149
-0.080300003 0.10785232 -0.22689715
-0.080297723 0.10792403 -0.22688547
-0.080295257 0.10799582 -0.22687775
-0.080293097 0.10806944 -0.22686201
-0.080291212 0.10814098 -0.22684233
-0.08028876 0.10821472 -0.22683257
-0.080286361 0.10828452 -0.22682491
-0.080284014 0.10835823 -0.22681317
-0.080281518 0.10842807 -0.2268075
-0.080278955 0.10849991 -0.22680181
-0.080276579 0.10857166 -0.2267921
-0.080273822 0.10864358 -0.22679038
-0.080271229 0.10871346 -0.22678672
-0.080268957 0.10878517 -0.22677502
-0.08026658 0.10885692 -0.2267653
-0.080263719 0.1089289 -0.2267656
-0.08026094 0.10899886 -0.22676593
-0.080258667 0.10907058 -0.22675423
-0.08025641 0.10914424 -0.22674049
-0.080254227 0.1092159 -0.2267268
-0.080251858 0.10928765 -0.22671708
-0.080249362 0.10935749 -0.22671142
-0.080246896 0.10942928 -0.22670373
-0.080244325 0.10950112 -0.22669801
-0.080241352 0.10957119 -0.22670233
-0.080237873 0.10963951 -0.22671869
-0.080234408 0.10970979 -0.226733
-0.080231242 0.10977994 -0.22674133
-0.080228746 0.10984978 -0.22673567
-0.080226377 0.10992153 -0.22672597
-0.080223903 0.10999333 -0.22671825
-0.08022134 0.11006516 -0.22671255
-0.080218673 0.11013705 -0.22670884
-0.080215797 0.11020707 -0.22671117
-0.080212817 0.11027712 -0.22671549
-0.080209941 0.11034714 -0.22671783
-0.080206573 0.11041737 -0.22673014
-0.080202803 0.11048584 -0.22675249
-0.08019942 0.11055411 -0.22676685
-0.080196559 0.11062609 -0.22676712
-0.08019349 0.11069619 -0.22677344
-0.080190003 0.11076452 -0.2267898
-0.080186643 0.11083475 -0.22680211
-0.08018367 0.11090481 -0.22680643
-0.080180302 0.11097505 -0.22681876
-0.080176242 0.11104363 -0.2268471
-0.080172256 0.11111023 -0.22687548
-0.080168091 0.11117886 -0.22690582
-0.080163546 0.11124767 -0.22694415
-0.080159269 0.11131439 -0.22697853
-0.080155417 0.11138485 -0.22700082
-0.080151938 0.11145317 -0.22701718
-0.080148764 0.11152332 -0.22702549
-0.08014521 0.11159364 -0.22704181
-0.080141142 0.11166223 -0.22707014
-0.080137081 0.11173082 -0.22709848
-0.080133215 0.11179932 -0.22712283
-0.080128856 0.11186804 -0.22715715
-0.080124289 0.11193489 -0.22719753
-0.080120228 0.11200348 -0.22722587
-0.08011587 0.1120722 -0.2272602
-0.080111109 0.11213914 -0.22730455
-0.080105975 0.11220822 -0.22735485
-0.080100611 0.11227346 -0.22741325
-0.080095075 0.11234076 -0.2274736
-0.080089226 0.11240623 -0.22754198
-0.080082886 0.11247192 -0.22762033
-0.080075853 0.11253596 -0.22771472
-0.079252839 0.13355784 -0.22754753
-0.079257466 0.13361858 -0.22740021
-0.079260737 0.13367993 -0.22728086
-0.079262495 0.13374588 -0.22718936
-0.079264328 0.13380983 -0.22709791
-0.079265215 0.13387619 -0.22702441
-0.079265617 0.13394275 -0.22696087
-0.079265818 0.13400942 -0.22690134
-0.079265639 0.13407625 -0.22684979
-0.079264872 0.13414335 -0.22681022
-0.079263836 0.13421254 -0.2267746
-0.07926251 0.13428184 -0.22674498
-0.079261087 0.13435121 -0.22671735
-0.079259664 0.13442056 -0.22668973
-0.079258703 0.13448775 -0.22665414
-0.079257183 0.13455716 -0.22662851
-0.079254694 0.13462698 -0.22662285
-0.079252884 0.13469653 -0.22660321
-0.079251848 0.13476571 -0.2265676
-0.079250693 0.13483298 -0.22653602
-0.079248607 0.13490459 -0.22652033
-0.079246581 0.13497227 -0.22650674
-0.07924477 0.1350418 -0.22648709
-0.079242498 0.13511351 -0.22647539
-0.079239711 0.13518348 -0.22647572
-0.079237148 0.13525532 -0.22647001
-0.079235412 0.13532285 -0.22645041
-0.079233699 0.13539235 -0.22642878
-0.079231501 0.13546206 -0.22641712
-0.079229027 0.13553385 -0.22640942
-0.079226539 0.1356037 -0.22640377
-0.079223678 0.13567567 -0.22640404
-0.079221092 0.13574554 -0.22640038
-0.079218507 0.13581543 -0.22639671
-0.079215549 0.13588744 -0.226399
-0.079212785 0.13595937 -0.22639728
-0.079210103 0.1360293 -0.22639561
-0.079207316 0.13609928 -0.22639593
-0.079204269 0.13617133 -0.22640023
-0.079201311 0.13624334 -0.22640252
-0.079198532 0.13631332 -0.22640283
-0.079195477 0.13638538 -0.22640711
-0.079192698 0.13645536 -0.22640744
-0.079190321 0.13652711 -0.22639775
-0.07918793 0.1365969 -0.22639009
-0.079184487 0.13666913 -0.22640236
-0.079181336 0.13674124 -0.22640863
-0.079178847 0.13681108 -0.22640297
-0.079176068 0.13688105 -0.2264033
-0.079172723 0.13695323 -0.22641358
-0.079169571 0.13702534 -0.22641984
-0.079166621 0.13709736 -0.22642213
-0.079163544 0.13716745 -0.22642845
-0.079160124 0.13724165 -0.22643867
-0.07915695 0.13731179 -0.22644699
-0.079153709 0.13738394 -0.22645526
-0.079150751 0.13745596 -0.22645754
-0.079147778 0.13752602 -0.22646186
-0.079144262 0.13760024 -0.22647408
-0.079140991 0.13767044 -0.2264844
-0.079137571 0.13774462 -0.22649461
-0.079134502 0.13781473 -0.22650094
-0.079131544 0.13788675 -0.22650322
-0.079128489 0.13795879 -0.2265075
-0.079125151 0.13803099 -0.22651777
-0.079121903 0.13810314 -0.22652605
-0.079118751 0.13817523 -0.22653231
-0.079115778 0.1382453 -0.22653663
-0.079112723 0.13831736 -0.22654092
-0.079109378 0.13838954 -0.22655119
-0.079105958 0.13846374 -0.22656141
-0.07910271 0.13853589 -0.22656968
-0.07909935 0.13860612 -0.22658199
-0.07909622 0.13868017 -0.22658622
-0.07909324 0.13875023 -0.22659054
-0.079090096 0.13882233 -0.22659683
-0.079086944 0.13889444 -0.22660309
-0.079083502 0.13896668 -0.22661537
-0.079079792 0.13904099 -0.22663158
-0.079076543 0.13911314 -0.22663985
-0.07907369 0.1391851 -0.22664014
-0.079070807 0.13925512 -0.22664246
-0.079067752 0.13932718 -0.22664675
-0.079064608 0.13939929 -0.22665301
-0.079061456 0.13947138 -0.2266593
-0.079058401 0.13954344 -0.22666357
-0.079055354 0.13961551 -0.22666785
-0.079052374 0.13968556 -0.22667217
-0.079049341 0.13975957 -0.22667441
-0.079045907 0.13983181 -0.22668667
-0.079042949 0.13990383 -0.22668895
-0.079040259 0.13997374 -0.22668728
-0.079037115 0.14004585 -0.22669357
-0.079033673 0.14011809 -0.22670582
-0.079030715 0.14019009 -0.22670811
-0.079027958 0.14026202 -0.22670639
-0.079024903 0.14033408 -0.22671068
-0.079021655 0.14040624 -0.22671893
-0.079018116 0.14047851 -0.22673321
-0.079015069 0.14055057 -0.22673748
-0.079012305 0.1406225 -0.22673577
-0.07900925 0.14069456 -0.22674005
-0.079006299 0.14076656 -0.22674233
-0.079003438 0.14083853 -0.22674263
-0.079000562 0.14090855 -0.22674493
-0.078997701 0.14098053 -0.22674522
-0.078994937 0.14105245 -0.22674352
-0.07899189 0.14112452 -0.22674778
-0.078989126 0.14119643 -0.22674608
-0.078987196 0.14126405 -0.22673047
-0.078984529 0.14133593 -0.22672677
-0.078981288 0.14140809 -0.22673503
-0.078978233 0.14148015 -0.22673932
-0.078975178 0.14155221 -0.22674358
-0.078972034 0.1416243 -0.22674987
-0.078969173 0.14169627 -0.22675015
-0.078966312 0.14176825 -0.22675043
-0.078963555 0.14184017 -0.22674872
-0.078961059 0.14191002 -0.22674306
-0.078957915 0.14198211 -0.22674933
-0.078954682 0.14205621 -0.22675556
-0.078952 0.14212614 -0.22675389
-0.078948945 0.1421982 -0.22675818
-0.078946285 0.14227009 -0.22675446
-0.0789437 0.14233997 -0.22675079
-0.078940839 0.14241195 -0.22675109
-0.078937978 0.1424839 -0.22675136
-0.078935318 0.1425558 -0.22674766
-0.078932628 0.14262572 -0.22674599
-0.078929581 0.14269778 -0.22675025
-0.078926623 0.1427698 -0.22675255
-0.078924246 0.14284155 -0.22674283
-0.078922242 0.14291117 -0.22672719
-0.078919753 0.14298101 -0.22672153
-0.078916699 0.14305307 -0.22672582
-0.078913741 0.14312509 -0.22672808
-0.078911155 0.14319497 -0.22672443
-0.078908399 0.14326689 -0.22672272
-0.078905247 0.14333899 -0.22672899
-0.078902386 0.14341097 -0.22672927
-0.078899726 0.14348285 -0.22672556
-0.078896768 0.14355487 -0.22672784
-0.078893907 0.14362684 -0.22672813
-0.078891248 0.14369872 -0.22672442
-0.078888461 0.14376868 -0.22672474
-0.0788856 0.14384066 -0.22672503
-0.078882843 0.14391258 -0.22672331
-0.078880176 0.14398447 -0.2267196
-0.078877494 0.1440544 -0.22671795
-0.078874826 0.14412628 -0.22671422
-0.078872167 0.14419816 -0.22671051
-0.078869402 0.14427009 -0.2267088
-0.078866348 0.14434215 -0.22671308
-0.078863591 0.14441407 -0.22671136
-0.078861289 0.14448383 -0.22670171
-0.078858897 0.14455363 -0.22669405
-0.078855947 0.14462563 -0.22669634
-0.078853086 0.14469761 -0.22669661
-0.078850225 0.14476958 -0.22669691
-0.07884717 0.14484164 -0.22670117
-0.078844413 0.14491357 -0.22669947
-0.078841649 0.1449855 -0.22669774
-0.078838795 0.14505745 -0.22669804
-0.078836299 0.1451273 -0.22669238
-0.078833736 0.14519915 -0.22668666
-0.078830875 0.14527111 -0.22668695
-0.078827821 0.14534317 -0.22669123
-0.078824677 0.14541528 -0.2266975
-0.078821912 0.14548719 -0.22669578
-0.078819521 0.145557 -0.22668813
-0.078817047 0.1456288 -0.22668043
-0.078814462 0.14569868 -0.22667676
-0.078811891 0.14577052 -0.22667105
-0.078809321 0.14584236 -0.22666535
-0.078806274 0.14591441 -0.22666962
-0.078802928 0.1459866 -0.22667989
-0.078800067 0.14605857 -0.22668017
-0.078797504 0.14613041 -0.22667447
-0.078795105 0.14620021 -0.22666681
-0.078792542 0.14627205 -0.2266611
-0.078789681 0.14634402 -0.22666138
-0.078786828 0.14641598 -0.22666167
-0.078784063 0.14648792 -0.22665995
-0.078781202 0.14655988 -0.22666024
-0.078778252 0.1466319 -0.22666252
-0.078775197 0.14670396 -0.22666679
-0.078772433 0.14677589 -0.22666508
-0.078769967 0.14684768 -0.22665738
-0.078767665 0.14691743 -0.22664772
-0.078765273 0.14698723 -0.22664006
-0.07876271 0.14705907 -0.22663435
-0.078759655 0.14713113 -0.22663864
-0.078756429 0.14720523 -0.22664486
-0.078753941 0.14727506 -0.2266392
-0.078751445 0.1473449 -0.22663355
-0.078748606 0.14741883 -0.22663179
-0.078745559 0.14749089 -0.22663605
-0.078742504 0.14756295 -0.22664033
-0.078739278 0.14763705 -0.22664656
-0.078736126 0.14770915 -0.22665283
-0.078733467 0.14778103 -0.22664912
-0.078730702 0.14785296 -0.22664741
-0.078727745 0.14792497 -0.22664969
-0.078725085 0.14799686 -0.22664598
-0.078722686 0.14806665 -0.22663832
-0.078719929 0.14813858 -0.2266366
-0.078716874 0.14821064 -0.22664088
-0.078713842 0.14828464 -0.22664312
-0.078710981 0.14835662 -0.22664341
-0.078708492 0.14842646 -0.22663775
-0.078705728 0.14849839 -0.22663602
-0.078703068 0.14857027 -0.22663233
-0.078700207 0.14864224 -0.2266326
-0.078697249 0.14871426 -0.22663489
-0.078694202 0.14878632 -0.22663915
-0.07869117 0.14886034 -0.22664139
-0.078688405 0.14893225 -0.22663967
-0.078685746 0.14900413 -0.22663596
-0.078683443 0.14907388 -0.22662631
-0.080048084 0.10359226 -0.22735316
-0.080045715 0.10366401 -0.22734345
-0.080042735 0.10373408 -0.22734778
-0.080039568 0.10380422 -0.22735611
-0.080036998 0.10387606 -0.22735038
-0.080034725 0.10394777 -0.22733869
-0.080032371 0.10402147 -0.22732694
-0.080029704 0.10409336 -0.22732323
-0.080026828 0.10416338 -0.22732556
-0.080024257 0.10423522 -0.22731985
-0.08002229 0.10430874 -0.22730011
-0.080020033 0.1043824 -0.22728637
-0.080017567 0.1044542 -0.22727866
-0.080014877 0.10452413 -0.22727701
-0.080012217 0.10459601 -0.22727329
-0.080009647 0.10466785 -0.22726759
-0.080006771 0.10473786 -0.2272699
-0.080003813 0.10480988 -0.22727218
-0.080001421 0.10487968 -0.22726452
-0.079999067 0.10495338 -0.22725278
-0.07999669 0.10502513 -0.22724308
-0.079994239 0.10509888 -0.22723332
-0.079992063 0.10517055 -0.22721964
-0.079989783 0.10524225 -0.22720793
-0.079987116 0.10531414 -0.22720423
-0.07998465 0.10538593 -0.22719651
-0.079982489 0.10545955 -0.22718078
-0.079980306 0.10553122 -0.22716707
-0.079977743 0.10560305 -0.22716138
-0.079974979 0.10567497 -0.22715965
-0.079972103 0.105745 -0.22716199
-0.079969533 0.10581683 -0.22715628
-0.079967566 0.10589036 -0.22713654
-0.079965889 0.10596376 -0.2271108
-0.079963543 0.10603747 -0.22709906
-0.079960756 0.10610744 -0.22709939
-0.079958193 0.10617927 -0.2270937
-0.079955913 0.10625099 -0.22708198
-0.07995344 0.10632278 -0.2270743
-0.079951085 0.10639648 -0.22706254
-0.079948813 0.10646819 -0.22705084
-0.079946436 0.10653994 -0.22704113
-0.079943873 0.10661178 -0.22703543
-0.07994169 0.10668345 -0.22702172
-0.079939216 0.10675524 -0.22701403
-0.079936244 0.1068253 -0.22701836
-0.079933576 0.10689718 -0.22701463
-0.079931512 0.10697076 -0.2269969
-0.079929434 0.10704237 -0.22698121
-0.079927176 0.10711604 -0.22696745
-0.079924591 0.10718592 -0.22696379
-0.07992202 0.10725776 -0.2269581
-0.079919547 0.10732955 -0.22695038
-0.079917274 0.10740127 -0.22693869
-0.079914898 0.10747302 -0.22692898
-0.079911925 0.10754307 -0.2269333
-0.079909161 0.107615 -0.2269316
-0.079906985 0.10768667 -0.22691789
-0.079904728 0.10776033 -0.22690415
-0.079902351 0.10783207 -0.22689445
-0.079899982 0.10790382 -0.22688475
-0.079897605 0.10797558 -0.22687504
-0.079895325 0.10804729 -0.22686335
-0.079893053 0.108119 -0.22685164
-0.079890676 0.10819075 -0.22684194
-0.079888403 0.10826245 -0.22683024
-0.079885952 0.1083362 -0.2268205
-0.079884157 0.10840769 -0.2267988
-0.079882286 0.10848118 -0.22677708
-0.07987982 0.10855297 -0.22676936
-0.079876937 0.10862298 -0.2267717
-0.079874083 0.10869496 -0.22677198
-0.079871394 0.10876489 -0.22677031
-0.079868712 0.10883482 -0.22676864
-0.079866357 0.10890852 -0.2267569
-0.07986398 0.10898027 -0.2267472
-0.079861201 0.10905024 -0.22674753
-0.079858534 0.10912213 -0.22674382
-0.079855852 0.10919205 -0.22674215
-0.079853088 0.10926398 -0.22674045
-0.079850405 0.10933391 -0.22673878
-0.079847835 0.10940575 -0.22673306
-0.079845756 0.10947737 -0.22671738
-0.07984297 0.10954734 -0.22671771
-0.079839513 0.10961762 -0.22673202
-0.079836532 0.10968768 -0.22673634
-0.079833969 0.10975952 -0.22673063
-0.079831496 0.10983132 -0.22672293
-0.079828814 0.10990124 -0.22672126
-0.079825833 0.1099713 -0.22672558
-0.07982327 0.11004315 -0.22671987
-0.079820894 0.11011489 -0.22671017
-0.079817921 0.11018495 -0.22671449
-0.079814434 0.11025327 -0.22673085
-0.079811364 0.11032338 -0.22673717
-0.07980819 0.11039353 -0.2267455
-0.079804637 0.11046386 -0.22676179
-0.079801559 0.11053396 -0.22676812
-0.07979878 0.11060393 -0.22676846
-0.079795703 0.11067404 -0.22677478
-0.07979244 0.11074423 -0.22678509
-0.079789072 0.11081446 -0.2267974
-0.079785787 0.1108827 -0.22680977
-0.079782233 0.11095303 -0.22682607
-0.079778455 0.11102148 -0.22684842
-0.079774879 0.11108985 -0.22686678
-0.079771414 0.11116013 -0.22688109
-0.07976786 0.11123046 -0.22689739
-0.079764277 0.11129882 -0.22691575
-0.079760119 0.11136746 -0.22694609
-0.079755768 0.11143617 -0.22698042
-0.0797517 0.11150476 -0.22700876
-0.079748027 0.11157317 -0.2270291
-0.079744354 0.11164159 -0.22704946
-0.079740286 0.11171018 -0.2270778
-0.079735741 0.11177899 -0.22711612
-0.079731189 0.1118478 -0.22715443
-0.079726622 0.11191465 -0.22719482
-0.079722151 0.11198146 -0.22723319
-0.079717502 0.11205031 -0.22727351
-0.07971286 0.11211916 -0.22731382
-0.079708092 0.1121861 -0.22735819
-0.079703234 0.11225309 -0.22740456
-0.079698086 0.11232021 -0.22745691
-0.079692252 0.11238763 -0.22752324
-0.079686306 0.11245314 -0.22759362
-0.079680458 0.11251862 -0.227662
-0.078862011 0.13359532 -0.22735161
-0.078861438 0.13366233 -0.22730803
-0.078862712 0.1337285 -0.22722654
-0.078864254 0.13379259 -0.22714108
-0.078865722 0.13385868 -0.22705558
-0.078866214 0.13392521 -0.22699004
-0.078866035 0.13399205 -0.22693852
-0.078865848 0.13405888 -0.22688696
-0.078865662 0.13412571 -0.2268354
-0.078865021 0.13419472 -0.2267918
-0.078863397 0.13426417 -0.22676817
-0.078861877 0.13433357 -0.22674254
-0.078861311 0.13440058 -0.22669898
-0.078860544 0.13446768 -0.22665942
-0.078859024 0.13453707 -0.22663379
-0.078856647 0.13460883 -0.22662407
-0.078854546 0.1346785 -0.22661042
-0.078852542 0.13474812 -0.22659478
-0.07885024 0.13481787 -0.22658512
-0.07884758 0.13488975 -0.22658142
-0.078845747 0.13495733 -0.22656383
-0.078844227 0.13502674 -0.22653818
-0.078842506 0.13509622 -0.22651654
-0.078840598 0.1351658 -0.2264989
-0.078838401 0.13523552 -0.22648725
-0.078835927 0.13530731 -0.22647956
-0.078834385 0.13537475 -0.22645596
-0.078832865 0.13544415 -0.22643033
-0.078830861 0.13551378 -0.22641468
-0.078828096 0.13558571 -0.22641298
-0.078825511 0.13565558 -0.2264093
-0.078823023 0.13572542 -0.22640365
-0.078820162 0.1357974 -0.22640392
-0.078817278 0.13586742 -0.22640626
-0.078814231 0.13593948 -0.22641054
-0.07881166 0.13601132 -0.22640482
-0.078809269 0.13608111 -0.22639717
-0.078806676 0.136151 -0.22639351
-0.078803822 0.13622296 -0.22639379
-0.078800574 0.13629511 -0.22640206
-0.0787974 0.13636526 -0.22641039
-0.07879474 0.13643715 -0.22640666
-0.078791954 0.13650711 -0.22640699
-0.078788713 0.13657926 -0.22641528
-0.078785464 0.13665141 -0.22642355
-0.078782409 0.13672346 -0.22642782
-0.07877934 0.13679357 -0.22643414
-0.078776188 0.13686568 -0.22644043
-0.078773327 0.13693765 -0.2264407
-0.078770645 0.13700756 -0.22643903
-0.07876759 0.13707963 -0.22644332
-0.078764439 0.13715173 -0.22644958
-0.078761466 0.13722178 -0.2264539
-0.078758411 0.13729385 -0.22645819
-0.078754969 0.13736609 -0.22647047
-0.078751817 0.13743818 -0.22647673
-0.078748941 0.1375082 -0.22647905
-0.078745984 0.13758022 -0.22648135
-0.078742445 0.13765249 -0.22649561
-0.078738831 0.13772677 -0.22650981
-0.078736052 0.13779674 -0.22651015
-0.078732997 0.13786879 -0.22651443
-0.078729652 0.13794099 -0.2265247
-0.078726411 0.13801314 -0.22653297
-0.078723453 0.13808516 -0.22653526
-0.078720957 0.13815498 -0.2265296
-0.078718007 0.138227 -0.22653186
-0.078714661 0.1382992 -0.22654215
-0.0787118 0.13837117 -0.22654243
-0.078708827 0.13844122 -0.22654675
-0.078705385 0.13851346 -0.22655901
-0.078701943 0.13858569 -0.22657128
-0.078698985 0.1386577 -0.22657356
-0.078695744 0.13872986 -0.22658184
-0.078691833 0.13880426 -0.22660205
-0.078688495 0.13887645 -0.2266123
-0.078685246 0.13894859 -0.22662058
-0.078681901 0.13902079 -0.22663085
-0.078678459 0.13909301 -0.22664312
-0.078675598 0.13916498 -0.2266434
-0.078673109 0.13923483 -0.22663775
-0.078669861 0.13930698 -0.22664601
-0.078666441 0.13938117 -0.22665623
-0.078663565 0.13945118 -0.22665855
-0.078660414 0.13952328 -0.22666484
-0.0786568 0.13959756 -0.22667906
-0.078653358 0.13966979 -0.22669132
-0.078650303 0.13974185 -0.2266956
-0.078647353 0.13981387 -0.22669788
-0.078644201 0.13988596 -0.22670415
-0.078641415 0.13995594 -0.22670448
-0.078638189 0.14003004 -0.22671071
-0.078635119 0.14010014 -0.22671703
-0.078632161 0.14017215 -0.2267193
-0.078629203 0.14024417 -0.22672158
-0.078626059 0.14031628 -0.22672787
-0.078623198 0.14038825 -0.22672816
-0.07861995 0.14046039 -0.22673643
-0.078616895 0.14053245 -0.22674069
-0.078613944 0.14060447 -0.22674298
-0.078611158 0.14067444 -0.22674331
-0.078607932 0.14074853 -0.22674954
-0.07860478 0.14082064 -0.22675581
-0.078602485 0.14089039 -0.22674616
-0.078600094 0.14096019 -0.22673851
-0.078597426 0.14103207 -0.22673479
-0.078594565 0.14110404 -0.22673507
-0.078591324 0.14117618 -0.22674334
-0.078588367 0.1412482 -0.22674564
-0.078585975 0.14131799 -0.22673796
-0.078583114 0.14138997 -0.22673824
-0.078579597 0.1414642 -0.22675046
-0.078576811 0.14153416 -0.22675079
-0.078574054 0.14160609 -0.22674909
-0.078571096 0.14167811 -0.22675136
-0.078568608 0.14174795 -0.22674569
-0.078565843 0.14181988 -0.226744
-0.078562789 0.14189194 -0.22674827
-0.078559935 0.14196391 -0.22674856
-0.078557268 0.1420358 -0.22674485
-0.078554675 0.14210567 -0.22674116
-0.078551628 0.14217773 -0.22674546
-0.078548379 0.14224988 -0.22675373
-0.078545325 0.14232194 -0.226758
-0.078542665 0.14239383 -0.22675431
-0.0785399 0.14246574 -0.22675258
-0.078537136 0.14253767 -0.22675087
-0.078534454 0.1426076 -0.22674921
-0.078531787 0.14267948 -0.22674549
-0.078528926 0.14275146 -0.22674578
-0.078525878 0.14282352 -0.22675005
-0.078523189 0.14289345 -0.22674838
-0.078520432 0.14296538 -0.22674668
-0.078517377 0.14303742 -0.22675094
-0.07851471 0.14310931 -0.22674724
-0.078512415 0.14317906 -0.22673759
-0.078509457 0.14325108 -0.22673985
-0.078506403 0.14332314 -0.22674415
-0.078503817 0.14339302 -0.22674048
-0.078501053 0.14346495 -0.22673877
-0.078498103 0.14353696 -0.22674105
-0.078495532 0.14360879 -0.22673534
-0.078493044 0.14367864 -0.22672968
-0.078490473 0.14375049 -0.22672397
-0.078488179 0.14382023 -0.22671431
-0.078485318 0.1438922 -0.2267146
-0.078482091 0.1439663 -0.22672081
-0.078479409 0.14403623 -0.22671914
-0.078476354 0.1441083 -0.22672343
-0.078473419 0.14418226 -0.22672367
-0.07847102 0.14425206 -0.22671601
-0.078468628 0.14432186 -0.22670835
-0.078465767 0.14439383 -0.22670864
-0.07846301 0.14446574 -0.22670692
-0.078460343 0.14453763 -0.22670321
-0.078457288 0.14460969 -0.22670749
-0.078454144 0.1446818 -0.22671378
-0.078451745 0.14475159 -0.2267061
-0.078449279 0.14482339 -0.2266984
-0.078446224 0.14489543 -0.22670268
-0.078443266 0.14496745 -0.22670496
-0.078440696 0.14503929 -0.22669925
-0.078438498 0.14510901 -0.2266876
-0.078435645 0.14518097 -0.22668788
-0.07843259 0.14525303 -0.22669217
-0.078429729 0.14532501 -0.22669244
-0.078426965 0.14539693 -0.22669072
-0.07842382 0.14546904 -0.226697
-0.078421056 0.14554095 -0.2266953
-0.078418195 0.14561293 -0.22669557
-0.07841485 0.14568512 -0.22670585
-0.078411721 0.14575918 -0.22671007
-0.078409329 0.14582898 -0.22670242
-0.078406937 0.14589877 -0.22669476
-0.07840427 0.14597066 -0.22669104
-0.078401603 0.14604254 -0.22668734
-0.078398846 0.14611447 -0.22668561
-0.078395694 0.14618656 -0.2266919
-0.078393109 0.14625645 -0.22668824
-0.078390732 0.1463282 -0.22667854
-0.078387775 0.14640021 -0.22668082
-0.078384921 0.14647219 -0.22668108
-0.078382351 0.14654402 -0.22667539
-0.078379571 0.146614 -0.22667572
-0.078377001 0.14668584 -0.22667001
-0.078374334 0.14675772 -0.2266663
-0.078371279 0.14682978 -0.22667056
-0.078368425 0.14690174 -0.22667086
-0.078365661 0.14697367 -0.22666915
-0.078363091 0.14704551 -0.22666344
-0.078360505 0.14711539 -0.22665977
-0.07835757 0.14718936 -0.22666001
-0.078354888 0.14725929 -0.22665834
-0.07835193 0.14733131 -0.22666062
-0.078348801 0.14740536 -0.22666484
-0.078346036 0.1474773 -0.22666314
-0.078343078 0.1475493 -0.22666541
-0.078340225 0.14762127 -0.22666571
-0.078337923 0.14769103 -0.22665605
-0.078335553 0.14776278 -0.22664633
-0.078332596 0.14783479 -0.22664863
-0.078329936 0.14790668 -0.2266449
-0.078327537 0.14797647 -0.22663724
-0.07832478 0.1480484 -0.22663555
-0.078322016 0.14812033 -0.22663382
-0.078319058 0.14819235 -0.22663611
-0.078315832 0.14826645 -0.22664234
-0.078313053 0.14833641 -0.22664267
-0.078310579 0.1484082 -0.22663496
-0.078308284 0.14847796 -0.22662531
-0.078305885 0.14854775 -0.22661765
-0.078302756 0.14862181 -0.22662187
-0.078299433 0.14869596 -0.22663009
-0.078295819 0.14877024 -0.22664432
-0.078292765 0.14884229 -0.2266486
-0.078290202 0.14891413 -0.22664288
-0.078287244 0.14898615 -0.22664517
-0.078283727 0.14906038 -0.22665739
-0.079732478 0.10357262 -0.22737899
-0.079729713 0.10364455 -0.22737728
-0.07972724 0.10371634 -0.22736958
-0.079724669 0.10378818 -0.22736387
-0.079721808 0.10386015 -0.22736415
-0.079718933 0.10393017 -0.22736648
-0.079716168 0.1040021 -0.22736476
-0.079713695 0.10407389 -0.22735706
-0.079711318 0.10414565 -0.22734736
-0.079708844 0.10421744 -0.22733966
-0.079706274 0.10428928 -0.22733395
-0.079703897 0.10436103 -0.22732425
-0.079701424 0.10443282 -0.22731653
-0.079698257 0.10450297 -0.22732486
-0.079694889 0.10457321 -0.22733717
-0.079692103 0.10464318 -0.22733751
-0.079689749 0.10471688 -0.22732577
-0.079687566 0.10478855 -0.22731206
-0.079685189 0.1048603 -0.22730236
-0.079682738 0.10493404 -0.2272926
-0.079680361 0.1050058 -0.22728291
-0.079678103 0.10507946 -0.22726916
-0.079675727 0.10515121 -0.22725946
-0.079673044 0.10522114 -0.22725779
-0.079670183 0.10529311 -0.22725809
-0.079668097 0.10536472 -0.22724238
-0.07966584 0.10543839 -0.22722864
-0.079662859 0.10550845 -0.22723296
-0.079660095 0.10558037 -0.22723123
-0.079657815 0.10565209 -0.22721955
-0.079655752 0.10572566 -0.22720182
-0.079653591 0.10579927 -0.22718607
-0.079651117 0.10587107 -0.22717836
-0.079648644 0.10594287 -0.22717065
-0.079646274 0.10601462 -0.22716096
-0.079643995 0.10608633 -0.22714925
-0.079641834 0.10615994 -0.22713351
-0.07963936 0.10623173 -0.22712581
-0.079636887 0.10630353 -0.2271181
-0.079634413 0.10637532 -0.22711039
-0.07963194 0.10644712 -0.2271027
-0.07962966 0.10651883 -0.22709098
-0.079627596 0.1065924 -0.22707325
-0.079625122 0.1066642 -0.22706555
-0.079622455 0.10673608 -0.22706184
-0.079620376 0.10680769 -0.22704613
-0.079617903 0.1068795 -0.22703844
-0.079615235 0.10695138 -0.22703473
-0.079612955 0.10702308 -0.22702304
-0.079610482 0.10709488 -0.22701532
-0.079607815 0.10716676 -0.22701162
-0.079605341 0.10723855 -0.2270039
-0.079602964 0.10731031 -0.22699422
-0.079600476 0.10738015 -0.22698855
-0.079597712 0.10745207 -0.22698683
-0.079595335 0.10752383 -0.22697712
-0.079593368 0.10759735 -0.22695738
-0.079591185 0.10766902 -0.2269437
-0.079588421 0.10774095 -0.22694197
-0.079585753 0.10781283 -0.22693828
-0.079583384 0.10788458 -0.22692856
-0.079581298 0.1079562 -0.22691287
-0.079579212 0.10802782 -0.22689718
-0.079576857 0.10810152 -0.22688544
-0.079574384 0.10817332 -0.22687772
-0.079571888 0.10824316 -0.22687206
-0.079569414 0.10831495 -0.22686437
-0.079566851 0.10838679 -0.22685865
-0.079564475 0.10845855 -0.22684896
-0.079562508 0.10853207 -0.22682922
-0.079559937 0.10860391 -0.22682351
-0.079556957 0.10867397 -0.22682783
-0.079554364 0.10874386 -0.22682416
-0.079552189 0.10881552 -0.22681049
-0.079549924 0.10888918 -0.22679672
-0.079547457 0.10896098 -0.22678903
-0.07954479 0.10903285 -0.2267853
-0.0795421 0.10910279 -0.22678363
-0.079539724 0.10917453 -0.22677395
-0.079537347 0.10924629 -0.22676423
-0.079534777 0.10931813 -0.22675854
-0.079532191 0.10938801 -0.22675487
-0.07952933 0.10945998 -0.22675514
-0.07952664 0.10952991 -0.22675349
-0.07952407 0.10960175 -0.22674778
-0.079521485 0.10967164 -0.22674412
-0.079518527 0.10974365 -0.22674638
-0.07951574 0.10981362 -0.22674672
-0.07951276 0.10988368 -0.22675106
-0.079509884 0.1099537 -0.22675338
-0.079507023 0.11002567 -0.22675365
-0.079504237 0.11009564 -0.22675399
-0.079501167 0.11016575 -0.22676033
-0.07949809 0.11023585 -0.22676663
-0.079495326 0.11030778 -0.22676492
-0.079492249 0.11037788 -0.22677124
-0.079488963 0.11044612 -0.2267836
-0.079485595 0.11051635 -0.22679591
-0.079482518 0.11058646 -0.22680224
-0.079479448 0.11065656 -0.22680858
-0.079476275 0.11072671 -0.22681689
-0.079473101 0.11079686 -0.22682521
-0.07946974 0.11086709 -0.22683752
-0.079466544 0.11093529 -0.22684789
-0.079463273 0.11100548 -0.2268582
-0.079459816 0.11107576 -0.2268725
-0.079456232 0.11114413 -0.22689086
-0.079452477 0.11121454 -0.22691116
-0.079448998 0.11128286 -0.22692752
-0.07944534 0.11135323 -0.22694582
-0.079441957 0.11142151 -0.22696018
-0.079437912 0.11149205 -0.22698648
-0.079433724 0.11155874 -0.22701886
-0.079429761 0.11162728 -0.22704521
-0.079425618 0.11169787 -0.22707349
-0.079421535 0.1117645 -0.22710389
-0.079417177 0.11183321 -0.22713822
-0.079412721 0.11190198 -0.22717454
-0.079408757 0.11197053 -0.22720088
-0.079404689 0.11203912 -0.22722921
-0.079400048 0.11210797 -0.22726955
-0.079394795 0.11217513 -0.22732389
-0.079389431 0.11224038 -0.22738227
-0.079384081 0.11230759 -0.22743863
-0.07937903 0.11237466 -0.22748899
-0.079373084 0.11244017 -0.22755936
-0.07936725 0.1125076 -0.2276257
-0.079361983 0.1125728 -0.22768208
-0.078536421 0.13366228 -0.22749931
-0.078540385 0.13372527 -0.22736391
-0.078542694 0.13378902 -0.2272625
-0.078543946 0.13385324 -0.22718303
-0.078544825 0.1339196 -0.22710951
-0.078545325 0.13398612 -0.22704399
-0.078544669 0.13405512 -0.22700037
-0.078543998 0.13412218 -0.22695881
-0.078542963 0.13419136 -0.2269232
-0.078542098 0.13425851 -0.22688562
-0.078541063 0.13432768 -0.22685
-0.078539535 0.13439709 -0.22682437
-0.07853809 0.13446449 -0.22679879
-0.078536294 0.13453598 -0.22677711
-0.07853429 0.1346056 -0.22676146
-0.078532651 0.13467309 -0.22673987
-0.078531221 0.13474245 -0.22671224
-0.078529894 0.13481176 -0.22668262
-0.07852827 0.13488121 -0.22665897
-0.078526169 0.13495088 -0.22664532
-0.078524455 0.13502036 -0.22662368
-0.078523315 0.13508959 -0.22659007
-0.078522161 0.13515687 -0.22655849
-0.078520253 0.13522644 -0.22654085
-0.078518435 0.13529597 -0.22652121
-0.078516819 0.13536543 -0.22649758
-0.078515388 0.13543478 -0.22646995
-0.078513846 0.13550223 -0.22644636
-0.078511938 0.13557181 -0.22642872
-0.078509733 0.13564152 -0.22641706
-0.078506581 0.13571362 -0.22642334
-0.078502849 0.13578598 -0.22644159
-0.078500278 0.13585782 -0.22643588
-0.07849808 0.13592753 -0.22642423
-0.078494735 0.13599972 -0.2264345
-0.078491658 0.13606982 -0.22644082
-0.078488894 0.13614175 -0.22643912
-0.078486204 0.13621168 -0.22643745
-0.078483537 0.13628356 -0.22643372
-0.078481145 0.13635336 -0.22642608
-0.078478359 0.13642333 -0.22642641
-0.078474745 0.1364976 -0.22644062
-0.078471571 0.13656776 -0.22644895
-0.078468807 0.13663968 -0.22644722
-0.078466319 0.13670953 -0.22644156
-0.078463823 0.13677937 -0.2264359
-0.078460671 0.13685146 -0.22644219
-0.078456864 0.13692583 -0.2264604
-0.078453712 0.13699794 -0.22646667
-0.078450635 0.13706803 -0.226473
-0.078447096 0.13714032 -0.22648725
-0.078443848 0.13721246 -0.22649553
-0.078440696 0.13728456 -0.22650179
-0.078437448 0.13735671 -0.22651008
-0.07843449 0.13742872 -0.22651234
-0.078431897 0.1374986 -0.22650869
-0.078429408 0.13756844 -0.22650303
-0.07842645 0.13764046 -0.22650531
-0.078422911 0.13771273 -0.22651957
-0.078419372 0.13778502 -0.22653383
-0.078416124 0.13785717 -0.22654212
-0.078413166 0.13792917 -0.2265444
-0.078410111 0.13800123 -0.22654867
-0.07840696 0.13807334 -0.22655495
-0.078403614 0.13814552 -0.22656521
-0.078400366 0.13821767 -0.2265735
-0.078397408 0.13828969 -0.22657576
-0.078393966 0.13836192 -0.22658803
-0.078390718 0.13843407 -0.2265963
-0.078387931 0.13850404 -0.22659662
-0.078384586 0.13857622 -0.22660691
-0.078381069 0.13865046 -0.22661912
-0.078378089 0.13872051 -0.22662345
-0.078374766 0.13879466 -0.22663167
-0.078372076 0.13886459 -0.22663
-0.078369386 0.13893452 -0.22662833
-0.078365676 0.13900883 -0.22664455
-0.078361943 0.13908121 -0.22666281
-0.078359082 0.13915318 -0.2266631
-0.078356221 0.13922514 -0.22666338
-0.078352973 0.13929729 -0.22667165
-0.078349434 0.13936956 -0.22668591
-0.078346282 0.13944167 -0.2266922
-0.078343228 0.13951373 -0.22669646
-0.078339979 0.13958587 -0.22670473
-0.078336731 0.13965802 -0.226713
-0.07833302 0.13973233 -0.22672921
-0.078329675 0.13980453 -0.2267395
-0.078326814 0.1398765 -0.22673976
-0.078324124 0.13994643 -0.2267381
-0.078321069 0.14001849 -0.22674239
-0.078318015 0.14009054 -0.22674666
-0.07831496 0.1401626 -0.22675094
-0.078312002 0.14023462 -0.22675322
-0.078309044 0.14030662 -0.2267555
-0.078305796 0.14037877 -0.22676377
-0.078303009 0.14044875 -0.22676411
-0.078300059 0.14052077 -0.22676639
-0.078296907 0.14059287 -0.22677267
-0.078293853 0.14066492 -0.22677694
-0.078290619 0.14073902 -0.22678316
-0.078287743 0.14080904 -0.2267855
-0.078285173 0.14088088 -0.22677979
-0.078282408 0.14095281 -0.22677806
-0.078279719 0.14102274 -0.22677641
-0.078277245 0.14109454 -0.2267687
-0.078274854 0.14116433 -0.22676104
-0.078271993 0.14123629 -0.22676133
-0.07826855 0.14130853 -0.22677359
-0.078264832 0.14138284 -0.2267898
-0.078261778 0.14145491 -0.22679408
-0.078259207 0.14152674 -0.22678837
-0.078256719 0.14159659 -0.22678271
-0.078253955 0.14166851 -0.22678101
-0.078250997 0.14174053 -0.22678328
-0.078248136 0.1418125 -0.22678357
-0.07824564 0.14188233 -0.22677791
-0.078243248 0.14195213 -0.22677025
-0.078240484 0.14202406 -0.22676852
-0.07823772 0.14209598 -0.22676682
-0.078234568 0.14216809 -0.2267731
-0.078231223 0.14224029 -0.22678337
-0.078227878 0.14231247 -0.22679363
-0.078225307 0.14238431 -0.22678792
-0.078223012 0.14245406 -0.22677827
-0.078220248 0.14252599 -0.22677656
-0.07821729 0.142598 -0.22677884
-0.078214623 0.14266989 -0.22677512
-0.078211933 0.14273982 -0.22677347
-0.078208879 0.14281186 -0.22677773
-0.078206405 0.14288366 -0.22677004
-0.07820411 0.14295343 -0.22676039
-0.078201443 0.14302531 -0.22675666
-0.078198388 0.14309736 -0.22676095
-0.078195237 0.14316946 -0.22676721
-0.078192182 0.14324152 -0.2267715
-0.078189418 0.14331345 -0.22676978
-0.078186825 0.14338332 -0.22676611
-0.078184158 0.14345521 -0.22676241
-0.0781812 0.14352722 -0.22676468
-0.078178152 0.14359929 -0.22676897
-0.078175098 0.14367135 -0.22677323
-0.078172334 0.14374328 -0.22677153
-0.078169666 0.14381516 -0.22676781
-0.078167267 0.14388496 -0.22676016
-0.0781646 0.14395684 -0.22675645
-0.078161739 0.1440288 -0.22675674
-0.078158975 0.14410073 -0.22675502
-0.078156389 0.14417061 -0.22675136
-0.078153916 0.14424241 -0.22674365
-0.078150958 0.14431442 -0.22674593
-0.078147903 0.14438649 -0.22675021
-0.078145504 0.14445628 -0.22674255
-0.078143135 0.14452803 -0.22673285
-0.078140371 0.14459996 -0.22673114
-0.078137778 0.14466985 -0.22672747
-0.07813482 0.14474186 -0.22672975
-0.078131594 0.14481595 -0.22673598
-0.078128733 0.14488792 -0.22673626
-0.07812614 0.14495781 -0.2267326
-0.078122914 0.14503191 -0.22673883
-0.078120321 0.1451018 -0.22673517
-0.078117847 0.14517359 -0.22672746
-0.078115083 0.14524552 -0.22672574
-0.078112498 0.14531541 -0.22672209
-0.078110121 0.14538716 -0.22671238
-0.078107432 0.14545707 -0.22671071
-0.078104109 0.14553122 -0.22671893
-0.078101054 0.14560328 -0.22672322
-0.078098461 0.14567317 -0.22671956
-0.078095526 0.14574714 -0.2267198
-0.078092568 0.14581916 -0.22672206
-0.07808961 0.14589116 -0.22672436
-0.078086942 0.14596304 -0.22672063
-0.078084357 0.14603293 -0.22671697
-0.078081787 0.14610477 -0.22671127
-0.078079291 0.14617461 -0.22670561
-0.07807672 0.14624645 -0.22669989
-0.078073956 0.14631838 -0.22669819
-0.078070909 0.14639044 -0.22670245
-0.078068145 0.14646237 -0.22670075
-0.078065284 0.14653434 -0.22670104
-0.078062229 0.14660639 -0.22670531
-0.078059271 0.1466784 -0.22670759
-0.078056701 0.14675024 -0.22670189
-0.078054398 0.14681999 -0.22669223
-0.078051828 0.14689183 -0.22668651
-0.07804887 0.14696385 -0.2266888
-0.078046106 0.14703578 -0.22668707
-0.07804352 0.14710566 -0.22668342
-0.07804095 0.1471775 -0.22667772
-0.078037992 0.14724952 -0.22668
-0.078034863 0.14732356 -0.22668421
-0.078032002 0.14739554 -0.22668451
-0.078029409 0.14746542 -0.22668085
-0.078026935 0.14753722 -0.22667314
-0.078024074 0.14760919 -0.22667342
-0.07802102 0.14768125 -0.22667769
-0.078017794 0.14775535 -0.22668391
-0.078014739 0.1478274 -0.22668821
-0.078012362 0.14789915 -0.22667851
-0.078009777 0.14796904 -0.22667482
-0.078007206 0.14804088 -0.22666913
-0.078004807 0.14811067 -0.22666147
-0.078002237 0.14818251 -0.22665575
-0.077999279 0.14825453 -0.22665805
-0.077996224 0.14832659 -0.22666231
-0.077993363 0.14839856 -0.22666261
-0.077990696 0.14847045 -0.22665888
-0.07798823 0.14854224 -0.22665119
-0.077985369 0.14861421 -0.22665147
-0.077982314 0.14868626 -0.22665575
-0.077979356 0.14875828 -0.22665803
-0.077976689 0.14883016 -0.22665432
-0.077973828 0.14890213 -0.2266546
-0.077970967 0.14897411 -0.22665489
-0.077968493 0.1490459 -0.22664718
-0.079516388 0.10355037 -0.22743192
-0.079514027 0.10362408 -0.22742017
-0.079511553 0.10369587 -0.22741246
-0.079509184 0.10376762 -0.22740276
-0.079507113 0.1038412 -0.22738503
-0.079504758 0.1039149 -0.22737327
-0.079501994 0.10398683 -0.22737156
-0.079499111 0.10405684 -0.2273739
-0.079496235 0.10412686 -0.22737622
-0.079493858 0.10419861 -0.22736651
-0.079491593 0.10427228 -0.22735277
-0.079489022 0.10434411 -0.22734708
-0.079486147 0.10441413 -0.2273494
-0.079483263 0.10448414 -0.22735173
-0.079480499 0.10455607 -0.22735001
-0.079477929 0.10462791 -0.2273443
-0.079475164 0.10469984 -0.22734259
-0.079472475 0.10476977 -0.22734092
-0.079470024 0.10484351 -0.22733116
-0.079467647 0.10491526 -0.22732148
-0.079465583 0.10498884 -0.22730374
-0.079463519 0.10506241 -0.22728598
-0.079460442 0.10513252 -0.22729231
-0.079457559 0.10520253 -0.22729465
-0.079455182 0.10527428 -0.22728494
-0.079452805 0.10534603 -0.22727524
-0.07945016 0.10541987 -0.22726949
-0.079447664 0.10548972 -0.22726382
-0.079445288 0.10556147 -0.22725412
-0.07944303 0.10563512 -0.22724038
-0.079440869 0.10570874 -0.22722463
-0.079438493 0.1057805 -0.22721493
-0.079436116 0.10585225 -0.22720523
-0.079433449 0.10592413 -0.22720152
-0.079430878 0.10599597 -0.22719581
-0.079428501 0.10606772 -0.22718611
-0.079426631 0.1061412 -0.22716437
-0.079424664 0.10621473 -0.22714464
-0.079421997 0.10628662 -0.22714093
-0.079419523 0.10635841 -0.22713323
-0.079417437 0.10643003 -0.22711754
-0.079415374 0.10650361 -0.22709979
-0.0794129 0.1065754 -0.22709209
-0.079410113 0.10664537 -0.22709242
-0.079407565 0.10671917 -0.22708467
-0.079405382 0.10679083 -0.22707097
-0.079403006 0.10686257 -0.22706127
-0.079400435 0.10693441 -0.22705556
-0.079398058 0.10700616 -0.22704586
-0.079395682 0.10707792 -0.22703615
-0.079393208 0.10714971 -0.22702846
-0.079390831 0.10722146 -0.22701874
-0.079388551 0.10729317 -0.22700706
-0.079385787 0.1073651 -0.22700533
-0.079383023 0.10743703 -0.22700363
-0.079380341 0.10750695 -0.22700197
-0.079377964 0.1075787 -0.22699225
-0.079375394 0.10765054 -0.22698656
-0.079372726 0.10772243 -0.22698283
-0.079370543 0.10779409 -0.22696914
-0.079369061 0.1078674 -0.22693941
-0.079366796 0.10794106 -0.22692567
-0.07936421 0.10801095 -0.22692201
-0.079361849 0.10808465 -0.22691026
-0.079359867 0.10815623 -0.22689258
-0.079357587 0.10822794 -0.22688088
-0.079354919 0.10829982 -0.22687717
-0.079352349 0.10837166 -0.22687146
-0.079349779 0.10844349 -0.22686574
-0.079347596 0.10851516 -0.22685206
-0.079345219 0.10858691 -0.22684234
-0.079342552 0.10865879 -0.22683865
-0.079340175 0.10873054 -0.22682893
-0.079337798 0.1088023 -0.22681923
-0.079335421 0.10887405 -0.22680953
-0.079333045 0.10894579 -0.22679983
-0.079330258 0.10901577 -0.22680016
-0.079327494 0.10908769 -0.22679844
-0.079324715 0.10915767 -0.22679877
-0.079321951 0.10922959 -0.22679707
-0.079319552 0.10929939 -0.22678941
-0.079317197 0.1093731 -0.22677767
-0.079314508 0.10944302 -0.226776
-0.079311818 0.10951295 -0.22677433
-0.079309247 0.10958479 -0.22676861
-0.079306774 0.10965659 -0.22676092
-0.079304203 0.10972843 -0.2267552
-0.079301618 0.10979831 -0.22675154
-0.079298854 0.10987024 -0.22674984
-0.079296067 0.10994021 -0.22675017
-0.079293087 0.11001027 -0.22675449
-0.079289936 0.11008237 -0.22676077
-0.079286955 0.11015243 -0.2267651
-0.079283863 0.11022058 -0.22677346
-0.079280786 0.11029068 -0.22677979
-0.079277828 0.1103627 -0.22678205
-0.079274945 0.11043271 -0.22678439
-0.079271972 0.11050278 -0.22678871
-0.079268701 0.11057296 -0.22679904
-0.079265721 0.11064303 -0.22680336
-0.079262741 0.11071309 -0.22680768
-0.079259284 0.11078337 -0.22682199
-0.079255603 0.11085178 -0.22684234
-0.079252236 0.11092202 -0.22685465
-0.079249352 0.11099203 -0.22685699
-0.079245895 0.11106231 -0.2268713
-0.079242021 0.11113081 -0.22689565
-0.079238154 0.11119931 -0.22691998
-0.079234689 0.11126959 -0.2269343
-0.079231322 0.11133983 -0.22694662
-0.079227738 0.1114082 -0.22696497
-0.07922399 0.1114786 -0.22698528
-0.079220213 0.11154707 -0.22700761
-0.079216145 0.11161565 -0.22703597
-0.079211988 0.11168429 -0.22706629
-0.079207607 0.11175105 -0.22710267
-0.079203464 0.11182164 -0.22713096
-0.0791995 0.11189018 -0.22715729
-0.079195321 0.11195686 -0.22718969
-0.079190962 0.11202558 -0.22722402
-0.079186194 0.11209252 -0.22726837
-0.079181358 0.11216146 -0.2273127
-0.079176396 0.11222849 -0.22736105
-0.079170957 0.11229574 -0.22741941
-0.079165801 0.11236285 -0.22747175
-0.079160437 0.11242811 -0.22753015
-0.07915511 0.11249726 -0.22758445
-0.079149842 0.11256247 -0.22764084
-0.079143412 0.1126282 -0.2277212
-0.078319378 0.13365605 -0.22755395
-0.078322567 0.13371938 -0.22743455
-0.078324683 0.13378322 -0.22733712
-0.078326143 0.13384931 -0.22725162
-0.078327492 0.13391349 -0.22717015
-0.078328468 0.1339798 -0.22709465
-0.078328185 0.13404667 -0.22704509
-0.078327902 0.13411355 -0.22699554
-0.078327149 0.1341826 -0.22695392
-0.07832621 0.13425174 -0.22691631
-0.078325443 0.13431884 -0.22687675
-0.07832469 0.1343879 -0.22683513
-0.078323342 0.13445525 -0.22680756
-0.078321725 0.1345247 -0.22678393
-0.078320488 0.13459396 -0.22675231
-0.078319333 0.13466124 -0.22672072
-0.078318104 0.13473052 -0.2266891
-0.078316674 0.13479987 -0.22666147
-0.078315444 0.13486914 -0.22662985
-0.078314088 0.1349365 -0.22660226
-0.078312375 0.135006 -0.22658063
-0.078310557 0.13507552 -0.22656098
-0.078308746 0.13514505 -0.22654134
-0.078307219 0.13521446 -0.22651571
-0.078305505 0.13528395 -0.22649407
-0.078303687 0.13535349 -0.22647443
-0.078301482 0.1354232 -0.2264628
-0.0782988 0.13549313 -0.22646113
-0.07829681 0.1355647 -0.22644344
-0.078294978 0.13563228 -0.22642584
-0.0782924 0.13570412 -0.22642013
-0.078290105 0.13577387 -0.22641048
-0.078287415 0.1358438 -0.22640881
-0.078283317 0.13591829 -0.22643301
-0.078280166 0.1359904 -0.22643928
-0.078277476 0.13606033 -0.22643763
-0.078274228 0.13613246 -0.2264459
-0.078271344 0.13620248 -0.22644821
-0.078268774 0.13627432 -0.22644252
-0.078265794 0.13634439 -0.22644684
-0.078262448 0.13641657 -0.2264571
-0.0782592 0.13648872 -0.22646537
-0.078256533 0.1365606 -0.22646168
-0.07825385 0.13663054 -0.22646001
-0.078250788 0.1367026 -0.22646429
-0.07824754 0.13677473 -0.22647256
-0.078244098 0.13684697 -0.22648482
-0.078241125 0.13691702 -0.22648916
-0.078238361 0.13698895 -0.22648743
-0.078235768 0.13705884 -0.22648376
-0.078233294 0.13713063 -0.22647607
-0.078230701 0.13720052 -0.22647241
-0.078227356 0.13727272 -0.22648267
-0.078224011 0.1373449 -0.22649294
-0.078220665 0.13741709 -0.22650321
-0.078217417 0.13748923 -0.22651148
-0.078213975 0.13756147 -0.22652376
-0.078210436 0.13763374 -0.226538
-0.078207284 0.13770585 -0.22654429
-0.078204125 0.13777795 -0.22655056
-0.07820078 0.13785014 -0.22656083
-0.078197725 0.1379222 -0.22656512
-0.078194849 0.13799222 -0.22656745
-0.078191891 0.13806424 -0.22656971
-0.078189127 0.13813615 -0.22656801
-0.078185678 0.13820839 -0.22658028
-0.078182332 0.13828057 -0.22659054
-0.078179277 0.13835263 -0.22659482
-0.078176223 0.13842469 -0.2265991
-0.078172877 0.13849688 -0.22660936
-0.078170002 0.1385669 -0.2266117
-0.078167036 0.13863891 -0.22661397
-0.078163229 0.13871327 -0.22663219
-0.078159496 0.13878565 -0.22665045
-0.078156441 0.13885769 -0.22665472
-0.078153849 0.13892758 -0.22665107
-0.078150794 0.13899964 -0.22665533
-0.078147449 0.13907184 -0.22666562
-0.078143731 0.13914615 -0.22668183
-0.078140482 0.1392183 -0.2266901
-0.078137621 0.13929027 -0.22669038
-0.078134567 0.13936232 -0.22669466
-0.078131594 0.13943239 -0.22669898
-0.078128263 0.13950653 -0.22670721
-0.078124918 0.13957871 -0.22671747
-0.07812167 0.13965087 -0.22672576
-0.078118615 0.13972293 -0.22673002
-0.07811556 0.13979498 -0.22673431
-0.078112409 0.13986708 -0.22674057
-0.078109354 0.13993914 -0.22674486
-0.078106299 0.14001119 -0.22674914
-0.078103051 0.14008334 -0.22675741
-0.078099802 0.14015549 -0.22676568
-0.078096844 0.14022751 -0.22676796
-0.078094058 0.14029747 -0.22676829
-0.078091003 0.14036953 -0.22677258
-0.078087948 0.1404416 -0.22677684
-0.078084797 0.14051369 -0.22678313
-0.078081839 0.14058571 -0.22678541
-0.078078881 0.14065772 -0.22678769
-0.078075826 0.14072978 -0.22679196
-0.078072868 0.1408018 -0.22679424
-0.078070275 0.14087167 -0.22679058
-0.078067899 0.14094344 -0.22678089
-0.078065038 0.1410154 -0.22678116
-0.078061692 0.14108759 -0.22679144
-0.078058638 0.14115965 -0.2267957
-0.078056335 0.14122941 -0.22678605
-0.078053571 0.14130133 -0.22678435
-0.078050323 0.14137347 -0.2267926
-0.078047462 0.14144544 -0.2267929
-0.078044504 0.14151746 -0.22679518
-0.078041546 0.14158948 -0.22679746
-0.078038879 0.14166136 -0.22679374
-0.078036286 0.14173125 -0.22679009
-0.078033231 0.14180329 -0.22679436
-0.078030273 0.14187531 -0.22679664
-0.078027412 0.14194728 -0.22679693
-0.078024551 0.14201926 -0.22679722
-0.07802169 0.14209123 -0.22679749
-0.078019097 0.14216112 -0.22679383
-0.078016534 0.14223295 -0.22678813
-0.078013942 0.14230284 -0.22678447
-0.078011274 0.14237472 -0.22678074
-0.078008413 0.14244668 -0.22678104
-0.078005262 0.14251879 -0.2267873
-0.078002401 0.14259076 -0.2267876
-0.078000292 0.14266042 -0.22677395
-0.077998191 0.14273009 -0.2267603
-0.077995598 0.14279997 -0.22675663
-0.077992365 0.14287408 -0.22676286
-0.07798931 0.14294612 -0.22676714
-0.077986255 0.14301819 -0.22677141
-0.077983297 0.1430902 -0.22677369
-0.07798034 0.14316222 -0.22677597
-0.077977754 0.14323211 -0.22677231
-0.077975087 0.14330399 -0.2267686
-0.077972323 0.14337592 -0.22676688
-0.077969268 0.14344797 -0.22677116
-0.077966601 0.14351985 -0.22676745
-0.077964008 0.14358974 -0.22676378
-0.077961341 0.14366162 -0.22676009
-0.077958748 0.1437315 -0.22675642
-0.077955812 0.14380547 -0.22675666
-0.077953026 0.14387545 -0.22675699
-0.077950165 0.14394742 -0.22675727
-0.077947594 0.14401926 -0.22675157
-0.07794483 0.14409119 -0.22674984
-0.077942066 0.1441631 -0.22674814
-0.077939279 0.14423308 -0.22674847
-0.077936344 0.14430705 -0.2267487
-0.077933751 0.14437693 -0.22674504
-0.077931084 0.14444882 -0.22674133
-0.077928126 0.14452083 -0.22674361
-0.077925734 0.14459063 -0.22673595
-0.077923164 0.14466247 -0.22673024
-0.0779204 0.1447344 -0.22672853
-0.077917248 0.14480649 -0.22673482
-0.077914193 0.14487855 -0.22673908
-0.077911332 0.14495052 -0.22673936
-0.077908762 0.14502236 -0.22673365
-0.077905707 0.14509442 -0.22673795
-0.077902451 0.14516656 -0.2267462
-0.077900179 0.14523828 -0.22673452
-0.077898145 0.14530595 -0.2267209
-0.077895112 0.14537995 -0.22672313
-0.077891767 0.14545214 -0.22673342
-0.077888615 0.14552425 -0.22673967
-0.077886142 0.14559604 -0.22673199
-0.07788384 0.14566579 -0.22672233
-0.077880882 0.14573781 -0.22672461
-0.077877924 0.14580983 -0.22672689
-0.077875063 0.14588179 -0.22672716
-0.077872783 0.14595349 -0.22671548
-0.077870384 0.14602329 -0.22670782
-0.077867426 0.14609531 -0.2267101
-0.077864103 0.14616945 -0.22671832
-0.077861048 0.14624152 -0.2267226
-0.077858381 0.1463134 -0.22671889
-0.077856079 0.14638315 -0.22670923
-0.077853315 0.14645508 -0.22670752
-0.07785026 0.14652713 -0.22671179
-0.077847205 0.14659919 -0.22671607
-0.07784427 0.14667316 -0.22671631
-0.077841677 0.14674304 -0.22671264
