# .PCD v0.7 - Point Cloud Data file format
VERSION 0.7
FIELDS x y z
SIZE 4 4 4
TYPE F F F
COUNT 1 1 1
WIDTH 1379
HEIGHT 1
VIEWPOINT 0 0 0 1 0 0 0
POINTS 1379
DATA ascii
-0.19112036 0.15688471 -0.24304503
-0.19111755 0.15696254 -0.24303918
-0.19111474 0.15703842 -0.24303538
-0.19111174 0.15711634 -0.24303351
-0.19110912 0.15719214 -0.24302572
-0.19110641 0.15726992 -0.24301787
-0.19110332 0.15734789 -0.243018
-0.1911 0.15742204 -0.24302623
-0.19109711 0.15749991 -0.24302238
-0.1910945 0.15757765 -0.24301252
-0.19109161 0.15765554 -0.24300867
-0.1910888 0.15773141 -0.24300487
-0.19108577 0.15780738 -0.24300507
-0.1910824 0.15788548 -0.24301119
-0.19107929 0.15796149 -0.24301338
-0.19107659 0.15803927 -0.24300551
-0.19107397 0.15811506 -0.24299774
-0.19107106 0.15819293 -0.24299388
-0.19106796 0.15826894 -0.24299605
-0.19106466 0.15834504 -0.24300224
-0.19106166 0.15842296 -0.24300039
-0.19105905 0.15850072 -0.24299052
-0.19105634 0.15857655 -0.24298474
-0.19105363 0.15865433 -0.24297687
-0.19105074 0.15873221 -0.24297303
-0.19104773 0.15880817 -0.24297321
-0.19104473 0.1588861 -0.24297136
-0.19104192 0.15896198 -0.24296755
-0.1910388 0.15903799 -0.24296974
-0.19103551 0.15911408 -0.24297592
-0.19103232 0.15919209 -0.24297805
-0.19102982 0.15926979 -0.2429662
-0.19102749 0.15934741 -0.24295038
-0.19102448 0.15942338 -0.24295056
-0.19102147 0.15949935 -0.24295075
-0.19101828 0.15957735 -0.24295288
-0.19101518 0.15965337 -0.24295507
-0.19101238 0.15973119 -0.24294922
-0.19100969 0.15980898 -0.24294138
-0.19100676 0.1598849 -0.24293956
-0.19100377 0.15996282 -0.24293771
-0.19100085 0.16003874 -0.2429359
-0.19099784 0.16011471 -0.24293607
-0.19099495 0.16019259 -0.24293223
-0.19099174 0.16026865 -0.24293642
-0.19098854 0.16034469 -0.2429406
-0.19098574 0.16042253 -0.24293473
-0.19098321 0.16049828 -0.24292496
-0.19098021 0.16057619 -0.2429231
-0.19097711 0.16065221 -0.24292527
-0.190974 0.16072822 -0.24292746
-0.19097091 0.16080618 -0.24292761
-0.1909681 0.16088206 -0.2429238
-0.19096558 0.16095977 -0.24291195
-0.19096296 0.16103555 -0.24290416
-0.19095996 0.16111347 -0.24290229
-0.19095686 0.16118948 -0.24290448
-0.19095375 0.16126549 -0.24290666
-0.19095036 0.16134359 -0.2429128
-0.19094765 0.16141942 -0.24290699
-0.19094504 0.16149718 -0.24289715
-0.19094232 0.16157301 -0.24289134
-0.19093943 0.16165088 -0.2428875
-0.19093642 0.16172685 -0.24288768
-0.1909333 0.16180286 -0.24288987
-0.19093041 0.16188073 -0.24288601
-0.19092779 0.16195652 -0.2428782
-0.19092567 0.16203405 -0.24285838
-0.19092268 0.16211197 -0.24285652
-0.19091898 0.16218825 -0.24287069
-0.19091578 0.1622643 -0.24287486
-0.19091296 0.16234018 -0.24287106
-0.19091035 0.16241792 -0.24286121
-0.19090794 0.16249558 -0.24284738
-0.19090532 0.16257137 -0.24283957
-0.19090313 0.1626509 -0.2428197
-0.1909007 0.1627266 -0.24280789
-0.19089642 0.16280313 -0.24283406
-0.19089261 0.1628775 -0.24285227
-0.1908903 0.16295511 -0.24283642
-0.19088769 0.16303286 -0.24282658
-0.19088429 0.163109 -0.24283475
-0.1908806 0.16318527 -0.24284893
-0.19087739 0.16326132 -0.24285311
-0.1908747 0.16333911 -0.24284527
-0.19087227 0.16341482 -0.24283347
-0.19086936 0.16349269 -0.24282961
-0.19086607 0.16356879 -0.24283579
-0.19086306 0.16364476 -0.24283597
-0.19086042 0.16372055 -0.24282818
-0.19085763 0.16379838 -0.24282232
-0.19085501 0.16387418 -0.24281453
-0.1908523 0.16395196 -0.24280667
-0.19084951 0.16402979 -0.24280083
-0.1908464 0.1641058 -0.24280301
-0.19084328 0.16418181 -0.2428052
-0.19084008 0.16425787 -0.24280939
-0.19083716 0.16433379 -0.24280757
-0.19083427 0.16441166 -0.24280371
-0.19083145 0.16448754 -0.24279991
-0.19082837 0.1645655 -0.24280004
-0.19082534 0.16464147 -0.24280024
-0.19082233 0.16471744 -0.24280041
-0.19081943 0.16479337 -0.24279861
-0.19081622 0.16486941 -0.2428028
-0.19081332 0.1649473 -0.24279894
-0.1908105 0.16502318 -0.24279514
-0.19080749 0.16509914 -0.24279532
-0.1908046 0.16517702 -0.24279147
-0.19080198 0.1652528 -0.24278367
-0.19079907 0.16533068 -0.24277982
-0.19079617 0.16540661 -0.242778
-0.19079344 0.16548245 -0.24277219
-0.19079044 0.16556036 -0.24277034
-0.19078743 0.16563633 -0.24277054
-0.19078463 0.16571416 -0.24276468
-0.19078201 0.16578995 -0.24275687
-0.19077928 0.16586579 -0.24275109
-0.19077639 0.16594367 -0.24274722
-0.19077358 0.16601954 -0.24274342
-0.19077058 0.16609746 -0.24274155
-0.19076738 0.16617352 -0.24274574
-0.19076407 0.16624962 -0.24275193
-0.19076097 0.16632563 -0.2427541
-0.19075786 0.16640164 -0.24275629
-0.19075505 0.16647947 -0.24275044
-0.19075224 0.16655535 -0.24274664
-0.19074932 0.16663127 -0.24274483
-0.19074634 0.16670918 -0.24274297
-0.19074371 0.16678499 -0.24273518
-0.19074079 0.16686091 -0.24273336
-0.19073761 0.16693892 -0.24273551
-0.19073479 0.16701479 -0.24273169
-0.19073178 0.16709076 -0.24273188
-0.19072877 0.16716672 -0.24273206
-0.19072597 0.16724455 -0.24272621
-0.19072343 0.1673203 -0.24271643
-0.19072042 0.16739626 -0.24271661
-0.19071704 0.16747436 -0.24272275
-0.19071423 0.16755025 -0.24271894
-0.1907116 0.16762604 -0.24271113
-0.19070888 0.16770187 -0.24270532
-0.19070637 0.16777956 -0.24269348
-0.19070356 0.16785546 -0.24268967
-0.19070025 0.16793154 -0.24269585
-0.19069725 0.16800947 -0.24269399
-0.19069444 0.16808535 -0.24269021
-0.19069181 0.16816114 -0.2426824
-0.19068892 0.16823901 -0.24267854
-0.19068553 0.16831516 -0.24268672
-0.1906826 0.16839108 -0.2426849
-0.19067988 0.16846691 -0.24267909
-0.19067687 0.16854288 -0.2426793
-0.19067417 0.16862068 -0.24267143
-0.19067135 0.16869655 -0.24266765
-0.19066808 0.1687746 -0.24267176
-0.19066535 0.16885044 -0.24266596
-0.19066282 0.16892618 -0.24265617
-0.19066003 0.16900401 -0.24265032
-0.190657 0.16907997 -0.24265051
-0.19065399 0.16915594 -0.24265069
-0.19065118 0.16923183 -0.24264689
-0.19064826 0.16930775 -0.24264508
-0.19064528 0.16938567 -0.24264321
-0.19064245 0.16946155 -0.24263942
-0.19063936 0.16953951 -0.24263954
-0.19063665 0.16961534 -0.24263375
-0.19063362 0.16969131 -0.24263394
-0.19063042 0.16976736 -0.24263811
-0.19062752 0.16984329 -0.24263631
-0.1906248 0.16992107 -0.24262846
-0.19062209 0.16999692 -0.24262266
-0.19061947 0.1700727 -0.24261487
-0.19061647 0.17015062 -0.242613
-0.19061346 0.17022659 -0.2426132
-0.19061093 0.17030233 -0.24260339
-0.1906082 0.17037818 -0.24259758
-0.19060472 0.17045435 -0.24260776
-0.19060114 0.17053254 -0.24261789
-0.19059832 0.17060842 -0.24261409
-0.19059618 0.17068399 -0.2425963
-0.19059357 0.17076173 -0.24258645
-0.19059017 0.17083788 -0.24259463
-0.19058716 0.17091385 -0.24259481
-0.19058435 0.17098972 -0.24259101
-0.19058174 0.17106746 -0.24258116
-0.19057959 0.17114304 -0.24256337
-0.19057716 0.17121874 -0.24255158
-0.19057426 0.17129466 -0.24254978
-0.19057144 0.17137055 -0.24254596
-0.19056864 0.17144838 -0.24254012
-0.19056621 0.17152408 -0.24252832
-0.19056378 0.17159979 -0.24251652
-0.19056137 0.17167744 -0.24250269
-0.19055855 0.17175332 -0.24249887
-0.19055447 0.17182977 -0.24252103
-0.19055077 0.17190604 -0.2425352
-0.19054845 0.17198171 -0.24252141
-0.19054642 0.17205918 -0.24249959
-0.19054389 0.17213494 -0.24248978
-0.19054088 0.1722109 -0.24248996
-0.19053768 0.17228694 -0.24249415
-0.19053449 0.17236497 -0.24249628
-0.19053099 0.17244114 -0.24250646
-0.1905275 0.17251733 -0.24251664
-0.1905244 0.17259529 -0.24251679
-0.19052169 0.17267112 -0.24251097
-0.19051906 0.17274693 -0.24250317
-0.19051644 0.17282271 -0.24249537
-0.19051361 0.17289859 -0.24249157
-0.19051072 0.17297646 -0.24248771
-0.19050771 0.17305243 -0.24248791
-0.1905047 0.1731284 -0.24248809
-0.19050217 0.17320414 -0.24247828
-0.19049916 0.1732801 -0.24247849
-0.19049607 0.17335808 -0.24247861
-0.19049257 0.17343426 -0.2424888
-0.19048868 0.17351063 -0.24250695
-0.19048588 0.17358845 -0.24250111
-0.19048326 0.17366424 -0.2424933
-0.19047977 0.17374043 -0.24250346
-0.19047607 0.17381671 -0.24251765
-0.19047335 0.17389254 -0.24251184
-0.19047095 0.17397019 -0.242498
-0.19046861 0.17404586 -0.24248421
-0.19046618 0.17412156 -0.24247241
-0.19046317 0.17419752 -0.2424726
-0.19045979 0.17427562 -0.24247873
-0.19045678 0.17435159 -0.24247892
-0.19045396 0.17442746 -0.24247512
-0.19045116 0.17450529 -0.24246927
-0.19044854 0.1745811 -0.24246147
-0.19044562 0.17465702 -0.24245965
-0.19044222 0.17473316 -0.24246784
-0.19043872 0.17480934 -0.242478
-0.19043572 0.17488725 -0.24247614
-0.19043329 0.17496297 -0.24246435
-0.19043019 0.17503898 -0.24246654
-0.19042701 0.17511699 -0.24246868
-0.19042458 0.17519268 -0.24245688
-0.19042166 0.17526861 -0.24245507
-0.19041826 0.17534475 -0.24246325
-0.19041534 0.17542067 -0.24246144
-0.19041254 0.1754985 -0.24245559
-0.19040972 0.17557439 -0.24245179
-0.1904072 0.17565013 -0.24244198
-0.19040418 0.1757261 -0.24244216
-0.19040081 0.1758042 -0.2424483
-0.19039789 0.17588012 -0.24244648
-0.19039536 0.17595586 -0.24243669
-0.19039227 0.17603382 -0.24243683
-0.19038896 0.17610992 -0.24244303
-0.19038606 0.17618585 -0.24244121
-0.19038333 0.17626168 -0.2424354
-0.1903808 0.17633744 -0.24242561
-0.19037791 0.17641531 -0.24242175
-0.19037499 0.17649123 -0.24241994
-0.19037208 0.17656715 -0.24241814
-0.19036889 0.17664516 -0.24242026
-0.19036597 0.17672108 -0.24241845
-0.19036315 0.17679696 -0.24241465
-0.19036005 0.17687297 -0.24241683
-0.19035667 0.17695107 -0.24242297
-0.19035414 0.17702681 -0.24241316
-0.19035161 0.17710257 -0.24240337
-0.1903486 0.17717853 -0.24240357
-0.19034578 0.17725441 -0.24239975
-0.19034278 0.17733233 -0.2423979
-0.1903393 0.17740852 -0.24240807
-0.19033456 0.17748722 -0.24244216
-0.19032924 0.1775662 -0.24248824
-0.19032258 0.17764774 -0.24256024
-0.19031638 0.1777271 -0.24262428
-0.19031155 0.17780586 -0.24266037
-0.1903042 0.17788771 -0.24274634
-0.19029842 0.17796886 -0.24280035
-0.19146121 0.14795147 -0.24330537
-0.1914577 0.14802766 -0.24331555
-0.19145438 0.14810181 -0.24332377
-0.19145109 0.14817791 -0.24332994
-0.19144817 0.14825383 -0.24332814
-0.19144568 0.14833347 -0.24331425
-0.19144279 0.14841135 -0.24331039
-0.19144018 0.1484891 -0.24330056
-0.19143726 0.14856502 -0.24329874
-0.19143397 0.14864112 -0.24330492
-0.19143075 0.14871718 -0.24330911
-0.19142805 0.14879496 -0.24330126
-0.19142474 0.14887106 -0.24330744
-0.19142164 0.14894708 -0.24330962
-0.19141893 0.14902486 -0.24330178
-0.19141604 0.14910273 -0.24329792
-0.19141293 0.14917874 -0.24330011
-0.19140992 0.14925471 -0.24330029
-0.19140694 0.14933264 -0.24329844
-0.19140403 0.14941052 -0.24329458
-0.19140212 0.14948991 -0.2432687
-0.19139923 0.14956778 -0.24326485
-0.19139631 0.1496437 -0.24326305
-0.19139372 0.14972144 -0.2432532
-0.19139041 0.14979754 -0.24325939
-0.1913873 0.14987355 -0.24326158
-0.19138411 0.14995156 -0.24326371
-0.19138148 0.15002736 -0.2432559
-0.1913791 0.15010697 -0.24324001
-0.19137602 0.15018493 -0.24324016
-0.19137289 0.15025899 -0.24324438
-0.19136979 0.15033695 -0.24324453
-0.19136688 0.15041287 -0.24324273
-0.19136398 0.15049075 -0.24323887
-0.19136088 0.15056676 -0.24324104
-0.19135766 0.15064281 -0.24324524
-0.19135518 0.15072247 -0.24323136
-0.19135277 0.15080012 -0.2432175
-0.19134995 0.150876 -0.24321371
-0.19134676 0.15095401 -0.24321583
-0.19134407 0.15103181 -0.24320799
-0.19134085 0.15110786 -0.24321216
-0.19133745 0.15118399 -0.24322036
-0.19133464 0.15125987 -0.24321654
-0.19133186 0.15133967 -0.24320865
-0.19132864 0.15141572 -0.24321282
-0.19132555 0.15149173 -0.24321502
-0.19132313 0.15156938 -0.24320117
-0.19132012 0.15164535 -0.24320138
-0.19131723 0.15172324 -0.2431975
-0.19131443 0.15180106 -0.24319166
-0.19131131 0.15187708 -0.24319384
-0.19130792 0.15195322 -0.24320203
-0.19130471 0.15202928 -0.2432062
-0.19130231 0.15210888 -0.24319032
-0.19129972 0.15218662 -0.24318047
-0.1912967 0.1522626 -0.24318066
-0.1912933 0.15233873 -0.24318883
-0.19129021 0.15241669 -0.24318898
-0.1912874 0.15249258 -0.24318516
-0.19128469 0.15257037 -0.24317732
-0.1912819 0.1526482 -0.24317148
-0.1912789 0.15272611 -0.24316962
-0.19127589 0.15280208 -0.2431698
-0.19127269 0.15287814 -0.24317399
-0.1912697 0.15295605 -0.24317212
-0.19126678 0.15303198 -0.24317032
-0.19126397 0.15310982 -0.24316446
-0.19126128 0.1531876 -0.24315661
-0.19125839 0.15326548 -0.24315277
-0.19125557 0.15334135 -0.24314895
-0.19125266 0.15341924 -0.24314511
-0.19124965 0.15349519 -0.24314529
-0.19124657 0.15357317 -0.24314544
-0.19124356 0.15364914 -0.24314561
-0.19124065 0.15372701 -0.24314177
-0.19123755 0.15380302 -0.24314395
-0.19123465 0.15388089 -0.2431401
-0.19123194 0.15395673 -0.24313429
-0.19122894 0.15403464 -0.24313244
-0.19122605 0.15411253 -0.2431286
-0.19122334 0.15419032 -0.24312073
-0.19122024 0.15426633 -0.24312292
-0.19121702 0.15434238 -0.24312711
-0.19121423 0.15442021 -0.24312125
-0.19121163 0.15449795 -0.2431114
-0.19120912 0.15457566 -0.24309957
-0.19120613 0.15465358 -0.24309771
-0.19120301 0.15472959 -0.2430999
-0.1911999 0.1548056 -0.24310207
-0.19119692 0.15488352 -0.24310023
-0.19119431 0.15496126 -0.24309038
-0.19119149 0.15503715 -0.24308658
-0.19118829 0.15511319 -0.24309075
-0.191185 0.15519124 -0.24309489
-0.19118229 0.15526709 -0.24308908
-0.19117948 0.15534492 -0.24308324
-0.19117649 0.15542284 -0.24308138
-0.19117367 0.15549871 -0.24307758
-0.19117078 0.15557659 -0.2430737
-0.19116767 0.1556526 -0.24307591
-0.19116448 0.15573061 -0.24307804
-0.19116187 0.15580836 -0.24306819
-0.19115897 0.15588428 -0.24306637
-0.19115546 0.15596047 -0.24307656
-0.19115245 0.15603644 -0.24307674
-0.19114955 0.15611431 -0.2430729
-0.19114676 0.15619214 -0.24306704
-0.19114414 0.15626793 -0.24305925
-0.19114146 0.15634768 -0.24304935
-0.19113892 0.15642342 -0.24303955
-0.19113573 0.15650143 -0.24304169
-0.19113253 0.15657748 -0.24304587
-0.19112961 0.1566534 -0.24304406
-0.19112672 0.15673128 -0.2430402
-0.19112352 0.15680733 -0.24304438
-0.19112033 0.15688534 -0.24304652
-0.19111751 0.15696122 -0.24304272
-0.19111481 0.15703902 -0.24303487
-0.19111191 0.15711689 -0.24303102
-0.1911092 0.15719272 -0.24302521
-0.19110648 0.15727051 -0.24301738
-0.1911034 0.15734848 -0.24301749
-0.19109999 0.15742266 -0.24302773
-0.19109708 0.15750054 -0.24302387
-0.19109449 0.15757829 -0.24301404
-0.19109158 0.15765616 -0.24301016
-0.19108887 0.15773199 -0.24300438
-0.19108585 0.15780796 -0.24300456
-0.19108248 0.15788606 -0.2430107
-0.19107936 0.15796207 -0.24301288
-0.19107667 0.15803985 -0.24300504
-0.19107403 0.15811566 -0.24299723
-0.19107114 0.15819353 -0.24299338
-0.19106802 0.15826954 -0.24299556
-0.19106473 0.15834564 -0.24300173
-0.19106163 0.1584236 -0.24300188
-0.19105904 0.15850134 -0.24299204
-0.19105642 0.15857713 -0.24298424
-0.19105361 0.15865497 -0.24297839
-0.19105081 0.1587328 -0.24297252
-0.1910477 0.15880881 -0.24297473
-0.19104481 0.15888669 -0.24297085
-0.19104199 0.15896256 -0.24296705
-0.19103868 0.15903866 -0.24297324
-0.19103558 0.15911467 -0.24297541
-0.19103239 0.15919268 -0.24297756
-0.19102988 0.15927039 -0.24296571
-0.19102748 0.15934804 -0.24295187
-0.19102456 0.15942396 -0.24295007
-0.19102155 0.15949993 -0.24295026
-0.19101836 0.15957794 -0.24295239
-0.19101535 0.1596539 -0.24295259
-0.19101246 0.15973178 -0.24294873
-0.19100975 0.15980957 -0.24294087
-0.19100684 0.1598855 -0.24293907
-0.19100383 0.15996146 -0.24293926
-0.19100083 0.16003938 -0.2429374
-0.19099791 0.1601153 -0.2429356
-0.19099502 0.16019318 -0.24293174
-0.19099163 0.16026932 -0.24293992
-0.19098851 0.16034533 -0.24294209
-0.19098581 0.16042311 -0.24293426
-0.19098337 0.16049883 -0.24292246
-0.19098039 0.16057675 -0.24292061
-0.19097728 0.16065276 -0.24292278
-0.19097407 0.16072881 -0.24292696
-0.19097097 0.16080678 -0.2429271
-0.19096816 0.16088265 -0.24292329
-0.19096556 0.16096039 -0.24291345
-0.19096303 0.16103615 -0.24290365
-0.19095995 0.16111411 -0.2429038
-0.19095683 0.16119012 -0.24290597
-0.19095372 0.16126613 -0.24290816
-0.19095033 0.16134423 -0.2429143
-0.19094762 0.16142006 -0.24290851
-0.19094501 0.1614978 -0.24289864
-0.19094239 0.16157359 -0.24289085
-0.1909394 0.16165151 -0.24288899
-0.19093639 0.16172749 -0.24288918
-0.19093338 0.16180345 -0.24288937
-0.19093049 0.16188133 -0.24288552
-0.19092785 0.16195711 -0.24287772
-0.19092564 0.16203469 -0.24285987
-0.19092265 0.16211261 -0.24285802
-0.19091906 0.16218883 -0.24287018
-0.19091584 0.16226488 -0.24287438
-0.19091302 0.16234076 -0.24287057
-0.19091052 0.16241847 -0.24285874
-0.19090801 0.16249616 -0.24284688
-0.19090548 0.16257192 -0.24283709
-0.19090319 0.16265148 -0.2428192
-0.19090056 0.16272728 -0.24281141
-0.19089636 0.16280182 -0.24283761
-0.19089258 0.16287813 -0.24285376
-0.19089027 0.16295575 -0.24283794
-0.19088776 0.16303344 -0.24282609
-0.19088446 0.16310954 -0.24283227
-0.19088076 0.16318582 -0.24284643
-0.19087756 0.16326188 -0.24285063
-0.19087476 0.1633397 -0.24284476
-0.19087233 0.1634154 -0.24283297
-0.19086944 0.16349329 -0.24282911
-0.19086604 0.16356942 -0.24283729
-0.19086312 0.16364534 -0.24283549
-0.19086051 0.1637231 -0.24282564
-0.19085769 0.16379897 -0.24282184
-0.19085498 0.1638748 -0.24281603
-0.19085237 0.16395256 -0.2428062
-0.19084957 0.16403039 -0.24280034
-0.19084646 0.1641064 -0.24280253
-0.19084316 0.16418248 -0.2428087
-0.19084014 0.16425847 -0.24280889
-0.19083723 0.16433439 -0.24280709
-0.19083424 0.1644123 -0.24280523
-0.19083142 0.16448818 -0.24280141
-0.19082834 0.16456614 -0.24280155
-0.19082531 0.16464211 -0.24280174
-0.1908223 0.16471808 -0.24280193
-0.1908194 0.164794 -0.24280012
-0.19081628 0.16487001 -0.24280232
-0.19081339 0.16494788 -0.24279845
-0.19081056 0.16502376 -0.24279465
-0.19080755 0.16509973 -0.24279484
-0.19080475 0.16517757 -0.24278899
-0.19080213 0.16525336 -0.24278119
-0.19079904 0.16533132 -0.24278133
-0.19079612 0.16540724 -0.24277952
-0.19079341 0.16548307 -0.24277371
-0.1907905 0.16556096 -0.24276987
-0.1907876 0.16563688 -0.24276805
-0.19078469 0.16571476 -0.2427642
-0.19078207 0.16579054 -0.2427564
-0.19077925 0.16586642 -0.24275258
-0.19077636 0.16594429 -0.24274874
-0.19077364 0.16602014 -0.24274293
-0.19077055 0.1660981 -0.24274307
-0.19076724 0.1661742 -0.24274924
-0.19076404 0.16625024 -0.24275343
-0.19076103 0.16632621 -0.24275362
-0.19075792 0.16640222 -0.2427558
-0.19075492 0.16648015 -0.24275395
-0.19075221 0.16655599 -0.24274814
-0.19074939 0.16663186 -0.24274434
-0.19074659 0.16670969 -0.24273849
-0.19074386 0.16678552 -0.24273267
-0.19074085 0.16686149 -0.24273288
-0.19073774 0.1669375 -0.24273506
-0.19073485 0.16701537 -0.24273121
-0.19073193 0.16709131 -0.2427294
-0.19072883 0.16716731 -0.24273157
-0.19072603 0.16724515 -0.24272573
-0.1907234 0.16732094 -0.24271792
-0.19072039 0.1673969 -0.24271812
-0.1907171 0.16747496 -0.24272226
-0.19071428 0.16755083 -0.24271844
-0.19071166 0.16762662 -0.24271065
-0.19070886 0.16770446 -0.24270479
-0.19070643 0.16778016 -0.24269301
-0.19070362 0.16785604 -0.24268919
-0.19070022 0.16793218 -0.24269737
-0.19069722 0.1680101 -0.24269551
-0.1906945 0.16808593 -0.24268971
-0.19069187 0.16816173 -0.24268191
-0.19068888 0.16823965 -0.24268004
-0.19068548 0.16831578 -0.24268824
-0.19068258 0.16839172 -0.24268642
-0.19067985 0.16846755 -0.24268061
-0.19067693 0.16854347 -0.24267881
-0.19067423 0.16862126 -0.24267095
-0.19067131 0.16869718 -0.24266914
-0.19066814 0.16877519 -0.24267128
-0.1906655 0.16885097 -0.24266349
-0.19066288 0.16892678 -0.24265569
-0.19065998 0.16900465 -0.24265182
-0.19065706 0.16908057 -0.24265002
-0.19065405 0.16915654 -0.24265021
-0.19065124 0.16923241 -0.2426464
-0.19064832 0.16930833 -0.24264459
-0.19064534 0.16938625 -0.24264273
-0.19064242 0.16946217 -0.24264093
-0.19063933 0.16954015 -0.24264106
-0.19063669 0.16961594 -0.24263327
-0.19063368 0.16969191 -0.24263346
-0.19063048 0.16976796 -0.24263763
-0.19062756 0.16984388 -0.24263583
-0.19062477 0.16992171 -0.24262998
-0.19062215 0.1699975 -0.24262218
-0.19061962 0.17007326 -0.24261238
-0.19061662 0.17015117 -0.24261051
-0.19061351 0.17022718 -0.2426127
-0.19061099 0.17030293 -0.24260291
-0.19060817 0.1703788 -0.2425991
-0.19060467 0.17045499 -0.24260929
-0.1906011 0.17053318 -0.2426194
-0.19059828 0.17060906 -0.24261561
-0.19059624 0.17068458 -0.24259582
-0.19059354 0.17076237 -0.24258795
-0.19059023 0.17083848 -0.24259415
-0.19058712 0.17091449 -0.24259633
-0.19058441 0.17099032 -0.24259052
-0.1905818 0.17106806 -0.24258068
-0.19057965 0.17114364 -0.24256289
-0.19057722 0.17121933 -0.2425511
-0.19057432 0.17129526 -0.2425493
-0.19057149 0.17137113 -0.24254549
-0.1905687 0.17144896 -0.24253964
-0.19056627 0.17152467 -0.24252784
-0.19056374 0.17160042 -0.24251804
-0.19056132 0.17167808 -0.24250421
-0.19055851 0.17175396 -0.24250039
-0.19055434 0.17183045 -0.24252455
-0.19055064 0.17190672 -0.24253872
-0.19054849 0.17198229 -0.24252093
-0.19054657 0.17205973 -0.2424971
-0.19054395 0.17213552 -0.24248931
-0.19054084 0.17221153 -0.24249148
-0.19053774 0.17228754 -0.24249367
-0.19053464 0.1723655 -0.24249381
-0.19053124 0.17244165 -0.24250199
-0.19052774 0.17251784 -0.24251217
-0.19052456 0.17259584 -0.24251431
-0.19052164 0.17267177 -0.24251249
-0.19051911 0.17274751 -0.24250269
-0.19051649 0.17282329 -0.2424949
-0.19051386 0.1728991 -0.2424871
-0.19051097 0.17297697 -0.24248324
-0.19050796 0.17305294 -0.24248344
-0.19050494 0.1731289 -0.24248362
-0.19050232 0.17320469 -0.24247582
-0.19049931 0.17328066 -0.242476
-0.19049612 0.17335866 -0.24247813
-0.19049263 0.17343485 -0.24248832
-0.19048893 0.17351113 -0.24250248
-0.19048575 0.17358914 -0.24250463
-0.19048312 0.17366493 -0.24249682
-0.19047953 0.17374116 -0.24250899
-0.19047603 0.17381734 -0.24251917
-0.1904735 0.17389309 -0.24250937
-0.19047119 0.1739707 -0.24249354
-0.19046886 0.17404637 -0.24247974
-0.19046623 0.17412215 -0.24247193
-0.19046322 0.17419812 -0.24247213
-0.19045974 0.17427626 -0.24248025
-0.19045693 0.17435214 -0.24247645
-0.19045411 0.17442802 -0.24247265
-0.19045112 0.17450593 -0.24247079
-0.19044849 0.17458172 -0.24246299
-0.19044568 0.1746576 -0.24245918
-0.19044226 0.17473374 -0.24246736
-0.19043867 0.17480998 -0.24247953
-0.19043578 0.17488785 -0.24247567
-0.19043344 0.17496352 -0.24246189
-0.19043024 0.17503956 -0.24246606
-0.19042705 0.17511758 -0.24246821
-0.19042462 0.17519328 -0.24245641
-0.1904217 0.1752692 -0.24245459
-0.1904183 0.17534535 -0.24246278
-0.1904154 0.17542127 -0.24246097
-0.19041249 0.17549914 -0.24245712
-0.19040968 0.17557502 -0.24245331
-0.19040716 0.17565076 -0.2424435
-0.19040413 0.17572673 -0.2424437
-0.19040075 0.17580482 -0.24244982
-0.19039793 0.1758807 -0.24244602
-0.19039541 0.17595646 -0.24243623
-0.19039232 0.17603442 -0.24243636
-0.19038902 0.17611052 -0.24244255
-0.1903861 0.17618644 -0.24244073
-0.19038318 0.17626236 -0.24243893
-0.19038066 0.17633811 -0.24242914
-0.19037786 0.17641594 -0.24242327
-0.19037504 0.17649183 -0.24241948
-0.19037212 0.17656775 -0.24241766
-0.19036894 0.17664576 -0.24241979
-0.19036593 0.17672172 -0.24241999
-0.19036311 0.1767976 -0.24241617
-0.19035999 0.17687361 -0.24241836
-0.19035652 0.17695175 -0.24242648
-0.19035418 0.1770274 -0.2424127
-0.19035167 0.17710315 -0.24240291
-0.19034855 0.17717916 -0.24240509
-0.19034582 0.177255 -0.24239928
-0.19034284 0.17733292 -0.24239743
-0.19033934 0.1774091 -0.24240761
-0.1903346 0.17748782 -0.2424417
-0.19032937 0.17756674 -0.24248578
-0.19032243 0.17764841 -0.24256375
-0.19031633 0.17772774 -0.2426258
-0.1903116 0.17780645 -0.2426599
-0.19030386 0.17788847 -0.24275386
-0.19029886 0.17796928 -0.24279189
-0.19146094 0.14794824 -0.24331449
-0.19145763 0.14802432 -0.24332067
-0.19145422 0.14809851 -0.2433309
-0.19145091 0.14817461 -0.24333706
-0.19144771 0.14825067 -0.24334127
-0.19144522 0.14833033 -0.24332736
-0.19144271 0.14840803 -0.24331552
-0.19144021 0.14848572 -0.24330369
-0.19143721 0.14856364 -0.24330182
-0.19143382 0.14863978 -0.24331
-0.19143058 0.14871389 -0.24331623
-0.19142781 0.14879367 -0.24330834
-0.19142458 0.14886777 -0.24331456
-0.19142148 0.14894378 -0.24331674
-0.1914186 0.14902362 -0.24331084
-0.19141579 0.1490995 -0.24330702
-0.19141257 0.14917555 -0.24331123
-0.19140947 0.14925157 -0.2433134
-0.19140656 0.14932944 -0.24330956
-0.19140378 0.14940727 -0.2433037
-0.19140157 0.1494868 -0.24328381
-0.19139878 0.14956462 -0.24327797
-0.19139607 0.14964241 -0.24327013
-0.19139348 0.14972016 -0.24326028
-0.19139017 0.14979625 -0.24326646
-0.19138706 0.14987226 -0.24326864
-0.19138396 0.14994828 -0.24327083
-0.19138135 0.15002602 -0.24326098
-0.19137895 0.15010563 -0.2432451
-0.19137605 0.15018156 -0.24324328
-0.19137265 0.15025769 -0.24325146
-0.19136955 0.15033565 -0.24325161
-0.19136673 0.15041155 -0.24324779
-0.19136383 0.15048747 -0.24324599
-0.19136073 0.15056543 -0.24324614
-0.19135752 0.15064149 -0.24325031
-0.19135483 0.15071927 -0.24324247
-0.19135241 0.15079692 -0.24322861
-0.19134961 0.15087476 -0.24322277
-0.19134651 0.15095077 -0.24322495
-0.1913439 0.15102851 -0.24321511
-0.19134052 0.15110661 -0.24322125
-0.19133709 0.1511808 -0.24323148
-0.19133431 0.15125863 -0.2432256
-0.19133179 0.15133633 -0.24321377
-0.19132859 0.15141238 -0.24321795
-0.19132529 0.15148848 -0.24322414
-0.19132268 0.15156624 -0.24321428
-0.19131979 0.15164411 -0.24321043
-0.1913168 0.15172203 -0.24320859
-0.19131407 0.15179786 -0.24320278
-0.19131118 0.15187573 -0.24319892
-0.19130787 0.15195183 -0.2432051
-0.19130448 0.15202798 -0.24321327
-0.19130197 0.15210569 -0.24320143
-0.19129957 0.15218529 -0.24318555
-0.19129637 0.15226135 -0.24318972
-0.19129297 0.15233749 -0.24319792
-0.19129024 0.15241332 -0.24319211
-0.19128726 0.15249124 -0.24319026
-0.19128455 0.15256903 -0.24318239
-0.19128177 0.15264687 -0.24317655
-0.19127876 0.15272284 -0.24317673
-0.19127554 0.15279889 -0.24318092
-0.19127236 0.1528769 -0.24318305
-0.19126953 0.15295278 -0.24317926
-0.19126655 0.15303069 -0.2431774
-0.19126384 0.15310848 -0.24316955
-0.19126114 0.15318626 -0.24316169
-0.19125833 0.15326215 -0.24315789
-0.19125544 0.15334003 -0.24315403
-0.19125244 0.15341794 -0.24315217
-0.19124943 0.15349391 -0.24315238
-0.19124642 0.15356988 -0.24315256
-0.19124323 0.15364788 -0.2431547
-0.1912405 0.15372372 -0.24314889
-0.19123742 0.15380168 -0.24314903
-0.19123462 0.15387952 -0.24314319
-0.1912318 0.1539554 -0.24313937
-0.19122881 0.15403332 -0.24313751
-0.19122601 0.15411115 -0.24313167
-0.19122322 0.15418898 -0.24312581
-0.19122 0.15426503 -0.24313
-0.1912168 0.15434109 -0.24313417
-0.19121401 0.15441893 -0.24312833
-0.1912114 0.15449667 -0.24311848
-0.1912089 0.15457436 -0.24310663
-0.19120607 0.15465024 -0.24310283
-0.19120297 0.15472625 -0.24310502
-0.19119978 0.15480426 -0.24310717
-0.19119677 0.15488023 -0.24310735
-0.19119418 0.15495993 -0.24309546
-0.19119146 0.15503576 -0.24308965
-0.19118816 0.15511186 -0.24309583
-0.19118488 0.15518992 -0.24309996
-0.19118206 0.15526579 -0.24309616
-0.19117926 0.15534362 -0.2430903
-0.19117625 0.15541959 -0.2430905
-0.19117345 0.15549743 -0.24308464
-0.19117056 0.15557531 -0.24308079
-0.19116735 0.15565136 -0.24308497
-0.19116443 0.15572728 -0.24308316
-0.19116174 0.15580507 -0.24307531
-0.19115864 0.15588303 -0.24307546
-0.19115543 0.15595908 -0.24307963
-0.19115223 0.15603514 -0.24308382
-0.19114934 0.15611301 -0.24307996
-0.19114661 0.15618886 -0.24307416
-0.19114392 0.15626664 -0.24306631
-0.19114122 0.15634443 -0.24305847
-0.19113861 0.15642218 -0.24304861
-0.19113553 0.15650015 -0.24304876
-0.19113241 0.15657616 -0.24305093
-0.19112949 0.15665208 -0.24304913
-0.1911265 0.15673 -0.24304727
-0.1911232 0.1568061 -0.24305347
-0.1911201 0.15688406 -0.2430536
-0.19111739 0.15695989 -0.2430478
-0.19111459 0.15703772 -0.24304195
-0.19111167 0.15711364 -0.24304014
-0.19110888 0.15719149 -0.24303429
-0.19110627 0.15726922 -0.24302444
-0.19110316 0.15734524 -0.24302661
-0.19109967 0.15742142 -0.24303681
-0.19109657 0.15749939 -0.24303694
-0.19109415 0.15757509 -0.24302515
-0.19109145 0.15765288 -0.2430173
-0.19108875 0.15773067 -0.24300945
-0.19108564 0.15780668 -0.24301162
-0.19108233 0.15788278 -0.24301782
-0.19107924 0.15796074 -0.24301794
-0.19107655 0.15803853 -0.2430101
-0.19107392 0.15811431 -0.2430023
-0.19107093 0.15819223 -0.24300045
-0.19106781 0.15826824 -0.24300262
-0.19106461 0.1583443 -0.24300681
-0.19106142 0.15842231 -0.24300894
-0.1910588 0.15849811 -0.24300116
-0.1910561 0.15857589 -0.2429933
-0.1910533 0.15865372 -0.24298745
-0.19105057 0.15872955 -0.24298164
-0.19104759 0.15880749 -0.24297979
-0.19104478 0.15888336 -0.24297598
-0.19104168 0.15896133 -0.24297613
-0.19103847 0.15903738 -0.2429803
-0.19103546 0.15911335 -0.2429805
-0.19103228 0.15919136 -0.24298263
-0.19102965 0.15926714 -0.24297483
-0.19102724 0.15934479 -0.24296099
-0.19102424 0.15942273 -0.24295914
-0.19102143 0.1594986 -0.24295533
-0.19101825 0.15957661 -0.24295747
-0.19101514 0.15965262 -0.24295965
-0.19101232 0.1597285 -0.24295585
-0.19100952 0.15980633 -0.24294999
-0.19100651 0.15988229 -0.24295019
-0.19100341 0.15996026 -0.24295032
-0.1910006 0.16003613 -0.24294652
-0.1909977 0.16011402 -0.24294266
-0.19099471 0.16019194 -0.24294081
-0.19099139 0.16026607 -0.24294902
-0.1909883 0.16034403 -0.24294917
-0.19098569 0.16042179 -0.24293932
-0.19098318 0.16049753 -0.24292952
-0.19098018 0.16057545 -0.24292767
-0.19097707 0.16065146 -0.24292985
-0.19097397 0.16072747 -0.24293205
-0.19097085 0.16080348 -0.24293423
-0.19096805 0.16088131 -0.24292837
-0.19096544 0.16095906 -0.24291852
-0.19096273 0.1610349 -0.24291274
-0.19095963 0.16111286 -0.24291286
-0.19095643 0.16118892 -0.24291705
-0.19095333 0.16126493 -0.24291924
-0.19095011 0.16134098 -0.24292341
-0.19094732 0.16141881 -0.24291757
-0.19094472 0.16149656 -0.24290772
-0.19094209 0.16157235 -0.24289992
-0.19093928 0.16164823 -0.24289611
-0.19093609 0.16172624 -0.24289826
-0.19093308 0.1618022 -0.24289843
-0.19093017 0.16188008 -0.24289459
-0.19092755 0.16195586 -0.24288678
-0.19092534 0.16203344 -0.24286896
-0.19092254 0.16211127 -0.24286309
-0.19091892 0.16218555 -0.24287732
-0.19091554 0.16226365 -0.24288344
-0.19091283 0.16233948 -0.24287765
-0.19091041 0.16241714 -0.2428638
-0.19090791 0.16249484 -0.24285197
-0.19090538 0.16257058 -0.24284217
-0.19090317 0.16264816 -0.24282433
-0.19090037 0.16272599 -0.24281847
-0.19089617 0.16280052 -0.24284467
-0.19089238 0.16287684 -0.24286085
-0.19088997 0.16295449 -0.242847
-0.19088766 0.16303211 -0.24283117
-0.19088435 0.16310821 -0.24283734
-0.19088067 0.16318448 -0.24285151
-0.19087745 0.16326053 -0.2428557
-0.19087474 0.16333637 -0.24284989
-0.19087224 0.16341408 -0.24283805
-0.19086933 0.16349195 -0.2428342
-0.19086604 0.16356805 -0.24284038
-0.19086312 0.16364397 -0.24283856
-0.19086058 0.16371971 -0.24282876
-0.19085769 0.1637976 -0.24282491
-0.19085488 0.16387348 -0.2428211
-0.19085218 0.16395126 -0.24281326
-0.19084936 0.16402714 -0.24280946
-0.19084634 0.16410311 -0.24280964
-0.19084287 0.16418125 -0.24281776
-0.19083995 0.16425717 -0.24281596
-0.19083694 0.16433313 -0.24281615
-0.19083405 0.16441101 -0.24281229
-0.19083123 0.16448689 -0.24280849
-0.19082822 0.16456287 -0.24280867
-0.19082512 0.16464083 -0.24280882
-0.19082211 0.1647168 -0.242809
-0.1908191 0.16479276 -0.24280919
-0.1908159 0.16486882 -0.24281338
-0.190813 0.16494669 -0.24280952
-0.19081028 0.16502252 -0.24280372
-0.19080736 0.16509844 -0.2428019
-0.19080466 0.16517623 -0.24279407
-0.19080204 0.16525203 -0.24278626
-0.19079895 0.16532999 -0.24278641
-0.19079594 0.16540596 -0.24278659
-0.19079331 0.16548175 -0.24277878
-0.19079052 0.16555957 -0.24277294
-0.19078751 0.16563554 -0.24277312
-0.19078451 0.16571346 -0.24277127
-0.19078189 0.16578926 -0.24276346
-0.19077906 0.16586514 -0.24275966
-0.19077608 0.16594306 -0.2427578
-0.19077335 0.16601889 -0.242752
-0.19077034 0.16609485 -0.24275219
-0.19076695 0.166171 -0.24276036
-0.19076365 0.16624905 -0.2427645
-0.19076064 0.16632502 -0.24276468
-0.19075754 0.16640103 -0.24276687
-0.19075483 0.16647881 -0.24275902
-0.19075212 0.16655464 -0.24275321
-0.1907492 0.16663057 -0.24275142
-0.19074631 0.16670845 -0.24274756
-0.19074358 0.16678429 -0.24274176
-0.19074076 0.16686016 -0.24273795
-0.19073765 0.16693617 -0.24274014
-0.19073467 0.16701409 -0.24273828
-0.19073175 0.16709001 -0.24273647
-0.19072863 0.16716602 -0.24273865
-0.19072585 0.16724385 -0.24273281
-0.19072331 0.16731961 -0.242723
-0.1907203 0.16739558 -0.2427232
-0.190717 0.16747168 -0.24272937
-0.19071411 0.16754955 -0.24272552
-0.19071148 0.16762534 -0.24271771
-0.19070876 0.16770117 -0.2427119
-0.19070634 0.16777883 -0.24269807
-0.19070344 0.16785476 -0.24269626
-0.19070004 0.1679309 -0.24270445
-0.19069713 0.16800877 -0.24270059
-0.19069432 0.16808465 -0.24269678
-0.19069169 0.16816044 -0.24268898
-0.1906888 0.16823831 -0.24268512
-0.19068541 0.16831446 -0.24269331
-0.19068249 0.16839038 -0.24269149
-0.19067967 0.16846626 -0.24268769
-0.19067675 0.16854218 -0.24268588
-0.19067405 0.16861998 -0.24267803
-0.19067124 0.16869585 -0.24267423
-0.19066794 0.1687739 -0.24267836
-0.19066523 0.16884974 -0.24267256
-0.1906628 0.16892543 -0.24266076
-0.1906599 0.16900332 -0.2426569
-0.19065699 0.16907924 -0.2426551
-0.19065398 0.16915521 -0.24265528
-0.19065097 0.16923118 -0.24265547
-0.19064805 0.1693071 -0.24265367
-0.19064516 0.16938497 -0.24264981
-0.19064224 0.16946089 -0.24264801
-0.19063923 0.16953686 -0.24264818
-0.19063643 0.16961469 -0.24264234
-0.19063351 0.16969061 -0.24264053
-0.1906303 0.16976666 -0.2426447
-0.1906274 0.16984259 -0.24264289
-0.19062459 0.16992043 -0.24263705
-0.19062187 0.16999626 -0.24263126
-0.19061935 0.170072 -0.24262145
-0.19061635 0.17014992 -0.24261959
-0.19061324 0.17022593 -0.24262178
-0.19061062 0.17030174 -0.24261397
-0.19060789 0.17037757 -0.24260817
-0.1906044 0.17045374 -0.24261835
-0.19060083 0.17053193 -0.24262847
-0.19059801 0.17060781 -0.24262467
-0.19059597 0.17068334 -0.24260488
-0.19059335 0.17075913 -0.24259707
-0.19058996 0.17083722 -0.24260321
-0.19058676 0.17091328 -0.24260738
-0.19058403 0.17098911 -0.24260159
-0.19058162 0.17106678 -0.24258775
-0.19057938 0.17114238 -0.24257196
-0.19057676 0.17121817 -0.24256416
-0.19057404 0.17129402 -0.24255836
-0.19057132 0.17136985 -0.24255255
-0.19056852 0.17144768 -0.24254671
-0.19056599 0.17152342 -0.2425369
-0.19056337 0.17159922 -0.24252911
-0.19056097 0.17167687 -0.24251527
-0.19055814 0.17175275 -0.24251145
-0.19055416 0.17182916 -0.24253163
-0.19055067 0.17190534 -0.24254179
-0.19054852 0.17198092 -0.24252401
-0.1905466 0.17205836 -0.24250019
-0.19054388 0.17213419 -0.24249437
-0.19054067 0.17221025 -0.24249856
-0.19053756 0.17228626 -0.24250075
-0.19053477 0.17236409 -0.2424949
-0.19053166 0.1724401 -0.24249709
-0.19052815 0.17251629 -0.24250725
-0.19052468 0.17259443 -0.24251539
-0.19052157 0.17267044 -0.24251756
-0.19051905 0.17274618 -0.24250777
-0.19051662 0.17282188 -0.24249598
-0.19051409 0.17289764 -0.24248618
-0.19051129 0.17297547 -0.24248032
-0.19050819 0.17305148 -0.24248251
-0.19050527 0.1731274 -0.2424807
-0.19050245 0.17320327 -0.2424769
-0.19049914 0.17327937 -0.24248308
-0.19049606 0.17335734 -0.24248321
-0.19049285 0.17343339 -0.2424874
-0.19048896 0.17350975 -0.24250557
-0.19048548 0.17358789 -0.24251369
-0.19048247 0.17366385 -0.24251387
-0.19047898 0.17374004 -0.24252406
-0.19047567 0.17381614 -0.24253023
-0.19047353 0.17389171 -0.24251243
-0.19047152 0.17396919 -0.24249062
-0.19046889 0.17404498 -0.24248281
-0.19046597 0.1741209 -0.24248099
-0.19046296 0.17419687 -0.2424812
-0.19045967 0.17427492 -0.24248533
-0.19045676 0.17435084 -0.24248353
-0.19045404 0.17442669 -0.24247772
-0.19045115 0.17450456 -0.24247387
-0.19044833 0.17458044 -0.24247006
-0.1904456 0.17465627 -0.24246426
-0.19044231 0.17473237 -0.24247043
-0.19043861 0.17480865 -0.2424846
-0.19043553 0.17488661 -0.24248475
-0.19043319 0.17496227 -0.24247095
-0.19043007 0.17503828 -0.24247313
-0.1904268 0.17511633 -0.24247727
-0.19042426 0.17519207 -0.24246746
-0.19042145 0.17526796 -0.24246368
-0.19041824 0.17534401 -0.24246785
-0.19041513 0.17542002 -0.24247003
-0.19041234 0.17549786 -0.24246418
-0.19040951 0.17557374 -0.24246037
-0.19040699 0.17564948 -0.24245058
-0.19040398 0.17572545 -0.24245077
-0.1904006 0.17580354 -0.2424569
-0.19039778 0.17587942 -0.24245308
-0.19039516 0.17595521 -0.24244529
-0.19039206 0.17603317 -0.24244544
-0.19038886 0.17610922 -0.24244961
-0.19038576 0.17618524 -0.2424518
-0.19038293 0.17626111 -0.24244799
-0.19038041 0.17633687 -0.2424382
-0.19037752 0.17641474 -0.24243434
-0.19037479 0.17649058 -0.24242854
-0.19037198 0.17656645 -0.24242473
-0.19036889 0.17664441 -0.24242488
-0.19036587 0.17672038 -0.24242505
-0.19036296 0.1767963 -0.24242325
-0.19035974 0.17687236 -0.24242744
-0.19035618 0.17695054 -0.24243756
-0.19035394 0.17702617 -0.24242178
-0.19035141 0.17710191 -0.24241197
-0.19034849 0.17717783 -0.24241015
-0.1903457 0.17725566 -0.24240431
-0.19034268 0.17733163 -0.24240449
-0.19033909 0.17740786 -0.24241666
-0.19033435 0.17748657 -0.24245076
-0.19032913 0.1775655 -0.24249484
-0.19032256 0.17764699 -0.24256483
-0.19031619 0.17772645 -0.24263287
-0.19031145 0.17780517 -0.24266696
-0.19030343 0.17788732 -0.24276692
-0.19029909 0.1779678 -0.24279098
-0.19146131 0.14794853 -0.24331653
-0.19145779 0.14802276 -0.24332875
-0.19145431 0.14809895 -0.24333893
-0.1914511 0.148175 -0.24334311
-0.19144799 0.14825101 -0.24334529
-0.19144548 0.14832871 -0.24333346
-0.19144289 0.14840841 -0.24332157
-0.1914403 0.14848615 -0.24331172
-0.19143757 0.14856198 -0.24330592
-0.19143407 0.14863817 -0.24331608
-0.19143058 0.14871436 -0.24332628
-0.19142798 0.1487921 -0.24331641
-0.19142467 0.1488682 -0.2433226
-0.19142166 0.14894417 -0.24332279
-0.19141886 0.149022 -0.24331693
-0.19141595 0.14909792 -0.24331513
-0.19141276 0.14917593 -0.24331726
-0.19140984 0.14925185 -0.24331546
-0.19140683 0.14932781 -0.24331564
-0.19140403 0.14940566 -0.2433098
-0.19140205 0.14948705 -0.24328387
-0.19139914 0.14956297 -0.24328205
-0.19139624 0.14964084 -0.24327821
-0.19139364 0.14971858 -0.24326837
-0.19139044 0.14979464 -0.24327254
-0.19138722 0.14987069 -0.24327673
-0.19138433 0.14994857 -0.24327287
-0.19138144 0.15002644 -0.24326903
-0.19137922 0.15010402 -0.24325119
-0.19137613 0.15018198 -0.24325132
-0.19137283 0.15025808 -0.24325751
-0.19136992 0.150334 -0.2432557
-0.19136693 0.15041192 -0.24325384
-0.19136411 0.1504878 -0.24325003
-0.19136091 0.15056385 -0.24325421
-0.19135769 0.15063991 -0.24325839
-0.19135499 0.15071771 -0.24325055
-0.19135261 0.15079731 -0.24323466
-0.19134991 0.15087509 -0.24322681
-0.19134669 0.15095115 -0.243231
-0.19134399 0.15102895 -0.24322315
-0.19134089 0.15110496 -0.24322534
-0.19133739 0.15118113 -0.2432355
-0.19133469 0.15125893 -0.24322766
-0.19133209 0.15133667 -0.24321783
-0.19132869 0.15141281 -0.24322599
-0.19132549 0.15148887 -0.24323016
-0.19132288 0.15156661 -0.24322033
-0.19131999 0.15164448 -0.24321647
-0.19131716 0.15172037 -0.24321267
-0.19131437 0.1517982 -0.24320681
-0.19131137 0.15187612 -0.24320495
-0.19130807 0.15195222 -0.24321114
-0.19130477 0.15202832 -0.24321732
-0.19130236 0.15210597 -0.24320348
-0.19129986 0.15218368 -0.24319163
-0.19129676 0.15226164 -0.24319178
-0.19129343 0.15233579 -0.2432
-0.19129045 0.15241371 -0.24319814
-0.19128755 0.15249158 -0.24319428
-0.19128485 0.15256937 -0.24318644
-0.19128215 0.15264717 -0.24317859
-0.19127914 0.15272312 -0.24317878
-0.19127603 0.15279913 -0.24318096
-0.19127275 0.15287718 -0.2431851
-0.19126983 0.1529531 -0.24318328
-0.19126683 0.15303104 -0.24318144
-0.19126412 0.15310687 -0.24317563
-0.19126141 0.15318465 -0.24316779
-0.19125852 0.15326253 -0.24316393
-0.19125572 0.15334037 -0.24315807
-0.19125283 0.15341824 -0.24315423
-0.19124973 0.15349425 -0.2431564
-0.19124661 0.15357026 -0.24315858
-0.1912436 0.15364623 -0.24315879
-0.1912408 0.15372406 -0.24315292
-0.19123752 0.15380211 -0.24315706
-0.1912346 0.15387803 -0.24315524
-0.19123191 0.15395582 -0.2431474
-0.19122921 0.15403362 -0.24313956
-0.19122638 0.15410949 -0.24313575
-0.1912234 0.15418741 -0.24313389
-0.19122019 0.15426347 -0.24313807
-0.19121708 0.15433948 -0.24314025
-0.19121419 0.15441735 -0.24313641
-0.19121167 0.15449506 -0.24312457
-0.19120908 0.1545728 -0.24311471
-0.19120628 0.15465063 -0.24310887
-0.19120316 0.15472664 -0.24311104
-0.19119997 0.15480465 -0.24311319
-0.19119696 0.15488061 -0.24311337
-0.19119437 0.15495837 -0.24310353
-0.19119157 0.1550362 -0.24309768
-0.19118826 0.1551123 -0.24310386
-0.19118506 0.15518835 -0.24310803
-0.19118226 0.15526618 -0.24310219
-0.19117945 0.15534401 -0.24309634
-0.19117664 0.15541989 -0.24309254
-0.19117366 0.1554978 -0.24309069
-0.19117074 0.15557374 -0.24308887
-0.19116765 0.15565169 -0.24308901
-0.19116473 0.15572762 -0.2430872
-0.19116193 0.15580545 -0.24308135
-0.19115902 0.15588138 -0.24307954
-0.19115573 0.15595943 -0.24308367
-0.19115253 0.15603548 -0.24308786
-0.19114953 0.1561134 -0.243086
-0.19114691 0.15618919 -0.2430782
-0.19114421 0.15626699 -0.24307035
-0.19114161 0.15634473 -0.2430605
-0.19113891 0.15642251 -0.24305266
-0.19113579 0.15649852 -0.24305484
-0.19113259 0.15657458 -0.24305901
-0.19112961 0.1566525 -0.24305716
-0.19112659 0.15672846 -0.24305736
-0.19112338 0.15680452 -0.24306154
-0.19112039 0.15688244 -0.24305968
-0.19111769 0.15696023 -0.24305183
-0.19111489 0.15703806 -0.24304599
-0.19111179 0.15711407 -0.24304816
-0.19110899 0.1571919 -0.24304232
-0.19110648 0.15726961 -0.24303047
-0.19110337 0.15734562 -0.24303265
-0.19109997 0.15742175 -0.24304083
-0.19109705 0.15749767 -0.24303901
-0.19109455 0.15757538 -0.24302718
-0.19109175 0.15765321 -0.24302134
-0.19108896 0.15773104 -0.24301547
-0.19108585 0.15780705 -0.24301767
-0.19108264 0.15788311 -0.24302185
-0.19107963 0.15795907 -0.24302202
-0.19107683 0.15803692 -0.24301618
-0.19107403 0.15811475 -0.24301033
-0.19107102 0.15819071 -0.24301052
-0.19106783 0.15826872 -0.24301265
-0.19106473 0.15834473 -0.24301484
-0.19106171 0.1584207 -0.24301502
-0.19105911 0.15849844 -0.24300519
-0.1910565 0.15857619 -0.24299534
-0.1910537 0.15865402 -0.24298948
-0.19105089 0.1587299 -0.24298567
-0.1910478 0.15880786 -0.24298581
-0.19104499 0.15888374 -0.242982
-0.19104217 0.15895961 -0.24297822
-0.19103888 0.15903766 -0.24298233
-0.19103578 0.15911368 -0.24298453
-0.19103259 0.15919168 -0.24298666
-0.19102997 0.15926749 -0.24297887
-0.19102746 0.15934518 -0.24296702
-0.19102436 0.15942314 -0.24296716
-0.19102146 0.15949906 -0.24296534
-0.19101845 0.15957503 -0.24296553
-0.19101526 0.15965304 -0.24296767
-0.19101264 0.15972884 -0.24295987
-0.19100992 0.15980662 -0.24295202
-0.19100682 0.15988263 -0.24295421
-0.19100372 0.1599606 -0.24295434
-0.19100101 0.16003643 -0.24294855
-0.19099793 0.16011439 -0.24294868
-0.1909949 0.16019036 -0.24294887
-0.1909917 0.16026641 -0.24295306
-0.19098851 0.16034442 -0.24295519
-0.19098589 0.16042021 -0.2429474
-0.1909833 0.16049796 -0.24293755
-0.19098029 0.16057393 -0.24293774
-0.19097719 0.16065189 -0.24293788
-0.19097409 0.1607279 -0.24294007
-0.19097097 0.16080391 -0.24294224
-0.19096825 0.16087975 -0.24293643
-0.19096567 0.16095945 -0.24292456
-0.19096294 0.16103528 -0.24291876
-0.19095993 0.16111125 -0.24291894
-0.19095665 0.1611893 -0.24292308
-0.19095354 0.16126531 -0.24292526
-0.19095044 0.16134132 -0.24292743
-0.19094764 0.16141915 -0.24292159
-0.19094501 0.16149494 -0.24291378
-0.19094232 0.16157272 -0.24290594
-0.19093959 0.16164857 -0.24290013
-0.1909364 0.16172658 -0.24290228
-0.19093329 0.16180259 -0.24290445
-0.1909305 0.16188042 -0.24289861
-0.19092788 0.16195621 -0.24289081
-0.19092566 0.16203378 -0.24287298
-0.19092277 0.16211165 -0.24286912
-0.19091915 0.16218594 -0.24288332
-0.19091576 0.16226402 -0.24288946
-0.19091305 0.16233987 -0.24288365
-0.19091064 0.16241752 -0.24286982
-0.19090822 0.16249518 -0.242856
-0.1909056 0.16257097 -0.24284819
-0.19090329 0.16264857 -0.24283233
-0.19090049 0.16272642 -0.24282649
-0.1908963 0.16280095 -0.24285269
-0.19089261 0.16287723 -0.24286686
-0.19089019 0.16295488 -0.24285302
-0.19088788 0.1630325 -0.24283719
-0.19088449 0.16310863 -0.24284536
-0.19088086 0.16318291 -0.24285957
-0.19087759 0.16326097 -0.24286371
-0.19087505 0.16333671 -0.24285391
-0.19087255 0.16341442 -0.24284206
-0.19086973 0.1634903 -0.24283826
-0.19086634 0.16356644 -0.24284643
-0.19086334 0.16364436 -0.24284458
-0.19086072 0.16372015 -0.24283677
-0.19085783 0.16379802 -0.24283293
-0.1908551 0.16387385 -0.24282712
-0.1908524 0.16395165 -0.24281928
-0.19084959 0.16402753 -0.24281546
-0.19084647 0.16410354 -0.24281766
-0.19084319 0.16418159 -0.24282178
-0.19084018 0.16425756 -0.24282198
-0.19083716 0.16433352 -0.24282217
-0.19083434 0.1644094 -0.24281836
-0.19083136 0.16448732 -0.24281651
-0.19082844 0.16456324 -0.24281469
-0.19082552 0.16463916 -0.24281287
-0.19082242 0.16471517 -0.24281506
-0.19081923 0.16479318 -0.24281719
-0.19081612 0.16486919 -0.2428194
-0.19081323 0.16494706 -0.24281554
-0.1908105 0.16502291 -0.24280974
-0.1908076 0.16509883 -0.24280792
-0.19080479 0.16517666 -0.24280208
-0.19080217 0.16525245 -0.24279428
-0.19079909 0.16533041 -0.24279441
-0.19079606 0.16540638 -0.2427946
-0.19079354 0.16548213 -0.2427848
-0.19079065 0.16556001 -0.24278095
-0.19078763 0.16563597 -0.24278113
-0.19078481 0.16571185 -0.24277732
-0.19078222 0.16578959 -0.24276748
-0.19077939 0.16586547 -0.24276367
-0.19077641 0.1659434 -0.24276182
-0.19077359 0.16601928 -0.24275801
-0.19077048 0.16609529 -0.24276021
-0.19076708 0.16617143 -0.24276838
-0.19076397 0.16624743 -0.24277055
-0.19076088 0.16632541 -0.2427707
-0.19075777 0.16640142 -0.24277288
-0.19075496 0.16647924 -0.24276704
-0.19075234 0.16655503 -0.24275923
-0.19074944 0.16663095 -0.24275742
-0.19074653 0.16670883 -0.24275357
-0.19074382 0.16678467 -0.24274775
-0.1907409 0.1668606 -0.24274595
-0.19073799 0.16693652 -0.24274415
-0.19073497 0.16701248 -0.24274433
-0.19073199 0.1670904 -0.24274248
-0.19072887 0.16716641 -0.24274467
-0.19072618 0.1672442 -0.24273682
-0.19072364 0.16731994 -0.24272701
-0.19072063 0.1673959 -0.24272721
-0.19071732 0.167472 -0.24273339
-0.19071443 0.16754988 -0.24272953
-0.19071171 0.16762573 -0.24272373
-0.19070899 0.16770156 -0.24271792
-0.19070649 0.16777925 -0.24270609
-0.19070368 0.16785513 -0.24270228
-0.19070026 0.16793127 -0.24271044
-0.19069737 0.16800915 -0.2427066
-0.19069466 0.16808499 -0.24270079
-0.19069202 0.16816078 -0.24269299
-0.19068894 0.16823874 -0.24269313
-0.19068563 0.16831484 -0.24269933
-0.19068272 0.16839077 -0.24269751
-0.19068 0.1684666 -0.2426917
-0.19067709 0.16854252 -0.24268989
-0.19067438 0.1686203 -0.24268204
-0.19067147 0.16869624 -0.24268024
-0.19066828 0.16877425 -0.24268237
-0.19066556 0.16885008 -0.24267657
-0.19066304 0.16892582 -0.24266677
-0.19066022 0.1690017 -0.24266297
-0.19065723 0.16907962 -0.2426611
-0.19065411 0.16915563 -0.24266329
-0.19065121 0.16923155 -0.24266148
-0.19064818 0.16930752 -0.24266167
-0.1906454 0.16938536 -0.24265581
-0.19064258 0.16946124 -0.242652
-0.19063956 0.1695372 -0.24265221
-0.19063666 0.16961507 -0.24264833
-0.19063365 0.16969104 -0.24264854
-0.19063054 0.16976705 -0.24265072
-0.19062772 0.16984293 -0.2426469
-0.19062483 0.1699208 -0.24264306
-0.19062221 0.1699966 -0.24263525
-0.19061978 0.1700723 -0.24262345
-0.19061686 0.17014822 -0.24262166
-0.19061367 0.17022623 -0.24262379
-0.19061105 0.17030202 -0.242616
-0.19060814 0.17037794 -0.24261418
-0.19060464 0.17045413 -0.24262436
-0.19060117 0.17053227 -0.24263248
-0.19059844 0.1706081 -0.24262668
-0.19059621 0.17068373 -0.24261089
-0.19059359 0.17075951 -0.24260309
-0.19059038 0.17083557 -0.24260727
-0.19058719 0.17091358 -0.24260941
-0.19058438 0.17098945 -0.2426056
-0.19058187 0.17106715 -0.24259377
-0.19057944 0.17114286 -0.24258196
-0.190577 0.17121856 -0.24257016
-0.19057438 0.17129435 -0.24256235
-0.19057156 0.17137022 -0.24255857
-0.19056877 0.17144807 -0.24255271
-0.19056624 0.17152381 -0.24254291
-0.19056371 0.17159955 -0.24253312
-0.19056112 0.17167731 -0.24252327
-0.1905582 0.17175323 -0.24252146
-0.19055441 0.17182954 -0.24253762
-0.19055091 0.17190573 -0.2425478
-0.19054878 0.1719813 -0.24253002
-0.19054684 0.17205873 -0.24250618
-0.19054422 0.17213453 -0.24249838
-0.19054112 0.17221054 -0.24250057
-0.1905379 0.17228658 -0.24250475
-0.19053501 0.17236447 -0.2425009
