# .PCD v0.7 - Point Cloud Data file format
VERSION 0.7
FIELDS x y z
SIZE 4 4 4
TYPE F F F
COUNT 1 1 1
WIDTH 1379
HEIGHT 1
VIEWPOINT 0 0 0 1 0 0 0
POINTS 1379
DATA ascii
-0.19057798 0.16673343 -0.24271405
-0.19057526 0.16680926 -0.24270824
-0.19057244 0.16688514 -0.24270444
-0.19056936 0.16696312 -0.24270459
-0.19056635 0.16703908 -0.24270478
-0.19056343 0.167115 -0.24270296
-0.19056033 0.16719101 -0.24270515
-0.19055724 0.16726898 -0.24270529
-0.19055432 0.1673449 -0.24270348
-0.19055179 0.16742064 -0.24269369
-0.19054919 0.16749838 -0.24268386
-0.19054657 0.16757418 -0.24267605
-0.19054365 0.1676501 -0.24267425
-0.19054057 0.16772807 -0.24267438
-0.19053726 0.16780417 -0.24268058
-0.19053397 0.16788027 -0.24268675
-0.19053124 0.1679561 -0.24268095
-0.19052874 0.16803379 -0.24266911
-0.19052592 0.16810967 -0.24266531
-0.19052291 0.16818564 -0.2426655
-0.1910774 0.1535925 -0.24313527
-0.19107451 0.15367037 -0.24313141
-0.19107151 0.15374829 -0.24312955
-0.1910688 0.15382412 -0.24312377
-0.19106589 0.15390199 -0.2431199
-0.19106281 0.15397996 -0.24312004
-0.1910599 0.15405589 -0.24311824
-0.19105729 0.15413363 -0.24310839
-0.1910543 0.15421155 -0.24310654
-0.1910512 0.15428756 -0.24310873
-0.19104761 0.1543638 -0.24312091
-0.1910446 0.15443976 -0.24312109
-0.1910423 0.15451932 -0.24310321
-0.19104008 0.15459689 -0.24308538
-0.1910373 0.15467472 -0.24307953
-0.19103429 0.1547507 -0.24307972
-0.19103087 0.15482683 -0.2430879
-0.19102809 0.15490468 -0.24308205
-0.19102558 0.15498237 -0.24307021
-0.19102249 0.15506034 -0.24307036
-0.19101897 0.15513457 -0.24308258
-0.19101579 0.15521258 -0.24308471
-0.19101298 0.15528846 -0.24308091
-0.19100986 0.15536447 -0.2430831
-0.19100717 0.15544225 -0.24307525
-0.19100498 0.15552178 -0.24305537
-0.19100237 0.15559952 -0.24304554
-0.19099897 0.15567566 -0.24305372
-0.19099566 0.15575176 -0.2430599
-0.19099277 0.15582964 -0.24305604
-0.19098987 0.15590556 -0.24305424
-0.19098696 0.15598345 -0.2430504
-0.19098426 0.15606123 -0.24304254
-0.19098145 0.15613711 -0.24303874
-0.19097817 0.15621516 -0.24304287
-0.19097516 0.15629113 -0.24304307
-0.19097227 0.156369 -0.24303922
-0.19096887 0.15644515 -0.24304739
-0.19096567 0.1565212 -0.24305159
-0.19096287 0.15659903 -0.24304573
-0.19096045 0.15667669 -0.24303189
-0.19095786 0.15675443 -0.24302205
-0.19095494 0.15683036 -0.24302024
-0.19095193 0.15690632 -0.24302043
-0.19094913 0.15698417 -0.24301457
-0.19094643 0.15706195 -0.24300674
-0.19094335 0.15713991 -0.24300689
-0.19094004 0.15721601 -0.24301305
-0.19093713 0.15729193 -0.24301127
-0.19093433 0.15736976 -0.24300539
-0.19093132 0.15744573 -0.2430056
-0.19092824 0.15752369 -0.24300574
-0.19092542 0.15759957 -0.24300194
-0.19092262 0.15767741 -0.2429961
-0.19091961 0.15775338 -0.24299628
-0.19091672 0.15783125 -0.24299243
-0.19091402 0.15790904 -0.24298459
-0.19091091 0.15798505 -0.24298677
-0.190908 0.15806097 -0.24298495
-0.190905 0.15813889 -0.2429831
-0.1909018 0.15821494 -0.2429873
-0.19089869 0.15829095 -0.24298948
-0.19089609 0.15836871 -0.24297965
-0.19089359 0.1584464 -0.2429678
-0.19089088 0.15852419 -0.24295995
-0.19088787 0.15860017 -0.24296014
-0.19088459 0.15867822 -0.24296427
-0.19088158 0.15875418 -0.24296448
-0.19087848 0.1588302 -0.24296665
-0.19087537 0.15890619 -0.24296884
-0.19087248 0.15898408 -0.24296498
-0.19086997 0.15906177 -0.24295315
-0.19086725 0.15913761 -0.24294735
-0.19086386 0.1592157 -0.24295348
-0.19086085 0.15929167 -0.24295367
-0.19085826 0.15936942 -0.24294382
-0.19085525 0.15944539 -0.24294403
-0.19085215 0.15952335 -0.24294417
-0.19084933 0.15959923 -0.24294037
-0.19084644 0.1596771 -0.24293651
-0.19084382 0.15975291 -0.24292871
-0.19084093 0.15983078 -0.24292485
-0.19083773 0.15990683 -0.24292904
-0.19083473 0.15998475 -0.24292719
-0.19083172 0.16006072 -0.24292737
-0.19082862 0.16013673 -0.24292958
-0.19082543 0.16021474 -0.24293171
-0.19082262 0.16029061 -0.24292791
-0.1908197 0.16036654 -0.24292609
-0.19081691 0.16044436 -0.24292025
-0.1908142 0.16052216 -0.24291241
-0.19081138 0.16059804 -0.2429086
-0.1908083 0.160676 -0.24290875
-0.1908052 0.16075201 -0.24291092
-0.19080208 0.16082802 -0.24291313
-0.19079897 0.16090403 -0.2429153
-0.19079608 0.16098191 -0.24291146
-0.19079337 0.16105774 -0.24290565
-0.19079037 0.16113566 -0.2429038
-0.19078745 0.16121158 -0.242902
-0.19078475 0.16128938 -0.24289414
-0.19078216 0.16136712 -0.24288431
-0.19077915 0.16144308 -0.24288449
-0.19077642 0.16151892 -0.24287869
-0.19077381 0.16159667 -0.24286884
-0.19077103 0.1616745 -0.242863
-0.19076821 0.16175038 -0.24285918
-0.19076501 0.16182643 -0.24286339
-0.1907624 0.16190419 -0.24285354
-0.19076028 0.1619817 -0.2428337
-0.19075748 0.16205953 -0.24282786
-0.19075409 0.16213568 -0.24283603
-0.19075079 0.16221178 -0.24284223
-0.19074798 0.16228765 -0.24283841
-0.19074526 0.16236545 -0.24283057
-0.19074264 0.16244124 -0.24282277
-0.19074026 0.16252086 -0.2428069
-0.19073725 0.16259682 -0.24280709
-0.19073364 0.16267109 -0.24282131
-0.19072984 0.16274741 -0.24283747
-0.19072616 0.16282368 -0.24285164
-0.19072317 0.1629016 -0.24284978
-0.19072074 0.16297731 -0.242838
-0.19071823 0.163055 -0.24282616
-0.19071621 0.16313249 -0.24280432
-0.19071332 0.16321036 -0.24280047
-0.19070973 0.1632866 -0.24281265
-0.19070661 0.16336261 -0.24281484
-0.19070399 0.16343839 -0.24280703
-0.19070069 0.16351449 -0.24281321
-0.1906973 0.16359064 -0.2428214
-0.1906945 0.16366847 -0.24281555
-0.19069219 0.16374609 -0.24279971
-0.19068965 0.16382183 -0.24278992
-0.19068655 0.16389784 -0.2427921
-0.19068316 0.16397399 -0.2428003
-0.19068016 0.16405191 -0.24279843
-0.19067805 0.16412944 -0.2427786
-0.19067542 0.16420522 -0.24277081
-0.19067203 0.16428137 -0.24277899
-0.19066872 0.16435745 -0.24278517
-0.19066535 0.16443555 -0.2427913
-0.19066282 0.16451131 -0.2427815
-0.19066039 0.16458701 -0.24276972
-0.190657 0.1646651 -0.24277584
-0.1906532 0.16473946 -0.24279405
-0.19065021 0.16481738 -0.24279219
-0.1906475 0.16489322 -0.24278641
-0.19064479 0.16497101 -0.24277855
-0.19064216 0.1650468 -0.24277076
-0.19063966 0.16512451 -0.24275891
-0.19063665 0.16520047 -0.24275911
-0.19063325 0.16527662 -0.24276727
-0.19063005 0.16535266 -0.24277148
-0.19062696 0.16543064 -0.24277161
-0.19062415 0.16550651 -0.24276781
-0.19062135 0.16558434 -0.24276197
-0.19061844 0.16566026 -0.24276015
-0.19061571 0.16573609 -0.24275436
-0.19061321 0.1658138 -0.24274251
-0.19061068 0.16588955 -0.24273272
-0.19060731 0.16596764 -0.24273884
-0.19060381 0.16604383 -0.24274904
-0.19060099 0.16611971 -0.24274522
-0.19059829 0.16619749 -0.24273738
-0.19059528 0.16627346 -0.24273756
-0.19059236 0.16634938 -0.24273576
-0.19058958 0.16642722 -0.2427299
-0.19058695 0.16650301 -0.24272212
-0.19058412 0.16657889 -0.24271831
-0.19058122 0.16665481 -0.24271649
-0.19057822 0.16673273 -0.24271464
-0.19057541 0.16680861 -0.24271084
-0.19057269 0.16688445 -0.24270505
-0.1905694 0.1669625 -0.24270917
-0.19056639 0.16703847 -0.24270937
-0.19056349 0.16711439 -0.24270757
-0.19056047 0.16719036 -0.24270776
-0.19055739 0.16726832 -0.24270791
-0.19055447 0.16734424 -0.24270609
-0.19055185 0.16742003 -0.24269828
-0.19054934 0.16749774 -0.24268645
-0.19054672 0.16757353 -0.24267866
-0.1905438 0.16764945 -0.24267685
-0.19054072 0.16772741 -0.24267699
-0.19053742 0.16780351 -0.24268317
-0.19053411 0.16787961 -0.24268936
-0.1905313 0.16795549 -0.24268556
-0.19052888 0.16803314 -0.24267171
-0.19052607 0.16810901 -0.24266791
-0.19052306 0.168185 -0.24266809
-0.19107984 0.15359439 -0.24313197
-0.19107692 0.15367031 -0.24313016
-0.19107394 0.15374823 -0.2431283
-0.19107123 0.15382601 -0.24312046
-0.19106841 0.15390189 -0.24311665
-0.19106524 0.1539799 -0.24311879
-0.19106242 0.15405579 -0.24311499
-0.19105993 0.15413544 -0.24310112
-0.19105692 0.1542114 -0.2431013
-0.19105361 0.1542875 -0.24310748
-0.19105013 0.15436369 -0.24311766
-0.19104701 0.1544397 -0.24311984
-0.19104482 0.15451923 -0.24309996
-0.1910426 0.15459679 -0.24308214
-0.1910398 0.15467462 -0.24307629
-0.19103679 0.15475059 -0.24307647
-0.19103351 0.15482864 -0.24308062
-0.1910307 0.15490453 -0.2430768
-0.19102819 0.15498222 -0.24306497
-0.19102511 0.15506019 -0.24306512
-0.19102161 0.15513638 -0.2430753
-0.19101851 0.15521239 -0.24307749
-0.19101559 0.15528831 -0.24307567
-0.1910124 0.15536632 -0.24307781
-0.19100961 0.15544415 -0.24307197
-0.19100739 0.15552172 -0.24305414
-0.19100478 0.15559946 -0.24304429
-0.19100139 0.1556756 -0.24305248
-0.19099818 0.15575166 -0.24305665
-0.19099548 0.15582944 -0.24304882
-0.19099247 0.15590541 -0.243049
-0.19098948 0.15598333 -0.24304715
-0.19098678 0.15606113 -0.24303931
-0.19098407 0.15613696 -0.2430335
-0.19098088 0.15621497 -0.24303564
-0.19097787 0.15629093 -0.24303584
-0.19097488 0.15636885 -0.24303398
-0.19097148 0.156445 -0.24304217
-0.19096828 0.15652105 -0.24304634
-0.19096538 0.15659893 -0.2430425
-0.19096306 0.15667655 -0.24302666
-0.19096047 0.15675429 -0.24301681
-0.19095746 0.15683025 -0.243017
-0.19095437 0.15690821 -0.24301715
-0.19095157 0.15698606 -0.2430113
-0.19094895 0.15706185 -0.24300352
-0.19094586 0.15713981 -0.24300364
-0.19094266 0.15721586 -0.24300784
-0.19093974 0.15729178 -0.24300602
-0.19093685 0.15736966 -0.24300218
-0.19093384 0.15744562 -0.24300236
-0.19093065 0.15752363 -0.2430045
-0.19092794 0.15759946 -0.2429987
-0.19092514 0.15767731 -0.24299285
-0.19092222 0.15775323 -0.24299105
-0.19091932 0.1578311 -0.2429872
-0.19091672 0.15790884 -0.24297735
-0.19091371 0.15798482 -0.24297756
-0.19091061 0.15806082 -0.24297974
-0.19090752 0.15813878 -0.24297988
-0.19090441 0.15821479 -0.24298206
-0.19090122 0.1582928 -0.24298421
-0.1908986 0.1583686 -0.2429764
-0.1908962 0.15844625 -0.24296257
-0.1908934 0.1585241 -0.24295673
-0.19089039 0.15860006 -0.24295691
-0.1908872 0.15867807 -0.24295905
-0.19088419 0.15875404 -0.24295925
-0.19088109 0.15883005 -0.24296144
-0.19087799 0.15890801 -0.24296159
-0.19087508 0.15898393 -0.24295977
-0.19087239 0.15906172 -0.24295193
-0.19086967 0.15913951 -0.24294408
-0.19086647 0.15921555 -0.24294826
-0.19086346 0.15929152 -0.24294844
-0.19086076 0.15936932 -0.2429406
-0.19085777 0.15944724 -0.24293876
-0.19085476 0.1595232 -0.24293894
-0.19085194 0.15959908 -0.24293515
-0.19084905 0.15967695 -0.24293128
-0.19084644 0.15975471 -0.24292144
-0.19084343 0.15983067 -0.24292164
-0.19084033 0.15990669 -0.24292383
-0.19083734 0.1599846 -0.24292198
-0.19083433 0.16006057 -0.24292216
-0.19083112 0.16013663 -0.24292636
-0.19082794 0.16021463 -0.24292849
-0.19082503 0.16029055 -0.24292669
-0.19082211 0.16036648 -0.24292487
-0.19081931 0.1604443 -0.24291903
-0.19081661 0.1605221 -0.24291117
-0.19081382 0.16059993 -0.24290532
-0.19081081 0.1606759 -0.24290553
-0.1908077 0.16075191 -0.2429077
-0.19080459 0.16082792 -0.24290991
-0.19080149 0.16090393 -0.24291208
-0.19079879 0.16098171 -0.24290425
-0.19079599 0.16105954 -0.24289839
-0.19079307 0.16113548 -0.24289659
-0.19079006 0.16121145 -0.24289678
-0.19078727 0.16128927 -0.24289092
-0.19078466 0.16136701 -0.24288109
-0.19078174 0.16144294 -0.24287927
-0.19077893 0.16151881 -0.24287549
-0.19077623 0.16159661 -0.24286762
-0.19077364 0.16167435 -0.24285778
-0.19077072 0.16175027 -0.24285598
-0.19076751 0.16182633 -0.24286017
-0.19076481 0.16190413 -0.24285233
-0.19076289 0.16198155 -0.24282849
-0.1907602 0.16205935 -0.24282065
-0.19075669 0.16213554 -0.24283083
-0.1907533 0.16221167 -0.24283901
-0.19075038 0.16228759 -0.24283719
-0.19074768 0.16236539 -0.24282935
-0.19074516 0.16244113 -0.24281955
-0.19074276 0.16252075 -0.24280368
-0.19073975 0.16259672 -0.24280387
-0.19073604 0.16267103 -0.24282008
-0.19073229 0.16274931 -0.24283421
-0.19072877 0.16282353 -0.24284643
-0.19072577 0.16290146 -0.24284458
-0.19072317 0.1629792 -0.24283473
-0.19072084 0.16305485 -0.24282095
-0.19071862 0.16313243 -0.24280311
-0.19071582 0.16321026 -0.24279726
-0.19071233 0.16328645 -0.24280745
-0.19070922 0.16336246 -0.24280962
-0.19070651 0.16343829 -0.24280383
-0.19070321 0.16351634 -0.24280795
-0.19069982 0.16359249 -0.24281615
-0.1906971 0.16366832 -0.24281034
-0.19069469 0.16374598 -0.24279651
-0.19069226 0.16382168 -0.24278471
-0.19068907 0.16389969 -0.24278685
-0.19068567 0.16397583 -0.24279504
-0.19068277 0.16405176 -0.24279323
-0.19068046 0.16412938 -0.24277739
-0.19067793 0.16420512 -0.2427676
-0.19067463 0.16428122 -0.24277377
-0.19067141 0.16435727 -0.24277797
-0.19066785 0.16443545 -0.24278811
-0.19066532 0.1645112 -0.2427783
-0.19066289 0.1645869 -0.2427665
-0.19065961 0.16466495 -0.24277064
-0.19065592 0.16474123 -0.24278483
-0.19065282 0.16481724 -0.242787
-0.19065019 0.16489303 -0.2427792
-0.1906472 0.16497095 -0.24277735
-0.19064458 0.16504674 -0.24276955
-0.19064216 0.1651244 -0.24275571
-0.19063926 0.16520032 -0.24275391
-0.19063576 0.16527651 -0.24276409
-0.19063255 0.16535257 -0.24276827
-0.19062956 0.16543049 -0.24276641
-0.19062674 0.16550636 -0.24276263
-0.19062385 0.16558424 -0.24275875
-0.19062114 0.16566007 -0.24275297
-0.19061832 0.16573595 -0.24274915
-0.19061571 0.1658137 -0.24273932
-0.19061309 0.16588949 -0.24273151
-0.1906099 0.16596749 -0.24273366
-0.1906065 0.16604364 -0.24274184
-0.1906036 0.16611956 -0.24274004
-0.19060089 0.16619734 -0.2427322
-0.19059788 0.16627331 -0.24273238
-0.19059497 0.16634923 -0.24273056
-0.19059208 0.16642712 -0.24272671
-0.19058935 0.16650295 -0.24272092
-0.19058664 0.16657878 -0.24271512
-0.19058372 0.16665471 -0.2427133
-0.19058064 0.16673267 -0.24271345
-0.19057782 0.16680855 -0.24270965
-0.19057509 0.16688439 -0.24270386
-0.19057181 0.16696244 -0.24270798
-0.190569 0.16703832 -0.24270418
-0.19056608 0.16711424 -0.24270238
-0.19056299 0.16719221 -0.24270251
-0.19055989 0.16726822 -0.2427047
-0.19055697 0.16734414 -0.2427029
-0.19055435 0.16741993 -0.24269509
-0.19055185 0.16749763 -0.24268326
-0.19054912 0.16757347 -0.24267747
-0.1905463 0.16764934 -0.24267367
-0.19054322 0.16772731 -0.2426738
-0.19054011 0.16780332 -0.24267599
-0.19053671 0.16787946 -0.24268417
-0.190534 0.16795529 -0.24267837
-0.19053158 0.16803296 -0.24266455
-0.19052868 0.16810888 -0.24266273
-0.19108044 0.15351412 -0.24312745
-0.19107726 0.15359212 -0.24312958
-0.19107427 0.15367004 -0.24312773
-0.19107145 0.15374593 -0.24312393
-0.19106865 0.15382376 -0.24311808
-0.19106576 0.15390164 -0.24311423
-0.19106266 0.15397765 -0.24311641
-0.19105975 0.15405552 -0.24311256
-0.19105725 0.15413323 -0.24310073
-0.19105424 0.1542092 -0.24310091
-0.19105104 0.15428525 -0.24310511
-0.19104753 0.15436143 -0.24311528
-0.19104445 0.15443939 -0.24311543
-0.19104224 0.15451697 -0.2430976
-0.19104002 0.15459454 -0.24307975
-0.19103722 0.15467237 -0.24307391
-0.19103421 0.15474834 -0.2430741
-0.19103085 0.15482643 -0.24308024
-0.19102803 0.15490231 -0.24307644
-0.19102561 0.15497997 -0.2430626
-0.19102243 0.15505798 -0.24306475
-0.19101894 0.15513416 -0.24307492
-0.19101582 0.15521017 -0.2430771
-0.19101292 0.15528609 -0.2430753
-0.19100973 0.1553641 -0.24307744
-0.19100693 0.15544194 -0.24307159
-0.19100492 0.15551943 -0.24304977
-0.19100222 0.15559721 -0.24304192
-0.190999 0.15567327 -0.2430461
-0.19099571 0.15574937 -0.24305227
-0.19099282 0.15582724 -0.24304843
-0.19098981 0.15590321 -0.24304862
-0.19098692 0.15598108 -0.24304476
-0.1909842 0.15605886 -0.24303693
-0.1909813 0.15613478 -0.24303512
-0.19097821 0.15621276 -0.24303526
-0.19097529 0.15628868 -0.24303345
-0.1909723 0.1563666 -0.24303161
-0.1909689 0.15644275 -0.24303979
-0.19096561 0.15651885 -0.24304596
-0.19096272 0.15659672 -0.24304211
-0.1909603 0.15667437 -0.24302828
-0.1909578 0.15675208 -0.24301644
-0.19095479 0.15682805 -0.24301663
-0.1909517 0.15690601 -0.24301678
-0.19094899 0.15698379 -0.24300893
-0.19094637 0.15705958 -0.24300113
-0.1909432 0.1571376 -0.24300328
-0.19093999 0.15721364 -0.24300745
-0.19093707 0.15728956 -0.24300565
-0.19093427 0.15736741 -0.24299979
-0.19093126 0.15744337 -0.243
-0.19092809 0.15752138 -0.24300213
-0.19092527 0.15759726 -0.24299833
-0.19092257 0.15767504 -0.24299048
-0.19091955 0.15775101 -0.24299067
-0.19091676 0.15782885 -0.24298483
-0.19091406 0.15790664 -0.24297698
-0.19091095 0.15798265 -0.24297917
-0.19090794 0.15805861 -0.24297936
-0.19090495 0.15813653 -0.2429775
-0.19090165 0.15821263 -0.24298368
-0.19089857 0.15829059 -0.24298383
-0.19089603 0.15836634 -0.24297404
-0.19089353 0.15844405 -0.2429622
-0.19089083 0.15852183 -0.24295434
-0.19088782 0.1585978 -0.24295454
-0.19088455 0.15867585 -0.24295866
-0.19088154 0.15875182 -0.24295887
-0.19087842 0.15882783 -0.24296105
-0.19087523 0.15890583 -0.24296319
-0.19087252 0.15898167 -0.2429574
-0.19086982 0.15905946 -0.24294955
-0.19086711 0.15913725 -0.24294171
-0.19086382 0.15921335 -0.24294788
-0.19086081 0.15928932 -0.24294809
-0.19085811 0.1593671 -0.24294023
-0.19085512 0.15944502 -0.24293837
-0.19085211 0.15952098 -0.24293856
-0.19084929 0.15959688 -0.24293476
-0.19084649 0.1596747 -0.24292892
-0.19084379 0.15975249 -0.24292107
-0.19084089 0.15982841 -0.24291927
-0.1908377 0.15990642 -0.2429214
-0.19083469 0.15998238 -0.24292159
-0.19083168 0.16005835 -0.24292178
-0.19082856 0.16013436 -0.24292397
-0.19082537 0.16021237 -0.24292612
-0.19082247 0.1602883 -0.2429243
-0.19081958 0.16036618 -0.24292046
-0.19081685 0.16044201 -0.24291465
-0.19081406 0.16051984 -0.24290881
-0.19081126 0.16059768 -0.24290296
-0.19080825 0.16067365 -0.24290314
-0.19080514 0.16074964 -0.24290533
-0.19080204 0.16082565 -0.24290752
-0.19079892 0.16090167 -0.2429097
-0.19079614 0.16097951 -0.24290386
-0.19079323 0.16105738 -0.24290001
-0.19079041 0.16113326 -0.2428962
-0.19078733 0.16121122 -0.24289635
-0.19078462 0.16128705 -0.24289055
-0.19078201 0.16136481 -0.2428807
-0.19077919 0.16144069 -0.2428769
-0.19077639 0.16151851 -0.24287105
-0.19077377 0.1615943 -0.24286327
-0.19077098 0.16167215 -0.24285741
-0.19076817 0.16174802 -0.24285361
-0.19076487 0.16182607 -0.24285775
-0.19076225 0.16190186 -0.24284995
-0.19076024 0.16197935 -0.24282813
-0.19075754 0.16205713 -0.24282028
-0.19075415 0.16213328 -0.24282846
-0.19075075 0.16220942 -0.24283662
-0.19074793 0.1622853 -0.24283284
-0.19074513 0.16236313 -0.24282698
-0.19074243 0.16244093 -0.24281913
-0.19074021 0.16251849 -0.24280131
-0.1907372 0.16259445 -0.24280149
-0.19073342 0.16267078 -0.24281767
-0.19072972 0.16274704 -0.24283183
-0.19072612 0.16282132 -0.24284604
-0.19072312 0.16289924 -0.24284419
-0.19072062 0.16297694 -0.24283236
-0.19071829 0.1630526 -0.24281856
-0.19071607 0.16313018 -0.24280074
-0.19071318 0.16320805 -0.24279688
-0.19070968 0.16328424 -0.24280706
-0.19070658 0.16336025 -0.24280925
-0.19070396 0.16343604 -0.24280146
-0.19070047 0.16351418 -0.24280959
-0.19069725 0.16358827 -0.24281582
-0.19069445 0.16366611 -0.24280997
-0.19069214 0.16374372 -0.24279413
-0.19068962 0.16381948 -0.24278434
-0.19068643 0.16389748 -0.24278647
-0.19068304 0.16397361 -0.24279466
-0.19068012 0.16404955 -0.24279284
-0.19067791 0.16412711 -0.24277502
-0.19067538 0.16420285 -0.24276522
-0.19067198 0.164279 -0.24277341
-0.19066869 0.1643551 -0.24277958
-0.1906653 0.1644332 -0.24278572
-0.19066277 0.16450894 -0.24277592
-0.19066027 0.16458665 -0.24276409
-0.19065697 0.16466275 -0.24277025
-0.19065319 0.16473906 -0.24278644
-0.19065017 0.16481502 -0.24278663
-0.19064754 0.16489081 -0.24277882
-0.19064465 0.1649687 -0.24277498
-0.19064203 0.16504449 -0.24276718
-0.19063953 0.16512218 -0.24275534
-0.19063662 0.16519812 -0.24275354
-0.19063322 0.16527425 -0.24276172
-0.19063 0.1653503 -0.2427659
-0.19062692 0.16542827 -0.24276604
-0.1906241 0.16550414 -0.24276224
-0.19062121 0.16558203 -0.24275838
-0.1906185 0.16565786 -0.24275258
-0.19061568 0.16573374 -0.24274878
-0.19061317 0.16581143 -0.24273694
-0.19061054 0.16588724 -0.24272914
-0.19060726 0.16596529 -0.24273327
-0.19060387 0.16604142 -0.24274147
-0.19060096 0.16611736 -0.24273965
-0.19059825 0.16619514 -0.24273181
-0.19059534 0.16627106 -0.24272999
-0.19059242 0.16634698 -0.2427282
-0.19058964 0.16642481 -0.24272235
-0.19058691 0.16650066 -0.24271655
-0.19058409 0.16657653 -0.24271274
-0.19058101 0.1666545 -0.24271289
-0.19057809 0.16673042 -0.24271107
-0.19057538 0.16680625 -0.24270529
-0.19057256 0.16688213 -0.24270147
-0.19056948 0.16696009 -0.24270162
-0.19056647 0.16703606 -0.2427018
-0.19056346 0.16711202 -0.24270201
-0.19056036 0.16718999 -0.24270213
-0.19055735 0.16726595 -0.24270234
-0.19055444 0.16734189 -0.24270052
-0.19055191 0.16741763 -0.24269073
-0.19054931 0.16749537 -0.24268088
-0.19054669 0.16757117 -0.24267308
-0.19054377 0.16764709 -0.24267128
-0.19054058 0.1677251 -0.24267343
-0.19053738 0.16780116 -0.2426776
-0.19053409 0.16787724 -0.2426838
-0.19053136 0.16795309 -0.24267799
-0.19052885 0.16803078 -0.24266616
-0.19052604 0.16810666 -0.24266234
-0.19108079 0.15351769 -0.24312893
-0.1910776 0.1535957 -0.24313107
-0.19107461 0.15367362 -0.24312922
-0.1910717 0.15374954 -0.24312741
-0.19106901 0.15382732 -0.24311957
-0.19106612 0.15390521 -0.24311572
-0.191063 0.15398122 -0.2431179
-0.19106011 0.1540591 -0.24311405
-0.1910577 0.15413675 -0.24310023
-0.19105469 0.15421271 -0.2431004
-0.19105139 0.15428881 -0.24310659
-0.19104798 0.15436496 -0.24311477
-0.19104478 0.15444101 -0.24311896
-0.19104259 0.15452054 -0.24309908
-0.19104028 0.15459815 -0.24308324
-0.19103758 0.15467593 -0.2430754
-0.19103457 0.1547519 -0.24307558
-0.19103129 0.15482995 -0.24307972
-0.19102848 0.15490584 -0.24307592
-0.19102596 0.15498354 -0.24306408
-0.19102287 0.1550615 -0.24306422
-0.19101939 0.15513769 -0.2430744
-0.19101617 0.15521374 -0.24307859
-0.19101328 0.15529162 -0.24307474
-0.19101018 0.15536763 -0.24307692
-0.19100738 0.15544546 -0.24307108
-0.19100526 0.15552299 -0.24305125
-0.19100256 0.15560077 -0.24304339
-0.19099936 0.15567683 -0.2430476
-0.19099605 0.15575293 -0.24305376
-0.19099325 0.15583076 -0.24304792
-0.19099024 0.15590672 -0.2430481
-0.19098726 0.15598466 -0.24304625
-0.19098456 0.15606244 -0.24303842
-0.19098175 0.15613832 -0.2430346
-0.19097865 0.15621628 -0.24303475
-0.19097564 0.15629224 -0.24303493
-0.19097266 0.15637016 -0.24303308
-0.19096926 0.15644631 -0.24304126
-0.19096595 0.15652241 -0.24304745
-0.19096315 0.15660024 -0.2430416
-0.19096075 0.1566779 -0.24302776
-0.19095814 0.15675564 -0.24301791
-0.19095513 0.15683161 -0.24301811
-0.19095214 0.15690953 -0.24301624
-0.19094935 0.15698737 -0.2430104
-0.19094673 0.15706316 -0.24300259
-0.19094354 0.15714116 -0.24300474
-0.19094034 0.15721722 -0.24300893
-0.19093741 0.15729314 -0.24300712
-0.19093463 0.15737097 -0.24300128
-0.1909316 0.15744694 -0.24300146
-0.19092843 0.15752494 -0.24300361
-0.19092561 0.15760082 -0.24299979
-0.19092292 0.15767862 -0.24299195
-0.19091991 0.15775459 -0.24299213
-0.1909171 0.15783241 -0.24298629
-0.19091441 0.1579102 -0.24297845
-0.1909114 0.15798616 -0.24297865
-0.19090828 0.15806217 -0.24298084
-0.19090529 0.15814011 -0.24297899
-0.19090208 0.15821615 -0.24298316
-0.19089891 0.15829417 -0.24298531
-0.19089648 0.15836987 -0.24297351
-0.19089387 0.15844761 -0.24296367
-0.19089118 0.15852541 -0.24295582
-0.19088826 0.15860133 -0.24295402
-0.19088498 0.15867938 -0.24295816
-0.19088186 0.15875539 -0.24296033
-0.19087885 0.15883136 -0.24296053
-0.19087568 0.15890937 -0.24296266
-0.19087286 0.15898524 -0.24295887
-0.19087026 0.15906298 -0.24294902
-0.19086745 0.15914083 -0.24294317
-0.19086425 0.15921687 -0.24294735
-0.19086124 0.15929285 -0.24294755
-0.19085854 0.15937063 -0.24293971
-0.19085546 0.15944859 -0.24293984
-0.19085245 0.15952456 -0.24294004
-0.19084963 0.15960044 -0.24293622
-0.19084683 0.15967827 -0.24293038
-0.19084413 0.15975606 -0.24292254
-0.19084132 0.15983194 -0.24291873
-0.19083804 0.15990999 -0.24292287
-0.19083503 0.15998596 -0.24292307
-0.19083202 0.16006193 -0.24292326
-0.1908289 0.16013794 -0.24292544
-0.19082582 0.1602159 -0.24292558
-0.19082281 0.16029187 -0.24292576
-0.19081992 0.16036974 -0.24292192
-0.19081709 0.16044562 -0.24291812
-0.19081439 0.16052341 -0.24291027
-0.1908116 0.16060124 -0.24290442
-0.19080859 0.16067721 -0.2429046
-0.19080548 0.16075322 -0.24290681
-0.19080237 0.16082923 -0.24290898
-0.19079927 0.16090524 -0.24291117
-0.19079646 0.16098307 -0.24290532
-0.19079377 0.16106085 -0.24289748
-0.19079086 0.16113679 -0.24289568
-0.19078767 0.1612148 -0.24289781
-0.19078495 0.16129063 -0.24289203
-0.19078244 0.16136833 -0.24288018
-0.19077954 0.16144425 -0.24287838
-0.19077674 0.16152209 -0.24287252
-0.19077411 0.16159788 -0.24286473
-0.19077131 0.16167571 -0.24285889
-0.1907685 0.16175158 -0.24285507
-0.19076522 0.16182964 -0.24285921
-0.19076259 0.16190544 -0.24285141
-0.19076057 0.16198291 -0.24282959
-0.19075787 0.16206071 -0.24282174
-0.19075447 0.16213685 -0.24282992
-0.19075108 0.16221298 -0.2428381
-0.19074826 0.16228886 -0.2428343
-0.19074546 0.1623667 -0.24282844
-0.19074276 0.16244449 -0.24282059
-0.19074056 0.16252206 -0.24280277
-0.19073755 0.16259803 -0.24280295
-0.19073385 0.16267429 -0.24281713
-0.19073015 0.16275057 -0.24283129
-0.19072655 0.16282484 -0.24284552
-0.19072355 0.16290277 -0.24284366
-0.19072095 0.16298051 -0.24283382
-0.19071871 0.16305612 -0.24281803
-0.1907164 0.16313374 -0.2428022
-0.19071351 0.16321161 -0.24279834
-0.19071002 0.1632878 -0.24280852
-0.19070691 0.16336381 -0.24281071
-0.19070429 0.1634396 -0.24280292
-0.1907009 0.1635177 -0.24280904
-0.19069751 0.16359384 -0.24281722
-0.19069488 0.16366963 -0.24280941
-0.19069248 0.1637473 -0.24279559
-0.19068995 0.16382304 -0.2427858
-0.19068676 0.16390105 -0.24278793
-0.19068336 0.16397719 -0.24279612
-0.19068046 0.16405311 -0.24279431
-0.19067824 0.16413069 -0.24277648
-0.19067572 0.16420643 -0.24276668
-0.19067231 0.16428258 -0.24277486
-0.1906691 0.16435863 -0.24277905
-0.19066563 0.16443676 -0.24278718
-0.19066311 0.16451252 -0.24277738
-0.19066061 0.16459021 -0.24276555
-0.1906573 0.16466631 -0.24277171
-0.19065361 0.16474259 -0.2427859
-0.1906506 0.16481856 -0.24278608
-0.19064781 0.16489638 -0.24278024
-0.19064498 0.16497226 -0.24277642
-0.19064236 0.16504805 -0.24276865
-0.19063985 0.16512576 -0.24275678
-0.19063695 0.16520168 -0.24275498
-0.19063355 0.16527782 -0.24276316
-0.19063035 0.16535388 -0.24276735
-0.19062725 0.16543184 -0.24276748
-0.19062454 0.16550767 -0.24276169
-0.19062164 0.16558555 -0.24275784
-0.19061883 0.16566142 -0.24275404
-0.1906161 0.16573726 -0.24274823
-0.19061351 0.16581501 -0.2427384
-0.19061089 0.1658908 -0.24273059
-0.19060759 0.16596885 -0.24273473
-0.19060419 0.166045 -0.24274291
-0.19060138 0.16612087 -0.24273911
-0.19059858 0.1661987 -0.24273327
-0.19059567 0.16627462 -0.24273145
-0.19059275 0.16635054 -0.24272965
-0.19058996 0.16642839 -0.24272379
-0.19058715 0.16650426 -0.24271999
-0.19058442 0.1665801 -0.2427142
-0.19058143 0.16665801 -0.24271235
-0.19057842 0.16673398 -0.24271253
-0.1905757 0.16680981 -0.24270672
-0.19057289 0.1668857 -0.24270293
-0.1905698 0.16696367 -0.24270307
-0.19056679 0.16703963 -0.24270326
-0.19056387 0.16711555 -0.24270146
-0.19056079 0.16719352 -0.24270159
-0.19055767 0.16726953 -0.24270378
-0.19055477 0.16734545 -0.24270198
-0.19055223 0.16742119 -0.24269217
-0.19054964 0.16749895 -0.24268234
-0.19054702 0.16757473 -0.24267453
-0.1905441 0.16765065 -0.24267274
-0.19054101 0.16772862 -0.24267288
-0.19053771 0.16780472 -0.24267906
-0.19053441 0.16788082 -0.24268523
-0.19053169 0.16795665 -0.24267945
-0.19052929 0.16803432 -0.2426656
-0.19052637 0.16811024 -0.2426638
-0.19052336 0.1681862 -0.24266398
-0.19108009 0.15359583 -0.24313214
-0.19107717 0.15367176 -0.24313034
-0.19107409 0.15374972 -0.24313049
-0.19107148 0.15382746 -0.24312064
-0.19106857 0.15390338 -0.24311884
-0.19106539 0.15398139 -0.24312097
-0.19106257 0.15405726 -0.24311717
-0.19106019 0.15413688 -0.24310128
-0.19105707 0.15421289 -0.24310347
-0.19105387 0.15428895 -0.24310766
-0.19105037 0.15436514 -0.24311784
-0.19104716 0.15444119 -0.24312201
-0.19104508 0.15452066 -0.24310015
-0.19104277 0.15459828 -0.24308431
-0.19103996 0.15467611 -0.24307847
-0.19103695 0.15475208 -0.24307865
-0.19103368 0.15483013 -0.24308279
-0.19103086 0.154906 -0.24307899
-0.19102845 0.15498367 -0.24306515
-0.19102536 0.15506163 -0.2430653
-0.19102186 0.15513782 -0.24307548
-0.19101866 0.15521388 -0.24307966
-0.19101575 0.1552898 -0.24307784
-0.19101256 0.15536781 -0.24307999
-0.19100976 0.15544564 -0.24307415
-0.19100764 0.15552317 -0.24305432
-0.19100504 0.15560091 -0.24304447
-0.19100164 0.15567705 -0.24305266
-0.19099844 0.15575311 -0.24305683
-0.19099565 0.15583093 -0.24305099
-0.19099273 0.15590686 -0.24304917
-0.19098964 0.15598482 -0.24304932
-0.19098704 0.15606257 -0.24303949
-0.19098422 0.15613845 -0.24303567
-0.19098103 0.15621646 -0.24303782
-0.19097812 0.15629238 -0.243036
-0.19097504 0.15637034 -0.24303615
-0.19097164 0.15644649 -0.24304433
-0.19096844 0.15652254 -0.24304852
-0.19096553 0.15660042 -0.24304467
-0.19096322 0.15667804 -0.24302883
-0.19096063 0.15675578 -0.24301898
-0.19095762 0.15683174 -0.24301918
-0.19095452 0.1569097 -0.24301933
-0.19095173 0.15698753 -0.24301347
-0.19094911 0.15706334 -0.24300568
-0.19094601 0.1571413 -0.24300581
-0.19094281 0.15721735 -0.24301
-0.1909399 0.15729327 -0.2430082
-0.1909371 0.1573711 -0.24300236
-0.19093409 0.15744707 -0.24300253
-0.1909309 0.15752508 -0.24300468
-0.19092809 0.15760095 -0.24300086
-0.19092539 0.15767875 -0.24299303
-0.19092241 0.15775667 -0.24299118
-0.19091959 0.15783255 -0.24298738
-0.19091688 0.15791033 -0.24297953
-0.19091387 0.1579863 -0.24297972
-0.19091077 0.15806231 -0.24298191
-0.19090778 0.15814024 -0.24298006
-0.19090457 0.15821628 -0.24298424
-0.19090138 0.15829429 -0.24298638
-0.19089887 0.15837005 -0.24297658
-0.19089636 0.15844774 -0.24296474
-0.19089366 0.15852553 -0.24295689
-0.19089064 0.15860151 -0.24295709
-0.19088736 0.15867956 -0.24296123
-0.19088446 0.15875548 -0.24295941
-0.19088134 0.15883149 -0.2429616
-0.19087815 0.1589095 -0.24296375
-0.19087525 0.15898542 -0.24296194
-0.19087264 0.15906316 -0.24295209
-0.19086985 0.15914099 -0.24294624
-0.19086674 0.159217 -0.24294844
-0.19086364 0.15929301 -0.24295062
-0.19086093 0.15937081 -0.24294278
-0.19085795 0.15944873 -0.24294093
-0.19085503 0.15952465 -0.24293911
-0.19085212 0.15960057 -0.24293731
-0.19084921 0.15967844 -0.24293345
-0.19084662 0.1597562 -0.24292362
-0.19084361 0.15983216 -0.2429238
-0.1908405 0.15990818 -0.242926
-0.19083761 0.15998605 -0.24292214
-0.19083449 0.16006206 -0.24292433
-0.19083132 0.16014007 -0.24292648
-0.1908282 0.16021608 -0.24292865
-0.19082519 0.16029204 -0.24292886
-0.1908223 0.16036992 -0.24292499
-0.19081958 0.16044575 -0.24291919
-0.19081679 0.16052359 -0.24291334
-0.19081399 0.16060142 -0.24290749
-0.19081108 0.16067734 -0.24290569
-0.19080786 0.1607534 -0.24290988
-0.19080476 0.16082941 -0.24291207
-0.19080165 0.16090542 -0.24291426
-0.19079895 0.1609832 -0.24290641
-0.19079626 0.16106099 -0.24289855
-0.19079334 0.16113693 -0.24289677
-0.19079024 0.16121292 -0.24289894
-0.19078743 0.16129076 -0.2428931
-0.19078484 0.1613685 -0.24288325
-0.19078203 0.16144438 -0.24287945
-0.1907791 0.1615203 -0.24287763
-0.19077641 0.1615981 -0.24286979
-0.1907738 0.16167584 -0.24285996
-0.19077098 0.16175172 -0.24285614
-0.19076771 0.16182977 -0.24286029
-0.19076508 0.16190556 -0.24285248
-0.19076306 0.16198304 -0.24283066
-0.19076036 0.16206084 -0.24282283
-0.19075696 0.16213697 -0.24283099
-0.19075356 0.16221312 -0.24283917
-0.19075066 0.16228904 -0.24283737
-0.19074795 0.16236684 -0.24282953
-0.19074525 0.16244462 -0.24282166
-0.19074304 0.1625222 -0.24280384
-0.19074003 0.16259816 -0.24280404
-0.19073623 0.16267447 -0.2428202
-0.19073255 0.16275075 -0.24283437
-0.19072893 0.16282502 -0.24284859
-0.19072595 0.16290294 -0.24284673
-0.19072334 0.16298069 -0.24283689
-0.19072102 0.16305634 -0.24282311
-0.19071889 0.16313387 -0.24280328
-0.190716 0.16321175 -0.24279943
-0.19071251 0.16328794 -0.24280959
-0.1907094 0.16336395 -0.2428118
-0.19070677 0.16343974 -0.24280399
-0.19070339 0.16351783 -0.24281013
-0.19069999 0.16359398 -0.24281831
-0.19069737 0.16366976 -0.24281052
-0.19069487 0.16374747 -0.24279867
-0.19069244 0.16382317 -0.24278688
-0.19068925 0.16390118 -0.24278902
-0.19068596 0.16397728 -0.2427952
-0.19068295 0.16405325 -0.24279539
-0.19068073 0.16413082 -0.24277756
-0.1906781 0.16420661 -0.24276975
-0.1906749 0.16428266 -0.24277395
-0.19067161 0.16435876 -0.24278012
-0.19066812 0.16443689 -0.24278826
-0.1906655 0.16451269 -0.24278046
-0.19066299 0.16459039 -0.24276862
-0.19065979 0.16466644 -0.2427728
-0.1906561 0.16474272 -0.24278697
-0.19065309 0.16481869 -0.24278717
-0.19065037 0.16489452 -0.24278137
-0.19064748 0.16497239 -0.24277751
-0.19064476 0.16504823 -0.24277171
-0.19064236 0.16512589 -0.24275787
-0.19063944 0.16520181 -0.24275607
-0.19063593 0.165278 -0.24276625
-0.19063284 0.16535401 -0.24276844
-0.19062975 0.16543198 -0.24276857
-0.19062693 0.16550785 -0.24276477
-0.19062403 0.16558573 -0.24276093
-0.19062132 0.16566156 -0.24275512
-0.1906185 0.16573744 -0.24275132
-0.19061589 0.16581519 -0.24274147
-0.19061327 0.16589098 -0.24273367
-0.1906101 0.16596898 -0.24273582
-0.19060668 0.16604513 -0.242744
-0.19060387 0.16612101 -0.24274018
-0.19060117 0.16619879 -0.24273235
-0.19059816 0.16627476 -0.24273254
-0.19059515 0.16635072 -0.24273273
-0.19059235 0.16642857 -0.24272688
-0.19058964 0.1665044 -0.24272108
-0.19058691 0.16658023 -0.24271527
-0.19058383 0.16665819 -0.24271542
-0.19058082 0.16673416 -0.2427156
-0.1905781 0.16680999 -0.24270982
-0.19057529 0.16688588 -0.242706
-0.1905721 0.16696389 -0.24270815
-0.19056918 0.16703981 -0.24270633
-0.19056636 0.16711569 -0.24270254
-0.19056328 0.16719365 -0.24270268
-0.19056007 0.16726971 -0.24270687
-0.19055717 0.16734563 -0.24270505
-0.19055463 0.16742137 -0.24269527
-0.19055203 0.16749913 -0.24268542
-0.1905494 0.16757491 -0.24267763
-0.1905465 0.16765083 -0.24267581
-0.1905435 0.16772875 -0.24267396
-0.1905403 0.16780481 -0.24267814
-0.1905369 0.16788095 -0.24268633
-0.19053417 0.16795678 -0.24268052
-0.19053178 0.16803445 -0.24266669
-0.19052896 0.16811033 -0.24266288
-0.19052584 0.16818634 -0.24266507
-0.19107893 0.15359673 -0.2431356
-0.19107594 0.15367465 -0.24313374
-0.19107313 0.15375248 -0.24312788
-0.19107035 0.15383032 -0.24312204
-0.19106753 0.1539062 -0.24311824
-0.19106434 0.1539842 -0.24312037
-0.19106153 0.15406008 -0.24311657
-0.19105883 0.15413786 -0.24310872
-0.19105583 0.15421578 -0.24310687
-0.19105272 0.15429179 -0.24310906
-0.19104923 0.15436798 -0.24311924
-0.19104612 0.15444399 -0.24312142
-0.19104382 0.15452357 -0.24310355
-0.19104162 0.15460113 -0.24308571
-0.19103873 0.15467902 -0.24308187
-0.19103581 0.15475494 -0.24308005
-0.1910325 0.15483104 -0.24308625
-0.19102971 0.15490887 -0.24308039
-0.19102721 0.15498656 -0.24306855
-0.19102402 0.15506457 -0.24307069
-0.1910205 0.15513881 -0.24308291
-0.19101731 0.15521681 -0.24308506
-0.1910145 0.15529269 -0.24308124
-0.19101138 0.1553687 -0.24308345
-0.19100869 0.1554465 -0.24307559
-0.1910065 0.15552601 -0.24305572
-0.19100389 0.15560377 -0.24304587
-0.19100049 0.1556799 -0.24305405
-0.19099729 0.15575595 -0.24305823
-0.19099429 0.15583387 -0.24305639
-0.19099148 0.15590976 -0.24305257
-0.1909885 0.15598768 -0.24305072
-0.1909858 0.15606546 -0.24304289
-0.19098297 0.15614134 -0.24303907
-0.19097969 0.15621939 -0.24304321
-0.19097678 0.15629531 -0.2430414
-0.19097379 0.15637323 -0.24303955
-0.19097039 0.15644938 -0.24304773
-0.19096719 0.15652543 -0.24305192
-0.19096439 0.15660328 -0.24304608
-0.19096197 0.15668093 -0.24303222
-0.19095938 0.15675867 -0.24302238
-0.19095646 0.1568346 -0.24302058
-0.19095345 0.15691057 -0.24302077
-0.19095065 0.1569884 -0.24301492
-0.19094795 0.15706618 -0.24300706
-0.19094487 0.15714414 -0.24300721
-0.19094166 0.1572202 -0.24301142
-0.19093865 0.15729617 -0.24301159
-0.19093585 0.15737399 -0.24300575
-0.19093294 0.15744993 -0.24300393
-0.19092976 0.15752794 -0.24300608
-0.19092694 0.15760382 -0.24300227
-0.19092405 0.15768169 -0.24299842
-0.19092113 0.15775761 -0.2429966
-0.19091824 0.15783548 -0.24299276
-0.19091544 0.15791333 -0.24298692
-0.19091243 0.15798929 -0.2429871
-0.19090952 0.15806521 -0.24298529
-0.19090652 0.15814313 -0.24298345
-0.19090322 0.15821923 -0.24298963
-0.19090021 0.1582952 -0.24298982
-0.19089761 0.15837294 -0.24297997
-0.1908951 0.15845063 -0.24296814
-0.19089231 0.15852848 -0.24296229
-0.1908893 0.15860444 -0.24296248
-0.19088618 0.15868045 -0.24296466
-0.1908831 0.15875842 -0.2429648
-0.19087999 0.15883443 -0.24296699
-0.19087689 0.15891044 -0.24296919
-0.19087398 0.15898831 -0.24296534
-0.19087148 0.15906602 -0.24295349
-0.19086869 0.15914385 -0.24294764
-0.19086538 0.15921995 -0.24295384
-0.19086237 0.15929592 -0.24295402
-0.19085968 0.1593737 -0.24294618
-0.19085675 0.15944962 -0.24294436
-0.19085367 0.15952758 -0.24294451
-0.19085085 0.15960346 -0.24294069
-0.19084796 0.15968134 -0.24293685
-0.19084536 0.15975909 -0.24292701
-0.19084245 0.15983501 -0.2429252
-0.19083923 0.15991107 -0.24292938
-0.19083625 0.15998898 -0.24292754
-0.19083324 0.16006495 -0.24292773
-0.19083013 0.16014096 -0.24292991
-0.19082704 0.16021892 -0.24293005
-0.19082412 0.16029485 -0.24292825
-0.19082122 0.16037077 -0.24292645
-0.19081841 0.16044861 -0.24292059
-0.19081572 0.16052639 -0.24291274
-0.1908129 0.16060227 -0.24290894
-0.19080982 0.16068023 -0.24290907
-0.1908067 0.16075625 -0.24291128
-0.19080369 0.16083221 -0.24291146
-0.19080049 0.16090827 -0.24291565
-0.1907976 0.16098614 -0.2429118
-0.19079487 0.16106197 -0.242906
-0.19079188 0.16113991 -0.24290414
-0.19078897 0.16121583 -0.24290234
-0.19078627 0.16129361 -0.24289449
-0.19078366 0.16137135 -0.24288465
-0.19078076 0.16144729 -0.24288285
-0.19077793 0.16152316 -0.24287903
-0.19077533 0.1616009 -0.2428692
-0.19077264 0.16167869 -0.24286135
-0.19076972 0.16175461 -0.24285954
-0.1907666 0.16183063 -0.24286172
-0.19076391 0.16190842 -0.24285388
-0.19076179 0.16198593 -0.24283406
-0.19075909 0.16206373 -0.24282619
-0.19075559 0.16213992 -0.24283639
-0.1907523 0.16221601 -0.24284257
-0.19074948 0.1622919 -0.24283876
-0.19074678 0.16236968 -0.24283092
-0.19074416 0.16244547 -0.24282312
-0.19074176 0.16252509 -0.24280724
-0.19073875 0.16260105 -0.24280742
-0.19073515 0.16267532 -0.24282165
-0.19073135 0.16275164 -0.24283782
-0.19072776 0.16282788 -0.24284999
-0.19072467 0.16290584 -0.24285012
-0.19072224 0.16298154 -0.24283834
-0.19071984 0.1630592 -0.24282449
-0.19071771 0.16313672 -0.24280468
-0.19071482 0.16321459 -0.24280082
-0.19071123 0.16329083 -0.24281299
-0.19070813 0.16336684 -0.24281518
-0.19070549 0.16344263 -0.24280739
-0.1907022 0.16351873 -0.24281356
-0.1906988 0.16359487 -0.24282174
-0.190696 0.1636727 -0.2428159
-0.19069369 0.16375032 -0.24280006
-0.19069116 0.16382606 -0.24279027
-0.19068806 0.16390207 -0.24279246
-0.19068466 0.16397822 -0.24280062
-0.19068167 0.16405614 -0.24279878
-0.19067955 0.16413367 -0.24277896
-0.19067693 0.16420946 -0.24277115
-0.19067353 0.1642856 -0.24277933
-0.19067022 0.1643617 -0.24278551
-0.19066684 0.1644398 -0.24279165
-0.19066432 0.16451554 -0.24278185
-0.19066189 0.16459124 -0.24277005
-0.19065851 0.16466933 -0.24277619
-0.19065472 0.16474566 -0.24279237
-0.19065171 0.16482162 -0.24279255
-0.19064899 0.16489746 -0.24278675
-0.19064629 0.16497524 -0.2427789
-0.19064367 0.16505104 -0.2427711
-0.19064108 0.16512878 -0.24276125
-0.19063815 0.1652047 -0.24275947
-0.19063476 0.16528085 -0.24276763
-0.19063155 0.1653569 -0.24277183
-0.19062847 0.16543487 -0.24277195
-0.19062564 0.16551074 -0.24276817
-0.19062285 0.16558857 -0.24276231
-0.19061993 0.16566449 -0.24276051
-0.19061722 0.16574034 -0.2427547
-0.19061472 0.16581804 -0.24274287
-0.19061218 0.16589378 -0.24273306
-0.1906088 0.16597188 -0.2427392
-0.19060531 0.16604806 -0.24274938
-0.19060259 0.1661239 -0.24274358
-0.19059978 0.16620173 -0.24273774
-0.19059677 0.16627769 -0.24273792
-0.19059387 0.16635363 -0.24273612
-0.19059117 0.16643141 -0.24272826
-0.19058844 0.16650724 -0.24272247
-0.19058563 0.16658312 -0.24271867
-0.19058271 0.16665904 -0.24271685
-0.19057973 0.16673696 -0.242715
-0.19057691 0.16681285 -0.2427112
-0.19057409 0.16688873 -0.2427074
-0.19057091 0.16696674 -0.24270953
-0.1905679 0.1670427 -0.24270973
-0.19056498 0.16711862 -0.24270791
-0.19056197 0.16719459 -0.24270812
-0.19055897 0.16727251 -0.24270625
-0.19055596 0.16734847 -0.24270645
-0.19055334 0.16742426 -0.24269864
-0.19055083 0.16750197 -0.24268681
-0.19054821 0.16757776 -0.242679
-0.19054531 0.16765368 -0.24267721
-0.19054221 0.16773164 -0.24267733
-0.19053891 0.16780774 -0.24268353
-0.1905356 0.16788384 -0.2426897
-0.19053279 0.16795972 -0.2426859
-0.19053039 0.16803738 -0.24267207
-0.19052757 0.16811326 -0.24266827
-0.19052455 0.16818923 -0.24266845
-0.19107726 0.15359662 -0.24313559
-0.19107437 0.1536745 -0.24313173
-0.19107138 0.15375242 -0.24312988
-0.19106868 0.15383022 -0.24312204
-0.19106586 0.15390609 -0.24311823
-0.19106267 0.1539841 -0.24312037
-0.19105986 0.15405998 -0.24311656
-0.19105735 0.15413767 -0.24310473
-0.19105427 0.15421565 -0.24310488
-0.19105107 0.15429169 -0.24310905
-0.19104756 0.15436788 -0.24311922
-0.19104446 0.15444389 -0.24312142
-0.19104217 0.15452346 -0.24310353
-0.19103995 0.15460104 -0.24308571
-0.19103716 0.15467887 -0.24307986
-0.19103415 0.15475483 -0.24308005
-0.19103077 0.15483293 -0.24308619
-0.19102804 0.15490876 -0.24308038
-0.19102564 0.15498641 -0.24306655
-0.19102246 0.15506443 -0.2430687
-0.19101903 0.15513861 -0.24307892
-0.19101585 0.15521662 -0.24308106
-0.19101293 0.15529254 -0.24307925
-0.19100982 0.15536855 -0.24308142
-0.19100703 0.15544638 -0.24307558
-0.19100484 0.15552591 -0.2430557
-0.19100223 0.15560366 -0.24304587
-0.19099884 0.15567979 -0.24305403
-0.19099563 0.15575585 -0.24305823
-0.19099273 0.15583374 -0.24305438
-0.19098982 0.15590966 -0.24305257
-0.19098683 0.15598758 -0.24305072
-0.19098422 0.15606532 -0.24304086
-0.1909814 0.15614119 -0.24303707
-0.19097823 0.1562192 -0.24303922
-0.19097522 0.15629517 -0.2430394
-0.19097222 0.1563731 -0.24303755
-0.19096883 0.15644923 -0.24304572
-0.19096562 0.15652528 -0.24304992
-0.19096272 0.15660317 -0.24304605
-0.19096041 0.15668078 -0.24303022
-0.19095781 0.15675852 -0.24302039
-0.1909548 0.1568345 -0.24302056
-0.1909517 0.15691246 -0.24302071
-0.19094901 0.15699024 -0.24301288
-0.19094639 0.15706603 -0.24300507
-0.1909432 0.15714404 -0.24300721
-0.19093999 0.1572201 -0.24301139
-0.19093709 0.15729602 -0.2430096
-0.19093429 0.15737385 -0.24300374
-0.19093128 0.15744981 -0.24300393
-0.19092809 0.15752783 -0.24300607
-0.19092527 0.15760371 -0.24300227
-0.19092257 0.15768149 -0.24299441
-0.19091956 0.15775746 -0.24299461
-0.19091667 0.15783533 -0.24299076
-0.19091406 0.15791309 -0.24298093
-0.19091097 0.1579891 -0.2429831
-0.19090794 0.15806507 -0.2429833
-0.19090496 0.15814298 -0.24298143
-0.19090165 0.15821908 -0.24298763
-0.19089854 0.15829509 -0.24298981
-0.19089603 0.15837279 -0.24297798
-0.19089353 0.1584505 -0.24296613
-0.19089083 0.15852828 -0.24295828
-0.19088782 0.15860425 -0.24295847
-0.19088455 0.1586823 -0.24296261
-0.19088154 0.15875827 -0.24296281
-0.19087842 0.15883428 -0.24296498
-0.19087523 0.15891229 -0.24296713
-0.19087252 0.15898812 -0.24296132
-0.19086982 0.1590659 -0.24295348
-0.19086702 0.15914375 -0.24294764
-0.19086382 0.1592198 -0.24295181
-0.19086081 0.15929577 -0.24295202
-0.19085811 0.15937355 -0.24294415
-0.19085519 0.15944947 -0.24294236
-0.190852 0.15952748 -0.24294449
-0.19084929 0.15960331 -0.2429387
-0.19084638 0.1596812 -0.24293485
-0.19084379 0.15975894 -0.242925
-0.19084078 0.15983491 -0.2429252
-0.19083767 0.15991092 -0.24292737
-0.19083467 0.15998884 -0.24292552
-0.19083157 0.16006485 -0.2429277
-0.19082846 0.16014086 -0.24292991
-0.19082537 0.16021882 -0.24293005
-0.19082245 0.16029474 -0.24292824
-0.19081955 0.16037066 -0.24292643
-0.19081675 0.16044851 -0.24292058
-0.19081405 0.16052629 -0.24291274
-0.19081134 0.16060212 -0.24290693
-0.19080824 0.16068009 -0.24290708
-0.19080514 0.1607561 -0.24290927
-0.19080193 0.16083215 -0.24291345
-0.19079891 0.16090812 -0.24291363
-0.19079602 0.16098599 -0.24290979
-0.19079332 0.16106379 -0.24290195
-0.19079041 0.16113971 -0.24290013
-0.1907874 0.16121568 -0.24290033
-0.1907846 0.16129351 -0.24289447
-0.190782 0.16137126 -0.24288464
-0.19077918 0.16144714 -0.24288082
-0.19077636 0.16152301 -0.24287704
-0.19077367 0.1616008 -0.24286917
-0.19077097 0.16167858 -0.24286133
-0.19076815 0.16175447 -0.24285755
-0.19076495 0.16183051 -0.24286172
-0.19076224 0.16190831 -0.24285388
-0.19076012 0.16198584 -0.24283405
-0.19075742 0.16206363 -0.24282619
-0.19075412 0.16213973 -0.24283238
-0.19075072 0.16221586 -0.24284056
-0.19074781 0.1622918 -0.24283874
-0.19074512 0.16236958 -0.2428309
-0.19074258 0.16244532 -0.24282111
-0.1907402 0.16252494 -0.24280523
-0.19073719 0.1626009 -0.24280542
-0.19073348 0.16267522 -0.24282163
-0.19072971 0.16275349 -0.24283576
-0.19072609 0.16282777 -0.24284998
-0.19072311 0.16290569 -0.24284813
-0.1907206 0.16298339 -0.24283628
-0.19071826 0.16305906 -0.2428225
-0.19071604 0.16313662 -0.24280466
-0.19071315 0.16321449 -0.2428008
-0.19070967 0.16329068 -0.24281099
-0.19070655 0.16336669 -0.24281317
-0.19070382 0.16344252 -0.24280737
-0.19070053 0.16351862 -0.24281356
-0.19069722 0.16359472 -0.24281973
-0.19069444 0.16367255 -0.24281389
-0.19069211 0.16375017 -0.24279806
-0.19068959 0.16382591 -0.24278826
-0.1906864 0.16390392 -0.2427904
-0.19068308 0.16397807 -0.24279863
-0.19068009 0.16405599 -0.24279678
-0.19067788 0.16413356 -0.24277894
-0.19067535 0.16420931 -0.24276915
-0.19067195 0.16428545 -0.24277732
-0.19066875 0.16436151 -0.24278152
-0.19066527 0.16443965 -0.24278964
-0.19066274 0.16451539 -0.24277985
-0.19066031 0.16459109 -0.24276805
-0.19065695 0.16466919 -0.24277419
-0.19065315 0.16474551 -0.24279036
-0.19065005 0.16482152 -0.24279255
-0.19064742 0.16489731 -0.24278474
-0.19064462 0.16497514 -0.2427789
-0.190642 0.16505094 -0.24277109
-0.1906395 0.16512863 -0.24275926
-0.19063649 0.1652046 -0.24275944
-0.19063309 0.16528074 -0.24276763
-0.19062997 0.16535676 -0.24276981
-0.19062689 0.16543472 -0.24276996
-0.19062407 0.16551059 -0.24276614
-0.19062118 0.16558847 -0.2427623
-0.19061846 0.1656643 -0.2427565
-0.19061574 0.16574015 -0.2427507
-0.19061314 0.16581789 -0.24274085
-0.19061051 0.16589367 -0.24273306
-0.19060713 0.16597177 -0.2427392
-0.19060382 0.16604787 -0.24274537
-0.19060092 0.16612379 -0.24274358
-0.19059822 0.16620159 -0.24273571
-0.19059521 0.16627756 -0.24273592
-0.19059229 0.16635348 -0.2427341
-0.19058949 0.16643131 -0.24272826
-0.19058678 0.16650714 -0.24272245
-0.19058405 0.16658297 -0.24271666
-0.19058104 0.16665894 -0.24271685
-0.19057806 0.16673686 -0.24271499
-0.19057533 0.1668127 -0.24270919
-0.19057252 0.16688858 -0.24270537
-0.19056933 0.16696659 -0.24270752
-0.19056632 0.16704255 -0.24270771
-0.19056341 0.16711847 -0.24270591
-0.19056039 0.16719444 -0.24270611
-0.1905573 0.1672724 -0.24270624
-0.19055429 0.16734837 -0.24270643
-0.19055177 0.16742411 -0.24269664
-0.19054925 0.16750182 -0.24268481
-0.19054654 0.16757765 -0.242679
-0.19054362 0.16765358 -0.24267718
-0.19054064 0.16773149 -0.24267533
-0.19053733 0.16780759 -0.24268152
-0.19053403 0.16788369 -0.2426877
-0.19053121 0.16795957 -0.24268389
-0.19052881 0.16803724 -0.24267006
-0.19052599 0.16811311 -0.24266626
-0.19052298 0.16818908 -0.24266645
-0.19108018 0.15351957 -0.24312758
-0.19107707 0.15359558 -0.24312979
-0.19107409 0.1536735 -0.24312793
-0.19107108 0.15374947 -0.24312812
-0.19106837 0.15382725 -0.24312027
-0.19106548 0.15390512 -0.24311641
-0.19106227 0.15398118 -0.24312061
-0.19105947 0.15405902 -0.24311475
-0.19105716 0.15413663 -0.24309891
-0.19105406 0.15421264 -0.24310112
-0.19105086 0.15428869 -0.24310529
-0.19104736 0.15436488 -0.24311547
-0.19104415 0.15444094 -0.24311966
-0.19104196 0.15452045 -0.24309978
-0.19103974 0.15459803 -0.24308194
-0.19103694 0.15467586 -0.2430761
-0.19103393 0.15475182 -0.24307629
-0.19103065 0.15482987 -0.24308042
-0.19102794 0.15490571 -0.24307463
-0.19102544 0.15498342 -0.24306278
-0.19102234 0.15506138 -0.24306293
-0.19101894 0.15513752 -0.24307111
