# .PCD v0.7 - Point Cloud Data file format
VERSION 0.7
FIELDS x y z
SIZE 4 4 4
TYPE F F F
COUNT 1 1 1
WIDTH 1378
HEIGHT 1
VIEWPOINT 0 0 0 1 0 0 0
POINTS 1378
DATA ascii
-0.19069913 0.16793193 -0.24270165
-0.19069614 0.16800985 -0.2426998
-0.19069341 0.16808569 -0.24269399
-0.1906907 0.16816153 -0.24268818
-0.1906877 0.16823944 -0.24268633
-0.1906843 0.16831559 -0.24269451
-0.19068149 0.16839147 -0.24269071
-0.19067876 0.1684673 -0.2426849
-0.19067575 0.16854326 -0.24268508
-0.19067305 0.16862105 -0.24267724
-0.19067024 0.16869693 -0.24267343
-0.19066705 0.16877495 -0.24267557
-0.19107166 0.15811276 -0.24300137
-0.19106856 0.15819073 -0.24300152
-0.19106546 0.15826674 -0.2430037
-0.19106226 0.15834279 -0.24300788
-0.19105916 0.15842076 -0.24300802
-0.19105123 0.15865208 -0.24298254
-0.19104841 0.15872796 -0.24297872
-0.19104251 0.15888181 -0.24297506
-0.1910332 0.1591118 -0.24297957
-0.19103001 0.15918981 -0.2429817
-0.19102742 0.15926754 -0.24297187
-0.19102508 0.15934321 -0.24295807
-0.19101918 0.15949705 -0.2429544
-0.19101599 0.15957506 -0.24295655
-0.19101298 0.15965103 -0.24295673
-0.19101009 0.1597289 -0.24295287
-0.19100437 0.15988265 -0.24294521
-0.19099545 0.16011247 -0.24294174
-0.19099255 0.16019034 -0.24293788
-0.19098614 0.16034245 -0.24294624
-0.19098344 0.16042024 -0.2429384
-0.19098082 0.16049603 -0.24293059
-0.19097783 0.16057394 -0.24292874
-0.19097491 0.16064987 -0.24292693
-0.1909717 0.16072592 -0.24293113
-0.19096851 0.16080393 -0.24293326
-0.1909658 0.16087976 -0.24292745
-0.19096319 0.16095752 -0.2429176
-0.19095758 0.16111122 -0.24290794
-0.19094805 0.16133934 -0.24291849
-0.19094525 0.16141717 -0.24291265
-0.19094266 0.16149493 -0.2429028
-0.19093993 0.16157076 -0.242897
-0.19093704 0.16164863 -0.24289313
-0.19093403 0.1617246 -0.24289334
-0.19093101 0.16180056 -0.24289352
-0.19092812 0.16187844 -0.24288967
-0.1909254 0.16195428 -0.24288386
-0.19092029 0.16210972 -0.24286216
-0.19091669 0.16218595 -0.24287435
-0.19091339 0.16226205 -0.24288052
-0.19091058 0.16233793 -0.24287671
-0.19090806 0.16241562 -0.24286488
-0.19090547 0.16249338 -0.24285503
-0.19090293 0.16256912 -0.24284524
-0.19090083 0.1626486 -0.24282336
-0.19089821 0.16272439 -0.24281555
-0.19088782 0.1629529 -0.24284407
-0.19088541 0.16303056 -0.24283025
-0.19088201 0.16310671 -0.24283841
-0.19087842 0.16318293 -0.24285059
-0.1908752 0.16325898 -0.24285477
-0.19087242 0.16333683 -0.24284892
-0.19086999 0.16341253 -0.24283713
-0.19086379 0.1635665 -0.24283946
-0.19086076 0.16364247 -0.24283963
-0.19085824 0.16371821 -0.24282983
-0.19085544 0.16379605 -0.24282399
-0.19085273 0.16387188 -0.24281818
-0.19085002 0.16394967 -0.24281034
-0.1908472 0.16402555 -0.24280652
-0.19084412 0.16410351 -0.24280667
-0.19084081 0.16417961 -0.24281284
-0.19083771 0.16425562 -0.24281503
-0.19083479 0.16433154 -0.24281323
-0.19082937 0.16448517 -0.24279958
-0.19082618 0.16456318 -0.24280171
-0.19082297 0.16463923 -0.2428059
-0.19081996 0.1647152 -0.24280608
-0.19081695 0.16479117 -0.24280627
-0.19081384 0.16486718 -0.24280846
-0.19081084 0.1649451 -0.24280658
-0.19080813 0.16502093 -0.2428008
-0.19080521 0.16509685 -0.24279898
-0.19080241 0.16517468 -0.24279314
-0.19079979 0.16525048 -0.24278533
-0.1907967 0.16532844 -0.24278548
-0.19078827 0.16555803 -0.24277201
-0.19078515 0.16563404 -0.24277419
-0.19078226 0.16571191 -0.24277034
-0.19077975 0.16578767 -0.24276054
-0.19077691 0.16586354 -0.24275672
-0.19077402 0.16594142 -0.24275288
-0.19077131 0.16601725 -0.24274707
-0.19076481 0.16617136 -0.2427554
-0.1907586 0.16632338 -0.24275976
-0.1907554 0.16639943 -0.24276395
-0.1907526 0.16647726 -0.2427581
-0.19074997 0.16655305 -0.2427503
-0.19074696 0.16662902 -0.2427505
-0.19074143 0.16678269 -0.24273883
-0.19073853 0.16685861 -0.24273703
-0.1907355 0.16693458 -0.2427372
-0.19073242 0.16701254 -0.24273735
-0.19072951 0.16708846 -0.24273553
-0.19072649 0.16716443 -0.24273574
-0.1907237 0.16724226 -0.24272987
-0.19071816 0.16739398 -0.24272028
-0.19071196 0.16754796 -0.2427226
-0.19070934 0.16762374 -0.24271479
-0.19070652 0.16769962 -0.24271098
-0.19070411 0.16777728 -0.24269715
-0.19070129 0.16785316 -0.24269333
-0.19069789 0.16792931 -0.24270152
-0.19069499 0.16800718 -0.24269766
-0.19069217 0.16808306 -0.24269386
-0.19068655 0.16823676 -0.2426842
-0.19068316 0.16831291 -0.24269238
-0.19068034 0.16838878 -0.24268857
-0.19067752 0.16846466 -0.24268475
-0.1906746 0.1685406 -0.24268296
-0.19067191 0.16861838 -0.24267511
-0.19066909 0.16869426 -0.2426713
-0.19066581 0.16877231 -0.24267544
-0.19107077 0.15811469 -0.24300213
-0.19106768 0.15819265 -0.24300228
-0.19106457 0.15826866 -0.24300447
-0.19106127 0.15834476 -0.24301064
-0.19105819 0.15842272 -0.24301079
-0.19105305 0.15857621 -0.24299113
-0.19105026 0.15865405 -0.24298528
-0.19104445 0.15880784 -0.24297962
-0.19104163 0.15888372 -0.24297582
-0.19103543 0.15903769 -0.24297814
-0.19103232 0.15911371 -0.24298033
-0.19102913 0.15919171 -0.24298246
-0.19102661 0.15926746 -0.24297267
-0.1910242 0.15934512 -0.24295881
-0.1910183 0.15949896 -0.24295515
-0.19101511 0.15957697 -0.24295729
-0.191012 0.15965298 -0.24295947
-0.19100921 0.15973081 -0.24295363
-0.19100349 0.15988457 -0.24294597
-0.19099458 0.16011438 -0.24294248
-0.19099158 0.1601923 -0.24294063
-0.19098827 0.1602684 -0.24294682
-0.19098257 0.16042215 -0.24293914
-0.19097994 0.16049793 -0.24293135
-0.19097695 0.16057587 -0.24292949
-0.19097404 0.16065179 -0.24292767
-0.19097082 0.16072784 -0.24293187
-0.19096772 0.16080385 -0.24293405
-0.19096492 0.16088168 -0.24292821
-0.19096231 0.16095942 -0.24291836
-0.19095969 0.16103521 -0.24291056
-0.19095661 0.16111319 -0.24291068
-0.19094719 0.16134125 -0.24291924
-0.19094439 0.16141909 -0.2429134
-0.19094169 0.16149688 -0.24290554
-0.19093907 0.16157266 -0.24289775
-0.19093616 0.16165054 -0.24289389
-0.19093306 0.16172655 -0.24289608
-0.19093005 0.16180252 -0.24289626
-0.19092715 0.1618804 -0.24289241
-0.19092453 0.16195619 -0.24288461
-0.19092232 0.16203377 -0.24286677
-0.19091941 0.16211164 -0.24286291
-0.19091582 0.16218786 -0.2428751
-0.19090971 0.16233984 -0.24287745
-0.1909072 0.16241755 -0.24286562
-0.1909046 0.16249529 -0.24285577
-0.19090207 0.16257103 -0.24284598
-0.19089726 0.16272634 -0.2428183
-0.19089305 0.16280089 -0.24284449
-0.19088927 0.1628772 -0.24286066
-0.19088696 0.16295482 -0.24284482
-0.19088115 0.16310862 -0.24283916
-0.19087756 0.16318485 -0.24285133
-0.19087425 0.16326095 -0.24285752
-0.19087155 0.16333874 -0.24284965
-0.19086912 0.16341443 -0.24283786
-0.19086622 0.16349232 -0.24283402
-0.19086292 0.16356841 -0.24284019
-0.19085991 0.16364437 -0.24284038
-0.19085738 0.16372013 -0.24283057
-0.19085449 0.163798 -0.24282673
-0.19085176 0.16387384 -0.24282092
-0.19084907 0.16395162 -0.24281308
-0.19084634 0.16402747 -0.24280727
-0.19083986 0.16418156 -0.24281558
-0.19083685 0.16425754 -0.24281578
-0.19083393 0.16433346 -0.24281397
-0.19083114 0.16441129 -0.2428081
-0.19082841 0.16448712 -0.24280231
-0.1908253 0.16456313 -0.2428045
-0.19082202 0.16464119 -0.24280863
-0.19081911 0.16471711 -0.24280682
-0.19081289 0.16486913 -0.24281119
-0.19080999 0.164947 -0.24280733
-0.19080727 0.16502284 -0.24280153
-0.19080426 0.1650988 -0.24280173
-0.19080156 0.1651766 -0.24279387
-0.19079883 0.16525243 -0.24278808
-0.19079585 0.16533035 -0.24278621
-0.19079284 0.16540632 -0.24278639
-0.19079022 0.1654821 -0.2427786
-0.19078732 0.16555999 -0.24277475
-0.19078431 0.16563596 -0.24277493
-0.19078141 0.16571383 -0.24277109
-0.19077888 0.16578957 -0.24276128
-0.19077045 0.16601917 -0.24274781
-0.19076727 0.16609718 -0.24274996
-0.19075765 0.16632533 -0.24276251
-0.19075455 0.16640134 -0.24276468
-0.19075175 0.16647919 -0.24275884
-0.19074902 0.16655502 -0.24275303
-0.19074611 0.16663094 -0.24275121
-0.19074331 0.16670877 -0.24274537
-0.19074059 0.1667846 -0.24273956
-0.19073457 0.16693653 -0.24273995
-0.19073157 0.16701445 -0.24273808
-0.19072866 0.16709039 -0.24273628
-0.19072565 0.16716635 -0.24273646
-0.19072275 0.16724423 -0.24273261
-0.19072023 0.16731997 -0.24272281
-0.19071722 0.16739593 -0.24272299
-0.19071402 0.16747199 -0.24272718
-0.19071111 0.16754986 -0.24272332
-0.19070849 0.16762565 -0.24271551
-0.19070567 0.16770154 -0.24271172
-0.19070327 0.16777919 -0.24269786
-0.19070035 0.16785511 -0.24269606
-0.19069704 0.16793121 -0.24270225
-0.19069406 0.16800913 -0.2427004
-0.19069134 0.16808496 -0.24269459
-0.19068861 0.16816081 -0.24268878
-0.19068563 0.16823873 -0.24268693
-0.1906794 0.16839075 -0.24269129
-0.19067368 0.16854255 -0.24268568
-0.19067107 0.16862029 -0.24267584
-0.19066815 0.16869621 -0.24267402
-0.19066498 0.16877422 -0.24267617
-0.19107188 0.15811515 -0.24299923
-0.1910688 0.15819311 -0.24299937
-0.19106558 0.15826917 -0.24300355
-0.19106238 0.15834522 -0.24300773
-0.19105929 0.15842319 -0.24300787
-0.19105676 0.15849893 -0.24299808
-0.19105417 0.15857668 -0.24298823
-0.19105136 0.15865451 -0.24298239
-0.19104855 0.15873039 -0.24297857
-0.19104555 0.15880831 -0.24297673
-0.19104274 0.1588842 -0.24297291
-0.19103965 0.15896216 -0.24297306
-0.19103654 0.15903817 -0.24297523
-0.19103342 0.15911418 -0.24297743
-0.19103023 0.15919219 -0.24297956
-0.19102772 0.15926793 -0.24296975
-0.1910253 0.15934558 -0.24295592
-0.19102231 0.1594235 -0.24295406
-0.1910194 0.15949944 -0.24295226
-0.19101621 0.15957744 -0.24295439
-0.1910131 0.15965346 -0.24295658
-0.1910103 0.15973128 -0.24295072
-0.19100758 0.15980712 -0.24294493
-0.19100459 0.15988503 -0.24294306
-0.19100147 0.15996104 -0.24294525
-0.19099849 0.16003896 -0.24294339
-0.19099568 0.16011484 -0.24293959
-0.19099268 0.16019277 -0.24293774
-0.19098938 0.16026887 -0.24294391
-0.19098626 0.16034487 -0.24294609
-0.19098367 0.16042262 -0.24293625
-0.19098105 0.16049841 -0.24292845
-0.19097805 0.16057633 -0.2429266
-0.19097504 0.16065229 -0.24292678
-0.19097193 0.16072831 -0.24292897
-0.19096881 0.16080432 -0.24293116
-0.19096602 0.16088215 -0.2429253
-0.19096342 0.1609599 -0.24291545
-0.19096079 0.16103569 -0.24290766
-0.1909577 0.16111365 -0.24290779
-0.1909546 0.16118966 -0.24290998
-0.19095139 0.16126572 -0.24291417
-0.19094828 0.16134173 -0.24291635
-0.19094539 0.1614196 -0.2429125
-0.19094278 0.16149735 -0.24290265
-0.19094016 0.16157314 -0.24289486
-0.19093727 0.16165102 -0.24289098
-0.19093415 0.16172703 -0.24289317
-0.19093114 0.16180299 -0.24289337
-0.19092825 0.16188087 -0.24288951
-0.19092561 0.16195665 -0.24288172
-0.19092341 0.16203423 -0.24286386
-0.19092041 0.16211215 -0.24286202
-0.19091691 0.16218834 -0.24287219
-0.19091351 0.16226448 -0.24288037
-0.19091079 0.16234031 -0.24287456
-0.19090828 0.16241801 -0.24286273
-0.19090569 0.16249576 -0.24285287
-0.19090316 0.1625715 -0.24284309
-0.19090106 0.16265099 -0.2428212
-0.19089833 0.16272682 -0.24281541
-0.19089414 0.16280136 -0.2428416
-0.19089036 0.16287768 -0.24285775
-0.19088803 0.16295528 -0.24284193
-0.19088563 0.16303295 -0.2428281
-0.19088224 0.16310909 -0.24283627
-0.19087863 0.16318531 -0.24284843
-0.19087534 0.16326141 -0.24285462
-0.19087262 0.1633392 -0.24284676
-0.1908702 0.16341491 -0.24283497
-0.1908673 0.16349278 -0.24283111
-0.190864 0.16356888 -0.24283729
-0.19086099 0.16364485 -0.24283749
-0.19085847 0.16372059 -0.24282768
-0.19085556 0.16379847 -0.24282384
-0.19085285 0.16387431 -0.24281803
-0.19085014 0.1639521 -0.24281019
-0.19084732 0.16402797 -0.24280638
-0.19084431 0.16410394 -0.24280657
-0.19084093 0.16418204 -0.24281269
-0.19083792 0.164258 -0.24281289
-0.19083501 0.16433392 -0.24281108
-0.19083221 0.16441175 -0.24280521
-0.19082949 0.1644876 -0.24279942
-0.19082639 0.16456361 -0.24280161
-0.19082309 0.16464165 -0.24280573
-0.19082019 0.16471758 -0.24280393
-0.19081716 0.16479355 -0.24280411
-0.19081396 0.16486961 -0.2428083
-0.19081107 0.16494748 -0.24280444
-0.19080834 0.16502331 -0.24279864
-0.19080533 0.16509928 -0.24279884
-0.19080263 0.16517706 -0.24279098
-0.19079991 0.16525289 -0.24278519
-0.19079682 0.16533086 -0.2427853
-0.19079381 0.16540684 -0.24278551
-0.19079119 0.16548263 -0.24277771
-0.19078839 0.16556045 -0.24277186
-0.19078538 0.16563642 -0.24277204
-0.19078249 0.16571429 -0.2427682
-0.19077995 0.16579005 -0.24275839
-0.19077703 0.16586597 -0.24275658
-0.19077414 0.16594385 -0.24275273
-0.19077152 0.16601963 -0.24274492
-0.19076824 0.16609769 -0.24274907
-0.19076493 0.16617379 -0.24275523
-0.19076173 0.16624984 -0.24275942
-0.19075872 0.16632581 -0.24275962
-0.19075561 0.16640182 -0.24276179
-0.1907528 0.16647965 -0.24275595
-0.19075009 0.16655548 -0.24275014
-0.19074717 0.1666314 -0.24274832
-0.19074437 0.16670924 -0.24274248
-0.19074166 0.16678508 -0.24273667
-0.19073865 0.16686104 -0.24273688
-0.19073562 0.16693701 -0.24273705
-0.19073264 0.16701493 -0.24273519
-0.19072972 0.16709085 -0.24273339
-0.19072671 0.16716681 -0.24273357
-0.19072382 0.16724469 -0.24272972
-0.1907212 0.16732049 -0.24272192
-0.19071828 0.16739641 -0.24272011
-0.19071507 0.16747245 -0.2427243
-0.19071217 0.16755034 -0.24272044
-0.19070955 0.16762613 -0.24271263
-0.19070673 0.167702 -0.24270883
-0.19070433 0.16777967 -0.24269499
-0.19070141 0.16785559 -0.24269319
-0.1906981 0.16793168 -0.24269935
-0.19069511 0.16800961 -0.24269751
-0.19069239 0.16808544 -0.2426917
-0.19068967 0.16816127 -0.24268588
-0.19068667 0.16823919 -0.24268404
-0.19068328 0.16831534 -0.24269222
-0.19068046 0.16839121 -0.24268842
-0.19067764 0.16846709 -0.2426846
-0.19067472 0.16854301 -0.2426828
-0.19067203 0.16862081 -0.24267495
-0.19066921 0.16869669 -0.24267113
-0.19066602 0.16877469 -0.24267328
-0.19107234 0.15811387 -0.24299912
-0.19106615 0.15826784 -0.24300146
-0.19106284 0.15834394 -0.24300763
-0.19105984 0.15842186 -0.24300577
-0.1910491 0.15872906 -0.24297647
-0.19104612 0.15880698 -0.24297461
-0.1910432 0.15888292 -0.24297281
-0.1910402 0.15896083 -0.24297094
-0.191037 0.15903687 -0.24297513
-0.19103388 0.1591129 -0.24297732
-0.19103071 0.15919091 -0.24297947
-0.1910281 0.15926865 -0.2429696
-0.19101986 0.15949816 -0.24295214
-0.19101667 0.15957616 -0.24295428
-0.19101357 0.15965217 -0.24295647
-0.19101077 0.15973 -0.24295062
-0.19100805 0.15980583 -0.24294481
-0.19100505 0.15988375 -0.24294296
-0.19100204 0.15995972 -0.24294315
-0.19099614 0.16011356 -0.24293949
-0.19099325 0.16019145 -0.24293563
-0.19098683 0.16034354 -0.242944
-0.19098413 0.16042134 -0.24293615
-0.19098151 0.16049713 -0.24292834
-0.19097851 0.16057505 -0.24292648
-0.19097561 0.16065097 -0.24292468
-0.1909724 0.16072702 -0.24292886
-0.19096929 0.16080303 -0.24293105
-0.19096649 0.16088086 -0.2429252
-0.19096389 0.16095862 -0.24291535
-0.19096136 0.16103436 -0.24290556
-0.19095828 0.16111232 -0.24290571
-0.19095196 0.16126439 -0.24291205
-0.19094875 0.16134045 -0.24291624
-0.19094595 0.16141827 -0.24291039
-0.19094326 0.16149607 -0.24290255
-0.19094063 0.16157186 -0.24289474
-0.19093773 0.16164973 -0.24289089
-0.19093472 0.1617257 -0.24289107
-0.19092098 0.16211082 -0.24285993
-0.19091739 0.16218705 -0.24287209
-0.19091409 0.16226315 -0.24287827
-0.19091126 0.16233903 -0.24287446
-0.19090876 0.16241673 -0.24286261
-0.19090617 0.16249448 -0.24285278
-0.19090363 0.16257022 -0.24284297
-0.19090153 0.16264971 -0.2428211
-0.19089891 0.16272549 -0.2428133
-0.19089472 0.16280003 -0.2428395
-0.19089083 0.1628764 -0.24285766
-0.19088852 0.162954 -0.24284182
-0.19088611 0.16303167 -0.24282798
-0.19088271 0.16310781 -0.24283616
-0.19087912 0.16318403 -0.24284834
-0.19087581 0.16326013 -0.24285451
-0.19087312 0.16333792 -0.24284667
-0.19087069 0.16341363 -0.24283487
-0.19086778 0.1634915 -0.24283102
-0.19086449 0.1635676 -0.24283719
-0.19086148 0.16364357 -0.24283738
-0.19085895 0.16371931 -0.24282758
-0.19085605 0.16379718 -0.24282373
-0.19085072 0.16395077 -0.24280807
-0.1908479 0.16402665 -0.24280427
-0.19084482 0.16410461 -0.24280441
-0.19084151 0.16418071 -0.24281059
-0.19083841 0.16425672 -0.24281278
-0.19083549 0.16433264 -0.24281096
-0.19083269 0.16441047 -0.24280512
-0.19082367 0.16464034 -0.24280363
-0.19082066 0.1647163 -0.24280383
-0.19081765 0.16479227 -0.24280402
-0.19081455 0.16486828 -0.2428062
-0.19081156 0.1649462 -0.24280435
-0.19080883 0.16502203 -0.24279854
-0.19080593 0.16509795 -0.24279673
-0.19080313 0.16517578 -0.24279088
-0.1908004 0.16525161 -0.24278507
-0.1907974 0.16532955 -0.24278322
-0.19079439 0.16540551 -0.2427834
-0.19079177 0.1654813 -0.2427756
-0.19078898 0.16555913 -0.24276975
-0.19078587 0.16563514 -0.24277194
-0.19078298 0.16571301 -0.24276808
-0.19078045 0.16578877 -0.24275829
-0.19077763 0.16586465 -0.24275449
-0.19077474 0.16594252 -0.24275063
-0.19077201 0.16601835 -0.24274483
-0.19076553 0.16617246 -0.24275315
-0.1907593 0.16632448 -0.2427575
-0.1907561 0.16640054 -0.2427617
-0.19075331 0.16647837 -0.24275585
-0.19074766 0.16663012 -0.24274823
-0.19074477 0.16670801 -0.24274439
-0.19074215 0.16678379 -0.24273658
-0.19073923 0.16685972 -0.24273476
-0.19073613 0.16693573 -0.24273695
-0.19073313 0.16701365 -0.24273509
-0.19073021 0.16708957 -0.24273328
-0.1907272 0.16716553 -0.24273348
-0.19072431 0.16724341 -0.24272962
-0.19072178 0.16731916 -0.24271983
-0.19071887 0.16739509 -0.24271801
-0.19071549 0.16747318 -0.24272415
-0.19071268 0.16754906 -0.24272034
-0.19071005 0.16762485 -0.24271253
-0.19070724 0.16770072 -0.24270873
-0.19070482 0.16777839 -0.24269488
-0.19070201 0.16785426 -0.24269108
-0.19069861 0.16793041 -0.24269927
-0.19069561 0.16800833 -0.2426974
-0.19069289 0.16808416 -0.24269161
-0.19069026 0.16815995 -0.2426838
-0.19068728 0.16823786 -0.24268195
-0.19068387 0.16831401 -0.24269012
-0.19068097 0.16838993 -0.24268831
-0.19067824 0.16846576 -0.24268252
-0.19067533 0.16854168 -0.2426807
-0.19067262 0.16861948 -0.24267286
-0.19066972 0.16869541 -0.24267104
-0.19066653 0.16877341 -0.24267319
-0.19107185 0.15811548 -0.24299949
-0.19106877 0.15819344 -0.24299964
-0.19106556 0.15826949 -0.24300382
-0.19106236 0.15834555 -0.243008
-0.19105926 0.15842351 -0.24300814
-0.19105674 0.15849926 -0.24299835
-0.19105414 0.15857701 -0.2429885
-0.19105133 0.15865484 -0.24298266
-0.19104852 0.15873072 -0.24297884
-0.19104552 0.15880863 -0.24297699
-0.19104271 0.15888451 -0.24297318
-0.19103962 0.15896247 -0.24297333
-0.19103642 0.15903853 -0.2429775
-0.19103341 0.15911449 -0.24297769
-0.19103022 0.1591925 -0.24297982
-0.19102761 0.15927026 -0.24296999
-0.19102529 0.15934591 -0.24295619
-0.19102229 0.15942383 -0.24295433
-0.19101937 0.15949975 -0.24295253
-0.1910162 0.15957776 -0.24295466
-0.19101308 0.15965377 -0.24295685
-0.19101036 0.15972961 -0.24295104
-0.19100747 0.15980749 -0.24294719
-0.19100447 0.15988541 -0.24294533
-0.19100146 0.15996137 -0.24294552
-0.19099846 0.16003929 -0.24294366
-0.19099565 0.16011517 -0.24293986
-0.19099267 0.16019309 -0.242938
-0.19098936 0.16026919 -0.24294418
-0.19098635 0.16034515 -0.24294436
-0.19098365 0.16042295 -0.24293652
-0.19098103 0.16049874 -0.24292871
-0.19097804 0.16057666 -0.24292687
-0.19097511 0.16065258 -0.24292505
-0.19097191 0.16072863 -0.24292924
-0.1909688 0.16080464 -0.24293143
-0.19096601 0.16088247 -0.24292557
-0.1909634 0.16096023 -0.24291572
-0.19096078 0.16103601 -0.24290791
-0.1909577 0.16111398 -0.24290806
-0.19095448 0.16119003 -0.24291223
-0.19095138 0.16126604 -0.24291442
-0.19094817 0.1613421 -0.24291861
-0.19094537 0.16141993 -0.24291277
-0.19094276 0.16149767 -0.2429029
-0.19094014 0.16157347 -0.24289511
-0.19093733 0.16164935 -0.24289131
-0.19093414 0.16172735 -0.24289344
-0.19093113 0.16180332 -0.24289364
-0.19092824 0.16188119 -0.24288978
-0.19092561 0.16195698 -0.24288198
-0.19092339 0.16203456 -0.24286413
-0.1909204 0.16211247 -0.24286228
-0.19091681 0.16218871 -0.24287444
-0.1909135 0.16226479 -0.24288064
-0.19091079 0.16234064 -0.24287483
-0.19090828 0.16241834 -0.24286298
-0.19090568 0.16249609 -0.24285313
-0.19090314 0.16257183 -0.24284334
-0.19090106 0.16265132 -0.24282146
-0.19089833 0.16272715 -0.24281566
-0.19089413 0.16280168 -0.24284187
-0.19089025 0.16287804 -0.24286002
-0.19088803 0.16295561 -0.2428422
-0.19088562 0.16303328 -0.24282835
-0.19088222 0.16310941 -0.24283653
-0.19087863 0.16318564 -0.24284869
-0.19087532 0.16326174 -0.24285488
-0.19087262 0.16333953 -0.24284703
-0.1908702 0.16341524 -0.24283522
-0.1908673 0.16349311 -0.24283138
-0.190864 0.16356921 -0.24283755
-0.19086099 0.16364518 -0.24283776
-0.19085838 0.16372292 -0.24282789
-0.19085567 0.16379875 -0.2428221
-0.19085285 0.16387463 -0.2428183
-0.19085024 0.16395238 -0.24280845
-0.19084732 0.1640283 -0.24280664
-0.19084431 0.16410427 -0.24280682
-0.19084093 0.16418236 -0.24281296
-0.19083792 0.16425833 -0.24281314
-0.19083501 0.16433425 -0.24281134
-0.19083221 0.16441208 -0.24280548
-0.19082949 0.16448791 -0.24279967
-0.19082639 0.16456392 -0.24280187
-0.19082309 0.16464198 -0.24280599
-0.19082008 0.16471794 -0.2428062
-0.19081707 0.16479391 -0.24280638
-0.19081396 0.16486992 -0.24280855
-0.19081107 0.16494779 -0.24280471
-0.19080836 0.16502364 -0.24279889
-0.19080533 0.16509961 -0.24279909
-0.19080263 0.16517739 -0.24279124
-0.19079992 0.16525322 -0.24278544
-0.19079682 0.16533118 -0.24278557
-0.19079381 0.16540715 -0.24278577
-0.19079119 0.16548295 -0.24277796
-0.19078839 0.16556078 -0.24277212
-0.19078538 0.16563675 -0.24277231
-0.19078259 0.16571458 -0.24276644
-0.19077995 0.16579036 -0.24275865
-0.19077705 0.16586629 -0.24275684
-0.19077416 0.16594417 -0.24275298
-0.19077143 0.16602001 -0.24274719
-0.19076824 0.16609801 -0.24274932
-0.19076495 0.16617411 -0.2427555
-0.19076173 0.16625017 -0.24275967
-0.19075872 0.16632614 -0.24275987
-0.19075562 0.16640215 -0.24276206
-0.19075282 0.16647997 -0.2427562
-0.19075009 0.16655581 -0.24275041
-0.19074719 0.16663173 -0.24274859
-0.19074439 0.16670956 -0.24274275
-0.19074166 0.1667854 -0.24273694
-0.19073865 0.16686137 -0.24273711
-0.19073564 0.16693734 -0.24273731
-0.19073264 0.16701525 -0.24273545
-0.19072974 0.16709118 -0.24273364
-0.19072673 0.16716714 -0.24273384
-0.19072382 0.16724502 -0.24272998
-0.1907213 0.16732076 -0.24272019
-0.19071829 0.16739672 -0.24272037
-0.19071509 0.16747278 -0.24272454
-0.19071229 0.16755062 -0.2427187
-0.19070956 0.16762646 -0.24271289
-0.19070674 0.16770233 -0.24270909
-0.19070433 0.16777998 -0.24269524
-0.19070143 0.1678559 -0.24269344
-0.19069812 0.167932 -0.24269962
-0.19069512 0.16800992 -0.24269776
-0.19069241 0.16808577 -0.24269196
-0.19068968 0.1681616 -0.24268615
-0.19068669 0.16823952 -0.2426843
-0.19068329 0.16831566 -0.24269247
-0.19068047 0.16839154 -0.24268866
-0.19067766 0.16846742 -0.24268487
-0.19067474 0.16854334 -0.24268305
-0.19067204 0.16862112 -0.2426752
-0.19066922 0.16869701 -0.2426714
-0.19066603 0.16877502 -0.24267353
-0.19107309 0.15811653 -0.24300133
-0.19107001 0.1581945 -0.24300146
-0.19106689 0.15827051 -0.24300367
-0.1910636 0.15834661 -0.24300984
-0.1910605 0.15842457 -0.24300997
-0.19105807 0.15850028 -0.24299818
-0.19105537 0.15857807 -0.24299031
-0.19105257 0.1586559 -0.24298447
-0.19104986 0.15873173 -0.24297868
-0.19104677 0.15880969 -0.24297881
-0.19104394 0.15888558 -0.24297501
-0.19104096 0.1589635 -0.24297315
-0.19103776 0.15903956 -0.24297732
-0.19103464 0.15911557 -0.24297953
-0.19103146 0.15919358 -0.24298166
-0.19102885 0.15927131 -0.24297181
-0.19102652 0.15934697 -0.24295801
-0.19102353 0.1594249 -0.24295616
-0.19102061 0.15950082 -0.24295434
-0.19101743 0.15957883 -0.24295649
-0.19101432 0.15965484 -0.24295866
-0.19101152 0.15973267 -0.24295282
-0.19100881 0.1598085 -0.24294701
-0.19100581 0.15988642 -0.24294516
-0.1910028 0.15996239 -0.24294534
-0.19099981 0.1600403 -0.2429435
-0.19099689 0.16011623 -0.24294168
-0.19099391 0.16019416 -0.24293983
-0.1909906 0.16027024 -0.242946
-0.19098759 0.16034621 -0.24294618
-0.19098489 0.16042401 -0.24293834
-0.19098227 0.1604998 -0.24293053
-0.19097927 0.16057771 -0.24292868
-0.19097635 0.16065364 -0.24292687
-0.19097315 0.16072969 -0.24293105
-0.19097003 0.1608057 -0.24293324
-0.19096725 0.16088353 -0.24292739
-0.19096464 0.16096129 -0.24291754
-0.19096202 0.16103707 -0.24290974
-0.19095902 0.16111499 -0.24290788
-0.19095582 0.16119105 -0.24291205
-0.1909527 0.16126706 -0.24291426
-0.1909495 0.16134311 -0.24291843
-0.19094671 0.16142094 -0.24291258
-0.190944 0.16149874 -0.24290472
-0.19094138 0.16157453 -0.24289693
-0.19093849 0.1616524 -0.24289307
-0.19093548 0.16172837 -0.24289326
-0.19093236 0.16180438 -0.24289545
-0.19092956 0.16188221 -0.2428896
-0.19092685 0.16195804 -0.2428838
-0.19092473 0.16203557 -0.24286395
-0.19092174 0.16211349 -0.24286211
-0.19091815 0.16218972 -0.24287426
-0.19091484 0.16226582 -0.24288046
-0.19091202 0.1623417 -0.24287665
-0.19090952 0.16241939 -0.2428648
-0.19090691 0.16249715 -0.24285495
-0.19090439 0.16257289 -0.24284516
-0.19090229 0.16265237 -0.24282327
-0.19089967 0.16272816 -0.24281548
-0.19089538 0.16280274 -0.24284367
-0.19089158 0.16287906 -0.24285984
-0.19088927 0.16295667 -0.242844
-0.19088677 0.16303438 -0.24283215
-0.19088346 0.16311048 -0.24283834
-0.19087987 0.1631867 -0.24285051
-0.19087656 0.1632628 -0.24285668
-0.19087386 0.1633406 -0.24284884
-0.19087143 0.1634163 -0.24283704
-0.19086854 0.16349417 -0.2428332
-0.19086523 0.16357027 -0.24283937
-0.19086222 0.16364624 -0.24283956
-0.19085971 0.16372198 -0.24282975
-0.1908568 0.16379985 -0.24282591
-0.19085409 0.1638757 -0.2428201
-0.19085148 0.16395344 -0.24281025
-0.19084866 0.16402932 -0.24280645
-0.19084558 0.16410728 -0.24280658
-0.19084227 0.16418338 -0.24281277
-0.19083916 0.16425939 -0.24281496
-0.19083625 0.16433531 -0.24281314
-0.19083345 0.16441314 -0.2428073
-0.19083072 0.16448899 -0.24280149
-0.19082755 0.16456699 -0.24280363
-0.19082443 0.164643 -0.24280581
-0.19082142 0.16471897 -0.24280599
-0.19081841 0.16479494 -0.2428062
-0.19081521 0.16487099 -0.24281037
-0.1908123 0.16494887 -0.24280651
-0.19080959 0.1650247 -0.24280071
-0.19080667 0.16510062 -0.24279889
-0.19080387 0.16517845 -0.24279305
-0.19080116 0.16525428 -0.24278724
-0.19079816 0.16533221 -0.24278539
-0.19079515 0.16540818 -0.24278557
-0.19079253 0.16548397 -0.24277776
-0.19078964 0.16556184 -0.24277392
-0.19078662 0.16563781 -0.2427741
-0.19078372 0.16571568 -0.24277025
-0.19078121 0.16579144 -0.24276045
-0.19077839 0.16586731 -0.24275663
-0.19077548 0.16594519 -0.24275279
-0.19077277 0.16602102 -0.24274698
-0.19076958 0.16609903 -0.24274912
-0.19076627 0.16617513 -0.24275531
-0.19076307 0.16625118 -0.2427595
-0.19076006 0.16632715 -0.24275967
-0.19075686 0.1664032 -0.24276385
-0.19075406 0.16648103 -0.24275801
-0.19075134 0.16655686 -0.24275219
-0.19074842 0.16663279 -0.24275039
-0.19074562 0.16671063 -0.24274454
-0.19074291 0.16678646 -0.24273872
-0.19073999 0.16686238 -0.24273692
-0.19073687 0.16693839 -0.24273911
-0.19073389 0.16701631 -0.24273726
-0.19073097 0.16709223 -0.24273545
-0.19072796 0.1671682 -0.24273562
-0.19072507 0.16724607 -0.24273178
-0.19072254 0.16732183 -0.24272197
-0.19071953 0.1673978 -0.24272217
-0.19071633 0.16747385 -0.24272636
-0.19071352 0.16755168 -0.24272048
-0.1907108 0.16762751 -0.24271469
-0.19070798 0.16770339 -0.24271089
-0.19070558 0.16778105 -0.24269705
-0.19070277 0.16785693 -0.24269325
-0.19069935 0.16793308 -0.24270141
-0.19069637 0.16801099 -0.24269956
-0.19069365 0.16808683 -0.24269375
-0.19069092 0.16816266 -0.24268794
-0.19068794 0.16824058 -0.24268609
-0.19068463 0.16831668 -0.24269226
-0.19068171 0.1683926 -0.24269046
-0.190679 0.16846843 -0.24268466
-0.19067608 0.16854435 -0.24268284
-0.19067338 0.16862215 -0.24267501
-0.19067046 0.16869807 -0.24267319
-0.19107339 0.15811697 -0.24300206
-0.1910703 0.15819493 -0.24300221
-0.19106719 0.15827094 -0.2430044
-0.19106388 0.15834704 -0.24301058
-0.1910609 0.15842496 -0.2430087
-0.19105847 0.15850067 -0.24299692
-0.19105576 0.15857846 -0.24298906
-0.19105297 0.15865628 -0.24298322
-0.19105014 0.15873216 -0.24297941
-0.19104716 0.15881008 -0.24297756
-0.19104424 0.15888602 -0.24297574
-0.19104125 0.15896393 -0.24297389
-0.19103804 0.15903999 -0.24297807
-0.19103494 0.159116 -0.24298026
-0.19103175 0.15919401 -0.24298239
-0.19102915 0.15927175 -0.24297255
-0.19102682 0.1593474 -0.24295875
-0.19102392 0.15942529 -0.24295491
-0.19102091 0.15950125 -0.24295509
-0.19101772 0.15957926 -0.24295722
-0.19101462 0.15965527 -0.24295941
-0.19101182 0.1597331 -0.24295355
-0.19100909 0.15980893 -0.24294776
-0.19100611 0.15988685 -0.24294589
-0.1910031 0.15996282 -0.24294609
-0.19100019 0.16004069 -0.24294223
-0.19099718 0.16011667 -0.24294242
-0.19099429 0.16019455 -0.24293856
-0.1909909 0.16027069 -0.24294674
-0.19098788 0.16034666 -0.24294692
-0.19098517 0.16042444 -0.24293908
-0.19098255 0.16050023 -0.24293128
-0.19097957 0.16057815 -0.24292941
-0.19097665 0.16065407 -0.24292761
-0.19097345 0.16073012 -0.24293178
-0.19097026 0.16080813 -0.24293393
-0.19096753 0.16088396 -0.24292812
-0.19096503 0.16096167 -0.24291629
-0.1909624 0.16103746 -0.24290848
-0.19095932 0.16111542 -0.24290863
-0.19095612 0.16119148 -0.2429128
-0.190953 0.16126749 -0.24291499
-0.1909498 0.16134354 -0.24291918
-0.190947 0.16142137 -0.24291331
-0.1909443 0.16149917 -0.24290547
-0.19094168 0.16157496 -0.24289766
-0.19093879 0.16165283 -0.24289382
-0.19093578 0.1617288 -0.24289399
-0.19093266 0.16180481 -0.2428962
-0.19092986 0.16188264 -0.24289033
-0.19092715 0.16195847 -0.24288453
-0.19092502 0.162036 -0.2428647
-0.19092204 0.16211392 -0.24286285
-0.19091845 0.16219015 -0.24287501
-0.19091523 0.16226621 -0.24287918
-0.19091232 0.16234213 -0.24287738
-0.19090982 0.16241983 -0.24286553
-0.19090721 0.16249758 -0.2428557
-0.19090468 0.16257332 -0.24284589
-0.19090258 0.16265281 -0.24282402
-0.19089995 0.16272859 -0.24281621
-0.19089577 0.16280313 -0.24284241
-0.19089188 0.1628795 -0.24286059
-0.19088957 0.1629571 -0.24284473
-0.19088715 0.16303477 -0.2428309
-0.19088376 0.16311091 -0.24283907
-0.19088016 0.16318713 -0.24285126
-0.19087686 0.16326323 -0.24285743
-0.19087416 0.16334102 -0.24284957
-0.19087173 0.16341673 -0.24283779
-0.19086884 0.1634946 -0.24283393
-0.19086553 0.1635707 -0.24284011
-0.19086252 0.16364667 -0.24284029
-0.19085999 0.16372241 -0.24283049
-0.1908572 0.16380024 -0.24282464
-0.19085447 0.16387609 -0.24281883
-0.19085178 0.16395387 -0.24281099
-0.19084905 0.1640297 -0.24280518
-0.19084586 0.16410771 -0.24280733
-0.19084257 0.16418381 -0.2428135
-0.19083945 0.16425982 -0.24281569
-0.19083655 0.16433574 -0.24281389
-0.19083375 0.16441357 -0.24280803
-0.19083112 0.16448937 -0.24280024
-0.19082783 0.16456743 -0.24280436
-0.19082473 0.16464344 -0.24280655
-0.19082172 0.1647194 -0.24280673
-0.1908187 0.16479537 -0.24280691
-0.19081549 0.16487142 -0.2428111
-0.1908126 0.1649493 -0.24280724
-0.19080989 0.16502513 -0.24280144
-0.19080697 0.16510105 -0.24279964
-0.19080417 0.16517888 -0.24279378
-0.19080155 0.16525468 -0.24278598
-0.19079846 0.16533265 -0.24278612
-0.19079545 0.16540861 -0.2427863
-0.19079283 0.1654844 -0.24277851
-0.19079003 0.16556223 -0.24277265
-0.19078691 0.16563824 -0.24277484
-0.19078402 0.16571611 -0.242771
-0.19078149 0.16579187 -0.24276119
-0.19077867 0.16586775 -0.24275738
-0.19077578 0.16594562 -0.24275354
-0.19077307 0.16602145 -0.24274772
-0.19076997 0.16609941 -0.24274787
-0.19076657 0.16617556 -0.24275604
-0.19076346 0.16625157 -0.24275823
-0.19076036 0.16632758 -0.2427604
-0.19075716 0.16640364 -0.24276459
-0.19075435 0.16648147 -0.24275874
-0.19075163 0.1665573 -0.24275294
-0.19074872 0.16663322 -0.24275112
-0.19074592 0.16671106 -0.24274528
-0.19074319 0.16678689 -0.24273947
-0.19074029 0.16686282 -0.24273765
-0.19073717 0.16693883 -0.24273984
-0.19073418 0.16701674 -0.24273798
-0.19073127 0.16709267 -0.24273618
-0.19072826 0.16716863 -0.24273637
-0.19072546 0.16724646 -0.24273051
-0.19072293 0.16732222 -0.24272072
-0.19071992 0.16739818 -0.2427209
-0.19071662 0.16747428 -0.24272707
-0.19071372 0.16755216 -0.24272323
-0.1907111 0.16762795 -0.24271542
-0.19070828 0.16770382 -0.24271162
-0.19070587 0.16778149 -0.24269778
-0.19070305 0.16785736 -0.24269396
-0.19069965 0.16793351 -0.24270216
-0.19069666 0.16801143 -0.24270028
-0.19069394 0.16808726 -0.24269448
-0.19069132 0.16816305 -0.24268669
-0.19068833 0.16824096 -0.24268483
-0.19068493 0.16831711 -0.24269301
-0.19068201 0.16839303 -0.24269119
-0.1906793 0.16846886 -0.24268538
-0.19067638 0.16854478 -0.24268359
-0.19067368 0.16862258 -0.24267572
-0.19067086 0.16869846 -0.24267192
-0.19107176 0.15811884 -0.24299917
-0.19106868 0.15819681 -0.24299932
-0.19106548 0.15827286 -0.24300349
-0.19106227 0.15834892 -0.24300766
-0.19105917 0.15842688 -0.24300781
-0.19105665 0.15850264 -0.242998
-0.19105396 0.15858042 -0.24299017
-0.19105124 0.15865821 -0.24298233
-0.19104843 0.15873408 -0.24297851
-0.19104534 0.15881205 -0.24297865
-0.19104262 0.15888789 -0.24297285
-0.19103953 0.15896586 -0.24297298
-0.19103633 0.15904191 -0.24297717
-0.19103332 0.15911788 -0.24297735
-0.19103013 0.15919589 -0.2429795
-0.1910276 0.15927163 -0.24296969
-0.1910252 0.15934929 -0.24295585
-0.1910221 0.15942726 -0.242956
-0.19101928 0.15950313 -0.24295218
-0.19101611 0.15958114 -0.24295431
-0.19101299 0.15965715 -0.2429565
-0.19101027 0.15973298 -0.24295071
-0.19100738 0.15981086 -0.24294686
-0.19100438 0.15988877 -0.24294499
-0.19100137 0.15996474 -0.24294518
-0.19099838 0.16004266 -0.24294332
-0.19099556 0.16011855 -0.24293952
-0.19099256 0.16019647 -0.24293765
-0.19098917 0.1602726 -0.24294583
-0.19098616 0.16034856 -0.24294603
-0.19098346 0.16042636 -0.24293818
-0.19098093 0.16050211 -0.24292839
-0.19097795 0.16058002 -0.24292651
-0.19097492 0.16065599 -0.24292672
-0.19097172 0.16073205 -0.24293089
-0.19096871 0.16080801 -0.24293108
-0.19096591 0.16088584 -0.24292523
-0.19096321 0.16096364 -0.24291737
-0.19096059 0.16103943 -0.24290958
-0.19095759 0.16111735 -0.24290772
-0.19095439 0.1611934 -0.24291191
-0.19095127 0.16126941 -0.24291408
-0.19094807 0.16134547 -0.24291828
-0.19094528 0.1614233 -0.24291241
-0.19094267 0.16150105 -0.24290258
-0.19094005 0.16157684 -0.24289477
-0.19093715 0.16165471 -0.24289092
-0.19093405 0.16173072 -0.2428931
-0.19093104 0.16180669 -0.24289329
-0.19092813 0.16188456 -0.24288943
-0.19092551 0.16196036 -0.24288164
-0.1909233 0.16203792 -0.2428638
-0.19092031 0.16211584 -0.24286194
-0.19091672 0.16219208 -0.24287412
-0.19091341 0.16226818 -0.24288028
-0.19091068 0.16234401 -0.24287449
-0.19090818 0.1624217 -0.24286264
-0.19090557 0.16249946 -0.24285281
-0.19090305 0.1625752 -0.242843
-0.19090095 0.16265468 -0.24282113
-0.19089822 0.16273052 -0.24281532
-0.19089393 0.1628051 -0.24284352
-0.19089015 0.16288142 -0.24285969
-0.19088793 0.16295898 -0.24284184
-0.19088542 0.16303669 -0.24283001
-0.19088213 0.16311279 -0.24283618
-0.19087853 0.16318901 -0.24284837
-0.19087523 0.16326511 -0.24285454
-0.19087252 0.16334291 -0.24284668
-0.19087009 0.16341861 -0.2428349
-0.19086711 0.16349652 -0.24283303
-0.19086389 0.16357258 -0.24283722
-0.19086088 0.16364855 -0.2428374
-0.19085836 0.16372429 -0.24282761
-0.19085556 0.16380212 -0.24282175
-0.19085275 0.16387801 -0.24281795
-0.19085005 0.16395579 -0.2428101
-0.19084722 0.16403167 -0.24280629
-0.19084421 0.16410764 -0.24280649
-0.19084084 0.16418573 -0.2428126
-0.19083782 0.1642617 -0.24281281
-0.19083491 0.16433762 -0.24281099
-0.19083211 0.16441545 -0.24280514
-0.19082938 0.1644913 -0.24279934
-0.19082618 0.16456735 -0.24280351
-0.19082299 0.16464536 -0.24280566
-0.19081998 0.16472133 -0.24280584
-0.19081697 0.16479729 -0.24280603
-0.19081387 0.1648733 -0.24280822
-0.19081096 0.16495118 -0.24280435
-0.19080825 0.16502701 -0.24279857
-0.19080524 0.16510297 -0.24279875
-0.19080253 0.16518076 -0.24279091
-0.19079982 0.16525659 -0.2427851
-0.19079672 0.16533457 -0.24278523
-0.19079371 0.16541053 -0.24278542
-0.19079109 0.16548632 -0.24277762
-0.19078828 0.16556415 -0.24277177
-0.19078527 0.16564012 -0.24277195
-0.19078238 0.16571799 -0.24276811
-0.19077986 0.16579375 -0.2427583
-0.19077694 0.16586967 -0.24275649
-0.19077405 0.16594754 -0.24275264
-0.19077133 0.16602337 -0.24274683
-0.19076814 0.16610138 -0.24274898
-0.19076484 0.16617748 -0.24275514
-0.19076163 0.16625354 -0.24275933
-0.19075862 0.1663295 -0.24275953
-0.19075552 0.16640551 -0.2427617
-0.19075271 0.16648334 -0.24275586
-0.19074999 0.16655917 -0.24275005
-0.19074708 0.1666351 -0.24274825
-0.19074428 0.16671294 -0.24274239
-0.19074155 0.16678877 -0.24273658
-0.19073854 0.16686474 -0.24273679
-0.19073553 0.1669407 -0.24273697
-0.19073254 0.16701862 -0.2427351
-0.19072963 0.16709454 -0.2427333
-0.19072661 0.16717051 -0.24273348
-0.19072372 0.16724838 -0.24272963
-0.19072109 0.16732419 -0.24272183
-0.19071817 0.16740011 -0.24272002
-0.19071497 0.16747616 -0.24272421
-0.19070946 0.16762982 -0.24271254
-0.19070664 0.1677057 -0.24270874
-0.19070423 0.16778336 -0.2426949
-0.19070132 0.16785929 -0.2426931
-0.19069801 0.16793539 -0.24269927
-0.19069502 0.1680133 -0.24269742
-0.19069231 0.16808914 -0.24269161
-0.19068958 0.16816497 -0.24268579
-0.19068658 0.16824289 -0.24268395
-0.19068319 0.16831903 -0.24269213
-0.19068037 0.16839491 -0.24268833
-0.19067755 0.16847079 -0.24268451
-0.19067463 0.16854671 -0.2426827
-0.19067194 0.16862451 -0.24267486
-0.19066912 0.16870038 -0.24267104
-0.19107373 0.15811992 -0.24300043
-0.19107065 0.15819788 -0.24300058
-0.19106753 0.15827389 -0.24300277
-0.19106424 0.15834998 -0.24300894
-0.19106124 0.15842791 -0.24300708
-0.19105871 0.15850365 -0.24299729
-0.1910561 0.15858139 -0.24298744
-0.19105321 0.15865928 -0.24298359
-0.19105048 0.15873511 -0.24297778
-0.1910474 0.15881307 -0.24297792
-0.19104458 0.15888895 -0.24297412
-0.19104159 0.15896687 -0.24297225
-0.19103839 0.15904292 -0.24297644
-0.19103527 0.15911894 -0.24297863
-0.19103208 0.15919694 -0.24298078
-0.19102949 0.15927468 -0.24297091
-0.19102715 0.15935035 -0.24295712
-0.19102426 0.15942822 -0.24295327
-0.19102125 0.15950419 -0.24295345
-0.19101806 0.1595822 -0.2429556
-0.19101495 0.15965821 -0.24295779
-0.19101214 0.15973604 -0.24295193
-0.19100943 0.15981187 -0.24294612
-0.19100644 0.1598898 -0.24294427
-0.19100343 0.15996577 -0.24294446
-0.19100052 0.16004364 -0.2429406
-0.19099751 0.16011961 -0.2429408
-0.19099462 0.16019748 -0.24293694
-0.19099122 0.16027363 -0.24294512
-0.19098821 0.16034959 -0.24294531
-0.1909855 0.16042738 -0.24293746
-0.19098288 0.16050316 -0.24292965
-0.19097988 0.16058108 -0.24292779
-0.19097698 0.16065702 -0.24292599
-0.19097376 0.16073307 -0.24293017
-0.19096786 0.16088691 -0.24292651
-0.19096525 0.16096465 -0.24291666
-0.19096273 0.1610404 -0.24290687
-0.19095963 0.16111836 -0.242907
-0.19095011 0.16134648 -0.24291755
-0.19094731 0.16142432 -0.2429117
-0.19094472 0.16150206 -0.24290186
-0.19094209 0.16157785 -0.24289405
-0.19093609 0.16173173 -0.24289238
-0.19093297 0.16180775 -0.24289457
-0.19093017 0.16188559 -0.24288872
-0.19092755 0.16196138 -0.24288091
-0.19092533 0.16203894 -0.24286309
-0.19092233 0.16211687 -0.24286123
-0.19091874 0.16219309 -0.2428734
-0.19091262 0.16234507 -0.24287577
-0.19091012 0.16242278 -0.24286392
-0.19090751 0.16250052 -0.24285409
-0.19090499 0.16257626 -0.24284428
-0.19090289 0.16265574 -0.24282241
-0.19090027 0.16273153 -0.2428146
-0.19089597 0.16280612 -0.24284279
-0.19089217 0.16288243 -0.24285898
-0.19088987 0.16296005 -0.24284312
-0.19088745 0.1630377 -0.24282929
-0.19088405 0.16311385 -0.24283747
-0.19088046 0.16319008 -0.24284965
-0.19087715 0.16326617 -0.24285582
-0.19087446 0.16334397 -0.24284798
-0.19087203 0.16341966 -0.24283618
-0.19086912 0.16349754 -0.24283233
-0.19086583 0.16357364 -0.2428385
-0.19086291 0.16364956 -0.24283668
-0.19086029 0.16372535 -0.24282889
-0.19085748 0.16380319 -0.24282303
-0.19085467 0.16387907 -0.24281923
-0.19085206 0.16395681 -0.24280939
-0.19084916 0.16403273 -0.24280758
-0.19084616 0.16411065 -0.24280572
-0.19084285 0.16418675 -0.2428119
-0.19083974 0.16426276 -0.24281409
-0.19083683 0.16433868 -0.24281228
-0.19083413 0.16441648 -0.24280442
-0.1908313 0.16449235 -0.24280062
-0.19082811 0.16457036 -0.24280277
-0.19082502 0.16464637 -0.24280494
-0.19082201 0.16472234 -0.24280512
-0.19081898 0.1647983 -0.24280533
-0.19081588 0.16487432 -0.24280751
-0.19081289 0.16495223 -0.24280564
-0.19081016 0.16502807 -0.24279985
-0.19080725 0.16510399 -0.24279803
-0.19080445 0.16518182 -0.24279219
-0.19080172 0.16525766 -0.24278638
-0.19079873 0.16533558 -0.24278453
-0.19079572 0.16541155 -0.24278471
-0.1907931 0.16548733 -0.24277692
-0.19079021 0.16556521 -0.24277306
-0.1907872 0.16564117 -0.24277325
-0.19078439 0.16571902 -0.24276739
-0.19078177 0.1657948 -0.24275959
-0.19077896 0.16587068 -0.24275579
-0.19077605 0.16594855 -0.24275193
-0.19077334 0.16602439 -0.24274613
-0.19077015 0.16610239 -0.24274826
-0.19076684 0.16617849 -0.24275446
-0.19076364 0.16625455 -0.24275863
-0.19076063 0.16633052 -0.24275881
-0.19075751 0.16640653 -0.242761
-0.19075462 0.1664844 -0.24275714
-0.1907519 0.16656023 -0.24275135
-0.19074899 0.16663617 -0.24274954
-0.19074619 0.166714 -0.24274369
-0.19074346 0.16678983 -0.24273789
-0.19074054 0.16686575 -0.24273607
-0.19073744 0.16694176 -0.24273825
-0.19073445 0.16701968 -0.2427364
-0.19073153 0.1670956 -0.24273458
-0.19072852 0.16717157 -0.24273479
-0.19072571 0.16724941 -0.24272892
-0.1907232 0.16732515 -0.24271913
-0.19072019 0.16740112 -0.24271932
-0.19071408 0.16755505 -0.24271965
-0.19071135 0.16763088 -0.24271384
-0.19070853 0.16770676 -0.24271004
-0.19070613 0.16778442 -0.2426962
-0.1907033 0.1678603 -0.24269238
-0.19069991 0.16793644 -0.24270056
-0.19069691 0.16801436 -0.2426987
-0.1906942 0.16809019 -0.2426929
-0.19069158 0.16816598 -0.24268511
-0.19068848 0.16824394 -0.24268524
-0.19068518 0.16832004 -0.24269143
-0.19068226 0.16839597 -0.24268961
-0.19067954 0.1684718 -0.24268381
-0.19067663 0.16854773 -0.24268201
-0.19067392 0.16862552 -0.24267416
-0.19067101 0.16870144 -0.24267235
-0.19107376 0.15811776 -0.24299972
-0.19107068 0.15819572 -0.24299987
-0.19106756 0.15827173 -0.24300206
-0.19106427 0.15834783 -0.24300823
-0.19106117 0.15842579 -0.24300838
-0.19105874 0.15850151 -0.24299657
-0.19105604 0.15857929 -0.24298872
-0.19105324 0.15865712 -0.24298288
-0.19105053 0.15873295 -0.24297708
-0.19104743 0.15881091 -0.2429772
-0.19104461 0.15888681 -0.24297342
-0.19104162 0.15896472 -0.24297154
-0.19103841 0.15904078 -0.24297573
-0.19103532 0.15911679 -0.24297792
-0.19103213 0.1591948 -0.24298006
-0.19102952 0.15927254 -0.2429702
-0.19102718 0.15934819 -0.24295641
-0.1910242 0.15942612 -0.24295455
-0.19102128 0.15950204 -0.24295275
-0.19101809 0.15958005 -0.24295488
-0.19101499 0.15965606 -0.24295707
-0.19101219 0.15973389 -0.24295121
-0.19100946 0.15980972 -0.24294542
-0.19100647 0.15988764 -0.24294356
-0.19100346 0.15996361 -0.24294375
-0.19100046 0.16004154 -0.24294189
-0.19099756 0.16011746 -0.24294008
-0.19099456 0.16019538 -0.24293822
-0.19099125 0.16027148 -0.24294442
-0.19098824 0.16034745 -0.2429446
-0.19098555 0.16042523 -0.24293675
-0.19098292 0.16050102 -0.24292895
-0.19097993 0.16057894 -0.24292707
-0.19097701 0.16065486 -0.24292529
-0.1909738 0.16073091 -0.24292946
-0.1909707 0.16080692 -0.24293165
-0.1909679 0.16088477 -0.24292579
-0.19096529 0.16096251 -0.24291596
-0.19096267 0.16103829 -0.24290815
-0.19095959 0.16111626 -0.2429083
-0.19095647 0.16119227 -0.24291047
-0.19095336 0.16126828 -0.24291265
-0.19095016 0.16134433 -0.24291684
-0.19094735 0.16142216 -0.24291098
-0.19094466 0.16149996 -0.24290314
-0.19094203 0.16157575 -0.24289533
-0.19093914 0.16165362 -0.24289149
-0.19093613 0.16172959 -0.24289167
-0.19093302 0.1618056 -0.24289387
-0.19093013 0.16188347 -0.24289
-0.19092759 0.16195923 -0.2428802
-0.19092539 0.16203679 -0.24286237
-0.19092229 0.16211475 -0.24286252
-0.1909188 0.16219094 -0.24287269
-0.1909155 0.16226704 -0.24287887
-0.19091268 0.16234292 -0.24287507
-0.19091016 0.16242062 -0.24286321
-0.19090757 0.16249837 -0.24285337
-0.19090503 0.16257411 -0.24284357
-0.19090293 0.1626536 -0.24282169
-0.19090022 0.16272943 -0.2428159
-0.19089602 0.16280396 -0.24284209
-0.19089223 0.16288029 -0.24285826
-0.19088992 0.16295789 -0.24284242
-0.19088751 0.16303556 -0.24282858
-0.19088411 0.1631117 -0.24283676
-0.19088051 0.16318792 -0.24284893
-0.19087721 0.16326402 -0.2428551
-0.19087452 0.16334182 -0.24284726
-0.19087207 0.16341752 -0.24283546
-0.19086918 0.16349539 -0.24283162
-0.19086589 0.16357149 -0.24283779
-0.19086297 0.16364741 -0.24283597
-0.19086027 0.1637252 -0.24282813
-0.19085754 0.16380104 -0.24282232
-0.19085473 0.16387692 -0.24281853
-0.19085212 0.16395466 -0.24280867
-0.1908493 0.16403054 -0.24280488
-0.19084622 0.1641085 -0.242805
-0.19084291 0.1641846 -0.2428112
-0.1908399 0.16426057 -0.24281138
-0.19083689 0.16433653 -0.24281156
-0.19083409 0.16441436 -0.24280572
-0.19083136 0.16449021 -0.24279991
-0.19082826 0.16456622 -0.2428021
-0.19082497 0.16464427 -0.24280623
-0.19082206 0.16472019 -0.24280442
-0.19081905 0.16479616 -0.24280462
-0.19081594 0.16487217 -0.24280679
-0.19081295 0.16495009 -0.24280494
-0.19081023 0.16502592 -0.24279913
-0.19080721 0.16510189 -0.24279933
-0.19080451 0.16517967 -0.24279147
-0.1908018 0.16525552 -0.24278568
-0.1907988 0.16533343 -0.24278381
-0.19079579 0.1654094 -0.24278399
-0.19079316 0.16548519 -0.2427762
-0.19079027 0.16556306 -0.24277236
-0.19078736 0.16563898 -0.24277055
-0.19078445 0.16571686 -0.24276668
-0.19078183 0.16579266 -0.24275889
-0.19077893 0.16586858 -0.24275708
-0.19077612 0.16594641 -0.24275123
-0.1907734 0.16602224 -0.24274543
-0.19077021 0.16610025 -0.24274756
-0.19076681 0.16617639 -0.24275574
-0.19076371 0.1662524 -0.24275792
-0.19076069 0.16632837 -0.2427581
-0.19075748 0.16640443 -0.2427623
-0.19075468 0.16648225 -0.24275644
-0.19075197 0.16655809 -0.24275064
-0.19074905 0.16663401 -0.24274883
-0.19074625 0.16671185 -0.24274299
-0.19074354 0.16678768 -0.24273717
-0.19074053 0.16686365 -0.24273735
-0.19073752 0.16693962 -0.24273755
-0.19073452 0.16701753 -0.24273568
-0.1907317 0.16709341 -0.2427319
-0.19072859 0.16716942 -0.24273407
-0.1907257 0.1672473 -0.24273022
-0.19072308 0.1673231 -0.24272242
-0.19072016 0.16739902 -0.2427206
-0.19071688 0.16747707 -0.24272475
-0.19071415 0.1675529 -0.24271894
-0.19071142 0.16762874 -0.24271312
-0.19070871 0.16770457 -0.24270734
-0.19070621 0.16778228 -0.24269548
-0.19070338 0.16785815 -0.24269168
-0.19069998 0.1679343 -0.24269986
-0.19069698 0.16801222 -0.242698
-0.19069427 0.16808805 -0.2426922
-0.19069165 0.16816384 -0.24268439
-0.19068855 0.1682418 -0.24268454
-0.19068515 0.16831794 -0.24269271
-0.19068234 0.16839382 -0.24268891
-0.19067962 0.16846965 -0.24268311
-0.1906767 0.16854557 -0.24268129
-0.19067401 0.16862337 -0.24267346
-0.19067109 0.16869929 -0.24267164
-0.19107328 0.15811549 -0.24300058
-0.19107029 0.15819341 -0.24299872
-0.19106708 0.15826946 -0.24300291
-0.19106388 0.15834552 -0.24300709
-0.19106078 0.15842348 -0.24300723
-0.19105835 0.1584992 -0.24299544
-0.19105566 0.15857698 -0.24298759
-0.19105285 0.15865481 -0.24298173
-0.19105004 0.15873069 -0.24297793
-0.19104704 0.15880862 -0.24297607
-0.19104423 0.1588845 -0.24297225
-0.19104125 0.15896241 -0.24297041
-0.19103803 0.15903847 -0.24297459
-0.19103482 0.15911452 -0.24297878
-0.19103163 0.15919253 -0.24298091
-0.19102904 0.15927027 -0.24297106
-0.19102681 0.1593459 -0.24295527
-0.19102381 0.15942381 -0.24295342
-0.1910208 0.15949978 -0.2429536
-0.19101761 0.15957779 -0.24295574
-0.1910146 0.15965375 -0.24295592
-0.19101171 0.15973163 -0.24295208
-0.19100899 0.15980746 -0.24294627
-0.19100599 0.15988538 -0.24294442
-0.19100308 0.1599613 -0.2429426
-0.19100009 0.16003922 -0.24294075
-0.19099708 0.16011518 -0.24294093
-0.19099417 0.16019307 -0.24293709
-0.19099088 0.16026917 -0.24294326
-0.19098777 0.16034518 -0.24294545
-0.19098507 0.16042297 -0.24293759
-0.19098245 0.16049875 -0.24292979
-0.19097945 0.16057667 -0.24292794
-0.19097653 0.16065259 -0.24292612
-0.19097343 0.1607286 -0.24292833
-0.19097014 0.16080666 -0.24293245
-0.19096743 0.1608825 -0.24292666
-0.19096482 0.16096024 -0.24291679
-0.1909623 0.16103598 -0.242907
-0.1909592 0.16111395 -0.24290714
-0.1909561 0.16118996 -0.24290934
-0.19095299 0.16126597 -0.24291152
-0.19094968 0.16134207 -0.24291769
-0.19094689 0.1614199 -0.24291185
-0.19094418 0.1614977 -0.24290399
