# .PCD v0.7 - Point Cloud Data file format
VERSION 0.7
FIELDS x y z
SIZE 4 4 4
TYPE F F F
COUNT 1 1 1
WIDTH 1340
HEIGHT 1
VIEWPOINT 0 0 0 1 0 0 0
POINTS 1340
DATA ascii
-0.095598467 0.16814688 -0.23795488
-0.09559577 0.16822468 -0.23794705
-0.09559276 0.16830064 -0.23794723
-0.095591113 0.168376 -0.23791945
-0.095587544 0.16845417 -0.23792958
-0.095584147 0.16853032 -0.23793776
-0.095581621 0.16860606 -0.23792797
-0.095579192 0.16868177 -0.23791617
-0.095576473 0.1687576 -0.23791037
-0.095573969 0.16883531 -0.23789853
-0.095570765 0.16891135 -0.23790272
-0.095567077 0.16898763 -0.23791689
-0.095563777 0.16906373 -0.23792306
-0.095560402 0.16914183 -0.2379292
-0.095557295 0.16921784 -0.2379314
-0.095554672 0.16929363 -0.23792359
-0.095551975 0.16937141 -0.23791574
-0.095549062 0.16944733 -0.23791394
-0.095546052 0.1695233 -0.23791412
-0.095543236 0.16959919 -0.23791033
-0.095541008 0.1696748 -0.23789454
-0.095538311 0.16975258 -0.2378867
-0.09553501 0.16982868 -0.23789287
-0.095531613 0.16990483 -0.23790105
-0.095528603 0.16998079 -0.23790124
-0.095525786 0.17005667 -0.23789743
-0.095522799 0.17013459 -0.23789558
-0.095520079 0.17021044 -0.23788977
-0.09551736 0.17028627 -0.23788399
-0.095514737 0.17036206 -0.23787618
-0.095511749 0.17043997 -0.23787431
-0.095508546 0.17051603 -0.2378785
-0.095505536 0.170592 -0.2378787
-0.095502622 0.17066792 -0.23787689
-0.095499635 0.17074583 -0.23787503
-0.095496818 0.17082173 -0.23787123
-0.095494203 0.17089751 -0.23786342
-0.095491678 0.17097326 -0.23785363
-0.095488861 0.17104913 -0.23784983
-0.09548568 0.17112714 -0.23785196
-0.095482767 0.17120306 -0.23785016
-0.095479488 0.17128111 -0.2378543
-0.095475987 0.1713573 -0.23786446
-0.095473371 0.17143309 -0.23785667
-0.095471039 0.17150876 -0.23784289
-0.095468029 0.17158473 -0.23784307
-0.095464945 0.17166269 -0.23784322
-0.095462225 0.17173852 -0.2378374
-0.095459215 0.17181449 -0.23783761
-0.095456228 0.1718924 -0.23783575
-0.095453508 0.17196825 -0.23782995
-0.095450982 0.17204399 -0.23782015
-0.095448166 0.17211987 -0.23781635
-0.095444575 0.17219611 -0.23782852
-0.09544149 0.17227407 -0.23782867
-0.095439062 0.17234977 -0.23781687
-0.09543635 0.1724256 -0.23781106
-0.095433436 0.17250153 -0.23780926
-0.09542986 0.17257971 -0.23781939
-0.095426664 0.17265576 -0.23782358
-0.095423654 0.17273173 -0.23782375
-0.095421053 0.17280948 -0.23781392
-0.095418528 0.17288522 -0.23780411
-0.095415518 0.17296119 -0.23780431
-0.095412701 0.17303707 -0.23780051
-0.095409885 0.17311294 -0.23779669
-0.095406994 0.17319083 -0.23779285
-0.095404081 0.17326675 -0.23779105
-0.095400877 0.17334279 -0.23779523
-0.095397793 0.17342077 -0.23779538
-0.09539517 0.17349656 -0.23778757
-0.095392548 0.17357235 -0.23777977
-0.095389836 0.17364818 -0.23777397
-0.095386826 0.17372414 -0.23777416
-0.095383443 0.17380224 -0.23778029
-0.095380336 0.17387825 -0.23778248
-0.095377348 0.17395617 -0.23778063
-0.095374532 0.17403206 -0.23777682
-0.095371626 0.17410798 -0.23777501
-0.09536881 0.17418386 -0.23777121
-0.095366284 0.1742596 -0.23776141
-0.09536349 0.17433743 -0.23775557
-0.09536048 0.1744134 -0.23775575
-0.09535747 0.17448936 -0.23775595
-0.095354289 0.17456737 -0.23775809
-0.095351279 0.17464335 -0.23775828
-0.095348462 0.17471923 -0.23775446
-0.095345937 0.17479497 -0.23774467
-0.095343217 0.1748708 -0.23773888
-0.095340036 0.17494881 -0.23774102
-0.095337026 0.17502478 -0.2377412
-0.095333844 0.17510279 -0.23774335
-0.095331125 0.17517862 -0.23773754
-0.095328309 0.17525451 -0.23773374
-0.0953255 0.17533039 -0.23772994
-0.09532278 0.17540622 -0.23772413
-0.095319599 0.17548423 -0.23772627
-0.095316492 0.17556024 -0.23772845
-0.095313676 0.17563611 -0.23772466
-0.095310785 0.17571399 -0.23772079
-0.095307969 0.17578988 -0.237717
-0.095305249 0.17586571 -0.23771119
-0.095302261 0.17594363 -0.23770934
-0.095299542 0.17601946 -0.23770353
-0.095296629 0.17609538 -0.23770173
-0.095293231 0.17617153 -0.23770991
-0.095290244 0.17624944 -0.23770805
-0.095287524 0.17632528 -0.23770225
-0.095284514 0.17640124 -0.23770243
-0.09528172 0.17647909 -0.23769659
-0.095279001 0.17655492 -0.23769078
-0.095276475 0.17663066 -0.23768099
-0.095273763 0.17670649 -0.23767519
-0.095270656 0.1767825 -0.23767737
-0.095267758 0.17686039 -0.23767352
-0.095264852 0.17693631 -0.23767172
-0.095261469 0.17701441 -0.23767786
-0.095258363 0.17709042 -0.23768005
-0.095255554 0.1771663 -0.23767623
-0.095252462 0.17724426 -0.23767638
-0.095249549 0.17732018 -0.23767456
-0.095246837 0.17739601 -0.23766877
-0.095243745 0.17747398 -0.2376689
-0.095240444 0.17755008 -0.2376751
-0.095237069 0.17762817 -0.23768122
-0.095233113 0.17770654 -0.23769934
-0.095227525 0.17778759 -0.23774937
-0.095218308 0.17787617 -0.23786914
-0.095207833 0.17796533 -0.23801489
-0.096238628 0.15129477 -0.23843849
-0.096234933 0.15137103 -0.23845264
-0.096211627 0.15198629 -0.23843201
-0.096207738 0.15206264 -0.23845017
-0.096148014 0.15359747 -0.2384316
-0.09614592 0.15367696 -0.23840974
-0.096144289 0.15375426 -0.23837993
-0.096140273 0.15391117 -0.23833424
-0.096138567 0.15399048 -0.23830438
-0.096130602 0.15405887 -0.23841465
-0.096127518 0.15413684 -0.23841478
-0.096126743 0.15429622 -0.23829909
-0.096123658 0.15437418 -0.23829922
-0.095851049 0.16142206 -0.2381794
-0.095847651 0.1614982 -0.23818758
-0.095844954 0.16157599 -0.23817974
-0.095842138 0.16165186 -0.23817593
-0.095838934 0.16172792 -0.23818012
-0.095835947 0.16180584 -0.23817825
-0.095833421 0.1618816 -0.23816846
-0.095830798 0.16195738 -0.23816067
-0.095827401 0.16203353 -0.23816884
-0.095824607 0.16211136 -0.23816299
-0.09582267 0.16218685 -0.23814121
-0.095820166 0.16226454 -0.23812938
-0.095816769 0.16234069 -0.23813754
-0.095813565 0.16241674 -0.23814173
-0.095811158 0.16249439 -0.23812789
-0.09580873 0.1625701 -0.2381161
-0.095805332 0.16264623 -0.23812428
-0.095802225 0.16272224 -0.23812646
-0.095799334 0.16280013 -0.23812261
-0.095796131 0.16287617 -0.2381268
-0.095793419 0.16295202 -0.238121
-0.095790893 0.16302776 -0.2381112
-0.095788293 0.1631055 -0.23810136
-0.095785573 0.16318135 -0.23809555
-0.095782779 0.16325918 -0.23808971
-0.095780157 0.16333497 -0.2380819
-0.095777243 0.16341089 -0.2380801
-0.095774159 0.16348885 -0.23808023
-0.095771052 0.16356486 -0.23808244
-0.095767848 0.16364092 -0.23808661
-0.095764838 0.16371688 -0.2380868
-0.095761836 0.16379285 -0.238087
-0.09575884 0.16387077 -0.23808514
-0.095756128 0.16394661 -0.23807934
-0.095753506 0.1640224 -0.23807153
-0.095750615 0.16410027 -0.23806769
-0.095747508 0.16417629 -0.23806986
-0.095744982 0.16425203 -0.23806009
-0.095742673 0.16432965 -0.23804423
-0.095739953 0.16440548 -0.23803845
-0.095736749 0.16448154 -0.23804262
-0.095733553 0.16455759 -0.2380468
-0.095730856 0.16463538 -0.23803896
-0.095728137 0.16471122 -0.23803315
-0.095725127 0.16478719 -0.23803335
-0.095722504 0.16486298 -0.23802555
-0.095719881 0.16493876 -0.23801775
-0.095716991 0.16501664 -0.23801389
-0.095713884 0.16509265 -0.2380161
-0.095711365 0.1651684 -0.23800629
-0.095709346 0.16524588 -0.23798445
-0.095706917 0.16532159 -0.23797268
-0.095704004 0.16539751 -0.23797086
-0.09570051 0.1654737 -0.23798104
-0.095697135 0.16555178 -0.23798718
-0.095694415 0.16562763 -0.23798138
-0.095691986 0.16570333 -0.23796958
-0.095688395 0.16577956 -0.23798175
-0.095684513 0.16585591 -0.23799992
-0.095681235 0.16593397 -0.23800404
-0.095679387 0.16600941 -0.23798028
-0.09567745 0.1660849 -0.23795849
-0.095678441 0.16616102 -0.23787475
-0.095676787 0.16623637 -0.23784699
-0.095673293 0.16631256 -0.23785716
-0.095669992 0.16638866 -0.23786333
-0.095667198 0.16646649 -0.23785749
-0.095663317 0.16654284 -0.23787566
-0.095660113 0.1666189 -0.23787984
-0.095658273 0.16669434 -0.23785606
-0.095655963 0.16677196 -0.23784024
-0.095652662 0.16684805 -0.2378464
-0.095646739 0.16692534 -0.23790652
-0.095643245 0.16700152 -0.23791669
-0.095640235 0.16707748 -0.23791689
-0.095637612 0.16715328 -0.23790908
-0.095634237 0.16723138 -0.23791522
-0.095631033 0.16730744 -0.23791939
-0.095627733 0.16738352 -0.23792559
-0.095624067 0.16746175 -0.2379377
-0.095621541 0.16753751 -0.23792791
-0.095619991 0.16761281 -0.23789814
-0.095617853 0.16768838 -0.23788035
-0.095615037 0.16776426 -0.23787655
-0.095610306 0.16784297 -0.23791066
-0.095605254 0.16791986 -0.23795277
-0.095601566 0.16799614 -0.23796695
-0.095598653 0.16807206 -0.23796514
-0.095596232 0.16814776 -0.23795335
-0.095593825 0.16822542 -0.23793951
-0.095591106 0.16830125 -0.2379337
-0.095588677 0.16837695 -0.23792191
-0.095585957 0.16845278 -0.23791611
-0.095582485 0.16853093 -0.23792425
-0.095579863 0.16860673 -0.23791644
-0.095577344 0.16868247 -0.23790663
-0.095574625 0.1687583 -0.23790084
-0.095571831 0.16883613 -0.237895
-0.095568627 0.16891219 -0.23789918
-0.09556523 0.16898833 -0.23790735
-0.095562026 0.16906439 -0.23791154
-0.095558457 0.16914257 -0.23792167
-0.09555535 0.16921858 -0.23792386
-0.095552728 0.16929437 -0.23791605
-0.095550008 0.1693702 -0.23791026
-0.095547214 0.16944803 -0.2379044
-0.095544107 0.16952404 -0.23790661
-0.095541194 0.16959998 -0.23790479
-0.095538676 0.16967572 -0.23789498
-0.095535979 0.16975351 -0.23788714
-0.095532872 0.16982952 -0.23788932
-0.095529571 0.16990562 -0.23789552
-0.095526367 0.16998167 -0.23789969
-0.095523551 0.17005755 -0.23789589
-0.095520951 0.17013529 -0.23788604
-0.095518135 0.17021118 -0.23788224
-0.095515221 0.1702871 -0.23788044
-0.095512509 0.17036293 -0.23787463
-0.095509611 0.17044081 -0.23787078
-0.095506608 0.17051677 -0.23787096
-0.095503502 0.17059278 -0.23787317
-0.095500395 0.1706688 -0.23787534
-0.095497407 0.17074671 -0.23787349
-0.095494784 0.1708225 -0.23786569
-0.095492162 0.1708983 -0.23785789
-0.095489442 0.17097414 -0.2378521
-0.095486626 0.17105001 -0.23784828
-0.095483445 0.17112802 -0.23785043
-0.095480531 0.17120394 -0.23784861
-0.09547735 0.17128195 -0.23785076
-0.095473953 0.17135809 -0.23785894
-0.095471337 0.17143388 -0.23785114
-0.095468812 0.17150964 -0.23784134
-0.095465705 0.17158565 -0.23784353
-0.09546262 0.17166361 -0.23784366
-0.095459901 0.17173944 -0.23783787
-0.095457084 0.17181532 -0.23783407
-0.095454074 0.17189129 -0.23783424
-0.095451549 0.17196703 -0.23782445
-0.095449045 0.17204474 -0.23781261
-0.095446043 0.17212071 -0.23781282
-0.095442355 0.17219698 -0.23782697
-0.09543936 0.1722749 -0.23782513
-0.095436841 0.17235065 -0.23781532
-0.095434122 0.17242648 -0.23780952
-0.095431209 0.1725024 -0.23780772
-0.095427833 0.1725805 -0.23781385
-0.095424533 0.1726566 -0.23782003
-0.095421717 0.17273247 -0.23781623
-0.095419116 0.17281023 -0.23780638
-0.095416494 0.17288601 -0.23779859
-0.095413484 0.17296198 -0.23779878
-0.095410571 0.1730379 -0.23779696
-0.095407762 0.17311378 -0.23779316
-0.095404871 0.17319165 -0.2377893
-0.095402054 0.17326753 -0.2377855
-0.095398754 0.17334363 -0.23779169
-0.095395766 0.17342156 -0.23778982
-0.095393315 0.17349531 -0.23778009
-0.095390521 0.17357314 -0.23777422
-0.095387705 0.17364901 -0.23777042
-0.095384695 0.17372498 -0.23777062
-0.095381416 0.17380303 -0.23777476
-0.095378406 0.173879 -0.23777494
-0.095375322 0.17395696 -0.23777509
-0.095372505 0.17403284 -0.23777129
-0.095369697 0.17410873 -0.23776747
-0.095366783 0.17418465 -0.23776567
-0.095364355 0.17426035 -0.23775387
-0.095361657 0.17433813 -0.23774603
-0.095358454 0.17441419 -0.2377502
-0.09535525 0.17449024 -0.2377544
-0.095352165 0.17456821 -0.23775454
-0.095349155 0.17464417 -0.23775473
-0.095346339 0.17472005 -0.23775092
-0.095344007 0.17479572 -0.23773713
-0.095341295 0.17487155 -0.23773134
-0.095338017 0.1749496 -0.23773548
-0.095335104 0.17502552 -0.23773366
-0.095332012 0.17510349 -0.23773381
-0.095329106 0.17517941 -0.23773199
-0.09532629 0.1752553 -0.23772819
-0.095323376 0.17533122 -0.23772639
-0.09532056 0.1754071 -0.23772258
-0.095317475 0.17548506 -0.23772272
-0.095314272 0.17556112 -0.2377269
-0.095311455 0.17563699 -0.2377231
-0.095308661 0.17571482 -0.23771726
-0.095306039 0.17579061 -0.23770945
-0.09530323 0.1758665 -0.23770565
-0.095300414 0.17594238 -0.23770183
-0.095297597 0.17601825 -0.23769805
-0.095294416 0.17609626 -0.23770018
-0.095291018 0.17617241 -0.23770836
-0.095288031 0.17625032 -0.23770651
-0.095285311 0.17632616 -0.2377007
-0.095282495 0.17640203 -0.2376969
-0.095279679 0.17647791 -0.23769309
-0.095276885 0.17655575 -0.23768723
-0.095274262 0.17663154 -0.23767945
-0.095271647 0.17670733 -0.23767164
-0.095268637 0.17678329 -0.23767182
-0.095265843 0.17686114 -0.23766598
-0.095262833 0.1769371 -0.23766617
-0.095259264 0.17701527 -0.23767629
-0.095256254 0.17709124 -0.2376765
-0.095253631 0.17716704 -0.23766869
-0.095250644 0.17724496 -0.23766683
-0.095247634 0.17732093 -0.23766702
-0.095244817 0.1773968 -0.23766321
-0.095242001 0.17747268 -0.23765942
-0.095238723 0.17755073 -0.23766355
-0.095235154 0.17762892 -0.23767368
-0.095231093 0.17770731 -0.2376938
-0.095225506 0.17778838 -0.23774382
-0.095216855 0.17787474 -0.23785366
-0.095206685 0.17796573 -0.23799136
-0.096238174 0.15129301 -0.23843281
-0.096234679 0.15136918 -0.23844299
-0.096210979 0.1519846 -0.23843032
-0.096207581 0.15206075 -0.23843852
-0.096147358 0.15359579 -0.23842993
-0.096145265 0.15367527 -0.23840807
-0.096143536 0.15375262 -0.23838025
-0.096140027 0.15391128 -0.23832253
-0.096138105 0.15398872 -0.23829868
-0.096129969 0.15405914 -0.23841092
-0.096127056 0.15413508 -0.2384091
-0.096126303 0.15429641 -0.23829137
-0.096123293 0.15437238 -0.23829156
-0.096118711 0.15444709 -0.23832574
-0.095850274 0.16142042 -0.23817974
-0.09584707 0.16149648 -0.23818392
-0.095844373 0.16157427 -0.23817608
-0.095841557 0.16165015 -0.23817228
-0.095838279 0.1617282 -0.23817641
-0.095835268 0.16180417 -0.2381766
-0.09583284 0.16187987 -0.23816481
-0.095830046 0.1619577 -0.23815896
-0.095826842 0.16203375 -0.23816314
-0.095823929 0.16210967 -0.23816134
-0.095822006 0.16218711 -0.23813751
-0.095819585 0.16226283 -0.23812573
-0.095816091 0.162339 -0.2381359
-0.09581279 0.1624151 -0.23814207
-0.09581048 0.16249272 -0.23812625
-0.095808148 0.16256838 -0.23811245
-0.095804654 0.16264457 -0.23812263
-0.095801473 0.16272257 -0.23812476
-0.095798656 0.16279845 -0.23812096
-0.095795453 0.1628745 -0.23812515
-0.095792733 0.16295034 -0.23811935
-0.095790327 0.163028 -0.23810551
-0.095787704 0.16310379 -0.23809771
-0.095785089 0.16317958 -0.23808992
-0.095782287 0.16325742 -0.23808406
-0.095779575 0.16333325 -0.23807827
-0.095776565 0.16340922 -0.23807845
-0.095773481 0.16348718 -0.23807859
-0.095770374 0.16356319 -0.23808078
-0.09576717 0.16363925 -0.23808497
-0.09576416 0.16371521 -0.23808515
-0.095761247 0.16379113 -0.23808333
-0.095758259 0.16386905 -0.23808149
-0.095755443 0.16394493 -0.23807769
-0.09575282 0.16402072 -0.23806989
-0.09574993 0.16409861 -0.23806603
-0.09574692 0.16417457 -0.23806623
-0.095744394 0.16425031 -0.23805642
-0.095742084 0.16432793 -0.2380406
-0.095739365 0.16440377 -0.23803478
-0.095736161 0.16447982 -0.23803899
-0.095732868 0.16455592 -0.23804516
-0.095730163 0.16463371 -0.23803732
-0.095727548 0.16470949 -0.23802951
-0.095724538 0.16478546 -0.2380297
-0.095721915 0.16486125 -0.23802191
-0.095719293 0.16493705 -0.2380141
-0.095716305 0.16501497 -0.23801225
-0.095713295 0.16509093 -0.23801245
-0.095710695 0.16516867 -0.2380026
-0.09570875 0.16524416 -0.23798081
-0.095706329 0.16531986 -0.23796903
-0.095703319 0.16539583 -0.23796922
-0.095699824 0.16547202 -0.23797938
-0.095696643 0.16555002 -0.23798153
-0.09569402 0.16562581 -0.23797373
-0.095691398 0.16570161 -0.23796594
-0.095687903 0.16577779 -0.2379761
-0.095684119 0.16585411 -0.23799227
-0.095680833 0.16593216 -0.23799641
-0.095678896 0.16600765 -0.23797464
-0.095676854 0.16608317 -0.23795485
-0.095677651 0.16615939 -0.2378751
-0.095676102 0.1662347 -0.23784533
-0.095672704 0.16631083 -0.23785353
-0.09566921 0.16638702 -0.23786369
-0.095666513 0.16646481 -0.23785585
-0.095662624 0.16654117 -0.23787402
-0.095659517 0.16661718 -0.23787621
-0.095657676 0.16669263 -0.23785242
-0.09565527 0.16677028 -0.23783858
-0.095652066 0.16684633 -0.23784277
-0.0956477 0.16692291 -0.23787092
-0.095642649 0.1669998 -0.23791304
-0.095639639 0.16707577 -0.23791324
-0.095637016 0.16715156 -0.23790544
-0.095633835 0.16722956 -0.23790759
-0.095630631 0.16730562 -0.23791176
-0.09562733 0.16738172 -0.23791794
-0.095623665 0.16745995 -0.23793007
-0.095621139 0.16753569 -0.23792028
-0.095619299 0.16761114 -0.2378965
-0.09561716 0.16768672 -0.23787871
-0.095614441 0.16776255 -0.23787291
-0.09560971 0.16784126 -0.23790701
-0.095604561 0.16791819 -0.23795113
-0.095601067 0.16799437 -0.23796132
-0.095598154 0.16807029 -0.2379595
-0.095595725 0.168146 -0.2379477
-0.095593221 0.16822369 -0.23793587
-0.095590405 0.16829957 -0.23793207
-0.095587984 0.16837528 -0.23792028
-0.095585264 0.16845112 -0.23791447
-0.095581792 0.16852926 -0.23792261
-0.09557917 0.16860504 -0.2379148
-0.095576741 0.16868074 -0.237903
-0.095574021 0.16875659 -0.23789722
-0.095571227 0.16883442 -0.23789136
-0.095568024 0.16891047 -0.23789555
-0.095564529 0.16898666 -0.23790573
-0.095561229 0.16906275 -0.23791191
-0.095557831 0.16913889 -0.23792008
-0.095554844 0.16921681 -0.23791823
-0.095552027 0.16929269 -0.23791441
-0.095549405 0.16936849 -0.23790663
-0.095546611 0.16944632 -0.23790076
-0.095543504 0.16952233 -0.23790297
-0.095540494 0.1695983 -0.23790315
-0.095538072 0.16967399 -0.23789136
-0.095535375 0.16975179 -0.23788351
-0.095532365 0.16982776 -0.2378837
-0.095528968 0.1699039 -0.23789188
-0.095525861 0.16997992 -0.23789406
-0.095523044 0.17005579 -0.23789027
-0.09552025 0.17013362 -0.23788442
-0.095517434 0.1702095 -0.2378806
-0.095514521 0.17028542 -0.2378788
-0.095511898 0.17036121 -0.23787099
-0.095509179 0.17043705 -0.23786521
-0.095505901 0.17051511 -0.23786935
-0.095502794 0.17059112 -0.23787153
-0.095499784 0.17066708 -0.23787171
-0.09549699 0.17074491 -0.23786587
-0.09549427 0.17082074 -0.23786005
-0.095491558 0.17089657 -0.23785426
-0.095488936 0.17097238 -0.23784646
-0.095486119 0.17104825 -0.23784266
-0.095482841 0.17112631 -0.23784679
-0.095479928 0.17120223 -0.23784499
-0.09547665 0.17128028 -0.23784912
-0.095473252 0.17135642 -0.23785731
-0.09547063 0.17143221 -0.2378495
-0.095468201 0.17150791 -0.23783772
-0.095465191 0.17158388 -0.23783791
-0.095462106 0.17166184 -0.23783804
-0.09545929 0.17173773 -0.23783424
-0.095456377 0.17181365 -0.23783243
-0.095453463 0.17188957 -0.23783062
-0.095450938 0.17196532 -0.23782083
-0.095448442 0.17204301 -0.23780899
-0.095445432 0.17211898 -0.23780918
-0.095441744 0.17219526 -0.23782334
-0.095438749 0.17227317 -0.23782149
-0.095436424 0.17234884 -0.23780771
-0.095433608 0.17242472 -0.23780391
-0.095430598 0.17250068 -0.23780409
-0.0954272 0.17257683 -0.23781227
-0.095423825 0.17265493 -0.23781841
-0.095421009 0.1727308 -0.23781461
-0.09541858 0.1728065 -0.2378028
-0.095415957 0.17288229 -0.23779501
-0.09541297 0.17296022 -0.23779315
-0.09540996 0.17303619 -0.23779334
-0.095407143 0.17311206 -0.23778954
-0.095404252 0.17318994 -0.23778568
-0.095401436 0.17326581 -0.23778188
-0.095398135 0.17334192 -0.23778807
-0.095395125 0.17341788 -0.23778826
-0.095392607 0.17349362 -0.23777846
-0.095389813 0.17357147 -0.23777261
-0.095387094 0.1736473 -0.2377668
-0.095384084 0.17372327 -0.237767
-0.095380805 0.17380132 -0.23777112
-0.095377699 0.17387733 -0.23777331
-0.095374785 0.17395325 -0.23777151
-0.095371895 0.17403112 -0.23776767
-0.095369078 0.174107 -0.23776385
-0.095366165 0.17418292 -0.23776205
-0.095363736 0.17425863 -0.23775026
-0.095361114 0.17433442 -0.23774245
-0.095357738 0.17441252 -0.23774859
-0.095354632 0.17448853 -0.23775077
-0.095351547 0.17456649 -0.23775092
-0.095348537 0.17464246 -0.2377511
-0.095345818 0.17471829 -0.23774531
-0.095343396 0.17479399 -0.23773351
-0.09534058 0.17486988 -0.23772971
-0.095337294 0.17494793 -0.23773384
-0.095334388 0.17502385 -0.23773204
-0.095331378 0.17509982 -0.23773223
-0.09532848 0.17517769 -0.23772839
-0.095325768 0.17525353 -0.23772258
-0.095322758 0.17532949 -0.23772277
-0.095319942 0.17540537 -0.23771897
-0.095316857 0.17548333 -0.2377191
-0.095313653 0.17555939 -0.23772329
-0.095310934 0.17563522 -0.23771748
-0.095308043 0.17571311 -0.23771363
-0.095305324 0.17578894 -0.23770782
-0.095302604 0.17586477 -0.23770204
-0.095299788 0.17594065 -0.23769823
-0.095296979 0.17601654 -0.23769441
-0.095293887 0.1760945 -0.23769456
-0.095290489 0.17617063 -0.23770274
-0.095287502 0.17624857 -0.23770089
-0.095284782 0.1763244 -0.2376951
-0.095281869 0.17640032 -0.23769328
-0.09527906 0.1764762 -0.23768947
-0.095276341 0.17655203 -0.23768367
-0.095273741 0.17662978 -0.23767383
-0.095270924 0.17670566 -0.23767003
-0.095268011 0.17678158 -0.23766822
-0.095265195 0.17685746 -0.23766442
-0.095262207 0.17693537 -0.23766255
-0.095258638 0.17701356 -0.23767269
-0.095255628 0.17708953 -0.23767288
-0.095252812 0.1771654 -0.23766907
-0.095249824 0.17724332 -0.23766722
-0.095246911 0.17731924 -0.23766541
-0.095244192 0.17739508 -0.2376596
-0.095241278 0.17747101 -0.23765782
-0.095238 0.17754906 -0.23766193
-0.095234528 0.17762721 -0.23767006
-0.095230371 0.17770565 -0.23769218
-0.09522488 0.17778666 -0.2377402
-0.095216125 0.17787308 -0.23785204
-0.095205382 0.17796431 -0.23800173
-0.096234567 0.15136687 -0.23846373
-0.096148051 0.15359509 -0.23843268
-0.096145958 0.15367457 -0.2384108
-0.096144132 0.15375197 -0.23838498
-0.096140407 0.15390874 -0.23833328
-0.096139692 0.15398957 -0.23828141
-0.096130058 0.15405674 -0.23842767
-0.096127242 0.15413262 -0.23842387
-0.096126899 0.15429574 -0.23829609
-0.096123792 0.15437175 -0.23829828
-0.095850684 0.16141984 -0.23818845
-0.095847964 0.16149569 -0.23818265
-0.09584517 0.16157351 -0.23817679
-0.09584216 0.16164948 -0.238177
-0.095838957 0.16172554 -0.23818117
-0.095835775 0.16180354 -0.23818332
-0.095833443 0.1618792 -0.23816952
-0.095830724 0.16195504 -0.23816372
-0.095827423 0.16203113 -0.23816991
-0.095824532 0.16210902 -0.23816606
-0.095822588 0.16218449 -0.23814428
-0.095820084 0.1622622 -0.23813243
-0.095816687 0.16233835 -0.23814061
-0.095813192 0.16241452 -0.23815079
-0.09581098 0.1624921 -0.23813295
-0.095808752 0.1625677 -0.23811716
-0.095805258 0.16264389 -0.23812735
-0.095802054 0.16271995 -0.23813152
-0.095799163 0.16279782 -0.23812768
-0.095796056 0.16287383 -0.23812987
-0.095793337 0.16294967 -0.23812407
-0.095790908 0.16302538 -0.23811227
-0.095788404 0.16310307 -0.23810042
-0.095785588 0.16317895 -0.23809662
-0.095782794 0.16325679 -0.23809078
-0.095780075 0.16333263 -0.23808497
-0.095777169 0.16340855 -0.23808315
-0.09577398 0.16348656 -0.2380853
-0.095770873 0.16356257 -0.23808749
-0.095767573 0.16363867 -0.23809367
-0.095764667 0.16371459 -0.23809186
-0.09576185 0.16379046 -0.23808806
-0.095758863 0.16386838 -0.23808619
-0.095756046 0.16394426 -0.23808241
-0.095753424 0.16402006 -0.2380746
-0.095750533 0.16409793 -0.23807076
-0.095747426 0.16417395 -0.23807293
-0.0957449 0.16424969 -0.23806314
-0.095742688 0.16432726 -0.23804531
-0.095739968 0.1644031 -0.23803951
-0.095736668 0.1644792 -0.23804569
-0.095733471 0.16455525 -0.23804986
-0.095730871 0.16463299 -0.23804003
-0.095728152 0.16470882 -0.23803422
-0.095725141 0.16478479 -0.23803443
-0.095722422 0.16486064 -0.23802862
-0.095719799 0.16493642 -0.23802082
-0.095716909 0.1650143 -0.23801696
-0.095713899 0.16509026 -0.23801716
-0.09571147 0.16516598 -0.23800537
-0.095709458 0.16524345 -0.23798352
-0.095706739 0.16531928 -0.23797774
-0.095703632 0.16539529 -0.23797992
-0.095700234 0.16547143 -0.2379881
-0.09569715 0.1655494 -0.23798823
-0.095694721 0.16562511 -0.23797645
-0.095692098 0.1657009 -0.23796865
-0.09568841 0.16577718 -0.23798282
-0.095684722 0.16585344 -0.237997
-0.095681347 0.16593154 -0.23800313
-0.095679499 0.16600698 -0.23797935
-0.095677562 0.16608247 -0.23795757
-0.095678449 0.16615863 -0.23787582
-0.095676996 0.1662339 -0.23784406
-0.095673598 0.16631004 -0.23785225
-0.095670007 0.16638628 -0.2378644
-0.095667213 0.16646411 -0.23785856
-0.095663138 0.16654055 -0.23788072
-0.095659934 0.1666166 -0.23788491
-0.095658183 0.166692 -0.23785913
-0.09565597 0.16676958 -0.23784131
-0.095652767 0.16684562 -0.23784548
-0.095648497 0.16692217 -0.23787163
-0.09564326 0.16699913 -0.23791777
-0.095640056 0.16707519 -0.23792195
-0.095637627 0.1671509 -0.23791015
-0.095634446 0.16722891 -0.2379123
-0.095631048 0.16730504 -0.23792046
-0.095627844 0.16738109 -0.23792465
-0.095624365 0.16745923 -0.23793279
-0.095621847 0.16753499 -0.237923
-0.095619708 0.16761056 -0.2379052
-0.09561757 0.16768613 -0.23788741
-0.095614858 0.16776197 -0.23788163
-0.095610119 0.16784067 -0.23791572
-0.095605269 0.16791748 -0.23795384
-0.095601872 0.16799362 -0.23796204
-0.095598958 0.16806954 -0.23796022
-0.095596433 0.16814528 -0.23795041
-0.095593832 0.16822302 -0.23794058
-0.095590822 0.16829899 -0.23794077
-0.095588297 0.16837475 -0.23793098
-0.0955856 0.16845253 -0.23792312
-0.095582105 0.16852872 -0.23793331
-0.095579579 0.16860446 -0.2379235
-0.095577158 0.16868018 -0.23791172
-0.095574439 0.16875601 -0.23790592
-0.095571838 0.16883375 -0.23789607
-0.095568538 0.16890985 -0.23790225
-0.095565043 0.16898604 -0.23791242
-0.095561743 0.16906214 -0.23791862
-0.095558368 0.16914023 -0.23792474
-0.095555261 0.16921625 -0.23792693
-0.095552541 0.16929208 -0.23792112
-0.095549844 0.16936986 -0.23791328
-0.095547028 0.16944574 -0.23790948
-0.095543921 0.16952175 -0.23791167
-0.095541105 0.16959763 -0.23790786
-0.095538676 0.16967334 -0.23789605
-0.095535979 0.16975112 -0.23788822
-0.095532872 0.16982713 -0.23789039
-0.095529474 0.16990328 -0.23789859
-0.095526367 0.16997929 -0.23790076
-0.095523559 0.17005517 -0.23789696
-0.095520765 0.17013299 -0.23789111
-0.095517851 0.17020892 -0.23788932
-0.095515132 0.17028475 -0.23788351
-0.095512509 0.17036055 -0.2378757
-0.095509619 0.17043842 -0.23787186
-0.095506415 0.17051448 -0.23787604
-0.095503308 0.17059049 -0.23787823
-0.095500395 0.17066641 -0.23787642
-0.095497407 0.17074433 -0.23787457
-0.095494784 0.17082012 -0.23786676
-0.095492169 0.17089592 -0.23785897
-0.095489547 0.17097171 -0.23785117
-0.09548673 0.17104758 -0.23784736
-0.095483549 0.17112559 -0.2378495
-0.095480539 0.17120156 -0.2378497
-0.095477261 0.17127961 -0.23785383
-0.095473863 0.17135575 -0.23786201
-0.095471241 0.17143154 -0.23785421
-0.095468812 0.17150725 -0.23784241
-0.095465802 0.17158322 -0.2378426
-0.095462717 0.17166118 -0.23784275
-0.095459998 0.17173702 -0.23783696
-0.095457084 0.17181294 -0.23783514
-0.095454171 0.17188886 -0.23783334
-0.095451459 0.17196469 -0.23782754
-0.095448859 0.17204244 -0.23781769
-0.095446043 0.17211832 -0.23781389
-0.095442452 0.17219454 -0.23782605
-0.095439367 0.17227252 -0.2378262
-0.095436841 0.17234826 -0.23781639
-0.095434219 0.17242405 -0.2378086
-0.095431305 0.17249997 -0.2378068
-0.095427737 0.17257816 -0.23781693
-0.095424436 0.17265426 -0.2378231
-0.09542162 0.17273013 -0.2378193
-0.095419019 0.17280787 -0.23780945
-0.095416397 0.17288367 -0.23780166
-0.095413387 0.17295964 -0.23780185
-0.095410571 0.17303552 -0.23779804
-0.095407665 0.17311144 -0.23779625
-0.095404863 0.17318927 -0.23779038
-0.095402054 0.17326514 -0.23778659
-0.095398754 0.17334124 -0.23779276
-0.095395669 0.17341921 -0.23779291
-0.095393047 0.17349501 -0.2377851
-0.095390327 0.17357084 -0.23777932
-0.095387608 0.17364667 -0.23777351
-0.095384695 0.17372259 -0.23777169
-0.09538132 0.17380069 -0.23777783
-0.095378213 0.1738767 -0.23778
-0.095375225 0.17395462 -0.23777816
-0.095372312 0.17403054 -0.23777635
-0.095369495 0.17410642 -0.23777255
-0.095366679 0.1741823 -0.23776874
-0.095364258 0.17425801 -0.23775695
-0.095361456 0.17433584 -0.23775111
-0.095358357 0.17441185 -0.23775329
-0.09535525 0.17448786 -0.23775548
-0.095352158 0.17456582 -0.23775563
-0.095349155 0.17464179 -0.23775581
-0.095346339 0.17471766 -0.23775201
-0.095343813 0.17479342 -0.23774222
-0.095340997 0.1748693 -0.2377384
-0.095337912 0.17494726 -0.23773855
-0.095334902 0.17502323 -0.23773873
-0.095331818 0.17510119 -0.23773888
-0.095329002 0.17517707 -0.23773506
-0.095326282 0.1752529 -0.23772928
-0.095323272 0.17532887 -0.23772946
-0.09532056 0.17540471 -0.23772366
-0.095317468 0.17548268 -0.2377238
-0.095314369 0.17555869 -0.23772599
-0.095311552 0.17563456 -0.23772219
-0.095308661 0.17571244 -0.23771834
-0.095305845 0.17578831 -0.23771453
-0.095303126 0.17586416 -0.23770872
-0.095300213 0.17594008 -0.23770693
-0.09529759 0.17601587 -0.23769912
-0.095294505 0.17609383 -0.23769927
-0.095291108 0.17616998 -0.23770744
-0.09528812 0.17624789 -0.23770559
-0.095285304 0.17632377 -0.23770177
-0.095282488 0.17639965 -0.23769799
-0.0952795 0.17647757 -0.23769613
-0.095276877 0.17655337 -0.23768833
-0.095274359 0.17662911 -0.23767853
-0.09527164 0.17670494 -0.23767273
-0.095268533 0.17678095 -0.23767492
-0.095265642 0.17685883 -0.23767106
-0.095262729 0.17693475 -0.23766926
-0.095259354 0.17701285 -0.2376754
-0.095256247 0.17708886 -0.23767757
-0.09525343 0.17716473 -0.23767376
-0.095250346 0.17724271 -0.23767391
-0.095247433 0.17731863 -0.23767211
-0.095244713 0.17739446 -0.23766631
-0.095241725 0.17747238 -0.23766446
-0.095238425 0.17754848 -0.23767063
-0.095234953 0.17762662 -0.23767877
-0.095230892 0.17770502 -0.23769888
-0.095225498 0.17778599 -0.2377449
-0.095216379 0.17787454 -0.23786269
-0.095205806 0.17796373 -0.23801044
-0.09620633 0.15206099 -0.23844014
-0.09614601 0.15359607 -0.23843357
-0.0961437 0.15367369 -0.23841774
-0.096142188 0.15375291 -0.23838389
-0.096138135 0.15399034 -0.23827232
-0.09612751 0.15405601 -0.2384406
-0.096124813 0.1541338 -0.23843277
-0.096123964 0.15429518 -0.23831701
-0.096120656 0.15437128 -0.23832321
-0.095845871 0.16149667 -0.23818356
-0.095842786 0.16157463 -0.23818369
-0.095839776 0.1616506 -0.23818389
-0.095836572 0.16172665 -0.23818807
-0.095833465 0.16180266 -0.23819025
-0.095830962 0.16188037 -0.2381784
-0.095828339 0.16195616 -0.23817062
-0.095824942 0.16203231 -0.23817879
-0.095822148 0.16211013 -0.23817295
-0.095820107 0.16218565 -0.23815316
-0.0958177 0.16226332 -0.23813933
-0.095814399 0.16233942 -0.2381455
-0.095811002 0.16241556 -0.2381537
-0.095808595 0.16249321 -0.23813984
-0.09580636 0.16256884 -0.23812406
-0.095802963 0.16264497 -0.23813224
-0.095799662 0.16272107 -0.23813842
-0.095796846 0.16279694 -0.23813461
-0.095793664 0.16287495 -0.23813675
-0.095790751 0.16295089 -0.23813495
-0.095788419 0.16302654 -0.23812115
-0.095785916 0.16310424 -0.23810932
-0.0957831 0.16318013 -0.23810551
-0.095780112 0.16325805 -0.23810366
-0.095777489 0.16333383 -0.23809585
-0.09577477 0.16340967 -0.23809005
-0.095771864 0.16348559 -0.23808825
-0.09576866 0.16356164 -0.23809242
-0.095765181 0.16363978 -0.23810056
-0.095762171 0.16371575 -0.23810075
-0.095759451 0.16379158 -0.23809496
-0.095756561 0.16386946 -0.23809111
-0.095753744 0.16394535 -0.2380873
-0.095751122 0.16402113 -0.23807949
-0.095748231 0.16409901 -0.23807564
-0.09574493 0.16417511 -0.23808181
-0.095742404 0.16425085 -0.23807202
-0.095740274 0.16432643 -0.23805425
-0.095737576 0.16440421 -0.23804641
-0.095734268 0.16448031 -0.23805258
-0.095731065 0.16455637 -0.23805676
-0.09572845 0.16463216 -0.23804897
-0.095725551 0.16471003 -0.23804511
-0.095722541 0.164786 -0.23804531
-0.095719926 0.1648618 -0.2380375
-0.095717594 0.16493745 -0.2380237
-0.095714606 0.16501537 -0.23802185
-0.095711499 0.16509138 -0.23802404
-0.095709071 0.16516709 -0.23801225
-0.095706955 0.16524461 -0.23799242
-0.095704332 0.16532041 -0.23798463
-0.095701322 0.16539638 -0.23798481
-0.095698021 0.16547246 -0.23799099
-0.095694646 0.16555056 -0.23799713
-0.095692024 0.16562636 -0.23798932
-0.095689595 0.16570206 -0.23797753
-0.095686004 0.16577829 -0.23798969
-0.095682316 0.16585456 -0.23800388
-0.095678933 0.16593266 -0.23801002
-0.095676996 0.16600814 -0.23798823
-0.095675245 0.16608354 -0.23796245
-0.095676042 0.16615975 -0.2378827
-0.095674589 0.16623501 -0.23785095
-0.095671579 0.16631098 -0.23785114
-0.095668077 0.16638717 -0.23786132
-0.095664978 0.16646318 -0.2378635
-0.095660724 0.16654167 -0.23788762
-0.095657326 0.16661781 -0.23789579
-0.095655672 0.16669317 -0.23786801
-0.095653832 0.16676861 -0.23784424
-0.09565074 0.16684657 -0.23784438
-0.095644534 0.16692398 -0.23791048
-0.095640741 0.16700029 -0.23792665
-0.095637538 0.16707635 -0.23793083
-0.095634818 0.16715218 -0.23792502
-0.095631443 0.16723028 -0.23793116
-0.095628336 0.16730629 -0.23793335
-0.095625229 0.1673823 -0.23793554
-0.095621757 0.16746044 -0.23794368
-0.095619135 0.16753623 -0.23793587
-0.095617287 0.16761167 -0.23791209
-0.095615253 0.16768721 -0.23789231
-0.095612437 0.16776308 -0.23788851
-0.095607892 0.1678417 -0.23791862
-0.095602944 0.16791855 -0.23795874
-0.095599443 0.16799474 -0.23796892
-0.095596634 0.16807061 -0.23796511
-0.095594108 0.16814636 -0.23795532
-0.095591411 0.16822416 -0.23794746
-0.095588498 0.16830008 -0.23794566
-0.095585681 0.16837595 -0.23794186
-0.095582984 0.16845374 -0.23793401
-0.095579587 0.16852988 -0.23794219
-0.095577158 0.16860558 -0.23793039
-0.095574632 0.16868134 -0.2379206
-0.095571913 0.16875717 -0.2379148
-0.095569313 0.16883491 -0.23790497
-0.095566206 0.16891092 -0.23790714
-0.095562711 0.16898711 -0.2379173
-0.095559314 0.16906326 -0.2379255
-0.095555842 0.1691414 -0.23793364
-0.095552832 0.16921736 -0.23793381
-0.095550209 0.16929315 -0.23792602
-0.095547415 0.16937098 -0.23792017
-0.095544599 0.16944686 -0.23791635
-0.095541492 0.16952287 -0.23791856
-0.095538676 0.16959874 -0.23791474
-0.095536247 0.16967446 -0.23790295
-0.09553355 0.16975224 -0.2378951
-0.09553054 0.16982821 -0.2378953
-0.095527142 0.16990435 -0.23790348
-0.095524132 0.16998032 -0.23790365
-0.095521145 0.17005824 -0.23790181
-0.095518328 0.17013411 -0.23789801
-0.095515706 0.1702099 -0.23789021
-0.095512792 0.17028584 -0.2378884
-0.095509999 0.17036366 -0.23788255
-0.095507085 0.17043959 -0.23788074
-0.095503978 0.1705156 -0.23788293
-0.095500968 0.17059156 -0.23788312
-0.095497958 0.17066753 -0.23788331
-0.095494874 0.17074549 -0.23788345
-0.095492348 0.17082123 -0.23787364
-0.095489725 0.17089704 -0.23786587
-0.095487103 0.17097282 -0.23785806
-0.095484093 0.17104879 -0.23785824
-0.095481105 0.17112671 -0.23785639
-0.095478192 0.17120263 -0.23785459
-0.095475011 0.17128064 -0.23785672
-0.095471613 0.17135678 -0.23786491
-0.095468991 0.17143257 -0.2378571
-0.095466562 0.17150828 -0.2378453
-0.095463261 0.17158437 -0.23785149
-0.095460176 0.17166235 -0.23785163
-0.095457554 0.17173813 -0.23784383
-0.095454641 0.17181405 -0.23784202
-0.095451459 0.17189206 -0.23784417
-0.095448837 0.17196785 -0.23783636
-0.095446311 0.17204361 -0.23782657
-0.095443495 0.17211948 -0.23782277
-0.09544 0.17219566 -0.23783293
-0.095436916 0.17227364 -0.23783308
-0.095434293 0.17234942 -0.23782529
-0.095431671 0.17242521 -0.23781748
-0.095428854 0.17250109 -0.23781368
-0.095425382 0.17257923 -0.23782182
-0.095422082 0.17265533 -0.23782799
-0.095419168 0.17273125 -0.2378262
-0.095416471 0.17280903 -0.23781833
-0.095413752 0.17288488 -0.23781255
-0.095410839 0.1729608 -0.23781073
-0.095408022 0.17303668 -0.23780692
-0.095405109 0.1731126 -0.23780513
-0.095402315 0.17319043 -0.23779926
-0.095399499 0.17326631 -0.23779547
-0.095396295 0.17334236 -0.23779964
-0.095393308 0.17342028 -0.2377978
-0.095390782 0.17349604 -0.23778799
-0.095388062 0.17357187 -0.23778221
-0.095385149 0.17364779 -0.23778039
-0.095382236 0.17372371 -0.23777857
-0.095378958 0.17380176 -0.23778272
-0.095375948 0.17387773 -0.2377829
-0.095372863 0.17395569 -0.23778304
-0.095370047 0.17403157 -0.23777924
-0.095367037 0.17410754 -0.23777944
-0.095364049 0.17418545 -0.23777759
-0.095361695 0.17425917 -0.23776585
-0.095358998 0.17433695 -0.23775798
-0.095355891 0.17441297 -0.23776017
-0.095352784 0.17448898 -0.23776236
-0.095349602 0.17456698 -0.23776451
-0.095346496 0.17464299 -0.23776668
-0.095343605 0.17472087 -0.23776284
-0.095341444 0.1747945 -0.2377471
-0.095338725 0.17487033 -0.23774129
-0.095335543 0.17494833 -0.23774344
-0.095332533 0.1750243 -0.23774362
-0.095329352 0.17510231 -0.23774576
-0.095326439 0.17517823 -0.23774396
-0.095323719 0.17525406 -0.23773816
-0.095320731 0.17533198 -0.2377363
-0.095318109 0.17540778 -0.23772851
-0.095315002 0.17548379 -0.23773068
-0.095311724 0.17556185 -0.23773482
-0.09530881 0.17563777 -0.23773302
-0.095306091 0.1757136 -0.23772722
-0.095303372 0.17578943 -0.23772141
-0.095300652 0.17586526 -0.2377156
-0.095297664 0.1759432 -0.23771375
-0.095294848 0.17601907 -0.23770995
-0.095291741 0.17609508 -0.23771214
-0.095288366 0.17617318 -0.23771827
-0.095285453 0.1762491 -0.23771647
-0.095282733 0.17632493 -0.23771065
-0.095279917 0.17640081 -0.23770687
-0.095277123 0.17647864 -0.23770101
-0.095274404 0.17655447 -0.23769522
-0.095271781 0.17663027 -0.23768741
-0.095269158 0.17670606 -0.2376796
-0.095266052 0.17678207 -0.23768179
-0.095263161 0.17685995 -0.23767795
-0.095260151 0.17693591 -0.23767814
-0.095256679 0.17701405 -0.23768628
-0.095253766 0.17708997 -0.23768446
-0.095251143 0.17716576 -0.23767665
-0.095248155 0.17724369 -0.2376748
-0.095245048 0.17731971 -0.23767699
-0.095242061 0.17739762 -0.23767513
-0.095239244 0.1774735 -0.23767135
-0.095236041 0.17754956 -0.23767552
-0.095232464 0.17762774 -0.23768565
-0.095228605 0.17770605 -0.23770176
-0.095223114 0.17778707 -0.23774979
-0.095213801 0.1778757 -0.23787156
-0.095204681 0.17796424 -0.23798935
-0.096146889 0.15359569 -0.23843154
-0.096144788 0.15367517 -0.23840967
-0.096142769 0.15375265 -0.23838785
-0.096128583 0.15405552 -0.23843458
-0.096125685 0.15413341 -0.23843074
-0.096125223 0.15429461 -0.23830701
-0.096121535 0.15437087 -0.23832119
-0.09584678 0.16149628 -0.23818156
-0.095843792 0.1615742 -0.2381797
-0.095840685 0.16165021 -0.23818189
-0.095837481 0.16172627 -0.23818606
-0.095834471 0.16180223 -0.23818627
-0.095831968 0.16187993 -0.23817441
-0.095829345 0.16195573 -0.23816662
-0.095825948 0.16203186 -0.2381748
-0.095823154 0.1621097 -0.23816895
-0.095821209 0.16218518 -0.23814717
-0.095818706 0.16226289 -0.23813534
-0.095815212 0.16233908 -0.2381455
-0.095811717 0.16241525 -0.23815568
-0.095809601 0.16249278 -0.23813584
-0.095807374 0.16256841 -0.23812006
-0.095803976 0.16264454 -0.23812824
-0.095800579 0.16272068 -0.23813641
-0.095797762 0.16279656 -0.23813263
-0.095794573 0.16287456 -0.23813476
-0.095791765 0.16295044 -0.23813096
-0.095789529 0.16302606 -0.23811516
-0.095786929 0.1631038 -0.23810533
-0.095784113 0.1631797 -0.23810151
-0.095781222 0.16325757 -0.23809767
-0.095778503 0.1633334 -0.23809186
-0.095775783 0.16340923 -0.23808606
-0.095772773 0.1634852 -0.23808625
-0.095769398 0.1635633 -0.23809239
-0.095766194 0.16363935 -0.23809657
-0.095763281 0.16371527 -0.23809476
-0.095760368 0.16379119 -0.23809296
-0.095757477 0.16386907 -0.2380891
-0.095754758 0.16394491 -0.2380833
-0.095752038 0.16402075 -0.23807749
-0.095749147 0.16409862 -0.23807365
-0.095745943 0.16417468 -0.23807782
-0.095743425 0.16425042 -0.23806803
-0.095741287 0.164326 -0.23805025
-0.095738493 0.16440383 -0.23804441
-0.095735192 0.16447993 -0.23805058
-0.095731989 0.16455598 -0.23805477
-0.095729291 0.16463377 -0.23804691
-0.095726669 0.16470955 -0.23803914
-0.095723659 0.16478552 -0.23803931
-0.095720939 0.16486137 -0.2380335
-0.095718414 0.16493711 -0.23802371
-0.095715523 0.16501498 -0.23801985
-0.095712416 0.16509099 -0.23802206
-0.095710084 0.16516666 -0.23800826
-0.095708072 0.16524413 -0.23798645
-0.095705353 0.16531998 -0.23798063
-0.095702246 0.16539599 -0.23798282
-0.095698848 0.16547212 -0.23799101
-0.095695764 0.16555008 -0.23799114
-0.095693238 0.16562584 -0.23798135
-0.095690228 0.16570181 -0.23798153
-0.095687121 0.16577782 -0.23798372
-0.095683433 0.16585408 -0.23799789
-0.095680058 0.16593218 -0.23800403
-0.095678113 0.16600767 -0.23798224
-0.095676169 0.16608316 -0.23796047
-0.09567716 0.16615927 -0.23787674
-0.095675707 0.16623454 -0.23784497
-0.0956726 0.16631055 -0.23784715
-0.095668815 0.16638687 -0.23786332
-0.095665902 0.16646279 -0.23786151
-0.095661841 0.16654119 -0.23788163
-0.095658444 0.16661733 -0.2378898
-0.0956567 0.16669273 -0.23786403
-0.095654778 0.16677018 -0.23784021
-0.095651574 0.16684623 -0.23784439
-0.095645167 0.16692373 -0.23791449
-0.095641866 0.16699982 -0.23792067
-0.095638663 0.16707587 -0.23792484
-0.095636137 0.16715163 -0.23791505
-0.095632859 0.16722968 -0.2379192
-0.095629461 0.16730581 -0.23792738
-0.095626161 0.16738191 -0.23793355
-0.095622882 0.16745996 -0.23793769
-0.095620357 0.16753572 -0.23792788
-0.095618218 0.16761129 -0.23791012
-0.09561599 0.16768691 -0.23789433
-0.095613271 0.16776274 -0.23788851
-0.095608823 0.16784132 -0.23791662
-0.095603973 0.16791812 -0.23795477
-0.095600575 0.16799426 -0.23796293
-0.095597565 0.16807023 -0.23796313
-0.095594846 0.16814606 -0.23795733
-0.095592245 0.1682238 -0.23794748
-0.095589139 0.16829981 -0.23794967
-0.095587485 0.16837516 -0.23792189
-0.095583916 0.16845335 -0.23793203
-0.095580518 0.1685295 -0.23794021
-0.095577992 0.16860524 -0.23793042
-0.095575467 0.16868098 -0.23792061
-0.095572852 0.16875678 -0.2379128
-0.095570348 0.16883448 -0.23790097
-0.095567144 0.16891053 -0.23790516
-0.095563553 0.16898677 -0.23791733
-0.095560156 0.16906291 -0.2379255
-0.095556773 0.16914099 -0.23793164
-0.095553763 0.16921698 -0.23793183
-0.095551148 0.16929276 -0.23792404
-0.095548347 0.16937059 -0.23791818
-0.095545441 0.16944651 -0.23791638
-0.095542528 0.16952243 -0.23791456
-0.095539711 0.16959831 -0.23791078
-0.095537379 0.16967398 -0.23789698
-0.095534682 0.16975176 -0.23788913
-0.095531479 0.16982782 -0.23789331
-0.095528081 0.16990396 -0.23790149
-0.095525071 0.16997993 -0.23790169
-0.095522255 0.17005581 -0.23789787
-0.095519267 0.17013372 -0.23789603
-0.095516451 0.1702096 -0.23789221
-0.095513731 0.17028545 -0.23788641
-0.095511213 0.17036119 -0.23787662
-0.095508218 0.17043911 -0.23787476
-0.095504917 0.17051521 -0.23788095
-0.095502004 0.17059113 -0.23787914
-0.095499001 0.1706671 -0.23787934
-0.095495909 0.17074506 -0.23787947
-0.095493294 0.17082085 -0.23787168
-0.095490672 0.17089665 -0.23786387
-0.095488146 0.17097239 -0.23785409
-0.095485233 0.17104831 -0.23785228
-0.095482148 0.17112628 -0.23785242
-0.095479138 0.17120224 -0.2378526
-0.09547586 0.17128029 -0.23785675
-0.095472462 0.17135644 -0.23786491
-0.09546984 0.17143223 -0.23785713
-0.095467508 0.17150789 -0.23784333
-0.095464401 0.17158391 -0.23784551
-0.095461316 0.17166187 -0.23784566
-0.095458597 0.1717377 -0.23783986
-0.095455587 0.17181367 -0.23784006
-0.095452599 0.17189158 -0.23783819
-0.09544988 0.17196742 -0.2378324
-0.095447451 0.17204313 -0.2378206
-0.095444545 0.17211905 -0.23781879
-0.095441043 0.17219523 -0.23782897
-0.095437959 0.1722732 -0.23782912
-0.095435441 0.17234895 -0.23781931
-0.095432818 0.17242473 -0.23781152
-0.095429808 0.1725007 -0.23781171
-0.095426336 0.17257884 -0.23781985
-0.095423035 0.17265494 -0.23782602
-0.095420122 0.17273086 -0.2378242
-0.095417425 0.17280865 -0.23781636
-0.095414899 0.1728844 -0.23780656
-0.095411986 0.17296033 -0.23780477
-0.095409073 0.17303625 -0.23780295
-0.095406257 0.17311212 -0.23779915
-0.095403366 0.17319 -0.23779529
-0.095400549 0.17326587 -0.23779149
-0.095397249 0.17334197 -0.23779768
-0.095394261 0.17341989 -0.23779583
-0.095391639 0.17349569 -0.23778802
-0.095389016 0.17357148 -0.23778021
-0.095386297 0.17364731 -0.23777443
-0.095383294 0.17372328 -0.23777461
-0.095379911 0.17380138 -0.23778075
-0.095376804 0.17387739 -0.23778293
-0.095373817 0.17395531 -0.23778108
-0.095371 0.17403118 -0.23777728
-0.09536799 0.17410715 -0.23777747
-0.095365278 0.174183 -0.23777166
-0.095362753 0.17425874 -0.23776187
-0.095359959 0.17433657 -0.23775601
-0.095356852 0.17441258 -0.23775822
-0.095353842 0.17448854 -0.2377584
-0.09535066 0.17456655 -0.23776054
-0.09534765 0.17464252 -0.23776072
-0.095344834 0.17471839 -0.23775692
-0.095342308 0.17479415 -0.23774713
-0.095339589 0.17486998 -0.23774132
-0.095336504 0.17494795 -0.23774147
-0.095333397 0.17502396 -0.23774365
-0.095330313 0.17510192 -0.23774379
-0.095327497 0.1751778 -0.23774
-0.09532468 0.17525367 -0.2377362
-0.095321864 0.17532957 -0.23773238
-0.09531907 0.17540739 -0.23772654
-0.095315963 0.17548341 -0.23772871
-0.095312856 0.17555942 -0.23773092
-0.09531004 0.17563529 -0.23772711
-0.095307149 0.17571317 -0.23772326
-0.09530443 0.175789 -0.23771745
-0.095301718 0.17586485 -0.23771164
-0.095298626 0.17594281 -0.23771179
-0.095295906 0.17601864 -0.23770599
-0.095293 0.17609456 -0.23770419
-0.095289618 0.17617266 -0.23771031
-0.095286608 0.17624862 -0.23771051
-0.095283896 0.17632446 -0.23770469
-0.095280983 0.17640038 -0.23770291
-0.095278084 0.17647825 -0.23769905
-0.095275372 0.1765541 -0.23769325
-0.095272943 0.1766298 -0.23768145
-0.095270127 0.17670567 -0.23767765
-0.09526702 0.17678168 -0.23767984
-0.095264226 0.17685951 -0.23767398
-0.095261216 0.17693548 -0.23767418
-0.095257841 0.17701358 -0.23768032
-0.095254831 0.17708954 -0.23768049
-0.095252015 0.17716542 -0.23767669
-0.09524893 0.1772434 -0.23767683
-0.095246017 0.17731932 -0.23767504
-0.095243126 0.17739719 -0.23767117
-0.095240213 0.17747311 -0.23766938
-0.095236912 0.17754921 -0.23767555
-0.095233537 0.17762731 -0.23768169
-0.095229574 0.17770566 -0.23769981
-0.095223986 0.17778672 -0.23774981
-0.095214672 0.17787535 -0.2378716
-0.095204681 0.17796429 -0.23800737
-0.096236415 0.15129513 -0.23842803
-0.096232511 0.15136953 -0.23844823
-0.096208423 0.15198512 -0.23844358
-0.096205898 0.15206087 -0.23843378
-0.096145287 0.15359609 -0.23843321
-0.09614329 0.15367553 -0.23840934
-0.096141465 0.15375292 -0.2383835
-0.096137643 0.15390976 -0.23833382
-0.096136227 0.15398893 -0.23829797
-0.096127778 0.15405753 -0.23841822
-0.096124865 0.15413345 -0.2384164
-0.096124135 0.15429676 -0.23829663
-0.096121125 0.15437272 -0.23829682
-0.095848188 0.16142072 -0.23818299
-0.095845178 0.16149668 -0.23818319
-0.095842384 0.16157451 -0.23817734
-0.095839471 0.16165045 -0.23817554
-0.095836267 0.16172649 -0.23817971
-0.095833182 0.16180447 -0.23817986
-0.095830761 0.16188017 -0.23816806
-0.095828138 0.16195595 -0.23816027
-0.095824741 0.1620321 -0.23816845
-0.095821947 0.16210993 -0.23816261
-0.095819905 0.16218546 -0.23814282
-0.095817499 0.16226311 -0.23812899
-0.095814005 0.1623393 -0.23813915
-0.095810607 0.16241544 -0.23814733
-0.095808394 0.16249302 -0.2381295
-0.095806062 0.16256867 -0.2381157
-0.095802665 0.16264482 -0.23812389
-0.095799461 0.16272087 -0.23812807
-0.09579657 0.16279875 -0.23812422
-0.095793366 0.1628748 -0.23812841
-0.095790647 0.16295063 -0.23812261
-0.095788218 0.16302633 -0.23811081
-0.095785715 0.16310404 -0.23809896
-0.095783003 0.16317987 -0.23809317
-0.095780104 0.16325775 -0.23808932
-0.095777392 0.16333359 -0.23808351
-0.095774479 0.16340952 -0.23808171
-0.095771387 0.16348748 -0.23808184
-0.095768288 0.16356349 -0.23808403
-0.095765084 0.16363955 -0.23808822
-0.095762074 0.16371551 -0.2380884
-0.095759161 0.16379143 -0.23808661
-0.095756173 0.16386935 -0.23808475
-0.095753454 0.16394518 -0.23807895
-0.095750734 0.16402102 -0.23807314
-0.095747843 0.1640989 -0.2380693
-0.095744736 0.1641749 -0.23807147
-0.095742308 0.16425061 -0.2380597
-0.095739998 0.16432822 -0.23804384
-0.095737278 0.16440406 -0.23803806
-0.095733978 0.16448016 -0.23804423
-0.095730871 0.16455616 -0.23804641
-0.095728077 0.164634 -0.23804057
-0.095725454 0.16470979 -0.23803277
-0.095722444 0.16478576 -0.23803297
-0.095719829 0.16486154 -0.23802516
-0.095717207 0.16493735 -0.23801737
-0.095714219 0.16501527 -0.2380155
-0.095711209 0.16509123 -0.23801571
-0.09570878 0.16516693 -0.23800391
-0.095706664 0.16524446 -0.23798408
-0.095704138 0.1653202 -0.23797429
-0.095701031 0.16539621 -0.23797646
-0.095697634 0.16547236 -0.23798466
-0.095694453 0.16555037 -0.23798679
-0.095691927 0.16562611 -0.237977
-0.095689304 0.16570191 -0.23796919
-0.095685616 0.16577817 -0.23798336
-0.095681928 0.16585445 -0.23799753
-0.09567865 0.16593251 -0.23800167
-0.095676802 0.16600794 -0.23797789
-0.095674865 0.16608343 -0.23795611
