# .PCD v0.7 - Point Cloud Data file format
VERSION 0.7
FIELDS x y z
SIZE 4 4 4
TYPE F F F
COUNT 1 1 1
WIDTH 1379
HEIGHT 1
VIEWPOINT 0 0 0 1 0 0 0
POINTS 1379
DATA ascii
-0.1906963 0.16800927 -0.24269968
-0.19069359 0.1680851 -0.24269387
-0.19069086 0.16816093 -0.24268807
-0.19068787 0.16823885 -0.24268621
-0.19068447 0.16831499 -0.24269441
-0.19068165 0.16839087 -0.24269059
-0.19067883 0.16846675 -0.24268678
-0.19067591 0.16854267 -0.24268498
-0.19067322 0.16862047 -0.24267712
-0.19106972 0.15819038 -0.24299902
-0.19106652 0.15826644 -0.24300319
-0.1910633 0.1583425 -0.24300736
-0.19106022 0.15842046 -0.24300751
-0.19105779 0.15849616 -0.24299572
-0.19105509 0.15857396 -0.24298787
-0.19105229 0.15865178 -0.24298203
-0.19104956 0.15872762 -0.24297622
-0.19104648 0.15880558 -0.24297637
-0.19104366 0.15888146 -0.24297255
-0.19104066 0.15895939 -0.24297071
-0.19103746 0.15903544 -0.24297488
-0.19103435 0.15911144 -0.24297707
-0.19103117 0.15918945 -0.2429792
-0.19102623 0.15934286 -0.24295557
-0.19102323 0.15942077 -0.2429537
-0.19102032 0.15949669 -0.2429519
-0.19101714 0.15957472 -0.24295403
-0.19101402 0.15965071 -0.24295622
-0.19101124 0.15972856 -0.24295036
-0.19100851 0.15980439 -0.24294457
-0.19100551 0.15988231 -0.24294271
-0.1910025 0.15995827 -0.2429429
-0.1909966 0.16011211 -0.24293923
-0.19099361 0.16019003 -0.24293739
-0.19098729 0.1603421 -0.24294373
-0.19098459 0.1604199 -0.2429359
-0.19098197 0.16049568 -0.24292809
-0.19097897 0.1605736 -0.24292624
-0.19097605 0.16064952 -0.24292442
-0.19097285 0.16072558 -0.24292862
-0.19096965 0.16080163 -0.2429328
-0.19096684 0.16087946 -0.24292694
-0.19096434 0.16095717 -0.24291509
-0.19095862 0.16111092 -0.24290743
-0.19095542 0.16118698 -0.24291162
-0.19095241 0.16126294 -0.24291182
-0.1909492 0.161339 -0.24291599
-0.1909464 0.16141683 -0.24291015
-0.1909437 0.16149461 -0.24290229
-0.19094108 0.16157041 -0.2428945
-0.19093819 0.16164829 -0.24289063
-0.19093508 0.1617243 -0.24289283
-0.19093207 0.16180027 -0.24289301
-0.19092917 0.16187814 -0.24288917
-0.19092654 0.16195393 -0.24288136
-0.19092433 0.1620315 -0.24286352
-0.19091783 0.16218561 -0.24287185
-0.19091444 0.16226175 -0.24288002
-0.19091162 0.16233763 -0.24287622
-0.19090901 0.16241537 -0.24286637
-0.1909066 0.16249304 -0.24285252
-0.19090408 0.16256878 -0.24284273
-0.19089128 0.16287495 -0.24285741
-0.19088896 0.16295256 -0.24284157
-0.19088645 0.16303027 -0.24282974
-0.19088314 0.16310635 -0.24283591
-0.19087946 0.16318263 -0.24285008
-0.19087625 0.16325869 -0.24285427
-0.19087112 0.16341218 -0.24283463
-0.19086823 0.16349006 -0.24283077
-0.19086492 0.16356616 -0.24283695
-0.19086191 0.16364212 -0.24283713
-0.19085929 0.16371791 -0.24282934
-0.19085649 0.16379574 -0.24282348
-0.19085377 0.16387157 -0.24281767
-0.19085106 0.16394937 -0.24280983
-0.19084835 0.1640252 -0.24280402
-0.19084525 0.16410317 -0.24280417
-0.19084185 0.16417931 -0.24281234
-0.19083884 0.16425528 -0.24281254
-0.19083592 0.1643312 -0.24281073
-0.19083333 0.16440894 -0.24280088
-0.1908306 0.16448477 -0.24279508
-0.19082732 0.16456284 -0.24279921
-0.1908211 0.16471484 -0.24280357
-0.19081809 0.16479081 -0.24280377
-0.19081488 0.16486686 -0.24280795
-0.19081199 0.16494474 -0.2428041
-0.19080926 0.16502059 -0.2427983
-0.19080625 0.16509655 -0.24279848
-0.19080345 0.16517438 -0.24279264
-0.19080083 0.16525017 -0.24278483
-0.19079483 0.16540405 -0.24278316
-0.19078931 0.16555773 -0.24277151
-0.1907863 0.16563369 -0.24277169
-0.1907834 0.16571157 -0.24276784
-0.19078088 0.16578731 -0.24275804
-0.19077507 0.16594112 -0.24275237
-0.19077234 0.16601695 -0.24274658
-0.19076917 0.16609496 -0.24274871
-0.19076265 0.16624711 -0.24275908
-0.19075954 0.16632313 -0.24276125
-0.19075653 0.16639909 -0.24276145
-0.19075373 0.16647692 -0.24275559
-0.190751 0.16655275 -0.2427498
-0.1907481 0.16662867 -0.24274799
-0.1907452 0.16670655 -0.24274413
-0.19074248 0.16678239 -0.24273834
-0.19073655 0.16693428 -0.2427367
-0.19073355 0.1670122 -0.24273485
-0.19073054 0.16708817 -0.24273504
-0.19072753 0.16716413 -0.24273524
-0.19072473 0.16724196 -0.24272937
-0.19072221 0.1673177 -0.24271958
-0.19071309 0.16754761 -0.2427201
-0.19071037 0.16762345 -0.24271429
-0.19070765 0.16769928 -0.24270849
-0.19070524 0.16777693 -0.24269465
-0.19070233 0.16785285 -0.24269283
-0.19069903 0.16792895 -0.24269903
-0.19069603 0.16800688 -0.24269715
-0.1906933 0.16808271 -0.24269135
-0.19069059 0.16815855 -0.24268556
-0.1906876 0.16823646 -0.24268369
-0.19068138 0.16838849 -0.24268806
-0.19067857 0.16846436 -0.24268427
-0.19067565 0.16854028 -0.24268246
-0.19106956 0.15819271 -0.24299964
-0.19106635 0.15826876 -0.24300382
-0.19106315 0.15834482 -0.243008
-0.19106007 0.15842278 -0.24300815
-0.19105764 0.15849848 -0.24299636
-0.19105493 0.15857628 -0.2429885
-0.19105214 0.15865411 -0.24298266
-0.19104932 0.15872999 -0.24297884
-0.19104633 0.1588079 -0.24297699
-0.19104351 0.15888378 -0.24297318
-0.19104052 0.15896171 -0.24297133
-0.19103731 0.15903775 -0.2429755
-0.1910342 0.15911376 -0.24297769
-0.19103101 0.15919177 -0.24297982
-0.19102849 0.15926753 -0.24297003
-0.19102608 0.15934518 -0.24295619
-0.19102308 0.1594231 -0.24295434
-0.19102007 0.15949906 -0.24295452
-0.19101699 0.15957704 -0.24295467
-0.19101387 0.15965304 -0.24295685
-0.19101107 0.15973088 -0.24295101
-0.19100825 0.15980676 -0.24294719
-0.19100536 0.15988463 -0.24294335
-0.19100235 0.1599606 -0.24294353
-0.19099936 0.16003852 -0.24294168
-0.19099644 0.16011444 -0.24293986
-0.19099346 0.16019236 -0.24293801
-0.19099006 0.1602685 -0.24294618
-0.19098704 0.16034447 -0.24294636
-0.19098444 0.16042222 -0.24293652
-0.19098182 0.16049801 -0.24292871
-0.19097883 0.16057593 -0.24292687
-0.1909759 0.16065185 -0.24292505
-0.1909727 0.1607279 -0.24292925
-0.19096959 0.16080391 -0.24293143
-0.1909668 0.16088174 -0.24292558
-0.19096419 0.1609595 -0.24291572
-0.19096157 0.16103528 -0.24290793
-0.19095849 0.16111325 -0.24290806
-0.19095537 0.16118926 -0.24291025
-0.19095226 0.16126527 -0.24291244
-0.19094905 0.16134132 -0.24291661
-0.19094625 0.16141915 -0.24291077
-0.19094355 0.16149694 -0.24290292
-0.19094093 0.16157274 -0.24289513
-0.19093804 0.16165061 -0.24289125
-0.19093493 0.16172662 -0.24289346
-0.19093192 0.16180259 -0.24289364
-0.19092903 0.16188046 -0.24288979
-0.1909264 0.16195625 -0.24288198
-0.19092418 0.16203383 -0.24286415
-0.19092119 0.16211174 -0.24286228
-0.19091769 0.16218793 -0.24287246
-0.19091439 0.16226403 -0.24287865
-0.19091158 0.16233991 -0.24287483
-0.19090906 0.16241761 -0.242863
-0.19090647 0.16249536 -0.24285313
-0.19090393 0.1625711 -0.24284336
-0.19090183 0.16265059 -0.24282147
-0.19089921 0.16272637 -0.24281368
-0.19089492 0.16280095 -0.24284187
-0.19089113 0.16287728 -0.24285802
-0.19088882 0.16295488 -0.2428422
-0.19088641 0.16303255 -0.24282837
-0.19088301 0.16310868 -0.24283653
-0.19087942 0.16318491 -0.24284869
-0.19087611 0.16326101 -0.24285489
-0.19087341 0.1633388 -0.24284703
-0.19087099 0.16341451 -0.24283524
-0.19086808 0.16349238 -0.24283138
-0.19086479 0.16356848 -0.24283756
-0.19086178 0.16364445 -0.24283776
-0.19085914 0.16372024 -0.24282995
-0.19085635 0.16379806 -0.24282411
-0.19085363 0.16387391 -0.2428183
-0.19085093 0.16395169 -0.24281046
-0.1908482 0.16402753 -0.24280465
-0.19084512 0.16410549 -0.2428048
-0.19084181 0.16418159 -0.24281096
-0.19083871 0.1642576 -0.24281316
-0.19083589 0.16433348 -0.24280934
-0.19083329 0.16441122 -0.24279949
-0.19083047 0.16448709 -0.24279569
-0.19082718 0.16456515 -0.24279982
-0.19082397 0.1646412 -0.24280402
-0.19082096 0.16471717 -0.2428042
-0.19081795 0.16479313 -0.24280438
-0.19081475 0.16486919 -0.24280857
-0.19081186 0.16494708 -0.24280471
-0.19080913 0.16502291 -0.24279891
-0.19080612 0.16509888 -0.2427991
-0.19080332 0.1651767 -0.24279325
-0.1908007 0.16525249 -0.24278545
-0.19079761 0.16533045 -0.24278557
-0.19079469 0.16540638 -0.24278377
-0.19079207 0.16548218 -0.24277598
-0.19078918 0.16556005 -0.24277213
-0.19078617 0.16563602 -0.24277231
-0.19078326 0.16571389 -0.24276847
-0.19078074 0.16578963 -0.24275866
-0.19077793 0.16586553 -0.24275485
-0.19077493 0.16594344 -0.242753
-0.19077221 0.16601928 -0.24274719
-0.19076912 0.16609724 -0.24274734
-0.19076581 0.16617334 -0.24275351
-0.19076261 0.16624939 -0.24275769
-0.19075949 0.16632541 -0.24275988
-0.1907564 0.16640142 -0.24276206
-0.19075359 0.16647924 -0.24275622
-0.19075087 0.16655508 -0.24275041
-0.19074796 0.166631 -0.24274859
-0.19074507 0.16670887 -0.24274474
-0.19074243 0.16678467 -0.24273694
-0.19073953 0.1668606 -0.24273513
-0.19073641 0.16693661 -0.24273732
-0.19073342 0.16701452 -0.24273546
-0.19073051 0.16709045 -0.24273366
-0.1907275 0.16716641 -0.24273384
-0.1907246 0.16724429 -0.24272999
-0.19072208 0.16732003 -0.24272019
-0.19071907 0.16739601 -0.24272038
-0.19071577 0.16747405 -0.24272451
-0.19071296 0.16754994 -0.24272071
-0.19071034 0.16762573 -0.2427129
-0.19070752 0.1677016 -0.2427091
-0.19070511 0.16777925 -0.24269526
-0.19070229 0.16785514 -0.24269146
-0.19069889 0.16793127 -0.24269962
-0.1906959 0.16800921 -0.24269778
-0.19069318 0.16808504 -0.24269196
-0.19069056 0.16816083 -0.24268416
-0.19068757 0.16823874 -0.24268231
-0.19068417 0.16831489 -0.24269047
-0.19068125 0.16839081 -0.24268869
-0.19067852 0.16846664 -0.24268287
-0.19067562 0.16854256 -0.24268106
-0.19067292 0.16862036 -0.24267322
-0.19106965 0.15819503 -0.24300027
-0.19106644 0.15827109 -0.24300446
-0.19106324 0.15834714 -0.24300864
-0.19106014 0.15842511 -0.24300879
-0.19105762 0.15850085 -0.24299899
-0.19105501 0.1585786 -0.24298914
-0.19105221 0.15865643 -0.24298328
-0.1910494 0.15873231 -0.24297948
-0.1910464 0.15881023 -0.24297762
-0.19104359 0.1588861 -0.24297382
-0.1910405 0.15896407 -0.24297395
-0.19103739 0.15904008 -0.24297614
-0.19103429 0.15911609 -0.24297833
-0.1910311 0.1591941 -0.24298047
-0.19102849 0.15927185 -0.24297062
-0.19102617 0.1593475 -0.24295682
-0.19102317 0.15942542 -0.24295497
-0.19102025 0.15950134 -0.24295315
-0.19101708 0.15957935 -0.2429553
-0.19101396 0.15965536 -0.24295747
-0.19101116 0.15973321 -0.24295163
-0.19100834 0.15980908 -0.24294782
-0.19100535 0.159887 -0.24294597
-0.19100234 0.15996297 -0.24294615
-0.19099934 0.16004089 -0.2429443
-0.19099653 0.16011676 -0.24294049
-0.19099355 0.16019468 -0.24293864
-0.19099014 0.16027083 -0.2429468
-0.19098713 0.16034679 -0.24294698
-0.19098453 0.16042455 -0.24293715
-0.19098189 0.16050033 -0.24292934
-0.19097891 0.16057825 -0.24292749
-0.19097599 0.16065417 -0.24292567
-0.19097279 0.16073023 -0.24292988
-0.1909696 0.16080824 -0.24293201
-0.19096689 0.16088407 -0.24292621
-0.19096428 0.16096182 -0.24291635
-0.19096175 0.16103756 -0.24290656
-0.19095857 0.16111557 -0.24290869
-0.19095546 0.16119158 -0.24291088
-0.19095235 0.16126759 -0.24291307
-0.19094914 0.16134365 -0.24291724
-0.19094634 0.16142148 -0.2429114
-0.19094364 0.16149926 -0.24290355
-0.19094102 0.16157506 -0.24289575
-0.19093813 0.16165294 -0.24289188
-0.19093502 0.16172895 -0.24289407
-0.19093201 0.16180491 -0.24289426
-0.19092911 0.16188279 -0.2428904
-0.19092649 0.16195858 -0.24288261
-0.19092427 0.16203615 -0.24286476
-0.19092128 0.16211407 -0.24286291
-0.19091779 0.16219026 -0.24287309
-0.19091448 0.16226636 -0.24287927
-0.19091167 0.16234224 -0.24287546
-0.19090916 0.16241993 -0.24286363
-0.19090655 0.16249768 -0.24285376
-0.19090402 0.16257343 -0.24284399
-0.19090194 0.16265291 -0.2428221
-0.19089921 0.16272874 -0.2428163
-0.19089501 0.16280328 -0.2428425
-0.19089113 0.16287965 -0.24286065
-0.19088891 0.16295721 -0.24284282
-0.19088641 0.16303492 -0.24283098
-0.1908831 0.163111 -0.24283716
-0.19087951 0.16318724 -0.24284932
-0.1908762 0.16326334 -0.2428555
-0.1908735 0.16334112 -0.24284765
-0.19087107 0.16341683 -0.24283585
-0.19086818 0.16349471 -0.24283201
-0.19086488 0.16357081 -0.24283817
-0.19086197 0.16364673 -0.24283637
-0.19085926 0.16372451 -0.24282852
-0.19085655 0.16380034 -0.24282272
-0.19085373 0.16387622 -0.24281892
-0.19085112 0.16395397 -0.24280907
-0.19084831 0.16402985 -0.24280527
-0.19084522 0.16410781 -0.24280541
-0.19084181 0.16418396 -0.24281359
-0.1908388 0.16425993 -0.24281377
-0.19083598 0.1643358 -0.24280995
-0.19083337 0.16441354 -0.24280012
-0.19083056 0.16448942 -0.2427963
-0.19082719 0.16456752 -0.24280244
-0.19082397 0.16464357 -0.24280661
-0.19082107 0.16471949 -0.24280481
-0.19081806 0.16479546 -0.242805
-0.19081494 0.16487147 -0.24280718
-0.19081195 0.16494939 -0.24280533
-0.19080923 0.16502523 -0.24279952
-0.19080631 0.16510116 -0.24279772
-0.19080351 0.16517898 -0.24279186
-0.1908008 0.16525482 -0.24278606
-0.1907977 0.16533278 -0.2427862
-0.1907948 0.1654087 -0.24278438
-0.19079207 0.16548455 -0.24277858
-0.19078927 0.16556238 -0.24277273
-0.19078636 0.1656383 -0.24277094
-0.19078347 0.16571617 -0.24276707
-0.19078085 0.16579196 -0.24275927
-0.19077793 0.16586789 -0.24275747
-0.19077513 0.16594572 -0.24275161
-0.19077241 0.16602156 -0.2427458
-0.19076912 0.16609961 -0.24274993
-0.19076583 0.16617571 -0.24275613
-0.19076271 0.16625172 -0.2427583
-0.1907597 0.16632769 -0.24275848
-0.1907565 0.16640374 -0.24276268
-0.1907537 0.16648157 -0.24275681
-0.19075097 0.1665574 -0.24275102
-0.19074807 0.16663332 -0.24274921
-0.19074526 0.16671115 -0.24274336
-0.19074255 0.166787 -0.24273756
-0.19073953 0.16686296 -0.24273774
-0.19073652 0.16693893 -0.24273792
-0.19073352 0.16701685 -0.24273607
-0.19073071 0.16709273 -0.24273226
-0.19072761 0.16716874 -0.24273446
-0.1907247 0.16724661 -0.24273059
-0.19072218 0.16732235 -0.2427208
-0.19071917 0.16739832 -0.24272099
-0.19071589 0.16747637 -0.24272512
-0.19071317 0.16755222 -0.24271932
-0.19071044 0.16762805 -0.24271351
-0.19070762 0.16770393 -0.2427097
-0.19070522 0.16778158 -0.24269587
-0.19070239 0.16785747 -0.24269205
-0.190699 0.1679336 -0.24270023
-0.190696 0.16801153 -0.24269837
-0.19069329 0.16808736 -0.24269257
-0.19069067 0.16816315 -0.24268478
-0.19068758 0.16824111 -0.2426849
-0.19068427 0.16831721 -0.2426911
-0.19068135 0.16839314 -0.24268928
-0.19067854 0.16846901 -0.24268548
-0.19067563 0.16854493 -0.24268368
-0.19067302 0.16862269 -0.24267381
-0.19107094 0.15819374 -0.243
-0.19106784 0.15826975 -0.24300219
-0.19106454 0.15834585 -0.24300836
-0.19106154 0.15842377 -0.2430065
-0.19105911 0.15849946 -0.24299471
-0.19105642 0.15857726 -0.24298686
-0.19105361 0.15865509 -0.24298102
-0.1910508 0.15873097 -0.2429772
-0.1910478 0.15880889 -0.24297535
-0.1910449 0.15888481 -0.24297354
-0.19104201 0.1589627 -0.24296969
-0.19103879 0.15903875 -0.24297386
-0.19103558 0.15911479 -0.24297805
-0.19103239 0.1591928 -0.24298018
-0.19102988 0.15926856 -0.24297039
-0.19102746 0.15934621 -0.24295655
-0.19102447 0.15942413 -0.2429547
-0.19102156 0.15950005 -0.24295288
-0.19101837 0.15957806 -0.24295503
-0.19101526 0.15965407 -0.2429572
-0.19101246 0.15973191 -0.24295136
-0.19100975 0.15980774 -0.24294555
-0.19100675 0.15988566 -0.2429437
-0.19100374 0.15996163 -0.24294388
-0.19100085 0.1600395 -0.24294004
-0.19099784 0.16011547 -0.24294022
-0.19099484 0.16019338 -0.24293837
-0.19099154 0.16026948 -0.24294454
-0.19098853 0.16034545 -0.24294473
-0.19098583 0.16042325 -0.24293688
-0.19098321 0.16049904 -0.24292907
-0.19098021 0.16057695 -0.24292722
-0.19097729 0.16065288 -0.24292541
-0.19097409 0.16072893 -0.24292961
-0.19097097 0.16080494 -0.24293178
-0.19096819 0.16088277 -0.24292594
-0.19096558 0.16096053 -0.24291608
-0.19096304 0.16103627 -0.24290629
-0.19095996 0.16111423 -0.24290642
-0.19095685 0.16119024 -0.24290863
-0.19095375 0.16126625 -0.2429108
-0.19095045 0.1613443 -0.24291494
-0.19094764 0.16142018 -0.24291113
-0.19094494 0.16149797 -0.24290328
-0.19094232 0.16157377 -0.24289548
-0.19093943 0.16165164 -0.24289161
-0.19093642 0.16172761 -0.24289182
-0.1909333 0.16180362 -0.24289399
-0.19093041 0.16188149 -0.24289015
-0.19092779 0.16195728 -0.24288234
-0.19092557 0.16203485 -0.2428645
-0.19092268 0.16211273 -0.24286065
-0.19091907 0.16218896 -0.24287283
-0.19091578 0.16226506 -0.242879
-0.19091296 0.16234094 -0.24287519
-0.19091035 0.16241868 -0.24286535
-0.19090785 0.16249639 -0.24285351
-0.19090532 0.16257213 -0.24284372
-0.19090322 0.16265161 -0.24282184
-0.19090059 0.1627274 -0.24281403
-0.19089639 0.16280194 -0.24284023
-0.19089252 0.1628783 -0.24285838
-0.19089021 0.16295591 -0.24284256
-0.19088769 0.16303362 -0.24283072
-0.1908844 0.1631097 -0.24283689
-0.1908807 0.16318598 -0.24285105
-0.1908775 0.16326204 -0.24285525
-0.1908748 0.16333982 -0.24284738
-0.19087236 0.16341554 -0.2428356
-0.19086947 0.16349341 -0.24283175
-0.19086617 0.16356951 -0.24283792
-0.19086315 0.16364548 -0.24283811
-0.19086063 0.16372122 -0.24282831
-0.19085783 0.16379905 -0.24282247
-0.19085501 0.16387492 -0.24281865
-0.1908524 0.16395268 -0.24280882
-0.19084959 0.16402856 -0.242805
-0.1908465 0.16410652 -0.24280515
-0.19084319 0.16418262 -0.24281132
-0.19084008 0.16425863 -0.24281351
-0.19083726 0.16433451 -0.24280971
-0.19083467 0.16441225 -0.24279986
-0.19083184 0.16448812 -0.24279605
-0.19082856 0.16456619 -0.24280018
-0.19082536 0.16464223 -0.24280438
-0.19082235 0.1647182 -0.24280456
-0.19081934 0.16479416 -0.24280475
-0.19081622 0.16487017 -0.24280693
-0.19081323 0.16494809 -0.24280506
-0.19081052 0.16502394 -0.24279928
-0.1908076 0.16509986 -0.24279746
-0.19080479 0.16517769 -0.24279161
-0.19080208 0.16525352 -0.24278581
-0.19079909 0.16533144 -0.24278395
-0.19079608 0.1654074 -0.24278414
-0.19079345 0.16548321 -0.24277633
-0.19079065 0.16556104 -0.24277049
-0.19078754 0.16563705 -0.24277267
-0.19078465 0.16571492 -0.24276882
-0.19078211 0.16579066 -0.24275902
-0.1907793 0.16586655 -0.2427552
-0.19077641 0.16594443 -0.24275136
-0.19077368 0.16602026 -0.24274555
-0.19077051 0.16609827 -0.24274769
-0.1907672 0.16617437 -0.24275386
-0.19076408 0.16625038 -0.24275607
-0.19076099 0.16632639 -0.24275824
-0.19075778 0.16640244 -0.24276242
-0.19075498 0.16648027 -0.24275658
-0.19075225 0.16655611 -0.24275076
-0.19074935 0.16663203 -0.24274896
-0.19074644 0.1667099 -0.2427451
-0.19074382 0.1667857 -0.24273729
-0.19074091 0.16686162 -0.24273549
-0.1907378 0.16693763 -0.24273768
-0.1907348 0.16701555 -0.24273582
-0.19073188 0.16709147 -0.24273401
-0.19072887 0.16716744 -0.24273419
-0.19072609 0.16724527 -0.24272835
-0.19072345 0.16732106 -0.24272054
-0.19072054 0.16739698 -0.24271873
-0.19071716 0.16747507 -0.24272487
-0.19071434 0.16755097 -0.24272107
-0.19071172 0.16762675 -0.24271326
-0.19070891 0.16770263 -0.24270946
-0.19070649 0.16778028 -0.24269561
-0.19070357 0.1678562 -0.24269381
-0.19070028 0.1679323 -0.24269998
-0.19069728 0.16801023 -0.24269813
-0.19069456 0.16808607 -0.24269232
-0.19069193 0.16816185 -0.24268453
-0.19068894 0.16823977 -0.24268267
-0.19068554 0.16831592 -0.24269085
-0.19068263 0.16839184 -0.24268904
-0.19067991 0.16846767 -0.24268323
-0.19067699 0.16854359 -0.24268141
-0.19067429 0.16862139 -0.24267358
-0.19107156 0.15819368 -0.24299951
-0.19106835 0.15826973 -0.2430037
-0.19106513 0.15834579 -0.24300787
-0.19106205 0.15842375 -0.24300802
-0.19105962 0.15849946 -0.24299622
-0.19105692 0.15857725 -0.24298836
-0.19105412 0.15865508 -0.24298252
-0.19105139 0.15873091 -0.24297673
-0.19104831 0.15880889 -0.24297684
-0.19104549 0.15888476 -0.24297306
-0.1910425 0.15896268 -0.24297118
-0.19103929 0.15903874 -0.24297537
-0.19103618 0.15911475 -0.24297756
-0.19103301 0.15919276 -0.24297971
-0.1910304 0.1592705 -0.24296984
-0.19102806 0.15934616 -0.24295606
-0.19102506 0.15942408 -0.24295419
-0.19102216 0.1595 -0.24295239
-0.19101897 0.15957801 -0.24295452
-0.19101585 0.15965402 -0.24295671
-0.19101305 0.15973185 -0.24295086
-0.19101034 0.15980768 -0.24294506
-0.19100735 0.1598856 -0.2429432
-0.19100434 0.15996157 -0.24294339
-0.19100134 0.1600395 -0.24294153
-0.19099842 0.16011542 -0.24293973
-0.19099544 0.16019334 -0.24293786
-0.19099213 0.16026944 -0.24294406
-0.19098912 0.16034541 -0.24294424
-0.19098642 0.16042319 -0.24293639
-0.19098389 0.16049893 -0.2429266
-0.19098081 0.16057689 -0.24292672
-0.19097789 0.16065282 -0.24292493
-0.19097477 0.16072883 -0.2429271
-0.19097149 0.16080688 -0.24293125
-0.19096877 0.16088273 -0.24292544
-0.19096617 0.16096047 -0.2429156
-0.19096354 0.16103625 -0.24290779
-0.19096045 0.16111422 -0.24290794
-0.19095734 0.16119023 -0.24291012
-0.19095424 0.16126624 -0.24291229
-0.19095103 0.16134229 -0.24291648
-0.19094823 0.16142012 -0.24291062
-0.19094554 0.16149792 -0.24290279
-0.19094291 0.16157371 -0.24289498
-0.19094001 0.16165158 -0.24289113
-0.190937 0.16172755 -0.24289131
-0.19093388 0.16180356 -0.24289352
-0.1909311 0.16188139 -0.24288765
-0.19092846 0.16195719 -0.24287985
-0.19092615 0.16203479 -0.24286401
-0.19092315 0.16211271 -0.24286216
-0.19091967 0.1621889 -0.24287233
-0.19091636 0.162265 -0.24287851
-0.19091354 0.16234088 -0.24287471
-0.19091104 0.16241857 -0.24286287
-0.19090843 0.16249633 -0.24285302
-0.1909059 0.16257207 -0.24284323
-0.19090381 0.16265155 -0.24282134
-0.19090109 0.16272739 -0.24281554
-0.19089688 0.16280192 -0.24284174
-0.1908931 0.16287825 -0.2428579
-0.19089079 0.16295585 -0.24284206
-0.19088838 0.16303352 -0.24282822
-0.19088498 0.16310966 -0.24283642
-0.19088139 0.16318588 -0.24284858
-0.19087817 0.16326194 -0.24285275
-0.19087538 0.16333978 -0.24284691
-0.19087295 0.16341548 -0.2428351
-0.19087005 0.16349335 -0.24283126
-0.19086675 0.16356945 -0.24283743
-0.19086383 0.16364537 -0.24283563
-0.19086114 0.16372316 -0.24282777
-0.19085841 0.163799 -0.24282198
-0.19085559 0.16387488 -0.24281818
-0.19085298 0.16395262 -0.24280833
-0.19085017 0.1640285 -0.24280453
-0.19084708 0.16410646 -0.24280466
-0.19084378 0.16418256 -0.24281085
-0.19084066 0.16425857 -0.24281302
-0.19083795 0.1643344 -0.24280722
-0.19083524 0.1644122 -0.24279937
-0.19083242 0.16448808 -0.24279556
-0.19082914 0.16456613 -0.2427997
-0.19082583 0.16464223 -0.24280587
-0.19082293 0.16471815 -0.24280408
-0.1908199 0.16479412 -0.24280426
-0.1908168 0.16487013 -0.24280643
-0.19081391 0.164948 -0.24280259
-0.19081108 0.16502388 -0.24279879
-0.19080818 0.1650998 -0.24279699
-0.19080538 0.16517763 -0.24279112
-0.19080265 0.16525348 -0.24278532
-0.19079967 0.16533139 -0.24278346
-0.19079664 0.16540736 -0.24278365
-0.19079402 0.16548315 -0.24277586
-0.19079113 0.16556102 -0.242772
-0.19078821 0.16563694 -0.2427702
-0.19078532 0.16571482 -0.24276634
-0.1907827 0.16579062 -0.24275854
-0.19077978 0.16586654 -0.24275672
-0.19077697 0.16594437 -0.24275088
-0.19077426 0.1660202 -0.24274507
-0.19077107 0.16609821 -0.24274722
-0.19076768 0.16617435 -0.24275538
-0.19076447 0.16625041 -0.24275956
-0.19076146 0.16632637 -0.24275976
-0.19075835 0.16640238 -0.24276194
-0.19075555 0.16648021 -0.2427561
-0.19075282 0.16655605 -0.24275029
-0.19074991 0.16663197 -0.24274847
-0.19074711 0.16670981 -0.24274263
-0.19074439 0.16678564 -0.24273682
-0.19074148 0.16686156 -0.24273501
-0.19073837 0.16693757 -0.2427372
-0.19073537 0.16701549 -0.24273534
-0.19073255 0.16709137 -0.24273154
-0.19072944 0.16716738 -0.24273372
-0.19072665 0.16724521 -0.24272788
-0.19072403 0.16732101 -0.24272007
-0.19072111 0.16739693 -0.24271825
-0.19071773 0.16747503 -0.24272439
-0.19071501 0.16755086 -0.24271858
-0.19071229 0.16762669 -0.24271278
-0.19070956 0.16770253 -0.24270698
-0.19070706 0.16778024 -0.24269514
-0.19070424 0.16785611 -0.24269134
-0.19070084 0.16793226 -0.2426995
-0.19069785 0.16801018 -0.24269766
-0.19069512 0.16808601 -0.24269184
-0.1906925 0.16816179 -0.24268404
-0.19068941 0.16823976 -0.24268419
-0.19068611 0.16831586 -0.24269037
-0.19068319 0.16839178 -0.24268857
-0.19068047 0.16846761 -0.24268275
-0.19067755 0.16854353 -0.24268094
-0.19067486 0.16862133 -0.2426731
-0.19107193 0.15819497 -0.24300084
-0.19106872 0.15827103 -0.24300501
-0.19106552 0.15834707 -0.24300918
-0.19106244 0.15842505 -0.24300933
-0.19106001 0.15850075 -0.24299754
-0.19105729 0.15857853 -0.24298969
-0.19105451 0.15865636 -0.24298385
-0.19105169 0.15873225 -0.24298003
-0.1910487 0.15881017 -0.24297819
-0.19104588 0.15888605 -0.24297437
-0.19104278 0.15896401 -0.2429745
-0.19103968 0.15904002 -0.2429767
-0.19103657 0.15911603 -0.24297887
-0.19103338 0.15919404 -0.24298102
-0.19103086 0.15926978 -0.24297121
-0.19102834 0.15934749 -0.24295938
-0.19102536 0.15942541 -0.24295752
-0.19102244 0.15950133 -0.24295571
-0.19101925 0.15957934 -0.24295786
-0.19101624 0.1596553 -0.24295804
-0.19101351 0.15973113 -0.24295223
-0.19101062 0.15980901 -0.24294838
-0.19100763 0.15988694 -0.24294652
-0.19100462 0.15996291 -0.24294671
-0.19100173 0.16004078 -0.24294285
-0.19099881 0.1601167 -0.24294105
-0.19099581 0.16019462 -0.24293919
-0.19099241 0.16027077 -0.24294737
-0.1909894 0.16034673 -0.24294755
-0.1909868 0.16042447 -0.24293771
-0.19098417 0.16050026 -0.24292991
-0.19098118 0.16057819 -0.24292806
-0.19097827 0.16065411 -0.24292624
-0.19097497 0.16073021 -0.24293241
-0.19097196 0.16080618 -0.24293262
-0.19096906 0.16088405 -0.24292874
-0.19096646 0.16096179 -0.24291891
-0.19096383 0.16103758 -0.2429111
-0.19096084 0.1611155 -0.24290925
-0.19095764 0.16119155 -0.24291342
-0.19095452 0.16126756 -0.24291562
-0.19095141 0.16134357 -0.24291781
-0.19094862 0.16142142 -0.24291195
-0.19094591 0.1614992 -0.2429041
-0.19094329 0.16157499 -0.2428963
-0.19094047 0.16165087 -0.2428925
-0.19093728 0.16172887 -0.24289463
-0.19093427 0.16180484 -0.24289483
-0.19093138 0.16188273 -0.24289097
-0.19092865 0.16195856 -0.24288517
-0.19092654 0.16203608 -0.24286532
-0.19092354 0.16211401 -0.24286348
-0.19091995 0.16219023 -0.24287564
-0.19091664 0.16226633 -0.24288183
-0.19091383 0.16234221 -0.24287802
-0.19091132 0.16241992 -0.24286617
-0.19090882 0.16249761 -0.24285433
-0.19090629 0.16257335 -0.24284454
-0.19090417 0.16265088 -0.2428247
-0.19090147 0.16272867 -0.24281687
-0.19089727 0.16280322 -0.24284306
-0.19089349 0.16287953 -0.24285921
-0.19089118 0.16295715 -0.24284339
-0.19088866 0.16303484 -0.24283154
-0.19088537 0.16311094 -0.24283773
-0.19088167 0.16318722 -0.24285188
-0.19087847 0.16326326 -0.24285607
-0.19087574 0.16333911 -0.24285027
-0.19087332 0.16341676 -0.24283642
-0.19087034 0.16349468 -0.24283457
-0.19086704 0.16357078 -0.24284075
-0.19086412 0.1636467 -0.24283895
-0.19086149 0.16372249 -0.24283114
-0.19085869 0.16380033 -0.2428253
-0.19085598 0.16387616 -0.24281949
-0.19085327 0.16395395 -0.24281165
-0.19085045 0.16402982 -0.24280784
-0.19084744 0.16410579 -0.24280801
-0.19084406 0.16418388 -0.24281415
-0.19084105 0.16425985 -0.24281433
-0.19083813 0.16433577 -0.24281253
-0.19083554 0.16441353 -0.24280268
-0.19083281 0.16448936 -0.24279687
-0.19082943 0.16456746 -0.24280301
-0.19082622 0.16464351 -0.24280719
-0.19082321 0.16471948 -0.24280739
-0.1908202 0.16479544 -0.24280757
-0.19081709 0.16487145 -0.24280976
-0.1908142 0.16494933 -0.2428059
-0.19081138 0.1650252 -0.24280208
-0.19080846 0.16510113 -0.2428003
-0.19080566 0.16517895 -0.24279442
-0.19080304 0.16525476 -0.24278663
-0.19079995 0.16533272 -0.24278677
-0.19079703 0.16540864 -0.24278496
-0.19079441 0.16548443 -0.24277717
-0.19079152 0.1655623 -0.24277331
-0.19078851 0.16563827 -0.2427735
-0.1907856 0.16571616 -0.24276964
-0.19078298 0.16579194 -0.24276185
-0.19078016 0.16586782 -0.24275804
-0.19077727 0.16594569 -0.24275418
-0.19077455 0.16602153 -0.24274838
-0.19077136 0.16609953 -0.24275051
-0.19076806 0.16617563 -0.24275669
-0.19076486 0.16625169 -0.24276087
-0.19076183 0.16632766 -0.24276108
-0.19075873 0.16640367 -0.24276325
-0.19075593 0.16648149 -0.24275741
-0.19075321 0.16655734 -0.2427516
-0.1907503 0.16663326 -0.24274978
-0.1907475 0.16671109 -0.24274394
-0.19074477 0.16678692 -0.24273813
-0.19074176 0.16686289 -0.24273832
-0.19073875 0.16693886 -0.24273852
-0.19073576 0.16701677 -0.24273665
-0.19073275 0.16709274 -0.24273685
-0.19072974 0.16716871 -0.24273703
-0.19072694 0.16724655 -0.24273118
-0.1907244 0.16732229 -0.24272138
-0.19072139 0.16739826 -0.24272156
-0.19071819 0.16747431 -0.24272574
-0.1907153 0.16755219 -0.24272189
-0.19071268 0.16762798 -0.24271409
-0.19070986 0.16770385 -0.24271029
-0.19070734 0.16778156 -0.24269845
-0.19070452 0.16785744 -0.24269463
-0.19070123 0.16793354 -0.24270082
-0.19069824 0.16801146 -0.24269897
-0.19069542 0.16808733 -0.24269515
-0.19069278 0.16816312 -0.24268734
-0.1906898 0.16824104 -0.2426855
-0.19068639 0.16831718 -0.24269368
-0.19068357 0.16839306 -0.24268986
-0.19068076 0.16846895 -0.24268606
-0.19067785 0.16854487 -0.24268425
-0.19067514 0.16862266 -0.24267641
-0.19107302 0.15819611 -0.2430017
-0.19106981 0.15827216 -0.24300587
-0.19106659 0.15834822 -0.24301006
-0.19106351 0.15842618 -0.24301021
-0.19105838 0.15857968 -0.24299055
-0.19105558 0.15865751 -0.24298471
-0.19104977 0.1588113 -0.24297905
-0.19104695 0.15888719 -0.24297523
-0.19104396 0.15896511 -0.24297339
-0.19104075 0.15904117 -0.24297756
-0.19103764 0.15911718 -0.24297975
-0.19103447 0.15919518 -0.24298188
-0.19103186 0.15927292 -0.24297205
-0.19102952 0.15934858 -0.24295825
-0.19102654 0.15942651 -0.24295639
-0.19102362 0.15950243 -0.24295458
-0.19102043 0.15958044 -0.24295673
-0.19101731 0.15965645 -0.2429589
-0.19101453 0.15973428 -0.24295305
-0.1910118 0.15981011 -0.24294725
-0.19100881 0.15988803 -0.24294539
-0.1910058 0.159964 -0.24294558
-0.1910028 0.16004191 -0.24294373
-0.1909999 0.16011783 -0.24294192
-0.1909969 0.16019577 -0.24294007
-0.19099058 0.16034783 -0.24294642
-0.19098788 0.16042562 -0.24293858
-0.19098526 0.16050141 -0.24293077
-0.19098227 0.16057932 -0.24292892
-0.19097935 0.16065525 -0.2429271
-0.19097614 0.1607313 -0.24293129
-0.19097304 0.16080731 -0.24293348
-0.19097024 0.16088514 -0.24292763
-0.19096763 0.16096289 -0.24291778
-0.19096501 0.16103868 -0.24290997
-0.19096193 0.16111664 -0.24291012
-0.19095881 0.16119266 -0.24291229
-0.1909557 0.16126867 -0.2429145
-0.19095249 0.16134472 -0.24291867
-0.19094969 0.16142255 -0.24291281
-0.190947 0.16150035 -0.24290496
-0.19094437 0.16157614 -0.24289717
-0.19094148 0.16165401 -0.24289331
-0.19093847 0.16172998 -0.2428935
-0.19093536 0.16180599 -0.24289569
-0.19093247 0.16188386 -0.24289183
-0.19092984 0.16195965 -0.24288404
-0.19092762 0.16203722 -0.24286619
-0.19092473 0.1621151 -0.24286234
-0.19092113 0.16219133 -0.2428745
-0.19091783 0.16226743 -0.2428807
-0.19091502 0.16234331 -0.24287689
-0.19091241 0.16242105 -0.24286704
-0.19090991 0.16249876 -0.24285519
-0.19090737 0.1625745 -0.2428454
-0.19090527 0.16265398 -0.24282351
-0.19090265 0.16272977 -0.24281573
-0.19089836 0.16280435 -0.24284391
-0.19089457 0.16288067 -0.24286008
-0.19089226 0.16295828 -0.24284425
-0.19088975 0.16303599 -0.24283239
-0.19088645 0.16311209 -0.24283859
-0.19088276 0.16318835 -0.24285275
-0.19087955 0.16326441 -0.24285693
-0.19087441 0.16341791 -0.24283728
-0.19087152 0.16349578 -0.24283344
-0.19086823 0.16357188 -0.2428396
-0.1908652 0.16364785 -0.2428398
-0.19086269 0.16372359 -0.24283001
-0.19085988 0.16380142 -0.24282415
-0.19085707 0.16387731 -0.24282035
-0.19085437 0.16395509 -0.2428125
-0.19085164 0.16403092 -0.2428067
-0.19084856 0.16410889 -0.24280682
-0.19084516 0.16418503 -0.242815
-0.19084214 0.164261 -0.2428152
-0.19083932 0.16433688 -0.24281138
-0.19083673 0.16441463 -0.24280155
-0.1908339 0.16449051 -0.24279773
-0.19083062 0.16456856 -0.24280187
-0.19082741 0.16464461 -0.24280605
-0.1908244 0.16472058 -0.24280624
-0.19082139 0.16479655 -0.24280643
-0.19081819 0.1648726 -0.24281061
-0.19081528 0.16495048 -0.24280676
-0.19081257 0.16502631 -0.24280095
-0.19080955 0.16510227 -0.24280113
-0.19080676 0.1651801 -0.24279529
-0.19080414 0.16525589 -0.24278748
-0.19080114 0.16533382 -0.24278563
-0.19079813 0.16540979 -0.24278581
-0.19079551 0.16548558 -0.24277802
-0.19079261 0.16556345 -0.24277416
-0.1907896 0.16563942 -0.24277435
-0.1907867 0.16571729 -0.24277049
-0.19078417 0.16579305 -0.2427607
-0.19078135 0.16586892 -0.24275689
-0.19077836 0.16594684 -0.24275503
-0.19077565 0.16602267 -0.24274924
-0.19077246 0.16610068 -0.24275136
-0.19076926 0.16617674 -0.24275556
-0.19076605 0.16625279 -0.24275973
-0.19076304 0.16632876 -0.24275991
-0.19075982 0.16640481 -0.24276412
-0.19075704 0.16648264 -0.24275824
-0.19075431 0.16655847 -0.24275245
-0.19075139 0.1666344 -0.24275064
-0.1907486 0.16671224 -0.24274479
-0.19074588 0.16678807 -0.24273899
-0.19074295 0.16686399 -0.24273717
-0.19073986 0.16694 -0.24273935
-0.19073686 0.16701792 -0.2427375
-0.19073394 0.16709384 -0.24273568
-0.19073093 0.16716981 -0.24273589
-0.19072804 0.16724768 -0.24273202
-0.19072551 0.16732344 -0.24272223
-0.1907225 0.16739941 -0.24272242
-0.19071929 0.16747546 -0.24272659
-0.1907164 0.16755334 -0.24272275
-0.19071378 0.16762912 -0.24271494
-0.19071096 0.167705 -0.24271113
-0.19070855 0.16778266 -0.2426973
-0.19070563 0.16785859 -0.24269548
-0.19070232 0.16793467 -0.24270166
-0.19069934 0.1680126 -0.2426998
-0.19069661 0.16808844 -0.24269401
-0.19069389 0.16816427 -0.24268821
-0.1906909 0.16824219 -0.24268635
-0.19068751 0.16831833 -0.24269453
-0.19068468 0.16839421 -0.24269071
-0.19068196 0.16847004 -0.2426849
-0.19067904 0.16854596 -0.2426831
-0.19067635 0.16862376 -0.24267524
-0.19107337 0.15819491 -0.24299967
-0.19107017 0.15827097 -0.24300386
-0.19106697 0.15834703 -0.24300805
-0.19106388 0.15842499 -0.2430082
-0.19106135 0.15850073 -0.24299839
-0.19105875 0.15857849 -0.24298854
-0.19105595 0.15865631 -0.24298269
-0.19105314 0.15873219 -0.24297889
-0.19105014 0.15881011 -0.24297702
-0.19104733 0.158886 -0.24297322
-0.19104424 0.15896396 -0.24297336
-0.19104113 0.15903997 -0.24297555
-0.19103801 0.15911599 -0.24297774
-0.19103482 0.15919399 -0.24297987
-0.19103223 0.15927173 -0.24297002
-0.19102989 0.15934739 -0.24295622
-0.1910269 0.15942532 -0.24295437
-0.19102399 0.15950124 -0.24295256
-0.1910208 0.15957925 -0.2429547
-0.19101769 0.15965526 -0.24295688
-0.19101498 0.15973109 -0.24295108
-0.19101207 0.15980896 -0.24294722
-0.19100918 0.15988684 -0.24294338
-0.19100617 0.1599628 -0.24294356
-0.19100317 0.16004072 -0.24294171
-0.19100027 0.16011664 -0.24293989
-0.19099727 0.16019458 -0.24293804
-0.19099396 0.16027066 -0.24294421
-0.19099095 0.16034663 -0.2429444
-0.19098826 0.16042443 -0.24293655
-0.19098563 0.16050021 -0.24292874
-0.19098264 0.16057813 -0.2429269
-0.19097972 0.16065405 -0.24292508
-0.19097652 0.16073011 -0.24292928
-0.19097333 0.16080812 -0.24293141
-0.19097061 0.16088395 -0.24292561
-0.19096801 0.1609617 -0.24291576
-0.19096538 0.16103749 -0.24290797
-0.1909623 0.16111545 -0.24290809
-0.19095919 0.16119146 -0.2429103
-0.19095607 0.16126747 -0.24291247
-0.19095287 0.16134353 -0.24291664
-0.19095007 0.16142136 -0.2429108
-0.19094737 0.16149916 -0.24290295
-0.19094475 0.16157494 -0.24289516
-0.19094186 0.16165282 -0.2428913
-0.19093874 0.16172883 -0.24289349
-0.19093573 0.1618048 -0.24289367
-0.19093284 0.16188267 -0.24288982
-0.19093022 0.16195846 -0.24288201
-0.190928 0.16203603 -0.24286418
-0.190925 0.16211395 -0.24286231
-0.19092152 0.16219014 -0.24287251
-0.19091821 0.16226624 -0.24287868
-0.19091539 0.16234212 -0.24287486
-0.19091289 0.16241981 -0.24286303
-0.19091028 0.16249757 -0.24285318
-0.19090775 0.16257331 -0.24284339
-0.19090563 0.16265084 -0.24282356
-0.19090293 0.16272862 -0.2428157
-0.19089873 0.16280316 -0.2428419
-0.19089495 0.16287948 -0.24285807
-0.19089264 0.16295709 -0.24284223
-0.19089013 0.1630348 -0.2428304
-0.19088683 0.1631109 -0.24283656
-0.19088323 0.16318712 -0.24284874
-0.19087993 0.16326322 -0.24285492
-0.19087723 0.16334102 -0.24284707
-0.1908748 0.16341671 -0.24283528
-0.1908718 0.16349463 -0.24283341
-0.1908686 0.16357069 -0.24283759
-0.19086559 0.16364665 -0.24283779
-0.19086306 0.1637224 -0.24282798
-0.19086017 0.16380027 -0.24282414
-0.19085744 0.16387612 -0.24281833
-0.19085474 0.1639539 -0.24281049
-0.19085202 0.16402973 -0.24280468
-0.19084893 0.1641077 -0.24280483
-0.19084562 0.1641838 -0.24281099
-0.19084252 0.16425981 -0.24281318
-0.19083971 0.16433568 -0.24280939
-0.1908371 0.16441344 -0.24279954
-0.19083428 0.16448931 -0.24279572
-0.1908309 0.16456741 -0.24280186
-0.1908277 0.16464347 -0.24280605
-0.19082478 0.16471939 -0.24280423
-0.19082177 0.16479535 -0.24280442
-0.19081856 0.16487141 -0.24280861
-0.19081567 0.16494928 -0.24280474
-0.19081295 0.16502512 -0.24279895
-0.19080994 0.16510108 -0.24279913
-0.19080724 0.16517887 -0.24279128
-0.19080451 0.1652547 -0.24278548
-0.19080143 0.16533267 -0.24278562
-0.19079851 0.1654086 -0.24278381
-0.19079578 0.16548443 -0.242778
-0.19079299 0.16556226 -0.24277216
-0.19078998 0.16563822 -0.24277234
-0.19078718 0.16571605 -0.2427665
-0.19078456 0.16579185 -0.24275869
-0.19078164 0.16586778 -0.24275687
-0.19077875 0.16594565 -0.24275303
-0.19077612 0.16602144 -0.24274522
-0.19077283 0.16609949 -0.24274936
-0.19076954 0.16617559 -0.24275553
-0.19076633 0.16625164 -0.24275972
-0.19076332 0.16632761 -0.24275991
-0.19076021 0.16640362 -0.24276209
-0.19075741 0.16648145 -0.24275625
-0.1907547 0.16655728 -0.24275044
-0.19075178 0.1666332 -0.24274862
-0.19074897 0.16671105 -0.24274278
-0.19074626 0.16678688 -0.24273697
-0.19074324 0.16686285 -0.24273717
-0.19074023 0.16693881 -0.24273735
-0.19073725 0.16701673 -0.24273549
-0.19073433 0.16709265 -0.24273369
-0.19073132 0.16716862 -0.24273387
-0.19072841 0.16724649 -0.24273002
-0.19072589 0.16732225 -0.24272022
-0.19072288 0.16739821 -0.24272041
-0.19071968 0.16747427 -0.2427246
-0.19071688 0.1675521 -0.24271873
-0.19071415 0.16762793 -0.24271293
-0.19071133 0.16770381 -0.24270913
-0.19070892 0.16778147 -0.24269529
-0.19070601 0.16785739 -0.24269348
-0.19070271 0.16793349 -0.24269965
-0.19069971 0.16801141 -0.24269781
-0.190697 0.16808724 -0.24269199
-0.19069427 0.16816308 -0.24268618
-0.19069128 0.16824099 -0.24268433
-0.19068788 0.16831714 -0.24269252
-0.19068506 0.16839302 -0.24268872
-0.19068225 0.16846889 -0.2426849
-0.19067933 0.16854481 -0.24268308
-0.19067663 0.16862261 -0.24267524
-0.19107258 0.15819162 -0.24299906
-0.19106618 0.15834373 -0.24300742
-0.19105244 0.15872885 -0.24297628
-0.19104654 0.15888269 -0.24297261
-0.19103722 0.15911268 -0.24297711
-0.19103403 0.15919068 -0.24297926
-0.19103144 0.15926844 -0.24296939
-0.1910291 0.15934409 -0.24295561
-0.19102611 0.15942201 -0.24295375
-0.1910232 0.15949793 -0.24295194
-0.19102001 0.15957594 -0.24295408
-0.1910169 0.15965195 -0.24295627
-0.1910141 0.15972979 -0.24295041
-0.19100839 0.15988354 -0.24294275
-0.19100538 0.15995951 -0.24294294
-0.19099948 0.16011335 -0.24293928
-0.19099317 0.16026737 -0.2429436
-0.19099016 0.16034333 -0.24294379
-0.19098747 0.16042113 -0.24293594
-0.19098485 0.16049692 -0.24292813
-0.19098185 0.16057484 -0.24292627
-0.19097893 0.16065076 -0.24292447
-0.19097573 0.16072682 -0.24292865
-0.19096982 0.16088066 -0.24292499
-0.19096722 0.16095841 -0.24291515
-0.1909584 0.16118817 -0.24290967
-0.19095528 0.16126418 -0.24291185
-0.19094928 0.16141807 -0.24291018
-0.19094658 0.16149585 -0.24290234
-0.19094396 0.16157164 -0.24289453
-0.19094107 0.16164953 -0.24289069
-0.19093795 0.16172554 -0.24289286
-0.19093494 0.1618015 -0.24289306
-0.19093205 0.16187938 -0.2428892
-0.19092943 0.16195516 -0.2428814
-0.19092721 0.16203274 -0.24286357
-0.19092073 0.16218685 -0.24287188
-0.1909146 0.16233882 -0.24287426
-0.19091199 0.16241656 -0.2428644
-0.19090949 0.16249426 -0.24285257
-0.19090696 0.16257001 -0.24284276
-0.19089416 0.16287617 -0.24285746
-0.19089185 0.16295379 -0.24284162
-0.19088934 0.16303149 -0.24282977
-0.19088604 0.16310759 -0.24283595
-0.19088244 0.16318382 -0.24284813
-0.19087914 0.16325992 -0.2428543
-0.19087644 0.16333771 -0.24284646
-0.19087401 0.16341341 -0.24283466
-0.19087112 0.16349129 -0.24283081
-0.19086781 0.16356739 -0.24283698
-0.1908648 0.16364336 -0.24283718
-0.19086227 0.1637191 -0.24282739
-0.19085938 0.16379698 -0.24282353
-0.19085665 0.16387281 -0.24281773
-0.19085395 0.16395061 -0.24280988
-0.19085123 0.16402644 -0.24280408
-0.19084814 0.1641044 -0.2428042
-0.19084483 0.1641805 -0.2428104
-0.19084173 0.16425651 -0.24281257
-0.19083892 0.16433239 -0.24280876
-0.19083631 0.16441013 -0.24279892
-0.19083349 0.16448601 -0.24279511
-0.19083022 0.16456406 -0.24279925
-0.19082399 0.16471608 -0.24280362
-0.19082098 0.16479205 -0.24280381
-0.19081777 0.1648681 -0.24280798
-0.19081488 0.16494597 -0.24280414
-0.19081216 0.16502182 -0.24279833
-0.19080915 0.16509779 -0.24279852
-0.19080634 0.16517562 -0.24279267
-0.19080372 0.1652514 -0.24278486
-0.19079772 0.16540529 -0.24278319
-0.19079509 0.16548109 -0.2427754
-0.19078919 0.16563493 -0.24277173
-0.1907863 0.1657128 -0.24276787
-0.19078377 0.16578855 -0.24275808
-0.19077523 0.16601819 -0.24274662
-0.19076253 0.16632432 -0.2427593
-0.19075942 0.16640031 -0.24276149
-0.19075662 0.16647816 -0.24275564
-0.19075391 0.16655399 -0.24274984
-0.19075099 0.16662991 -0.24274802
-0.19074818 0.16670774 -0.24274217
-0.19074547 0.16678357 -0.24273637
-0.19073945 0.1669355 -0.24273674
-0.19073646 0.16701344 -0.24273488
-0.19073354 0.16708936 -0.24273308
-0.19073053 0.16716532 -0.24273327
-0.19072764 0.1672432 -0.24272941
-0.1907251 0.16731894 -0.24271962
-0.19071881 0.16747296 -0.24272394
-0.190716 0.16754884 -0.24272013
-0.19071338 0.16762464 -0.24271232
-0.19071054 0.16770051 -0.24270852
-0.19070815 0.16777816 -0.24269468
-0.19070522 0.16785409 -0.24269287
-0.19070192 0.16793019 -0.24269906
-0.19069894 0.1680081 -0.24269719
-0.19069621 0.16808395 -0.2426914
-0.19068427 0.16838972 -0.2426881
-0.19068156 0.16846555 -0.24268231
-0.19107184 0.15819462 -0.24299943
-0.19106872 0.15827063 -0.24300162
-0.19106543 0.15834673 -0.24300779
-0.19106233 0.15842469 -0.24300794
-0.1910599 0.1585004 -0.24299616
-0.19105721 0.15857819 -0.24298829
-0.1910544 0.15865602 -0.24298245
-0.19105169 0.15873185 -0.24297664
-0.19104859 0.15880981 -0.24297678
-0.19104578 0.15888569 -0.24297297
-0.19104278 0.15896362 -0.24297112
-0.19103958 0.15903968 -0.24297529
-0.19103648 0.15911569 -0.24297749
-0.19103329 0.15919369 -0.24297962
-0.19103068 0.15927143 -0.24296978
-0.19102836 0.15934709 -0.24295598
-0.19102536 0.15942502 -0.24295412
-0.19102244 0.15950094 -0.24295232
-0.19101925 0.15957895 -0.24295446
-0.19101615 0.15965496 -0.24295664
-0.19101335 0.15973279 -0.24295078
-0.19101062 0.15980862 -0.24294499
-0.19100764 0.15988654 -0.24294312
-0.19100462 0.15996251 -0.24294332
-0.19100164 0.16004042 -0.24294147
-0.19099872 0.16011634 -0.24293965
-0.19099572 0.16019428 -0.24293779
-0.19099241 0.16027036 -0.24294397
-0.1909894 0.16034633 -0.24294415
-0.19098671 0.16042413 -0.24293631
-0.19098409 0.16049992 -0.2429285
-0.19098109 0.16057783 -0.24292666
-0.19097818 0.16065376 -0.24292484
-0.19097507 0.16072977 -0.24292701
-0.19097179 0.16080782 -0.24293116
-0.19096906 0.16088365 -0.24292536
-0.19096646 0.1609614 -0.24291551
-0.19096394 0.16103715 -0.24290571
-0.19096075 0.16111515 -0.24290785
-0.19095764 0.16119117 -0.24291003
-0.19095454 0.16126718 -0.24291223
-0.19095132 0.16134323 -0.24291641
-0.19094853 0.16142106 -0.24291055
-0.19094582 0.16149886 -0.2429027
-0.1909432 0.16157465 -0.2428949
-0.19094031 0.16165252 -0.24289104
-0.1909373 0.16172849 -0.24289124
-0.19093418 0.1618045 -0.24289343
-0.19093129 0.16188237 -0.24288957
-0.19092867 0.16195816 -0.24288177
-0.19092645 0.16203573 -0.24286392
-0.19092356 0.16211361 -0.24286008
-0.19091997 0.16218984 -0.24287224
-0.19091666 0.16226594 -0.24287844
-0.19091384 0.16234182 -0.24287462
-0.19091134 0.16241951 -0.24286278
-0.19090873 0.16249727 -0.24285293
-0.1909062 0.16257301 -0.24284314
-0.19090411 0.16265249 -0.24282125
-0.19090149 0.16272828 -0.24281347
-0.19089718 0.16280286 -0.24284165
-0.1908934 0.16287918 -0.24285781
-0.19089109 0.16295679 -0.24284197
-0.19088867 0.16303445 -0.24282815
-0.19088538 0.16311055 -0.24283431
-0.19088168 0.16318682 -0.24284849
-0.19087838 0.16326292 -0.24285467
-0.19087568 0.1633407 -0.24284682
-0.19087325 0.16341642 -0.24283502
-0.19087036 0.16349429 -0.24283117
-0.19086705 0.16357039 -0.24283734
-0.19086404 0.16364636 -0.24283753
-0.19086151 0.1637221 -0.24282774
-0.19085871 0.16379993 -0.24282187
-0.19085589 0.16387582 -0.24281809
-0.1908533 0.16395356 -0.24280822
-0.19085047 0.16402943 -0.24280444
-0.19084738 0.1641074 -0.24280456
-0.19084407 0.1641835 -0.24281076
-0.19084097 0.16425951 -0.24281293
-0.19083816 0.16433538 -0.24280912
-0.19083555 0.16441312 -0.24279928
-0.19083273 0.16448902 -0.24279547
-0.19082946 0.16456707 -0.24279961
-0.19082615 0.16464315 -0.24280578
-0.19082323 0.16471909 -0.24280398
-0.19082022 0.16479506 -0.24280417
-0.19081701 0.1648711 -0.24280834
-0.19081412 0.16494898 -0.2428045
-0.1908114 0.16502482 -0.24279869
-0.19080839 0.16510078 -0.24279886
-0.19080569 0.16517857 -0.24279103
-0.19080296 0.1652544 -0.24278522
-0.19079997 0.16533233 -0.24278337
-0.19079696 0.1654083 -0.24278355
-0.19079433 0.16548409 -0.24277575
-0.19079144 0.16556196 -0.24277189
-0.19078852 0.16563788 -0.24277009
-0.19078563 0.16571575 -0.24276623
-0.19078301 0.16579156 -0.24275844
-0.19078009 0.16586748 -0.24275663
-0.1907772 0.16594535 -0.24275276
-0.19077447 0.16602118 -0.24274698
-0.19077128 0.16609919 -0.24274909
-0.19076808 0.16617525 -0.2427533
-0.19076487 0.1662513 -0.24275747
-0.19076186 0.16632727 -0.24275765
-0.19075866 0.16640332 -0.24276185
-0.19075586 0.16648115 -0.24275598
-0.19075313 0.16655698 -0.24275018
-0.19075023 0.16663291 -0.24274838
-0.19074742 0.16671075 -0.24274252
-0.1907447 0.16678658 -0.24273673
-0.19074179 0.1668625 -0.24273491
-0.19073868 0.16693851 -0.24273708
-0.19073568 0.16701643 -0.24273524
-0.19073278 0.16709235 -0.24273342
-0.19072977 0.16716832 -0.24273363
-0.19072686 0.16724619 -0.24272975
-0.19072443 0.16732191 -0.24271797
-0.19072142 0.16739787 -0.24271816
-0.19071804 0.16747597 -0.24272428
-0.19071533 0.1675518 -0.24271849
-0.1907126 0.16762763 -0.24271268
-0.19070978 0.16770351 -0.24270886
-0.19070737 0.16778117 -0.24269503
-0.19070455 0.16785705 -0.24269122
-0.19070116 0.16793318 -0.2426994
-0.19069816 0.16801111 -0.24269754
-0.19069545 0.16808695 -0.24269174
-0.19069281 0.16816273 -0.24268395
-0.19068983 0.16824065 -0.24268208
-0.19068643 0.1683168 -0.24269027
-0.19068351 0.16839272 -0.24268845
-0.19068079 0.16846855 -0.24268264
-0.19067778 0.16854452 -0.24268284
-0.19067517 0.16862227 -0.24267298
-0.19103386 0.1591198 -0.24297878
-0.19103067 0.15919781 -0.24298091
-0.1910108 0.1597349 -0.24295212
-0.19098409 0.16042824 -0.24293759
-0.19097847 0.16058195 -0.24292794
-0.19094869 0.16134734 -0.24291769
-0.19094057 0.16157876 -0.2428962
-0.19093776 0.16165464 -0.24289238
-0.19090611 0.16250138 -0.24285421
-0.19090146 0.16265465 -0.24282458
-0.19088846 0.16296092 -0.24284327
-0.19087303 0.16334288 -0.24285015
-0.19087061 0.16342053 -0.24283631
-0.19085889 0.16372621 -0.24282902
-0.19084473 0.16410956 -0.24280789
-0.19075602 0.16640744 -0.24276313
-0.19074759 0.16663703 -0.24274966
-0.19073306 0.16702054 -0.24273652
-0.19072713 0.16717243 -0.24273491
-0.19071549 0.16747808 -0.24272561
-0.19069852 0.16793731 -0.2427007
-0.19106913 0.15819596 -0.24300122
-0.19106603 0.15827197 -0.2430034
-0.19106272 0.15834807 -0.24300957
-0.19105972 0.15842599 -0.24300772
-0.19105729 0.1585017 -0.24299592
-0.1910546 0.15857948 -0.24298808
-0.1910518 0.15865731 -0.24298222
-0.19104898 0.15873319 -0.24297842
-0.191046 0.15881112 -0.24297656
-0.19104308 0.15888704 -0.24297476
-0.19104019 0.15896492 -0.24297088
-0.19103688 0.15904102 -0.24297708
-0.19103377 0.15911703 -0.24297926
-0.19103059 0.15919504 -0.2429814
-0.19102806 0.15927078 -0.2429716
-0.19102564 0.15934843 -0.24295776
-0.19102266 0.15942636 -0.24295589
-0.19101974 0.15950228 -0.24295409
-0.19101655 0.15958029 -0.24295622
-0.19101344 0.1596563 -0.24295841
-0.19101065 0.15973413 -0.24295256
-0.19100793 0.15980996 -0.24294676
-0.19100493 0.15988788 -0.2429449
-0.19100192 0.15996385 -0.24294509
-0.19099903 0.16004173 -0.24294123
-0.19099602 0.1601177 -0.24294142
-0.19099303 0.16019562 -0.24293956
-0.19098982 0.16027167 -0.24294375
-0.19098671 0.16034769 -0.24294594
-0.19098401 0.16042547 -0.24293809
-0.19098139 0.16050126 -0.24293029
-0.19097839 0.16057917 -0.24292842
-0.19097549 0.1606551 -0.24292661
-0.19097227 0.16073115 -0.2429308
-0.19096917 0.16080716 -0.24293299
-0.19096637 0.16088501 -0.24292713
-0.19096376 0.16096275 -0.2429173
