# .PCD v0.7 - Point Cloud Data file format
VERSION 0.7
FIELDS x y z
SIZE 4 4 4
TYPE F F F
COUNT 1 1 1
WIDTH 1378
HEIGHT 1
VIEWPOINT 0 0 0 1 0 0 0
POINTS 1378
DATA ascii
-0.1908962 0.162801 -0.24284495
-0.19089241 0.16287731 -0.24286112
-0.19089021 0.16295488 -0.24284329
-0.19088769 0.16303259 -0.24283144
-0.1908844 0.16310868 -0.24283762
-0.19088079 0.16318491 -0.2428498
-0.1908775 0.16326101 -0.24285597
-0.1908748 0.1633388 -0.24284813
-0.19087237 0.16341451 -0.24283633
-0.19086938 0.16349243 -0.24283448
-0.19086607 0.16356853 -0.24284065
-0.19086315 0.16364445 -0.24283884
-0.19086055 0.16372219 -0.24282899
-0.19085783 0.16379802 -0.24282318
-0.19085501 0.1638739 -0.2428194
-0.19085231 0.16395169 -0.24281153
-0.1908495 0.16402757 -0.24280773
-0.19084649 0.16410354 -0.24280792
-0.19084311 0.16418163 -0.24281405
-0.1908401 0.1642576 -0.24281424
-0.19083728 0.16433348 -0.24281043
-0.19083467 0.16441122 -0.24280059
-0.19083185 0.16448709 -0.24279678
-0.19082847 0.16456519 -0.24280292
-0.19082527 0.16464125 -0.24280709
-0.19082226 0.16471721 -0.24280728
-0.19081925 0.16479318 -0.24280748
-0.19081622 0.16486914 -0.24280766
-0.19081324 0.16494706 -0.24280579
-0.19081052 0.16502291 -0.2428
-0.1908076 0.16509883 -0.24279819
-0.19080481 0.16517666 -0.24279234
-0.19080208 0.16525249 -0.24278653
-0.190799 0.16533045 -0.24278668
-0.19079599 0.16540642 -0.24278685
-0.19079337 0.16548222 -0.24277905
-0.19079056 0.16556005 -0.24277321
-0.19078755 0.16563602 -0.2427734
-0.19078475 0.16571385 -0.24276754
-0.19078213 0.16578963 -0.24275975
-0.19077921 0.16586556 -0.24275795
-0.19077632 0.16594344 -0.24275407
-0.19077359 0.16601928 -0.24274829
-0.19077042 0.16609728 -0.24275041
-0.19076711 0.16617338 -0.24275659
-0.19076391 0.16624944 -0.24276078
-0.1907609 0.16632541 -0.24276096
-0.19075778 0.16640142 -0.24276316
-0.19075489 0.16647929 -0.24275929
-0.19075227 0.16655508 -0.24275149
-0.19074935 0.166631 -0.24274969
-0.19074655 0.16670883 -0.24274383
-0.19074383 0.16678467 -0.24273804
-0.19074082 0.16686064 -0.24273822
-0.19073781 0.16693661 -0.2427384
-0.19073482 0.16701452 -0.24273655
-0.1907319 0.16709045 -0.24273473
-0.19072889 0.16716641 -0.24273494
-0.190726 0.16724429 -0.24273106
-0.19072337 0.16732007 -0.24272327
-0.19072045 0.16739599 -0.24272147
-0.19071718 0.16747405 -0.2427256
-0.19071445 0.16754989 -0.2427198
-0.19071174 0.16762573 -0.24271399
-0.19070892 0.1677016 -0.24271017
-0.19070651 0.16777925 -0.24269634
-0.19070359 0.16785517 -0.24269453
-0.19070029 0.16793127 -0.24270071
-0.1906973 0.16800919 -0.24269885
-0.19069448 0.16808508 -0.24269506
-0.19069186 0.16816087 -0.24268726
-0.19068886 0.16823879 -0.24268539
-0.19068547 0.16831493 -0.24269357
-0.19068265 0.16839081 -0.24268976
-0.19067982 0.16846669 -0.24268596
-0.19067691 0.16854261 -0.24268416
-0.19067422 0.16862039 -0.24267629
-0.19067138 0.16869628 -0.2426725
-0.19066821 0.16877429 -0.24267463
-0.19066559 0.16885008 -0.24266683
-0.19066297 0.16892587 -0.24265903
-0.19066006 0.16900374 -0.24265517
-0.19065715 0.16907966 -0.24265337
-0.19065404 0.16915567 -0.24265555
-0.19065112 0.16923159 -0.24265374
-0.19064821 0.16930752 -0.24265194
-0.19064532 0.1693854 -0.24264807
-0.1906424 0.16946132 -0.24264626
-0.19063939 0.16953729 -0.24264646
-0.19063659 0.16961512 -0.24264061
-0.19063367 0.16969104 -0.2426388
-0.19063047 0.1697671 -0.24264297
-0.19062756 0.16984302 -0.24264117
-0.19062476 0.16992085 -0.24263531
-0.19062214 0.16999665 -0.24262752
-0.1906196 0.17007239 -0.24261773
-0.19061662 0.17015031 -0.24261585
-0.19061351 0.17022632 -0.24261805
-0.19061098 0.17030206 -0.24260825
-0.19060816 0.17037794 -0.24260443
-0.19060467 0.17045413 -0.24261461
-0.1906011 0.17053232 -0.24262473
-0.19059837 0.17060815 -0.24261893
-0.19059624 0.17068373 -0.24260116
-0.19059362 0.17075951 -0.24259335
-0.19059032 0.17083757 -0.24259749
-0.19058712 0.17091362 -0.24260166
-0.1905843 0.1709895 -0.24259786
-0.1905818 0.17106719 -0.24258602
-0.19057965 0.17114277 -0.24256822
-0.19057703 0.17121856 -0.24256043
-0.19057421 0.17129444 -0.24255663
-0.19057149 0.17137028 -0.24255082
-0.1905687 0.17144811 -0.24254496
-0.19056608 0.1715239 -0.24253717
-0.19056354 0.17159964 -0.24252737
-0.19056104 0.17167735 -0.24251553
-0.19055822 0.17175323 -0.24251172
-0.19055405 0.17182972 -0.24253586
-0.19055045 0.17190595 -0.24254805
-0.19054851 0.17198144 -0.24252626
-0.19054659 0.17205887 -0.24250244
-0.19054386 0.1721347 -0.24249664
-0.19054085 0.17221068 -0.24249682
-0.19053765 0.17228672 -0.24250099
-0.19053465 0.17236465 -0.24249914
-0.19053134 0.17244074 -0.24250533
-0.19052786 0.17251693 -0.2425155
-0.19052467 0.17259493 -0.24251764
-0.19052166 0.1726709 -0.24251783
-0.19051912 0.17274666 -0.24250802
-0.1905167 0.17282236 -0.24249622
-0.19051418 0.1728981 -0.24248643
-0.19051138 0.17297593 -0.24248058
-0.19050837 0.17305189 -0.24248077
-0.19050555 0.17312779 -0.24247697
-0.19050272 0.17320366 -0.24247316
-0.19049942 0.17327976 -0.24247934
-0.19049615 0.17335781 -0.24248347
-0.19049293 0.17343386 -0.24248765
-0.19048914 0.17351018 -0.24250382
-0.19048576 0.17358828 -0.24250995
-0.19048275 0.17366424 -0.24251014
-0.19047935 0.17374039 -0.24251831
-0.19047605 0.17381649 -0.24252449
-0.19047362 0.17389219 -0.2425127
-0.19047141 0.17396976 -0.24249487
-0.19046888 0.1740455 -0.24248508
-0.19046617 0.17412134 -0.24247926
-0.19046305 0.17419735 -0.24248144
-0.19045977 0.1742754 -0.24248558
-0.19045685 0.17435132 -0.24248376
-0.19045413 0.17442715 -0.24247797
-0.19045115 0.17450507 -0.24247611
-0.19044842 0.17458092 -0.24247029
-0.19044569 0.17465675 -0.24246451
-0.19044229 0.17473289 -0.24247268
-0.19043881 0.17480907 -0.24248284
-0.19043581 0.174887 -0.24248099
-0.19043347 0.17496265 -0.24246721
-0.19043037 0.17503867 -0.2424694
-0.19042708 0.17511672 -0.24247353
-0.19042465 0.17519242 -0.24246174
-0.19042183 0.17526829 -0.24245793
-0.19041844 0.17534444 -0.24246609
-0.19041543 0.1754204 -0.24246629
-0.19041254 0.17549828 -0.24246243
-0.19040981 0.17557412 -0.24245663
-0.19040719 0.17564991 -0.24244884
-0.19040418 0.17572588 -0.24244902
-0.19040069 0.17580402 -0.24245715
-0.19039798 0.17587985 -0.24245134
-0.19039555 0.17595555 -0.24243954
-0.19039236 0.17603356 -0.24244168
-0.19038905 0.17610966 -0.24244785
-0.19038615 0.17618558 -0.24244605
-0.19038323 0.1762615 -0.24244425
-0.1903806 0.1763373 -0.24243644
-0.19037791 0.17641509 -0.2424286
-0.19037509 0.17649096 -0.24242479
-0.19037217 0.17656688 -0.24242297
-0.19036898 0.17664489 -0.24242511
-0.19036607 0.17672081 -0.2424233
-0.19036326 0.17679669 -0.24241951
-0.19035995 0.17687279 -0.24242568
-0.19035657 0.17695089 -0.24243182
-0.19035433 0.17702651 -0.24241602
-0.19035171 0.1771023 -0.24240822
-0.1903487 0.17717826 -0.24240839
-0.19034581 0.17725614 -0.24240455
-0.19034289 0.17733206 -0.24240275
-0.19033939 0.17740825 -0.24241292
-0.19033465 0.17748696 -0.24244702
-0.19032924 0.17756598 -0.24249509
-0.19032238 0.17764761 -0.24257106
-0.19031638 0.17772688 -0.24263112
-0.19031166 0.17780559 -0.24266522
-0.19030336 0.17788984 -0.24276912
-0.19029902 0.17796837 -0.24279521
-0.19146128 0.14795221 -0.24330765
-0.19145779 0.1480284 -0.24331781
-0.19145437 0.1481026 -0.24332803
-0.19145115 0.1481767 -0.24333426
-0.19144815 0.14825462 -0.24333242
-0.19144565 0.14833231 -0.24332057
-0.19144297 0.14841205 -0.24331068
-0.19144024 0.1484879 -0.24330488
-0.19143705 0.1485659 -0.24330699
-0.19143373 0.14864004 -0.24331523
-0.19143075 0.14871797 -0.24331337
-0.19142804 0.14879575 -0.24330553
-0.19142464 0.1488719 -0.2433137
-0.19142163 0.14894786 -0.24331389
-0.19141893 0.14902565 -0.24330604
-0.19141592 0.14910161 -0.24330622
-0.19141284 0.14917958 -0.24330637
-0.19140981 0.14925554 -0.24330655
-0.191407 0.14933142 -0.24330275
-0.1914041 0.14940931 -0.24329889
-0.19140223 0.14949065 -0.24327098
-0.19139923 0.14956857 -0.24326912
-0.19139631 0.14964449 -0.24326731
-0.19139372 0.14972223 -0.24325746
-0.19139041 0.14979833 -0.24326365
-0.1913873 0.14987434 -0.24326584
-0.1913842 0.14995036 -0.24326801
-0.19138139 0.15002818 -0.24326217
-0.19137901 0.1501078 -0.24324629
-0.19137609 0.15018372 -0.24324447
-0.19137298 0.15025973 -0.24324666
-0.19136989 0.1503377 -0.24324679
-0.19136688 0.15041366 -0.24324699
-0.19136399 0.15049154 -0.24324313
-0.19136079 0.15056759 -0.24324732
-0.19135767 0.1506436 -0.24324951
-0.19135518 0.15072326 -0.24323562
-0.19135278 0.15080091 -0.24322176
-0.19134976 0.15087688 -0.24322197
-0.19134668 0.15095484 -0.24322209
-0.19134405 0.15103064 -0.24321429
-0.19134086 0.15110865 -0.24321643
-0.19133757 0.15118474 -0.24322262
-0.19133456 0.1512607 -0.2432228
-0.19133165 0.15133859 -0.24321896
-0.19132875 0.15141451 -0.24321714
-0.19132565 0.15149248 -0.24321727
-0.19132315 0.15157017 -0.24320543
-0.19132014 0.15164614 -0.24320562
-0.19131714 0.15172406 -0.24320376
-0.19131435 0.1518019 -0.24319792
-0.19131133 0.15187787 -0.2431981
-0.19130804 0.15195397 -0.24320428
-0.19130483 0.15203002 -0.24320847
-0.19130243 0.15210962 -0.24319258
-0.19129984 0.15218738 -0.24318273
-0.19129673 0.15226339 -0.24318492
-0.19129333 0.15233952 -0.24319309
-0.19129041 0.15241545 -0.24319127
-0.19128743 0.15249337 -0.24318942
-0.19128472 0.15257116 -0.24318159
-0.19128202 0.15264894 -0.24317373
-0.19127901 0.15272491 -0.24317393
-0.19127592 0.15280287 -0.24317405
-0.19127281 0.15287888 -0.24317624
-0.1912698 0.15295485 -0.24317643
-0.1912668 0.15303276 -0.24317458
-0.19126402 0.15311061 -0.24316871
-0.19126122 0.15318844 -0.24316287
-0.19125842 0.15326627 -0.24315701
-0.19125569 0.1533421 -0.24315122
-0.1912526 0.15342006 -0.24315137
-0.1912497 0.153496 -0.24314955
-0.19124669 0.15357196 -0.24314973
-0.19124359 0.15364993 -0.24314988
-0.19124059 0.15372784 -0.24314803
-0.19123769 0.15380377 -0.24314621
-0.1912348 0.15388164 -0.24314235
-0.19123198 0.15395752 -0.24313855
-0.19122888 0.15403548 -0.24313869
-0.19122609 0.15411332 -0.24313283
-0.19122329 0.15419115 -0.24312699
-0.19122028 0.15426712 -0.24312717
-0.19121708 0.15434317 -0.24313135
-0.19121417 0.15442105 -0.2431275
-0.19121167 0.15449876 -0.24311566
-0.19120917 0.15457645 -0.2431038
-0.19120628 0.15465432 -0.24309996
-0.19120307 0.15473038 -0.24310413
-0.19119996 0.15480639 -0.24310634
-0.19119704 0.15488231 -0.24310452
-0.19119436 0.15496206 -0.24309462
-0.19119154 0.15503794 -0.24309081
-0.19118834 0.155114 -0.243095
-0.19118506 0.15519205 -0.24309914
-0.19118224 0.15526792 -0.24309532
-0.19117954 0.15534571 -0.24308747
-0.19117655 0.15542363 -0.24308562
-0.19117382 0.15549946 -0.24307981
-0.19117084 0.15557739 -0.24307796
-0.19116773 0.15565339 -0.24308014
-0.19116464 0.15573137 -0.24308029
-0.19116202 0.15580715 -0.24307248
-0.19115902 0.15588507 -0.24307063
-0.19115563 0.15596122 -0.2430788
-0.19115251 0.15603723 -0.24308099
-0.19114952 0.15611514 -0.24307913
-0.19114682 0.15619293 -0.24307129
-0.19114411 0.15626876 -0.24306548
-0.19114159 0.15634647 -0.24305364
-0.19113889 0.15642425 -0.24304578
-0.19113581 0.15650222 -0.24304593
-0.19113261 0.15657827 -0.2430501
-0.19112968 0.15665419 -0.2430483
-0.19112679 0.15673207 -0.24304445
-0.19112349 0.15680817 -0.24305062
-0.1911204 0.15688613 -0.24305077
-0.19111767 0.15696198 -0.24304496
-0.19111489 0.15703981 -0.2430391
-0.19111198 0.15711768 -0.24303526
-0.19110927 0.15719351 -0.24302945
-0.19110666 0.15727127 -0.24301961
-0.19110347 0.15734927 -0.24302174
-0.19110006 0.15742345 -0.24303195
-0.19109707 0.15750137 -0.2430301
-0.19109456 0.15757908 -0.24301827
-0.19109176 0.15765691 -0.2430124
-0.19108894 0.15773278 -0.24300861
-0.19108593 0.15780875 -0.24300879
-0.19108255 0.15788685 -0.24301493
-0.19107945 0.15796286 -0.24301711
-0.19107674 0.15804066 -0.24300927
-0.19107412 0.15811644 -0.24300146
-0.19107112 0.15819436 -0.2429996
-0.19106792 0.15827042 -0.24300379
-0.19106463 0.15834652 -0.24300995
-0.19106163 0.15842444 -0.24300811
-0.1910592 0.15850013 -0.24299631
-0.1910565 0.15857793 -0.24298847
-0.1910537 0.15865576 -0.24298261
-0.19105089 0.15873164 -0.24297881
-0.19104789 0.15880956 -0.24297695
-0.19104508 0.15888543 -0.24297315
-0.19104208 0.15896335 -0.24297127
-0.19103888 0.15903941 -0.24297547
-0.19103567 0.15911546 -0.24297965
-0.19103248 0.15919347 -0.24298179
-0.19102998 0.15927118 -0.24296995
-0.19102764 0.15934683 -0.24295616
-0.19102466 0.15942475 -0.24295428
-0.19102165 0.15950072 -0.24295448
-0.19101855 0.15957868 -0.24295461
-0.19101545 0.15965469 -0.24295682
-0.19101265 0.15973254 -0.24295095
-0.19100992 0.15980837 -0.24294515
-0.19100684 0.15988633 -0.24294528
-0.19100383 0.1599623 -0.24294548
-0.19100094 0.16004017 -0.24294162
-0.19099793 0.16011614 -0.24294181
-0.19099502 0.16019401 -0.24293795
-0.19099173 0.16027011 -0.24294414
-0.19098862 0.16034612 -0.24294633
-0.19098601 0.16042387 -0.24293648
-0.19098338 0.16049966 -0.24292868
-0.19098049 0.16057754 -0.24292482
-0.19097748 0.1606535 -0.24292502
-0.19097428 0.16072956 -0.24292919
-0.190971 0.16080761 -0.24293333
-0.19096828 0.16088344 -0.24292752
-0.19096577 0.16096115 -0.24291569
-0.19096315 0.16103694 -0.24290788
-0.19096005 0.1611149 -0.24290803
-0.19095695 0.16119091 -0.24291021
-0.19095384 0.16126692 -0.24291238
-0.19095066 0.16134493 -0.24291453
-0.19094783 0.16142081 -0.24291071
-0.19094513 0.16149859 -0.24290287
-0.19094251 0.16157439 -0.24289507
-0.19093962 0.16165227 -0.24289122
-0.19093651 0.16172828 -0.2428934
-0.1909335 0.16180424 -0.24289358
-0.1909306 0.16188212 -0.24288973
-0.19092798 0.1619579 -0.24288192
-0.19092576 0.16203548 -0.2428641
-0.19092277 0.1621134 -0.24286224
-0.19091918 0.16218963 -0.24287441
-0.19091597 0.16226569 -0.24287859
-0.19091305 0.16234161 -0.24287678
-0.19091046 0.16241935 -0.24286693
-0.19090796 0.16249704 -0.2428551
-0.19090542 0.1625728 -0.2428453
-0.19090332 0.16265228 -0.24282342
-0.1909007 0.16272807 -0.24281561
-0.19089651 0.16280261 -0.24284181
-0.19089262 0.16287896 -0.24285997
-0.19089031 0.16295658 -0.24284413
-0.1908879 0.16303423 -0.24283031
-0.19088459 0.16311033 -0.24283648
-0.19088091 0.16318661 -0.24285065
-0.19087771 0.16326267 -0.24285483
-0.19087499 0.16334045 -0.24284698
-0.19087248 0.16341619 -0.24283719
-0.19086967 0.16349404 -0.24283133
-0.19086628 0.16357018 -0.24283952
-0.19086336 0.1636461 -0.2428377
-0.19086066 0.16372389 -0.24282986
-0.19085793 0.16379972 -0.24282405
-0.19085522 0.16387555 -0.24281824
-0.19085252 0.16395335 -0.2428104
-0.1908498 0.16402918 -0.24280459
-0.19084671 0.16410714 -0.24280474
-0.19084331 0.16418329 -0.2428129
-0.1908403 0.16425925 -0.2428131
-0.19083747 0.16433513 -0.2428093
-0.19083488 0.16441287 -0.24279945
-0.19083206 0.16448875 -0.24279565
-0.19082868 0.16456684 -0.24280176
-0.19082548 0.1646429 -0.24280596
-0.19082247 0.16471887 -0.24280614
-0.19081944 0.16479483 -0.24280633
-0.19081634 0.16487084 -0.24280851
-0.19081345 0.16494872 -0.24280465
-0.19081073 0.16502456 -0.24279885
-0.19080772 0.16510053 -0.24279904
-0.19080491 0.16517836 -0.24279319
-0.19080229 0.16525415 -0.24278539
-0.19079921 0.16533211 -0.24278553
-0.19079629 0.16540803 -0.24278373
-0.19079357 0.16548386 -0.24277791
-0.19079077 0.16556171 -0.24277207
-0.19078776 0.16563767 -0.24277225
-0.19078487 0.16571555 -0.24276841
-0.19078234 0.16579129 -0.2427586
-0.19077942 0.16586721 -0.24275678
-0.19077653 0.1659451 -0.24275294
-0.19077381 0.16602093 -0.24274713
-0.19077072 0.16609889 -0.24274728
-0.19076732 0.16617504 -0.24275544
-0.19076422 0.16625105 -0.24275763
-0.1907611 0.16632706 -0.24275982
-0.19075799 0.16640307 -0.242762
-0.1907552 0.1664809 -0.24275616
-0.19075248 0.16655673 -0.24275035
-0.19074956 0.16663265 -0.24274854
-0.19074667 0.16671053 -0.24274468
-0.19074395 0.16678637 -0.24273887
-0.19074103 0.16686229 -0.24273707
-0.19073802 0.16693826 -0.24273726
-0.19073494 0.16701622 -0.2427374
-0.19073211 0.1670921 -0.2427336
-0.19072901 0.16716811 -0.24273577
-0.19072621 0.16724594 -0.24272993
-0.19072369 0.16732168 -0.24272013
-0.19072066 0.16739765 -0.24272031
-0.19071738 0.1674757 -0.24272445
-0.19071457 0.16755158 -0.24272063
-0.19071186 0.16762742 -0.24271484
-0.19070913 0.16770326 -0.24270904
-0.19070663 0.16778095 -0.24269718
-0.19070381 0.16785683 -0.24269339
-0.1907004 0.16793297 -0.24270156
-0.19069751 0.16801085 -0.24269772
-0.19069469 0.16808674 -0.2426939
-0.19069207 0.16816252 -0.24268609
-0.19068907 0.16824044 -0.24268425
-0.19068567 0.16831659 -0.24269241
-0.19068286 0.16839246 -0.24268861
-0.19068004 0.16846834 -0.24268481
-0.19067712 0.16854426 -0.24268299
-0.19067442 0.16862205 -0.24267516
-0.19067161 0.16869794 -0.24267134
-0.19066833 0.16877599 -0.24267548
-0.19066571 0.16885178 -0.24266768
-0.19066317 0.16892752 -0.24265787
-0.19066028 0.16900539 -0.24265403
-0.19065727 0.16908136 -0.2426542
-0.19065426 0.16915733 -0.2426544
-0.19065134 0.16923325 -0.2426526
-0.19064853 0.16930912 -0.24264878
-0.19064553 0.16938706 -0.24264693
-0.19064252 0.16946302 -0.24264711
-0.19063963 0.1695409 -0.24264327
-0.19063681 0.16961677 -0.24263945
-0.1906338 0.16969274 -0.24263963
-0.19063069 0.16976875 -0.24264184
-0.19062777 0.16984467 -0.24264002
-0.19062498 0.1699225 -0.24263416
-0.19062226 0.16999835 -0.24262837
-0.19061983 0.17007405 -0.24261656
-0.19061674 0.17015201 -0.24261671
-0.19061363 0.17022802 -0.24261889
-0.19061111 0.17030376 -0.24260908
-0.19060838 0.17037959 -0.24260329
-0.19060479 0.17045583 -0.24261546
-0.19060121 0.17053401 -0.24262559
-0.19059849 0.17060985 -0.24261978
-0.19059636 0.17068543 -0.24260199
-0.19059382 0.17076117 -0.24259219
-0.19059046 0.17083926 -0.24259833
-0.19058734 0.17091528 -0.24260052
-0.19058442 0.1709912 -0.24259871
-0.19058202 0.17106885 -0.24258485
-0.19057979 0.17114447 -0.24256907
-0.19057725 0.17122021 -0.24255927
-0.19057444 0.17129609 -0.24255547
-0.19057162 0.17137197 -0.24255165
-0.19056882 0.17144981 -0.24254581
-0.1905663 0.17152555 -0.24253601
-0.19056377 0.1716013 -0.2425262
-0.19056126 0.17167901 -0.24251437
-0.19055854 0.17175484 -0.24250856
-0.19055437 0.17183132 -0.24253273
-0.19055077 0.17190756 -0.24254489
-0.19054863 0.17198312 -0.2425271
-0.19054671 0.17206056 -0.24250329
-0.19054408 0.17213635 -0.24249548
-0.19054097 0.17221236 -0.24249765
-0.19053777 0.17228842 -0.24250184
-0.19053479 0.17236634 -0.24249998
-0.19053148 0.17244244 -0.24250618
-0.19052798 0.17251863 -0.24251634
-0.1905248 0.17259663 -0.24251848
-0.19052188 0.17267255 -0.24251667
-0.19051926 0.17274834 -0.24250886
-0.19051683 0.17282405 -0.24249707
-0.1905143 0.1728998 -0.24248728
-0.19051149 0.17297763 -0.24248141
-0.19050859 0.17305355 -0.24247961
-0.19050577 0.17312944 -0.24247581
-0.19050285 0.17320536 -0.24247399
-0.19049965 0.17328142 -0.24247818
-0.19049646 0.17335942 -0.24248031
-0.19049306 0.17343555 -0.24248849
-0.19048917 0.17351192 -0.24250665
-0.19048589 0.17358997 -0.2425108
-0.19048299 0.1736659 -0.24250898
-0.19047958 0.17374204 -0.24251714
-0.19047618 0.17381819 -0.24252534
-0.19047375 0.17389388 -0.24251354
-0.19047153 0.17397144 -0.24249572
-0.19046901 0.1740472 -0.24248591
-0.19046628 0.17412303 -0.2424801
-0.19046338 0.17419896 -0.24247828
-0.19045989 0.1742771 -0.24248642
-0.19045708 0.17435297 -0.24248262
-0.19045426 0.17442885 -0.2424788
-0.19045137 0.17450672 -0.24247494
-0.19044875 0.17458253 -0.24246716
-0.19044593 0.1746584 -0.24246335
-0.19044262 0.1747345 -0.24246952
-0.19043903 0.17481072 -0.24248169
-0.19043604 0.17488864 -0.24247983
-0.19043371 0.17496431 -0.24246603
-0.19043051 0.17504036 -0.24247023
-0.19042732 0.17511837 -0.24247235
-0.19042489 0.17519407 -0.24246056
-0.19042197 0.17526999 -0.24245876
-0.19041857 0.17534614 -0.24246693
-0.19041565 0.17542206 -0.24246512
-0.19041276 0.17549993 -0.24246126
-0.19041005 0.17557578 -0.24245547
-0.19040743 0.17565157 -0.24244767
-0.1904044 0.17572753 -0.24244785
-0.19040103 0.17580563 -0.24245399
-0.19039811 0.17588155 -0.24245217
-0.19039568 0.17595725 -0.24244037
-0.1903926 0.17603521 -0.24244052
-0.19038929 0.17611131 -0.24244669
-0.19038628 0.17618728 -0.24244688
-0.19038346 0.17626315 -0.24244308
-0.19038093 0.17633891 -0.24243328
-0.19037814 0.17641674 -0.24242744
-0.19037533 0.17649262 -0.24242362
-0.19037241 0.17656854 -0.24242181
-0.19036922 0.17664655 -0.24242395
-0.19036621 0.17672251 -0.24242413
-0.19036348 0.17679834 -0.24241833
-0.19036028 0.1768744 -0.24242252
-0.19035681 0.17695254 -0.24243066
-0.19035447 0.17702819 -0.24241686
-0.19035195 0.17710395 -0.24240705
-0.19034894 0.17717992 -0.24240725
-0.19034603 0.17725779 -0.24240339
-0.19034313 0.17733371 -0.24240158
-0.19033962 0.1774099 -0.24241176
-0.1903348 0.17748865 -0.24244784
-0.19032948 0.17756763 -0.24249393
-0.19032282 0.17764917 -0.2425659
-0.19031662 0.17772853 -0.24262995
-0.19031198 0.1778072 -0.24266206
-0.19030407 0.17788932 -0.24276
-0.19029926 0.17797002 -0.24279405
-0.19146077 0.14795218 -0.24330759
-0.19145727 0.14802837 -0.24331777
-0.19145386 0.14810257 -0.24332801
-0.19145064 0.14817862 -0.24333218
-0.19144763 0.14825459 -0.24333236
-0.19144514 0.14833423 -0.24331847
-0.19144244 0.14841202 -0.24331063
-0.19143973 0.14848787 -0.24330482
-0.19143654 0.14856587 -0.24330696
-0.19143322 0.14864001 -0.24331519
-0.19143014 0.14871798 -0.24331532
-0.19142753 0.14879572 -0.24330547
-0.19142413 0.14887187 -0.24331364
-0.19142112 0.14894783 -0.24331385
-0.19141841 0.14902562 -0.243306
-0.1914155 0.14910154 -0.24330419
-0.19141231 0.14917955 -0.24330631
-0.1914093 0.14925551 -0.24330652
-0.19140649 0.14933139 -0.2433027
-0.19140358 0.14940928 -0.24329886
-0.19140171 0.14949062 -0.24327093
-0.1913987 0.14956659 -0.24327111
-0.1913958 0.14964446 -0.24326727
-0.1913932 0.1497222 -0.24325743
-0.1913898 0.14979835 -0.2432656
-0.19138668 0.14987436 -0.24326779
-0.19138367 0.14995033 -0.24326797
-0.19138087 0.15002815 -0.24326211
-0.19137849 0.15010777 -0.24324623
-0.19137557 0.15018369 -0.24324442
-0.19137247 0.1502597 -0.24324661
-0.19136937 0.15033767 -0.24324676
-0.19136636 0.15041363 -0.24324694
-0.19136347 0.15049151 -0.2432431
-0.19136035 0.15056752 -0.24324527
-0.19135715 0.15064357 -0.24324945
-0.19135477 0.15072319 -0.24323356
-0.19135226 0.15080088 -0.24322173
-0.19134924 0.15087685 -0.24322191
-0.19134615 0.15095481 -0.24322206
-0.19134344 0.15103066 -0.24321625
-0.19134034 0.15110862 -0.2432164
-0.19133705 0.15118471 -0.24322256
-0.19133402 0.15126067 -0.24322276
-0.19133113 0.15133856 -0.2432189
-0.19132823 0.15141448 -0.2432171
-0.19132513 0.15149245 -0.24321723
-0.19132262 0.15157014 -0.2432054
-0.1913197 0.15164606 -0.24320358
-0.19131672 0.15172398 -0.24320173
-0.19131382 0.15180187 -0.24319786
-0.19131081 0.15187784 -0.24319807
-0.19130751 0.15195394 -0.24320424
-0.1913043 0.15202999 -0.24320841
-0.19130191 0.15210959 -0.24319252
-0.1912993 0.15218733 -0.24318269
-0.1912962 0.15226334 -0.24318486
-0.19129281 0.15233949 -0.24319305
-0.19128978 0.15241545 -0.24319324
-0.19128689 0.15249333 -0.24318938
-0.19128419 0.15257113 -0.24318153
-0.19128139 0.15264896 -0.24317569
-0.19127849 0.15272488 -0.24317387
-0.19127549 0.1528028 -0.24317202
-0.19127229 0.15287885 -0.24317619
-0.19126919 0.15295681 -0.24317634
-0.19126628 0.15303273 -0.24317452
-0.19126348 0.15311058 -0.24316868
-0.19126068 0.15318841 -0.24316283
-0.19125789 0.15326624 -0.24315697
-0.19125517 0.15334207 -0.24315117
-0.19125208 0.15342003 -0.24315131
-0.19124916 0.15349597 -0.2431495
-0.19124615 0.15357193 -0.2431497
-0.19124307 0.1536499 -0.24314983
-0.19124007 0.15372781 -0.24314797
-0.19123715 0.15380374 -0.24314617
-0.19123416 0.15388165 -0.2431443
-0.19123144 0.15395749 -0.24313851
-0.19122845 0.15403542 -0.24313664
-0.19122556 0.15411329 -0.2431328
-0.19122276 0.15419112 -0.24312693
-0.19121975 0.15426709 -0.24312714
-0.19121654 0.15434314 -0.24313131
-0.19121365 0.15442102 -0.24312747
-0.19121113 0.15449873 -0.24311562
-0.19120863 0.15457642 -0.24310377
-0.19120564 0.15465434 -0.24310191
-0.19120254 0.15473035 -0.2431041
-0.19119942 0.15480636 -0.24310628
-0.1911965 0.15488228 -0.24310447
-0.19119383 0.15496203 -0.24309458
-0.19119102 0.15503791 -0.24309078
-0.1911878 0.15511395 -0.24309495
-0.19118452 0.15519202 -0.24309909
-0.1911817 0.15526789 -0.24309528
-0.19117901 0.15534568 -0.24308744
-0.19117601 0.1554236 -0.24308558
-0.1911732 0.15549947 -0.24308178
-0.19117031 0.15557735 -0.24307792
-0.19116719 0.15565336 -0.24308011
-0.19116411 0.15573132 -0.24308024
-0.19116148 0.15580712 -0.24307245
-0.19115849 0.15588504 -0.24307059
-0.19115509 0.15596119 -0.24307877
-0.19115198 0.1560372 -0.24308094
-0.19114909 0.15611507 -0.2430771
-0.19114628 0.1561929 -0.24307124
-0.19114356 0.15626873 -0.24306545
-0.19114105 0.15634644 -0.2430536
-0.19113836 0.15642422 -0.24304575
-0.19113527 0.15650219 -0.2430459
-0.19113207 0.15657824 -0.24305007
-0.19112915 0.15665416 -0.24304825
-0.19112626 0.15673204 -0.24304441
-0.19112295 0.15680814 -0.24305058
-0.19111986 0.1568861 -0.24305072
-0.19111714 0.15696193 -0.24304491
-0.19111434 0.15703978 -0.24303907
-0.19111145 0.15711765 -0.24303523
-0.19110872 0.15719348 -0.24302942
-0.19110613 0.15727122 -0.24301957
-0.19110294 0.15734924 -0.2430217
-0.19109951 0.15742342 -0.24303192
-0.19109653 0.15750134 -0.24303007
-0.19109401 0.15757905 -0.24301822
-0.19109122 0.15765688 -0.24301237
-0.19108841 0.15773275 -0.24300857
-0.19108538 0.15780872 -0.24300876
-0.19108202 0.15788682 -0.24301489
-0.1910789 0.15796283 -0.24301708
-0.1910762 0.15804061 -0.24300922
-0.19107358 0.15811642 -0.24300143
-0.19107059 0.15819433 -0.24299955
-0.19106738 0.15827039 -0.24300376
-0.19106407 0.15834649 -0.24300992
-0.19106108 0.15842441 -0.24300808
-0.19105865 0.15850011 -0.24299628
-0.19105595 0.15857789 -0.24298844
-0.19105315 0.15865573 -0.24298257
-0.19105034 0.15873161 -0.24297878
-0.19104734 0.15880953 -0.2429769
-0.19104443 0.15888545 -0.24297512
-0.19104154 0.15896332 -0.24297124
-0.19103833 0.15903938 -0.24297544
-0.19103523 0.15911539 -0.24297762
-0.19103193 0.15919344 -0.24298176
-0.19102943 0.15927115 -0.2429699
-0.1910271 0.1593468 -0.24295612
-0.19102411 0.15942472 -0.24295425
-0.1910211 0.15950069 -0.24295443
-0.191018 0.15957865 -0.24295458
-0.1910149 0.15965466 -0.24295677
-0.1910121 0.15973249 -0.24295092
-0.19100937 0.15980834 -0.24294512
-0.19100639 0.15988626 -0.24294326
-0.19100338 0.15996222 -0.24294344
-0.19100039 0.16004014 -0.24294159
-0.19099747 0.16011606 -0.24293977
-0.19099447 0.16019398 -0.24293792
-0.19099107 0.16027012 -0.2429461
-0.19098806 0.16034609 -0.2429463
-0.19098546 0.16042383 -0.24293643
-0.19098283 0.16049963 -0.24292864
-0.19097994 0.16057751 -0.24292479
-0.19097683 0.16065352 -0.24292697
-0.19097373 0.16072953 -0.24292916
-0.19097044 0.16080758 -0.2429333
-0.19096772 0.16088341 -0.24292749
-0.19096522 0.16096111 -0.24291566
-0.1909626 0.16103691 -0.24290785
-0.1909595 0.16111487 -0.24290799
-0.1909564 0.16119088 -0.24291018
-0.19095328 0.16126689 -0.24291235
-0.1909501 0.1613449 -0.2429145
-0.19094728 0.16142078 -0.24291068
-0.19094458 0.16149856 -0.24290285
-0.19094196 0.16157435 -0.24289504
-0.19093907 0.16165224 -0.24289119
-0.19093595 0.16172825 -0.24289337
-0.19093294 0.16180421 -0.24289355
-0.19093004 0.16188209 -0.2428897
-0.19092742 0.16195787 -0.24288189
-0.19092521 0.16203545 -0.24286407
-0.19092222 0.16211337 -0.24286221
-0.19091862 0.16218959 -0.24287438
-0.19091532 0.16226569 -0.24288055
-0.1909125 0.16234156 -0.24287675
-0.19091 0.16241927 -0.24286491
-0.19090739 0.16249701 -0.24285507
-0.19090486 0.16257277 -0.24284527
-0.19090277 0.16265224 -0.24282339
-0.19090015 0.16272804 -0.24281558
-0.19089594 0.16280258 -0.24284178
-0.19089216 0.16287889 -0.24285796
-0.19088985 0.16295651 -0.24284211
-0.19088733 0.1630342 -0.24283028
-0.19088404 0.1631103 -0.24283645
-0.19088034 0.16318658 -0.24285063
-0.19087714 0.16326264 -0.2428548
-0.19087444 0.16334042 -0.24284695
-0.19087191 0.16341616 -0.24283716
-0.19086911 0.16349401 -0.2428313
-0.19086571 0.16357014 -0.24283949
-0.19086279 0.16364606 -0.24283767
-0.19086009 0.16372386 -0.24282983
-0.19085738 0.16379969 -0.24282402
-0.19085465 0.16387552 -0.24281821
-0.19085196 0.16395332 -0.24281037
-0.19084923 0.16402915 -0.24280456
-0.19084615 0.16410711 -0.24280471
-0.19084284 0.16418321 -0.24281088
-0.19083974 0.16425923 -0.24281307
-0.19083691 0.1643351 -0.24280927
-0.19083431 0.16441284 -0.24279942
-0.1908315 0.16448872 -0.24279562
-0.19082811 0.16456681 -0.24280174
-0.19082491 0.16464287 -0.24280593
-0.1908219 0.16471884 -0.24280611
-0.19081898 0.16479476 -0.24280429
-0.19081578 0.16487081 -0.24280848
-0.19081289 0.16494869 -0.24280463
-0.19081016 0.16502453 -0.24279884
-0.19080715 0.16510049 -0.24279901
-0.19080435 0.16517833 -0.24279317
-0.19080172 0.16525412 -0.24278536
-0.19079864 0.16533208 -0.24278551
-0.19079572 0.165408 -0.2427837
-0.19079299 0.16548383 -0.24277788
-0.19079021 0.16556168 -0.24277204
-0.1907872 0.16563764 -0.24277222
-0.19078429 0.16571552 -0.24276838
-0.19078167 0.1657913 -0.24276057
-0.19077885 0.16586718 -0.24275675
-0.19077596 0.16594505 -0.24275291
-0.19077323 0.1660209 -0.2427471
-0.19077015 0.16609886 -0.24274725
-0.19076684 0.16617496 -0.24275342
-0.19076364 0.166251 -0.24275762
-0.19076054 0.16632701 -0.24275979
-0.19075742 0.16640303 -0.24276197
-0.19075462 0.16648087 -0.24275613
-0.19075191 0.1665567 -0.24275032
-0.19074899 0.16663262 -0.24274851
-0.1907461 0.1667105 -0.24274465
-0.19074337 0.16678633 -0.24273884
-0.19074045 0.16686225 -0.24273704
-0.19073744 0.16693822 -0.24273723
-0.19073446 0.16701615 -0.24273539
-0.19073154 0.16709207 -0.24273357
-0.19072843 0.16716808 -0.24273576
-0.19072564 0.16724591 -0.2427299
-0.19072311 0.16732165 -0.2427201
-0.1907201 0.16739762 -0.24272029
-0.19071682 0.16747567 -0.24272442
-0.19071399 0.16755155 -0.24272062
-0.19071127 0.16762739 -0.24271482
-0.19070855 0.16770323 -0.24270901
-0.19070604 0.16778092 -0.24269716
-0.19070332 0.16785675 -0.24269137
-0.19069992 0.1679329 -0.24269953
-0.19069692 0.16801082 -0.24269769
-0.19069411 0.16808669 -0.24269387
-0.19069149 0.16816249 -0.24268608
-0.19068849 0.16824041 -0.24268422
-0.19068509 0.16831656 -0.2426924
-0.19068228 0.16839243 -0.2426886
-0.19067957 0.16846827 -0.24268278
-0.19067654 0.16854423 -0.24268296
-0.19067384 0.16862202 -0.24267513
-0.19067103 0.16869789 -0.24267131
-0.19066775 0.16877595 -0.24267545
-0.19066513 0.16885175 -0.24266765
-0.19066259 0.16892749 -0.24265786
-0.1906597 0.16900536 -0.242654
-0.19065669 0.16908133 -0.24265419
-0.19065368 0.1691573 -0.24265438
-0.19065087 0.16923317 -0.24265057
-0.19064794 0.16930909 -0.24264875
-0.19064495 0.16938703 -0.2426469
-0.19064204 0.16946295 -0.24264508
-0.19063905 0.16954087 -0.24264324
-0.19063623 0.16961674 -0.24263942
-0.19063322 0.16969271 -0.24263962
-0.19063011 0.16976872 -0.24264181
-0.19062729 0.1698446 -0.24263799
-0.1906244 0.16992247 -0.24263415
-0.19062167 0.1699983 -0.24262834
-0.19061925 0.17007402 -0.24261653
-0.19061616 0.17015198 -0.24261668
-0.19061314 0.17022794 -0.24261688
-0.19061051 0.17030373 -0.24260907
-0.1906078 0.17037956 -0.24260327
-0.19060421 0.1704558 -0.24261543
-0.19060063 0.17053398 -0.24262556
-0.19059791 0.17060982 -0.24261975
-0.19059578 0.17068538 -0.24260198
-0.19059324 0.17076114 -0.24259219
-0.19058986 0.17083924 -0.24259831
-0.19058676 0.17091525 -0.2426005
-0.19058393 0.17099112 -0.24259669
-0.19058143 0.17106882 -0.24258484
-0.1905793 0.1711444 -0.24256706
-0.19057676 0.17122014 -0.24255726
-0.19057386 0.17129606 -0.24255544
-0.19057103 0.17137194 -0.24255164
-0.19056824 0.17144978 -0.24254578
-0.19056571 0.17152552 -0.24253599
-0.19056317 0.17160127 -0.2425262
-0.19056067 0.17167898 -0.24251436
-0.19055796 0.17175481 -0.24250855
-0.19055377 0.17183129 -0.2425327
-0.19055018 0.17190753 -0.24254487
-0.19054805 0.17198309 -0.24252708
-0.19054613 0.17206053 -0.24250326
-0.19054349 0.17213632 -0.24249546
-0.19054039 0.17221233 -0.24249765
-0.19053718 0.17228839 -0.24250183
-0.19053419 0.17236631 -0.24249998
-0.19053088 0.17244241 -0.24250615
-0.19052739 0.1725186 -0.24251632
-0.19052421 0.1725966 -0.24251845
-0.19052128 0.17267253 -0.24251664
-0.19051866 0.17274831 -0.24250886
-0.19051623 0.17282403 -0.24249706
-0.1905137 0.17289977 -0.24248725
-0.19051091 0.1729776 -0.24248141
-0.19050799 0.17305352 -0.24247959
-0.19050507 0.17312944 -0.24247777
-0.19050226 0.17320532 -0.24247399
-0.19049905 0.17328137 -0.24247816
-0.19049586 0.17335938 -0.24248031
-0.19049247 0.17343552 -0.24248847
-0.19048858 0.17351189 -0.24250664
-0.1904853 0.17358994 -0.24251077
-0.19048239 0.17366587 -0.24250896
-0.19047898 0.17374201 -0.24251714
-0.19047569 0.1738181 -0.24252331
-0.19047326 0.17389381 -0.24251153
-0.19047093 0.17397141 -0.24249569
-0.19046851 0.17404713 -0.24248388
-0.19046579 0.17412296 -0.24247809
-0.19046278 0.17419893 -0.24247828
-0.1904593 0.17427707 -0.2424864
-0.19045648 0.17435294 -0.2424826
-0.19045366 0.17442882 -0.24247879
-0.19045077 0.17450669 -0.24247494
-0.19044815 0.17458248 -0.24246714
-0.19044533 0.17465837 -0.24246332
-0.19044203 0.17473446 -0.24246952
-0.19043843 0.17481069 -0.24248168
-0.19043544 0.17488861 -0.24247983
-0.19043311 0.17496428 -0.24246603
-0.1904299 0.17504033 -0.2424702
-0.19042672 0.17511834 -0.24247235
-0.19042429 0.17519404 -0.24246055
-0.19042137 0.17526996 -0.24245875
-0.19041798 0.17534611 -0.24246693
-0.19041505 0.17542203 -0.24246511
-0.19041216 0.1754999 -0.24246126
-0.19040944 0.17557573 -0.24245545
-0.19040681 0.17565154 -0.24244764
-0.1904038 0.1757275 -0.24244784
-0.19040042 0.1758056 -0.24245396
-0.19039752 0.17588152 -0.24245217
-0.19039509 0.17595722 -0.24244037
-0.19039199 0.17603518 -0.24244051
-0.19038869 0.17611128 -0.24244669
-0.19038577 0.1761872 -0.24244487
-0.19038296 0.17626308 -0.24244107
-0.19038033 0.17633887 -0.24243328
-0.19037753 0.17641671 -0.24242741
-0.19037472 0.17649259 -0.24242362
-0.1903719 0.17656846 -0.24241981
-0.19036871 0.17664647 -0.24242194
-0.1903656 0.17672248 -0.24242413
-0.19036289 0.17679831 -0.24241832
-0.19035968 0.17687437 -0.24242251
-0.19035619 0.17695251 -0.24243063
-0.19035387 0.17702816 -0.24241684
-0.19035134 0.17710392 -0.24240705
-0.19034833 0.17717989 -0.24240723
-0.19034544 0.17725776 -0.24240339
-0.19034252 0.17733368 -0.24240157
-0.19033901 0.17740987 -0.24241173
-0.19033419 0.17748863 -0.24244782
-0.19032887 0.1775676 -0.2424939
-0.19032221 0.17764914 -0.2425659
-0.19031611 0.17772846 -0.24262795
-0.19031118 0.17780726 -0.24266604
-0.19030355 0.17788924 -0.24275801
-0.19029854 0.17797004 -0.24279603
-0.1914607 0.14795327 -0.24330886
-0.19145729 0.14802745 -0.24331908
-0.19145378 0.14810364 -0.24332926
-0.19145055 0.14817774 -0.24333549
-0.19144757 0.14825566 -0.24333362
-0.19144505 0.14833337 -0.24332178
-0.19144239 0.14841311 -0.24331188
-0.19143966 0.14848894 -0.24330609
-0.19143665 0.1485649 -0.24330626
-0.19143315 0.14864109 -0.24331644
-0.19143015 0.14871901 -0.24331459
-0.19142745 0.1487968 -0.24330674
-0.19142413 0.14887094 -0.24331497
-0.19142105 0.14894891 -0.2433151
-0.19141825 0.14902674 -0.24330926
-0.19141543 0.14910263 -0.24330544
-0.19141224 0.14918064 -0.24330759
-0.19140923 0.1492566 -0.24330777
-0.19140641 0.14933248 -0.24330395
-0.19140351 0.14941035 -0.24330011
-0.19140163 0.1494917 -0.24327219
-0.19139871 0.14956762 -0.2432704
-0.19139573 0.14964554 -0.24326852
-0.19139312 0.14972329 -0.24325868
-0.19138981 0.14979938 -0.24326485
-0.1913867 0.14987539 -0.24326706
-0.19138369 0.14995137 -0.24326724
-0.1913809 0.1500292 -0.24326138
-0.19137849 0.15010685 -0.24324754
-0.1913756 0.15018472 -0.24324369
-0.19137238 0.15026078 -0.24324787
-0.1913694 0.15033871 -0.24324602
-0.19136637 0.15041468 -0.2432462
-0.19136339 0.15049259 -0.24324435
-0.19136028 0.1505686 -0.24324653
-0.19135708 0.15064466 -0.24325071
-0.19135459 0.15072431 -0.24323684
-0.19135208 0.15080202 -0.24322498
-0.19134916 0.15087794 -0.24322316
-0.19134608 0.1509559 -0.24322331
-0.19134346 0.15103169 -0.2432155
-0.19134027 0.1511097 -0.24321765
-0.19133687 0.15118584 -0.24322583
-0.19133395 0.15126176 -0.24322402
-0.19133106 0.15133964 -0.24322017
-0.19132814 0.15141556 -0.24321836
-0.19132505 0.15149352 -0.2432185
-0.19132245 0.15157127 -0.24320865
-0.19131953 0.1516472 -0.24320684
-0.19131663 0.15172507 -0.24320298
-0.19131383 0.1518029 -0.24319713
-0.19131082 0.15187886 -0.24319732
-0.19130743 0.15195501 -0.24320549
-0.19130422 0.15203106 -0.24320967
-0.19130182 0.15211067 -0.24319379
-0.19129913 0.15218846 -0.24318594
-0.19129612 0.15226443 -0.24318613
-0.19129272 0.15234058 -0.24319431
-0.1912898 0.1524165 -0.24319249
-0.1912868 0.15249442 -0.24319065
-0.19128421 0.15257215 -0.24318081
-0.1912813 0.15265004 -0.24317694
-0.1912784 0.15272596 -0.24317513
-0.1912753 0.15280393 -0.24317527
-0.1912722 0.15287994 -0.24317747
-0.19126919 0.1529559 -0.24317765
-0.19126628 0.15303378 -0.24317381
-0.1912635 0.15311161 -0.24316794
-0.1912607 0.15318944 -0.2431621
-0.19125789 0.15326728 -0.24315624
-0.19125508 0.15334316 -0.24315244
-0.19125199 0.15342112 -0.24315257
-0.19124907 0.15349704 -0.24315077
-0.19124596 0.15357305 -0.24315295
-0.19124298 0.15365097 -0.2431511
-0.19124007 0.15372884 -0.24314724
-0.19123706 0.15380481 -0.24314743
-0.19123417 0.15388268 -0.24314357
-0.19123144 0.15395853 -0.24313778
-0.19122845 0.15403645 -0.24313591
-0.19122556 0.15411432 -0.24313205
-0.19122276 0.15419215 -0.24312621
-0.19121966 0.15426816 -0.24312839
-0.19121654 0.15434417 -0.24313058
-0.19121355 0.15442209 -0.24312872
-0.19121104 0.1544998 -0.24311689
-0.19120844 0.15457754 -0.24310702
-0.19120573 0.15465337 -0.24310122
-0.19120243 0.15473142 -0.24310537
-0.19119933 0.15480743 -0.24310756
-0.19119641 0.15488335 -0.24310574
-0.19119373 0.15496311 -0.24309584
-0.19119102 0.15503894 -0.24309003
-0.19118771 0.15511504 -0.24309623
-0.19118443 0.15519309 -0.24310035
-0.1911816 0.15526897 -0.24309656
-0.1911789 0.15534675 -0.24308869
-0.191176 0.15542267 -0.24308689
-0.19117309 0.15550056 -0.24308303
-0.1911702 0.15557843 -0.24307919
-0.19116709 0.15565445 -0.24308136
-0.191164 0.15573241 -0.24308151
-0.19116138 0.1558082 -0.2430737
-0.19115829 0.15588616 -0.24307385
-0.19115499 0.15596226 -0.24308002
-0.19115198 0.15603822 -0.24308021
-0.19114909 0.1561161 -0.24307635
-0.19114618 0.15619397 -0.24307251
-0.19114356 0.15626977 -0.2430647
-0.19114095 0.15634751 -0.24305487
-0.19113836 0.15642527 -0.243045
-0.19113526 0.15650323 -0.24304515
-0.19113205 0.15657929 -0.24304934
-0.19112904 0.15665525 -0.24304953
-0.19112615 0.15673313 -0.24304567
-0.19112284 0.15680923 -0.24305186
-0.19111976 0.15688719 -0.24305199
-0.19111703 0.15696302 -0.24304619
-0.19111434 0.1570408 -0.24303833
-0.19111125 0.15711877 -0.24303848
-0.19110861 0.15719455 -0.24303067
-0.19110602 0.15727231 -0.24302083
-0.19110291 0.15734832 -0.24302301
-0.19109941 0.15742451 -0.2430332
-0.19109643 0.15750243 -0.24303132
-0.19109391 0.15758012 -0.24301949
-0.19109102 0.157658 -0.24301563
-0.19108839 0.1577338 -0.24300784
-0.19108528 0.15780981 -0.24301001
-0.1910819 0.15788791 -0.24301615
-0.19107889 0.15796387 -0.24301633
-0.19107619 0.15804166 -0.24300849
-0.19107357 0.15811744 -0.24300069
-0.19107048 0.15819541 -0.24300084
-0.19106726 0.15827146 -0.24300501
-0.19106397 0.15834756 -0.24301119
-0.19106098 0.15842548 -0.24300933
-0.19105844 0.15850122 -0.24299954
-0.19105585 0.15857898 -0.24298969
-0.19105305 0.15865681 -0.24298385
-0.19105023 0.15873268 -0.24298003
-0.19104724 0.1588106 -0.24297819
-0.19104442 0.15888649 -0.24297437
-0.19104142 0.15896441 -0.24297252
-0.19103822 0.15904047 -0.2429767
-0.19103511 0.15911648 -0.24297889
-0.19103192 0.15919448 -0.24298102
-0.19102933 0.15927222 -0.24297118
-0.19102699 0.15934788 -0.24295738
-0.19102399 0.1594258 -0.24295552
-0.19102108 0.15950173 -0.24295372
-0.1910179 0.15957974 -0.24295585
-0.19101478 0.15965575 -0.24295804
-0.19101207 0.15973158 -0.24295223
-0.19100916 0.15980946 -0.24294838
-0.19100627 0.15988733 -0.24294452
-0.19100316 0.15996334 -0.24294671
-0.19100027 0.16004121 -0.24294285
-0.19099735 0.16011713 -0.24294105
-0.19099426 0.16019511 -0.24294119
-0.19099095 0.1602712 -0.24294737
-0.19098805 0.16034713 -0.24294555
-0.19098535 0.16042492 -0.24293771
-0.19098282 0.16050066 -0.24292791
-0.19097982 0.16057858 -0.24292606
-0.19097681 0.16065454 -0.24292624
-0.19097361 0.1607306 -0.24293043
-0.1909705 0.16080661 -0.24293262
-0.1909676 0.16088448 -0.24292874
-0.1909651 0.16096219 -0.24291691
-0.19096248 0.16103798 -0.2429091
-0.19095938 0.16111594 -0.24290925
-0.19095628 0.16119196 -0.24291143
-0.19095317 0.16126797 -0.24291362
-0.19094996 0.16134402 -0.24291781
-0.19094716 0.16142185 -0.24291195
-0.19094446 0.16149965 -0.2429041
-0.19094184 0.16157544 -0.2428963
-0.19093893 0.16165331 -0.24289244
-0.19093584 0.16172932 -0.24289463
-0.19093283 0.16180529 -0.24289483
-0.19092992 0.16188316 -0.24289097
-0.1909273 0.16195895 -0.24288318
-0.19092508 0.16203652 -0.24286532
-0.1909221 0.16211444 -0.24286348
-0.19091849 0.16219068 -0.24287564
-0.1909152 0.16226678 -0.24288183
-0.19091238 0.16234265 -0.24287802
-0.19090986 0.16242035 -0.24286617
-0.19090736 0.16249806 -0.24285433
-0.19090484 0.1625738 -0.24284454
-0.19090271 0.16265133 -0.2428247
-0.19090001 0.16272911 -0.24281685
-0.19089583 0.16280365 -0.24284306
-0.19089194 0.16288002 -0.24286121
-0.19088972 0.16295758 -0.24284339
-0.1908873 0.16303524 -0.24282955
-0.1908839 0.16311139 -0.24283773
-0.19088031 0.16318761 -0.24284989
-0.19087701 0.16326371 -0.24285607
-0.19087431 0.16334149 -0.24284822
-0.19087188 0.16341721 -0.24283642
-0.19086899 0.16349508 -0.24283257
-0.19086568 0.16357118 -0.24283874
-0.19086267 0.16364715 -0.24283895
-0.19086014 0.16372289 -0.24282914
-0.19085725 0.16380076 -0.24282528
-0.19085452 0.16387661 -0.24281949
-0.19085193 0.16395435 -0.24280964
-0.1908491 0.16403022 -0.24280584
-0.190846 0.16410623 -0.24280801
-0.1908427 0.16418429 -0.24281216
-0.1908396 0.1642603 -0.24281433
-0.19083688 0.16433613 -0.24280854
-0.19083418 0.16441393 -0.24280068
-0.19083136 0.16448981 -0.24279687
-0.19082798 0.1645679 -0.24280301
-0.19082478 0.16464394 -0.24280718
-0.19082186 0.16471988 -0.24280538
-0.19081885 0.16479585 -0.24280557
-0.19081573 0.16487186 -0.24280775
-0.19081274 0.16494977 -0.2428059
-0.19081002 0.16502561 -0.24280009
-0.19080701 0.16510157 -0.24280028
-0.1908043 0.16517936 -0.24279243
-0.19080159 0.16525519 -0.24278663
-0.19079851 0.16533315 -0.24278677
-0.19079548 0.16540912 -0.24278696
-0.19079286 0.16548492 -0.24277915
-0.19079007 0.16556275 -0.24277331
-0.19078705 0.16563872 -0.2427735
-0.19078416 0.16571659 -0.24276964
-0.19078162 0.16579235 -0.24275984
-0.19077872 0.16586827 -0.24275804
-0.19077583 0.16594614 -0.24275418
-0.19077319 0.16602193 -0.24274638
-0.19076991 0.16609998 -0.24275051
-0.1907666 0.16617608 -0.24275669
-0.1907634 0.16625214 -0.24276087
-0.19076049 0.16632806 -0.24275905
-0.19075727 0.16640411 -0.24276325
-0.19075449 0.16648194 -0.24275739
-0.19075176 0.16655777 -0.2427516
-0.19074884 0.1666337 -0.24274978
-0.19074605 0.16671154 -0.24274394
-0.19074333 0.16678737 -0.24273813
-0.19074032 0.16686334 -0.24273831
-0.19073731 0.1669393 -0.2427385
-0.19073431 0.16701722 -0.24273664
-0.19073139 0.16709314 -0.24273483
-0.19072838 0.16716911 -0.24273503
-0.19072549 0.16724698 -0.24273117
-0.19072296 0.16732274 -0.24272138
-0.19072005 0.16739866 -0.24271956
-0.19071667 0.16747676 -0.2427257
-0.19071394 0.16755259 -0.24271989
-0.19071123 0.16762842 -0.24271408
-0.1907084 0.1677043 -0.24271028
-0.190706 0.16778195 -0.24269643
-0.19070308 0.16785789 -0.24269462
-0.19069977 0.16793397 -0.24270082
-0.19069679 0.1680119 -0.24269895
-0.19069397 0.16808778 -0.24269515
-0.19069134 0.16816357 -0.24268734
-0.19068836 0.16824149 -0.24268548
-0.19068494 0.16831763 -0.24269366
-0.19068213 0.16839351 -0.24268985
-0.19067931 0.16846938 -0.24268606
-0.19067641 0.16854531 -0.24268425
-0.19067369 0.1686231 -0.24267639
-0.19067088 0.16869898 -0.24267259
-0.19066769 0.16877699 -0.24267472
-0.19066498 0.16885282 -0.24266893
-0.19066244 0.16892856 -0.24265912
-0.19065955 0.16900644 -0.24265528
-0.19065663 0.16908237 -0.24265346
-0.19065353 0.16915837 -0.24265565
-0.19065061 0.16923431 -0.24265385
-0.19064769 0.16931023 -0.24265203
-0.1906448 0.1693881 -0.24264817
-0.19064188 0.16946402 -0.24264637
-0.19063887 0.16953999 -0.24264655
-0.19063607 0.16961782 -0.2426407
-0.19063306 0.16969378 -0.24264088
-0.19062996 0.16976979 -0.24264307
-0.19062713 0.16984567 -0.24263927
-0.19062424 0.16992356 -0.2426354
-0.19062161 0.16999935 -0.24262762
-0.19061908 0.17007509 -0.24261782
-0.1906161 0.17015301 -0.24261595
-0.19061299 0.17022902 -0.24261814
-0.19061045 0.17030476 -0.24260834
-0.19060764 0.17038065 -0.24260454
-0.19060415 0.17045683 -0.24261472
-0.19060057 0.17053501 -0.24262483
-0.19059785 0.17061085 -0.24261904
-0.19059572 0.17068642 -0.24260125
-0.19059309 0.17076221 -0.24259344
-0.19058971 0.17084031 -0.24259958
-0.1905866 0.17091632 -0.24260175
-0.19058378 0.1709922 -0.24259797
-0.19058128 0.17106991 -0.24258611
-0.19057913 0.17114547 -0.24256833
-0.19057651 0.17122126 -0.24256054
-0.19057369 0.17129713 -0.24255672
-0.19057097 0.17137298 -0.24255091
-0.19056816 0.17145081 -0.24254507
-0.19056554 0.1715266 -0.24253726
-0.19056302 0.17160234 -0.24252746
-0.19056052 0.17168005 -0.24251562
-0.19055769 0.17175592 -0.24251181
-0.19055362 0.17183237 -0.24253398
-0.19054992 0.17190865 -0.24254814
-0.19054797 0.17198414 -0.24252635
-0.19054605 0.17206156 -0.24250254
-0.19054334 0.17213741 -0.24249673
-0.19054031 0.17221338 -0.24249691
-0.19053711 0.17228943 -0.24250109
-0.19053411 0.17236735 -0.24249923
-0.19053082 0.17244345 -0.24250543
-0.19052732 0.17251962 -0.24251559
-0.19052404 0.17259768 -0.24251974
-0.19052112 0.1726736 -0.24251792
-0.1905185 0.1727494 -0.24251013
-0.19051616 0.17282505 -0.24249633
-0.19051364 0.1729008 -0.24248654
-0.19051084 0.17297864 -0.24248067
-0.19050792 0.17305456 -0.24247888
-0.19050501 0.17313048 -0.24247706
-0.1905022 0.17320636 -0.24247324
-0.19049889 0.17328246 -0.24247944
-0.19049561 0.17336051 -0.24248356
-0.1904923 0.17343661 -0.24248976
-0.19048852 0.17351292 -0.24250591
-0.19048513 0.17359102 -0.24251205
-0.19048221 0.17366694 -0.24251023
-0.19047882 0.17374308 -0.2425184
-0.19047542 0.17381923 -0.24252659
-0.19047308 0.17389488 -0.24251279
-0.19047087 0.17397246 -0.24249497
-0.19046824 0.17404824 -0.24248716
-0.19046561 0.17412403 -0.24247935
-0.19046251 0.17420004 -0.24248154
-0.19045922 0.1742781 -0.24248567
-0.19045632 0.17435402 -0.24248387
-0.19045359 0.17442985 -0.24247807
-0.19045059 0.17450778 -0.2424762
-0.19044788 0.17458361 -0.2424704
-0.19044515 0.17465945 -0.2424646
-0.19044185 0.17473555 -0.24247077
-0.19043826 0.17481177 -0.24248295
-0.19043536 0.17488965 -0.2424791
-0.19043294 0.17496535 -0.24246731
-0.19042982 0.17504136 -0.24246949
-0.19042654 0.17511941 -0.24247363
-0.19042411 0.17519511 -0.24246183
-0.1904213 0.17527099 -0.24245802
-0.19041789 0.17534713 -0.24246618
-0.19041488 0.1754231 -0.24246639
-0.19041209 0.17550093 -0.24246053
-0.19040926 0.17557682 -0.24245673
-0.19040664 0.17565261 -0.24244893
-0.19040363 0.17572857 -0.2424491
-0.19040024 0.17580667 -0.24245524
-0.19039743 0.17588255 -0.24245143
-0.190395 0.17595825 -0.24243964
-0.19039181 0.17603625 -0.24244177
-0.19038852 0.17611235 -0.24244796
-0.19038549 0.17618832 -0.24244815
-0.19038267 0.1762642 -0.24244434
-0.19038016 0.17633995 -0.24243455
-0.19037735 0.17641778 -0.24242869
-0.19037454 0.17649366 -0.24242488
-0.19037162 0.17656958 -0.24242307
-0.19036853 0.17664754 -0.24242321
-0.19036552 0.17672351 -0.2424234
-0.19036271 0.17679939 -0.2424196
-0.19035949 0.17687544 -0.24242377
-0.19035602 0.17695358 -0.24243191
-0.19035378 0.17702921 -0.24241611
-0.19035116 0.17710499 -0.24240832
-0.19034815 0.17718096 -0.24240851
-0.19034526 0.17725883 -0.24240465
-0.19034234 0.17733476 -0.24240285
-0.19033884 0.17741095 -0.24241301
-0.1903342 0.17748961 -0.24244511
-0.19032878 0.17756863 -0.24249318
-0.19032192 0.17765026 -0.24256918
-0.19031583 0.17772958 -0.24263123
-0.19031119 0.17780824 -0.24266332
-0.19030318 0.17789041 -0.24276327
-0.19029845 0.17797107 -0.24279532
-0.19146118 0.14795704 -0.24330668
-0.19145776 0.14803122 -0.2433169
-0.19145417 0.14810745 -0.24332908
