# .PCD v0.7 - Point Cloud Data file format
VERSION 0.7
FIELDS x y z
SIZE 4 4 4
TYPE F F F
COUNT 1 1 1
WIDTH 1339
HEIGHT 1
VIEWPOINT 0 0 0 1 0 0 0
POINTS 1339
DATA ascii
0.0012680714 0.099783398 -0.23518413
0.0012711792 0.099859409 -0.23518631
0.0012750637 0.09993577 -0.23520446
0.0012787741 0.10001009 -0.23522067
0.0012818822 0.1000861 -0.23522288
0.0012845816 0.10016389 -0.23521501
0.0012870871 0.10024159 -0.23520318
0.0012896694 0.10032129 -0.23519129
0.0012925833 0.10039721 -0.23518947
0.0012956709 0.10047518 -0.23518962
0.0012984679 0.10055301 -0.23518376
0.0013010905 0.1006288 -0.23517595
0.0013041783 0.10070676 -0.2351761
0.0013073832 0.10078282 -0.23518029
0.0013100829 0.10086061 -0.23517244
0.0013125679 0.10094026 -0.23515853
0.0013152878 0.1010161 -0.23515274
0.0013183758 0.10109406 -0.23515287
0.0013215807 0.10117012 -0.23515706
0.0013250769 0.1012463 -0.23516724
0.0013282818 0.10132235 -0.23517141
0.0013313899 0.10139836 -0.2351736
0.0013342833 0.10147624 -0.23516974
0.0013370798 0.10155407 -0.2351639
0.0013397594 0.10163382 -0.235154
0.0013422852 0.10170957 -0.2351442
0.0013454698 0.10178757 -0.23514634
0.0013485779 0.10186359 -0.23514852
0.0013513744 0.10194141 -0.23514268
0.0013545593 0.10201942 -0.23514481
0.0013575701 0.1020954 -0.235145
0.0013604639 0.10217327 -0.23514114
0.0013634746 0.10224923 -0.23514134
0.0013663685 0.10232711 -0.23513748
0.001369165 0.10240494 -0.23513162
0.0013720584 0.10248282 -0.23512776
0.0013747783 0.10255866 -0.23512197
0.0013776722 0.10263653 -0.23511811
0.0013807802 0.10271254 -0.2351203
0.0013836534 0.10279237 -0.2351144
0.0013864706 0.10286825 -0.23511058
0.0013896755 0.10294431 -0.23511477
0.0013927631 0.10302227 -0.2351149
0.0013953659 0.10310002 -0.23510507
0.0013980651 0.10317781 -0.2350972
0.0014010558 0.10325573 -0.23509535
0.0014038729 0.1033316 -0.23509155
0.0014066694 0.10340944 -0.2350857
0.0014093691 0.10348722 -0.23507786
0.0014120683 0.10356501 -0.23506999
0.0014152532 0.10364302 -0.23507214
0.0014186727 0.10371721 -0.23508236
0.0014217603 0.10379517 -0.23508249
0.0014245568 0.10387301 -0.23507664
0.0014273538 0.10395084 -0.23507079
0.0014301706 0.10402672 -0.23506698
0.0014330642 0.10410459 -0.23506314
0.0014360549 0.10418251 -0.23506127
0.0014390657 0.10425849 -0.23506147
0.0014421537 0.10433645 -0.2350616
0.0014451644 0.10441241 -0.23506179
0.0014481754 0.10448838 -0.23506197
0.001451049 0.10456821 -0.23505607
0.0014535747 0.10464396 -0.23504628
0.0014564679 0.10472184 -0.23504242
0.0014592651 0.10479967 -0.23503658
0.0014621583 0.10487755 -0.23503271
0.0014654608 0.10495364 -0.23503891
0.0014687628 0.10502974 -0.23504508
0.0014717532 0.10510766 -0.23504323
0.0014743758 0.10518345 -0.23503542
0.0014770757 0.10526124 -0.23502757
0.001479872 0.10533907 -0.23502171
0.0014826688 0.10541691 -0.23501587
0.001485154 0.10549656 -0.23500198
0.0014876798 0.10557231 -0.23499218
0.0014906707 0.10565023 -0.23499033
0.0014938754 0.10572628 -0.2349945
0.0014967695 0.10580416 -0.23499066
0.0014995658 0.10588199 -0.23498479
0.0015023826 0.10595787 -0.23498099
0.0015052762 0.10603575 -0.23497713
0.001508364 0.10611371 -0.23497728
0.0015114718 0.10618972 -0.23497945
0.0015148711 0.10626587 -0.23498763
0.0015179589 0.10634383 -0.23498777
0.0015206789 0.10641966 -0.23498197
0.001523281 0.10649741 -0.23497212
0.0015256694 0.10657702 -0.23495623
0.0015279809 0.10665463 -0.23494041
0.0015303898 0.10673229 -0.23492657
0.0015332829 0.10681017 -0.23492271
0.0015364881 0.10688622 -0.23492688
0.0015397901 0.10696232 -0.23493306
0.0015429747 0.10704032 -0.23493519
0.0015458888 0.10711624 -0.23493339
0.0015485883 0.10719404 -0.23492554
0.0015512877 0.10727183 -0.2349177
0.0015540081 0.10734766 -0.23491189
0.0015571923 0.10742567 -0.23491403
0.0015603006 0.10750168 -0.23491621
0.0015630969 0.10757951 -0.23491035
0.0015657968 0.1076573 -0.2349025
0.0015684199 0.10773309 -0.23489472
0.0015716045 0.1078111 -0.23489685
0.0015746155 0.10788707 -0.23489703
0.0015773149 0.10796486 -0.23488918
0.0015804232 0.10804087 -0.23489137
0.0015836079 0.10811888 -0.2348935
0.0015864042 0.10819671 -0.23488766
0.0015890268 0.1082725 -0.23487985
0.0015916298 0.10835025 -0.23487002
0.0015943293 0.10842803 -0.23486215
0.0015973402 0.108504 -0.23486236
0.0016008364 0.10858019 -0.23487252
0.0016040211 0.10865819 -0.23487467
0.001606741 0.10873403 -0.23486885
0.0016092462 0.10881173 -0.23485701
0.0016121403 0.1088896 -0.23485315
0.0016156361 0.10896579 -0.23486333
0.0016185502 0.10904171 -0.23486152
0.0016212496 0.1091195 -0.23485367
0.0016242405 0.10919742 -0.23485181
0.0016268636 0.10927321 -0.23484401
0.0016296599 0.10935105 -0.23483816
0.0016328651 0.1094271 -0.23484233
0.0016357587 0.10950498 -0.23483849
0.0016383613 0.10958272 -0.23482865
0.0016413722 0.10965869 -0.23482883
0.0016443632 0.10973661 -0.23482698
0.0016469653 0.10981435 -0.23481712
0.0016498794 0.10989027 -0.23481531
0.0016533751 0.10996646 -0.23482549
0.001656366 0.11004438 -0.23482363
0.0016587744 0.11012204 -0.23480979
0.0016613975 0.11019783 -0.23480198
0.0016646027 0.11027388 -0.23480618
0.0016679815 0.11035198 -0.2348123
0.0016708956 0.1104279 -0.2348105
0.0016737888 0.11050578 -0.23480663
0.0016768971 0.11058179 -0.23480883
0.0016794992 0.11065954 -0.23479897
0.0016820049 0.11073723 -0.23478714
0.0016848221 0.11081312 -0.23478332
0.0016877153 0.11089099 -0.23477948
0.0016905325 0.11096687 -0.23477566
0.001693232 0.11104466 -0.23476781
0.0016960287 0.11112249 -0.23476197
0.0016990397 0.11119846 -0.23476216
0.0017023417 0.11127456 -0.23476833
0.0017055469 0.11135061 -0.2347725
0.0017085373 0.11142853 -0.23477066
0.0017112573 0.11150437 -0.23476484
0.0017140536 0.1115822 -0.234759
0.0017169677 0.11165813 -0.23475718
0.0017202497 0.11173617 -0.23476133
0.0017229696 0.11181201 -0.23475552
0.0017255722 0.11188976 -0.23474568
0.00172868 0.11196576 -0.23474786
0.0017320793 0.11204191 -0.23475602
0.0017348756 0.11211973 -0.23475018
0.0017374987 0.11219553 -0.23474237
0.0017405865 0.11227349 -0.23474252
0.0017433059 0.11234933 -0.23473671
0.0017458117 0.11242703 -0.23472488
0.0017487053 0.11250491 -0.23472102
0.0017518136 0.11258092 -0.23472321
0.0017549214 0.11265693 -0.23472539
0.0017580092 0.11273489 -0.23472553
0.0017609233 0.11281081 -0.23472372
0.0017639138 0.11288874 -0.23472187
0.0017666337 0.11296457 -0.23471606
0.0017693331 0.11304235 -0.2347082
0.0017721499 0.11311824 -0.23470441
0.001775044 0.11319611 -0.23470055
0.0017778603 0.11327199 -0.23469673
0.0017810659 0.11334804 -0.23470092
0.0017841533 0.11342601 -0.23470107
0.0017869705 0.11350189 -0.23469725
0.0017898637 0.11357976 -0.23469339
0.0017922926 0.11365547 -0.23468161
0.0017949925 0.11373326 -0.23467375
0.0017977124 0.11380909 -0.23466796
0.0018001208 0.11388675 -0.2346541
0.0018028202 0.11396454 -0.23464626
0.0018062196 0.11404068 -0.23465443
0.0018098331 0.11411496 -0.23466864
0.0018131146 0.11419301 -0.23467278
0.0018158345 0.11426885 -0.23466697
0.0018187282 0.11434672 -0.23466313
0.001821545 0.1144226 -0.23465931
0.0018242449 0.11450039 -0.23465148
0.0018270616 0.11457627 -0.23464766
0.0018300726 0.11465223 -0.23464784
0.0018328694 0.11473007 -0.234642
0.001835783 0.11480599 -0.23464018
0.001838774 0.11488391 -0.23463833
0.0018412997 0.11495966 -0.23462853
0.0018439023 0.1150374 -0.23461869
0.0018470106 0.11511341 -0.23462087
0.0018504094 0.11518955 -0.23462905
0.0018535177 0.11526556 -0.23463124
0.001856023 0.11534327 -0.23461938
0.0018583345 0.11542088 -0.23460355
0.0018612482 0.1154968 -0.23460174
0.0018644538 0.11557285 -0.23460592
0.0018670559 0.1156506 -0.23459607
0.0018696585 0.11572834 -0.23458624
0.0018724757 0.11580423 -0.23458242
0.0018755835 0.11588024 -0.23458461
0.0018787887 0.11595628 -0.2345888
0.001881294 0.11603399 -0.23457694
0.0018828292 0.11611125 -0.23454514
0.0018850439 0.11618882 -0.23452729
0.0018888311 0.11626514 -0.23454347
0.0018931236 0.11633972 -0.23457167
0.0018962314 0.11641573 -0.23457384
0.0018989313 0.11649352 -0.234566
0.0019020396 0.11656953 -0.23456818
0.0019054385 0.11664567 -0.23457636
0.0019085258 0.11672363 -0.23457649
0.0019106637 0.11679921 -0.2345587
0.0019125873 0.11687665 -0.23453489
0.0019141221 0.11695391 -0.23450306
0.0019164337 0.11703152 -0.23448724
0.0019206293 0.11710606 -0.23451343
0.0019249022 0.1171826 -0.23453958
0.0019282037 0.1172587 -0.23454575
0.0019311178 0.11733462 -0.23454395
0.0019338173 0.1174124 -0.2345361
0.001936343 0.11748815 -0.23452631
0.0019389461 0.1175659 -0.23451646
0.0019417629 0.11764178 -0.23451264
0.0019442886 0.11771753 -0.23450285
0.001946406 0.11779505 -0.234483
0.0019494169 0.11787102 -0.23448321
0.0019536894 0.11794756 -0.23450935
0.001957865 0.11802404 -0.23453352
0.0019604675 0.11810179 -0.23452365
0.0019629933 0.11817754 -0.23451386
0.0019659069 0.11825346 -0.23451206
0.0019688979 0.11833138 -0.23451018
0.0019704532 0.11840669 -0.23448043
0.0019717948 0.11848386 -0.23444462
0.0019750763 0.11856192 -0.23444876
0.0019790777 0.11863637 -0.23447096
0.0019819718 0.11871424 -0.2344671
0.0019842065 0.11878986 -0.23445131
0.0019863239 0.11886738 -0.23443148
0.0019878792 0.11894269 -0.2344017
0.0019905786 0.11902048 -0.23439386
0.0019947542 0.11909697 -0.234418
0.0019990266 0.11917351 -0.23444417
0.0020025228 0.11924969 -0.23445433
0.0020058244 0.11932579 -0.2344605
0.0020083506 0.11940154 -0.23445073
0.0020104679 0.11947907 -0.23443088
0.0020129937 0.11955482 -0.23442107
0.0020159078 0.11963074 -0.23441929
0.0020188014 0.11970861 -0.23441543
0.0020218124 0.11978458 -0.23441561
0.0020248233 0.11986054 -0.2344158
0.0020283964 0.11993873 -0.23442592
0.0020316984 0.12001483 -0.2344321
0.0020343214 0.12009062 -0.23442429
0.002036944 0.12016641 -0.23441648
0.0020397613 0.12024229 -0.2344127
0.0020417813 0.12031977 -0.23439085
0.0020429492 0.1203949 -0.2343531
0.0020454545 0.1204726 -0.23434126
0.0020495327 0.12054905 -0.23436342
0.002053902 0.12062564 -0.23439157
0.0020573982 0.12070182 -0.23440173
0.0020598066 0.12077948 -0.2343879
0.0020610713 0.12085465 -0.23435214
0.0020624329 0.12092987 -0.23431838
0.0020653261 0.12100775 -0.23431452
0.0020688223 0.12108394 -0.23432469
0.0020714453 0.12115972 -0.23431689
0.002074339 0.12123761 -0.23431304
0.002077641 0.12131371 -0.23431921
0.0020809434 0.1213898 -0.23432539
0.0020846333 0.12146608 -0.23433957
0.0020879353 0.12154217 -0.23434573
0.0020905379 0.12161992 -0.2343359
0.0020929668 0.12169562 -0.2343241
0.0020954926 0.12177137 -0.23431429
0.0020979983 0.12184907 -0.23430246
0.0020993594 0.12192429 -0.2342687
0.002101012 0.12199964 -0.23424092
0.0021036351 0.12207543 -0.23423311
0.0021074992 0.12215374 -0.23424923
0.0021121595 0.12223046 -0.23428337
0.0021158494 0.12230673 -0.23429754
0.0021182583 0.12238439 -0.2342837
0.0021202988 0.12245992 -0.23426391
0.0021227277 0.12253562 -0.23425213
0.0021264181 0.1226119 -0.23426628
0.0021300111 0.12268812 -0.23427846
0.0021328074 0.12276596 -0.2342726
0.0021354305 0.12284175 -0.23426481
0.0021386356 0.1229178 -0.23426899
0.0021417234 0.12299576 -0.23426913
0.0021435698 0.12307121 -0.23424534
0.0021459986 0.12314691 -0.23423356
0.0021501742 0.1232234 -0.2342577
0.0021536704 0.12329959 -0.23426788
0.0021559815 0.1233772 -0.23425204
0.0021593808 0.12345334 -0.23426022
0.002163827 0.12353192 -0.23428832
0.0021665469 0.12360775 -0.23428252
0.0021680053 0.12368302 -0.23425074
0.0021698521 0.12375847 -0.23422697
0.0021724747 0.12383425 -0.23421916
0.0021752715 0.12391209 -0.23421331
0.0021775062 0.1239877 -0.23419753
0.0021799351 0.1240634 -0.23418573
0.002182655 0.12413924 -0.23417991
0.0021864423 0.12421556 -0.2341961
0.0021906942 0.12429405 -0.23422019
0.0021931231 0.12436975 -0.23420841
0.0021945816 0.12444501 -0.23417664
0.0021967194 0.12452058 -0.23415884
0.0021994393 0.12459642 -0.23415303
0.002202624 0.12467443 -0.23415518
0.0022052466 0.12475022 -0.23414737
0.002207967 0.12482606 -0.23414157
0.0022121216 0.12490451 -0.23416367
0.0022167824 0.12498122 -0.23419783
0.0022201608 0.12505931 -0.23420395
0.0022219312 0.12513275 -0.23418021
0.0022236803 0.12520815 -0.23415443
0.0022260891 0.1252858 -0.2341406
0.0022287117 0.12536159 -0.2341328
0.0022310438 0.12543726 -0.23411901
0.0022339579 0.12551318 -0.23411721
0.0022380156 0.12559158 -0.23413731
0.0022425791 0.12566826 -0.23416945
0.002245958 0.12574634 -0.23417559
0.0022477075 0.12582174 -0.23414981
0.0022496511 0.12589723 -0.23412803
0.00225208 0.12597293 -0.23411623
0.0022547999 0.12604876 -0.23411043
0.0022578109 0.12612472 -0.23411062
0.0022605103 0.12620252 -0.23410276
0.0022624545 0.126278 -0.23408099
0.0022648065 0.12635171 -0.23406923
0.002269058 0.1264302 -0.23409334
0.0022746688 0.12650931 -0.2341454
0.0022786297 0.12658766 -0.23416352
0.0022810586 0.12666337 -0.23415172
0.0022832933 0.12673898 -0.23413593
0.0022862074 0.1268149 -0.23413412
0.0022892952 0.12689286 -0.23413427
0.0022918209 0.12696862 -0.23412447
0.0022937646 0.1270441 -0.2341027
0.002294952 0.12711728 -0.23406696
0.0022971667 0.12719485 -0.23404914
0.0023016334 0.12727147 -0.23407929
0.0023072232 0.12735254 -0.23412931
0.0023112046 0.12742893 -0.23414946
0.0023134393 0.12750456 -0.23413368
0.0023152861 0.12757999 -0.23410989
0.0023181029 0.12765586 -0.23410609
0.0023209965 0.12773375 -0.23410223
0.0023230575 0.12780732 -0.23408449
0.0023262422 0.12788533 -0.23408663
0.0023291563 0.12796125 -0.23408481
0.0023310999 0.12803674 -0.23406303
0.0023334315 0.12811239 -0.23404925
0.0023362488 0.12818827 -0.23404545
0.0023399186 0.1282665 -0.23405756
0.0023430265 0.12834251 -0.23405975
0.0023449701 0.128418 -0.23403797
0.0023476901 0.12849383 -0.23403215
0.0023517483 0.12857224 -0.23405227
0.002355244 0.12864842 -0.23406245
0.0023580408 0.12872626 -0.23405659
0.0023603728 0.12880191 -0.23404279
0.0023626075 0.12887752 -0.23402701
0.0023655216 0.12895346 -0.23402521
0.0023693852 0.12903176 -0.23404133
0.0023728814 0.12910795 -0.2340515
0.0023767455 0.12918627 -0.23406762
0.002380318 0.12926444 -0.23407774
0.0023828438 0.1293402 -0.23406795
0.0023854668 0.12941599 -0.23406014
0.0023888662 0.12949213 -0.2340683
0.0023915651 0.12956992 -0.23406047
0.0023932382 0.12964332 -0.23403473
0.0023958613 0.12971911 -0.23402694
0.0023987549 0.12979698 -0.23402308
0.0024015717 0.12987286 -0.23401928
0.0024047769 0.12994891 -0.23402345
0.0024078647 0.13002688 -0.2340236
0.0024103904 0.13010263 -0.2340138
0.0024129162 0.13017838 -0.23400399
0.0024159276 0.13025434 -0.23400418
0.0024197912 0.13033266 -0.23402029
0.0024233637 0.13041084 -0.23403043
0.002426472 0.13048685 -0.2340326
0.0024288041 0.13056251 -0.23401882
0.0024310388 0.13063812 -0.23400304
0.0024332735 0.13071375 -0.23398724
0.0024357024 0.13078944 -0.23397544
0.0024391781 0.13086759 -0.23398358
0.0024428684 0.13094386 -0.23399773
0.0024459558 0.13102183 -0.23399788
0.002448482 0.13109757 -0.23398808
0.0024509104 0.13117327 -0.23397627
0.0024542124 0.13124937 -0.23398246
0.0024574948 0.13132742 -0.2339866
0.0024605053 0.13140339 -0.23398679
0.0024637869 0.13148144 -0.23399091
0.0024668952 0.13155745 -0.2339931
0.0024696151 0.13163328 -0.2339873
0.0024727029 0.13171124 -0.23398745
0.0024758112 0.13178726 -0.23398963
0.0024789954 0.13186526 -0.23399176
0.0024821032 0.13194127 -0.23399395
0.0024854825 0.13201937 -0.23400007
0.0024883961 0.13209529 -0.23399827
0.0024903403 0.13217078 -0.23397648
0.0024920129 0.13224418 -0.23395075
0.0024947124 0.13232197 -0.2339429
0.0024983054 0.1323982 -0.23395509
0.0025017811 0.13247634 -0.23396321
0.0025045015 0.13255218 -0.23395741
0.0025069299 0.13262787 -0.23394561
0.0025097267 0.1327057 -0.23393975
0.0025129318 0.13278176 -0.23394394
0.0025164075 0.1328599 -0.23395208
0.0025196127 0.13293596 -0.23395625
0.0025226031 0.13301387 -0.23395438
0.0025253231 0.13308971 -0.23394859
0.0025284314 0.13316572 -0.23395076
0.0025315192 0.13324368 -0.23395091
0.0025337539 0.1333193 -0.23393512
0.0025359117 0.13339292 -0.23391938
0.0025389027 0.13347083 -0.23391752
0.0025422042 0.13354693 -0.2339237
0.0025456804 0.13362508 -0.23393184
0.0025487682 0.13370304 -0.23393196
0.0025514876 0.13377887 -0.23392616
0.0025542076 0.13385472 -0.23392037
0.0025570248 0.13393059 -0.23391655
0.0025599389 0.13400652 -0.23391473
0.0025630263 0.13408448 -0.23391488
0.002566502 0.13416262 -0.233923
0.0025695134 0.13423859 -0.2339232
0.002572136 0.13431437 -0.23391539
0.0025747591 0.13439016 -0.2339076
0.0025774585 0.13446796 -0.23389974
0.0025799843 0.1345437 -0.23388994
0.00258251 0.13461944 -0.23388015
0.0025852304 0.13469529 -0.23387435
0.0025887061 0.13477342 -0.23388247
0.0025927639 0.13485183 -0.23390259
0.0025966275 0.13493015 -0.2339187
0.0025996184 0.13500807 -0.23391685
0.0026021446 0.13508381 -0.23390704
0.0026048641 0.13515964 -0.23390123
0.0026070019 0.13523522 -0.23388344
0.0026094308 0.13531092 -0.23387165
0.0026123445 0.13538684 -0.23386985
0.0026153354 0.13546476 -0.23386799
0.0026184432 0.13554077 -0.23387018
0.0026214342 0.13561869 -0.23386832
0.0026240572 0.13569449 -0.23386052
0.0026271651 0.1357705 -0.2338627
0.0026304466 0.13584855 -0.23386684
0.0026334575 0.13592452 -0.23386702
0.0026362543 0.13600235 -0.23386118
0.0026386064 0.13607605 -0.23384942
0.0026415 0.13615392 -0.23384556
0.0026446083 0.13622993 -0.23384775
0.0026473282 0.13630578 -0.23384196
0.0026498334 0.13638347 -0.23383011
0.0026527476 0.1364594 -0.23382831
0.002655738 0.13653731 -0.23382644
0.002658458 0.13661315 -0.23382065
0.0026614689 0.13668913 -0.23382083
0.0026647509 0.13676718 -0.23382497
0.0026675677 0.13684306 -0.23382115
0.0026704613 0.13692093 -0.23381729
0.0026732781 0.13699681 -0.23381349
0.0026760953 0.13707268 -0.23380968
0.00267928 0.13715069 -0.23381183
0.0026819999 0.13722652 -0.23380601
0.0026848167 0.1373024 -0.2338022
0.0026875371 0.13737825 -0.2337964
0.0026902361 0.13745603 -0.23378855
0.0026932475 0.137532 -0.23378874
0.002696258 0.13760796 -0.23378894
0.002699249 0.13768588 -0.23378706
0.0027022599 0.13776185 -0.23378727
0.0027054446 0.13783985 -0.23378938
0.0027082614 0.13791573 -0.2337856
0.0027112523 0.13799366 -0.23378372
0.0027143396 0.13807163 -0.23378387
0.0027173511 0.13814759 -0.23378405
0.0027203416 0.13822551 -0.2337822
0.0027230615 0.13830134 -0.23377639
0.0027257814 0.13837717 -0.23377059
0.002728695 0.1384531 -0.23376879
0.0027314918 0.13853094 -0.23376292
0.0027343091 0.13860682 -0.23375914
0.0027374937 0.13868482 -0.23376127
0.0027406984 0.13876086 -0.23376545
0.0027439804 0.13883892 -0.23376957
0.0027469709 0.13891685 -0.23376772
0.0027497881 0.13899273 -0.2337639
0.0027523139 0.13906847 -0.23375411
0.0027551311 0.13914435 -0.23375031
0.0027583158 0.13922235 -0.23375244
0.0027611325 0.13929823 -0.23374864
0.0027639288 0.13937607 -0.23374277
0.0027669403 0.13945204 -0.23374298
0.0027695629 0.13952783 -0.23373517
0.0027720886 0.13960357 -0.23372537
0.0027751764 0.13968153 -0.23372552
0.0027780905 0.13975745 -0.2337237
0.0027811779 0.13983542 -0.23372385
0.0027841888 0.13991138 -0.23372403
0.0027868887 0.13998918 -0.23371619
0.0027896087 0.14006501 -0.23371038
0.0027922313 0.1401408 -0.23370257
0.0027952422 0.14021677 -0.23370276
0.0027989121 0.140295 -0.23371488
0.0028020968 0.14037301 -0.23371702
0.002804623 0.14044875 -0.23370722
0.0028077103 0.14052673 -0.23370737
0.0028105276 0.1406026 -0.23370355
0.0028130533 0.14067835 -0.23369375
0.0028161411 0.14075631 -0.2336939
0.0028192489 0.14083232 -0.23369609
0.0028222399 0.14091024 -0.23369423
0.0028254241 0.14098825 -0.23369636
0.0028282413 0.14106412 -0.23369256
0.0028307671 0.14113988 -0.23368275
0.0028333901 0.14121567 -0.23367496
0.0028362838 0.14129354 -0.2336711
0.0028391979 0.14136946 -0.2336693
0.0028424026 0.14144552 -0.23367348
0.0028458582 0.14152561 -0.23367956
0.002848675 0.14160149 -0.23367575
0.0028511039 0.1416772 -0.23366395
0.0028539211 0.14175308 -0.23366016
0.0028572027 0.14183113 -0.23366427
0.0028604842 0.14190918 -0.23366842
0.0028632041 0.14198501 -0.23366261
0.0028660977 0.14206289 -0.23365876
0.0028688177 0.14213872 -0.23365295
0.0028716349 0.1422146 -0.23364915
0.0028744517 0.14229049 -0.23364533
0.0028776363 0.1423685 -0.23364747
0.0028806268 0.14244641 -0.23364562
0.0028830762 0.14252016 -0.23363587
0.0028859698 0.14259803 -0.23363201
0.0028887866 0.14267391 -0.23362821
0.0028915065 0.14274976 -0.2336224
0.0028945943 0.14282772 -0.23362255
0.0028982642 0.14290594 -0.23363467
0.002901643 0.14298403 -0.23364079
0.0029040719 0.14305975 -0.233629
0.0029064035 0.1431354 -0.2336152
0.0029090266 0.14321119 -0.23360741
0.0029120375 0.14328715 -0.23360759
0.0029155132 0.14336529 -0.23361573
0.002918601 0.14344326 -0.23361586
0.0029218826 0.14352131 -0.23361999
0.0029246025 0.14359716 -0.23361419
0.0029270314 0.14367285 -0.2336024
0.0029300423 0.14374882 -0.23360258
0.0029334007 0.14382887 -0.23360667
0.0029363148 0.14390479 -0.23360486
0.0029385495 0.14398041 -0.23358908
0.0029405137 0.14405394 -0.23356934
0.0029436215 0.14412995 -0.23357153
0.0029472709 0.14421013 -0.2335816
0.0029506497 0.14428823 -0.23358773
0.0029534665 0.1443641 -0.23358393
0.0029567485 0.14444216 -0.23358805
0.00296003 0.14452021 -0.23359218
0.0029627499 0.14459604 -0.23358637
0.0029654698 0.14467187 -0.23358057
0.0029686545 0.14474988 -0.23358271
0.0029714718 0.14482576 -0.23357892
0.0029741917 0.1449016 -0.23357311
0.0029768148 0.14497739 -0.2335653
0.0029791463 0.14505304 -0.2335515
0.0029822337 0.14513101 -0.23355165
0.0029852451 0.14520697 -0.23355183
0.0029883324 0.14528495 -0.23355198
0.0029914407 0.14536095 -0.23355415
0.0029946254 0.14543897 -0.2335563
0.0029974217 0.1455168 -0.23355044
0.0030004331 0.14559276 -0.23355064
0.0030040056 0.14567095 -0.23356076
0.0030065314 0.14574669 -0.23355097
0.0030089603 0.14582239 -0.23353916
0.0030121449 0.1459004 -0.23354131
0.0030159121 0.14597867 -0.23355544
0.0030189026 0.14605659 -0.23355356
0.0030208668 0.14613013 -0.23353383
0.0030237809 0.14620605 -0.23353201
0.0030270624 0.1462841 -0.23353615
0.0030300529 0.14636202 -0.23353431
0.0030331612 0.14643803 -0.23353648
0.0030361516 0.14651595 -0.23353463
0.0030388716 0.14659178 -0.23352882
0.0030421531 0.14666983 -0.23353295
0.0030455319 0.14674793 -0.23353907
0.0011881453 0.097700171 -0.23525295
0.0011912531 0.097776182 -0.23525512
0.0011943611 0.097852193 -0.2352573
0.0011975458 0.0979302 -0.23525944
0.0012004599 0.098006122 -0.23525763
0.0012034504 0.09808404 -0.23525578
0.0012063442 0.098161921 -0.23525193
0.0012088497 0.098239623 -0.23524007
0.0012116462 0.098317452 -0.23523423
0.0012145396 0.098395333 -0.23523037
0.0012172393 0.098473117 -0.23522252
0.0012200559 0.098548993 -0.2352187
0.0012232612 0.098625049 -0.23522291
0.0012264459 0.098703057 -0.23522504
0.0012293598 0.098778978 -0.23522323
0.0012324473 0.098856948 -0.23522337
0.0012354585 0.098932914 -0.23522356
0.0012385459 0.099010877 -0.2352237
0.0012411484 0.099088624 -0.23521385
0.0012434395 0.099168189 -0.23519596
0.0012463536 0.09924411 -0.23519415
0.0012499467 0.099320345 -0.23520634
0.0012529574 0.099396303 -0.23520651
0.0012554629 0.099474013 -0.23519467
0.0012583567 0.099551886 -0.23519081
0.0012613472 0.099629804 -0.23518896
0.0012643582 0.099705771 -0.23518914
0.0012672518 0.099783652 -0.2351853
0.0012703594 0.099859655 -0.23518747
0.0012742439 0.099936023 -0.23520564
0.0012779546 0.10001034 -0.23522185
0.0012809653 0.10008631 -0.23522204
0.001283665 0.10016409 -0.23521419
0.0012862675 0.10024184 -0.23520434
0.0012888496 0.10032154 -0.23519245
0.0012916666 0.10039742 -0.23518865
0.0012947542 0.10047539 -0.23518878
0.0012976478 0.10055326 -0.23518494
0.0013002704 0.10062905 -0.23517713
0.0013032611 0.10070697 -0.23517527
0.0013065634 0.10078306 -0.23518145
0.0013092628 0.10086086 -0.23517361
0.0013117478 0.10094051 -0.23515971
0.0013144678 0.10101635 -0.23515391
0.0013175556 0.10109431 -0.23515406
0.0013208573 0.10117041 -0.23516023
0.0013243535 0.1012466 -0.23517039
0.0013274616 0.10132261 -0.23517258
0.0013305491 0.10140057 -0.23517272
0.0013333661 0.10147645 -0.23516892
0.0013361627 0.10155428 -0.23516306
0.0013388419 0.10163403 -0.23515317
0.0013414442 0.10171177 -0.23514333
0.0013446494 0.10178782 -0.23514751
0.0013476603 0.10186379 -0.23514768
0.0013505539 0.10194167 -0.23514384
0.0013537386 0.10201968 -0.23514599
0.0013566525 0.1020956 -0.23514417
0.0013595461 0.10217348 -0.23514032
0.0013626541 0.10224949 -0.2351425
0.0013654504 0.10232732 -0.23513664
0.001368247 0.10240515 -0.23513079
0.0013711408 0.10248303 -0.23512694
0.0013738405 0.10256082 -0.2351191
0.0013768512 0.10263678 -0.23511928
0.0013799593 0.1027128 -0.23512146
0.0013828324 0.10279262 -0.23511556
0.0013856497 0.1028685 -0.23511176
0.0013887573 0.10294452 -0.23511395
0.0013918451 0.10302248 -0.23511408
0.0013945447 0.10310027 -0.23510623
0.0013972439 0.10317805 -0.23509839
0.0014001376 0.10325593 -0.23509453
0.0014030517 0.10333186 -0.23509273
0.0014058482 0.10340969 -0.23508686
0.0014085476 0.10348748 -0.23507902
0.0014112471 0.10356526 -0.23507117
0.0014144524 0.10364132 -0.23507535
0.0014178513 0.10371746 -0.23508352
0.0014209389 0.10379542 -0.23508367
0.0014237354 0.10387326 -0.23507781
0.0014265322 0.10395109 -0.23507197
0.0014293287 0.10402893 -0.23506612
0.0014322426 0.10410485 -0.2350643
0.001435136 0.10418272 -0.23506045
0.001438244 0.10425873 -0.23506263
0.0014412347 0.10433665 -0.23506078
0.0014442459 0.10441262 -0.23506096
0.0014473335 0.10449059 -0.23506111
0.0014501298 0.10456841 -0.23505525
0.0014527324 0.10464616 -0.2350454
0.001455646 0.10472208 -0.23504359
0.0014584432 0.10479992 -0.23503774
0.0014612395 0.10487776 -0.2350319
0.0014646384 0.10495389 -0.23504007
0.0014679409 0.10502999 -0.23504625
0.0014709313 0.10510791 -0.23504439
0.0014736308 0.1051857 -0.23503654
0.0014762534 0.10526149 -0.23502874
0.0014790501 0.10533933 -0.23502289
0.0014817496 0.10541711 -0.23501503
0.0014842348 0.10549677 -0.23500115
0.0014867601 0.10557251 -0.23499134
0.0014898484 0.10565048 -0.23499149
0.001493053 0.10572653 -0.23499566
0.0014959467 0.10580441 -0.23499182
0.0014987434 0.10588224 -0.23498598
0.0015015602 0.10595812 -0.23498216
0.0015044538 0.106036 -0.23497832
0.0015075412 0.10611396 -0.23497844
0.0015106495 0.10618997 -0.23498063
0.0015139515 0.10626607 -0.23498681
0.0015171361 0.10634408 -0.23498896
0.0015197592 0.10641987 -0.23498115
0.0015223613 0.10649762 -0.2349713
0.0015248465 0.10657727 -0.23495741
0.0015271581 0.10665488 -0.23494157
0.0015295665 0.10673254 -0.23492774
0.0015323632 0.10681038 -0.23492189
0.0015355679 0.10688642 -0.23492607
0.0015389668 0.10696257 -0.23493424
0.0015421519 0.10704058 -0.23493639
0.0015450655 0.1071165 -0.23493457
0.0015476681 0.10719424 -0.23492472
0.0015503676 0.10727204 -0.23491687
0.0015531848 0.10734791 -0.23491308
0.001556369 0.10742592 -0.2349152
0.0015594773 0.10750193 -0.23491739
0.0015621767 0.10757972 -0.23490953
0.0015648766 0.10765751 -0.2349017
0.0015675961 0.10773335 -0.23489588
0.0015707808 0.10781135 -0.23489803
0.0015737917 0.10788732 -0.23489821
0.0015764912 0.1079651 -0.23489037
0.0015795995 0.10804112 -0.23489255
0.0015827841 0.10811913 -0.23489469
0.0015853867 0.10819687 -0.23488483
0.001588203 0.10827275 -0.23488103
0.0015909029 0.10835054 -0.23487318
0.0015935055 0.10842828 -0.23486334
0.0015966133 0.1085043 -0.23486552
0.0015999922 0.10858239 -0.23487166
0.0016031 0.1086584 -0.23487383
0.0016059168 0.10873428 -0.23487002
0.0016084225 0.10881198 -0.23485819
0.0016113161 0.10888986 -0.23485434
0.001614715 0.108966 -0.23486251
0.0016177059 0.10904392 -0.23486066
0.0016204254 0.10911975 -0.23485485
0.0016234163 0.10919768 -0.234853
0.0016260394 0.10927346 -0.23484519
0.0016288357 0.1093513 -0.23483934
0.0016320203 0.10942931 -0.23484147
0.0016348371 0.10950518 -0.23483767
0.0016375366 0.10958298 -0.23482981
0.001640548 0.10965894 -0.23483001
0.0016435385 0.10973686 -0.23482814
0.0016461411 0.10981461 -0.23481831
0.0016490547 0.10989053 -0.23481649
0.001652454 0.10996667 -0.23482466
0.0016554445 0.11004459 -0.23482281
0.0016578529 0.11012225 -0.23480897
0.0016605724 0.11019808 -0.23480317
0.0016638748 0.11027418 -0.23480934
0.0016671568 0.11035223 -0.23481348
0.0016699736 0.11042811 -0.23480967
0.0016729641 0.11050604 -0.23480782
0.001675975 0.11058199 -0.234808
0.0016785776 0.11065974 -0.23479816
0.0016810829 0.11073744 -0.23478632
0.0016838997 0.11081332 -0.2347825
0.0016867938 0.1108912 -0.23477866
0.0016896101 0.11096708 -0.23477484
0.0016924068 0.11104491 -0.23476899
0.0016953005 0.11112279 -0.23476514
0.0016982146 0.11119871 -0.23476332
0.0017015166 0.11127481 -0.23476951
0.0017047212 0.11135086 -0.2347737
0.0017077122 0.11142878 -0.23477183
0.001710529 0.11150466 -0.23476803
0.0017131316 0.11158241 -0.23475818
0.0017161425 0.11165837 -0.23475836
0.0017194245 0.11173642 -0.2347625
0.001722144 0.11181226 -0.23475671
0.0017246497 0.11188996 -0.23474485
0.0017277575 0.11196597 -0.23474704
0.0017311568 0.11204211 -0.23475522
0.0017339531 0.11211994 -0.23474936
0.0017365757 0.11219574 -0.23474157
0.0017397604 0.11227375 -0.2347437
0.0017424803 0.11234958 -0.23473789
0.0017448892 0.11242723 -0.23472404
0.0017477823 0.11250512 -0.2347202
0.0017507938 0.11258108 -0.23472038
0.0017540753 0.11265913 -0.23472452
0.0017571831 0.11273514 -0.2347267
0.0017600972 0.11281107 -0.23472489
0.0017629908 0.11288894 -0.23472103
0.0017656134 0.11296473 -0.23471324
0.0017684097 0.11304256 -0.23470739
0.0017713238 0.11311848 -0.23470557
0.0017741206 0.11319632 -0.23469973
0.0017770343 0.11327224 -0.23469791
0.0017803363 0.11334834 -0.23470409
0.0017833272 0.11342626 -0.23470223
0.0017860471 0.1135021 -0.23469643
0.0017889407 0.11357997 -0.23469257
0.0017913696 0.11365568 -0.23468079
0.0017940686 0.11373346 -0.23467293
0.001796789 0.1138093 -0.23466714
0.0017992943 0.113887 -0.23465529
0.0018019937 0.11396479 -0.23464744
0.0018053926 0.11404093 -0.23465562
0.0018090066 0.11411521 -0.23466983
0.0018121912 0.11419322 -0.23467198
0.0018149111 0.11426905 -0.23466617
0.0018178043 0.11434693 -0.23466231
0.0018206215 0.11442281 -0.23465851
0.001823321 0.1145006 -0.23465066
0.0018261378 0.11457647 -0.23464686
0.0018291487 0.11465244 -0.23464704
0.0018320424 0.11473031 -0.23464318
0.001834956 0.11480624 -0.23464137
0.0018379469 0.11488416 -0.23463951
0.0018404727 0.11495991 -0.23462972
0.0018429779 0.11503761 -0.23461786
0.0018460862 0.11511362 -0.23462006
0.0018495824 0.11518981 -0.23463023
0.0018527871 0.11526586 -0.23463441
0.0018550986 0.11534347 -0.23461857
0.0018573129 0.11542104 -0.23460074
0.001860227 0.11549696 -0.23459893
0.001863529 0.11557306 -0.2346051
0.0018660347 0.11565077 -0.23459327
0.0018687341 0.11572855 -0.23458542
0.0018715509 0.11580443 -0.2345816
0.0018747561 0.11588048 -0.23458579
0.0018779612 0.11595654 -0.23458996
0.0018803691 0.11603419 -0.23457614
0.0018820013 0.1161115 -0.2345463
0.001884216 0.11618907 -0.23452848
0.0018881001 0.11626543 -0.23454663
0.001892393 0.11634002 -0.23457484
0.001895404 0.11641598 -0.23457503
0.0018980061 0.11649372 -0.23456517
0.0019012117 0.11656978 -0.23456937
0.0019046874 0.11664792 -0.23457749
0.001907601 0.11672384 -0.23457569
0.0019097384 0.11679941 -0.2345579
0.0019115647 0.11687681 -0.23453206
0.0019131973 0.11695412 -0.23450226
0.0019155289 0.11702977 -0.23448846
0.0019198009 0.11710631 -0.23451461
0.0019239765 0.11718281 -0.23453876
0.0019272789 0.11725891 -0.23454493
0.0019300953 0.11733478 -0.23454113
0.0019328925 0.11741261 -0.23453528
0.0019354182 0.11748836 -0.23452549
0.0019381177 0.11756615 -0.23451763
0.0019409345 0.11764203 -0.23451382
0.0019434397 0.11771973 -0.23450199
0.0019454802 0.11779526 -0.2344822
0.0019485885 0.11787127 -0.23448439
0.0019529578 0.11794785 -0.23451254
0.0019570366 0.1180243 -0.2345347
0.0019597355 0.11810209 -0.23452684
0.0019622617 0.11817783 -0.23451704
0.0019651754 0.11825375 -0.23451523
0.0019679721 0.11833159 -0.23450938
0.0019696043 0.1184089 -0.23447958
0.0019708686 0.11848407 -0.2344438
0.0019742474 0.11856217 -0.23444992
0.0019782488 0.11863662 -0.23447213
0.0019811424 0.1187145 -0.23446828
0.0019833772 0.11879011 -0.23445249
0.0019853972 0.11886759 -0.23443067
0.0019870503 0.11894295 -0.23440289
0.0019899434 0.11902082 -0.23439904
0.0019940217 0.11909727 -0.23442119
0.0019981004 0.11917372 -0.23444335
0.0020015961 0.1192499 -0.23445353
0.0020049955 0.11932605 -0.23446169
0.0020074239 0.11940175 -0.23444989
0.0020096386 0.11947932 -0.23443207
0.0020121643 0.11955507 -0.23442227
0.0020150784 0.11963099 -0.23442045
0.0020179721 0.11970887 -0.2344166
0.002020983 0.11978483 -0.23441678
0.0020239935 0.1198608 -0.23441698
0.0020275665 0.11993898 -0.23442709
0.0020310627 0.12001517 -0.23443729
0.0020334916 0.12009087 -0.23442549
0.00203592 0.12016658 -0.23441368
0.0020388137 0.12024445 -0.23440984
0.0020407578 0.12031993 -0.23438805
0.0020420216 0.12039511 -0.23435229
0.0020446242 0.12047286 -0.23434244
0.0020487998 0.12054935 -0.2343666
0.0020531691 0.12062593 -0.23439476
0.0020565684 0.12070207 -0.23440292
0.0020589768 0.12077973 -0.23438908
0.0020601437 0.12085486 -0.23435132
0.0020615053 0.12093008 -0.23431756
0.0020644958 0.121008 -0.23431569
0.002067992 0.12108419 -0.23432587
0.0020707119 0.12116002 -0.23432007
0.0020735087 0.12123786 -0.23431422
0.0020767138 0.12131391 -0.23431841
0.0020801127 0.12139005 -0.23432657
0.0020838026 0.12146632 -0.23434074
0.0020871051 0.12154242 -0.23434693
0.0020896103 0.12162013 -0.23433508
0.0020920392 0.12169583 -0.23432329
0.002094565 0.12177157 -0.23431349
0.0020969734 0.12184923 -0.23429964
0.0020984318 0.1219245 -0.23426789
0.0021000844 0.12199985 -0.23424011
0.0021028039 0.12207568 -0.2342343
0.002106668 0.122154 -0.23425043
0.0021114256 0.12223075 -0.23428655
0.002115116 0.12230703 -0.23430073
0.0021175244 0.12238469 -0.23428687
0.0021194681 0.12246017 -0.2342651
0.0021218969 0.12253588 -0.23425332
0.00212549 0.1226121 -0.23426548
0.0021291799 0.12268838 -0.23427963
0.0021319762 0.12276621 -0.23427379
0.0021345024 0.12284195 -0.23426399
0.0021378044 0.12291805 -0.23427017
0.0021407949 0.12299597 -0.23426831
0.0021426417 0.12307142 -0.23424454
0.0021452643 0.1231472 -0.23423673
0.0021494399 0.1232237 -0.23426089
0.0021526446 0.12329976 -0.23426506
0.0021550534 0.12337741 -0.23425123
0.0021586465 0.12345364 -0.23426341
0.0021630926 0.12353222 -0.23429149
0.0021656184 0.12360796 -0.23428169
0.0021669799 0.12368318 -0.23424794
0.0021688263 0.12375863 -0.23422417
0.002171352 0.12383437 -0.23421437
0.0021742457 0.12391225 -0.23421051
0.0021765772 0.12398791 -0.23419672
0.002179103 0.12406366 -0.23418692
0.0021818229 0.12413949 -0.23418111
0.0021855133 0.12421577 -0.23419528
0.0021897652 0.12429426 -0.23421937
0.0021920973 0.12436991 -0.2342056
0.0021937494 0.12444527 -0.23417783
0.0021958873 0.12452084 -0.23416004
0.0021987041 0.12459671 -0.23415622
0.0022017919 0.12467469 -0.23415637
0.0022043176 0.12475043 -0.23414657
0.0022070375 0.12482627 -0.23414075
0.0022110953 0.12490467 -0.23416087
0.002215853 0.12498143 -0.23419701
0.0022192318 0.12505952 -0.23420314
0.0022210018 0.12513296 -0.23417941
0.0022227513 0.12520836 -0.23415363
0.0022251597 0.12528601 -0.2341398
0.0022276854 0.12536176 -0.23413
0.002230017 0.12543742 -0.2341162
0.0022331253 0.12551343 -0.23411839
0.0022372799 0.12559187 -0.23414049
0.0022417465 0.1256685 -0.23417065
0.002245028 0.12574655 -0.23417477
0.002246778 0.12582195 -0.23414901
0.0022487217 0.12589744 -0.23412722
0.0022512474 0.12597318 -0.23411742
0.0022539669 0.12604901 -0.23411161
0.0022569783 0.12612498 -0.23411182
0.0022595804 0.12620273 -0.23410195
0.0022615241 0.12627821 -0.23408017
0.0022638761 0.12635192 -0.23406842
0.0022683223 0.1264305 -0.23409653
0.0022738357 0.12650956 -0.2341466
0.0022777966 0.12658791 -0.23416471
0.0022801287 0.12666358 -0.23415092
0.0022824602 0.12673923 -0.23413712
0.002285277 0.12681511 -0.23413332
0.0022883648 0.12689307 -0.23413345
0.0022908906 0.12696883 -0.23412365
0.0022928342 0.12704431 -0.23410188
0.002294119 0.12711753 -0.23406816
0.0022963332 0.1271951 -0.23405033
0.002300994 0.12727182 -0.23408447
0.0023065838 0.12735288 -0.2341345
0.0023104679 0.12742923 -0.23415264
0.0023125089 0.12750477 -0.23413286
0.0023143552 0.1275802 -0.23410907
0.0023172693 0.12765612 -0.23410727
0.0023200661 0.12773396 -0.23410143
0.002322224 0.12780757 -0.23408568
0.0023253113 0.12788554 -0.23408583
0.0023280312 0.12796137 -0.23408002
0.0023301691 0.12803695 -0.23406222
0.0023325975 0.12811264 -0.23405042
0.0023354148 0.12818852 -0.23404664
0.0023390846 0.12826675 -0.23405875
0.0023421925 0.12834276 -0.23406094
0.0023441361 0.12841825 -0.23403916
0.0023468561 0.12849408 -0.23403335
0.0023509143 0.12857249 -0.23405346
0.00235441 0.12864867 -0.23406363
0.0023572068 0.12872651 -0.23405778
0.0023594415 0.12880212 -0.23404199
0.0023616762 0.12887773 -0.23402619
0.0023646872 0.1289537 -0.2340264
0.0023682802 0.12902993 -0.23403856
0.0023719501 0.12910816 -0.23405069
0.0023758141 0.12918648 -0.23406681
0.0023793867 0.12926465 -0.23407692
0.0023819124 0.12934041 -0.23406713
0.0023846328 0.12941624 -0.23406133
0.0023880317 0.12949239 -0.2340695
0.0023906543 0.12956817 -0.23406169
0.0023923069 0.12964353 -0.23403393
0.00239493 0.12971932 -0.23402613
0.0023979205 0.12979724 -0.23402427
0.0024006404 0.12987307 -0.23401847
0.0024037482 0.12994908 -0.23402065
0.0024069329 0.13002709 -0.23402278
0.0024094586 0.13010284 -0.23401299
0.0024120812 0.13017863 -0.23400518
0.0024150927 0.1302546 -0.23400538
0.0024188594 0.13033287 -0.23401949
0.0024225293 0.13041109 -0.23403162
0.0024255402 0.13048705 -0.2340318
0.0024278718 0.13056272 -0.23401801
0.0024301065 0.13063833 -0.23400223
0.0024322444 0.13071391 -0.23398444
0.002434867 0.1307897 -0.23397663
0.0024383427 0.13086784 -0.23398477
0.0024419362 0.13094407 -0.23399693
0.002445024 0.13102204 -0.23399708
0.0024474524 0.13109773 -0.23398528
0.002450075 0.13117352 -0.23397747
0.0024532806 0.13124958 -0.23398167
0.0024565621 0.13132763 -0.23398578
0.0024595731 0.1314036 -0.23398599
0.0024629515 0.13148169 -0.2339921
0.0024659629 0.13155766 -0.23399231
0.0024687797 0.13163354 -0.23398849
0.0024717702 0.13171145 -0.23398663
0.0024749753 0.13178751 -0.23399082
0.00247816 0.13186552 -0.23399295
0.0024812678 0.13194153 -0.23399514
0.0024846466 0.13201962 -0.23400128
0.0024875607 0.13209555 -0.23399946
0.0024894071 0.13217099 -0.23397568
0.0024910802 0.13224439 -0.23394996
0.0024937796 0.13232218 -0.23394211
0.0024973727 0.13239841 -0.23395428
0.0025008484 0.13247655 -0.2339624
0.0025034714 0.13255234 -0.23395461
0.0025059972 0.13262808 -0.2339448
0.0025087935 0.13270591 -0.23393895
0.002512096 0.13278201 -0.23394513
0.0025155717 0.13286015 -0.23395327
0.0025187763 0.13293621 -0.23395744
0.0025214963 0.13301204 -0.23395163
0.0025243899 0.13308991 -0.23394778
0.0025274982 0.13316593 -0.23394996
0.0025305855 0.1332439 -0.23395011
0.0025328202 0.13331951 -0.23393431
0.0025349786 0.13339312 -0.23391858
0.0025380664 0.1334711 -0.23391873
0.0025413679 0.13354719 -0.2339249
0.0025446499 0.13362524 -0.23392904
0.0025477377 0.1337032 -0.23392916
0.0025504571 0.13377905 -0.23392336
0.0025532744 0.13385493 -0.23391956
0.0025560912 0.1339308 -0.23391575
0.0025590048 0.13400672 -0.23391393
0.0025620926 0.13408469 -0.23391408
0.0025655683 0.13416283 -0.23392221
0.0025685793 0.13423879 -0.23392239
0.0025712997 0.13431463 -0.2339166
0.0025739223 0.13439041 -0.23390879
0.0025765244 0.13446817 -0.23389894
0.0025789738 0.13454191 -0.23388919
0.0025815764 0.13461965 -0.23387936
0.0025843931 0.13469553 -0.23387554
0.002587772 0.13477363 -0.23388167
0.0025919271 0.13485208 -0.23390378
0.0025956938 0.13493036 -0.23391789
0.0025984901 0.13500819 -0.23391205
0.0026011132 0.13508397 -0.23390424
0.00260393 0.13515985 -0.23390043
0.0026060678 0.13523543 -0.23388265
0.0026084199 0.13530913 -0.23387091
0.0026114103 0.13538705 -0.23386905
0.0026145955 0.13546506 -0.23387119
0.002617606 0.13554102 -0.23387137
0.0026204232 0.1356169 -0.23386757
0.0026230458 0.1356927 -0.23385976
0.0026261336 0.13577066 -0.2338599
0.0026294151 0.13584872 -0.23386404
0.0026324261 0.13592468 -0.23386422
0.002635146 0.13600051 -0.23385842
0.0026376718 0.13607626 -0.23384863
0.0026405654 0.13615415 -0.23384476
0.0026436732 0.13623014 -0.23384695
0.0026463931 0.13630599 -0.23384115
0.0026489957 0.13638373 -0.2338313
0.0026518125 0.1364596 -0.2338275
0.0026548235 0.13653557 -0.23382768
0.0026576202 0.1366134 -0.23382184
0.0026606312 0.13668936 -0.23382202
0.0026638159 0.13676739 -0.23382416
0.0026667295 0.13684331 -0.23382235
0.0026694494 0.13691914 -0.23381653
0.0026723435 0.13699701 -0.23381269
0.0026752572 0.13707294 -0.23381087
0.0026783445 0.1371509 -0.23381102
0.0026810644 0.13722673 -0.23380521
0.0026838817 0.13730261 -0.23380141
0.0026866985 0.1373785 -0.23379761
0.002689301 0.13745624 -0.23378775
0.002692312 0.1375322 -0.23378794
0.002695323 0.13760817 -0.23378813
0.0026983134 0.13768609 -0.23378628
0.0027014217 0.1377621 -0.23378846
0.0027045091 0.13784006 -0.23378859
0.0027073263 0.13791594 -0.23378479
0.0027104137 0.1379939 -0.23378493
0.002713501 0.13807186 -0.23378506
0.0027164151 0.1381478 -0.23378325
0.0027195029 0.13822576 -0.23378339
0.002722126 0.13830155 -0.2337756
0.0027248459 0.13837738 -0.2337698
0.0027277595 0.1384533 -0.23376799
0.0027306532 0.13853118 -0.23376413
0.0027334699 0.13860707 -0.23376033
0.0027365577 0.13868503 -0.23376046
0.0027398597 0.13876113 -0.23376665
0.0027430444 0.13883914 -0.23376878
0.0027460353 0.13891706 -0.23376691
0.002748949 0.13899298 -0.23376511
0.0027513779 0.13906868 -0.23375332
0.0027541947 0.13914457 -0.23374951
0.0027573793 0.13922256 -0.23375165
0.0027601966 0.13929844 -0.23374784
0.0027630897 0.13937633 -0.23374398
0.0027661007 0.13945229 -0.23374417
0.0027686264 0.13952804 -0.23373437
0.0027712495 0.13960382 -0.23372658
0.0027741427 0.1396817 -0.23372272
0.0027771541 0.13975766 -0.23372291
0.0027803383 0.13983569 -0.23372504
0.0027832524 0.13991159 -0.23372322
0.0027860492 0.13998944 -0.23371738
0.0027887691 0.14006527 -0.23371157
0.0027913917 0.14014105 -0.23370376
0.0027943058 0.14021698 -0.23370196
0.0027979757 0.14029521 -0.23371407
0.0028011603 0.14037322 -0.23371622
0.0028036861 0.14044896 -0.23370643
0.0028068707 0.14052698 -0.23370856
0.0028096875 0.14060286 -0.23370475
0.0028121164 0.14067855 -0.23369296
0.0028152037 0.14075652 -0.23369309
0.002818312 0.14083253 -0.23369528
0.0028213025 0.14091045 -0.23369342
0.0028244108 0.14098646 -0.23369561
0.0028274013 0.14106438 -0.23369375
0.0028298302 0.14114009 -0.23368196
0.0028325501 0.14121592 -0.23367617
0.0028353669 0.1412918 -0.23367235
0.0028383578 0.14136972 -0.2336705
0.0028415625 0.14144577 -0.23367468
0.0028449208 0.14152582 -0.23367876
0.0028477376 0.1416017 -0.23367496
0.0028501665 0.14167741 -0.23366317
0.0028529833 0.14175329 -0.23365936
0.0028562648 0.14183134 -0.23366348
0.0028594499 0.14190935 -0.23366562
0.0028623636 0.14198527 -0.23366381
0.0028650835 0.1420611 -0.233658
0.0028679771 0.14213897 -0.23365416
0.0028706971 0.14221482 -0.23364834
0.0028736112 0.14229074 -0.23364654
0.002876699 0.1423687 -0.23364669
0.0028796126 0.14244463 -0.23364487
0.0028821384 0.14252037 -0.23363507
0.0028849551 0.14259624 -0.23363125
0.0028878488 0.14267412 -0.23362741
0.0028905687 0.14274997 -0.2336216
0.002893656 0.14282793 -0.23362175
0.002897229 0.1429061 -0.23363188
0.0029007047 0.14298424 -0.23364
0.0029030368 0.14305991 -0.23362622
0.0029053888 0.14313361 -0.23361444
0.0029080883 0.14321139 -0.23360661
0.0029110992 0.14328736 -0.2336068
0.0029146718 0.14336555 -0.23361692
0.0029177601 0.14344351 -0.23361707
0.0029208474 0.14352149 -0.2336172
0.0029236642 0.14359736 -0.2336134
0.0029261899 0.14367311 -0.2336036
0.002929104 0.14374903 -0.23360178
0.0029323855 0.14382708 -0.23360592
0.002935376 0.143905 -0.23360407
0.0029375344 0.14397863 -0.23358832
0.0029394981 0.14405215 -0.23356858
0.0029426827 0.14413016 -0.23357072
0.0029463326 0.14421034 -0.2335808
0.0029496346 0.14428644 -0.23358697
0.002952625 0.14436436 -0.23358512
0.0029558097 0.14444236 -0.23358727
0.002958918 0.14451838 -0.23358944
0.0029617143 0.1445962 -0.2335836
0.0029645315 0.14467208 -0.23357978
0.0029678131 0.14475013 -0.23358393
0.0029705325 0.14482598 -0.23357812
0.0029732524 0.14490181 -0.2335723
0.0029757787 0.14497755 -0.23356251
0.0029782075 0.14505325 -0.23355073
0.002981218 0.14512922 -0.23355091
0.0029844032 0.14520723 -0.23355305
0.0029874905 0.1452852 -0.23355317
0.0029905015 0.14536116 -0.23355338
0.0029936866 0.14543918 -0.23355551
0.0029964061 0.14551501 -0.23354971
0.0029994939 0.14559297 -0.23354983
0.0030031637 0.1456712 -0.23356196
0.0030055922 0.1457469 -0.23355016
0.0030079237 0.14582255 -0.23353636
0.0030113026 0.14590065 -0.2335425
0.0030150698 0.14597893 -0.23355663
0.0030180602 0.14605685 -0.23355478
0.0030200244 0.14613038 -0.23353504
0.0030227443 0.14620622 -0.23352924
0.0030261232 0.14628431 -0.23353536
0.0030292105 0.14636227 -0.2335355
0.0030323188 0.14643829 -0.23353769
0.0030353093 0.1465162 -0.23353583
0.0030379323 0.14659199 -0.23352802
0.0030412138 0.14667004 -0.23353216
0.0030445927 0.14674814 -0.2335383
0.0011868146 0.097700663 -0.23525256
0.0011899229 0.097776681 -0.23525473
0.0011931285 0.097852729 -0.23525892
0.00119614 0.097928695 -0.2352591
0.0011991309 0.098006621 -0.23525724
0.0012021221 0.098084539 -0.23525539
0.0012049191 0.098162368 -0.23524953
0.001207425 0.09824007 -0.23523769
0.0012103193 0.098317951 -0.23523384
0.0012132132 0.098395824 -0.23522998
0.0012159133 0.098473616 -0.23522213
0.0012188277 0.098549537 -0.23522033
0.0012220331 0.098625593 -0.23522452
0.0012251216 0.098703556 -0.23522466
0.0012280359 0.098779477 -0.23522285
0.0012311239 0.09885744 -0.23522298
0.0012341356 0.098933406 -0.23522317
0.0012372234 0.099011369 -0.23522331
0.0012399235 0.099089161 -0.23521546
0.001242215 0.099168733 -0.23519757
0.0012450325 0.099244609 -0.23519377
0.001248626 0.099320836 -0.23520595
0.0012516375 0.099396802 -0.23520613
0.0012541434 0.099474505 -0.2351943
0.0012569404 0.099552333 -0.23518842
0.0012599314 0.099630259 -0.23518658
0.0012630399 0.09970627 -0.23518875
0.0012659342 0.099784143 -0.23518491
0.0012689454 0.099860109 -0.23518509
0.0012728302 0.09993647 -0.23520325
0.0012766384 0.10001083 -0.23522148
0.0012797469 0.10008685 -0.23522365
0.0012824468 0.10016464 -0.2352158
0.0012849527 0.10024233 -0.23520395
0.0012875355 0.10032204 -0.23519206
0.0012904499 0.10039796 -0.23519026
0.0012935379 0.10047592 -0.23519039
0.0012963351 0.10055376 -0.23518455
0.0012989582 0.10062955 -0.23517674
0.0013020467 0.10070751 -0.23517689
0.0013052521 0.10078356 -0.23518106
0.0013079522 0.10086136 -0.23517323
0.0013105345 0.10094105 -0.23516133
0.0013131578 0.10101684 -0.23515353
0.0013162461 0.10109481 -0.23515368
0.0013194515 0.10117086 -0.23515785
0.0013229484 0.10124705 -0.23516802
0.0013261538 0.1013231 -0.23517221
0.0013292623 0.10139911 -0.23517439
0.0013321561 0.10147699 -0.23517053
0.0013349531 0.10155482 -0.23516467
0.0013375359 0.10163452 -0.23515278
0.001340236 0.10171231 -0.23514494
0.0013433446 0.10178832 -0.23514712
0.0013464531 0.10186433 -0.23514932
0.0013492499 0.10194216 -0.23514345
0.0013524352 0.10202017 -0.2351456
0.0013554464 0.10209614 -0.23514578
0.0013583407 0.10217401 -0.23514193
0.0013614492 0.10225002 -0.23514411
0.0013642462 0.10232785 -0.23513827
0.0013670432 0.10240569 -0.23513241
0.0013699371 0.10248356 -0.23512855
0.0013726575 0.1025594 -0.23512274
0.0013756484 0.10263732 -0.23512089
0.0013786601 0.10271329 -0.23512109
0.0013815337 0.10279312 -0.23511519
0.0013843514 0.102869 -0.23511139
0.0013874597 0.10294501 -0.23511356
0.0013906448 0.10302301 -0.23511571
0.0013932481 0.10310076 -0.23510586
0.0013959478 0.10317855 -0.235098
0.0013989389 0.10325647 -0.23509616
0.0014017564 0.10333235 -0.23509234
0.0014045534 0.10341018 -0.23508649
0.0014072536 0.10348797 -0.23507863
0.0014100506 0.1035658 -0.23507279
0.0014131591 0.10364182 -0.23507497
0.0014165586 0.10371795 -0.23508315
0.0014196467 0.10379592 -0.23508328
0.0014225408 0.1038738 -0.23507944
0.0014252409 0.10395159 -0.2350716
0.0014280581 0.10402746 -0.23506778
0.0014309522 0.10410534 -0.23506393
0.0014339434 0.10418326 -0.23506206
0.0014370519 0.10425927 -0.23506425
