# .PCD v0.7 - Point Cloud Data file format
VERSION 0.7
FIELDS x y z
SIZE 4 4 4
TYPE F F F
COUNT 1 1 1
WIDTH 1379
HEIGHT 1
VIEWPOINT 0 0 0 1 0 0 0
POINTS 1379
DATA ascii
-0.19102433 0.15934484 -0.24295515
-0.19102134 0.15942276 -0.24295329
-0.19101833 0.15949872 -0.24295348
-0.19101524 0.15957668 -0.24295363
-0.19101213 0.1596527 -0.2429558
-0.19100924 0.15973057 -0.24295194
-0.19100651 0.1598064 -0.24294615
-0.19100353 0.15988433 -0.24294429
-0.19099762 0.16003817 -0.24294062
-0.19099461 0.16011414 -0.24294081
-0.1909827 0.16042186 -0.24293548
-0.19098008 0.16049765 -0.24292767
-0.19097708 0.16057558 -0.24292582
-0.19097416 0.1606515 -0.242924
-0.19097096 0.16072756 -0.24292818
-0.19096768 0.16080561 -0.24293232
-0.19096495 0.16088144 -0.24292652
-0.19096245 0.16095914 -0.24291468
-0.19095983 0.16103493 -0.24290687
-0.19095674 0.1611129 -0.24290702
-0.19095363 0.1611889 -0.24290919
-0.19095051 0.16126491 -0.24291138
-0.19094451 0.16141881 -0.24290971
-0.19094181 0.16149659 -0.24290186
-0.1909391 0.16157243 -0.24289607
-0.1909363 0.16165026 -0.24289021
-0.19093318 0.16172627 -0.2428924
-0.19093017 0.16180223 -0.24289259
-0.19092728 0.16188012 -0.24288873
-0.19092456 0.16195595 -0.24288294
-0.19092244 0.16203347 -0.24286309
-0.19091944 0.1621114 -0.24286124
-0.19090973 0.1623396 -0.24287578
-0.19090714 0.16241735 -0.24286593
-0.19090462 0.16249505 -0.24285409
-0.1909021 0.16257079 -0.2428443
-0.1909 0.16265027 -0.24282241
-0.19089738 0.16272606 -0.24281462
-0.19089317 0.16280061 -0.24284083
-0.1908893 0.16287696 -0.24285898
-0.19088697 0.16295458 -0.24284314
-0.19088458 0.16303223 -0.24282929
-0.19088127 0.16310833 -0.24283548
-0.19087757 0.16318461 -0.24284965
-0.19087437 0.16326065 -0.24285382
-0.19087157 0.1633385 -0.24284798
-0.19086914 0.1634142 -0.24283618
-0.19086635 0.16349202 -0.24283034
-0.19086294 0.16356817 -0.2428385
-0.19086003 0.16364409 -0.2428367
-0.19085741 0.16371988 -0.24282891
-0.19085461 0.16379772 -0.24282303
-0.19085188 0.16387355 -0.24281724
-0.19084918 0.16395134 -0.24280939
-0.19084647 0.16402717 -0.24280359
-0.19084328 0.16410518 -0.24280572
-0.19083998 0.16418128 -0.24281192
-0.19083688 0.16425729 -0.24281409
-0.19083415 0.16433313 -0.24280828
-0.19083154 0.16441087 -0.24279845
-0.19082883 0.16448671 -0.24279264
-0.19082214 0.1646409 -0.24280494
-0.19081913 0.16471687 -0.24280514
-0.19081612 0.16479284 -0.24280533
-0.190813 0.16486885 -0.24280751
-0.19081011 0.16494672 -0.24280366
-0.19080739 0.16502255 -0.24279785
-0.19080438 0.16509852 -0.24279805
-0.19080158 0.16517636 -0.24279219
-0.19079895 0.16525215 -0.24278438
-0.19079587 0.16533011 -0.24278453
-0.19079295 0.16540603 -0.24278271
-0.19079024 0.16548187 -0.24277692
-0.19078743 0.16555969 -0.24277106
-0.19078442 0.16563566 -0.24277125
-0.19078153 0.16571355 -0.24276739
-0.19077891 0.16578934 -0.2427596
-0.19077609 0.16586521 -0.24275579
-0.19077319 0.16594309 -0.24275193
-0.19077048 0.16601892 -0.24274613
-0.19076738 0.1660969 -0.24274628
-0.19076398 0.16617303 -0.24275446
-0.19075777 0.16632505 -0.24275881
-0.19075465 0.16640106 -0.242761
-0.19075176 0.16647893 -0.24275714
-0.19074914 0.16655473 -0.24274935
-0.19074613 0.1666307 -0.24274954
-0.19074333 0.16670853 -0.24274369
-0.19074062 0.16678436 -0.24273789
-0.19073769 0.16686028 -0.24273607
-0.19073468 0.16693625 -0.24273627
-0.19073159 0.16701421 -0.2427364
-0.19072868 0.16709013 -0.24273458
-0.19072567 0.1671661 -0.24273479
-0.19072287 0.16724394 -0.24272892
-0.19072033 0.16731969 -0.24271913
-0.19071732 0.16739565 -0.24271932
-0.19071405 0.1674737 -0.24272345
-0.19071123 0.16754958 -0.24271965
-0.1907085 0.16762541 -0.24271384
-0.19070569 0.16770129 -0.24271002
-0.19070327 0.16777895 -0.2426962
-0.19070046 0.16785483 -0.24269238
-0.19069706 0.16793098 -0.24270056
-0.19069417 0.16800885 -0.2426967
-0.19069135 0.16808473 -0.2426929
-0.19068873 0.16816051 -0.24268511
-0.19068573 0.16823845 -0.24268325
-0.19068234 0.16831458 -0.24269143
-0.19067952 0.16839045 -0.24268761
-0.1906767 0.16846634 -0.2426838
-0.19067378 0.16854227 -0.242682
-0.19067109 0.16862005 -0.24267414
-0.19066827 0.16869593 -0.24267034
-0.19066498 0.16877398 -0.24267447
-0.19066226 0.16884981 -0.24266867
-0.19107983 0.15795937 -0.24301703
-0.19107713 0.15803716 -0.24300918
-0.19107451 0.15811296 -0.24300137
-0.19107141 0.15819092 -0.24300152
-0.1910682 0.15826698 -0.24300571
-0.191065 0.15834303 -0.2430099
-0.19106191 0.15842099 -0.24301003
-0.19105679 0.15857448 -0.24299037
-0.19105399 0.15865232 -0.24298453
-0.19104818 0.15880612 -0.24297887
-0.19104536 0.15888199 -0.24297507
-0.19103916 0.15903597 -0.2429774
-0.19103605 0.15911198 -0.24297959
-0.19103286 0.15918998 -0.24298172
-0.19103026 0.15926772 -0.24297187
-0.19102792 0.15934339 -0.24295807
-0.19102493 0.15942131 -0.24295622
-0.19102202 0.15949723 -0.2429544
-0.19101883 0.15957524 -0.24295655
-0.19101572 0.15965125 -0.24295872
-0.19101292 0.15972908 -0.24295288
-0.19100721 0.15988284 -0.24294522
-0.1909983 0.16011265 -0.24294174
-0.19099531 0.16019057 -0.24293989
-0.19099191 0.16026671 -0.24294806
-0.19098629 0.16042042 -0.2429384
-0.19098376 0.16049618 -0.24292861
-0.19098076 0.16057409 -0.24292675
-0.19097775 0.16065006 -0.24292694
-0.19097455 0.16072612 -0.24293113
-0.19097143 0.16080213 -0.2429333
-0.19096865 0.16087995 -0.24292746
-0.19096604 0.16095769 -0.24291761
-0.19096342 0.16103348 -0.24290982
-0.19096042 0.16111141 -0.24290796
-0.19095722 0.16118747 -0.24291214
-0.1909541 0.16126347 -0.24291432
-0.1909481 0.16141737 -0.24291265
-0.1909454 0.16149515 -0.24290481
-0.19094278 0.16157094 -0.242897
-0.19093989 0.16164881 -0.24289316
-0.19093677 0.16172482 -0.24289533
-0.19093376 0.16180079 -0.24289553
-0.19093087 0.16187868 -0.24289167
-0.19092834 0.16195442 -0.24288186
-0.19092603 0.16203204 -0.24286604
-0.19092304 0.16210996 -0.24286418
-0.19091614 0.16226228 -0.24288252
-0.19091332 0.16233815 -0.24287874
-0.19091082 0.16241586 -0.24286687
-0.19090831 0.16249356 -0.24285504
-0.19090578 0.16256931 -0.24284524
-0.19090368 0.16264878 -0.24282336
-0.19090097 0.16272461 -0.24281755
-0.19089676 0.16279916 -0.24284375
-0.19089067 0.16295309 -0.24284407
-0.19088826 0.16303074 -0.24283025
-0.19088486 0.16310689 -0.24283843
-0.19087796 0.16325922 -0.24285677
-0.19087526 0.16333701 -0.24284893
-0.19087283 0.16341271 -0.24283713
-0.19086361 0.16364264 -0.24283963
-0.19086109 0.1637184 -0.24282984
-0.1908582 0.16379628 -0.24282598
-0.19085547 0.16387211 -0.24282019
-0.19084696 0.1641037 -0.24280667
-0.19084366 0.1641798 -0.24281286
-0.19084056 0.1642558 -0.24281505
-0.19083783 0.16433164 -0.24280924
-0.19083522 0.16440938 -0.2427994
-0.19082902 0.16456336 -0.24280173
-0.19082573 0.16463946 -0.24280789
-0.19082281 0.16471538 -0.24280609
-0.1908198 0.16479135 -0.24280629
-0.1908166 0.1648674 -0.24281046
-0.19081369 0.16494527 -0.24280661
-0.19081098 0.16502111 -0.2428008
-0.19080806 0.16509703 -0.242799
-0.19080526 0.16517487 -0.24279314
-0.19080254 0.1652507 -0.24278733
-0.19079654 0.16540459 -0.24278566
-0.19079103 0.16555826 -0.24277401
-0.190788 0.16563421 -0.2427742
-0.19078511 0.1657121 -0.24277034
-0.19078259 0.16578785 -0.24276055
-0.19077967 0.16586377 -0.24275875
-0.19077678 0.16594164 -0.24275488
-0.19076757 0.16617158 -0.24275741
-0.19076134 0.1663236 -0.24276178
-0.19075824 0.16639961 -0.24276397
-0.19075544 0.16647746 -0.24275811
-0.19075271 0.16655329 -0.24275231
-0.19074981 0.16662921 -0.2427505
-0.19074701 0.16670704 -0.24274464
-0.19074428 0.16678287 -0.24273884
-0.19074127 0.16685884 -0.24273902
-0.19073826 0.1669348 -0.24273922
-0.19073527 0.16701272 -0.24273735
-0.19072935 0.16716462 -0.24273574
-0.19072644 0.1672425 -0.24273188
-0.19072393 0.16731824 -0.24272208
-0.19071762 0.16747226 -0.24272642
-0.19071491 0.16754809 -0.2427206
-0.19071218 0.16762392 -0.24271479
-0.19070937 0.16769981 -0.24271099
-0.19070695 0.16777746 -0.24269715
-0.19070405 0.16785339 -0.24269535
-0.19070074 0.16792949 -0.24270153
-0.19069774 0.1680074 -0.24269967
-0.19068931 0.168237 -0.24268621
-0.19068591 0.16831313 -0.24269438
-0.1906831 0.16838902 -0.24269056
-0.19068037 0.16846485 -0.24268477
-0.19067736 0.16854082 -0.24268496
-0.19067185 0.16869448 -0.24267331
-0.19066866 0.16877249 -0.24267545
-0.19066593 0.16884832 -0.24266964
-0.19108056 0.15796098 -0.24301499
-0.19107524 0.15811457 -0.24299935
-0.19107215 0.15819253 -0.24299949
-0.19106904 0.15826854 -0.24300167
-0.19106573 0.15834464 -0.24300784
-0.19106273 0.15842256 -0.24300599
-0.1910603 0.15849826 -0.24299419
-0.19105761 0.15857606 -0.24298635
-0.19105481 0.15865389 -0.24298051
-0.19105199 0.15872976 -0.2429767
-0.19104899 0.15880768 -0.24297485
-0.19104609 0.1588836 -0.24297303
-0.19104318 0.15896147 -0.24296917
-0.19103989 0.15903758 -0.24297535
-0.19103678 0.15911359 -0.24297753
-0.19103359 0.15919159 -0.24297968
-0.19103098 0.15926935 -0.24296984
-0.19102874 0.15934496 -0.24295405
-0.19102576 0.15942287 -0.24295218
-0.19102274 0.15949884 -0.24295238
-0.19101965 0.1595768 -0.24295253
-0.19101654 0.15965281 -0.2429547
-0.19101375 0.15973066 -0.24294886
-0.19100794 0.15988445 -0.24294318
-0.19100493 0.15996042 -0.24294338
-0.19100203 0.16003829 -0.24293952
-0.19099902 0.16011426 -0.24293971
-0.19099602 0.16019218 -0.24293786
-0.19099273 0.16026828 -0.24294403
-0.1909897 0.16034424 -0.24294421
-0.19098711 0.160422 -0.24293438
-0.19098449 0.16049778 -0.24292657
-0.19098149 0.1605757 -0.24292472
-0.19097848 0.16065167 -0.2429249
-0.19097537 0.16072768 -0.24292709
-0.19097209 0.16080573 -0.24293122
-0.19096936 0.16088156 -0.24292542
-0.19096676 0.1609593 -0.24291557
-0.19096424 0.16103506 -0.24290577
-0.19096114 0.16111302 -0.24290591
-0.19095804 0.16118903 -0.24290811
-0.19095492 0.16126505 -0.2429103
-0.19095165 0.1613431 -0.24291442
-0.19094883 0.16141897 -0.24291062
-0.19094622 0.16149671 -0.24290077
-0.19094349 0.16157255 -0.24289498
-0.1909406 0.16165043 -0.2428911
-0.19093759 0.1617264 -0.24289131
-0.19093448 0.16180241 -0.24289349
-0.19093168 0.16188024 -0.24288765
-0.19092906 0.16195603 -0.24287984
-0.19092683 0.1620336 -0.242862
-0.19092385 0.16211152 -0.24286014
-0.19092025 0.16218776 -0.24287233
-0.19091696 0.16226384 -0.2428785
-0.19091414 0.16233973 -0.24287468
-0.19091153 0.16241747 -0.24286485
-0.19090903 0.16249517 -0.242853
-0.19090649 0.16257092 -0.24284321
-0.19090439 0.16265041 -0.24282134
-0.19090177 0.16272619 -0.24281353
-0.19089757 0.16280073 -0.24283972
-0.19089369 0.16287708 -0.24285789
-0.19089137 0.1629547 -0.24284205
-0.19088897 0.16303235 -0.24282822
-0.19088566 0.16310845 -0.24283439
-0.19088197 0.16318473 -0.24284856
-0.19087876 0.16326079 -0.24285275
-0.19087596 0.16333862 -0.24284689
-0.19087353 0.16341431 -0.2428351
-0.19087073 0.16349216 -0.24282923
-0.19086733 0.1635683 -0.24283743
-0.19086443 0.16364422 -0.24283561
-0.19086172 0.16372201 -0.24282777
-0.190859 0.16379784 -0.24282196
-0.19085628 0.16387367 -0.24281615
-0.19085358 0.16395147 -0.24280831
-0.19085085 0.1640273 -0.2428025
-0.19084767 0.16410531 -0.24280465
-0.19084437 0.16418141 -0.24281082
-0.19084135 0.16425738 -0.24281101
-0.19083853 0.16433325 -0.24280721
-0.19083594 0.16441099 -0.24279736
-0.19083311 0.16448687 -0.24279356
-0.19082974 0.16456497 -0.24279968
-0.19082652 0.16464102 -0.24280387
-0.19082351 0.16471699 -0.24280405
-0.1908205 0.16479295 -0.24280424
-0.19081739 0.16486897 -0.24280643
-0.19081441 0.16494688 -0.24280457
-0.19081168 0.16502273 -0.24279878
-0.19080876 0.16509865 -0.24279696
-0.19080597 0.16517648 -0.24279112
-0.19080335 0.16525227 -0.24278331
-0.19080025 0.16533023 -0.24278346
-0.19079734 0.16540615 -0.24278164
-0.19079462 0.16548198 -0.24277583
-0.19079182 0.16555983 -0.24276999
-0.19078881 0.16563579 -0.24277018
-0.19078591 0.16571367 -0.24276632
-0.19078329 0.16578946 -0.24275851
-0.19078046 0.16586533 -0.24275471
-0.19077757 0.16594322 -0.24275085
-0.19077486 0.16601905 -0.24274506
-0.19077167 0.16609706 -0.24274719
-0.19076836 0.16617316 -0.24275337
-0.19076516 0.16624922 -0.24275756
-0.19076215 0.16632518 -0.24275774
-0.19075894 0.16640122 -0.24276192
-0.19075614 0.16647907 -0.24275607
-0.19075342 0.1665549 -0.24275027
-0.19075049 0.16663082 -0.24274847
-0.19074771 0.16670865 -0.24274261
-0.19074498 0.16678448 -0.2427368
-0.19074206 0.16686042 -0.242735
-0.19073896 0.16693641 -0.24273717
-0.19073597 0.16701435 -0.24273533
-0.19073315 0.16709022 -0.24273151
-0.19073004 0.16716623 -0.24273372
-0.19072723 0.16724406 -0.24272785
-0.19072472 0.1673198 -0.24271806
-0.19072171 0.16739577 -0.24271825
-0.19071841 0.16747382 -0.24272239
-0.1907156 0.1675497 -0.24271858
-0.19071287 0.16762555 -0.24271277
-0.19071016 0.16770138 -0.24270697
-0.19070765 0.16777907 -0.24269512
-0.19070482 0.16785495 -0.24269131
-0.19070143 0.16793109 -0.2426995
-0.19069853 0.16800897 -0.24269564
-0.19069572 0.16808484 -0.24269183
-0.1906931 0.16816065 -0.24268404
-0.1906901 0.16823857 -0.24268217
-0.1906867 0.16831471 -0.24269035
-0.19068378 0.16839063 -0.24268854
-0.19068106 0.16846646 -0.24268274
-0.19067815 0.16854239 -0.24268094
-0.19067545 0.16862017 -0.24267308
-0.19067262 0.16869605 -0.24266928
-0.19066934 0.1687741 -0.24267341
-0.19066662 0.16884995 -0.24266762
-0.19108029 0.15796377 -0.24301428
-0.19107759 0.15804157 -0.24300644
-0.19107497 0.15811735 -0.24299863
-0.19107188 0.15819532 -0.24299878
-0.19106866 0.15827137 -0.24300295
-0.19106546 0.15834743 -0.24300712
-0.19106247 0.15842535 -0.24300528
-0.19105995 0.15850109 -0.24299547
-0.19105725 0.15857889 -0.24298763
-0.19105445 0.15865672 -0.24298179
-0.19105172 0.15873255 -0.24297598
-0.19104864 0.15881051 -0.24297611
-0.19104582 0.15888639 -0.24297231
-0.19104283 0.15896431 -0.24297047
-0.19103962 0.15904036 -0.24297464
-0.19103651 0.15911637 -0.24297681
-0.19103332 0.15919438 -0.24297896
-0.19103071 0.15927213 -0.24296911
-0.19102839 0.15934779 -0.24295533
-0.19102539 0.15942571 -0.24295346
-0.19102247 0.15950163 -0.24295166
-0.19101928 0.15957963 -0.24295379
-0.19101618 0.15965565 -0.24295598
-0.19101338 0.15973349 -0.24295013
-0.19101065 0.15980932 -0.24294433
-0.19100767 0.15988724 -0.24294247
-0.19100465 0.15996321 -0.24294266
-0.19100176 0.16004108 -0.2429388
-0.19099875 0.16011705 -0.242939
-0.19099575 0.16019496 -0.24293713
-0.19099244 0.16027106 -0.24294332
-0.19098943 0.16034703 -0.2429435
-0.19098674 0.16042483 -0.24293566
-0.1909842 0.16050057 -0.24292585
-0.19098112 0.16057853 -0.242926
-0.1909782 0.16065446 -0.24292418
-0.190975 0.16073051 -0.24292837
-0.19097188 0.16080652 -0.24293056
-0.19096909 0.16088435 -0.24292471
-0.19096649 0.1609621 -0.24291486
-0.19096395 0.16103785 -0.24290505
-0.19096087 0.16111581 -0.2429052
-0.19095775 0.16119182 -0.24290739
-0.19095466 0.16126783 -0.24290957
-0.19095136 0.16134588 -0.24291371
-0.19094855 0.16142176 -0.24290989
-0.19094585 0.16149954 -0.24290204
-0.19094323 0.16157535 -0.24289426
-0.19094032 0.16165322 -0.24289039
-0.19093722 0.16172923 -0.24289258
-0.1909342 0.1618052 -0.24289277
-0.19093141 0.16188303 -0.24288693
-0.19092868 0.16195886 -0.24288112
-0.19092646 0.16203643 -0.24286327
-0.19092357 0.16211431 -0.24285942
-0.19091998 0.16219054 -0.2428716
-0.19091658 0.16226667 -0.24287978
-0.19091375 0.16234256 -0.24287596
-0.19091116 0.1624203 -0.24286613
-0.19090874 0.16249797 -0.24285227
-0.19090621 0.16257371 -0.2428425
-0.1909041 0.16265123 -0.24282265
-0.1909014 0.16272902 -0.24281481
-0.1908972 0.16280356 -0.24284101
-0.19089341 0.16287988 -0.24285716
-0.1908911 0.16295749 -0.24284133
-0.19088858 0.1630352 -0.24282949
-0.19088529 0.16311128 -0.24283567
-0.1908816 0.16318756 -0.24284983
-0.19087839 0.16326362 -0.24285403
-0.19087566 0.16333945 -0.24284822
-0.19087325 0.16341712 -0.24283437
-0.19087036 0.16349499 -0.24283051
-0.19086705 0.16357109 -0.2428367
-0.19086404 0.16364706 -0.24283689
-0.19086142 0.16372284 -0.24282908
-0.19085862 0.16380067 -0.24282324
-0.19085591 0.1638765 -0.24281743
-0.19085319 0.1639543 -0.24280959
-0.19085048 0.16403013 -0.24280378
-0.19084738 0.1641081 -0.24280393
-0.19084409 0.1641842 -0.2428101
-0.19084097 0.16426021 -0.24281229
-0.19083825 0.16433604 -0.24280649
-0.19083565 0.16441378 -0.24279663
-0.19083282 0.16448966 -0.24279284
-0.19082946 0.16456775 -0.24279895
-0.19082624 0.16464381 -0.24280316
-0.19082323 0.16471978 -0.24280334
-0.19082022 0.16479574 -0.24280353
-0.19081701 0.1648718 -0.24280772
-0.19081412 0.16494967 -0.24280384
-0.1908114 0.16502552 -0.24279806
-0.19080839 0.16510148 -0.24279824
-0.19080558 0.16517931 -0.24279238
-0.19080296 0.1652551 -0.24278459
-0.19079997 0.16533302 -0.24278273
-0.19079696 0.16540898 -0.24278292
-0.19079433 0.16548479 -0.24277511
-0.19079143 0.16556266 -0.24277127
-0.19078842 0.16563863 -0.24277145
-0.19078553 0.1657165 -0.2427676
-0.19078299 0.16579224 -0.2427578
-0.19078018 0.16586812 -0.24275398
-0.19077729 0.16594601 -0.24275014
-0.19077456 0.16602184 -0.24274433
-0.19077137 0.16609985 -0.24274647
-0.19076808 0.16617595 -0.24275266
-0.19076486 0.166252 -0.24275684
-0.19076176 0.16632801 -0.24275902
-0.19075865 0.16640402 -0.24276121
-0.19075584 0.16648185 -0.24275535
-0.19075313 0.16655768 -0.24274954
-0.19075021 0.16663361 -0.24274774
-0.19074732 0.16671148 -0.24274389
-0.1907447 0.16678728 -0.24273609
-0.19074178 0.1668632 -0.24273428
-0.19073866 0.16693921 -0.24273646
-0.19073567 0.16701713 -0.24273461
-0.19073276 0.16709305 -0.24273279
-0.19072975 0.16716902 -0.24273299
-0.19072685 0.16724689 -0.24272913
-0.19072433 0.16732264 -0.24271932
-0.19072141 0.16739856 -0.24271752
-0.19071802 0.16747665 -0.24272366
-0.19071521 0.16755253 -0.24271986
-0.19071259 0.16762833 -0.24271205
-0.19070977 0.16770421 -0.24270824
-0.19070736 0.16778186 -0.24269441
-0.19070444 0.16785778 -0.24269259
-0.19070114 0.16793388 -0.24269877
-0.19069815 0.1680118 -0.24269691
-0.19069542 0.16808765 -0.24269111
-0.1906928 0.16816343 -0.24268332
-0.1906898 0.16824135 -0.24268146
-0.1906864 0.1683175 -0.24268964
-0.19068348 0.16839342 -0.24268782
-0.19068067 0.16846929 -0.24268402
-0.19067776 0.16854522 -0.24268222
-0.19067515 0.16862296 -0.24267235
-0.19067223 0.16869888 -0.24267057
-0.19066904 0.1687769 -0.2426727
-0.19066633 0.16885273 -0.2426669
-0.19107981 0.15796581 -0.24301538
-0.1910771 0.15804359 -0.24300754
-0.19107448 0.15811938 -0.24299973
-0.19107139 0.15819734 -0.24299988
-0.19106819 0.1582734 -0.24300405
-0.19106498 0.15834945 -0.24300824
-0.19106188 0.15842742 -0.24300838
-0.19105937 0.15850316 -0.24299859
-0.19105676 0.15858091 -0.24298874
-0.19105396 0.15865874 -0.24298289
-0.19105114 0.15873462 -0.24297908
-0.19104815 0.15881254 -0.24297723
-0.19104533 0.15888843 -0.24297342
-0.19104224 0.15896639 -0.24297357
-0.19103904 0.15904243 -0.24297774
-0.19103602 0.1591184 -0.24297793
-0.19103284 0.15919641 -0.24298006
-0.19103023 0.15927416 -0.24297023
-0.19102789 0.15934981 -0.24295643
-0.19102481 0.15942778 -0.24295658
-0.19102199 0.15950367 -0.24295276
-0.1910188 0.15958166 -0.24295489
-0.19101569 0.15965769 -0.24295709
-0.19101298 0.15973352 -0.24295127
-0.19101007 0.15981139 -0.24294743
-0.19100709 0.15988931 -0.24294558
-0.19100407 0.15996528 -0.24294576
-0.19100109 0.16004319 -0.2429439
-0.19099826 0.16011907 -0.2429401
-0.19099517 0.16019703 -0.24294023
-0.19099185 0.16027118 -0.24294846
-0.19098885 0.1603491 -0.24294659
-0.19098625 0.16042686 -0.24293676
-0.19098373 0.1605026 -0.24292696
-0.19098073 0.16058052 -0.24292511
-0.19097772 0.16065648 -0.24292529
-0.19097452 0.16073254 -0.24292947
-0.1909714 0.16080855 -0.24293166
-0.1909686 0.16088638 -0.24292581
-0.19096601 0.16096413 -0.24291596
-0.19096337 0.16103992 -0.24290816
-0.19096029 0.16111788 -0.2429083
-0.19095717 0.16119389 -0.24291047
-0.19095407 0.1612699 -0.24291268
-0.19095087 0.16134596 -0.24291685
-0.19094807 0.16142379 -0.242911
-0.19094537 0.16150157 -0.24290314
-0.19094273 0.16157737 -0.24289535
-0.19093992 0.16165325 -0.24289155
-0.19093673 0.16173126 -0.24289368
-0.19093372 0.16180722 -0.24289387
-0.19093083 0.1618851 -0.24289002
-0.19092821 0.16196088 -0.24288222
-0.19092599 0.16203846 -0.24286437
-0.19092299 0.16211638 -0.24286252
-0.1909194 0.16219261 -0.24287468
-0.19091609 0.16226871 -0.24288088
-0.19091327 0.16234459 -0.24287707
-0.19091077 0.16242228 -0.24286522
-0.19090827 0.16249999 -0.24285337
-0.19090573 0.16257574 -0.2428436
-0.19090363 0.16265522 -0.24282171
-0.19090092 0.16273105 -0.24281591
-0.19089663 0.16280563 -0.2428441
-0.19089283 0.16288196 -0.24286026
-0.19089063 0.16295952 -0.24284244
-0.19088811 0.16303723 -0.24283059
-0.19088481 0.16311331 -0.24283677
-0.19088121 0.16318955 -0.24284893
-0.19087791 0.16326565 -0.24285512
-0.1908752 0.16334343 -0.24284726
-0.19087277 0.16341914 -0.24283546
-0.19086979 0.16349706 -0.24283361
-0.19086657 0.16357312 -0.24283779
-0.19085824 0.16380265 -0.24282233
-0.19085543 0.16387853 -0.24281853
-0.19085272 0.16395633 -0.2428107
-0.1908499 0.16403221 -0.24280688
-0.19084689 0.16410817 -0.24280706
-0.19084351 0.16418627 -0.2428132
-0.1908405 0.16426224 -0.24281338
-0.19083777 0.16433807 -0.24280758
-0.19083518 0.16441581 -0.24279773
-0.19083226 0.16449174 -0.24279591
-0.19082887 0.16456982 -0.24280205
-0.19082567 0.16464588 -0.24280624
-0.19082266 0.16472185 -0.24280643
-0.19081965 0.16479781 -0.24280661
-0.19081654 0.16487382 -0.2428088
-0.19081365 0.16495171 -0.24280494
-0.19081092 0.16502754 -0.24279915
-0.190808 0.16510347 -0.24279734
-0.19080521 0.16518129 -0.24279147
-0.19080248 0.16525713 -0.24278568
-0.1907994 0.16533509 -0.24278581
-0.19079639 0.16541106 -0.24278601
-0.19079375 0.16548686 -0.24277821
-0.19079097 0.16556469 -0.24277236
-0.19078794 0.16564065 -0.24277255
-0.19078515 0.16571848 -0.24276669
-0.19078253 0.16579427 -0.2427589
-0.19077961 0.16587019 -0.24275708
-0.19077672 0.16594808 -0.24275322
-0.19077399 0.16602391 -0.24274743
-0.1907708 0.16610192 -0.24274956
-0.1907675 0.16617802 -0.24275574
-0.19076429 0.16625407 -0.24275991
-0.19076128 0.16633004 -0.24276012
-0.19075817 0.16640605 -0.2427623
-0.19075528 0.16648392 -0.24275844
-0.19075257 0.16655976 -0.24275264
-0.19074973 0.16663563 -0.24274883
-0.19074695 0.16671346 -0.24274299
-0.19074422 0.16678931 -0.24273717
-0.19074121 0.16686527 -0.24273737
-0.1907382 0.16694124 -0.24273756
-0.19073521 0.16701916 -0.24273568
-0.19073229 0.16709508 -0.24273388
-0.19072928 0.16717105 -0.24273407
-0.19072638 0.16724892 -0.24273022
-0.19072376 0.16732471 -0.24272242
-0.19072084 0.16740063 -0.2427206
-0.19071756 0.16747868 -0.24272475
-0.19071484 0.16755453 -0.24271894
-0.19071211 0.16763036 -0.24271312
-0.19070929 0.16770624 -0.24270934
-0.19070689 0.16778389 -0.24269548
-0.19070397 0.16785981 -0.24269368
-0.19070067 0.16793591 -0.24269986
-0.19069767 0.16801383 -0.242698
-0.19069485 0.16808972 -0.2426942
-0.19069223 0.1681655 -0.24268639
-0.19068924 0.16824342 -0.24268454
-0.19068584 0.16831957 -0.24269271
-0.19068302 0.16839544 -0.24268891
-0.19068021 0.16847132 -0.24268511
-0.19067729 0.16854724 -0.24268329
-0.19067459 0.16862503 -0.24267544
-0.19067177 0.16870092 -0.24267164
-0.19066848 0.16877897 -0.24267578
-0.19066586 0.16885476 -0.24266797
-0.19107912 0.15796587 -0.24301666
-0.19107652 0.15804361 -0.2430068
-0.19107381 0.15811944 -0.243001
-0.19107081 0.15819737 -0.24299914
-0.19106761 0.15827343 -0.24300334
-0.1910643 0.15834951 -0.24300951
-0.1910613 0.15842745 -0.24300765
-0.19105887 0.15850314 -0.24299586
-0.19105618 0.15858093 -0.24298801
-0.19105338 0.15865877 -0.24298215
-0.19105056 0.15873465 -0.24297835
-0.19104756 0.15881257 -0.24297649
-0.19104466 0.15888849 -0.24297468
-0.19104177 0.15896636 -0.24297082
-0.19103855 0.15904242 -0.24297501
-0.19103535 0.15911847 -0.2429792
-0.19103216 0.15919648 -0.24298133
-0.19102965 0.15927418 -0.24296948
-0.19102733 0.15934984 -0.24295568
-0.19102433 0.15942776 -0.24295384
-0.19102132 0.15950373 -0.24295402
-0.19101822 0.15958169 -0.24295416
-0.19101512 0.1596577 -0.24295634
-0.19101232 0.15973553 -0.2429505
-0.19100951 0.15981141 -0.24294668
-0.19100651 0.15988934 -0.24294484
-0.1910035 0.15996531 -0.24294502
-0.19100061 0.16004318 -0.24294117
-0.19099769 0.1601191 -0.24293935
-0.19099469 0.16019702 -0.24293751
-0.1909913 0.16027316 -0.24294567
-0.19098829 0.16034913 -0.24294585
-0.19098559 0.16042691 -0.24293801
-0.19098306 0.16050266 -0.24292821
-0.19098006 0.16058059 -0.24292636
-0.19097716 0.16065651 -0.24292454
-0.19097395 0.16073257 -0.24292873
-0.19096795 0.16088645 -0.24292706
-0.19096534 0.16096419 -0.24291721
-0.19096281 0.16103993 -0.2429074
-0.19095972 0.16111791 -0.24290755
-0.19095661 0.16119391 -0.24290974
-0.19095351 0.16126992 -0.24291192
-0.1909474 0.16142386 -0.24291225
-0.19094481 0.1615016 -0.2429024
-0.19094218 0.16157739 -0.2428946
-0.19093928 0.16165526 -0.24289075
-0.19093618 0.16173127 -0.24289294
-0.19093317 0.16180724 -0.24289313
-0.19093026 0.16188513 -0.24288927
-0.19092764 0.16196091 -0.24288146
-0.19092542 0.16203848 -0.24286363
-0.19092244 0.16211641 -0.24286178
-0.19091883 0.16219263 -0.24287394
-0.19091563 0.16226868 -0.24287812
-0.19091272 0.1623446 -0.24287632
-0.19091021 0.16242231 -0.24286447
-0.19090761 0.16250005 -0.24285462
-0.19090508 0.1625758 -0.24284483
-0.19090298 0.16265528 -0.24282295
-0.19090036 0.16273107 -0.24281515
-0.19089617 0.16280562 -0.24284135
-0.19089228 0.16288197 -0.24285951
-0.19088997 0.16295959 -0.24284367
-0.19088756 0.16303724 -0.24282983
-0.19088425 0.16311334 -0.24283601
-0.19088057 0.16318962 -0.24285018
-0.19087735 0.16326568 -0.24285436
-0.19087456 0.1633435 -0.24284852
-0.19087213 0.1634192 -0.24283671
-0.19086933 0.16349703 -0.24283087
-0.19086593 0.16357318 -0.24283904
-0.19086301 0.1636491 -0.24283722
-0.19085759 0.16380273 -0.24282357
-0.19085488 0.16387856 -0.24281777
-0.19085217 0.16395634 -0.24280992
-0.19084945 0.16403219 -0.24280411
-0.19084626 0.16411018 -0.24280626
-0.19084296 0.16418628 -0.24281244
-0.19083995 0.16426225 -0.24281263
-0.19083723 0.1643381 -0.24280682
-0.19083463 0.16441584 -0.24279699
-0.19083181 0.16449171 -0.24279317
-0.19082832 0.16456985 -0.24280129
-0.19082211 0.16472188 -0.24280566
-0.1908191 0.16479784 -0.24280585
-0.19081599 0.16487385 -0.24280804
-0.19081309 0.16495173 -0.24280418
-0.19081028 0.1650276 -0.24280038
-0.19080736 0.16510352 -0.24279857
-0.19080456 0.16518137 -0.24279273
-0.19080193 0.16525716 -0.24278492
-0.19079885 0.16533512 -0.24278507
-0.19079593 0.16541104 -0.24278325
-0.19079322 0.16548687 -0.24277744
-0.19079041 0.1655647 -0.2427716
-0.1907874 0.16564067 -0.24277177
-0.19078451 0.16571856 -0.24276793
-0.19078189 0.16579434 -0.24276012
-0.19077906 0.16587022 -0.24275631
-0.19077617 0.16594809 -0.24275246
-0.19077346 0.16602392 -0.24274665
-0.19077036 0.16610189 -0.2427468
-0.19076706 0.16617799 -0.24275297
-0.19076386 0.16625404 -0.24275716
-0.19076075 0.16633005 -0.24275935
-0.19075754 0.16640611 -0.24276352
-0.19075474 0.16648394 -0.24275768
-0.19075212 0.16655974 -0.24274987
-0.1907492 0.16663566 -0.24274807
-0.19074631 0.16671354 -0.24274421
-0.19074358 0.16678937 -0.2427384
-0.19074067 0.16686529 -0.24273659
-0.19073756 0.1669413 -0.24273878
-0.19073457 0.16701922 -0.24273692
-0.19073175 0.16709509 -0.24273312
-0.19072865 0.16717111 -0.2427353
-0.19072585 0.16724895 -0.24272946
-0.19072331 0.16732469 -0.24271965
-0.1907203 0.16740066 -0.24271983
-0.19071692 0.16747876 -0.24272597
-0.19071421 0.16755459 -0.24272016
-0.19071148 0.16763042 -0.24271435
-0.19070876 0.16770625 -0.24270856
-0.19070625 0.16778396 -0.2426967
-0.19070344 0.16785984 -0.2426929
-0.19070004 0.16793598 -0.24270108
-0.19069715 0.16801386 -0.24269724
-0.19069433 0.16808973 -0.24269342
-0.19069169 0.16816552 -0.24268562
-0.19068871 0.16824345 -0.24268377
-0.1906853 0.16831958 -0.24269193
-0.19068249 0.16839546 -0.24268813
-0.19067967 0.16847135 -0.24268432
-0.19067676 0.16854727 -0.24268252
-0.19067405 0.16862506 -0.24267466
-0.19067124 0.16870093 -0.24267086
-0.19066796 0.16877899 -0.24267499
-0.19066523 0.16885482 -0.24266919
-0.19108035 0.1579632 -0.24301669
-0.19107765 0.15804099 -0.24300885
-0.19107503 0.15811677 -0.24300104
-0.19107194 0.15819474 -0.24300119
-0.19106883 0.15827075 -0.24300337
-0.19106552 0.15834685 -0.24300955
-0.19106254 0.15842476 -0.24300769
-0.19106001 0.15850052 -0.2429979
-0.1910574 0.15857826 -0.24298805
-0.19105461 0.15865609 -0.24298221
-0.19105178 0.15873197 -0.24297839
-0.1910487 0.15880993 -0.24297854
-0.19104588 0.15888582 -0.24297473
-0.19104289 0.15896374 -0.24297288
-0.19103968 0.1590398 -0.24297705
-0.19103657 0.15911581 -0.24297924
-0.19103339 0.15919381 -0.24298137
-0.19103079 0.15927155 -0.24297154
-0.19102845 0.15934721 -0.24295774
-0.19102545 0.15942514 -0.24295589
-0.19102255 0.15950106 -0.24295408
-0.19101936 0.15957907 -0.24295622
-0.19101624 0.15965508 -0.2429584
-0.19101346 0.15973291 -0.24295256
-0.19101073 0.15980874 -0.24294674
-0.19100773 0.15988666 -0.24294488
-0.19100481 0.15996258 -0.24294308
-0.19100183 0.1600405 -0.24294122
-0.19099882 0.16011646 -0.24294141
-0.19099583 0.1601944 -0.24293956
-0.19099252 0.1602705 -0.24294573
-0.19098951 0.16034646 -0.24294591
-0.19098681 0.16042425 -0.24293807
-0.19098428 0.16049999 -0.24292827
-0.19098128 0.16057791 -0.24292642
-0.19097827 0.16065387 -0.2429266
-0.19097507 0.16072993 -0.2429308
-0.19097196 0.16080594 -0.24293298
-0.19096915 0.16088377 -0.24292713
-0.19096656 0.16096152 -0.24291727
-0.19096394 0.16103731 -0.24290948
-0.19096094 0.16111523 -0.24290761
-0.19095783 0.16119124 -0.2429098
-0.19095472 0.16126725 -0.24291199
-0.19095144 0.1613453 -0.24291614
-0.19094862 0.16142118 -0.24291232
-0.19094592 0.16149898 -0.24290447
-0.1909433 0.16157477 -0.24289668
-0.19094039 0.16165264 -0.2428928
-0.19093738 0.16172861 -0.24289301
-0.19093429 0.16180462 -0.24289519
-0.19093148 0.16188245 -0.24288934
-0.19092876 0.16195828 -0.24288353
-0.19092654 0.16203585 -0.2428657
-0.19092365 0.16211373 -0.24286184
-0.19092005 0.16218996 -0.24287403
-0.19091675 0.16226606 -0.2428802
-0.19091393 0.16234194 -0.24287638
-0.19091132 0.16241968 -0.24286655
-0.19090882 0.16249739 -0.2428547
-0.19090629 0.16257313 -0.24284491
-0.1909042 0.16265261 -0.24282303
-0.19090158 0.1627284 -0.24281523
-0.19089738 0.16280293 -0.24284142
-0.19089349 0.1628793 -0.24285959
-0.19089118 0.16295691 -0.24284375
-0.19088867 0.16303462 -0.24283192
-0.19088537 0.16311072 -0.24283808
-0.19088177 0.16318694 -0.24285026
-0.19087847 0.16326304 -0.24285644
-0.19087577 0.16334084 -0.24284859
-0.19087334 0.16341653 -0.2428368
-0.19087043 0.16349441 -0.24283294
-0.19086714 0.16357051 -0.24283911
-0.19086413 0.16364647 -0.24283931
-0.1908616 0.16372222 -0.2428295
-0.19085871 0.16380009 -0.24282566
-0.19085598 0.16387594 -0.24281985
-0.19085337 0.16395368 -0.24281001
-0.19085056 0.16402955 -0.2428062
-0.19084747 0.16410752 -0.24280635
-0.19084416 0.16418362 -0.24281251
-0.19084115 0.16425958 -0.24281271
-0.19083834 0.16433546 -0.24280891
-0.19083573 0.16441321 -0.24279906
-0.19083291 0.16448909 -0.24279526
-0.19082953 0.16456719 -0.24280137
-0.19082633 0.16464324 -0.24280557
-0.19082332 0.16471921 -0.24280575
-0.19082031 0.16479518 -0.24280594
-0.19081719 0.16487119 -0.24280812
-0.1908142 0.1649491 -0.24280626
-0.19081149 0.16502494 -0.24280047
-0.19080856 0.16510086 -0.24279866
-0.19080576 0.16517869 -0.24279281
-0.19080305 0.16525452 -0.242787
-0.19080006 0.16533245 -0.24278516
-0.19079705 0.16540842 -0.24278533
-0.19079442 0.1654842 -0.24277753
-0.19079152 0.16556208 -0.24277368
-0.19078851 0.16563804 -0.24277386
-0.19078571 0.16571587 -0.24276802
-0.19078308 0.16579168 -0.24276021
-0.19078027 0.16586755 -0.2427564
-0.19077738 0.16594543 -0.24275255
-0.19077465 0.16602126 -0.24274674
-0.19077146 0.16609927 -0.24274889
-0.19076817 0.16617537 -0.24275507
-0.19076496 0.16625142 -0.24275926
-0.19076185 0.16632743 -0.24276143
-0.19075873 0.16640344 -0.24276362
-0.19075593 0.16648127 -0.24275777
-0.19075322 0.1665571 -0.24275196
-0.1907503 0.16663302 -0.24275015
-0.1907475 0.16671087 -0.2427443
-0.19074479 0.1667867 -0.2427385
-0.19074187 0.16686262 -0.2427367
-0.19073877 0.16693863 -0.24273887
-0.19073577 0.16701655 -0.24273703
-0.19073285 0.16709247 -0.24273521
-0.19072984 0.16716844 -0.2427354
-0.19072695 0.16724631 -0.24273154
-0.19072442 0.16732207 -0.24272174
-0.1907215 0.16739799 -0.24271993
-0.19071813 0.16747609 -0.24272606
-0.1907154 0.16755192 -0.24272026
-0.19071268 0.16762775 -0.24271446
-0.19070986 0.16770363 -0.24271065
-0.19070745 0.16778129 -0.24269682
-0.19070454 0.16785721 -0.242695
-0.19070123 0.16793332 -0.24270119
-0.19069824 0.16801123 -0.24269933
-0.19069552 0.16808707 -0.24269351
-0.1906929 0.16816285 -0.24268574
-0.19068991 0.16824077 -0.24268387
-0.19068651 0.16831692 -0.24269205
-0.19068359 0.16839284 -0.24269024
-0.19068086 0.16846867 -0.24268442
-0.19067796 0.16854459 -0.24268262
-0.19067524 0.16862239 -0.24267477
-0.19067234 0.16869831 -0.24267296
-0.19066915 0.16877632 -0.2426751
-0.19066642 0.16885215 -0.2426693
-0.19107904 0.1579614 -0.24301466
-0.19107634 0.15803918 -0.24300683
-0.19107372 0.15811497 -0.24299902
-0.19107062 0.15819293 -0.24299917
-0.19106741 0.15826899 -0.24300334
-0.19106421 0.15834504 -0.24300751
-0.19106112 0.15842301 -0.24300766
-0.19105859 0.15849876 -0.24299785
-0.19105598 0.1585765 -0.24298802
-0.19105318 0.15865433 -0.24298218
-0.19105037 0.15873021 -0.24297836
-0.19104737 0.15880814 -0.2429765
-0.19104455 0.15888402 -0.2429727
-0.19104147 0.15896198 -0.24297284
-0.19103836 0.15903799 -0.24297503
-0.19103526 0.159114 -0.2429772
-0.19103207 0.15919201 -0.24297935
-0.19102946 0.15926975 -0.2429695
-0.19102712 0.15934542 -0.24295571
-0.19102414 0.15942334 -0.24295385
-0.19102122 0.15949926 -0.24295205
-0.19101803 0.15957727 -0.24295418
-0.19101492 0.15965328 -0.24295637
-0.19101213 0.1597311 -0.24295051
-0.1910094 0.15980694 -0.24294472
-0.19100632 0.1598849 -0.24294485
-0.19100329 0.15996087 -0.24294505
-0.1910004 0.16003875 -0.24294119
-0.1909975 0.16011468 -0.24293938
-0.1909945 0.16019259 -0.24293752
-0.1909911 0.16026874 -0.2429457
-0.19098818 0.16034466 -0.24294388
-0.19098549 0.16042244 -0.24293604
-0.19098295 0.16049819 -0.24292624
-0.19097695 0.16065207 -0.24292457
-0.19097383 0.16072808 -0.24292675
-0.19097055 0.16080613 -0.24293089
-0.19096783 0.16088198 -0.24292509
-0.19096524 0.16095972 -0.24291524
-0.1909626 0.16103551 -0.24290743
-0.19095951 0.16111347 -0.24290758
-0.1909564 0.16118948 -0.24290976
-0.1909533 0.16126549 -0.24291195
-0.1909501 0.16134155 -0.24291614
-0.19094729 0.16141938 -0.24291028
-0.19094458 0.16149718 -0.24290243
-0.19094196 0.16157296 -0.24289463
-0.19093907 0.16165084 -0.24289078
-0.19093606 0.1617268 -0.24289097
-0.19093294 0.16180281 -0.24289316
-0.19093005 0.16188069 -0.2428893
-0.19092743 0.16195649 -0.24288151
-0.19092521 0.16203405 -0.24286366
-0.19092222 0.16211197 -0.24286181
-0.19091873 0.16218816 -0.24287197
-0.19091532 0.1622643 -0.24288017
-0.1909125 0.16234018 -0.24287635
-0.19091 0.16241787 -0.2428645
-0.19090749 0.16249558 -0.24285266
-0.19090496 0.16257133 -0.24284287
-0.19090286 0.16265081 -0.24282099
-0.19090015 0.16272664 -0.24281518
-0.19089594 0.16280118 -0.24284139
-0.19089216 0.1628775 -0.24285755
-0.19088984 0.16295511 -0.24284172
-0.19088744 0.16303277 -0.24282788
-0.19088402 0.16310892 -0.24283606
-0.19088043 0.16318513 -0.24284822
-0.19087714 0.16326123 -0.2428544
-0.19087443 0.16333903 -0.24284655
-0.190872 0.16341473 -0.24283475
-0.19086911 0.16349261 -0.2428309
-0.1908658 0.16356871 -0.24283707
-0.19086279 0.16364467 -0.24283728
-0.19086026 0.16372041 -0.24282748
-0.19085747 0.16379826 -0.24282162
-0.19085464 0.16387413 -0.24281782
-0.19085205 0.16395187 -0.24280797
-0.19084921 0.16402775 -0.24280417
-0.19084613 0.16410571 -0.2428043
-0.19084273 0.16418186 -0.24281248
-0.19083972 0.16425782 -0.24281266
-0.190837 0.16433366 -0.24280687
-0.19083439 0.16441141 -0.24279702
-0.19083157 0.16448729 -0.24279322
-0.1908281 0.16456543 -0.24280134
-0.1908249 0.16464148 -0.24280553
-0.19082187 0.16471745 -0.24280572
-0.19081897 0.16479337 -0.2428039
-0.19081585 0.16486938 -0.24280608
-0.19081286 0.1649473 -0.24280423
-0.19081014 0.16502313 -0.24279843
-0.19080713 0.1650991 -0.24279863
-0.19080442 0.16517688 -0.24279077
-0.19080171 0.16525273 -0.24278498
-0.19079871 0.16533065 -0.2427831
-0.1907957 0.16540661 -0.24278329
-0.19079298 0.16548245 -0.2427775
-0.19079018 0.16556028 -0.24277166
-0.19078717 0.16563624 -0.24277183
-0.19078436 0.16571407 -0.24276598
-0.19078174 0.16578987 -0.24275818
-0.19077893 0.16586575 -0.24275437
-0.19077604 0.16594362 -0.24275053
-0.19077322 0.1660195 -0.24274671
-0.19077003 0.16609751 -0.24274884
-0.19076672 0.16617361 -0.24275503
-0.19076352 0.16624966 -0.2427592
-0.19076051 0.16632563 -0.24275941
-0.19075739 0.16640164 -0.24276158
-0.19075459 0.16647947 -0.24275574
-0.19075188 0.1665553 -0.24274993
-0.19074896 0.16663122 -0.24274811
-0.19074616 0.16670907 -0.24274227
-0.19074343 0.1667849 -0.24273646
-0.19074042 0.16686086 -0.24273665
-0.19073741 0.16693683 -0.24273685
-0.19073442 0.16701475 -0.24273498
-0.19073151 0.16709067 -0.24273318
-0.19072849 0.16716664 -0.24273336
-0.19072559 0.16724451 -0.24272951
-0.19072308 0.16732027 -0.24271971
-0.19072016 0.16739619 -0.24271789
-0.19071688 0.16747424 -0.24272203
-0.19071405 0.16755012 -0.24271822
-0.19071133 0.16762595 -0.24271242
-0.19070852 0.16770183 -0.24270862
-0.1907061 0.16777949 -0.24269478
-0.19070318 0.16785541 -0.24269298
-0.19069988 0.16793151 -0.24269915
-0.1906969 0.16800943 -0.2426973
-0.19069408 0.16808531 -0.24269348
-0.19069144 0.16816109 -0.24268568
-0.19068846 0.16823901 -0.24268383
-0.19068505 0.16831516 -0.24269201
-0.19068223 0.16839103 -0.24268821
-0.19067942 0.16846691 -0.24268439
-0.1906765 0.16854283 -0.24268258
-0.1906739 0.16862059 -0.24267274
-0.19067098 0.16869651 -0.24267092
-0.19066779 0.16877452 -0.24267307
-0.19066517 0.1688503 -0.24266526
-0.19107839 0.15796103 -0.24301536
-0.1910757 0.15803881 -0.24300751
-0.19107307 0.1581146 -0.2429997
-0.19107008 0.15819252 -0.24299785
-0.19106688 0.15826857 -0.24300204
-0.19106357 0.15834467 -0.24300823
-0.19106057 0.15842259 -0.24300635
-0.19105814 0.1584983 -0.24299458
-0.19105534 0.15857613 -0.24298871
-0.19105265 0.15865391 -0.24298087
-0.19104983 0.15872979 -0.24297707
-0.19104683 0.15880772 -0.24297521
-0.19104391 0.15888365 -0.2429734
-0.19104102 0.15896152 -0.24296954
-0.19103782 0.15903758 -0.24297373
-0.19103462 0.15911363 -0.24297792
-0.19103143 0.15919164 -0.24298005
-0.19102882 0.15926938 -0.2429702
-0.19102658 0.159345 -0.2429544
-0.19102359 0.15942292 -0.24295256
-0.19102058 0.15949889 -0.24295273
-0.19101739 0.15957689 -0.24295488
-0.19101429 0.1596529 -0.24295706
-0.19101149 0.15973073 -0.24295121
-0.19100887 0.15980652 -0.24294341
-0.19100578 0.15988448 -0.24294356
-0.19100286 0.1599604 -0.24294174
-0.19099987 0.16003834 -0.24293989
-0.19099686 0.16011429 -0.24294007
-0.19099386 0.16019222 -0.24293822
-0.19099055 0.16026832 -0.2429444
-0.19098754 0.16034429 -0.24294458
-0.19098485 0.16042207 -0.24293673
-0.19098231 0.16049781 -0.24292694
-0.19097923 0.16057578 -0.24292707
-0.19097632 0.1606517 -0.24292527
-0.1909731 0.16072775 -0.24292946
-0.19097 0.16080377 -0.24293163
-0.1909671 0.16088164 -0.24292779
-0.19096459 0.16095935 -0.24291594
-0.19096208 0.16103509 -0.24290615
-0.19095898 0.16111305 -0.24290629
-0.19095588 0.16118906 -0.24290848
-0.19095276 0.16126508 -0.24291065
-0.19094957 0.16134308 -0.2429128
-0.19094665 0.161419 -0.24291098
-0.19094396 0.1614968 -0.24290314
-0.19094133 0.16157259 -0.24289533
-0.19093844 0.16165046 -0.24289149
-0.19093543 0.16172643 -0.24289167
-0.19093232 0.16180244 -0.24289386
-0.19092952 0.16188027 -0.242888
-0.19092679 0.1619561 -0.24288219
-0.19092467 0.16203363 -0.24286237
-0.19092169 0.16211155 -0.24286051
-0.19091809 0.16218778 -0.24287269
-0.19091479 0.16226389 -0.24287885
-0.19091187 0.16233981 -0.24287707
-0.19090927 0.16241755 -0.2428672
-0.19090685 0.16249521 -0.24285337
-0.19090433 0.16257095 -0.24284357
-0.19090222 0.16264848 -0.24282375
-0.19089961 0.16272622 -0.24281389
-0.19089541 0.16280076 -0.2428401
-0.19089153 0.16287713 -0.24285826
-0.19088921 0.16295473 -0.24284241
-0.19088671 0.16303244 -0.24283057
-0.1908834 0.16310854 -0.24283676
-0.19087972 0.16318481 -0.24285093
-0.1908765 0.16326086 -0.2428551
-0.1908738 0.16333866 -0.24284726
-0.19087137 0.16341436 -0.24283546
-0.19086857 0.16349219 -0.24282961
-0.19086517 0.16356833 -0.24283779
-0.19086216 0.1636443 -0.24283798
-0.19085954 0.16372009 -0.24283019
-0.19085674 0.16379791 -0.24282432
-0.19085401 0.16387376 -0.24281852
-0.19085142 0.1639515 -0.24280867
-0.1908486 0.16402738 -0.24280487
-0.1908455 0.16410534 -0.242805
-0.19084221 0.16418144 -0.24281119
-0.1908391 0.16425745 -0.24281338
-0.19083637 0.16433328 -0.24280757
-0.19083378 0.16441104 -0.24279773
-0.19083105 0.16448687 -0.24279192
-0.19082758 0.16456501 -0.24280006
-0.19082436 0.16464107 -0.24280423
-0.19082135 0.16471703 -0.24280442
-0.19081834 0.164793 -0.24280462
-0.19081514 0.16486906 -0.24280879
-0.19081225 0.16494693 -0.24280494
-0.19080952 0.16502276 -0.24279913
-0.19080651 0.16509873 -0.24279931
-0.19080371 0.16517656 -0.24279347
-0.19080108 0.16525234 -0.24278566
-0.19079809 0.16533028 -0.24278381
-0.19079508 0.16540624 -0.24278399
-0.19079246 0.16548203 -0.2427762
-0.19078965 0.16555986 -0.24277034
-0.19078654 0.16563587 -0.24277253
-0.19078365 0.16571374 -0.24276868
-0.19078113 0.1657895 -0.24275889
-0.1907783 0.16586538 -0.24275509
-0.19077541 0.16594325 -0.24275123
-0.19077268 0.16601908 -0.24274543
-0.1907696 0.16609704 -0.24274556
-0.1907662 0.16617319 -0.24275374
-0.19076309 0.1662492 -0.24275592
-0.19075999 0.16632521 -0.2427581
-0.19075677 0.16640127 -0.2427623
-0.19075398 0.1664791 -0.24275644
-0.19075125 0.16655493 -0.24275064
-0.19074833 0.16663085 -0.24274883
-0.19074544 0.16670874 -0.24274498
-0.19074273 0.16678457 -0.24273917
-0.1907399 0.16686045 -0.24273536
-0.1907368 0.16693646 -0.24273755
-0.19073381 0.16701438 -0.24273568
-0.19073088 0.1670903 -0.24273388
-0.19072787 0.16716626 -0.24273407
-0.19072498 0.16724414 -0.24273022
-0.19072245 0.16731989 -0.24272043
-0.19071954 0.16739582 -0.24271861
-0.19071616 0.16747391 -0.24272475
-0.19071335 0.16754979 -0.24272093
-0.19071072 0.16762558 -0.24271312
-0.19070789 0.16770145 -0.24270934
-0.19070549 0.16777912 -0.24269548
-0.19070257 0.16785504 -0.24269368
-0.19069926 0.16793114 -0.24269986
-0.19069627 0.16800906 -0.242698
-0.19069356 0.16808489 -0.2426922
-0.19069093 0.16816068 -0.24268439
-0.19068794 0.1682386 -0.24268255
-0.19068454 0.16831474 -0.24269071
-0.19068162 0.16839066 -0.24268891
-0.19067889 0.16846649 -0.24268311
-0.19067599 0.16854241 -0.24268129
-0.19067329 0.16862021 -0.24267346
-0.19067037 0.16869614 -0.24267164
-0.19066718 0.16877414 -0.24267378
-0.19066446 0.16884997 -0.24266797
-0.19108045 0.15796199 -0.24301645
-0.19107775 0.15803979 -0.24300861
-0.19107513 0.15811558 -0.24300081
-0.19107205 0.15819354 -0.24300095
-0.19106884 0.1582696 -0.24300513
-0.19106562 0.15834565 -0.24300931
-0.19106254 0.15842362 -0.24300945
-0.19106002 0.15849936 -0.24299966
-0.19105741 0.15857711 -0.24298981
-0.19105461 0.15865494 -0.24298397
-0.19105189 0.15873078 -0.24297816
-0.1910488 0.15880874 -0.2429783
-0.19104598 0.15888461 -0.24297449
-0.1910429 0.15896258 -0.24297464
-0.19103979 0.1590386 -0.24297681
-0.19103667 0.1591146 -0.242979
-0.1910335 0.15919261 -0.24298114
-0.19103096 0.15926836 -0.24297135
-0.19102855 0.15934601 -0.2429575
-0.19102556 0.15942393 -0.24295564
-0.19102265 0.15949985 -0.24295384
-0.19101946 0.15957786 -0.24295598
-0.19101635 0.15965387 -0.24295816
-0.19101356 0.15973172 -0.24295232
-0.19101073 0.15980759 -0.2429485
-0.19100775 0.15988551 -0.24294665
-0.19100474 0.15996148 -0.24294683
-0.19100174 0.1600394 -0.24294497
-0.19099893 0.16011527 -0.24294117
-0.19099593 0.16019319 -0.24293932
-0.19099253 0.16026933 -0.24294749
-0.19098952 0.1603453 -0.24294767
-0.19098692 0.16042306 -0.24293783
-0.19098438 0.1604988 -0.24292803
-0.1909813 0.16057676 -0.24292818
-0.19097838 0.16065268 -0.24292636
-0.19097508 0.16072878 -0.24293254
-0.19097206 0.16080475 -0.24293274
-0.19096927 0.16088258 -0.24292688
-0.19096667 0.16096033 -0.24291703
-0.19096404 0.16103612 -0.24290924
-0.19096094 0.16111408 -0.24290937
-0.19095784 0.16119009 -0.24291156
-0.19095473 0.1612661 -0.24291375
-0.19095153 0.16134216 -0.24291793
-0.19094872 0.16141999 -0.24291208
-0.19094603 0.16149777 -0.24290422
-0.19094341 0.16157357 -0.24289644
-0.19094059 0.16164945 -0.24289262
-0.1909374 0.16172746 -0.24289475
-0.19093439 0.16180342 -0.24289495
-0.19093148 0.1618813 -0.24289109
-0.19092886 0.16195709 -0.24288329
-0.19092666 0.16203466 -0.24286544
-0.19092366 0.16211258 -0.2428636
-0.19092016 0.16218877 -0.24287377
-0.19091676 0.16226491 -0.24288195
-0.19091395 0.16234079 -0.24287814
-0.19091144 0.16241848 -0.24286631
-0.19090892 0.16249619 -0.24285445
-0.19090641 0.16257194 -0.24284467
-0.19090429 0.16264945 -0.24282482
-0.19090158 0.16272725 -0.24281698
-0.19089739 0.16280179 -0.24284318
-0.19089359 0.16287811 -0.24285933
-0.19089128 0.16295572 -0.24284351
-0.19088878 0.16303343 -0.24283166
-0.19088547 0.16310951 -0.24283785
-0.19088179 0.16318579 -0.242852
-0.19087857 0.16326185 -0.2428562
-0.19087587 0.16333963 -0.24284834
-0.19087344 0.16341534 -0.24283655
-0.19087055 0.16349322 -0.24283269
-0.19086725 0.16356932 -0.24283887
-0.19086424 0.16364528 -0.24283907
-0.1908617 0.16372102 -0.24282926
-0.19085881 0.1637989 -0.24282542
-0.19085608 0.16387473 -0.24281961
-0.19085349 0.16395248 -0.24280976
-0.19085068 0.16402836 -0.24280596
-0.19084756 0.16410437 -0.24280813
-0.19084418 0.16418247 -0.24281427
-0.19084117 0.16425844 -0.24281445
-0.19083844 0.16433427 -0.24280865
-0.19083585 0.16441201 -0.24279881
-0.19083293 0.16448793 -0.242797
-0.19082955 0.16456603 -0.24280313
-0.19082634 0.16464208 -0.24280731
-0.19082333 0.16471805 -0.24280751
-0.19082041 0.16479397 -0.24280569
-0.19081721 0.16487002 -0.24280988
-0.19081432 0.1649479 -0.24280602
-0.19081159 0.16502374 -0.24280022
-0.19080858 0.16509971 -0.24280041
-0.19080588 0.16517749 -0.24279256
-0.19080316 0.16525333 -0.24278677
-0.19080007 0.16533129 -0.24278688
-0.19079706 0.16540726 -0.24278709
-0.19079444 0.16548306 -0.24277928
-0.19079164 0.16556089 -0.24277344
-0.19078863 0.16563685 -0.24277362
-0.19078572 0.16571473 -0.24276978
-0.1907832 0.16579047 -0.24275997
-0.19078028 0.16586639 -0.24275815
-0.19077748 0.16594423 -0.24275231
-0.19077477 0.16602007 -0.2427465
-0.19077148 0.16609812 -0.24275064
-0.19076818 0.16617422 -0.24275681
-0.19076498 0.16625027 -0.24276099
-0.19076195 0.16632624 -0.24276119
-0.19075885 0.16640225 -0.24276337
-0.19075605 0.16648008 -0.24275753
-0.19075333 0.16655591 -0.24275172
-0.19075042 0.16663183 -0.2427499
-0.19074762 0.16670966 -0.24274406
-0.19074489 0.16678551 -0.24273825
-0.19074188 0.16686147 -0.24273844
-0.19073877 0.16693749 -0.24274063
-0.19073588 0.16701536 -0.24273677
-0.19073297 0.16709128 -0.24273497
-0.19072995 0.16716725 -0.24273515
-0.19072706 0.16724512 -0.2427313
-0.19072443 0.16732091 -0.24272349
-0.19072151 0.16739683 -0.24272168
-0.19071823 0.16747488 -0.24272582
-0.19071552 0.16755073 -0.24272001
-0.19071279 0.16762656 -0.24271421
-0.19070998 0.16770244 -0.24271041
-0.19070756 0.16778009 -0.24269655
-0.19070464 0.16785601 -0.24269477
-0.19070135 0.16793211 -0.24270093
-0.19069836 0.16801003 -0.24269909
-0.19069554 0.16808592 -0.24269527
-0.19069292 0.16816171 -0.24268746
-0.19068992 0.16823962 -0.24268562
-0.19068652 0.16831577 -0.2426938
-0.19068371 0.16839164 -0.24268998
-0.19068088 0.16846752 -0.24268618
-0.19067797 0.16854344 -0.24268436
-0.19067527 0.16862123 -0.24267653
-0.19067244 0.16869712 -0.24267271
-0.19066916 0.16877517 -0.24267685
-0.19066654 0.16885096 -0.24266905
-0.19107991 0.15796232 -0.24301657
-0.1910772 0.15804011 -0.24300873
-0.19107458 0.15811589 -0.24300092
-0.1910715 0.15819387 -0.24300107
-0.19106829 0.15826993 -0.24300525
-0.19106509 0.15834597 -0.24300943
-0.19106199 0.15842395 -0.24300957
-0.19105956 0.15849964 -0.24299778
-0.19105686 0.15857743 -0.24298993
-0.19105406 0.15865526 -0.24298409
-0.19105135 0.1587311 -0.24297827
