# .PCD v0.7 - Point Cloud Data file format
VERSION 0.7
FIELDS x y z
SIZE 4 4 4
TYPE F F F
COUNT 1 1 1
WIDTH 1304
HEIGHT 1
VIEWPOINT 0 0 0 1 0 0 0
POINTS 1304
DATA ascii
0.0231064 -0.038106553 -0.31682473
0.023104753 -0.038024627 -0.31682107
0.023103144 -0.037944701 -0.3168174
0.023101497 -0.037862778 -0.31681371
0.023100046 -0.037780769 -0.31681404
0.023098439 -0.037700839 -0.31681037
0.023096792 -0.037618916 -0.3168067
0.023095146 -0.037536994 -0.31680301
0.023093633 -0.037457023 -0.31680137
0.023092084 -0.037375055 -0.31679964
0.023090731 -0.037292998 -0.31680197
0.023089474 -0.037210904 -0.31680626
0.023088375 -0.03712672 -0.31681451
0.023087215 -0.037044581 -0.3168208
0.023086056 -0.036962442 -0.31682712
0.023084704 -0.036880389 -0.31682941
0.023083055 -0.036798462 -0.31682572
0.023081448 -0.036718536 -0.31682208
0.023079898 -0.036636569 -0.31682038
0.023078447 -0.036554556 -0.31682068
0.023076996 -0.036472544 -0.31682098
0.023075446 -0.03639058 -0.31681931
0.023073897 -0.036308609 -0.31681761
0.023072641 -0.036226511 -0.3168219
0.023071483 -0.036144372 -0.31682819
0.023070225 -0.036062278 -0.31683248
0.023068834 -0.03597822 -0.31683475
0.023067225 -0.035898298 -0.31683111
0.023065675 -0.035816327 -0.31682944
0.023064028 -0.035734408 -0.31682575
0.023062225 -0.035654563 -0.31681809
0.023060579 -0.035572641 -0.31681442
0.023058873 -0.035492755 -0.31680876
0.023057127 -0.035410874 -0.31680307
0.02305552 -0.035330951 -0.3167994
0.023053873 -0.035249025 -0.31679574
0.02305242 -0.035167016 -0.31679603
0.023051165 -0.035084918 -0.31680036
0.023050163 -0.035000689 -0.31681058
0.023048809 -0.034918636 -0.31681287
0.023047358 -0.034836628 -0.3168132
0.023046004 -0.034754574 -0.3168155
0.023044806 -0.034670435 -0.31682175
0.023043843 -0.034588207 -0.31683204
0.023042645 -0.034504067 -0.31683829
0.023041194 -0.034422055 -0.31683862
0.023039743 -0.034340046 -0.31683892
0.02303829 -0.034258034 -0.31683922
0.023036683 -0.034178108 -0.31683555
0.023035036 -0.034096185 -0.31683189
0.02303339 -0.034014262 -0.31682819
0.02303184 -0.033932291 -0.31682649
0.023030231 -0.033852369 -0.31682286
0.02302878 -0.033770353 -0.31682315
0.02302723 -0.033688389 -0.31682146
0.023025779 -0.033606376 -0.31682175
0.023024485 -0.033522278 -0.31682602
0.023023229 -0.033440184 -0.31683034
0.024108414 -0.085151359 -0.3164168
0.024106476 -0.085069567 -0.31640711
0.02410483 -0.08498764 -0.31640342
0.024103416 -0.084907629 -0.31640375
0.024101965 -0.08482562 -0.31640407
0.024100747 -0.084745519 -0.3164084
0.024099432 -0.084665462 -0.31641075
0.024098115 -0.084585413 -0.3164131
0.0240968 -0.084505357 -0.31641543
0.02409564 -0.084423214 -0.31642175
0.024094032 -0.084343292 -0.31641808
0.024092289 -0.08426141 -0.31641239
0.024090838 -0.084179401 -0.31641272
0.024089327 -0.084099427 -0.31641108
0.024087779 -0.084017463 -0.31640938
0.024086364 -0.083937451 -0.31640971
0.024085145 -0.083857358 -0.31641406
0.024084222 -0.08377713 -0.31642437
0.024083333 -0.083698899 -0.31643477
0.024082076 -0.083616801 -0.31643906
0.024080761 -0.083536744 -0.31644142
0.024079543 -0.08345665 -0.31644574
0.024078032 -0.083376676 -0.3164441
0.02407619 -0.083294839 -0.31643641
0.024074214 -0.083211049 -0.31642669
0.024072373 -0.083129212 -0.31641901
0.024070628 -0.083047323 -0.31641331
0.024069216 -0.082967311 -0.31641367
0.024068192 -0.082887128 -0.31642199
0.024066973 -0.082807034 -0.31642634
0.024065562 -0.082727022 -0.31642669
0.024064207 -0.082644969 -0.31642899
0.024063319 -0.082566738 -0.31643936
0.024062296 -0.082486555 -0.31644771
0.024061274 -0.082406372 -0.31645602
0.024060152 -0.082326226 -0.31646237
0.024059128 -0.082246043 -0.31647071
0.024057813 -0.082165986 -0.31647307
0.024056166 -0.08208406 -0.31646937
0.024054617 -0.082002096 -0.31646767
0.024052912 -0.081922211 -0.31646201
0.024051363 -0.081840247 -0.31646031
0.024049949 -0.081760235 -0.31646067
0.024048401 -0.081678271 -0.316459
0.024046987 -0.081598252 -0.31645933
0.024045439 -0.081516288 -0.31645763
0.024044026 -0.081436276 -0.31645799
0.0240431 -0.081356049 -0.3164683
0.024042115 -0.081277862 -0.3164767
0.024040859 -0.081195764 -0.31648099
0.024039641 -0.081115671 -0.31648535
0.024038227 -0.081035659 -0.3164857
0.024036717 -0.080955684 -0.31648403
0.024035167 -0.08087372 -0.31648234
0.024033619 -0.080791757 -0.31648064
0.024031913 -0.080711871 -0.316475
0.024030071 -0.080630034 -0.31646731
0.024028622 -0.080548018 -0.31646764
0.024027305 -0.080467969 -0.31646997
0.024025891 -0.08038795 -0.31647032
0.024024576 -0.080307901 -0.31647265
0.024023123 -0.080225885 -0.31647295
0.024021711 -0.080145873 -0.31647331
0.024020201 -0.080065906 -0.31647167
0.024019139 -0.079983726 -0.31647995
0.024018154 -0.07990554 -0.31648833
0.024016995 -0.079823397 -0.31649461
0.02401601 -0.079745211 -0.31650299
0.024014888 -0.079665072 -0.31650934
0.02401334 -0.079583108 -0.31650764
0.0240115 -0.079501271 -0.31649995
0.024009988 -0.079421297 -0.31649831
0.02400877 -0.079341203 -0.31650266
0.024007222 -0.079259232 -0.31650096
0.024005711 -0.079179265 -0.31649929
0.024004161 -0.079097301 -0.31649762
0.024002943 -0.079017192 -0.31650198
0.024001822 -0.078937054 -0.31650829
0.024000507 -0.078857005 -0.31651065
0.023999153 -0.078774944 -0.31651294
0.023997545 -0.078695022 -0.31650931
0.023995703 -0.078613184 -0.31650162
0.023993863 -0.07853134 -0.31649393
0.023992352 -0.078451373 -0.31649229
0.023991035 -0.078371324 -0.31649461
0.023989584 -0.078289308 -0.31649494
0.023988074 -0.078209341 -0.31649327
0.023986232 -0.078127503 -0.31648558
0.023983708 -0.078045964 -0.31646392
0.02398023 -0.077960819 -0.31642419
0.023976987 -0.077877581 -0.31638852
0.023975438 -0.077795617 -0.31638682
0.023974512 -0.077715389 -0.31639716
0.02397454 -0.077638768 -0.31642556
0.023977082 -0.077565074 -0.31650394
0.023976583 -0.077486679 -0.3165223
0.023975229 -0.077404618 -0.31652462
0.023973817 -0.077324614 -0.31652498
0.023972403 -0.077244602 -0.31652531
0.023970757 -0.077162676 -0.31652161
0.02396905 -0.07708279 -0.31651598
0.023967111 -0.077000998 -0.3165063
0.023965172 -0.076919198 -0.31649661
0.023963332 -0.076837361 -0.31648892
0.023961723 -0.076757438 -0.31648529
0.023960505 -0.076677337 -0.31648964
0.023959346 -0.076595195 -0.31649593
0.023958128 -0.076515101 -0.31650025
0.02395652 -0.076435179 -0.31649661
0.023954973 -0.076353207 -0.31649494
0.023953557 -0.076273195 -0.31649527
0.023952339 -0.076193094 -0.31649959
0.023951316 -0.076112911 -0.31650794
0.023950391 -0.076032683 -0.31651828
0.023949269 -0.075952545 -0.31652462
0.023947954 -0.075872488 -0.31652695
0.02394654 -0.075792477 -0.31652731
0.023945285 -0.075710379 -0.3165316
0.023943968 -0.075630322 -0.31653395
0.023942556 -0.075550318 -0.31653428
0.023941239 -0.075470261 -0.31653664
0.023939885 -0.075388208 -0.31653893
0.023938278 -0.075308278 -0.31653529
0.023936145 -0.075226568 -0.31652161
0.023934107 -0.07514482 -0.31650993
0.023932304 -0.075064979 -0.3165023
0.023930853 -0.074982971 -0.3165026
0.023929439 -0.074902952 -0.31650296
0.023928026 -0.074822947 -0.31650329
0.023926612 -0.074742928 -0.31650364
0.0239252 -0.074662916 -0.316504
0.023924042 -0.074580781 -0.31651029
0.023922529 -0.074500814 -0.31650865
0.023920726 -0.074420974 -0.31650099
0.023919079 -0.074339047 -0.3164973
0.023917668 -0.074259035 -0.31649765
0.023916449 -0.074178934 -0.31650198
0.023915328 -0.074098796 -0.31650832
0.02391411 -0.074018702 -0.31651267
0.02391256 -0.073936731 -0.31651098
0.02391105 -0.073856764 -0.31650931
0.02390993 -0.073776618 -0.31651565
0.023908809 -0.073696479 -0.316522
0.023907786 -0.073616296 -0.31653035
0.023906566 -0.073536195 -0.31653467
0.023905251 -0.073456146 -0.31653702
0.023904229 -0.073375955 -0.31654537
0.0239034 -0.07329569 -0.31655768
0.023901889 -0.073215723 -0.31655604
0.023899853 -0.073133968 -0.31654435
0.0238984 -0.073051959 -0.31654465
0.023897085 -0.072971903 -0.31654701
0.023895379 -0.072892018 -0.31654137
0.023893539 -0.07281018 -0.31653368
0.023892028 -0.072730213 -0.31653202
0.023890382 -0.072648287 -0.31652832
0.023888443 -0.072566494 -0.31651866
0.02388664 -0.072486654 -0.31651101
0.02388503 -0.072406724 -0.31650737
0.023883775 -0.072324626 -0.31651166
0.023882557 -0.072244532 -0.31651601
0.023881143 -0.072164521 -0.31651634
0.023879729 -0.072084509 -0.3165167
0.023878317 -0.072004497 -0.31651706
0.023879282 -0.071925446 -0.31656536
0.023875745 -0.071842343 -0.31652367
0.023874624 -0.071762204 -0.31653002
0.023873601 -0.071682021 -0.31653836
0.023872614 -0.071603835 -0.31654674
0.023871554 -0.071521647 -0.31655502
0.023870472 -0.071443506 -0.3165614
0.023869935 -0.071363106 -0.31657973
0.023870608 -0.07128419 -0.31662205
0.023868902 -0.071204312 -0.31661642
0.023864742 -0.071119465 -0.31656271
0.023862256 -0.07103993 -0.31654108
0.023860708 -0.070957959 -0.31653941
0.023859099 -0.070878029 -0.31653574
0.023857588 -0.070798062 -0.3165341
0.023855941 -0.070716135 -0.31653041
0.023854626 -0.070636086 -0.31653276
0.023853408 -0.070555985 -0.31653708
0.023852091 -0.070475928 -0.31653944
0.023850873 -0.070395835 -0.31654379
0.023849715 -0.070313692 -0.31655008
0.023848692 -0.070233509 -0.31655842
0.023847863 -0.070153236 -0.31657073
0.023846742 -0.070073098 -0.31657708
0.02384533 -0.069993086 -0.31657743
0.023843527 -0.069913246 -0.31656978
0.023841685 -0.069831409 -0.31656212
0.023839941 -0.069749527 -0.31655642
0.023838332 -0.069669604 -0.31655276
0.023836724 -0.069589674 -0.31654912
0.0238357 -0.069509491 -0.31655747
0.023835067 -0.069429137 -0.31657377
0.023832934 -0.069347426 -0.31656009
0.023830215 -0.069265977 -0.31653446
0.023828899 -0.06918592 -0.31653678
0.023827486 -0.069105908 -0.31653714
0.023825645 -0.069024071 -0.31652945
0.023824133 -0.068944097 -0.31652778
0.02382311 -0.068863913 -0.31653613
0.023823686 -0.068785042 -0.31657648
0.023826249 -0.068707302 -0.31665677
0.023826044 -0.068628773 -0.31668115
0.023823813 -0.068547107 -0.31666547
0.023822069 -0.068465225 -0.31665978
0.023819057 -0.06838391 -0.31662813
0.023814155 -0.068301402 -0.31655848
0.023810362 -0.068220429 -0.31651086
0.023808815 -0.068138458 -0.31650919
0.023807986 -0.068058185 -0.3165215
0.023807196 -0.067979917 -0.31653386
0.02380633 -0.067897648 -0.31654614
0.023805441 -0.067819417 -0.31655654
0.02380399 -0.067737408 -0.31655684
0.023802577 -0.067657396 -0.31655717
0.023801066 -0.067577429 -0.31655553
0.023799226 -0.067495592 -0.31654784
0.023797031 -0.067415923 -0.31653222
0.023795191 -0.067334086 -0.31652454
0.023794459 -0.067253768 -0.31653887
0.023794059 -0.067175329 -0.31655923
0.023793329 -0.067095011 -0.31657356
0.02379211 -0.067014918 -0.31657788
0.023790367 -0.066933036 -0.31657219
0.023788564 -0.066853195 -0.31656456
0.023787051 -0.066773228 -0.31656292
0.023785992 -0.066691041 -0.31657121
0.023784772 -0.066610947 -0.31657553
0.023783652 -0.066530801 -0.31658188
0.023782531 -0.066450663 -0.31658822
0.023781117 -0.066370651 -0.31658858
0.023779472 -0.066288725 -0.31658489
0.023778059 -0.066208713 -0.31658521
0.023776744 -0.066128656 -0.31658757
0.023775427 -0.066048607 -0.31658992
0.023773879 -0.065966636 -0.31658822
0.023772366 -0.065886669 -0.31658655
0.023770856 -0.065806702 -0.31658491
0.023769014 -0.065724865 -0.31657723
0.023767114 -0.065645069 -0.3165676
0.023765603 -0.065565094 -0.31656593
0.023764249 -0.065483041 -0.31656826
0.023762837 -0.065403029 -0.31656858
0.023761421 -0.065323018 -0.31656894
0.023760205 -0.065242916 -0.31657326
0.023759181 -0.065162733 -0.31658161
0.023757633 -0.065080769 -0.31657994
0.023756318 -0.065000713 -0.31658226
0.023755001 -0.064920656 -0.31658462
0.02375349 -0.064840689 -0.31658298
0.02375198 -0.064760722 -0.31658131
0.023750529 -0.064678714 -0.31658161
0.023748823 -0.064598829 -0.31657597
0.02374698 -0.064516991 -0.31656829
0.02374547 -0.064437017 -0.31656665
0.023744056 -0.064357013 -0.31656697
0.023742545 -0.064277038 -0.31656533
0.02374123 -0.064196981 -0.31656766
0.023739779 -0.064114973 -0.31656799
0.023738462 -0.064034916 -0.31657034
0.023736464 -0.063955165 -0.31655869
0.023733258 -0.063873932 -0.31652305
0.023730539 -0.063792482 -0.31649739
0.023730002 -0.063712083 -0.31651571
0.023730189 -0.063633375 -0.31654805
0.023729652 -0.063552976 -0.31656638
0.023728885 -0.063470669 -0.31658065
0.023728153 -0.063390352 -0.31659499
0.023726838 -0.063310295 -0.31659734
0.023724839 -0.063230544 -0.31658569
0.023722704 -0.063148834 -0.31657201
0.023721486 -0.06306874 -0.31657636
0.023720952 -0.062988341 -0.31659466
0.02371983 -0.062908195 -0.31660101
0.023718087 -0.062826313 -0.31659532
0.023716381 -0.062746435 -0.31658968
0.023715064 -0.062666379 -0.31659204
0.023713749 -0.062586322 -0.31659436
0.023712493 -0.062504224 -0.31659865
0.023711469 -0.062424041 -0.316607
0.023710154 -0.062343989 -0.31660935
0.02370874 -0.062263977 -0.31660968
0.023707327 -0.062183965 -0.31661004
0.023705583 -0.062102083 -0.31660435
0.023703877 -0.062022198 -0.31659871
0.023702269 -0.061942272 -0.31659505
0.023700623 -0.061860349 -0.31659138
0.023699308 -0.061780293 -0.31659371
0.023697991 -0.06170024 -0.31659606
0.023696579 -0.061620228 -0.31659639
0.023695126 -0.061538216 -0.31659672
0.023693811 -0.061458163 -0.31659904
0.023692496 -0.061378106 -0.3166014
0.023691043 -0.061296094 -0.31660169
0.023689631 -0.061216082 -0.31660205
0.023688413 -0.061135985 -0.3166064
0.023687292 -0.061055847 -0.31661272
0.023685781 -0.060975876 -0.31661108
0.023684232 -0.060893908 -0.31660938
0.023682721 -0.060813941 -0.31660771
0.02368121 -0.06073397 -0.31660607
0.023680052 -0.060651831 -0.31661236
0.023679126 -0.060571603 -0.3166227
0.023678005 -0.060491461 -0.31662905
0.023676299 -0.06041158 -0.31662339
0.023674555 -0.060329698 -0.31661773
0.023673434 -0.060249556 -0.31662405
0.023673192 -0.06016903 -0.31664836
0.023674179 -0.060085941 -0.31669861
0.023674715 -0.060005069 -0.3167389
0.023674082 -0.059924711 -0.31675521
0.023672475 -0.059844784 -0.31675157
0.023668975 -0.059763681 -0.31670994
0.023664441 -0.059685048 -0.31664637
0.023661954 -0.059605509 -0.31662476
0.023661517 -0.059525065 -0.31664506
0.023660943 -0.059442665 -0.31666332
0.02365914 -0.059362829 -0.3166557
0.023656517 -0.059281334 -0.31663203
0.023654325 -0.059201665 -0.31661642
0.023652717 -0.059121739 -0.31661278
0.023651304 -0.059041727 -0.31661311
0.023650046 -0.058959633 -0.3166174
0.023648731 -0.058879577 -0.31661975
0.023646928 -0.058799736 -0.31661212
0.023645125 -0.0587199 -0.31660447
0.023643576 -0.058637928 -0.31660277
0.023642357 -0.058557831 -0.31660712
0.023640906 -0.058475822 -0.31660742
0.023639493 -0.05839581 -0.31660777
0.023638178 -0.058315754 -0.3166101
0.023637252 -0.058235526 -0.31662044
0.023637068 -0.058152955 -0.3166467
0.023636825 -0.058072429 -0.31667101
0.023635861 -0.057990201 -0.31668133
0.023634642 -0.057910103 -0.31668565
0.02363323 -0.057830092 -0.316686
0.02363123 -0.057750337 -0.31667435
0.023628902 -0.057668716 -0.31665671
0.023626806 -0.057589006 -0.31664306
0.023624904 -0.05750921 -0.31663343
0.023622967 -0.057427414 -0.31662375
0.023621261 -0.057347529 -0.31661808
0.023619458 -0.057267692 -0.31661046
0.02361824 -0.057187594 -0.31661481
0.023617959 -0.057105064 -0.31663907
0.023617422 -0.057024665 -0.31665739
0.023616362 -0.056942482 -0.31666568
0.023613777 -0.056862988 -0.31664205
0.023611486 -0.056783363 -0.31662443
0.023609878 -0.056703437 -0.3166208
0.023608232 -0.056621514 -0.3166171
0.023606818 -0.056541502 -0.31661743
0.023605503 -0.056461446 -0.31661978
0.023604052 -0.056379434 -0.31662011
0.023602346 -0.056299552 -0.31661445
0.023601029 -0.056219496 -0.31661677
0.023599677 -0.056137443 -0.3166191
0.023598166 -0.056057476 -0.31661743
0.023596849 -0.055977419 -0.31661978
0.023595437 -0.055897407 -0.31662014
0.023593985 -0.055815399 -0.31662044
0.02359267 -0.055735342 -0.31662279
0.023591315 -0.055653289 -0.31662509
0.023590097 -0.055573191 -0.31662941
0.023589075 -0.055493008 -0.31663775
0.02358811 -0.05541078 -0.31664804
0.023587538 -0.05532838 -0.31666633
0.023586709 -0.055248111 -0.31667864
0.023585161 -0.055166144 -0.31667697
0.023583064 -0.055086434 -0.31666332
0.023580872 -0.055006765 -0.31664771
0.023579262 -0.054926842 -0.31664407
0.0235782 -0.054844655 -0.31665236
0.023577373 -0.054764386 -0.3166647
0.02357596 -0.054684374 -0.31666502
0.023574118 -0.054602537 -0.31665733
0.023572706 -0.054522526 -0.31665769
0.023571644 -0.054440342 -0.31666598
0.023570329 -0.054360285 -0.31666833
0.023568816 -0.054280318 -0.31666666
0.023567367 -0.054198306 -0.31666696
0.023565758 -0.05411838 -0.31666332
0.023564111 -0.054036457 -0.31665963
0.023562601 -0.05395649 -0.31665799
0.023561187 -0.053876474 -0.31665832
0.023559736 -0.053794466 -0.31665865
0.023558225 -0.053714499 -0.31665701
0.023556616 -0.053634569 -0.31665334
0.023555068 -0.053552601 -0.31665164
0.023553558 -0.053472634 -0.31665
0.023552144 -0.053392623 -0.31665033
0.02355079 -0.053310569 -0.31665266
0.023549378 -0.053230558 -0.31665301
0.023547769 -0.053150631 -0.31664935
0.023546513 -0.053068534 -0.31665364
0.023545258 -0.052986436 -0.31665796
0.02354404 -0.052906338 -0.31666228
0.023542879 -0.052824199 -0.31666857
0.023542052 -0.052743927 -0.31668091
0.023541089 -0.052661702 -0.31669122
0.023539772 -0.052581646 -0.31669354
0.023538418 -0.052499592 -0.31669587
0.023536518 -0.052419797 -0.31668621
0.023533095 -0.052342691 -0.31664467
0.023530219 -0.052263323 -0.31661505
0.023528766 -0.052181311 -0.31661534
0.023528134 -0.052100956 -0.31663167
0.023527913 -0.052016385 -0.3166579
0.023527473 -0.051935945 -0.31667823
0.023526024 -0.051853932 -0.31667852
0.023524415 -0.051774006 -0.31667489
0.023523159 -0.051691908 -0.31667918
0.023521746 -0.051611897 -0.31667954
0.023520295 -0.051529884 -0.31667984
0.023519173 -0.051449746 -0.31668615
0.023518015 -0.051367607 -0.31669247
0.023516797 -0.05128751 -0.31669679
0.023515442 -0.051205453 -0.31669909
0.023514031 -0.051125441 -0.31669945
0.023512676 -0.051043388 -0.31670177
0.023511263 -0.050963376 -0.3167021
0.023509556 -0.050883494 -0.31669647
0.023508009 -0.050801527 -0.31669477
0.023506399 -0.050721601 -0.3166911
0.023504792 -0.050641675 -0.31668746
0.023503438 -0.050559621 -0.31668976
0.023502376 -0.050477438 -0.31669807
0.023501158 -0.05039734 -0.31670243
0.023500098 -0.050315157 -0.31671071
0.023499036 -0.050232973 -0.316719
0.02349733 -0.050153092 -0.31671333
0.023495039 -0.050073467 -0.31669572
0.023493687 -0.049991414 -0.31669801
0.023492761 -0.049911186 -0.31670836
0.023491211 -0.049829219 -0.31670666
0.023489701 -0.049749248 -0.31670502
0.023488542 -0.049667109 -0.31671131
0.023487324 -0.049587011 -0.31671566
0.023485776 -0.04950504 -0.31671396
0.023484362 -0.049425032 -0.31671432
0.023482813 -0.049343064 -0.31671262
0.023481108 -0.049263179 -0.31670696
0.023479266 -0.049181342 -0.31669927
0.023478145 -0.0491012 -0.31670561
0.023477182 -0.049018975 -0.3167159
0.023475926 -0.048936877 -0.31672022
0.023474317 -0.048856951 -0.31671655
0.023472708 -0.048777025 -0.31671292
0.023471063 -0.048695102 -0.31670922
0.023469552 -0.048615132 -0.31670758
0.0234681 -0.048533119 -0.31670788
0.023466881 -0.048453026 -0.31671223
0.023465529 -0.048370969 -0.31671453
0.023464115 -0.048290957 -0.31671488
0.023462567 -0.048208989 -0.31671318
0.023461055 -0.048129022 -0.31671154
0.023459703 -0.048046969 -0.31671384
0.023458837 -0.0479647 -0.31672612
0.023458067 -0.047882386 -0.31674039
0.023457104 -0.047800157 -0.31675071
0.023455398 -0.047720276 -0.31674504
0.023452912 -0.047640737 -0.31672344
0.023450913 -0.047560986 -0.31671178
0.023449305 -0.04748106 -0.31670815
0.023447756 -0.047399092 -0.31670645
0.023446793 -0.047316864 -0.31671673
0.023446023 -0.04723455 -0.31673104
0.023444768 -0.047152456 -0.31673533
0.023443453 -0.047072399 -0.31673765
0.023442099 -0.046990346 -0.31673998
0.023440588 -0.046910379 -0.31673831
0.023439039 -0.046828412 -0.31673664
0.023437627 -0.0467484 -0.316737
0.02343598 -0.046666473 -0.3167333
0.023434469 -0.046586506 -0.31673163
0.02343292 -0.046504535 -0.31672993
0.023431409 -0.046424568 -0.31672829
0.023429763 -0.046342645 -0.3167246
0.023428351 -0.046262629 -0.31672496
0.023426997 -0.046180576 -0.31672725
0.023425739 -0.046098478 -0.31673154
0.023424521 -0.046018384 -0.31673589
0.023423363 -0.045936242 -0.31674218
0.023422204 -0.045854103 -0.3167485
0.023421144 -0.045771919 -0.31675678
0.023419986 -0.045689777 -0.31676307
0.023418767 -0.045609683 -0.31676742
0.023417316 -0.045527671 -0.31676772
0.023415573 -0.045445789 -0.31676203
0.023413708 -0.045367993 -0.31675243
0.023411868 -0.045286149 -0.31674474
0.023410065 -0.045206312 -0.31673712
0.023408419 -0.045124389 -0.31673342
0.023407005 -0.045044377 -0.31673378
0.023405457 -0.044962406 -0.31673208
0.0234042 -0.044880308 -0.31673637
0.023403177 -0.044800125 -0.31674471
0.02340192 -0.044718027 -0.31674901
0.023400471 -0.044636019 -0.31674933
0.023399312 -0.044553876 -0.31675562
0.023398055 -0.044471778 -0.31675991
0.023396837 -0.044391684 -0.31676424
0.023395579 -0.044309586 -0.31676856
0.023394324 -0.044227488 -0.31677285
0.023392813 -0.044147521 -0.31677121
0.023391265 -0.04406555 -0.31676951
0.023389911 -0.043983497 -0.31677181
0.023388363 -0.043901533 -0.31677014
0.023386851 -0.043821562 -0.31676847
0.023385596 -0.043739464 -0.31677276
0.023384243 -0.043657411 -0.31677508
0.023382731 -0.04357744 -0.31677341
0.02338128 -0.043495432 -0.31677371
0.023380062 -0.04341533 -0.31677806
0.023378611 -0.043333322 -0.31677836
0.023376867 -0.04325144 -0.3167727
0.023375161 -0.043171555 -0.31676704
0.023373514 -0.043089632 -0.31676334
0.023371808 -0.043009751 -0.31675771
0.023370164 -0.042927824 -0.31675401
0.02336875 -0.042847812 -0.31675437
0.023367239 -0.042767845 -0.3167527
0.023365593 -0.042685919 -0.31674904
0.023364045 -0.042603955 -0.31674734
0.023362592 -0.042521939 -0.31674764
0.023361277 -0.04244189 -0.31674999
0.023360312 -0.042359658 -0.31676027
0.023359507 -0.042275347 -0.31677452
0.023358446 -0.042193167 -0.3167828
0.02335719 -0.042111069 -0.31678712
0.023356128 -0.042028885 -0.31679541
0.02335497 -0.041946743 -0.3168017
0.023353618 -0.041864693 -0.31680399
0.023351911 -0.041784808 -0.31679836
0.023349972 -0.041703016 -0.31678867
0.023348168 -0.041623171 -0.31678104
0.02334656 -0.041543245 -0.31677738
0.023344817 -0.041461363 -0.31677169
0.023343209 -0.041381441 -0.31676805
0.023341659 -0.04129947 -0.31676635
0.02334005 -0.041219547 -0.31676272
0.023338601 -0.041137535 -0.31676301
0.023337245 -0.041055482 -0.31676531
0.023336185 -0.040973298 -0.31677362
0.02333493 -0.0408912 -0.31677791
0.023333479 -0.040809188 -0.31677821
0.023332125 -0.040727139 -0.31678051
0.023330674 -0.040645126 -0.31678084
0.023329163 -0.040565155 -0.31677917
0.023327809 -0.040483102 -0.31678146
0.023326553 -0.040401004 -0.31678578
0.02332514 -0.040320992 -0.31678611
0.023323748 -0.040236942 -0.31678838
0.023322139 -0.040157013 -0.31678474
0.023320492 -0.04007509 -0.31678104
0.023318788 -0.039995205 -0.31677538
0.023317179 -0.039915279 -0.31677175
0.023315825 -0.039833225 -0.31677407
0.023314569 -0.039751131 -0.31677836
0.023313178 -0.039667077 -0.31678063
0.02331196 -0.039586976 -0.31678495
0.023310801 -0.039504841 -0.31679124
0.023309313 -0.039420828 -0.3167915
0.0233078 -0.039340861 -0.31678987
0.023306351 -0.039258845 -0.31679016
0.023304898 -0.039176837 -0.31679046
0.023303291 -0.039096911 -0.31678683
0.02330184 -0.039014898 -0.31678712
0.023300486 -0.038932849 -0.31678945
0.023299035 -0.038850836 -0.31678975
0.023297682 -0.038768783 -0.31679204
0.023296326 -0.03868673 -0.31679434
0.023295071 -0.038604632 -0.31679866
0.023293816 -0.038522534 -0.31680295
0.02329262 -0.038438395 -0.31680921
0.023291362 -0.038356297 -0.3168135
0.023290047 -0.03827624 -0.31681585
0.023288559 -0.038192235 -0.31681609
0.023287145 -0.038112219 -0.31681645
0.023285402 -0.038030341 -0.31681076
0.023283891 -0.03795037 -0.31680912
0.023282245 -0.037868448 -0.31680542
0.023280501 -0.037786566 -0.31679976
0.023278795 -0.037706681 -0.3167941
0.023276953 -0.037624843 -0.31678641
0.023275539 -0.037544832 -0.31678677
0.023274088 -0.037462816 -0.31678706
0.02327254 -0.037380852 -0.31678537
0.023271089 -0.03729884 -0.31678569
0.023269832 -0.037216745 -0.31678998
0.02326848 -0.037134692 -0.31679228
0.023267223 -0.03705259 -0.31679657
0.023265675 -0.036970623 -0.31679487
0.023264261 -0.036890611 -0.31679523
0.023262713 -0.036808647 -0.31679356
0.023261163 -0.036726676 -0.31679186
0.023259457 -0.036646795 -0.3167862
0.023257811 -0.036564872 -0.3167825
0.023256361 -0.036482856 -0.31678283
0.023254812 -0.036400888 -0.31678113
0.023253361 -0.03631888 -0.31678143
0.023252202 -0.036236741 -0.31678772
0.023251006 -0.036152601 -0.31679398
0.023249945 -0.036070418 -0.31680226
0.023249041 -0.035986148 -0.31681454
0.02324798 -0.035903964 -0.31682283
0.023246627 -0.035821911 -0.31682512
0.023245236 -0.035737857 -0.31682739
0.023243725 -0.03565789 -0.31682575
0.023242272 -0.035575882 -0.31682605
0.023240823 -0.035493866 -0.31682634
0.02323937 -0.035411857 -0.31682664
0.023238018 -0.035329804 -0.31682897
0.023236565 -0.035247788 -0.31682926
0.023235077 -0.035163783 -0.3168295
0.023233822 -0.035081685 -0.31683382
0.023232564 -0.034999587 -0.31683812
0.023231406 -0.034917448 -0.3168444
0.023230053 -0.034835391 -0.31684673
0.023228662 -0.034751341 -0.31684899
0.023227151 -0.034671366 -0.31684732
0.023225602 -0.034589402 -0.31684563
0.023223858 -0.03450752 -0.31683993
0.023222251 -0.034427598 -0.3168363
0.023220604 -0.034345672 -0.3168326
0.023218958 -0.034263745 -0.31682891
0.02321735 -0.034183819 -0.31682527
0.023215704 -0.034101896 -0.31682158
0.023214057 -0.034019969 -0.31681791
0.023212411 -0.033938043 -0.31681421
0.0232109 -0.033858076 -0.31681255
0.023209352 -0.033776108 -0.31681085
0.023207899 -0.033694096 -0.31681117
0.023206351 -0.033612128 -0.31680948
0.0232049 -0.033530116 -0.31680977
0.023203742 -0.033447981 -0.31681609
0.024279088 -0.085169353 -0.31650314
0.02427787 -0.085089251 -0.31650749
0.024276458 -0.085009247 -0.31650782
0.024274811 -0.08492732 -0.31650415
0.024273165 -0.084845394 -0.31650046
0.02427185 -0.084765337 -0.31650281
0.024270728 -0.084685192 -0.31650913
0.024269413 -0.084605142 -0.31651148
0.024267768 -0.084523216 -0.31650779
0.024266221 -0.084441245 -0.31650609
0.024264904 -0.084361196 -0.31650844
0.024263881 -0.084281012 -0.31651679
0.024262993 -0.084202781 -0.31652716
0.024262067 -0.084122553 -0.3165375
0.024260947 -0.084042415 -0.31654382
0.024259534 -0.083962403 -0.31654418
0.024258278 -0.083880305 -0.31654847
0.024257293 -0.083802119 -0.31655684
0.024256075 -0.083722025 -0.31656119
0.024254527 -0.083640054 -0.31655949
0.02425288 -0.083558127 -0.3165558
0.02425104 -0.08347629 -0.31654811
0.024249393 -0.083394364 -0.31654444
0.024247885 -0.083314396 -0.31654277
0.024246531 -0.083232343 -0.31654507
0.024245545 -0.083154157 -0.31655347
0.024244193 -0.083072104 -0.31655577
0.024242876 -0.082992047 -0.31655809
0.024241561 -0.082911998 -0.31656045
0.02424011 -0.082829982 -0.31656075
0.024238696 -0.08274997 -0.3165611
0.024237344 -0.082667917 -0.3165634
0.024236223 -0.082587779 -0.31656975
0.024235005 -0.082507677 -0.3165741
0.024233885 -0.082427539 -0.31658041
0.024232667 -0.082347438 -0.31658477
0.024231449 -0.082267344 -0.31658909
0.024230327 -0.082187206 -0.31659544
0.024229109 -0.082107104 -0.31659979
0.02422766 -0.082025088 -0.31660008
0.024226246 -0.081945077 -0.31660044
0.0242246 -0.08186315 -0.31659675
0.024223052 -0.081781186 -0.31659505
0.024221737 -0.08170113 -0.3165974
0.024220422 -0.081621081 -0.31659973
0.024218872 -0.081539109 -0.31659806
0.024217557 -0.081459053 -0.31660038
0.024216145 -0.081379041 -0.31660074
0.024214596 -0.08129707 -0.31659904
0.024212755 -0.081215233 -0.31659135
0.024211342 -0.081135228 -0.31659171
0.024209891 -0.081053212 -0.31659201
0.024208479 -0.080973201 -0.31659237
0.024206869 -0.080893278 -0.3165887
0.024205321 -0.080811307 -0.31658703
0.024203677 -0.08072938 -0.31658334
0.024201933 -0.080647498 -0.31657764
0.024200421 -0.080567531 -0.316576
0.024199009 -0.08048752 -0.31657633
0.02419785 -0.080405384 -0.31658262
0.024196535 -0.080325328 -0.31658497
0.02419522 -0.080245271 -0.31658733
0.024194099 -0.080165133 -0.31659365
0.024192685 -0.080085121 -0.316594
0.024191137 -0.08000315 -0.31659231
0.024189822 -0.079923093 -0.31659466
0.024188567 -0.079840995 -0.31659895
0.024187446 -0.079760857 -0.3166053
0.024186363 -0.079682715 -0.31661168
0.024184816 -0.079600744 -0.31660998
0.024183363 -0.079518735 -0.31661028
0.024182048 -0.079438679 -0.31661263
0.024180636 -0.079358667 -0.31661299
0.024179418 -0.079278573 -0.31661731
0.024178259 -0.079196431 -0.31662363
0.024177138 -0.079116292 -0.31662995
0.02417553 -0.07903637 -0.31662631
0.024173591 -0.07895457 -0.31661662
0.024172043 -0.078872599 -0.31661493
0.024170728 -0.07879255 -0.31661728
0.024169412 -0.078712493 -0.31661963
0.024168059 -0.07863044 -0.31662193
0.024166841 -0.078550339 -0.31662625
0.024165526 -0.07847029 -0.31662861
0.024163879 -0.078388363 -0.31662491
0.024162272 -0.078308433 -0.31662127
0.024160724 -0.078226469 -0.31661958
0.02415931 -0.078146458 -0.31661993
0.0241578 -0.078066483 -0.31661826
0.024156252 -0.077984519 -0.31661659
0.024154838 -0.077904508 -0.31661692
0.024153719 -0.077824369 -0.31662327
0.024152402 -0.077744313 -0.3166256
0.024150658 -0.077662431 -0.31661993
0.024149247 -0.077582419 -0.31662026
0.024148125 -0.07750228 -0.31662661
0.024147103 -0.077422097 -0.31663495
0.024145884 -0.077341996 -0.3166393
0.024144337 -0.077260025 -0.31663758
0.024142593 -0.077178143 -0.31663191
0.024141179 -0.077098131 -0.31663224
0.024139768 -0.077018127 -0.3166326
0.02413822 -0.076936156 -0.3166309
0.024136903 -0.076856099 -0.31663325
0.024135588 -0.076776043 -0.31663561
0.024134077 -0.076696075 -0.31663394
0.024132527 -0.076614104 -0.31663224
0.024131116 -0.076534092 -0.3166326
0.024129469 -0.076452173 -0.3166289
0.024127824 -0.076370247 -0.31662521
0.024126215 -0.076290317 -0.31662157
0.024124667 -0.076208353 -0.31661987
0.02412306 -0.076128423 -0.31661624
0.024121743 -0.076048374 -0.31661856
0.024120623 -0.075968228 -0.31662491
0.024119502 -0.07588809 -0.31663126
0.024118051 -0.075806081 -0.31663156
0.024116443 -0.075726151 -0.31662792
0.0241147 -0.07564427 -0.31662223
0.024113873 -0.075563997 -0.31663454
0.024113376 -0.075485602 -0.31665292
0.024112118 -0.075403504 -0.31665722
0.024110315 -0.075323664 -0.31664956
0.024108376 -0.075241871 -0.3166399
0.024106633 -0.075159989 -0.31663421
0.024105025 -0.075080059 -0.31663054
0.024103515 -0.075000092 -0.3166289
0.02410187 -0.074918166 -0.31662521
0.024100553 -0.074838109 -0.31662756
0.024099629 -0.074757881 -0.31663787
0.024098936 -0.074679568 -0.31665224
0.024096997 -0.074597776 -0.31664258
0.02409346 -0.074514672 -0.31660092
0.024092011 -0.074432656 -0.31660122
0.024093209 -0.074355528 -0.31665355
0.024091892 -0.074275471 -0.3166559
0.024090284 -0.074195549 -0.31665227
0.024088737 -0.074113578 -0.31665057
0.02408703 -0.074033692 -0.31664491
0.024085483 -0.073951729 -0.31664324
0.024083776 -0.073871844 -0.31663758
0.024082033 -0.073789962 -0.31663191
0.024080522 -0.073709995 -0.31663024
0.02407911 -0.073629983 -0.3166306
0.024077561 -0.073548019 -0.3166289
0.024076246 -0.073467962 -0.31663126
0.024074795 -0.073385946 -0.31663156
0.024073187 -0.073306024 -0.31662789
0.024071578 -0.073226094 -0.31662425
0.02407003 -0.07314413 -0.31662256
0.024068812 -0.073064029 -0.31662691
0.024067692 -0.072983891 -0.31663322
0.024066182 -0.072903924 -0.31663159
0.024064634 -0.072821952 -0.31662989
0.024063416 -0.072741859 -0.31663424
0.024062002 -0.072661847 -0.3166346
0.024060259 -0.072579965 -0.3166289
0.024058944 -0.072499909 -0.31663126
0.024058115 -0.072419636 -0.31664357
0.024057092 -0.072339453 -0.31665191
0.024055777 -0.072259396 -0.31665426
0.024054131 -0.07217747 -0.31665057
0.024052327 -0.072097637 -0.31664291
0.02405072 -0.072017707 -0.31663927
0.02404888 -0.07193587 -0.31663159
0.024047038 -0.071854033 -0.3166239
0.02404654 -0.07177563 -0.31664225
0.02404692 -0.071696848 -0.31667861
0.024046093 -0.071616575 -0.31669092
0.024044679 -0.071536563 -0.31669128
0.024042839 -0.071454719 -0.31668359
0.024040997 -0.071372882 -0.3166759
0.02403939 -0.071292959 -0.31667227
0.024037879 -0.071212992 -0.3166706
0.024036232 -0.071131065 -0.31666693
0.024034625 -0.071051136 -0.31666327
0.024033077 -0.070969172 -0.3166616
0.024031566 -0.070889205 -0.31665993
0.024030056 -0.07080923 -0.31665829
0.024028741 -0.070729181 -0.31666064
0.02402762 -0.070649035 -0.31666696
0.024026072 -0.070567071 -0.31666529
0.024024658 -0.07048706 -0.31666562
0.024023147 -0.070407093 -0.31666398
0.024021696 -0.070325077 -0.31666428
0.024020381 -0.070245028 -0.3166666
0.02401926 -0.070164882 -0.31667295
0.024018042 -0.070084788 -0.3166773
0.024016533 -0.070004821 -0.31667563
0.024014983 -0.06992285 -0.31667393
0.024013571 -0.069842838 -0.31667429
0.024011828 -0.069760956 -0.31666863
0.024009829 -0.069681197 -0.31665698
0.024008282 -0.069599234 -0.31665528
0.024006868 -0.069519222 -0.31665564
0.024005454 -0.06943921 -0.31665599
0.024004005 -0.069357201 -0.31665629
0.024002396 -0.069277272 -0.31665263
0.024000788 -0.069197349 -0.31664899
0.023999726 -0.069115162 -0.31665727
0.023998607 -0.069035023 -0.31666362
0.023997292 -0.068954967 -0.31666595
0.023996267 -0.068874784 -0.31667429
0.023995966 -0.068796299 -0.31669664
0.023997322 -0.068717077 -0.31675297
0.023999689 -0.068639427 -0.31682926
0.024000129 -0.068558604 -0.31686759
0.02399813 -0.068478845 -0.31685594
0.023993522 -0.068396211 -0.31679231
0.023987509 -0.06831219 -0.31670064
0.023984985 -0.068230651 -0.316679
0.023983378 -0.068150721 -0.31667534
0.023981731 -0.068068802 -0.31667164
0.023980124 -0.067988873 -0.316668
0.023978807 -0.067908816 -0.31667036
0.023977395 -0.067828804 -0.31667069
0.023975845 -0.06774684 -0.31666899
0.023974337 -0.067666873 -0.31666735
0.023972923 -0.067586862 -0.31666771
0.023971276 -0.067504935 -0.31666401
0.023969669 -0.067425005 -0.31666034
0.023968218 -0.067342997 -0.31666064
0.023966707 -0.06726303 -0.316659
0.023965295 -0.067183018 -0.31665936
0.023964077 -0.067102917 -0.31666368
0.023974067 -0.067027949 -0.31689394
0.023968872 -0.066945575 -0.3168183
0.023966447 -0.066863999 -0.31679863
0.023965035 -0.066783987 -0.31679899
0.023961009 -0.066701092 -0.31674731
0.023956634 -0.066620372 -0.3166877
0.023954695 -0.06653858 -0.31667802
0.023953378 -0.066458523 -0.31668037
0.023954246 -0.066379517 -0.31672668
0.023955895 -0.066300176 -0.31678897
0.0239492 -0.066216446 -0.31668335
0.023948079 -0.066136308 -0.3166897
0.023946472 -0.066056378 -0.31668606
0.023944046 -0.065974802 -0.31666639
0.0239424 -0.065892875 -0.3166627
0.023942096 -0.065814391 -0.31668505
0.023941366 -0.065734074 -0.31669939
0.023940014 -0.06565202 -0.31670168
0.023937918 -0.065572314 -0.31668806
0.023935784 -0.065490603 -0.31667438
0.023934662 -0.065410458 -0.3166807
0.023933835 -0.065330192 -0.31669304
0.023932714 -0.065250047 -0.31669939
0.023931595 -0.065169908 -0.3167057
0.023930766 -0.065089636 -0.31671804
0.023930036 -0.065009326 -0.31673238
0.023928586 -0.06492731 -0.31673267
0.023926588 -0.064847559 -0.31672105
0.023924686 -0.064767763 -0.3167114
0.023923859 -0.06468749 -0.31672373
0.023922933 -0.06460727 -0.31673408
0.02392119 -0.064525388 -0.31672838
0.023919191 -0.06444563 -0.31671673
0.023917448 -0.064363748 -0.31671107
0.023915743 -0.06428387 -0.31670541
0.023914134 -0.06420394 -0.31670177
0.023912683 -0.064121932 -0.31670207
0.023911271 -0.06404192 -0.31670243
0.023909761 -0.063961953 -0.31670076
0.023908213 -0.063879982 -0.31669906
0.023906995 -0.063799888 -0.31670341
0.023905873 -0.063719742 -0.31670976
0.023904558 -0.063639686 -0.31671208
0.023903243 -0.063559636 -0.31671444
0.023902377 -0.063477367 -0.31672671
0.023901645 -0.06339705 -0.31674105
0.023901891 -0.063316308 -0.31677535
0.023902038 -0.063235603 -0.31680766
0.023900334 -0.063155726 -0.316802
0.023896933 -0.063074574 -0.31676239
0.023894154 -0.062995166 -0.31673476
0.023892604 -0.062913194 -0.31673306
0.023891386 -0.062833101 -0.31673741
0.023889877 -0.062753133 -0.31673574
0.023889497 -0.062670648 -0.31675804
0.023889976 -0.062591814 -0.31679636
0.023889305 -0.062509462 -0.31681263
0.023888087 -0.062429361 -0.31681699
0.0238856 -0.062349822 -0.31679535
0.023881614 -0.062268931 -0.31674373
0.023879617 -0.06218918 -0.31673211
0.023878459 -0.062107038 -0.3167384
0.02387685 -0.062027115 -0.31673473
0.023875047 -0.061947275 -0.3167271
0.023873303 -0.061865393 -0.31672144
0.023871403 -0.061785597 -0.31671178
0.023869855 -0.061703626 -0.31671008
0.023868149 -0.061623745 -0.31670445
0.023866346 -0.061543904 -0.31669679
0.023864836 -0.061463937 -0.31669515
0.023864105 -0.061383624 -0.31670949
0.023862947 -0.061301485 -0.31671578
0.023862021 -0.061221257 -0.31672612
0.023861486 -0.061140858 -0.31674442
0.023860523 -0.061058629 -0.31675473
0.023858329 -0.060978964 -0.31673908
0.023856331 -0.060899209 -0.31672746
0.023854882 -0.060817201 -0.31672776
0.02385376 -0.060737059 -0.31673411
0.023852738 -0.060656875 -0.31674242
0.023851909 -0.060576603 -0.31675476
0.023850946 -0.060494378 -0.31676507
0.023849435 -0.060414407 -0.3167634
0.023847828 -0.060334485 -0.31675977
0.023846084 -0.060252603 -0.31675407
0.023844281 -0.060172763 -0.31674641
0.023842478 -0.060092922 -0.31673878
0.023840539 -0.060011126 -0.3167291
0.023838639 -0.05993133 -0.31671947
0.023836933 -0.059851449 -0.31671381
0.023835482 -0.059769437 -0.31671411
0.023833778 -0.059689555 -0.31670848
0.023832168 -0.059609629 -0.31670484
0.023831047 -0.059529487 -0.31671116
0.02382989 -0.059447348 -0.31671745
0.023828965 -0.05936712 -0.31672782
0.023828197 -0.059284806 -0.31674206
0.023826979 -0.059204709 -0.31674641
0.023825176 -0.059124872 -0.31673878
0.023823626 -0.059042905 -0.31673709
0.023822311 -0.058962848 -0.31673944
0.023820605 -0.058882967 -0.31673378
0.023818022 -0.058803469 -0.31671017
0.023815986 -0.058721717 -0.31669849
0.023815451 -0.058641318 -0.31671682
0.023814917 -0.058560919 -0.31673515
0.023813855 -0.058478735 -0.31674343
0.02381254 -0.058398683 -0.31674576
0.023811322 -0.058318581 -0.31675011
0.02381026 -0.058236402 -0.31675839
0.023809921 -0.058155913 -0.31678072
0.023810323 -0.058073085 -0.31681895
0.023810567 -0.057992343 -0.31685326
0.023808921 -0.057910416 -0.31684959
0.023805264 -0.057831395 -0.31680399
0.02380161 -0.057752375 -0.31675839
0.023799708 -0.057672579 -0.31674877
0.023797965 -0.057590697 -0.31674308
0.023796454 -0.057510726 -0.31674144
0.023795431 -0.057430543 -0.31674975
0.023794077 -0.05734849 -0.31675208
0.023792665 -0.057268478 -0.3167524
0.023791252 -0.057188466 -0.31675276
0.023789801 -0.057106454 -0.31675306
0.023788486 -0.057026401 -0.31675541
0.023787171 -0.056946345 -0.31675774
0.023785915 -0.056864247 -0.31676203
0.023784697 -0.056784149 -0.31676638
0.023783635 -0.056701966 -0.31677467
0.023782516 -0.056621827 -0.31678101
0.023781395 -0.056541685 -0.31678736
0.023779847 -0.056459717 -0.31678566
0.023777848 -0.056379963 -0.31677401
0.023776045 -0.056300122 -0.31676638
0.023775375 -0.056217767 -0.31678265
0.023773961 -0.056137756 -0.31678301
0.023772217 -0.056055874 -0.31677732
0.023770317 -0.055976078 -0.31676769
0.023768514 -0.055896237 -0.31676006
0.023766868 -0.055814315 -0.31675637
0.023765359 -0.055734344 -0.3167547
0.023764102 -0.05565225 -0.31675899
0.02376269 -0.055572238 -0.31675935
0.023761276 -0.055492222 -0.31675971
0.023760021 -0.055410128 -0.316764
0.023758607 -0.055330116 -0.31676435
0.023757156 -0.055248104 -0.31676465
0.023755938 -0.055168007 -0.316769
0.023754818 -0.055087864 -0.31677532
0.023753759 -0.055005684 -0.31678364
0.02375293 -0.054925412 -0.31679595
0.023751967 -0.054843187 -0.31680626
0.023750357 -0.054763261 -0.31680259
0.023747385 -0.054683939 -0.31677097
0.023745093 -0.054604314 -0.31675336
0.023745107 -0.054521658 -0.31678364
0.023744533 -0.054439258 -0.31680191
0.023742827 -0.054359376 -0.31679624
0.023740731 -0.054279663 -0.31678262
0.023738891 -0.054197825 -0.31677493
0.02373777 -0.054117687 -0.31678128
0.023736905 -0.054035418 -0.31679356
0.023735687 -0.053955317 -0.31679791
0.023734236 -0.053873308 -0.31679821
0.023732822 -0.053793296 -0.31679857
0.023731312 -0.053713325 -0.3167969
0.023729667 -0.053631403 -0.31679323
0.023728155 -0.053551432 -0.31679156
0.023726743 -0.05347142 -0.31679192
0.023725389 -0.053389367 -0.31679422
0.023723781 -0.053309441 -0.31679058
0.023722135 -0.053227518 -0.31678689
0.023720428 -0.053147636 -0.31678122
0.023719016 -0.053067621 -0.31678158
0.023717664 -0.052985568 -0.31678391
0.023716347 -0.052905515 -0.31678623
0.023714993 -0.052823462 -0.31678852
0.023713738 -0.052741364 -0.31679285
0.023712326 -0.052661352 -0.31679317
0.02371107 -0.052579254 -0.31679747
0.023709852 -0.052499156 -0.31680182
0.023708597 -0.052417058 -0.31680611
0.023707183 -0.052337047 -0.31680647
0.023705672 -0.052257076 -0.31680483
0.023704417 -0.052174982 -0.31680912
0.023703003 -0.05209497 -0.31680945
0.023701359 -0.052013043 -0.31680578
0.023699846 -0.051933076 -0.31680411
0.023698397 -0.051851064 -0.31680441
0.023696983 -0.051771052 -0.31680477
0.023695728 -0.051688954 -0.31680906
0.023694471 -0.051606856 -0.31681335
0.023693351 -0.051526718 -0.3168197
0.023692291 -0.051444534 -0.31682801
0.023690877 -0.051364522 -0.31682834
0.023689523 -0.051282469 -0.31683064
0.023688111 -0.051202457 -0.31683099
0.023686465 -0.051120531 -0.3168273
0.023684857 -0.051040605 -0.31682366
0.023683347 -0.050960638 -0.31682199
0.023681799 -0.05087867 -0.31682032
0.023680288 -0.050798699 -0.31681865
0.023678642 -0.050716776 -0.31681499
0.023677034 -0.05063685 -0.31681132
0.02367568 -0.050554797 -0.31681365
0.023674462 -0.0504747 -0.31681797
0.023672914 -0.050392732 -0.31681627
0.0236715 -0.05031272 -0.31681663
0.023670148 -0.050230667 -0.31681892
0.023668734 -0.050150651 -0.31681928
0.02366703 -0.05007077 -0.31681362
0.023665383 -0.049988844 -0.31680995
0.023664322 -0.049906664 -0.31681824
0.023663202 -0.049826521 -0.31682459
0.023662142 -0.049744338 -0.31683287
0.023661274 -0.049662068 -0.31684515
0.023660313 -0.049579844 -0.31685543
0.023659095 -0.049499743 -0.31685978
0.023657838 -0.049417645 -0.31686407
0.023656387 -0.049335636 -0.3168644
0.023654878 -0.049255669 -0.31686273
0.023653425 -0.049173657 -0.31686306
0.023651917 -0.049093686 -0.31686139
0.02365021 -0.049013805 -0.31685576
0.023648662 -0.048931837 -0.31685406
0.023647405 -0.048849739 -0.31685835
0.023645993 -0.048769727 -0.31685871
0.023644444 -0.04868776 -0.31685701
0.023642739 -0.048607878 -0.31685138
0.023641093 -0.048525952 -0.31684768
0.023639582 -0.048445985 -0.31684601
0.02363823 -0.048363931 -0.31684834
0.023636816 -0.04828392 -0.31684867
0.023635209 -0.048203994 -0.31684503
0.023633953 -0.048121896 -0.31684932
0.023632698 -0.048039798 -0.31685364
0.023631148 -0.04795783 -0.31685194
0.023629345 -0.04787799 -0.31684428
0.023627933 -0.047797982 -0.31684464
0.023626287 -0.047716055 -0.31684095
0.023624776 -0.047636088 -0.31683931
0.023623521 -0.04755399 -0.3168436
0.02362207 -0.047471978 -0.3168439
0.023620656 -0.047391966 -0.31684425
0.023619108 -0.047309998 -0.31684256
0.0236175 -0.047230072 -0.31683892
0.023615854 -0.047148149 -0.31683522
0.023614343 -0.047068179 -0.31683356
0.023612931 -0.046988167 -0.31683391
0.023611479 -0.046906158 -0.31683421
0.023610126 -0.046824101 -0.31683654
0.023608871 -0.046742003 -0.31684083
0.023607556 -0.046661951 -0.31684315
0.023606043 -0.046581984 -0.31684151
0.023604495 -0.046500012 -0.31683981
0.023602985 -0.046420045 -0.31683818
0.023601633 -0.046337992 -0.31684047
0.023600278 -0.046255939 -0.31684279
0.023598865 -0.046175927 -0.31684312
0.023597416 -0.046093915 -0.31684345
0.023596061 -0.046011861 -0.31684572
0.023594707 -0.045929804 -0.31684804
0.023593746 -0.04584758 -0.31685832
0.023592528 -0.045767482 -0.31686267
0.023591077 -0.04568547 -0.31686297
0.023589626 -0.045603462 -0.31686327
0.023588371 -0.045521364 -0.31686759
0.023587054 -0.045441307 -0.31686991
0.023585409 -0.045359381 -0.31686622
0.0235838 -0.045279458 -0.31686258
0.02358274 -0.045197275 -0.31687087
0.023581484 -0.045115177 -0.31687516
0.023580033 -0.045033164 -0.31687549
0.023578327 -0.044953287 -0.31686985
0.023576876 -0.044871271 -0.31687015
0.023575658 -0.044791177 -0.31687447
0.023574403 -0.044709079 -0.3168788
0.023572659 -0.044627197 -0.3168731
0.023570955 -0.044547312 -0.31686747
0.023569502 -0.044465303 -0.31686777
0.023568187 -0.044385247 -0.31687009
0.023566738 -0.044303238 -0.31687039
0.023565285 -0.044221226 -0.31687072
0.023563677 -0.0441413 -0.31686705
0.023562033 -0.044059373 -0.31686336
0.023560815 -0.04397928 -0.31686771
0.02355952 -0.043895181 -0.31687197
0.023558106 -0.043815169 -0.3168723
0.023556754 -0.043733113 -0.31687462
0.0235554 -0.043651059 -0.31687692
0.023554085 -0.043571007 -0.31687927
0.023552731 -0.043488953 -0.31688157
0.023551475 -0.043406855 -0.31688586
0.023550024 -0.043324843 -0.31688619
0.023548612 -0.043244831 -0.31688651
0.023547355 -0.043162733 -0.31689084
0.023545906 -0.043080725 -0.31689113
0.023544356 -0.042998753 -0.31688944
0.023543101 -0.042916659 -0.31689373
0.023541845 -0.042834561 -0.31689805
0.023540433 -0.042754553 -0.31689838
0.023538981 -0.042672537 -0.31689867
0.023537531 -0.042590529 -0.316899
0.023535922 -0.042510603 -0.31689534
0.023534277 -0.04242868 -0.31689167
0.023532767 -0.042348709 -0.31689
0.023531217 -0.042266741 -0.3168883
0.023529768 -0.042184733 -0.31688863
0.023528511 -0.042102635 -0.31689292
0.023527354 -0.042020492 -0.31689921
0.023526097 -0.041938394 -0.3169035
0.023524744 -0.041856341 -0.3169058
0.023523489 -0.041774243 -0.31691012
0.023522427 -0.041692063 -0.3169184
0.023520976 -0.041610047 -0.3169187
0.02351927 -0.04153017 -0.31691307
0.023517722 -0.041448198 -0.31691137
0.02351631 -0.041368186 -0.31691173
0.023514859 -0.041286178 -0.31691203
0.02351331 -0.04120421 -0.31691033
0.023511898 -0.041124195 -0.31691068
0.023510447 -0.041042186 -0.31691098
0.023508996 -0.040960178 -0.31691128
0.02350774 -0.04087808 -0.3169156
0.023506582 -0.040795937 -0.31692189
0.023505326 -0.040713839 -0.31692618
0.023503779 -0.040631875 -0.31692451
0.023501975 -0.040552035 -0.31691685
0.023500036 -0.040470239 -0.31690717
0.023498526 -0.040390268 -0.31690553
0.02349727 -0.04030817 -0.31690982
0.023495624 -0.040226247 -0.31690612
0.023493821 -0.040146407 -0.31689849
0.023492176 -0.040064484 -0.3168948
0.023490664 -0.039984513 -0.31689316
0.023489214 -0.039902501 -0.31689346
0.023488153 -0.039820321 -0.31690174
0.023486994 -0.039738178 -0.31690803
0.023485702 -0.039654084 -0.31691229
0.02348464 -0.039571896 -0.31692061
0.023483288 -0.039489847 -0.3169229
0.023481837 -0.039407834 -0.3169232
0.023480229 -0.039327912 -0.31691957
0.023478679 -0.039245941 -0.31691787
0.023477132 -0.039163973 -0.31691617
0.023475425 -0.039084092 -0.31691054
0.023473781 -0.039002165 -0.31690684
0.02347233 -0.038920157 -0.31690714
0.023470879 -0.038838141 -0.31690744
0.023469428 -0.038756132 -0.31690776
0.023468172 -0.038674034 -0.31691206
0.023466721 -0.038592026 -0.31691235
0.023465307 -0.038512014 -0.31691271
0.023463916 -0.03842796 -0.31691498
0.023462661 -0.038345866 -0.31691927
0.023461698 -0.038263634 -0.31692955
0.023460601 -0.038179453 -0.3169378
0.023459187 -0.038099442 -0.31693816
0.023457795 -0.038015388 -0.31694043
0.023456383 -0.037935376 -0.31694078
0.023454834 -0.037853409 -0.31693906
0.023453286 -0.037771441 -0.31693739
0.023451738 -0.037689473 -0.31693569
0.023450384 -0.03760742 -0.31693798
0.023449128 -0.037525322 -0.31694227
0.023447873 -0.037443224 -0.3169466
0.023446422 -0.037361216 -0.31694689
0.023444872 -0.037279248 -0.3169452
0.023443069 -0.037199408 -0.31693757
0.023441229 -0.037117571 -0.31692988
0.023439718 -0.037037604 -0.31692821
0.023438074 -0.036955677 -0.31692454
0.023436524 -0.036873706 -0.31692284
0.023435075 -0.036791697 -0.31692314
0.023433622 -0.036709685 -0.31692344
0.023432367 -0.036627591 -0.31692776
0.023431208 -0.036545448 -0.31693405
0.023429953 -0.03646335 -0.31693834
0.023428464 -0.036379341 -0.31693861
0.02342711 -0.036297284 -0.3169409
0.023425698 -0.036217272 -0.31694126
