# .PCD v0.7 - Point Cloud Data file format
VERSION 0.7
FIELDS x y z
SIZE 4 4 4
TYPE F F F
COUNT 1 1 1
WIDTH 1304
HEIGHT 1
VIEWPOINT 0 0 0 1 0 0 0
POINTS 1304
DATA ascii
0.044730626 -0.034674056 -0.31649318
0.044992775 -0.034648072 -0.31647173
0.045166325 -0.034657389 -0.3164643
0.04533805 -0.034629155 -0.31645143
0.045504581 -0.034679934 -0.31645149
0.041598074 -0.03439521 -0.31661484
0.041767925 -0.034437414 -0.31660914
0.041944191 -0.034452107 -0.31660306
0.042137571 -0.034464411 -0.31659493
0.042320497 -0.034469679 -0.31658643
0.042573061 -0.034480672 -0.31657493
0.042838179 -0.034495801 -0.31656319
0.043017883 -0.034467559 -0.31655097
0.043199044 -0.034397736 -0.31652668
0.04320205 -0.034515344 -0.3165451
0.043440759 -0.034436386 -0.31652296
0.043677658 -0.034474604 -0.31651565
0.043907516 -0.034469474 -0.31650302
0.044083744 -0.03447688 -0.3164928
0.044294145 -0.034485377 -0.31648114
0.044553384 -0.03446652 -0.31646749
0.044812769 -0.034480546 -0.31645632
0.044988718 -0.034490608 -0.31644651
0.041226164 -0.034220003 -0.31661433
0.041414931 -0.034268506 -0.31660849
0.041595258 -0.034277517 -0.31660044
0.041822482 -0.034271467 -0.3165839
0.041941229 -0.034334473 -0.31658563
0.042133708 -0.034306861 -0.31657368
0.042316634 -0.034312129 -0.31656516
0.042568196 -0.034283917 -0.31654754
0.042833295 -0.034299057 -0.3165355
0.043013081 -0.034270443 -0.31652492
0.043196309 -0.034278996 -0.31651425
0.043377575 -0.034288302 -0.31650695
0.043556713 -0.034298688 -0.31650102
0.043732088 -0.03430669 -0.31649321
0.04390385 -0.034311838 -0.31648579
0.044079006 -0.034279738 -0.31646809
0.044289406 -0.034288231 -0.31645644
0.044549681 -0.03430957 -0.31644925
0.040666971 -0.034036163 -0.31661552
0.040858019 -0.034045652 -0.31660652
0.041036293 -0.034093756 -0.31660658
0.041223153 -0.034102395 -0.31659594
0.041411072 -0.034110956 -0.31658727
0.041647296 -0.034107469 -0.3165724
0.041878015 -0.034145415 -0.31656387
0.042128861 -0.034109429 -0.31654698
0.042378418 -0.034101497 -0.31653166
0.042648055 -0.03409005 -0.31651479
0.042828407 -0.034100968 -0.31650811
0.043009102 -0.034111939 -0.31650168
0.043192331 -0.034120489 -0.31649101
0.043373547 -0.034129821 -0.31648272
0.043551818 -0.034100946 -0.31647328
0.043727189 -0.034108941 -0.31646547
0.043898936 -0.034114104 -0.31645772
0.044074312 -0.034081899 -0.31644469
0.04031036 -0.033864107 -0.31661451
0.040478222 -0.033908866 -0.31661174
0.040664189 -0.033917449 -0.31660208
0.040855382 -0.033926867 -0.31659609
0.04103256 -0.033935141 -0.31658834
0.041218635 -0.033904813 -0.31657588
0.041220203 -0.033982739 -0.31657946
0.041407332 -0.03395234 -0.316569
0.041671064 -0.033922985 -0.31654868
0.041931722 -0.033938855 -0.31653619
0.042124275 -0.033911876 -0.31652558
0.042391036 -0.033920567 -0.31651238
0.042644437 -0.033932395 -0.31649852
0.04282479 -0.03394331 -0.31649184
0.043005534 -0.033954259 -0.31648642
0.043187696 -0.033923637 -0.31646827
0.043368977 -0.033932935 -0.31646132
0.043547139 -0.03390377 -0.31644988
0.043723445 -0.033950668 -0.3164469
0.043895259 -0.033955798 -0.31644046
0.039690074 -0.033670984 -0.31661713
0.039955873 -0.033688031 -0.31660846
0.040136132 -0.033740219 -0.31660515
0.040307336 -0.033745497 -0.31659609
0.040474407 -0.033751294 -0.3165915
0.040660325 -0.033759896 -0.31658083
0.04085147 -0.033769339 -0.31657386
0.041027669 -0.033738732 -0.3165603
0.041214574 -0.033747349 -0.31655064
0.041402411 -0.033755947 -0.31654033
0.041666165 -0.033727251 -0.31652033
0.041926764 -0.033743151 -0.31650651
0.042119205 -0.033716559 -0.31649357
0.042121168 -0.033794314 -0.31650516
0.042387024 -0.033764094 -0.31648767
0.042640448 -0.033775903 -0.31647432
0.042819858 -0.03374726 -0.31646284
0.043000583 -0.033758212 -0.31645706
0.043183796 -0.033767447 -0.31644574
0.03924102 -0.033486228 -0.3166171
0.039429832 -0.033537976 -0.3166126
0.039687261 -0.033553287 -0.31660271
0.03995296 -0.033570379 -0.31659204
0.040132288 -0.033583667 -0.31658393
0.040303491 -0.033588946 -0.31657487
0.040470418 -0.033594809 -0.3165673
0.040655557 -0.033564102 -0.31655517
0.040846705 -0.033573549 -0.31654814
0.04102302 -0.03354222 -0.31653726
0.041209929 -0.033550836 -0.31652761
0.041397795 -0.033559419 -0.31651795
0.041578066 -0.033568453 -0.31650886
0.041746881 -0.033570796 -0.31649631
0.041923143 -0.033585493 -0.31649026
0.042116519 -0.033597797 -0.31648213
0.04229781 -0.033524159 -0.31646901
0.04242488 -0.033588178 -0.3164674
0.042635936 -0.03357866 -0.31645426
0.042815447 -0.033550303 -0.31644478
0.042996995 -0.033601217 -0.31644118
0.039050173 -0.033319108 -0.31661868
0.039238498 -0.033368401 -0.31660867
0.039511971 -0.033385981 -0.31659624
0.039770037 -0.033399396 -0.31658679
0.039949536 -0.033412635 -0.31657982
0.040127844 -0.033386726 -0.31656519
0.04029908 -0.033391993 -0.31655681
0.040466104 -0.033397812 -0.31655124
0.040651128 -0.033366822 -0.31653678
0.040842272 -0.033376269 -0.31652975
0.041019451 -0.033384539 -0.316522
0.04120636 -0.03339316 -0.31651235
0.041394323 -0.033401698 -0.31650469
0.041574594 -0.033410728 -0.3164956
0.041743413 -0.033413075 -0.31648308
0.041918565 -0.033388276 -0.31646886
0.042111989 -0.033400562 -0.31646177
0.042294852 -0.03340653 -0.31645158
0.042462662 -0.03341331 -0.31644517
0.038520426 -0.033137158 -0.31661308
0.038765982 -0.033179678 -0.31660369
0.038991477 -0.033212774 -0.31660065
0.039234534 -0.033210896 -0.31658542
0.039508015 -0.033228476 -0.31657299
0.039765064 -0.033202022 -0.31655744
0.039944638 -0.033215221 -0.31655207
0.040122807 -0.033188708 -0.31653482
0.040294107 -0.033193946 -0.31652772
0.040461086 -0.03319978 -0.31652117
0.040647049 -0.033208363 -0.31651151
0.040838145 -0.033217829 -0.31650352
0.041015327 -0.033226099 -0.31649578
0.041202236 -0.033234715 -0.31648612
0.041389193 -0.033204053 -0.31647232
0.041569531 -0.033213053 -0.31646457
0.041738361 -0.0332154 -0.31645235
0.041914549 -0.033229452 -0.31644493
0.038159736 -0.032961767 -0.31661534
0.038337119 -0.033012681 -0.31660801
0.038517594 -0.033018462 -0.31659865
0.038790777 -0.033034973 -0.31658486
0.039043088 -0.033043034 -0.31657502
0.039230704 -0.033052325 -0.31656516
0.039417785 -0.033025209 -0.31655404
0.039588965 -0.03303669 -0.31654683
0.039760575 -0.033005435 -0.31653774
0.039940022 -0.033018693 -0.31652969
0.04011935 -0.033031981 -0.31652158
0.040290557 -0.033037264 -0.31651253
0.040457532 -0.033043101 -0.31650597
0.040643498 -0.033051681 -0.31649631
0.040833861 -0.033022162 -0.31648749
0.041011076 -0.033030421 -0.3164804
0.041198011 -0.033039019 -0.31647143
0.041385077 -0.03300865 -0.3164596
0.041565441 -0.033017635 -0.31645253
0.041733671 -0.032980934 -0.31644219
0.038157478 -0.032844834 -0.31661192
0.038333975 -0.032856822 -0.3166008
0.03851445 -0.032862611 -0.31659144
0.038804062 -0.032855719 -0.31657487
0.039039064 -0.032847591 -0.31656432
0.0392267 -0.03285687 -0.31655481
0.03941384 -0.032829396 -0.31654501
0.039584972 -0.032840896 -0.31653681
0.039757464 -0.032848563 -0.31653148
0.03993696 -0.032861799 -0.31652445
0.040116236 -0.032875109 -0.31651533
0.040286366 -0.032840546 -0.31649879
0.040453389 -0.032846365 -0.31649324
0.040639304 -0.032854963 -0.31648257
0.040829435 -0.032824542 -0.31646943
0.041006617 -0.032832813 -0.31646168
0.041193523 -0.032841429 -0.31645203
0.041382533 -0.032889824 -0.31645116
0.0415629 -0.032898813 -0.3164441
0.037424728 -0.03260674 -0.3166191
0.037588332 -0.032617789 -0.31661168
0.03778398 -0.032630973 -0.31660196
0.037977368 -0.032678638 -0.31660429
0.03815379 -0.032686196 -0.31659466
0.038329337 -0.032658961 -0.31657842
0.03850979 -0.032664757 -0.3165687
0.038697083 -0.032640006 -0.31655031
0.03881127 -0.032681841 -0.3165544
0.039034232 -0.032649815 -0.31653792
0.039221801 -0.032659128 -0.31652707
0.039409719 -0.032670952 -0.31651878
0.0395809 -0.032682434 -0.31651157
0.039753288 -0.032690141 -0.31650424
0.039932098 -0.03266437 -0.31649742
0.040111326 -0.032677703 -0.31648728
0.040281847 -0.032643978 -0.31647843
0.040448874 -0.032649793 -0.31647286
0.040634785 -0.032658394 -0.31646222
0.040825933 -0.032667838 -0.31645522
0.041003115 -0.032676108 -0.31644744
0.037241928 -0.032442346 -0.31661952
0.037422374 -0.032489851 -0.31661367
0.037585974 -0.0325009 -0.31660628
0.037781626 -0.03251408 -0.31659654
0.037972916 -0.032482371 -0.31658527
0.038149279 -0.032489959 -0.31657431
0.038324952 -0.032462671 -0.31656072
0.038505524 -0.032468412 -0.31655335
0.038693875 -0.032483175 -0.31654206
0.03886345 -0.032486711 -0.316535
0.039030977 -0.032493003 -0.31652868
0.039218541 -0.032502316 -0.31651786
0.03940646 -0.03251414 -0.31650954
0.039576542 -0.032486465 -0.3164942
0.039749026 -0.032494128 -0.31648886
0.039927498 -0.032467835 -0.31647539
0.040106773 -0.032481149 -0.31646627
0.040278032 -0.032486405 -0.3164582
0.040445007 -0.032492243 -0.31645161
0.040632099 -0.032539636 -0.31645077
0.040823244 -0.03254908 -0.31644377
0.036712974 -0.03225486 -0.31661776
0.036890395 -0.032263681 -0.31661314
0.037058577 -0.032313675 -0.31661111
0.037238851 -0.032323763 -0.31660008
0.037418608 -0.032332256 -0.31659442
0.03758112 -0.032303803 -0.31657922
0.037776802 -0.032316972 -0.31657016
0.037967876 -0.032285698 -0.31655422
0.038144298 -0.032293253 -0.31654459
0.038320795 -0.032305248 -0.31653348
0.03850127 -0.032311033 -0.31652412
0.038689621 -0.032325797 -0.31651285
0.038859248 -0.032329313 -0.31650677
0.039026722 -0.032335628 -0.31649947
0.03921343 -0.032305669 -0.31648549
0.039401338 -0.032317501 -0.31647685
0.039571512 -0.032289445 -0.3164635
0.039743993 -0.032297112 -0.31645817
0.039923534 -0.032310329 -0.31645215
0.040103696 -0.032362558 -0.31644684
0.036358427 -0.032080911 -0.31661439
0.036476444 -0.032138031 -0.31661281
0.036710091 -0.032136187 -0.31660229
0.036887463 -0.032145031 -0.31659669
0.037054617 -0.032156166 -0.31658787
0.037234027 -0.032126654 -0.31657371
0.037413787 -0.032135148 -0.31656805
0.037576515 -0.032106936 -0.31655717
0.037772264 -0.032120079 -0.31654945
0.037964355 -0.032127999 -0.31654
0.038140774 -0.032135554 -0.31653035
0.038317278 -0.032147549 -0.31651926
0.038497701 -0.032153353 -0.31650886
0.038685258 -0.032128822 -0.31649581
0.038854837 -0.032132357 -0.31648871
0.03902236 -0.032138649 -0.31648242
0.03920918 -0.032108311 -0.31647077
0.039397053 -0.032120161 -0.31646144
0.039568238 -0.032131638 -0.31645423
0.039740667 -0.032139327 -0.31644791
0.039920993 -0.032191504 -0.31644371
0.036171917 -0.031956442 -0.31661609
0.036355887 -0.031962089 -0.31660593
0.036531243 -0.031969883 -0.31659794
0.036705967 -0.031939443 -0.31658992
0.03688335 -0.03194828 -0.31658465
0.037050422 -0.031959448 -0.31657419
0.037229948 -0.031930562 -0.316562
0.037409607 -0.0319391 -0.31655437
0.037573211 -0.03195015 -0.31654698
0.037768863 -0.03196333 -0.3165372
0.037960999 -0.031971231 -0.31652874
0.038136471 -0.031939223 -0.31651428
0.038312975 -0.031951215 -0.3165032
0.038493406 -0.031957019 -0.31649283
0.038680907 -0.03193251 -0.31647876
0.03885049 -0.031936049 -0.3164717
0.039018013 -0.031942341 -0.31646538
0.039205678 -0.031951606 -0.31645653
0.039393552 -0.031963456 -0.31644723
0.039565735 -0.032014813 -0.31644583
0.039738212 -0.03202248 -0.31644049
0.035802405 -0.031737745 -0.31661791
0.035985358 -0.031792484 -0.31661394
0.036167458 -0.031760518 -0.31659672
0.036351401 -0.031766176 -0.3165859
0.036526803 -0.031773943 -0.31657892
0.036701385 -0.031742901 -0.31656823
0.036878705 -0.031751767 -0.31656161
0.03704581 -0.03176292 -0.3165518
0.037226181 -0.031772967 -0.31654274
0.037405845 -0.03178151 -0.31653512
0.037569448 -0.031792555 -0.31652772
0.037764106 -0.031766195 -0.31651217
0.037956193 -0.031774115 -0.31650272
0.038131624 -0.031742461 -0.31648725
0.038308173 -0.031754434 -0.31647715
0.038488671 -0.031761218 -0.31646782
0.038677063 -0.031775959 -0.31645754
0.038846649 -0.031779498 -0.31645048
0.039015148 -0.031824667 -0.31644997
0.035449266 -0.031568453 -0.3166154
0.035617393 -0.031606253 -0.31661028
0.035798434 -0.031581584 -0.31659403
0.035980389 -0.031596441 -0.31658423
0.036162429 -0.031563502 -0.31656599
0.036346398 -0.031569146 -0.31655586
0.036521804 -0.031576917 -0.31654888
0.036697328 -0.03158544 -0.31654298
0.036874644 -0.031594299 -0.31653637
0.037041806 -0.031605437 -0.31652755
0.037222125 -0.031615503 -0.31651753
0.037400771 -0.031585179 -0.31650344
0.037564442 -0.031596199 -0.31649733
0.037759081 -0.031570517 -0.31648117
0.037951168 -0.03157844 -0.3164717
0.038127586 -0.031585999 -0.31646204
0.038304087 -0.031597987 -0.31645095
0.038485497 -0.031642675 -0.31644636
0.034903008 -0.031375162 -0.31661648
0.035084955 -0.031425215 -0.31661391
0.035266563 -0.031437941 -0.31660539
0.035445098 -0.031410366 -0.31658816
0.035612244 -0.03140929 -0.31657723
0.035793282 -0.03138496 -0.31656066
0.035975233 -0.03139982 -0.31655088
0.036158293 -0.031407081 -0.31653881
0.036342263 -0.031412724 -0.31652868
0.036517672 -0.031420495 -0.3165217
0.036693141 -0.031429037 -0.31651479
0.036869492 -0.031398684 -0.31650269
0.037036568 -0.031409856 -0.31649223
0.037216906 -0.031419914 -0.31648251
0.037395529 -0.031388931 -0.31646806
0.037559129 -0.03139998 -0.31646067
0.037754782 -0.03141316 -0.31645095
0.037947893 -0.031459939 -0.31644827
0.034170933 -0.031184308 -0.31661591
0.034372486 -0.031186277 -0.31661069
0.034554608 -0.031238325 -0.31660742
0.034724329 -0.031247359 -0.31659967
0.034899689 -0.031256683 -0.31659204
0.035079788 -0.03122893 -0.31658024
0.035261396 -0.031241661 -0.31657171
0.035440117 -0.031214666 -0.31655815
0.035607222 -0.031213615 -0.3165462
0.035789292 -0.031228475 -0.31653643
0.035971243 -0.031243335 -0.31652665
0.036154352 -0.031250574 -0.31651559
0.036338277 -0.03125624 -0.31650442
0.036512852 -0.031224392 -0.31649497
0.036688391 -0.031232907 -0.31648943
0.036864884 -0.031202491 -0.31648034
0.037031993 -0.031213645 -0.3164705
0.037212312 -0.031223711 -0.31646049
0.037392028 -0.03123223 -0.31645384
0.037555628 -0.031243278 -0.31644642
0.037752181 -0.03129638 -0.31644052
0.033993796 -0.031054663 -0.31661791
0.034168411 -0.031066485 -0.31660748
0.034370061 -0.031068409 -0.31660426
0.034550216 -0.031042369 -0.31658939
0.034719873 -0.031051433 -0.3165803
0.034895331 -0.031060711 -0.31657469
0.035075366 -0.031032316 -0.31656188
0.035256878 -0.031045089 -0.31655133
0.035436593 -0.031056967 -0.31654388
0.03560375 -0.03105589 -0.31653297
0.035785772 -0.031070773 -0.31652221
0.035966817 -0.031046718 -0.31650832
0.036149848 -0.031053996 -0.31649557
0.036333889 -0.031059608 -0.31648672
0.036508348 -0.031028489 -0.31647462
0.036683872 -0.03103701 -0.31646872
0.036861185 -0.031045875 -0.3164621
0.037028298 -0.03105703 -0.31645232
0.037208669 -0.031067073 -0.31644326
0.033630416 -0.03083702 -0.31661633
0.033811424 -0.030886678 -0.31661078
0.033989232 -0.03085912 -0.31659624
0.034163866 -0.030870935 -0.31658611
0.034365449 -0.030872889 -0.31658161
0.03454569 -0.030847147 -0.31656837
0.034715366 -0.0308562 -0.31655964
0.034890775 -0.030865502 -0.316553
0.035071738 -0.030876679 -0.31654465
0.035253294 -0.030889429 -0.31653515
0.035432007 -0.030861771 -0.31652156
0.035599127 -0.030860709 -0.31650996
0.035781201 -0.030875571 -0.31650019
0.035962258 -0.030851178 -0.3164866
0.036145367 -0.030858416 -0.31647554
0.036329344 -0.03086406 -0.31646538
0.036504753 -0.030871829 -0.3164584
0.036680274 -0.030880351 -0.3164525
0.036857635 -0.030889194 -0.3164469
0.037025798 -0.030940205 -0.31644392
0.033277646 -0.030658415 -0.31661859
0.033452012 -0.030709479 -0.316614
0.033626761 -0.030680051 -0.3165991
0.033806819 -0.030690817 -0.3165884
0.033984467 -0.030662656 -0.31657085
0.034159131 -0.030674458 -0.3165614
0.034360688 -0.030676425 -0.31655622
0.03454183 -0.030689595 -0.31654716
0.034711502 -0.03069865 -0.31653839
0.034886912 -0.030707952 -0.31653178
0.035066992 -0.030680209 -0.31651962
0.035248529 -0.030692965 -0.31650975
0.035427187 -0.030666001 -0.31649485
0.035594348 -0.030664928 -0.31648394
0.035776414 -0.030679788 -0.31647417
0.035958365 -0.030694647 -0.31646439
0.036141474 -0.030701885 -0.31645334
0.036326334 -0.030746451 -0.31644696
0.032882746 -0.030489957 -0.31661391
0.033090979 -0.030528789 -0.31661046
0.033273716 -0.030502239 -0.31659541
0.033447146 -0.030513398 -0.31658629
0.03362193 -0.030483957 -0.31657207
0.033802003 -0.030494714 -0.31656173
0.033980623 -0.030506106 -0.31654963
0.034155291 -0.030517906 -0.31654021
0.034356892 -0.030519851 -0.31653601
0.034537986 -0.030533046 -0.31652594
0.034706723 -0.030502865 -0.31651238
0.034882147 -0.03051216 -0.31650606
0.035062101 -0.030483801 -0.3164916
0.035243653 -0.030496553 -0.31648207
0.035423324 -0.030508451 -0.31647363
0.035590436 -0.030507399 -0.31646171
0.035772506 -0.030522259 -0.31645194
0.035955433 -0.030575994 -0.31644797
0.03235887 -0.030297302 -0.31661564
0.032533653 -0.030346952 -0.316614
0.032713775 -0.030355006 -0.31660467
0.032878838 -0.030331755 -0.31659198
0.033086222 -0.030331651 -0.31658542
0.033269014 -0.030305415 -0.31657135
0.033442426 -0.03031658 -0.31656191
0.033618111 -0.030326383 -0.31655183
0.033798236 -0.030337121 -0.31654251
0.033976857 -0.030348513 -0.31653041
0.034150716 -0.030321022 -0.31651881
0.034352306 -0.030322975 -0.31651428
0.034533426 -0.030336155 -0.31650487
0.034702256 -0.030305602 -0.31649333
0.034877717 -0.030314879 -0.3164877
0.035058677 -0.030326057 -0.31647936
0.035240177 -0.030338829 -0.31646883
0.035419848 -0.03035073 -0.31646037
0.035587013 -0.030349653 -0.31644946
0.035769917 -0.030403456 -0.31644249
0.03200987 -0.030122476 -0.31661728
0.032184027 -0.030168779 -0.3166132
0.032355595 -0.030139493 -0.3166064
0.032529481 -0.030150229 -0.31660062
0.032709498 -0.030158326 -0.31658933
0.032874726 -0.03013568 -0.31657958
0.033082075 -0.030135591 -0.31657237
0.033265755 -0.030148605 -0.31656212
0.033439219 -0.030159749 -0.31655368
0.033614904 -0.030169554 -0.31654358
0.033794109 -0.030141383 -0.31652978
0.033972796 -0.030152747 -0.31651905
0.034146599 -0.03012562 -0.31650612
0.034348205 -0.030127566 -0.31650192
0.034529343 -0.030140737 -0.31649286
0.034699019 -0.030149791 -0.31648409
0.034874428 -0.030159092 -0.31647748
0.035055388 -0.030170269 -0.31646913
0.035236116 -0.030144071 -0.31645715
0.035415739 -0.030155992 -0.31644771
0.03558461 -0.030232787 -0.31644306
0.031833656 -0.029956976 -0.3166135
0.032006595 -0.02996668 -0.31660739
0.03217997 -0.029974019 -0.31660149
0.032351375 -0.029944807 -0.31659138
0.032525279 -0.029955536 -0.31658596
0.032705348 -0.029963611 -0.31657565
0.032871291 -0.029979955 -0.31656641
0.033078641 -0.029979866 -0.31655917
0.033262372 -0.02999286 -0.3165499
0.033435002 -0.029964387 -0.31653902
0.033610735 -0.029974172 -0.3165299
0.033789903 -0.029945683 -0.31651545
0.033968519 -0.029957075 -0.31650335
0.034143195 -0.029968876 -0.3164939
0.034344751 -0.029970843 -0.31648871
0.034525938 -0.029983994 -0.31648064
0.034695663 -0.029993024 -0.31647289
0.034870233 -0.029963052 -0.31646344
0.035051193 -0.029974228 -0.3164551
0.035231989 -0.029947329 -0.31644475
0.031485729 -0.029775437 -0.31661737
0.03165783 -0.029787118 -0.31661087
0.031830389 -0.029799834 -0.31660429
0.032002471 -0.029769938 -0.31659502
0.032175843 -0.029777277 -0.31658912
0.032348197 -0.029786956 -0.31658411
0.032522049 -0.029797705 -0.31657767
0.032702122 -0.029805779 -0.31656736
0.032867163 -0.029783212 -0.31655404
0.033074547 -0.029783109 -0.31654742
0.033258244 -0.029796118 -0.31653753
0.033430837 -0.029768333 -0.31652564
0.033606574 -0.029778115 -0.31651655
0.033786595 -0.029788896 -0.31650519
0.033965312 -0.029800244 -0.31649509
0.034139935 -0.029812066 -0.31648469
0.03434154 -0.029814012 -0.31648049
0.034521598 -0.029788351 -0.31646362
0.034691263 -0.029797411 -0.31645456
0.034866784 -0.02980666 -0.31645024
0.03504784 -0.029817795 -0.31644389
0.031263992 -0.029567903 -0.31660432
0.031482227 -0.029619744 -0.31660283
0.031653255 -0.029591916 -0.31658885
0.03182577 -0.029604651 -0.31658125
0.031998791 -0.029614322 -0.31657684
0.032172069 -0.029621704 -0.31656894
0.032344371 -0.029631402 -0.31656295
0.032517072 -0.029602682 -0.31654736
0.032697126 -0.029610766 -0.31653669
0.032861918 -0.029587969 -0.31651837
0.033069316 -0.029587861 -0.31651211
0.033252999 -0.029600875 -0.31650186
0.03342646 -0.02961202 -0.31649345
0.033602145 -0.029621823 -0.31648332
0.033782214 -0.029632581 -0.31647301
0.033960879 -0.029643953 -0.31646192
0.034136798 -0.029695522 -0.31646329
0.034338355 -0.029697489 -0.31645811
0.030378366 -0.02940933 -0.31661624
0.030553427 -0.029380191 -0.31659949
0.030731132 -0.029389469 -0.31659341
0.030908555 -0.029434578 -0.31659493
0.031081578 -0.029440129 -0.31658459
0.031259254 -0.02941074 -0.31656513
0.031476427 -0.029423738 -0.31655616
0.031648472 -0.029434774 -0.31654865
0.031821027 -0.029447488 -0.31654203
0.03199286 -0.029418373 -0.31652749
0.032166235 -0.029425712 -0.31652158
0.032338556 -0.029435406 -0.31651592
0.032511283 -0.029407345 -0.31650069
0.032691404 -0.029415399 -0.3164914
0.032857344 -0.029431742 -0.31648216
0.033064693 -0.029431654 -0.31647491
0.033248425 -0.029444646 -0.31646568
0.033421837 -0.029455813 -0.31645626
0.033597521 -0.029465616 -0.31644616
0.033778574 -0.029515252 -0.3164416
0.029815273 -0.029221654 -0.31661606
0.029985506 -0.029269455 -0.31661403
0.03019497 -0.029244652 -0.31660193
0.030374141 -0.029253287 -0.31658703
0.030549437 -0.029223703 -0.31657526
0.030727144 -0.029232983 -0.31656918
0.030903347 -0.029238649 -0.31656021
0.031076372 -0.029244201 -0.3165499
0.031255264 -0.029254254 -0.31654093
0.031472389 -0.029267274 -0.31653094
0.031643543 -0.029239057 -0.31651965
0.031816069 -0.029251784 -0.31651238
0.031988084 -0.029221918 -0.3165018
0.032161407 -0.02922928 -0.31649488
0.032333761 -0.029238958 -0.31648991
0.032507617 -0.029249709 -0.31648344
0.03268769 -0.029257784 -0.31647313
0.032853678 -0.029274106 -0.3164649
0.033061028 -0.029274017 -0.31645769
0.033244759 -0.02928701 -0.31644842
0.033419151 -0.029337054 -0.31644481
0.029476084 -0.029044963 -0.31661505
0.029646449 -0.029093223 -0.31661031
0.029811576 -0.029064029 -0.31659815
0.029980926 -0.029072911 -0.31659231
0.030190237 -0.029048845 -0.3165769
0.030369461 -0.029057458 -0.31656301
0.030545689 -0.02906711 -0.31655604
0.030723302 -0.029076431 -0.31654796
0.030899506 -0.029082097 -0.31653902
0.031072529 -0.029087652 -0.31652871
0.031251471 -0.029097682 -0.31652069
0.031467829 -0.029071057 -0.31650957
0.031638999 -0.029042833 -0.31649861
0.031811513 -0.029055569 -0.31649101
0.031984434 -0.029065281 -0.31648457
0.03215776 -0.029072642 -0.31647766
0.032330163 -0.029082298 -0.31647369
0.03250397 -0.029093072 -0.31646624
0.032683253 -0.029061848 -0.31645408
0.032850031 -0.029117469 -0.31644771
0.033058234 -0.029157322 -0.31644326
0.029087611 -0.028862361 -0.3166177
0.029291585 -0.028916746 -0.3166123
0.029472591 -0.028887922 -0.31660116
0.02964201 -0.028897291 -0.31659126
0.029807255 -0.028867373 -0.31658179
0.029976554 -0.028876277 -0.31657493
0.030186914 -0.028891059 -0.31656665
0.030366087 -0.028899694 -0.31655174
0.030542316 -0.028909344 -0.3165448
0.030718997 -0.028879767 -0.31653193
0.030895235 -0.028885419 -0.31652364
0.031068226 -0.028890984 -0.31651264
0.031247152 -0.028901024 -0.31650433
0.031463355 -0.028875139 -0.31648988
0.031635448 -0.028886152 -0.31648338
0.031807959 -0.028898887 -0.31647578
0.031980887 -0.028908601 -0.31646937
0.032154258 -0.02891594 -0.31646347
0.032326564 -0.028925639 -0.31645745
0.032500371 -0.028936412 -0.31645
0.028571192 -0.028681733 -0.31661963
0.028742803 -0.028690632 -0.31661305
0.028922951 -0.028703412 -0.31660244
0.029083753 -0.028706824 -0.31659582
0.029286826 -0.028721293 -0.31658658
0.029467611 -0.028692897 -0.31657082
0.029637048 -0.028702259 -0.31656128
0.029803189 -0.02871193 -0.31655559
0.02997244 -0.028720854 -0.31654775
0.030182796 -0.028735638 -0.31653947
0.030360945 -0.028705416 -0.3165178
0.030537168 -0.028715065 -0.31651083
0.030713705 -0.028685555 -0.31649494
0.03089001 -0.028691178 -0.31648797
0.031063033 -0.028696731 -0.31647766
0.031241925 -0.028706782 -0.31646866
0.031459041 -0.028719801 -0.3164587
0.031631138 -0.028730817 -0.31645221
0.03180458 -0.02878245 -0.3164494
0.031977553 -0.028792141 -0.31644398
0.028005352 -0.028499685 -0.31661862
0.028202398 -0.028549228 -0.31661326
0.028393624 -0.028558047 -0.31660506
0.028567063 -0.028525645 -0.31659243
0.028738676 -0.028534545 -0.31658587
0.028917914 -0.028508078 -0.31657109
0.029078722 -0.028511491 -0.3165645
0.029281842 -0.028525934 -0.31655627
0.029463718 -0.028536368 -0.31654859
0.029633107 -0.028545752 -0.31653807
0.029799249 -0.028555423 -0.31653237
0.029967561 -0.028525114 -0.31651974
0.030177919 -0.028539896 -0.31651148
0.0303562 -0.028508944 -0.31649274
0.030532423 -0.028518595 -0.31648576
0.030710086 -0.028527897 -0.3164787
0.030886346 -0.028533541 -0.31647074
0.031059319 -0.028539114 -0.31645942
0.031238209 -0.028549168 -0.31645042
0.031456355 -0.028601043 -0.31644726
0.031628452 -0.028612057 -0.31644076
0.027838361 -0.028333098 -0.31661129
0.028001716 -0.028342033 -0.31660208
0.028197831 -0.028352678 -0.31659189
0.028389027 -0.028361512 -0.31658301
0.028562333 -0.028329842 -0.31656742
0.02873404 -0.028338697 -0.31656283
0.028914217 -0.028351462 -0.31655288
0.029074978 -0.028354894 -0.31654528
0.029278096 -0.028369341 -0.31653705
0.029459232 -0.028340789 -0.31652859
0.029628688 -0.028350145 -0.31651938
0.029794767 -0.028359843 -0.31651235
0.029963234 -0.028329805 -0.31650269
0.030173587 -0.028344586 -0.31649444
0.030352768 -0.028353222 -0.31647953
0.030528989 -0.02836287 -0.31647259
0.030706653 -0.028372172 -0.3164655
0.030882163 -0.02833884 -0.31645641
0.031055247 -0.028344363 -0.31644741
0.031234236 -0.028354373 -0.3164404
0.027656436 -0.028166793 -0.31661499
0.027835218 -0.028177245 -0.31660411
0.027997904 -0.028147168 -0.31659538
0.02819402 -0.028157812 -0.31658518
0.028385151 -0.028166674 -0.31657502
0.028559484 -0.02817386 -0.31656617
0.028731141 -0.028182738 -0.3165606
0.028911315 -0.028195502 -0.31655064
0.029071184 -0.028159348 -0.31653926
0.02927432 -0.028173784 -0.31653133
0.029455287 -0.028144974 -0.31651956
0.029624728 -0.028154336 -0.31650999
0.029790826 -0.028164029 -0.31650329
0.029960074 -0.028172951 -0.31649548
0.030170428 -0.028187733 -0.31648719
0.030349657 -0.028196348 -0.31647331
0.030524842 -0.02816681 -0.31645954
0.030703543 -0.028215297 -0.31645924
0.030878659 -0.028181132 -0.31644249
0.027136695 -0.027906727 -0.31661126
0.027306795 -0.027954087 -0.31660819
0.027478527 -0.027963873 -0.31660259
0.027651887 -0.027970236 -0.31659395
0.027830668 -0.027980689 -0.31658304
0.027993996 -0.027989639 -0.31657314
0.028190207 -0.028000239 -0.31656498
0.028381338 -0.028009102 -0.31655478
0.028555624 -0.028016308 -0.31654495
0.028726347 -0.027986288 -0.31653455
0.028906586 -0.027999023 -0.31652594
0.029066406 -0.027963564 -0.31651324
0.029269572 -0.027977988 -0.316506
0.029451396 -0.027988445 -0.31649733
0.029620886 -0.027997784 -0.3164888
0.029786933 -0.0280075 -0.31648111
0.029956233 -0.0280164 -0.31647426
0.030165637 -0.027992293 -0.31646085
0.030345768 -0.028039817 -0.31645107
0.030521102 -0.028010547 -0.31644034
0.026760761 -0.027730724 -0.31661204
0.026953002 -0.027819216 -0.31661269
0.027134094 -0.027789947 -0.31660086
0.027303215 -0.027798429 -0.31659201
0.027474899 -0.027808234 -0.31658539
0.027648307 -0.027814578 -0.31657773
0.027827088 -0.02782503 -0.31656685
0.027990414 -0.02783398 -0.31655693
0.028185599 -0.027805723 -0.316542
0.02837673 -0.027814588 -0.31653178
0.028551014 -0.027821794 -0.31652194
0.028721642 -0.027791817 -0.31650957
0.02890191 -0.027804539 -0.31650162
0.029062632 -0.027807992 -0.31649303
0.029265795 -0.027822416 -0.31648582
0.029447619 -0.027832871 -0.31647712
0.029616052 -0.027802698 -0.31646144
0.029782137 -0.027812397 -0.31645444
0.029952459 -0.027860828 -0.31645408
0.026409579 -0.027592435 -0.31661105
0.026583008 -0.027605711 -0.31660157
0.026757605 -0.027613178 -0.31659061
0.02694805 -0.027623847 -0.31658298
0.027130008 -0.027633503 -0.31657466
0.02729908 -0.027642006 -0.3165648
0.027470812 -0.027651791 -0.3165592
0.027643204 -0.027618937 -0.31654507
0.027821949 -0.027629405 -0.31653348
0.027985275 -0.027638355 -0.31652358
0.028180417 -0.027609449 -0.31650794
0.028371548 -0.027618311 -0.31649774
0.028545834 -0.027625516 -0.31648791
0.028717536 -0.027634375 -0.31648335
0.028897705 -0.027647138 -0.31647339
0.029058527 -0.02765055 -0.31646681
0.029261641 -0.027664995 -0.31645858
0.029443463 -0.02767545 -0.31644988
0.025690041 -0.02736564 -0.31661212
0.025865201 -0.027414568 -0.31660703
0.026042245 -0.027460128 -0.31660333
0.026229544 -0.027460618 -0.31659627
0.026405493 -0.027435992 -0.31658483
0.026578872 -0.027449287 -0.31657434
0.026753372 -0.027456801 -0.3165614
0.026943915 -0.027467424 -0.3165558
0.027124891 -0.027438203 -0.31654167
0.02729398 -0.0274467 -0.31653214
0.027465791 -0.027456449 -0.31652817
0.027638126 -0.027423957 -0.3165127
0.027816903 -0.027434411 -0.31650186
0.027980329 -0.027443318 -0.31649393
0.028176397 -0.027453981 -0.31648275
0.028367579 -0.027462825 -0.31647354
0.028541863 -0.02747003 -0.31646371
0.028712651 -0.027439982 -0.31645468
0.028892947 -0.027452687 -0.31644741
0.029055342 -0.027534027 -0.31644443
0.02549658 -0.027238179 -0.31661597
0.02568754 -0.027248815 -0.31660372
0.025861669 -0.027258888 -0.31659183
0.026037686 -0.02726559 -0.31658134
0.026224934 -0.027266104 -0.31657326
0.026401911 -0.027280334 -0.31656861
0.026575338 -0.027293608 -0.31655914
0.026749054 -0.027262157 -0.31654441
0.026939565 -0.027272796 -0.31653813
0.027120721 -0.027243495 -0.31652766
0.027289793 -0.027252 -0.31651777
0.027461525 -0.027261784 -0.31651217
0.027634937 -0.027268127 -0.31650454
0.02781371 -0.02727858 -0.31649363
0.027977042 -0.027287528 -0.31648374
0.028172389 -0.027259201 -0.31647208
0.028363556 -0.027268052 -0.31646255
0.028537842 -0.027275257 -0.31645271
0.028708655 -0.027245194 -0.31644434
0.025290862 -0.027071793 -0.31661665
0.025493339 -0.027082369 -0.31660676
0.025684349 -0.027092982 -0.31659552
0.02585848 -0.027103057 -0.31658363
0.026034493 -0.027109759 -0.31657314
0.026221793 -0.027110249 -0.31656605
0.026397854 -0.027085574 -0.31655696
0.026571328 -0.027098827 -0.31654847
0.026745031 -0.027067384 -0.31653339
0.026935525 -0.027078029 -0.31652677
0.02711748 -0.027087685 -0.31651843
0.027286552 -0.02709619 -0.31650859
0.027458284 -0.027105974 -0.31650296
0.027631652 -0.027112339 -0.31649429
0.027809432 -0.027083248 -0.31647757
0.02797276 -0.027092198 -0.31646767
0.028167941 -0.027063608 -0.31645271
0.028360222 -0.027112285 -0.31645134
0.028534506 -0.027119491 -0.31644151
0.024598619 -0.026841335 -0.31661934
0.024769118 -0.026852218 -0.31661266
0.024946764 -0.026861269 -0.31660679
0.025116254 -0.026907835 -0.31660634
0.025287259 -0.026915133 -0.31660044
0.025489789 -0.02692569 -0.31659156
0.025680751 -0.026936324 -0.31657928
0.025853748 -0.026907252 -0.31655863
0.02602973 -0.026913969 -0.31654742
0.026216997 -0.026914475 -0.3165397
0.026392899 -0.026889198 -0.31652758
0.026566224 -0.026902515 -0.3165161
0.02674073 -0.026910026 -0.31650317
0.026931273 -0.02692065 -0.31649756
0.027113229 -0.026930308 -0.31648922
0.02728132 -0.026899934 -0.31647357
0.0274531 -0.026909696 -0.31646892
0.027626419 -0.026916085 -0.3164593
0.027805094 -0.026926579 -0.31644639
0.024063544 -0.026659247 -0.31661949
0.024251398 -0.026708223 -0.31661281
0.024421606 -0.026716463 -0.31660563
0.024595482 -0.026724791 -0.31659794
0.024765981 -0.026735673 -0.31659126
0.024943579 -0.026744746 -0.31658441
0.025112022 -0.026751457 -0.31657717
0.025281996 -0.026719898 -0.31656444
0.025484575 -0.026730433 -0.31655654
0.025675522 -0.026741074 -0.31654397
0.025848687 -0.026712265 -0.31652662
0.026024703 -0.026718967 -0.3165161
0.026211999 -0.026719458 -0.31650904
0.026388928 -0.026733711 -0.31650341
0.026562348 -0.026746985 -0.31649393
0.026736906 -0.026754476 -0.31648198
0.026926355 -0.026726274 -0.31646821
0.027108312 -0.026735932 -0.31645989
0.027277397 -0.026744425 -0.31645036
0.027449178 -0.026754189 -0.31644577
0.023518179 -0.026477942 -0.31661862
0.023695309 -0.026482841 -0.31661186
0.023860402 -0.026495723 -0.31660694
0.02406065 -0.026542595 -0.31660306
0.024247576 -0.02655267 -0.31659162
0.024417829 -0.026560891 -0.31658542
0.02459161 -0.026569262 -0.31657577
0.024761178 -0.026541242 -0.31656426
0.024938757 -0.026550323 -0.31655708
0.025107136 -0.026557066 -0.3165485
0.025277045 -0.026525535 -0.31653446
0.025479525 -0.026536115 -0.31652457
0.02567054 -0.026546728 -0.3165133
0.025844667 -0.026556801 -0.31650144
0.026020683 -0.026563503 -0.31649092
0.026207983 -0.026563995 -0.31648386
0.026383897 -0.026539383 -0.31647173
0.026557364 -0.026552638 -0.31646326
0.026732888 -0.026599009 -0.31645679
0.026922304 -0.026570821 -0.31644237
0.023156967 -0.026304645 -0.31661317
0.023340303 -0.026354779 -0.31661034
0.023515236 -0.026361311 -0.31660122
0.023692317 -0.02636623 -0.31659347
0.023857411 -0.026379112 -0.31658855
0.024056628 -0.026387129 -0.31657788
0.024243604 -0.026397184 -0.31656742
0.024412768 -0.026365904 -0.31655344
0.024586678 -0.026374215 -0.31654641
0.024756158 -0.026345901 -0.31653327
0.024933754 -0.026354974 -0.31652641
0.025102198 -0.026361687 -0.31651917
0.025273101 -0.026369028 -0.31651124
0.025475634 -0.026379585 -0.31650233
0.025666647 -0.026390197 -0.3164911
0.025839789 -0.026361061 -0.31647339
0.026015839 -0.026367748 -0.31646356
0.026203103 -0.026368255 -0.31645584
0.026379969 -0.026381861 -0.31644917
0.022793246 -0.026130535 -0.31661129
0.022973701 -0.026177427 -0.3166061
0.023154035 -0.026185993 -0.31659672
0.02333644 -0.026197229 -0.31658912
0.023511425 -0.026203737 -0.31658098
0.023688458 -0.02620868 -0.31657225
0.023852793 -0.026183257 -0.31656584
0.024051974 -0.026191289 -0.31655455
0.024238937 -0.026201352 -0.31654373
0.024408299 -0.026170991 -0.31653345
0.024582125 -0.02617934 -0.31652474
0.024752675 -0.026190201 -0.31651908
0.02493027 -0.026199274 -0.3165122
0.025098667 -0.026206005 -0.31650394
0.025269616 -0.026213326 -0.31649706
0.025471345 -0.026184594 -0.316486
0.025662357 -0.026195206 -0.31647477
0.025835769 -0.026166622 -0.3164624
0.026011785 -0.026173322 -0.31645191
0.026199088 -0.026173815 -0.31644481
0.026376769 -0.026228052 -0.31644002
0.022610087 -0.026004605 -0.31661785
0.022791054 -0.026014579 -0.31660891
0.022970628 -0.026022553 -0.31659991
0.023150962 -0.02603112 -0.31659052
0.023332456 -0.026003107 -0.31657878
0.023507429 -0.026009625 -0.31657031
0.023684526 -0.026014538 -0.31656289
0.023848787 -0.025987804 -0.3165555
0.024048004 -0.025995821 -0.31654483
0.02423488 -0.02600592 -0.31653237
0.024405088 -0.02601416 -0.31652522
0.024578966 -0.026022488 -0.31651753
0.024749465 -0.02603337 -0.31651083
0.024926225 -0.0260035 -0.31650117
0.025094673 -0.02601021 -0.31649396
0.025265574 -0.026017552 -0.316486
0.025467224 -0.02598919 -0.31647331
0.02565819 -0.025999824 -0.31646109
0.025832316 -0.026009899 -0.31644917
0.026009217 -0.026055519 -0.31644249
0.022218945 -0.025796341 -0.31661665
0.022432867 -0.025843384 -0.31661248
0.022606684 -0.025847858 -0.31660563
0.022786736 -0.025818929 -0.31659222
0.022966309 -0.025826901 -0.31658325
0.023146592 -0.025835492 -0.31657282
0.023328144 -0.02580779 -0.31656209
0.023503084 -0.025814321 -0.31655297
0.023680117 -0.025819264 -0.3165442
0.023845203 -0.025832146 -0.31653929
0.024044421 -0.025840163 -0.31652865
0.024231348 -0.02585024 -0.31651717
0.024400705 -0.025819546 -0.31650689
0.024574583 -0.025827872 -0.3164992
0.024745017 -0.025838783 -0.31649116
0.024921764 -0.025808921 -0.31648117
0.02509021 -0.025815632 -0.31647393
0.025261108 -0.025822975 -0.316466
0.025463644 -0.02583353 -0.31645709
0.02565461 -0.025844164 -0.31644487
0.021884644 -0.025614714 -0.31661367
0.02205598 -0.025666066 -0.31661007
0.022215379 -0.025640676 -0.31660077
0.022428451 -0.025648782 -0.3165935
0.022602269 -0.025653258 -0.31658664
0.022782356 -0.025624314 -0.31657386
0.022961926 -0.025632286 -0.31656492
0.023142258 -0.025640853 -0.3165555
0.023324611 -0.025652111 -0.31654692
0.023499601 -0.025658619 -0.31653875
0.023676682 -0.02566354 -0.316531
0.023841769 -0.025676422 -0.31652609
0.024040053 -0.025645539 -0.31651065
0.024227014 -0.025655603 -0.31649983
0.024396308 -0.025624938 -0.31648821
0.024570184 -0.025633264 -0.31648049
0.024740685 -0.025644146 -0.31647381
0.024918281 -0.025653219 -0.31646699
0.025086727 -0.02565993 -0.31645972
0.025257625 -0.025667273 -0.31645179
0.025461093 -0.025716728 -0.31644771
0.021502003 -0.025437588 -0.31661278
0.021690134 -0.025485497 -0.31661081
0.021881143 -0.025459019 -0.31659916
0.022051545 -0.025471471 -0.31659073
0.0222109 -0.025446102 -0.31658041
0.022424037 -0.025454182 -0.31657451
0.022597756 -0.025458701 -0.31656563
0.022778725 -0.025468677 -0.31655669
0.022958297 -0.025476649 -0.31654769
0.023138676 -0.025485195 -0.31653929
0.02332098 -0.025496472 -0.31652969
0.023495153 -0.025464034 -0.31651908
0.023672253 -0.025468947 -0.31651166
0.023837304 -0.025481842 -0.31650609
0.024035685 -0.025450919 -0.31649262
0.024222665 -0.025460973 -0.31648219
0.024392825 -0.025469236 -0.31647399
0.024566751 -0.025477542 -0.31646729
0.02473725 -0.025488423 -0.31646061
0.024913929 -0.025458589 -0.31644931
0.025083244 -0.025504228 -0.31644553
0.025254974 -0.025550513 -0.3164404
0.021167018 -0.025268614 -0.31661779
0.021337902 -0.025278017 -0.31660864
0.0214986 -0.025281848 -0.31660023
0.021685785 -0.025290867 -0.31659314
0.021876842 -0.025264367 -0.31658247
0.022047244 -0.025276821 -0.31657407
0.022207513 -0.025290359 -0.31656823
0.022420602 -0.025298459 -0.31656128
0.02259437 -0.025302954 -0.31655344
0.022775341 -0.02531293 -0.31654447
0.022953838 -0.025281394 -0.31652802
0.023134181 -0.025289955 -0.31651896
0.023316568 -0.025301198 -0.31651101
0.023490509 -0.025268527 -0.31649572
0.023667591 -0.025273446 -0.316488
0.023832673 -0.025286328 -0.31648308
0.024031889 -0.025294345 -0.31647241
0.02421887 -0.025304399 -0.31646192
0.02438903 -0.025312662 -0.31645375
0.024564052 -0.025360802 -0.31645489
0.02473465 -0.025371641 -0.31645021
0.020613991 -0.025088105 -0.3166163
0.020799402 -0.025094837 -0.31660694
0.020971065 -0.025102453 -0.3166002
0.021162884 -0.025112525 -0.31659058
0.021332672 -0.025082771 -0.31657332
0.021493355 -0.025086608 -0.31656456
0.021680554 -0.025095619 -0.31655782
0.021872461 -0.025108054 -0.31655028
0.022042913 -0.025120486 -0.31654286
0.022203185 -0.025134023 -0.31653702
0.022415154 -0.025102971 -0.31652161
0.022588974 -0.025107443 -0.31651476
0.022769907 -0.025117436 -0.31650516
0.022948377 -0.025086921 -0.3164877
0.023128703 -0.025095489 -0.31647831
0.023311105 -0.025106724 -0.31647071
0.023486052 -0.025113255 -0.31646156
0.023663133 -0.025118176 -0.31645381
0.023828214 -0.025131058 -0.3164489
0.024028478 -0.02517893 -0.31644505
0.020058481 -0.024896262 -0.3166154
0.020242747 -0.024953581 -0.31661245
0.020412197 -0.024924492 -0.31659794
0.020609759 -0.024933407 -0.31658646
0.020795135 -0.02494015 -0.31657642
0.020965762 -0.0249069 -0.31656352
0.021157615 -0.024916958 -0.31655458
0.021328535 -0.02492635 -0.31654611
0.021489268 -0.024930164 -0.31653836
0.021676417 -0.024939198 -0.31653062
0.021868374 -0.024951611 -0.31652406
0.022037923 -0.024925804 -0.3165122
0.022198193 -0.024939338 -0.31650636
0.022410437 -0.024908841 -0.31649631
0.022584157 -0.024913358 -0.31648743
0.022765078 -0.024923354 -0.31647748
0.022944696 -0.024931306 -0.31646949
0.023124974 -0.024939895 -0.31645912
0.023307376 -0.02495113 -0.31645149
0.023482371 -0.02495764 -0.31644335
0.019706544 -0.024728911 -0.31661862
0.019884614 -0.024740398 -0.31660619
0.020054799 -0.02474132 -0.31659687
0.020238081 -0.024758754 -0.31658843
0.020407628 -0.024730299 -0.31657562
0.020605188 -0.024739213 -0.31656414
0.020790596 -0.024745941 -0.31655475
0.020962201 -0.024752241 -0.31654733
0.021154054 -0.024762299 -0.31653839
0.021324974 -0.024771689 -0.31652993
0.021485709 -0.024775505 -0.31652218
0.021671804 -0.024745354 -0.31650731
0.021863759 -0.024757767 -0.31650075
0.022033138 -0.024730694 -0.31648588
0.02219341 -0.024744229 -0.31648004
0.022406494 -0.024752332 -0.3164731
0.022580266 -0.024756828 -0.31646526
0.022761235 -0.024766805 -0.31645626
0.022941884 -0.024813611 -0.31645507
0.023122258 -0.024822157 -0.31644669
0.018982256 -0.024525424 -0.31661928
0.019160751 -0.024538031 -0.31661332
0.019347697 -0.024548829 -0.31660703
0.019529209 -0.024559131 -0.31660244
0.019702455 -0.024571462 -0.31659272
0.019879635 -0.024545375 -0.31657586
0.0200499 -0.024546262 -0.3165682
0.020233214 -0.024563681 -0.31656045
0.02040359 -0.024573833 -0.31655037
0.02060115 -0.024582747 -0.31653893
0.020786557 -0.024589477 -0.31652957
0.020958161 -0.024595777 -0.31652212
0.021149131 -0.024566913 -0.3165094
0.021320051 -0.024576304 -0.3165009
0.021480754 -0.024580136 -0.31649253
0.021667052 -0.024550233 -0.31648159
0.021858908 -0.024562689 -0.31647307
0.022029312 -0.024575142 -0.31646466
0.022189682 -0.024588635 -0.31646085
0.022402719 -0.024596758 -0.31645289
0.022576539 -0.024601232 -0.31644607
0.022758391 -0.02465013 -0.31644088
0.018784028 -0.024358289 -0.3166126
0.018979609 -0.024408663 -0.31660786
0.019157121 -0.024382392 -0.31659609
0.019344131 -0.024393162 -0.31659117
0.019524582 -0.024364624 -0.3165791
0.019697782 -0.024376975 -0.31656837
0.019876007 -0.024389736 -0.31655866
0.020046271 -0.024390623 -0.316551
0.020229537 -0.024408065 -0.31654227
0.02039898 -0.024379319 -0.3165274
0.020596541 -0.024388233 -0.31651592
0.020781916 -0.02439498 -0.31650591
0.020953516 -0.024401277 -0.31649846
0.021144373 -0.024372462 -0.31648338
0.021315293 -0.024381854 -0.31647491
0.021476079 -0.02438565 -0.31646818
0.021663226 -0.02439468 -0.31646043
0.021855131 -0.024407115 -0.31645289
0.022026565 -0.024458425 -0.31645128
0.022186838 -0.024471961 -0.31644544
0.018264035 -0.024180615 -0.31661329
0.018441778 -0.024229748 -0.31661123
0.018610217 -0.024235759 -0.31660366
0.018780205 -0.02420274 -0.31659141
0.018974835 -0.024214217 -0.31658152
0.01915241 -0.024187922 -0.31657112
0.019339405 -0.0241987 -0.31656584
0.019520806 -0.02420905 -0.3165589
0.019693956 -0.024221424 -0.31654719
0.019872183 -0.024234187 -0.31653744
0.020042447 -0.024235073 -0.31652981
0.020224893 -0.024213566 -0.31651857
0.020394467 -0.024184762 -0.31650639
0.02059203 -0.024193674 -0.31649494
0.020777388 -0.024200426 -0.31648457
0.020949036 -0.024206705 -0.31647813
0.02114084 -0.024216782 -0.31646818
0.02131176 -0.024226174 -0.31645972
0.021472547 -0.024229968 -0.31645298
0.021659695 -0.024239 -0.31644523
0.021852434 -0.024290377 -0.31644049
0.018076755 -0.024049981 -0.31661388
0.0182606 -0.024024891 -0.31660008
0.01843738 -0.024035141 -0.31659254
0.018605737 -0.024041189 -0.31658331
0.018775791 -0.024008138 -0.3165724
0.01897049 -0.024019592 -0.31656384
0.019148927 -0.02403222 -0.3165569
0.019336019 -0.024042953 -0.31655362
0.019517373 -0.024053328 -0.3165457
0.019689541 -0.024026824 -0.31652817
0.019867769 -0.024039587 -0.31651846
0.020037984 -0.024040496 -0.31650981
0.020220317 -0.024019036 -0.31649625
0.020390742 -0.024029167 -0.31648719
0.020588255 -0.024038102 -0.31647474
0.02077366 -0.02404483 -0.31646535
0.020945311 -0.024051111 -0.31645894
0.021136245 -0.024022261 -0.3164455
0.021308964 -0.024109477 -0.31644532
0.017526349 -0.023830075 -0.31661576
0.017708335 -0.023875823 -0.31661212
0.017888593 -0.02384367 -0.31660038
0.01807216 -0.023855461 -0.31659123
0.018256038 -0.023830356 -0.31657806
0.018432751 -0.023840632 -0.31656921
0.018601146 -0.023846665 -0.31656066
0.018772116 -0.023852523 -0.31655422
0.018966762 -0.023863997 -0.31654465
0.019145247 -0.023876604 -0.31653869
0.019331409 -0.023848439 -0.31653062
0.019512761 -0.023858814 -0.31652269
0.019685224 -0.02383218 -0.31651118
0.019863453 -0.023844942 -0.31650144
0.020033717 -0.023845829 -0.31649381
0.020217028 -0.023863249 -0.31648606
0.020387406 -0.0238734 -0.31647599
0.020584084 -0.023843393 -0.31646073
0.02076949 -0.023850126 -0.31645134
0.020941973 -0.023895344 -0.31644773
0.0173393 -0.023626197 -0.31661507
0.01752311 -0.023674265 -0.31660652
0.017704114 -0.023681136 -0.31659713
0.017884357 -0.023648992 -0.31658503
0.018067926 -0.023660779 -0.31657588
0.018252753 -0.023674568 -0.3165679
0.018429514 -0.023684822 -0.31656
0.018597908 -0.023690857 -0.31655145
0.018767914 -0.023657829 -0.31653953
0.018962575 -0.023669297 -0.31653032
0.019141058 -0.023681903 -0.31652439
0.019327138 -0.023653772 -0.31651461
0.019508492 -0.023664147 -0.31650668
0.019681692 -0.0236765 -0.31649595
0.019859921 -0.023689261 -0.31648624
0.020030234 -0.023690127 -0.31647962
0.020212727 -0.023668597 -0.3164694
0.020383155 -0.023678727 -0.31646034
0.020579865 -0.023648705 -0.31644571
0.016991649 -0.023450095 -0.31661814
0.01716079 -0.023497395 -0.31661415
0.017335963 -0.023470432 -0.31660387
0.017518941 -0.023479559 -0.31659251
0.017699895 -0.02348645 -0.31658214
0.017880972 -0.023493245 -0.31657284
0.018064588 -0.023505013 -0.31656468
0.018248627 -0.02347984 -0.31655484
0.01842534 -0.023490116 -0.31654599
0.018593738 -0.023496145 -0.31653744
0.018764021 -0.023462998 -0.31653118
0.018958617 -0.023474494 -0.31652063
0.019137096 -0.023487102 -0.31651467
0.019324042 -0.023497898 -0.31650841
0.0195054 -0.023508273 -0.31650048
0.019677863 -0.023481639 -0.31648895
0.019856092 -0.023494402 -0.31647924
0.020026403 -0.023495266 -0.31647256
0.020208929 -0.023473725 -0.31646302
0.020379405 -0.023483831 -0.31645498
0.020577705 -0.023531731 -0.31644431
0.0169887 -0.023294158 -0.31661493
0.017156992 -0.023302522 -0.31660777
0.017332967 -0.023314513 -0.31659967
0.017515896 -0.023323663 -0.3165873
0.017696902 -0.023330532 -0.31657791
0.017877078 -0.023298414 -0.3165645
0.018060645 -0.023310205 -0.31655535
0.018244553 -0.023285087 -0.31654286
0.018421315 -0.023295341 -0.316535
0.018589713 -0.023301374 -0.31652641
0.018760636 -0.023307253 -0.31651896
0.018955283 -0.023318727 -0.31650943
0.019133758 -0.023331335 -0.31650347
0.019319691 -0.02330327 -0.31649074
0.019501051 -0.023313647 -0.31648281
0.019673254 -0.023287125 -0.31646597
0.019851483 -0.023299888 -0.31645626
0.020022774 -0.023339629 -0.31645536
0.020206084 -0.023357049 -0.31644762
0.016455162 -0.023063075 -0.31661552
0.01662261 -0.023111552 -0.31661007
0.016803246 -0.023125529 -0.3166011
0.016984828 -0.023138627 -0.31659272
0.017153073 -0.023147013 -0.31658459
0.017328067 -0.023120129 -0.31657067
0.017510979 -0.023129284 -0.31655797
0.017691949 -0.023136169 -0.31654793
0.017872047 -0.023104087 -0.31653285
0.018055663 -0.023115855 -0.31652465
0.018240437 -0.023129664 -0.31651565
0.018417198 -0.02313992 -0.31650782
0.018585596 -0.023145951 -0.31649923
0.01875657 -0.023151809 -0.3164928
0.018950315 -0.023124369 -0.31647912
0.019128757 -0.023136994 -0.3164725
0.019314919 -0.023108827 -0.31646442
0.019496277 -0.023119202 -0.3164565
0.019669428 -0.023131574 -0.31644475
0.016097648 -0.022888046 -0.31661481
0.016283091 -0.022938257 -0.31661206
0.016452417 -0.022946358 -0.31660211
0.016618837 -0.02295598 -0.31658989
0.016799469 -0.022969957 -0.31658089
0.016980054 -0.022944184 -0.31656638
0.017148236 -0.022952599 -0.31655696
0.017323263 -0.022925701 -0.3165437
0.017506238 -0.022934826 -0.31653231
0.017687194 -0.02294172 -0.31652194
0.01786837 -0.02294847 -0.31651464
0.018051889 -0.022960281 -0.31650448
0.01823676 -0.022974048 -0.31649745
0.018412491 -0.022945449 -0.31648281
0.018580891 -0.022951478 -0.31647423
0.018751832 -0.022957349 -0.31646714
0.018945526 -0.022929933 -0.31645244
0.019124929 -0.022981441 -0.31645131
0.019312073 -0.022992153 -0.31644902
0.019493433 -0.023002528 -0.31644109
0.01555427 -0.02270326 -0.31661177
0.015733272 -0.022750501 -0.31660831
0.015914112 -0.022760902 -0.31660381
0.01609461 -0.022771457 -0.31659544
0.016279217 -0.022782728 -0.31658989
0.016448494 -0.022790849 -0.31657892
0.016613968 -0.022761581 -0.31656158
0.0167946 -0.022775555 -0.31655258
0.016975168 -0.022749793 -0.31653774
0.017143417 -0.022758178 -0.31652963
0.017319389 -0.02277017 -0.3165215
0.017502364 -0.022779297 -0.31651014
0.017683372 -0.022786167 -0.31650072
0.017864449 -0.022792961 -0.31649145
