# .PCD v0.7 - Point Cloud Data file format
VERSION 0.7
FIELDS x y z
SIZE 4 4 4
TYPE F F F
COUNT 1 1 1
WIDTH 1262
HEIGHT 1
VIEWPOINT 0 0 0 1 0 0 0
POINTS 1262
DATA ascii
0.01437666 -0.028503805 -0.23211171
0.014554202 -0.028515596 -0.23210599
0.014731088 -0.028527051 -0.23209925
0.014907704 -0.028533421 -0.23208813
0.01509743 -0.028543837 -0.23207387
0.015292129 -0.028556015 -0.23206127
0.015467277 -0.028556954 -0.23205397
0.015645012 -0.02852658 -0.23203792
0.015813168 -0.028495401 -0.23202908
0.015986446 -0.028549645 -0.23202159
0.012688335 -0.02832043 -0.23218583
0.012961145 -0.028337669 -0.23217028
0.013144135 -0.028347164 -0.23215955
0.013410807 -0.028362066 -0.23214278
0.013667677 -0.028376717 -0.23213288
0.013832174 -0.028345501 -0.23213105
0.013999901 -0.028355839 -0.23212509
0.014196145 -0.028324157 -0.23211506
0.014373397 -0.028338935 -0.23210531
0.014550937 -0.028350726 -0.23209959
0.01472789 -0.028363159 -0.23209387
0.014904538 -0.028368508 -0.23208374
0.015094282 -0.028379923 -0.23206949
0.015288346 -0.028350718 -0.23205905
0.015463478 -0.028351665 -0.23205139
0.015641537 -0.028321821 -0.23204169
0.015810624 -0.02833223 -0.23203668
0.015983079 -0.02834551 -0.23202735
0.016167443 -0.028354287 -0.23202176
0.012598499 -0.028151177 -0.23219676
0.012773042 -0.028163359 -0.23218909
0.012958601 -0.028174495 -0.23217791
0.013141592 -0.028183991 -0.23216715
0.013424468 -0.028174818 -0.23214707
0.01366419 -0.028172299 -0.23213632
0.013828533 -0.028139805 -0.23213181
0.013996248 -0.02814948 -0.23212582
0.014193079 -0.028159201 -0.23211266
0.014370427 -0.028173935 -0.23210491
0.014547966 -0.028185725 -0.23209918
0.014724853 -0.02819718 -0.23209244
0.014901616 -0.028203487 -0.23208433
0.015090168 -0.02817343 -0.23206089
0.015283856 -0.028144389 -0.23204279
0.015459003 -0.02814533 -0.23203547
0.015638806 -0.028198043 -0.23203114
0.015807891 -0.028208449 -0.23202614
0.012033738 -0.027918495 -0.23219883
0.012211563 -0.027924431 -0.23219541
0.012403398 -0.027974373 -0.23219284
0.012594634 -0.027985565 -0.23217836
0.012769127 -0.027997769 -0.23216969
0.012954783 -0.028008863 -0.23216051
0.013137677 -0.0280184 -0.23214775
0.013318494 -0.027945142 -0.23212533
0.013431401 -0.027993828 -0.23212613
0.013659257 -0.027965158 -0.23211141
0.013824422 -0.0279743 -0.23210841
0.013992041 -0.027984019 -0.23210043
0.014188873 -0.027993739 -0.23208727
0.014366267 -0.028008454 -0.23208052
0.014543807 -0.028020244 -0.23207477
0.014719916 -0.027990714 -0.23206718
0.014896681 -0.027997022 -0.23205908
0.015085457 -0.027967537 -0.23203999
0.015280202 -0.027979692 -0.23202839
0.015455348 -0.027980631 -0.23202108
0.011852405 -0.027786981 -0.23219657
0.012031123 -0.027795672 -0.2321903
0.012208949 -0.027801609 -0.23218687
0.012399699 -0.027809696 -0.23217745
0.012590935 -0.027820887 -0.23216298
0.012765524 -0.027833048 -0.23215631
0.012950142 -0.027803272 -0.23214094
0.013133135 -0.027812766 -0.23213021
0.013315104 -0.027781336 -0.23211595
0.013482845 -0.027792085 -0.23210689
0.013655818 -0.027801376 -0.23210102
0.013820934 -0.027810536 -0.23209704
0.013988603 -0.027820233 -0.23209006
0.014185533 -0.027829912 -0.23207888
0.014361858 -0.027803769 -0.23206531
0.014539334 -0.02781559 -0.23205824
0.014715264 -0.027786139 -0.23204699
0.01489193 -0.027792487 -0.23203687
0.015082742 -0.027844757 -0.23202947
0.011492105 -0.027556177 -0.23219526
0.011671137 -0.027610205 -0.2321907
0.011848705 -0.027622303 -0.23218119
0.012027424 -0.027630996 -0.2321749
0.01220517 -0.027637975 -0.23216951
0.012395919 -0.027646061 -0.23216009
0.012587156 -0.027657252 -0.23214561
0.012760666 -0.027627893 -0.23213209
0.012945196 -0.02759782 -0.23211506
0.01312812 -0.027606336 -0.23210329
0.013310944 -0.027615853 -0.23209155
0.013478734 -0.027626581 -0.2320835
0.013651707 -0.027635871 -0.23207763
0.013816843 -0.027646033 -0.23207366
0.013984513 -0.027655728 -0.23206666
0.014180387 -0.027624212 -0.23204899
0.014356778 -0.027597368 -0.23203707
0.014534269 -0.027609179 -0.23203033
0.014712121 -0.027661532 -0.23202842
0.014888886 -0.027667837 -0.23202032
0.010964438 -0.027364589 -0.23218957
0.011141142 -0.02741595 -0.23218852
0.011316364 -0.027425645 -0.23218639
0.0114891 -0.027433526 -0.23217873
0.011666997 -0.027445722 -0.23216632
0.011844614 -0.027457798 -0.23215781
0.012023333 -0.027466491 -0.23215154
0.012201061 -0.02747247 -0.23214611
0.012391762 -0.02748058 -0.23213568
0.012582046 -0.027450865 -0.2321167
0.012755649 -0.027422136 -0.23210487
0.0129412 -0.027433272 -0.23209368
0.013124193 -0.027442766 -0.23208293
0.013307017 -0.027452283 -0.23207119
0.013474807 -0.027463011 -0.23206314
0.013647731 -0.027472321 -0.23205629
0.013812848 -0.027481485 -0.2320523
0.01397944 -0.02744966 -0.23203844
0.014176432 -0.027459983 -0.23202831
0.014353773 -0.027474716 -0.23202056
-0.017924752 -0.027267952 -0.23218948
0.010604307 -0.027184485 -0.23218794
0.010784758 -0.027233543 -0.23218337
0.010961318 -0.027240984 -0.23217103
0.011137003 -0.027251467 -0.23216414
0.011312224 -0.027261162 -0.23216201
0.011484959 -0.027269043 -0.23215435
0.011662906 -0.027281215 -0.23214296
0.011840522 -0.027293295 -0.23213443
0.012019243 -0.027301986 -0.23212817
0.012195866 -0.027266793 -0.23211522
0.012386583 -0.027274892 -0.23210514
0.012576757 -0.027244557 -0.23208416
0.012751248 -0.027256761 -0.23207548
0.012936845 -0.027267877 -0.23206529
0.013119791 -0.027277391 -0.23205355
0.013302566 -0.027286928 -0.23204082
0.013470452 -0.027297614 -0.23203474
0.013644444 -0.027347781 -0.23203473
0.013809561 -0.027356943 -0.23203073
-0.017927928 -0.027105056 -0.23218411
0.010060912 -0.027065761 -0.23219772
0.010240557 -0.027077835 -0.23219228
0.010419358 -0.027048789 -0.23218036
0.010601137 -0.0270609 -0.23216841
0.010780406 -0.027068146 -0.23215497
0.010956965 -0.027075587 -0.23214264
0.011132649 -0.027086068 -0.23213576
0.01130787 -0.027095765 -0.23213363
0.011480557 -0.027103668 -0.23212495
0.011658552 -0.027115818 -0.23211455
0.011835177 -0.027086673 -0.23210086
0.012013867 -0.027095379 -0.23209393
0.012190759 -0.02705973 -0.23208666
0.012381412 -0.027067861 -0.23207521
0.012572649 -0.027079053 -0.23206075
0.012747187 -0.027091235 -0.23205309
0.012932735 -0.027102372 -0.2320419
0.013115679 -0.027111888 -0.23203015
0.013299473 -0.027162302 -0.23202325
-0.017931757 -0.026941445 -0.23216574
-0.017738527 -0.026909327 -0.23218529
0.0093264803 -0.026864661 -0.23219851
0.0095006805 -0.026873702 -0.23219179
0.0096851401 -0.026923124 -0.23219165
0.0098847086 -0.026934981 -0.23218748
0.010057918 -0.026941091 -0.23218215
0.010236447 -0.026912332 -0.23216887
0.010415267 -0.026884284 -0.23215699
0.010597097 -0.026896372 -0.23214604
0.010776267 -0.026903663 -0.2321306
0.010952827 -0.026911102 -0.23211826
0.011128511 -0.026921585 -0.23211138
0.011303682 -0.026931304 -0.23210825
0.011476416 -0.026939183 -0.23210059
0.011653057 -0.026909938 -0.23207767
0.011829486 -0.026880877 -0.23205999
0.012008112 -0.026889613 -0.23205172
0.012185986 -0.026895527 -0.23204929
0.012376688 -0.026903635 -0.23203886
0.012569304 -0.026956553 -0.23203725
0.012743792 -0.026968757 -0.23202857
-0.018134924 -0.0267288 -0.23218183
-0.017936898 -0.026737085 -0.23213558
-0.017743476 -0.026704546 -0.23215908
0.0087947585 -0.026668105 -0.23219272
0.0089756195 -0.026678465 -0.23218274
0.0091484934 -0.026729841 -0.23218016
0.0093227737 -0.026741313 -0.23216799
0.0094969738 -0.026750354 -0.23216125
0.0096804155 -0.0267589 -0.23215529
0.0098788785 -0.026729584 -0.2321436
0.010051989 -0.026735736 -0.23213629
0.010230346 -0.026706381 -0.23211968
0.010410232 -0.026719186 -0.23211461
0.010591964 -0.02673132 -0.23210168
0.010771232 -0.026738569 -0.23208824
0.010947742 -0.026746031 -0.23207489
0.011123426 -0.026756514 -0.23206802
0.011297758 -0.026725275 -0.2320627
0.011470524 -0.02673314 -0.23205571
0.011647339 -0.026704488 -0.23203614
0.011824956 -0.026716568 -0.23202762
0.012003827 -0.026725193 -0.23202434
0.012181701 -0.026731107 -0.23202193
-0.018139856 -0.026525017 -0.23215565
-0.017941747 -0.026532596 -0.23211135
-0.017747482 -0.026542019 -0.23213673
0.0084452005 -0.026486799 -0.2322
0.0086195432 -0.026537716 -0.23219062
0.008791754 -0.026545456 -0.2321762
0.0089725647 -0.026555836 -0.23216525
0.0091440119 -0.026565507 -0.2321488
0.0093182437 -0.026577003 -0.23213562
0.0094915451 -0.026544442 -0.23212571
0.009674985 -0.02655299 -0.23211974
0.0098739052 -0.02652448 -0.23211706
0.010047114 -0.026530586 -0.23211175
0.010226762 -0.02654266 -0.2321063
0.010406698 -0.026555445 -0.23210225
0.010588381 -0.026567601 -0.2320883
0.010767454 -0.026574932 -0.23207086
0.010944013 -0.026582375 -0.23205853
0.01111873 -0.026551286 -0.23204713
0.011293074 -0.026520714 -0.23204184
0.011465807 -0.026528595 -0.23203416
0.011644724 -0.026581666 -0.23202762
-0.018143881 -0.026361492 -0.2321333
-0.01794577 -0.026369069 -0.23208898
-0.017751604 -0.026378535 -0.23211238
0.0082415212 -0.026315011 -0.23219064
0.0084421467 -0.02636417 -0.23218247
0.0086157639 -0.026374083 -0.23217326
0.0087880734 -0.026381778 -0.23216084
0.0089689307 -0.026392138 -0.23215087
0.0091403108 -0.026400831 -0.2321334
0.0093135722 -0.026370421 -0.2321157
0.0094867889 -0.02633857 -0.23210382
0.0096702762 -0.026347095 -0.23209885
0.0098698922 -0.026358932 -0.23209566
0.010043053 -0.026365062 -0.23208934
0.010222768 -0.026378112 -0.23208493
0.010402609 -0.02639094 -0.23207888
0.010584388 -0.026403053 -0.23206691
0.01076262 -0.026368422 -0.23204762
0.010939177 -0.026375862 -0.23203528
0.011113941 -0.026345428 -0.23202455
0.011290031 -0.026396064 -0.23202527
-0.018148052 -0.026198028 -0.23210794
-0.017949775 -0.026206542 -0.23206666
-0.017755285 -0.026214859 -0.23209701
0.0078782756 -0.026132235 -0.23219769
0.0080517372 -0.02618137 -0.23219177
0.0082385764 -0.026190318 -0.23217608
0.0084382314 -0.026198579 -0.23216307
0.0086118486 -0.026208492 -0.23215386
0.00878416 -0.026216187 -0.23214144
0.0089640794 -0.026185637 -0.23212729
0.0091356225 -0.026195263 -0.23211284
0.0093089342 -0.026164832 -0.23209614
0.0094831381 -0.026173871 -0.23208943
0.009666577 -0.026182417 -0.23208344
0.00986626 -0.026195232 -0.23208129
0.010039371 -0.026201384 -0.23207398
0.010219067 -0.026213437 -0.23206952
0.010398005 -0.026185339 -0.23205997
0.010579866 -0.026197413 -0.23204969
0.010758165 -0.026163761 -0.2320314
0.010935594 -0.026212143 -0.23202191
-0.018151782 -0.026034372 -0.23209158
-0.017954746 -0.026002442 -0.23203981
-0.017759969 -0.026010297 -0.23207612
0.0077012954 -0.026002357 -0.23219645
0.0078755626 -0.026009457 -0.23218717
0.0080479588 -0.026017737 -0.23217443
0.0082349442 -0.026026621 -0.2321617
0.0084345983 -0.02603488 -0.23214871
0.008607327 -0.02600386 -0.23213632
0.0087797707 -0.026011497 -0.23212655
0.0089598335 -0.02598088 -0.2321154
0.0091314251 -0.025990486 -0.23210196
0.0093056429 -0.02600098 -0.23208874
0.0094797313 -0.026009066 -0.23208003
0.0096632838 -0.026018567 -0.23207608
0.00986287 -0.026031427 -0.23207191
0.010035982 -0.026037578 -0.2320646
0.010214616 -0.026008101 -0.23205364
0.010393614 -0.02597964 -0.2320454
0.010575344 -0.025991773 -0.23203245
0.010755551 -0.02604094 -0.23202288
-0.01815615 -0.025831014 -0.2320767
-0.01795858 -0.025839504 -0.23202112
-0.017764062 -0.025807491 -0.23206662
0.0075126505 -0.025827337 -0.23219584
0.0076978374 -0.025837572 -0.23218605
0.0078720571 -0.025844693 -0.23217577
0.0080445027 -0.025852952 -0.23216403
0.0082313893 -0.025861878 -0.23214932
0.0084299212 -0.025828972 -0.23212846
0.0086025074 -0.025797341 -0.23211341
0.0087749213 -0.025804993 -0.23210298
0.0089557711 -0.025815355 -0.23209301
0.0091273636 -0.02582496 -0.23207957
0.0093016494 -0.025836434 -0.23206738
0.0094758049 -0.025845496 -0.23205967
0.0096593406 -0.025853999 -0.23205569
0.0098578231 -0.025825009 -0.23204434
0.010030968 -0.025831148 -0.23203768
0.010210454 -0.025843292 -0.23202893
0.010390346 -0.025856098 -0.23202386
-0.018325867 -0.025658155 -0.2321779
-0.018160904 -0.025627157 -0.2320542
-0.017767355 -0.025643641 -0.23205926
-0.017584234 -0.025653241 -0.23219503
0.0071442067 -0.025602659 -0.23219535
0.0073264008 -0.025660161 -0.23219086
0.0075089489 -0.025662661 -0.23218045
0.0076941359 -0.025672894 -0.23217067
0.0078683086 -0.025680039 -0.23215938
0.008039671 -0.025647448 -0.23214047
0.0082265893 -0.025656363 -0.23212643
0.0084250141 -0.025623839 -0.23210326
0.0085983872 -0.02563386 -0.23208906
0.0087708496 -0.02564149 -0.23207963
0.0089517962 -0.025651807 -0.23207164
0.0091233877 -0.025661413 -0.2320582
0.0092976755 -0.025672887 -0.23204602
0.0094718132 -0.025680948 -0.23203829
0.0096553657 -0.025690451 -0.23203433
0.0098540103 -0.02566139 -0.23202631
-0.018331446 -0.025453988 -0.23213872
-0.018164683 -0.025463521 -0.23203683
-0.017770775 -0.025480855 -0.2320489
-0.01758787 -0.025489543 -0.23218066
0.0067783305 -0.025426948 -0.23218817
0.0069695264 -0.025478128 -0.23218186
0.0071407622 -0.025480203 -0.23216984
0.0073220842 -0.025496764 -0.23216251
0.0075046322 -0.025499262 -0.2321521
0.0076888041 -0.025467949 -0.2321368
0.0078630438 -0.025475062 -0.23212683
0.0080345301 -0.025442082 -0.23211057
0.0082214652 -0.025450986 -0.23209688
0.0084211668 -0.025459226 -0.23208487
0.0085947346 -0.025469162 -0.23207466
0.0087671503 -0.025476813 -0.23206425
0.0089478996 -0.025487214 -0.23205227
0.0091193449 -0.025496885 -0.23203582
0.009294536 -0.025548279 -0.23202747
0.0094688386 -0.025557276 -0.23202276
-0.018335791 -0.025291612 -0.23210938
-0.018168125 -0.025299737 -0.23202646
-0.017774731 -0.025318306 -0.23202756
-0.017592531 -0.025286987 -0.2321595
0.0062498748 -0.025228852 -0.2322
0.0064248363 -0.025242705 -0.23219344
0.0065936376 -0.025291473 -0.23218575
0.0067753345 -0.025302276 -0.23217261
0.0069653671 -0.025312645 -0.23215747
0.0071365554 -0.025314741 -0.23214445
0.007316988 -0.02529037 -0.23213394
0.0074996501 -0.025292816 -0.23212588
0.0076839644 -0.025262112 -0.23211323
0.0078581888 -0.025269233 -0.23210295
0.0080306353 -0.025277492 -0.23209119
0.0082175694 -0.025286395 -0.23207749
0.0084172226 -0.025294658 -0.23206449
0.0085907895 -0.025304589 -0.23205429
0.0087632071 -0.025312241 -0.23204386
0.0089440029 -0.025322625 -0.23203288
-0.020481227 -0.025052395 -0.23219369
-0.018339699 -0.025129043 -0.23208904
-0.017597085 -0.025082368 -0.23214129
0.0060741222 -0.025063962 -0.23219478
0.0062473672 -0.025103968 -0.23219442
0.0064223288 -0.025117818 -0.23218787
0.0065902956 -0.025127644 -0.23217736
0.0067718956 -0.025138492 -0.23216222
0.0069609261 -0.025107978 -0.23214157
0.0071320501 -0.025110101 -0.23212723
0.0073125474 -0.025085699 -0.23211807
0.0074951444 -0.025088176 -0.23210865
0.007680282 -0.025098436 -0.23209786
0.0078545567 -0.025105534 -0.23208858
0.0080269538 -0.025113814 -0.23207584
0.0082139364 -0.025122698 -0.23206311
0.0084134433 -0.025131021 -0.23204714
0.0085869618 -0.025140978 -0.23203592
0.0087594287 -0.025148608 -0.23202649
0.00894129 -0.025199845 -0.23202235
-0.020484086 -0.02492968 -0.23218016
-0.018344546 -0.024924552 -0.23206484
-0.017601497 -0.024919014 -0.23211095
0.0057049268 -0.024874365 -0.23218796
0.0058794934 -0.02492683 -0.23218884
0.0060712635 -0.024941247 -0.23218125
0.0062436843 -0.02494029 -0.23217908
0.0064185485 -0.024954185 -0.23217049
0.0065854155 -0.024923168 -0.23215251
0.0067670471 -0.024934003 -0.23213804
0.0069559645 -0.024903538 -0.23211506
0.0071273018 -0.02490557 -0.23210503
0.0073086694 -0.02492211 -0.2320987
0.0074914619 -0.024924498 -0.23209329
0.0076766969 -0.024934715 -0.2320845
0.0078510698 -0.02494177 -0.2320772
0.0080235163 -0.024950027 -0.23206545
0.0082104495 -0.024958935 -0.23205176
0.0084093148 -0.024925543 -0.2320379
0.008584016 -0.025016285 -0.23202136
-0.020487864 -0.024766047 -0.2321628
-0.018513242 -0.024711397 -0.23219636
-0.018349588 -0.024720151 -0.23203665
-0.017605327 -0.024755403 -0.23209257
0.0055330107 -0.024741661 -0.23219274
0.0057022916 -0.024750542 -0.2321794
0.0058756452 -0.024762219 -0.23217046
0.006067514 -0.024776591 -0.23216487
0.0062398855 -0.024775656 -0.23216167
0.0064140619 -0.024748864 -0.23215395
0.0065810988 -0.024716429 -0.23213992
0.0067627467 -0.024727255 -0.23212577
0.0069528287 -0.024737604 -0.23211163
0.0071241669 -0.024739634 -0.2321016
0.0073054852 -0.024756195 -0.23209427
0.0074882293 -0.024758607 -0.23208787
0.0076734638 -0.024768822 -0.23207907
0.0078477403 -0.024775922 -0.23206978
0.0080192508 -0.024743266 -0.23205386
0.0082062008 -0.024752164 -0.23204048
0.0084059006 -0.024760405 -0.23202848
-0.020492421 -0.0245621 -0.23214428
-0.018517166 -0.024547826 -0.23217601
-0.018353056 -0.024557386 -0.2320253
-0.017609477 -0.02459294 -0.23206724
-0.017430577 -0.02448024 -0.23219572
0.0051705153 -0.024518436 -0.23219812
0.0053541027 -0.024569716 -0.2321943
0.0055296384 -0.024578853 -0.23218337
0.005698882 -0.024585735 -0.23217
0.0058721872 -0.024597432 -0.23216006
0.0060629738 -0.024570957 -0.23214729
0.0062353853 -0.02457135 -0.23214447
0.0064094681 -0.024543926 -0.23213506
0.0065773372 -0.024553794 -0.23212256
0.0067589171 -0.024563644 -0.2321074
0.0069489507 -0.024574012 -0.23209226
0.0071202409 -0.024576064 -0.23208123
0.0073015587 -0.024592625 -0.23207393
0.007484254 -0.024595059 -0.23206651
0.0076684211 -0.024564421 -0.23205085
0.0078427 -0.024571517 -0.2320416
0.0080152452 -0.024579734 -0.23203184
-0.02049781 -0.024359196 -0.23210844
-0.020319873 -0.024325177 -0.23218855
-0.018520586 -0.024385041 -0.23216566
-0.017614352 -0.024388799 -0.23204239
-0.017433438 -0.024357524 -0.2321822
0.0046249148 -0.024332233 -0.23219296
0.0048040422 -0.024380803 -0.23219377
0.0049820291 -0.024386451 -0.23218764
0.0051674712 -0.024393788 -0.23218156
0.0053500892 -0.02440417 -0.23217291
0.0055254791 -0.02441337 -0.23215899
0.0056948084 -0.024422232 -0.23214665
0.005867193 -0.024393009 -0.23213287
0.0060580466 -0.024366505 -0.23212144
0.0062303664 -0.024365593 -0.23211725
0.0064053275 -0.024379443 -0.23211068
0.0065731965 -0.024389312 -0.23209819
0.006754844 -0.024400137 -0.23208404
0.006944878 -0.024410505 -0.23206891
0.0071161687 -0.024412557 -0.23205787
0.0072963703 -0.024388289 -0.23204273
0.007480084 -0.024431597 -0.23204115
0.0076641538 -0.024401 -0.23202354
-0.020501785 -0.024195649 -0.23208708
-0.020322829 -0.024202505 -0.23217303
-0.018524319 -0.024221385 -0.23214929
-0.01761876 -0.02418479 -0.23202686
-0.017436206 -0.024195459 -0.23218486
0.0040716021 -0.024137206 -0.23219573
0.0042439797 -0.024147369 -0.23218656
0.0044243908 -0.024198692 -0.23218521
0.0046218112 -0.024209626 -0.23217444
0.0047999192 -0.024217319 -0.2321694
0.0049779071 -0.02422297 -0.2321633
0.0051632999 -0.024230324 -0.23215622
0.0053458698 -0.024240728 -0.23214656
0.0055202083 -0.024209067 -0.23212613
0.0056896028 -0.024217898 -0.23211513
0.0058619073 -0.024188714 -0.23209968
0.0060537797 -0.024203084 -0.23209411
0.0062260497 -0.024202194 -0.23208891
0.0064010108 -0.024216045 -0.23208234
0.0065688798 -0.024225913 -0.23206985
0.0067505753 -0.02423672 -0.23205671
0.0069396119 -0.024205528 -0.2320364
0.007111853 -0.024249161 -0.23202954
-0.020505935 -0.024033185 -0.23206174
-0.020326853 -0.024038978 -0.23215069
-0.018527787 -0.024058621 -0.23213795
-0.017439937 -0.024031803 -0.23216848
0.0035454659 -0.023942025 -0.23219287
0.0037220451 -0.023991495 -0.23219129
0.0038951545 -0.024002574 -0.23218718
0.0040685772 -0.024013557 -0.23217919
0.0042408574 -0.024023762 -0.23216802
0.0044201529 -0.024034251 -0.23215884
0.0046175728 -0.024045184 -0.23214807
0.0047957292 -0.024052858 -0.23214403
0.0049736686 -0.024058528 -0.23213692
0.0051579713 -0.024024704 -0.23212267
0.0053405412 -0.024035109 -0.232113
0.0055150138 -0.024002716 -0.23209557
0.0056843432 -0.024011577 -0.23208323
0.005857748 -0.024023231 -0.23207527
0.0060495725 -0.024037626 -0.23206872
0.0062219389 -0.024036691 -0.2320655
0.0063968999 -0.024050541 -0.23205894
0.0065647685 -0.02406041 -0.23204644
0.0067464155 -0.024071235 -0.2320323
-0.020510085 -0.023870721 -0.23203641
-0.020331198 -0.023876602 -0.23212135
-0.018532069 -0.023855226 -0.23212475
-0.017443914 -0.023868255 -0.23214711
0.0031904902 -0.023810038 -0.23218288
0.0033670079 -0.02381184 -0.23217669
0.0035420696 -0.023819547 -0.23216836
0.0037176604 -0.023827121 -0.23216192
0.0038907698 -0.023838196 -0.23215783
0.0040642414 -0.023849159 -0.23215082
0.0042365221 -0.023859365 -0.23213965
0.0044158176 -0.023869855 -0.23213047
0.0046131881 -0.02388081 -0.2321187
0.0047902442 -0.023847641 -0.23210716
0.0049681687 -0.023853319 -0.23209971
0.0051524928 -0.023819823 -0.23208581
0.0053351126 -0.023830205 -0.23207715
0.005510502 -0.023839403 -0.23206322
0.0056798309 -0.023848265 -0.23205088
0.0058532851 -0.023859899 -0.23204394
0.0060451105 -0.02387429 -0.23203737
0.006217476 -0.023873355 -0.23203416
0.0063936012 -0.02392802 -0.23203644
0.0065614209 -0.023937909 -0.23202294
-0.020336771 -0.023673443 -0.23208188
-0.018537246 -0.023651555 -0.23209357
-0.017448949 -0.023665866 -0.23211829
0.0026385174 -0.023658164 -0.23219244
0.002808125 -0.023663417 -0.23218268
0.0029879007 -0.023672456 -0.23217048
0.0031859789 -0.023646727 -0.23215054
0.003362546 -0.023648508 -0.23214534
0.0035375576 -0.023656238 -0.23213601
0.0037131486 -0.023663808 -0.23212957
0.0038864042 -0.023674821 -0.23212847
0.0040596807 -0.023685871 -0.23211747
0.0042320103 -0.023696054 -0.23210731
0.0044103689 -0.023665631 -0.23209395
0.0046078037 -0.023676557 -0.23208351
0.0047850376 -0.023643311 -0.23207563
0.0049629798 -0.023648981 -0.23206852
0.0051484192 -0.023656316 -0.23206244
0.0053309416 -0.023666743 -0.23205179
0.0055063311 -0.023675941 -0.23203787
0.0056757089 -0.023684781 -0.23202653
-0.020342235 -0.023469226 -0.23204501
-0.018540975 -0.023487899 -0.23207721
-0.017454203 -0.023461556 -0.23208576
0.0022771352 -0.023515582 -0.23219614
0.0024588418 -0.023486346 -0.23218654
0.0026348343 -0.023494488 -0.23217708
0.0028037657 -0.023458714 -0.23216845
0.0029835096 -0.023467768 -0.23215561
0.0031826864 -0.023482878 -0.23214315
0.003359254 -0.023484658 -0.23213798
0.0035342642 -0.023492388 -0.23212865
0.0037099535 -0.023499917 -0.23212421
0.0038831111 -0.023510972 -0.2321211
0.0040564365 -0.023521999 -0.2321111
0.0042279758 -0.023491204 -0.23209976
0.0044065127 -0.023460705 -0.23209006
0.0046039801 -0.023471616 -0.23208028
0.0047822315 -0.023479246 -0.23207824
0.0049601253 -0.023484938 -0.23207013
0.0051455647 -0.023492273 -0.23206407
0.0053280871 -0.023502698 -0.2320534
0.0055034766 -0.023511898 -0.23203948
0.0056728544 -0.023520738 -0.23202814
0.005847279 -0.023573268 -0.23202604
-0.020691123 -0.02328771 -0.23219714
-0.020345531 -0.023346705 -0.23202249
-0.018631399 -0.023320394 -0.23212415
-0.017458275 -0.023298051 -0.23206243
0.0022731975 -0.023310691 -0.23219056
0.0024546459 -0.023281571 -0.23217563
0.0026306207 -0.023289718 -0.23216584
0.0028002781 -0.02329495 -0.23215708
0.0029800714 -0.023303982 -0.23214522
0.0031792964 -0.023319069 -0.23213378
0.0033557669 -0.023320895 -0.23212659
0.0035308248 -0.023328602 -0.23211826
0.0037065144 -0.023336131 -0.23211382
0.0038784584 -0.023306398 -0.23210089
0.0040518166 -0.02331741 -0.23209155
0.0042229495 -0.023286795 -0.23207188
0.004402196 -0.023297306 -0.23206171
0.0045996145 -0.02330824 -0.23205096
0.0047778161 -0.023315892 -0.2320479
0.0049558082 -0.023321541 -0.23204178
0.0051411986 -0.023328897 -0.23203471
0.0053248857 -0.023380134 -0.23203288
-0.020694368 -0.02312384 -0.23219076
-0.018721906 -0.023150912 -0.23217005
-0.018549131 -0.023162909 -0.23202953
-0.017461726 -0.023136288 -0.2320511
-0.017269481 -0.023105044 -0.23219672
0.0013839426 -0.023096364 -0.23219684
0.0015570647 -0.023108723 -0.23219153
0.0017277775 -0.023122249 -0.23218539
0.0019077542 -0.023128293 -0.23218107
0.0020868874 -0.02313506 -0.23217154
0.0022676645 -0.023105497 -0.23215272
0.002450116 -0.023117259 -0.23214328
0.0026259921 -0.023125447 -0.23213148
0.0027956013 -0.023130704 -0.23212174
0.0029754441 -0.023139715 -0.23211086
0.00317462 -0.023154825 -0.23209843
0.0033511883 -0.023156604 -0.23209323
0.0035252366 -0.023123095 -0.23207939
0.0037007965 -0.023130683 -0.23207228
0.0038728903 -0.02310021 -0.23206267
0.004046265 -0.023111217 -0.23205367
0.0042185951 -0.023121398 -0.23204349
0.0043978905 -0.023131888 -0.23203433
0.0045962292 -0.023183741 -0.2320274
0.004774333 -0.023191435 -0.23202235
-0.020698301 -0.022962291 -0.23216945
-0.018726887 -0.022947153 -0.23214287
-0.017465506 -0.022972651 -0.23203373
-0.017272439 -0.02298237 -0.23218119
0.00083609391 -0.022906471 -0.2321977
0.0010292258 -0.022955241 -0.23219152
0.001208035 -0.022962581 -0.23218289
0.0013808489 -0.022971734 -0.23217928
0.0015530181 -0.022943191 -0.23216946
0.0017236344 -0.022956759 -0.23216133
0.0019026697 -0.022922564 -0.23215252
0.0020818016 -0.022929333 -0.23214298
0.0022637672 -0.022940908 -0.23213333
0.0024461714 -0.022952689 -0.2321229
0.0026221441 -0.022960838 -0.23211312
0.0027917044 -0.022966113 -0.23210233
0.0029715972 -0.022975102 -0.2320925
0.0031697869 -0.022949321 -0.23207486
0.0033462744 -0.022951135 -0.232068
0.0035204086 -0.022917926 -0.23205584
0.0036959527 -0.022925518 -0.23204839
0.0038691096 -0.022936575 -0.23204531
0.0040424839 -0.02294758 -0.23203629
0.0042158817 -0.02299862 -0.23203297
0.0043951767 -0.02300911 -0.23202381
-0.020701595 -0.022798441 -0.23216206
-0.018731657 -0.022743974 -0.23211971
-0.017277854 -0.022778133 -0.23214535
0.00047444133 -0.022721717 -0.23219204
0.00065209321 -0.022768972 -0.23219031
0.00083313533 -0.022783799 -0.23218217
0.001025347 -0.02279165 -0.23217215
0.0012042539 -0.022798946 -0.23216555
0.0013758537 -0.022767311 -0.23215206
0.0015477634 -0.022738881 -0.23213693
0.0017184785 -0.022752406 -0.2321308
0.0018983523 -0.022759169 -0.23212416
0.002077532 -0.022765914 -0.23211564
0.0022594987 -0.022777487 -0.23210597
0.0024419038 -0.02278927 -0.23209555
0.0026178758 -0.022797417 -0.23208576
0.0027863372 -0.022761852 -0.23206748
0.0029661823 -0.022770865 -0.23205663
0.0031642248 -0.022745147 -0.23203601
0.0033407453 -0.02274695 -0.23202983
0.0035168175 -0.022795534 -0.23202735
0.0036925077 -0.022803063 -0.2320229
-0.020705603 -0.022594923 -0.23215453
-0.018735487 -0.022580363 -0.23210134
-0.017282682 -0.02257565 -0.23212084
-6.8089459e-05 -0.022528471 -0.23219246
0.00011127535 -0.022583058 -0.23218757
0.00028986041 -0.022593819 -0.23217861
0.00047104363 -0.022599239 -0.23216753
0.00064758142 -0.022605661 -0.23215799
0.00082862214 -0.022620488 -0.23214982
0.0010198812 -0.022587433 -0.2321353
0.0011987389 -0.02259475 -0.23212768
0.0013705173 -0.022563037 -0.23211789
0.0015435433 -0.02257544 -0.23211059
0.0017141132 -0.022589032 -0.23210144
0.0018940351 -0.022595771 -0.23209581
0.0020732628 -0.022602495 -0.2320883
0.0022551815 -0.02261409 -0.23207763
0.0024367324 -0.022584924 -0.23206468
0.0026126544 -0.022593094 -0.23205389
0.0027813758 -0.022557415 -0.23204096
0.0029612223 -0.022566427 -0.23203009
0.0031613167 -0.022622455 -0.2320215
-0.020710614 -0.022391181 -0.23212668
-0.018904502 -0.022363512 -0.23219921
-0.018739179 -0.022418704 -0.23208502
-0.017286902 -0.022412211 -0.2320945
-0.00063909777 -0.022338871 -0.23219821
-0.00043347361 -0.022389997 -0.23219296
-0.00024867593 -0.022395805 -0.23218849
-7.0852228e-05 -0.022405714 -0.23218092
0.00010749325 -0.022419423 -0.23217022
0.00028593186 -0.022430249 -0.23215827
0.00046711485 -0.022435669 -0.23214719
0.00064370316 -0.022442069 -0.23213862
0.0008238054 -0.022415986 -0.2321263
0.0010150168 -0.022382952 -0.23211077
0.0011938745 -0.022390269 -0.23210317
0.0013666868 -0.022399426 -0.23209953
0.0015398597 -0.022411764 -0.23209523
0.0017104798 -0.022425331 -0.23208709
0.0018904004 -0.02243207 -0.23208144
0.0020695785 -0.022438817 -0.23207292
0.0022503987 -0.022409573 -0.23205476
0.0024317724 -0.022380486 -0.23203816
0.0026089065 -0.022429444 -0.2320372
0.0027785162 -0.0224347 -0.23202744
-0.020714328 -0.022228524 -0.23211034
-0.018907458 -0.02224084 -0.23218369
-0.018742813 -0.022255007 -0.23207065
-0.01729117 -0.022248792 -0.23206715
-0.0011581276 -0.022141768 -0.23219255
-0.00098294998 -0.022156054 -0.23218527
-0.00080798473 -0.02221036 -0.23218369
-0.00064234831 -0.022216329 -0.23217669
-0.00043759611 -0.022226512 -0.2321686
-0.00025279843 -0.02223232 -0.23216413
-7.497496e-05 -0.022242229 -0.23215656
0.00010327273 -0.022255983 -0.23214386
0.00028077359 -0.022225896 -0.23212774
0.00046192342 -0.022231331 -0.23211598
0.00063853042 -0.022237724 -0.23210776
0.00081853382 -0.022211682 -0.23209344
0.0010107968 -0.022219511 -0.23208441
0.0011895569 -0.022226872 -0.23207481
0.0013624176 -0.022236004 -0.23207217
0.0015354932 -0.022248387 -0.23206587
0.0017062118 -0.022261912 -0.23205973
0.0018852273 -0.022227725 -0.23205058
0.002064388 -0.022234479 -0.23204173
0.0022452909 -0.022205198 -0.23202522
0.0024287179 -0.022257857 -0.23202065
-0.020718282 -0.022065977 -0.232089
-0.018911298 -0.022079248 -0.23216438
-0.018748285 -0.022052139 -0.23203315
-0.017295817 -0.022046231 -0.23204632
-0.0016796431 -0.022032302 -0.23219958
-0.0015050704 -0.022004385 -0.2321893
-0.0013311136 -0.022053422 -0.23218863
-0.0011609879 -0.022019051 -0.23217902
-0.0009858585 -0.02203336 -0.23217075
-0.00081195985 -0.022046812 -0.23216236
-0.00064627547 -0.022052759 -0.23215634
-0.0004415235 -0.022062942 -0.23214824
-0.00025677425 -0.022068772 -0.23214278
-7.8951474e-05 -0.022078682 -0.23213521
9.8358687e-05 -0.022051523 -0.23211832
0.00027598906 -0.022021377 -0.23210487
0.00045717089 -0.0220268 -0.23209378
0.00063376431 -0.0220332 -0.23208523
0.00081480085 -0.022048026 -0.23207708
0.0010070156 -0.022055876 -0.23206705
0.0011858733 -0.022063194 -0.23205945
0.0013585873 -0.022072393 -0.23205382
0.0015306124 -0.022043912 -0.232041
0.0017022856 -0.022098344 -0.23203936
0.0018811864 -0.022064207 -0.2320279
-0.020723505 -0.021862326 -0.23205681
-0.018916778 -0.021875039 -0.23212719
-0.01729995 -0.021841425 -0.23203677
-0.0024175309 -0.021830821 -0.23219407
-0.0022432934 -0.021836616 -0.23219362
-0.002069341 -0.021845438 -0.23219168
-0.0018613036 -0.021898115 -0.23218992
-0.0016836518 -0.021868767 -0.23217756
-0.0015091933 -0.0218409 -0.23216495
-0.0013362225 -0.021849049 -0.23215911
-0.0011650617 -0.021855548 -0.23215565
-0.00098988297 -0.021869835 -0.23214838
-0.00081603252 -0.021883307 -0.23213899
-0.00065044663 -0.021889297 -0.23213097
-0.00044559711 -0.021899439 -0.23212489
-0.00026188264 -0.021864399 -0.23211324
-8.4027495e-05 -0.021874294 -0.23210634
9.3281735e-05 -0.021847134 -0.23208946
0.00027171941 -0.021857958 -0.23207752
0.00045294967 -0.021863358 -0.23206744
0.00062949606 -0.021869779 -0.23205787
0.0008105801 -0.021884587 -0.23205072
0.0010028442 -0.021892413 -0.2320417
0.0011816046 -0.021899775 -0.23203209
0.0013544154 -0.021908931 -0.23202845
-0.020728473 -0.021659235 -0.23202965
-0.018921949 -0.021671701 -0.23209602
-0.017302629 -0.021720644 -0.23202628
-0.017111473 -0.021686327 -0.23219132
-0.0033317488 -0.02162018 -0.23219481
-0.0031511341 -0.0216287 -0.23219664
-0.002978093 -0.021639507 -0.23219003
-0.0027811606 -0.021689873 -0.23219129
-0.0025934242 -0.021699693 -0.23217824
-0.0024207307 -0.021708257 -0.23217356
-0.0022466397 -0.021714116 -0.2321701
-0.0020734791 -0.021681959 -0.23216701
-0.0018664603 -0.021693761 -0.23215939
-0.00168876 -0.021664394 -0.23214804
-0.0015132183 -0.021677375 -0.2321426
-0.0013401504 -0.021685481 -0.23213875
-0.0011690867 -0.021692021 -0.2321333
-0.00099390722 -0.021706307 -0.23212603
-0.0008200563 -0.02171978 -0.23211664
-0.00065522996 -0.021684781 -0.23210812
-0.00045042965 -0.021694943 -0.23210101
-0.00026651938 -0.021659818 -0.23209336
-8.8697299e-05 -0.021669725 -0.23208579
8.9646084e-05 -0.021683436 -0.2320751
0.00026813196 -0.021694237 -0.23206414
0.00044926465 -0.021699682 -0.23205206
0.00062586134 -0.02170608 -0.2320435
0.00080704223 -0.021720843 -0.23203835
0.00099916058 -0.021728737 -0.23202632
-0.020182328 -0.021519823 -0.23218849
-0.018926539 -0.021509431 -0.2320617
-0.0171155 -0.0215228 -0.23216897
-0.0035138689 -0.021447252 -0.23219839
-0.0033346075 -0.021497466 -0.23218131
-0.0031541896 -0.021506071 -0.23217914
-0.0029811475 -0.021516878 -0.23217252
-0.0027852335 -0.021526366 -0.23216794
-0.0025973995 -0.021536145 -0.23215687
-0.0024256411 -0.021503799 -0.23214804
-0.0022514362 -0.021509605 -0.2321469
-0.0020779206 -0.021477293 -0.23215112
-0.0018708045 -0.02148905 -0.23214552
-0.0016920534 -0.021500545 -0.23214065
-0.0015165121 -0.021513525 -0.23213521
-0.0013435418 -0.021521673 -0.23212937
-0.0011723314 -0.021528151 -0.23212692
-0.00099839747 -0.02150166 -0.23210914
-0.0008245784 -0.021515148 -0.2320991
-0.00065994845 -0.021480232 -0.23208657
-0.00045524538 -0.02149044 -0.23207748
-0.00027044653 -0.021496248 -0.23207301
-9.2624919e-05 -0.021506155 -0.23206544
8.5669337e-05 -0.021519886 -0.23205373
0.00026415498 -0.021530692 -0.23204279
0.00044528698 -0.021536132 -0.23203069
0.0006231484 -0.0215833 -0.23203298
0.000804279 -0.021598086 -0.23202682
-0.020186156 -0.02135621 -0.23217012
-0.01910123 -0.021335758 -0.23219322
-0.018930592 -0.021346927 -0.23203836
-0.017120318 -0.021361638 -0.23212966
-0.004226231 -0.021243572 -0.2321927
-0.0040500276 -0.021255165 -0.23219681
-0.0038734074 -0.02126492 -0.23219603
-0.0036967099 -0.021274518 -0.23219007
-0.0035168743 -0.021324601 -0.23218186
-0.0033383875 -0.021333832 -0.23216394
-0.0031579216 -0.021342415 -0.23216276
-0.0029849275 -0.021353245 -0.23215514
-0.0027900161 -0.021321848 -0.23214507
-0.002602149 -0.021331614 -0.23213466
-0.002430568 -0.021299344 -0.23212215
-0.0022564766 -0.021305202 -0.23211871
-0.0020824813 -0.021314003 -0.23211777
-0.0018753654 -0.02132576 -0.23211217
-0.0016965657 -0.021337233 -0.23210829
-0.0015209762 -0.02135019 -0.23210388
-0.0013479572 -0.021358319 -0.23209903
-0.0011777487 -0.021323912 -0.23209107
-0.0010034076 -0.021297242 -0.23208162
-0.00082965335 -0.021310758 -0.23207024
-0.00066397316 -0.021316707 -0.23206422
-0.00045917276 -0.02132687 -0.23205712
-0.00027437368 -0.021332677 -0.23205265
-9.6601201e-05 -0.021342607 -0.23204409
8.1741484e-05 -0.021356318 -0.23203339
0.00026022666 -0.021367121 -0.23202243
-0.020191161 -0.021153808 -0.23214197
-0.019105479 -0.021173339 -0.23216589
-0.018933287 -0.021225147 -0.23202786
-0.017125249 -0.021157185 -0.23210382
-0.004577741 -0.021182872 -0.23219392
-0.0044035972 -0.021149943 -0.23218304
-0.0042288946 -0.021120772 -0.23218316
-0.004052789 -0.021132406 -0.23218529
-0.0038759739 -0.021142077 -0.23218851
-0.0036993248 -0.021151695 -0.23218155
-0.0035204582 -0.02116088 -0.2321685
-0.0033418743 -0.021170069 -0.23215255
-0.0031615074 -0.021178696 -0.23214939
-0.0029894654 -0.021148616 -0.23213728
-0.0027944897 -0.021117195 -0.23212853
-0.0026066061 -0.021126952 -0.23211846
-0.0024339571 -0.021135537 -0.2321128
-0.0022599141 -0.021141417 -0.23210832
-0.0020858231 -0.021150174 -0.23210941
-0.001878805 -0.021161975 -0.23210181
-0.0017001028 -0.02117349 -0.23209594
-0.0015256135 -0.02114561 -0.23208399
-0.0013525784 -0.021153728 -0.23207949
-0.0011824672 -0.021119364 -0.23206954
-0.0010072857 -0.02113365 -0.23206227
-0.00083353068 -0.021147167 -0.23205088
-0.00066780322 -0.021153092 -0.23204584
-0.00046305172 -0.021163277 -0.23203775
-0.00027830107 -0.021169107 -0.23203228
-9.9412631e-05 -0.02121987 -0.23203155
7.8929123e-05 -0.021233581 -0.23202085
-0.020196054 -0.020949338 -0.23211676
-0.019109696 -0.020969244 -0.23215435
-0.017129492 -0.020954445 -0.23209131
-0.005497281 -0.020926924 -0.2321907
-0.0047610491 -0.020891041 -0.23218693
-0.0045823101 -0.020978259 -0.23217539
-0.0044084433 -0.020945456 -0.23215882
-0.0042330157 -0.020957287 -0.23215881
-0.0040566656 -0.020968815 -0.23216593
-0.0038797038 -0.020978421 -0.23217215
-0.0037031525 -0.020988083 -0.23216319
-0.0035244329 -0.020997332 -0.23214714
-0.0033470292 -0.020965716 -0.23212205
-0.003166616 -0.020974321 -0.23211987
-0.0029945723 -0.020944245 -0.23210774
-0.0027987091 -0.020953754 -0.23210217
-0.0026109226 -0.020963555 -0.23209012
-0.0024382721 -0.02097214 -0.23208444
-0.0022639853 -0.020977911 -0.23208499
-0.0020899451 -0.020986691 -0.23208505
-0.0018828781 -0.02099847 -0.23207845
-0.0017049186 -0.020968989 -0.2320724
-0.0015302831 -0.020941041 -0.23206347
-0.0013573132 -0.020949189 -0.2320576
-0.0011861508 -0.020955687 -0.23205416
-0.0010110175 -0.020969994 -0.23204589
-0.00083716447 -0.020983469 -0.2320365
-0.00067153596 -0.020989437 -0.2320295
-0.00046678376 -0.020999622 -0.23202141
-0.020200429 -0.020787984 -0.23208646
-0.019114453 -0.020766061 -0.23213151
-0.017132789 -0.020790596 -0.23208392
-0.0062103709 -0.020729946 -0.2321953
-0.0060318997 -0.020737883 -0.23219585
-0.0058521908 -0.020745892 -0.23219106
-0.0056845248 -0.020793833 -0.23218292
-0.0055001392 -0.020804208 -0.23217718
-0.0053056506 -0.02081766 -0.23218153
-0.005133085 -0.020747965 -0.23218951
-0.0049490142 -0.02071674 -0.23219803
-0.0047637615 -0.020768262 -0.23217639
-0.0045873346 -0.02077385 -0.23214751
-0.0044124662 -0.020781927 -0.23213649
-0.0042369897 -0.02079374 -0.23213746
-0.004060396 -0.02080516 -0.23214956
-0.0038835802 -0.020814829 -0.23215277
-0.0037077542 -0.020783486 -0.23214398
-0.0035293438 -0.020792872 -0.23212159
-0.0033518111 -0.020761197 -0.23209916
-0.0031713501 -0.020769782 -0.23209798
-0.0029982061 -0.020780545 -0.23209336
-0.0028023431 -0.020790055 -0.23208779
-0.002614459 -0.020799812 -0.23207773
-0.0024417585 -0.020808376 -0.23207307
-0.0022674715 -0.020814147 -0.23207361
-0.0020942239 -0.020781949 -0.23207252
-0.0018871085 -0.020793708 -0.23206691
-0.0017091653 -0.020764232 -0.23206052
-0.0015336745 -0.020777233 -0.23205408
-0.001360656 -0.020785362 -0.23204924
-0.0011895907 -0.020791903 -0.2320438
-0.001014408 -0.02080619 -0.23203653
-0.00084050582 -0.02081964 -0.23202813
-0.00067400606 -0.020866551 -0.23202395
-0.020203995 -0.020625263 -0.23207311
-0.01911838 -0.020602491 -0.23211116
-0.017136261 -0.02062783 -0.23207256
-0.0062123341 -0.020607844 -0.23219977
-0.0060339784 -0.020614823 -0.23219831
-0.0058542211 -0.020622812 -0.2321945
-0.005687621 -0.020629898 -0.23217955
-0.0055034794 -0.020640381 -0.23216881
-0.0053097638 -0.020612845 -0.23217231
-0.0051365225 -0.020584181 -0.23217914
-0.0049520191 -0.02059409 -0.2321815
-0.0047674915 -0.020604607 -0.23216003
-0.0045908699 -0.020610109 -0.23213516
-0.0044159531 -0.020618163 -0.2321251
-0.0042405254 -0.020629996 -0.23212507
-0.0040640775 -0.020641482 -0.23213419
-0.0038881663 -0.020610224 -0.23213391
-0.0037126974 -0.02057904 -0.23211777
-0.0035338812 -0.020588245 -0.23210374
-0.0033553469 -0.020597454 -0.23208681
-0.0031748875 -0.020606041 -0.23208563
-0.0030017423 -0.020616803 -0.23208101
-0.0028058796 -0.020626314 -0.23207542
-0.0026179466 -0.020636048 -0.23206638
-0.0024464743 -0.02060383 -0.23205154
-0.0022721707 -0.020609595 -0.23205239
-0.0020991531 -0.020577498 -0.23204663
-0.0018920866 -0.020589277 -0.23204003
-0.0017133364 -0.02060077 -0.23203516
-0.0015377481 -0.02061373 -0.23203072
-0.0013647301 -0.020621857 -0.23202588
-0.0011925483 -0.020669231 -0.23202828
-0.0010173651 -0.020683518 -0.232021
-0.020207562 -0.020462543 -0.23205976
-0.019121733 -0.020440683 -0.23210183
-0.01714056 -0.020465434 -0.23204423
-0.016957926 -0.020430552 -0.2321773
-0.0065592728 -0.020426782 -0.23218788
-0.0063914545 -0.020429989 -0.23217672
-0.0062164553 -0.02044436 -0.23217541
-0.006038032 -0.020452317 -0.23217498
-0.0058583412 -0.020459328 -0.23217013
-0.0056927823 -0.020426892 -0.23214836
-0.0055085593 -0.020437339 -0.2321393
-0.0053151259 -0.020409593 -0.23213714
-0.0051411297 -0.020420913 -0.2321448
-0.0049562855 -0.020430669 -0.23215415
-0.0047717588 -0.020441186 -0.23213267
-0.0045948434 -0.020446559 -0.23211379
-0.0044199759 -0.020454638 -0.23210275
-0.004245603 -0.020426283 -0.23209591
-0.0040692687 -0.020437816 -0.23210269
-0.0038933016 -0.020406872 -0.23210341
-0.0037167501 -0.020416535 -0.23209444
-0.0035378856 -0.020425718 -0.23208138
-0.003359254 -0.020434884 -0.23206645
-0.0031789911 -0.020443555 -0.2320613
-0.0030058932 -0.02045434 -0.23205566
-0.0028110396 -0.020422636 -0.23204458
-0.0026231383 -0.020432383 -0.23203486
-0.0024504429 -0.020442296 -0.23202954
-0.0022763014 -0.020448131 -0.23202708
-0.0021021105 -0.020454826 -0.23203112
-0.0018948982 -0.02046654 -0.2320275
-0.0017160992 -0.020478012 -0.23202363
-0.020212198 -0.020258633 -0.23203957
-0.019125834 -0.020278199 -0.23207748
-0.016962709 -0.020226035 -0.23215444
-0.0073019406 -0.020183004 -0.2321935
-0.0067373253 -0.020252785 -0.23219176
-0.0065631801 -0.020264212 -0.23216754
-0.006395604 -0.020267528 -0.23215137
-0.0062205577 -0.020281877 -0.23215109
-0.0060429727 -0.020248877 -0.23214847
-0.0058632628 -0.02025689 -0.23214366
-0.0056974208 -0.020222982 -0.23212819
-0.0055132778 -0.020233467 -0.23211744
-0.0053185439 -0.020246807 -0.23212679
-0.0051444992 -0.020258104 -0.23213544
-0.0049598501 -0.020267949 -0.23214081
-0.0047751288 -0.020278379 -0.23212333
-0.0045994236 -0.020243969 -0.23209429
-0.004424524 -0.020252032 -0.23208392
-0.0042500529 -0.020221952 -0.2320797
-0.0040737507 -0.020233503 -0.23208582
-0.0038969831 -0.020243194 -0.23208803
-0.003720334 -0.020252813 -0.23208107
-0.003541616 -0.020262063 -0.23206502
-0.0033630335 -0.020271249 -0.23204909
-0.0031826256 -0.020279858 -0.23204693
-0.0030104863 -0.020249404 -0.23203678
-0.0028155558 -0.020218335 -0.23202705
-0.0026267311 -0.02027001 -0.23202085
-0.020215854 -0.020096289 -0.23202422
-0.019130887 -0.020074809 -0.23204863
-0.01696616 -0.02006427 -0.23214312
-0.0074789971 -0.020055978 -0.23218855
-0.0073049935 -0.020060375 -0.23217598
-0.0071335537 -0.020066915 -0.23218125
-0.0069394186 -0.020076374 -0.23218209
-0.006741445 -0.020089302 -0.23216742
-0.0065672519 -0.020100705 -0.23214419
-0.0064004823 -0.020063052 -0.23212652
-0.0062255505 -0.020077452 -0.2321239
-0.006048047 -0.020044491 -0.2321196
-0.0058683362 -0.0200525 -0.23211479
-0.0057016388 -0.020059541 -0.23210183
-0.0055174953 -0.020070026 -0.2320911
-0.0053226636 -0.020083323 -0.23210245
-0.0051481128 -0.020095404 -0.2321211
-0.0049647219 -0.020063808 -0.23211594
-0.0047801672 -0.020074984 -0.23209482
-0.0046047401 -0.020039689 -0.23206045
-0.0044298251 -0.020047745 -0.23205039
-0.0042543495 -0.020059556 -0.23205137
-0.0040779687 -0.020070061 -0.23205948
-0.0039010546 -0.020079691 -0.23206468
-0.0037244544 -0.020089328 -0.23205672
-0.0035455902 -0.020098515 -0.23204367
-0.0033658254 -0.020149514 -0.23203659
-0.0031853584 -0.020156078 -0.23203638
-0.016970428 -0.019900851 -0.23211576
-0.0076645678 -0.019879658 -0.23218918
-0.0074830679 -0.019892473 -0.23216522
-0.0073090149 -0.01989685 -0.23215361
-0.0071377698 -0.019903474 -0.23215489
-0.0069436352 -0.019912932 -0.23215574
-0.0067467294 -0.019885005 -0.23213422
-0.006572423 -0.01989636 -0.23211332
-0.0064056851 -0.019858722 -0.23209499
-0.0062306896 -0.019873092 -0.23209369
-0.0060521676 -0.019881006 -0.23209524
-0.0058724568 -0.019889016 -0.23209044
-0.0057057589 -0.019896058 -0.23207748
-0.0055216639 -0.019906564 -0.23206575
-0.0053268806 -0.019919883 -0.23207609
-0.0051535922 -0.019891197 -0.23208392
-0.004970205 -0.019860271 -0.23207845
-0.0047858739 -0.019870874 -0.23205298
-0.0046083787 -0.019917317 -0.23203096
-0.0044334154 -0.019925352 -0.2320219
-0.0042577935 -0.019937098 -0.23202586
-0.0040812963 -0.019948563 -0.23203598
-0.0039045769 -0.019958274 -0.2320372
-0.0037278789 -0.019967873 -0.23203123
-0.01930948 -0.019693971 -0.23217876
-0.016974483 -0.019738346 -0.23209243
-0.0083883982 -0.019675357 -0.23218986
-0.0082100928 -0.019683763 -0.23218653
-0.0080312761 -0.019692674 -0.23218629
-0.0078505557 -0.019703548 -0.2321787
-0.007668931 -0.019716281 -0.23215985
-0.0074874801 -0.019729119 -0.23213486
-0.0073135053 -0.019734537 -0.2321213
-0.0071420837 -0.019740075 -0.23212653
-0.006948886 -0.019708624 -0.23212321
-0.0067517692 -0.019680604 -0.23210603
-0.0065773157 -0.0196929 -0.23208782
-0.0064096884 -0.019696195 -0.23207265
-0.0062345481 -0.0197105 -0.23207435
-0.0060560447 -0.019717414 -0.2320759
-0.0058763828 -0.019725446 -0.23207007
-0.0057096351 -0.019732468 -0.23205812
-0.0055264439 -0.019702047 -0.23204286
-0.0053317584 -0.019715408 -0.23205121
-0.0051587299 -0.019686837 -0.23205371
-0.0049742763 -0.019696767 -0.23205508
-0.0047897995 -0.019707305 -0.23203263
-0.019313827 -0.019531595 -0.23214942
-0.016979149 -0.019534783 -0.23207156
-0.0085639711 -0.019502783 -0.23219658
-0.0083917193 -0.019512527 -0.2321815
-0.0082134809 -0.019519955 -0.23217714
-0.0080347611 -0.019528911 -0.23217493
-0.0078540416 -0.019539783 -0.23216733
-0.0076724468 -0.01955354 -0.23214749
-0.0074918452 -0.019525761 -0.23212002
-0.0073178392 -0.019530158 -0.23210742
-0.0071463012 -0.019536654 -0.23211467
-0.0069530611 -0.019504847 -0.23211235
-0.0067549925 -0.019517731 -0.23209967
-0.0065808026 -0.019529136 -0.23207644
-0.006413077 -0.019532388 -0.23206326
-0.0062381332 -0.019546781 -0.23206098
-0.0060596103 -0.019554693 -0.23206255
-0.0058808452 -0.019522132 -0.23205324
-0.0057140328 -0.019529125 -0.2320426
-0.0055305362 -0.01949924 -0.23203336
-0.0053360155 -0.019511668 -0.23203869
-0.0051619047 -0.019523945 -0.23204836
-0.004977324 -0.019532809 -0.23205271
-0.0047927494 -0.019543305 -0.23203224
-0.019318044 -0.019368153 -0.23212309
-0.016983731 -0.019332195 -0.23205207
-0.0089173708 -0.019280734 -0.23219442
-0.0087385885 -0.019290868 -0.2321903
-0.0085674683 -0.01934104 -0.23218426
-0.0083951866 -0.019349765 -0.23217016
-0.0082169287 -0.019358192 -0.23216581
-0.0080382274 -0.019366145 -0.23216358
-0.0078574587 -0.019376997 -0.23215699
-0.0076768822 -0.019349879 -0.2321313
-0.007496547 -0.019321881 -0.23209849
-0.0073225405 -0.019326279 -0.2320859
-0.0071510519 -0.019332796 -0.23209217
-0.0069569177 -0.019342255 -0.23209301
-0.0067589479 -0.019355183 -0.23207833
-0.0065846117 -0.019366521 -0.23205811
-0.0064169345 -0.019369796 -0.23204392
-0.0062427986 -0.019343218 -0.23204012
-0.0060642269 -0.019351112 -0.23204269
-0.0058853538 -0.019318165 -0.2320357
-0.0057185087 -0.019325143 -0.23202573
-0.0055333455 -0.019376503 -0.23202084
-0.0053394819 -0.019348904 -0.23202734
-0.0051654396 -0.0193602 -0.23203599
-0.0049810838 -0.019370174 -0.23203537
-0.0047955108 -0.019420546 -0.23202071
-0.01932331 -0.019165864 -0.23208959
-0.016987659 -0.019168625 -0.23203172
-0.0092739798 -0.019097419 -0.23219799
-0.0090983305 -0.019147733 -0.23219213
-0.0089201806 -0.019157998 -0.23218189
-0.0087413006 -0.01916809 -0.23217978
-0.0085714906 -0.019177513 -0.23216189
-0.008399209 -0.019186238 -0.2321478
-0.0082209501 -0.019194666 -0.23214346
-0.0080428086 -0.019162549 -0.2321444
-0.0078620082 -0.019173386 -0.23213847
-0.0076815812 -0.019145325 -0.23211008
-0.0075002769 -0.019158226 -0.23208213
-0.0073261722 -0.01916258 -0.23207152
-0.0071548298 -0.019169163 -0.2320748
-0.0069604516 -0.019178513 -0.23208064
-0.0067625316 -0.019191463 -0.23206496
-0.0065893121 -0.019161969 -0.23203689
-0.006421471 -0.019165169 -0.23202606
-0.0062465458 -0.01917957 -0.23202343
-0.0060686013 -0.019146413 -0.23202814
-0.0058888402 -0.019154403 -0.23202433
-0.0051683765 -0.019238528 -0.23202048
-0.019328248 -0.018963434 -0.23206279
-0.0092767896 -0.018974684 -0.23218547
-0.0091020605 -0.018984079 -0.23217577
-0.0089235697 -0.018994192 -0.23217252
-0.0087447865 -0.019004326 -0.23216839
-0.0085749775 -0.019013749 -0.23215052
-0.0084027927 -0.019022517 -0.23213443
-0.0082254699 -0.018990032 -0.23212592
-0.0080475062 -0.018957995 -0.23212317
-0.0078666899 -0.018968824 -0.23211758
-0.007685164 -0.018981604 -0.23209673
-0.0075036953 -0.018995438 -0.23207177
-0.0073296381 -0.018999815 -0.23206018
-0.0071583632 -0.01900542 -0.23206243
-0.0069641811 -0.019014858 -0.23206426
-0.006767198 -0.018986894 -0.23204441
-0.0065928963 -0.018998249 -0.23202354
-0.020065689 -0.018839095 -0.23218101
-0.019503741 -0.018783713 -0.2321838
-0.019332349 -0.018800948 -0.23203844
-0.009458648 -0.01880322 -0.23218559
-0.0092811044 -0.018811285 -0.23215711
-0.0091062784 -0.018820636 -0.23214941
-0.0089275446 -0.018830642 -0.23215117
-0.008749879 -0.018800618 -0.23213887
-0.0085799405 -0.018809984 -0.23212369
-0.0084075918 -0.01881868 -0.2321109
