# .PCD v0.7 - Point Cloud Data file format
VERSION 0.7
FIELDS x y z
SIZE 4 4 4
TYPE F F F
COUNT 1 1 1
WIDTH 1274
HEIGHT 1
VIEWPOINT 0 0 0 1 0 0 0
POINTS 1274
DATA ascii
0.0029797701 -0.071908511 -0.20868589
0.002973971 -0.071719557 -0.2086367
0.010875551 -0.096176386 -0.20855165
0.0094247442 -0.095976859 -0.20860592
0.0094198361 -0.095860094 -0.20854855
0.0094129294 -0.09566357 -0.20847957
0.010296261 -0.095635697 -0.20861822
0.010292828 -0.095479965 -0.20860501
0.010289527 -0.095286898 -0.20860802
0.0092355041 -0.094957352 -0.20856337
0.0092280339 -0.094761416 -0.20848271
0.0097515453 -0.094831191 -0.208464
0.010484537 -0.094712332 -0.20845604
0.010671221 -0.094767675 -0.20855162
0.010484043 -0.094597645 -0.20848763
0.010668558 -0.094613627 -0.20855342
0.010484026 -0.094404124 -0.20855756
0.010666284 -0.09441942 -0.20857771
0.0095608681 -0.094202615 -0.20846424
0.010665177 -0.094265364 -0.20861118
0.0090062413 -0.09404432 -0.20857912
0.0095626498 -0.094125226 -0.20852858
0.0089992769 -0.093849838 -0.20850816
0.0090020169 -0.093927249 -0.20853573
0.0089948867 -0.093731835 -0.20846176
0.0093732849 -0.093491815 -0.20846272
0.009374422 -0.093416721 -0.20851311
0.008817303 -0.093105003 -0.20858507
0.012249921 -0.093186282 -0.208565
0.0088114161 -0.092949361 -0.20852192
0.012417648 -0.093040258 -0.20845051
0.012506397 -0.092931524 -0.20851402
0.0088054808 -0.092793733 -0.20845777
0.012596022 -0.092822403 -0.20859548
0.012770339 -0.092748761 -0.20853111
0.009190009 -0.092591979 -0.20849788
0.012953143 -0.092681445 -0.20850389
0.013119813 -0.092610978 -0.20852342
0.0086317779 -0.092206202 -0.20860174
0.0086270645 -0.09208934 -0.2085484
0.008620983 -0.091933787 -0.20848125
0.0089590102 -0.091680385 -0.20847738
0.008961672 -0.091602609 -0.20855969
0.0035164992 -0.091292523 -0.20849745
0.0037086222 -0.091304839 -0.20859134
0.0084437821 -0.091304675 -0.20856923
0.0033699418 -0.091147348 -0.20849214
0.0034947195 -0.091188677 -0.20846121
0.0037022871 -0.09114939 -0.20851921
0.0038748595 -0.091145605 -0.2085631
0.0040389625 -0.091104366 -0.20858598
0.0042597679 -0.091102459 -0.20860097
0.0084371148 -0.091149367 -0.20849009
0.0033133987 -0.090952612 -0.2085209
0.0036970987 -0.091033749 -0.20845588
0.0038685915 -0.090991139 -0.20849198
0.0040337881 -0.090986706 -0.2085236
0.0042542899 -0.090986952 -0.20853166
0.004438784 -0.090984955 -0.20855865
0.0046173148 -0.09095645 -0.20861626
0.003308082 -0.090797238 -0.20849065
0.0038639503 -0.090873241 -0.2084406
0.0040285541 -0.090871088 -0.20845929
0.0042489688 -0.090869352 -0.20846629
0.0044315564 -0.090828888 -0.20846853
0.0046105706 -0.090800844 -0.20853579
0.0087691043 -0.0907415 -0.20846336
0.0033047413 -0.090628162 -0.20849319
0.0046042618 -0.090645716 -0.20846398
0.0047851792 -0.090618134 -0.20859492
0.0064251218 -0.090585835 -0.20859718
0.0082443431 -0.090634964 -0.20853262
0.0087704975 -0.090664282 -0.2085197
0.0033037888 -0.090455055 -0.20849977
0.0047792569 -0.090463504 -0.20853077
0.0062510404 -0.090454876 -0.20858335
0.0064187036 -0.090469733 -0.20850888
0.0066007785 -0.090444207 -0.20850988
0.0067840829 -0.090457179 -0.20851727
0.0069546243 -0.090427518 -0.20853011
0.0071440726 -0.090401672 -0.20857367
0.0082373116 -0.090479478 -0.20844615
0.0033017457 -0.090333134 -0.20852616
0.0047732368 -0.090308927 -0.20846465
0.0049496372 -0.090235226 -0.20857731
0.0053445594 -0.090213582 -0.20861177
0.0055276947 -0.090257399 -0.20859733
0.0057000024 -0.0902301 -0.2085897
0.0058900411 -0.090242386 -0.20860371
0.0060788188 -0.090292148 -0.2085745
0.0062447865 -0.090339713 -0.20849806
0.0071371193 -0.090285808 -0.20847438
0.007335641 -0.090264715 -0.20853229
0.0075227218 -0.090203099 -0.20861596
0.0080412719 -0.090233363 -0.20858711
0.0049440581 -0.090080447 -0.20852017
0.0051215468 -0.090085 -0.20858939
0.0053400593 -0.090097636 -0.20856243
0.005521806 -0.090101749 -0.20853417
0.0056953561 -0.090114221 -0.20853737
0.0058826767 -0.090088405 -0.20850994
0.006071304 -0.090136215 -0.20847839
0.0075171506 -0.090087637 -0.20854464
0.0080356523 -0.090117916 -0.20851479
0.004938527 -0.089925647 -0.20846401
0.0051159682 -0.089930229 -0.20853224
0.0053329165 -0.089904249 -0.20848751
0.0055158078 -0.089948162 -0.20846806
0.0056904173 -0.089998469 -0.20847905
0.0075115799 -0.089972168 -0.20847334
0.0076860455 -0.089907266 -0.20854747
0.0078585017 -0.089908183 -0.20856047
0.0051099015 -0.089775667 -0.20846511
0.0076786838 -0.089753278 -0.20845371
0.0078503275 -0.089754559 -0.20845008
0.008583704 -0.089764014 -0.20851138
0.010010492 -0.089540616 -0.20851029
0.0098387208 -0.089375094 -0.20861432
0.010179286 -0.08935342 -0.2085225
0.010390183 -0.089170992 -0.20855044
0.0032768024 -0.089051858 -0.2085316
0.0083992556 -0.089019164 -0.20849407
0.010569924 -0.08899153 -0.20859024
0.010563442 -0.088913761 -0.20848674
0.010739533 -0.088692985 -0.20850506
0.010901666 -0.088462815 -0.20851865
0.011068553 -0.088314705 -0.20852284
0.011250988 -0.088255294 -0.2085498
0.011244796 -0.088177398 -0.20845228
0.011425734 -0.088149503 -0.20850086
0.011597987 -0.08808203 -0.20849848
0.011775592 -0.088052392 -0.2085546
0.011973944 -0.088059314 -0.20854953
0.012155788 -0.088104472 -0.20849705
0.0032605904 -0.087970883 -0.20856547
0.011768951 -0.087976709 -0.20844713
0.011967987 -0.087983325 -0.20845604
0.0032518737 -0.08738783 -0.20859246
0.0032454534 -0.087195456 -0.20853189
0.0032389807 -0.087003782 -0.20846999
0.003240909 -0.087043159 -0.20851114
0.0032362484 -0.086813346 -0.20847586
0.0032379823 -0.086655341 -0.20856851
0.009609554 -0.086614639 -0.20856215
0.0032310314 -0.086459473 -0.20854302
0.0096053947 -0.086498544 -0.20851979
0.0095995739 -0.086306579 -0.20847119
0.0032263123 -0.085995317 -0.20858663
0.0032220085 -0.085764982 -0.20856746
0.0037792826 -0.085763991 -0.20857887
0.0032130731 -0.085613035 -0.20844109
0.0039371843 -0.085568309 -0.20852862
0.0070509473 -0.085522048 -0.20845097
0.0039386335 -0.08544974 -0.2086011
0.0041522831 -0.085374355 -0.20849872
0.003212024 -0.085205257 -0.20853612
0.0041551013 -0.085294493 -0.20858496
0.0032082233 -0.085030794 -0.20853114
0.0068595242 -0.085080095 -0.20853661
0.0032057799 -0.084888913 -0.20852713
0.0066815172 -0.084802262 -0.20848382
0.0032023813 -0.084683008 -0.20854239
0.0066855066 -0.084721886 -0.20859404
0.0031950208 -0.084489509 -0.20850581
0.0064959368 -0.08447782 -0.20854393
0.0093938969 -0.084469035 -0.20860602
0.0031959321 -0.084371179 -0.20856729
0.0063070031 -0.084312163 -0.2084737
0.009390045 -0.084314503 -0.20858386
0.003188624 -0.084101334 -0.20853071
0.0061348286 -0.084101751 -0.20852715
0.0063108555 -0.084229827 -0.20858189
0.0093856081 -0.084160239 -0.20854971
0.0057731727 -0.084046766 -0.20847784
0.0059646294 -0.084015727 -0.20853189
0.0093794847 -0.083968736 -0.2084948
0.0031860417 -0.083790928 -0.20854843
0.0093746996 -0.083814286 -0.20845366
0.0031835288 -0.08359462 -0.20857827
0.0031788016 -0.083437942 -0.20857139
0.0031756791 -0.08324939 -0.20852113
0.0091967219 -0.083215147 -0.20860727
0.0031694474 -0.083091982 -0.20850699
0.0091916695 -0.083062157 -0.20856015
0.0031650818 -0.082899034 -0.20848835
0.0091866963 -0.082908124 -0.20851502
0.0031601596 -0.082707018 -0.20845807
0.0091799023 -0.08271759 -0.20844615
0.009182605 -0.082793005 -0.20847368
0.0031575304 -0.082591258 -0.2084467
0.0031518387 -0.081730112 -0.20860225
0.0089984033 -0.081770614 -0.20853424
0.0031479117 -0.08161594 -0.20856394
0.0089948485 -0.081655264 -0.2085039
0.0031426332 -0.081464052 -0.20851186
0.0089893583 -0.081463486 -0.20846196
0.0031377745 -0.081310973 -0.20846874
0.0031084465 -0.079475604 -0.2085655
0.0031040581 -0.079289712 -0.20853432
0.0031002723 -0.079112917 -0.20851973
0.003097839 -0.078914359 -0.20854464
0.0030946466 -0.078740545 -0.20854442
0.0030918096 -0.078573138 -0.20852971
0.0030909947 -0.078388855 -0.20855284
0.0031021375 -0.07819806 -0.20854811
0.0033234509 -0.078200869 -0.20859805
0.0030975188 -0.078045681 -0.2085489
0.0033187349 -0.078047723 -0.20855792
0.0030905097 -0.077852003 -0.20852429
0.0033130373 -0.077857383 -0.20851135
0.0034682753 -0.077848546 -0.20860256
0.003088187 -0.077660173 -0.20851713
0.0033078666 -0.077665471 -0.2084761
0.0034627316 -0.077657804 -0.20855933
0.003082305 -0.077505387 -0.20850705
0.0033037551 -0.077513069 -0.20844798
0.0034589411 -0.077504255 -0.20853817
0.0036328018 -0.077491835 -0.20861188
0.0030706013 -0.077327482 -0.2084997
0.0034538403 -0.077312641 -0.20850424
0.0036278635 -0.077300154 -0.20858127
0.0037934971 -0.077293009 -0.20861451
0.0030595283 -0.077083476 -0.20844284
0.0030664518 -0.077123344 -0.20852895
0.0034483129 -0.077121891 -0.20846136
0.0036228369 -0.077108167 -0.20854902
0.0037898615 -0.077138722 -0.20859666
0.0040093977 -0.077055328 -0.20861867
0.003058752 -0.076928034 -0.20845613
0.0030641954 -0.076964512 -0.20853662
0.0034453087 -0.077007301 -0.208442
0.0036187831 -0.076953724 -0.20852286
0.003785023 -0.07694599 -0.20856839
0.0030586391 -0.076719828 -0.20851271
0.0030623476 -0.076794825 -0.20855138
0.0036139872 -0.076762646 -0.20849492
0.0037818037 -0.076791182 -0.2085592
0.0040038382 -0.076784626 -0.2086041
0.0030554009 -0.076573379 -0.20849723
0.0030612492 -0.076565236 -0.20860651
0.0037100934 -0.076586716 -0.20851052
0.0039989073 -0.076592267 -0.20857382
0.0030551427 -0.076412529 -0.20854825
0.0036896393 -0.076410472 -0.20849253
0.0039940281 -0.076400891 -0.20854422
0.0041803382 -0.076393083 -0.20860907
0.0030509927 -0.076236159 -0.20852515
0.0036691516 -0.076233029 -0.20847428
0.0039908364 -0.07624507 -0.20853601
0.0041770991 -0.076237276 -0.20859987
0.0030474248 -0.076055616 -0.20852563
0.0037658785 -0.076056696 -0.2085024
0.0039866306 -0.076052055 -0.2085207
0.0041726399 -0.076044716 -0.20857923
0.003043547 -0.075871289 -0.20851336
0.0037613823 -0.075863808 -0.2084811
0.0039821779 -0.075859815 -0.20850009
0.0041686664 -0.075850919 -0.2085689
0.00303955 -0.075688154 -0.20849508
0.003757766 -0.0757505 -0.2084488
0.0039783712 -0.075705267 -0.20847891
0.0041652508 -0.0756962 -0.20855571
0.003035452 -0.075499989 -0.2084879
0.0039738468 -0.07551273 -0.20845695
0.0041607558 -0.075504325 -0.20853411
0.0030324315 -0.075345896 -0.20848559
0.003969986 -0.075318888 -0.20844896
0.0041558314 -0.075312294 -0.20850384
0.0030301232 -0.07516513 -0.20852602
0.0039670086 -0.075163975 -0.20844476
0.0041525136 -0.075157523 -0.20849265
0.0030256007 -0.0749726 -0.20850404
0.0039627338 -0.074929997 -0.20844293
0.0041494388 -0.074960984 -0.20850158
0.0030218202 -0.074777715 -0.20849803
0.004145829 -0.074767381 -0.20849858
0.0030178877 -0.074624225 -0.20847388
0.0041434485 -0.074610181 -0.20850733
0.0030136739 -0.074431546 -0.20845824
0.0041411654 -0.074452944 -0.20851806
0.0030102185 -0.074236527 -0.20845887
0.0041379728 -0.074257128 -0.20852435
0.0030077612 -0.074069932 -0.20845698
0.0041347733 -0.07406266 -0.20852999
0.0030056851 -0.073889248 -0.20846415
0.0039447937 -0.073915862 -0.20844696
0.0041320818 -0.073904596 -0.20853271
0.0030032131 -0.073684022 -0.20850246
0.0039416458 -0.073720701 -0.20845394
0.0041294615 -0.073707856 -0.20855097
0.0030004999 -0.073523656 -0.20852113
0.0039378339 -0.073526844 -0.20844692
0.0041262857 -0.073512033 -0.20855758
0.0029980496 -0.073363446 -0.20853291
0.003934789 -0.073370948 -0.2084417
0.0041235341 -0.073356017 -0.20855835
0.0029951429 -0.073165357 -0.20855248
0.0039315051 -0.073175512 -0.20844598
0.0041202079 -0.073160931 -0.20856166
0.0029927993 -0.072987102 -0.20854415
0.0039282301 -0.072979733 -0.20845062
0.004116958 -0.072963804 -0.20856725
0.0029903799 -0.072843596 -0.20855317
0.0039257216 -0.072823599 -0.20845638
0.0041142548 -0.072807759 -0.20856902
0.0029857841 -0.072629787 -0.20855255
0.0039222161 -0.072628595 -0.20845602
0.0041118441 -0.07265158 -0.20857678
0.0029809515 -0.072438225 -0.20852396
0.003918353 -0.072433755 -0.20844834
0.004108855 -0.072454333 -0.20858769
0.0029775749 -0.072282977 -0.20851177
0.0039154054 -0.072277814 -0.20844512
0.0041053658 -0.072259322 -0.20858765
0.0029710878 -0.072084032 -0.20851509
0.003912915 -0.072081022 -0.20846604
0.0041025165 -0.072103336 -0.20858642
0.0029669909 -0.071890637 -0.2085021
0.0039098822 -0.071884125 -0.20847595
0.0029639956 -0.071734712 -0.20849788
0.0039075497 -0.071726911 -0.20848569
0.0029638666 -0.071551256 -0.20853417
0.0039048947 -0.071570843 -0.20848846
0.0029602093 -0.071366675 -0.20851305
0.0039014739 -0.071375132 -0.20849009
0.0029552672 -0.071202792 -0.20849065
0.0038984444 -0.071177565 -0.20850033
0.0029516239 -0.07103058 -0.20850232
0.0029480346 -0.070836291 -0.20849998
0.0036681821 -0.070758387 -0.20844163
0.0029463402 -0.070645988 -0.20848134
0.0036665578 -0.070641175 -0.20845121
0.0029453367 -0.070478477 -0.20850964
0.0036637206 -0.07048317 -0.20845093
0.0029436366 -0.070287965 -0.20853621
0.0029391695 -0.070089154 -0.20851828
0.0029354808 -0.069945939 -0.2085007
0.002931745 -0.069753796 -0.2085021
0.0029254425 -0.069566838 -0.2084641
0.0029209466 -0.069394112 -0.20847353
0.0029192108 -0.069234625 -0.20849621
0.010517111 -0.096723914 -0.20838766
0.010511105 -0.09656731 -0.20832248
0.010505784 -0.096410409 -0.20827129
0.0095920814 -0.096212782 -0.20836852
0.010118309 -0.09623716 -0.20826989
0.010869166 -0.096286044 -0.20838207
0.0095865633 -0.096018672 -0.20832688
0.0095816804 -0.095861569 -0.20828468
0.0095783994 -0.095745094 -0.2082603
0.0099363942 -0.095648751 -0.20832124
0.010491468 -0.095636576 -0.20826131
0.0094063822 -0.095467895 -0.20841759
0.0099386191 -0.095534883 -0.20840782
0.010489809 -0.095482759 -0.20828344
0.0094009619 -0.095311031 -0.2083644
0.010487618 -0.095289528 -0.20830908
0.0093962131 -0.095155887 -0.20832424
0.0097487522 -0.095136158 -0.20829646
0.010486077 -0.095134988 -0.20833388
0.0093917381 -0.094999611 -0.20829004
0.0097497106 -0.094944894 -0.20838542
0.010485192 -0.094943196 -0.20838553
0.010484802 -0.09478882 -0.20843363
0.0092223696 -0.094604664 -0.20842454
0.009558171 -0.094546504 -0.20828451
0.0092157871 -0.094409682 -0.20836157
0.0095590549 -0.094392911 -0.20835826
0.0092096552 -0.09421517 -0.20830759
0.0095601194 -0.094277531 -0.20842183
0.0092054233 -0.094058789 -0.20827839
0.0093709193 -0.093837574 -0.20828903
0.0089904349 -0.093615875 -0.20841342
0.0093713151 -0.093684196 -0.2083528
0.008986434 -0.093497694 -0.20837502
0.0093725156 -0.093570776 -0.2084184
0.0089816386 -0.093342572 -0.20833385
0.012244748 -0.093261138 -0.20843266
0.0089755207 -0.093148731 -0.20827991
0.0091874404 -0.093091041 -0.20826441
0.01241261 -0.093117073 -0.20832023
0.0091869943 -0.092976332 -0.20829701
0.012584114 -0.092972808 -0.20829889
0.0091878958 -0.092783749 -0.20838527
0.012764677 -0.092823833 -0.20838881
0.012947676 -0.092756428 -0.20836556
0.0087984679 -0.092599273 -0.20838583
0.013112845 -0.092684612 -0.20835511
0.013319981 -0.092621177 -0.20841953
0.013503818 -0.092634782 -0.20841259
0.0087920092 -0.092405573 -0.20832488
0.0087874569 -0.092250347 -0.2082887
0.0033253322 -0.092066944 -0.20839918
0.0087842746 -0.092133828 -0.20826632
0.0089568906 -0.092066355 -0.2082942
0.0033226674 -0.091912895 -0.20840098
0.0086164828 -0.091817841 -0.2084319
0.0089573301 -0.09187264 -0.20837344
0.0033185713 -0.091719508 -0.20838802
0.0086123552 -0.091700733 -0.20839052
0.0089581041 -0.091757394 -0.20843101
0.003312821 -0.091528058 -0.20835021
0.0086071985 -0.091544762 -0.20834234
0.0033110345 -0.091373608 -0.20837
0.0086009186 -0.09135098 -0.20828505
0.0033083751 -0.09117993 -0.2083863
0.0034917332 -0.091111377 -0.20842865
0.0087676384 -0.091166496 -0.20827931
0.013645345 -0.091093801 -0.20836727
0.0033226693 -0.090987518 -0.20839764
0.0034869614 -0.090995558 -0.20837381
0.0036937697 -0.090956599 -0.20841631
0.0084308852 -0.090993874 -0.20841995
0.0087674335 -0.091012366 -0.20833108
0.013642747 -0.090977013 -0.20835689
0.0033206854 -0.090810835 -0.20836902
0.0034809401 -0.090840966 -0.20830768
0.0036875671 -0.090802096 -0.20834653
0.0038605235 -0.090796128 -0.20839904
0.0040251296 -0.090793982 -0.20841773
0.004245739 -0.090792157 -0.20842874
0.0084237764 -0.090800464 -0.2083457
0.0087681832 -0.090856813 -0.2084028
0.013640279 -0.09082289 -0.20836268
0.0033006393 -0.090624548 -0.20835944
0.0036809035 -0.090645783 -0.20826803
0.0038532466 -0.090642102 -0.20830727
0.004018256 -0.090638429 -0.20833461
0.004239378 -0.090637721 -0.20835561
0.0044235322 -0.090635888 -0.20837563
0.0046011298 -0.090568483 -0.20842841
0.0084169935 -0.090606913 -0.20827809
0.0032956861 -0.090444714 -0.2083663
0.0042323931 -0.090481557 -0.20827048
0.0044153617 -0.090442941 -0.20827973
0.0045965295 -0.090452582 -0.20837706
0.0082340846 -0.09040229 -0.20840859
0.0032932158 -0.090286523 -0.20835423
0.0045903632 -0.090298064 -0.20830795
0.0047690761 -0.090192832 -0.20842227
0.0062381048 -0.090222716 -0.20840473
0.0064075836 -0.09027642 -0.20835304
0.0065889806 -0.090250522 -0.20834039
0.0067721577 -0.090264559 -0.2083448
0.0069454052 -0.090272345 -0.20839903
0.0082291467 -0.090286538 -0.20835027
0.0085805105 -0.090230092 -0.20827724
0.0032885745 -0.090105839 -0.20832752
0.0047647199 -0.090076827 -0.20837593
0.0060648061 -0.090021148 -0.20838809
0.0062314612 -0.090107724 -0.20831145
0.0069383546 -0.090156518 -0.20829774
0.0071279192 -0.090131626 -0.20834333
0.0073250094 -0.090071186 -0.20838642
0.0080298372 -0.090002559 -0.20843849
0.0082227904 -0.090132102 -0.20827714
0.0085804313 -0.090074912 -0.20833197
0.0032835405 -0.089917101 -0.20829305
0.0047586514 -0.089922264 -0.2083088
0.0055109174 -0.089832395 -0.20841072
0.0056852158 -0.08988183 -0.20841569
0.0058728978 -0.089894161 -0.20838173
0.0060600196 -0.089944646 -0.20831858
0.0073172706 -0.089916356 -0.20828533
0.0075081582 -0.089895055 -0.20843178
0.0080239736 -0.089887217 -0.20836118
0.0085817361 -0.089920118 -0.2084147
0.0049311016 -0.089733057 -0.20838313
0.0051055951 -0.089659639 -0.20841976
0.0053255782 -0.089710936 -0.20840859
0.0055060568 -0.0897156 -0.20835437
0.005678352 -0.089726612 -0.20833257
0.0058668391 -0.0897789 -0.20830043
0.0075015426 -0.089740731 -0.20835334
0.0076751653 -0.089676209 -0.20841017
0.0078465175 -0.089677624 -0.20840055
0.0080180131 -0.089771926 -0.20828187
0.0049241772 -0.089540899 -0.20831221
0.0051009478 -0.08954376 -0.20836741
0.0053190743 -0.089556575 -0.20833248
0.0055008442 -0.089600988 -0.20829007
0.0056728176 -0.089613147 -0.20826128
0.0074946671 -0.089586541 -0.20826957
0.0076698195 -0.08955963 -0.20834383
0.0078409277 -0.089561157 -0.2083292
0.0049198703 -0.089424871 -0.20826685
0.0050944425 -0.089389399 -0.20829129
0.0053138426 -0.089440949 -0.20826815
0.0076644146 -0.089445099 -0.20827553
0.0083943065 -0.089329787 -0.20828071
0.010001161 -0.089387499 -0.20837626
0.0032697259 -0.089208193 -0.20833103
0.008395859 -0.089214191 -0.20835423
0.0099939741 -0.089233436 -0.20828617
0.010169824 -0.08923766 -0.20837227
0.0083977645 -0.089096427 -0.20843571
0.010377938 -0.089017153 -0.20835745
0.010554018 -0.088799991 -0.20833653
0.010733185 -0.088617168 -0.2084036
0.008196976 -0.088506609 -0.20834249
0.010727131 -0.088541225 -0.20830813
0.010895612 -0.088386871 -0.20842317
0.012682183 -0.088485785 -0.20828727
0.010889752 -0.088310838 -0.20833169
0.0110624 -0.088238806 -0.20842537
0.012502922 -0.088323742 -0.20833679
0.0032539857 -0.088089705 -0.20838811
0.011056735 -0.08816269 -0.20833787
0.011235995 -0.088065371 -0.20831411
0.011416603 -0.088035606 -0.20835665
0.012323555 -0.088119701 -0.20832497
0.011410742 -0.087959573 -0.20826516
0.011588611 -0.087968245 -0.20834929
0.011762409 -0.087900974 -0.20834167
0.011961835 -0.087907426 -0.20835857
0.012144068 -0.087952405 -0.20831409
0.011955683 -0.08783152 -0.2082611
0.0032320931 -0.087009721 -0.20832008
0.0032329105 -0.086882427 -0.20839565
0.0032274169 -0.086657122 -0.20836091
0.0032220411 -0.086505279 -0.20830685
0.0032184366 -0.086389944 -0.20827548
0.0095942374 -0.086113393 -0.20843291
0.0032169777 -0.08592283 -0.20842329
0.0095903855 -0.085958868 -0.20841074
0.0039324705 -0.085727632 -0.20837507
0.0070454441 -0.085683733 -0.20828047
0.0095860679 -0.085764892 -0.20839341
0.0032075415 -0.085538872 -0.20835564
0.0070482255 -0.085601874 -0.20836671
0.0095815016 -0.085571706 -0.20837077
0.0041488796 -0.085454479 -0.20840046
0.0095782531 -0.085417911 -0.20836061
0.006853289 -0.085242108 -0.20835114
0.0095738666 -0.085224651 -0.20834164
0.0066752336 -0.084964298 -0.20829734
0.0095691737 -0.085030839 -0.20831667
0.0031942374 -0.084869623 -0.2083423
0.0066782478 -0.084884346 -0.2083876
0.009566023 -0.084877014 -0.20830849
0.0031927065 -0.084703192 -0.20836401
0.0064886799 -0.084640279 -0.20833749
0.0095610349 -0.084684007 -0.20827721
0.0031857227 -0.084496945 -0.2082856
0.0063000401 -0.084474489 -0.20827325
0.0064920457 -0.084558152 -0.20843568
0.003183037 -0.084341675 -0.20832987
0.0054078507 -0.084261626 -0.20833972
0.0061261994 -0.084306136 -0.20827761
0.0063032475 -0.084394455 -0.2083675
0.0031857821 -0.084221527 -0.20842929
0.005578476 -0.084195778 -0.20831132
0.005582036 -0.084113568 -0.20841353
0.0057692225 -0.084129147 -0.20836765
0.0059571294 -0.084178291 -0.20832047
0.0061292727 -0.084224142 -0.20836984
0.0031797325 -0.083953977 -0.20836097
0.0093721924 -0.083738789 -0.20843011
0.0031769015 -0.083645597 -0.20836049
0.0093682669 -0.083624609 -0.20839179
0.0031699878 -0.083376773 -0.20830387
0.0093593486 -0.08335539 -0.20830831
0.0093630981 -0.083470657 -0.20834266
0.0093557145 -0.08324109 -0.20827597
0.0031637633 -0.082986414 -0.20834921
0.0091773951 -0.082642093 -0.2084226
0.00315557 -0.082513504 -0.20843509
0.0091733523 -0.082526959 -0.20838226
0.0031520568 -0.082360499 -0.20841928
0.0091682021 -0.082374007 -0.20833315
0.0031476757 -0.082182787 -0.20838957
0.0091631021 -0.082221046 -0.20828503
0.0031426726 -0.082016677 -0.20835146
0.0031377443 -0.0818232 -0.20832361
0.0031328127 -0.081631519 -0.20829302
0.0031288317 -0.081478052 -0.20826787
0.0031341095 -0.081197686 -0.20843542
0.0089838263 -0.081272066 -0.20841905
0.0031303589 -0.081082419 -0.20840107
0.0089779356 -0.081080802 -0.20836882
0.0031256166 -0.080930293 -0.20835997
0.0089727547 -0.080888897 -0.20833322
0.0031190515 -0.080740683 -0.20829546
0.0089686085 -0.080734491 -0.20830506
0.0089647807 -0.080620274 -0.20826873
0.0030931965 -0.079086594 -0.2083921
0.0030886892 -0.078913897 -0.20835768
0.0030848964 -0.07876996 -0.2083329
0.0030812812 -0.078579508 -0.20832993
0.0030792176 -0.078374781 -0.20835717
0.0030776996 -0.078209817 -0.20838012
0.0030742618 -0.078017294 -0.20836595
0.0030696623 -0.077835463 -0.20835467
0.0030683405 -0.077673867 -0.20836249
0.0030581944 -0.077453561 -0.20830035
0.0030687689 -0.077499069 -0.20834751
0.0030568768 -0.0772819 -0.20831297
0.0030808793 -0.077298179 -0.20838398
0.0032988675 -0.077321365 -0.20841837
0.0030565462 -0.077119872 -0.2083309
0.0030849632 -0.077136442 -0.20838732
0.0032941171 -0.077128254 -0.20839207
0.0030547031 -0.076946586 -0.20833801
0.0031125774 -0.076968513 -0.20837069
0.0032890991 -0.076936603 -0.20835982
0.0034437361 -0.076929376 -0.2084384
0.0030516738 -0.076766394 -0.2083509
0.0031126679 -0.076780848 -0.20833516
0.0032845954 -0.076744393 -0.2083382
0.0034402132 -0.076774359 -0.20842321
0.0030471021 -0.076590441 -0.20831829
0.0031350469 -0.076593406 -0.20828703
0.003280855 -0.076590821 -0.20831804
0.003435076 -0.076583438 -0.2083883
0.0030440947 -0.076429769 -0.20831819
0.003113193 -0.076419614 -0.20826726
0.0032757826 -0.076398872 -0.20828478
0.0034315106 -0.076428786 -0.20837212
0.0030406138 -0.076243237 -0.20831653
0.0032720705 -0.076245949 -0.20826498
0.0034276135 -0.076234959 -0.20836346
0.0030370057 -0.076045707 -0.2083232
0.0035103248 -0.076036572 -0.20838451
0.0030337623 -0.075880527 -0.2083146
0.0034184926 -0.075849913 -0.2083182
0.0035359859 -0.075892672 -0.20838106
0.0030325383 -0.075705171 -0.20833246
0.0034149096 -0.075696938 -0.20830107
0.0035895419 -0.075682163 -0.20839135
0.0037557073 -0.07567279 -0.20843521
0.0030288049 -0.075501695 -0.2083308
0.0034098029 -0.075504996 -0.20826712
0.0035851826 -0.075489879 -0.20837274
0.0037522789 -0.075519085 -0.20842136
0.0030266156 -0.075331084 -0.20834927
0.0035817141 -0.075335182 -0.20835856
0.0037484041 -0.075325251 -0.20841303
0.0030247087 -0.075154841 -0.2083755
0.0035772466 -0.075143285 -0.20833762
0.0037451356 -0.075170465 -0.20840284
0.0030211546 -0.074951731 -0.20837741
0.0035730472 -0.074949935 -0.20832263
0.0037411982 -0.074977666 -0.2083929
0.0039646514 -0.075047091 -0.20843935
0.0030179471 -0.074797586 -0.20836823
0.0035695981 -0.07479623 -0.20830846
0.0037374184 -0.074782789 -0.20838685
0.0039585992 -0.074737296 -0.20842895
0.0039604632 -0.074815094 -0.20843856
0.003013978 -0.074613757 -0.20835358
0.00356591 -0.074601315 -0.20830445
0.0037344727 -0.074626848 -0.20838363
0.0039564865 -0.074620292 -0.20842853
0.0030113396 -0.074423946 -0.20837064
0.0035623196 -0.074406341 -0.20830241
0.0037311157 -0.074431777 -0.20838626
0.0039532245 -0.074425183 -0.20843317
0.0030083156 -0.074251503 -0.20837092
0.003559564 -0.074250318 -0.20830318
0.0037273408 -0.074238911 -0.20837963
0.0039494587 -0.074230298 -0.20842749
0.0030048052 -0.074083664 -0.20835932
0.0035568762 -0.074095272 -0.20830499
0.0037244926 -0.074082926 -0.2083784
0.0039469991 -0.074074142 -0.20843425
0.002997186 -0.073870003 -0.20828214
0.003553706 -0.073899105 -0.20831192
0.0037212856 -0.073887132 -0.20838435
0.0029934088 -0.073709428 -0.20827599
0.0035503106 -0.073704064 -0.20831388
0.0037177133 -0.073692828 -0.20838234
0.0029910726 -0.073543198 -0.2083132
0.0035471837 -0.073549211 -0.2083067
0.0037144746 -0.073537022 -0.20837313
0.0029882595 -0.07334093 -0.20833077
0.003543007 -0.073356174 -0.20829207
0.0037112152 -0.073341906 -0.20837776
0.0029849475 -0.073162183 -0.20832242
0.0035390349 -0.07316272 -0.20828174
0.0037075493 -0.073146969 -0.20837407
0.0029830004 -0.073010303 -0.20832118
0.0035365236 -0.073006585 -0.20828751
0.0037044762 -0.072992101 -0.20836787
0.0029828725 -0.07279899 -0.20837864
0.0035329331 -0.072811626 -0.2082855
0.0037010927 -0.07279738 -0.20836985
0.0029787493 -0.072615974 -0.2083611
0.0035295375 -0.072616577 -0.20828745
0.0036974717 -0.072603099 -0.20836683
0.0029749104 -0.072463118 -0.20833866
0.003526587 -0.072460636 -0.20828423
0.0036950435 -0.072445929 -0.20837457
0.0029700315 -0.072282232 -0.20830405
0.0035230618 -0.072265632 -0.20828354
0.0036920302 -0.072289005 -0.20837034
0.0029676429 -0.07207305 -0.20832489
0.0035195036 -0.072070658 -0.20828217
0.0036886695 -0.072094612 -0.20837265
0.0029646659 -0.07191813 -0.20832069
0.0035172361 -0.07191442 -0.20829293
0.0036855433 -0.071898773 -0.20838027
0.0029614412 -0.071722329 -0.20832632
0.0035136454 -0.071719445 -0.20829089
0.0036830665 -0.071741626 -0.20838702
0.0029573473 -0.071528263 -0.20831364
0.0035106214 -0.071523219 -0.20830083
0.0036802471 -0.07154464 -0.20840125
0.0029549666 -0.071371064 -0.20832241
0.0035079936 -0.071366131 -0.20830458
0.0036773039 -0.071348041 -0.20841284
0.0029528933 -0.071196623 -0.20836188
0.003505531 -0.071209982 -0.20831135
0.0036751498 -0.071189731 -0.20842656
0.0029480325 -0.071007006 -0.20833863
0.0035026344 -0.071012691 -0.20832425
0.0036721742 -0.071034819 -0.20842236
0.0029445235 -0.070823692 -0.20832986
0.0034999331 -0.070815317 -0.20834117
0.0036695509 -0.070877731 -0.20842612
0.0029431076 -0.070663787 -0.20836194
0.0034975493 -0.070658118 -0.20834991
0.002940858 -0.070475988 -0.20838836
0.0034945738 -0.070461869 -0.20836085
0.0029351581 -0.07026282 -0.20835149
0.0034914825 -0.070264667 -0.20836976
0.0029307553 -0.070133388 -0.20831196
0.003488922 -0.070108563 -0.20837453
0.0029266616 -0.069952488 -0.20829791
0.0034861667 -0.069952533 -0.2083753
0.0029230933 -0.069734722 -0.20831364
0.0034832575 -0.069754578 -0.20838821
0.0029224204 -0.069560014 -0.20835201
0.0029185 -0.069400378 -0.20833322
0.0032989685 -0.069308624 -0.20826906
0.0029134415 -0.069187634 -0.20831633
0.0032971269 -0.069190502 -0.20827462
0.0029094783 -0.069035165 -0.2082912
0.0032944505 -0.069033429 -0.20827737
0.0028975289 -0.068489023 -0.20826845
0.0028954062 -0.068330713 -0.20828281
0.0099435393 -0.096685797 -0.20808989
0.0097701885 -0.096526392 -0.20822725
0.010114474 -0.096539222 -0.20808232
0.010681148 -0.096535258 -0.20811155
0.0097668581 -0.096409932 -0.20820187
0.010116459 -0.096389174 -0.20817713
0.010503434 -0.096332826 -0.20825171
0.010861613 -0.096396223 -0.20818853
0.0097613288 -0.096215151 -0.20816021
0.0099337958 -0.096143797 -0.2080887
0.010500592 -0.096216157 -0.20823632
0.0097561618 -0.09602055 -0.20812589
0.0099334475 -0.096029043 -0.2081233
0.010497194 -0.09602312 -0.20823734
0.0097530894 -0.095865667 -0.20811969
0.0099342261 -0.095838539 -0.20820828
0.010494214 -0.095828891 -0.2082473
0.0095750205 -0.095628656 -0.20823392
0.0097500319 -0.095672488 -0.20812769
0.010492647 -0.095714681 -0.20825693
0.0095711006 -0.095473148 -0.20821072
0.0097480156 -0.095479853 -0.20815669
0.0095675699 -0.095317468 -0.20819552
0.0097478274 -0.095326729 -0.20820847
0.0095636537 -0.095123999 -0.20818619
0.0093881451 -0.094882265 -0.20825964
0.0095608495 -0.094930358 -0.20819953
0.0093849124 -0.094765767 -0.20823626
0.0095594712 -0.09477675 -0.20822732
0.0093816929 -0.094610952 -0.20822707
0.0095584225 -0.094661303 -0.20824791
0.0093779946 -0.094417721 -0.20822208
0.0093747759 -0.094223931 -0.20822707
0.0093726488 -0.094069645 -0.20823987
0.0092002535 -0.093864858 -0.20824377
0.0093715005 -0.093954243 -0.20825846
0.0091957394 -0.093670979 -0.20822245
0.009192843 -0.093515009 -0.20822021
0.0091896951 -0.093323208 -0.20822591
0.0091878399 -0.093169481 -0.20824406
0.012407435 -0.093191929 -0.20818791
0.0089704264 -0.092954427 -0.20824692
0.012578647 -0.09304779 -0.20816056
0.012758431 -0.092899159 -0.20823452
0.0089669656 -0.092799723 -0.20823273
0.012941955 -0.092833549 -0.2082213
0.013107123 -0.092761725 -0.20821086
0.013494707 -0.092709363 -0.20820034
0.013666316 -0.092798047 -0.20817469
0.0089634145 -0.092606425 -0.20823073
0.013312176 -0.092697196 -0.2082333
0.0089599742 -0.092413746 -0.20823076
0.0089580435 -0.092259377 -0.20824757
0.0087820226 -0.0920562 -0.20824873
0.0087783448 -0.09190125 -0.20823021
0.003307458 -0.091721468 -0.2081805
0.0087743662 -0.091707811 -0.20821956
0.0087716551 -0.091553785 -0.20822036
0.0087693008 -0.091359615 -0.20824301
0.008595489 -0.091158852 -0.20824447
0.0085917162 -0.091003276 -0.20822427
0.013798414 -0.090948977 -0.20810765
0.0034761683 -0.090725146 -0.20825285
0.0085876873 -0.090809852 -0.20821261
0.013799462 -0.090832599 -0.20817119
0.013960239 -0.090729892 -0.20808643
0.003366248 -0.090597928 -0.20822212
0.0035257014 -0.090609208 -0.20819584
0.0036773798 -0.090568721 -0.20822448
0.0085839741 -0.090616621 -0.20820729
0.013800705 -0.090716138 -0.20823871
0.013960877 -0.09061268 -0.20814195
0.0033411677 -0.090444371 -0.20817341
0.003518783 -0.090454012 -0.2081117
0.0036723863 -0.090452984 -0.20816515
0.0038445657 -0.090449378 -0.20820107
0.0040099262 -0.090444893 -0.2082357
0.0042291037 -0.090406403 -0.20823096
0.0084120985 -0.090451837 -0.20823492
0.0085817985 -0.090462357 -0.2082191
0.0032924544 -0.090265319 -0.20816213
0.0036674906 -0.090337224 -0.20810781
0.0038381999 -0.090294957 -0.20812795
0.0040035164 -0.090290472 -0.20816158
0.0042243381 -0.090289563 -0.2081766
0.0044091959 -0.090288423 -0.20821062
0.004585763 -0.090182163 -0.2082566
0.0084067052 -0.090259008 -0.20819531
0.0085808281 -0.090345867 -0.20824167
0.0032800394 -0.090075925 -0.20818734
0.0039984775 -0.090174772 -0.20810124
0.0042193173 -0.090174861 -0.20811629
0.0044030785 -0.090133891 -0.20814247
0.0045809681 -0.090066358 -0.20820126
0.0062263818 -0.090031348 -0.20823595
0.0063954955 -0.090083867 -0.20817724
0.0065788534 -0.090096742 -0.20819035
0.0067629577 -0.090110376 -0.20821375
0.006931304 -0.090040699 -0.20819645
0.0071206545 -0.090014882 -0.20823802
0.008218145 -0.090016231 -0.2082248
0.008401772 -0.090066314 -0.20816502
0.0032773677 -0.089901976 -0.20818482
0.0045748018 -0.089911833 -0.20813213
0.0060550002 -0.089866228 -0.20824504
0.0062188716 -0.089914717 -0.20812565
0.0065716747 -0.089981988 -0.2080861
0.0067555653 -0.089994706 -0.20810546
0.0069241552 -0.089924917 -0.20809315
0.0071138171 -0.089899972 -0.20814073
0.0082134521 -0.089900374 -0.20817147
0.0083988961 -0.089911357 -0.20816283
0.0032745851 -0.089740358 -0.20816913
0.0045702988 -0.089795895 -0.2080828
0.0047511631 -0.089729019 -0.2082269
0.0058627343 -0.089702092 -0.20824489
0.006047674 -0.089751534 -0.20813777
0.0073082629 -0.089723788 -0.20817213
0.0080138715 -0.089693114 -0.20822629
0.0082082171 -0.089745447 -0.2081213
0.0083960136 -0.089718767 -0.20817418
0.0032683397 -0.089554302 -0.20813322
0.0047440846 -0.089536607 -0.20815298
0.0054973238 -0.089523919 -0.20824651
0.0056686746 -0.089534342 -0.20820571
0.0058560413 -0.089587122 -0.2081506
0.0074912454 -0.089509428 -0.20822801
0.0080071064 -0.089539535 -0.20814455
0.0082048774 -0.089631006 -0.20809498
0.0083943401 -0.089524299 -0.2082108
0.0032638423 -0.089363284 -0.20814349
0.0047395518 -0.089421682 -0.20810266
0.0049166414 -0.089347675 -0.2082293
0.0053087086 -0.089325286 -0.20820582
0.0054900884 -0.089369871 -0.20815541
0.0056628585 -0.089418977 -0.20812941
0.0074864058 -0.089393638 -0.20817167
0.0076590395 -0.089329548 -0.2082082
0.0078311842 -0.089368574 -0.20820101
0.0083940234 -0.089408532 -0.20824637
0.0136016 -0.089391552 -0.20809637
0.0032625231 -0.089138292 -0.20816961
0.0049103471 -0.089193217 -0.20815752
0.0050861011 -0.089198537 -0.20819111
0.005301638 -0.089172177 -0.20811774
0.0074815662 -0.089277849 -0.20811534
0.00765171 -0.089175545 -0.20811513
0.0078235548 -0.089216053 -0.2081013
0.0099893771 -0.089117534 -0.20823482
0.010161375 -0.089123458 -0.20824203
0.003260362 -0.088985048 -0.20816286
0.0049040574 -0.089040771 -0.2080851
0.0050796121 -0.089044169 -0.20811534
0.0081922328 -0.088935062 -0.2080906
0.009985364 -0.089001372 -0.20819546
0.010155806 -0.089047298 -0.20815653
0.01324356 -0.089017242 -0.2081753
0.0032570623 -0.088831224 -0.2081645
0.0081923055 -0.088819116 -0.20813416
0.0099809757 -0.088847086 -0.20816231
0.010365927 -0.088865221 -0.20816851
0.013034346 -0.088812493 -0.20816529
0.0032520408 -0.088638693 -0.20813245
0.008193885 -0.088663198 -0.20822284
0.009975262 -0.088654734 -0.20811605
0.010541958 -0.088648081 -0.20814657
0.012864221 -0.088613331 -0.20817414
0.003245661 -0.088446684 -0.2080982
0.010717999 -0.08842732 -0.20816392
0.012676286 -0.088407755 -0.20819575
0.0032438268 -0.088249415 -0.20812365
0.010883307 -0.088235065 -0.20822823
0.012497159 -0.088247664 -0.2082473
0.012670464 -0.088333726 -0.2081043
0.003248692 -0.088168651 -0.20825186
0.0079812948 -0.088109925 -0.20813867
0.01087696 -0.088159248 -0.20812675
0.011051169 -0.088086523 -0.20825239
0.012491398 -0.088171586 -0.20815782
0.0079845376 -0.087992579 -0.20824715
0.011045054 -0.088012621 -0.20815495
0.011224616 -0.087913156 -0.20813814
0.011404979 -0.087883495 -0.20817569
0.011582751 -0.087892212 -0.20825779
0.012312225 -0.087967463 -0.20815
0.011399509 -0.087807298 -0.20809218
0.011576598 -0.087816313 -0.20816031
0.011753734 -0.087787881 -0.20820647
0.011947028 -0.087719433 -0.20812592
0.012132319 -0.087801367 -0.20813015
0.0077949748 -0.087591782 -0.20810974
0.0032262257 -0.087167531 -0.2081435
0.0097801415 -0.087212719 -0.20820904
0.0032293731 -0.087089539 -0.2082358
0.0097735375 -0.087020099 -0.2081448
0.0032185579 -0.086820096 -0.20815426
0.0097677661 -0.086828113 -0.2080972
0.0032129148 -0.086313255 -0.20820343
0.0032105099 -0.086121298 -0.20821199
0.0032043094 -0.085955977 -0.2081569
0.0032017038 -0.085783757 -0.2081589
0.0070417519 -0.085803293 -0.20816207
0.0031991082 -0.085582234 -0.20817883
0.0031974216 -0.08543288 -0.20819628
0.0068481374 -0.085401617 -0.20818859
0.0031929596 -0.085234791 -0.20818149
0.003187546 -0.085043415 -0.20816106
0.0066707497 -0.085086219 -0.20816199
0.0064825928 -0.084802218 -0.20815501
0.0031758267 -0.084621035 -0.20808189
0.0062941494 -0.084636346 -0.20809478
0.0064856065 -0.084722266 -0.20824528
0.0031793222 -0.084501565 -0.20819631
0.0062085395 -0.084512278 -0.20813808
0.0095558111 -0.084492452 -0.20824063
0.0031811567 -0.084343731 -0.20824847
0.0052188039 -0.084418997 -0.20816052
0.0055158217 -0.084326446 -0.20816386
0.0057616746 -0.084291741 -0.20815521
0.0059506716 -0.084341407 -0.20813
0.0061230878 -0.084386133 -0.20818536
0.0095518623 -0.084337965 -0.20821646
0.0031754472 -0.084137484 -0.20820732
0.0057652723 -0.084211528 -0.20825747
0.0095462268 -0.084146261 -0.20817153
0.0031715273 -0.083958924 -0.20819259
0.0095389336 -0.083916306 -0.20810685
0.0095413812 -0.083993845 -0.20812842
0.0031693236 -0.083793074 -0.20818967
0.0095364265 -0.08384081 -0.2080833
0.0031644546 -0.083612286 -0.20817475
0.0031611566 -0.083433919 -0.20814957
0.0031573304 -0.083264664 -0.20815626
0.0031554177 -0.083071165 -0.20817795
0.0093506146 -0.083088115 -0.20822787
0.0031496999 -0.082878962 -0.20814131
0.0093440544 -0.08289782 -0.20816366
0.0031461578 -0.082725309 -0.20812514
0.0093378266 -0.082707718 -0.20810613
0.00314366 -0.082548007 -0.20813575
0.0031397406 -0.082352035 -0.20814769
0.0031329291 -0.082147412 -0.20810394
0.009159633 -0.082107663 -0.20825574
0.0031327028 -0.081912942 -0.20814143
0.0091561759 -0.081992269 -0.20822737
0.0091500161 -0.081801467 -0.20817149
0.0091439541 -0.08161062 -0.2081176
0.003126075 -0.081363358 -0.2082535
0.0091405939 -0.081495181 -0.20809123
0.0031230859 -0.081246749 -0.20823511
0.0031193679 -0.081094176 -0.208215
0.0031143483 -0.080902189 -0.20818274
0.0031097087 -0.080710374 -0.20815811
0.0031092032 -0.080553442 -0.20818411
0.0089611663 -0.080506966 -0.20823643
0.0031040285 -0.080362365 -0.20814836
0.0089570209 -0.080352567 -0.20820826
0.0030998571 -0.08018364 -0.20812161
0.0089527182 -0.080200247 -0.20817615
0.0030962171 -0.080016971 -0.20809436
0.0089477478 -0.080008246 -0.20814486
0.0089422502 -0.079817817 -0.20810232
0.0089392811 -0.079702213 -0.20808396
0.0030799073 -0.078750312 -0.2082403
0.0030747696 -0.078571327 -0.20819925
0.0030691817 -0.078390136 -0.20815068
0.0030657281 -0.07822527 -0.2081375
0.0030591208 -0.077970065 -0.20809816
0.0030637018 -0.07802467 -0.20817915
0.0030581758 -0.077835485 -0.2081552
0.0030621465 -0.077854045 -0.2082119
0.003054752 -0.077675506 -0.20812142
0.0030617404 -0.077670448 -0.20824085
0.0030564943 -0.077453613 -0.20821661
0.003052837 -0.077299125 -0.20818555
0.0030507399 -0.077152222 -0.2081693
0.0030469364 -0.076960981 -0.20816638
0.003043822 -0.07675945 -0.20817631
0.0030420143 -0.076597303 -0.20819578
0.0030375889 -0.076400071 -0.20818879
0.0031648567 -0.076364525 -0.20825377
0.0030339647 -0.07621251 -0.2081847
0.0031259716 -0.076208353 -0.20824262
0.0032700114 -0.076168239 -0.20825139
0.0030307756 -0.076055989 -0.2081811
0.0031222026 -0.076055795 -0.2082215
0.0032671243 -0.076054603 -0.20823404
0.0030268901 -0.075877413 -0.20816639
0.0031174968 -0.075863667 -0.20819573
0.0032625229 -0.075862437 -0.20821042
0.003024288 -0.075684883 -0.20818228
0.0031129911 -0.075671293 -0.20817411
0.0032576516 -0.075670727 -0.20818117
0.0030206263 -0.075516626 -0.20816477
0.0031090905 -0.075518295 -0.20815046
0.0032544776 -0.075515896 -0.20817298
0.0030162842 -0.075332753 -0.20815092
0.0031049571 -0.075325243 -0.20813666
0.003312682 -0.075334661 -0.20819518
0.0030143647 -0.075137451 -0.20817026
0.0031008746 -0.075131841 -0.208124
0.0033399269 -0.07514669 -0.20820399
0.003010385 -0.074972421 -0.20815533
0.0030971537 -0.074979268 -0.20810387
0.0033207403 -0.074970171 -0.20818491
0.0030116311 -0.074789733 -0.20813036
0.0031722193 -0.074770853 -0.20809865
0.0033437565 -0.074826159 -0.20819402
0.0030084688 -0.074600667 -0.2081285
0.0032345639 -0.07459031 -0.20810491
0.0033916708 -0.074615918 -0.20822214
0.002998695 -0.074434482 -0.20812662
0.0032317124 -0.074434325 -0.20810369
0.0033873213 -0.074423298 -0.20820384
0.0029941904 -0.074253775 -0.20811863
0.0032282986 -0.074239962 -0.20810501
0.0033842733 -0.074267402 -0.20819862
0.0029934552 -0.074061483 -0.20812504
0.0032241335 -0.074046597 -0.20809069
0.0033807571 -0.074073754 -0.20819761
0.0029884398 -0.073888622 -0.2081303
0.0032211246 -0.073892698 -0.20808552
0.003377131 -0.073879473 -0.2081946
0.0029849922 -0.073721714 -0.20814125
0.0032181269 -0.073736772 -0.20808131
0.0033744732 -0.073723406 -0.20819737
0.0029817368 -0.0735429 -0.20812017
0.0033704892 -0.073529281 -0.20818703
0.0029784115 -0.073341876 -0.2081245
0.0033668918 -0.073335662 -0.20818438
0.0029773966 -0.073191561 -0.20814815
0.0033635702 -0.073180899 -0.20817319
0.0029733144 -0.07298097 -0.20817092
0.003359101 -0.072988003 -0.20815258
0.002970909 -0.072799131 -0.20818695
0.003354934 -0.072794631 -0.20813824
0.0029679511 -0.072634593 -0.20818827
0.0033523254 -0.072638541 -0.20814201
0.002963651 -0.072448961 -0.2081622
0.003349093 -0.072443418 -0.2081473
0.0029600973 -0.072258107 -0.20816837
0.0033455542 -0.072249435 -0.20814598
0.0029587103 -0.072094351 -0.20818171
0.0033424764 -0.07209456 -0.20813976
0.0029541298 -0.071903922 -0.20816559
0.0033401905 -0.071937323 -0.20815051
0.0029501421 -0.0717353 -0.20814487
0.0033370003 -0.071741842 -0.20815681
0.0029465891 -0.071547113 -0.20812516
0.0033329313 -0.071548432 -0.20814447
0.0029430173 -0.071373798 -0.20811923
0.0033307916 -0.071391121 -0.20815821
0.002939692 -0.071174666 -0.20812733
0.0033274752 -0.071195029 -0.20816214
0.0029373181 -0.071004868 -0.20813742
0.0033245003 -0.07099878 -0.2081731
0.0029335828 -0.070846267 -0.20812529
0.0033229571 -0.070839196 -0.20819977
0.0029300295 -0.070651919 -0.20812149
0.0033203661 -0.070642449 -0.20821868
0.002927477 -0.070460431 -0.20813443
0.0033162157 -0.070449069 -0.2082047
0.002924588 -0.070309602 -0.20813249
0.0033139591 -0.070290811 -0.20821641
0.0029200204 -0.070107631 -0.20811309
0.0033113018 -0.070134744 -0.20821919
0.002917811 -0.069911242 -0.20813009
0.003307923 -0.06993968 -0.20822148
0.0029152231 -0.069755249 -0.20812917
0.0033046389 -0.069743574 -0.2082261
0.0029117877 -0.069573134 -0.20812303
0.0033017865 -0.069587588 -0.20822488
0.0029091612 -0.069382943 -0.20815365
0.0031393198 -0.069335565 -0.20808035
0.0033001755 -0.069427028 -0.20825052
0.0029069241 -0.069206454 -0.20816736
0.0031374982 -0.069218434 -0.20808592
0.0029038151 -0.069041781 -0.20816575
0.0031346194 -0.069021136 -0.20809917
0.0029013902 -0.068850331 -0.2081864
0.0031315319 -0.068824947 -0.20810777
0.0028983711 -0.068658412 -0.20819484
0.0031292955 -0.06866768 -0.20811951
0.0028955347 -0.068504706 -0.20816348
0.0031269428 -0.068509459 -0.20812923
0.0028928712 -0.068314262 -0.208175
0.0031241814 -0.068311445 -0.20814513
0.0028900611 -0.068124086 -0.2081771
0.0031214454 -0.068114758 -0.20816106
0.0028784326 -0.0679259 -0.20810202
0.0029202625 -0.067961171 -0.20813374
0.0028774866 -0.067763031 -0.20814197
0.0029267853 -0.067782938 -0.20815223
0.010115101 -0.096692152 -0.20803952
0.010680083 -0.096726231 -0.2080206
0.0099398792 -0.096567467 -0.20805849
0.010114642 -0.096615754 -0.20805793
0.010680111 -0.096649617 -0.20804898
0.01085135 -0.096503563 -0.207941
0.0099371187 -0.096413463 -0.2080583
0.0099348938 -0.096259221 -0.20806912
0.012401677 -0.093267046 -0.20804361
0.012573413 -0.093124695 -0.20802629
0.013995448 -0.093125351 -0.20793208
0.012749208 -0.093012094 -0.20800607
0.012932633 -0.092946522 -0.20799085
0.013095211 -0.09291213 -0.20791425
0.013829033 -0.092997707 -0.2079861
0.013101167 -0.092836931 -0.20806256
0.013303196 -0.09281002 -0.20800985
0.013485502 -0.092823297 -0.20797192
0.013660069 -0.092873372 -0.20802039
0.013799648 -0.091180928 -0.20804851
0.013797997 -0.09102577 -0.20807126
0.013956351 -0.090961419 -0.20792338
0.013958441 -0.090845592 -0.2080079
0.014115356 -0.090743579 -0.2079373
0.014115574 -0.090627566 -0.20798387
0.014114372 -0.090472877 -0.20801564
0.0033738948 -0.090245292 -0.20803306
0.0035104824 -0.090262137 -0.20801286
0.0036626922 -0.090221405 -0.20805249
0.01410909 -0.090279996 -0.20797835
0.0033201233 -0.090072975 -0.20799419
0.0035026018 -0.090069063 -0.20792294
0.003656083 -0.090067089 -0.20797437
0.0038298443 -0.090102099 -0.20802839
0.0039934386 -0.090059072 -0.20804092
0.0042142104 -0.090058178 -0.20805493
0.0043978933 -0.090018243 -0.20807916
0.0032788545 -0.089914553 -0.20798396
0.0036512739 -0.089953296 -0.20791806
0.0038216999 -0.089909136 -0.20793316
0.0039867554 -0.089905784 -0.20796083
0.0042078188 -0.08990477 -0.20798084
0.0043927082 -0.08990261 -0.20801583
0.0063853003 -0.089929119 -0.20802617
0.0065640383 -0.089866422 -0.20797281
0.0067481729 -0.089879036 -0.20799717
0.0069194674 -0.089848369 -0.20802563
0.013943603 -0.089916766 -0.20804366
0.0032640174 -0.08972919 -0.20798548
0.0042031696 -0.089788891 -0.20792849
0.0043859081 -0.089748368 -0.20793372
0.004565571 -0.089681059 -0.20802847
0.0062083714 -0.089762114 -0.20796765
0.0063773408 -0.0898147 -0.20790593
0.0069128256 -0.089733377 -0.20793235
0.0071059032 -0.089746237 -0.20803566
0.01393689 -0.089800797 -0.20794937
0.0032608286 -0.089547463 -0.20798488
0.0045591798 -0.089527652 -0.20795438
0.0058496408 -0.089472018 -0.20806232
0.0060381498 -0.089598507 -0.20799974
0.0070985747 -0.089592233 -0.20794258
0.0072992877 -0.089531198 -0.20805958
0.0082016457 -0.089514509 -0.20807159
0.013768107 -0.08955729 -0.20799699
0.0032596982 -0.08937443 -0.20799392
0.0045546768 -0.089411706 -0.20790502
0.0047366153 -0.08934436 -0.2080711
0.0056568473 -0.089303702 -0.2080491
0.0058427528 -0.08935713 -0.20796403
0.0072928728 -0.089378819 -0.20798451
0.0079988055 -0.089348003 -0.20804536
0.0081979604 -0.089360908 -0.20805244
0.013595155 -0.08931578 -0.20799291
0.0032540702 -0.08919315 -0.20796505
0.0047303191 -0.089189909 -0.2079993
0.0054809954 -0.08917734 -0.20804055
0.0056506116 -0.089189529 -0.20796382
0.0072868592 -0.089224234 -0.20791839
0.0074766288 -0.089162096 -0.208057
0.0078196088 -0.089137159 -0.20804971
0.0079930834 -0.089193285 -0.20798521
0.0081948889 -0.089206032 -0.20804623
0.01342492 -0.089149877 -0.2080749
0.0032518299 -0.088999376 -0.20799932
0.0047239307 -0.089037493 -0.2079249
0.0049008289 -0.088963576 -0.20804755
0.0050761891 -0.088967063 -0.20807379
0.0052944706 -0.089019112 -0.20802766
0.0054736137 -0.089023367 -0.20794646
0.0074697263 -0.089009926 -0.20797195
0.0076442342 -0.089021608 -0.20801903
0.0078139789 -0.089023732 -0.20797645
0.0079870233 -0.08900144 -0.20793164
0.0081930561 -0.089051619 -0.20806503
0.010150336 -0.088971093 -0.20807305
0.013417656 -0.089072451 -0.20795542
0.0032501533 -0.088835396 -0.20800522
0.0048957421 -0.08884789 -0.20798622
0.0050708782 -0.08885248 -0.20800748
0.0052872347 -0.088865064 -0.20793658
0.0074647889 -0.088894174 -0.20791361
0.0076385178 -0.088906199 -0.20794472
0.0078088962 -0.088908046 -0.2079151
0.0079827849 -0.088848084 -0.20790116
0.010143594 -0.088856146 -0.20797776
0.010357039 -0.088751212 -0.20802927
0.013233356 -0.088903822 -0.20800912
0.0032460322 -0.088637531 -0.20798245
0.0048906552 -0.088732213 -0.20792489
0.0050639529 -0.088699311 -0.2079224
0.0079786051 -0.088616088 -0.20790036
0.010351276 -0.088675141 -0.20793979
0.013024825 -0.088698775 -0.20801309
0.0032387306 -0.088482663 -0.20791498
0.0032442976 -0.088451751 -0.2079985
0.0079776058 -0.088460632 -0.20793645
0.0099690873 -0.088462263 -0.20806046
0.010529507 -0.088496342 -0.20794863
0.012852257 -0.088461384 -0.20798619
0.0032380819 -0.088291921 -0.20797783
0.003241936 -0.088297762 -0.20803212
0.0079786908 -0.088266298 -0.208029
0.0099642798 -0.088309161 -0.20801833
0.010706474 -0.088275179 -0.20798495
0.012664897 -0.088257566 -0.20801881
0.0032348884 -0.088112794 -0.2079618
0.0099575566 -0.088116258 -0.20795174
0.010871295 -0.088083133 -0.20803927
0.012482986 -0.088059388 -0.20802763
0.012659232 -0.088181444 -0.20793132
0.0032299769 -0.08792115 -0.20791785
0.0099526215 -0.087962538 -0.20790729
0.010865534 -0.088007055 -0.20794979
0.011036459 -0.087898493 -0.20802173
0.012303776 -0.087853268 -0.20801976
0.0077914591 -0.087710254 -0.20799528
0.011213969 -0.087760612 -0.20797713
0.011393979 -0.087733135 -0.20800674
0.011568625 -0.087703921 -0.20803912
0.011745352 -0.087674662 -0.20807725
