# .PCD v0.7 - Point Cloud Data file format
VERSION 0.7
FIELDS x y z
SIZE 4 4 4
TYPE F F F
COUNT 1 1 1
WIDTH 1379
HEIGHT 1
VIEWPOINT 0 0 0 1 0 0 0
POINTS 1379
DATA ascii
-0.28498477 -0.37752983 0.4483518
-0.28490844 -0.37762916 0.44829845
-0.28515521 -0.37734634 0.44834673
-0.28506917 -0.37743753 0.44835749
-0.2853376 -0.37715364 0.44833425
-0.28525937 -0.37723172 0.44834399
-0.28552371 -0.37694675 0.44835162
-0.28544247 -0.37704509 0.44833302
-0.28569388 -0.37676215 0.44835401
-0.28560913 -0.37685481 0.44834879
-0.28587034 -0.37658414 0.44832161
-0.28577185 -0.37668243 0.44834158
-0.28603286 -0.37639451 0.44835877
-0.28596088 -0.37647763 0.44834271
-0.28620818 -0.37621525 0.4483403
-0.28612256 -0.37630767 0.44834161
-0.2863206 -0.37609306 0.44834325
-0.28649253 -0.37590894 0.4483327
-0.28665984 -0.37572467 0.44835067
-0.28680164 -0.3755706 0.44835413
-0.28697363 -0.37538657 0.44834262
-0.2868875 -0.37547845 0.44834986
-0.28714186 -0.37520283 0.44835198
-0.28705707 -0.37529472 0.44835126
-0.28731236 -0.37501866 0.44835037
-0.28722832 -0.37510988 0.44834867
-0.28750706 -0.37480333 0.44837618
-0.28742319 -0.37489617 0.44836459
-0.28767899 -0.37461919 0.44836566
-0.28759336 -0.37471163 0.44836697
-0.28773388 -0.37455815 0.44837475
-0.28801948 -0.37425026 0.44836846
-0.28796038 -0.37431261 0.44837728
-0.28807437 -0.3741892 0.44837755
-0.28886694 -0.3733629 0.4482078
-0.28895319 -0.37326968 0.4482075
-0.28920743 -0.37298235 0.44827375
-0.28930128 -0.37288022 0.448277
-0.28949177 -0.37268615 0.44821125
-0.28940633 -0.37277877 0.44821057
-0.28965807 -0.37250173 0.44823653
-0.28957289 -0.37259471 0.44823185
-0.28982985 -0.37231752 0.44822699
-0.28974366 -0.37240934 0.44823521
-0.29002821 -0.37210324 0.44822496
-0.28994387 -0.37219411 0.44822723
-0.29019916 -0.37191805 0.44822633
-0.29011354 -0.37201047 0.44822764
-0.29036841 -0.37173393 0.44823173
-0.29028386 -0.37182608 0.44822806
-0.29054201 -0.37154871 0.44821721
-0.2904537 -0.37164116 0.44823438
-0.2907064 -0.37136522 0.44824842
-0.29062411 -0.37145686 0.44823378
-0.29082 -0.37124237 0.44824803
-0.2909871 -0.37105787 0.44826862
-0.29115885 -0.37087357 0.44826007
-0.29132792 -0.37068927 0.44826746
-0.29149684 -0.37050483 0.44827679
-0.29163891 -0.37035158 0.44827402
-0.29181027 -0.37016681 0.44827041
-0.2917237 -0.3702597 0.4482747
-0.29200646 -0.36995167 0.44828629
-0.29192102 -0.37004426 0.44828558
-0.29217571 -0.36976758 0.44829166
-0.29209048 -0.36986044 0.44828799
-0.29234496 -0.36958346 0.44829702
-0.29225826 -0.36967617 0.44830331
-0.29251406 -0.36939919 0.44830438
-0.29243052 -0.36949095 0.44829673
-0.29268545 -0.36921453 0.44829983
-0.29259974 -0.36930686 0.44830209
-0.29279509 -0.36909226 0.44832
-0.29296651 -0.3689076 0.44831538
-0.29313478 -0.36872435 0.44832209
-0.29330453 -0.36853981 0.44832683
-0.29347226 -0.36835602 0.44833949
-0.29364216 -0.36817169 0.44834223
-0.29384163 -0.36795664 0.44833785
-0.29375616 -0.36804926 0.4483372
-0.29401055 -0.36777219 0.44834721
-0.29392692 -0.36786386 0.44834054
-0.25905621 -0.40557864 0.44840822
-0.25899929 -0.40564042 0.44840708
-0.25922698 -0.40539324 0.44841158
-0.25914142 -0.40548575 0.44841188
-0.25939927 -0.40520659 0.44841293
-0.25931406 -0.40529945 0.44840926
-0.25957122 -0.40501955 0.44841826
-0.25948578 -0.40511215 0.4484176
-0.25974318 -0.40483251 0.44842359
-0.25965726 -0.40492612 0.44841996
-0.25985727 -0.40470824 0.44842848
-0.26002905 -0.40452099 0.44843578
-0.26017138 -0.40436751 0.44843298
-0.26034343 -0.40418056 0.44843733
-0.2602582 -0.40427342 0.44843367
-0.26051453 -0.40399551 0.44843674
-0.26042914 -0.40408823 0.44843507
-0.26068598 -0.40380943 0.44844007
-0.26059991 -0.40390283 0.44843841
-0.26085714 -0.40362448 0.4484385
-0.26077101 -0.40371782 0.44843781
-0.26105702 -0.40340447 0.44845927
-0.26097119 -0.4034996 0.44844669
-0.26122791 -0.40322217 0.44844478
-0.26114267 -0.40331206 0.44845796
-0.26140001 -0.40303531 0.44844815
-0.26131329 -0.40312946 0.44844648
-0.26157063 -0.40284976 0.44845349
-0.2614848 -0.40294343 0.44844884
-0.26174039 -0.40266693 0.44842279
-0.26165617 -0.40275723 0.44845319
-0.26191106 -0.40248212 0.44839799
-0.26182634 -0.4025726 0.44843042
-0.26198062 -0.40240437 0.44844264
-0.26213977 -0.40223393 0.44842765
-0.26233959 -0.40201753 0.4484286
-0.26225466 -0.40210995 0.44842589
-0.26251048 -0.40183151 0.44843495
-0.26242542 -0.40192312 0.44843721
-0.26268172 -0.40164369 0.44844869
-0.26259628 -0.40173781 0.4484396
-0.26285231 -0.40145808 0.44845456
-0.2627669 -0.4015508 0.44845286
-0.26302332 -0.40127298 0.44845492
-0.26293752 -0.40136525 0.44845819
-0.26319385 -0.40108663 0.44846526
-0.2631093 -0.40117949 0.4484576
-0.26339376 -0.40087032 0.4484652
-0.26330775 -0.40096313 0.44846651
-0.263565 -0.40068549 0.44846261
-0.26347858 -0.40077925 0.44846094
-0.26373583 -0.40050098 0.44848621
-0.26365012 -0.40059254 0.44846731
-0.26380295 -0.40042576 0.44847006
-0.26396313 -0.4002516 0.44848004
-0.26413372 -0.400067 0.4484798
-0.26430452 -0.39988121 0.44848549
-0.26450393 -0.39966559 0.4484846
-0.26441842 -0.3997581 0.44848442
-0.26467413 -0.39947876 0.44849938
-0.26458895 -0.39957249 0.44849077
-0.26484472 -0.39929396 0.44850028
-0.26475906 -0.39938635 0.44850206
-0.2650153 -0.39910689 0.44851455
-0.26492923 -0.39920181 0.44850445
-0.26518583 -0.39892274 0.44851249
-0.26510087 -0.39901441 0.44851375
-0.26535642 -0.39873791 0.44851339
-0.26527113 -0.39882994 0.44851515
-0.26555583 -0.39852482 0.44852415
-0.26547042 -0.39861521 0.44851017
-0.26562339 -0.39844766 0.44851628
-0.26578251 -0.39827573 0.4485203
-0.2659528 -0.39808989 0.44852901
-0.26612321 -0.39790455 0.44853401
-0.26629335 -0.39771852 0.44854498
-0.26646361 -0.39753303 0.44855201
-0.26665357 -0.39732954 0.44854894
-0.26657724 -0.39740971 0.44855392
-0.26682398 -0.39714372 0.44855693
-0.26674771 -0.3972255 0.44855231
-0.26700217 -0.39694622 0.44854909
-0.26691672 -0.39703739 0.4485563
-0.26717481 -0.39676744 0.4485552
-0.26731718 -0.39661449 0.44854909
-0.26726073 -0.39667684 0.448542
-0.26748744 -0.39642859 0.44855842
-0.26743037 -0.39649019 0.44855928
-0.26933873 -0.39445758 0.44838357
-0.26950896 -0.3942731 0.448385
-0.2694242 -0.39436498 0.44838428
-0.26967901 -0.39408839 0.44838935
-0.26959392 -0.39418143 0.44838369
-0.26984882 -0.39390346 0.44839573
-0.26976389 -0.39399514 0.44839698
-0.27004793 -0.39368853 0.44839269
-0.26996273 -0.39378142 0.44838902
-0.27021855 -0.39350298 0.44839805
-0.27013266 -0.39359659 0.44839442
-0.27038944 -0.39332065 0.44838357
-0.27030298 -0.39341217 0.44839481
-0.27055752 -0.39313531 0.44840285
-0.27047321 -0.39322919 0.44838828
-0.27072731 -0.39294887 0.44841814
-0.27064261 -0.39304084 0.44841641
-0.27084133 -0.39282742 0.44840717
-0.27098215 -0.39267081 0.44843113
-0.27115297 -0.39248696 0.44842559
-0.27106732 -0.39257938 0.44842687
-0.27132243 -0.39230311 0.44842798
-0.2712377 -0.39239654 0.44841835
-0.27149245 -0.39211839 0.44843236
-0.27140766 -0.39221025 0.44843164
-0.27166319 -0.39193445 0.4484278
-0.27157789 -0.39202723 0.44842511
-0.27183253 -0.39175045 0.44843218
-0.27174866 -0.39184186 0.44842848
-0.27203038 -0.39153564 0.44843611
-0.27194571 -0.39162612 0.44844234
-0.27220035 -0.39134935 0.4484494
-0.27211511 -0.39144224 0.44844574
-0.27236941 -0.39116508 0.44845676
-0.27228495 -0.39125729 0.44845212
-0.2725392 -0.3909786 0.44847205
-0.27245373 -0.3910712 0.44847137
-0.27270976 -0.39079595 0.44846153
-0.27262449 -0.39088729 0.44846678
-0.27282324 -0.39067391 0.44845721
-0.27299222 -0.39048955 0.44846585
-0.27316245 -0.39030555 0.44846463
-0.27330321 -0.39015132 0.44847536
-0.2734738 -0.3899672 0.4484728
-0.27338874 -0.39005882 0.44847506
-0.27364269 -0.38978276 0.44848216
-0.27355847 -0.38987526 0.4484745
-0.27381217 -0.38959894 0.44848454
-0.27372724 -0.38969064 0.44848582
-0.27398598 -0.38942015 0.44843528
-0.27391812 -0.3894901 0.44845381
-0.27418053 -0.38919991 0.44848692
-0.27409506 -0.38929254 0.44848621
-0.27435303 -0.38902116 0.44844559
-0.274266 -0.38910732 0.44848761
-0.27452233 -0.38883716 0.44844997
-0.27443808 -0.38892812 0.44845125
-0.27469218 -0.38865221 0.44845632
-0.27460757 -0.38874429 0.44845361
-0.27486762 -0.38847524 0.44838718
-0.27479306 -0.38853973 0.44847441
-0.27498642 -0.38833302 0.4484604
-0.27513409 -0.38817379 0.44845739
-0.27532652 -0.38795987 0.44848841
-0.27548534 -0.38779476 0.44845191
-0.27565554 -0.38761124 0.44844839
-0.27583569 -0.38741413 0.44845986
-0.27599731 -0.38724506 0.44842914
-0.27593452 -0.38729927 0.44850206
-0.27618372 -0.38703862 0.44845524
-0.27607709 -0.38714802 0.44848502
-0.27633196 -0.38687325 0.4484821
-0.27625504 -0.386953 0.44850048
-0.27650464 -0.38668951 0.44844303
-0.27642274 -0.38677436 0.44847274
-0.27667272 -0.38650757 0.44846505
-0.27658826 -0.38659906 0.44846436
-0.27684662 -0.38632745 0.44842273
-0.27677399 -0.3863959 0.44847623
-0.27695647 -0.38620159 0.44845906
-0.27712563 -0.38601694 0.44846845
-0.27729514 -0.38583264 0.44847319
-0.27746525 -0.38564947 0.44846824
-0.27764374 -0.38545951 0.44845212
-0.27779576 -0.38528985 0.44848034
-0.27800831 -0.38506132 0.44847259
-0.27791536 -0.38515675 0.4484998
-0.27816841 -0.38489062 0.44844824
-0.27809072 -0.38498002 0.44843262
-0.27834788 -0.38469431 0.44847026
-0.27826342 -0.38479677 0.44841218
-0.27851638 -0.38451964 0.44843113
-0.2784282 -0.38460842 0.44846559
-0.27867866 -0.38434097 0.44844657
-0.27859676 -0.38442457 0.4484736
-0.27885723 -0.38415259 0.44842103
-0.27875209 -0.38425484 0.44848168
-0.2790302 -0.38397142 0.4483906
-0.2789602 -0.38403961 0.44842908
-0.27912208 -0.38386381 0.44843268
-0.27927697 -0.38369015 0.44846439
-0.27944851 -0.3835071 0.44845212
-0.27961195 -0.383333 0.44843891
-0.27978835 -0.38313916 0.44844416
-0.27997097 -0.38294464 0.4484373
-0.27989948 -0.38301489 0.44847375
-0.28015557 -0.38274154 0.44845545
-0.28007117 -0.38283384 0.44845027
-0.28032517 -0.38255781 0.44845685
-0.28023624 -0.38264385 0.44848904
-0.28049445 -0.38237375 0.44846174
-0.28041065 -0.38246524 0.44845706
-0.28066328 -0.38218921 0.44847208
-0.2805782 -0.38228071 0.44847533
-0.28084272 -0.38200086 0.44844112
-0.28075022 -0.38209823 0.44845492
-0.28101489 -0.38181257 0.44845343
-0.2809431 -0.38188967 0.44845548
-0.28120035 -0.381607 0.44847783
-0.28111544 -0.38169727 0.44848704
-0.28137547 -0.38142526 0.44843745
-0.28128549 -0.38151479 0.44847852
-0.28155264 -0.38124463 0.44838101
-0.28143841 -0.38134834 0.44848338
-0.2816067 -0.38117117 0.44845849
-0.28176859 -0.38099387 0.44846824
-0.28194788 -0.38079748 0.44848198
-0.28187796 -0.38086945 0.44849938
-0.28214267 -0.38059011 0.44846433
-0.2820484 -0.38068706 0.4484908
-0.28230792 -0.38041303 0.44845572
-0.28222331 -0.38050458 0.44845566
-0.28247747 -0.38022923 0.44845745
-0.28238863 -0.3803193 0.44848865
-0.28264698 -0.38004544 0.44845924
-0.28256223 -0.38013688 0.44846115
-0.28281695 -0.37986064 0.44846424
-0.28273275 -0.37995315 0.44845656
-0.28300333 -0.37966225 0.44844747
-0.28292212 -0.37974373 0.4484807
-0.28318632 -0.37946275 0.44845435
-0.28310135 -0.3795549 0.44845334
-0.28335479 -0.37927783 0.44846901
-0.28327093 -0.37937069 0.44845736
-0.28352353 -0.37909314 0.44848096
-0.28343907 -0.37918589 0.4484733
-0.2836943 -0.37890974 0.4484731
-0.2836087 -0.37900171 0.4484767
-0.28386748 -0.3787269 0.44845027
-0.28378984 -0.37880415 0.44848481
-0.28404188 -0.37854433 0.44841874
-0.28396115 -0.37862077 0.44847426
-0.28413364 -0.37843734 0.44845691
-0.28402719 -0.37853864 0.44852838
-0.28428939 -0.37826645 0.44846973
-0.28419983 -0.37835568 0.44850984
-0.28445819 -0.37808183 0.4484804
-0.28437442 -0.37817383 0.44847274
-0.28462651 -0.37789774 0.44849136
-0.28454205 -0.37798896 0.44849202
-0.28480506 -0.377709 0.44845635
-0.28471294 -0.37780571 0.44848284
-0.28498256 -0.37751547 0.44847608
-0.28490341 -0.37760076 0.44846439
-0.28516436 -0.37731576 0.44849411
-0.28507909 -0.37740707 0.44849938
-0.28533638 -0.3771317 0.44848257
-0.28525203 -0.37722331 0.44848037
-0.28550327 -0.37694618 0.44850722
-0.2854245 -0.37703678 0.44845605
-0.2856769 -0.3767643 0.44847643
-0.28559318 -0.37685585 0.44847125
-0.28585014 -0.3765763 0.44845557
-0.28576905 -0.37666395 0.44846568
-0.28602153 -0.37639725 0.44844633
-0.28594202 -0.37647557 0.44847441
-0.28613457 -0.37627009 0.44844687
-0.28629589 -0.37609416 0.44846034
-0.28646377 -0.37591001 0.44847444
-0.28636831 -0.37601891 0.44838938
-0.28661346 -0.37574825 0.44846714
-0.28653538 -0.37583539 0.4484047
-0.28678393 -0.37556407 0.44846559
-0.28669879 -0.37565652 0.44846389
-0.28696045 -0.37537363 0.44845828
-0.28687927 -0.37545687 0.44849342
-0.28713894 -0.37518367 0.44842207
-0.28706169 -0.37526798 0.44844246
-0.28732556 -0.37497991 0.44844443
-0.2872355 -0.3750734 0.44847727
-0.28749156 -0.37479672 0.44847503
-0.28740606 -0.37488922 0.448475
-0.28766096 -0.37461281 0.44847843
-0.28757524 -0.37470511 0.44848073
-0.28783321 -0.37443012 0.44846556
-0.28775182 -0.37451738 0.44846696
-0.28800353 -0.37424314 0.44846189
-0.28792182 -0.37432969 0.44848979
-0.28818572 -0.37406585 0.4483937
-0.28811377 -0.37412226 0.44848475
-0.28828177 -0.37394476 0.44846287
-0.28845933 -0.37375465 0.44844976
-0.28862339 -0.37357673 0.44845396
-0.28879213 -0.37339503 0.44845349
-0.2889626 -0.37321043 0.44845462
-0.28885442 -0.37331814 0.44844896
-0.28911954 -0.37304223 0.44843429
-0.28904879 -0.37310767 0.44848675
-0.2893106 -0.37283382 0.44844809
-0.28922153 -0.37292367 0.44847029
-0.28947622 -0.37264967 0.44847599
-0.28939101 -0.37274203 0.448475
-0.289646 -0.37246618 0.44847476
-0.28956118 -0.37255797 0.44847441
-0.28981781 -0.37228188 0.44846559
-0.28973201 -0.37237367 0.44847146
-0.28998953 -0.37209597 0.44845465
-0.28991276 -0.37217656 0.44848293
-0.29016626 -0.37191674 0.44842723
-0.2900908 -0.37198147 0.4484899
-0.29026142 -0.37179792 0.44848481
-0.29044777 -0.3715966 0.44847903
-0.2906079 -0.37142214 0.44849265
-0.29077584 -0.37123823 0.44850466
-0.29094034 -0.37106144 0.44849509
-0.29113251 -0.3708573 0.44847327
-0.29105446 -0.37092474 0.44852081
-0.2913079 -0.37066588 0.44848797
-0.29123133 -0.37074569 0.44849139
-0.29147783 -0.37048158 0.44849002
-0.29137957 -0.37058008 0.44850734
-0.29164752 -0.37029791 0.44849011
-0.29154882 -0.37039599 0.4485127
-0.29179424 -0.37013263 0.44851363
-0.29171732 -0.37021208 0.44852138
-0.2919732 -0.36995292 0.44847527
-0.29187912 -0.37004012 0.44851732
-0.29214275 -0.36976916 0.44847667
-0.29205823 -0.3698613 0.44847301
-0.29225311 -0.36964664 0.4484942
-0.29242513 -0.36946264 0.44848236
-0.29259381 -0.36927795 0.44849432
-0.29276431 -0.36909425 0.44848976
-0.29293257 -0.36891007 0.44850174
-0.29309848 -0.36872625 0.44852567
-0.29329634 -0.36851144 0.44852966
-0.2932108 -0.36860394 0.44852996
-0.29346576 -0.3683275 0.44853303
-0.29338053 -0.36842039 0.44852936
-0.2936365 -0.36814356 0.44852847
-0.29355147 -0.36823517 0.44853073
-0.29380482 -0.36795995 0.44853684
-0.29371887 -0.36805201 0.44854209
-0.29397613 -0.3677752 0.44853324
-0.29389092 -0.36786807 0.44852957
-0.25783229 -0.40685037 0.44869748
-0.25774691 -0.40694305 0.44869581
-0.25800383 -0.40666288 0.44870776
-0.25791854 -0.40675566 0.44870511
-0.25817502 -0.40647793 0.44870618
-0.25808963 -0.40657064 0.44870448
-0.25834721 -0.40629119 0.44870853
-0.25826192 -0.40638396 0.44870585
-0.25849012 -0.40613732 0.44870439
-0.25843301 -0.40619895 0.44870526
-0.25866055 -0.40595159 0.44871172
-0.2585755 -0.40604463 0.44870609
-0.25877604 -0.40582386 0.44872722
-0.25894767 -0.40563646 0.44873652
-0.25917682 -0.40538797 0.44873962
-0.25926167 -0.40529618 0.44873935
-0.26668957 -0.39728218 0.44856173
-0.26686066 -0.39709717 0.44856113
-0.26700389 -0.3969512 0.44856176
-0.26691979 -0.39704233 0.44856104
-0.26717144 -0.39675769 0.44857925
-0.26708829 -0.39685512 0.44856304
-0.26735228 -0.3965672 0.44856718
-0.26725698 -0.39666519 0.44857895
-0.2675139 -0.39639321 0.44857049
-0.26742718 -0.39648217 0.4485724
-0.26771346 -0.39618251 0.44856691
-0.26760986 -0.39628801 0.44857311
-0.26777959 -0.39610204 0.44858605
-0.26793814 -0.39592978 0.44859514
-0.26810914 -0.39574564 0.44859025
-0.26827872 -0.39556041 0.4485999
-0.26844937 -0.39537635 0.44859636
-0.26861909 -0.39519036 0.44860962
-0.26881716 -0.39497572 0.44861129
-0.26873201 -0.39506871 0.44860661
-0.26898694 -0.39478856 0.44863051
-0.26890212 -0.39488259 0.44861794
-0.26915717 -0.39460403 0.44863242
-0.26907143 -0.39469561 0.44863915
-0.26932698 -0.39441985 0.4486348
-0.26924199 -0.39451295 0.44862866
-0.26948795 -0.39424765 0.44863233
-0.26941156 -0.39432776 0.44863799
-0.26966888 -0.39405766 0.44861668
-0.26958105 -0.39414054 0.44864666
-0.26986656 -0.39384115 0.44863153
-0.2697621 -0.39394572 0.44864807
-0.26993257 -0.39376116 0.44864863
-0.27009115 -0.3935903 0.44864953
-0.27026132 -0.39340577 0.44865227
-0.27043036 -0.39322042 0.44866559
-0.27060011 -0.39303491 0.44867587
-0.27079862 -0.39282098 0.44867107
-0.27071318 -0.39291292 0.44867384
-0.2709676 -0.39263666 0.44867939
-0.27088392 -0.39272898 0.44866925
-0.27113789 -0.39245299 0.44867584
-0.2710529 -0.39254463 0.44867763
-0.27130726 -0.39226753 0.44868815
-0.27122253 -0.39235944 0.44868696
-0.27147689 -0.39208311 0.44869304
-0.27139202 -0.39217561 0.44868937
-0.27164921 -0.39190686 0.44866109
-0.27157944 -0.3919673 0.44871151
-0.27184951 -0.39169475 0.44863528
-0.2717641 -0.39178589 0.44864249
-0.27201697 -0.39150867 0.44866249
-0.27193308 -0.39160153 0.44865084
-0.2721861 -0.39132151 0.44868571
-0.27210179 -0.39141536 0.4486711
-0.2722702 -0.39123037 0.44868642
-0.27239692 -0.39108944 0.44869518
-0.27258268 -0.39089477 0.44867244
-0.27278051 -0.39067942 0.44867969
-0.27269563 -0.39077118 0.44867998
-0.27294943 -0.39049494 0.44868904
-0.27286473 -0.39058691 0.44868734
-0.27311999 -0.39031082 0.44868648
-0.27303478 -0.39040372 0.44868279
-0.27328926 -0.39012673 0.44869184
-0.27320355 -0.39021906 0.44869411
-0.2734583 -0.38994247 0.44869918
-0.27337375 -0.39003605 0.44868758
-0.27365538 -0.38972676 0.44871306
-0.27357066 -0.38982016 0.44870347
-0.2738249 -0.38954592 0.44869861
-0.27374089 -0.38963568 0.44870484
-0.2739937 -0.3893584 0.44872582
-0.27390948 -0.38945234 0.44871023
-0.27416441 -0.38917589 0.4487133
-0.27407822 -0.38926768 0.44872156
-0.27433562 -0.38899395 0.44869488
-0.27424943 -0.38908577 0.44870311
-0.27450389 -0.38880879 0.44871214
-0.27441889 -0.38890192 0.44870549
-0.27461556 -0.38868579 0.44872436
-0.27478525 -0.38850212 0.44872442
-0.27492756 -0.38835061 0.44871071
-0.27509737 -0.38816714 0.44870913
-0.27501309 -0.3882581 0.44871041
-0.27526563 -0.38798198 0.44872642
-0.27518114 -0.38807565 0.44871381
-0.27543527 -0.38779831 0.44872683
-0.2753489 -0.38788995 0.44873706
-0.27563196 -0.38758516 0.4487288
-0.27554736 -0.38767576 0.44873405
-0.27580202 -0.38740197 0.44872427
-0.2757175 -0.38749266 0.4487285
-0.27597344 -0.38721728 0.44871968
-0.27588797 -0.38730991 0.44871899
-0.27614212 -0.38703555 0.44871515
-0.27605718 -0.38712725 0.44871646
-0.27631024 -0.38685021 0.44873443
-0.27622581 -0.38694099 0.44873768
-0.27642366 -0.38672718 0.44873604
-0.27698916 -0.38611597 0.44873211
-0.27816218 -0.38487551 0.44857645
-0.27807844 -0.38496852 0.44856286
-0.27824786 -0.38478461 0.44856623
-0.27847451 -0.38453925 0.44856679
-0.27853158 -0.38447765 0.4485659
-0.27881381 -0.38417196 0.4485676
-0.27892599 -0.38404855 0.4485791
-0.27909747 -0.38386592 0.44856265
-0.27949241 -0.38343737 0.44856924
-0.27960426 -0.38331464 0.44858572
-0.2795361 -0.38337043 0.44870669
-0.2798028 -0.38310042 0.44857544
-0.27971843 -0.38319129 0.44857773
-0.27997303 -0.38291594 0.44857687
-0.27988881 -0.38300845 0.44856921
-0.28014192 -0.38273293 0.44857827
-0.28005806 -0.38282436 0.44857457
-0.28031084 -0.38254851 0.4485876
-0.28022826 -0.38264132 0.44856805
-0.28048 -0.3823643 0.44859397
-0.2803942 -0.38245654 0.44859725
-0.28065112 -0.38218227 0.44857651
-0.28056562 -0.38227189 0.44859269
-0.28084913 -0.38196763 0.44857848
-0.28076512 -0.38205886 0.44857678
-0.28101724 -0.38178229 0.44859776
-0.28093451 -0.38187492 0.44858015
-0.28110272 -0.38168967 0.44859844
-0.28124392 -0.38153794 0.44859233
-0.28141329 -0.38135397 0.44859639
-0.28158018 -0.38116828 0.44862494
-0.28178084 -0.38095456 0.44860604
-0.28169438 -0.38104609 0.44861728
-0.28195065 -0.38077107 0.44860446
-0.28186527 -0.38086376 0.4486028
-0.2821185 -0.38058692 0.44861877
-0.28203419 -0.38067931 0.44861215
-0.28228664 -0.3804031 0.44862914
-0.28220245 -0.38049415 0.44862941
-0.28245762 -0.38021943 0.4486216
-0.2823717 -0.38031006 0.4486348
-0.28265455 -0.38000509 0.44862854
-0.28256994 -0.38009712 0.44862586
-0.28282696 -0.37982148 0.44861206
-0.28274143 -0.37991399 0.44861236
-0.28299668 -0.37963793 0.44861147
-0.28291097 -0.37973025 0.44861376
-0.28316626 -0.3794542 0.44861287
-0.28308091 -0.37954542 0.44861913
-0.28333583 -0.37927043 0.4486143
-0.28325212 -0.37936205 0.44860861
-0.28350461 -0.37908581 0.44862562
-0.28341657 -0.37917709 0.44864774
-0.28361768 -0.37896338 0.44862589
-0.28375804 -0.37881067 0.44863069
-0.28392994 -0.37862653 0.44862017
-0.28384438 -0.37871906 0.44862047
-0.28409684 -0.37844282 0.44863749
-0.2840125 -0.37853369 0.44863975
-0.28426692 -0.3782582 0.44864088
-0.2841852 -0.37835047 0.44861931
-0.28443664 -0.37807465 0.44864029
-0.28434929 -0.37816662 0.44865447
-0.28463569 -0.37785962 0.44863826
-0.2845493 -0.37795269 0.44864056
-0.28480342 -0.37767681 0.44864565
-0.28472021 -0.37776893 0.44863403
-0.28497645 -0.37749392 0.44862121
-0.28489071 -0.37758473 0.44863242
-0.28514761 -0.37731075 0.44861263
-0.28506437 -0.3774021 0.44860545
-0.28531885 -0.37712589 0.44861004
-0.28523338 -0.37721848 0.44860935
-0.28548273 -0.37694004 0.44865522
-0.28540266 -0.37703449 0.44861424
-0.28566352 -0.37676036 0.44857106
-0.28558931 -0.3768318 0.44861746
-0.28577101 -0.37663591 0.44861412
-0.28593925 -0.37645164 0.44862643
-0.28610975 -0.37626743 0.44862485
-0.28627816 -0.37608346 0.44863486
-0.28642067 -0.37593043 0.4486281
-0.28660065 -0.37573624 0.44862568
-0.28652108 -0.37581733 0.44865203
-0.28678584 -0.37553161 0.44864833
-0.28670087 -0.37562329 0.44865012
-0.28695709 -0.37534821 0.44863784
-0.28687209 -0.37543988 0.4486396
-0.28713065 -0.37516525 0.44861367
-0.28704605 -0.37525687 0.44861329
-0.28730127 -0.37498069 0.44861308
-0.28721076 -0.3750726 0.4486444
-0.28747395 -0.37479737 0.44859329
-0.28739744 -0.37486988 0.44864765
-0.28764367 -0.37461382 0.44859269
-0.28756711 -0.37468562 0.44865146
-0.28774741 -0.37448964 0.44865695
-0.28791687 -0.37430528 0.44866237
-0.28808752 -0.37412128 0.44865873
-0.28826737 -0.37393063 0.44863856
-0.28843087 -0.3737545 0.44863498
-0.28861734 -0.37355298 0.44863382
-0.28853273 -0.37363023 0.44870827
-0.28878897 -0.37336951 0.44862151
-0.28871012 -0.37344652 0.44866487
-0.28896815 -0.37317184 0.4486421
-0.28888461 -0.37326357 0.44863474
-0.28911701 -0.37301946 0.44859618
-0.28905994 -0.37308109 0.44859701
-0.28927815 -0.37283453 0.44865263
-0.28919446 -0.37292662 0.44864401
-0.28945339 -0.37265193 0.44861585
-0.28935772 -0.37274939 0.44864807
-0.28962356 -0.37246734 0.44861826
-0.28954273 -0.37254563 0.44866633
-0.28972933 -0.37234443 0.44866318
-0.28989315 -0.37216926 0.44865301
-0.29007378 -0.37197673 0.44863757
-0.29025364 -0.37178403 0.44862792
-0.29040927 -0.37161681 0.44862241
-0.29058176 -0.37142467 0.44865105
-0.29078004 -0.3712098 0.44865283
-0.29069537 -0.37130183 0.44865066
-0.29095748 -0.37102014 0.4486413
-0.29086259 -0.37111849 0.44866395
-0.29112217 -0.37084302 0.44863617
-0.29103863 -0.37093481 0.44862852
-0.29129228 -0.3706584 0.44863951
-0.29120812 -0.37074995 0.44863653
-0.29146233 -0.37047467 0.44863796
-0.29137734 -0.37056684 0.44863662
-0.29163796 -0.37028491 0.44863725
-0.29155868 -0.37036693 0.4486559
-0.29178131 -0.37013808 0.44859529
-0.29173484 -0.37017441 0.44866681
-0.2918908 -0.37000778 0.44864908
-0.29205671 -0.36982822 0.4486393
-0.29222554 -0.36964437 0.44864583
-0.29239634 -0.36946031 0.44864157
-0.29257226 -0.36927041 0.44863787
-0.29249343 -0.36934119 0.4487316
-0.29274777 -0.36907941 0.44864219
-0.29266942 -0.369156 0.44870508
-0.29293209 -0.36887744 0.448659
-0.29284716 -0.3689695 0.44865808
-0.29310131 -0.36869404 0.44866073
-0.29301727 -0.36878565 0.44865698
-0.29327267 -0.36850917 0.4486537
-0.29318869 -0.36860093 0.44864872
-0.29344299 -0.36832523 0.44865146
-0.29335749 -0.36841735 0.44865409
-0.29362071 -0.36813107 0.448661
-0.29354587 -0.36821026 0.44867936
-0.29379138 -0.36794674 0.44866011
-0.29371804 -0.36802611 0.44866952
-0.29397678 -0.36774671 0.44868019
-0.29388359 -0.36784706 0.44865274
-0.29398718 -0.36773479 0.44861332
-0.25909042 -0.40548104 0.44874191
-0.25934774 -0.40520275 0.44874102
-0.25946164 -0.40507922 0.4487426
-0.25963274 -0.4048942 0.448742
-0.25980416 -0.40470853 0.44874272
-0.2599754 -0.4045217 0.44875136
-0.25991866 -0.40458369 0.44874823
-0.26014721 -0.40433452 0.44875866
-0.26006159 -0.40442693 0.44875997
-0.2603181 -0.40415221 0.44874418
-0.26023197 -0.4042441 0.44875145
-0.26048908 -0.4039641 0.44876143
-0.26040316 -0.40405917 0.44874984
-0.26065984 -0.4037787 0.4487648
-0.26057458 -0.40387005 0.44877005
-0.2608318 -0.40359169 0.44877014
-0.26074523 -0.40368602 0.44876647
-0.26100209 -0.40340576 0.44877946
-0.26091677 -0.40349853 0.44877678
-0.26111606 -0.40328333 0.44877443
-0.26128682 -0.40309796 0.44877779
-0.26145813 -0.40291214 0.44878051
-0.26162884 -0.40272665 0.4487845
-0.26179931 -0.40254292 0.44878063
-0.26194167 -0.4023895 0.44877714
-0.26211286 -0.40220457 0.44877559
-0.26202711 -0.4022969 0.44877785
-0.26231205 -0.40198827 0.44877949
-0.26222685 -0.40208113 0.44877583
-0.26248303 -0.40180019 0.44879675
-0.26239714 -0.40189379 0.44879311
-0.26265246 -0.40161625 0.44880015
-0.26256791 -0.40170839 0.44879645
-0.26282448 -0.40142632 0.44882131
-0.26273814 -0.40152094 0.44881469
-0.2629942 -0.40124276 0.44882074
-0.26290905 -0.40133572 0.44881606
-0.26316425 -0.40105957 0.44881618
-0.26307976 -0.40115026 0.44882044
-0.26327857 -0.40093651 0.44881248
-0.2634491 -0.40075085 0.44881916
-0.26361951 -0.40056607 0.44882122
-0.26376075 -0.40041238 0.44882601
-0.26393211 -0.40022761 0.44882244
-0.26384631 -0.40031984 0.44882572
-0.26410222 -0.40004152 0.44883373
-0.26401773 -0.40013519 0.44882113
-0.26427263 -0.39985722 0.44883317
-0.26418751 -0.39994872 0.44883642
-0.26447061 -0.39964104 0.44884405
-0.264386 -0.39973462 0.44883245
-0.26464206 -0.39945349 0.44885534
-0.26455694 -0.39954644 0.44885069
-0.26481277 -0.39927098 0.44884282
-0.26472652 -0.39936268 0.44885206
-0.26498273 -0.39908472 0.44885612
-0.26489663 -0.39917958 0.44884652
-0.26515216 -0.39890081 0.44885951
-0.2650665 -0.39899322 0.44886082
-0.26532188 -0.39871722 0.44885895
-0.26523787 -0.39880848 0.44885725
-0.26543561 -0.39859256 0.4488678
-0.26560584 -0.39840755 0.44887248
-0.26577583 -0.39822426 0.4488686
-0.26591828 -0.39806995 0.44886976
-0.26608825 -0.39788666 0.44886619
-0.26600304 -0.39797953 0.44886252
-0.26625848 -0.39770067 0.4488765
-0.26617315 -0.39779344 0.44887385
-0.26642823 -0.39751565 0.44888386
-0.26634327 -0.39760733 0.44888514
-0.26662716 -0.39730054 0.44888282
-0.26654151 -0.39739442 0.4488762
-0.26679626 -0.39711627 0.44889021
-0.26671115 -0.39720777 0.44889349
-0.26696679 -0.39693359 0.44887969
-0.2668823 -0.39702427 0.44888395
-0.26713654 -0.39675003 0.44887912
-0.26705122 -0.39684284 0.44887644
-0.26730633 -0.39656359 0.44889438
-0.26722151 -0.3966569 0.44888574
-0.26741943 -0.39644113 0.44889465
-0.26758936 -0.39625585 0.4489027
-0.26778752 -0.39604133 0.44890299
-0.26787233 -0.39594802 0.44891161
-0.26815441 -0.39564216 0.4489153
-0.26821116 -0.3955802 0.4489184
-0.27167052 -0.3918606 0.44874027
-0.2717554 -0.39176738 0.4487479
-0.27189726 -0.39161339 0.44875073
-0.27206597 -0.39142871 0.44876274
-0.27223611 -0.39124656 0.44875154
-0.27243426 -0.39103305 0.44874656
-0.27260321 -0.39084715 0.44876385
-0.27251974 -0.39094046 0.44874725
-0.27277249 -0.3906616 0.44877714
-0.27268767 -0.39075494 0.4487685
-0.27294129 -0.39047852 0.44877955
-0.27285677 -0.39057067 0.44877589
-0.27311116 -0.3902936 0.4487859
-0.2730259 -0.39038348 0.4487991
-0.27328151 -0.39011076 0.44877738
-0.27319738 -0.39020479 0.44876081
-0.2734499 -0.38992569 0.44879368
-0.27336434 -0.39001819 0.44879398
-0.27364695 -0.38970998 0.44880754
-0.27356213 -0.38980329 0.44879892
-0.27381554 -0.38952518 0.44882086
-0.2737312 -0.38961902 0.44880629
-0.27398691 -0.38934338 0.44880044
-0.27390003 -0.38943446 0.44881663
-0.27407068 -0.38925189 0.44880512
-0.27421021 -0.38909635 0.44883075
-0.27437961 -0.38891244 0.44883418
-0.27457687 -0.38869792 0.44884008
-0.2744931 -0.3887924 0.44881856
-0.27474478 -0.38851386 0.44885343
-0.27465957 -0.38860527 0.44885767
-0.27491271 -0.38832831 0.44887468
-0.274829 -0.38842136 0.44886106
-0.27508232 -0.38814312 0.44888401
-0.27499792 -0.38823691 0.44887042
-0.27525413 -0.38796479 0.44884175
-0.2751675 -0.38805315 0.44887182
-0.27545184 -0.38774979 0.44884771
-0.27536663 -0.38784122 0.44885194
-0.27562171 -0.38756642 0.44884515
-0.27553627 -0.38765901 0.44884443
-0.27578929 -0.38738343 0.44885451
-0.27570617 -0.38747567 0.44884187
-0.27595755 -0.38719827 0.44887179
-0.2758745 -0.38729057 0.44885814
-0.27612534 -0.38701257 0.44889501
-0.27604112 -0.38710505 0.44888735
-0.2762371 -0.38688865 0.44891188
-0.27640724 -0.3867065 0.44890067
-0.27659139 -0.38654235 0.44875464
-0.27676114 -0.38635883 0.44875407
-0.2768949 -0.38619733 0.44882232
-0.27680144 -0.38627818 0.44891059
-0.27708212 -0.38599664 0.44881719
-0.2769728 -0.38609642 0.44889015
-0.2772682 -0.38580778 0.44876686
-0.27714109 -0.38591126 0.44890743
-0.27743804 -0.38562432 0.44876501
-0.27760625 -0.38544106 0.44877237
-0.27755085 -0.38550156 0.44876921
-0.27777645 -0.38525802 0.44876581
-0.27769163 -0.38534838 0.44877404
-0.2779457 -0.38507393 0.44877118
-0.27786142 -0.38516635 0.4487645
-0.27811575 -0.38489074 0.44876665
-0.2780304 -0.38498199 0.44877288
-0.27828574 -0.38470975 0.44876951
-0.27821156 -0.38479125 0.44875622
-0.27839732 -0.38458434 0.44877625
-0.27856717 -0.38440087 0.44877434
-0.278736 -0.38421735 0.44877908
-0.27890399 -0.38403285 0.44879436
-0.279073 -0.38384947 0.44879714
-0.27924386 -0.38366616 0.44878861
-0.27944034 -0.38345233 0.4487952
-0.27935702 -0.38354281 0.44879347
-0.27961028 -0.38326749 0.44880056
-0.27952522 -0.38336053 0.4487949
-0.27977875 -0.38308549 0.44879901
-0.27969414 -0.38317609 0.44880426
-0.27995044 -0.38290262 0.44878253
-0.27986535 -0.38299415 0.44878581
-0.28011531 -0.38271669 0.44882464
-0.28003192 -0.38281009 0.44880706
-0.280316 -0.38250345 0.44880277
-0.28022945 -0.38259488 0.44881502
-0.28048816 -0.38232258 0.44877243
-0.28040349 -0.38241309 0.44877869
-0.28057024 -0.38222921 0.44879794
-0.28071225 -0.38207635 0.4487935
-0.28087878 -0.38189125 0.44882071
-0.28104416 -0.38170591 0.44885656
-0.28124487 -0.38149321 0.44883138
-0.28115639 -0.38158253 0.44886741
-0.28141481 -0.38130984 0.44882882
-0.28133044 -0.3814007 0.44883108
-0.28158706 -0.3811276 0.44880539
-0.28149816 -0.3812179 0.44883847
-0.28175539 -0.38094395 0.44881374
-0.28167284 -0.38103682 0.44879419
-0.28192651 -0.38076049 0.44880423
-0.2818411 -0.38085163 0.44881147
-0.28209281 -0.38057607 0.44882947
-0.282011 -0.38066825 0.44880891
-0.28229272 -0.38036203 0.44881654
-0.28220677 -0.38045412 0.44882181
-0.28246197 -0.38017794 0.44882193
-0.28237891 -0.38027167 0.44880038
-0.28262588 -0.37999392 0.4488591
-0.28254175 -0.38008651 0.44885045
-0.28279829 -0.37981033 0.44884261
-0.28271216 -0.37990221 0.44884986
-0.28296632 -0.37962788 0.44884604
-0.28288287 -0.37971973 0.44883737
-0.28307995 -0.37950501 0.44884562
-0.28322136 -0.37935153 0.44884813
-0.28339183 -0.37916878 0.44883859
-0.28330466 -0.3792595 0.44885874
-0.28355926 -0.37898415 0.44885787
-0.28347722 -0.37907609 0.44884029
-0.28373098 -0.37880129 0.44884139
-0.28364477 -0.37889311 0.44884965
-0.28389856 -0.37861687 0.44885871
-0.28381467 -0.3787097 0.44884709
-0.28409544 -0.37840241 0.44886664
-0.28401089 -0.37849456 0.44886297
-0.28426531 -0.37821904 0.44886407
-0.28418037 -0.37831074 0.44886535
-0.28443506 -0.37803549 0.44886348
-0.28435028 -0.37812734 0.44886279
-0.28460544 -0.37785265 0.44885498
-0.2845194 -0.37794462 0.44886124
-0.28477219 -0.37766877 0.44887426
-0.28468832 -0.37776017 0.44887057
-0.28494772 -0.37748566 0.44883591
-0.28486192 -0.3775779 0.44883919
-0.28505704 -0.37736297 0.44886068
-0.28522769 -0.37717947 0.44885418
-0.28539607 -0.37699541 0.44886482
-0.28556362 -0.37681141 0.44887948
-0.28573388 -0.37662745 0.44887826
-0.28590214 -0.37644425 0.44888428
-0.28606835 -0.3762598 0.44891018
-0.28601328 -0.37632066 0.44890308
-0.28623924 -0.37607747 0.44889569
-0.28615463 -0.37616807 0.44890097
-0.28640798 -0.37589285 0.44890705
-0.28632462 -0.37598479 0.44889742
-0.28658038 -0.37570927 0.44889057
-0.28649458 -0.3758015 0.44889385
-0.28674778 -0.3755261 0.44890189
-0.28666416 -0.37561774 0.44889525
-0.28686056 -0.37540329 0.44890615
-0.28702912 -0.37521943 0.44891417
-0.28719988 -0.37503609 0.4489063
-0.28736877 -0.37485251 0.44891104
-0.28753754 -0.37466893 0.44891641
-0.28767914 -0.37451565 0.44891658
-0.28793293 -0.37424085 0.44891772
-0.28799 -0.37417924 0.44891685
-0.28841549 -0.37372014 0.44890943
-0.28855628 -0.37356693 0.44891423
-0.28850153 -0.37362817 0.44890317
-0.28909302 -0.37301728 0.4487454
-0.28903627 -0.37307927 0.4487423
-0.2894038 -0.37268078 0.44874668
-0.28991327 -0.37212896 0.44874987
-0.29005614 -0.37197557 0.44874275
-0.29022524 -0.37179133 0.44875011
-0.29042268 -0.37157699 0.44875407
-0.29033744 -0.37166986 0.44875041
-0.29059124 -0.37139362 0.44875947
-0.29050618 -0.37148523 0.44876173
-0.2907593 -0.37120974 0.44877082
-0.29067528 -0.37130097 0.44876909
-0.29093072 -0.37102509 0.44876623
-0.29084566 -0.37111813 0.44876057
-0.29110068 -0.37084177 0.44876266
-0.29101658 -0.37093291 0.44876194
-0.29129413 -0.370628 0.44878751
-0.29121166 -0.37071949 0.44877487
-0.29146636 -0.37044424 0.448773
-0.29138133 -0.37053585 0.44877529
-0.29163578 -0.37026033 0.44877639
-0.29155159 -0.37035137 0.44877666
-0.29172033 -0.37016818 0.44878006
-0.29186022 -0.37001452 0.44879282
-0.29203001 -0.369831 0.44879159
-0.29219842 -0.369647 0.44880161
-0.29239404 -0.36943266 0.44881648
-0.29230872 -0.36952543 0.4488138
-0.29256463 -0.36924854 0.44881392
-0.29248032 -0.36934096 0.44880724
-0.2927345 -0.36906517 0.44881135
-0.29264957 -0.36915687 0.4488126
-0.29290357 -0.3688809 0.44881871
-0.29281911 -0.36897311 0.44881403
-0.29307199 -0.36869735 0.44882607
-0.29298651 -0.36878994 0.44882536
-0.29326031 -0.36850306 0.44877625
-0.2931805 -0.36858487 0.44879994
-0.29344374 -0.36829939 0.44880456
-0.29335925 -0.36839086 0.44880432
-0.29360723 -0.36811608 0.44883782
-0.2935186 -0.36821723 0.44881001
-0.29378471 -0.36793098 0.44880137
-0.2937009 -0.36802316 0.44879323
-0.29395312 -0.36774743 0.44880873
-0.29386744 -0.36783981 0.44881052
-0.26770195 -0.39613089 0.44892013
-0.26795626 -0.39585373 0.44893116
-0.26806974 -0.39573124 0.44892946
-0.2682676 -0.39551786 0.44892547
-0.26840913 -0.39536402 0.44892928
-0.2683242 -0.39545572 0.44893056
-0.26860809 -0.39514893 0.44892827
-0.26852238 -0.39524126 0.44893053
-0.26877734 -0.39496481 0.44893363
-0.26869226 -0.39505786 0.448928
-0.26894659 -0.39478073 0.448939
-0.26886287 -0.39487231 0.44893333
-0.26911649 -0.39459735 0.44893643
-0.26903254 -0.39468867 0.44893372
-0.26928642 -0.39441109 0.44894972
-0.26920146 -0.39450419 0.44894308
-0.26939932 -0.39428639 0.44896388
-0.26956832 -0.39410409 0.44896066
-0.26973864 -0.39392015 0.44895875
-0.26990795 -0.39373812 0.44895229
-0.27007756 -0.39355242 0.44896421
-0.27024749 -0.3933681 0.44896695
-0.27044502 -0.39315289 0.44897485
-0.27035916 -0.39324507 0.44897914
-0.27058595 -0.39299989 0.44897768
-0.27052888 -0.39306149 0.44897854
-0.27075684 -0.39281759 0.44896322
-0.27067056 -0.39290929 0.44897246
-0.27092478 -0.39263204 0.44898447
-0.27084005 -0.39272547 0.44897485
-0.27109453 -0.39244848 0.44898388
-0.27100891 -0.39254093 0.44898516
-0.27126279 -0.39226332 0.44900116
-0.27117908 -0.39235634 0.44898754
-0.27137658 -0.39214167 0.44899285
-0.27154621 -0.39195895 0.44898829
-0.27171549 -0.39177489 0.448993
-0.27188468 -0.3915917 0.44899377
-0.27205339 -0.39140606 0.44901106
-0.27222291 -0.39122322 0.44900784
-0.27241999 -0.39100808 0.44901836
-0.27233529 -0.39110002 0.44901669
-0.27259028 -0.39082515 0.44901085
-0.27250552 -0.390917 0.44901013
-0.27275926 -0.39064223 0.44901127
-0.27267388 -0.39073491 0.4490096
-0.27292836 -0.39045793 0.44901866
-0.27284417 -0.390549 0.4490189
-0.27309638 -0.3902725 0.44903889
-0.2730127 -0.39036709 0.44901636
-0.27320912 -0.39014921 0.44904613
-0.27335182 -0.38999858 0.44902512
-0.27351978 -0.38981405 0.44904041
-0.27368835 -0.38963023 0.44904843
-0.27385819 -0.38944778 0.44904128
-0.27402738 -0.3892636 0.44904733
-0.27422541 -0.38904995 0.44904363
-0.27413994 -0.38914257 0.44904295
-0.27439266 -0.38886517 0.44906491
-0.27430871 -0.38895792 0.4490543
-0.27453211 -0.38870901 0.44909453
-0.27447665 -0.3887724 0.44907555
-0.27472991 -0.38849708 0.44908261
-0.27489969 -0.38831505 0.44907314
-0.27481475 -0.38840675 0.44907439
-0.27506852 -0.38813198 0.44907552
-0.27498466 -0.38822338 0.44907182
-0.27526769 -0.38791859 0.4490636
-0.27518192 -0.38800937 0.4490748
-0.27543426 -0.38773453 0.44908488
-0.27535146 -0.3878271 0.44906828
-0.27560562 -0.38755274 0.44906443
-0.27551997 -0.3876422 0.44908258
-0.2757732 -0.38736975 0.44907379
-0.27569073 -0.38746125 0.44906116
-0.27594212 -0.38718531 0.44908315
-0.27585793 -0.38727635 0.44908342
-0.27605531 -0.38706303 0.44908211
-0.27616641 -0.38694036 0.44909561
-0.27636468 -0.38672596 0.44909459
-0.27657422 -0.38652095 0.44892788
-0.27644849 -0.3866345 0.4490993
-0.27671561 -0.3863689 0.44892278
-0.27706879 -0.38596314 0.44909984
-0.2772508 -0.38578609 0.44894344
-0.27719435 -0.38584843 0.44893637
-0.27742201 -0.38560414 0.44892499
-0.27734122 -0.38568351 0.44898537
-0.2775889 -0.38542044 0.4489423
-0.27750462 -0.3855114 0.44894356
-0.27775863 -0.38523689 0.44894171
-0.27767396 -0.38532883 0.44894004
-0.27792358 -0.38505104 0.44898286
-0.27783936 -0.38514352 0.44897521
-0.27803838 -0.38493046 0.4489626
-0.2782096 -0.38474751 0.44894946
-0.27837837 -0.38456488 0.44894955
-0.27854684 -0.38438094 0.4489589
-0.27871478 -0.38419637 0.44897485
-0.27888498 -0.38401338 0.44896832
-0.27908123 -0.38379923 0.44897825
-0.27899557 -0.38389012 0.44898847
-0.27925 -0.3836146 0.44898957
-0.27916628 -0.38370761 0.44897598
-0.27941549 -0.38343084 0.44901583
-0.27933091 -0.38352141 0.44902107
-0.27955952 -0.38327822 0.4489978
-0.27950275 -0.38334018 0.44899467
-0.27972853 -0.38309684 0.44898927
-0.27964371 -0.38318717 0.4489975
-0.27984038 -0.38297305 0.44900477
-0.28000671 -0.38278866 0.44902936
-0.2801764 -0.38260508 0.44902945
-0.28034639 -0.38242278 0.44902027
-0.2805151 -0.3822391 0.44902632
-0.28068209 -0.38205448 0.44904825
-0.28087929 -0.38184041 0.44905221
-0.28079572 -0.38193363 0.4490366
-0.28104895 -0.38165677 0.44905263
-0.28096414 -0.38174865 0.44905192
-0.28121442 -0.381473 0.44907886
-0.2811279 -0.38156444 0.44909108
-0.28138688 -0.38129094 0.44905344
-0.28130144 -0.38138208 0.44906068
-0.28155571 -0.38110787 0.44905585
-0.28147069 -0.38119799 0.44906607
-0.28175405 -0.38089356 0.44905385
-0.28166935 -0.38098553 0.44905216
-0.2819213 -0.38071021 0.44906718
-0.28183758 -0.3808018 0.44906151
-0.28209069 -0.3805263 0.44907057
-0.28200498 -0.38061863 0.44907287
-0.28217331 -0.38043502 0.44908124
-0.28248334 -0.38009822 0.44908845
-0.28268033 -0.3798849 0.44908941
-0.28259605 -0.37997732 0.44908276
-0.28304702 -0.37948701 0.44909579
-0.28310308 -0.37942722 0.44909096
-0.2877627 -0.37442386 0.44892424
-0.28787702 -0.37430081 0.44892055
-0.28781995 -0.37436244 0.44892138
-0.28807348 -0.37408739 0.4489255
-0.28824311 -0.37390375 0.44892591
-0.28815708 -0.37399572 0.44893217
-0.28832898 -0.37381157 0.44892165
-0.28861105 -0.37350571 0.44892532
-0.28875059 -0.37335262 0.44893709
-0.2886658 -0.3734445 0.44893637
-0.28886259 -0.37322998 0.44894528
-0.28900337 -0.37307727 0.44894716
-0.28917304 -0.37289366 0.44894719
-0.28934211 -0.37271035 0.44894931
-0.28951102 -0.3725259 0.44895864
-0.28968108 -0.37234271 0.44895411
-0.28987807 -0.37212837 0.44896072
-0.28979537 -0.37221959 0.44895104
-0.29004732 -0.37194428 0.44896609
-0.28996262 -0.37203625 0.44896439
-0.29021555 -0.37176055 0.44897541
-0.29013032 -0.37185344 0.44897175
-0.2903862 -0.37157655 0.44897187
-0.29030174 -0.37166876 0.44896719
-0.29055512 -0.37139353 0.44897327
-0.29046932 -0.37148577 0.44897655
-0.29075152 -0.37118009 0.44897825
-0.29066843 -0.37127084 0.44897354
-0.29092294 -0.37099543 0.44897366
-0.29083815 -0.37108731 0.44897294
-0.29109034 -0.37081227 0.44898501
-0.2910068 -0.37090403 0.44897735
-0.29125959 -0.37062818 0.44899037
-0.29117388 -0.37072051 0.44899267
-0.29142746 -0.37044555 0.44899577
-0.29134363 -0.37053692 0.44899207
-0.29154006 -0.37032256 0.449002
-0.29167932 -0.37017015 0.4490118
-0.29184848 -0.36998597 0.44901818
-0.29176396 -0.37007809 0.44901448
-0.29201746 -0.36980304 0.4490186
-0.29193321 -0.369894 0.44901985
-0.29218698 -0.36961922 0.44902098
-0.29210341 -0.36971098 0.44901332
-0.29235619 -0.36943513 0.44902638
-0.29227066 -0.36952764 0.44902664
-0.29255503 -0.36922139 0.44901839
-0.29246986 -0.36931282 0.44902265
-0.29272395 -0.36903691 0.44902775
-0.29263943 -0.36912906 0.44902408
-0.29289153 -0.36885393 0.4490371
-0.29280865 -0.36894497 0.44902945
-0.29306108 -0.3686702 0.44903851
-0.29297537 -0.36876255 0.4490408
-0.29322866 -0.36848721 0.44904786
-0.29314354 -0.36857873 0.44905114
-0.29334298 -0.36836419 0.44904414
-0.29351184 -0.36818063 0.44904888
-0.29368213 -0.36799669 0.449047
-0.29385135 -0.36781356 0.44904706
-0.25775829 -0.40684569 0.44916567
-0.25787249 -0.40672052 0.44917452
-0.25804332 -0.40653816 0.44916072
-0.25821531 -0.40634724 0.44918784
-0.25838602 -0.40616179 0.4491919
-0.25855651 -0.40597904 0.44918203
-0.25872776 -0.40579221 0.44919071
-0.25889909 -0.40560648 0.44919273
-0.25907025 -0.4054215 0.44919145
-0.25901315 -0.4054831 0.44919232
-0.25924036 -0.40523538 0.44920278
-0.25915539 -0.40532851 0.44919613
-0.25941145 -0.40505037 0.44920218
-0.25932676 -0.40514088 0.44920841
-0.25958255 -0.40486532 0.44920158
-0.25949693 -0.40495777 0.44920287
-0.25975433 -0.40467814 0.44920889
-0.2596682 -0.40477145 0.4492082
-0.25992477 -0.40449238 0.44921622
-0.25983897 -0.40458608 0.4492116
-0.26003829 -0.40436843 0.44922245
-0.26020944 -0.40418148 0.44923243
-0.26037982 -0.40399766 0.44922921
-0.26055071 -0.40381241 0.44923124
-0.26072046 -0.40362787 0.44923592
-0.26089117 -0.40344247 0.44923997
-0.26103324 -0.40328866 0.44924015
-0.26123148 -0.40307131 0.44925597
-0.26114661 -0.40316457 0.44924831
-0.26140362 -0.40288448 0.44925931
-0.26131696 -0.40297872 0.44925666
-0.26157302 -0.40270054 0.44926271
-0.26148772 -0.40279335 0.44926003
-0.26174378 -0.40251517 0.44926608
-0.2616584 -0.40260786 0.44926438
-0.26191369 -0.4023318 0.44926351
-0.26182926 -0.40242255 0.44926679
-0.26208413 -0.40214604 0.44927084
-0.26199892 -0.40223891 0.44926718
-0.26219824 -0.40202275 0.44926977
-0.26236787 -0.40183911 0.44927052
-0.26253861 -0.40165463 0.44926858
-0.2627086 -0.40147039 0.44927064
-0.26282221 -0.40134653 0.44927555
-0.26321828 -0.40091726 0.44927949
-0.26310563 -0.40103921 0.44927919
-0.26330322 -0.40082559 0.44927821
-0.27458686 -0.38864776 0.44910562
-0.27464426 -0.38858652 0.44910076
-0.27622303 -0.38687819 0.4491007
-0.27627996 -0.38681641 0.44910184
-0.27653301 -0.38654235 0.44910297
-0.27670217 -0.38635963 0.44910139
-0.27661756 -0.38645023 0.44910663
-0.27687097 -0.38617653 0.4491038
-0.27678761 -0.38626701 0.4491021
-0.27698353 -0.38605449 0.44910508
-0.27723676 -0.38577762 0.44912109
-0.27715212 -0.38586968 0.44911838
-0.2774066 -0.38559714 0.44910264
-0.27729395 -0.38571909 0.44910237
-0.2775737 -0.38541073 0.44913384
-0.27749032 -0.38550413 0.44911626
-0.27774388 -0.3852306 0.44911143
-0.27765846 -0.38532031 0.4491266
-0.27785593 -0.38510704 0.44912431
-0.27802458 -0.3849242 0.44912639
-0.27819404 -0.38474035 0.4491291
-0.27836302 -0.38455796 0.44912651
-0.27853227 -0.38437483 0.44912663
-0.27870145 -0.38419172 0.44912672
-0.27889895 -0.38397747 0.4491297
-0.27881536 -0.38406914 0.44912302
-0.27906567 -0.38379204 0.44915789
-0.27898225 -0.38388544 0.44914031
-0.27923363 -0.3836095 0.4491623
-0.27914688 -0.38369924 0.44918543
-0.27937663 -0.38345727 0.44914824
-0.27931938 -0.3835187 0.4491511
-0.27954453 -0.38327464 0.44915363
-0.27946109 -0.3833665 0.44914496
-0.27965829 -0.38315293 0.44914594
-0.27982596 -0.38297006 0.44915399
-0.27999571 -0.38278654 0.4491528
-0.28016403 -0.38260341 0.44915816
-0.28033069 -0.38241944 0.44917879
-0.28050059 -0.38223705 0.44917092
-0.28070337 -0.3820256 0.44912618
-0.28061625 -0.38211644 0.44914538
-0.28086969 -0.3818413 0.44915044
-0.28078663 -0.38193357 0.44913685
-0.28103673 -0.38165623 0.4491747
-0.28095421 -0.38175058 0.44914621
-0.28120393 -0.38147289 0.44918805
-0.28111997 -0.38156563 0.44917741
-0.28137505 -0.38129085 0.44917059
-0.28128922 -0.38138154 0.44918278
-0.28157523 -0.38107708 0.44915468
-0.28148928 -0.38116914 0.44915995
-0.2817423 -0.38089356 0.44916999
-0.2816585 -0.38098651 0.44915739
-0.2819089 -0.3807095 0.44919127
-0.28182584 -0.3808018 0.44917765
-0.28208008 -0.38052756 0.44917282
-0.28199267 -0.38061801 0.44919595
-0.28225106 -0.38034332 0.44914597
-0.28216296 -0.38043651 0.44918048
-0.28235221 -0.38023344 0.44915289
-0.28250009 -0.38006979 0.44919124
-0.28266847 -0.37988627 0.44919863
-0.28258428 -0.37997729 0.4491989
-0.28284338 -0.37970194 0.44914842
-0.28275716 -0.3797937 0.44915715
-0.28300098 -0.37952891 0.44916984
-0.28292763 -0.37961096 0.44914764
-0.28318095 -0.37933493 0.44915819
-0.28308964 -0.3794283 0.44921112
-0.28336069 -0.37914124 0.44914618
-0.28328338 -0.37922338 0.44916952
-0.28354657 -0.37893808 0.44916505
-0.28346199 -0.37902945 0.44916582
-0.28371546 -0.37875509 0.44916648
-0.28363216 -0.37884635 0.44916028
-0.28388512 -0.37857145 0.44916689
-0.28379995 -0.37866288 0.44917062
-0.2840541 -0.37838852 0.44916731
-0.28397042 -0.37848014 0.44916111
-0.28422582 -0.37820366 0.44913942
-0.28415471 -0.37827834 0.44917917
-0.28433695 -0.37808302 0.449164
-0.28450409 -0.37789962 0.44917837
-0.28467122 -0.37771568 0.44919565
-0.28484133 -0.37753257 0.44919011
-0.2850109 -0.37734976 0.44918624
-0.28519216 -0.37715328 0.44918388
-0.28511953 -0.37722984 0.44922209
-0.28536513 -0.37696353 0.44921008
-0.28529146 -0.37704372 0.44920015
-0.28553525 -0.37677941 0.44921085
-0.28544235 -0.37688026 0.44919407
-0.28568742 -0.37661582 0.44919714
-0.28561231 -0.37669691 0.44919086
-0.28585663 -0.37643316 0.44919461
-0.2857739 -0.37652433 0.44918543
-0.28602362 -0.37624955 0.44921091
-0.28593934 -0.37634125 0.44920823
-0.28613555 -0.3761268 0.44922009
-0.2863023 -0.37594342 0.44923675
-0.28647187 -0.37576023 0.44923484
-0.28664097 -0.37557694 0.4492366
-0.28681043 -0.37539408 0.4492341
-0.28697994 -0.37521073 0.4492335
-0.28717536 -0.3749972 0.44924504
-0.28709126 -0.37508833 0.44924435
-0.2873449 -0.37481341 0.44924694
-0.28726017 -0.37490535 0.44924575
-0.28751197 -0.37462988 0.44926226
-0.2874285 -0.37472171 0.44925413
-0.28768384 -0.37444374 0.44924086
-0.28759605 -0.37453872 0.44926348
-0.2878511 -0.37426385 0.44925717
-0.28776711 -0.37435514 0.44925493
-0.28804785 -0.37404931 0.44926655
-0.28796399 -0.37414145 0.44925842
-0.28813291 -0.37395427 0.44926083
-0.2883859 -0.37368011 0.44926295
-0.28847176 -0.37358797 0.44925869
-0.28872558 -0.37332022 0.44926476
-0.28861186 -0.37343821 0.44927093
-0.28877956 -0.37325364 0.4492771
-0.2888923 -0.37312931 0.4492791
-0.289175 -0.37282416 0.44927484
-0.28923258 -0.3727631 0.44926801
-0.26290661 -0.40125424 0.44928122
-0.26302001 -0.40113163 0.4492805
-0.26316121 -0.40097889 0.44928035
-0.26338905 -0.40073189 0.44928285
-0.26355901 -0.4005456 0.44929615
-0.26347333 -0.40063947 0.4492895
-0.26372862 -0.40035897 0.4493134
-0.2636435 -0.40045196 0.44930875
-0.26389819 -0.40017524 0.4493148
-0.26381272 -0.40026784 0.44931412
-0.26406828 -0.39999205 0.44931027
-0.26398322 -0.40008363 0.44931254
