# .PCD v0.7 - Point Cloud Data file format
VERSION 0.7
FIELDS x y z
SIZE 4 4 4
TYPE F F F
COUNT 1 1 1
WIDTH 1372
HEIGHT 1
VIEWPOINT 0 0 0 1 0 0 0
POINTS 1372
DATA ascii
0.47443029 0.091181032 -0.24773212
0.47451419 0.091174647 -0.24784222
0.47444868 0.091366991 -0.24771512
0.47452471 0.091366224 -0.24782813
0.47446319 0.091517314 -0.2477064
0.47451806 0.091544755 -0.24778731
0.47447696 0.09166874 -0.24770865
0.47452396 0.091706306 -0.24776244
0.47456551 0.091894776 -0.24778119
0.47457811 0.09206818 -0.2477635
0.47461605 0.092229687 -0.24778284
0.47462583 0.092412919 -0.24776416
0.47467646 0.092462458 -0.24781585
0.47465467 0.092633501 -0.24776152
0.47469214 0.092624374 -0.24780516
0.47471231 0.09279038 -0.24780308
0.4747414 0.092970699 -0.24780598
0.4747729 0.093154162 -0.24781366
0.47479275 0.093319595 -0.24780668
0.47482353 0.093507364 -0.24781039
0.47484666 0.093498304 -0.24784349
0.47486231 0.093694977 -0.24783045
0.47489327 0.0938638 -0.24783757
0.47490722 0.094035678 -0.24783492
0.47493801 0.094190083 -0.24784525
0.47496766 0.094368592 -0.24785306
0.47500062 0.09450154 -0.24785617
0.46229598 0.0015960801 -0.24756819
0.46234226 0.0017119801 -0.24755867
0.46235067 0.0018926889 -0.24755001
0.46243167 0.0019124933 -0.24755736
0.4623594 0.0020614478 -0.24756132
0.46244374 0.0020861898 -0.24756061
0.46237001 0.0022420872 -0.24755025
0.46246016 0.0022523825 -0.24754624
0.46235341 0.0024230573 -0.24757132
0.46247721 0.00242615 -0.24754708
0.46236616 0.002614754 -0.24758139
0.46249071 0.0026159899 -0.24753511
0.4623732 0.002805152 -0.24761114
0.46253482 0.0027733345 -0.24753284
0.46238953 0.0029599192 -0.24758391
0.4625687 0.0029749458 -0.24755804
0.46240893 0.0031526331 -0.24756141
0.4625811 0.0031336653 -0.24755284
0.46261692 0.003218703 -0.24760649
0.46248302 0.003318344 -0.24754779
0.46263796 0.0033349376 -0.24761073
0.46244135 0.0034949733 -0.24755001
0.4626559 0.0035170424 -0.24759515
0.46245933 0.0036860716 -0.24754484
0.46267253 0.0036878951 -0.2475805
0.4624635 0.0038943547 -0.24760826
0.46269569 0.0038682935 -0.24758251
0.46247745 0.0040462445 -0.247609
0.46273187 0.0040490897 -0.24760179
0.4624967 0.0042182789 -0.24759039
0.46273154 0.0042281346 -0.24756749
0.4627853 0.0042748153 -0.24765144
0.46250355 0.0043990477 -0.24762636
0.46275049 0.004384629 -0.24757126
0.46279368 0.0044222139 -0.247627
0.46251437 0.0045982953 -0.24765801
0.46275365 0.0045799343 -0.24752659
0.46282175 0.0045924257 -0.24762963
0.46254182 0.0047771842 -0.24760289
0.46277428 0.0047540162 -0.24753612
0.46286252 0.0047731544 -0.24763374
0.46255964 0.004941897 -0.24758577
0.46287873 0.0049507613 -0.24764115
0.4629643 0.0049605705 -0.24765295
0.46256804 0.0051358789 -0.24760312
0.46289301 0.0051165838 -0.24762656
0.46301031 0.0052028038 -0.2476272
0.46258301 0.0052890023 -0.24759188
0.46289337 0.0053122998 -0.24758933
0.46302027 0.0053158789 -0.24763449
0.46259403 0.0054033846 -0.24758518
0.46260464 0.0055168793 -0.24758351
0.46291196 0.0054844166 -0.24758261
0.46301517 0.0055331225 -0.24763021
0.46261895 0.0056691607 -0.24757923
0.46293026 0.005675185 -0.24757208
0.46302381 0.0056689265 -0.24761635
0.46263704 0.005859891 -0.24757241
0.46292791 0.0058334274 -0.24752459
0.4630298 0.0058558434 -0.24759232
0.46265632 0.0060519781 -0.24755159
0.4629533 0.0059960028 -0.24752712
0.46303448 0.0060327742 -0.24758779
0.46266246 0.0062296041 -0.24759649
0.46302611 0.0062134205 -0.24757028
0.46267706 0.0063949949 -0.24758717
0.46304953 0.0063915309 -0.24756505
0.46269172 0.006568498 -0.24757832
0.4630757 0.0065647257 -0.24755897
0.46318907 0.006579767 -0.24751633
0.46270567 0.0067405566 -0.24757624
0.46308634 0.0067353412 -0.24755597
0.46319562 0.0067464085 -0.24751797
0.46271324 0.0069336025 -0.2476033
0.46310425 0.0069260472 -0.24753714
0.46315208 0.0069081225 -0.24754223
0.46333006 0.0069611985 -0.24753723
0.46272737 0.0070849308 -0.24760103
0.46312019 0.0070807897 -0.24751386
0.46316767 0.0071075098 -0.2475328
0.46335208 0.0070901364 -0.24754335
0.46274492 0.0072761676 -0.24760218
0.4631668 0.0072703883 -0.24751689
0.46338052 0.0072946819 -0.2475563
0.46276185 0.0074655218 -0.24760835
0.46319595 0.0074578924 -0.24751917
0.46341491 0.0074740197 -0.24760157
0.46277282 0.0075789085 -0.24760166
0.46278441 0.0076951738 -0.24758998
0.46322036 0.0076306518 -0.24751952
0.46342427 0.007652659 -0.24755453
0.46280116 0.0078487918 -0.24755576
0.46343184 0.0078294324 -0.24752843
0.46281469 0.0080002937 -0.24756148
0.46347842 0.0080131181 -0.24759035
0.462834 0.0081916861 -0.24753936
0.46348581 0.0082005421 -0.24754886
0.46351677 0.0082029477 -0.24762663
0.46285141 0.0083822682 -0.24754085
0.46349594 0.0083141699 -0.24755317
0.46351644 0.0083754649 -0.247572
0.46286619 0.0085344166 -0.24753059
0.46353263 0.0085419994 -0.24757634
0.46288466 0.0087243617 -0.24751812
0.46354765 0.0087412074 -0.24755067
0.46287793 0.0089073945 -0.24762893
0.4635725 0.0088996291 -0.24757653
0.46289882 0.0091066146 -0.24761741
0.46361709 0.0091064908 -0.24764332
0.46291184 0.0092337159 -0.24760024
0.46363339 0.009275143 -0.24761669
0.46292356 0.0094527947 -0.24762253
0.46362448 0.0094339782 -0.24754021
0.46294302 0.0096427817 -0.24759677
0.46365324 0.0096149128 -0.24754182
0.463687 0.0096546076 -0.24762987
0.46295387 0.0097582461 -0.24759406
0.46296078 0.0098339533 -0.24759492
0.46366197 0.0098167537 -0.24751058
0.46370062 0.0098054018 -0.24763362
0.46297538 0.0099851349 -0.24758601
0.46370786 0.0099887596 -0.24759817
0.4629941 0.010176017 -0.24757087
0.46372288 0.010162877 -0.24757946
0.46300387 0.010289752 -0.24758014
0.46375093 0.010362231 -0.24759251
0.46377003 0.010529537 -0.24759793
0.46378425 0.010707797 -0.24758635
0.46380901 0.01089757 -0.24757718
0.46383357 0.011071811 -0.24758022
0.46386987 0.011132849 -0.24766527
0.46384493 0.011240735 -0.24755433
0.4638752 0.011254207 -0.24763294
0.46385673 0.01140902 -0.24752198
0.46388593 0.011438774 -0.24759188
0.46390098 0.01161003 -0.24757294
0.46393397 0.011784095 -0.24760519
0.46394926 0.011963755 -0.24758224
0.46397236 0.012151507 -0.24759002
0.46399665 0.012328766 -0.24759082
0.46400443 0.012509018 -0.24755685
0.46404406 0.012511682 -0.2476497
0.46401942 0.0126734 -0.24755806
0.46405804 0.012714619 -0.2476373
0.46403316 0.012811422 -0.24755053
0.46407622 0.01287939 -0.24763411
0.46407664 0.013045195 -0.24759939
0.46410012 0.01323921 -0.24760526
0.46411949 0.013413327 -0.24759845
0.46414277 0.013588205 -0.24761379
0.46416399 0.01376758 -0.24759398
0.46418425 0.013945124 -0.24758472
0.46422207 0.013965512 -0.24766755
0.4641912 0.01411607 -0.24755912
0.46423244 0.014130311 -0.24765615
0.46420425 0.014289714 -0.24754763
0.46423933 0.014325532 -0.24762742
0.46421179 0.014468901 -0.2475172
0.46425542 0.014498941 -0.24761817
0.46426699 0.01467741 -0.2475976
0.46429303 0.014861622 -0.24759501
0.46431527 0.015029318 -0.24759777
0.46434352 0.015207822 -0.2476183
0.46435603 0.015387165 -0.24758518
0.46440452 0.015458273 -0.24766764
0.46437907 0.015556615 -0.24758041
0.46441489 0.015571835 -0.24766894
0.46439561 0.015757691 -0.24755616
0.46442416 0.015752183 -0.24761985
0.46439159 0.015922884 -0.2475089
0.46443826 0.015943781 -0.24759896
0.4644464 0.016112352 -0.24758606
0.46447271 0.016299782 -0.24760334
0.46449098 0.016473617 -0.24760687
0.46449909 0.016652098 -0.24757645
0.46452343 0.016831856 -0.24758124
0.46455365 0.017004032 -0.24761263
0.46455827 0.017178932 -0.24755569
0.46459475 0.017213397 -0.24765478
0.46457338 0.017311146 -0.2475462
0.46460509 0.01737123 -0.24761921
0.46462259 0.017547324 -0.24760236
0.46464172 0.017728351 -0.24757004
0.46465686 0.017906899 -0.24755391
0.46467879 0.018095309 -0.247566
0.46470085 0.018270861 -0.2475867
0.46472368 0.018447796 -0.2475972
0.46474245 0.018623646 -0.24760225
0.46474823 0.018787814 -0.24754365
0.46477142 0.018810533 -0.24765313
0.46475437 0.018906977 -0.24751663
0.46477851 0.019003497 -0.24758865
0.46479917 0.019182494 -0.24757288
0.46481624 0.019344967 -0.24756071
0.46484217 0.019539917 -0.24758328
0.46486151 0.019720135 -0.24759258
0.46488279 0.019888151 -0.24760149
0.46489567 0.020066449 -0.24756946
0.46491387 0.020242071 -0.24758168
0.46492586 0.020404126 -0.24756536
0.46496144 0.020466937 -0.24764255
0.46492511 0.020523228 -0.24750051
0.4649657 0.02060722 -0.24761833
0.46498126 0.020784574 -0.24759419
0.46500415 0.020973833 -0.24759702
0.4650209 0.021136638 -0.24758883
0.46504372 0.021324119 -0.24757008
0.46506494 0.021510623 -0.24757329
0.46507949 0.02168268 -0.24756265
0.46509513 0.021855634 -0.24753825
0.46511018 0.022021398 -0.24752223
0.46512687 0.022073871 -0.24755329
0.46511686 0.022164628 -0.24751416
0.46515021 0.022247413 -0.24758349
0.46516392 0.02241165 -0.24758349
0.4651638 0.022590224 -0.24755265
0.4651778 0.022741584 -0.24755192
0.46520594 0.02294256 -0.24756563
0.46524021 0.023150435 -0.24758662
0.46525845 0.023312617 -0.24758652
0.46527863 0.023481831 -0.24759242
0.46530849 0.023566239 -0.24763128
0.46527559 0.023662634 -0.2475217
0.46531808 0.023678999 -0.24764156
0.46528962 0.023813982 -0.24752043
0.46532106 0.023862155 -0.24760413
0.4653345 0.024027795 -0.24758473
0.46537718 0.024224281 -0.2476352
0.46539417 0.024386434 -0.24762996
0.46541625 0.024570456 -0.24762908
0.46543112 0.024743414 -0.24760942
0.46545017 0.024933681 -0.24758895
0.46548334 0.024946641 -0.24766515
0.46546319 0.025108652 -0.24757485
0.46549457 0.025114518 -0.2476379
0.46547201 0.025269294 -0.24754311
0.46550447 0.025282795 -0.24762909
0.46551165 0.025467344 -0.24759252
0.46554139 0.025661383 -0.24760255
0.4655534 0.025823643 -0.24758609
0.46557799 0.026010137 -0.24758889
0.46559662 0.026187733 -0.24758451
0.46561757 0.026363239 -0.2475687
0.46564537 0.026525846 -0.24758038
0.4656769 0.026603809 -0.24764615
0.46563932 0.02670812 -0.24752639
0.46568274 0.026746029 -0.24759977
0.46564984 0.026905986 -0.24751703
0.46569797 0.026903689 -0.24760491
0.46571267 0.027091119 -0.24760188
0.46572432 0.027265787 -0.24759142
0.46574745 0.027442519 -0.24760035
0.46577245 0.027628312 -0.24760716
0.46578366 0.027810881 -0.24757634
0.46580949 0.027978346 -0.24759766
0.46584392 0.028019426 -0.24767143
0.46582669 0.028158274 -0.2475812
0.46585351 0.028180469 -0.24765715
0.4658308 0.028323414 -0.24751756
0.46585885 0.028359745 -0.24761038
0.46587473 0.028523246 -0.24759147
0.46590382 0.028720694 -0.24760363
0.46592078 0.028893845 -0.24758178
0.46594054 0.029072125 -0.24757116
0.46597096 0.029263323 -0.2475853
0.46599564 0.029432097 -0.24759506
0.46600112 0.029608713 -0.24752815
0.46602994 0.02962181 -0.2476261
0.46600989 0.029789522 -0.24752803
0.46604645 0.029796772 -0.24760476
0.46601158 0.02996459 -0.24751028
0.46605924 0.029973023 -0.24758683
0.46607304 0.030149247 -0.24758551
0.46609014 0.030330695 -0.24758744
0.46611232 0.030500665 -0.24759452
0.46613345 0.03068063 -0.24760728
0.46621969 0.030771298 -0.2476702
0.46614981 0.030857263 -0.24761051
0.46621865 0.030897833 -0.24767196
0.46615803 0.03103899 -0.24758106
0.46621475 0.031083567 -0.24767403
0.46617672 0.031226613 -0.24757245
0.46622393 0.031226639 -0.24767148
0.46618909 0.031401359 -0.24753956
0.46622428 0.031390958 -0.24763855
0.46619388 0.031509716 -0.24750368
0.46623391 0.031585827 -0.24759917
0.46625611 0.031776529 -0.24758759
0.46628094 0.031946257 -0.2475891
0.46629384 0.032139078 -0.24757777
0.46632159 0.032312337 -0.24759032
0.46632898 0.032486022 -0.247566
0.46638194 0.032505415 -0.24763644
0.46634862 0.032664169 -0.24756363
0.46640593 0.032661844 -0.24764319
0.46636099 0.03286051 -0.24755339
0.46641421 0.032846279 -0.2476254
0.46636581 0.033044055 -0.24751984
0.46642229 0.033039141 -0.24760564
0.46637926 0.03319557 -0.24752623
0.46643072 0.033215694 -0.24759158
0.46644425 0.033387028 -0.24758328
0.4664709 0.033555016 -0.2475892
0.46649021 0.033747431 -0.24758425
0.46651655 0.033931136 -0.24759333
0.46656367 0.033961982 -0.24767396
0.46653166 0.03411559 -0.2475704
0.46657056 0.034035657 -0.24767286
0.46654117 0.034292486 -0.24754071
0.46658009 0.034301832 -0.24762033
0.4665432 0.034419648 -0.24750257
0.46658754 0.034466077 -0.24759077
0.46655715 0.034571018 -0.24750231
0.46660498 0.034642272 -0.2475812
0.46663284 0.034835808 -0.24758568
0.466656 0.03501574 -0.24758318
0.46667898 0.035196688 -0.24758191
0.4666982 0.035354726 -0.2475791
0.46674454 0.035407729 -0.24766117
0.46670723 0.035542555 -0.24755421
0.46676159 0.035578176 -0.24764422
0.46671101 0.035721727 -0.2475353
0.46677324 0.035723127 -0.24762294
0.46671772 0.035881374 -0.24752955
0.4667806 0.035905696 -0.24760599
0.4667387 0.036023036 -0.247536
0.46680593 0.036099806 -0.24760824
0.46683428 0.036282171 -0.2476197
0.4668529 0.036452007 -0.247613
0.46686384 0.036629569 -0.24759978
0.46692663 0.036618784 -0.24766397
0.46687365 0.036798067 -0.24758752
0.46694005 0.036818858 -0.24765226
0.46688071 0.03698054 -0.24756122
0.46695369 0.03698241 -0.24765159
0.4668926 0.037165958 -0.24753679
0.46695456 0.037178941 -0.24762961
0.46689624 0.0373482 -0.24752548
0.46697602 0.037359875 -0.24761973
0.46691865 0.037455317 -0.24754523
0.46698162 0.037538864 -0.24759804
0.46699709 0.037708826 -0.24758908
0.46702632 0.037887223 -0.24759789
0.46704188 0.038060799 -0.24757947
0.46710432 0.038100123 -0.24766886
0.46706402 0.038242511 -0.24757989
0.46711358 0.038276061 -0.24762733
0.46707478 0.038432986 -0.24755073
0.46713269 0.038442492 -0.24764343
0.46706796 0.038627449 -0.2475145
0.46713644 0.038612433 -0.24761812
0.46708101 0.038811758 -0.24751475
0.46715167 0.038790312 -0.24760355
0.46708167 0.038948994 -0.24751775
0.4671697 0.038971797 -0.24759857
0.46709579 0.039099284 -0.24751353
0.46717328 0.039155029 -0.24756998
0.46718928 0.03933239 -0.24756071
0.4672178 0.039519664 -0.24757169
0.46732521 0.039591972 -0.24767753
0.4672271 0.039682008 -0.24756123
0.46730623 0.039707143 -0.24764478
0.46724617 0.039861068 -0.24756554
0.46731314 0.039883181 -0.24762459
0.46725893 0.040040422 -0.24755223
0.46732742 0.040054798 -0.24762434
0.46727407 0.040170632 -0.24753833
0.46733686 0.04022751 -0.24760899
0.46736038 0.040411044 -0.2476031
0.46738207 0.040596228 -0.24759699
0.46739641 0.040767554 -0.24758974
0.4674786 0.040800679 -0.24765261
0.46741199 0.040944543 -0.24758916
0.46748286 0.040953115 -0.24763259
0.4674142 0.041129373 -0.24755941
0.46750531 0.041124191 -0.2476401
0.46743071 0.041290641 -0.24754584
0.46751958 0.041322883 -0.24763569
0.46744218 0.041471545 -0.24753462
0.46753013 0.041499577 -0.24762271
0.46744218 0.041638099 -0.24751154
0.46753892 0.041671176 -0.24760829
0.46754324 0.041845918 -0.24759001
0.46756402 0.042024348 -0.24758497
0.46764719 0.042035624 -0.24767534
0.46757868 0.042203184 -0.24757446
0.46766046 0.042237699 -0.24766555
0.46758968 0.042381488 -0.24755129
0.4676823 0.042419501 -0.24766381
0.46760288 0.042573523 -0.24753433
0.46767318 0.042569134 -0.24762025
0.46761933 0.042759061 -0.24752644
0.46769148 0.042752292 -0.24760599
0.46761438 0.042943172 -0.24750315
0.46770012 0.042928804 -0.24758577
0.46763635 0.043069437 -0.24750347
0.46772203 0.043112863 -0.24758263
0.46773714 0.043284286 -0.24757051
0.46775645 0.043469109 -0.24755932
0.46783379 0.043476604 -0.24764666
0.46777758 0.043647151 -0.24755797
0.46784744 0.043649185 -0.24763213
0.46778351 0.043816563 -0.2475377
0.46786073 0.043838236 -0.24762048
0.46780264 0.04399991 -0.24753024
0.4678725 0.044015259 -0.24760436
0.46780875 0.044179752 -0.24750863
0.46789467 0.044192288 -0.24759923
0.46791908 0.044375125 -0.24759786
0.467924 0.044547189 -0.24758039
0.46800518 0.044566162 -0.24765664
0.46793789 0.044723868 -0.24756813
0.46801895 0.044751145 -0.24765055
0.46795893 0.044900872 -0.24756664
0.46803337 0.044910133 -0.24764293
0.46796137 0.045086723 -0.24754578
0.46804169 0.045089059 -0.24762219
0.46797666 0.045264121 -0.2475307
0.46805093 0.045274146 -0.24760462
0.46799457 0.045438815 -0.24751267
0.46806237 0.04545648 -0.24759334
0.46806675 0.045631107 -0.24756745
0.46810126 0.045809656 -0.24757938
0.46811566 0.045988791 -0.24756792
0.46819305 0.045998175 -0.24765186
0.46813717 0.04616686 -0.24756508
0.46820542 0.046168637 -0.24764393
0.46815488 0.046361525 -0.24754915
0.46822384 0.046354663 -0.24764453
0.4681707 0.046498116 -0.24754065
0.46823505 0.046538632 -0.24762909
0.46824306 0.046714865 -0.24760661
0.46826476 0.0469 -0.24760354
0.46828485 0.04707405 -0.24759214
0.46830592 0.047254097 -0.24758555
0.46837524 0.047301657 -0.24767861
0.4683286 0.047429655 -0.24757764
0.46836764 0.047461696 -0.24765477
0.46833602 0.047601037 -0.24754548
0.46838716 0.047620859 -0.2476369
0.46834311 0.047772318 -0.24751331
0.46839646 0.047801498 -0.24760863
0.4683513 0.047939416 -0.24750336
0.4684085 0.047971975 -0.24757865
0.46843782 0.048149254 -0.24758907
0.46846002 0.048333652 -0.24758318
0.46848297 0.048515219 -0.24757893
0.46848917 0.048698436 -0.24755396
0.46855742 0.048693731 -0.24765761
0.46849483 0.048874114 -0.24753532
0.46857217 0.048863798 -0.24763741
0.4685083 0.049044229 -0.24753174
0.46858144 0.049052045 -0.24760821
0.46852618 0.04921259 -0.2475322
0.46860135 0.049228642 -0.24760424
0.46853173 0.049386211 -0.24751185
0.46861699 0.049415879 -0.24759528
0.46863544 0.049595013 -0.24758889
0.46865368 0.049770232 -0.24758084
0.46873507 0.049805552 -0.2476646
0.46865478 0.049949538 -0.24756439
0.46874258 0.049948398 -0.2476387
0.46867394 0.050133422 -0.24756104
0.46876749 0.05013271 -0.24764334
0.46867645 0.050297968 -0.24753661
0.46877635 0.050320443 -0.24763061
0.4686974 0.050472632 -0.24753828
0.4687863 0.050492443 -0.24761581
0.4687036 0.050668482 -0.24751477
0.46879974 0.050669916 -0.24761039
0.46871299 0.050833516 -0.24751446
0.46881229 0.050845928 -0.24759822
0.46891332 0.05093611 -0.24767071
0.46882489 0.051027324 -0.24759066
0.46891785 0.051054165 -0.24766104
0.46883735 0.051207114 -0.24757794
0.4689289 0.051224884 -0.24765627
0.46885213 0.051378451 -0.24757171
0.46893895 0.051401369 -0.24765007
0.46886754 0.051569153 -0.24756387
0.46895424 0.051567823 -0.24764247
0.46888879 0.051767871 -0.24756333
0.46895617 0.051742859 -0.24762459
0.46888182 0.051899079 -0.24750496
0.46897027 0.051926721 -0.24760869
0.46889949 0.052087199 -0.24750018
0.4689804 0.052114516 -0.24758816
0.46900317 0.052293245 -0.24758594
0.46908507 0.052339528 -0.24767928
0.46901456 0.052466214 -0.24757364
0.46909305 0.052479893 -0.24764873
0.46903408 0.052642915 -0.24756634
0.46910724 0.052644592 -0.2476422
0.46904463 0.052833073 -0.24754231
0.46912146 0.052826021 -0.24764022
0.46905312 0.053032618 -0.24752793
0.46912923 0.053014994 -0.24761327
0.46905839 0.053185686 -0.24750769
0.4691458 0.053195182 -0.24760437
0.46906346 0.053363908 -0.24751131
0.46915722 0.053370953 -0.24758963
0.46916273 0.053541895 -0.24757102
0.46918032 0.053724416 -0.24755989
0.46926206 0.053752698 -0.24767891
0.4691951 0.053907111 -0.24754883
0.46927351 0.05391369 -0.24764626
0.46921396 0.054093298 -0.24754229
0.46928939 0.054092426 -0.24762851
0.46922725 0.054259058 -0.24753173
0.46929613 0.054272614 -0.24759655
0.46923441 0.05443982 -0.24752393
0.46931186 0.054450586 -0.24759032
0.46925545 0.054544423 -0.24754143
0.4693253 0.05464023 -0.2475858
0.46934435 0.054812651 -0.24758168
0.46936008 0.054990645 -0.24757446
0.46944892 0.055004209 -0.24766639
0.469381 0.055166308 -0.24757144
0.4694604 0.055184316 -0.24766454
0.4693926 0.055345472 -0.24755894
0.46947527 0.055351391 -0.24765432
0.46940157 0.055521395 -0.24754545
0.46948677 0.055540826 -0.2476387
0.46941176 0.055713862 -0.24752373
0.46949655 0.055713598 -0.247627
0.46942651 0.055908129 -0.24750975
0.46949884 0.055891789 -0.24760331
0.46943739 0.056020521 -0.24750309
0.46952465 0.056076068 -0.24760695
0.46954665 0.056254294 -0.24760735
0.46963018 0.056298759 -0.24767657
0.46956077 0.056426432 -0.24759762
0.46963364 0.056440108 -0.24766386
0.46957293 0.056609724 -0.24758293
0.46965596 0.056623533 -0.24766299
0.46957985 0.056785543 -0.24756049
0.4696568 0.056790933 -0.24764837
0.46959287 0.056974959 -0.24754062
0.46967852 0.056968883 -0.24764681
0.4696053 0.057155896 -0.24752015
0.46967533 0.057142992 -0.24761756
0.46960729 0.057360098 -0.24750772
0.46968922 0.057329804 -0.24760135
0.46961415 0.057433769 -0.24750665
0.46970138 0.057518218 -0.24758798
0.46971819 0.057685919 -0.24758285
0.46980488 0.057727501 -0.24766582
0.46973649 0.057867337 -0.24757865
0.46981311 0.057883907 -0.24765448
0.4697409 0.058041539 -0.24755709
0.46982807 0.058050502 -0.24764961
0.46975634 0.058217678 -0.24755073
0.46984234 0.058234181 -0.24763633
0.46977353 0.058396388 -0.24755435
0.46985435 0.05841526 -0.24761535
0.46978712 0.058575496 -0.24754484
0.4698565 0.058589939 -0.24759698
0.469879 0.058766108 -0.24759763
0.46990535 0.058945447 -0.24759796
0.46992454 0.059127513 -0.24759115
0.4699825 0.059164152 -0.24764143
0.46993721 0.059299611 -0.24758674
0.46999836 0.059330158 -0.24763417
0.46995533 0.059486382 -0.24757463
0.47001645 0.059490673 -0.24763206
0.46997035 0.059662014 -0.2475552
0.47002885 0.059676658 -0.24762821
0.47003776 0.059843346 -0.24760839
0.4700608 0.060028251 -0.24760288
0.47007385 0.060231689 -0.24758515
0.47008985 0.06039004 -0.24757518
0.47016421 0.06044443 -0.24767216
0.47010598 0.06056305 -0.24756037
0.47016627 0.060583718 -0.24766877
0.47011566 0.060734224 -0.24753347
0.47018024 0.060733553 -0.24766654
0.47012949 0.060930885 -0.24752541
0.47018674 0.060936373 -0.24759848
0.47013953 0.061119881 -0.24751446
0.47019988 0.061118674 -0.24758442
0.47013903 0.061222576 -0.24750435
0.47021243 0.061300144 -0.24756818
0.47023064 0.06146932 -0.2475654
0.47026396 0.061646719 -0.24757694
0.47028336 0.061818745 -0.24757515
0.47034872 0.061880007 -0.24761647
0.47029927 0.062003624 -0.24757485
0.47037563 0.062022813 -0.24763528
0.47030926 0.062197108 -0.24755506
0.4703812 0.062204316 -0.24762458
0.4703216 0.062377892 -0.24753685
0.47039431 0.062370554 -0.24761802
0.47032508 0.062534332 -0.2475062
0.47041038 0.062547751 -0.24760962
0.47033587 0.062646747 -0.24750055
0.47043416 0.062725775 -0.2476097
0.47043669 0.062909424 -0.24758962
0.47053713 0.062929347 -0.24766356
0.47045976 0.063096054 -0.24758962
0.47055832 0.063104935 -0.24766512
0.47046947 0.063270435 -0.24757165
0.47055626 0.063276485 -0.24765901
0.4704839 0.063429736 -0.24755767
0.4705736 0.063450597 -0.24765503
0.47049943 0.063618399 -0.247541
0.47057056 0.063624933 -0.24762951
0.47050977 0.063810967 -0.24750569
0.4705781 0.063809894 -0.2476057
0.47050181 0.06397631 -0.24750866
0.47059205 0.064002305 -0.24758698
0.47051582 0.064127669 -0.24750775
0.47060618 0.064176202 -0.2475777
0.47063088 0.064346537 -0.24757688
0.47063151 0.064524353 -0.24755402
0.47071904 0.064528018 -0.24764967
0.47064188 0.06470231 -0.2475418
0.47073171 0.064710118 -0.24763192
0.47065341 0.064882427 -0.2475417
0.47074938 0.064897351 -0.24761662
0.4706673 0.065052316 -0.24753471
0.47075927 0.065075137 -0.24760345
0.47069111 0.06525255 -0.24753076
0.47077441 0.065248676 -0.24759802
0.47068655 0.065453753 -0.24750054
0.47078866 0.065425999 -0.2475919
0.47080293 0.065602891 -0.24758023
0.47088107 0.065648913 -0.24765876
0.47080544 0.065784097 -0.247563
0.47089711 0.065813594 -0.24764672
0.47083148 0.065979213 -0.24756567
0.47091538 0.06597323 -0.2476397
0.47084108 0.066145644 -0.24755016
0.47091803 0.066153102 -0.2476248
0.47085842 0.066312574 -0.24754325
0.47093689 0.066331148 -0.24762155
0.47086364 0.066490121 -0.24751514
0.47095183 0.066508785 -0.24761172
0.470873 0.066654362 -0.24750683
0.47096497 0.066696443 -0.24760202
0.47098345 0.066874489 -0.24759877
0.47106615 0.066921756 -0.24765784
0.470994 0.067047864 -0.24758448
0.4710831 0.067062534 -0.24766707
0.47100949 0.067226201 -0.24757113
0.47109318 0.06722451 -0.24766964
0.47102165 0.067399107 -0.24755888
0.47108927 0.067414694 -0.24764509
0.47104132 0.067575403 -0.24755137
0.47110105 0.06760031 -0.24762805
0.47104779 0.067736886 -0.24752049
0.47110859 0.067783132 -0.24760306
0.47112849 0.067952946 -0.2475979
0.4711518 0.068124101 -0.24759689
0.47117737 0.068304844 -0.24759473
0.47124451 0.068361349 -0.24767312
0.47119856 0.068484649 -0.2475891
0.47125962 0.068510339 -0.24765494
0.47119531 0.068675533 -0.24754193
0.47126794 0.068679005 -0.24764644
0.47120586 0.068853796 -0.24752188
0.47128168 0.068847723 -0.24763587
0.47121152 0.069025949 -0.24751501
0.4712896 0.069027819 -0.24760456
0.47122535 0.06919124 -0.24751453
0.47129539 0.069207013 -0.24757817
0.47132233 0.069388285 -0.24758559
0.4713403 0.069575593 -0.24757618
0.47136024 0.069747016 -0.24756745
0.47142527 0.0697916 -0.24764434
0.47136649 0.069926225 -0.2475528
0.47143629 0.069955267 -0.24762082
0.47136867 0.070108064 -0.24754018
0.47145897 0.070130631 -0.24760818
0.47138208 0.070282079 -0.2475277
0.47146216 0.070287064 -0.24760091
0.47139749 0.070454136 -0.24752577
0.47148627 0.07048282 -0.24760057
0.47141546 0.070609763 -0.24752922
0.47149569 0.07066153 -0.24758843
0.47151226 0.070818901 -0.24758244
0.47152546 0.071003266 -0.24757603
0.47161746 0.071017258 -0.24764444
0.47153583 0.071183227 -0.2475657
0.47163615 0.071217909 -0.24764179
0.47155762 0.071375661 -0.24755839
0.4716489 0.071356684 -0.24764197
0.47157413 0.071536452 -0.24755406
0.47167078 0.071547315 -0.24764289
0.47158948 0.071726337 -0.24752061
0.47168466 0.071727924 -0.24763367
0.47169173 0.071908437 -0.24761504
0.47178334 0.071981803 -0.24767536
0.47171724 0.072091818 -0.24762283
0.4717254 0.072253138 -0.24760593
0.47179309 0.07233052 -0.2476732
0.47174472 0.072438993 -0.24760278
0.4717963 0.072469041 -0.2476494
0.47175497 0.072621837 -0.24757008
0.47181424 0.072646789 -0.24764962
0.47176734 0.072764836 -0.24754064
0.47182679 0.072814181 -0.24763522
0.47183406 0.072985522 -0.24760307
0.47186807 0.073159814 -0.24761568
0.47187921 0.073347755 -0.24758726
0.47188762 0.073530823 -0.24755645
0.47196603 0.073476799 -0.24767908
0.47189507 0.073718533 -0.2475414
0.47196603 0.073709898 -0.24766266
0.47190726 0.073895015 -0.24752168
0.47197801 0.073896028 -0.24761203
0.4719072 0.074063703 -0.24752396
0.47199687 0.07408233 -0.24758932
0.47193184 0.074246079 -0.24753234
0.47201258 0.07426814 -0.24757834
0.47194466 0.074429572 -0.24752353
0.4720262 0.0744294 -0.24757369
0.47204113 0.07460846 -0.24757189
0.47205773 0.074786417 -0.24756822
0.47207847 0.074970424 -0.24756333
0.47215968 0.074975863 -0.24764076
0.47208327 0.07514488 -0.24756192
0.47217244 0.07515306 -0.24761142
0.47210509 0.075325847 -0.24755986
0.47219098 0.075351186 -0.24761057
0.47211504 0.075512774 -0.24753998
0.47219977 0.07551977 -0.24760796
0.4721202 0.075671919 -0.24751617
0.47220823 0.075699568 -0.24760053
0.47212401 0.07578662 -0.24750616
0.47223055 0.075870968 -0.24760008
0.47223276 0.076050214 -0.24758698
0.47233382 0.076052263 -0.24764222
0.47225589 0.076221518 -0.24759364
0.47235358 0.076243818 -0.24764232
0.47226691 0.076404862 -0.24757767
0.4723677 0.076421253 -0.24765256
0.4722766 0.076586813 -0.24755675
0.47237587 0.076587394 -0.247651
0.47228628 0.076773681 -0.24753647
0.47239223 0.076769531 -0.24764611
0.47229284 0.076943755 -0.24751973
0.47239831 0.07695058 -0.24762625
0.47231376 0.077122308 -0.24752024
0.47238976 0.077138655 -0.24760222
0.47251809 0.077195793 -0.24767214
0.47238508 0.077299528 -0.24756908
0.47252527 0.077271409 -0.24766903
0.47242397 0.077484369 -0.24758554
0.47244132 0.077662535 -0.24757606
0.47251117 0.077698141 -0.2476542
0.47245979 0.077851146 -0.24756803
0.47252664 0.077859849 -0.24764311
0.47245494 0.078008115 -0.24754003
0.47254109 0.07803341 -0.24762854
0.47247833 0.078199923 -0.24753478
0.47255409 0.078214057 -0.247618
0.47247788 0.078391135 -0.24750961
0.47256532 0.078391984 -0.24760269
0.47258535 0.078565925 -0.24760067
0.47259569 0.078751497 -0.247585
0.47268516 0.078800432 -0.24767624
0.47262102 0.078933872 -0.24758491
0.47269246 0.078943945 -0.2476681
0.47262472 0.079110019 -0.24756601
0.47270253 0.079113886 -0.24765493
0.47262076 0.079275161 -0.24754053
0.47271034 0.079283617 -0.24763623
0.47264561 0.079460979 -0.24754067
0.47273302 0.079474539 -0.2476311
0.47265872 0.079660192 -0.24752457
0.47274616 0.079653747 -0.24762274
0.47274873 0.079829156 -0.24760084
0.47276893 0.080005348 -0.2475971
0.47279188 0.080188118 -0.24759315
0.47286114 0.080260754 -0.24767444
0.47279653 0.080377512 -0.2475706
0.47287273 0.08037293 -0.24765782
0.47281224 0.080542937 -0.24756455
0.47288069 0.080539972 -0.24764478
0.47283506 0.080727965 -0.24755733
0.47289753 0.080714241 -0.24763653
0.47284284 0.080883838 -0.24752621
0.47291183 0.080922931 -0.24762206
0.47291246 0.081098601 -0.24758992
0.47294861 0.081262216 -0.24760771
0.47296479 0.081438519 -0.2475999
0.47299126 0.081623346 -0.2476036
0.47305238 0.081643023 -0.24766655
0.47299951 0.081801653 -0.24757212
0.47306356 0.081840314 -0.2476545
0.47302112 0.081993781 -0.24755383
0.4730671 0.081988893 -0.24763785
0.47302303 0.082115382 -0.2475035
0.47308734 0.082179695 -0.24761963
0.47310305 0.082354449 -0.24759622
0.47312969 0.082521997 -0.24759862
0.47316188 0.082713552 -0.24759927
0.47316399 0.082906172 -0.24755096
0.47322476 0.08290825 -0.24766594
0.47318065 0.083071649 -0.24753544
0.47323927 0.083093405 -0.24763545
0.47317463 0.083241634 -0.2475121
0.4732542 0.08325021 -0.24761268
0.4731918 0.083430931 -0.24751478
0.47326654 0.083423987 -0.24758208
0.47320527 0.083608463 -0.24751237
0.47328466 0.083612815 -0.24757293
0.47321567 0.083722003 -0.24751267
0.4732976 0.083783828 -0.247564
0.47332361 0.083962426 -0.24756953
0.47340253 0.084059343 -0.24765539
0.47334895 0.084152699 -0.24756335
0.47341424 0.08416944 -0.2476348
0.47333899 0.084328562 -0.24753913
0.47342747 0.084330387 -0.24761161
0.47336543 0.084510364 -0.24754532
0.47344211 0.084508494 -0.24760084
0.47336531 0.084681474 -0.24752378
0.47346112 0.084691174 -0.24760707
0.4733727 0.084858187 -0.24751489
0.47347575 0.084875733 -0.24759807
0.47338343 0.085023321 -0.24751045
0.47348869 0.085056141 -0.24758929
0.47350875 0.085229225 -0.24759179
0.47359172 0.085270859 -0.24764733
0.47351271 0.085408717 -0.24757807
0.47360554 0.085422359 -0.24764699
0.47352684 0.085594848 -0.24756861
0.4736239 0.085588127 -0.24765252
0.47353926 0.085774109 -0.24756026
0.4736276 0.085761122 -0.24764156
0.47354355 0.085916787 -0.24755163
0.47365987 0.085950613 -0.24764623
0.47355008 0.086081646 -0.24754018
0.47365737 0.086127348 -0.24762796
0.47366545 0.086302206 -0.24761821
0.47367406 0.086484842 -0.24760342
0.47369748 0.08666636 -0.24760287
0.47370625 0.086846136 -0.24758746
0.47377324 0.086850494 -0.24764104
0.4737215 0.087025203 -0.24758351
0.47379202 0.087025478 -0.24764594
0.47371775 0.087184034 -0.24754468
0.47380614 0.087209165 -0.24764256
0.47374126 0.087383144 -0.24753897
0.47382268 0.087385215 -0.2476377
0.47375631 0.087530777 -0.24751948
0.47382534 0.087572418 -0.24761337
0.4738372 0.087748274 -0.24759769
0.47385722 0.087928839 -0.24759224
0.47386441 0.088106222 -0.24756673
0.4738951 0.088293642 -0.24757347
0.47394574 0.088273339 -0.24765909
0.47390479 0.088441946 -0.24755721
0.47396779 0.088462234 -0.2476476
0.47392675 0.088622227 -0.24755646
0.47397229 0.088651791 -0.24760793
0.4739961 0.088845901 -0.24760519
0.47401711 0.089004062 -0.24760817
0.47404942 0.089182466 -0.24761182
0.47407478 0.089377984 -0.24760783
0.47412649 0.08940994 -0.2476557
0.47410148 0.089540035 -0.24761048
0.47414458 0.089597046 -0.24764496
0.47410029 0.089676917 -0.24761537
0.47416383 0.089738861 -0.24763496
0.47418085 0.089896694 -0.24763322
0.47421703 0.09008383 -0.24763842
0.47424453 0.090263985 -0.24763803
0.47425768 0.090421319 -0.24763192
0.47430721 0.090495512 -0.24766584
0.4742924 0.090608545 -0.24764076
0.47432196 0.090644613 -0.24765268
0.47433838 0.090792179 -0.24765778
0.47436124 0.09096057 -0.24766122
0.47438642 0.091125205 -0.24767202
0.47442025 0.091262423 -0.24767625
0.46237916 0.0020957123 -0.24749883
0.46237689 0.0023017563 -0.24749348
0.46239448 0.0024108794 -0.24748929
0.46243492 0.0024604602 -0.24749754
0.46239987 0.0025322959 -0.2474701
0.46239936 0.0027694153 -0.24749424
0.46245682 0.0027942501 -0.24746954
0.46241316 0.0029198118 -0.247495
0.46248099 0.002977906 -0.24747376
0.46249604 0.0031550403 -0.247467
0.46252263 0.0033318112 -0.2474598
0.46252853 0.0035035447 -0.24743985
0.46260503 0.0035571232 -0.2474661
0.46254027 0.0036781866 -0.2474141
0.46261165 0.0037026305 -0.24745744
0.46254894 0.0038676113 -0.2473961
0.46263474 0.0038822945 -0.24746701
0.46255812 0.0040606931 -0.24737144
0.46263802 0.0040510772 -0.24743377
0.46256796 0.0042356257 -0.24736755
0.46264425 0.0042261737 -0.2474086
0.46256623 0.0044061495 -0.24738917
0.46265876 0.0044090399 -0.24739942
0.46256897 0.0045874268 -0.24742667
0.46267733 0.0045975898 -0.24738917
0.46258155 0.0047545363 -0.24741141
0.4626922 0.0047706179 -0.24737419
0.46269402 0.0049455683 -0.24737766
0.46279505 0.0049483879 -0.24749835
0.4625932 0.0050950758 -0.24749029
0.46269509 0.0051361895 -0.24735321
0.46280044 0.0051376298 -0.24745727
0.46268517 0.0052946466 -0.2473679
0.46280918 0.0053248657 -0.24740791
0.46264857 0.0054784855 -0.24738899
0.46282852 0.0054866718 -0.24739903
0.46266103 0.0056690471 -0.24740186
0.46285707 0.0056668976 -0.24741492
0.46267629 0.0058352663 -0.24738427
0.46287787 0.0058482266 -0.24740754
0.46268588 0.0060170367 -0.2473878
0.46289974 0.0060267551 -0.24740797
0.46313775 0.0060012545 -0.24749735
0.46319246 0.0060752751 -0.24744648
0.46270418 0.0062066852 -0.24737699
0.46291414 0.00620559 -0.24740055
0.46296132 0.0062478464 -0.24744764
0.46319687 0.0062136832 -0.24745633
0.46272093 0.0063954201 -0.24738516
0.46292406 0.0063714972 -0.24738686
0.46297875 0.0064035538 -0.2474535
0.46319783 0.0063630939 -0.24743704
0.46273583 0.0065485653 -0.24737491
0.46294069 0.0065639718 -0.24737315
0.46299449 0.0065765763 -0.24744979
0.46324971 0.0065677296 -0.2474277
0.46275362 0.0067390441 -0.24737175
0.46295571 0.0067304107 -0.24735868
0.46300724 0.0067661228 -0.24744004
0.46325213 0.0067609092 -0.24742253
0.46275324 0.0069286488 -0.24744567
0.46301636 0.0069310637 -0.2474167
0.46324435 0.0069337487 -0.24742571
0.4627609 0.0071218256 -0.24747184
0.4627887 0.0071180984 -0.24736941
0.46304393 0.0071093701 -0.24741997
0.46326289 0.0071277278 -0.24740799
0.46333188 0.0071283709 -0.24743986
0.46277285 0.0072369641 -0.24745417
0.4627991 0.0073112976 -0.24737675
0.46306923 0.0072877505 -0.24741922
0.46325207 0.0072834841 -0.24742447
0.46334657 0.0073139956 -0.24741583
0.46279421 0.0074645765 -0.24744879
0.46308059 0.0074693561 -0.24740943
0.46321747 0.0074648317 -0.24745832
0.46335739 0.0074683311 -0.24739327
0.46281445 0.0076573985 -0.24741599
0.46308953 0.0076513495 -0.24738882
0.46321028 0.0076529542 -0.24746372
0.46336761 0.0076335655 -0.24736118
0.46282902 0.0078096124 -0.24740873
0.46310174 0.0078297239 -0.24736126
0.4632214 0.00782979 -0.24745183
0.46338457 0.0078433612 -0.2473727
0.4628453 0.0079978127 -0.24742289
0.46311584 0.0080010742 -0.2473526
0.46322325 0.0080152154 -0.24745014
0.46339697 0.0080054784 -0.24739689
0.46286312 0.0081882775 -0.24741906
0.46312511 0.0081722438 -0.24734552
0.4632245 0.0081967469 -0.24743044
0.463406 0.0081936447 -0.24741168
0.46288046 0.0083775306 -0.24742056
0.46313727 0.0082873181 -0.24732488
0.4632307 0.0083733145 -0.24741805
0.46340942 0.0083661638 -0.24739619
0.46289855 0.0085675698 -0.24741241
0.46324709 0.008555809 -0.24740626
0.46341163 0.0085387919 -0.24737473
0.46291432 0.0087204538 -0.24739018
0.46325353 0.0087313205 -0.24739976
0.46338561 0.0087262811 -0.2473651
0.46352112 0.0087448973 -0.24746296
0.46292749 0.0089232745 -0.24739589
0.46327314 0.0089030592 -0.24740005
0.46337184 0.0089091314 -0.24736516
0.46353346 0.0089108683 -0.24743202
0.46294007 0.009078145 -0.24739583
0.46328086 0.0090813609 -0.24738435
0.46336803 0.0090913679 -0.24738047
0.46354929 0.0090812212 -0.24740769
0.46294016 0.0092961788 -0.24748036
0.46296802 0.009255982 -0.24733236
0.46329558 0.0092545664 -0.24738498
0.46336475 0.0092770103 -0.24737775
0.46356499 0.0092686079 -0.24738079
0.46295571 0.0094491271 -0.24746114
0.46298158 0.0094064437 -0.24733609
0.46330974 0.0094289184 -0.24736822
0.46338576 0.0094550969 -0.24736896
0.46359363 0.0094792312 -0.24739973
0.46298489 0.0096370261 -0.24741185
0.46331608 0.0095695034 -0.24733165
0.46339691 0.009627209 -0.24736471
0.46360645 0.0096367402 -0.24738182
0.46300462 0.0098074349 -0.24738547
0.46339831 0.0097988797 -0.24734752
0.463626 0.009814919 -0.24738005
0.46301445 0.0099551221 -0.24739043
0.46342006 0.0099858353 -0.24734262
0.46364892 0.0099848472 -0.24739435
0.46302736 0.010173735 -0.24739683
0.46343544 0.010165642 -0.24733274
0.46365282 0.010159896 -0.24735208
0.46368191 0.010223374 -0.24741904
0.4630459 0.010363643 -0.24738269
0.46345705 0.010312485 -0.24732716
0.46367353 0.010310065 -0.24735391
0.46369964 0.010360087 -0.24742368
0.46306068 0.010515792 -0.24737245
0.46349531 0.010454739 -0.24732396
0.46371496 0.010534945 -0.24741206
0.46307889 0.010706827 -0.24736428
0.46373385 0.010711292 -0.2473985
0.46309477 0.010894458 -0.24738276
0.46375594 0.010878605 -0.24739969
0.46311244 0.011083618 -0.24737996
0.46378222 0.011066088 -0.24740151
0.46312946 0.011272949 -0.24738511
0.46381602 0.011255043 -0.24741912
0.46314457 0.011426029 -0.24737185
0.46383026 0.011428416 -0.2474096
0.46316358 0.011615467 -0.24735141
0.46384227 0.011597216 -0.24737528
0.46387029 0.011632812 -0.24745302
0.46318224 0.011805687 -0.24733628
0.46385601 0.011801318 -0.24736139
0.46388581 0.011786786 -0.24743511
0.46319634 0.011957013 -0.24733403
0.46389219 0.011968903 -0.24741067
0.46320793 0.01207226 -0.24732135
0.46390662 0.012147194 -0.24739677
0.46392944 0.012333842 -0.24740884
0.46394649 0.012496345 -0.2474004
0.46397102 0.012697651 -0.24741757
0.46400189 0.012881014 -0.24744193
0.4632743 0.01310085 -0.2474286
0.46401039 0.013037468 -0.2474089
0.4640418 0.013102002 -0.2474626
0.46401954 0.013215005 -0.24737367
0.46404848 0.01324857 -0.24744387
0.46402955 0.013412492 -0.24735194
0.4640623 0.013414547 -0.24744129
0.46403983 0.013525059 -0.24735327
0.46408302 0.013597685 -0.24742857
0.46333814 0.013747969 -0.24737309
0.4641017 0.013762658 -0.24742863
0.46335709 0.013937761 -0.24735363
0.46412519 0.013950188 -0.24743426
0.46413982 0.014129478 -0.24741809
0.46415472 0.014308222 -0.24739783
0.46418214 0.01449068 -0.24740732
0.4642033 0.014671355 -0.24740174
0.46423236 0.01466162 -0.24747975
0.46421146 0.014853716 -0.24735273
0.46424037 0.014842128 -0.24743867
0.46425134 0.015035343 -0.24740851
0.46427929 0.015214837 -0.24742256
0.46428952 0.015395212 -0.2473927
0.4643167 0.015579653 -0.24741308
0.46434721 0.015747294 -0.24744733
0.46435091 0.01592974 -0.24740931
0.46437138 0.016107081 -0.24739918
0.4643833 0.016270196 -0.24737851
0.46441728 0.016291814 -0.24746867
0.46438023 0.016391667 -0.2473217
0.46442676 0.016457578 -0.2474388
0.46444109 0.01664963 -0.24740271
0.46446946 0.016847523 -0.24740629
0.46450111 0.017014561 -0.24743462
0.46451327 0.017193114 -0.24740493
0.46453869 0.017376225 -0.24741054
0.46455285 0.017547309 -0.24739935
0.46458745 0.017529985 -0.24748091
0.46455327 0.017719448 -0.24737945
0.46459809 0.017726604 -0.24745926
0.46456829 0.017851267 -0.24737167
0.46460319 0.017911559 -0.24743541
0.46462175 0.01808805 -0.24744277
0.46463516 0.018278416 -0.24741629
0.4646641 0.018457765 -0.2474276
0.46468291 0.018629054 -0.24742106
0.46470499 0.018798921 -0.24743034
0.46472302 0.018985648 -0.24741583
0.46474025 0.019159565 -0.24739397
0.46476412 0.019186253 -0.24745476
0.46474648 0.019325199 -0.24736388
0.46478483 0.019368423 -0.2474453
0.46475437 0.019481819 -0.24734926
0.46479207 0.019548114 -0.24741077
0.46480656 0.019716419 -0.24740325
0.4648222 0.019895503 -0.2473959
0.46484581 0.020071758 -0.24740665
0.46486601 0.020249337 -0.24739695
0.46489495 0.020430962 -0.24740472
0.46491614 0.020603793 -0.24739055
0.46494105 0.020676069 -0.24747631
0.46492392 0.020769253 -0.24733898
0.46494925 0.020796673 -0.24742402
0.46496341 0.02096994 -0.24740218
0.46499154 0.021171408 -0.24741316
0.46500412 0.021335175 -0.2474073
0.46502328 0.021512073 -0.24740808
0.46504232 0.021688621 -0.24741058
0.46505469 0.021865338 -0.24738404
0.46507233 0.02204093 -0.24740337
0.46509105 0.022217287 -0.24741015
0.46510211 0.022402206 -0.24737181
0.46512526 0.022443153 -0.24746802
0.46513462 0.022600148 -0.247425
0.46515608 0.022787223 -0.24742424
0.4651722 0.022947654 -0.24742268
0.46519068 0.023124356 -0.24743231
0.46521065 0.023301046 -0.24742313
0.46522486 0.023490801 -0.24739215
0.4652462 0.023678992 -0.24741355
0.46526232 0.023839779 -0.24741144
0.46528411 0.024027418 -0.24740705
0.46529391 0.02418562 -0.24736038
0.46531489 0.024211967 -0.24743749
0.46533221 0.024384912 -0.24741356
0.46534863 0.024574818 -0.24738719
0.46536937 0.024745334 -0.24740081
0.46539065 0.024938496 -0.24741305
0.46540609 0.025111008 -0.24739134
0.46542686 0.025296813 -0.24739894
0.46544212 0.025468551 -0.24737824
0.46545705 0.025640178 -0.24736154
0.46547577 0.025743596 -0.24740899
0.46548763 0.025857741 -0.24739133
0.46550339 0.026009608 -0.24736813
0.46554014 0.026170243 -0.24740884
0.46556407 0.026375879 -0.24740902
0.46559 0.026554106 -0.24743819
0.46558648 0.026718462 -0.24739785
0.46561155 0.026903624 -0.2474235
0.46562409 0.027075337 -0.24740086
0.46565729 0.027199168 -0.2474436
0.46567693 0.027328143 -0.24745141
0.46569401 0.027467731 -0.24745119
0.46570832 0.027618993 -0.24744597
0.46572697 0.027807683 -0.24742921
0.46575341 0.028007245 -0.24742222
0.46577072 0.028167659 -0.24740863
0.46579516 0.028352449 -0.24739894
0.46582162 0.028535822 -0.24739718
0.46585765 0.028587606 -0.24748468
0.46582866 0.028719107 -0.24736106
0.46585813 0.028696811 -0.24744397
0.46586892 0.028891001 -0.24741267
0.46583325 0.029009031 -0.24732095
0.46588984 0.02907758 -0.24740975
0.46589723 0.029250436 -0.24739794
0.46592739 0.029426431 -0.24742794
0.46593058 0.029605554 -0.24740459
0.46595395 0.029787792 -0.24741998
0.46597034 0.029960165 -0.24741971
0.46598509 0.03014659 -0.24739514
0.46602628 0.030184682 -0.24748027
0.46599925 0.030312408 -0.24737838
0.46603465 0.030345928 -0.24745338
0.46601361 0.030463496 -0.24737161
0.46604404 0.030522164 -0.24742107
0.46605846 0.03069419 -0.24739902
0.46608615 0.030875687 -0.24741277
0.46609893 0.031046376 -0.24739674
0.46611965 0.031224294 -0.24739867
0.46615368 0.03141598 -0.24742627
0.46616635 0.031586248 -0.2474204
0.46620795 0.031659011 -0.24749947
0.46617904 0.031763509 -0.24740171
0.46621099 0.031765051 -0.24748299
0.46618351 0.031935371 -0.24734622
0.46622083 0.031971395 -0.24744768
0.46619159 0.032093972 -0.24733874
0.46622843 0.032144893 -0.2474159
0.46624383 0.032316547 -0.24741255
0.46626443 0.032488365 -0.24742007
0.46628758 0.032669906 -0.24742956
0.46630582 0.032842942 -0.2474189
0.46633348 0.033026516 -0.24744065
0.46634641 0.033206858 -0.24741247
0.46636245 0.033371713 -0.24738383
0.46638456 0.033437148 -0.24743299
0.46636748 0.033521101 -0.24734235
0.46640158 0.033581436 -0.24743631
0.46641248 0.033748563 -0.2474087
0.46643862 0.033925425 -0.24741942
0.4664585 0.034105662 -0.24741453
0.4664714 0.034291722 -0.24739477
0.46649772 0.03447555 -0.24740651
0.46650773 0.034640729 -0.24739817
0.46657166 0.034720182 -0.2474921
0.46652809 0.034818046 -0.24740724
0.46657714 0.034855675 -0.24747431
0.4665449 0.035005447 -0.24739797
0.46659088 0.035017751 -0.24746796
0.46655187 0.035203461 -0.24733631
0.4665904 0.035202023 -0.24743509
0.4666025 0.035380024 -0.24740826
0.46662784 0.035548404 -0.24742
0.46663564 0.035731141 -0.24738625
0.46666306 0.035913955 -0.24740109
0.46668682 0.036085781 -0.24740466
0.46670061 0.036269829 -0.24738644
0.46675658 0.036300302 -0.24747019
0.46672347 0.036428783 -0.24739967
0.46676558 0.036465824 -0.24745305
0.46672934 0.036592811 -0.2473561
0.46677426 0.036636237 -0.24743797
0.46678367 0.036805876 -0.24741334
0.46680653 0.0369839 -0.2474024
0.46682552 0.037185062 -0.24738647
0.46683514 0.037351932 -0.24736115
0.46686199 0.037532132 -0.24738294
0.46687064 0.037708387 -0.24736291
0.46692479 0.03769052 -0.24744099
0.46687841 0.037875555 -0.24736142
0.46694598 0.037879981 -0.24743922
0.46690041 0.038056333 -0.24737355
0.4669598 0.038078822 -0.24743807
0.4669092 0.03825821 -0.24733646
0.46697599 0.038256682 -0.2474398
0.46699163 0.038430691 -0.24744405
0.46701548 0.038595084 -0.24744286
0.46703196 0.038768161 -0.24744609
0.4670428 0.038962245 -0.24742037
0.46712831 0.038926214 -0.24749601
0.46706152 0.039151907 -0.24740569
0.4670766 0.039303072 -0.24739143
0.46711004 0.039370496 -0.24745052
0.4670814 0.039501172 -0.2473525
0.46712527 0.039519932 -0.24743097
0.46709007 0.039672609 -0.24733512
0.46714222 0.039695278 -0.24742123
0.46716082 0.03986549 -0.24741806
0.4671779 0.040047318 -0.24740429
0.46721557 0.040237036 -0.24742889
0.46722469 0.040415257 -0.24741349
0.46729025 0.040420603 -0.24748874
0.4672333 0.040581986 -0.24739946
0.46729603 0.040594906 -0.24746771
0.46725038 0.040757563 -0.24738757
0.46731159 0.0407812 -0.24746272
0.46725407 0.040939391 -0.24735336
0.46732473 0.040950652 -0.24745364
0.46727276 0.04114126 -0.24735343
0.46732798 0.041115306 -0.24742739
0.46734327 0.041313633 -0.24741413
0.46736288 0.041496132 -0.24740899
0.46737912 0.041676044 -0.24739765
0.46740237 0.041845191 -0.24739788
0.46746537 0.041862447 -0.24747826
0.46741405 0.042017132 -0.24738821
0.46747929 0.042046458 -0.24746624
0.46743402 0.042193811 -0.2473831
0.46748945 0.042201411 -0.24745689
0.46744433 0.042391755 -0.24735293
0.46750757 0.042395361 -0.24744608
0.46751687 0.042578571 -0.24742876
0.46754029 0.042752486 -0.24742861
0.46756077 0.0429231 -0.24742755
0.46758378 0.0431039 -0.24742514
0.46760437 0.043279465 -0.247416
0.4676609 0.043332245 -0.24749857
0.46761784 0.043474231 -0.24738222
0.46766099 0.043475144 -0.24747619
0.46762624 0.043616079 -0.24735443
0.4676801 0.043660339 -0.24745202
0.46770173 0.04383564 -0.247439
0.46771631 0.044004906 -0.24742304
0.46773171 0.04418394 -0.24740779
0.46775213 0.044372469 -0.24740063
0.46783024 0.044404604 -0.2474983
0.46776348 0.044550695 -0.24738345
0.4678382 0.044561353 -0.24747701
0.46777496 0.044727061 -0.24736473
0.46784744 0.044740234 -0.24745098
0.46778181 0.044899274 -0.24735509
0.46786776 0.044918526 -0.24743931
0.46779463 0.045075223 -0.24735415
0.46787438 0.04509097 -0.24740875
0.46781003 0.045272373 -0.24734519
0.46788028 0.045262929 -0.2473985
0.46790367 0.045443919 -0.24740174
0.46792564 0.045634247 -0.24739373
0.46793959 0.045810316 -0.24738282
0.46802059 0.04580402 -0.24747154
0.46793413 0.045986753 -0.24736644
0.46803173 0.045992792 -0.24743818
0.46794784 0.046156932 -0.24735764
0.46804893 0.046176862 -0.24743511
0.46796015 0.04633693 -0.2473415
0.46807206 0.046348508 -0.2474362
0.46797624 0.046544984 -0.24733828
0.46808398 0.046528149 -0.247425
0.46798158 0.046675775 -0.24732915
0.46810192 0.046704911 -0.24741928
0.4681004 0.046890777 -0.24739687
0.46819869 0.046882682 -0.24747872
0.46812066 0.047074791 -0.24739107
0.46821108 0.047063973 -0.24746677
0.46813709 0.047249738 -0.24738173
0.46821666 0.04725454 -0.24745333
0.46814823 0.047417521 -0.24737191
0.46823597 0.047437768 -0.24745494
0.4681544 0.047587562 -0.24735676
0.46824706 0.047613546 -0.24744083
0.46817562 0.047765296 -0.2473456
0.46825546 0.047790837 -0.24742943
0.4682765 0.047969852 -0.24742822
0.46828863 0.048153039 -0.2474122
0.46837255 0.048164327 -0.24749602
0.46830311 0.048330203 -0.24739726
0.46837789 0.048339035 -0.24748126
0.46830925 0.048509341 -0.24737798
0.46838412 0.048513371 -0.24746302
0.46831968 0.048671801 -0.24735563
0.46839565 0.048698988 -0.24744827
0.46833667 0.048859973 -0.24734654
0.46840304 0.048871018 -0.24742648
0.46834651 0.049038161 -0.24733293
0.46841949 0.049046278 -0.2474155
0.4683513 0.049157418 -0.24732679
0.46843877 0.049228225 -0.24741009
0.46845061 0.049411301 -0.24739437
0.46854341 0.049499381 -0.2474952
0.46847323 0.049594164 -0.24739438
0.46855482 0.049610585 -0.24747959
0.4684808 0.049764082 -0.24737643
0.46855897 0.049785051 -0.24747875
0.46849164 0.049948778 -0.24735232
0.46857476 0.049947724 -0.24746804
0.46850881 0.050137445 -0.24733733
0.46857971 0.050128214 -0.24743286
0.46851748 0.050308406 -0.24732877
0.46858665 0.050319776 -0.24740873
