# .PCD v0.7 - Point Cloud Data file format
VERSION 0.7
FIELDS x y z
SIZE 4 4 4
TYPE F F F
COUNT 1 1 1
WIDTH 1379
HEIGHT 1
VIEWPOINT 0 0 0 1 0 0 0
POINTS 1379
DATA ascii
-0.27864695 -0.39476365 0.44908991
-0.278595 -0.39482793 0.44904509
-0.27895316 -0.3946889 0.44892985
-0.27866918 -0.39451388 0.4490906
-0.27871183 -0.39409083 0.44906592
-0.27870637 -0.39391071 0.44904107
-0.27599606 -0.39379075 0.44903365
-0.27879384 -0.39322659 0.44905958
-0.278815 -0.39297941 0.44904613
-0.27885839 -0.392488 0.44900942
-0.27888072 -0.39224407 0.44898206
-0.27663895 -0.39221302 0.44908363
-0.27890176 -0.3920137 0.44897881
-0.27666101 -0.39200938 0.44907448
-0.27617189 -0.39201948 0.44895437
-0.2789242 -0.39180458 0.44897062
-0.27668175 -0.39180502 0.44908133
-0.27894506 -0.39159653 0.44897836
-0.27670377 -0.3916015 0.44907418
-0.27896866 -0.39139113 0.4489544
-0.27672613 -0.39139998 0.44906107
-0.27899081 -0.39118457 0.44894826
-0.27674848 -0.39119706 0.44904992
-0.27684543 -0.39065275 0.44905448
-0.27679399 -0.39071238 0.44900835
-0.27681357 -0.39046153 0.44900811
-0.27683479 -0.3902134 0.44900104
-0.27685806 -0.38996786 0.44897029
-0.27688205 -0.38973242 0.44894499
-0.27694196 -0.38916224 0.44892812
-0.27696201 -0.38897285 0.44892117
-0.27623066 -0.38687646 0.44894055
-0.27617958 -0.41228348 0.4492715
-0.27617669 -0.41208696 0.44925159
-0.27617151 -0.41189054 0.44924688
-0.27622938 -0.4118298 0.44923609
-0.27624813 -0.41160923 0.44923469
-0.27626655 -0.41138875 0.44923723
-0.27625716 -0.41119954 0.44923329
-0.27630597 -0.41095036 0.44921246
-0.27624843 -0.41101149 0.44921926
-0.27626726 -0.41079098 0.44921982
-0.27632496 -0.41073003 0.44921103
-0.27634743 -0.41049802 0.44920099
-0.27628988 -0.41055915 0.44920778
-0.27433839 -0.41054046 0.44926441
-0.27634192 -0.41029155 0.44919792
-0.27639276 -0.41002634 0.44918621
-0.27641878 -0.4097887 0.4491657
-0.2764433 -0.40955412 0.44914532
-0.27680475 -0.40935138 0.44927293
-0.27644885 -0.40923333 0.44912603
-0.27682829 -0.40911576 0.44926447
-0.27648759 -0.40908688 0.44911635
-0.27650636 -0.40885499 0.44911385
-0.27644852 -0.40891576 0.44912463
-0.27687472 -0.40865082 0.44920969
-0.27652499 -0.4086228 0.44911325
-0.27646729 -0.40868372 0.44912201
-0.2764864 -0.40845233 0.44911546
-0.27654409 -0.40839139 0.44910663
-0.27456522 -0.40828401 0.44915992
-0.2765345 -0.40819025 0.44910449
-0.27692944 -0.40795335 0.44922179
-0.27458793 -0.40804872 0.44918349
-0.27694866 -0.40772176 0.4492152
-0.27460885 -0.40782478 0.44918314
-0.27463126 -0.40760586 0.44915533
-0.27698749 -0.40727913 0.44920278
-0.276703 -0.40698639 0.44921914
-0.27469426 -0.4069427 0.4491291
-0.2768763 -0.40576121 0.44926792
-0.27690378 -0.40552822 0.4492498
-0.27692568 -0.40530536 0.44923753
-0.27697343 -0.40505359 0.44924009
-0.27696869 -0.40486422 0.44920567
-0.27702111 -0.40480047 0.44924453
-0.27699026 -0.40464431 0.44918966
-0.27704287 -0.40458071 0.44922656
-0.27706438 -0.40436044 0.44921252
-0.27701163 -0.40442383 0.44917762
-0.27705932 -0.4041667 0.44918525
-0.27705422 -0.40396437 0.44916397
-0.27710649 -0.40390044 0.44920483
-0.27654102 -0.40386757 0.44926333
-0.27710229 -0.40369868 0.44917366
-0.27712363 -0.40346432 0.44917184
-0.27711901 -0.40326223 0.44914758
-0.27714044 -0.40302807 0.44914463
-0.27719286 -0.40296432 0.44918349
-0.27662647 -0.40296537 0.44925815
-0.27721536 -0.40273783 0.44916975
-0.27716276 -0.40280139 0.44913286
-0.27665079 -0.40274844 0.44922119
-0.2772381 -0.40251938 0.44915068
-0.2771855 -0.40258294 0.44911382
-0.2772077 -0.40236357 0.44910267
-0.27728552 -0.40226704 0.44917089
-0.27728283 -0.4020811 0.44912446
-0.27825907 -0.40179422 0.44926861
-0.27730536 -0.40186304 0.44910949
-0.27828074 -0.40156686 0.44926479
-0.27834272 -0.4009071 0.44926915
-0.27837116 -0.40069255 0.44919857
-0.27842426 -0.4004426 0.44916749
-0.2784735 -0.40016198 0.44915789
-0.27841645 -0.40022364 0.44915876
-0.27843401 -0.39997467 0.44916338
-0.2775012 -0.40011013 0.44910032
-0.27844721 -0.39971963 0.44922361
-0.27847162 -0.39947221 0.44918066
-0.27849305 -0.39922538 0.44915903
-0.27818447 -0.39914063 0.44926229
-0.27851549 -0.39900437 0.44914055
-0.27820587 -0.39891776 0.44925773
-0.27853757 -0.39878255 0.44912609
-0.27825993 -0.39885581 0.44927675
-0.27855933 -0.39856005 0.4491176
-0.27828214 -0.3986333 0.44926429
-0.27822807 -0.39869526 0.44924524
-0.27830365 -0.39841056 0.44925961
-0.27824974 -0.3984727 0.4492386
-0.2785815 -0.39833754 0.44910511
-0.27832544 -0.39819357 0.44924763
-0.27827156 -0.39825571 0.44922662
-0.27829349 -0.39804184 0.44920975
-0.27833104 -0.39790347 0.44921684
-0.27836862 -0.3977651 0.44922391
-0.27836281 -0.39758137 0.44920745
-0.27838469 -0.39736724 0.44919455
-0.27840596 -0.39715239 0.44918859
-0.27839851 -0.39695951 0.4491719
-0.27843532 -0.39681762 0.44917738
-0.2784723 -0.39667591 0.4491809
-0.27849197 -0.39645353 0.44917285
-0.27843791 -0.39651549 0.44915384
-0.27851221 -0.39623109 0.4491607
-0.27853069 -0.3960067 0.44916841
-0.27855355 -0.39576936 0.44914365
-0.27630797 -0.39565408 0.44927418
-0.27857748 -0.39551845 0.44912228
-0.27632874 -0.39540735 0.44926667
-0.27859986 -0.39526543 0.44912076
-0.27634999 -0.39516118 0.44925335
-0.27862296 -0.39501444 0.44910929
-0.2763713 -0.39491615 0.44923788
-0.27639318 -0.39468667 0.44922471
-0.27641562 -0.39447758 0.44921651
-0.27643815 -0.39427134 0.44920444
-0.27645999 -0.39406404 0.4492023
-0.27648315 -0.39385855 0.44918427
-0.27650598 -0.39365214 0.44917008
-0.27652803 -0.39341819 0.44915903
-0.27654871 -0.39316946 0.44916019
-0.27657127 -0.39292276 0.44913962
-0.27659336 -0.39267552 0.44912493
-0.27661607 -0.39242896 0.44910437
-0.27669308 -0.39214817 0.44911849
-0.28089207 -0.38179621 0.44917288
-0.27580068 -0.4159072 0.44944987
-0.27579212 -0.41570377 0.4494366
-0.27581853 -0.41550383 0.4494276
-0.27584577 -0.41530469 0.44940877
-0.27584323 -0.41513494 0.44940716
-0.27588546 -0.41500467 0.44939673
-0.2759127 -0.41480577 0.44937986
-0.27620488 -0.41456315 0.44944763
-0.27595517 -0.41467607 0.44936657
-0.27623051 -0.41436291 0.44944966
-0.27598095 -0.41447094 0.44936311
-0.27600002 -0.41421771 0.44936505
-0.27601999 -0.41396463 0.44935894
-0.27629584 -0.413652 0.4494361
-0.27603975 -0.41371107 0.44935691
-0.27606016 -0.41345811 0.44934684
-0.2760517 -0.41323584 0.44934314
-0.27644649 -0.41302118 0.44945008
-0.27607504 -0.41299772 0.44932717
-0.27635822 -0.41289473 0.44939402
-0.27614784 -0.41289717 0.44944802
-0.2760717 -0.41280046 0.44931126
-0.27612939 -0.41273952 0.44930243
-0.27640688 -0.41242871 0.44935974
-0.27617514 -0.41247454 0.44936597
-0.27651092 -0.41230029 0.44944739
-0.27622184 -0.41221154 0.44941759
-0.27656525 -0.4118458 0.44938266
-0.27654654 -0.41156763 0.44934827
-0.27661121 -0.41139093 0.44937712
-0.27630946 -0.41131753 0.44937539
-0.2765764 -0.41123432 0.44934279
-0.27427566 -0.41123232 0.44933176
-0.27665401 -0.41095304 0.4493266
-0.27429512 -0.41100103 0.44932121
-0.27801967 -0.41087157 0.44943768
-0.27431244 -0.41076764 0.44933653
-0.27804476 -0.4106434 0.44942236
-0.27667093 -0.4107306 0.44934902
-0.27668935 -0.41051021 0.44935143
-0.27670932 -0.41029096 0.44933808
-0.27673128 -0.41005841 0.449334
-0.27437243 -0.41009554 0.44929376
-0.27648059 -0.40988314 0.44945455
-0.27675256 -0.40982211 0.44933549
-0.2767801 -0.40958756 0.44929338
-0.27650556 -0.40964735 0.44943008
-0.27650797 -0.40944767 0.44934857
-0.27655393 -0.4091768 0.44939929
-0.27660552 -0.40911213 0.44944808
-0.27659947 -0.40891236 0.4494141
-0.27661848 -0.4086808 0.44940862
-0.27661097 -0.40848053 0.44938755
-0.27666324 -0.4084166 0.44942841
-0.27662992 -0.40824896 0.44938296
-0.27668187 -0.40818465 0.44942778
-0.27670076 -0.4079527 0.44942516
-0.27664849 -0.40801662 0.4493843
-0.27669406 -0.40776151 0.44939846
-0.27673015 -0.40762007 0.44941282
-0.27674642 -0.40743724 0.44940737
-0.27678531 -0.40725863 0.44942802
-0.27677861 -0.4070709 0.44940376
-0.27621508 -0.40706521 0.44945395
-0.27677304 -0.40688428 0.44936579
-0.27624345 -0.40683332 0.44942203
-0.27684915 -0.40678588 0.44945487
-0.27679455 -0.40666503 0.44934505
-0.27687198 -0.40656808 0.44941825
-0.27679533 -0.4064624 0.44931036
-0.27627048 -0.40659904 0.44940776
-0.2768476 -0.40639845 0.44935119
-0.27629703 -0.40636516 0.44939956
-0.27682239 -0.40622905 0.44929433
-0.27632353 -0.40613106 0.44939336
-0.27687556 -0.40596282 0.4493005
-0.27634493 -0.40590766 0.44938704
-0.27692872 -0.40569746 0.44930679
-0.2763662 -0.40568751 0.44937316
-0.27695587 -0.40546411 0.44929266
-0.2763876 -0.40546617 0.44935912
-0.27697778 -0.40524125 0.44928038
-0.27640966 -0.40524679 0.44933718
-0.27702972 -0.40517697 0.4493252
-0.27705181 -0.40495768 0.44930136
-0.27796444 -0.40475696 0.44944769
-0.27645406 -0.40480274 0.44929445
-0.27798992 -0.40452489 0.44943556
-0.2764746 -0.40456793 0.44929957
-0.27801642 -0.4042908 0.44942936
-0.27649671 -0.40433437 0.44928682
-0.27803686 -0.40406632 0.449435
-0.2765173 -0.4040992 0.44929394
-0.27808005 -0.40362537 0.44940114
-0.2781021 -0.40340599 0.44937921
-0.27777597 -0.40354681 0.44945168
-0.27779707 -0.40332109 0.44944483
-0.27781859 -0.40308735 0.44943804
-0.27814654 -0.40296197 0.4493365
-0.27784023 -0.40285325 0.44943124
-0.27816939 -0.40272677 0.44932967
-0.27789381 -0.40279076 0.44945621
-0.27818871 -0.40249306 0.4493348
-0.2778886 -0.40258795 0.44943893
-0.27793682 -0.40232253 0.44944859
-0.27788341 -0.40238523 0.44942164
-0.27821013 -0.40225881 0.449332
-0.27790499 -0.40215123 0.4494167
-0.27823505 -0.40202555 0.44930333
-0.2779589 -0.40208909 0.44943768
-0.2779541 -0.40189332 0.44941741
-0.27797624 -0.40167421 0.44940531
-0.27799851 -0.40145493 0.44939318
-0.27829853 -0.40134594 0.44928944
-0.27799428 -0.40126729 0.44936562
-0.2780323 -0.40112698 0.44937059
-0.27807051 -0.40098688 0.4493736
-0.27806681 -0.40079886 0.44934043
-0.27811429 -0.40051925 0.44933581
-0.2780607 -0.40058178 0.44931084
-0.27807927 -0.40033096 0.44931942
-0.278133 -0.40026864 0.4493424
-0.27815261 -0.40001768 0.44934106
-0.27809921 -0.40008035 0.44931412
-0.27811933 -0.39983115 0.44930694
-0.27817273 -0.39976847 0.44933388
-0.27816617 -0.39955157 0.44931459
-0.278189 -0.39933097 0.44929123
-0.27823806 -0.39907813 0.44928724
-0.27624413 -0.39633894 0.44931105
-0.27626535 -0.39612761 0.44930163
-0.27628684 -0.39590129 0.44928765
-0.2754114 -0.42005301 0.4496243
-0.27535352 -0.42011377 0.44963509
-0.27543265 -0.4198418 0.44960928
-0.27537477 -0.41990256 0.44962007
-0.27545393 -0.41962853 0.44959822
-0.27539605 -0.4196893 0.44960901
-0.27547327 -0.41941753 0.44960505
-0.27549461 -0.41917703 0.44960135
-0.27551883 -0.4189271 0.44958895
-0.27554485 -0.41867545 0.44957247
-0.27556953 -0.41842568 0.44955599
-0.27559367 -0.41817531 0.44954747
-0.27561396 -0.41795325 0.44954628
-0.27563712 -0.41773427 0.44953826
-0.27565873 -0.41751647 0.44953412
-0.27565199 -0.41732973 0.44952855
-0.27567452 -0.41711277 0.44951451
-0.27595752 -0.41698757 0.44959137
-0.2759794 -0.41676986 0.44958523
-0.27572367 -0.41685915 0.44951057
-0.27575982 -0.41638377 0.44949016
-0.27580443 -0.41631144 0.44962433
-0.27580243 -0.41610903 0.44953811
-0.27574283 -0.41596794 0.44946066
-0.27616274 -0.41570571 0.44961101
-0.27759671 -0.41520369 0.44963804
-0.27612481 -0.41516244 0.44948149
-0.27761877 -0.41498616 0.4496299
-0.27625534 -0.41483411 0.44955927
-0.27628344 -0.41463587 0.44953141
-0.27765545 -0.41452515 0.44963214
-0.27630973 -0.41443565 0.44952536
-0.27604246 -0.41453525 0.44962502
-0.27633506 -0.41423506 0.44953138
-0.27607051 -0.41433263 0.44959375
-0.27608976 -0.41407958 0.44959372
-0.27610761 -0.41382414 0.44961342
-0.27771378 -0.4138115 0.44958168
-0.27640283 -0.4135268 0.44948801
-0.27612638 -0.41356951 0.44962329
-0.27608219 -0.41363931 0.44950104
-0.27614665 -0.4133164 0.44961518
-0.27610242 -0.4133862 0.44949293
-0.27779275 -0.41318113 0.44949055
-0.27642542 -0.41327339 0.44946811
-0.27612314 -0.4131338 0.44948083
-0.27616736 -0.41306403 0.44960311
-0.27646241 -0.41276652 0.4494797
-0.27619192 -0.41282722 0.44957227
-0.27787074 -0.41258022 0.44948256
-0.27621621 -0.41259816 0.44956684
-0.27648386 -0.41252631 0.44948658
-0.27789384 -0.41237512 0.44949502
-0.27626571 -0.41233581 0.44959265
-0.27791327 -0.41212225 0.44949296
-0.27631718 -0.41207656 0.44959462
-0.27626574 -0.41214141 0.44954383
-0.27635577 -0.41193053 0.44960934
-0.27629226 -0.41191503 0.44951257
-0.27635622 -0.41173756 0.44955039
-0.27636629 -0.41162217 0.4495672
-0.27638626 -0.41140291 0.44955119
-0.27637842 -0.41121423 0.44953498
-0.27799439 -0.41111055 0.4494606
-0.27641717 -0.41103545 0.44955412
-0.27585217 -0.41095755 0.4496308
-0.27643365 -0.41085285 0.4495433
-0.27649519 -0.41067883 0.44958436
-0.2764262 -0.41066447 0.44952336
-0.27587658 -0.41072175 0.44961041
-0.27651402 -0.41045833 0.44958493
-0.27646142 -0.41052189 0.44954804
-0.27590114 -0.41048691 0.44958818
-0.2765106 -0.41025853 0.44955146
-0.2764326 -0.41035488 0.44948524
-0.27592579 -0.41025072 0.44956768
-0.27650845 -0.41005427 0.44951564
-0.27645668 -0.41011873 0.44946885
-0.2765612 -0.40999088 0.44955054
-0.27594998 -0.41001579 0.44955128
-0.27655828 -0.40978646 0.44952476
-0.27597365 -0.40977964 0.44954279
-0.27658337 -0.40955082 0.44949833
-0.27599233 -0.40954641 0.44954613
-0.2765812 -0.40934759 0.44946447
-0.27663413 -0.40928438 0.4494974
-0.2760103 -0.40931362 0.44955358
-0.27665764 -0.40904802 0.4494909
-0.27602908 -0.40908161 0.44955096
-0.27667746 -0.40881604 0.44948035
-0.27604902 -0.40885109 0.44953445
-0.27606824 -0.40861946 0.44952786
-0.27669623 -0.40858415 0.44947785
-0.27671534 -0.40835249 0.44947124
-0.27614293 -0.40833274 0.44954258
-0.27608782 -0.40839651 0.44951963
-0.27673364 -0.40812019 0.44947457
-0.27610707 -0.40817684 0.44951546
-0.27675289 -0.40788859 0.44946799
-0.27612606 -0.40795675 0.44951725
-0.27614522 -0.40773675 0.44951707
-0.27618521 -0.40729663 0.44950396
-0.27776083 -0.40677884 0.44956782
-0.27745235 -0.40669766 0.44963795
-0.27778423 -0.40655711 0.44952977
-0.27747282 -0.40647918 0.44962189
-0.2747879 -0.40655118 0.44960892
-0.27779788 -0.40633425 0.44957724
-0.27481267 -0.40632099 0.44956243
-0.27749246 -0.40625972 0.44961572
-0.27751294 -0.406041 0.4495995
-0.27758637 -0.40575749 0.44962358
-0.27753314 -0.40582034 0.44959465
-0.27755988 -0.40558553 0.44958237
-0.27487677 -0.4056181 0.44955403
-0.27761313 -0.40552267 0.44961131
-0.27489722 -0.40538284 0.44956303
-0.27790588 -0.40522265 0.44951567
-0.27761388 -0.40532112 0.44957685
-0.27764052 -0.4050864 0.44956759
-0.27793542 -0.40499198 0.44946992
-0.2776677 -0.40485319 0.44955146
-0.27766863 -0.4046517 0.44951788
-0.27772138 -0.40458831 0.44955277
-0.2777423 -0.40436438 0.44955245
-0.27769035 -0.40442866 0.44950762
-0.27776489 -0.40414566 0.44952267
-0.27771214 -0.40420905 0.44948775
-0.27778581 -0.40392378 0.4495146
-0.27773353 -0.40398771 0.44947374
-0.27775478 -0.40376744 0.44946173
-0.27780786 -0.4037044 0.44949266
-0.27782941 -0.40348414 0.44947866
-0.27558461 -0.40344015 0.44960669
-0.27785048 -0.40325841 0.4494718
-0.27787152 -0.40302414 0.44947097
-0.27498996 -0.42440715 0.44980639
-0.27501154 -0.4241899 0.44980299
-0.27503341 -0.42397323 0.44979745
-0.27505508 -0.42375606 0.4497959
-0.27507693 -0.42353946 0.44979036
-0.27509904 -0.42332286 0.44978482
-0.27512097 -0.42309818 0.44977599
-0.27514291 -0.42286283 0.44976312
-0.27510774 -0.42268863 0.44975311
-0.27542138 -0.42255306 0.44980851
-0.27516562 -0.4226279 0.44974232
-0.27518702 -0.42239258 0.4497374
-0.27520922 -0.42215642 0.44972453
-0.27546468 -0.42208192 0.44979271
-0.27523121 -0.42192221 0.44971365
-0.2754862 -0.42184508 0.4497878
-0.27550986 -0.42161262 0.44975707
-0.27525261 -0.42168099 0.4497048
-0.27527714 -0.42143705 0.44969159
-0.27553195 -0.42136922 0.44975615
-0.275554 -0.4211255 0.44975686
-0.27530083 -0.42119223 0.44967818
-0.27532384 -0.42094618 0.44967285
-0.27534533 -0.42070195 0.44966939
-0.27536717 -0.42047602 0.44966018
-0.27564538 -0.42016301 0.44972539
-0.27538964 -0.42026377 0.44964528
-0.27566731 -0.41995311 0.44970059
-0.27578917 -0.41960967 0.44981492
-0.27549389 -0.41955411 0.44977212
-0.2772145 -0.41909721 0.4498021
-0.27582976 -0.41918308 0.44981265
-0.27575094 -0.41910687 0.44966036
-0.27577063 -0.41886458 0.44967651
-0.27558953 -0.41903862 0.44980019
-0.27561277 -0.41878763 0.44979972
-0.27563444 -0.41853714 0.44980311
-0.27565813 -0.41828629 0.44979855
-0.27568227 -0.41803589 0.44979003
-0.27568132 -0.41784674 0.44973361
-0.2757259 -0.41759506 0.44977883
-0.27574685 -0.41737652 0.44978264
-0.27603963 -0.41707653 0.449687
-0.27576879 -0.41715917 0.44977462
-0.27582884 -0.41679853 0.44977432
-0.27578467 -0.41654894 0.44964647
-0.275832 -0.41648254 0.44973102
-0.27585045 -0.41624361 0.44972476
-0.27586916 -0.41600481 0.44971654
-0.27591768 -0.41593677 0.44980305
-0.27599105 -0.4156369 0.44980788
-0.27591315 -0.41573334 0.44974065
-0.27595773 -0.41546553 0.44976524
-0.27590892 -0.41553321 0.44968268
-0.27540812 -0.4155362 0.44979835
-0.27599704 -0.41533354 0.44978166
-0.27593508 -0.41533297 0.44967666
-0.27543572 -0.41533744 0.44977644
-0.27599955 -0.41516793 0.44972551
-0.27602097 -0.41500059 0.44972551
-0.27604815 -0.41480136 0.44970885
-0.27609161 -0.41463566 0.44972795
-0.27609146 -0.41446775 0.44970557
-0.27611804 -0.41426352 0.44969219
-0.27613729 -0.41401047 0.44969213
-0.27554595 -0.41417217 0.44976884
-0.27556622 -0.41391906 0.44976074
-0.27618396 -0.41372603 0.44969952
-0.27558756 -0.41366738 0.44974074
-0.27617818 -0.41350505 0.44967011
-0.27622962 -0.41344023 0.44972089
-0.27622417 -0.41321951 0.44968739
-0.2771886 -0.41309527 0.44973958
-0.27624404 -0.41296625 0.44968522
-0.27565905 -0.41297036 0.44971874
-0.27624044 -0.41275918 0.44965878
-0.27568531 -0.41274408 0.44968933
-0.2762652 -0.41253066 0.4496474
-0.27571231 -0.41251823 0.44965214
-0.27634305 -0.41223878 0.44966683
-0.27577293 -0.41185006 0.44964719
-0.27579179 -0.41162974 0.44964576
-0.27581039 -0.41140953 0.44964623
-0.27702993 -0.41126418 0.44981986
-0.2758289 -0.41118866 0.44965076
-0.27705565 -0.41103694 0.44979855
-0.27707985 -0.41081068 0.44978255
-0.27709797 -0.4105894 0.44978905
-0.27714366 -0.41033822 0.44979811
-0.27716249 -0.41011781 0.44979769
-0.27715534 -0.40992999 0.44977272
-0.27717465 -0.40971002 0.44976732
-0.27722692 -0.40964609 0.44980818
-0.27719632 -0.40947711 0.4497672
-0.27722007 -0.4092406 0.44975477
-0.27724463 -0.40900576 0.44973254
-0.2772691 -0.4087694 0.44971406
-0.2772938 -0.40853503 0.44969171
-0.27457845 -0.40858302 0.44972277
-0.2773186 -0.4083001 0.44966939
-0.27460599 -0.40834928 0.4497025
-0.27733824 -0.40806794 0.44966081
-0.27463418 -0.40811718 0.44967443
-0.27739051 -0.40800402 0.44970167
-0.2774106 -0.40777355 0.44968325
-0.27735785 -0.40783694 0.44964835
-0.27742907 -0.40754116 0.44968459
-0.27737615 -0.4076044 0.44965169
-0.27739462 -0.40737227 0.44965303
-0.27518582 -0.40749484 0.44981286
-0.27744704 -0.40730852 0.44969189
-0.27743948 -0.40710813 0.44967282
-0.27523535 -0.40703917 0.44978046
-0.27745867 -0.40688473 0.44966951
-0.27750477 -0.40663391 0.44967681
-0.27527821 -0.40659782 0.44975054
-0.27752572 -0.40641597 0.44965479
-0.27529976 -0.40637788 0.44973454
-0.27754521 -0.40619633 0.44965062
-0.27756503 -0.40597689 0.44964236
-0.27534252 -0.40593207 0.44971165
-0.27540654 -0.40522939 0.44970125
-0.27542844 -0.40499577 0.44969249
-0.27459016 -0.42785779 0.44999543
-0.27461329 -0.4276301 0.44998223
-0.27469128 -0.42734149 0.44997811
-0.27463639 -0.42740256 0.44996902
-0.27471751 -0.42711455 0.44994506
-0.27474073 -0.42688701 0.44993174
-0.274764 -0.42666313 0.44992524
-0.27478752 -0.4264392 0.44991702
-0.27481118 -0.42621627 0.44990692
-0.27483481 -0.42599285 0.44989866
-0.27485842 -0.42576918 0.44989043
-0.27488115 -0.42554393 0.44988182
-0.27490273 -0.42531565 0.44986743
-0.27492449 -0.42508867 0.44985119
-0.27494586 -0.42486089 0.4498409
-0.27496767 -0.42463389 0.44982663
-0.27508399 -0.42427078 0.4499993
-0.27510589 -0.42405385 0.44999191
-0.27512744 -0.42383683 0.44999033
-0.27514926 -0.42361987 0.44998682
-0.27388063 -0.42354754 0.44999236
-0.27541152 -0.42353025 0.4499841
-0.27517131 -0.42340341 0.44997931
-0.27535459 -0.4232288 0.44984567
-0.27519357 -0.42318702 0.4499718
-0.27390265 -0.42331332 0.44998148
-0.27392539 -0.42307061 0.4499726
-0.27521485 -0.42296159 0.44997087
-0.2739476 -0.42282709 0.44997132
-0.27531573 -0.4227562 0.44991055
-0.2752572 -0.42248881 0.449965
-0.27552086 -0.42241967 0.44995177
-0.27399331 -0.42233515 0.44996449
-0.27554041 -0.42218423 0.44995281
-0.27528009 -0.4222551 0.44994223
-0.27527744 -0.42205238 0.44989306
-0.27401778 -0.42209122 0.44994116
-0.27532607 -0.4217867 0.44989663
-0.27404043 -0.42186618 0.44992203
-0.2740593 -0.42165288 0.44993493
-0.27534816 -0.4215433 0.44989571
-0.27536771 -0.42129982 0.44991034
-0.27538991 -0.42105338 0.44991481
-0.27543941 -0.42098641 0.44998941
-0.2754395 -0.42077437 0.44993284
-0.2741434 -0.42080718 0.44988874
-0.27543992 -0.42056319 0.4498722
-0.27416739 -0.42056665 0.44986916
-0.27546191 -0.42033744 0.44986102
-0.27419063 -0.42031562 0.44986868
-0.27548191 -0.4201254 0.44986001
-0.27553236 -0.4200595 0.44992271
-0.27576542 -0.41982117 0.44984385
-0.27552581 -0.41987985 0.4498992
-0.27554542 -0.41966832 0.4498961
-0.27559566 -0.41942322 0.44988757
-0.27556536 -0.41927898 0.44982177
-0.27561566 -0.41921291 0.44988644
-0.27563095 -0.41896579 0.44995621
-0.27565631 -0.41871712 0.44992992
-0.27568474 -0.41847107 0.44986778
-0.27570811 -0.41821986 0.44986722
-0.27668151 -0.41804245 0.44997552
-0.27573061 -0.41796768 0.44987854
-0.27670255 -0.41780159 0.44997579
-0.27664602 -0.4178609 0.44998655
-0.27578208 -0.41790286 0.44992933
-0.27580503 -0.4176808 0.44991219
-0.27575228 -0.41774419 0.44987732
-0.27672976 -0.41755199 0.44994354
-0.27579957 -0.417494 0.44989771
-0.27675363 -0.41730094 0.44993699
-0.27582231 -0.4172774 0.44987965
-0.27581763 -0.41709149 0.44985718
-0.27677944 -0.41705242 0.44990665
-0.27587038 -0.41702807 0.4498921
-0.27586046 -0.41665134 0.44984362
-0.27587873 -0.41641253 0.44983935
-0.27589798 -0.4161745 0.4498232
-0.27595058 -0.41611093 0.44986007
-0.27596995 -0.41587284 0.44984388
-0.27690652 -0.41570458 0.4499262
-0.27692878 -0.41548359 0.44990286
-0.27665436 -0.41489151 0.4499585
-0.27667281 -0.41465569 0.44996268
-0.27669835 -0.41445473 0.44996461
-0.27672434 -0.41425422 0.44996068
-0.2767511 -0.41405454 0.4499487
-0.27677822 -0.41385522 0.44993275
-0.2768071 -0.41365856 0.44989508
-0.2768541 -0.41320249 0.44986778
-0.27687064 -0.41294569 0.44990334
-0.27689061 -0.41269231 0.44989932
-0.27691054 -0.41243884 0.44989517
-0.27696297 -0.41237509 0.44993404
-0.27693111 -0.41218629 0.44988507
-0.27695563 -0.41194949 0.44985425
-0.27476799 -0.4118543 0.44999194
-0.2769796 -0.41172007 0.44985279
-0.27700502 -0.41149193 0.44983336
-0.27479059 -0.41161728 0.44999349
-0.27705762 -0.41142836 0.44987023
-0.27481574 -0.41138166 0.44996703
-0.27405015 -0.41135776 0.44999543
-0.27483991 -0.41114673 0.44995061
-0.27404267 -0.41115755 0.44997439
-0.27710789 -0.41097301 0.44983941
-0.27486408 -0.41091111 0.44993615
-0.27408838 -0.41089469 0.44998232
-0.27488339 -0.4106786 0.44993156
-0.27410811 -0.41066363 0.44996983
-0.27490121 -0.41044563 0.44994101
-0.27412787 -0.41044083 0.44995961
-0.27414644 -0.41022044 0.44996339
-0.2740927 -0.41028276 0.44994041
-0.27411216 -0.41006318 0.44993627
-0.27493978 -0.40998292 0.4499239
-0.27416494 -0.40999979 0.44997117
-0.27495918 -0.40975147 0.44991538
-0.27418455 -0.40978032 0.44996503
-0.27497861 -0.40952834 0.44990912
-0.27417797 -0.40959257 0.44993934
-0.27419901 -0.40937278 0.44992456
-0.27499735 -0.40930811 0.44991091
-0.27501696 -0.40908873 0.44990477
-0.27425492 -0.40910932 0.44989595
-0.2750366 -0.40886927 0.44989863
-0.27505609 -0.40864944 0.44989437
-0.27510452 -0.40819559 0.44985932
-0.27513289 -0.40796369 0.44982743
-0.27515861 -0.40772802 0.44982901
-0.27421579 -0.43183023 0.45017365
-0.27423686 -0.4315846 0.45016652
-0.27425829 -0.43133909 0.45015556
-0.2742798 -0.43109462 0.45014459
-0.27435377 -0.43078583 0.45017236
-0.27430132 -0.43084958 0.4501335
-0.27435029 -0.43059397 0.450138
-0.27434757 -0.43041342 0.45010209
-0.27438611 -0.43027601 0.45010692
-0.27442467 -0.43013862 0.45011175
-0.2744216 -0.42995781 0.45007971
-0.27447256 -0.42971587 0.45006889
-0.2744956 -0.42950314 0.45005938
-0.27480483 -0.4293409 0.45015314
-0.27446225 -0.42932093 0.45003623
-0.27451715 -0.42925987 0.45004532
-0.27453074 -0.42879784 0.45003232
-0.2745797 -0.4285152 0.45002824
-0.27459988 -0.42826566 0.4500331
-0.27456719 -0.42808574 0.45000863
-0.27472058 -0.42789021 0.45017287
-0.27462173 -0.42802432 0.45002168
-0.27464488 -0.42779654 0.45000651
-0.27474323 -0.4276619 0.45016366
-0.27466735 -0.42756814 0.45000124
-0.27478927 -0.42720649 0.45013925
-0.27352849 -0.4271588 0.45017412
-0.27481219 -0.42697886 0.45013002
-0.27355137 -0.42693371 0.45016351
-0.27483559 -0.42675152 0.45011473
-0.27357295 -0.42670542 0.45014912
-0.27485836 -0.42652708 0.45011419
-0.27359453 -0.42647827 0.45013484
-0.27488205 -0.42630333 0.45010397
-0.27361622 -0.42625087 0.45012057
-0.27490553 -0.42608026 0.45009583
-0.27363804 -0.42602387 0.45010629
-0.27492917 -0.4258568 0.45008761
-0.27365986 -0.4257966 0.45009202
-0.2749528 -0.42563316 0.45007938
-0.27368143 -0.42557934 0.45008862
-0.27497569 -0.4254081 0.45006877
-0.27370349 -0.42536286 0.45008111
-0.27499712 -0.4251796 0.45005637
-0.27378172 -0.42508355 0.45008466
-0.27372581 -0.42514643 0.45007163
-0.27501917 -0.42495298 0.45003617
-0.27380362 -0.42486691 0.45007914
-0.27374804 -0.42493019 0.45006213
-0.27504072 -0.42472541 0.45002389
-0.27377015 -0.42471361 0.45005661
-0.27506253 -0.42449841 0.45000961
-0.27379176 -0.42448854 0.45005175
-0.27381289 -0.42425233 0.4500488
-0.2751449 -0.42397836 0.45017773
-0.27383462 -0.42401633 0.45003992
-0.27516675 -0.42376167 0.45017219
-0.27385798 -0.42378312 0.45001116
-0.2751869 -0.42354581 0.45017263
-0.27520859 -0.42332903 0.45016909
-0.27523088 -0.4231126 0.45016158
-0.27525496 -0.42288733 0.45014277
-0.27618578 -0.42266107 0.45015493
-0.27528447 -0.42265731 0.45005447
-0.27620628 -0.42244267 0.45016724
-0.27530703 -0.4224222 0.45003563
-0.27532151 -0.42218226 0.45009825
-0.27625006 -0.42200926 0.45015815
-0.27534288 -0.42194524 0.4500953
-0.27627182 -0.42178437 0.45015129
-0.27632606 -0.42172259 0.45016831
-0.27536321 -0.42171213 0.45008841
-0.27634913 -0.42148852 0.45014158
-0.27629361 -0.42154887 0.45014042
-0.27538645 -0.42146999 0.4500736
-0.27634227 -0.42128178 0.45014203
-0.27541327 -0.42122856 0.45003259
-0.27633771 -0.42107859 0.4501147
-0.27637619 -0.42092991 0.45011383
-0.27641413 -0.42078069 0.45011887
-0.27650478 -0.42056757 0.45016778
-0.27643615 -0.42054647 0.45010799
-0.275482 -0.42049107 0.45002025
-0.27654594 -0.42042142 0.45014203
-0.27643037 -0.42033458 0.45009956
-0.27650952 -0.42023805 0.45015982
-0.27550352 -0.42026478 0.45001504
-0.27648589 -0.42006251 0.45005614
-0.27650955 -0.41981772 0.45004272
-0.27653453 -0.41957381 0.45001355
-0.27622151 -0.41945815 0.45017678
-0.2765536 -0.41932687 0.45003986
-0.27624246 -0.41924718 0.45016384
-0.27657712 -0.41909984 0.45002666
-0.27659509 -0.41888857 0.45003363
-0.27664474 -0.41882178 0.45010626
-0.27628139 -0.41882074 0.45017749
-0.27666599 -0.41861048 0.45009124
-0.2766152 -0.41867602 0.4500325
-0.27630496 -0.41860998 0.45013866
-0.2766884 -0.41840053 0.45006233
-0.27663726 -0.4184657 0.45000756
-0.27632526 -0.41840002 0.45013356
-0.27670819 -0.41818565 0.45006913
-0.2766574 -0.41825119 0.45001042
-0.27634895 -0.41815913 0.45011792
-0.27672884 -0.41797605 0.45006007
-0.27662185 -0.41810125 0.45000815
-0.27637351 -0.41790956 0.45010158
-0.27675122 -0.41773373 0.45006031
-0.27639899 -0.4176603 0.45007518
-0.27642319 -0.41740999 0.45006466
-0.27644667 -0.4171589 0.45006409
-0.27646866 -0.41693574 0.45005888
-0.27649045 -0.41671824 0.45005089
-0.27651012 -0.41649827 0.45007056
-0.27653384 -0.41628286 0.4500407
-0.27435198 -0.41626889 0.45016989
-0.27437842 -0.4160645 0.45015848
-0.27439716 -0.41581088 0.45016444
-0.27659541 -0.41560444 0.45001692
-0.27441812 -0.41555884 0.45014641
-0.27661273 -0.4153643 0.4500246
-0.27443689 -0.41530418 0.4501563
-0.27663243 -0.41512656 0.45000446
-0.2744568 -0.41505069 0.45015219
-0.27447766 -0.41479847 0.45013815
-0.27450106 -0.41456041 0.45012119
-0.2745268 -0.41433299 0.45009786
-0.27454913 -0.41410145 0.4501161
-0.27457604 -0.41387588 0.45007876
-0.27460256 -0.41364953 0.45004749
-0.27462646 -0.41342294 0.45003539
-0.27464524 -0.41320235 0.45003402
-0.27466252 -0.41298062 0.4500505
-0.2746827 -0.41276175 0.45003322
-0.27470228 -0.41254261 0.4500218
-0.27472097 -0.41232193 0.45002437
-0.27474439 -0.41209096 0.4500024
-0.27389294 -0.43505007 0.45032561
-0.27403226 -0.43404832 0.45035857
-0.2740517 -0.43380272 0.45035684
-0.27407405 -0.4335559 0.45033908
-0.27439219 -0.4334338 0.45035765
-0.27407289 -0.43334287 0.45028302
-0.27441439 -0.4331868 0.45034188
-0.27409655 -0.43312722 0.45027572
-0.27443537 -0.43294039 0.45033804
-0.27446038 -0.43272474 0.45032278
-0.27414712 -0.43287966 0.45029292
-0.27424562 -0.43268037 0.45027903
-0.27448431 -0.43251005 0.45031756
-0.27417135 -0.43248302 0.45023912
-0.27450848 -0.43229467 0.45031226
-0.27419615 -0.43226814 0.45022786
-0.27453342 -0.43208012 0.45029911
-0.27421939 -0.43204212 0.45021993
-0.27455804 -0.43186504 0.45028982
-0.27434739 -0.43187934 0.45035484
-0.27426741 -0.43176559 0.45022243
-0.27458099 -0.43163866 0.45028588
-0.27436933 -0.43163487 0.45033592
-0.27428964 -0.43152121 0.45020142
-0.27309918 -0.43153015 0.45035771
-0.27460212 -0.4313933 0.45027691
-0.2743904 -0.43138921 0.4503288
-0.27312261 -0.43131775 0.45034212
-0.27462322 -0.43114766 0.45026976
-0.27441165 -0.43114355 0.4503198
-0.27431038 -0.43127498 0.45019838
-0.27314579 -0.431106 0.45033073
-0.27433193 -0.43103051 0.45018741
-0.27464461 -0.43090215 0.45025879
-0.27443269 -0.43089855 0.45031479
-0.27316964 -0.43089417 0.45031127
-0.27466649 -0.43065804 0.45024386
-0.27445456 -0.43065387 0.45029974
-0.27319038 -0.43065 0.45030713
-0.27468851 -0.43041354 0.45022681
-0.27447757 -0.43043041 0.45028183
-0.27450162 -0.43021858 0.45025843
-0.27471003 -0.43018848 0.45022678
-0.27323169 -0.43015772 0.45029521
-0.27473408 -0.42997667 0.45020336
-0.27325308 -0.42990547 0.45028812
-0.2745482 -0.42979354 0.45023146
-0.27457139 -0.42958176 0.45022011
-0.27327389 -0.42965662 0.45028505
-0.2745949 -0.42936957 0.45020464
-0.2732954 -0.42941493 0.45027763
-0.27331841 -0.42918697 0.45026442
-0.27334172 -0.42895949 0.45024922
-0.27465698 -0.42863315 0.45018852
-0.27336466 -0.42873177 0.45023799
-0.27344364 -0.42844146 0.45023981
-0.27338806 -0.42850471 0.45022279
-0.27467787 -0.42838037 0.45018739
-0.27341112 -0.42827702 0.45021147
-0.27469903 -0.42813191 0.45018029
-0.27343458 -0.42805329 0.45020297
-0.27345806 -0.42782936 0.45019475
-0.2734814 -0.42760608 0.45018861
-0.27480268 -0.42735875 0.45035216
-0.27350503 -0.42738262 0.45018038
-0.27482545 -0.42713085 0.45034292
-0.274849 -0.42690393 0.45032579
-0.27487159 -0.42667568 0.45032039
-0.274896 -0.42645305 0.45030001
-0.27491933 -0.42622894 0.45029375
-0.27494302 -0.42600602 0.45028365
-0.27586579 -0.42579794 0.45035213
-0.27496663 -0.42578259 0.45027542
-0.27588749 -0.42557171 0.45034084
-0.27498993 -0.42555857 0.45027116
-0.27594405 -0.42550951 0.45034593
-0.27591279 -0.42534706 0.45032638
-0.27596733 -0.42528564 0.45033944
-0.27501485 -0.42533275 0.45025259
-0.2759915 -0.42506242 0.45032328
-0.27593663 -0.42512348 0.45031416
-0.27503476 -0.42510557 0.45024219
-0.27598798 -0.42487031 0.45030564
-0.27505583 -0.42487788 0.45023388
-0.27598491 -0.42467821 0.45028394
-0.275078 -0.42465103 0.45021367
-0.27602392 -0.42453557 0.45028734
-0.27608865 -0.42436057 0.45031613
-0.27509949 -0.42442366 0.45020336
-0.27613598 -0.42410165 0.4503468
-0.27605879 -0.42419887 0.45027065
-0.27512163 -0.42419675 0.45018512
-0.27608055 -0.42397076 0.45025426
-0.27618524 -0.42384309 0.45033398
-0.27607444 -0.42377388 0.45023844
-0.27615398 -0.42367923 0.45028582
-0.27609661 -0.423547 0.45021823
-0.27617592 -0.42345208 0.45026857
-0.27584147 -0.4233892 0.45034093
-0.27619761 -0.42322499 0.45025533
-0.27611759 -0.4233191 0.45021391
-0.27620468 -0.42308545 0.45022443
-0.27586308 -0.42317191 0.45033747
-0.27630213 -0.4229036 0.4502666
-0.27620345 -0.42292035 0.45022687
-0.27588543 -0.42295575 0.45032597
-0.27632469 -0.42268738 0.45025125
-0.27624142 -0.42278087 0.45023268
-0.27590725 -0.42273879 0.45032245
-0.27634719 -0.4224714 0.45023775
-0.27626336 -0.42256427 0.45022613
-0.27592927 -0.42252234 0.45031491
-0.2763105 -0.42231447 0.45025295
-0.2762605 -0.42238089 0.45018429
-0.27595153 -0.42230591 0.4503074
-0.2763705 -0.42225602 0.45021635
-0.27625406 -0.42219383 0.45018512
-0.2763418 -0.4220269 0.45022568
-0.27597329 -0.42208102 0.45030051
-0.27638304 -0.4218505 0.45024043
-0.2759954 -0.42184588 0.45028567
-0.27637622 -0.42165634 0.45023498
-0.27601713 -0.42160985 0.45027679
-0.27639881 -0.42142174 0.45021421
-0.27603966 -0.42137578 0.45025799
-0.27642068 -0.42118588 0.4502033
-0.27606168 -0.42113948 0.45024711
-0.27644259 -0.4209511 0.45019245
-0.27608451 -0.42090616 0.45022631
-0.27646378 -0.4207139 0.4501915
-0.27610725 -0.42066345 0.45021743
-0.27613077 -0.42042136 0.45020026
-0.27615446 -0.42017654 0.45018685
-0.27617732 -0.41993031 0.45018348
-0.27620018 -0.41968459 0.45017999
-0.27626112 -0.41903302 0.45018059
-0.27421916 -0.41726762 0.45021769
-0.27424517 -0.41706723 0.45021364
-0.27427155 -0.41686714 0.45020574
-0.27429837 -0.41666749 0.45019376
-0.27432454 -0.41646713 0.45018971
-0.27348211 -0.43917331 0.45052102
-0.27353096 -0.43870363 0.45050928
-0.27363354 -0.43786061 0.45044243
-0.27368242 -0.43762076 0.45047349
-0.27440354 -0.43756026 0.45052031
-0.27373195 -0.43737838 0.45050225
-0.27445421 -0.43714422 0.45049554
-0.27374992 -0.43712017 0.450499
-0.27448076 -0.43693835 0.45046738
-0.27372167 -0.43691716 0.45039099
-0.2737675 -0.43684915 0.45049343
-0.27453324 -0.43652406 0.45042479
-0.27386314 -0.43662456 0.45047253
-0.2737565 -0.43638095 0.45038009
-0.27455091 -0.43626553 0.45042551
-0.27380249 -0.43631315 0.45048055
-0.27382025 -0.43604526 0.4504731
-0.27377424 -0.43611309 0.45037267
-0.27381814 -0.43584144 0.45041674
-0.27390686 -0.43563992 0.45049649
-0.27397254 -0.43547234 0.45052603
-0.27399677 -0.43526632 0.45051733
-0.27389041 -0.43539509 0.4504416
-0.27391443 -0.43518773 0.45043674
-0.27273366 -0.43519941 0.45052934
-0.2740213 -0.43505946 0.45050651
-0.27393961 -0.43498296 0.45041808
-0.27275518 -0.43495169 0.45052153
-0.27400512 -0.43481538 0.4504506
-0.27277678 -0.43470597 0.45050973
-0.27469069 -0.43453968 0.45037797
-0.27402866 -0.43459517 0.45043954
-0.27283236 -0.43464273 0.45052671
-0.27409294 -0.43441358 0.45047367
-0.272829 -0.43445808 0.45050991
-0.27471438 -0.43433192 0.45037711
-0.27406162 -0.43423104 0.45042002
-0.27282542 -0.4342753 0.45049322
-0.27284995 -0.43406031 0.45048392
-0.27413565 -0.43391919 0.45045418
-0.27287462 -0.43384543 0.45047477
-0.27437106 -0.43368047 0.45036337
-0.27415761 -0.43367338 0.4504385
-0.27289927 -0.43363038 0.45046547
-0.27417931 -0.43342584 0.45042869
-0.27292252 -0.43340436 0.45045757
-0.2742011 -0.43318033 0.45041493
-0.27294347 -0.43315879 0.45045054
-0.27422592 -0.4329645 0.45040166
-0.27296454 -0.43291312 0.45044345
-0.27424988 -0.43274984 0.45039645
-0.27298608 -0.43266779 0.45043048
-0.27427405 -0.43253446 0.45039114
-0.27300808 -0.43242383 0.45041355
-0.274299 -0.43231991 0.450378
-0.27432379 -0.432105 0.45036671
-0.27302942 -0.43217859 0.45040444
-0.27305225 -0.43195495 0.45038852
-0.27307549 -0.43174225 0.45037502
-0.27440718 -0.4315581 0.45053563
-0.27442625 -0.43131322 0.45053646
-0.27445066 -0.43106806 0.45050561
-0.27447152 -0.43082285 0.45050257
-0.27449387 -0.43057871 0.45048156
-0.27451575 -0.430354 0.45047754
-0.27453679 -0.43014187 0.45047402
-0.27456015 -0.42992941 0.45046067
-0.27458304 -0.42971644 0.45045105
-0.27460656 -0.42950505 0.4504357
-0.27558395 -0.42918614 0.45053881
-0.2746304 -0.42929322 0.45041627
-0.27560702 -0.42897323 0.45052734
-0.27465132 -0.42904922 0.45041013
-0.27563101 -0.42876145 0.45050603
-0.27564162 -0.42865553 0.45050323
-0.27568161 -0.42851824 0.45049798
-0.27469233 -0.42855662 0.45040214
-0.27570492 -0.42830664 0.45048463
-0.27471405 -0.42830473 0.45039105
-0.27572829 -0.42809427 0.45047116
-0.27473503 -0.42805609 0.45038599
-0.27572265 -0.42788181 0.45044959
-0.27577606 -0.4278191 0.45047653
-0.27475625 -0.42781401 0.45038253
-0.27477956 -0.42758644 0.45036536
-0.27579099 -0.42735851 0.45044759
-0.27570879 -0.42745173 0.45042455
-0.27581203 -0.4271059 0.45044494
-0.27547631 -0.42700666 0.45053625
-0.2758328 -0.42685699 0.45044285
-0.27579999 -0.42667845 0.45041144
-0.27549928 -0.4267787 0.45052308
-0.27588072 -0.42658359 0.45045283
-0.2755219 -0.42655048 0.45051584
-0.27587754 -0.42638761 0.45041925
-0.27554548 -0.42632347 0.45049667
-0.27590033 -0.42615956 0.45041001
-0.27556872 -0.4260962 0.4504835
-0.27595022 -0.42590076 0.45040929
-0.2758702 -0.42599487 0.45036787
-0.27592069 -0.42573687 0.45036122
-0.27559111 -0.42586777 0.4504801
-0.27597311 -0.42567313 0.45040008
-0.27561504 -0.42564458 0.45046568
-0.275996 -0.42544523 0.45039076
-0.27563873 -0.42542085 0.45045546
-0.27601913 -0.42522115 0.45038626
-0.27566206 -0.42519757 0.45044935
-0.27604297 -0.4249976 0.45037407
-0.27568585 -0.42497432 0.4504391
-0.27606615 -0.42477417 0.45036989
-0.275709 -0.42475015 0.45043683
-0.27608946 -0.42455035 0.45036563
-0.27573222 -0.42452544 0.45042229
-0.2757538 -0.42429712 0.45040789
-0.27619004 -0.42403969 0.45036584
-0.2757749 -0.42406943 0.45039958
-0.27579659 -0.42384204 0.45038533
-0.27581888 -0.42361557 0.4503651
-0.27350509 -0.44042492 0.45071939
-0.27341482 -0.44030347 0.45067745
-0.27352479 -0.4401786 0.45070949
-0.27354476 -0.43993261 0.45069763
-0.27347833 -0.4395726 0.45064908
-0.27358729 -0.43945068 0.4506892
-0.27361161 -0.43921325 0.4506852
-0.27350327 -0.43933988 0.45063329
-0.2735278 -0.43910512 0.45062542
-0.27363566 -0.43897796 0.4506833
-0.273552 -0.43887019 0.45062155
-0.27365986 -0.43874303 0.45067939
-0.27368468 -0.43850845 0.45066953
-0.27357665 -0.43863544 0.45061368
-0.27360144 -0.43841371 0.45060575
-0.27366817 -0.43824652 0.45062655
-0.27245089 -0.43824741 0.45065004
-0.27369452 -0.4380396 0.45060223
-0.27246803 -0.43797991 0.45064658
-0.2737202 -0.43783212 0.4505859
-0.27378675 -0.4376649 0.45060867
-0.27254057 -0.43764716 0.4506641
-0.27248561 -0.43771112 0.45063916
-0.27381301 -0.43745938 0.45058456
-0.27250284 -0.43744266 0.4506377
-0.27383879 -0.43725011 0.45057201
-0.27252406 -0.43720528 0.4506276
-0.27385712 -0.43699226 0.4505648
-0.27257621 -0.43696654 0.45062739
-0.27387503 -0.43672159 0.45055526
-0.27260089 -0.43676096 0.45061371
-0.27259636 -0.43658438 0.45060992
-0.27389207 -0.43645397 0.45055377
-0.27259248 -0.43640989 0.450598
-0.27390939 -0.43618488 0.45055032
-0.27266246 -0.43624574 0.45058483
-0.27270252 -0.43611082 0.450589
-0.2739273 -0.43591717 0.4505409
-0.27272499 -0.43587682 0.45057756
-0.2726694 -0.43594006 0.45056054
-0.27274567 -0.43562859 0.45057568
-0.27269056 -0.43569237 0.4505527
-0.27271205 -0.43544561 0.45054102
-0.27278924 -0.43513617 0.45054635
-0.27529785 -0.43261486 0.45070833
-0.27531818 -0.43236727 0.45071253
-0.2753399 -0.43211976 0.45070273
-0.27536157 -0.4318741 0.45069093
-0.27535918 -0.43168902 0.45067012
-0.27497578 -0.43171591 0.45071766
-0.27535802 -0.43150747 0.45063159
-0.27541062 -0.4314439 0.45066848
-0.27538204 -0.43129188 0.45062828
-0.27502453 -0.43128535 0.45070517
-0.2754356 -0.43122938 0.45065323
-0.2754339 -0.43104625 0.4506256
-0.27507657 -0.43102735 0.45070177
-0.27545795 -0.43083054 0.45062327
-0.27512419 -0.43075037 0.45070922
-0.2754811 -0.43060443 0.45061636
-0.27547514 -0.43038997 0.45059887
-0.27514562 -0.4305051 0.45069814
-0.27552938 -0.43032819 0.45061588
-0.27516672 -0.43025926 0.45069113
-0.27552444 -0.43011463 0.45058733
-0.27551836 -0.4298996 0.45057285
-0.27518857 -0.43001515 0.4506762
-0.27557242 -0.42983761 0.45059183
-0.27520996 -0.42976996 0.45066708
-0.27559412 -0.42959335 0.45057887
-0.2755399 -0.42965513 0.45056185
-0.27523312 -0.42954668 0.45064721
-0.27561551 -0.42934814 0.45056978
-0.27556145 -0.4294101 0.45055076
-0.27525619 -0.42933378 0.45063573
-0.27563787 -0.42912397 0.45055982
-0.2752797 -0.42912149 0.45062038
-0.27566159 -0.42891181 0.45054039
-0.27530292 -0.42890888 0.45060679
-0.27532658 -0.42869765 0.45058948
-0.27535009 -0.42848545 0.45057401
-0.27537069 -0.4282411 0.45057184
-0.27541214 -0.42774895 0.4505589
-0.27543345 -0.42749664 0.45055276
-0.27545476 -0.42724836 0.4505437
-0.27267426 -0.44765949 0.45086354
-0.27363148 -0.44551298 0.45081875
-0.27365202 -0.4452652 0.45082009
-0.27297556 -0.44463152 0.45088887
-0.27311045 -0.44426945 0.45089585
-0.27313435 -0.44403055 0.45088255
-0.27304599 -0.44391423 0.45086712
-0.27187547 -0.44400337 0.45088676
-0.2731576 -0.44379115 0.45087931
-0.27189928 -0.4437902 0.45087105
-0.27318195 -0.44355279 0.45086205
-0.27189392 -0.4435975 0.45087659
-0.2730934 -0.44345424 0.45084211
-0.27194679 -0.44334561 0.45086524
-0.27316085 -0.44328585 0.45084241
-0.27191088 -0.4431822 0.45089686
-0.27318457 -0.44307274 0.45082486
-0.2719712 -0.44312415 0.45085633
-0.27325183 -0.44290417 0.45082712
-0.27316451 -0.44281396 0.45079339
-0.2719956 -0.44290274 0.45084727
-0.27193528 -0.44296083 0.45088783
-0.27327579 -0.44269052 0.45080957
-0.27201951 -0.44268048 0.45084429
-0.27329916 -0.44247708 0.45079798
-0.2720418 -0.44244599 0.45083186
-0.27332294 -0.44226387 0.45078227
-0.27321184 -0.44238749 0.45076412
-0.27206069 -0.44219789 0.45082989
-0.2733469 -0.44204125 0.45077744
-0.27207983 -0.44194949 0.45082808
-0.27337104 -0.44181997 0.4507685
-0.2733953 -0.4415983 0.45076156
-0.2734192 -0.44137636 0.45075846
-0.27344376 -0.44115481 0.45074752
-0.27346572 -0.44091997 0.45073906
-0.27348512 -0.4406724 0.45073116
-0.27492279 -0.43656686 0.45088506
-0.27495101 -0.43635988 0.4508529
-0.27497357 -0.43615329 0.45085663
-0.27500248 -0.43594447 0.45082223
-0.27457538 -0.43590155 0.45089769
-0.27501848 -0.43568707 0.45082694
-0.27503613 -0.43541607 0.45082134
-0.27461061 -0.4353658 0.45088279
-0.27505356 -0.43514886 0.45081589
-0.27507123 -0.43488017 0.45080844
-0.27468383 -0.43503451 0.45089433
-0.2747041 -0.43479609 0.45089611
-0.27464917 -0.43486005 0.45087117
-0.27508742 -0.43461055 0.45082083
-0.2747286 -0.43458912 0.45088542
-0.27467334 -0.43465272 0.45086443
-0.27510932 -0.43437392 0.45080277
-0.27472508 -0.4344148 0.45086724
-0.27513316 -0.43416622 0.4508
-0.27474943 -0.43420774 0.45085841
-0.27474704 -0.43403485 0.45082828
-0.27515849 -0.43396142 0.45077741
-0.27478772 -0.43389922 0.45083243
-0.27518299 -0.43375456 0.45076662
-0.27482674 -0.4337647 0.45084053
-0.27520731 -0.4335489 0.45075789
-0.27484927 -0.43353069 0.45082912
-0.27523226 -0.43334287 0.45074323
-0.2748706 -0.43328321 0.45081931
-0.27525347 -0.43310741 0.45074767
-0.27483889 -0.43309936 0.45077866
-0.27489215 -0.43303651 0.45080763
-0.27527517 -0.43286031 0.4507339
-0.27491379 -0.43279034 0.45079595
-0.27493566 -0.43254301 0.45078415
-0.27495766 -0.43229768 0.45076838
-0.27498278 -0.43208221 0.45075113
-0.27500591 -0.43186659 0.45075586
-0.27503023 -0.43165138 0.45074856
-0.27505484 -0.43143648 0.45073938
-0.27507931 -0.43122119 0.45073208
-0.27223915 -0.45159596 0.45107973
-0.27225816 -0.45138448 0.4510712
-0.27227777 -0.45117396 0.45105684
-0.2723164 -0.45075193 0.45103607
-0.27233699 -0.45053017 0.45102602
-0.27235922 -0.45029351 0.45101881
-0.27238175 -0.4500573 0.45100749
-0.27247494 -0.44912729 0.45097071
-0.27253377 -0.44871724 0.45093694
-0.27274656 -0.44811228 0.45106119
-0.27277642 -0.44790772 0.45104122
-0.27280575 -0.44770271 0.45102718
-0.27151063 -0.44776529 0.45107067
-0.27153212 -0.44751859 0.45106009
-0.27282846 -0.44746482 0.45101786
-0.27285001 -0.4472203 0.45100352
-0.27155367 -0.44726995 0.45104742
-0.27163258 -0.44696018 0.45102996
-0.27154529 -0.44705078 0.45105207
-0.27156645 -0.44680169 0.45104536
-0.27289277 -0.44673547 0.45097905
-0.27165425 -0.44671163 0.45101726
-0.27155846 -0.44658083 0.45104986
-0.27291515 -0.44648656 0.45096248
-0.27167371 -0.44645879 0.45103425
-0.27161795 -0.44652185 0.45101923
-0.27293676 -0.44624168 0.45095211
-0.27163929 -0.44627416 0.45101056
-0.27157947 -0.44633275 0.45104516
-0.27169603 -0.44621214 0.45101365
-0.27160367 -0.44609344 0.45102254
-0.27295777 -0.44599444 0.45094746
-0.27169091 -0.44600275 0.45100141
-0.27297935 -0.44574583 0.45093483
-0.27168474 -0.44579354 0.45100784
-0.27167991 -0.44558525 0.45099765
-0.27300042 -0.44549683 0.45092809
-0.27167493 -0.44537702 0.45099086
-0.27302164 -0.44524777 0.45092139
-0.27173379 -0.44531736 0.45096815
-0.27304289 -0.44499692 0.45091653
-0.27172798 -0.44510806 0.45097119
-0.27175125 -0.44488662 0.45096147
-0.27306411 -0.44474906 0.45090982
-0.27180466 -0.44464388 0.45092955
-0.27174485 -0.44470251 0.45096415
-0.27308685 -0.44450811 0.45090505
-0.27182794 -0.44443026 0.45091793
-0.27176794 -0.44448867 0.45095453
-0.27179176 -0.44427487 0.45093894
-0.27183345 -0.44413894 0.45091483
-0.27183962 -0.443849 0.45090368
-0.27188662 -0.44340387 0.45090383
-0.27446231 -0.44117084 0.45105612
-0.27448341 -0.44095767 0.45105633
-0.27450705 -0.44073465 0.45105547
-0.2745302 -0.44051233 0.45105842
-0.27455506 -0.44029135 0.45104352
-0.27449721 -0.44035211 0.4510543
-0.27457961 -0.44007009 0.45103246
-0.27460384 -0.43984818 0.45102552
-0.27459589 -0.43964264 0.45103434
-0.27464426 -0.43936473 0.45102105
-0.27422321 -0.43935642 0.45107573
-0.27463746 -0.43914855 0.45099682
-0.27427155 -0.43907946 0.45106542
-0.27468461 -0.43887168 0.45099145
-0.27463105 -0.43893418 0.45096648
-0.27464706 -0.43868685 0.45098639
-0.27470413 -0.43862519 0.45098555
-0.27434215 -0.43856621 0.4510625
-0.27428609 -0.43862891 0.45105147
-0.27436665 -0.43832892 0.45105651
-0.27431074 -0.43839183 0.45104349
-0.27472052 -0.43817523 0.45095718
-0.27433512 -0.4381569 0.45103759
-0.2743912 -0.4380942 0.45104864
-0.27477202 -0.43790692 0.45096117
-0.27438748 -0.43789071 0.45103824
-0.27479658 -0.4376722 0.4509533
-0.27441221 -0.43765604 0.45102936
-0.27482095 -0.43743744 0.45094743
-0.27443698 -0.43743432 0.45102146
-0.27443469 -0.4372586 0.45099765
-0.2748453 -0.43720236 0.45094353
-0.2744759 -0.43712357 0.45099103
-0.2748709 -0.43698153 0.45092568
-0.27451679 -0.43698815 0.45098835
-0.27489644 -0.43677425 0.45090941
-0.27454269 -0.43678159 0.45096809
-0.27448696 -0.43684468 0.45095307
-0.27454066 -0.43660718 0.45094144
-0.27456677 -0.4363983 0.45092395
-0.27455661 -0.43617129 0.45091715
-0.27461267 -0.43610859 0.45092821
-0.27463078 -0.4358381 0.45091668
-0.27459213 -0.4356336 0.45090014
-0.27464786 -0.43557054 0.45091519
-0.27466556 -0.43530181 0.45090774
-0.27182475 -0.45563552 0.45125911
-0.27185032 -0.4553754 0.45124155
-0.27187586 -0.45511472 0.45122585
-0.27190134 -0.45485345 0.45121214
-0.27192703 -0.45459449 0.45119447
-0.27195099 -0.4543609 0.45118585
-0.27197349 -0.4541491 0.45118123
-0.27199659 -0.45393804 0.45117056
-0.27201965 -0.45372611 0.45116201
-0.2720418 -0.4535144 0.45116323
-0.27206454 -0.45330274 0.45115864
-0.27222449 -0.45311144 0.45125934
-0.27209002 -0.45305872 0.45114771
-0.27224997 -0.45286742 0.45124841
-0.27211609 -0.45280698 0.45113569
-0.27227542 -0.45261496 0.45124432
-0.27214274 -0.45255539 0.45111984
-0.27230173 -0.45236301 0.45123243
-0.27216852 -0.45230418 0.45111179
-0.27226114 -0.45208207 0.45116308
-0.27222028 -0.45180792 0.45108613
-0.27237302 -0.45161167 0.45125833
-0.27233529 -0.45146188 0.4512468
-0.27239171 -0.45139953 0.45125389
-0.2724112 -0.45118856 0.45123941
-0.27240205 -0.45100862 0.45122847
-0.27242094 -0.45079714 0.45122302
-0.27246895 -0.4505555 0.45121023
-0.27117366 -0.45048618 0.45125309
-0.2724894 -0.45033354 0.45120218
-0.27251193 -0.45009726 0.45119098
-0.27126145 -0.45004579 0.4512139
-0.27120358 -0.45010653 0.45122465
-0.27253416 -0.44986069 0.45118362
-0.27129105 -0.4498409 0.45119584
-0.27255696 -0.44962496 0.45117033
-0.27132094 -0.44963643 0.45117387
