# .PCD v0.7 - Point Cloud Data file format
VERSION 0.7
FIELDS x y z
SIZE 4 4 4
TYPE F F F
COUNT 1 1 1
WIDTH 1335
HEIGHT 1
VIEWPOINT 0 0 0 1 0 0 0
POINTS 1335
DATA ascii
0.78494585 -0.042033546 -0.22175246
0.78508377 -0.042038456 -0.22169591
0.78524941 -0.042017717 -0.22165573
0.78544402 -0.042089462 -0.22160229
0.78510749 -0.041900974 -0.22172605
0.78521538 -0.041810006 -0.22172627
0.785438 -0.041862722 -0.22162786
0.78529614 -0.041746195 -0.2216962
0.78540468 -0.041656237 -0.22168516
0.78557205 -0.041756008 -0.22158307
0.78529054 -0.041516766 -0.22174764
0.78541821 -0.041488405 -0.22172183
0.7856198 -0.041481838 -0.22163604
0.78584146 -0.041529015 -0.22158265
0.78589636 -0.041482031 -0.22158767
0.78547823 -0.041359507 -0.22174063
0.78558683 -0.041273393 -0.22170216
0.7857818 -0.041346103 -0.22163077
0.78588986 -0.041256648 -0.22161907
0.78566772 -0.041206997 -0.22168994
0.78577501 -0.041117389 -0.22168358
0.78599721 -0.041167039 -0.22161271
0.78610486 -0.041078154 -0.22159973
0.78562844 -0.041006282 -0.22174674
0.78570855 -0.040937833 -0.2217534
0.78596342 -0.040958822 -0.22168267
0.78621233 -0.040988691 -0.22159204
0.78629369 -0.040918209 -0.22160557
0.78584492 -0.040826403 -0.22172832
0.78595144 -0.040734131 -0.22174646
0.7861526 -0.040802956 -0.22165692
0.78631645 -0.040783115 -0.22162297
0.78603315 -0.040664729 -0.22175005
0.78614002 -0.040579356 -0.2217166
0.78634024 -0.040645335 -0.22165325
0.78644842 -0.040558033 -0.22162569
0.78632945 -0.040421087 -0.22170706
0.78655636 -0.040470082 -0.22160409
0.78666389 -0.040380836 -0.22159442
0.78636611 -0.040162966 -0.22175434
0.78651828 -0.040266868 -0.22167207
0.78662586 -0.040177979 -0.22165909
0.78650028 -0.040054601 -0.22172077
0.78667384 -0.040062029 -0.22167312
0.78681457 -0.040023528 -0.22162627
0.78653723 -0.03979931 -0.22174752
0.78671622 -0.039874971 -0.22170402
0.78688973 -0.039883904 -0.22164647
0.78703046 -0.039841704 -0.22162572
0.78659075 -0.039754041 -0.22174864
0.78669858 -0.039663721 -0.22174489
0.78690439 -0.0397189 -0.22168609
0.7870453 -0.039679285 -0.22164552
0.78685993 -0.039531935 -0.22171517
0.78703046 -0.0395042 -0.22167359
0.78720123 -0.039476823 -0.22162871
0.78686988 -0.039298519 -0.22174425
0.78707641 -0.039353818 -0.22168452
0.78724676 -0.039326474 -0.22164129
0.78741723 -0.03929748 -0.22160931
0.78695011 -0.039233416 -0.2217261
0.78705853 -0.039146617 -0.22169392
0.78726482 -0.039199509 -0.22165236
0.78737271 -0.039108545 -0.22165258
0.78693259 -0.039023042 -0.22175717
0.78704166 -0.03893647 -0.22171898
0.78722078 -0.039010029 -0.22169256
0.78739095 -0.038981669 -0.22165981
0.78756142 -0.03895596 -0.22160654
0.78723007 -0.038777262 -0.22172205
0.78743619 -0.038832765 -0.22166194
0.78760618 -0.038806625 -0.22161466
0.78783059 -0.038732063 -0.22158563
0.78713214 -0.038633149 -0.2217553
0.78721279 -0.038566217 -0.22174802
0.78741908 -0.038621828 -0.22169431
0.78759176 -0.038629211 -0.22165382
0.78775913 -0.038566407 -0.22162034
0.78788412 -0.03868679 -0.22158676
0.78729326 -0.038498852 -0.22174475
0.7874012 -0.03841069 -0.22172515
0.78760839 -0.038464978 -0.22167568
0.78771579 -0.038375627 -0.22166701
0.78792185 -0.038432475 -0.22159849
0.78738469 -0.038186189 -0.22175783
0.78759098 -0.038253721 -0.22170365
0.7878238 -0.038287573 -0.2216464
0.78793108 -0.038200591 -0.22162186
0.78746665 -0.038120344 -0.22173463
0.78757411 -0.038030881 -0.22172695
0.78777933 -0.038097993 -0.22168259
0.7879492 -0.038072351 -0.22163616
0.78811985 -0.038043484 -0.22160752
0.78747803 -0.037874766 -0.22175694
0.78759325 -0.037898447 -0.22172597
0.7877633 -0.037874784 -0.22170335
0.78796846 -0.037944771 -0.22163849
0.78807533 -0.037856493 -0.22162586
0.78830808 -0.037886143 -0.22159836
0.78761208 -0.037765145 -0.22173296
0.78771973 -0.037676439 -0.22171831
0.78795195 -0.037720047 -0.22167316
0.78818369 -0.037764132 -0.221633
0.7882911 -0.037674569 -0.22162631
0.78855079 -0.03768336 -0.22158596
0.78767723 -0.037473202 -0.22175449
0.78782779 -0.037585907 -0.22171456
0.78793514 -0.037496228 -0.22170886
0.7881403 -0.03756452 -0.22165029
0.78831089 -0.037540331 -0.22163126
0.78848046 -0.037516929 -0.22161295
0.78778458 -0.037385318 -0.22173624
0.78795445 -0.037363242 -0.22170696
0.78812408 -0.037342388 -0.22167039
0.78832895 -0.037407052 -0.22163926
0.78843737 -0.0373176 -0.22162558
0.78864193 -0.037381917 -0.22160502
0.78797334 -0.037226267 -0.22173579
0.78808093 -0.03713993 -0.2217053
0.78831285 -0.037183773 -0.22166698
0.7885443 -0.037226629 -0.2216318
0.78865314 -0.037135456 -0.221628
0.78798401 -0.036981247 -0.22175913
0.7881887 -0.037051439 -0.22168869
0.788297 -0.036958858 -0.22169781
0.78850144 -0.037029248 -0.22163582
0.78867078 -0.037004508 -0.22162512
0.78884071 -0.036983509 -0.22158401
0.78814584 -0.036850218 -0.22172046
0.78831589 -0.036825571 -0.22170478
0.78848547 -0.03680566 -0.2216574
0.78869033 -0.03686776 -0.2216519
0.78879786 -0.036781315 -0.22162238
0.7890029 -0.036846634 -0.22158529
0.78818315 -0.036582295 -0.22174196
0.78833425 -0.036690876 -0.22172466
0.78846902 -0.036582191 -0.2216901
0.78867447 -0.036645912 -0.22166041
0.78890491 -0.036693573 -0.22160481
0.78901327 -0.036603902 -0.22159311
0.78831834 -0.036468908 -0.22173774
0.78857619 -0.036495883 -0.22166127
0.78865802 -0.036423892 -0.2216827
0.78886223 -0.036490999 -0.22163673
0.78903186 -0.036468968 -0.22160909
0.78914803 -0.036490627 -0.22159091
0.78829575 -0.036257777 -0.22175749
0.78850716 -0.036313046 -0.22171485
0.78867698 -0.036289897 -0.22169177
0.78884697 -0.036267322 -0.2216634
0.78905112 -0.036335863 -0.22160818
0.789159 -0.036244899 -0.2216084
0.78849298 -0.036092576 -0.22175033
0.78866404 -0.036104705 -0.22171722
0.78880352 -0.03606417 -0.22170804
0.78903514 -0.036112554 -0.22163641
0.78929394 -0.036134958 -0.2215814
0.78937411 -0.036066838 -0.22158507
0.78868222 -0.035936579 -0.22172573
0.78885067 -0.035910532 -0.22170967
0.78904605 -0.035865303 -0.22166841
0.78922313 -0.035956312 -0.22162096
0.78935826 -0.035844974 -0.22160289
0.78869581 -0.035697252 -0.22174089
0.78889775 -0.035756677 -0.2217133
0.78900552 -0.035668187 -0.22169667
0.78920776 -0.035730857 -0.22165519
0.78937757 -0.035709467 -0.22161987
0.78952003 -0.035709925 -0.22159331
0.78868234 -0.035479993 -0.22175759
0.78885746 -0.035560723 -0.22174287
0.78902584 -0.035537314 -0.22170255
0.78919417 -0.035511751 -0.22167808
0.78942323 -0.035553578 -0.22162457
0.78953153 -0.03546283 -0.22162081
0.78904611 -0.035406116 -0.22171137
0.78915393 -0.035317838 -0.22169277
0.7893827 -0.035357326 -0.22164591
0.78961182 -0.035397723 -0.22160266
0.78969193 -0.035332181 -0.22158851
0.78903282 -0.035187405 -0.22173749
0.789262 -0.035227299 -0.22168902
0.78936958 -0.035138264 -0.22167735
0.78957176 -0.035201181 -0.22162366
0.78967851 -0.035113718 -0.22160542
0.789222 -0.035030309 -0.22172101
0.78939009 -0.035007216 -0.22168228
0.78955847 -0.034983266 -0.2216475
0.78973252 -0.035069741 -0.22159463
0.78910083 -0.034903582 -0.22174157
0.78920871 -0.034811679 -0.2217484
0.78941071 -0.03487391 -0.22170207
0.78951871 -0.034786172 -0.2216785
0.78974676 -0.034829825 -0.22161025
0.78916842 -0.0346184 -0.22175708
0.78939736 -0.034656532 -0.22172087
0.78962606 -0.03469649 -0.22167279
0.78973424 -0.034609072 -0.22164622
0.78924894 -0.034551248 -0.22175181
0.78935784 -0.034460142 -0.22174735
0.78958607 -0.034500528 -0.22169928
0.78975379 -0.034478445 -0.22165424
0.789922 -0.034457657 -0.22159725
0.78943211 -0.034289114 -0.22174308
0.78957301 -0.034284223 -0.22170818
0.78977495 -0.034346536 -0.22166216
0.78988236 -0.034259871 -0.22163466
0.78945214 -0.034161065 -0.22175887
0.78955954 -0.034075398 -0.22172409
0.78973442 -0.03415085 -0.22168903
0.78992915 -0.034107789 -0.2216318
0.79009748 -0.034084491 -0.2215925
0.78954655 -0.033871934 -0.22175373
0.78974831 -0.033918805 -0.22170599
0.78997701 -0.033955716 -0.22162294
0.79008484 -0.033867329 -0.22160533
0.78962624 -0.033807904 -0.22173166
0.78973472 -0.033715859 -0.22173581
0.78993654 -0.033767197 -0.22165583
0.7901051 -0.033740245 -0.22161219
0.79027289 -0.033710849 -0.22159104
0.79039401 -0.033836044 -0.22158171
0.78963977 -0.033583317 -0.22174901
0.78975219 -0.033560883 -0.22173439
0.78992295 -0.033563655 -0.22169013
0.79012477 -0.033614025 -0.2216171
0.7902323 -0.03352499 -0.22160542
0.79043514 -0.033572387 -0.22160292
0.78980196 -0.033446435 -0.22175032
0.78990984 -0.033360276 -0.22171618
0.79011178 -0.033411622 -0.22163895
0.79030889 -0.033389349 -0.22161289
0.79044855 -0.033341438 -0.22161478
0.78995681 -0.03321515 -0.22171731
0.79012489 -0.033185806 -0.22166772
0.79032689 -0.033233285 -0.22161812
0.79046869 -0.033218436 -0.22162157
0.79058349 -0.033231493 -0.22158778
0.78997624 -0.03309229 -0.22172523
0.79008496 -0.033003699 -0.22170359
0.79028636 -0.033052653 -0.22164662
0.79045719 -0.033051472 -0.2216308
0.79062343 -0.032984626 -0.22160931
0.79077172 -0.033072829 -0.2215877
0.78999096 -0.032865684 -0.22175032
0.79010344 -0.03284508 -0.22172253
0.79027301 -0.032848414 -0.22168036
0.79050165 -0.032870997 -0.22164841
0.79067039 -0.03283871 -0.22161588
0.79081178 -0.03282629 -0.22160627
0.79015201 -0.032731168 -0.22174178
0.79026002 -0.032643292 -0.22171952
0.79046214 -0.032689564 -0.22167711
0.79069018 -0.032716826 -0.22161493
0.7908299 -0.032670505 -0.22160645
0.79100019 -0.032669965 -0.22158866
0.7901926 -0.032483902 -0.22175784
0.79030704 -0.032496952 -0.22172879
0.79047561 -0.032462794 -0.22171073
0.79065061 -0.03253204 -0.2216676
0.79081631 -0.032467563 -0.22163238
0.79098731 -0.032467317 -0.22160809
0.79032767 -0.032371383 -0.22174871
0.79043579 -0.032281175 -0.22174196
0.79063755 -0.032327138 -0.22170477
0.79084378 -0.032300793 -0.22165476
0.7910341 -0.032320648 -0.22162147
0.79117543 -0.032310918 -0.22159314
0.79045677 -0.032144096 -0.22174652
0.79062432 -0.032124136 -0.221729
0.79085284 -0.032151159 -0.22166626
0.79102355 -0.032149974 -0.22164984
0.79118901 -0.032086607 -0.22160797
0.78706962 -0.031897269 -0.22174561
0.7872656 -0.031973943 -0.2217211
0.78737283 -0.031885765 -0.22170548
0.78759497 -0.031932116 -0.22174729
0.79073161 -0.032036185 -0.2217114
0.79083991 -0.031947304 -0.22169441
0.79104197 -0.031992223 -0.22166282
0.79114902 -0.031904481 -0.22164525
0.78670681 -0.03172791 -0.22174996
0.78723115 -0.031762805 -0.22173357
0.78745371 -0.031819582 -0.22169128
0.78756088 -0.031729251 -0.22169152
0.78775615 -0.031796295 -0.22174668
0.78786343 -0.031706318 -0.22174361
0.7907204 -0.031802561 -0.22175109
0.79080099 -0.031738319 -0.221725
0.79100198 -0.031811792 -0.22168712
0.79117 -0.031779893 -0.22165622
0.79131019 -0.031773306 -0.22161192
0.78610963 -0.031559892 -0.22174615
0.78630769 -0.031614814 -0.22175996
0.78708905 -0.031639881 -0.22175893
0.78719729 -0.031552713 -0.22173005
0.78741962 -0.031609148 -0.2216963
0.78758442 -0.031591374 -0.22168297
0.78774947 -0.031576183 -0.22164978
0.78797072 -0.03161642 -0.2217399
0.78807771 -0.031531468 -0.2217025
0.78832746 -0.031553328 -0.22174564
0.79048002 -0.031521246 -0.22175172
0.79062766 -0.031637594 -0.22175595
0.79082191 -0.031597529 -0.22173874
0.7909894 -0.031580027 -0.2217216
0.79121715 -0.031633951 -0.22166182
0.7913512 -0.031524226 -0.22163886
0.79155213 -0.031572722 -0.22158815
0.78619015 -0.031492524 -0.22174287
0.78629798 -0.031406082 -0.22171138
0.78652239 -0.031435523 -0.22174792
0.78662944 -0.031344905 -0.22175083
0.78685635 -0.03137752 -0.2217523
0.7870549 -0.031434182 -0.2217523
0.7873047 -0.031463105 -0.22172369
0.78741187 -0.031373065 -0.22172131
0.78760743 -0.031454891 -0.22166748
0.78776187 -0.031408079 -0.22164004
0.78796417 -0.031395234 -0.22164898
0.78815949 -0.031467877 -0.22166446
0.78826678 -0.031377975 -0.22166073
0.78848946 -0.031417459 -0.2217405
0.79053384 -0.031476837 -0.22174489
0.79064226 -0.031384367 -0.22175302
0.79084289 -0.031459644 -0.22173163
0.79099983 -0.031410266 -0.22171704
0.79120475 -0.031402688 -0.22169168
0.79143161 -0.031459551 -0.22161674
0.79153973 -0.03136823 -0.22161828
0.79171443 -0.031435918 -0.22158881
0.78615743 -0.031221077 -0.22174795
0.78634435 -0.031218519 -0.22170593
0.78651261 -0.031230524 -0.22167289
0.78665179 -0.03122114 -0.22170129
0.78684443 -0.03116641 -0.22173148
0.78704393 -0.031219821 -0.22174929
0.78726923 -0.03125374 -0.22175084
0.7873773 -0.031166108 -0.22172627
0.78760004 -0.031218257 -0.22169462
0.78782231 -0.031278759 -0.22163227
0.78793001 -0.031190047 -0.22161764
0.7881254 -0.031264015 -0.22161594
0.78828967 -0.031237237 -0.22167304
0.78845483 -0.031221673 -0.2216448
0.78867763 -0.031263795 -0.22170521
0.78878587 -0.031172819 -0.22170344
0.7897734 -0.031196753 -0.22175771
0.79049516 -0.03126622 -0.22175494
0.79060328 -0.031175684 -0.22175118
0.79083109 -0.03122765 -0.22173506
0.79105914 -0.031279005 -0.22172016
0.79116672 -0.031190086 -0.22170752
0.79136604 -0.031270612 -0.22166461
0.79150033 -0.031162646 -0.22162741
0.79172856 -0.031209454 -0.22161536
0.78614104 -0.0310851 -0.22175361
0.7863943 -0.031100059 -0.22171864
0.78650111 -0.031014392 -0.22168787
0.78670108 -0.031075167 -0.22164837
0.78689545 -0.031054795 -0.2216893
0.78703284 -0.031013997 -0.2216858
0.78723097 -0.031064346 -0.22173376
0.7873981 -0.031034999 -0.22173727
0.78756529 -0.031013405 -0.22168523
0.78778857 -0.031067511 -0.22163653
0.7879529 -0.031052243 -0.22161023
0.78809059 -0.031054333 -0.22162002
0.78833991 -0.03108342 -0.22161381
0.78856194 -0.031136937 -0.22160541
0.78866976 -0.03104273 -0.22162943
0.7888661 -0.031104799 -0.22170612
0.78897393 -0.031016409 -0.22168848
0.78923267 -0.031009858 -0.22173339
0.78972769 -0.031022223 -0.22174507
0.7900427 -0.030969534 -0.22175926
0.79045677 -0.031058362 -0.2217458
0.79066211 -0.031047354 -0.22173816
0.79081905 -0.030996654 -0.2217308
0.79101968 -0.031071723 -0.22171383
0.79118741 -0.031052256 -0.22170533
0.79135442 -0.031036304 -0.22167641
0.79160845 -0.03106942 -0.22164249
0.79169023 -0.031000234 -0.2216441
0.79186255 -0.031099565 -0.22159387
0.7860471 -0.03094162 -0.2217491
0.78615397 -0.030854305 -0.22172956
0.78635633 -0.030907469 -0.22172634
0.7864626 -0.030820366 -0.2217088
0.78668976 -0.030861031 -0.22164795
0.78691542 -0.030897526 -0.22162709
0.78705239 -0.03085342 -0.22165006
0.78722048 -0.030855402 -0.22168906
0.78744608 -0.03088434 -0.22172433
0.78761351 -0.030863395 -0.22166635
0.78778005 -0.030837847 -0.22164674
0.78797567 -0.030914115 -0.22160579
0.78808308 -0.030824648 -0.22159812
0.78838611 -0.03080846 -0.2215974
0.78855503 -0.030903121 -0.22160703
0.78860843 -0.030857414 -0.22161213
0.7888577 -0.030889066 -0.22159514
0.78908032 -0.030929729 -0.22166698
0.78918791 -0.030840691 -0.22165532
0.78939348 -0.030874753 -0.22173013
0.78950202 -0.030782707 -0.22173429
0.78974169 -0.030866886 -0.22174275
0.79012358 -0.030903134 -0.22174704
0.79026461 -0.030856803 -0.22174223
0.79043883 -0.030854113 -0.22173972
0.7906723 -0.030879505 -0.22172578
0.79083991 -0.03085891 -0.22172675
0.79100686 -0.030842403 -0.22170198
0.79120779 -0.030916471 -0.22169028
0.79131585 -0.030825935 -0.22168653
0.79154325 -0.030881116 -0.22164837
0.79177094 -0.030933406 -0.22163585
0.79190487 -0.030824253 -0.22160958
0.78613949 -0.030645154 -0.22172023
0.78631479 -0.030717343 -0.22173953
0.78648269 -0.030692521 -0.2217035
0.78667891 -0.030651353 -0.22161406
0.78687745 -0.030707911 -0.22161174
0.7869845 -0.030617369 -0.221614
0.78721064 -0.030653849 -0.22159028
0.78740823 -0.030698927 -0.2216768
0.78763461 -0.030733148 -0.22166938
0.78774214 -0.030649498 -0.22162005
0.7879408 -0.030708348 -0.22160383
0.78816414 -0.030758791 -0.22158092
0.78904629 -0.030731207 -0.22158761
0.78921103 -0.030707635 -0.22161499
0.78937632 -0.030685358 -0.22163044
0.78958213 -0.030717053 -0.22172111
0.78972274 -0.030672207 -0.22170804
0.78989649 -0.030670265 -0.2217015
0.79010391 -0.030709784 -0.22171172
0.79033875 -0.03072528 -0.22172172
0.79047972 -0.030680528 -0.22170638
0.7906546 -0.030675903 -0.22171372
0.79086006 -0.030722128 -0.22171977
0.79096878 -0.030630628 -0.22171894
0.79119599 -0.030684721 -0.22168997
0.79142344 -0.030737013 -0.22167386
0.79153097 -0.030647874 -0.22166319
0.79173166 -0.030723019 -0.22164315
0.79183918 -0.030633915 -0.22163215
0.78609741 -0.030454455 -0.22174448
0.78632665 -0.03048652 -0.22172685
0.78652936 -0.03054128 -0.22170569
0.7866981 -0.030515213 -0.22167324
0.78686661 -0.030493805 -0.22160976
0.78706563 -0.030551944 -0.22159284
0.78722066 -0.030494312 -0.22160394
0.7873981 -0.030495686 -0.22159159
0.78759533 -0.030542737 -0.2216659
0.78776288 -0.030518293 -0.22163203
0.78787559 -0.030541051 -0.22159114
0.78820974 -0.03048379 -0.22158891
0.7887615 -0.030493703 -0.22158539
0.78956455 -0.030526631 -0.22163084
0.78979766 -0.030540057 -0.22168785
0.78993791 -0.030494275 -0.22168338
0.79011208 -0.030487813 -0.22170655
0.79029208 -0.030553862 -0.22169231
0.79045987 -0.030486248 -0.22167684
0.79063463 -0.030482458 -0.22167496
0.79081553 -0.030542815 -0.22169591
0.79098594 -0.030509666 -0.22169337
0.79115695 -0.030476376 -0.22168814
0.7913844 -0.030528033 -0.22167468
0.79155147 -0.030511834 -0.22164826
0.79171962 -0.030493131 -0.22163303
0.79194665 -0.030546317 -0.22161126
0.78596586 -0.030341437 -0.22175704
0.78620493 -0.030368112 -0.22171399
0.78631258 -0.0302794 -0.22169934
0.78651482 -0.030333852 -0.2216845
0.78668642 -0.030345352 -0.22162944
0.78682542 -0.030302852 -0.22162654
0.78705394 -0.030336825 -0.22160313
0.78727996 -0.030371506 -0.2215914
0.78753239 -0.030383803 -0.22158247
0.78778386 -0.030390536 -0.22161822
0.78786433 -0.03032586 -0.22159611
0.78972518 -0.030396782 -0.22159109
0.7899226 -0.03033432 -0.22162695
0.79009289 -0.030296326 -0.22165136
0.79027337 -0.030357813 -0.22166429
0.79044437 -0.030321997 -0.22166145
0.79061526 -0.030287905 -0.22164673
0.79082346 -0.030326292 -0.22165385
0.79103047 -0.030362373 -0.22169046
0.79120153 -0.030330092 -0.22167794
0.791372 -0.030296013 -0.221682
0.79157174 -0.030375253 -0.22163829
0.79167962 -0.030287083 -0.22161868
0.79190779 -0.030336965 -0.22161594
0.79210746 -0.030415103 -0.22158024
0.78596008 -0.030125795 -0.22174509
0.78616291 -0.030177807 -0.22173931
0.78633153 -0.030150542 -0.22171253
0.7864992 -0.030118749 -0.22172348
0.78670251 -0.030180281 -0.22165139
0.78684253 -0.030144244 -0.22159688
0.78734809 -0.030091384 -0.22158554
0.78991365 -0.030238651 -0.22158603
0.79002064 -0.030147884 -0.22159027
0.79028082 -0.030142391 -0.22161955
0.79048848 -0.030177725 -0.2216555
0.79065996 -0.030145325 -0.22162521
0.79083061 -0.030110478 -0.22161742
0.79101139 -0.030171588 -0.22162718
0.79118586 -0.030165672 -0.22164647
0.79132664 -0.030118588 -0.22164862
0.79153371 -0.030163577 -0.22165425
0.79173821 -0.030157739 -0.22161491
0.79189563 -0.030105796 -0.22161317
0.79204118 -0.030228252 -0.22158952
0.78597981 -0.029954001 -0.22175027
0.78614789 -0.029968882 -0.22173478
0.78631926 -0.029979674 -0.22168429
0.78645724 -0.029936196 -0.22169329
0.78668839 -0.029970035 -0.2216467
0.78691769 -0.030004906 -0.22160925
0.79046917 -0.029987812 -0.22158973
0.79064393 -0.029981216 -0.22161023
0.79075742 -0.029960766 -0.22158638
0.79101825 -0.029955665 -0.22159375
0.79119998 -0.030011918 -0.22163236
0.79134089 -0.029967889 -0.22161238
0.79151601 -0.029960038 -0.22164154
0.79174811 -0.029991103 -0.22159527
0.79191589 -0.029969333 -0.22160318
0.79205692 -0.029972136 -0.22159666
0.7858566 -0.029765707 -0.22175661
0.78596908 -0.029780433 -0.22173867
0.78613639 -0.029747814 -0.22172908
0.78636307 -0.029794544 -0.22168504
0.78653318 -0.029796207 -0.22170667
0.78667283 -0.029756404 -0.22167987
0.78682166 -0.029862341 -0.22161385
0.78698337 -0.029729761 -0.22158742
0.79063112 -0.029852213 -0.2215831
0.79126018 -0.029752316 -0.22158933
0.79141438 -0.029837396 -0.22158827
0.79155886 -0.029820943 -0.22160645
0.7917031 -0.029809551 -0.22158995
0.79193723 -0.029830076 -0.22160704
0.79204589 -0.029738465 -0.22160721
0.78581858 -0.029575162 -0.22175074
0.78598976 -0.029656393 -0.22173566
0.78609693 -0.029566277 -0.22173393
0.78632426 -0.029595315 -0.22168705
0.78654945 -0.029635215 -0.22170092
0.78669143 -0.029632423 -0.22165936
0.78686064 -0.029608076 -0.22160845
0.7870369 -0.029684488 -0.22158855
0.79215217 -0.029651469 -0.22158869
0.78550369 -0.029392354 -0.22175682
0.78561801 -0.029446423 -0.22174855
0.78578186 -0.029383913 -0.22174139
0.78595251 -0.0294651 -0.22173075
0.78615683 -0.029444739 -0.22170992
0.78631151 -0.029392291 -0.22168484
0.78651184 -0.029438794 -0.2216761
0.78668046 -0.029447652 -0.22170024
0.78682005 -0.029423082 -0.2215874
0.78533429 -0.029312052 -0.22175311
0.78563797 -0.029283263 -0.22172788
0.78574491 -0.0291897 -0.22175193
0.78596938 -0.029229673 -0.22171444
0.78616732 -0.029287957 -0.22170281
0.7863332 -0.02926312 -0.22167927
0.78650022 -0.029237717 -0.22165303
0.78672522 -0.029255753 -0.22169846
0.78683335 -0.029168226 -0.22167289
0.78487831 -0.029005386 -0.22175995
0.78529716 -0.029114515 -0.22175041
0.78540468 -0.02902828 -0.22171891
0.78560144 -0.029089844 -0.22173232
0.7858035 -0.029069716 -0.22172411
0.78595901 -0.029014204 -0.22171678
0.78615731 -0.029076478 -0.22167784
0.78632504 -0.029086143 -0.22166304
0.78648949 -0.029024864 -0.22164273
0.78668654 -0.02908049 -0.22165453
0.78691316 -0.02910462 -0.22164685
0.7869935 -0.029036924 -0.22164655
0.78493243 -0.028961841 -0.22174516
0.78501129 -0.02889543 -0.22174495
0.78531539 -0.02886932 -0.22174501
0.78542674 -0.028894361 -0.2217195
0.78559208 -0.028870111 -0.2217202
0.7858147 -0.028910175 -0.22173159
0.78598052 -0.02888393 -0.22171921
0.78614759 -0.028863078 -0.22166117
0.78634542 -0.028922295 -0.22164638
0.7864998 -0.028869018 -0.2216296
0.78667641 -0.028868984 -0.22163084
0.78687382 -0.028923446 -0.22164838
0.78698117 -0.028833687 -0.22164336
0.78492337 -0.028742803 -0.22172999
0.78502887 -0.028653394 -0.22173363
0.7852782 -0.028669925 -0.22174862
0.78544939 -0.028762493 -0.2217012
0.78560454 -0.028711176 -0.22168289
0.78580546 -0.028692385 -0.22170557
0.78600144 -0.02875193 -0.22173752
0.78610891 -0.02866257 -0.22172883
0.78633511 -0.028708605 -0.22163533
0.78655916 -0.028745828 -0.22162014
0.78669637 -0.028703807 -0.22162645
0.78686398 -0.028711244 -0.22162814
0.78703213 -0.028721491 -0.22160663
0.78491384 -0.028518224 -0.2217402
0.78510863 -0.028583976 -0.22174925
0.78521597 -0.028494403 -0.22174254
0.78541344 -0.028561637 -0.2217084
0.78561574 -0.028548678 -0.22167937
0.78577089 -0.028497536 -0.22165838
0.78596687 -0.028561026 -0.22167188
0.7861321 -0.028538693 -0.22165588
0.78629822 -0.028515436 -0.22164047
0.78652304 -0.028556073 -0.22159363
0.78668869 -0.028527636 -0.22159906
0.78685349 -0.028498687 -0.22161312
0.7870779 -0.028535316 -0.22159697
0.78489959 -0.028302589 -0.22175975
0.78507394 -0.028384706 -0.2217304
0.7852385 -0.028360777 -0.22173628
0.78540277 -0.028340003 -0.22172105
0.78562802 -0.028389523 -0.22164612
0.78579307 -0.028364105 -0.22165602
0.78595734 -0.028338319 -0.22167325
0.7861805 -0.028382296 -0.22166252
0.78634667 -0.028362019 -0.22162564
0.78648567 -0.028363008 -0.22160077
0.78670961 -0.028398257 -0.22159761
0.78681648 -0.028310077 -0.22158399
0.78698742 -0.028389668 -0.22158551
0.78495336 -0.028257964 -0.22175492
0.78506136 -0.02817188 -0.2217201
0.78522986 -0.028178997 -0.22172594
0.78541517 -0.028175779 -0.22171895
0.78561878 -0.028168047 -0.22164945
0.78578615 -0.028182521 -0.22162765
0.78592181 -0.028141743 -0.22164704
0.78614616 -0.028187845 -0.22161169
0.78636807 -0.02823016 -0.22162019
0.78647584 -0.028141666 -0.22160354
0.78689677 -0.028242167 -0.22158569
0.78504682 -0.027959704 -0.2217201
0.78527421 -0.02799114 -0.22172929
0.78544301 -0.028000921 -0.22171463
0.78558171 -0.02796004 -0.22170708
0.78580749 -0.028015492 -0.2216031
0.78597116 -0.027989469 -0.22162038
0.78610986 -0.027988248 -0.22161129
0.78633237 -0.028031895 -0.22160445
0.78643996 -0.027942933 -0.22159211
0.78515339 -0.027871598 -0.22170784
0.78525949 -0.027778389 -0.2217346
0.78546083 -0.027836274 -0.22171213
0.78559971 -0.027797876 -0.22168569
0.78579795 -0.027790871 -0.22161379
0.78602058 -0.027837198 -0.22159377
0.78612781 -0.027747195 -0.22159104
0.78707373 -0.027868653 -0.22159135
0.78715432 -0.027801607 -0.22158509
0.7851125 -0.027678965 -0.22172225
0.78519154 -0.027610293 -0.22173688
0.78541994 -0.027646014 -0.22171418
0.78558791 -0.027618408 -0.22170201
0.78575629 -0.027596118 -0.22164886
0.78598475 -0.027636563 -0.22159149
0.78614992 -0.027612491 -0.22159472
0.78628731 -0.027613955 -0.22158258
0.78523827 -0.027455846 -0.22175094
0.7854051 -0.027429484 -0.22174273
0.78563434 -0.027467513 -0.22169884
0.78580236 -0.027444215 -0.22165494
0.78594464 -0.027446182 -0.22158632
0.7852574 -0.02732715 -0.22174762
0.78551167 -0.027341448 -0.22172982
0.78561932 -0.027252629 -0.22171617
0.78582239 -0.027316783 -0.2216436
0.7859298 -0.027230335 -0.22161409
0.78607881 -0.027333975 -0.22158018
0.78526992 -0.027093513 -0.22175191
0.78549665 -0.027124377 -0.22175574
0.78557706 -0.027056899 -0.22175346
0.78577906 -0.027118167 -0.22171497
0.78594923 -0.027100544 -0.22162066
0.78617144 -0.027031459 -0.22158045
0.78565806 -0.026990931 -0.22173727
0.78576463 -0.026900956 -0.22173822
0.78599519 -0.026948579 -0.22162549
0.78610289 -0.026861772 -0.22159731
0.78566945 -0.026755953 -0.2217578
0.78580862 -0.026716208 -0.22173345
0.7859804 -0.026730357 -0.22165804
0.78615123 -0.026743636 -0.22161169
0.78628922 -0.026706109 -0.22158742
0.78579581 -0.026538596 -0.22175077
0.78596443 -0.026514346 -0.22170778
0.78616822 -0.026577109 -0.22162196
0.7863062 -0.026537752 -0.22161055
0.78642297 -0.026592709 -0.22159222
0.78578961 -0.026432276 -0.2217488
0.78594869 -0.026297949 -0.22175026
0.78615272 -0.026364492 -0.22164442
0.78638148 -0.02639924 -0.22160864
0.78648865 -0.026309017 -0.22160792
0.78603095 -0.026235759 -0.22169931
0.7861377 -0.026150055 -0.22166884
0.78633994 -0.026209354 -0.22162573
0.78650749 -0.026182357 -0.22160462
0.78664857 -0.026177069 -0.22158754
0.78604287 -0.025998106 -0.22173426
0.78615832 -0.02602062 -0.22167414
0.78632587 -0.025995767 -0.22163838
0.78652704 -0.026052257 -0.22162108
0.78663349 -0.025965473 -0.22160056
0.78614545 -0.025841514 -0.22170667
0.78628492 -0.025803426 -0.22166787
0.78651249 -0.025839113 -0.2216336
0.78674072 -0.025875574 -0.22159685
0.78682142 -0.02580885 -0.22158761
0.78616345 -0.025675919 -0.22172388
0.78633064 -0.025651759 -0.22168279
0.78649831 -0.025626201 -0.2216486
0.78669912 -0.025684364 -0.22161527
0.78680682 -0.025595542 -0.22160162
0.78617615 -0.025438637 -0.22174382
0.78637731 -0.025499772 -0.22169469
0.78651524 -0.025459124 -0.22168343
0.78668541 -0.025468742 -0.22164726
0.78682637 -0.025466206 -0.22161192
0.78633618 -0.025307044 -0.22172014
0.78650343 -0.025280209 -0.22170442
0.78667074 -0.025253952 -0.22168343
0.78689957 -0.025293535 -0.22160947
0.78634846 -0.025068313 -0.22175413
0.7865231 -0.025150124 -0.22171584
0.78667861 -0.025095737 -0.22170092
0.78688437 -0.025077088 -0.22166084
0.78711385 -0.025116745 -0.22158223
0.78650934 -0.02493475 -0.22173963
0.78673732 -0.024972364 -0.22169554
0.786843 -0.024883421 -0.2216949
0.78704554 -0.024948733 -0.22160733
0.78715271 -0.024858471 -0.22160694
0.78669572 -0.024777934 -0.22173734
0.78686368 -0.024753265 -0.22170135
0.78703165 -0.024730606 -0.22165084
0.787233 -0.024793252 -0.22158979
0.78688329 -0.024622994 -0.22171482
0.78703994 -0.024571856 -0.22166975
0.78724557 -0.024554962 -0.221617
0.78689617 -0.024386315 -0.22174633
0.78709769 -0.024451267 -0.2216509
0.7872051 -0.024361689 -0.22164421
0.7873528 -0.024468508 -0.22158951
0.78705662 -0.02425774 -0.22169882
0.78722239 -0.024197889 -0.22165525
0.7873652 -0.024230385 -0.22161786
0.78710151 -0.023995828 -0.22170974
0.78721285 -0.024018444 -0.22167239
0.78737831 -0.023993708 -0.22164737
0.78757989 -0.0240536 -0.22158863
0.78726172 -0.023864597 -0.22168273
0.78742731 -0.023841226 -0.22164711
0.78759247 -0.02381663 -0.22162278
0.78722602 -0.023667276 -0.22171511
0.787449 -0.023708973 -0.22166651
0.78755689 -0.023623709 -0.22162607
0.78772593 -0.023707964 -0.22159587
0.78721797 -0.023449449 -0.22172652
0.78741342 -0.023512572 -0.22169144
0.78757894 -0.023490993 -0.22164552
0.78774339 -0.023466535 -0.2216261
0.78796583 -0.023507237 -0.22158511
0.78729743 -0.023381963 -0.22173023
0.78740448 -0.023291491 -0.22173183
0.78760195 -0.023361085 -0.22163914
0.78775531 -0.023305899 -0.22164039
0.78795743 -0.023289099 -0.22160482
0.78726351 -0.023184113 -0.22175169
0.78736937 -0.023095712 -0.22174609
0.78759301 -0.02314062 -0.22167489
0.78781503 -0.023182783 -0.22162981
0.78792262 -0.023093749 -0.22161816
0.78809077 -0.023178279 -0.2215938
0.78739274 -0.022963699 -0.22175263
0.78755713 -0.022942433 -0.22171034
0.78777957 -0.022983268 -0.22167556
0.78794444 -0.022960285 -0.22164355
0.78810883 -0.02293765 -0.22161226
0.78760678 -0.022787996 -0.22171946
0.7877714 -0.022763496 -0.22169898
0.78796726 -0.022829626 -0.22164315
0.78807354 -0.02273692 -0.22166526
0.7876296 -0.022657271 -0.2217201
0.78776342 -0.022546889 -0.2217031
0.78795856 -0.022610158 -0.22166774
0.78818095 -0.022652946 -0.22161892
0.78764558 -0.022409063 -0.22175312
0.78772593 -0.02234708 -0.22171219
0.78795004 -0.022390697 -0.22169515
0.78814507 -0.022451321 -0.22167915
0.78828013 -0.022348272 -0.22160259
0.7878325 -0.022254918 -0.22172934
0.78793913 -0.022166094 -0.22172169
0.7881372 -0.022232996 -0.22169514
0.78830159 -0.022213556 -0.22163998
0.78844047 -0.022214714 -0.2215911
0.78779322 -0.022054741 -0.22173369
0.78801924 -0.022100553 -0.22170752
0.78812641 -0.022010224 -0.22170778
0.78832519 -0.022085106 -0.22161976
0.78843176 -0.021996066 -0.22161409
0.78783345 -0.02178611 -0.2217595
0.78798008 -0.021897687 -0.22173074
0.78808695 -0.021809401 -0.22171813
0.78831351 -0.021858288 -0.22166663
0.78853846 -0.02191015 -0.22158563
0.78799474 -0.021652453 -0.22174302
0.78810692 -0.021674654 -0.221735
0.78827333 -0.021649936 -0.22173534
0.7885012 -0.021705171 -0.22163041
0.78860825 -0.021620225 -0.22159299
0.7879287 -0.02147327 -0.22175688
0.78815436 -0.021519355 -0.22173323
0.78838205 -0.021568164 -0.22166479
0.78848791 -0.021479979 -0.2216572
0.78866202 -0.021575602 -0.22158816
0.78816855 -0.021272441 -0.22174712
0.78836828 -0.021337906 -0.22174105
0.78844875 -0.021279044 -0.22167729
0.78867549 -0.021327669 -0.22161651
0.78824866 -0.021203995 -0.22175378
0.7884692 -0.021141164 -0.22170717
0.78863549 -0.021123528 -0.22166409
0.78888917 -0.021151099 -0.22159129
0.78896904 -0.021082003 -0.2216039
0.78823638 -0.020981777 -0.22175881
0.78851646 -0.020987609 -0.22168736
0.7886827 -0.02096696 -0.2216661
0.78885013 -0.020951778 -0.22159851
0.78904974 -0.021015175 -0.22159567
0.78915644 -0.020926459 -0.22158703
0.78853065 -0.020741068 -0.22170652
0.78870338 -0.020832634 -0.22166918
0.78881025 -0.020747256 -0.22163574
0.78903687 -0.020793263 -0.22160694
0.78866404 -0.020629495 -0.22170043
0.78883111 -0.020614156 -0.22163287
0.78899783 -0.020592427 -0.22161226
0.78922319 -0.020637585 -0.22159719
0.78933054 -0.020547975 -0.22159085
0.78854448 -0.020497305 -0.22173493
0.78865099 -0.020409051 -0.22172399
0.78887826 -0.020458309 -0.22163355
0.78904498 -0.020435218 -0.22162351
0.78921109 -0.020412693 -0.22161217
0.78865999 -0.02025192 -0.22173463
0.78886479 -0.020234415 -0.22168489
0.78906536 -0.02030093 -0.22163157
0.78917158 -0.020210808 -0.22163585
0.78937131 -0.020279599 -0.22159839
0.78871673 -0.020129437 -0.2217385
0.78882354 -0.020041041 -0.22172689
0.78902549 -0.02010484 -0.22164266
0.78919172 -0.020078629 -0.22164389
0.78935903 -0.020055437 -0.2216173
0.78870344 -0.01991806 -0.22173829
0.7888419 -0.019877739 -0.22172298
0.78903842 -0.019869212 -0.22166096
0.78923869 -0.019923022 -0.2216578
0.78940547 -0.019902162 -0.22161767
0.78871644 -0.019686384 -0.22173953
0.78882992 -0.019701857 -0.22173354
0.78899807 -0.019679317 -0.22166979
0.7892248 -0.019711211 -0.22166759
0.78939408 -0.019718939 -0.22165079
0.78953254 -0.019682018 -0.22161013
0.78887683 -0.019551849 -0.22173499
0.78904486 -0.01952884 -0.22167553
0.78921175 -0.019498862 -0.22167231
0.78941166 -0.019555513 -0.22165404
0.78954983 -0.019517513 -0.2216233
0.7897191 -0.019527107 -0.22159329
0.78906417 -0.019402865 -0.22167149
0.78917122 -0.019312421 -0.22167276
0.78939831 -0.019343914 -0.22165582
0.78962594 -0.019380448 -0.22161491
0.78976345 -0.019340722 -0.2216001
0.78902262 -0.019207539 -0.22173326
0.78919065 -0.01918285 -0.22168961
0.78935724 -0.019153913 -0.22168504
0.78958482 -0.019190615 -0.22162807
0.78975189 -0.019163769 -0.22160925
0.78989208 -0.019158375 -0.2215988
0.78911692 -0.018906999 -0.22173241
0.78923684 -0.019030532 -0.221708
0.78940398 -0.019002283 -0.22169514
0.78957081 -0.018977119 -0.22166181
0.78977251 -0.019037113 -0.22159432
0.78987885 -0.018944403 -0.22161643
0.79036063 -0.018987048 -0.22158901
0.78922302 -0.018819384 -0.2217195
0.78939217 -0.018824413 -0.22171833
0.78953016 -0.018784095 -0.22170237
0.78975827 -0.018826446 -0.22160988
0.78995878 -0.018881228 -0.22158641
0.78921276 -0.018604295 -0.22172888
0.78940988 -0.018659588 -0.2217357
0.7895475 -0.018620307 -0.22171414
0.7897442 -0.018611338 -0.22164787
0.78994483 -0.018667655 -0.2216208
0.79005212 -0.018581629 -0.22158933
0.78939956 -0.018444372 -0.22174624
0.78962314 -0.018481817 -0.2217214
0.78973019 -0.018396974 -0.221683
0.78993082 -0.018453712 -0.22165002
0.79003739 -0.018367536 -0.22162388
0.78925586 -0.018344302 -0.22174379
0.78930908 -0.018298164 -0.22175287
0.78958607 -0.018289151 -0.22173221
0.78975159 -0.018266108 -0.22169456
0.78991693 -0.018242488 -0.22166221
0.79011798 -0.018303288 -0.22159779
0.78957534 -0.018073572 -0.22175394
0.78977358 -0.018136971 -0.22169019
0.78988004 -0.018050399 -0.22166769
0.79010379 -0.018088542 -0.22163641
0.7904647 -0.018008344 -0.22161707
0.78973633 -0.017940836 -0.22173284
0.78993893 -0.017923925 -0.22168882
0.79009348 -0.017870262 -0.22166926
0.78994972 -0.017767413 -0.22168647
0.79011536 -0.017741241 -0.22166777
0.79025352 -0.017744232 -0.22160622
0.79053098 -0.017726112 -0.22165339
0.78983235 -0.017635174 -0.22174466
0.78994018 -0.017547069 -0.22172439
0.79013664 -0.017610382 -0.22168317
0.79024363 -0.017525326 -0.22164676
0.79054695 -0.017489608 -0.22165808
0.78995609 -0.017306853 -0.22175874
0.79009944 -0.017413031 -0.2217232
0.79023314 -0.017305084 -0.22168967
0.79043126 -0.017376233 -0.22158226
0.79060149 -0.017452955 -0.22159174
0.79011613 -0.017173665 -0.22174677
0.79034054 -0.01722132 -0.22164133
0.79061687 -0.017213019 -0.22162992
0.79013383 -0.016935663 -0.22175983
0.79030395 -0.017019928 -0.22171418
0.79041052 -0.016937632 -0.22166026
0.79066002 -0.016947616 -0.22167297
0.79032052 -0.016781077 -0.22174001
0.79049075 -0.016869612 -0.22166295
0.79057086 -0.016806761 -0.22162995
0.79084849 -0.01680108 -0.22158496
0.79045391 -0.016676074 -0.22168732
0.79065615 -0.016654609 -0.22167619
0.79081184 -0.016609058 -0.22159138
0.791008 -0.016666109 -0.22158839
0.79111493 -0.016576994 -0.2215814
0.79046947 -0.016435105 -0.22172034
0.79066712 -0.016496189 -0.22168855
0.79083276 -0.016474288 -0.22163767
0.79099828 -0.016449872 -0.22160594
0.79054981 -0.016370209 -0.22170021
0.79065681 -0.016283324 -0.22167669
0.79085517 -0.016346639 -0.22162437
0.79096055 -0.016259633 -0.22161184
0.7911582 -0.016316054 -0.22159876
0.79051137 -0.016175048 -0.22173516
0.79059184 -0.016110476 -0.22171205
0.79084343 -0.01613326 -0.22162515
0.79102021 -0.016133361 -0.22162294
0.79117447 -0.016077995 -0.2216213
0.79060674 -0.015869644 -0.22174323
0.79088569 -0.015871162 -0.22165285
0.79103094 -0.015972432 -0.22164494
0.7911967 -0.015946848 -0.22162715
0.7913084 -0.015970843 -0.22158049
0.79101926 -0.015757255 -0.22166228
0.79118705 -0.015765121 -0.22165589
0.79135114 -0.015707603 -0.22160876
0.79090118 -0.015632272 -0.22166613
0.79100823 -0.015541722 -0.22166838
0.79120636 -0.01559833 -0.22167052
0.79136086 -0.015548245 -0.22162823
0.7915107 -0.015576368 -0.22158577
0.79119486 -0.015381051 -0.22169268
0.79141963 -0.015426275 -0.22161558
0.79152685 -0.01533616 -0.22161385
0.79105115 -0.015279323 -0.2216766
0.79115701 -0.015185248 -0.22171132
0.79138136 -0.015229679 -0.22165121
0.79154748 -0.015206577 -0.22161585
0.79166049 -0.015228035 -0.221582
0.79103947 -0.015062231 -0.22170413
0.79120529 -0.015033265 -0.22170931
0.79137087 -0.015009179 -0.22168146
0.79156899 -0.015073987 -0.22163367
0.79167545 -0.014987528 -0.22161016
0.79108238 -0.014799553 -0.22170551
0.79122651 -0.014900073 -0.22173616
0.79133272 -0.014810059 -0.22173947
0.79155767 -0.014854863 -0.22165914
0.79178166 -0.014900314 -0.22159362
0.79118848 -0.014706272 -0.22173293
0.79141301 -0.01474775 -0.22170149
0.7915203 -0.014659791 -0.2216839
0.79174501 -0.014701952 -0.22162391
0.7918511 -0.014614414 -0.22161037
0.7911514 -0.0145055 -0.22172554
0.7914288 -0.014503757 -0.22173274
0.79156792 -0.014505129 -0.22169344
0.79173344 -0.0144835 -0.22166002
0.79193163 -0.014549952 -0.22158626
0.79201102 -0.014482467 -0.22158997
0.79116631 -0.014258123 -0.22175229
0.7915895 -0.014371278 -0.22171131
0.79169619 -0.01428245 -0.22170366
0.7918942 -0.014352061 -0.22163101
0.79200083 -0.014264169 -0.22161674
0.79155141 -0.014167371 -0.22173275
0.79171687 -0.014148245 -0.2217055
0.79190952 -0.014108944 -0.22165914
0.79210734 -0.014175915 -0.22160582
0.79227066 -0.014114651 -0.22159171
0.79159302 -0.013897426 -0.22175938
0.79176521 -0.013989219 -0.22171809
0.79187244 -0.013901186 -0.22170115
0.79209596 -0.01395427 -0.22164114
0.79226196 -0.013931316 -0.22161397
0.79242778 -0.013905849 -0.221606
0.79175383 -0.013764191 -0.22174291
0.79195178 -0.013836176 -0.22168803
0.79208523 -0.013727692 -0.22165947
0.79228252 -0.013797242 -0.22163983
0.79238951 -0.013706479 -0.22164407
0.79261482 -0.013750406 -0.2215901
0.79191399 -0.013632889 -0.22171657
0.79204738 -0.013525086 -0.22168371
0.79227197 -0.013571635 -0.22165021
0.79249656 -0.013618734 -0.22162649
0.79260349 -0.01353077 -0.2216109
0.79190272 -0.013407029 -0.22174615
0.79206795 -0.01338894 -0.22170636
0.79223371 -0.013370425 -0.22166653
0.79245919 -0.013412494 -0.22165944
0.79262394 -0.013395914 -0.22161868
0.79273707 -0.013422539 -0.22158001
0.7919448 -0.013140073 -0.22175646
0.79211617 -0.013233681 -0.22169912
0.79228222 -0.013211291 -0.22168507
0.79244787 -0.013187534 -0.22168361
0.79264581 -0.01325956 -0.22162838
0.79275227 -0.013172884 -0.22160687
0.79199857 -0.013095447 -0.22175163
0.7921052 -0.013009346 -0.22172482
0.79230237 -0.013079558 -0.22167899
0.79241049 -0.012986323 -0.22169408
0.79263437 -0.013034759 -0.22165206
0.79283208 -0.013109279 -0.22158083
0.79226488 -0.012876746 -0.2217104
0.79243135 -0.01285234 -0.22170387
0.79259676 -0.012830439 -0.22168617
0.79282093 -0.012883169 -0.22161157
0.79214728 -0.012740628 -0.22174375
0.79225409 -0.012649322 -0.22175296
0.79247874 -0.012694855 -0.22172217
0.7926445 -0.012674142 -0.22169355
0.79280978 -0.01265594 -0.22164975
0.79241419 -0.012515971 -0.22174148
0.792665 -0.012541985 -0.22169247
0.79277164 -0.012453049 -0.2216858
0.79294264 -0.012550466 -0.22160336
0.79240102 -0.012302044 -0.22175926
0.79265457 -0.012312766 -0.22174558
0.79279274 -0.01231876 -0.22169462
0.79295856 -0.012304888 -0.22161871
0.79284078 -0.012158711 -0.22172479
0.79294741 -0.012076343 -0.22167154
0.79311883 -0.012173728 -0.22159104
0.79279351 -0.011971965 -0.22175364
0.79302776 -0.012011555 -0.22165042
0.79313451 -0.011925849 -0.22161996
0.79298812 -0.011816498 -0.2216924
0.79315448 -0.011797431 -0.2216225
0.79332113 -0.011773842 -0.22158229
0.79297662 -0.011597502 -0.22172731
0.79320163 -0.011644726 -0.22163481
0.79330796 -0.011557977 -0.22161397
0.79358709 -0.011548316 -0.22159198
0.79316318 -0.011446878 -0.2216799
0.79338843 -0.011490712 -0.22160968
0.79349482 -0.011403926 -0.22158918
0.79364103 -0.011504337 -0.22158118
0.79304433 -0.011317438 -0.22172858
0.79317755 -0.01120909 -0.22170071
0.79334968 -0.011293129 -0.22165529
0.79351377 -0.011234991 -0.22161578
0.79368186 -0.011244635 -0.22160073
0.79305762 -0.011081871 -0.22174805
0.79313928 -0.011012245 -0.22175366
0.79333782 -0.011076351 -0.22168358
0.79354125 -0.011059619 -0.22163959
0.79369712 -0.01100311 -0.22163521
0.79321802 -0.010951214 -0.22171575
0.79332525 -0.010861311 -0.22171205
0.79355097 -0.010899912 -0.22166105
0.79371691 -0.010873942 -0.2216427
0.7938571 -0.010874065 -0.22159399
0.7932328 -0.010715003 -0.22172426
0.79337263 -0.010708601 -0.22172311
0.79353881 -0.010684226 -0.22169149
0.79373825 -0.010743387 -0.22165111
0.79384422 -0.010658105 -0.22162269
0.79339337 -0.010576378 -0.22174749
0.79349947 -0.010488621 -0.22173589
0.79369873 -0.010550263 -0.22168563
0.79386544 -0.010528311 -0.22163017
0.79358089 -0.010421363 -0.22172563
0.7936874 -0.010331167 -0.22172856
0.79391176 -0.010379494 -0.22162277
0.79401827 -0.010292958 -0.22159994
0.79354262 -0.010229858 -0.22175236
0.79370815 -0.010204436 -0.22172329
0.79390019 -0.010161328 -0.22166109
0.79409862 -0.010225262 -0.22159964
0.79420555 -0.010137188 -0.22158504
0.79378247 -0.010028915 -0.22174358
0.79388922 -0.0099449651 -0.22170092
0.79405951 -0.010031525 -0.22162886
0.79426366 -0.010011415 -0.22160323
0.79439211 -0.0099794744 -0.22158802
0.79385221 -0.0097528491 -0.22173771
0.79407543 -0.009794483 -0.22165418
0.7942729 -0.0098540084 -0.22161226
0.79443991 -0.0098252604 -0.221607
0.79455251 -0.0098430021 -0.22159737
0.79393131 -0.0096902056 -0.22170871
0.79403895 -0.0096030338 -0.22168384
0.79426241 -0.0096393032 -0.22163683
0.79442972 -0.0096470919 -0.22162206
0.79459381 -0.0095835058 -0.22161241
0.79394817 -0.0094518475 -0.22175026
0.79408681 -0.0094517972 -0.22169591
0.79425198 -0.0094266674 -0.22166066
0.79444933 -0.0094822375 -0.22163385
0.79455656 -0.0093894284 -0.22165099
0.79477996 -0.0094302567 -0.22158617
0.79410845 -0.0093237758 -0.22170012
0.79421508 -0.0092349472 -0.22169247
0.79443896 -0.0092704296 -0.22165106
0.79466248 -0.0093040392 -0.22162354
0.79476953 -0.0092165042 -0.22160399
0.79409796 -0.0091075161 -0.22174224
0.79423642 -0.0091050956 -0.22170867
0.79440194 -0.0090769148 -0.22169645
0.79462576 -0.0091109602 -0.22166528
0.79479015 -0.009088764 -0.2216132
0.79495543 -0.009061479 -0.22159214
0.79428482 -0.0089515317 -0.22173135
0.79445022 -0.0089230277 -0.22172211
0.79461581 -0.008897108 -0.22169304
0.7948122 -0.0089594191 -0.22162531
0.79491878 -0.0088703753 -0.22161967
0.79447252 -0.0087930756 -0.2217333
0.79457903 -0.0087037077 -0.22173062
0.79477549 -0.008766233 -0.22166671
0.79497761 -0.0087475497 -0.22162311
0.79465985 -0.0086374171 -0.2217174
0.79476595 -0.0085498765 -0.22170384
0.79498887 -0.0085888645 -0.2216488
0.79512119 -0.008482703 -0.22161071
0.79464865 -0.0084228758 -0.22175461
0.79478526 -0.0083648879 -0.22173673
0.79497933 -0.0083724381 -0.22168659
0.79514337 -0.0083524277 -0.22162487
0.79486305 -0.0082426462 -0.22175117
0.79496908 -0.0081569003 -0.22172506
0.7951653 -0.0082214 -0.22164598
0.79527092 -0.0081381639 -0.22160468
0.79515564 -0.0080041261 -0.22169352
0.79537833 -0.0080486946 -0.22159702
0.79548538 -0.0079579316 -0.22160125
0.79517245 -0.0077637658 -0.22172585
0.79534167 -0.0078526046 -0.22165638
0.79550636 -0.0078274878 -0.22162537
0.795645 -0.0078250105 -0.2215898
0.79522485 -0.0077208523 -0.22171713
0.79533237 -0.0076316013 -0.22170746
0.79552913 -0.0076965168 -0.22164246
0.79568249 -0.0076434719 -0.22161883
0.79585862 -0.0076454198 -0.22158641
0.79529387 -0.0074327476 -0.22175539
0.79551888 -0.0074779303 -0.22168219
0.79574251 -0.0075190794 -0.22162521
0.79584897 -0.0074298205 -0.22162154
0.79537427 -0.0073652696 -0.22175311
0.79548138 -0.0072765164 -0.22174281
0.79570532 -0.0073210639 -0.2216804
0.7958709 -0.0072978651 -0.22164072
0.79598063 -0.0073245894 -0.22158086
0.79558891 -0.0071856864 -0.2217437
0.79569459 -0.0070987181 -0.22172885
0.79589164 -0.0071681635 -0.22165103
0.79599845 -0.0070828917 -0.22161661
0.79585439 -0.0069664088 -0.2217118
0.79605627 -0.0069588926 -0.22161959
0.79621142 -0.0069069583 -0.22159144
0.79587018 -0.0067220517 -0.22174308
0.79606748 -0.0067955726 -0.22164957
0.79620063 -0.0066825645 -0.22165474
0.79595053 -0.0066571571 -0.22172295
0.79605609 -0.0065717665 -0.22169752
0.79622233 -0.0065498222 -0.22166272
0.79638624 -0.0065341797 -0.22159763
0.79593843 -0.0064368024 -0.22175375
0.7960456 -0.0063485522 -0.22173882
0.79624283 -0.0064162109 -0.22168465
0.79639739 -0.0063685491 -0.22163433
0.79623246 -0.0061923135 -0.22173022
0.79645514 -0.0062443633 -0.22163372
0.79656202 -0.0061560748 -0.2216211
0.79641801 -0.0060439636 -0.22167277
0.79658312 -0.0060244473 -0.22162615
0.79669458 -0.0060478356 -0.22159624
0.79630113 -0.0059058852 -0.22174904
0.79640681 -0.0058227922 -0.22170644
0.79660392 -0.0058917394 -0.22164112
0.79671073 -0.005803559 -0.22162752
0.79639584 -0.0056004096 -0.22174865
0.79659337 -0.0056691356 -0.221681
0.79681635 -0.005720214 -0.22158721
0.79689693 -0.0056530591 -0.22158194
0.79644859 -0.0055585746 -0.22172999
0.79655582 -0.0054686014 -0.22172694
0.79677844 -0.0055198483 -0.22163315
0.79694366 -0.0054985182 -0.22159763
0.79705608 -0.0055189505 -0.22158143
0.79666203 -0.0053813495 -0.22171073
0.79676843 -0.0052966098 -0.22167534
0.79696572 -0.0053640436 -0.22161859
0.79712087 -0.0053104702 -0.22160487
0.79727024 -0.005337853 -0.22158593
0.79665381 -0.0051568653 -0.22175911
0.79673308 -0.0050917454 -0.22174698
0.79695511 -0.0051413197 -0.22166097
0.79717946 -0.0051846653 -0.22161321
0.79728663 -0.0050917491 -0.22163132
0.79681289 -0.0050281379 -0.22172093
0.79691905 -0.0049424623 -0.22169416
0.79714209 -0.0049844175 -0.22165549
0.79730886 -0.0049578901 -0.22164732
0.79747367 -0.0049370914 -0.22161014
0.79696774 -0.0047867661 -0.22171092
0.79713243 -0.0047632973 -0.22168879
0.79732955 -0.0048252037 -0.2216644
0.79743552 -0.004737339 -0.22165382
0.79698962 -0.0046550324 -0.22171888
0.79709703 -0.004565455 -0.22171219
0.79729313 -0.004627761 -0.22168951
0.79749489 -0.0046134926 -0.22164614
0.79767466 -0.0045446455 -0.22159088
0.79700726 -0.0044118278 -0.22175312
0.79711694 -0.0043955515 -0.2217412
0.79728383 -0.0044054817 -0.22173004
0.79750609 -0.0044510327 -0.2216696
0.79763889 -0.0043444438 -0.2216315
0.79716784 -0.0042760018 -0.2217565
0.79733109 -0.0042146668 -0.2217437
0.79749703 -0.0042294008 -0.22170417
0.79766047 -0.0042119548 -0.2216464
0.79779726 -0.0042165732 -0.22159135
0.79738092 -0.0040976945 -0.22174717
0.79748791 -0.0040090117 -0.22173619
0.79768348 -0.0040778602 -0.22166419
0.79778862 -0.0039932206 -0.22163582
0.79742491 -0.0038343612 -0.22175933
0.79767394 -0.0038575572 -0.2216984
0.79789484 -0.0039058952 -0.22162026
0.79800177 -0.0038178209 -0.22160567
0.79753232 -0.0037448909 -0.22175166
0.79763776 -0.0036590684 -0.22173019
0.79785901 -0.0037082862 -0.22165041
0.7980234 -0.0036862409 -0.22161666
0.79818845 -0.0036603964 -0.221606
0.79768574 -0.0035073394 -0.22172405
0.79784966 -0.0034887933 -0.2216707
0.79804552 -0.0035530487 -0.22163655
0.79820061 -0.0034992646 -0.22161956
0.79834813 -0.0035277233 -0.22159223
0.79770768 -0.0033755619 -0.2217322
0.79781377 -0.0032907119 -0.22169979
0.79803628 -0.0033343998 -0.22165005
0.79825991 -0.0033729197 -0.22163209
0.79836607 -0.0032855952 -0.22161655
0.79783595 -0.0031605344 -0.22170903
0.7980004 -0.0031359047 -0.22168195
0.79822236 -0.0031794633 -0.22163637
0.79838771 -0.0031555397 -0.22161373
0.79855233 -0.0031316839 -0.22159444
0.79788536 -0.0030071486 -0.2217201
0.79804903 -0.0029850276 -0.22167987
0.79821271 -0.0029627599 -0.22164094
0.7984094 -0.0030230097 -0.22162776
0.79856372 -0.0029705707 -0.22160812
0.79876643 -0.0029505119 -0.22159959
0.79793042 -0.00274726 -0.22175513
0.79804164 -0.0028043948 -0.22171085
0.79820323 -0.0027489737 -0.22165036
0.79837275 -0.0028275065 -0.22164302
0.79857492 -0.0028093841 -0.22162318
0.7987293 -0.0027561951 -0.2216078
0.79887295 -0.00286204 -0.22159064
0.7980631 -0.002639343 -0.22172728
0.79816914 -0.0025515882 -0.22171569
0.79839015 -0.00259121 -0.22165182
0.79858643 -0.0026509974 -0.22161712
0.79874879 -0.0025913685 -0.22159965
0.79886264 -0.0026474204 -0.22158188
0.79824811 -0.0024885125 -0.22169068
0.79835635 -0.0023957491 -0.22170146
0.79857779 -0.0024336297 -0.22164766
0.79874122 -0.0024118265 -0.22160642
