# .PCD v0.7 - Point Cloud Data file format
VERSION 0.7
FIELDS x y z
SIZE 4 4 4
TYPE F F F
COUNT 1 1 1
WIDTH 1418
HEIGHT 1
VIEWPOINT 0 0 0 1 0 0 0
POINTS 1418
DATA ascii
0.1012459 0.036140293 0.28251883
0.10151648 0.036139987 0.28251168
0.10182842 0.03614017 0.28251922
0.10214084 0.036140434 0.28252929
0.10244949 0.036139905 0.28251588
0.10276099 0.036139868 0.28251696
0.10307012 0.036139403 0.28250551
0.10338115 0.03613928 0.28250408
0.10365408 0.036139525 0.28251326
0.10392608 0.036139481 0.28251398
0.10423791 0.036140017 0.28253204
0.10454713 0.036139235 0.28251109
0.10485625 0.036138795 0.28250015
0.10516726 0.036138754 0.28250119
0.10547728 0.036138669 0.28250074
0.10574836 0.036138393 0.2824946
0.10602175 0.036138732 0.28250664
0.10633363 0.036139097 0.28251973
0.10664196 0.036137946 0.28248778
0.106952 0.036137842 0.28248683
0.1072625 0.036137782 0.28248739
0.10757306 0.036137544 0.28248248
0.10784572 0.036138114 0.28250134
0.10811749 0.036137745 0.28249234
0.10842754 0.036137588 0.2824899
0.10873713 0.036137227 0.28248146
0.10904764 0.03613719 0.28248253
0.1093581 0.036137287 0.2824876
0.10966949 0.036137633 0.28250018
0.10997963 0.036137141 0.28248775
0.1102519 0.036137346 0.28249574
0.11052489 0.036137912 0.2825146
0.11083315 0.036136985 0.28248918
0.11114271 0.036136776 0.28248522
0.11145319 0.036136821 0.28248879
0.11176367 0.036136866 0.28249234
0.11207323 0.036136657 0.28248841
0.11238326 0.036136515 0.2824865
0.11265539 0.036136623 0.28249148
0.11292574 0.036136534 0.28249082
0.11323717 0.036136765 0.28249988
0.11354631 0.03613624 0.28248644
0.11385716 0.03613672 0.28250301
0.11416629 0.036136292 0.28249258
0.1144758 0.036136221 0.28249264
0.11474737 0.036136523 0.28250346
0.11501877 0.036136307 0.28249899
0.11532922 0.036136433 0.28250504
0.11563785 0.036135942 0.28249261
0.11594745 0.036135629 0.28248566
0.11625777 0.036136184 0.28250423
0.11656785 0.036135908 0.28249827
0.11687742 0.036135633 0.28249234
0.11714826 0.036135573 0.28249252
0.11741897 0.036135379 0.2824887
0.11772893 0.036135558 0.28249624
0.11803886 0.036135774 0.28250483
0.11834847 0.036135331 0.28249389
0.11865749 0.036135256 0.28249392
0.11896802 0.036135167 0.28249347
0.1192771 0.036134843 0.28248605
0.11954846 0.036134716 0.28248423
0.11981945 0.036135297 0.2825034
0.12012899 0.036135141 0.28250095
0.12043901 0.036135085 0.28250152
0.12074848 0.03613513 0.28250504
0.12105793 0.036135275 0.28251162
0.12136751 0.036134966 0.28250468
0.12167717 0.036134422 0.28249073
0.12194834 0.036134932 0.2825079
0.12221915 0.036134455 0.28249559
0.12252879 0.036133979 0.28248364
0.12283884 0.036133736 0.28247872
0.12314768 0.036134288 0.28249726
0.12345757 0.036134601 0.28250879
0.12376711 0.036134481 0.28250736
0.1240766 0.036134455 0.28250891
0.12434756 0.036135156 0.28253159
0.12461868 0.036134202 0.28250527
0.12492803 0.036134671 0.28252134
0.12523776 0.036133822 0.28249839
0.12554836 0.036133479 0.28249043
0.12585792 0.036133271 0.28248653
0.12616789 0.036133301 0.2824896
0.12647742 0.036133245 0.28249013
0.126748 0.036133509 0.28249994
0.12701923 0.036133815 0.282511
0.12732995 0.036133051 0.28249055
0.12763996 0.036133032 0.2824921
0.12794939 0.03613323 0.28250018
0.12825882 0.036133409 0.28250772
0.12856993 0.036133014 0.2824983
0.12887883 0.036133349 0.28251034
0.12914999 0.036133349 0.28251234
0.12942073 0.036133651 0.28252319
0.12973189 0.03613307 0.28250825
0.13004236 0.036133133 0.28251234
0.13035233 0.036133196 0.28251639
0.13066399 0.036132701 0.28250396
0.1309745 0.036132645 0.28250456
0.13124698 0.03613206 0.28248906
0.13151877 0.036131684 0.28247991
0.13182905 0.036132388 0.28250298
0.13213965 0.036131978 0.28249303
0.13244957 0.036132276 0.28250408
0.13276225 0.036131565 0.28248519
0.13307214 0.036131997 0.28250024
0.13338266 0.036131855 0.28249833
0.13365574 0.036131516 0.28249019
0.13392764 0.036131937 0.28250468
0.13423818 0.036131747 0.28250125
0.13454972 0.036131591 0.28249884
0.1348619 0.036130965 0.28248245
0.13517341 0.03613089 0.2824825
0.13548271 0.036131524 0.28250355
0.13575654 0.036130946 0.28248826
0.1360293 0.036131136 0.28249595
0.13633971 0.036131456 0.28250751
0.1366512 0.036131479 0.28251058
0.1369583 0.036132842 0.28255308
0.13727257 0.036131911 0.28252771
0.13754492 0.036131874 0.28252858
0.13781917 0.03613149 0.2825191
0.13812733 0.036132678 0.28255662
0.13844161 0.036131695 0.28252974
0.13875361 0.036131673 0.28253132
0.13906507 0.036131755 0.28253591
0.13937974 0.036131158 0.28252053
0.13965099 0.03613146 0.28253138
0.13992572 0.036131158 0.28252441
0.14023769 0.036131255 0.2825295
0.14054757 0.036131654 0.28254354
0.14085841 0.036132105 0.2825591
0.14117154 0.036131661 0.28254819
0.1414492 0.036130566 0.28251779
0.14172295 0.036130246 0.28251016
0.14203376 0.036130898 0.28253174
0.14234576 0.036130857 0.28253278
0.14265878 0.036130749 0.28253189
0.14297131 0.036130629 0.28253049
0.14324585 0.036130529 0.2825295
0.14351937 0.036130376 0.28252691
0.1438297 0.036130928 0.28254545
0.14414218 0.036130972 0.28254902
0.14445579 0.036130615 0.28254062
0.14476882 0.036130507 0.28253973
0.14507914 0.036131077 0.28255877
0.14535163 0.036131106 0.28256163
0.14562777 0.036130555 0.28254718
0.14593916 0.036130916 0.28256029
0.14625327 0.036130562 0.28255185
0.14656523 0.036130689 0.28255796
0.14684045 0.03613041 0.28255168
0.14711541 0.036129966 0.28254038
0.14742312 0.036130968 0.28257239
0.14769487 0.036131252 0.28258276
0.098288238 0.03654981 0.28253075
0.098559171 0.036549456 0.28252211
0.098868757 0.03654917 0.2825157
0.099178784 0.036549032 0.28251377
0.099452965 0.036549553 0.28253096
0.099724159 0.03654943 0.28252912
0.10003513 0.036549512 0.28253371
0.10034571 0.036549225 0.28252727
0.10065387 0.036548652 0.28251234
0.10096768 0.036549307 0.28253391
0.1012777 0.036549188 0.28253248
0.10154853 0.036548603 0.28251699
0.10182078 0.036548875 0.28252685
0.10213133 0.036548685 0.28252342
0.10244326 0.036548939 0.28253299
0.10275377 0.036548868 0.28253305
0.10306296 0.036548194 0.28251511
0.10337296 0.036548175 0.28251666
0.10364594 0.036548216 0.28251973
0.10391749 0.036548048 0.28251657
0.10422847 0.036548097 0.28252012
0.10453853 0.036547892 0.28251618
0.10484952 0.036547873 0.28251779
0.10515957 0.036547706 0.28251481
0.10547376 0.036548715 0.28254691
0.10578382 0.036548529 0.28254348
0.1060546 0.03654813 0.2825335
0.10632642 0.036548134 0.28253534
0.10663608 0.036547557 0.28252041
0.10694616 0.036547303 0.28251499
0.10725757 0.036547557 0.28252459
0.10756674 0.036546968 0.28250912
0.10787679 0.036546811 0.28250667
0.10815022 0.036547005 0.28251421
0.1084207 0.036547087 0.28251854
0.10872988 0.036546428 0.2825011
0.10904129 0.036546696 0.28251117
0.10935132 0.03654658 0.28250974
0.10966145 0.036546141 0.28249884
0.1099714 0.036546238 0.28250387
0.11024555 0.036546908 0.28252557
0.11051671 0.036546886 0.28252673
0.11082585 0.036546379 0.2825138
0.11113591 0.03654616 0.28250939
0.11144557 0.036545601 0.28249493
0.11175682 0.036546428 0.28252149
0.11206638 0.036546223 0.28251755
0.11237644 0.036545999 0.28251311
0.11264721 0.036545586 0.28250262
0.11291762 0.036545336 0.28249699
0.11322853 0.036545619 0.28250754
0.11353854 0.036545549 0.2825076
0.11384866 0.036545161 0.28249818
0.11415908 0.036545414 0.28250772
0.1144686 0.036545329 0.2825073
0.11477808 0.036545344 0.28250986
0.1150498 0.03654575 0.28252369
0.11532149 0.036545653 0.28252271
0.11563092 0.036545873 0.28253126
0.11594056 0.036545366 0.28251833
0.11625057 0.03654531 0.28251886
0.11655965 0.036545008 0.28251195
0.11687003 0.036545396 0.28252548
0.11717913 0.03654509 0.28251857
0.1174506 0.036545102 0.28252074
0.11772068 0.036544826 0.28251439
0.11803113 0.036544979 0.28252098
0.11834061 0.036545042 0.282525
0.11865024 0.036544587 0.28251359
0.1189602 0.036544688 0.28251863
0.11926921 0.036544636 0.28251922
0.11957921 0.036544614 0.2825208
0.11985008 0.036544498 0.28251913
0.12012081 0.036544234 0.28251314
0.12043082 0.036544181 0.28251368
0.12074031 0.036544219 0.28251675
0.12104976 0.036544349 0.2825228
0.12135924 0.036544416 0.28252685
0.12166888 0.036543909 0.28251392
0.12197891 0.036543805 0.28251299
0.12224957 0.03654385 0.28251615
0.12252031 0.036544099 0.28252533
0.12283044 0.036543678 0.2825149
0.12313946 0.036543559 0.28251344
0.12344931 0.03654401 0.282529
0.12375884 0.036543928 0.28252855
0.12406833 0.036543906 0.28253013
0.12437834 0.036543906 0.28253216
0.12464896 0.036543474 0.28252116
0.12491995 0.036543459 0.28252253
0.12522951 0.036543239 0.28251809
0.125539 0.036543235 0.28252012
0.12584901 0.036543235 0.2825222
0.12615857 0.036542963 0.28251627
0.12646911 0.03654281 0.28251386
0.12677851 0.036543131 0.28252539
0.12704957 0.036543544 0.28253958
0.12732111 0.036542766 0.28251824
0.12763058 0.036542866 0.28252333
0.12794065 0.036542632 0.28251836
0.12825067 0.03654249 0.28251642
0.12856112 0.036542628 0.2825225
0.12887074 0.036542255 0.28251356
0.1291807 0.036542352 0.28251863
0.12945102 0.036542989 0.28253928
0.1297237 0.036542363 0.2825225
0.13003422 0.036542241 0.28252104
0.13034362 0.036542594 0.28253359
0.13065408 0.036542661 0.28253767
0.13096622 0.036542155 0.28252476
0.13127524 0.036542084 0.28252482
0.13154735 0.036541726 0.282516
0.13182043 0.036541432 0.28250921
0.13213101 0.036541112 0.28250176
0.1324403 0.036541872 0.28252631
0.13275188 0.036541533 0.28251839
0.13306175 0.036541935 0.28253245
0.13337389 0.036541428 0.28251955
0.13364528 0.036541812 0.28253272
0.13391846 0.03654113 0.28251442
0.13422948 0.036541063 0.28251451
0.13454048 0.03654103 0.28251556
0.13485263 0.036540542 0.28250316
0.1351642 0.036540303 0.28249824
0.13547459 0.03654062 0.2825098
0.13574763 0.036540482 0.28250751
0.13601959 0.036540575 0.28251219
0.13632995 0.036541082 0.28252923
0.13664193 0.036541082 0.28253132
0.13695288 0.036541246 0.28253838
0.13726448 0.036540911 0.28253049
0.13757588 0.036541209 0.28254154
0.13784951 0.036540769 0.28253028
0.13812199 0.036540829 0.28253394
0.13843514 0.036540322 0.28252104
0.1387455 0.036540747 0.28253561
0.13905478 0.036541499 0.28256014
0.13936675 0.036541581 0.2825647
0.13968149 0.036540691 0.28254035
0.13995555 0.036540493 0.28253636
0.1402269 0.036541015 0.28255373
0.1405389 0.036540948 0.28255379
0.14085084 0.036541186 0.28256288
0.14116561 0.036540192 0.28253549
0.14147323 0.036541484 0.28257602
0.14175157 0.036540326 0.28254345
0.14202134 0.036541104 0.28256842
0.14233388 0.036540952 0.28256601
0.14264584 0.036541067 0.28257161
0.14296317 0.03653989 0.28253877
0.14327352 0.036540411 0.28255633
0.14354968 0.036539838 0.28254125
0.14381835 0.036540989 0.28257719
0.14413354 0.036540247 0.28255731
0.144445 0.036540367 0.28256291
0.1447548 0.036541071 0.28258592
0.14495136 0.036540836 0.28258038
0.14538085 0.036540832 0.28258312
0.14565539 0.036540687 0.28258064
0.14593157 0.036540017 0.28256258
0.1462425 0.0365403 0.28257313
0.1466693 0.036540952 0.28259534
0.14690609 0.036540505 0.28258368
0.14714365 0.036539722 0.28256205
0.14741766 0.036539666 0.28256226
0.14772913 0.036539782 0.28256783
0.098283626 0.036959127 0.28256327
0.098552659 0.036958411 0.28254378
0.098864593 0.036958631 0.28255236
0.099174634 0.036958449 0.2825489
0.099485137 0.036958452 0.28255099
0.099755287 0.036957908 0.28253651
0.10003105 0.036958702 0.2825619
0.10033827 0.036957912 0.28254041
0.10064645 0.036957309 0.28252447
0.10096069 0.036958188 0.2825526
0.10127075 0.036957972 0.28254813
0.10158131 0.036957741 0.28254321
0.10185329 0.036957815 0.28254724
0.10212949 0.036958814 0.28257859
0.10243814 0.036958311 0.28256565
0.10274865 0.036958233 0.28256524
0.1030601 0.036958419 0.28257281
0.1033683 0.036957681 0.28255287
0.10367836 0.036957461 0.28254843
0.10395072 0.036957391 0.28254795
0.10422196 0.036957126 0.28254181
0.10453109 0.036956623 0.28252888
0.10484254 0.036956795 0.28253594
0.10515396 0.0369571 0.282547
0.10546453 0.036956798 0.28254008
0.10577592 0.036957171 0.28255317
0.10608461 0.036956519 0.28253573
0.10635758 0.036956597 0.28253976
0.10662909 0.036956564 0.28254059
0.10693825 0.036955975 0.28252518
0.10724919 0.036956184 0.28253323
0.1075616 0.036956489 0.28254431
0.10787067 0.036956221 0.28253838
0.10818394 0.036957003 0.28256345
0.10845238 0.036956053 0.28253713
0.10872465 0.036956239 0.28254431
0.10903471 0.036956038 0.28254038
0.10934614 0.036956247 0.28254843
0.10965489 0.036955386 0.282525
0.10996483 0.036955543 0.28253156
0.11027587 0.036955394 0.28252915
0.11054786 0.03695545 0.28253248
0.11081886 0.036955424 0.28253353
0.11112934 0.036955461 0.28253657
0.11143802 0.036954857 0.28252065
0.11174895 0.036955062 0.2825287
0.11205848 0.036954984 0.28252825
0.11236851 0.036954816 0.2825253
0.11267808 0.036954567 0.28251988
0.11295056 0.036955189 0.28254023
0.11322105 0.036954664 0.28252625
0.11353191 0.036955103 0.28254133
0.11384231 0.036955427 0.28255287
0.11415102 0.036954723 0.28253394
0.11446104 0.036954623 0.28253302
0.11477144 0.03695498 0.28254557
0.11508144 0.036954947 0.28254664
0.11535194 0.036954958 0.28254864
0.1156231 0.036954388 0.2825335
0.11593261 0.036954325 0.28253356
0.1162426 0.036954343 0.28253612
0.11655212 0.036954261 0.28253567
0.11686251 0.036954619 0.28254825
0.11717205 0.03695447 0.28254578
0.11748072 0.036953881 0.28253034
0.11775217 0.036954004 0.2825357
0.11802348 0.036954619 0.2825557
0.11833216 0.036954034 0.28254026
0.11864258 0.036954273 0.28254932
0.11895213 0.036954127 0.28254688
0.11926125 0.036953691 0.28253597
0.11957122 0.036953807 0.28254151
0.11988111 0.036954112 0.28255257
0.120152 0.036954466 0.28256473
0.12042217 0.036953874 0.2825489
0.12073167 0.036953896 0.28255147
0.12104125 0.03695358 0.28254402
0.12135071 0.036953699 0.28254959
0.12166025 0.036953535 0.28254664
0.12197039 0.03695308 0.28253523
0.12227965 0.036953859 0.28256026
0.12255019 0.036953717 0.28255779
0.12282173 0.036953568 0.2825551
0.12313074 0.036953557 0.28255668
0.12344094 0.036952801 0.28253624
0.12375042 0.036952868 0.28254032
0.12405987 0.036953039 0.28254735
0.12436992 0.036952823 0.28254291
0.12467898 0.036952641 0.28253949
0.12494975 0.036952853 0.28254747
0.12522087 0.036952958 0.28255233
0.12553045 0.036952693 0.2825464
0.12584038 0.036952898 0.28255445
0.12614867 0.036953643 0.28257847
0.12645942 0.036952753 0.28255406
0.12676953 0.036952369 0.28254464
0.12707955 0.036952287 0.2825442
0.12734979 0.036952551 0.28255388
0.12762138 0.036952838 0.28256404
0.12793158 0.036952149 0.28254563
0.12824216 0.036951803 0.28253722
0.12855174 0.036951583 0.28253275
0.12886219 0.036951687 0.28253782
0.12917173 0.036951553 0.28253588
0.12948108 0.036952078 0.28255343
0.12975329 0.03695187 0.28254899
0.13002512 0.036951859 0.28255033
0.13033578 0.036951337 0.28253689
0.1306463 0.036951259 0.28253645
0.13095567 0.036951661 0.28255051
0.13126615 0.036951765 0.28255558
0.13157557 0.03695197 0.28256363
0.13184887 0.036950994 0.28253636
0.13212091 0.036950842 0.28253353
0.13243082 0.036951099 0.28254309
0.13274066 0.036951602 0.28256014
0.13305226 0.036951236 0.28255123
0.13336383 0.03695102 0.28254682
0.13367429 0.036951106 0.28255138
0.13394688 0.036950812 0.2825444
0.13421881 0.036951054 0.28255326
0.13452877 0.036951177 0.28255883
0.13484038 0.036950741 0.28254789
0.13515192 0.036950588 0.28254551
0.135464 0.036950305 0.28253907
0.13577276 0.036951117 0.28256512
0.13604616 0.036950905 0.28256047
0.13631994 0.03695051 0.28255051
0.13663255 0.036950111 0.28254062
0.13694344 0.036950432 0.28255218
0.13725114 0.036951493 0.28258568
0.13756754 0.036950134 0.28254735
0.13787796 0.036950339 0.28255543
0.13815106 0.036949962 0.28254595
0.13842244 0.036950368 0.28255981
0.13873279 0.036950879 0.28257686
0.1390464 0.036950443 0.28256595
0.13936004 0.036950044 0.28255606
0.13967037 0.036950551 0.2825731
0.13998239 0.036950488 0.28257322
0.14025773 0.036949851 0.28255609
0.14052784 0.036950652 0.2825816
0.14084198 0.036950167 0.2825692
0.14115183 0.036950625 0.28258479
0.14146374 0.036950916 0.28259534
0.14189275 0.036950897 0.28259757
0.14204951 0.036950555 0.28258845
0.14224695 0.036950164 0.28257811
0.142638 0.036949955 0.28257447
0.14294946 0.036950111 0.28258103
0.14326301 0.03694991 0.28257713
0.14345691 0.036950272 0.28258905
0.14392482 0.036950529 0.28259966
0.14412147 0.036949996 0.28258511
0.14443342 0.036950171 0.28259218
0.14467221 0.036949169 0.28256404
0.14513695 0.036950029 0.28259265
0.14537305 0.036949739 0.28258547
0.14564633 0.03694981 0.28258935
0.14587964 0.036949929 0.28259432
0.14697298 0.03694981 0.28259778
0.14767909 0.036949422 0.28259078
0.098272659 0.037367705 0.28254974
0.09854652 0.037368201 0.28256595
0.098855197 0.037367567 0.28254902
0.099165238 0.037367456 0.28254759
0.099473871 0.037366971 0.28253514
0.099752426 0.037368465 0.28258103
0.1000612 0.0373681 0.28257206
0.1003298 0.037367187 0.28254658
0.10064082 0.037367128 0.28254667
0.10095133 0.037367083 0.28254724
0.10126138 0.037366886 0.2825433
0.10157143 0.037366692 0.28253937
0.10184482 0.037367094 0.28255305
0.10211637 0.037366882 0.28254825
0.1024264 0.037366755 0.28254634
0.10274062 0.037367724 0.28257692
0.10304977 0.037367206 0.28256348
0.10336076 0.03736721 0.28256553
0.10366854 0.037366241 0.28253859
0.10398049 0.037366435 0.28254619
0.10425421 0.037366807 0.28255889
0.10452587 0.037366793 0.28256005
0.10483548 0.037366413 0.28255063
0.10514547 0.037366435 0.2825532
0.10545647 0.037366424 0.28255478
0.10576563 0.037365891 0.28254083
0.10607564 0.037365817 0.28254041
0.10634912 0.037365887 0.28254426
0.10662016 0.037365716 0.2825408
0.10693064 0.037365776 0.28254434
0.10724068 0.037365664 0.28254291
0.10755216 0.037365686 0.28254551
0.1078622 0.037365526 0.28254259
0.10817365 0.037365705 0.28254962
0.10844511 0.03736585 0.28255567
0.10871672 0.037365437 0.282545
0.10902491 0.037364788 0.28252757
0.1093359 0.037364826 0.28253064
0.10964636 0.037364952 0.28253618
0.10995512 0.037364066 0.28251177
0.11026693 0.037364695 0.28253233
0.11057836 0.037364908 0.28254044
0.11084938 0.037364841 0.28254008
0.11111957 0.0373642 0.2825228
0.11143041 0.037364729 0.28254035
0.11173951 0.037364367 0.28253138
0.11204962 0.037363969 0.28252149
0.11235963 0.037363939 0.28252256
0.11266956 0.037364148 0.28253061
0.11298186 0.037364833 0.28255269
0.11325275 0.037364613 0.28254786
0.11352307 0.03736411 0.28253454
0.11383258 0.037364013 0.28253359
0.11414251 0.037364259 0.28254265
0.11445216 0.03736376 0.28252974
0.11476259 0.037363969 0.28253779
0.11507212 0.037363894 0.28253734
0.11538166 0.037363745 0.2825349
0.11565366 0.037363712 0.28253561
0.11592408 0.037363969 0.28254476
0.11623363 0.037363775 0.28254083
0.11654369 0.037363581 0.28253689
0.11685416 0.037363671 0.28254148
0.11716267 0.037363607 0.28254151
0.11747274 0.03736338 0.28253657
0.11778174 0.037363373 0.28253815
0.1180531 0.037363242 0.282536
0.11832459 0.037363879 0.28255647
0.11863366 0.0373636 0.28255004
0.11894366 0.037363555 0.28255063
0.1192528 0.037363108 0.28253919
0.11956228 0.037363149 0.28254223
0.11987223 0.037363309 0.28254882
0.12018128 0.037363146 0.28254586
0.12045301 0.037363488 0.2825577
0.12072321 0.03736335 0.28255522
0.12103322 0.037363324 0.2825563
0.12134242 0.037362605 0.28253683
0.12165192 0.037362579 0.28253794
0.12196175 0.03736316 0.28255695
0.12227132 0.037362911 0.28255153
0.12258086 0.037362803 0.2825501
0.12285212 0.037361894 0.28252479
0.1231225 0.0373623 0.28253847
0.12343244 0.037362475 0.28254551
0.12374195 0.037362415 0.28254557
0.12405139 0.037362628 0.28255361
0.1243616 0.037361875 0.2825332
0.12467061 0.03736183 0.28253374
0.12498061 0.037361834 0.28253579
0.12525149 0.03736167 0.28253248
0.12552214 0.037361722 0.28253567
0.12583202 0.037362099 0.28254873
0.12614159 0.037361838 0.28254279
0.12645169 0.037361521 0.28253537
0.12676165 0.037361681 0.28254193
0.12707165 0.037361689 0.28254402
0.12738058 0.037361864 0.28255105
0.12765211 0.037361737 0.28254887
0.12792368 0.037361495 0.28254342
0.12823364 0.037361622 0.28254896
0.12854376 0.037361223 0.28253904
0.12885273 0.037361316 0.2825436
0.12917465 0.037362117 0.28256926
0.12947267 0.03736148 0.28255221
0.12974566 0.037360933 0.28253761
0.13001564 0.037361585 0.28255859
0.13032728 0.037361067 0.28254515
0.13063791 0.037360571 0.28253227
0.13094789 0.037360698 0.28253782
0.13125895 0.037360452 0.28253242
0.13156825 0.037361063 0.28255245
0.13188 0.037360281 0.28253102
0.13215116 0.037360281 0.28253272
0.13242295 0.037360437 0.28253889
0.1327333 0.037360948 0.28255597
0.13304541 0.037360534 0.28254557
0.13335542 0.037360437 0.28254461
0.1336675 0.037360243 0.28254071
0.13397966 0.037359644 0.28252479
0.13425057 0.037359927 0.28253481
0.13452306 0.037359968 0.28253767
0.13483468 0.037359536 0.28252676
0.13514456 0.037359983 0.28254181
0.13545614 0.03735967 0.28253439
0.13576871 0.037359424 0.282529
0.13608077 0.037359212 0.28252459
0.13635266 0.037359577 0.28253695
0.13662574 0.03735932 0.28253096
0.13693279 0.037360772 0.28257596
0.13724436 0.037360579 0.28257206
0.13755575 0.037360922 0.28258413
0.1378679 0.037360404 0.28257072
0.13818154 0.03735989 0.28255734
0.13845462 0.037359644 0.28255168
0.13872543 0.037360214 0.28257018
0.13903852 0.037359953 0.28256428
0.13935214 0.037359521 0.28255337
0.13966414 0.037359476 0.28255397
0.13997555 0.037359823 0.28256607
0.14024711 0.037360173 0.28257808
0.14063852 0.037359908 0.28257263
0.14083515 0.037359398 0.28255856
0.14114657 0.037359707 0.28256965
0.14149791 0.037359662 0.28257045
0.14177324 0.0373591 0.28255534
0.14204246 0.037360068 0.28258583
0.14231871 0.037359167 0.28256074
0.14262898 0.037359968 0.28258628
0.142941 0.03735989 0.28258589
0.14329529 0.037359472 0.28257558
0.14356545 0.03736002 0.28259355
0.14388172 0.03735907 0.2825672
0.14415254 0.037359718 0.28258801
0.14442816 0.037359241 0.28257561
0.14474121 0.037359115 0.2825737
0.14505424 0.037358973 0.28257126
0.14567713 0.03735932 0.28258541
0.14595412 0.037358832 0.28257251
0.14614666 0.037359215 0.28258505
0.14653867 0.037359133 0.28258497
0.14685173 0.03735894 0.28258103
0.14716952 0.037357949 0.28255367
0.14748937 0.037358988 0.28258634
0.14767069 0.037359077 0.28259015
0.098262839 0.037776008 0.28254548
0.098536089 0.037776276 0.28255501
0.098845683 0.037775967 0.28254759
0.099155709 0.037775863 0.28254616
0.099468552 0.037776381 0.28256324
0.099779107 0.037776202 0.28255981
0.10005077 0.037776176 0.2825605
0.10032073 0.037775762 0.28254968
0.10063364 0.037776109 0.28256178
0.10094455 0.037776358 0.28257084
0.1012565 0.037776537 0.28257793
0.10156518 0.037775923 0.28256148
0.10187615 0.037776019 0.28256607
0.10214568 0.037775312 0.28254655
0.10241968 0.037775859 0.28256443
0.10272928 0.037775569 0.28255749
0.10304123 0.037775666 0.28256208
0.10335127 0.037775554 0.28256065
0.10366042 0.037775028 0.2825467
0.10397094 0.037775006 0.2825478
0.10428292 0.037775051 0.28255087
0.10455375 0.037775006 0.28255102
0.10482502 0.037774675 0.28254271
0.10513736 0.037775174 0.28255931
0.10544884 0.037775267 0.28256387
0.10575753 0.037774622 0.28254646
0.10606892 0.037775021 0.28256002
0.10637853 0.037774626 0.2825501
0.10665359 0.037775531 0.28257847
0.10692346 0.037774824 0.28255898
0.10723354 0.037774567 0.28255305
0.10754356 0.037774496 0.2825526
0.10785361 0.037774298 0.28254867
0.10816367 0.037774093 0.28254426
0.10847554 0.03777454 0.28255937
0.10874719 0.037774574 0.28256187
0.10901815 0.037774146 0.28255069
0.1093286 0.037774295 0.28255677
0.1096392 0.037773985 0.28254935
0.10994786 0.037773389 0.28253341
0.11025923 0.037773807 0.28254747
0.11056969 0.037773982 0.28255457
0.11087967 0.037774011 0.2825571
0.11115078 0.037773639 0.28254765
0.11142135 0.037773415 0.28254247
0.11173142 0.037773173 0.28253707
0.11204187 0.037773319 0.28254312
0.1123523 0.03777355 0.28255168
0.11266189 0.037773222 0.28254375
0.11297236 0.037773337 0.28254882
0.11324478 0.037773583 0.2825577
0.11351541 0.037773129 0.28254569
0.11382447 0.037772939 0.28254175
0.11413406 0.037772626 0.28253433
0.11444394 0.037773006 0.28254735
0.11475344 0.037773021 0.28254944
0.11506391 0.037773132 0.28255451
0.11537305 0.03777267 0.28254256
0.11568335 0.037773322 0.28256363
0.1159549 0.037773166 0.28256047
0.11622552 0.037772741 0.2825495
0.11653498 0.037772838 0.28255406
0.11684544 0.03777295 0.28255913
0.117155 0.037772778 0.2825557
0.11746398 0.037772834 0.28255925
0.11777357 0.037772495 0.28255081
0.11808349 0.03777276 0.28256038
0.11835441 0.037772451 0.28255287
0.11862507 0.03777248 0.28255522
0.11893495 0.037772864 0.28256831
0.11924414 0.037772201 0.28255036
0.11955462 0.037772328 0.28255594
0.1198641 0.037772357 0.2825585
0.12017354 0.037772555 0.28256607
0.12048306 0.037772499 0.28256613
0.1207531 0.037772328 0.28256258
0.12102412 0.037772238 0.28256145
0.12133366 0.037772115 0.28255951
0.12164322 0.03777194 0.28255609
0.12195317 0.037772086 0.28256214
0.12226276 0.037771739 0.2825537
0.12257234 0.037771501 0.28254831
0.12288184 0.037771456 0.28254884
0.12315255 0.037771888 0.282563
0.12342378 0.037771657 0.2825577
0.12373323 0.037771821 0.28256428
0.1240427 0.03777191 0.28256881
0.12435298 0.037770964 0.28254241
0.12466197 0.037770994 0.28254497
0.12497188 0.037771273 0.28255501
0.12528145 0.037771031 0.28254959
0.12555213 0.037770953 0.28254876
0.12582348 0.037770923 0.28254944
0.12613285 0.037771408 0.2825655
0.12644252 0.037770744 0.28254759
0.12675196 0.037770957 0.28255561
0.12706135 0.037771355 0.28256917
0.12737255 0.037770655 0.28255028
0.12768185 0.037771292 0.28257081
0.12795268 0.037771318 0.28257313
0.1282251 0.037770476 0.28254968
0.12853573 0.037770033 0.28253829
0.12884459 0.03777048 0.28255332
0.12915453 0.037770711 0.2825619
0.12946472 0.0377701 0.28254548
0.12977508 0.037770499 0.28255904
0.13004701 0.037770208 0.28255188
0.13031869 0.037770104 0.28255039
0.13062879 0.037769757 0.28254199
0.13093911 0.037770346 0.28256103
0.13124862 0.037770338 0.28256261
0.13156071 0.037769996 0.28255421
0.13186908 0.037770465 0.28256971
0.13218075 0.037769884 0.28255433
0.13245308 0.03776988 0.2825557
0.13272473 0.037769947 0.28255919
0.13303399 0.037770748 0.28258476
0.1333468 0.037769698 0.28255534
0.13365778 0.037769727 0.28255793
0.13396885 0.037769485 0.28255251
0.13428038 0.037769362 0.2825506
0.13455328 0.037769098 0.28254446
0.13482553 0.037768867 0.28253898
0.13513432 0.037769552 0.28256106
0.13544637 0.037769377 0.28255761
0.13575512 0.03777023 0.28258467
0.13606833 0.037769515 0.28256527
0.13637972 0.037769847 0.28257686
0.13665242 0.037769694 0.28257388
0.13692482 0.037769489 0.28256923
0.13723463 0.037770174 0.28259128
0.13754775 0.037769765 0.28258088
0.13786206 0.037768662 0.28255001
0.13817185 0.037769414 0.28257409
0.13844311 0.037769597 0.28258091
0.13871847 0.03776899 0.28256446
0.13910575 0.037769701 0.28258783
0.13934027 0.037769653 0.28258765
0.1396405 0.037769429 0.28258276
0.13996807 0.037768561 0.28255886
0.1402784 0.037769143 0.28257793
0.14047177 0.037769593 0.28259233
0.14082439 0.037769176 0.28258181
0.1411396 0.037768461 0.28256243
0.14145166 0.037768252 0.28255802
0.14176041 0.037769072 0.28258407
0.14205986 0.037769239 0.28259072
0.14234656 0.037769124 0.28258887
0.14297259 0.037769035 0.2825897
0.14316684 0.03776931 0.28259897
0.14390928 0.037768941 0.28259233
0.14418562 0.037768308 0.28257507
0.14512309 0.037768409 0.28258336
0.14664818 0.037768058 0.28258142
0.14680487 0.037767991 0.28258029
0.1472373 0.037767638 0.28257224
0.14746866 0.037768126 0.28258803
0.14782019 0.037768025 0.28258702
0.098260395 0.03817226 0.28255144
0.098536439 0.038173229 0.28258163
0.098845109 0.038172647 0.28256622
0.09915515 0.038172491 0.28256327
0.099464282 0.038172029 0.28255135
0.099775732 0.038172226 0.28255892
0.10004649 0.038171865 0.28254977
0.10032114 0.038172491 0.2825698
0.10063212 0.038172588 0.28257439
0.10094543 0.038173221 0.28259498
0.10125313 0.038172521 0.28257602
0.10156319 0.038172316 0.28257158
0.10187186 0.038171753 0.28255665
0.10214454 0.038171675 0.28255585
0.10241722 0.038172171 0.28257203
0.1027292 0.038172245 0.28257614
0.1030388 0.038171921 0.28256819
0.10334972 0.038172171 0.28257728
0.10366075 0.038172059 0.28257585
0.10397176 0.038171984 0.28257543
0.10428042 0.038171478 0.28256202
0.1045532 0.038171638 0.28256837
0.10482671 0.038172144 0.28258491
0.10513449 0.038171232 0.28255945
0.10544641 0.038171463 0.28256804
0.10575689 0.038171552 0.2825726
0.10606742 0.038171414 0.28257018
0.10637568 0.038170531 0.28254575
0.10664875 0.038170841 0.28255641
0.10691963 0.03817068 0.28255314
0.10723014 0.038170621 0.2825532
0.10754117 0.038170535 0.2825523
0.10785074 0.038170308 0.28254735
0.10816127 0.038170166 0.28254491
0.1084722 0.038170416 0.282554
0.10878269 0.038170427 0.28255603
0.10905363 0.038170043 0.28254625
0.10932621 0.038170371 0.28255743
0.10963763 0.038170613 0.28256652
0.10994582 0.038169987 0.28254956
0.11025587 0.038169794 0.28254563
0.11056776 0.038170144 0.28255773
0.11087732 0.038169935 0.28255329
0.11114957 0.038170233 0.28256363
0.11142071 0.038170334 0.28256816
0.1117294 0.038169671 0.28255022
0.11203939 0.038169697 0.28255278
0.11234985 0.038169779 0.28255689
0.11265998 0.038169365 0.28254643
0.1129694 0.038169615 0.28255549
0.11327999 0.038169321 0.28254858
0.11355064 0.038168807 0.28253475
0.11382201 0.03816925 0.28254941
0.11413244 0.038169462 0.28255749
0.11448108 0.038169567 0.28256261
0.11475149 0.03816928 0.28255561
0.11506152 0.03816916 0.28255367
0.11537147 0.038169302 0.28255978
0.1156815 0.038169231 0.28255934
0.11595186 0.038169149 0.2825585
0.11622353 0.038169127 0.28255919
0.11653261 0.038168866 0.28255326
0.11684302 0.038169149 0.28256333
0.11715259 0.038168885 0.2825574
0.11746205 0.038169019 0.28256294
0.11777207 0.038168944 0.28256249
0.11808105 0.038169038 0.28256708
0.11835197 0.038168713 0.28255892
0.11862315 0.038168646 0.28255844
0.11893259 0.038168825 0.2825655
0.11924165 0.03816865 0.28256205
0.11955163 0.038168691 0.28256512
0.11986164 0.038168658 0.28256571
0.1201711 0.038168784 0.28257126
0.12048019 0.038168445 0.28256279
0.12075057 0.038168903 0.28257799
0.12102216 0.038168553 0.28256917
0.12133113 0.038168665 0.28257424
0.12164067 0.038168527 0.28257179
0.12195075 0.038168281 0.28256637
0.12226021 0.038168378 0.28257093
0.12256968 0.038168475 0.28257549
0.12287933 0.038167913 0.28256053
0.12315017 0.03816795 0.28256306
0.12342145 0.038167499 0.28255141
0.12373084 0.038167901 0.282565
0.12404037 0.038167793 0.28256354
0.12435036 0.038167801 0.28256559
0.12465873 0.038168255 0.28258067
0.12496877 0.038168047 0.28257623
0.12527895 0.038167447 0.28256032
0.12554877 0.038168132 0.28258213
0.1258204 0.038167678 0.28257015
0.12612981 0.038167927 0.28257918
0.12644003 0.038167164 0.28255829
0.12674935 0.038167797 0.28257886
0.12706009 0.038166981 0.28255641
0.12736946 0.038167395 0.28257051
0.12767947 0.038167339 0.28257054
0.12795031 0.038167357 0.28257257
0.12822209 0.038166933 0.28256142
0.1285322 0.03816659 0.28255302
0.12884164 0.038166769 0.28256005
0.12915219 0.038166575 0.28255615
0.12946038 0.038167633 0.28258917
0.12977266 0.03816665 0.28256175
0.13008323 0.038166441 0.28255734
0.13035448 0.038166646 0.28256503
0.1306262 0.038166452 0.28256071
0.13093615 0.038166665 0.28256878
0.13124785 0.038165987 0.28255039
0.13155675 0.038166367 0.28256345
0.13186717 0.038166545 0.28257048
0.13217771 0.038166389 0.28256756
0.13245137 0.038165871 0.28255379
0.13272288 0.038165793 0.28255296
0.13303337 0.038165908 0.28255805
0.1333438 0.038166083 0.28256509
0.13365641 0.038165763 0.28255719
0.13396636 0.038165923 0.28256378
0.13427684 0.038166001 0.28256786
0.13454942 0.038165685 0.28255987
0.13482192 0.038165644 0.28256023
0.13513067 0.038166478 0.28258678
0.13544394 0.038165547 0.28256088
0.13575432 0.038166016 0.28257647
0.13606471 0.038166359 0.28258851
0.13637957 0.038165141 0.28255415
0.13665222 0.038165156 0.28255603
0.13692234 0.038165845 0.28257802
0.13723549 0.038165353 0.28256512
0.13754532 0.038165919 0.28258368
0.13785903 0.038165223 0.28256479
0.13816887 0.038165741 0.28258184
0.13836335 0.038165852 0.28258628
0.1387534 0.03816564 0.28258213
0.139028 0.038165323 0.28257436
0.13933945 0.038165502 0.28258145
0.13965203 0.038165193 0.28257406
0.13988543 0.038165532 0.28258532
0.14027706 0.038165085 0.28257421
0.14055172 0.038164526 0.28255928
0.14082356 0.038165044 0.28257614
0.14113396 0.038165376 0.28258768
0.14144595 0.038165405 0.28259027
0.14175846 0.038165364 0.28259087
0.14195342 0.038165491 0.28259581
0.1426965 0.038165227 0.28259218
0.14336157 0.038164955 0.28258774
0.1434797 0.038164534 0.28257591
0.14429753 0.038165089 0.28259701
0.1443755 0.038165167 0.28259978
0.14477043 0.038164303 0.28257635
0.14621469 0.038164489 0.28258997
0.14758369 0.038164418 0.28259552
0.14773971 0.038164396 0.28259572
0.098260492 0.038560018 0.28254771
0.09853217 0.03855997 0.28254795
0.098843642 0.038560044 0.282552
0.099154599 0.038560174 0.28255758
0.099467486 0.038560569 0.28257117
0.099778004 0.038560495 0.28257075
0.10004843 0.038560152 0.28256211
0.10032246 0.038560621 0.28257763
0.10051883 0.038561068 0.28259206
0.10094301 0.038560469 0.2825768
0.10125355 0.038560294 0.28257334
0.10156364 0.038559984 0.28256592
0.10187419 0.038559824 0.282563
0.10214707 0.038560238 0.28257686
0.10241719 0.038559828 0.28256637
0.1027301 0.038560111 0.28257647
0.10303827 0.038559511 0.28256053
0.10335065 0.038559876 0.2825731
0.10366121 0.038559679 0.2825692
0.10396984 0.038559202 0.28255677
0.10428182 0.038559277 0.28256083
0.10455143 0.038558859 0.28255001
0.10482441 0.038558964 0.28255472
0.10513675 0.038559496 0.2825723
0.10544548 0.038558714 0.28255087
0.10575645 0.038558826 0.28255594
0.10606652 0.03855858 0.28255051
0.10637651 0.038558573 0.28255209
0.10664889 0.038558405 0.28254876
0.10691966 0.038558055 0.28253996
0.10723157 0.038558319 0.28254956
0.10754252 0.038558532 0.28255761
0.10785167 0.038557984 0.28254318
0.10816398 0.038558617 0.28256375
0.10847174 0.038557731 0.28253934
0.10878402 0.038558479 0.28256342
0.10905562 0.038558129 0.2825546
0.10932663 0.038558085 0.28255481
0.10963716 0.038557958 0.28255287
0.10994678 0.038557563 0.28254294
0.11025907 0.03855823 0.28256452
0.11056907 0.038558219 0.28256607
0.11087774 0.038557675 0.28255165
0.11114851 0.038557272 0.28254133
0.1114203 0.038557444 0.28254801
0.11173121 0.038557738 0.28255859
0.11204244 0.038558658 0.28258765
0.11235045 0.038556896 0.28253722
0.11266038 0.038557142 0.28254628
0.11297087 0.03855712 0.28254735
0.11328088 0.038557094 0.28254843
0.11355194 0.038556859 0.28254309
0.11382428 0.038557455 0.28256232
0.11413331 0.038557343 0.28256088
0.11444332 0.038557302 0.28256145
0.11475372 0.038557597 0.28257203
0.11506287 0.038557101 0.28255907
0.11537285 0.038557161 0.28256264
0.11568233 0.038557205 0.28256571
0.11595332 0.038556695 0.28255221
0.11622439 0.038556974 0.28256208
0.11653437 0.038557068 0.28256667
0.11684397 0.038556706 0.28255773
0.11715344 0.038556814 0.28256276
0.11746254 0.038556453 0.28255385
0.11777247 0.038556647 0.28256142
0.11808254 0.038556438 0.28255698
0.11835281 0.038556058 0.28254732
0.11862448 0.038556613 0.28256533
0.11893397 0.038556658 0.2825684
0.11924306 0.038556311 0.28255993
0.11955266 0.03855598 0.28255203
0.11986299 0.038556568 0.28257108
0.12017244 0.038556706 0.28257716
0.12048152 0.03855643 0.28257072
0.12075209 0.038556188 0.28256509
0.12102306 0.038556285 0.28256959
0.12133242 0.038556717 0.28258413
0.12164214 0.038556017 0.28256521
0.12195217 0.038555875 0.28256279
0.12226166 0.038555898 0.28256533
0.12257127 0.038555503 0.2825554
0.12288085 0.038555227 0.28254899
0.12315164 0.038555395 0.28255549
0.12342264 0.038555924 0.28257284
0.12373216 0.038555834 0.28257188
0.12404165 0.03855589 0.28257546
0.12435126 0.038555495 0.28256553
0.12466085 0.038555201 0.28255859
0.12497081 0.038555313 0.28256366
0.12528048 0.038554698 0.28254724
0.12555103 0.038555089 0.28256059
0.12582178 0.038555413 0.28257158
0.12613174 0.038555503 0.28257614
0.12644121 0.038555581 0.28258023
0.12675077 0.038555402 0.2825768
0.12706029 0.038555294 0.28257537
0.12737152 0.038554493 0.28255343
0.12768206 0.038554356 0.28255105
0.12795182 0.03855459 0.28255969
0.12822403 0.03855446 0.28255737
0.12853417 0.038554013 0.28254595
0.12884176 0.038555335 0.28258699
0.12915358 0.038554233 0.28255609
0.12946355 0.038554363 0.28256166
0.12977406 0.038554318 0.28256223
0.13004518 0.038554475 0.28256842
0.13031875 0.03855367 0.2825461
0.13062702 0.0385544 0.28256968
0.13093755 0.038554341 0.28256974
0.13124761 0.038554102 0.28256431
0.13155916 0.038553923 0.28256088
0.13186908 0.038554169 0.28256997
0.1321791 0.038554095 0.28256953
0.13245286 0.038553234 0.2825456
0.13272426 0.038553562 0.28255695
0.13303527 0.038553506 0.28255701
0.13334575 0.03855351 0.2825591
0.13365793 0.038552947 0.2825442
0.1339677 0.038553715 0.28256875
0.13427931 0.038553335 0.28255934
0.13455224 0.038552981 0.28255036
0.13482496 0.038552806 0.28254676
0.13513371 0.038553588 0.28257179
0.1354436 0.038553987 0.28258535
0.13575795 0.038552817 0.28255245
0.13606939 0.038552992 0.28255954
0.13637978 0.038553391 0.2825731
0.1366543 0.038552713 0.28255451
0.1369275 0.038552567 0.28255206
0.13723686 0.038553052 0.28256813
0.13754833 0.038553163 0.28257319
0.13785928 0.038553324 0.28257978
0.13817133 0.038553149 0.28257635
0.13844568 0.038552571 0.28256091
0.13871628 0.038553305 0.28258425
0.13899021 0.038552959 0.28257564
0.13945889 0.038552869 0.28257561
0.13965553 0.038552441 0.28256404
0.13996753 0.0385524 0.28256464
0.14028002 0.038552392 0.28256625
0.1405509 0.038552862 0.28258172
0.14109686 0.038552959 0.28258783
0.14152586 0.038552947 0.28259006
0.141762 0.038552411 0.28257543
0.142075 0.038552418 0.28257751
0.14235049 0.038551897 0.28256357
0.14262363 0.038552009 0.28256842
0.14293455 0.038552247 0.28257751
0.14367491 0.038552705 0.28259534
0.14383441 0.038552102 0.28257826
0.14418294 0.038552605 0.28259537
0.14449704 0.038552281 0.28258747
0.14465195 0.0385525 0.28259501
0.14496499 0.038552411 0.28259411
0.14543611 0.038551934 0.28258276
0.14723307 0.038552083 0.28259754
0.14781909 0.038551994 0.28259838
0.098260373 0.038947716 0.28254202
0.098531879 0.038947683 0.28254271
0.098842904 0.038947605 0.28254229
0.099152446 0.038947411 0.28253838
0.099465325 0.038947836 0.28255296
0.099774912 0.038947538 0.28254601
0.10004652 0.03894718 0.28253707
0.10031797 0.038947273 0.28254142
0.10062991 0.038947482 0.2825495
0.10094181 0.038947795 0.28256059
0.10125138 0.038947564 0.28255564
0.10156287 0.038947605 0.28255874
0.10187432 0.038947761 0.2825653
0.10214759 0.038947951 0.28257251
0.1024193 0.038947817 0.28257018
0.10273027 0.038947891 0.2825743
0.10304032 0.038947746 0.28257185
0.10334806 0.038946893 0.28254843
0.10366047 0.038947187 0.28255901
0.10397008 0.038946774 0.28254861
0.10428016 0.038946543 0.28254366
0.10455198 0.038946509 0.28254434
0.10482416 0.038946528 0.28254655
0.10513418 0.038946401 0.28254461
0.10544701 0.038946997 0.28256422
0.10575758 0.03894677 0.28255928
0.1060662 0.038946319 0.28254783
0.10637768 0.03894636 0.28255093
0.10664881 0.038945906 0.28253913
0.10692126 0.038946096 0.28254628
0.10723177 0.038946033 0.2825464
0.10754137 0.038945653 0.28253698
0.10785188 0.038945641 0.28253853
0.10816242 0.038945481 0.28253561
0.10847246 0.038945351 0.28253371
0.10874486 0.038945664 0.28254455
0.10901777 0.038945947 0.28255457
0.10932601 0.038945127 0.28253216
0.10963696 0.038945287 0.28253871
0.10994874 0.038945999 0.28256178
0.11025887 0.038945585 0.28255135
0.11056799 0.038945172 0.28254095
0.11087804 0.038944993 0.28253752
0.11114842 0.038944788 0.28253302
0.11142006 0.038944896 0.28253788
0.11173104 0.038944919 0.28254044
0.11204151 0.038945027 0.28254554
0.11235113 0.038944628 0.28253561
0.11266191 0.038945377 0.28255969
0.11297195 0.038945198 0.28255624
0.11328194 0.038945239 0.28255931
0.11355407 0.03894591 0.28258082
0.11382454 0.03894487 0.28255168
0.11413366 0.038944457 0.28254125
0.11444359 0.03894468 0.28254983
0.11475362 0.03894455 0.28254789
0.11506405 0.038944762 0.28255597
0.11537305 0.038944803 0.28255904
0.11568268 0.038944319 0.28254658
0.11595446 0.03894449 0.28255329
0.11622469 0.038944259 0.28254795
0.11653516 0.038944397 0.28255403
0.11684511 0.038944539 0.28256011
0.11715424 0.038944058 0.28254768
0.11746335 0.038943678 0.28253824
0.11777364 0.038944393 0.2825613
0.11808331 0.038943771 0.28254488
0.1183539 0.038944039 0.28255439
0.11862483 0.038943708 0.28254622
0.11893475 0.03894395 0.28255528
0.11924435 0.038943604 0.28254688
0.11955382 0.03894373 0.28255245
0.11986341 0.038943365 0.28254348
0.12017287 0.038943544 0.28255057
0.12048279 0.03894373 0.28255814
0.12075338 0.038943477 0.28255215
0.12102441 0.038943347 0.28254998
0.12133373 0.038943961 0.28257006
0.12164353 0.038942907 0.28254065
0.12195343 0.038943265 0.2825532
0.12226291 0.038943291 0.28255579
0.12257239 0.038943347 0.28255934
0.12288208 0.03894268 0.28254142
0.12315282 0.038943004 0.28255257
0.12342399 0.03894297 0.28255329
0.1237336 0.038942587 0.28254384
0.12404302 0.0389429 0.28255489
0.124353 0.038942926 0.28255746
0.12466213 0.038942456 0.28254554
0.12497207 0.03894265 0.28255311
0.12528148 0.038942974 0.28256467
0.12555198 0.038943496 0.28258166
0.12582287 0.038943313 0.28257802
0.12613307 0.038942616 0.2825591
0.12644368 0.038942218 0.28254917
0.12675312 0.038942408 0.28255674
0.12706301 0.038942751 0.28256878
0.1273727 0.038942132 0.28255236
0.12768327 0.03894189 0.28254697
0.12795363 0.038942304 0.2825608
0.12822518 0.038942195 0.28255931
0.12853466 0.038942188 0.28256088
0.12884584 0.038941585 0.282545
0.12915531 0.038941659 0.28254902
0.12946525 0.038941834 0.28255612
0.12977639 0.038941421 0.28254569
0.13004775 0.038941856 0.2825602
0.13031866 0.038942132 0.28257003
0.13062936 0.03894148 0.28255263
0.13093868 0.038942043 0.2825712
0.13126238 0.038941968 0.28257087
0.13156092 0.038941216 0.28255036
0.13187027 0.038941741 0.28256792
0.13218081 0.038941566 0.28256452
0.13245399 0.038940933 0.28254738
0.13272646 0.038941063 0.28255293
0.13303813 0.038940415 0.28253552
0.13334908 0.03894059 0.28254259
0.13366014 0.038940392 0.28253865
0.13397059 0.038940553 0.28254524
0.13424271 0.038940672 0.28255042
0.13451561 0.038940471 0.28254613
0.13482617 0.038940277 0.2825422
0.13513708 0.038940534 0.2825518
0.13544859 0.038940493 0.28255236
0.13575856 0.038940549 0.28255594
0.13607056 0.038940571 0.28255853
0.13634193 0.038941033 0.28257388
0.13661553 0.038940676 0.28256494
0.13692752 0.038940698 0.28256753
0.13723962 0.038940322 0.28255811
0.13754998 0.03894078 0.28257367
0.13786158 0.038940433 0.28256527
0.13817301 0.038940679 0.28257436
0.13844752 0.038940046 0.2825574
0.13872014 0.038940176 0.28256279
0.1390693 0.038940784 0.28258291
0.13934521 0.038939938 0.28255945
0.1396572 0.038939942 0.28256154
0.13997033 0.038939528 0.28255117
0.14028119 0.038940009 0.28256723
0.14055558 0.038939785 0.28256229
0.14082932 0.038939487 0.28255516
0.141059 0.038940616 0.28258994
0.14215411 0.038940184 0.28258377
0.14235236 0.038939368 0.28256074
0.14363918 0.038939938 0.2825855
0.1438742 0.0389398 0.28258282
0.14410815 0.038939968 0.28258914
0.14438222 0.0389397 0.28258285
0.14543724 0.038939632 0.28258729
0.1459842 0.038939737 0.28259373
0.1461022 0.038939722 0.28259388
0.14680623 0.03893961 0.28259486
0.14778541 0.038938962 0.28258157
0.098257013 0.039334476 0.28251424
0.098528177 0.039334495 0.28251645
0.098841056 0.039334901 0.28253055
0.099150188 0.039334435 0.2825186
0.099461652 0.039334521 0.28252319
0.09977451 0.039335001 0.28253928
0.10008649 0.039335057 0.28254288
0.10035505 0.039334286 0.28252172
0.10062996 0.039335154 0.28254926
0.10094005 0.039334826 0.2825413
0.10124916 0.039334424 0.28253138
0.10156013 0.039334528 0.28253648
0.10187165 0.039334431 0.28253555
0.10218307 0.039334726 0.28254616
0.10245308 0.039334118 0.2825298
0.10272618 0.039334301 0.28253704
0.10303669 0.039334275 0.28253812
0.10334585 0.039333705 0.28252319
0.10365687 0.039333608 0.28252223
0.10397156 0.039334692 0.28255635
0.10427932 0.03933372 0.28252941
0.10455301 0.039334197 0.2825453
0.10482149 0.03933318 0.28251681
0.10513383 0.039333656 0.28253287
0.10544482 0.039333727 0.28253695
0.10575581 0.039333716 0.28253856
0.1060636 0.03933271 0.28251064
0.10637507 0.039332829 0.28251618
0.10664621 0.039332319 0.28250274
0.10691951 0.039333001 0.28252459
0.10723093 0.039333258 0.28253415
0.10754013 0.039332587 0.28251624
0.10785107 0.039332729 0.28252232
0.10816251 0.039332934 0.28253037
0.10847113 0.039332498 0.28251946
0.10874525 0.039333206 0.28254214
0.10901604 0.039332785 0.28253135
0.1093252 0.039332215 0.28251642
0.10963576 0.039332036 0.28251302
0.10994621 0.039332226 0.28252059
0.11025809 0.03933255 0.28253216
0.1105672 0.039332151 0.28252223
0.11087817 0.039332256 0.28252733
0.11114896 0.039331838 0.28251669
0.11142072 0.039332088 0.28252569
0.11173068 0.039332192 0.28253078
0.11203984 0.039331626 0.28251582
0.11235032 0.039331697 0.28251991
0.11266081 0.039331719 0.2825225
0.11297088 0.039331451 0.28251657
0.11328173 0.039331961 0.28253365
0.11355227 0.039331824 0.28253114
0.11382423 0.039331943 0.28253651
0.11413306 0.039330788 0.28250408
0.11444379 0.039331719 0.28253365
0.11475372 0.039331943 0.28254223
0.11506324 0.039331861 0.28254178
0.11537334 0.039331459 0.28253186
0.11568247 0.039331041 0.28252143
0.11595383 0.03933097 0.28252095
0.11622451 0.039330874 0.28251982
0.11653501 0.039330877 0.28252187
0.11684497 0.039330985 0.28252694
0.11715414 0.039330419 0.28251201
0.11746363 0.039330438 0.28251457
0.11777408 0.039330542 0.28251964
0.11808345 0.039331023 0.28253573
0.11835462 0.039330412 0.28251943
0.11862512 0.03933043 0.28252158
0.11893506 0.039330587 0.28252816
0.11924465 0.039330252 0.28252023
0.11955503 0.039330643 0.28253376
0.11986409 0.039330445 0.28252986
0.12017401 0.039330721 0.2825399
0.12044527 0.039330378 0.28253147
0.12071605 0.039330553 0.28253829
0.12102557 0.03933049 0.28253835
0.12133512 0.039330292 0.28253442
0.12164467 0.039330091 0.28253049
0.12195469 0.039330032 0.28253058
0.12226422 0.039329901 0.28252864
0.12257382 0.039329566 0.28252071
0.12288314 0.039330147 0.28253978
0.12315408 0.039329767 0.28253028
0.12342528 0.039329689 0.28252965
0.12373489 0.039329257 0.28251874
0.12404439 0.039329223 0.28251979
0.124354 0.039330527 0.28256035
0.1246631 0.039330229 0.2825534
0.12497336 0.039329305 0.28252798
0.12528279 0.039329514 0.28253603
0.12555496 0.039328963 0.28252143
0.12582481 0.039329462 0.28253791
0.12613535 0.039329316 0.28253549
0.12644474 0.03932967 0.28254807
0.12675551 0.039328717 0.28252167
0.12706506 0.039328553 0.28251871
0.12737496 0.039328828 0.28252876
0.12764706 0.039328527 0.28252149
0.12791635 0.039329201 0.28254315
0.12822862 0.039328277 0.28251773
0.12853691 0.039328989 0.2825408
0.12884633 0.039329227 0.28254986
0.12915811 0.039328303 0.28252447
0.12946862 0.03932821 0.28252354
0.12977917 0.039328031 0.28252012
0.13004972 0.039328415 0.28253332
0.13032283 0.039327454 0.28250653
0.13063262 0.039328113 0.28252807
0.13094261 0.039328221 0.28253314
0.13125423 0.039327756 0.28252125
0.13156423 0.039327726 0.28252229
0.13187413 0.03932805 0.28253388
0.13218293 0.039328728 0.28255594
0.13245724 0.0393277 0.28252718
0.1327298 0.039327465 0.28252184
0.13303967 0.039327923 0.2825374
0.13335073 0.039327659 0.2825315
0.13366224 0.039327648 0.28253308
0.13397494 0.039326943 0.28251418
0.13424599 0.039327312 0.28252688
0.13451841 0.039327025 0.28252009
0.1348283 0.039327368 0.28253213
0.13514036 0.039327171 0.28252822
0.13545251 0.039326638 0.28251433
0.13576338 0.039327096 0.28252992
0.13607657 0.039326411 0.28251153
0.13634814 0.039326672 0.28252104
0.13662043 0.039326865 0.2825284
0.13693303 0.039326549 0.28252101
0.13724501 0.039326519 0.28252208
0.13755482 0.039327197 0.28254414
0.13786581 0.039327204 0.28254625
0.13817677 0.039327294 0.28255081
0.13845284 0.03932653 0.28252989
0.13872445 0.03932672 0.28253725
0.13903862 0.039326102 0.28252089
0.13935159 0.039326191 0.28252548
0.13966469 0.039325841 0.28251708
0.13997182 0.039327078 0.28255561
0.14024676 0.03932666 0.282545
0.14052215 0.039325982 0.28252658
