# .PCD v0.7 - Point Cloud Data file format
VERSION 0.7
FIELDS x y z
SIZE 4 4 4
TYPE F F F
COUNT 1 1 1
WIDTH 1422
HEIGHT 1
VIEWPOINT 0 0 0 1 0 0 0
POINTS 1422
DATA ascii
0.11353669 0.061236694 0.28576031
0.11384451 0.061235614 0.28573036
0.11415002 0.061233841 0.28567994
0.11445505 0.061231997 0.28562748
0.11468527 0.061231229 0.28560627
0.13071871 0.03626094 0.28593773
0.13214926 0.036269173 0.28619176
0.13261124 0.036269221 0.28619635
0.13315128 0.036269076 0.2861957
0.13322929 0.036269017 0.28619444
0.10870469 0.036686003 0.28592819
0.13402975 0.036688 0.28614956
0.13426283 0.036684252 0.28603992
0.13445877 0.036681075 0.28594691
0.10845222 0.037099939 0.28611776
0.13456115 0.037093319 0.2860831
0.13479561 0.037088379 0.28593796
0.13486251 0.037470959 0.28604013
0.1349282 0.037854318 0.28615233
0.13512535 0.037849173 0.28600106
0.13495807 0.038234755 0.28618267
0.13511537 0.038230326 0.28605232
0.13514434 0.038610343 0.28607219
0.13517316 0.038990483 0.28608635
0.13533273 0.038985066 0.28592667
0.1349358 0.039419871 0.28619662
0.13513163 0.039415278 0.28606161
0.13532868 0.039410014 0.28590664
0.13493356 0.039861899 0.28616068
0.13509066 0.039858103 0.28604898
0.13489315 0.040302902 0.28611845
0.13508928 0.040297944 0.28597245
0.1348919 0.04074347 0.28604853
0.13500977 0.040740523 0.28596175
0.13484974 0.041186128 0.28605819
0.13500719 0.041181166 0.28591183
0.13457543 0.041601256 0.28607321
0.13477108 0.041597392 0.28595969
0.13457227 0.04195122 0.28602993
0.13476227 0.042297486 0.28590712
0.13460423 0.042304445 0.28611279
0.13463572 0.042657506 0.28616849
0.13475727 0.042648796 0.28591082
0.13465893 0.043730412 0.28616601
0.13473767 0.043727856 0.28609085
0.13460116 0.045001 0.28593647
0.13471743 0.045000069 0.28590965
0.13463056 0.045426778 0.28596908
0.13470869 0.045426317 0.28595585
0.13461432 0.046223115 0.28609732
0.1346077 0.046605792 0.28619853
0.13460231 0.046985943 0.28617775
0.10803567 0.047363441 0.28592479
0.13459791 0.047362641 0.28609911
0.13475381 0.0473607 0.28604269
0.13459042 0.047745816 0.28619832
0.13466646 0.049304698 0.28605497
0.13478315 0.049302317 0.28598517
0.13466218 0.049700137 0.28616664
0.13474061 0.049698662 0.28612345
0.1079961 0.051416013 0.28604943
0.1347453 0.051408321 0.28596061
0.1346129 0.051850695 0.28612611
0.13476996 0.05184713 0.28602105
0.1346388 0.052661248 0.28601718
0.13479561 0.052658547 0.28593776
0.13463151 0.053055637 0.28608376
0.13478875 0.053051353 0.2859574
0.13485917 0.053446479 0.28604177
0.13497244 0.053834166 0.2859146
0.13492253 0.05423278 0.28610575
0.13508099 0.054227851 0.28596041
0.13495177 0.054612607 0.28615773
0.13511001 0.054607239 0.28599939
0.13494316 0.054989826 0.28616923
0.13506125 0.054986101 0.28605944
0.13516717 0.055364568 0.28609309
0.13519481 0.055743925 0.28615588
0.13522516 0.056120116 0.28613281
0.13529351 0.056929864 0.2861467
0.1355989 0.058589824 0.28591886
0.13551514 0.058966789 0.28609914
0.1352068 0.059707433 0.28612503
0.13536443 0.059701838 0.28595999
0.12338929 0.060081802 0.28619641
0.12366029 0.060081799 0.28619808
0.12400798 0.060081709 0.28619787
0.13486032 0.060074225 0.28604811
0.13509551 0.060070172 0.2859295
0.12052868 0.060453039 0.28619915
0.12072001 0.060451865 0.28616557
0.12102597 0.060450271 0.28612062
0.1213311 0.060448095 0.28605819
0.12163724 0.060445935 0.28599626
0.12194424 0.060444176 0.28594631
0.12213562 0.06044288 0.28590924
0.12747586 0.060441695 0.28591216
0.12767059 0.060442638 0.28594157
0.12798011 0.060444206 0.28599009
0.12825142 0.060445428 0.28602844
0.12852322 0.060447186 0.28608245
0.12883341 0.060448226 0.28611547
0.12914243 0.06044982 0.28616503
0.12933712 0.0604509 0.28619844
0.13404562 0.060448848 0.28617111
0.13424155 0.060445666 0.2860781
0.13443585 0.0604412 0.28594708
0.10852516 0.060837816 0.28597483
0.10869891 0.060842007 0.28610048
0.11754438 0.06084314 0.28619808
0.11777555 0.060842551 0.2861824
0.11808325 0.060841806 0.28616244
0.11835296 0.060841098 0.28614345
0.1186222 0.060840271 0.2861208
0.1189286 0.060838919 0.28608286
0.11923546 0.060837664 0.28604794
0.11954241 0.060836058 0.28600249
0.11984844 0.060834266 0.28595155
0.12003937 0.060832784 0.28590897
0.13048787 0.060830284 0.28591049
0.1306825 0.060831532 0.2859489
0.130953 0.060833227 0.28600106
0.13122302 0.06083478 0.28604922
0.13153246 0.06083671 0.28610876
0.13184141 0.060838573 0.28616628
0.13222717 0.060839333 0.28619158
0.13245872 0.060839187 0.2861889
0.13276748 0.060838252 0.28616348
0.13307752 0.06083636 0.28610957
0.13334846 0.060834855 0.28606677
0.13358216 0.060831323 0.2859638
0.10940727 0.06124413 0.28595179
0.10965299 0.0612473 0.28604749
0.10993349 0.061249558 0.28611642
0.11024538 0.061249919 0.2861295
0.11055586 0.061249971 0.28613308
0.11085843 0.061247978 0.2860761
0.11116013 0.061245579 0.28600711
0.11146551 0.061244227 0.28596917
0.11176999 0.06124264 0.2859242
0.11207817 0.061241962 0.28590629
0.13245718 0.036269475 0.28620282
0.1112043 0.036699723 0.28635135
0.1120909 0.036698729 0.28632748
0.11228832 0.036699627 0.28635541
0.13013127 0.036693167 0.28627792
0.13032453 0.036694065 0.28630581
0.1306719 0.03669554 0.28635192
0.13094184 0.036696307 0.28637639
0.1312505 0.036697458 0.28641242
0.1315583 0.036698148 0.28643495
0.13182802 0.036699653 0.28648126
0.13333121 0.036698408 0.28645399
0.13364041 0.03669427 0.28633311
0.13387394 0.036690708 0.28622898
0.12384263 0.037109219 0.28648841
0.12399597 0.037108056 0.28645495
0.12561172 0.037105426 0.28638697
0.12615307 0.037105929 0.28640532
0.12646103 0.037106089 0.28641182
0.12669328 0.037106909 0.28643763
0.12738797 0.037107907 0.28647149
0.12758155 0.037108224 0.28648207
0.13397561 0.037105467 0.28643996
0.13424797 0.037100822 0.28630388
0.10853264 0.037490472 0.28645319
0.13431366 0.03748583 0.28647798
0.13454716 0.037480727 0.2863279
0.13461295 0.03786543 0.28648007
0.13472866 0.037862983 0.28640825
0.13464306 0.038245026 0.2864854
0.13479801 0.038241807 0.28639099
0.13482909 0.03861979 0.28635043
0.13489804 0.038997687 0.28629819
0.13501582 0.038995001 0.28621939
0.13462549 0.039002977 0.28645343
0.13474102 0.039001174 0.28640059
0.13458234 0.039428253 0.286443
0.13481778 0.039423361 0.28629941
0.13465834 0.039869513 0.28638482
0.13481572 0.039864715 0.28624347
0.13465406 0.040313415 0.28642893
0.13477266 0.040311377 0.28636912
0.13461317 0.040756121 0.28642225
0.134771 0.040749922 0.28623924
0.13457221 0.041198131 0.28641278
0.13429911 0.041610867 0.28635684
0.13406155 0.041965615 0.28645414
0.13425742 0.041960895 0.28631514
0.10817104 0.04231612 0.28630352
0.13428967 0.04231317 0.28636953
0.1344471 0.042308293 0.28622583
0.13428397 0.042666793 0.28644186
0.1344808 0.04266062 0.28625989
0.13435471 0.043018438 0.28647429
0.13455151 0.043012317 0.28629383
0.13434967 0.043369517 0.28648198
0.13450663 0.043366272 0.28638694
0.10820803 0.043745406 0.28642896
0.10836309 0.043745186 0.2864235
0.1345007 0.043738052 0.28639165
0.1345714 0.04416227 0.28632671
0.13472861 0.044158131 0.28620499
0.13448501 0.044589832 0.28637481
0.13439824 0.045017824 0.28643423
0.13447708 0.045014936 0.28634906
0.13431376 0.045440916 0.2863864
0.13450888 0.045435961 0.28624073
0.13434343 0.045855489 0.28642511
0.13450046 0.045851968 0.28632176
0.13437688 0.046234816 0.28644279
0.13449572 0.046228562 0.28625804
0.10824807 0.046613254 0.28623408
0.134332 0.046615031 0.28647065
0.13448954 0.046609789 0.28631631
0.10828188 0.04700309 0.28649557
0.1343632 0.046996567 0.28649125
0.13448364 0.046991661 0.2863465
0.13435973 0.047374614 0.28645256
0.13443902 0.04737024 0.28632343
0.13431522 0.047753308 0.28641847
0.13447273 0.047748134 0.28626612
0.13446967 0.048138041 0.28632653
0.10816187 0.048536766 0.28633043
0.1083146 0.048536535 0.28632462
0.13450801 0.04852958 0.28631106
0.1345423 0.049315434 0.28637257
0.13434787 0.049707986 0.2863974
0.13450529 0.049703151 0.28625503
0.13450058 0.050109297 0.28634799
0.10814073 0.050551157 0.28634405
0.1083054 0.050553404 0.28641164
0.13444841 0.050549008 0.286439
0.10822737 0.050993253 0.28647718
0.13455468 0.050983626 0.28633967
0.1082558 0.051430643 0.28648481
0.13453925 0.051425472 0.28646833
0.13445601 0.051853746 0.28621584
0.13459966 0.052278411 0.28628662
0.13465492 0.053460937 0.28646952
0.13473943 0.053452391 0.2862165
0.13461213 0.053852275 0.28644979
0.13476954 0.05384741 0.28630641
0.10812304 0.054248884 0.28642848
0.13479674 0.054245766 0.28649029
0.13479455 0.05461676 0.28628007
0.13458967 0.054998331 0.2864196
0.13478507 0.054994587 0.2863096
0.13469531 0.055377778 0.28648221
0.13485165 0.055374276 0.28637913
0.1350095 0.055370275 0.28626144
0.13491924 0.055752635 0.28641272
0.1350766 0.055748053 0.28627765
0.13494834 0.056129746 0.28641692
0.13510674 0.056124952 0.28627557
0.13517532 0.056514684 0.28631052
0.13513152 0.05693898 0.28641632
0.13524556 0.057355709 0.28637654
0.13527882 0.057778262 0.28646126
0.13535394 0.058197189 0.2864584
0.13539225 0.05860569 0.28638858
0.13527578 0.058978207 0.28643656
0.13539353 0.058975697 0.28636277
0.13516133 0.059346482 0.28638411
0.1353578 0.059341472 0.28623661
0.10795178 0.059725653 0.28649622
0.13485083 0.059717506 0.28642166
0.13504712 0.059713118 0.28629267
0.10791771 0.060088068 0.28627908
0.12112826 0.060092233 0.28649086
0.1213572 0.060090743 0.28644818
0.12166359 0.060089447 0.2864117
0.12196954 0.060087882 0.28636724
0.12227599 0.060086299 0.2863223
0.12258241 0.060084846 0.28628138
0.12285138 0.060083788 0.28625169
0.12312049 0.060082853 0.28622574
0.12344188 0.060082059 0.28620425
0.12381525 0.060081914 0.28620261
0.12416328 0.060081817 0.28620207
0.12435709 0.060082428 0.2862215
0.12466556 0.060082532 0.28622651
0.1249754 0.060083069 0.2862446
0.12524609 0.060083527 0.28626013
0.12551747 0.060084477 0.28628996
0.1258285 0.060086042 0.28633851
0.1261386 0.060087409 0.28638104
0.12644824 0.060088605 0.28641862
0.12675817 0.060090542 0.28647813
0.12695253 0.060091019 0.28649354
0.13434969 0.060086634 0.28641289
0.13454594 0.060082376 0.2862879
0.10821593 0.06045647 0.28621313
0.10843804 0.060462859 0.28640422
0.11842568 0.060463391 0.28649116
0.11865396 0.0604624 0.28646344
0.11896075 0.060461365 0.28643498
0.11926799 0.060460538 0.28641254
0.11957351 0.060458761 0.28636211
0.11987954 0.060456917 0.28630966
0.12018409 0.06045505 0.28625619
0.12041448 0.060453735 0.286219
0.12949067 0.060452353 0.2862426
0.12976183 0.060453534 0.28627962
0.13007027 0.060455382 0.28633663
0.13037932 0.060456943 0.28638518
0.13064896 0.060458142 0.28642264
0.13091862 0.060459234 0.28645694
0.13111241 0.06045996 0.28647989
0.13373269 0.060458791 0.28646386
0.13388783 0.060454939 0.28635079
0.10883178 0.060845863 0.28621572
0.10903978 0.060849234 0.28631723
0.10924592 0.060852166 0.28640574
0.11273919 0.060854364 0.28649631
0.11293083 0.060853861 0.28648272
0.11323663 0.060852841 0.28645474
0.11354381 0.060852177 0.28643733
0.11385104 0.06085138 0.28641587
0.11415735 0.060850315 0.28638643
0.11446226 0.060848877 0.28634596
0.11476903 0.06084796 0.28632101
0.11507675 0.060847193 0.28630057
0.11534607 0.060846645 0.28628623
0.11561603 0.060846198 0.28627494
0.11592557 0.060846061 0.286273
0.11623328 0.060845293 0.28625256
0.116541 0.060844529 0.28623211
0.11685011 0.060844123 0.28622219
0.11715922 0.060843743 0.28621325
0.1173903 0.06084343 0.28620556
0.13207205 0.060839757 0.28620303
0.13198304 0.036700726 0.28651413
0.13217492 0.036701102 0.2865265
0.13248256 0.036702335 0.28656504
0.13275202 0.036701895 0.28655371
0.13302192 0.036701083 0.28653139
0.10964011 0.037115 0.28657195
0.10999087 0.037115756 0.28659675
0.11018854 0.037116919 0.28663236
0.11085021 0.037118003 0.28666851
0.11112118 0.037118129 0.28667402
0.11135416 0.037118174 0.28667682
0.12016243 0.037120283 0.28679389
0.1210458 0.03711902 0.28676197
0.12160647 0.03711671 0.28669688
0.12203904 0.037114721 0.2866405
0.12221855 0.037114114 0.2866236
0.1224606 0.037112787 0.28658569
0.12315195 0.037111573 0.28655404
0.12334424 0.037110571 0.28652546
0.12372838 0.037110079 0.28651327
0.12773658 0.03710923 0.28651291
0.12796766 0.037110109 0.28654051
0.12816013 0.037110731 0.28656006
0.12866344 0.037113115 0.286634
0.1288552 0.037113898 0.28665838
0.12916374 0.03711547 0.28670689
0.12935637 0.037116706 0.28674477
0.13274004 0.037117686 0.28679487
0.1330476 0.037116896 0.28677329
0.13331705 0.037114184 0.28669447
0.13362694 0.037111141 0.2866061
0.1338207 0.03710857 0.28653103
0.10873879 0.037493393 0.28654116
0.1090619 0.037496395 0.2866323
0.10926614 0.037498981 0.28671029
0.12500316 0.037498184 0.28678578
0.12523326 0.037497807 0.28677607
0.12554216 0.037498116 0.28678712
0.12584972 0.037497949 0.28678417
0.1261185 0.037498094 0.28679016
0.13365461 0.037495095 0.28674868
0.13392495 0.037491679 0.28664905
0.13415793 0.037488308 0.2865504
0.10942575 0.037500314 0.28675085
0.10954453 0.037501037 0.28677303
0.10851126 0.037875902 0.28662372
0.10875573 0.037878808 0.28671142
0.10895779 0.037880886 0.28677437
0.13395309 0.037875202 0.28676572
0.13422415 0.037871599 0.28666061
0.13445729 0.037867703 0.28654647
0.10828169 0.038257934 0.28669685
0.10844388 0.038259592 0.28674707
0.13402086 0.038254857 0.28677312
0.13425364 0.038252216 0.28669614
0.13448623 0.038247906 0.2865698
0.13408925 0.038634632 0.2867859
0.13428271 0.038631316 0.28668883
0.13455464 0.038627561 0.28657928
0.13435142 0.039010055 0.28666162
0.13450754 0.039006267 0.28655019
0.13403738 0.039438367 0.28673947
0.13427125 0.039433673 0.28660184
0.10826823 0.039888095 0.28677079
0.13403454 0.03988244 0.28676447
0.13426808 0.039878916 0.28666133
0.13450089 0.039874446 0.2865302
0.10824652 0.040326428 0.28665662
0.10841122 0.040328626 0.28672287
0.13399406 0.040324841 0.28676388
0.13426514 0.04032167 0.28667146
0.13449794 0.040317271 0.2865423
0.10823603 0.04076755 0.28661045
0.1084417 0.040770426 0.28669694
0.10864829 0.04077347 0.28678846
0.13399132 0.040767014 0.28674194
0.13426244 0.040763766 0.28664699
0.13445607 0.040759917 0.28653398
0.10825871 0.041207068 0.28653464
0.10849115 0.041215796 0.28679481
0.13402709 0.041208781 0.2867257
0.13425979 0.041204639 0.28660405
0.10824239 0.041627273 0.28670451
0.10836114 0.04162813 0.28673068
0.13375299 0.04162493 0.28677118
0.13394749 0.04162154 0.28667164
0.13414109 0.041617781 0.28656113
0.10839553 0.041979827 0.28673178
0.13367294 0.041974474 0.28671482
0.13390651 0.041969094 0.28655657
0.13343543 0.042327628 0.28679353
0.13362965 0.042325143 0.28672099
0.13393879 0.04232128 0.2866081
0.13413422 0.042318087 0.28651458
0.13366228 0.042677205 0.28674686
0.13393357 0.042673353 0.28663427
0.13412903 0.042670075 0.28653827
0.13392727 0.04302679 0.28671944
0.13419886 0.043022439 0.28659204
0.13399899 0.043378677 0.28675139
0.13419367 0.043374106 0.28661704
0.13422576 0.043746319 0.28663498
0.1085754 0.044177521 0.2866019
0.13421729 0.044174589 0.28668967
0.13441113 0.044170026 0.28655565
0.1084576 0.044604722 0.28664064
0.13409339 0.044602126 0.28673673
0.13424869 0.044597715 0.286607
0.13408546 0.04502729 0.28671297
0.13424069 0.045023132 0.28659058
0.13403827 0.045451641 0.28670281
0.13415675 0.045446604 0.28655407
0.13395357 0.045865286 0.28671312
0.13418704 0.045860186 0.28656352
0.1340252 0.04624401 0.28671318
0.13421963 0.046239156 0.28657052
0.13401923 0.046624534 0.28675044
0.13417457 0.046619933 0.28661501
0.10844589 0.047005326 0.28656316
0.13405024 0.047006715 0.28679001
0.13420765 0.047001857 0.28664696
0.13404432 0.047386311 0.28679726
0.13420175 0.047381405 0.28665292
0.1339644 0.047761828 0.28666854
0.13415888 0.047757879 0.28655288
0.13399932 0.048152961 0.28676569
0.13423239 0.048147574 0.28660753
0.13423121 0.048540846 0.28664333
0.10826755 0.048935503 0.28653759
0.10838547 0.048935749 0.28654575
0.13422865 0.048934914 0.28670555
0.13442518 0.048928026 0.2865026
0.10840014 0.049331307 0.28666237
0.13426593 0.049326915 0.28671134
0.13442363 0.049321115 0.28654033
0.13422719 0.049717106 0.28666705
0.13403009 0.050124582 0.28679842
0.13422401 0.050119735 0.28665593
0.13425095 0.050556231 0.28665224
0.13427815 0.050993484 0.28663042
0.10841888 0.051001705 0.28672895
0.1343054 0.051431816 0.28665522
0.13446262 0.051427618 0.28653151
0.13429375 0.051868249 0.28664532
0.13424493 0.052291058 0.28666028
0.13444124 0.052286644 0.28653029
0.13431498 0.052684441 0.28670359
0.13443309 0.05268072 0.28659382
0.13430941 0.053076372 0.28669727
0.10808239 0.053469907 0.28659448
0.13434184 0.053471468 0.28678027
0.13449997 0.053464189 0.28656527
0.13449439 0.053854782 0.28652358
0.13432969 0.054256145 0.28679553
0.13452408 0.05425144 0.28665704
0.13472028 0.054247305 0.28653553
0.13459307 0.054628696 0.28663293
0.10804015 0.055014573 0.28674507
0.13438949 0.055009153 0.28673944
0.13447164 0.055001821 0.28652239
0.13457753 0.055380426 0.28656
0.13468255 0.055761881 0.28668556
0.13476218 0.055756301 0.28652042
0.13467062 0.056142479 0.28679299
0.13478982 0.056134984 0.28657126
0.13486061 0.056523971 0.28658429
0.1348567 0.056946289 0.28663164
0.13489141 0.057366461 0.28669354
0.13508773 0.05736202 0.28656292
0.1349248 0.057788581 0.28676564
0.13512105 0.057784278 0.28663895
0.13527545 0.058198858 0.28650761
0.13496056 0.058208711 0.28679833
0.13511802 0.058203708 0.28665063
0.13495851 0.058618419 0.28676409
0.13515516 0.058612794 0.28659812
0.13492092 0.058987923 0.28672293
0.13511705 0.058982987 0.28657761
0.1079744 0.05936056 0.28664529
0.1081441 0.059363861 0.28674424
0.12261169 0.059362601 0.28679013
0.1228428 0.059362195 0.2867794
0.12315038 0.05936192 0.28677297
0.12345846 0.059361644 0.28676653
0.12376425 0.059360661 0.28673908
0.12407319 0.059360854 0.28674662
0.12438194 0.05936167 0.28677267
0.12457575 0.059362337 0.28679356
0.1348464 0.059354711 0.28662634
0.10816915 0.059731208 0.28666228
0.12141822 0.059732672 0.28678811
0.12164783 0.059731688 0.28676042
0.12191428 0.05973015 0.2867164
0.12221973 0.059728641 0.28667343
0.12252608 0.059727445 0.28663999
0.12283245 0.059726153 0.28660354
0.12314019 0.059725337 0.2865811
0.12344875 0.059725117 0.28657666
0.1237558 0.059724923 0.28657269
0.12406474 0.059725128 0.28658074
0.12437363 0.059725486 0.28659332
0.12468199 0.059725896 0.28660735
0.12495327 0.059726667 0.28663185
0.12522355 0.059727445 0.28665668
0.12553313 0.059728812 0.28669924
0.12584239 0.059729613 0.28672481
0.12615195 0.0597311 0.28677085
0.13457613 0.059725638 0.28666115
0.10818412 0.060095776 0.2865096
0.11960633 0.060102277 0.28677863
0.11983605 0.060101576 0.28675944
0.12014018 0.060099386 0.28669649
0.12044514 0.060097802 0.28665152
0.12074891 0.060095195 0.28657603
0.12097684 0.060093701 0.28653336
0.12710632 0.060091663 0.28651372
0.12737636 0.060093202 0.28656122
0.12764746 0.060094595 0.28660437
0.12791838 0.060096562 0.28666455
0.12822737 0.060098283 0.28671756
0.12853584 0.060100049 0.2867721
0.12872963 0.060100779 0.28679502
0.13399634 0.060098052 0.28674918
0.1341915 0.060094137 0.28663453
0.10879014 0.060472697 0.28669858
0.11505367 0.060473889 0.2867786
0.11535636 0.060471505 0.28671014
0.11566302 0.060470931 0.28669518
0.11596879 0.060469963 0.28666872
0.11627741 0.060469557 0.28665879
0.1165467 0.06046911 0.28664747
0.11681522 0.060468461 0.28663012
0.11712201 0.060467459 0.28660268
0.11742962 0.060467049 0.28659275
0.11773637 0.06046617 0.28656879
0.11804271 0.060465023 0.28653684
0.11827247 0.060464114 0.28651163
0.13126554 0.060462963 0.28657001
0.13149635 0.06046918 0.28675619
0.13284135 0.060470227 0.28679687
0.13307276 0.060468815 0.28675666
0.13338304 0.060464449 0.28662932
0.1336149 0.060461506 0.28654367
0.10937881 0.060855951 0.28651899
0.10962479 0.060859393 0.28662288
0.10994969 0.060863078 0.28673455
0.11026236 0.060864184 0.28676963
0.11056999 0.060863722 0.28675818
0.1108748 0.060862619 0.28672773
0.11117125 0.060859393 0.28663421
0.11147378 0.060857553 0.28658172
0.11177861 0.060856402 0.28654978
0.11204871 0.060856055 0.28654143
0.11231735 0.060855556 0.28652862
0.11258573 0.060854804 0.28650811
0.11429812 0.037131812 0.28709972
0.11540225 0.037127942 0.28699172
0.11559588 0.037128069 0.2869966
0.11663345 0.037127219 0.28697789
0.11686312 0.03712666 0.28696269
0.1171324 0.037126236 0.28695181
0.11782393 0.037125517 0.2869347
0.11805469 0.037125185 0.2869263
0.1182853 0.037125368 0.28693321
0.11867005 0.037125081 0.28692704
0.1190144 0.037123844 0.28689247
0.11924403 0.037123397 0.28688073
0.11966679 0.03712251 0.28685695
0.119857 0.037121773 0.28683633
0.12004732 0.03712067 0.28680474
0.13127896 0.037119146 0.28682908
0.13154842 0.037119873 0.28685242
0.1318557 0.037118886 0.28682497
0.13216335 0.037120052 0.28686148
0.1324708 0.037118491 0.28681704
0.13289398 0.037117887 0.28680176
0.12438883 0.037499323 0.2868157
0.12461995 0.037498944 0.28680602
0.12485096 0.037498873 0.2868053
0.12627307 0.03749847 0.28680235
0.12646604 0.03749853 0.28680527
0.12677485 0.037499174 0.28682631
0.12708166 0.0374998 0.28684682
0.12727462 0.037499942 0.28685221
0.13338402 0.037498303 0.28684214
0.10970546 0.037502423 0.28681526
0.10998122 0.037503831 0.28685877
0.11025602 0.037505049 0.28689668
0.11052677 0.03750528 0.28690514
0.11083576 0.037505317 0.28690821
0.1210206 0.037508819 0.28707629
0.1213263 0.037508115 0.28705734
0.12163346 0.037507549 0.28704238
0.12193888 0.037506118 0.28700191
0.1222441 0.037505329 0.28698045
0.12255125 0.037504792 0.28696647
0.12285746 0.037504088 0.28694752
0.12316422 0.037503183 0.28692257
0.12347046 0.037502345 0.2868996
0.12377726 0.037501302 0.28687066
0.12408304 0.037500363 0.28684467
0.1242746 0.037500117 0.28683859
0.12739044 0.037500527 0.28687036
0.12762119 0.037501398 0.28689763
0.12792996 0.037502177 0.28692266
0.12823758 0.03750344 0.28696218
0.12854564 0.037504893 0.28700721
0.12885329 0.037506092 0.2870447
0.12908444 0.037507303 0.28708199
0.13104045 0.037507132 0.28708932
0.13123299 0.037506983 0.28708622
0.13153967 0.037506383 0.28707027
0.13184626 0.037506051 0.28706232
0.132153 0.037505195 0.28703886
0.1324604 0.037503883 0.28700191
0.1327683 0.037502438 0.28696096
0.13307589 0.037500437 0.28690353
0.1091193 0.037882522 0.28682393
0.10936067 0.037884653 0.28688878
0.10964248 0.037887584 0.28697738
0.10991887 0.037889101 0.28702426
0.1102306 0.03788998 0.2870523
0.11054098 0.037890386 0.28706637
0.11077291 0.037890598 0.28707415
0.12408742 0.037888214 0.28708872
0.1243161 0.037887588 0.2870715
0.12462141 0.037886545 0.28704253
0.12492902 0.03788612 0.28703207
0.12523565 0.037885722 0.28702211
0.12554316 0.037885606 0.28702065
0.12585059 0.037885793 0.28702819
0.12615721 0.037885442 0.28701973
0.12646505 0.037885964 0.28703725
0.12677328 0.037886828 0.28706479
0.12708062 0.037887368 0.28708282
0.12734954 0.037887674 0.28709364
0.13275835 0.037886351 0.28708893
0.13306616 0.037883505 0.2870065
0.13337457 0.03788041 0.28691658
0.13368243 0.037877481 0.28683168
0.10865036 0.03826249 0.28683442
0.10910309 0.038269054 0.28703213
0.10926397 0.038270578 0.28707835
0.13309537 0.038264569 0.28705513
0.13336521 0.038261659 0.28697053
0.13367307 0.038258694 0.28688461
0.1338658 0.038256191 0.28681156
0.10829174 0.038641229 0.28681105
0.10845512 0.038643334 0.28687462
0.10878468 0.038648255 0.28702283
0.13316216 0.038645241 0.28709459
0.13335574 0.038643278 0.28703752
0.13366371 0.038639925 0.28694013
0.13393305 0.038637605 0.28687298
0.1082845 0.0390216 0.28682908
0.10845977 0.039026361 0.28697142
0.13342243 0.039023735 0.28706121
0.1336541 0.039021417 0.28699404
0.13396238 0.039017022 0.28686565
0.13419484 0.039015494 0.28682196
0.1082821 0.039447531 0.28684294
0.10845799 0.039452467 0.28699061
0.1086277 0.039455723 0.28708825
0.13334227 0.039449085 0.28705293
0.13365035 0.039445344 0.28694403
0.1338824 0.039441749 0.28683889
0.10844847 0.03989407 0.28694913
0.10865652 0.039897308 0.28704646
0.13303219 0.039892256 0.28704941
0.13334036 0.039889902 0.28698152
0.13364813 0.039887279 0.28690559
0.13387981 0.039884981 0.28683889
0.10859772 0.040335976 0.28694195
0.10868876 0.04033922 0.28703877
0.1328374 0.040336188 0.28709358
0.1330293 0.040334813 0.287054
0.13333768 0.040331841 0.28696761
0.13364559 0.040328681 0.28687569
0.13383815 0.040326819 0.28682163
0.10877368 0.040775545 0.28685063
0.13279557 0.040778685 0.28708124
0.13302657 0.040776983 0.28703207
0.1333352 0.040773101 0.28691867
0.13364288 0.040770784 0.28685176
0.13383539 0.040769059 0.2868017
0.10857096 0.041216414 0.28681359
0.10873998 0.041219763 0.28691387
0.10899317 0.041224767 0.28706363
0.13306169 0.041220337 0.28706327
0.13333154 0.041217502 0.28698069
0.13363931 0.04121482 0.28690276
0.13387111 0.041212127 0.28682411
0.10853111 0.041631632 0.28683531
0.10874756 0.041636895 0.2869927
0.10895267 0.041639913 0.28708336
0.13301958 0.041634824 0.28706077
0.13332805 0.041631535 0.28696486
0.13359822 0.041627537 0.28684759
0.10853302 0.041984931 0.28688407
0.10874482 0.041989017 0.28700641
0.10890818 0.041991219 0.28707269
0.1325932 0.041987233 0.28708726
0.13278458 0.041985929 0.28704968
0.13305439 0.041983169 0.28696921
0.13332431 0.041979995 0.28687662
0.13351804 0.041977528 0.28680459
0.10848937 0.042335391 0.28687707
0.10870302 0.04234001 0.28701544
0.1322425 0.042337608 0.28708255
0.13247296 0.042336036 0.28703737
0.13278019 0.04233522 0.2870149
0.13305016 0.042331934 0.28691897
0.13328169 0.042328972 0.28683263
0.10852531 0.042687163 0.2868875
0.10869431 0.042690583 0.28699011
0.13258342 0.042689219 0.28709668
0.13277495 0.042687405 0.28704411
0.13308342 0.042684108 0.2869482
0.1333531 0.042681232 0.28686443
0.13350819 0.042679768 0.28682196
0.10877664 0.043043748 0.28706068
0.13311543 0.043038756 0.28706905
0.13334703 0.043035571 0.28697607
0.13361675 0.043031961 0.28687075
0.13341723 0.043389272 0.28706178
0.13364971 0.043385345 0.2869468
0.13384297 0.043382164 0.28685379
0.10876203 0.043765813 0.28703815
0.13368148 0.043759286 0.28701589
0.1339518 0.043754756 0.28688329
0.10887488 0.044192914 0.28706065
0.13374929 0.044186566 0.28704184
0.1339436 0.044182062 0.28690952
0.10877279 0.044614792 0.28694144
0.10898294 0.044618845 0.28706312
0.13366549 0.044612102 0.28702983
0.13393611 0.044606555 0.28686711
0.10876779 0.045041323 0.2869598
0.13369502 0.045037914 0.2870256
0.13392802 0.045032237 0.28685868
0.1088469 0.045468021 0.28702164
0.13364926 0.045462012 0.28700784
0.13388082 0.045456648 0.28685021
0.10857731 0.045874443 0.2868163
0.10865711 0.045875125 0.28683707
0.13333288 0.045877885 0.28708279
0.13364241 0.045872714 0.28693143
0.12112182 0.046259776 0.28709245
0.12135192 0.046259429 0.28708375
0.12165949 0.046259206 0.2870793
0.12197926 0.046259377 0.28708661
0.12227312 0.046258662 0.28706735
0.12258108 0.046258811 0.28707391
0.12285071 0.046258926 0.28707924
0.12311997 0.046259169 0.28708822
0.12342658 0.046258762 0.28707826
0.12373401 0.046258964 0.28708628
0.12404203 0.046258874 0.28708583
0.1243481 0.046258658 0.28708136
0.12465598 0.046259023 0.28709441
0.12496255 0.046258766 0.28708893
0.12515599 0.046258938 0.28709534
0.13340455 0.046256483 0.28707886
0.13363671 0.046252549 0.2869637
0.13386902 0.046248071 0.28683257
0.10882648 0.046639115 0.28700536
0.10891569 0.046641815 0.28708622
0.12046348 0.046639431 0.28709698
0.1207455 0.046639353 0.28709641
0.12103976 0.046639014 0.28708851
0.12134676 0.046639007 0.28709054
0.12165297 0.046638232 0.28706959
0.12196001 0.046638109 0.28706813
0.12226756 0.0466379 0.28706416
0.12257459 0.046637744 0.28706169
0.12288389 0.046638433 0.28708422
0.12315184 0.046638008 0.28707352
0.12342107 0.046637759 0.28706807
0.12372807 0.04663774 0.28706959
0.12403546 0.046638101 0.28708261
0.12434243 0.04663818 0.28708714
0.13363069 0.046633173 0.28700393
0.13386208 0.046628494 0.28686681
0.108687 0.0470163 0.28689039
0.12080355 0.047020335 0.28709796
0.12103416 0.047019914 0.28708726
0.12134169 0.047019791 0.28708577
0.12164776 0.047019511 0.28707981
0.12195577 0.047019493 0.28708136
0.1222619 0.047018997 0.28706887
0.12256987 0.047019076 0.28707343
0.12287775 0.047019489 0.28708798
0.12314683 0.047019158 0.28708011
0.12383869 0.047019623 0.28709894
0.12403028 0.047019273 0.28708982
0.12426078 0.047019258 0.28709114
0.13366242 0.047015235 0.28704002
0.13389444 0.047010541 0.2869024
0.10873517 0.047399182 0.28699049
0.12052879 0.047399495 0.28708762
0.12068212 0.047399506 0.28708911
0.1210283 0.047399417 0.28708905
0.12133489 0.047399104 0.28708208
0.12164241 0.047398996 0.28708112
0.12194987 0.047399104 0.28708667
0.12225744 0.047398794 0.28707969
0.12256446 0.047398783 0.28708172
0.122872 0.047398556 0.28707725
0.123179 0.047398563 0.28707978
0.12344833 0.047398563 0.28708181
0.12371793 0.047398709 0.2870881
0.13369471 0.047395244 0.28705969
0.13388836 0.047390699 0.28692633
0.12079096 0.047779389 0.28708854
0.12102155 0.047779046 0.28708035
0.12133002 0.047779109 0.28708437
0.12163655 0.04777896 0.2870824
0.12198302 0.047779039 0.28708732
0.12225117 0.047778536 0.28707445
0.12255868 0.047778472 0.28707504
0.12286612 0.047778629 0.28708205
0.12317319 0.047778349 0.28707609
0.12348066 0.047778428 0.28708062
0.12374987 0.047778249 0.28707746
0.12401864 0.047778443 0.28708541
0.12436441 0.047778632 0.28709352
0.12474904 0.047778703 0.28709865
0.12482506 0.047778644 0.28709739
0.13349773 0.047775585 0.28707308
0.13365202 0.047772299 0.28697664
0.13380821 0.047767051 0.28682226
0.10855585 0.048163623 0.28688914
0.12075043 0.048167352 0.28709221
0.12101902 0.04816705 0.28708521
0.12132651 0.048167054 0.28708774
0.12163362 0.048166674 0.2870788
0.1219411 0.048166715 0.28708231
0.12224815 0.048166499 0.28707835
0.12255523 0.048166186 0.28707141
0.12286182 0.048165862 0.28706396
0.12317027 0.04816597 0.28706947
0.1234777 0.048166193 0.28707853
0.12374675 0.048166037 0.28707585
0.12401572 0.048166104 0.28707981
0.12424565 0.04816632 0.2870881
0.12493761 0.048166394 0.28709546
0.12520659 0.048166394 0.2870976
0.1334562 0.0481636 0.28707713
0.13364826 0.048162293 0.28703973
0.13384229 0.048156485 0.28686908
0.12101765 0.048559181 0.28708991
0.1213247 0.048559003 0.28708693
0.12163184 0.048558474 0.28707349
0.12193884 0.048558444 0.28707501
0.12224729 0.048558611 0.28708208
0.12255339 0.048558217 0.2870726
0.12286011 0.048557464 0.28705263
0.12316938 0.048558183 0.28707618
0.12347642 0.048558041 0.28707424
0.12378343 0.048558015 0.28707576
0.12405144 0.048557371 0.28705859
0.12432189 0.048558097 0.28708211
0.1246288 0.048558362 0.28709212
0.12482174 0.048558559 0.28709954
0.12520576 0.048558459 0.28709933
0.13368574 0.048554428 0.28704226
0.13391826 0.048549227 0.28688961
0.10855021 0.04894685 0.2868762
0.10871359 0.048948973 0.28694046
0.12186167 0.048951115 0.2870979
0.12228474 0.04895084 0.28709278
0.1225533 0.048950642 0.28708875
0.12284873 0.048950851 0.28709701
0.12316874 0.048950784 0.28709733
0.12339874 0.048950788 0.28709912
0.13372363 0.048946962 0.28705937
0.13391691 0.048942618 0.28693184
0.10853957 0.049336646 0.28682166
0.10881085 0.049345903 0.2870982
0.12185948 0.049342901 0.28709954
0.13395397 0.049335893 0.28697547
0.13411044 0.049332 0.28686106
0.12251107 0.04973409 0.2870923
0.13379721 0.049730636 0.2870656
0.13395305 0.049726676 0.28694919
0.13410972 0.049722113 0.28681481
0.133717 0.050132837 0.28704122
0.13391232 0.050127197 0.28687522
0.12364937 0.050573334 0.28709552
0.1337443 0.050569803 0.28705168
0.13397723 0.050564952 0.28690904
0.12117786 0.051011704 0.28709728
0.12137086 0.051011696 0.2870982
0.12163928 0.051011387 0.28709051
0.1219466 0.051011432 0.28709355
0.12217795 0.051011398 0.28709385
0.12290798 0.051011246 0.28709343
0.12302396 0.051011298 0.28709558
0.12375299 0.051011231 0.28709781
0.12402203 0.051011059 0.28709415
0.12433 0.051011149 0.28709853
0.13377081 0.051008202 0.28706416
0.13396564 0.051003665 0.28693065
0.1085192 0.051446307 0.28695083
0.13375916 0.051446237 0.28708026
0.13395341 0.051441953 0.28695425
0.13414782 0.051437136 0.28681225
0.1339415 0.051879317 0.28697184
0.13413613 0.051873773 0.28680837
0.13397031 0.052301139 0.28695807
0.13392533 0.05269517 0.28702006
0.13415952 0.05268947 0.286852
0.13399604 0.053087912 0.28703797
0.13415122 0.053083826 0.28691757
0.10823211 0.053477682 0.28682584
0.10839745 0.053479906 0.28689277
0.13402912 0.053480718 0.28705302
0.13418441 0.053476382 0.28692529
0.13409868 0.053874265 0.28709936
0.13425481 0.053869214 0.28695032
0.1344115 0.053864606 0.2868146
0.13424735 0.054264154 0.2870326
0.13427788 0.054641254 0.28700364
0.13447304 0.054635584 0.28683662
0.13427013 0.055017225 0.28697813
0.13433668 0.055396967 0.28704935
0.10813382 0.055776656 0.28696534
0.13452242 0.05576916 0.28690055
0.13451241 0.056147784 0.28694937
0.13461983 0.056536861 0.28696519
0.13458014 0.056957364 0.28695858
0.13457949 0.057372991 0.28688571
0.13473429 0.05737032 0.2868073
0.13453586 0.057795193 0.28695965
0.13476892 0.057791591 0.28685403
0.13460815 0.058216937 0.28704071
0.13480373 0.058211535 0.28688142
0.13464339 0.05862901 0.28707683
0.13480134 0.05862239 0.28688115
0.10811712 0.058996134 0.28682455
0.12205263 0.059002705 0.28709334
0.12224343 0.059001692 0.28706425
0.12255045 0.059001621 0.28706378
0.12285767 0.059000876 0.28704333
0.12316266 0.058999225 0.28699589
0.12346888 0.058998413 0.28697345
0.12377598 0.058998104 0.286966
0.12408436 0.05899851 0.28697953
0.12435319 0.058998525 0.28698149
0.12462269 0.058999076 0.28699934
0.12493141 0.059000019 0.28702891
0.12524015 0.059000928 0.28705743
0.1254719 0.059001755 0.28708321
0.1346045 0.058999598 0.28706759
0.13476226 0.058993623 0.28689128
0.10830684 0.059365861 0.2868045
0.12086068 0.059372902 0.28708565
0.12105096 0.059371907 0.28705719
0.12131744 0.059370287 0.2870107
0.12162153 0.05936826 0.28695223
0.1219277 0.059367679 0.28693676
0.1222306 0.059364639 0.28684834
0.12245954 0.059363119 0.28680462
0.12469155 0.05936303 0.28681469
0.12492335 0.059363682 0.28683549
0.12523159 0.059364535 0.28686252
0.12554076 0.059365675 0.28689805
0.12585033 0.059367079 0.28694165
0.12615971 0.059369229 0.28700712
0.12646918 0.059371058 0.28706318
0.13433543 0.059369966 0.28707606
0.13453041 0.05936661 0.28697753
0.11985922 0.059742376 0.28706634
0.12016325 0.059740566 0.28701439
0.12046912 0.059739269 0.28697795
0.12077228 0.059737049 0.28691399
0.12107502 0.059734493 0.28684002
0.12126534 0.059733372 0.28680792
0.12646139 0.059732988 0.28682888
0.12677041 0.059734613 0.28687891
0.12707853 0.059735928 0.28691992
0.12734942 0.05973741 0.28696543
0.12761912 0.059738994 0.28701425
0.12792709 0.059740715 0.28706726
0.13399146 0.059739232 0.2870608
0.13422412 0.059735317 0.28694618
0.13441777 0.059731368 0.28683016
0.11728217 0.06011321 0.28708744
0.11747382 0.060112674 0.28707284
0.11777822 0.060111292 0.28703392
0.11808443 0.060110569 0.28701442
0.11835131 0.060109284 0.2869781
0.11861765 0.060108099 0.28694475
0.11892207 0.060106635 0.28690326
0.11922655 0.060104981 0.28685635
0.11945501 0.060103409 0.28681111
0.12888312 0.060102481 0.28684649
0.12915252 0.060104512 0.28690863
0.12946117 0.060107425 0.28699714
0.12969294 0.060109876 0.28707141
0.13318488 0.060109887 0.28709498
0.13337749 0.060107753 0.28703293
0.13364731 0.060103852 0.286919
0.13384143 0.0601012 0.28684163
0.10913192 0.060480241 0.28692484
0.10934052 0.060483862 0.28703383
0.10950327 0.060485832 0.28709343
0.11265706 0.060484041 0.28706267
0.11292446 0.060483254 0.28704137
0.1132315 0.060483065 0.28703791
0.11353587 0.060481798 0.28700244
0.11383979 0.060480326 0.28696096
0.11414368 0.060478989 0.28692347
0.11444766 0.060477335 0.28687656
0.11475114 0.060475696 0.28683007
0.13164906 0.06047133 0.28682101
0.13184191 0.060471833 0.2868374
0.13214979 0.060472254 0.286852
0.13245736 0.060471926 0.28684449
0.13268813 0.060470991 0.28681833
0.11422005 0.037132073 0.28710696
0.11437404 0.037132092 0.28710848
0.11121023 0.03751225 0.28711629
0.11145425 0.037515592 0.28721699
0.11173259 0.037517786 0.28728387
0.11204801 0.037519746 0.28734398
0.11224471 0.037520763 0.28737539
0.11566769 0.037520669 0.28739423
0.11597331 0.037520271 0.28738421
0.11627947 0.037519719 0.28736979
0.11658514 0.037519097 0.28735331
0.11685392 0.037518714 0.28734362
0.11712132 0.037518486 0.28733861
0.1174275 0.037517849 0.28732166
0.11773412 0.037517402 0.28731018
0.11804025 0.037516948 0.28729871
0.11834643 0.037516348 0.28728274
0.11865211 0.037515726 0.28726628
0.11895786 0.037514836 0.28724182
0.11926271 0.037513677 0.28720933
0.11956841 0.037512921 0.28718889
0.1198737 0.037511948 0.28716192
0.12017947 0.03751101 0.28713596
0.1204476 0.03751057 0.2871246
0.12071575 0.03751003 0.28711027
0.1292381 0.037508465 0.28711748
0.12946965 0.037509993 0.28716427
0.12977645 0.037510633 0.28718528
0.13008243 0.037510671 0.28718832
0.13035083 0.03751044 0.28718314
0.13061935 0.037509255 0.28714964
0.13088691 0.037507832 0.28710914
0.11098915 0.037896585 0.2872532
0.11115623 0.03789977 0.28734878
0.12019023 0.037899278 0.28739208
0.12041986 0.037898816 0.28737983
0.12072557 0.037898112 0.28736085
0.12102984 0.037897155 0.28733438
0.12133602 0.037896518 0.28731743
0.12164172 0.037895828 0.28729898
0.12194564 0.037894383 0.28725797
0.12225135 0.037893623 0.28723752
0.1225567 0.037892412 0.28720355
0.12286246 0.037891541 0.28717959
0.12316914 0.037890919 0.28716311
0.12347488 0.037890077 0.28714016
0.12378155 0.037889481 0.28712416
0.12397122 0.037888877 0.28710759
0.12761916 0.037888914 0.28713211
0.12792599 0.037889507 0.28715163
0.12823376 0.0378903 0.28717715
0.12854083 0.037891716 0.28722116
0.12884885 0.037893336 0.2872712
0.12915599 0.037894532 0.28730869
0.12946303 0.037896086 0.2873567
0.12976973 0.037897099 0.28738874
0.13007531 0.037896816 0.28738225
0.13038245 0.037896294 0.28736877
0.13065004 0.037894845 0.28732747
0.13091755 0.03789255 0.28726113
0.13122424 0.037891895 0.28724366
0.13153052 0.037890889 0.28721574
0.13183755 0.037890807 0.28721523
0.13214399 0.037889294 0.28717232
0.13245083 0.037888084 0.28713834
0.10938644 0.038272377 0.28713256
0.10962495 0.038274039 0.28718337
0.10994466 0.038276732 0.28726548
0.11025779 0.038277946 0.28730357
0.11057183 0.038279518 0.28735214
0.11076894 0.038280852 0.28739306
0.12206148 0.038278431 0.28739464
0.12225211 0.03827798 0.28738254
0.12255646 0.038276754 0.28734803
0.12286222 0.038275808 0.2873221
0.12316794 0.038275085 0.28730261
0.12347407 0.038274635 0.28729114
0.12377983 0.038273741 0.28726667
0.12408509 0.038272798 0.28724068
0.12435202 0.038271885 0.28721535
0.12462096 0.038271513 0.28720602
0.12492625 0.038270537 0.28717905
0.1252324 0.038269963 0.28716409
0.12553987 0.038270064 0.2871691
0.12584653 0.038269512 0.28715467
0.12615341 0.0382699 0.28716817
0.12646085 0.038270071 0.28717524
0.12676774 0.038270459 0.28718877
0.12707552 0.038271219 0.28721327
0.1273828 0.038271908 0.28723577
0.12765236 0.038272798 0.28726393
0.12792084 0.038273454 0.28728509
0.12822759 0.038274277 0.28731158
0.12853479 0.038275272 0.28734311
0.12884152 0.038276218 0.28737313
0.12903382 0.038276862 0.28739351
0.131254 0.038276125 0.28738615
0.13152154 0.038275983 0.28738359
0.13182859 0.038274113 0.28733018
0.13213456 0.0382725 0.2872842
0.13244161 0.0382706 0.28722978
0.13274881 0.038268138 0.28715885
0.1329408 0.038266528 0.28711227
0.1090363 0.038652919 0.2871629
0.10932127 0.038656466 0.28727001
0.10963766 0.03865847 0.28733158
0.10991422 0.038659979 0.28737813
0.12324072 0.03865749 0.28739244
0.12347036 0.038657025 0.28738016
0.12377608 0.03865625 0.28735921
0.12408132 0.038655408 0.28733626
0.12434885 0.03865476 0.28731874
0.1246157 0.03865407 0.28730005
0.12492196 0.03865318 0.28727561
0.12522848 0.038653113 0.28727561
0.12553459 0.038652655 0.28726414
0.12584117 0.03865242 0.28725916
0.12614778 0.038652051 0.28725022
0.12645479 0.038652003 0.28725076
0.12676205 0.038652807 0.28727674
0.12706889 0.038653314 0.28729379
0.12737618 0.03865397 0.28731531
0.12768295 0.038654812 0.28734231
0.12795188 0.038655534 0.28736565
0.12822007 0.038656067 0.28738311
0.13216399 0.038654946 0.2873759
0.13243185 0.038653143 0.28732425
0.13273945 0.038649373 0.28721431
0.13300906 0.038646728 0.28713772
0.1087587 0.039032802 0.2871646
0.10908171 0.039036185 0.28726721
0.10935777 0.039037678 0.28731343
0.10963334 0.039039109 0.28735763
0.10986809 0.039039992 0.28738546
0.12411433 0.039037164 0.28739712
0.12438084 0.039036535 0.28738028
0.12464806 0.039035782 0.28735974
0.12491611 0.039035562 0.28735507
0.12522182 0.039034855 0.28733608
0.12552798 0.0390343 0.28732163
0.125835 0.039034199 0.28732067
0.12614107 0.039033961 0.28731567
0.12644842 0.03903443 0.2873317
0.12675445 0.039034329 0.28733072
0.12706134 0.039034665 0.28734273
0.1273683 0.039034761 0.28734779
0.12763737 0.039035652 0.28737593
0.13242291 0.039034121 0.28736269
0.1327298 0.03903104 0.28727329
0.13303763 0.039028224 0.28719187
0.13326888 0.039025642 0.28711671
0.10879601 0.039459202 0.28719252
0.10907881 0.039462142 0.2872816
0.10935658 0.039464071 0.28734064
0.10955583 0.039465494 0.28738427
0.12449141 0.039462693 0.28739882
0.12468351 0.039462309 0.28738871
0.12495097 0.039461914 0.2873787
0.12521923 0.039461546 0.28736949
0.12552485 0.039461143 0.28735954
0.12583187 0.039461039 0.28735858
0.12613875 0.03946143 0.28737208
0.12644573 0.039461497 0.28737611
0.12675169 0.03946165 0.28738263
0.12701952 0.039462168 0.28739977
0.13218904 0.039460085 0.28737187
0.13241884 0.039457384 0.2872932
0.13272615 0.039454624 0.28721327
0.13303381 0.039452299 0.28714633
0.13218661 0.039899364 0.28725496
0.13241668 0.039897401 0.28719828
0.1327242 0.039895654 0.28714836
0.10882831 0.039901435 0.28717011
0.10907289 0.03990455 0.28726399
0.10935649 0.03990759 0.2873559
0.10951228 0.039908323 0.28737876
0.13195547 0.039903238 0.28736863
0.13207205 0.039901301 0.28731179
0.10881698 0.040341865 0.28711802
0.10906016 0.040344674 0.28720289
0.109351 0.040349752 0.28735515
0.10950754 0.040350176 0.28736871
0.125098 0.040348042 0.28739887
0.12517603 0.040347986 0.28739765
0.13187683 0.040345039 0.28735048
0.13218397 0.040341072 0.28723454
0.13245259 0.040338945 0.28717306
0.13268308 0.040337268 0.28712472
0.10908737 0.040785681 0.28715327
0.10937403 0.040789641 0.28727236
0.10961862 0.040792774 0.28736675
0.1316057 0.040788513 0.287366
0.13187414 0.040786974 0.28732204
0.13218085 0.04078456 0.28725207
0.13244945 0.0407825 0.28719243
0.13264212 0.040780246 0.28712672
0.10915589 0.041226879 0.28712723
0.10935824 0.041229069 0.28719318
0.109677 0.041231591 0.2872698
0.10995712 0.041234005 0.28734303
0.13187055 0.041231029 0.28737399
0.13217774 0.041228719 0.28730708
0.13244581 0.041226733 0.28724977
0.13271508 0.041224167 0.28717497
0.13290712 0.041222289 0.2871204
0.10911608 0.041641928 0.28714395
0.10936021 0.041644879 0.28723282
0.10967659 0.041646998 0.28729743
0.109917 0.041648991 0.28735778
0.12478234 0.041647673 0.28739798
0.12485833 0.041647684 0.28739876
0.12516636 0.041647598 0.2873978
0.1316767 0.041646309 0.28739429
0.13186711 0.041644957 0.28735518
0.13217437 0.04164236 0.28727978
0.13248107 0.041639999 0.28721136
0.13274996 0.041637491 0.28713837
0.10907724 0.041994434 0.28716898
0.10936357 0.041998379 0.28728759
0.10956165 0.041999806 0.28733101
0.12351366 0.041999467 0.28739917
0.12374276 0.041999124 0.28739047
0.1239337 0.041999321 0.28739733
0.12470045 0.041999053 0.2873936
0.12489276 0.041999094 0.28739583
0.13136427 0.041997232 0.28737694
0.13155681 0.041995369 0.28732288
0.13186307 0.041992769 0.28724745
0.13216984 0.041990168 0.28717205
0.13243818 0.041988403 0.28712106
0.10968133 0.042000901 0.28736418
0.10884053 0.042345051 0.2871657
0.10904286 0.042347334 0.28723466
0.10933068 0.042351384 0.28735647
0.12308692 0.04235008 0.2873987
0.12343195 0.042349994 0.28739813
0.13155207 0.042345919 0.28732508
0.1318589 0.042341396 0.2871927
0.13208799 0.04233934 0.28713298
0.10884497 0.042698555 0.28722751
0.10904401 0.042700116 0.28727496
0.10929047 0.042703632 0.28738081
0.12170006 0.042701121 0.28738272
0.12231395 0.042701468 0.28739682
0.12258301 0.042701233 0.28739148
0.12285075 0.042700995 0.28738615
0.12311906 0.042701047 0.28738928
0.12338806 0.042701047 0.28739077
0.12381005 0.042701051 0.28739363
0.12404003 0.042701114 0.28739691
0.12427004 0.042701073 0.28739718
0.12457607 0.042700946 0.28739521
0.13154684 0.04269807 0.28735277
0.13185321 0.042695075 0.28726584
0.13216022 0.042693362 0.2872169
0.1324289 0.042690974 0.28714779
0.10904237 0.043051492 0.28729218
0.12073645 0.043052323 0.28739193
0.12104221 0.043051463 0.28736848
0.12134877 0.043051247 0.28736401
0.12165575 0.04305125 0.28736606
0.1219618 0.043051101 0.28736359
0.12226798 0.043050461 0.28734663
0.12257452 0.043050312 0.28734416
0.12288159 0.043050062 0.28733873
0.12315023 0.04305017 0.28734353
0.12341902 0.043050297 0.28734905
0.12372649 0.043050382 0.28735358
0.12403256 0.043050095 0.28734708
0.12433901 0.043050248 0.28735363
0.12464643 0.043050557 0.28736466
0.12495429 0.043050978 0.28737924
0.12526032 0.043050867 0.28737774
0.12552917 0.043051366 0.2873944
0.13165744 0.043050129 0.28739709
0.13184769 0.043049209 0.28737098
0.13215467 0.043047659 0.28732705
0.13246135 0.04304529 0.28725863
0.13276885 0.043041851 0.28715873
0.13296239 0.043040041 0.28710616
0.10903458 0.043401979 0.28727537
0.11938986 0.043403819 0.28739935
0.11946589 0.043403693 0.2873961
0.1198487 0.043403238 0.28738523
0.12011712 0.043402888 0.28737658
0.12042321 0.043402564 0.2873691
0.1207284 0.043401875 0.28735065
0.12103458 0.043401249 0.2873342
0.12134114 0.043401033 0.2873297
0.1216473 0.043400511 0.28731626
0.12195479 0.043400507 0.28731829
0.12226044 0.043399986 0.28730482
0.12256703 0.043399647 0.28729689
0.12287453 0.043399647 0.28729892
0.12318152 0.043399662 0.28730145
0.12345097 0.043399792 0.28730696
0.12371812 0.043399282 0.28729379
0.12402552 0.043399587 0.28730482
0.12433204 0.043399516 0.28730482
0.12463898 0.043399699 0.28731236
0.12494648 0.043399684 0.28731394
0.12525207 0.043399379 0.28730696
0.12555987 0.043400023 0.287328
0.12586722 0.043400489 0.28734404
0.1261746 0.043400928 0.28735906
0.12648144 0.043401431 0.28737611
0.12671223 0.043402117 0.28739786
0.12698029 0.043401916 0.28739384
0.13249423 0.043399528 0.2873598
0.13276267 0.04339689 0.28728336
0.1330712 0.04339337 0.28718096
0.13326333 0.043391164 0.28711689
0.10889216 0.043768756 0.28712636
0.10906988 0.043774258 0.28729072
0.10923757 0.043777552 0.28738967
0.11903702 0.043775383 0.28739268
0.11926576 0.043774545 0.28736946
0.119571 0.043773718 0.28734699
0.11987762 0.043773279 0.28733602
0.12018374 0.043772839 0.28732508
0.12045214 0.043772589 0.28731939
0.12072039 0.043772288 0.28731239
0.12102613 0.043771476 0.28729045
0.1213336 0.043771554 0.28729498
0.12163837 0.043770645 0.28727001
0.12194496 0.043770269 0.28726104
0.12225197 0.043770254 0.28726256
0.12255947 0.043770198 0.28726313
0.12286694 0.043770313 0.28726867
0.1231744 0.043770414 0.28727371
0.12348093 0.04377031 0.28727275
0.12374938 0.043770451 0.28727874
0.12401711 0.04376962 0.28725606
0.12432495 0.043770194 0.28727511
0.12463152 0.043769918 0.28726915
0.12493893 0.043770202 0.2872797
0.125245 0.043769933 0.28727371
0.12555149 0.043769915 0.28727525
0.12585981 0.043770533 0.28729579
0.12616669 0.043770917 0.28730935
0.12647404 0.043771408 0.28732586
0.12678184 0.043772079 0.28734791
0.12704997 0.043772783 0.28737071
0.12731859 0.043772925 0.2873767
0.12754843 0.04377345 0.28739399
0.12785441 0.04377345 0.28739601
0.13279423 0.043771505 0.28737226
0.13306379 0.043768488 0.28728464
0.13337198 0.04376436 0.28716424
0.10904633 0.044197064 0.28718495
0.10930137 0.044202596 0.28735074
0.11845404 0.044201992 0.2873953
0.11864375 0.044201255 0.28737468
0.11894944 0.044200614 0.28735772
0.11925519 0.04419972 0.28733325
0.11956088 0.044199046 0.28731528
0.11986658 0.044198364 0.28729731
0.12017362 0.044198211 0.28729486
0.12048114 0.044198111 0.28729391
0.12074924 0.044197764 0.28728539
0.12101692 0.044197123 0.28726822
0.12132259 0.044196531 0.28725275
0.12162963 0.044196393 0.28725082
0.12193663 0.044196345 0.28725132
0.12224324 0.044195987 0.28724289
0.12255026 0.044195864 0.2872414
0.1228577 0.044196032 0.28724846
0.12316474 0.044195898 0.2872465
0.1234722 0.044196032 0.28725252
0.12377879 0.044195708 0.28724506
