# .PCD v0.7 - Point Cloud Data file format
VERSION 0.7
FIELDS x y z
SIZE 4 4 4
TYPE F F F
COUNT 1 1 1
WIDTH 1420
HEIGHT 1
VIEWPOINT 0 0 0 1 0 0 0
POINTS 1420
DATA ascii
0.13356829 0.050478745 0.28503519
0.10999623 0.050881829 0.28502026
0.11027043 0.050882861 0.2850526
0.1105831 0.05088399 0.28508818
0.11085414 0.05088437 0.28510132
0.11112495 0.050884433 0.28510502
0.11142966 0.050883692 0.28508502
0.11173627 0.050883304 0.28507555
0.1120429 0.050882868 0.28506458
0.11234861 0.050882127 0.28504461
0.11265296 0.050880931 0.28501111
0.11284453 0.050880678 0.28500503
0.13137734 0.050876822 0.28501403
0.1315687 0.050877228 0.28502741
0.13187584 0.050878473 0.28506643
0.13218211 0.050879266 0.28509194
0.13245051 0.050879631 0.28510457
0.13271931 0.050880268 0.2851252
0.13302629 0.050880339 0.28512925
0.13333365 0.050879091 0.28509432
0.1336025 0.050877269 0.28504196
0.10995355 0.051279031 0.28502077
0.11026721 0.051280178 0.28505686
0.1105808 0.051281571 0.28510046
0.1108528 0.051282104 0.28511795
0.11112164 0.051282085 0.28511927
0.11142831 0.05128146 0.28510281
0.11173489 0.05128121 0.2850973
0.11204293 0.051281009 0.28509337
0.11234821 0.051280096 0.28506842
0.11265247 0.051279154 0.28504243
0.11295728 0.051278092 0.28501296
0.11318826 0.051278133 0.28501573
0.13129677 0.051274177 0.28501931
0.13156575 0.051275399 0.28505728
0.13187283 0.051276781 0.28510028
0.13217968 0.051277317 0.28511828
0.13244767 0.051277872 0.28513661
0.13271576 0.051278684 0.28516257
0.13302267 0.051278971 0.28517312
0.13333003 0.051277746 0.28513867
0.13363768 0.051275503 0.28507423
0.13383023 0.051273618 0.28501967
0.10975587 0.051676206 0.28500912
0.10995118 0.051676854 0.28502953
0.11026479 0.051678151 0.28507012
0.11057792 0.051679395 0.28510919
0.11085007 0.05168001 0.28512922
0.11112021 0.051680114 0.28513405
0.11142496 0.051679216 0.28510958
0.11173254 0.051678933 0.28510311
0.1120405 0.051679015 0.28510764
0.11234438 0.051677749 0.28507218
0.11264773 0.051676519 0.2850377
0.11295581 0.051676214 0.28503072
0.11314604 0.051675428 0.28500864
0.13125576 0.051671878 0.28502464
0.13156234 0.051673308 0.28506914
0.13186902 0.051674336 0.28510165
0.13217631 0.051675126 0.28512716
0.13248262 0.051675718 0.28514668
0.13275068 0.051676612 0.285175
0.13301939 0.051676482 0.28517297
0.13332678 0.051675081 0.28513354
0.13363451 0.051672656 0.28506362
0.13382712 0.051670503 0.28500104
0.10975242 0.052073136 0.28501239
0.10994862 0.052074172 0.28504431
0.11026224 0.052075431 0.28508389
0.11057632 0.052076865 0.28512847
0.11085036 0.052077841 0.28515914
0.11111766 0.052077375 0.28514731
0.1114224 0.052076567 0.28512532
0.11172996 0.052076299 0.28511938
0.11203708 0.052075893 0.28510943
0.11234371 0.052075401 0.28509694
0.11264659 0.052074105 0.28506047
0.11295275 0.052073531 0.2850455
0.11325756 0.052072488 0.28501654
0.1134487 0.052071981 0.28500295
0.13102156 0.052067999 0.28500271
0.1312523 0.05206883 0.28502899
0.1315589 0.052070245 0.28507301
0.13186604 0.052071422 0.28511
0.13217284 0.052072078 0.28513154
0.13247895 0.052073408 0.28517306
0.13278535 0.052073743 0.28518504
0.13305463 0.052073341 0.28517473
0.13332324 0.052072387 0.28514841
0.13363095 0.052069928 0.28507748
0.13382362 0.052067623 0.28501043
0.10967644 0.052464943 0.28503001
0.10995115 0.052465908 0.2850607
0.1102657 0.05246741 0.28510728
0.11058116 0.052469242 0.28516388
0.11085173 0.052469548 0.28517488
0.11112111 0.05246938 0.28517175
0.11142538 0.052468397 0.28514475
0.11173059 0.052467689 0.28512576
0.11203906 0.052467767 0.28513032
0.11234294 0.052466486 0.28509435
0.11264769 0.052465603 0.28507036
0.11295293 0.052464761 0.28504741
0.11326192 0.052464772 0.28504995
0.11352683 0.052463342 0.28500944
0.1310225 0.052459918 0.28502917
0.13125214 0.052461073 0.28506494
0.13155971 0.052462518 0.28510997
0.13186596 0.052463375 0.28513747
0.13217272 0.052464176 0.28516349
0.13247898 0.052464969 0.285189
0.13278536 0.052465335 0.28520203
0.13305454 0.052465335 0.28520384
0.13332322 0.052464128 0.28516987
0.13363102 0.05246136 0.28508997
0.13382369 0.052459054 0.28502291
0.10963941 0.052854866 0.28503683
0.10995538 0.052856646 0.28509194
0.11026852 0.052857839 0.28512952
0.1105826 0.052859284 0.28517458
0.11085538 0.052859977 0.28519711
0.1111234 0.052859887 0.28519642
0.11142818 0.052858919 0.28516996
0.11173341 0.052858107 0.28514799
0.11204004 0.05285763 0.28513604
0.11234665 0.052857239 0.28512657
0.11265143 0.05285627 0.2851001
0.11295669 0.052855372 0.28507566
0.11326284 0.052854825 0.28506166
0.11356764 0.052853778 0.28503269
0.11379638 0.052852958 0.28500998
0.13094553 0.052849416 0.28502822
0.13125262 0.052850828 0.28507221
0.13156019 0.052852284 0.28511775
0.13186634 0.052853443 0.28515425
0.13217308 0.052854311 0.2851823
0.13247937 0.052854981 0.28520429
0.13274767 0.052855078 0.28520912
0.13301639 0.052854896 0.2852056
0.13332364 0.052853964 0.28518018
0.13363138 0.052851465 0.28510824
0.13382412 0.052848887 0.2850332
0.10963976 0.053245328 0.2850436
0.10995762 0.053247474 0.2851097
0.11027218 0.053248953 0.28515577
0.11054522 0.05324991 0.28518629
0.1108177 0.053250559 0.28520769
0.11112566 0.053250656 0.2852127
0.11143182 0.053250089 0.28519824
0.1117375 0.053249411 0.2851803
0.11204222 0.053248677 0.28516081
0.11234982 0.053248297 0.28515187
0.1126532 0.053247005 0.2851159
0.11295794 0.053246174 0.28509343
0.11326365 0.053245392 0.28507245
0.11357124 0.053245064 0.28506503
0.11387604 0.053244062 0.28503752
0.11410387 0.053242885 0.28500432
0.13094635 0.0532398 0.28503805
0.1312533 0.053241715 0.28509706
0.13156049 0.053242736 0.28512958
0.13186663 0.053243868 0.28516561
0.13217342 0.053244591 0.28518912
0.13247967 0.053245425 0.28521615
0.13274793 0.053245645 0.2852248
0.13301662 0.053245567 0.28522447
0.13332394 0.053244431 0.28519303
0.13363174 0.053241692 0.28511411
0.13386241 0.053239405 0.28504795
0.10964222 0.053635493 0.2850658
0.10995913 0.053637449 0.28512639
0.11027463 0.053639159 0.2851795
0.1105466 0.053639799 0.28520051
0.11081871 0.053640515 0.28522387
0.11112581 0.05364015 0.28521541
0.1114329 0.053639803 0.28520745
0.11173858 0.053639188 0.28519148
0.11204287 0.053638168 0.28516352
0.112349 0.053637732 0.28515303
0.11265474 0.053636864 0.28512961
0.11296134 0.053636465 0.28512016
0.11326751 0.053635899 0.28510568
0.11357184 0.053634759 0.2850742
0.11387527 0.05363325 0.28503174
0.11418004 0.053632259 0.28500479
0.11437406 0.053632226 0.28500521
0.13075477 0.053628262 0.28501347
0.13094641 0.053629473 0.28505084
0.1312533 0.053631529 0.28511435
0.13156053 0.053632397 0.28514236
0.13186671 0.053633481 0.28517687
0.13217384 0.053634703 0.28521544
0.1324798 0.053634793 0.28522044
0.13274792 0.053635508 0.28524375
0.13301674 0.053634968 0.28522974
0.13332422 0.053633306 0.28518283
0.13363189 0.053631023 0.28511739
0.13390209 0.053628046 0.28503129
0.10944566 0.054024085 0.28503856
0.10964705 0.054026153 0.28510153
0.10996535 0.054028463 0.28517264
0.1102771 0.054029327 0.28520072
0.1105511 0.05403043 0.2852354
0.11082309 0.054031 0.2852546
0.1111297 0.054030567 0.28524414
0.11143299 0.054029558 0.28521666
0.11174151 0.054029461 0.28521621
0.11204618 0.054028839 0.28520027
0.1123524 0.054028083 0.2851803
0.11265665 0.054027181 0.28515583
0.11296377 0.054026742 0.28514537
0.11327134 0.054026496 0.28514042
0.11357567 0.054025337 0.28510845
0.11387952 0.054024123 0.28507498
0.11418249 0.054022513 0.2850295
0.11445272 0.054022241 0.28502354
0.11472069 0.054021757 0.28501135
0.13063885 0.054017931 0.28502411
0.13094641 0.054019369 0.28506911
0.13125327 0.054021511 0.28513515
0.1315605 0.054022405 0.28516415
0.13186714 0.054023609 0.28520221
0.13217393 0.054024354 0.2852267
0.13247973 0.054024912 0.28524575
0.13274802 0.054025035 0.28525138
0.13301669 0.05402505 0.28525406
0.1333241 0.054023586 0.28521311
0.13363181 0.054021183 0.28514421
0.1339014 0.054017987 0.28505158
0.1094024 0.05441957 0.2850334
0.10964651 0.054422569 0.28512427
0.1099615 0.054424301 0.28517836
0.11027698 0.054426007 0.28523147
0.11054989 0.054426897 0.28525999
0.11082252 0.054427531 0.28528085
0.11113051 0.054427549 0.28528392
0.1114338 0.054426506 0.28525543
0.11173952 0.054425742 0.28523499
0.11204566 0.054425254 0.28522301
0.11235134 0.054424599 0.28520602
0.11265795 0.0544242 0.2851966
0.11296461 0.054423634 0.28518212
0.1132703 0.054422949 0.28516418
0.11357597 0.054422375 0.28514972
0.11387893 0.054420762 0.28510424
0.11418332 0.054419383 0.28506577
0.11444834 0.054418176 0.28503206
0.11471725 0.054417852 0.28502458
0.11498591 0.054417316 0.28501078
0.11536995 0.054417118 0.28500792
0.1159867 0.054416776 0.28500268
0.13063477 0.054414496 0.28505084
0.13094226 0.054416254 0.28510535
0.13124868 0.054418158 0.28516436
0.13155581 0.054419376 0.28520286
0.13186255 0.054420274 0.28523189
0.13216937 0.054420833 0.28525093
0.13247558 0.054421745 0.28528047
0.13305067 0.054422036 0.28529367
0.13331941 0.05442059 0.28525284
0.13362582 0.054419145 0.2852124
0.13393496 0.054415256 0.28509951
0.13412885 0.054412205 0.28501049
0.10939656 0.05482094 0.28506216
0.10963973 0.054823704 0.28514603
0.10995758 0.054825924 0.28521413
0.11027451 0.054827854 0.28527373
0.11046741 0.054828137 0.28528365
0.11123732 0.054828398 0.28529727
0.11142845 0.054827906 0.28528416
0.11173462 0.05482731 0.28526872
0.11203795 0.054826185 0.28523773
0.11234412 0.054825574 0.28522182
0.11264978 0.054824993 0.28520685
0.11295737 0.054824673 0.28519988
0.1132635 0.054824192 0.28518793
0.11356685 0.054823004 0.28515494
0.11387172 0.054821737 0.28511947
0.1141765 0.054820746 0.2850925
0.11448036 0.054819439 0.28505605
0.11474682 0.054818455 0.28502887
0.11501761 0.054818556 0.28503388
0.11532469 0.054818276 0.28502792
0.11563367 0.054818332 0.28503197
0.11594073 0.054818057 0.28502601
0.11620907 0.054817449 0.28501001
0.13043314 0.054813672 0.28500563
0.13062567 0.05481527 0.2850545
0.1309326 0.054817233 0.28511503
0.13123947 0.054819327 0.28517953
0.13154605 0.054820735 0.28522354
0.13185272 0.054821841 0.28525856
0.13215953 0.054822452 0.2852791
0.13334709 0.054822687 0.28529501
0.13361578 0.054821454 0.28526053
0.13392384 0.054817803 0.28515464
0.1341572 0.054813158 0.28501853
0.10938612 0.055220634 0.2850489
0.10963165 0.055223931 0.28514826
0.10994898 0.055226181 0.2852174
0.11018984 0.05522836 0.28528374
0.1117274 0.05522801 0.28528449
0.11203078 0.055226687 0.2852475
0.11233502 0.055225886 0.28522605
0.11264536 0.055226371 0.28524259
0.11295339 0.055226281 0.28524214
0.1132609 0.055226229 0.28524268
0.11356476 0.055224955 0.28520721
0.11386631 0.055223081 0.28515375
0.11416969 0.055221744 0.28511626
0.1144736 0.055220373 0.28507778
0.11477794 0.055219121 0.28504282
0.11504835 0.055219442 0.2850543
0.11531881 0.055219524 0.28505868
0.11562821 0.055219855 0.28507072
0.11593667 0.055219982 0.28507677
0.11624239 0.055219218 0.28505632
0.11654676 0.055217896 0.28501934
0.11689296 0.055217206 0.28500128
0.11789301 0.055216961 0.28500119
0.11797099 0.055217031 0.28500396
0.11831792 0.055217247 0.2850129
0.11862687 0.055217378 0.28501895
0.13034689 0.055214107 0.28500655
0.13061613 0.055215616 0.28505319
0.1309233 0.055218354 0.2851367
0.13122967 0.055220488 0.28520221
0.13153651 0.055222686 0.28526968
0.13180481 0.055223387 0.28529218
0.13379689 0.055222977 0.28529456
0.13395135 0.055221375 0.28524813
0.1342223 0.055216428 0.28510338
0.10934317 0.055622295 0.28508565
0.10962874 0.055625997 0.28519759
0.10990866 0.055628505 0.28527379
0.11179589 0.055628732 0.28529346
0.11202273 0.055627573 0.28526074
0.11233068 0.055627722 0.28526729
0.11263961 0.055627923 0.28527534
0.11294574 0.055627517 0.28526539
0.11325284 0.055627126 0.28525591
0.11355663 0.055626094 0.28522745
0.11385964 0.055624358 0.28517798
0.11416075 0.055622283 0.28511849
0.11446415 0.055620879 0.28507903
0.11477127 0.055620439 0.28506806
0.11508064 0.05562086 0.28508261
0.11535201 0.055621311 0.28509778
0.11562381 0.055621959 0.285119
0.11593091 0.05562162 0.28511101
0.11623571 0.055620559 0.28508157
0.11654009 0.05561924 0.28504458
0.11684491 0.055618126 0.28501362
0.11753795 0.055617962 0.2850135
0.11777173 0.055618674 0.28503627
0.11808065 0.055618942 0.28504634
0.11835057 0.05561921 0.28505617
0.11862007 0.05561918 0.28505719
0.11892488 0.0556181 0.28502721
0.11911711 0.055617314 0.28500512
0.12057918 0.05561699 0.2850056
0.12077251 0.055617563 0.28502399
0.12108003 0.055617429 0.28502205
0.12134846 0.05561709 0.28501388
0.12150125 0.055616681 0.28500274
0.13041402 0.055615749 0.2850363
0.1306826 0.055618271 0.2851131
0.1309524 0.055621192 0.28520155
0.13122067 0.055623148 0.28526133
0.13141282 0.055624295 0.28529674
0.13409507 0.055623285 0.28528529
0.13424942 0.055619802 0.28518289
0.13444462 0.055614561 0.28502887
0.10933512 0.056023013 0.28509805
0.10962539 0.056027759 0.28524083
0.11201513 0.056028519 0.28527898
0.11224706 0.056028761 0.28528777
0.11359153 0.056028206 0.28528008
0.11385521 0.056026433 0.28522924
0.11415495 0.056023888 0.28515571
0.11446071 0.056022998 0.28513128
0.11476591 0.056022275 0.28511178
0.11507668 0.056023069 0.28513736
0.11534759 0.056023329 0.28514689
0.11561798 0.056023702 0.28515971
0.11592646 0.056023758 0.28516328
0.11623172 0.056022845 0.28513828
0.11653475 0.056021027 0.28508633
0.1168387 0.056019511 0.28504336
0.11714444 0.056018688 0.28502089
0.11745474 0.056019295 0.28504094
0.11776546 0.05602029 0.28507251
0.11807708 0.056021571 0.28511256
0.11834667 0.056021806 0.28512123
0.11861509 0.056021463 0.28511289
0.11891998 0.056020118 0.28507495
0.11922623 0.056019261 0.28505147
0.11953149 0.056018367 0.28502703
0.1198382 0.056017611 0.28500655
0.12014794 0.056018505 0.28503513
0.12045767 0.056019418 0.28506416
0.12076569 0.056019299 0.28506273
0.12107363 0.056019504 0.28507078
0.12137932 0.056018848 0.28505328
0.12164716 0.056017667 0.28501996
0.12191526 0.056017309 0.28501111
0.12291433 0.056017034 0.2850095
0.12325942 0.056016702 0.28500193
0.12345333 0.056017008 0.28501236
0.12376084 0.056016963 0.2850129
0.1303658 0.056016751 0.28504977
0.13067326 0.056020286 0.28515673
0.13098034 0.056023352 0.28524974
0.13435376 0.056021802 0.28522563
0.13451017 0.056016933 0.28508228
0.10915732 0.056419976 0.28500038
0.10933634 0.05642559 0.28516808
0.1095456 0.056429256 0.28527808
0.11388955 0.05642806 0.28526977
0.11415062 0.056425575 0.28519773
0.11445542 0.056424513 0.28516826
0.11476386 0.056424692 0.28517529
0.11507462 0.056425538 0.28520235
0.11535045 0.056427274 0.28525555
0.1156196 0.05642724 0.28525624
0.11592573 0.056426823 0.28524575
0.11623011 0.05642553 0.2852093
0.1165317 0.056423459 0.28514981
0.11683424 0.05642163 0.2850973
0.11714007 0.056420505 0.28506586
0.11744985 0.056421217 0.28508896
0.1177633 0.056423109 0.28514701
0.11807256 0.056423888 0.28517205
0.11838192 0.056424331 0.2851871
0.11864945 0.056423705 0.28517023
0.11891638 0.056422748 0.28514341
0.11922076 0.056421433 0.28510642
0.11952476 0.056419738 0.28505796
0.11983232 0.05641954 0.28505403
0.12014386 0.056421075 0.28510156
0.12045318 0.056421705 0.28512213
0.12076156 0.056422077 0.28513518
0.12106861 0.056421898 0.28513172
0.12137514 0.056421764 0.28512976
0.12167921 0.056419816 0.28507379
0.12198456 0.056418624 0.28504032
0.12225193 0.056417346 0.28500399
0.12263595 0.056417257 0.28500378
0.12283015 0.05641824 0.28503418
0.12313935 0.056419272 0.28506672
0.12344822 0.056419697 0.2850813
0.12375486 0.056419246 0.28506982
0.12405974 0.05641792 0.28503236
0.12425001 0.056416985 0.28500575
0.12947352 0.056416124 0.28501281
0.13008745 0.056416404 0.28502485
0.13035697 0.05641856 0.28509068
0.13066429 0.056422554 0.28521115
0.13085561 0.056424871 0.285281
0.13461538 0.056418687 0.28512096
0.10927215 0.056834474 0.28528738
0.11396252 0.056833018 0.28527379
0.11415136 0.056831844 0.28524017
0.11445428 0.05683038 0.28519872
0.1147655 0.056831345 0.28522927
0.11500151 0.056833006 0.28528008
0.11600339 0.056833364 0.28529698
0.11622887 0.056831721 0.28524974
0.1165315 0.056829568 0.28518778
0.11683401 0.056827784 0.28513679
0.11714111 0.056827437 0.28512833
0.11745316 0.056828968 0.28517589
0.11776569 0.056830525 0.28522396
0.11807544 0.056831405 0.28525203
0.11838298 0.056831289 0.28525054
0.1186498 0.056830686 0.28523421
0.11891656 0.056829233 0.28519285
0.11921866 0.056827158 0.28513339
0.11952306 0.056825802 0.28509492
0.11983152 0.05682594 0.285101
0.12014297 0.056827746 0.28515655
0.12045406 0.056829177 0.28520107
0.12076256 0.056829166 0.28520262
0.1210682 0.056828681 0.28519017
0.12137306 0.056827433 0.28515521
0.12167753 0.056825824 0.28510922
0.12198111 0.05682382 0.28505176
0.12225036 0.056824084 0.28506127
0.12252046 0.056824289 0.28506911
0.12282967 0.056825303 0.28510118
0.12313841 0.05682613 0.2851277
0.12344545 0.056825966 0.28512472
0.12375124 0.056824993 0.28509778
0.12405623 0.056823295 0.28504932
0.12424763 0.05682192 0.28500971
0.12539962 0.056821924 0.28501713
0.12551367 0.056821734 0.28501225
0.12616704 0.05682154 0.28501073
0.12885521 0.056820828 0.28500664
0.12912391 0.05682075 0.28500599
0.12943076 0.056821276 0.28502351
0.12973782 0.056821011 0.28501755
0.13004535 0.056822632 0.28506759
0.13035332 0.056826085 0.28517208
0.13054509 0.056830287 0.2852979
0.10907007 0.057237439 0.28524932
0.11634405 0.057237141 0.28528729
0.1165316 0.057235274 0.28523317
0.11683728 0.057234637 0.28521618
0.11714841 0.057235885 0.28525525
0.11734401 0.057237189 0.28529519
0.11865023 0.057236422 0.28528079
0.11891425 0.057234593 0.28522825
0.11921826 0.05723286 0.28517878
0.11952531 0.057232663 0.28517482
0.11983588 0.057234146 0.28522086
0.1201465 0.05723539 0.28525993
0.12045585 0.057235867 0.285276
0.120762 0.057235364 0.285263
0.12106674 0.057234526 0.28524005
0.12137075 0.057232756 0.28518957
0.12167431 0.057230871 0.2851356
0.12197961 0.057229813 0.28510615
0.12225113 0.057230845 0.28513849
0.12252237 0.057232317 0.285184
0.12283032 0.057232488 0.28519103
0.12313779 0.057232574 0.28519559
0.12344398 0.057231888 0.28517711
0.12374938 0.05723054 0.28513914
0.12405254 0.057228237 0.28507268
0.12435763 0.057226248 0.28501576
0.12462646 0.057226226 0.28501672
0.12501045 0.057226244 0.28501987
0.12527996 0.057226744 0.28503633
0.12554964 0.057226691 0.28503653
0.12581804 0.057226472 0.28503168
0.12612462 0.057226155 0.28502423
0.12631528 0.057225637 0.2850101
0.12838943 0.057225 0.28500465
0.12858181 0.057225425 0.28501853
0.12885052 0.057225794 0.2850312
0.12911913 0.057226032 0.28503984
0.12942605 0.05722627 0.28504887
0.12973416 0.057227582 0.28508991
0.13004242 0.057231784 0.28521639
0.13023472 0.057234179 0.28528875
0.13475777 0.057230327 0.28520355
0.1088678 0.057640761 0.28521729
0.11879773 0.057640471 0.28527352
0.11895245 0.057640266 0.2852684
0.11918426 0.057640899 0.28528866
0.12106579 0.057640158 0.28527895
0.1213684 0.057638049 0.28521848
0.12167452 0.057637617 0.28520751
0.12194559 0.057638515 0.285236
0.12221639 0.057639748 0.28527433
0.1225239 0.057639696 0.28527489
0.12283009 0.057639025 0.28525692
0.12313619 0.05763869 0.28524897
0.12344106 0.057637393 0.28521246
0.12374512 0.05763546 0.28515702
0.12404934 0.057632983 0.28508559
0.12435682 0.057633054 0.28508961
0.12466367 0.057633556 0.28510666
0.1249705 0.057632394 0.2850742
0.12527777 0.057633154 0.28509873
0.12558398 0.057632446 0.28507978
0.12585221 0.057631638 0.28505743
0.12612052 0.057630558 0.28502709
0.12631074 0.057629801 0.28500599
0.12742482 0.057629488 0.28500402
0.12765583 0.057629414 0.2850033
0.12796262 0.057630107 0.28502584
0.12827048 0.05763055 0.28504086
0.12857749 0.057630584 0.2850439
0.12888399 0.057630517 0.28504395
0.12915325 0.057630192 0.28503609
0.1294228 0.057632849 0.28511673
0.12973151 0.057637263 0.28524971
0.13000025 0.057638127 0.28527704
0.13486668 0.057636365 0.28525653
0.10882983 0.058046419 0.28524488
0.12109905 0.058045011 0.28528425
0.12136675 0.058044296 0.28526491
0.12156102 0.058045059 0.28528884
0.12263502 0.058044977 0.28529346
0.1228261 0.058044724 0.28528735
0.12313282 0.058043972 0.28526688
0.12343763 0.058042876 0.28523642
0.12374227 0.058040667 0.28517297
0.12404759 0.058039576 0.28514251
0.12435497 0.058039978 0.28515655
0.12466199 0.058039878 0.28515559
0.12496693 0.058038324 0.28511161
0.12527327 0.05803718 0.28507969
0.12557986 0.058036879 0.28507271
0.12584746 0.058036502 0.28506336
0.12611577 0.058035437 0.28503352
0.12630609 0.058034331 0.28500193
0.12676911 0.058035389 0.28503647
0.12703858 0.058035996 0.28505617
0.12734383 0.058035117 0.28503221
0.12765113 0.058034144 0.28500524
0.12795794 0.058034766 0.28502578
0.12826617 0.058035627 0.28505331
0.12857316 0.058035623 0.28505534
0.12887976 0.058035269 0.28504688
0.12914938 0.058036622 0.28508869
0.12941922 0.058040515 0.28520614
0.12968884 0.058042899 0.28527859
0.13509694 0.058034357 0.28506088
0.10873803 0.058448456 0.28517997
0.120866 0.058449551 0.28529388
0.12105429 0.058448523 0.28526476
0.12136133 0.058448408 0.2852633
0.12155599 0.058449555 0.28529871
0.1220921 0.058449142 0.28529
0.12228414 0.058449008 0.28528744
0.12255175 0.058448046 0.28526056
0.12281907 0.058447503 0.28524625
0.12312485 0.058446523 0.28521925
0.12343108 0.058445714 0.28519732
0.1237355 0.058444247 0.28515586
0.12404256 0.058444027 0.28515139
0.12435089 0.058444619 0.28517094
0.12465711 0.058443859 0.28515047
0.12496086 0.058441263 0.28507555
0.12526536 0.058439527 0.28502604
0.12557369 0.058440082 0.28504461
0.12587945 0.058439188 0.28502014
0.12672457 0.058438722 0.28501201
0.12703285 0.058439463 0.28503603
0.12726216 0.058438409 0.28500631
0.12776124 0.058438092 0.28500026
0.12806919 0.05843826 0.2850073
0.12826018 0.058438279 0.28500921
0.12856753 0.058438752 0.28502524
0.12887456 0.058438666 0.28502476
0.12918343 0.058442473 0.28513977
0.12945311 0.058445256 0.28522423
0.12972173 0.058446571 0.28526503
0.12998991 0.058447093 0.28528216
0.13497274 0.058446206 0.28528947
0.1351292 0.058440089 0.28510913
0.10873016 0.058855526 0.285175
0.1089766 0.058859143 0.28528386
0.11566745 0.058857474 0.28528008
0.1159723 0.058856275 0.28524661
0.11616981 0.058857929 0.28529704
0.11816611 0.058856785 0.28527677
0.11835506 0.058855254 0.28523266
0.11866119 0.058854781 0.28522074
0.11889712 0.058856726 0.28527999
0.11958906 0.058856864 0.28528884
0.11981913 0.058856618 0.28528315
0.12012494 0.058855556 0.2852537
0.1204306 0.058854967 0.28523821
0.12073682 0.058854204 0.28521773
0.12104032 0.058852486 0.28516877
0.12134916 0.058853019 0.2851868
0.12166052 0.058855172 0.28525287
0.12196533 0.058854058 0.2852219
0.12227111 0.058853149 0.28519693
0.122576 0.058851749 0.28515747
0.12288266 0.058851205 0.28514349
0.12314933 0.058850065 0.28511152
0.12341772 0.058849275 0.28508985
0.12372267 0.05884774 0.28504637
0.12403095 0.058848444 0.28506941
0.12433877 0.058849052 0.28508946
0.12464467 0.058847666 0.28505051
0.12483513 0.058846086 0.28500491
0.12921272 0.058847185 0.28506753
0.12948246 0.058849744 0.28514528
0.1297522 0.058851194 0.28519011
0.13001952 0.058851212 0.28519261
0.13032693 0.058851503 0.28520313
0.1305186 0.058854349 0.28528896
0.13488792 0.058851834 0.28524423
0.13508371 0.058846898 0.28509921
0.10879059 0.059261568 0.28512442
0.10903569 0.05926466 0.28521779
0.10924088 0.059267372 0.28529978
0.11326876 0.059264094 0.28523064
0.11357309 0.059262943 0.28519869
0.11377524 0.059265863 0.28528661
0.11504436 0.059265383 0.28528118
0.1153455 0.059263155 0.28521717
0.11564485 0.059260242 0.28513268
0.11594599 0.059258029 0.2850692
0.11625761 0.059259318 0.28510976
0.11657928 0.059263818 0.28524536
0.11685208 0.059265021 0.28528306
0.11711956 0.059264541 0.28527069
0.11742397 0.059263088 0.28522974
0.11772382 0.05926019 0.28514576
0.11802465 0.059257358 0.28506374
0.11832808 0.05925585 0.28502131
0.11863426 0.059255224 0.28500479
0.11895128 0.059258524 0.2851049
0.11926457 0.059260931 0.28517845
0.11957386 0.059261631 0.28520152
0.11987738 0.059259843 0.28515053
0.12018184 0.059258223 0.28510457
0.12044666 0.059255961 0.2850394
0.12067615 0.059255451 0.28502569
0.12144428 0.059254963 0.2850166
0.12164025 0.059256766 0.28507149
0.12195038 0.059257977 0.28510955
0.12225527 0.059256658 0.28507259
0.1225216 0.059254911 0.28502259
0.12954968 0.059253067 0.28501678
0.1297798 0.059254296 0.28505501
0.13004862 0.059253227 0.28502503
0.13039359 0.059253249 0.2850281
0.13062435 0.0592575 0.2851558
0.13089351 0.059261505 0.28527656
0.13464841 0.059260435 0.28527105
0.13484296 0.059256837 0.28516552
0.13503897 0.059251651 0.28501305
0.10904998 0.059668709 0.28510588
0.10933915 0.059673242 0.2852425
0.11269041 0.059673812 0.28528312
0.11295203 0.059671678 0.28522173
0.11324845 0.059668541 0.28513071
0.11354724 0.059665807 0.2850517
0.11385763 0.059666157 0.28506428
0.11417621 0.059669256 0.28515834
0.11448418 0.059669331 0.28516293
0.11475185 0.059668794 0.28514889
0.11501817 0.059667643 0.28511673
0.11531974 0.059665687 0.28506073
0.11685946 0.059664838 0.28504646
0.11716692 0.05966492 0.28505099
0.11743461 0.059663679 0.28501615
0.13072984 0.059660818 0.2850256
0.13092235 0.059662487 0.28507644
0.13122909 0.059665039 0.28515446
0.1315358 0.059666067 0.28518698
0.13180466 0.059667051 0.28521812
0.13433337 0.059668973 0.28529307
0.13452682 0.059665706 0.28519753
0.13479781 0.059660617 0.28504845
0.10937681 0.060073745 0.2850318
0.10965707 0.060076218 0.28510717
0.10993501 0.060078159 0.28516674
0.11024624 0.060079042 0.28519529
0.11055847 0.060079932 0.28522384
0.11086132 0.06007871 0.28518987
0.11115815 0.060075842 0.28510684
0.11146104 0.060074504 0.28506935
0.11176532 0.06007354 0.28504288
0.11207292 0.060073145 0.28503343
0.11237772 0.060072128 0.28500545
0.11260816 0.060072251 0.28501073
0.13256279 0.060068615 0.28504691
0.13275439 0.060071662 0.28513876
0.13306066 0.060074136 0.28521425
0.13336627 0.060075425 0.28525475
0.13367335 0.06007513 0.28524828
0.13398053 0.060072836 0.28518236
0.13425125 0.060069215 0.28507695
0.13440719 0.060067095 0.28501517
0.11154313 0.036952212 0.28541893
0.11169799 0.036952667 0.28543347
0.11063438 0.037351228 0.28530711
0.11083157 0.037352264 0.28533903
0.11114468 0.037353575 0.28538013
0.11145354 0.037354033 0.28539568
0.11176299 0.037354223 0.28540325
0.11206484 0.037352994 0.28536874
0.11236776 0.037351545 0.28532776
0.11267199 0.037350774 0.28530678
0.11294365 0.037351314 0.2853246
0.11321422 0.037351679 0.28533712
0.11344148 0.037350744 0.28531089
0.13224325 0.03734716 0.28532594
0.13247266 0.037349138 0.28538617
0.13277912 0.037350975 0.28544271
0.13304666 0.037349172 0.28539088
0.13331604 0.037347857 0.28535357
0.13354543 0.037346467 0.28531384
0.11009773 0.037746672 0.28535163
0.11026163 0.037749294 0.28543055
0.11054217 0.037751947 0.28551093
0.11085952 0.037754141 0.28557801
0.1111674 0.037754528 0.2855916
0.11147069 0.037753522 0.28556359
0.11177445 0.037752647 0.2855396
0.11207635 0.037751269 0.28550062
0.1123815 0.037750732 0.28548667
0.11265611 0.037752073 0.28552818
0.11293159 0.037753828 0.28558204
0.11323863 0.037753683 0.28557956
0.11354152 0.037752315 0.28554109
0.11384294 0.037750855 0.2854996
0.1141426 0.037748616 0.28543511
0.11444048 0.037745602 0.28534758
0.11547442 0.037744075 0.28530884
0.11566779 0.03774447 0.28532177
0.11597528 0.037744537 0.2853258
0.11620444 0.037743956 0.28531009
0.13097356 0.037741687 0.28533685
0.13124175 0.037742116 0.28535134
0.13154778 0.037742071 0.28535187
0.13185377 0.03774374 0.28540337
0.13216016 0.037747584 0.28551933
0.13246602 0.037749693 0.28558382
0.13277155 0.037749611 0.28558335
0.13307729 0.03774872 0.28555888
0.13338427 0.037747122 0.28551346
0.13365291 0.037743803 0.28541666
0.13388352 0.037741695 0.28535566
0.10994494 0.038142703 0.28539929
0.11019429 0.038147226 0.28553501
0.11216108 0.038148958 0.28559875
0.11231312 0.038148805 0.28559524
0.11418774 0.03814663 0.28554249
0.11444478 0.03814305 0.28543794
0.11474352 0.038140528 0.28536493
0.1150538 0.038141254 0.28538847
0.11537141 0.03814429 0.28548056
0.11568071 0.038144954 0.28550211
0.11594645 0.038144082 0.28547791
0.1162141 0.038143571 0.28546441
0.11651797 0.038142309 0.28542891
0.11681727 0.038139567 0.28534946
0.11781584 0.038139299 0.28534782
0.11805044 0.038140643 0.28538913
0.11835706 0.038140193 0.28537765
0.11866227 0.038139507 0.28535917
0.11896664 0.038138226 0.2853232
0.11927135 0.038137488 0.28530324
0.12042701 0.038138606 0.28534365
0.12073721 0.038139604 0.28537524
0.12104198 0.038138665 0.28534922
0.1213477 0.038137943 0.28532976
0.12165336 0.038137358 0.28531432
0.12192174 0.038137149 0.28530979
0.12295748 0.038136855 0.28530771
0.12314912 0.038136959 0.28531191
0.1233798 0.038136851 0.28531021
0.13062288 0.038136877 0.28535652
0.13092946 0.038139999 0.28545099
0.1312359 0.038141891 0.28550899
0.13154173 0.03814245 0.2855275
0.1317713 0.038143959 0.28557375
0.13345426 0.038143963 0.28558439
0.13368389 0.038141832 0.2855227
0.13395317 0.038138609 0.28542873
0.1341839 0.038136076 0.28535506
0.10993725 0.038536008 0.28539303
0.110153 0.03854138 0.28555375
0.11449108 0.038540889 0.285566
0.11475369 0.038538855 0.28550726
0.11506258 0.038539175 0.28551883
0.1153377 0.03854106 0.28557637
0.11576088 0.03854157 0.2855942
0.11594984 0.038540553 0.28556511
0.11621548 0.038539469 0.28553474
0.11651927 0.038538467 0.28550673
0.11682225 0.038536835 0.28546029
0.11712432 0.038534902 0.28540477
0.11742725 0.038533404 0.2853623
0.11774151 0.038535908 0.28543836
0.11805354 0.03853751 0.28548792
0.11836049 0.038537666 0.28549445
0.11866528 0.03853666 0.28546649
0.11897058 0.038535617 0.28543752
0.11927485 0.038534697 0.28541204
0.11958051 0.038534142 0.28539759
0.11984724 0.038533352 0.28537571
0.12011756 0.038533941 0.28539491
0.12042813 0.038535412 0.28544044
0.12073737 0.038536243 0.28546697
0.121044 0.038535826 0.28545651
0.12134874 0.038534984 0.28543353
0.12165568 0.03853514 0.28544009
0.12196135 0.038534589 0.2854256
0.12226571 0.038533315 0.28538963
0.12257101 0.038532309 0.28536165
0.12287831 0.038532987 0.2853837
0.12314841 0.038533736 0.28540769
0.12341669 0.038533356 0.28539801
0.12372157 0.038532034 0.28536054
0.12402556 0.038530365 0.28531307
0.12433212 0.038530152 0.2853086
0.12452415 0.038530026 0.28530604
0.12981172 0.038528975 0.28530765
0.13007979 0.038529333 0.28531995
0.13034825 0.038529467 0.28532562
0.13061714 0.038533241 0.28543922
0.13092354 0.038536984 0.28555217
0.13122968 0.03853815 0.28558868
0.1314977 0.038538124 0.28558949
0.13367705 0.038536824 0.28556439
0.13398468 0.038532935 0.28545099
0.13425422 0.038529392 0.28534755
0.11005077 0.03893131 0.28542066
0.11022535 0.038936149 0.28556532
0.11456624 0.038936328 0.28559721
0.11475319 0.038934804 0.2855531
0.11505833 0.038934335 0.28554112
0.11529344 0.038935613 0.2855804
0.11598438 0.038935803 0.28559023
0.11624938 0.038934655 0.28555787
0.11651503 0.038933575 0.28552753
0.11681978 0.038932655 0.28550205
0.11712272 0.038931176 0.28546005
0.11742479 0.038929246 0.28540456
0.11773594 0.038930431 0.28544164
0.11804882 0.038932491 0.2855047
0.11835581 0.038932532 0.28550774
0.11865968 0.038931288 0.28547275
0.11896443 0.038930386 0.28544778
0.11927194 0.038930371 0.28544933
0.11957617 0.038929552 0.28542686
0.11988106 0.038928226 0.28538936
0.12014983 0.03892839 0.28539586
0.12042256 0.038929895 0.2854422
0.12073219 0.038931131 0.28548074
0.12104006 0.038931593 0.28549626
0.12134526 0.038930908 0.28547782
0.12165091 0.038930353 0.28546333
0.12195618 0.038929418 0.28543738
0.12226132 0.038928933 0.28542489
0.12256494 0.038926817 0.28536394
0.12287175 0.038927443 0.28538445
0.12318186 0.038928751 0.28542501
0.12344853 0.038928159 0.28540915
0.12371677 0.038927332 0.28538629
0.12402113 0.038926143 0.28535283
0.12432895 0.038926721 0.28537187
0.12459415 0.038924888 0.28531918
0.12957586 0.038923409 0.28530577
0.12976685 0.038923383 0.28530616
0.13007276 0.038923725 0.2853182
0.13037995 0.038924761 0.28535071
0.13064867 0.038927387 0.28543031
0.13091676 0.038930506 0.28552443
0.13118516 0.038932513 0.28558555
0.13367073 0.038930502 0.28554115
0.13397831 0.038926784 0.28543276
0.1342485 0.038923349 0.28533265
0.11007178 0.039323155 0.2853407
0.11024631 0.039328143 0.28548968
0.11474775 0.039329909 0.28556931
0.11504745 0.039327487 0.2854993
0.11535533 0.039327886 0.28551283
0.11566973 0.039329946 0.28557593
0.11597673 0.03932992 0.28557694
0.11628103 0.039328896 0.28554845
0.11654756 0.039328218 0.28552994
0.1168144 0.039327599 0.28551325
0.11711594 0.039325736 0.28545979
0.11741897 0.039323941 0.28540829
0.1177224 0.039322462 0.28536633
0.11803349 0.039323837 0.28540885
0.11834494 0.039325714 0.28546643
0.11865386 0.03932599 0.28547645
0.11895948 0.039325558 0.28546551
0.11926556 0.039325241 0.28545803
0.11957084 0.039324302 0.28543204
0.11987429 0.039322726 0.28538707
0.12017822 0.039321233 0.2853446
0.12044803 0.039321899 0.28536591
0.12072147 0.039323814 0.28542444
0.12103022 0.039324645 0.28545097
0.1213363 0.039324395 0.28544548
0.12164326 0.039324455 0.28544903
0.12194934 0.039324205 0.28544354
0.1222537 0.039322969 0.28540856
0.12255811 0.03932156 0.28536862
0.12286115 0.039319713 0.28531563
0.12317078 0.039320931 0.28535366
0.1234799 0.039322235 0.28539422
0.12374792 0.039322145 0.28539321
0.12401568 0.039321277 0.28536904
0.12432045 0.039320339 0.28534305
0.12462673 0.039319385 0.28531659
0.12983707 0.03931804 0.28530812
0.13006645 0.039318372 0.28531939
0.13037331 0.039318867 0.28533587
0.13067949 0.039320018 0.2853719
0.13094826 0.039322991 0.28546166
0.13121593 0.03932526 0.28553063
0.13144651 0.039326705 0.28557485
0.13366377 0.039325681 0.28555781
0.13397133 0.039322082 0.2854529
0.13420278 0.039318807 0.28535724
0.11029767 0.039736416 0.28536102
0.11055515 0.039742719 0.28554946
0.11270634 0.039743166 0.28557539
0.11293644 0.039742816 0.28556636
0.11451228 0.03974333 0.28559089
0.1147387 0.039741863 0.28554866
0.11503652 0.039739072 0.28546765
0.11533578 0.03973645 0.28539163
0.11564185 0.039736204 0.28538615
0.11595574 0.039738286 0.28544974
0.11626695 0.039739285 0.2854813
0.11657396 0.03973921 0.28548086
0.11687914 0.039738629 0.28546536
0.11718254 0.039737217 0.28542536
0.11748508 0.039735377 0.28537241
0.1177102 0.039733216 0.28530964
0.11836499 0.039733976 0.28533611
0.11863758 0.039735328 0.2853778
0.11894684 0.039736159 0.28540432
0.11925479 0.039736286 0.28540987
0.1195614 0.039735921 0.2854009
0.11986484 0.039734412 0.28535792
0.12013114 0.039733361 0.28532824
0.1210549 0.039734181 0.28535804
0.12132329 0.039734561 0.28537083
0.12163167 0.039734922 0.2853834
0.12193912 0.039735079 0.2853899
0.12224472 0.03973477 0.28538245
0.12254912 0.039733395 0.28534347
0.12273942 0.039732341 0.28531337
0.12381283 0.03973202 0.28530994
0.12406954 0.039731894 0.28530785
0.12435073 0.039732378 0.28532395
0.12450347 0.03973211 0.2853168
0.13013586 0.039730608 0.28530547
0.13036625 0.039731011 0.28531873
0.13067207 0.039731573 0.28533727
0.13097844 0.039732039 0.28535277
0.13128495 0.039735395 0.28545424
0.13155304 0.039737929 0.28553101
0.13174424 0.039739519 0.28557923
0.13369493 0.039738197 0.28555155
0.13396418 0.039734509 0.28544372
0.13419572 0.039730988 0.28534058
0.11055936 0.040151529 0.28536361
0.11085063 0.040156838 0.28552273
0.11101262 0.040159173 0.28559297
0.11243181 0.040158495 0.28558099
0.11265347 0.040156219 0.28551474
0.1129545 0.040154409 0.28546274
0.11325784 0.040153235 0.28542975
0.11356945 0.040154524 0.28546983
0.11388297 0.040156156 0.2855199
0.11415401 0.040156629 0.2855354
0.11442186 0.040156536 0.2855342
0.11472295 0.040154539 0.28547671
0.11502214 0.040152155 0.28540769
0.11528215 0.040149279 0.28532401
0.11628094 0.040148858 0.28531718
0.11655328 0.040149923 0.28535038
0.11686262 0.040150438 0.2853674
0.11716784 0.040149719 0.28534794
0.11743367 0.040148593 0.2853159
0.11927772 0.040148355 0.28531948
0.11954723 0.040148355 0.28532097
0.11981512 0.040148094 0.2853148
0.1219646 0.040147539 0.28531072
0.122233 0.040147297 0.28530502
0.13127741 0.040145695 0.2853094
0.13158381 0.040147744 0.2853719
0.1318514 0.040151346 0.28548032
0.13208117 0.040154431 0.28557321
0.13341975 0.040154655 0.28558743
0.13364947 0.040152244 0.28551725
0.13395777 0.040147822 0.28538784
0.11054474 0.040564567 0.28531614
0.11086254 0.040566958 0.28538874
0.11114413 0.040570069 0.28548262
0.11142202 0.040572129 0.28554517
0.11173369 0.040573232 0.28557974
0.11203928 0.040572923 0.28557226
0.11234121 0.040571481 0.28553128
0.11263891 0.040569052 0.28546074
0.11293577 0.040566146 0.28537619
0.11323775 0.04056447 0.28532824
0.11354479 0.040564347 0.28532624
0.11385968 0.040566415 0.28538933
0.1141704 0.040567353 0.28541887
0.11447657 0.040566757 0.28540292
0.11478133 0.040565871 0.28537846
0.1150068 0.040564273 0.2853322
0.13188258 0.040562943 0.28538695
0.13215058 0.040565833 0.28547421
0.13241765 0.040567834 0.28553516
0.1327233 0.040569007 0.28557166
0.13302884 0.040568866 0.28556919
0.13333577 0.040567398 0.28552723
0.13364252 0.040564861 0.2854538
0.13387349 0.040561475 0.28535464
0.11065197 0.040979423 0.28531086
0.11084632 0.040979955 0.28532779
0.11116503 0.04098263 0.28540888
0.11148042 0.040984716 0.28547245
0.11175284 0.040985584 0.28549966
0.11202213 0.040985674 0.2855038
0.11232548 0.040984489 0.28547031
0.11262504 0.040982597 0.2854158
0.11292475 0.04098013 0.2853443
0.11392012 0.040978868 0.28531215
0.1141515 0.040979274 0.28532541
0.11446002 0.040979214 0.28532547
0.1147275 0.040978704 0.28531179
0.13195175 0.040976446 0.28533831
0.13218115 0.040978417 0.28539804
0.13244818 0.040980596 0.28546417
0.13271618 0.040981784 0.28550079
0.13302156 0.04098215 0.28551331
0.13332832 0.040981285 0.28548932
0.1336351 0.040978603 0.28541142
0.13386582 0.040976159 0.28534022
0.11091316 0.041394062 0.28531107
0.1111497 0.041395634 0.28535888
0.11146517 0.0413974 0.28541297
0.11177497 0.041398086 0.28543502
0.11208247 0.041398063 0.28543603
0.11238534 0.041396834 0.28540105
0.11268496 0.041394722 0.28534004
0.11287232 0.041393489 0.28530443
0.13217339 0.041391354 0.28534311
0.13247915 0.041393843 0.2854186
0.13278535 0.041394867 0.28545058
0.13305248 0.041394975 0.28545508
0.13332152 0.041394278 0.28543591
0.13362759 0.041392304 0.28537896
0.13381924 0.041390125 0.28531539
0.11114206 0.041782841 0.2853241
0.11145426 0.041783866 0.28535619
0.11176358 0.04178448 0.28537619
0.11207159 0.041784443 0.28537676
0.11237676 0.041783851 0.28536078
0.11260076 0.041782163 0.28531203
0.13228464 0.041778769 0.28531963
0.13247716 0.041780397 0.28536898
0.13278297 0.041781049 0.28538999
0.13305067 0.041780949 0.28538847
0.13331953 0.041780874 0.28538781
0.13358785 0.041779142 0.28533781
0.11148437 0.042161256 0.28531659
0.11175689 0.04216177 0.28533345
0.11206296 0.042161509 0.28532749
0.11233113 0.042160925 0.28531164
0.13247702 0.0421573 0.28532192
0.13278262 0.042158641 0.28536344
0.13305034 0.04215847 0.28535992
0.13331941 0.042157687 0.28533828
0.13351017 0.042156737 0.28531116
0.11148241 0.042539336 0.28530645
0.1325914 0.0425351 0.2853114
0.1327823 0.042535461 0.28532326
0.13305047 0.042534854 0.28530696
0.13324252 0.042534675 0.28530288
0.13278136 0.054422505 0.2853055
0.1105862 0.054828886 0.28530681
0.1108195 0.054829545 0.28532812
0.11108653 0.054828838 0.28530911
0.13246578 0.054823268 0.28530562
0.13277167 0.054823611 0.28531814
0.13307911 0.054823756 0.28532469
0.11034658 0.055229213 0.28531027
0.11058036 0.055229925 0.2853331
0.11085188 0.055230405 0.28534925
0.11112025 0.055230279 0.28534743
0.11142357 0.05522918 0.28531694
0.13195872 0.055223688 0.28530237
0.13214955 0.055224262 0.28532073
0.13245639 0.055224761 0.28533778
0.13276213 0.055225629 0.28536579
0.13306907 0.055225808 0.28537333
0.1333752 0.055225331 0.28536135
0.13364322 0.055224109 0.28532705
0.11006764 0.055629734 0.28531134
0.1102648 0.055630848 0.28534579
0.11057797 0.055631943 0.28538036
0.11085072 0.055632781 0.28540707
0.11111364 0.055631354 0.28536668
0.11141835 0.055630609 0.28534672
0.11164469 0.055629455 0.28531396
0.13156533 0.055624846 0.28531423
0.1318334 0.055625699 0.28534138
0.13213924 0.055626255 0.28535992
0.13244593 0.05562726 0.2853919
0.13275176 0.055627815 0.2854104
0.13305841 0.055628993 0.28544745
0.1333639 0.055629008 0.28544998
0.13367067 0.055628046 0.28542352
0.13393968 0.055625737 0.28535703
0.10994741 0.056031078 0.2853415
0.11026333 0.056033038 0.28540158
0.11057739 0.05603452 0.28544766
0.11084825 0.056034993 0.28546348
0.11111306 0.056033872 0.28543198
0.11145075 0.056031846 0.28537408
0.11175171 0.056029931 0.28531918
0.11240382 0.056029521 0.28531131
0.11263528 0.056029696 0.28531811
0.11294424 0.0560298 0.28532317
0.11324989 0.056029264 0.2853092
0.11343998 0.056028932 0.28530058
0.13124859 0.056025896 0.28532687
0.13151717 0.056027323 0.28537101
0.13182345 0.056028083 0.2853955
0.1321294 0.056028217 0.28540152
0.13243599 0.056029636 0.28544557
0.13274102 0.056031205 0.28549403
0.1330471 0.056032568 0.28553656
0.13335279 0.056033615 0.28556958
0.13365902 0.056032822 0.28554812
0.13396639 0.056029875 0.28546268
0.13419867 0.056025524 0.28533506
0.10970704 0.056431126 0.28533465
0.10994829 0.056433681 0.28541201
0.11026563 0.056435898 0.28547964
0.11057921 0.056437314 0.28552371
0.11088437 0.056436781 0.28550971
0.11118573 0.056435522 0.28547424
0.11148537 0.05643335 0.28541172
0.11178354 0.056431033 0.28534472
0.11204964 0.056430146 0.28532019
0.11232208 0.056430899 0.28534406
0.11263423 0.05643208 0.28538114
0.11294361 0.056432456 0.28539416
0.11325066 0.05643227 0.2853907
0.11355169 0.056430474 0.28533924
0.11374055 0.056429233 0.28530359
0.13100979 0.056426529 0.28533116
0.13127755 0.056428459 0.28539011
0.13158405 0.05643015 0.28544211
0.13185187 0.056430768 0.28546211
0.13211975 0.056431159 0.2854754
0.13242584 0.056432489 0.28551692
0.13269286 0.056434151 0.28556767
0.13403188 0.056434058 0.28557327
0.13426292 0.056430459 0.2854681
0.13445759 0.056424778 0.28530064
0.1093947 0.056836005 0.28533357
0.10963928 0.056839168 0.28542894
0.10995845 0.056841917 0.28551257
0.11027251 0.056843422 0.28555912
0.11058282 0.056844067 0.28558019
0.11088746 0.056843564 0.28556719
0.11118565 0.056841187 0.28549871
0.1114824 0.056838613 0.28542417
0.11178479 0.05683732 0.28538769
0.11205211 0.056836784 0.28537351
0.11232839 0.056838661 0.28543106
0.11264055 0.056839783 0.28546613
0.11294805 0.056839772 0.28546768
0.11325327 0.056839012 0.28544718
0.1135538 0.056837179 0.28539473
0.11381532 0.056834817 0.28532633
0.11515919 0.056834072 0.28531262
0.11535275 0.056834418 0.28532422
0.11562252 0.056834631 0.2853322
0.11585222 0.056833949 0.28531349
0.13069944 0.056831364 0.28533074
0.13096724 0.056833137 0.28538501
0.13127416 0.05683516 0.28544706
0.13157964 0.056836899 0.28550053
0.13184755 0.056837741 0.28552735
0.13211523 0.056838274 0.28554481
0.13234431 0.056839705 0.28558856
0.13429646 0.056836784 0.28551424
0.1344891 0.056833491 0.28541785
0.10932499 0.057242788 0.28540975
0.10964984 0.057246685 0.28552741
0.10996385 0.057248354 0.28557903
0.11114919 0.057247113 0.28554973
0.1114873 0.057245061 0.28549111
0.11175454 0.057244759 0.28548375
0.11202946 0.057246204 0.28552848
0.11233929 0.05724673 0.285546
0.11264675 0.057246864 0.28555208
0.11295146 0.057246126 0.28553209
0.11325529 0.057244968 0.28549963
0.11355491 0.057242844 0.2854386
0.11385132 0.05723973 0.28534809
0.11415608 0.057238821 0.28532314
0.11446598 0.057239141 0.28533471
0.11477991 0.057241086 0.28539425
0.11505008 0.057241615 0.28541175
0.11531929 0.057241485 0.28540957
0.11562727 0.057241522 0.28541264
0.11593018 0.057240091 0.28537214
0.1161943 0.05723856 0.28532848
0.11749989 0.057237636 0.2853094
0.11776932 0.057237878 0.28531837
0.1180773 0.057237897 0.28532094
0.11838435 0.057237715 0.28531748
0.13038771 0.057235301 0.2853229
0.13065585 0.05723704 0.28537637
0.13096263 0.057239521 0.28545186
0.13126905 0.057241507 0.28551286
0.1315757 0.057242654 0.28554887
0.13188092 0.057243586 0.2855784
0.13207173 0.05724423 0.28559875
0.13436592 0.057243485 0.28559148
0.13456091 0.057238355 0.28544047
0.1090456 0.057645965 0.28537294
0.10933544 0.05765048 0.28550875
0.10954007 0.057653438 0.28559774
0.11099818 0.057652995 0.28559417
0.11114836 0.057652339 0.28557566
0.11134133 0.057652462 0.28558058
0.11299234 0.057652324 0.28558722
0.1132544 0.057650425 0.28553253
0.11355454 0.057648215 0.285469
0.11385505 0.05764645 0.28541851
0.11416855 0.057648152 0.28547111
0.11448023 0.057649232 0.28550518
0.11474919 0.057649378 0.28551131
0.11501729 0.05764899 0.28550148
0.11532294 0.05764845 0.28548747
0.11562727 0.057647288 0.28545505
0.11592967 0.057645943 0.28541705
0.11623042 0.057643365 0.28534257
0.11653651 0.057643048 0.28533509
0.11684994 0.057644952 0.28539366
0.11715974 0.057645641 0.28541625
0.11746721 0.057645712 0.28542027
0.11777382 0.057645343 0.2854113
0.11807909 0.057644397 0.28538537
0.11838383 0.05764354 0.28536189
0.11864922 0.05764221 0.28532401
0.11933936 0.057641678 0.28531283
0.11953405 0.057642743 0.28534576
0.11984204 0.05764278 0.2853488
0.12014911 0.057642512 0.28534284
0.12045523 0.057642095 0.28533238
0.12076046 0.057641268 0.28530991
0.130154 0.057638928 0.28530186
0.13034543 0.057640873 0.28536075
0.13065223 0.057643261 0.28543374
0.13095908 0.057645455 0.28550074
0.13126455 0.057647228 0.28555524
0.13149434 0.057647876 0.28557599
0.13455544 0.05764401 0.28548133
0.13474964 0.057639923 0.28536132
0.10904469 0.058051426 0.28539491
0.10933307 0.058055807 0.28552672
0.10957156 0.058057517 0.28557903
0.11302662 0.058057122 0.28559023
0.11325062 0.058055393 0.28554046
0.11355166 0.058053561 0.28548795
0.11386382 0.058054686 0.28552356
0.11417679 0.058056492 0.28557912
0.11448477 0.058056511 0.28558165
0.11474943 0.058055401 0.28555062
0.11501443 0.058054276 0.28551894
0.11532013 0.058053568 0.28549996
0.1156249 0.058052629 0.285474
0.11592592 0.058050789 0.28542152
0.11623114 0.058050066 0.28540203
0.11654368 0.058051612 0.2854501
0.11685391 0.05805251 0.28547865
0.11715999 0.058052219 0.28547218
0.1174657 0.058051482 0.28545225
0.11777136 0.058050923 0.28543776
0.11807662 0.058050066 0.28541428
0.11838001 0.05804868 0.2853753
0.11868438 0.058047384 0.28533882
0.11895436 0.058047462 0.28534302
0.11922639 0.058049064 0.28539217
0.11953519 0.058049671 0.28541222
0.11984086 0.058049098 0.28539726
0.12014665 0.058048122 0.28537029
0.12045272 0.058047816 0.28536332
0.12075799 0.058046907 0.28533834
0.12094685 0.058045667 0.28530276
0.12171537 0.058046088 0.28532034
0.1219838 0.058045797 0.28531349
0.12225283 0.058045652 0.28531101
0.12248223 0.058045406 0.28530529
0.12984326 0.058043748 0.28530478
0.13003458 0.058044344 0.28532368
0.13034116 0.05804579 0.28536868
0.13064779 0.058048736 0.28545815
0.13095407 0.058051184 0.28553265
0.13126013 0.058052644 0.28557816
0.13458882 0.058049504 0.28550696
0.13485956 0.05804415 0.28534991
0.10907564 0.058454912 0.28537369
0.10935959 0.058458466 0.28548127
0.10963891 0.058460779 0.28555167
0.10983655 0.058461979 0.28558859
0.11083456 0.058461886 0.28559247
0.11298022 0.058460582 0.28556839
0.11323873 0.058457747 0.2854858
0.11354303 0.0584567 0.28545684
0.11386069 0.058459546 0.28554344
0.11417235 0.058460709 0.28558001
0.11447795 0.058460303 0.28557003
0.11478314 0.058459695 0.28555405
0.11508419 0.058457792 0.28549957
0.11534999 0.058456752 0.28547055
0.1156163 0.058455657 0.28543985
0.11591876 0.058454093 0.28539538
0.11622669 0.058454327 0.28540444
0.11654103 0.058456548 0.28547251
0.11684986 0.058457088 0.28549054
0.11715463 0.058456145 0.28546458
0.11745853 0.058454778 0.28542608
0.11776421 0.058454141 0.28540912
0.11807036 0.058453631 0.28539616
0.11837284 0.058451943 0.28534818
0.11867902 0.058451336 0.28533223
0.11895116 0.058452558 0.28537023
0.11922323 0.058453973 0.28541407
0.11952885 0.058453549 0.28540361
0.11983331 0.05845198 0.28535914
0.12013899 0.05845134 0.28534216
0.1204456 0.058450919 0.28533173
0.12071314 0.058450252 0.28531373
0.12171048 0.058450151 0.28531754
0.12194174 0.058450382 0.28532586
0.13014437 0.058447711 0.28530169
0.13033508 0.058448777 0.28533456
0.13064265 0.058451857 0.28542805
0.13094944 0.058454297 0.28550255
0.13125485 0.058456235 0.28556204
0.1345453 0.058454566 0.28553462
