# .PCD v0.7 - Point Cloud Data file format
VERSION 0.7
FIELDS x y z
SIZE 4 4 4
TYPE F F F
COUNT 1 1 1
WIDTH 1377
HEIGHT 1
VIEWPOINT 0 0 0 1 0 0 0
POINTS 1377
DATA ascii
-0.053937167 0.14772034 -0.23155983
-0.0537095 0.14770162 -0.231548
-0.053480718 0.14771199 -0.23157144
-0.053240333 0.147691 -0.23156001
-0.053067442 0.14768055 -0.2315281
-0.052954502 0.14771 -0.231502
-0.0526435 0.14769399 -0.23147601
-0.052286997 0.14771233 -0.23152778
-0.052126002 0.1477045 -0.23150784
-0.051866997 0.14768668 -0.23145235
-0.051649336 0.14767785 -0.23143552
-0.051475205 0.1476872 -0.23146281
-0.0513255 0.1477 -0.23145801
-0.051101502 0.14768751 -0.231437
-0.050811332 0.14771 -0.23141633
-0.050501496 0.14769332 -0.23144282
-0.050285835 0.14768051 -0.231447
-0.050097503 0.147708 -0.23143899
-0.049928501 0.14769299 -0.231409
-0.049512498 0.147679 -0.2314025
-0.032099999 0.14769427 -0.23146576
-0.0579345 0.14793399 -0.23159701
-0.057701111 0.14791967 -0.23152488
-0.057525996 0.14791232 -0.231552
-0.057257999 0.147899 -0.231598
-0.056972999 0.14788 -0.23159266
-0.056752998 0.147944 -0.231599
-0.055766001 0.147967 -0.231598
-0.055593003 0.147882 -0.23159133
-0.054856997 0.14792132 -0.23158365
-0.054691497 0.14790951 -0.231573
-0.054557335 0.14790501 -0.23158734
-0.053930499 0.14790475 -0.23155349
-0.053737249 0.14789724 -0.23154749
-0.053488377 0.14791425 -0.23156214
-0.053232331 0.14791299 -0.23155101
-0.053058442 0.14790213 -0.23153602
-0.052946668 0.147894 -0.23150833
-0.052637 0.14787801 -0.23147334
-0.052280333 0.14789633 -0.23151849
-0.052112799 0.14791121 -0.23150501
-0.051857665 0.14790867 -0.23146467
-0.051685002 0.1479 -0.23141666
-0.051503889 0.14789532 -0.23144913
-0.051319003 0.14788432 -0.23144734
-0.051174331 0.147879 -0.23145467
-0.050806001 0.14785799 -0.231401
-0.050633997 0.147884 -0.23141
-0.050493497 0.14791334 -0.23143767
-0.050359666 0.14790501 -0.231429
-0.050144333 0.14789318 -0.23141599
-0.049924999 0.147802 -0.23140401
-0.032082602 0.1479093 -0.2314909
-0.057930432 0.14809057 -0.23158927
-0.0576935 0.14810349 -0.23152685
-0.057517998 0.14809549 -0.231565
-0.057294749 0.148123 -0.23159149
-0.057021499 0.148141 -0.2315955
-0.056900665 0.1480971 -0.23159289
-0.056700666 0.1480885 -0.23155916
-0.056516796 0.14809521 -0.23156159
-0.056374498 0.14811701 -0.231599
-0.056033 0.148192 -0.231598
-0.055951748 0.14815326 -0.2315885
-0.055724401 0.1481256 -0.23158321
-0.055583 0.14814049 -0.23159501
-0.054850001 0.14810599 -0.231576
-0.05468525 0.14809425 -0.23155449
-0.054550499 0.14809 -0.23158899
-0.054143999 0.148178 -0.231598
-0.053923499 0.14808917 -0.23154517
-0.053730667 0.148082 -0.23153102
-0.053525668 0.14808516 -0.23154084
-0.053283665 0.14811167 -0.23155099
-0.053071599 0.14811 -0.23154101
-0.052967999 0.14811783 -0.23149401
-0.052627999 0.1481 -0.231471
-0.052311163 0.14808302 -0.231525
-0.052146375 0.14808388 -0.23150562
-0.051852003 0.148093 -0.231437
-0.051676333 0.148122 -0.23140933
-0.051524002 0.14810644 -0.23143613
-0.051345598 0.14812319 -0.23143518
-0.051166337 0.14809901 -0.23144199
-0.050796501 0.14811599 -0.23140401
-0.050472002 0.14808534 -0.23141401
-0.050354999 0.14805201 -0.23141199
-0.050085999 0.148038 -0.231406
-0.032078713 0.14810814 -0.23149744
-0.057923127 0.1483015 -0.23158962
-0.057728335 0.14828934 -0.23157215
-0.057596665 0.148287 -0.23156933
-0.057335999 0.14820001 -0.23159599
-0.057015002 0.14832567 -0.23157901
-0.056892779 0.14831789 -0.23157446
-0.056692 0.14830917 -0.23155832
-0.056498837 0.1483015 -0.23157848
-0.056028999 0.148303 -0.23159799
-0.055911332 0.14830033 -0.23158951
-0.055709001 0.14829551 -0.23158151
-0.055576336 0.148325 -0.23157935
-0.054842833 0.14829117 -0.23158234
-0.054677997 0.148279 -0.23154634
-0.054518998 0.14829099 -0.23158824
-0.054354999 0.148344 -0.23159701
-0.054138999 0.14832567 -0.23157799
-0.053915333 0.14831033 -0.23153584
-0.053722668 0.14830317 -0.23152132
-0.053533167 0.14829382 -0.23153166
-0.05330633 0.14828517 -0.23154132
-0.053075798 0.14828761 -0.23154759
-0.052960999 0.1483015 -0.2314855
-0.052619334 0.14832033 -0.23147601
-0.052302834 0.14830416 -0.23152433
-0.052131221 0.148295 -0.23150356
-0.051845003 0.14827667 -0.23143667
-0.051495001 0.14826199 -0.23141401
-0.051338803 0.1483144 -0.23142099
-0.051158 0.14832 -0.23143435
-0.032067902 0.14828129 -0.23149553
-0.057915781 0.148522 -0.23158322
-0.057719171 0.14850999 -0.2315855
-0.057589334 0.148507 -0.23154067
-0.057007998 0.14850999 -0.23157999
-0.056886002 0.14850201 -0.23157066
-0.056684252 0.1484935 -0.23156551
-0.056535333 0.14852268 -0.23157467
-0.056020498 0.148524 -0.23159599
-0.055904891 0.14848535 -0.23157634
-0.055702165 0.14848016 -0.23157234
-0.055570498 0.148509 -0.231557
-0.055298001 0.148535 -0.231589
-0.055096999 0.148596 -0.231599
-0.054873001 0.14851101 -0.23157765
-0.054711998 0.14850244 -0.23155257
-0.054488499 0.14849234 -0.23158084
-0.054314196 0.14850339 -0.23158979
-0.0541315 0.14850999 -0.231583
-0.053908497 0.14849375 -0.231525
-0.053705402 0.1485084 -0.2315226
-0.0535235 0.14851533 -0.23154801
-0.053297665 0.14850633 -0.23154251
-0.053063169 0.14849366 -0.23153
-0.052953836 0.14848533 -0.23148866
-0.052612498 0.148504 -0.2314665
-0.0522856 0.14851081 -0.23152161
-0.052123223 0.148517 -0.23149467
-0.051837001 0.148497 -0.231425
-0.051660001 0.148564 -0.23140299
-0.051520802 0.1485 -0.23142859
-0.0513492 0.1484936 -0.23143339
-0.051151998 0.1485045 -0.231417
-0.03208657 0.14852287 -0.23144801
-0.031996999 0.148508 -0.23153765
-0.057908833 0.14870633 -0.23157866
-0.057712499 0.14869376 -0.23157026
-0.057528596 0.14871021 -0.2315712
-0.057227001 0.148711 -0.23159568
-0.057032205 0.148682 -0.23158641
-0.056891002 0.1486951 -0.23156521
-0.056677833 0.1486785 -0.23155551
-0.056498334 0.148719 -0.23156233
-0.056350999 0.14874201 -0.23158801
-0.05601 0.148782 -0.23159701
-0.055896334 0.14870521 -0.23157433
-0.055693667 0.1487 -0.23157768
-0.055563334 0.148692 -0.23155801
-0.055291999 0.148683 -0.23158433
-0.055093497 0.148707 -0.23157901
-0.054866999 0.14869601 -0.231552
-0.054694373 0.14871389 -0.23152825
-0.054480165 0.14871399 -0.231573
-0.054297999 0.14870949 -0.23158234
-0.054125 0.14869501 -0.231571
-0.053901497 0.14867868 -0.23152117
-0.053716403 0.1486868 -0.2315286
-0.053516749 0.1487 -0.23154449
-0.053290501 0.14869125 -0.23154201
-0.053075142 0.14872728 -0.23152515
-0.052945334 0.148707 -0.23148532
-0.05260567 0.148689 -0.23145433
-0.052297197 0.14868779 -0.23151879
-0.052116498 0.14870115 -0.23148084
-0.051828336 0.148719 -0.23142068
-0.051651001 0.14878599 -0.231408
-0.051521331 0.14870684 -0.23143618
-0.051332336 0.14869933 -0.23143299
-0.051145002 0.14868933 -0.23141266
-0.032070998 0.14869675 -0.23141849
-0.031993002 0.148693 -0.231465
-0.058622003 0.14896201 -0.231593
-0.058536999 0.148996 -0.231594
-0.057901442 0.14889067 -0.23158132
-0.057707164 0.14887734 -0.23153551
-0.057539396 0.1488878 -0.23155621
-0.05726425 0.14889625 -0.23159349
-0.057080712 0.14892085 -0.23159386
-0.056910824 0.14890228 -0.23155208
-0.056688137 0.14890914 -0.23154214
-0.056475833 0.14889051 -0.23158248
-0.056346498 0.148853 -0.23158801
-0.056006499 0.148893 -0.23158899
-0.055888664 0.14889 -0.23158316
-0.055685166 0.14892201 -0.23157084
-0.055554003 0.14891468 -0.23157434
-0.055283666 0.14890499 -0.23158067
-0.055087 0.148855 -0.231594
-0.054858997 0.148881 -0.23157133
-0.054708857 0.14889443 -0.23154971
-0.054473002 0.14889824 -0.23156799
-0.054291248 0.14889351 -0.23157375
-0.054116666 0.14891632 -0.23156667
-0.053893168 0.14890017 -0.23151951
-0.053699836 0.148893 -0.23151501
-0.053509999 0.14888416 -0.23153484
-0.053371336 0.14887933 -0.23153865
-0.053096499 0.14890216 -0.23152302
-0.052932203 0.14891341 -0.23146839
-0.052597668 0.14891067 -0.23144901
-0.052281167 0.148894 -0.23149551
-0.052109882 0.14888465 -0.23147181
-0.051821001 0.148903 -0.23142549
-0.051646501 0.148895 -0.2314055
-0.051514499 0.14889126 -0.23142475
-0.051324502 0.14891984 -0.23141533
-0.051139001 0.148837 -0.23140199
-0.032062832 0.14888217 -0.23143585
-0.031985998 0.14887799 -0.231461
-0.058647003 0.14912333 -0.23159234
-0.058534 0.14906999 -0.231598
-0.057903804 0.1491193 -0.2315762
-0.057698172 0.14909817 -0.23154433
-0.057522502 0.149093 -0.2315615
-0.057257164 0.14908101 -0.23159485
-0.057098001 0.14909534 -0.23159333
-0.056927498 0.14909534 -0.23155417
-0.05670533 0.14912099 -0.23154646
-0.056466833 0.14911266 -0.23158734
-0.056273669 0.14915599 -0.23159033
-0.056024499 0.1490825 -0.23159149
-0.055902731 0.14908201 -0.2315817
-0.055678248 0.14910676 -0.23155901
-0.0555465 0.14909899 -0.23157001
-0.055273 0.14916199 -0.23159501
-0.05507667 0.14911233 -0.23159367
-0.054850668 0.14910167 -0.23155932
-0.054689888 0.14909267 -0.23153356
-0.054466501 0.14908217 -0.231564
-0.054284498 0.149078 -0.23156351
-0.054109499 0.14909899 -0.2315605
-0.053884834 0.14912033 -0.23150851
-0.053691667 0.149113 -0.231506
-0.053502336 0.14910416 -0.23151533
-0.053363334 0.14910001 -0.23152399
-0.053090334 0.14908555 -0.23150468
-0.052937001 0.14909001 -0.23146358
-0.052591503 0.149093 -0.23143101
-0.052273002 0.1491145 -0.23148434
-0.052101556 0.149106 -0.23146611
-0.051814336 0.149087 -0.23141034
-0.051463332 0.14907368 -0.23142333
-0.032053832 0.14910467 -0.23144369
-0.03196175 0.14911826 -0.23148951
-0.058680251 0.14927925 -0.23157926
-0.058523998 0.1493285 -0.23159301
-0.057886001 0.149296 -0.23157351
-0.057689492 0.14932033 -0.23154734
-0.057514835 0.14931484 -0.23154598
-0.057249665 0.14930217 -0.23157184
-0.057081442 0.14929134 -0.23158887
-0.056920666 0.14927989 -0.23154956
-0.05669817 0.14930566 -0.23154032
-0.0564605 0.14929551 -0.23157451
-0.056283504 0.14929099 -0.23159125
-0.056041669 0.14930765 -0.23159234
-0.055902671 0.14929534 -0.23157883
-0.05567183 0.14928932 -0.23154567
-0.055539999 0.14928199 -0.23156434
-0.055267498 0.14930999 -0.231585
-0.055070497 0.149296 -0.23157799
-0.054841999 0.149323 -0.231557
-0.054724336 0.14931701 -0.231535
-0.054504335 0.14930433 -0.23153687
-0.054276168 0.14929867 -0.23155732
-0.054102998 0.14928401 -0.23155034
-0.053878501 0.14930451 -0.23149499
-0.053685248 0.149297 -0.2314865
-0.053485204 0.1493102 -0.23150201
-0.053355336 0.14932168 -0.23151733
-0.053082779 0.14930701 -0.23148388
-0.052924167 0.149296 -0.23144816
-0.052584667 0.149278 -0.23141634
-0.052265503 0.1492995 -0.231484
-0.052094504 0.14929099 -0.23146249
-0.051809002 0.149235 -0.231401
-0.051455665 0.149295 -0.231408
-0.051355001 0.14929301 -0.231401
-0.032039668 0.14927799 -0.231427
-0.031938668 0.14932217 -0.23152234
-0.058670748 0.14951825 -0.23158899
-0.058537751 0.14953125 -0.23158249
-0.057906587 0.149481 -0.23156925
-0.057682753 0.14950299 -0.231536
-0.057507247 0.14949775 -0.23154651
-0.057285998 0.149525 -0.23156701
-0.057103839 0.14951399 -0.23158099
-0.056912109 0.1495 -0.23154789
-0.056717999 0.14947955 -0.23154043
-0.056538396 0.14949681 -0.23154981
-0.056035999 0.14945599 -0.231598
-0.055928007 0.14951757 -0.23155588
-0.055708222 0.14951223 -0.23153989
-0.055532333 0.14950401 -0.23154499
-0.055260997 0.14949401 -0.23157299
-0.055062998 0.149481 -0.23157565
-0.054835498 0.149507 -0.231552
-0.0547175 0.14950199 -0.23152751
-0.054484282 0.14950429 -0.23152457
-0.054269332 0.14952001 -0.23151833
-0.054095667 0.14950533 -0.23152433
-0.053871829 0.14948916 -0.23148316
-0.053679332 0.14948167 -0.23146568
-0.053498399 0.1494886 -0.23148859
-0.053349003 0.149506 -0.2314945
-0.053092003 0.14948501 -0.2314674
-0.052936625 0.1495285 -0.23143438
-0.052259337 0.14948365 -0.23146634
-0.052088004 0.14947456 -0.23144823
-0.032014664 0.14947432 -0.23143201
-0.031931002 0.149508 -0.23152976
-0.058730248 0.149707 -0.23158826
-0.058527399 0.149703 -0.23157939
-0.058035001 0.149783 -0.231599
-0.057898581 0.14970194 -0.23155932
-0.057675496 0.14968748 -0.23153751
-0.057499666 0.149683 -0.23155934
-0.057277501 0.14971 -0.231582
-0.057097126 0.14969887 -0.23157787
-0.056903556 0.14972168 -0.23154177
-0.056728829 0.14971299 -0.23154001
-0.056539502 0.1497045 -0.23155749
-0.0563282 0.14973 -0.23159619
-0.056049604 0.1496928 -0.23158541
-0.055921167 0.149702 -0.231547
-0.055701498 0.14969684 -0.23152769
-0.055524334 0.14972501 -0.23152967
-0.055253338 0.14971566 -0.23155166
-0.055055331 0.149703 -0.23156333
-0.054828662 0.149692 -0.23153667
-0.054710329 0.14968683 -0.23152868
-0.054536834 0.14967483 -0.2315075
-0.054308165 0.14970534 -0.231508
-0.054088 0.14969 -0.23152399
-0.053863671 0.14971034 -0.23147817
-0.053671662 0.14970233 -0.23144434
-0.053481668 0.14969383 -0.23146082
-0.053342 0.14969033 -0.23148365
-0.053107832 0.14967783 -0.23145801
-0.052937329 0.14970298 -0.2314245
-0.05225217 0.14970399 -0.23143484
-0.052080113 0.14969568 -0.23143466
-0.032005999 0.14969732 -0.23142767
-0.03192417 0.1496935 -0.23152433
-0.058876831 0.14989834 -0.23158586
-0.058723167 0.14989199 -0.23158467
-0.058504444 0.14987935 -0.23157334
-0.058314003 0.14991 -0.231584
-0.058109999 0.14993599 -0.23159951
-0.057916 0.14991511 -0.23155074
-0.057709556 0.149912 -0.23153822
-0.057491001 0.14990434 -0.23155652
-0.057271332 0.149894 -0.23157133
-0.057090085 0.14988267 -0.23157267
-0.056896504 0.14990532 -0.23153765
-0.056721751 0.1498965 -0.23153502
-0.056523003 0.14990941 -0.23153022
-0.056314502 0.14992926 -0.23157774
-0.056078449 0.14990088 -0.23158544
-0.055914111 0.14988543 -0.23154201
-0.055695109 0.14988011 -0.2315108
-0.055519499 0.14990699 -0.23147899
-0.055247501 0.14989799 -0.23153301
-0.055047333 0.149922 -0.23154967
-0.054821 0.14991167 -0.23152466
-0.054702997 0.1499065 -0.23150332
-0.054527834 0.14989518 -0.23152
-0.054299109 0.14988934 -0.2315418
-0.054080665 0.14987333 -0.23153366
-0.053916998 0.149896 -0.231474
-0.053696249 0.14991525 -0.2314505
-0.053473335 0.1499145 -0.23146315
-0.053333998 0.14991033 -0.23147933
-0.053099334 0.1498985 -0.23145366
-0.052937623 0.14987826 -0.23141749
-0.052245498 0.14988799 -0.23142949
-0.052094091 0.14992517 -0.23143964
-0.032001 0.149846 -0.231409
-0.031927999 0.14991672 -0.23149429
-0.058889501 0.15012774 -0.23157987
-0.058715165 0.15011184 -0.23156933
-0.058496337 0.15009923 -0.23156343
-0.058261167 0.15009034 -0.23158182
-0.05807789 0.15008023 -0.23158844
-0.057922859 0.15009271 -0.23155271
-0.057703 0.15009534 -0.23152633
-0.057475604 0.15010861 -0.2315356
-0.057263669 0.150114 -0.23155467
-0.057098299 0.15009691 -0.23157072
-0.056909002 0.15009746 -0.23154597
-0.05671433 0.1500805 -0.23153932
-0.056535799 0.150087 -0.23152681
-0.056296498 0.15010367 -0.2315795
-0.05606262 0.15011214 -0.2315805
-0.055906221 0.15010655 -0.23152924
-0.055712856 0.15009157 -0.23150358
-0.055546999 0.1501088 -0.23146883
-0.055239666 0.15008301 -0.231538
-0.055040501 0.150107 -0.23153549
-0.054814503 0.150096 -0.231499
-0.054687403 0.150112 -0.23148338
-0.054519329 0.15011682 -0.23151499
-0.054302003 0.15010224 -0.23153812
-0.05410425 0.15011625 -0.23152626
-0.053909998 0.15008099 -0.23147166
-0.053712428 0.15009485 -0.23146428
-0.0534655 0.1500995 -0.23147026
-0.053326502 0.150095 -0.23148
-0.053090837 0.1501205 -0.2314555
-0.052975997 0.150113 -0.23144032
-0.052284002 0.15007333 -0.23142201
-0.052096378 0.15010375 -0.23142762
-0.031910248 0.15010075 -0.23147801
-0.058890667 0.15030333 -0.2315625
-0.0587085 0.150296 -0.231558
-0.05848778 0.15032078 -0.23156402
-0.058243401 0.15029719 -0.2315872
-0.058069885 0.15030187 -0.23157889
-0.057908338 0.15029268 -0.23153776
-0.057696555 0.15027967 -0.23151344
-0.057486005 0.15028739 -0.23153338
-0.057255998 0.150299 -0.23155999
-0.057093248 0.15031675 -0.23156223
-0.05690825 0.1503125 -0.23154433
-0.05670616 0.1503015 -0.231529
-0.056517497 0.15029316 -0.23153599
-0.056315143 0.15027928 -0.23157643
-0.056100562 0.15029778 -0.23157845
-0.055899162 0.150291 -0.23152448
-0.055714797 0.1503084 -0.23149939
-0.055546831 0.15031634 -0.23148215
-0.055232 0.150305 -0.23151799
-0.055033669 0.15029167 -0.231528
-0.054807004 0.150281 -0.231507
-0.054697197 0.1502912 -0.2314842
-0.054512754 0.15030149 -0.23149925
-0.054329 0.15029749 -0.23151925
-0.054117002 0.1503062 -0.23151441
-0.053901669 0.15030167 -0.23146068
-0.0537045 0.15028538 -0.23145212
-0.053478997 0.150295 -0.23145485
-0.053320333 0.15027933 -0.23146634
-0.053084001 0.15030375 -0.2314475
-0.05297 0.150297 -0.23142999
-0.052276 0.15029366 -0.23140568
-0.0521021 0.15027289 -0.2314198
-0.031922624 0.15029712 -0.23146661
-0.059039 0.150574 -0.231589
-0.058903549 0.15049538 -0.23156346
-0.058701832 0.15047933 -0.23154835
-0.058523498 0.150506 -0.23152649
-0.058398001 0.150499 -0.23157251
-0.058086004 0.15051718 -0.23157801
-0.057900231 0.15051299 -0.23153043
-0.057698999 0.15049163 -0.23151039
-0.057488143 0.15050343 -0.23152301
-0.057249665 0.15048233 -0.231544
-0.057103999 0.15049544 -0.23155071
-0.056901753 0.15049712 -0.23153064
-0.05669817 0.1505225 -0.23151951
-0.056509506 0.15051417 -0.23152299
-0.056325663 0.15051167 -0.23156583
-0.056121334 0.15049568 -0.23156667
-0.055918504 0.15047775 -0.23153026
-0.055725198 0.1504858 -0.23150679
-0.055539504 0.1505 -0.23148474
-0.055223335 0.150525 -0.23152299
-0.055025999 0.150511 -0.23151501
-0.054802001 0.150427 -0.2315
-0.054710623 0.15050562 -0.23147574
-0.054506332 0.150484 -0.23148483
-0.054322168 0.15048033 -0.23150666
-0.054136403 0.15048419 -0.23150179
-0.05389433 0.15052199 -0.23144133
-0.053730335 0.15051599 -0.23143083
-0.053512249 0.150497 -0.23141626
-0.053334247 0.15051825 -0.23144776
-0.053077165 0.1504875 -0.23143966
-0.052963335 0.15048067 -0.23141567
-0.052267667 0.150515 -0.23140602
-0.052159749 0.15049401 -0.23141301
-0.031888999 0.15049461 -0.23148862
-0.059075993 0.15072401 -0.23158514
-0.058903337 0.15070985 -0.2315529
-0.0586945 0.15070017 -0.23152633
-0.058516335 0.15069084 -0.2315243
-0.058337498 0.15068284 -0.23157667
-0.058112871 0.15069149 -0.23157611
-0.057908434 0.15070343 -0.2315264
-0.0577152 0.15070859 -0.23149601
-0.057505555 0.15071434 -0.23151213
-0.057241332 0.150703 -0.23153599
-0.057087556 0.15069443 -0.2315411
-0.056895252 0.1506805 -0.23151481
-0.056691751 0.15070674 -0.23150748
-0.056503501 0.1506975 -0.2314975
-0.056319002 0.15069574 -0.231555
-0.056113224 0.15071645 -0.23155668
-0.055910576 0.15069875 -0.23151766
-0.055708829 0.150692 -0.23149617
-0.055531502 0.150685 -0.231498
-0.055216499 0.15070951 -0.23151401
-0.055019997 0.15069599 -0.23149699
-0.054712884 0.15071844 -0.23146054
-0.054498166 0.1507055 -0.23147617
-0.054313663 0.15070234 -0.23150599
-0.054115664 0.15068983 -0.23149835
-0.0538885 0.15070599 -0.231418
-0.053723998 0.15070075 -0.231418
-0.053525999 0.15067966 -0.23140366
-0.053349003 0.150722 -0.2314475
-0.053069334 0.15070917 -0.23142134
-0.052260499 0.1507 -0.23140499
-0.052118748 0.15071401 -0.231407
-0.031857997 0.15069351 -0.231512
-0.059413999 0.15096299 -0.23159599
-0.059239998 0.15092051 -0.231583
-0.05909843 0.15089557 -0.23157343
-0.058886334 0.15090632 -0.23153612
-0.05868734 0.15092066 -0.23149334
-0.058508169 0.15091135 -0.23151033
-0.058329999 0.15090366 -0.231553
-0.058111329 0.15089455 -0.2315571
-0.057913423 0.150883 -0.23152386
-0.057725001 0.1508868 -0.23150238
-0.057498168 0.15089834 -0.23150732
-0.057233665 0.150925 -0.23151799
-0.057079665 0.150916 -0.23152454
-0.056895629 0.15089573 -0.23149647
-0.056701425 0.15090229 -0.2314887
-0.056496337 0.15088266 -0.23149882
-0.056312505 0.15088016 -0.23154317
-0.056106329 0.15090117 -0.23155116
-0.055895552 0.15091254 -0.23150173
-0.055701498 0.150913 -0.23147583
-0.0555235 0.15090618 -0.23148932
-0.055209666 0.150894 -0.23150401
-0.055013001 0.15087999 -0.23148198
-0.054706667 0.15090233 -0.23144801
-0.054490671 0.15092599 -0.23145252
-0.054305669 0.15092283 -0.23148835
-0.054108337 0.15091066 -0.23147249
-0.053881001 0.15088966 -0.23141865
-0.053739503 0.15086675 -0.231408
-0.053486332 0.15087502 -0.23141165
-0.053342499 0.15090574 -0.231429
-0.053062499 0.1508925 -0.23141375
-0.052999001 0.15099899 -0.231406
-0.052165002 0.15081 -0.231408
-0.031851996 0.15087867 -0.23149133
-0.059409499 0.15107301 -0.23159501
-0.059233997 0.151103 -0.23156667
-0.059081778 0.15109311 -0.23155978
-0.058920443 0.15107846 -0.23152702
-0.058719829 0.151106 -0.23149234
-0.058501996 0.151095 -0.23149198
-0.058322832 0.15112366 -0.23152167
-0.05810333 0.151115 -0.2315449
-0.057905421 0.15110317 -0.23150916
-0.057708833 0.15109183 -0.23149599
-0.05749144 0.15108223 -0.23150222
-0.057227001 0.151108 -0.231511
-0.057072833 0.15109865 -0.23151799
-0.056902248 0.15111338 -0.23147763
-0.056715779 0.15111256 -0.23148364
-0.056489665 0.15110184 -0.23146351
-0.0563045 0.15109999 -0.23153234
-0.056099441 0.15108468 -0.23154423
-0.055904891 0.15109199 -0.23150113
-0.055694003 0.15109649 -0.2314795
-0.055506796 0.1511112 -0.2314868
-0.055202998 0.151077 -0.2314955
-0.055052999 0.151122 -0.23148623
-0.054699108 0.1510859 -0.23144691
-0.054484252 0.15111001 -0.23143899
-0.054299749 0.151106 -0.231464
-0.054086797 0.15111539 -0.23147841
-0.053873003 0.15111101 -0.23140533
-0.053700201 0.15109041 -0.23141059
-0.053478003 0.15109533 -0.231411
-0.053335998 0.15108967 -0.2314225
-0.053115334 0.15108 -0.23141201
-0.031842332 0.15110268 -0.23150833
-0.059225004 0.151325 -0.23157668
-0.059073225 0.15131487 -0.23155934
-0.058911886 0.15129977 -0.23152423
-0.058712885 0.15129077 -0.2314961
-0.058495 0.15127917 -0.23148768
-0.05831575 0.15130824 -0.23152199
-0.058096167 0.151299 -0.23154116
-0.057886798 0.1513094 -0.23150799
-0.057701334 0.15131317 -0.23146917
-0.057528496 0.15130484 -0.23145352
-0.057309166 0.1512955 -0.23148184
-0.057066116 0.15128322 -0.23150799
-0.056910146 0.15129271 -0.23147057
-0.056708831 0.15129717 -0.23147583
-0.056471206 0.15130861 -0.2314668
-0.056295831 0.15132199 -0.23153017
-0.05609078 0.15130588 -0.23154266
-0.055888172 0.151288 -0.23150082
-0.055686165 0.15128182 -0.23148783
-0.055518799 0.15128919 -0.23145981
-0.055194497 0.151299 -0.231484
-0.054995999 0.15132199 -0.23148167
-0.054691449 0.15130678 -0.23142923
-0.054477002 0.15129434 -0.231435
-0.054292995 0.151291 -0.23145567
-0.054106396 0.1512948 -0.23147258
-0.0538655 0.151296 -0.23140949
-0.053656999 0.151289 -0.231428
-0.053468999 0.15131734 -0.23141666
-0.053327005 0.15131134 -0.23142201
-0.053106997 0.15130199 -0.23140867
-0.052986003 0.15133201 -0.23140199
-0.0318355 0.151289 -0.231506
-0.059304997 0.1515125 -0.231585
-0.059066504 0.15149868 -0.23154867
-0.058897249 0.15151075 -0.23151563
-0.058703884 0.15151168 -0.23150134
-0.058485497 0.15150066 -0.23150735
-0.058308002 0.15149249 -0.23153667
-0.058089223 0.15148336 -0.23154068
-0.057900898 0.1514869 -0.23151179
-0.057695001 0.1514955 -0.23145701
-0.057520997 0.15152434 -0.23144035
-0.057301 0.15151517 -0.23147035
-0.05707543 0.15149443 -0.23149857
-0.056913372 0.15149938 -0.23147362
-0.056702554 0.15148023 -0.23145455
-0.056484394 0.1514854 -0.2314662
-0.056289252 0.15150601 -0.23151851
-0.056074247 0.15151688 -0.23153438
-0.055896599 0.15150228 -0.23149791
-0.055708125 0.1515125 -0.23147699
-0.055502336 0.15149416 -0.23145217
-0.055188 0.15148266 -0.23147766
-0.054989502 0.15150601 -0.231466
-0.054684833 0.15149133 -0.23141916
-0.054487713 0.15152644 -0.23142269
-0.05428483 0.15151183 -0.23145033
-0.054085832 0.15150066 -0.23146449
-0.053858001 0.15147968 -0.23141301
-0.053693835 0.151475 -0.23141533
-0.053511001 0.15146551 -0.231408
-0.053336006 0.15148401 -0.23141533
-0.053098332 0.15152334 -0.231408
-0.031826332 0.15147567 -0.23154666
-0.0592985 0.15169568 -0.23157217
-0.059077289 0.1516737 -0.23155098
-0.058924887 0.15169534 -0.23152667
-0.058697168 0.15169601 -0.23149334
-0.058477331 0.15172149 -0.23149385
-0.058299836 0.15171318 -0.2315225
-0.058080893 0.15170401 -0.23153366
-0.057882916 0.15169241 -0.23150091
-0.057686836 0.15168117 -0.23147565
-0.057512749 0.1517095 -0.23145375
-0.05729375 0.15170026 -0.2314795
-0.057072997 0.15171179 -0.231492
-0.056912255 0.15171476 -0.23147283
-0.056694005 0.15170188 -0.23145512
-0.056466665 0.1516915 -0.231461
-0.056283165 0.15168883 -0.23149735
-0.056086864 0.15169643 -0.23152144
-0.055892427 0.15170929 -0.23148072
-0.055711109 0.15172368 -0.231451
-0.055494666 0.151715 -0.2314335
-0.055179998 0.15170367 -0.23146766
-0.054983001 0.15168901 -0.23145233
-0.054718498 0.151678 -0.23141916
-0.054477334 0.15168834 -0.23141466
-0.054262999 0.15170699 -0.23142
-0.054065604 0.15170459 -0.23145261
-0.053849667 0.151701 -0.23140998
-0.053685497 0.151695 -0.23140883
-0.053329002 0.15167934 -0.231405
-0.053093001 0.15166999 -0.23140199
-0.031819001 0.15169834 -0.23151235
-0.031753 0.15173149 -0.23157299
-0.059307802 0.1519036 -0.23157699
-0.05909786 0.15191801 -0.23155643
-0.05891417 0.15189143 -0.23152769
-0.058689669 0.1518801 -0.23149988
-0.058470253 0.15190449 -0.23149225
-0.058293503 0.15189651 -0.23151149
-0.058063999 0.15191537 -0.2315235
-0.057900779 0.15191501 -0.23150355
-0.057717782 0.15190399 -0.23146456
-0.057505835 0.15189318 -0.23144932
-0.057331502 0.15186775 -0.23146975
-0.057113282 0.15189815 -0.23148629
-0.056905124 0.15189952 -0.2314745
-0.056685552 0.15192255 -0.23145358
-0.056458499 0.15191233 -0.23145366
-0.056274667 0.1519105 -0.23149216
-0.056078497 0.15188663 -0.23150389
-0.05591144 0.15189622 -0.23147543
-0.055704165 0.151908 -0.23144233
-0.055487499 0.15189999 -0.23143099
-0.055172 0.151925 -0.23145832
-0.054974001 0.15191101 -0.23145767
-0.054710332 0.15189949 -0.23141001
-0.054468665 0.15190984 -0.23141666
-0.054270834 0.15188016 -0.23143716
-0.054084402 0.15188441 -0.2314508
-0.053840999 0.151923 -0.23141301
-0.053676501 0.15191734 -0.23141634
-0.053492501 0.15194601 -0.23140249
-0.053312998 0.151916 -0.23141579
-0.0530825 0.15192901 -0.2314035
-0.03181133 0.15191968 -0.23149033
-0.059369497 0.152105 -0.231593
-0.059102569 0.15210815 -0.23155987
-0.058906082 0.15211217 -0.23152
-0.058704861 0.15209186 -0.23150171
-0.058497 0.15210001 -0.23148313
-0.058286503 0.15208049 -0.23150218
-0.058109201 0.1520882 -0.2315108
-0.057919629 0.15210013 -0.23150513
-0.057697859 0.15210316 -0.23147102
-0.057496667 0.1521145 -0.23145883
-0.057365332 0.152109 -0.23148768
-0.057106443 0.15209745 -0.23148935
-0.05689792 0.15208291 -0.2314759
-0.056694996 0.15209961 -0.23145202
-0.056500752 0.152099 -0.23143676
-0.056293406 0.15210301 -0.23149601
-0.056094673 0.15211983 -0.231517
-0.055912662 0.1521015 -0.23147391
-0.055697221 0.15209177 -0.23144323
-0.055480171 0.15208367 -0.23142965
-0.055164501 0.152109 -0.23146251
-0.0549675 0.152095 -0.2314465
-0.054700997 0.1521195 -0.23141669
-0.054501876 0.15209824 -0.23141949
-0.054280717 0.15211315 -0.231451
-0.054096252 0.15207475 -0.23145899
-0.053915001 0.15211424 -0.23143226
-0.053684335 0.152089 -0.23141366
-0.053439498 0.152091 -0.2314055
-0.053295832 0.15212233 -0.23141666
-0.053075332 0.15211333 -0.23140568
-0.031833753 0.152106 -0.23144199
-0.059362996 0.15228833 -0.23157632
-0.059116874 0.15228724 -0.23154825
-0.058889892 0.15230811 -0.23151602
-0.058714498 0.15232334 -0.231489
-0.058500443 0.15231177 -0.23147313
-0.058277503 0.15230249 -0.23151034
-0.058092669 0.15229534 -0.23152535
-0.057912752 0.15228467 -0.23150082
-0.057712998 0.15228313 -0.23147175
-0.057489496 0.15229949 -0.231461
-0.0573585 0.152293 -0.23147851
-0.057097562 0.1523191 -0.23149379
-0.056889337 0.15230425 -0.23147316
-0.05671167 0.1522925 -0.23145585
-0.056543168 0.15228517 -0.23142783
-0.05630533 0.15227823 -0.23147553
-0.05608825 0.15230274 -0.2315025
-0.055894297 0.15230641 -0.2314678
-0.055689111 0.15231279 -0.23143142
-0.055472001 0.15230452 -0.23142701
-0.055158 0.152292 -0.23144533
-0.054959998 0.152279 -0.23144734
-0.054707665 0.15229233 -0.23141032
-0.054543335 0.15228169 -0.23140867
-0.054288499 0.15231375 -0.23143849
-0.054120004 0.152316 -0.23144734
-0.053949997 0.15228274 -0.23143725
-0.053707998 0.15221301 -0.23141401
-0.053481001 0.15224001 -0.23140299
-0.053289 0.152307 -0.2314105
-0.031829499 0.152218 -0.23144299
-0.031772666 0.15234132 -0.23152633
-0.059355665 0.15250833 -0.23155434
-0.059099894 0.15249756 -0.23152934
-0.058898997 0.15248728 -0.23151202
-0.058707498 0.1525075 -0.23147652
-0.058493834 0.15249567 -0.23146416
-0.058269169 0.15252317 -0.23150401
-0.058084667 0.15251634 -0.23151334
-0.057904582 0.15250552 -0.23149185
-0.057695553 0.15249278 -0.23145345
-0.057482 0.15248318 -0.23146583
-0.057351332 0.15247732 -0.23147933
-0.057090502 0.15250401 -0.23148918
-0.056889374 0.15249825 -0.23146713
-0.056727499 0.15252362 -0.23143426
-0.056273717 0.15248759 -0.23144054
-0.056081831 0.15248717 -0.23147917
-0.055908997 0.1524858 -0.23146191
-0.055724498 0.1524975 -0.23142774
-0.055479165 0.15250149 -0.23142618
-0.055149332 0.152514 -0.23144166
-0.054951999 0.15250067 -0.23143633
-0.054729 0.15241601 -0.231406
-0.054564998 0.152481 -0.23140399
-0.054262668 0.152494 -0.23143399
-0.054141331 0.15251499 -0.23144533
-0.053983003 0.15248901 -0.23144099
-0.053272199 0.15250561 -0.23141238
-0.031844001 0.152591 -0.231405
-0.031760801 0.1525154 -0.23154899
-0.059349 0.15269201 -0.23153999
-0.059091885 0.15271832 -0.23151678
-0.058884084 0.15270108 -0.23149566
-0.058701504 0.15269066 -0.23146068
-0.058512427 0.15267028 -0.23145056
-0.05830783 0.15270917 -0.23148282
-0.058078751 0.15269926 -0.231491
-0.057886302 0.1527109 -0.2314804
-0.057687443 0.15271367 -0.23143856
-0.057474833 0.152703 -0.23143516
-0.057343334 0.152698 -0.23146667
-0.057083886 0.15268645 -0.23147744
-0.056909256 0.15268362 -0.231464
-0.056729004 0.15269884 -0.23142467
-0.0564765 0.152762 -0.231415
-0.056300752 0.1527105 -0.23144862
-0.056091286 0.1527207 -0.23147531
-0.055891085 0.15269008 -0.23144259
-0.055717502 0.15268101 -0.23141985
-0.055512499 0.15268475 -0.23142326
-0.055142999 0.152698 -0.2314285
-0.054943997 0.15272067 -0.23143132
-0.054663997 0.15275866 -0.23140566
-0.054309998 0.15267275 -0.2314195
-0.054150503 0.15268783 -0.23142184
-0.053975999 0.152674 -0.23144035
-0.053273167 0.15271266 -0.23141335
-0.031840999 0.15266401 -0.231401
-0.031759668 0.15271266 -0.23150265
-0.059753999 0.15297 -0.231599
-0.059341997 0.152877 -0.23153932
-0.059084997 0.15290183 -0.23150934
-0.058884997 0.15290566 -0.23149568
-0.058719002 0.15292187 -0.23145975
-0.058521997 0.15290184 -0.23144834
-0.058314249 0.15288399 -0.23146713
-0.058089573 0.15289529 -0.23148814
-0.057901002 0.1528888 -0.23147401
-0.057722002 0.1529 -0.23142424
-0.057500251 0.15291575 -0.23142236
-0.057335336 0.15291899 -0.23145068
-0.057086375 0.15289864 -0.23145214
-0.056905698 0.15290239 -0.23144269
-0.056722667 0.1528821 -0.23140955
-0.056536335 0.152898 -0.23140533
-0.056311667 0.15289199 -0.23144066
-0.056097712 0.15291043 -0.23146187
-0.055890087 0.15290536 -0.2314422
-0.055721857 0.15291372 -0.23141672
-0.055494249 0.152887 -0.23141737
-0.055135999 0.15288199 -0.23142798
-0.054936498 0.152905 -0.23142999
-0.054710001 0.1528945 -0.231406
-0.0542785 0.15287399 -0.2314295
-0.054141667 0.15290867 -0.23142366
-0.053967666 0.15289468 -0.23142999
-0.053281665 0.15288466 -0.23140633
-0.031829 0.152962 -0.231406
-0.031744331 0.1528825 -0.23145968
-0.059748996 0.15311633 -0.231575
-0.059333 0.15309767 -0.23154567
-0.059087623 0.1530775 -0.2315115
-0.058914497 0.15310013 -0.23149511
-0.058720831 0.15309767 -0.23146218
-0.0585052 0.15310819 -0.23144181
-0.058341999 0.15311484 -0.23146383
-0.058106884 0.15310611 -0.23148277
-0.057883162 0.1530935 -0.23145609
-0.057714999 0.15308399 -0.23141116
-0.057505202 0.153073 -0.2314162
-0.0573285 0.153102 -0.231445
-0.05710775 0.15309301 -0.231443
-0.056913916 0.15311693 -0.23142928
-0.056734748 0.15308625 -0.23140825
-0.056514002 0.15305799 -0.23140649
-0.056309801 0.1531032 -0.2314302
-0.056111749 0.15309125 -0.23146375
-0.055901501 0.15309916 -0.23147
-0.055731218 0.15312399 -0.23141867
-0.055572502 0.15315799 -0.23141399
-0.055126999 0.15310299 -0.231426
-0.05492967 0.15309 -0.23142867
-0.05418 0.15305901 -0.23140299
-0.053960666 0.153115 -0.23140667
-0.031826001 0.153037 -0.23141
-0.031740602 0.1531218 -0.2314734
-0.059743002 0.1533 -0.231556
-0.059326004 0.153318 -0.231511
-0.059107002 0.153311 -0.23151617
-0.058914419 0.15329409 -0.23148684
-0.058713999 0.153281 -0.231457
-0.058516599 0.153286 -0.23144379
-0.058334999 0.153299 -0.23145701
-0.058087289 0.15330656 -0.23148601
-0.057890702 0.1533083 -0.23145211
-0.057727426 0.15330569 -0.23141558
-0.057409 0.15329166 -0.23140498
-0.057321999 0.15328632 -0.23142733
-0.057101499 0.15327717 -0.2314295
-0.056932837 0.15330285 -0.23142266
-0.056302201 0.15329421 -0.2314274
-0.056093555 0.15330178 -0.23146813
-0.055894334 0.15328377 -0.23146611
-0.055723667 0.15330835 -0.23142867
-0.055535998 0.15331632 -0.23141332
-0.055388998 0.15333299 -0.23141301
-0.055118997 0.15332367 -0.231426
-0.054920662 0.15331133 -0.23142965
-0.054287001 0.153281 -0.231406
-0.054136001 0.153293 -0.23141
-0.053953499 0.1533 -0.231408
-0.03172525 0.15329549 -0.23151775
-0.059735499 0.153449 -0.23158801
-0.059317499 0.153503 -0.23153499
-0.059100252 0.15349451 -0.231509
-0.058906499 0.15351458 -0.23147
-0.058706112 0.15350233 -0.23144144
-0.058500167 0.15349101 -0.23142783
-0.058328498 0.15348282 -0.23144883
-0.05810263 0.15348525 -0.23148012
-0.057893831 0.15350015 -0.23145001
-0.057749003 0.15347867 -0.23140766
-0.057519332 0.15346633 -0.23140602
-0.057314664 0.153506 -0.231411
-0.05709317 0.15349784 -0.2314205
-0.056926105 0.15348667 -0.23141734
-0.056262001 0.15345401 -0.231401
-0.056075126 0.15351212 -0.23145512
-0.055886447 0.15350355 -0.23144978
-0.055725999 0.15348426 -0.23141626
-0.055473 0.153413 -0.23141199
-0.055383667 0.15348099 -0.23140766
-0.055111997 0.15350801 -0.23141399
-0.054916002 0.153458 -0.23141
-0.054258 0.153428 -0.231405
-0.054120999 0.1534615 -0.2314035
-0.053947501 0.153447 -0.2314035
-0.031812001 0.15340801 -0.231411
-0.031727001 0.15346499 -0.23148079
-0.059725668 0.15370665 -0.23158167
-0.059310336 0.15368833 -0.23154335
-0.059093338 0.15367849 -0.23150401
-0.058890998 0.15370968 -0.23145077
-0.05869811 0.15372235 -0.23142999
-0.058502 0.153697 -0.23141699
-0.058320668 0.153703 -0.23142785
-0.058095876 0.15368637 -0.231452
-0.057898503 0.1536921 -0.23144498
-0.0577855 0.153641 -0.231409
-0.0573075 0.15369099 -0.23141
-0.057086751 0.15368176 -0.231408
-0.056936499 0.15368466 -0.23140751
-0.056253001 0.153676 -0.23140766
-0.056107502 0.15368468 -0.231438
-0.055887371 0.15370674 -0.23144023
-0.055746499 0.1536395 -0.2314035
-0.055105001 0.15369301 -0.23141301
-0.031703196 0.15371859 -0.23150659
-0.059718497 0.15389 -0.23158151
-0.059303001 0.15390734 -0.23151334
-0.059085499 0.15389884 -0.23148532
-0.058899723 0.15388928 -0.23145626
-0.05869117 0.15390633 -0.23142366
-0.0585315 0.153898 -0.2314115
-0.058272 0.15391999 -0.23141833
-0.058118667 0.15391816 -0.23143534
-0.057907339 0.15390716 -0.23144299
-0.056908 0.15392999 -0.231411
-0.056240998 0.153972 -0.231406
-0.05611233 0.15389401 -0.23142065
-0.055919699 0.15387669 -0.23142989
-0.055096667 0.15391333 -0.23140432
-0.054896001 0.153973 -0.231405
-0.031714667 0.15387733 -0.23149067
-0.059806 0.15415899 -0.231599
-0.059711337 0.15407567 -0.23159134
-0.0592965 0.154092 -0.231507
-0.059077501 0.15411949 -0.23147349
-0.058884662 0.15410291 -0.23144735
-0.058686502 0.154017 -0.2314035
-0.058527999 0.154009 -0.231406
-0.0582655 0.15410399 -0.231408
-0.058096003 0.15411367 -0.23143233
-0.057897553 0.15410255 -0.23142788
-0.057024501 0.154121 -0.23140401
-0.056906 0.154001 -0.23140199
-0.056235667 0.15411933 -0.231405
-0.056103837 0.15411584 -0.23141535
-0.055911802 0.1540968 -0.23141149
-0.0550895 0.15409701 -0.231406
-0.054892 0.154085 -0.2314045
-0.031728331 0.15407634 -0.23146968
-0.059802502 0.15426999 -0.23158401
-0.059727497 0.15431699 -0.231565
-0.059288997 0.154276 -0.23150301
-0.059070751 0.154303 -0.23146275
-0.058885779 0.15430789 -0.2314402
-0.058726002 0.15432701 -0.23141019
-0.058257997 0.15428866 -0.23141401
-0.058105003 0.15428616 -0.23142582
-0.057915218 0.15428434 -0.23142523
-0.057020999 0.154232 -0.23140199
-0.056227997 0.154304 -0.23141301
-0.056096751 0.15430075 -0.23141374
-0.055922247 0.15431063 -0.23141074
-0.055083498 0.154246 -0.23141301
-0.031719998 0.1543 -0.23146634
-0.059736002 0.15450519 -0.23154721
-0.059280336 0.15449701 -0.23150432
-0.059063662 0.15448733 -0.23145966
-0.058904 0.15449557 -0.23143442
-0.0587915 0.154498 -0.23141
-0.058249 0.15451001 -0.23142166
-0.058096666 0.1545065 -0.23141967
-0.057914753 0.15448701 -0.23141351
-0.056222498 0.154451 -0.23141199
-0.056089833 0.15448315 -0.23140918
-0.055948664 0.15449299 -0.231407
-0.031733401 0.15450981 -0.23146459
-0.059855603 0.1546942 -0.2315938
-0.059748597 0.1546848 -0.23155001
-0.059273001 0.154717 -0.23147732
-0.059055168 0.154709 -0.23146017
-0.05888956 0.15469378 -0.23141867
-0.058785997 0.154645 -0.23140299
-0.0581365 0.15469401 -0.23140651
-0.056098666 0.15465699 -0.23140834
-0.0317045 0.154709 -0.23146001
-0.059847802 0.15488639 -0.23159261
-0.059731331 0.15488966 -0.23153567
-0.059266001 0.154901 -0.2314765
-0.059048999 0.15489125 -0.2314375
-0.058880668 0.15491554 -0.23142433
-0.055957001 0.15484001 -0.23140199
-0.031695668 0.15489633 -0.23148566
-0.059839003 0.15513721 -0.23157839
-0.0597235 0.15510933 -0.23151617
-0.059259336 0.15508433 -0.23146433
-0.0590645 0.1550585 -0.23143125
-0.058902144 0.15509699 -0.23141043
-0.031687334 0.15511966 -0.231474
-0.059836999 0.15530625 -0.23157224
-0.059706002 0.15531459 -0.23151021
-0.059250999 0.155306 -0.23145433
-0.059076335 0.15529932 -0.23143667
-0.058895729 0.15529209 -0.23140998
-0.031699333 0.15531801 -0.231445
-0.059829663 0.15549134 -0.23158117
-0.059718199 0.155495 -0.23152339
-0.059243668 0.15552567 -0.23143701
-0.059068333 0.15552001 -0.23143001
-0.058936667 0.15553634 -0.23141301
-0.031693399 0.1555098 -0.23149061
-0.059724625 0.15569425 -0.2315459
-0.0592365 0.15571049 -0.231433
-0.059061497 0.1557045 -0.231424
-0.058899999 0.15570872 -0.23141502
-0.058796 0.15579499 -0.23140199
-0.031690169 0.1557195 -0.23149867
-0.059835501 0.1559 -0.231599
-0.05971257 0.15590416 -0.23155615
-0.059229001 0.15589534 -0.23143934
-0.059055001 0.15588699 -0.231411
-0.058929794 0.1558648 -0.23140422
-0.058792502 0.15590601 -0.2314015
-0.031685501 0.15590274 -0.2314475
-0.059828669 0.15608467 -0.23159499
-0.059727624 0.15608324 -0.23155899
-0.059220333 0.15611634 -0.23144267
-0.059045669 0.15610901 -0.23141533
-0.058963001 0.156031 -0.23140199
-0.031680249 0.15605099 -0.23143899
-0.059820998 0.156304 -0.23157765
-0.059710331 0.15629379 -0.23153199
-0.0592135 0.15629999 -0.231428
-0.0590395 0.156293 -0.2314045
-0.059812665 0.15652567 -0.23156567
-0.059702449 0.156514 -0.23151933
-0.059206665 0.15648435 -0.23142433
-0.031635001 0.1564965 -0.23144799
-0.059870496 0.1567135 -0.23157325
-0.059684001 0.15671214 -0.23149644
-0.059202 0.15662999 -0.23140199
-0.0591975 0.1567415 -0.23141301
-0.059896499 0.156882 -0.2315805
-0.059718795 0.15690009 -0.231511
-0.059191503 0.1568895 -0.2314105
-0.059920002 0.157125 -0.23158102
-0.059718732 0.15709999 -0.23150119
-0.059597999 0.157167 -0.231437
-0.059913002 0.157308 -0.23157349
-0.059737835 0.15729468 -0.23151217
-0.059593003 0.15731268 -0.23141266
-0.031604499 0.15724349 -0.231474
-0.031598002 0.15736 -0.23152199
-0.059906665 0.157492 -0.23155665
-0.059730444 0.15747921 -0.23151334
-0.059585001 0.157497 -0.2314315
-0.0316495 0.157544 -0.231434
-0.031594332 0.15750533 -0.23148066
-0.059898332 0.15771365 -0.23154934
-0.05972233 0.15769988 -0.231502
-0.059578333 0.157682 -0.23142433
-0.031644002 0.15769151 -0.23142201
-0.0315855 0.157694 -0.2315135
-0.0598915 0.157897 -0.23153901
-0.059714779 0.15792009 -0.2314828
-0.05957 0.157904 -0.23142034
-0.031647749 0.15790026 -0.23144275
-0.031580999 0.157876 -0.23145001
-0.059884667 0.158081 -0.23153466
-0.059707668 0.15810467 -0.23147865
-0.059560668 0.15812533 -0.231427
-0.0316565 0.1580295 -0.23142299
-0.0600635 0.158354 -0.231598
-0.059875999 0.15830301 -0.23153566
-0.059700556 0.15828888 -0.23147255
-0.031622998 0.158252 -0.231405
-0.059867334 0.158525 -0.23153101
-0.059692442 0.15851 -0.23146632
-0.059546001 0.15853 -0.2314055
-0.060051333 0.15868533 -0.231582
-0.059860997 0.1587075 -0.231517
-0.059678715 0.15870813 -0.23144259
-0.059542 0.158641 -0.231408
-0.060213 0.158916 -0.23159701
-0.060043335 0.15890633 -0.23156734
-0.059854332 0.15889201 -0.23150466
-0.05968475 0.15888788 -0.23144762
-0.060206503 0.15910099 -0.23159499
-0.060036503 0.15909 -0.23155999
-0.059845332 0.159114 -0.23151167
-0.059670441 0.15909912 -0.23144099
-0.031590998 0.15907399 -0.23141301
-0.060201999 0.15921199 -0.23159599
-0.060096402 0.15929461 -0.23157899
-0.0598385 0.159299 -0.23150149
-0.059662335 0.15932065 -0.23143643
-0.060106169 0.15950049 -0.23156284
-0.059831996 0.159484 -0.23149867
-0.059654996 0.15950567 -0.231435
-0.060097665 0.159723 -0.23156083
-0.059823334 0.15970467 -0.231492
-0.059662718 0.15968028 -0.23142917
-0.059599999 0.159684 -0.23140199
-0.06009125 0.15990701 -0.23154724
-0.059815664 0.159925 -0.23147468
-0.059664499 0.15991318 -0.23142232
-0.060126998 0.16007599 -0.23155427
-0.059903499 0.16011651 -0.2314935
-0.059665997 0.16008534 -0.23141234
-0.060160335 0.16031867 -0.23155667
-0.059916604 0.16028699 -0.2314854
-0.059738502 0.16028699 -0.2314205
-0.060153998 0.160503 -0.231543
-0.059983999 0.160493 -0.231518
-0.059794996 0.160514 -0.231429
-0.031535 0.160493 -0.23141401
-0.060146332 0.16068767 -0.23154433
-0.059976999 0.16067833 -0.23151399
-0.059788 0.160698 -0.23142201
-0.060401 0.160999 -0.231594
-0.060320001 0.16092101 -0.2316
-0.060139 0.16090767 -0.23152368
-0.059969332 0.16089833 -0.23149133
-0.059782997 0.160844 -0.231406
-0.06035525 0.16110751 -0.2315855
-0.060131498 0.16109399 -0.231525
-0.059961002 0.16112 -0.23148501
-0.059771501 0.16113999 -0.23140199
-0.060450669 0.16129632 -0.23158999
-0.060348 0.16129267 -0.23158568
-0.060125664 0.16127634 -0.23150332
-0.059954502 0.161303 -0.231472
-0.060442001 0.16151901 -0.23158835
-0.060339663 0.16151418 -0.2315775
-0.060117003 0.161498 -0.23149733
-0.05994767 0.161487 -0.231465
-0.06046075 0.16170451 -0.2315845
-0.060333252 0.16169751 -0.23156126
-0.060109001 0.16171999 -0.23148932
-0.059940666 0.16170633 -0.23142566
-0.060454335 0.16188817 -0.2315715
-0.060327169 0.16188 -0.23153751
-0.060102999 0.1619035 -0.23147249
-0.059933998 0.16189 -0.2314145
-0.060447495 0.16210666 -0.23153716
-0.060319837 0.16210017 -0.23151501
-0.060096998 0.162085 -0.23144032
-0.060480714 0.16230144 -0.23155656
-0.060303599 0.16230682 -0.23150821
-0.060088664 0.16230699 -0.23143868
-0.060617667 0.162495 -0.23158501
-0.060485747 0.16248243 -0.23155357
-0.060313601 0.16248539 -0.2315048
-0.060082003 0.16249099 -0.2314285
-0.060608666 0.162719 -0.23159267
-0.060493905 0.162697 -0.2315412
-0.060323752 0.16270013 -0.23147738
-0.060077999 0.16260201 -0.23141301
-0.060621995 0.16291566 -0.23157369
-0.060489882 0.16291538 -0.23152049
-0.060325373 0.162901 -0.23144512
-0.060656 0.16308933 -0.23156933
-0.06055025 0.16308987 -0.23154061
-0.06066725 0.1633295 -0.23154925
-0.060536113 0.16329999 -0.23151633
-0.060323 0.163206 -0.23142301
-0.060805 0.163544 -0.23158
-0.06068125 0.1634955 -0.2315335
-0.060529113 0.16351944 -0.23148578
-0.060802002 0.163618 -0.231584
-0.060705248 0.16369323 -0.23154512
-0.060535401 0.1636942 -0.23144741
-0.060708337 0.16390532 -0.23152879
-0.060544498 0.16392326 -0.23142749
-0.060689427 0.16410485 -0.23151815
-0.060562 0.16411133 -0.23143201
-0.060703624 0.16428676 -0.23153225
-0.060556002 0.164294 -0.23140901
-0.060685225 0.16449866 -0.23152311
-0.060517203 0.1644948 -0.23142579
-0.060718253 0.1647055 -0.23153326
-0.060557861 0.16469471 -0.23143387
-0.060839001 0.16496301 -0.231583
-0.060696334 0.16491868 -0.23150533
-0.060562003 0.164892 -0.2314305
-0.060833003 0.16511233 -0.23158832
-0.060703833 0.16509299 -0.23151016
-0.06054328 0.16508628 -0.23142557
-0.060825497 0.165298 -0.23158801
-0.060694665 0.16531718 -0.23151617
-0.060535576 0.16528757 -0.23141871
-0.060818333 0.16548499 -0.23159067
-0.060687251 0.1655035 -0.23151949
-0.060549334 0.16547367 -0.23142666
-0.060680334 0.16568983 -0.23152049
-0.060526203 0.1657014 -0.2314316
-0.060802497 0.165895 -0.23159599
-0.060670834 0.16591416 -0.23153017
-0.060494006 0.16589954 -0.23147088
-0.060314879 0.16591024 -0.23142612
-0.060132001 0.165949 -0.231415
-0.060662501 0.16610374 -0.23155248
-0.060484339 0.16609134 -0.23151465
-0.060291499 0.16611309 -0.23148417
-0.060123336 0.16610499 -0.23147601
-0.059939999 0.166164 -0.231401
-0.060641333 0.16624235 -0.23157267
-0.060474556 0.16628391 -0.23156033
-0.060309332 0.16630682 -0.23153751
-0.060155001 0.16630176 -0.23153448
-0.059932332 0.166318 -0.23143299
-0.059760001 0.166382 -0.231406
-0.060463998 0.166437 -0.231594
-0.060283333 0.16647418 -0.23158501
-0.060147747 0.16645551 -0.23156825
-0.059925001 0.1665045 -0.23143649
-0.059753999 0.16649801 -0.23143101
-0.031244 0.166563 -0.231418
-0.0599145 0.16666549 -0.2315205
-0.059744332 0.16668934 -0.23147367
-0.031251665 0.16672766 -0.231498
-0.059732333 0.16692168 -0.231535
-0.031272572 0.16690244 -0.2315027
-0.0597235 0.16711301 -0.231573
-0.059536997 0.16712266 -0.23143233
-0.058043662 0.167147 -0.23141833
-0.031306777 0.16710868 -0.23149268
-0.05971567 0.16730134 -0.231584
-0.059528001 0.16731299 -0.231466
-0.059397999 0.167337 -0.231416
-0.058607001 0.167376 -0.23140199
-0.058473334 0.16734533 -0.23142166
-0.058321223 0.16730854 -0.23142201
-0.058101002 0.16728924 -0.23145811
-0.057886001 0.16731532 -0.23143469
-0.056091499 0.16729149 -0.2314205
-0.055906001 0.16739801 -0.231411
-0.05409367 0.16736899 -0.23142201
-0.031416498 0.1672945 -0.231435
-0.031313334 0.16730684 -0.23155399
-0.059518665 0.167504 -0.23149599
-0.059349999 0.16749486 -0.23143087
-0.058602497 0.16748801 -0.23141199
-0.058478251 0.16748801 -0.23145901
-0.0582969 0.1675005 -0.23148839
-0.058102719 0.16750315 -0.23152855
-0.057896249 0.16750738 -0.23148388
-0.057743669 0.16747867 -0.23141401
-0.056430001 0.16757201 -0.23141401
-0.056289118 0.16751656 -0.231429
-0.056101423 0.16747601 -0.23146744
-0.0559192 0.1675064 -0.2314446
-0.055799998 0.16754501 -0.231437
-0.054366 0.16755299 -0.231425
-0.054098748 0.167512 -0.23146351
-0.053978499 0.1674995 -0.23143101
-0.053798001 0.16759899 -0.231405
-0.031426251 0.167505 -0.23146226
-0.031340335 0.16745268 -0.23158832
-0.059509501 0.16769549 -0.23153999
-0.059340626 0.16771188 -0.23144887
-0.0587685 0.1677185 -0.23142999
-0.058509331 0.16768233 -0.23149602
-0.058307398 0.16769031 -0.23155169
-0.058110997 0.16767401 -0.23159599
-0.057886001 0.16770472 -0.23151429
-0.057690002 0.16772261 -0.2314506
-0.056483202 0.16770101 -0.23145099
-0.056288123 0.16768913 -0.23150326
-0.0560988 0.1677068 -0.2315422
-0.055938333 0.16770934 -0.2314955
-0.055730142 0.16770498 -0.23144042
-0.054357667 0.16770834 -0.23146766
-0.054088328 0.1677075 -0.23152865
-0.053924665 0.16768916 -0.23147468
-0.053761665 0.16772501 -0.23141634
-0.052177999 0.167751 -0.23140299
-0.03149775 0.16773552 -0.231471
-0.031396501 0.16768551 -0.23153
-0.059501998 0.16785049 -0.231576
-0.059323002 0.16790934 -0.23152532
-0.059178002 0.167889 -0.231473
-0.058756996 0.16791733 -0.23151033
-0.058513999 0.16787121 -0.23155801
-0.058284201 0.1678426 -0.2315834
-0.057899877 0.1678915 -0.23155661
-0.057671003 0.16789749 -0.2314775
-0.057486497 0.16796 -0.2314315
-0.0573585 0.16798651 -0.23140851
-0.056836501 0.167933 -0.23144099
-0.056752667 0.16788967 -0.23143534
-0.056488555 0.16789222 -0.23152855
-0.056306332 0.16784966 -0.23156667
-0.05613083 0.16786467 -0.23157133
-0.055928998 0.16790226 -0.23153751
-0.055684287 0.16790044 -0.23146243
-0.055481002 0.1679775 -0.23141301
-0.054345001 0.1679095 -0.23156601
-0.054077998 0.16790226 -0.231583
-0.053905595 0.16790381 -0.2315186
-0.053737503 0.1679045 -0.23145533
-0.053598002 0.167972 -0.231415
-0.052453998 0.167999 -0.231451
-0.052281335 0.16791579 -0.23146211
-0.052169997 0.16790533 -0.23144233
-0.031510498 0.1679125 -0.23151399
-0.03139 0.167804 -0.231574
-0.059297834 0.16807665 -0.23157282
-0.059168667 0.168082 -0.23151334
-0.058747001 0.16807701 -0.231589
-0.058573999 0.168 -0.23159499
