# .PCD v0.7 - Point Cloud Data file format
VERSION 0.7
FIELDS x y z
SIZE 4 4 4
TYPE F F F
COUNT 1 1 1
WIDTH 1377
HEIGHT 1
VIEWPOINT 0 0 0 1 0 0 0
POINTS 1377
DATA ascii
-0.15071715 0.088698506 -0.23376401
-0.15050109 0.088688426 -0.23374581
-0.15030114 0.088690996 -0.2337153
-0.15003699 0.088694997 -0.23367199
-0.14968567 0.088713832 -0.23364717
-0.14953618 0.088703841 -0.23362935
-0.14932914 0.088710137 -0.23361456
-0.149078 0.088753998 -0.23360801
-0.14343375 0.08867275 -0.23360725
-0.14331484 0.0886885 -0.23365934
-0.1431455 0.088687666 -0.23372667
-0.158921 0.088904999 -0.23378849
-0.15872785 0.088892572 -0.23373231
-0.1585595 0.088900998 -0.233695
-0.15830067 0.088916339 -0.23367834
-0.15807916 0.088911332 -0.23368584
-0.15790434 0.088903837 -0.23367183
-0.15768632 0.088892996 -0.23366134
-0.15751548 0.088880666 -0.23367067
-0.15709141 0.088912599 -0.23363261
-0.156875 0.088920169 -0.2336245
-0.1566986 0.088906802 -0.23361421
-0.15653899 0.088907123 -0.23363049
-0.15630846 0.088885888 -0.23363298
-0.156138 0.088881336 -0.23362701
-0.15568349 0.0889 -0.2336745
-0.15545972 0.088903718 -0.23370586
-0.15531515 0.088928573 -0.23374543
-0.15517801 0.088913329 -0.233723
-0.15468767 0.088891 -0.23377834
-0.154504 0.088883638 -0.23378409
-0.154273 0.08888559 -0.23378059
-0.1540855 0.088900499 -0.23378851
-0.15395251 0.088895999 -0.2337985
-0.15253399 0.088858999 -0.233799
-0.15212899 0.088839002 -0.233799
-0.151456 0.088911995 -0.23379549
-0.15070783 0.088916659 -0.23378032
-0.15049176 0.088906325 -0.233761
-0.15030585 0.088877857 -0.233723
-0.15009639 0.088893399 -0.23370261
-0.14967774 0.088896006 -0.23366301
-0.14949811 0.08891955 -0.23364823
-0.14931977 0.088906996 -0.23363233
-0.14911567 0.088900834 -0.23361051
-0.14897899 0.088965997 -0.233601
-0.1433014 0.0888886 -0.2336286
-0.14311843 0.088893287 -0.23371771
-0.1429975 0.088943005 -0.23377299
-0.15893616 0.089102335 -0.23377849
-0.15870911 0.089086674 -0.23371989
-0.15855168 0.089080997 -0.23370934
-0.1582935 0.089096002 -0.2336705
-0.15807216 0.089125335 -0.23366183
-0.15789683 0.089118838 -0.23365499
-0.15768825 0.089098498 -0.23363963
-0.15750851 0.089095503 -0.23364885
-0.15711899 0.089086995 -0.23362339
-0.15686674 0.089101493 -0.23364399
-0.15669583 0.08912266 -0.23361099
-0.15653723 0.089114547 -0.23363209
-0.15630056 0.089101002 -0.233623
-0.15612967 0.089096665 -0.23362599
-0.15567666 0.089080006 -0.23367333
-0.1554852 0.089085601 -0.23370242
-0.15532716 0.089099668 -0.23374666
-0.15516999 0.089094497 -0.233743
-0.15468 0.08907225 -0.23379025
-0.15447739 0.089080878 -0.23378164
-0.15425617 0.089089006 -0.23379152
-0.15407817 0.089081168 -0.23379135
-0.153752 0.089102 -0.2337945
-0.15070026 0.089096501 -0.2337905
-0.15047339 0.089107402 -0.23376238
-0.15031368 0.089107335 -0.23374499
-0.15010451 0.089097671 -0.23372035
-0.14970624 0.0890605 -0.23368326
-0.14951763 0.089103244 -0.23365977
-0.14931077 0.089124441 -0.23364012
-0.14910717 0.089117825 -0.23360951
-0.14894725 0.089128748 -0.23360899
-0.14326566 0.089117669 -0.23361401
-0.14313149 0.089117169 -0.23366301
-0.14299166 0.089122333 -0.23374601
-0.15910216 0.08932367 -0.2337835
-0.15893117 0.089313172 -0.2337095
-0.158702 0.08930099 -0.23369633
-0.15854466 0.089295663 -0.23368518
-0.15828735 0.089274667 -0.23365635
-0.158052 0.089289665 -0.23362935
-0.15789101 0.089296751 -0.23363
-0.15769114 0.08932329 -0.23362614
-0.15756476 0.089333005 -0.23362899
-0.157011 0.089247495 -0.2336165
-0.15685983 0.089281499 -0.23364116
-0.15667599 0.089290328 -0.23361599
-0.15654525 0.089276507 -0.23360625
-0.15629077 0.089318551 -0.23364265
-0.15612133 0.089313 -0.23361735
-0.15567 0.089291997 -0.23363368
-0.15547301 0.089286171 -0.23369299
-0.15532055 0.089278884 -0.23373668
-0.15516233 0.089276999 -0.23375566
-0.1546315 0.089359999 -0.233798
-0.15444134 0.089315169 -0.233787
-0.15424751 0.089305006 -0.23379402
-0.1540802 0.089283004 -0.23377839
-0.15374801 0.089211002 -0.233796
-0.15065324 0.089260995 -0.2337935
-0.15049654 0.089278989 -0.23377956
-0.15031886 0.089324005 -0.23374428
-0.15009598 0.089314006 -0.23372366
-0.14973301 0.089296997 -0.23369001
-0.14950992 0.089284159 -0.23366721
-0.14930484 0.089303337 -0.233622
-0.1490995 0.089298502 -0.23362075
-0.14890459 0.089311205 -0.2336174
-0.14876699 0.089350998 -0.23360249
-0.14307749 0.089292496 -0.23363
-0.142986 0.089301497 -0.2337245
-0.159311 0.089552 -0.233795
-0.159097 0.089500755 -0.23374125
-0.15891519 0.0895136 -0.23369201
-0.15869543 0.089514554 -0.23366144
-0.158538 0.089508332 -0.23364417
-0.158282 0.089451 -0.233615
-0.1580506 0.089495793 -0.2336202
-0.157865 0.089458503 -0.23361501
-0.15771501 0.08949133 -0.23361166
-0.15757251 0.089459494 -0.23361
-0.1571725 0.089469999 -0.233613
-0.15689901 0.089461505 -0.233621
-0.15664266 0.089480996 -0.23361899
-0.15653899 0.089485861 -0.233628
-0.1562455 0.089495748 -0.23361576
-0.156114 0.089492999 -0.23363
-0.15566033 0.089510672 -0.233661
-0.15546501 0.089502335 -0.23368932
-0.15531343 0.089493558 -0.23371212
-0.15515433 0.089492001 -0.23374867
-0.15466249 0.089506499 -0.23379651
-0.1544345 0.089495003 -0.2337855
-0.1506435 0.08951325 -0.23379076
-0.15048712 0.089496627 -0.23378389
-0.15033828 0.089492276 -0.23375715
-0.150089 0.089494996 -0.23372601
-0.14972399 0.089514665 -0.23370068
-0.14950107 0.089501344 -0.23367685
-0.14929679 0.089485444 -0.23363678
-0.14909182 0.089480169 -0.23363118
-0.14893374 0.089471251 -0.23361225
-0.14307 0.089473665 -0.23363034
-0.14297934 0.089480996 -0.23370732
-0.1427125 0.089507997 -0.233794
-0.159474 0.089744002 -0.23378551
-0.15930833 0.089693338 -0.23374332
-0.15909199 0.089677662 -0.2337025
-0.1589264 0.089686595 -0.23368959
-0.15867843 0.089708433 -0.23364171
-0.15854475 0.089704499 -0.23361275
-0.158273 0.089703001 -0.233603
-0.15785575 0.089691758 -0.23361124
-0.156635 0.089661002 -0.233624
-0.15651445 0.089690775 -0.23363431
-0.15630051 0.089694254 -0.23361124
-0.15615083 0.089674167 -0.23362434
-0.15565249 0.089691997 -0.2336815
-0.15545566 0.089719333 -0.233706
-0.155305 0.089709222 -0.23370989
-0.15514566 0.089708328 -0.23375134
-0.15469301 0.089688003 -0.233798
-0.15442067 0.089626998 -0.23378366
-0.15433601 0.089743003 -0.233781
-0.15052168 0.089707226 -0.233787
-0.15032057 0.089689225 -0.23377578
-0.15016633 0.089679003 -0.23373999
-0.14999567 0.089675002 -0.23374033
-0.1497165 0.0896945 -0.233703
-0.14949267 0.089717589 -0.23367226
-0.14928766 0.089702673 -0.23365277
-0.14908367 0.089696169 -0.23362315
-0.14890918 0.089702398 -0.23361941
-0.14306501 0.089617997 -0.23361801
-0.14297333 0.089694999 -0.23366232
-0.14270701 0.089685999 -0.23375867
-0.15961599 0.089933999 -0.233789
-0.15951225 0.089918002 -0.23375951
-0.15930299 0.089904003 -0.23367767
-0.15908651 0.089889325 -0.23364735
-0.15891249 0.089883335 -0.23363216
-0.15869151 0.089881122 -0.23362938
-0.1585505 0.089901 -0.233604
-0.15783 0.089835003 -0.233605
-0.15664999 0.089961328 -0.23360901
-0.15651388 0.089914761 -0.23361611
-0.1563198 0.089878395 -0.23361678
-0.15614249 0.08989016 -0.23361649
-0.155645 0.089872994 -0.23368232
-0.155449 0.089898504 -0.23369549
-0.1552971 0.089924559 -0.23369925
-0.155137 0.089924335 -0.23375167
-0.15465967 0.089901991 -0.233795
-0.15435199 0.089864671 -0.23379433
-0.15050849 0.089850999 -0.23379549
-0.15031154 0.089907005 -0.23378867
-0.15015633 0.089897335 -0.23376866
-0.14998634 0.089892328 -0.23375134
-0.149709 0.089875996 -0.23371132
-0.14948587 0.089898378 -0.23366813
-0.14927924 0.089919113 -0.23364878
-0.14907499 0.089912504 -0.23362784
-0.14894134 0.089905672 -0.23361933
-0.14874449 0.089929 -0.23360351
-0.142969 0.089837 -0.23363
-0.142701 0.089899667 -0.23370801
-0.159611 0.090077996 -0.23377599
-0.15951885 0.090092853 -0.23376045
-0.15929501 0.090119004 -0.23366833
-0.15907967 0.090102337 -0.2336138
-0.158922 0.090049334 -0.23360901
-0.158758 0.090015002 -0.233605
-0.15849499 0.090007998 -0.233601
-0.15667133 0.090082668 -0.23361033
-0.15649225 0.090112373 -0.23362425
-0.15632275 0.090107754 -0.233606
-0.15611351 0.090086997 -0.23360775
-0.15563701 0.090088002 -0.233675
-0.15544201 0.090079166 -0.2336935
-0.15529032 0.090104498 -0.23369068
-0.15513051 0.090103999 -0.23373351
-0.15460299 0.090115331 -0.23377432
-0.15450385 0.090122148 -0.23378257
-0.1543334 0.090119198 -0.23379199
-0.15408349 0.090129003 -0.233789
-0.150416 0.090135001 -0.233794
-0.15030323 0.090123333 -0.23378679
-0.15014833 0.090113662 -0.23375534
-0.14997868 0.090107329 -0.23373966
-0.149701 0.090092003 -0.23370333
-0.14950645 0.090080656 -0.23367476
-0.14932787 0.090084746 -0.23365614
-0.14909379 0.090102002 -0.2336324
-0.14893234 0.090123676 -0.23362666
-0.1487385 0.090072498 -0.233604
-0.14269499 0.090112329 -0.23366499
-0.142489 0.090113997 -0.23378932
-0.142389 0.090180002 -0.23379201
-0.1596472 0.090285599 -0.23379619
-0.15950412 0.090287551 -0.2337579
-0.159288 0.090298995 -0.23366749
-0.159116 0.090321004 -0.233612
-0.156865 0.090359002 -0.233603
-0.1567428 0.090267003 -0.23360482
-0.15652439 0.090284005 -0.233634
-0.15627675 0.090306751 -0.23360901
-0.15612619 0.090321839 -0.2336105
-0.15562867 0.090303995 -0.23367667
-0.15543367 0.090295501 -0.23369098
-0.15528244 0.090286106 -0.23371156
-0.15512367 0.090283997 -0.23373966
-0.154669 0.090298995 -0.23379299
-0.15449938 0.090313002 -0.2337755
-0.154292 0.090318672 -0.23379433
-0.15407634 0.090308994 -0.23379099
-0.15045121 0.090296395 -0.23378679
-0.15029667 0.090303667 -0.23377584
-0.15014151 0.090294003 -0.233753
-0.14997 0.09032467 -0.23373835
-0.14969333 0.090308003 -0.23369168
-0.14949678 0.090299003 -0.233695
-0.14933023 0.090283446 -0.2336579
-0.149104 0.090276226 -0.23364133
-0.1489265 0.090301998 -0.23361
-0.1426895 0.090291999 -0.2336325
-0.142483 0.090327002 -0.233743
-0.14235866 0.090319663 -0.2337725
-0.15949644 0.090501882 -0.23374221
-0.15928167 0.090478994 -0.233657
-0.156859 0.090505004 -0.23360634
-0.15648413 0.090482324 -0.23362401
-0.156249 0.090540998 -0.233606
-0.156077 0.090464003 -0.233603
-0.15561934 0.090522327 -0.23369201
-0.15543079 0.090495996 -0.23367801
-0.15529545 0.09050411 -0.2337181
-0.155137 0.090518497 -0.23373049
-0.154662 0.090480328 -0.23379232
-0.15449512 0.090482242 -0.23378676
-0.1543695 0.090503998 -0.2337805
-0.15410499 0.090511605 -0.23377261
-0.15045351 0.090499751 -0.233794
-0.1503005 0.090492502 -0.23377621
-0.15013434 0.090474337 -0.233751
-0.1499625 0.090507001 -0.23375499
-0.14968467 0.090523995 -0.23369099
-0.14948823 0.090516888 -0.23369657
-0.14932212 0.090500213 -0.23365232
-0.14909576 0.090493113 -0.23363455
-0.14889225 0.090502754 -0.2336345
-0.14268333 0.090472005 -0.23361699
-0.142479 0.090503499 -0.23368099
-0.142352 0.090500005 -0.23376276
-0.15949769 0.090711698 -0.23375061
-0.159275 0.090691335 -0.23361866
-0.156758 0.090788998 -0.233601
-0.15648213 0.090707757 -0.23362386
-0.15624301 0.090685003 -0.23361166
-0.156111 0.090717502 -0.233603
-0.15561199 0.090701506 -0.2336885
-0.15544251 0.090691999 -0.233677
-0.15533155 0.090721555 -0.23369844
-0.15515132 0.09071666 -0.23372416
-0.15465467 0.090695001 -0.23377366
-0.15448709 0.090695821 -0.23378199
-0.15429984 0.090679996 -0.233778
-0.154116 0.090686396 -0.233778
-0.15051414 0.090732999 -0.23379645
-0.15030982 0.090702921 -0.2337646
-0.150126 0.090691 -0.23374833
-0.14995568 0.090686329 -0.233741
-0.14967799 0.090705 -0.23368299
-0.14948185 0.090695836 -0.2336815
-0.14931411 0.090715885 -0.23364155
-0.14915276 0.090694249 -0.233641
-0.14888625 0.090681493 -0.2336165
-0.142472 0.09068533 -0.233684
-0.14234567 0.090680838 -0.23374867
-0.15949488 0.090884864 -0.23375857
-0.15926667 0.090907998 -0.23361899
-0.15675351 0.090897001 -0.23360601
-0.15647499 0.090839997 -0.233603
-0.15608224 0.090879247 -0.23361126
-0.155605 0.090882339 -0.23369066
-0.15543433 0.090873338 -0.233694
-0.15532567 0.090899497 -0.233674
-0.15514475 0.090896249 -0.23371325
-0.15464699 0.090843 -0.233796
-0.15447845 0.090881996 -0.23378189
-0.15435366 0.090900995 -0.233781
-0.15414299 0.090891004 -0.23378967
-0.15046501 0.090864494 -0.233797
-0.15029337 0.090913363 -0.23377401
-0.15011734 0.090909004 -0.23375434
-0.149948 0.090902001 -0.23372734
-0.149671 0.090885341 -0.23368101
-0.14947532 0.090875775 -0.23367077
-0.149299 0.090909585 -0.23362029
-0.14913766 0.09092734 -0.23361433
-0.148938 0.090933397 -0.2336144
-0.14246301 0.090903006 -0.23368935
-0.14231488 0.090905622 -0.23374799
-0.15948239 0.091087408 -0.23375961
-0.159261 0.091052003 -0.233611
-0.15674601 0.091077 -0.23360901
-0.156229 0.091044001 -0.233602
-0.15609249 0.091185495 -0.2336075
-0.15551151 0.091094337 -0.233688
-0.1553188 0.091079555 -0.2336731
-0.15513749 0.091076672 -0.23371667
-0.15463799 0.091093495 -0.233788
-0.154498 0.091197997 -0.23379099
-0.15437134 0.091118835 -0.2337815
-0.15408967 0.091106497 -0.23379481
-0.150454 0.091153994 -0.2337935
-0.15033486 0.091088429 -0.23376872
-0.15014419 0.091112196 -0.2337496
-0.14994033 0.091118 -0.233716
-0.149662 0.091101669 -0.23368435
-0.1494671 0.091092214 -0.23366833
-0.14930825 0.091084875 -0.23361912
-0.14913976 0.091071501 -0.23360901
-0.142454 0.091122001 -0.23369932
-0.1423001 0.091112889 -0.23373887
-0.15949015 0.09129592 -0.23374474
-0.1560895 0.091259494 -0.23360649
-0.15550415 0.091308497 -0.23366167
-0.15531088 0.091294885 -0.23365943
-0.15513 0.091292165 -0.23369665
-0.154633 0.091270328 -0.23374666
-0.15451716 0.09129367 -0.23378067
-0.154313 0.091320001 -0.23377602
-0.15408184 0.091321498 -0.23378016
-0.15366299 0.091375001 -0.233788
-0.15069567 0.091300003 -0.23377334
-0.15046936 0.091308244 -0.23379061
-0.15032078 0.091281779 -0.23374242
-0.1501554 0.0912854 -0.23373839
-0.1499335 0.091298498 -0.23371601
-0.14965399 0.091319002 -0.23367868
-0.14945933 0.091307782 -0.23364867
-0.14929222 0.091292776 -0.23362565
-0.14915267 0.091289334 -0.23361601
-0.14244649 0.091304004 -0.233706
-0.14229266 0.091294669 -0.23374183
-0.15966266 0.091574669 -0.23376267
-0.15948433 0.091507167 -0.23368776
-0.156452 0.091417998 -0.23360699
-0.15547961 0.091509402 -0.23365422
-0.15530312 0.091511115 -0.23364669
-0.15512267 0.091506504 -0.23367535
-0.15462567 0.091485001 -0.23372667
-0.1544919 0.09148322 -0.23376022
-0.15431963 0.091485374 -0.23376548
-0.15407574 0.091500998 -0.23376501
-0.15365799 0.091520667 -0.23378968
-0.15350699 0.091441996 -0.23379999
-0.1517505 0.091536999 -0.233799
-0.15133633 0.091501661 -0.233799
-0.15068766 0.091515996 -0.23375733
-0.1504699 0.091513783 -0.23375933
-0.15031333 0.091497451 -0.23372377
-0.1501395 0.091486163 -0.23372549
-0.14992632 0.091479667 -0.23371601
-0.1496475 0.091499001 -0.23366901
-0.1494738 0.091510594 -0.233639
-0.14932762 0.091485746 -0.23362251
-0.1491465 0.091468997 -0.233604
-0.14243966 0.091484003 -0.23370133
-0.14228523 0.091476664 -0.23374923
-0.15981001 0.091752 -0.23378199
-0.15967751 0.0917015 -0.23370048
-0.15952151 0.091696329 -0.23362499
-0.15550779 0.091683201 -0.23364219
-0.155287 0.091718249 -0.23365662
-0.15511467 0.091722339 -0.23366849
-0.154617 0.091702998 -0.23373099
-0.15448344 0.091699876 -0.23376065
-0.15432827 0.091683134 -0.23375858
-0.15410063 0.091691501 -0.23376338
-0.153651 0.091701001 -0.23378101
-0.1513458 0.091723397 -0.23378558
-0.150681 0.091696002 -0.233749
-0.15046316 0.091693498 -0.23374766
-0.150305 0.091714218 -0.23372534
-0.15013184 0.091701835 -0.23370968
-0.14991899 0.091695003 -0.23369099
-0.14964168 0.091677666 -0.23364599
-0.14947739 0.0916842 -0.23363099
-0.14939201 0.091697998 -0.2336175
-0.14243199 0.091700338 -0.23368566
-0.14227812 0.091692001 -0.23372523
-0.1598255 0.091913246 -0.23375475
-0.1596832 0.091864392 -0.23365979
-0.15954751 0.091899499 -0.23360899
-0.155571 0.091848999 -0.233612
-0.15532771 0.091887698 -0.23363249
-0.1551075 0.091902748 -0.23366824
-0.15460901 0.091918327 -0.23371632
-0.15447566 0.091915779 -0.23374833
-0.15434317 0.091907829 -0.23371667
-0.15410367 0.091899328 -0.23375922
-0.1538868 0.091908403 -0.2337878
-0.15364332 0.091882326 -0.23379
-0.153327 0.091961503 -0.23376399
-0.152007 0.091945998 -0.233797
-0.15130599 0.091908336 -0.2337715
-0.15067565 0.091874331 -0.23372066
-0.15046276 0.091866992 -0.23375851
-0.15030378 0.091921113 -0.23369966
-0.15012433 0.091916829 -0.23368949
-0.149912 0.091908671 -0.23366366
-0.14963435 0.091892667 -0.23362768
-0.14946516 0.091884829 -0.23362149
-0.14938533 0.091877669 -0.23361067
-0.142428 0.091874495 -0.233624
-0.14227089 0.09190689 -0.23369524
-0.15989417 0.092117168 -0.23376481
-0.15972601 0.092120327 -0.23365335
-0.155558 0.092174999 -0.233611
-0.15530775 0.092089176 -0.23363715
-0.15510251 0.092079163 -0.23362868
-0.15460199 0.092098504 -0.233715
-0.154469 0.092094995 -0.23373835
-0.15433516 0.092123337 -0.23370983
-0.15409565 0.092114553 -0.23374544
-0.15387134 0.092108667 -0.23376699
-0.15363534 0.092097662 -0.23378134
-0.1533215 0.092105001 -0.23376051
-0.15295 0.092139997 -0.233797
-0.152669 0.092196003 -0.233798
-0.1520465 0.092092007 -0.23379199
-0.151999 0.092162997 -0.23379
-0.15169241 0.092090599 -0.23378019
-0.1515276 0.092084393 -0.2337912
-0.15131077 0.092109777 -0.23376979
-0.15119749 0.092155002 -0.233781
-0.15066867 0.092087328 -0.23368567
-0.15047516 0.092092164 -0.23373467
-0.15032932 0.092088804 -0.23367329
-0.15011875 0.092094496 -0.23365524
-0.149904 0.092124008 -0.23365267
-0.14962751 0.092073001 -0.233619
-0.14945281 0.092086002 -0.2336088
-0.1424195 0.092092499 -0.233624
-0.14226271 0.092105426 -0.23371372
-0.14219999 0.092196003 -0.233729
-0.15991449 0.092298508 -0.23377499
-0.15970211 0.092311673 -0.2336479
-0.15555599 0.092244998 -0.23360901
-0.15527876 0.092287004 -0.23362555
-0.15509467 0.09229482 -0.23361801
-0.15449607 0.092275083 -0.23371534
-0.15432926 0.092302002 -0.23368376
-0.15408982 0.09229333 -0.23372267
-0.15388313 0.092333995 -0.23373999
-0.15362833 0.092312001 -0.23375468
-0.15347399 0.092307001 -0.23378067
-0.15331334 0.092287995 -0.233779
-0.153116 0.092321999 -0.2337755
-0.1529025 0.092278831 -0.23376299
-0.15275399 0.092344999 -0.23379201
-0.15250701 0.092331998 -0.23379099
-0.15228476 0.092336997 -0.23378925
-0.15208299 0.092308998 -0.23377401
-0.15190443 0.092312433 -0.23378015
-0.15167651 0.092291333 -0.23375918
-0.15148577 0.092282444 -0.23377545
-0.15133214 0.092291854 -0.23375544
-0.15119199 0.092298999 -0.23377201
-0.15065967 0.092306338 -0.23370235
-0.15046783 0.09230683 -0.23371249
-0.15031092 0.09229058 -0.23367511
-0.1501115 0.092275672 -0.23366149
-0.14989699 0.092305496 -0.23364601
-0.14241099 0.092276998 -0.23365234
-0.14229061 0.092286199 -0.2336926
-0.14219549 0.092304997 -0.2337375
-0.15986601 0.092442997 -0.233781
-0.15971141 0.092491001 -0.23371038
-0.159491 0.092524 -0.233647
-0.159371 0.092577003 -0.23362499
-0.1552045 0.092480004 -0.233632
-0.1551125 0.092513002 -0.23362367
-0.15449764 0.092481725 -0.23367856
-0.15433429 0.09249115 -0.23366998
-0.15412818 0.092473499 -0.23369832
-0.15390384 0.092501499 -0.23370714
-0.153622 0.09252467 -0.23371233
-0.15346633 0.092522331 -0.23376
-0.15330599 0.092502661 -0.23376133
-0.15311 0.092500001 -0.23374833
-0.15289383 0.092496164 -0.233769
-0.15271202 0.092501201 -0.2337838
-0.15252981 0.092491798 -0.23378661
-0.152317 0.092501 -0.23377225
-0.15207534 0.092524 -0.233757
-0.151897 0.092517003 -0.23375876
-0.1516685 0.092507333 -0.23375018
-0.15147887 0.092496328 -0.23374555
-0.15131845 0.092485219 -0.23372978
-0.151187 0.092476003 -0.23373432
-0.15065201 0.092522003 -0.23368664
-0.15046017 0.092522331 -0.23369749
-0.15030375 0.092505001 -0.23365043
-0.15010349 0.09249267 -0.23365416
-0.149891 0.092482664 -0.23361933
-0.14260501 0.092464 -0.23361801
-0.142501 0.092501 -0.23367101
-0.14230587 0.092503369 -0.23372774
-0.14218751 0.092454001 -0.233771
-0.15970799 0.092666999 -0.23378299
-0.15950356 0.092691995 -0.2337109
-0.159365 0.092687994 -0.23366001
-0.15913534 0.092754334 -0.23363435
-0.15514798 0.092680663 -0.233612
-0.15450338 0.09269312 -0.23363975
-0.15434255 0.09269622 -0.23364788
-0.1541215 0.092685826 -0.23365633
-0.15389811 0.092680231 -0.23368332
-0.153616 0.092703998 -0.23369399
-0.15346149 0.0926985 -0.23371899
-0.1533 0.092713334 -0.23370568
-0.15310134 0.092716664 -0.23374599
-0.15288584 0.092711993 -0.23375767
-0.15269616 0.092701338 -0.23376136
-0.15253 0.092692338 -0.23376466
-0.15231016 0.092680506 -0.23376267
-0.15206951 0.092703499 -0.23373601
-0.15187988 0.092719875 -0.23371662
-0.1516615 0.092721492 -0.23372383
-0.15147077 0.092712551 -0.23373535
-0.15131044 0.092700668 -0.23371512
-0.151179 0.092691995 -0.23372434
-0.15064549 0.092701003 -0.23367301
-0.15045375 0.092702001 -0.2336815
-0.15028919 0.092712812 -0.23363146
-0.15009598 0.092707664 -0.2336355
-0.14259301 0.092722334 -0.23365568
-0.14231463 0.092709251 -0.23376974
-0.15947101 0.092847146 -0.23376773
-0.15935333 0.092877328 -0.233751
-0.15908021 0.092912003 -0.2336942
-0.15888017 0.092912503 -0.23365735
-0.1587064 0.092918597 -0.23363359
-0.15849216 0.092932165 -0.23363066
-0.15837801 0.092963003 -0.233622
-0.155119 0.092799999 -0.23360699
-0.15449543 0.092916571 -0.23361287
-0.15433487 0.092911333 -0.23363024
-0.1541135 0.092901342 -0.233648
-0.15390301 0.092884131 -0.23364151
-0.15365599 0.092905 -0.233696
-0.15345567 0.092876665 -0.23369367
-0.15329349 0.092894003 -0.233693
-0.15309751 0.092893004 -0.23368999
-0.15287019 0.092912391 -0.23373981
-0.15268916 0.092915498 -0.23373117
-0.15252249 0.092907496 -0.23374633
-0.1523025 0.092895836 -0.23374568
-0.15206333 0.092882998 -0.233721
-0.1519392 0.092886999 -0.2336804
-0.15170218 0.092901997 -0.23370419
-0.15145573 0.092907004 -0.23372228
-0.15130311 0.092915341 -0.23369543
-0.15117167 0.092907004 -0.23370068
-0.15063833 0.092881329 -0.23366733
-0.15044816 0.092878997 -0.23365051
-0.15029198 0.092897005 -0.23362735
-0.15008833 0.092922002 -0.23361401
-0.142584 0.092906997 -0.233688
-0.15909001 0.093040004 -0.23374799
-0.1588946 0.093109801 -0.233744
-0.15867421 0.0931122 -0.2337058
-0.15848401 0.093113557 -0.23364902
-0.158372 0.093109667 -0.23363799
-0.1544836 0.093089603 -0.23361859
-0.15432756 0.093106292 -0.23362327
-0.15410583 0.093116842 -0.23363368
-0.15392751 0.09311083 -0.23364134
-0.15371761 0.093088999 -0.23366141
-0.153486 0.093110502 -0.23366824
-0.15328734 0.09307266 -0.23367965
-0.15309 0.093073666 -0.23369665
-0.1528808 0.093086198 -0.2337366
-0.15268324 0.093093745 -0.23370874
-0.15251499 0.093122505 -0.23372369
-0.1522955 0.093109839 -0.23371868
-0.15205534 0.093098998 -0.233712
-0.15192184 0.093090661 -0.23369282
-0.15170687 0.093075007 -0.23371035
-0.15149024 0.093081996 -0.233705
-0.15131058 0.093102716 -0.23369884
-0.15116434 0.093122005 -0.23367667
-0.15063101 0.093097001 -0.23365299
-0.1504405 0.093094833 -0.23363833
-0.15033433 0.093086831 -0.23362733
-0.150097 0.093091004 -0.23360634
-0.14257401 0.093094669 -0.23374866
-0.15881801 0.093249999 -0.233786
-0.15867701 0.093275003 -0.23374376
-0.15847649 0.093295 -0.23365684
-0.158363 0.093327008 -0.23364766
-0.154441 0.093258001 -0.23361175
-0.15437435 0.093273006 -0.23362635
-0.15409951 0.093296245 -0.23362051
-0.15392001 0.093325995 -0.233622
-0.15378599 0.093323998 -0.233642
-0.15351784 0.093309499 -0.23364516
-0.15327966 0.093287326 -0.23365867
-0.153083 0.093287669 -0.233669
-0.15286566 0.09328533 -0.23370701
-0.15267684 0.093273997 -0.23369783
-0.15250875 0.093301497 -0.2337065
-0.1522738 0.093309 -0.23369178
-0.15204833 0.093312658 -0.23368101
-0.15191384 0.093305998 -0.23368134
-0.15173399 0.093300335 -0.233689
-0.15151767 0.093290552 -0.23368168
-0.15131634 0.093276165 -0.23367156
-0.1511575 0.093301997 -0.233669
-0.15062301 0.093312331 -0.23363566
-0.15043266 0.093309999 -0.23361985
-0.15033999 0.093286499 -0.233621
-0.150121 0.093212001 -0.233602
-0.142563 0.09331733 -0.233795
-0.15861601 0.093454495 -0.233768
-0.1584678 0.093478777 -0.2336909
-0.158355 0.093510501 -0.23366749
-0.15444925 0.093456 -0.2336055
-0.154368 0.093451999 -0.2336095
-0.15391301 0.093506753 -0.23362352
-0.15377951 0.093502 -0.233634
-0.15351017 0.093523838 -0.23362583
-0.153275 0.093464501 -0.233621
-0.15307634 0.093501329 -0.23363499
-0.15285867 0.093499832 -0.23367935
-0.15267049 0.093486004 -0.23365481
-0.15250367 0.093479 -0.2336715
-0.152298 0.093483195 -0.23367861
-0.15204133 0.09352567 -0.233649
-0.15190667 0.093520828 -0.23365317
-0.1517265 0.093515165 -0.23366566
-0.15151034 0.093505114 -0.23365957
-0.15130992 0.093489826 -0.23363493
-0.15115267 0.093478672 -0.23363434
-0.150619 0.093454003 -0.233613
-0.150456 0.093491003 -0.23360801
-0.15848181 0.093686797 -0.2337418
-0.15837151 0.093693666 -0.233697
-0.153863 0.093612 -0.233606
-0.15377332 0.093681999 -0.23361433
-0.153427 0.093700498 -0.233619
-0.153069 0.093682006 -0.233639
-0.15283175 0.093691498 -0.23362724
-0.15266366 0.093699999 -0.23362468
-0.15249699 0.093691833 -0.23363166
-0.15229221 0.093668602 -0.23364881
-0.15209033 0.093718 -0.23362267
-0.151886 0.093686998 -0.23363435
-0.15172124 0.09369275 -0.23363474
-0.15149413 0.093709379 -0.23362762
-0.15130739 0.093698308 -0.23361728
-0.151144 0.093695998 -0.23362899
-0.14284466 0.093729667 -0.23365234
-0.158446 0.093851 -0.233796
-0.1583595 0.093917839 -0.23376317
-0.158106 0.093955003 -0.23360699
-0.15342399 0.093805999 -0.233602
-0.15280351 0.093887001 -0.233605
-0.15267301 0.093868338 -0.23360901
-0.15248966 0.093907326 -0.23361534
-0.15234466 0.093901001 -0.23362499
-0.152032 0.093811996 -0.233604
-0.151851 0.093805 -0.233629
-0.15176101 0.093876004 -0.23364067
-0.151492 0.093863003 -0.23360699
-0.15132201 0.093850002 -0.233603
-0.143075 0.093973003 -0.233614
-0.14289767 0.093903996 -0.23368533
-0.15832549 0.094100997 -0.23379099
-0.15809834 0.094103336 -0.23365133
-0.157923 0.094168998 -0.23360699
-0.152339 0.094044998 -0.233623
-0.15184399 0.094020002 -0.233604
-0.151756 0.094020002 -0.233624
-0.1430956 0.094135806 -0.2336292
-0.14294378 0.094110802 -0.23370521
-0.14279599 0.094061002 -0.233798
-0.158372 0.094212003 -0.233795
-0.15808834 0.094324 -0.23368067
-0.15791734 0.094313659 -0.23361033
-0.143095 0.094305746 -0.23365
-0.14292476 0.094276249 -0.23375751
-0.158081 0.094504997 -0.23368499
-0.157864 0.09449175 -0.233612
-0.143099 0.094501719 -0.23367973
-0.14296466 0.094498336 -0.23376833
-0.15807134 0.094691001 -0.233733
-0.15785566 0.094675995 -0.23364401
-0.143268 0.094732426 -0.23362073
-0.1431071 0.094713107 -0.23370345
-0.142958 0.094646998 -0.233795
-0.15806301 0.094908334 -0.233732
-0.15785681 0.094878599 -0.23364079
-0.15779901 0.094962001 -0.233633
-0.14327514 0.094904289 -0.23365484
-0.14309916 0.094896495 -0.233716
-0.15805401 0.095126331 -0.23373866
-0.15788333 0.095114328 -0.233666
-0.15774916 0.095103331 -0.23362799
-0.14328565 0.095078178 -0.23367327
-0.14312063 0.095083371 -0.23374251
-0.15804601 0.095307998 -0.233751
-0.15787551 0.095297001 -0.2336815
-0.1577318 0.095306799 -0.23364401
-0.143444 0.095323749 -0.23362026
-0.14329344 0.09530744 -0.23370276
-0.14316733 0.095306002 -0.23374815
-0.158039 0.095457003 -0.23379
-0.157867 0.095480002 -0.23370034
-0.15771884 0.095493495 -0.23365933
-0.1434848 0.095499605 -0.23364219
-0.14328401 0.09549433 -0.23374467
-0.14316733 0.095479004 -0.23377199
-0.15785633 0.095702998 -0.23374832
-0.15770586 0.09567856 -0.233685
-0.15751816 0.09570083 -0.23363149
-0.143692 0.095752999 -0.23360699
-0.14349467 0.095679 -0.23367244
-0.14328237 0.095671505 -0.23377088
-0.143178 0.095601998 -0.233787
-0.15784566 0.095924325 -0.23378067
-0.1577125 0.095912166 -0.23373532
-0.15749511 0.095896333 -0.23365556
-0.15732634 0.095928669 -0.23361166
-0.143685 0.095899008 -0.23362134
-0.14352934 0.095901839 -0.23368733
-0.14336601 0.095886007 -0.23374601
-0.15768966 0.096083336 -0.23376299
-0.15751961 0.096107006 -0.23370579
-0.15733866 0.096104555 -0.23365667
-0.15718 0.096157998 -0.23360801
-0.1437088 0.096136197 -0.23364238
-0.1435205 0.096088246 -0.23372099
-0.143387 0.096051998 -0.23378
-0.157654 0.096205004 -0.23378301
-0.15753081 0.096286803 -0.233744
-0.15732099 0.096305713 -0.23370472
-0.15717299 0.096307337 -0.23364533
-0.156902 0.096363999 -0.23363
-0.15626 0.096329004 -0.233603
-0.14384 0.096308 -0.23362499
-0.14370775 0.096311249 -0.233695
-0.1435208 0.096262395 -0.2337704
-0.157487 0.096473247 -0.23377626
-0.15732649 0.096486136 -0.23373362
-0.15716299 0.096495003 -0.233695
-0.156895 0.096511334 -0.23364834
-0.15667434 0.09650249 -0.2336285
-0.15650232 0.096542001 -0.23362066
-0.156305 0.096552335 -0.23361166
-0.144006 0.096530497 -0.233632
-0.14387816 0.096496664 -0.23366149
-0.14370681 0.096485198 -0.23374982
-0.157455 0.096638002 -0.233795
-0.15730338 0.096688628 -0.23376237
-0.15715499 0.096678674 -0.233715
-0.15688699 0.096694499 -0.233659
-0.15666451 0.096690252 -0.23368451
-0.15647818 0.096715838 -0.23367067
-0.15629619 0.096704558 -0.23367476
-0.1561043 0.096707858 -0.23362686
-0.14411239 0.096733801 -0.2336338
-0.14392243 0.096701428 -0.23371212
-0.14373299 0.096648999 -0.23377299
-0.157144 0.096903332 -0.23376334
-0.156877 0.096882999 -0.23371534
-0.15666661 0.096862204 -0.23371401
-0.156495 0.096913196 -0.23372059
-0.15628718 0.096890993 -0.23371215
-0.15610556 0.09690015 -0.23366798
-0.15596734 0.096948661 -0.23362601
-0.1443325 0.096921504 -0.23366001
-0.144113 0.096910499 -0.23369473
-0.1439198 0.096860602 -0.23376
-0.156867 0.097073004 -0.23377299
-0.1566985 0.097062498 -0.23375
-0.15649313 0.097084001 -0.23375964
-0.15627788 0.097077779 -0.23375243
-0.1561145 0.097096503 -0.23370224
-0.15596674 0.097138502 -0.23363949
-0.14457367 0.097108334 -0.233633
-0.14432268 0.097110666 -0.23371732
-0.144115 0.097084798 -0.2337352
-0.143979 0.097026996 -0.23379301
-0.15608001 0.097265005 -0.23375276
-0.1559108 0.097311005 -0.2336634
-0.144565 0.097294495 -0.23366299
-0.14431299 0.097267002 -0.23379
-0.14414901 0.097254999 -0.23377299
-0.15604566 0.097497337 -0.23374234
-0.15589736 0.097477376 -0.23367226
-0.155797 0.097553998 -0.233648
-0.14474 0.097515494 -0.23364601
-0.144554 0.097487003 -0.23373432
-0.15603535 0.097719669 -0.23377533
-0.15591817 0.097712338 -0.23372699
-0.15579034 0.097701997 -0.23367633
-0.14484724 0.097719744 -0.23365225
-0.144729 0.097709 -0.23372699
-0.144547 0.097635999 -0.233762
-0.15589499 0.097887337 -0.23376267
-0.155781 0.097888999 -0.233713
-0.155331 0.097964004 -0.233614
-0.144859 0.097891502 -0.233704
-0.15586001 0.098010004 -0.233785
-0.155773 0.098040998 -0.233759
-0.155324 0.098114669 -0.23365366
-0.1551224 0.098128401 -0.23361841
-0.154909 0.098159999 -0.23360901
-0.154266 0.098129004 -0.23360851
-0.15415651 0.098162502 -0.23360601
-0.14509042 0.098139197 -0.23364659
-0.1449133 0.098071285 -0.23372343
-0.155314 0.098302998 -0.233704
-0.15508664 0.09831062 -0.23365276
-0.154897 0.098309107 -0.23364213
-0.15429367 0.09828034 -0.23363444
-0.15415558 0.098289594 -0.23363701
-0.14549133 0.098366342 -0.23361801
-0.14509726 0.098272756 -0.23371826
-0.14493366 0.098260008 -0.23376532
-0.15530433 0.098490335 -0.23374367
-0.15509029 0.098495141 -0.2337127
-0.15488701 0.098498665 -0.23369616
-0.15428288 0.098504223 -0.2336731
-0.15411456 0.098495103 -0.23365754
-0.1456285 0.0985085 -0.23362499
-0.14549676 0.098511502 -0.233693
-0.15506342 0.098656602 -0.23377399
-0.15491951 0.098653749 -0.233759
-0.15479366 0.098687001 -0.23375899
-0.15427183 0.098696329 -0.23374867
-0.15409556 0.098702714 -0.23373044
-0.1538865 0.098700494 -0.23364599
-0.153753 0.098765001 -0.23362
-0.145887 0.098770998 -0.233603
-0.1456625 0.098701 -0.233687
-0.14550234 0.098655671 -0.23376198
-0.15429801 0.098812498 -0.2337895
-0.15406726 0.0988755 -0.233778
-0.15387575 0.098892249 -0.23371249
-0.1537084 0.098927595 -0.2336504
-0.153566 0.098975003 -0.233612
-0.14588 0.098855004 -0.233669
-0.145697 0.098862 -0.23377299
-0.15384549 0.099063002 -0.23376499
-0.1536895 0.09910325 -0.23371075
-0.15355951 0.099090993 -0.233658
-0.153367 0.099149004 -0.23361801
-0.15366566 0.099244334 -0.23376632
-0.15354699 0.099287994 -0.23375066
-0.15328175 0.099298492 -0.23367351
-0.15304449 0.099342495 -0.23362699
-0.15284599 0.099377997 -0.233624
-0.153347 0.099464506 -0.23378
-0.15312979 0.0994948 -0.2337378
-0.15284 0.099495001 -0.2336695
-0.15266949 0.0994865 -0.23363599
-0.15254021 0.0995306 -0.2336438
-0.15231037 0.099511117 -0.23362713
-0.152124 0.099527001 -0.233615
-0.153027 0.099619001 -0.233761
-0.15283 0.099652998 -0.233753
-0.152658 0.099682331 -0.23372601
-0.15251926 0.099710248 -0.23372351
-0.15229948 0.0996935 -0.23369102
-0.15211549 0.099682495 -0.233679
-0.15196501 0.099706002 -0.233651
-0.15179799 0.099766999 -0.23361699
-0.1468555 0.0997665 -0.23362401
-0.14668626 0.099694252 -0.2336835
-0.15246101 0.099826999 -0.233786
-0.152271 0.099832751 -0.23377225
-0.152105 0.099840999 -0.23376
-0.1519535 0.099900499 -0.23373049
-0.15173049 0.099940501 -0.23364682
-0.15152401 0.099974997 -0.233611
-0.148086 0.099969 -0.233624
-0.14708601 0.099891998 -0.233652
-0.14689875 0.099870503 -0.23371124
-0.151948 0.100016 -0.23376399
-0.1516915 0.10008925 -0.23371525
-0.15149519 0.1001006 -0.23367378
-0.15128599 0.1001555 -0.2336455
-0.15112633 0.10017901 -0.23363133
-0.149924 0.100195 -0.233612
-0.148491 0.1001385 -0.23361349
-0.14830199 0.10013001 -0.23363301
-0.1481335 0.1000875 -0.233667
-0.15148175 0.10023101 -0.2337375
-0.15126167 0.10030367 -0.23374534
-0.15109262 0.10029725 -0.23369625
-0.15092501 0.100281 -0.23365501
-0.1503475 0.10033 -0.23365399
-0.15009378 0.10030656 -0.23366046
-0.14990966 0.10031249 -0.23366517
-0.14975399 0.1003045 -0.233656
-0.1495845 0.1002965 -0.23364
-0.149304 0.100322 -0.23363601
-0.14909342 0.100347 -0.2336752
-0.14893466 0.10034534 -0.23368584
-0.14870813 0.10030643 -0.23369898
-0.14848149 0.10026075 -0.233698
-0.14830901 0.10023666 -0.23369767
-0.14817899 0.100211 -0.233742
-0.151058 0.10041567 -0.23376568
-0.150913 0.10044525 -0.23376425
-0.15033799 0.100454 -0.23374701
-0.15011834 0.100458 -0.23378201
-0.1499 0.10043833 -0.23376866
-0.149745 0.100426 -0.233742
-0.14957249 0.100462 -0.23375401
-0.1492935 0.100447 -0.23374
-0.149152 0.100404 -0.233724
-0.14895451 0.100474 -0.23379499
-0.151664 0.083175004 -0.233587
-0.151842 0.083330996 -0.23357999
-0.15168388 0.083338127 -0.23358363
-0.15155333 0.083310999 -0.233582
-0.152858 0.083596997 -0.23359901
-0.15260367 0.083508998 -0.23356032
-0.15228601 0.08354333 -0.23358233
-0.15212199 0.083525002 -0.2335785
-0.151898 0.083486617 -0.23355526
-0.15170576 0.083500005 -0.23354249
-0.151546 0.083525002 -0.23355299
-0.150683 0.083563 -0.233594
-0.1528545 0.083705001 -0.23359051
-0.1525286 0.083736196 -0.23355779
-0.15229633 0.083710998 -0.23354281
-0.15211684 0.083703004 -0.23354001
-0.15190154 0.083692893 -0.23351914
-0.15170142 0.08367759 -0.2334861
-0.15154049 0.083704002 -0.23352399
-0.151003 0.0836825 -0.233585
-0.15091899 0.083790496 -0.233567
-0.15069367 0.083732337 -0.23359199
-0.15300301 0.083930001 -0.2335895
-0.15288401 0.083886169 -0.23357482
-0.15274034 0.083878338 -0.23355867
-0.1525065 0.08390075 -0.23354149
-0.15228982 0.083924673 -0.23350249
-0.15211032 0.083916999 -0.23350149
-0.15189511 0.083906896 -0.2334799
-0.15169434 0.083891414 -0.23345608
-0.15153433 0.083882667 -0.23351066
-0.1509155 0.083895996 -0.233551
-0.15068661 0.083908297 -0.23356369
-0.15053239 0.083925202 -0.23357721
-0.150313 0.083938494 -0.23358876
-0.149947 0.083958998 -0.23359101
-0.15327251 0.084162995 -0.233592
-0.153137 0.084116668 -0.23358284
-0.15291646 0.084103115 -0.23356421
-0.152732 0.084092677 -0.23355567
-0.15250115 0.084078163 -0.23350866
-0.152284 0.084103495 -0.2334795
-0.15210399 0.084095493 -0.23348601
-0.15188745 0.084121332 -0.23345923
-0.151686 0.084107168 -0.23345266
-0.15152767 0.084095992 -0.23346533
-0.15090835 0.084075995 -0.23355033
-0.15070072 0.084082901 -0.23356159
-0.15051866 0.084123336 -0.23354183
-0.15030684 0.08411783 -0.23356999
-0.14994134 0.084102668 -0.23358633
-0.14970641 0.084104598 -0.2335752
-0.1495045 0.084150001 -0.23359749
-0.15326649 0.084306002 -0.233592
-0.1531198 0.084316194 -0.23356399
-0.15290789 0.084318891 -0.23356676
-0.15272398 0.084307998 -0.23354368
-0.15249284 0.084293664 -0.23350483
-0.15227699 0.084282666 -0.23347783
-0.15209784 0.084275 -0.23346698
-0.15188117 0.084300838 -0.23344965
-0.15168734 0.08430656 -0.23344377
-0.15155101 0.084329203 -0.2334578
-0.15090083 0.084291495 -0.23353051
-0.1506836 0.084282339 -0.23353867
-0.15050974 0.08430475 -0.2335715
-0.1503005 0.08429575 -0.23355675
-0.14993434 0.084316999 -0.23355466
-0.14971076 0.084304996 -0.23354419
-0.14951333 0.084293 -0.23357667
-0.149252 0.084321998 -0.233592
-0.153262 0.084412999 -0.233594
-0.1531336 0.08448939 -0.23355961
-0.15290134 0.084497996 -0.23355484
-0.15271567 0.084523328 -0.23354535
-0.15250179 0.084495798 -0.23350041
-0.15228686 0.084510565 -0.23348799
-0.152089 0.084490664 -0.23347418
-0.15187344 0.084481113 -0.23346022
-0.15170443 0.084489152 -0.23345943
-0.15155199 0.0844955 -0.23346549
-0.15089317 0.084506661 -0.23351665
-0.15069249 0.084491804 -0.2335068
-0.15052864 0.08449325 -0.23352087
-0.15029533 0.084475003 -0.23351817
-0.149929 0.084495001 -0.233513
-0.1497039 0.084519587 -0.23351616
-0.149496 0.084507443 -0.23354977
-0.1492798 0.084518209 -0.23358479
-0.1491525 0.084534004 -0.23360001
-0.14885467 0.084478326 -0.233594
-0.148278 0.084557995 -0.23359549
-0.14819551 0.084559001 -0.23359799
-0.14763899 0.084535338 -0.23357467
-0.15361901 0.084706001 -0.23358899
-0.153423 0.084704995 -0.23359533
-0.15325101 0.084701665 -0.23359466
-0.15311567 0.084690005 -0.23355401
-0.15289466 0.08467789 -0.233548
-0.1527085 0.084702998 -0.233542
-0.15256 0.084692001 -0.2335085
-0.15230466 0.084715776 -0.23347913
-0.15207949 0.084707171 -0.2334965
-0.15189967 0.084698997 -0.23346932
-0.15171392 0.084687166 -0.23349567
-0.15154584 0.084674336 -0.23344983
-0.150885 0.08472117 -0.23351102
-0.15069477 0.084714442 -0.233492
-0.15053079 0.084697999 -0.23346822
-0.15030539 0.084675401 -0.233493
-0.15019999 0.084760003 -0.233501
-0.14992367 0.084673338 -0.23348367
-0.14969724 0.084699124 -0.23350085
-0.14948998 0.084721118 -0.23350289
-0.14928199 0.08471933 -0.23355584
-0.14909701 0.084710993 -0.23357083
-0.14891051 0.084697492 -0.23356283
-0.14873019 0.084700599 -0.2335778
-0.14831699 0.084703006 -0.23358299
-0.1481905 0.084702499 -0.23359551
-0.14767601 0.084706165 -0.23357601
-0.14752559 0.084708199 -0.23357899
-0.15361249 0.084886 -0.233584
-0.15341432 0.084920667 -0.23359434
-0.15324 0.084988996 -0.233597
-0.15310816 0.084905326 -0.23353668
-0.15288654 0.084893443 -0.23354299
-0.15270166 0.084883004 -0.23354132
-0.15255301 0.084872335 -0.23350699
-0.152298 0.084895998 -0.233482
-0.15207101 0.084923498 -0.23349966
-0.15188967 0.084916331 -0.23350149
-0.15170525 0.084903002 -0.23349892
-0.15153533 0.084891826 -0.23348634
-0.15095949 0.084899999 -0.233494
-0.15070701 0.084906332 -0.23347253
-0.15052146 0.084914327 -0.23348647
-0.15036534 0.084906667 -0.23348065
-0.15019633 0.084901668 -0.233456
-0.14991634 0.084887661 -0.233463
-0.14969084 0.084879003 -0.23349369
-0.1494835 0.084900998 -0.23349048
-0.14927675 0.084897004 -0.23351851
-0.1490808 0.084910199 -0.23353419
-0.14890434 0.084910996 -0.23351617
-0.14873584 0.084899999 -0.23352249
-0.1483115 0.084880173 -0.23354566
-0.14818567 0.084879994 -0.233548
-0.14766699 0.084912375 -0.23355699
-0.14751284 0.084907673 -0.23354702
-0.14739799 0.084980004 -0.233577
-0.1534085 0.085099995 -0.233574
-0.1532355 0.085096002 -0.233592
-0.15309916 0.085121669 -0.23355167
-0.15288837 0.085099496 -0.23353462
-0.1527205 0.085117504 -0.23353
-0.15254401 0.085087664 -0.23351668
-0.15231527 0.085067853 -0.23351042
-0.15210849 0.085104339 -0.23350616
-0.1518738 0.085116401 -0.23348999
-0.15169634 0.085118987 -0.23350759
-0.15152666 0.085107833 -0.23349249
-0.15095268 0.085079998 -0.23349066
-0.1507151 0.085082732 -0.23349601
-0.15050471 0.08510872 -0.23347029
-0.15035866 0.085121334 -0.23344533
-0.15018733 0.085117005 -0.23346765
-0.14990734 0.085104324 -0.233474
-0.1496982 0.085089207 -0.23351809
-0.1495094 0.0850811 -0.2334704
-0.14929013 0.085086286 -0.2334763
-0.1490944 0.085083604 -0.23352881
-0.14889915 0.085123666 -0.23344715
-0.14872833 0.08511433 -0.23349784
-0.14830551 0.085094668 -0.23349251
-0.14817834 0.085094668 -0.23351766
-0.14769933 0.085078336 -0.23351783
-0.14751814 0.085125722 -0.233542
-0.14733087 0.085130714 -0.23356272
-0.15360001 0.085210003 -0.233585
-0.15349901 0.085280746 -0.23358025
-0.15327126 0.085295007 -0.23358099
-0.15309075 0.085302502 -0.2335785
-0.152899 0.085311994 -0.2335542
-0.152739 0.085317843 -0.23354614
-0.15253599 0.085303001 -0.23350365
-0.15232633 0.085294493 -0.23350434
-0.15210101 0.085284218 -0.23351079
-0.1518838 0.085290201 -0.23349759
-0.15168938 0.085298747 -0.2335055
-0.1515108 0.085308991 -0.2335
-0.15094334 0.085296005 -0.23350935
-0.15069942 0.085291751 -0.23350014
-0.15051761 0.085282125 -0.23345062
-0.15035 0.085301995 -0.23348299
-0.15017951 0.085297003 -0.2334885
-0.14989901 0.085320003 -0.23346734
-0.14970143 0.085312761 -0.23350045
-0.14953512 0.085296892 -0.23346502
-0.14930667 0.085292667 -0.233483
-0.149078 0.085283168 -0.23350185
-0.14889225 0.085303247 -0.23344375
-0.14870998 0.085315399 -0.2334934
-0.14829816 0.08530917 -0.23347318
-0.14817099 0.085310005 -0.23349667
-0.14770067 0.085282333 -0.23351182
-0.14753871 0.08529257 -0.23354144
-0.14729916 0.085298829 -0.233567
-0.147017 0.085330002 -0.233583
-0.154094 0.085534997 -0.233588
-0.15374801 0.085552 -0.23358649
-0.15358834 0.085497998 -0.23358865
-0.15330715 0.08549317 -0.23357399
-0.15308316 0.0854825 -0.23358834
-0.1529092 0.0854856 -0.2335614
-0.15273175 0.085496746 -0.23354475
-0.15252733 0.085518993 -0.23351967
-0.15231666 0.085511833 -0.23352982
-0.15211858 0.085491858 -0.23352814
-0.151899 0.085502997 -0.23353
-0.15168175 0.085478835 -0.23352091
-0.15151839 0.085483596 -0.23352298
-0.150934 0.085513003 -0.23352967
-0.15069051 0.085508078 -0.23350877
-0.15050022 0.085488774 -0.23346098
-0.150342 0.085482001 -0.23349667
-0.150172 0.085476995 -0.23349465
-0.149891 0.085501 -0.23349601
-0.14968824 0.08551725 -0.23347437
-0.1495261 0.085512996 -0.23346943
-0.14929843 0.085508436 -0.23347844
-0.14907001 0.085498504 -0.23348667
-0.14888433 0.085484169 -0.23346235
-0.14872579 0.0854882 -0.2334708
-0.14829017 0.085524999 -0.2334605
-0.148164 0.085524999 -0.233476
-0.14769217 0.085497834 -0.23350684
-0.14752278 0.085486226 -0.23352589
-0.14729321 0.085478 -0.23354289
-0.14701234 0.085472338 -0.23356366
-0.146595 0.085552 -0.23358801
-0.154617 0.085740499 -0.2335915
-0.15456399 0.085773997 -0.23359001
-0.15408951 0.085643001 -0.23358899
-0.15389401 0.08574 -0.23358899
-0.15358 0.085712336 -0.23358433
-0.15334125 0.085693002 -0.23359275
-0.15307467 0.085698165 -0.23358983
-0.1528846 0.085671604 -0.2335664
-0.15272434 0.085677333 -0.23355167
-0.15251851 0.085701503 -0.23354301
-0.1522986 0.085714199 -0.23355182
-0.1521285 0.085719503 -0.23355199
-0.15190133 0.085710786 -0.23354523
-0.15169767 0.085698009 -0.2335543
-0.15153199 0.085687228 -0.23355457
-0.1509265 0.085693002 -0.23353299
-0.15067911 0.085700221 -0.23352554
-0.15050079 0.085714594 -0.23350191
-0.150334 0.085698001 -0.23349433
-0.15016367 0.085693002 -0.23348565
-0.14988466 0.08567933 -0.23348065
-0.14969443 0.085693002 -0.23349401
-0.14950956 0.085708715 -0.23347843
-0.14929022 0.085723899 -0.23347242
-0.14906149 0.085714512 -0.23349549
-0.14887583 0.085700333 -0.23346283
-0.14870733 0.085688673 -0.23346667
-0.14828524 0.085702002 -0.23341951
-0.14815849 0.085703 -0.2334425
-0.14768583 0.085712165 -0.23347001
-0.14751524 0.085701555 -0.23350866
-0.14733066 0.085693337 -0.23349316
-0.14710067 0.085688502 -0.2335525
-0.146749 0.085708499 -0.233587
-0.14652699 0.085683338 -0.23357733
-0.146338 0.085773341 -0.23357467
-0.14613101 0.085752502 -0.2335805
-0.14595801 0.085741997 -0.2335925
-0.154612 0.085848004 -0.233594
-0.15455949 0.085882001 -0.23359349
-0.15388867 0.085883342 -0.23357733
-0.15357167 0.085927993 -0.233588
-0.15337799 0.085855998 -0.233597
-0.15304175 0.085894749 -0.23359425
-0.15288299 0.085903749 -0.233587
-0.15271501 0.085894495 -0.23357582
-0.15251066 0.08588133 -0.23356564
-0.15230879 0.085887805 -0.23356882
-0.1521215 0.085899502 -0.23354825
-0.15187943 0.085907705 -0.23358072
-0.15168767 0.085915223 -0.23358032
-0.15154229 0.085915864 -0.23357143
-0.15091933 0.085873 -0.23353767
-0.15070738 0.085882008 -0.23354611
-0.15050144 0.085918635 -0.23351635
-0.150325 0.085913993 -0.233503
-0.15015467 0.085909002 -0.23349933
-0.149875 0.085897326 -0.23349734
-0.14967889 0.085888222 -0.23350123
-0.14951864 0.085884251 -0.23348251
-0.14932774 0.085904248 -0.23345375
-0.14908756 0.085910857 -0.23347512
-0.1488675 0.08591599 -0.2334585
-0.14869951 0.08590433 -0.23345284
-0.14828639 0.085896805 -0.23342259
-0.14815132 0.085882336 -0.23344134
-0.14766839 0.085912205 -0.2334512
-0.14750779 0.085915558 -0.23348856
-0.14732383 0.085907996 -0.23345952
-0.14718901 0.085904002 -0.23353767
-0.146998 0.08590167 -0.23351067
-0.14674333 0.085887998 -0.23355967
-0.146584 0.085874997 -0.23354466
-0.14630425 0.085901499 -0.23354724
-0.14608225 0.0859285 -0.23356549
-0.14595333 0.085919 -0.23354267
-0.14563799 0.085976005 -0.23359349
-0.1455404 0.08591 -0.23358679
-0.154155 0.086186998 -0.23359799
-0.15388066 0.086098999 -0.23356932
-0.153723 0.086163998 -0.233595
-0.1535645 0.086107999 -0.23358351
-0.153367 0.086142004 -0.233588
-0.1528745 0.086120002 -0.23359001
-0.152648 0.086180001 -0.233597
-0.15250267 0.086096667 -0.23355834
-0.15229116 0.086089499 -0.23358518
-0.152135 0.086063251 -0.23358549
-0.15192801 0.086074829 -0.23359384
-0.1517095 0.08609762 -0.2335875
-0.15151411 0.08611989 -0.23357455
-0.15090966 0.086091004 -0.23356502
-0.15069167 0.086088881 -0.233564
-0.15051089 0.086095437 -0.23353189
-0.15031749 0.086093999 -0.233512
-0.15014601 0.086126 -0.23350401
-0.14986767 0.086111002 -0.23348235
-0.14967044 0.086104006 -0.23350056
-0.14950322 0.086088561 -0.23347357
-0.14932066 0.086084165 -0.23345399
-0.14914383 0.086077832 -0.23347451
-0.14890583 0.086099662 -0.23346633
-0.148691 0.086121 -0.23345584
-0.14824775 0.08608 -0.23343575
-0.148142 0.086099662 -0.23346035
-0.1476814 0.086087003 -0.23346761
-0.14750184 0.086094834 -0.23346651
-0.147315 0.086124659 -0.23346932
-0.147182 0.086119674 -0.233523
-0.146991 0.086116336 -0.23347934
-0.14673734 0.086100332 -0.23350866
-0.14657766 0.086089671 -0.23350567
-0.14629883 0.086080842 -0.23352151
-0.14608619 0.086085603 -0.23352662
-0.145946 0.086100996 -0.23355299
-0.14563334 0.086118996 -0.23357183
-0.14550078 0.086110555 -0.23356056
-0.15456825 0.086313754 -0.23359224
-0.153871 0.086315997 -0.23359001
-0.153721 0.086236 -0.233597
-0.153558 0.086286999 -0.23357701
-0.153364 0.086213998 -0.233584
-0.152826 0.086260997 -0.23359101
-0.15264401 0.086287998 -0.233593
-0.15228333 0.086305164 -0.23357634
-0.15214767 0.086297996 -0.233585
-0.15191141 0.08627481 -0.23358318
-0.15171878 0.086263217 -0.23358634
-0.15154201 0.086303502 -0.2335835
-0.15090066 0.086306997 -0.23357433
-0.1506831 0.086304896 -0.23356944
-0.15052667 0.086288452 -0.23352891
-0.15035234 0.08627817 -0.23353851
-0.15013951 0.086305 -0.233492
-0.149859 0.086326994 -0.23348801
-0.14966166 0.086320549 -0.23350713
-0.14949533 0.086304553 -0.23346689
-0.1493115 0.086300671 -0.23346615
-0.14913534 0.086293496 -0.233473
-0.14889976 0.086278334 -0.23344922
-0.14868425 0.086299755 -0.233448
-0.1482514 0.086328797 -0.23343182
-0.14813399 0.086314343 -0.23344867
-0.14766349 0.086287327 -0.23345883
-0.1474939 0.086275443 -0.23348421
-0.14730799 0.086304002 -0.23346326
-0.147176 0.086299002 -0.233494
-0.14698449 0.086294502 -0.233464
-0.14673032 0.086314999 -0.23347335
-0.146571 0.086303331 -0.233463
-0.14629251 0.086293995 -0.2334765
-0.14607151 0.086285673 -0.2334965
-0.14594001 0.086279996 -0.23352933
-0.14562599 0.086299002 -0.23357199
-0.14549276 0.086316869 -0.23354912
-0.14531833 0.086317331 -0.23357916
-0.15456399 0.086421996 -0.23359549
-0.15227574 0.086485252 -0.233585
-0.152142 0.086442001 -0.233592
-0.1519555 0.086543001 -0.233592
