0.0143337 0.000233059 0.999897 0.00274772
0.0139364 0.00158507 0.999902 0.00271205
0.00293535 0.00251264 0.999993 0.00484674
-0.00364472 0.0034593 0.999987 0.0073227
-0.0128134 0.00245031 0.999915 0.00680363
-0.0112495 0.00365446 0.99993 0.00645172
-0.0183329 0.00254322 0.999829 0.00699081
-0.0203887 0.00010693 0.999792 0.00195043
-0.0273587 0.00778965 0.999595 0.00141276
-0.0268623 0.00888369 0.9996 0
-0.0344091 0.0100069 0.999358 0
-0.0350105 0.0123588 0.99931 0
-0.037239 0.010699 0.999249 0
-0.0426724 0.0122109 0.999014 0
-0.0482411 0.00950128 0.998791 0
0.179824 -0.104143 0.97817 0
0.185187 -0.105189 0.977057 0.000595493
0.202345 -0.104506 0.973722 0.00933443
-0.181157 -0.0564032 0.981835 0.0110979
-0.171678 -0.058806 0.983396 0.00886261
-0.170912 -0.058674 0.983538 0.00830309
0.0171385 -0.0162119 0.999722 0.00226151
0.0161103 -0.0170466 0.999725 0.000405705
0.0245209 -0.0123419 0.999623 0
0.01415 -0.00567884 0.999884 0.00262221
0.0163613 -0.00547566 0.999851 0.00310669
0.0106649 -0.00213911 0.999941 0.00372708
0.00359383 -0.000268614 0.999994 0.0058978
0.00184319 0.000877292 0.999998 0.008214
-0.00878436 0.00294647 0.999957 0.0107612
-0.0101908 0.00152586 0.999947 0.00701144
-0.008808 0.00305759 0.999957 0.00625169
-0.0100574 0.00140929 0.999948 0.00317001
-0.0192025 -0.00193341 0.999814 0.003543
-0.0238191 -0.000888294 0.999716 0.000130478
-0.0236953 0.00265894 0.999716 0.00130828
-0.0259689 0.00525817 0.999649 0.00149011
-0.0300804 0.00756541 0.999519 0
-0.0345042 0.00477181 0.999393 0
-0.0460765 0.00800361 0.998906 0
-0.056568 0.00476851 0.998387 0.00163275
0.170043 -0.09677 0.980674 0.00229014
0.189356 -0.0999189 0.976811 0.000868949
-0.180565 -0.050786 0.982251 0.00821911
-0.172564 -0.0516237 0.983645 0.00667942
-0.181505 -0.0535311 0.981932 0.0100616
0.0203306 -0.0214717 0.999563 0
0.0225057 -0.0205952 0.999535 0.000684935
0.0260328 -0.0142996 0.999559 0.000398528
0.0187128 -0.0101586 0.999773 0.00425377
0.0132783 -0.00586231 0.999895 0.00462885
0.000657065 -0.0048939 0.999988 0.00774883
-0.00309212 -0.00373748 0.999988 0.00823039
-0.00362981 -0.00482425 0.999982 0.00724722
-0.00900558 -0.00259701 0.999956 0.00842777
-0.007849 -0.00298647 0.999965 0.00615977
-0.00973871 -0.000618752 0.999952 0.00922323
-0.0139326 -0.00251805 0.9999 0.00541613
-0.0182877 -0.00342224 0.999827 0.00600091
-0.0179663 -0.00610018 0.99982 0
-0.0196087 -0.00327487 0.999802 0.00110443
-0.0271299 -0.000389928 0.999632 0
-0.0284618 0.000127641 0.999595 0
-0.0344721 0.00199615 0.999404 0
-0.0471171 0.00178166 0.998888 0
-0.05849 -0.00119504 0.998287 0.0050029
0.184185 -0.0930548 0.978477 0
0.193151 -0.0943045 0.976627 0
-0.177966 -0.0453249 0.982992 0.0117196
-0.170213 -0.04567 0.984348 0.0090973
-0.176185 -0.0450439 0.983326 0.00928165
0.0160782 -0.0233858 0.999597 0.00172419
0.021537 -0.0194384 0.999579 0.00381974
0.0281777 -0.0163874 0.999469 0.000833235
0.0252955 -0.0145842 0.999574 0.00460183
0.0158308 -0.00950322 0.99983 0.00649506
0.00335382 -0.00799608 0.999962 0.0108262
0.00319177 -0.00784248 0.999964 0.0115739
0.00170529 -0.00773338 0.999969 0.0099425
-0.0113147 -0.00705404 0.999911 0.00827872
-0.00966421 -0.00702475 0.999929 0.00349196
-0.00978868 -0.00639074 0.999932 0.00410788
-0.014593 -0.0062287 0.999874 0.00440455
-0.0153014 -0.00576165 0.999866 0.00372642
-0.0132855 -0.00836599 0.999877 0.00165678
-0.0161565 -0.00831237 0.999835 0
-0.0208034 -0.00728882 0.999757 0
-0.0277497 -0.00740663 0.999587 0
-0.0341226 -0.00754187 0.999389 0
-0.0457827 -0.00392173 0.998944 0
-0.0620868 -0.00111891 0.99807 0.00821164
0.200661 -0.0849557 0.97597 0
-0.170197 -0.0398491 0.984604 0.00614451
-0.169985 -0.0375007 0.984733 0.00801068
-0.169205 -0.0378619 0.984853 0.00803891
-0.172046 -0.0352526 0.984458 0.0108355
0.0229085 -0.0178062 0.999579 0.00209311
0.0204715 -0.0175792 0.999636 0.00600334
0.0108579 -0.0150549 0.999828 0.00995214
0.00829672 -0.0138355 0.99987 0.01205
0.00952191 -0.012412 0.999878 0.0107068
0.00327163 -0.00982493 0.999946 0.0111251
-0.00534934 -0.0121946 0.999911 0.00699217
-0.0056946 -0.0120732 0.999911 0.00433697
-0.00486813 -0.0137083 0.999894 0.00265354
-0.00811488 -0.012212 0.999893 0
-0.00611553 -0.0145269 0.999876 0
-0.0144586 -0.0126818 0.999815 0
-0.0117174 -0.015925 0.999805 0
-0.0179167 -0.0129054 0.999756 0
-0.0218552 -0.012578 0.999682 0
-0.0364825 -0.0120702 0.999261 0
-0.0479397 -0.0109454 0.99879 0.000496507
-0.0573486 -0.00885189 0.998315 0.00747092
0.202654 -0.0731574 0.976514 0
-0.166716 -0.032681 0.985463 0.00515911
-0.169664 -0.0334692 0.984933 0.00871873
-0.167535 -0.0308347 0.985384 0.00763814
-0.165348 -0.032163 0.985711 0.00893518
0.0226016 -0.023764 0.999462 0.00248726
0.0146089 -0.0201366 0.99969 0.00454628
0.0149515 -0.0207969 0.999672 0.00307758
0.00465558 -0.0181878 0.999824 0.00819829
0.0088706 -0.0152196 0.999845 0.00743556
0.00532818 -0.0141149 0.999886 0.00916693
0.00928293 -0.0166517 0.999818 0.00332282
0.00590424 -0.0178917 0.999822 0.00249865
-0.00224206 -0.0200431 0.999797 0
-0.00411262 -0.0191596 0.999808 0
-0.0019919 -0.0206782 0.999784 0
-0.000722643 -0.0213807 0.999771 0
-0.00445512 -0.0234254 0.999716 0
-0.0145998 -0.017647 0.999738 0
-0.0260229 -0.0167745 0.999521 0
-0.0304613 -0.016701 0.999396 0
-0.0542194 -0.0178955 0.998369 0
-0.0613372 -0.0189625 0.997937 0.00551925
0.195357 -0.0643288 0.97862 0.00159283
-0.164339 -0.0254393 0.986076 0.00338373
-0.158941 -0.0255047 0.986959 0.00408932
-0.161014 -0.0258987 0.986612 0.00506828
-0.152102 -0.0255847 0.988034 0.0021685
0.025677 -0.0265603 0.999317 0.00096177
0.0180549 -0.024334 0.999541 0.00127154
0.00637139 -0.0225703 0.999725 0.010554
0.0116695 -0.0226859 0.999675 0.00273325
0.0129255 -0.0231135 0.999649 0.00390696
0.00775383 -0.0223906 0.999719 0
0.00713324 -0.0242138 0.999681 0
0.00013417 -0.0226855 0.999743 0
0.0068819 -0.0234065 0.999702 0
0.00119586 -0.0255421 0.999673 0
-0.0076711 -0.0246542 0.999667 0
-0.00349807 -0.0283964 0.999591 0
-0.00907685 -0.0236744 0.999678 0
-0.0274705 -0.0200067 0.999422 0
-0.0255625 -0.0227885 0.999413 0
-0.0540282 -0.0274305 0.998163 0
-0.0593233 -0.0251523 0.997922 0.00266064
0.184004 -0.0599402 0.981096 0.00477368
-0.163928 -0.018628 0.986296 0.00142399
-0.152545 -0.0202034 0.98809 0
-0.148612 -0.0200543 0.988692 0
0.0278138 -0.0324247 0.999087 0
0.0230529 -0.033923 0.999159 0
0.021506 -0.0315387 0.999271 0.00244306
0.0195997 -0.0310261 0.999326 0
0.0180565 -0.0309803 0.999357 0.00138784
0.011652 -0.0282148 0.999534 0.00707532
0.0136282 -0.0290806 0.999484 0.00197239
0.011209 -0.0279392 0.999547 0.00281625
0.00478531 -0.0273829 0.999614 0
-0.00524828 -0.0314373 0.999492 0
0.00168084 -0.026436 0.999649 0
0.00103612 -0.030627 0.99953 0
0.00418404 -0.0339314 0.999415 0
-0.00164375 -0.0327396 0.999463 0
-0.00677544 -0.0328112 0.999439 0
-0.0154844 -0.0315422 0.999382 0
-0.0224239 -0.0288571 0.999332 0
-0.0289393 -0.0305087 0.999116 0
-0.0526041 -0.0338702 0.998041 0
-0.0626064 -0.035192 0.997418 0.00187808
0.178888 -0.0528108 0.982451 0.00110027
-0.176503 -0.0106183 0.984243 0.00137352
-0.168486 -0.0111342 0.985641 0
-0.156027 -0.0126558 0.987672 0
0.0272177 -0.0349513 0.999018 0
0.0302606 -0.0344795 0.998947 8.58038e-05
0.019076 -0.0365745 0.999149 0
0.0123549 -0.0345097 0.999328 0.000167732
0.0136973 -0.0360569 0.999256 0.000663226
0.0124966 -0.034837 0.999315 0
0.0116285 -0.0353368 0.999308 0
0.0030631 -0.0361502 0.999342 0
0.000292299 -0.037248 0.999306 0
0.0055162 -0.0377442 0.999272 0
0.00777103 -0.0385259 0.999227 0
-0.000519452 -0.0396687 0.999213 0
-0.00187818 -0.0430577 0.999071 0
-0.00801587 -0.0416696 0.999099 0
-0.0200959 -0.0383619 0.999062 0
-0.025091 -0.0390433 0.998922 0
-0.0559185 -0.0376295 0.997726 0
-0.0654534 -0.0374249 0.997154 0.00176421
-0.178142 -0.00408113 0.983996 0.00571365
-0.179563 -0.00358852 0.98374 0.00636827
0.0270898 -0.0336919 0.999065 0
0.0303422 -0.0375227 0.998835 0
0.0213813 -0.0392885 0.998999 0
0.0228679 -0.0392855 0.998966 0
0.0242172 -0.0430588 0.998779 0
0.0154895 -0.0436011 0.998929 0
0.0133446 -0.0432962 0.998973 0
0.014479 -0.0427755 0.99898 0
0.0127303 -0.0429969 0.998994 0
0.00968942 -0.0432219 0.999018 0
0.00852024 -0.0513836 0.998643 0
-0.00186426 -0.0485017 0.998821 0
-0.0100622 -0.0490875 0.998744 0
-0.00885927 -0.0461802 0.998894 0
-0.0221364 -0.0468334 0.998657 0
-0.0291002 -0.0470672 0.998468 0
-0.0601428 -0.0432078 0.997254 0
-0.19509 0.00277744 0.980781 0.00998009
-0.189678 0.00109101 0.981846 0.0100433
0.0262386 -0.0444193 0.998668 0
0.0228188 -0.0490859 0.998534 0
0.0112917 -0.0483805 0.998765 0
0.00518057 -0.0470698 0.998878 0
0.00601958 -0.04769 0.998844 0
0.00777389 -0.0506587 0.998686 0
0.0114982 -0.0529842 0.998529 0
0.00257903 -0.0543794 0.998517 0
-0.00167807 -0.055687 0.998447 0
-0.00385798 -0.0554679 0.998453 0
-0.00879067 -0.0523754 0.998589 0
-0.0227221 -0.054279 0.998267 0
-0.0357884 -0.0543599 0.99788 0
-0.212405 0.0106372 0.977124 0.0110461
-0.189244 0.00671338 0.981907 0.00820421
0.0296342 -0.0466538 0.998471 0
0.0157967 -0.052351 0.998504 0
0.016286 -0.0522827 0.998499 0
0.0106818 -0.0556535 0.998393 0
0.0108416 -0.0557982 0.998383 0
0.0108502 -0.0578541 0.998266 0
0.0113621 -0.0623062 0.997992 0
0.00321148 -0.0606754 0.998152 0
0.000871046 -0.0637708 0.997964 0
-0.007558 -0.0612504 0.998094 0
-0.0186437 -0.0591171 0.998077 0
-0.0207776 -0.058905 0.998047 0
-0.0354593 -0.0583825 0.997664 0
-0.21308 0.0137979 0.976937 0.00865761
-0.209414 0.0129831 0.977741 0.00877745
-0.202374 0.0134656 0.979216 0.00887411
0.0255995 -0.0496622 0.998438 0
0.0103123 -0.0521825 0.998584 0
0.00958729 -0.0557968 0.998396 0
0.00629979 -0.0608082 0.99813 0
0.000770173 -0.057029 0.998372 0
0.0043762 -0.0609217 0.998133 0
0.00613666 -0.0652727 0.997849 0
0.00255279 -0.0653833 0.997857 0
-0.00529369 -0.0662222 0.997791 0
-0.0137236 -0.0668393 0.997669 0
-0.0192613 -0.064579 0.997727 0
-0.0245785 -0.0658696 0.997526 0
0.208972 -0.0137005 0.977826 0
-0.215087 0.0149203 0.976481 0.00877951
-0.223541 0.0189738 0.97451 0.0110484
-0.209372 0.016294 0.9777 0.00871496
0.0129475 -0.0567435 0.998305 0
0.00828283 -0.0627398 0.997996 0
0.00639572 -0.0653319 0.997843 0
6.3711e-05 -0.0642443 0.997934 0
0.00588077 -0.0665196 0.997768 0
0.00161944 -0.0689662 0.997618 0
-0.00719639 -0.0688206 0.997603 0
-0.017142 -0.0697618 0.997416 0
-0.0226317 -0.0658364 0.997574 0
-0.0295144 -0.069956 0.997113 0
0.221569 -0.00903368 0.975103 0
-0.227144 0.0258814 0.973517 0.0138288
0.00744588 -0.0677752 0.997673 0
-0.00137997 -0.0668484 0.997762 0
-0.00171195 -0.0684348 0.997654 0
0.000519595 -0.0699539 0.99755 0
-0.00898654 -0.0734131 0.997261 0
-0.221599 0.0308531 0.97465 0.00971825
-0.203391 0.0284047 0.978686 0.00880348
-0.00398242 -0.0654745 0.997846 0
-0.00359667 -0.068077 0.997674 0
0.204734 0.00433124 0.978808 0.00289501
-0.212651 0.0338545 0.976541 0.0134191
-0.199427 0.0327196 0.979366 0.0111874
-0.193174 0.0317713 0.98065 0.0126206
0.218545 0.0113147 0.975761 0
0.213057 0.0101913 0.976987 0
-0.199368 0.0349315 0.979302 0.0144907
-0.183396 0.0328722 0.982489 0.0135653
-0.182611 0.0338973 0.982601 0.0143902
-0.167971 0.0312934 0.985295 0.0121693
0.215179 0.015339 0.976454 0
0.227041 0.0157465 0.973758 0
-0.174085 0.0342786 0.984134 0.0105837
-0.174521 0.0360699 0.983993 0.0134625
-0.169961 0.036476 0.984775 0.0136641
-0.144694 0.0320853 0.988956 0.00855777
0.223415 0.0189795 0.974539 0.00135619
0.239365 0.0189632 0.970744 0
-0.165464 0.0367498 0.985531 0.00814407
-0.155254 0.0358504 0.987224 0.0103107
-0.137313 0.0355873 0.989888 0.00776143
-0.119288 0.0314812 0.99236 0.0095284
-0.104235 0.0259399 0.994214 0.00817302
0.237538 0.0236276 0.971091 0.00448592
-0.115398 0.0316827 0.992814 0.00708857
-0.109608 0.0306933 0.993501 0.00543263
0.202705 0.0285179 0.978825 0.007694
0.213629 0.0276519 0.976523 0.00404405
-0.1188 0.0362313 0.992257 0.00311976
-0.115799 0.0390896 0.992503 0.00286816
0.197517 0.030222 0.979833 0.00557296
-0.125004 0.0436512 0.991196 0.00553201
-0.118844 0.0430159 0.991981 0
0.19909 0.0337614 0.9794 0.000901146
-0.119673 0.045163 0.991786 0.00128044
-0.122683 0.0455038 0.991402 0.00452016
-0.114486 0.0422309 0.992527 0.00199222
0.186469 0.0369462 0.981766 0.00447088
0.20044 0.0400888 0.978886 0.0088276
-0.119477 0.0511821 0.991517 0.00293658
-0.111956 0.0456696 0.992663 0
0.20015 0.0449176 0.978735 0.00950047
0.199588 0.0430528 0.978934 0.00453504
-0.133218 0.0616672 0.989166 0.0104523
-0.124469 0.0565547 0.99061 0.0104862
0.19934 0.0484237 0.978733 0.0102599
0.210225 0.0525659 0.976239 0.0103692
-0.145342 0.0695773 0.986932 0.0198772
-0.140256 0.0666111 0.987872 0.0164
0.205034 0.0552695 0.977193 0.00663361
0.213181 0.0586224 0.975252 0.0108262
-0.161597 0.0785404 0.983726 0.0257134
-0.147614 0.0712615 0.986475 0.0175713
0.200828 0.0588132 0.977859 0.00591348
0.216986 0.0605709 0.974294 0.0066316
-0.150908 0.0732225 0.985832 0.0160775
-0.148665 0.0736841 0.986139 0.0138753
0.176387 0.0563681 0.982706 0.00612397
0.191871 0.0606389 0.979545 0.00689811
-0.153526 0.0767592 0.985159 0.00842586
-0.146761 0.0741591 0.986388 0.00862955
0.177614 0.0605145 0.982238 0.00923168
0.179539 0.0613539 0.981836 0.00791282
-0.1494 0.0760056 0.985851 0.00996704
-0.152594 0.0816877 0.984907 0.00910828
0.181555 0.0633686 0.981337 0.00150056
0.187858 0.0680944 0.979833 0.00379568
-0.160915 0.0883732 0.983004 0.0093821
-0.162328 0.0896862 0.982652 0.00987621
0.17455 0.0662264 0.982419 0.00118996
0.187888 0.0698784 0.979702 0.000742247
0.197046 0.0729244 0.977678 0.00164495
-0.171187 0.097572 0.980395 0.00788037
-0.159872 0.0922036 0.982822 0.00811025
0.173746 0.0732364 0.982063 0.00540331
0.174728 0.0725572 0.98194 0.00412222
-0.15749 0.0928825 0.983143 0.00544179
-0.144082 0.0816779 0.986189 0
-0.144198 0.0831117 0.986052 0.00205766
0.171154 0.0780904 0.982145 0.00444805
0.180646 0.0788337 0.980384 0.00641032
-0.163873 0.0970726 0.981694 0.00483623
-0.154965 0.0930836 0.983525 0.00395205
-0.143692 0.08468 0.985993 0
0.185781 0.0843524 0.978964 0.00209603
0.183781 0.0827043 0.979482 0.00491979
0.187975 0.0854677 0.978448 0.00365112
-0.166305 0.102496 0.980733 0.00470791
-0.157847 0.0934843 0.983029 0.00444694
-0.164033 0.100829 0.981288 0.0115325
0.180151 0.0878065 0.979712 0.000709995
0.19057 0.0915747 0.977393 0.00182
0.192948 0.0913973 0.976943 0.00388998
-0.167117 0.102147 0.980631 0
-0.165132 0.0992497 0.981265 0.00406421
-0.165634 0.0989145 0.981214 0.00307674
-0.158114 0.0917754 0.983147 0.00202262
0.194927 0.0974862 0.975961 0
0.191478 0.0957907 0.976811 0.000529137
-0.163399 0.10057 0.981421 0
-0.166201 0.0977457 0.981236 0
-0.161462 0.0929305 0.982494 0.00402329
0.180972 0.0893653 0.97942 0.000998698
0.196265 0.101335 0.9753 0.00423691
0.208182 0.106492 0.972275 0.00244732
-0.168292 0.102291 0.980415 0.00141566
-0.169992 0.104035 0.979939 0.00595254
-0.159359 0.0931898 0.982813 0.00864954
-0.13558 0.0683469 0.988406 0
-0.128506 0.0619503 0.989772 0
-0.13426 0.0695731 0.988501 0.00282987
0.176748 0.0939361 0.979763 0
0.191156 0.0980788 0.976647 0
0.187751 0.0966395 0.977451 0.00131183
-0.166567 0.0999808 0.980948 0.00141805
-0.160764 0.0936404 0.982541 0.00458873
-0.140392 0.0752696 0.987231 0.0010127
-0.136262 0.070398 0.988168 0.00315384
-0.133983 0.06906 0.988574 0
-0.131453 0.0744235 0.988525 0.00844418
-0.124043 0.065681 0.990101 0.00412042
0.161272 0.0840283 0.983326 0
0.178147 0.0958817 0.979321 0
0.196354 0.106251 0.974759 0
-0.159496 0.0927535 0.982831 0.00217975
-0.142252 0.0773023 0.986807 0
-0.143317 0.0805062 0.986397 0.00321199
-0.139079 0.0763179 0.987336 0.00539522
-0.139398 0.0824576 0.986797 0.00891875
-0.136285 0.0824408 0.987233 0.0149825
0.180685 0.100186 0.978425 0
-0.146402 0.0870182 0.98539 0.0073023
-0.144598 0.092665 0.985142 0.0121662
-0.143605 0.0972098 0.984849 0.0145903
-0.133111 0.0865139 0.987318 0.00393489
-0.135832 0.0921968 0.986433 0.0105691
-0.121451 0.0814235 0.989252 0.00491412
0.150211 0.0939776 0.984177 0
-0.141788 0.100397 0.984793 0.00839889
-0.131319 0.0955372 0.986726 0.00571317
-0.126349 0.0891246 0.987974 0.00307069
-0.125922 0.0920057 0.987764 0.00587904
0.150154 0.103359 0.983245 0
0.157294 0.109713 0.981439 0.00242764
-0.143465 0.115659 0.982874 0.00943863
-0.132715 0.100783 0.986017 0.00605685
-0.137221 0.104884 0.984972 0.0120705
0.146636 0.108481 0.983224 0
0.159086 0.11549 0.980487 0
0.156433 0.114381 0.981043 0.000138506
-0.147063 0.121869 0.981591 0.0114726
-0.147402 0.12485 0.981165 0.0130578
0.148772 0.117655 0.981847 0
0.152281 0.115327 0.981586 0
-0.124289 0.105944 0.986574 0.00946369
-0.123771 0.114716 0.985658 0.0112003
-0.125022 0.115385 0.985422 0.0124734
0.12319 0.126077 0.984342 0.0128749
0.141467 0.119958 0.982648 0
-0.127571 0.118605 0.984712 0.0102932
-0.125117 0.118121 0.985085 0.0119909
-0.131983 0.125262 0.983306 0.0138517
-0.125495 0.11606 0.985282 0.0103566
-0.121719 0.119023 0.985403 0.00900795
-0.120465 0.11741 0.98575 0.0104162
0.122551 0.132023 0.983642 0.0131442
0.124512 0.131211 0.983504 0.0121301
-0.130953 0.125186 0.983453 0.0115627
-0.126467 0.12237 0.984394 0.0096264
-0.129255 0.128636 0.983232 0.00867487
-0.118289 0.121464 0.985522 0.00659894
-0.115987 0.119713 0.98601 0.00842634
-0.101251 0.102792 0.989536 0.00103232
-0.111831 0.11719 0.986793 4.5939e-06
-0.112806 0.122839 0.985995 0.00589749
-0.114509 0.127109 0.985257 0.011824
-0.104225 0.122805 0.986943 0.0124192
-0.115733 0.133415 0.98428 0.00788481
-0.109548 0.124857 0.986109 0.00905092
-0.107648 0.128964 0.985789 0.00933786
-0.101117 0.12394 0.987124 0.00839467
-0.0960055 0.119842 0.98814 0.00547472
-0.107177 0.132622 0.985355 0.0086961
-0.106441 0.133943 0.985256 0.00700817
-0.0983655 0.128038 0.986879 0.00710277
-0.089397 0.116932 0.989108 0
-0.0913685 0.12262 0.988239 0.000960094
-0.0925026 0.127785 0.987479 0.00253413
-0.0892884 0.124339 0.988214 0
-0.0825026 0.113045 0.990159 0
-0.0820282 0.114055 0.990082 0
0.0851608 0.169578 0.98183 0.0107359
0.0831852 0.163451 0.983038 0.0101818
-0.0924162 0.132314 0.98689 0.00352148
-0.0889706 0.127883 0.987791 0
-0.0868939 0.127082 0.988079 0
-0.085411 0.122399 0.988799 0
-0.0853886 0.130758 0.98773 0
-0.0855863 0.134433 0.98722 0
0.0707801 0.163828 0.983946 0.0087303
-0.0885733 0.143205 0.985722 0
-0.086157 0.144891 0.985689 0
-0.080966 0.142596 0.986464 0
-0.0730471 0.136425 0.987954 0
0.0080102 0.166809 0.985957 0.0119356
-0.082189 0.145969 0.985869 0
-0.0786828 0.152841 0.985114 0
-0.073094 0.14848 0.98621 0
-0.069669 0.154631 0.985513 0
-0.0700462 0.156242 0.985232 0
-0.0434406 0.147166 0.988157 0
-0.0389021 0.149248 0.988034 0
-0.0355541 0.154073 0.98742 0
-0.0335738 0.161543 0.986294 0.00204507
-0.0186345 0.166568 0.985854 0.00484679
-0.0138184 0.161507 0.986775 0.00282946
-0.00541422 0.166055 0.986102 0.0108634
0.00272773 0.167139 0.98593 0.0121769
0.00612705 0.160805 0.986967 0.011496
-0.0695016 0.149114 0.986374 0
-0.0678996 0.151528 0.986118 0
-0.0699142 0.16701 0.983473 0
-0.0447403 0.154999 0.986901 0
-0.0382897 0.154645 0.987228 0
-0.039212 0.16198 0.986015 0.00114026
-0.00530266 0.177861 0.984041 0.00560795
-0.00395569 0.172105 0.985071 0.00547362
-0.0393627 -0.161857 0.986029 0.00875809
-0.0347655 -0.157303 0.986938 0.00335973
-0.0277045 -0.16008 0.986715 0
-0.0204561 -0.158224 0.987191 0.00205275
-0.0420573 -0.148875 0.987961 0
-0.0387918 -0.150446 0.987857 0.00435281
-0.0379948 -0.152819 0.987524 0.00873441
-0.0332478 -0.151076 0.987963 0.00691962
-0.0276703 -0.152021 0.98799 0
-0.0199665 -0.154571 0.98778 0.00220823
-0.00849223 -0.151017 0.988495 0
-0.00102117 -0.160328 0.987063 0
-0.000722518 -0.154413 0.988006 0
0.00113835 -0.145966 0.989289 0.00388452
0.0122101 -0.146848 0.989084 0.00647203
0.0121146 -0.147372 0.989007 0.00900029
-0.0527282 -0.143778 0.988204 0
-0.0443869 -0.14652 0.988211 0
-0.0426119 -0.146274 0.988326 0.00273112
-0.0362061 -0.141904 0.989218 0.0014876
-0.0287842 -0.150116 0.988249 0.00297776
-0.0252818 -0.142208 0.989514 0
-0.0159242 -0.147173 0.988983 0
-0.00881199 -0.141872 0.989846 0
-0.0065 -0.142785 0.989732 0
-0.00255033 -0.141487 0.989937 0.0019338
0.00109281 -0.145139 0.989411 0.00700528
0.00863044 -0.146277 0.989206 0.00955437
0.0135269 -0.144448 0.98942 0.00376888
0.0147448 -0.143376 0.989558 0.00504089
-0.053589 -0.135805 0.989285 0.00223532
-0.0481448 -0.136693 0.989443 0.00148619
-0.0464827 -0.131992 0.99016 0.00268181
-0.0365671 -0.137324 0.989851 0
-0.0289257 -0.139705 0.989771 0
-0.0242264 -0.138539 0.990061 0
-0.017724 -0.137328 0.990367 0
-0.0124866 -0.129973 0.991439 0
-0.00858315 -0.131847 0.991233 0
-0.00770079 -0.131528 0.991282 0.00697205
0.000418439 -0.13778 0.990463 0.0112561
0.00509023 -0.141478 0.989928 0.0139366
0.0101589 -0.138842 0.990262 0.00909752
0.0156128 -0.1345 0.990791 0.00511531
-0.0564286 -0.127863 0.990185 0.00250959
-0.0489838 -0.126428 0.990766 0
-0.0438731 -0.122678 0.991476 0.00120103
-0.0452863 -0.12305 0.991367 0.00766084
-0.0392815 -0.12539 0.99133 0
-0.0291808 -0.126228 0.991572 0
-0.0237314 -0.126589 0.991671 0
-0.0164997 -0.128758 0.991539 0
-0.0121089 -0.123209 0.992307 0.00156911
-0.00608815 -0.126998 0.991884 0
-0.00191261 -0.128088 0.991761 0.00996404
0.000892327 -0.128987 0.991646 0.0140385
0.00660027 -0.129673 0.991535 0.00619326
0.0145855 -0.129202 0.991511 0.00238027
0.0233338 -0.136748 0.990331 0.000549482
0.0316936 -0.140483 0.989576 0.00588634
0.0324346 -0.140241 0.989586 0.00702618
0.0380474 -0.144204 0.988816 0.00813492
0.042534 -0.145571 0.988433 0.00663426
-0.0614926 -0.119049 0.990982 0.00199666
-0.0562839 -0.120525 0.991113 0.00421103
-0.0483812 -0.118221 0.991808 0.00285139
-0.0454789 -0.115796 0.992231 0.0031588
-0.0463762 -0.116373 0.992122 0.00767986
-0.040398 -0.112879 0.992787 0.00275115
-0.027622 -0.118251 0.9926 0
-0.0201657 -0.118891 0.992702 0
-0.0150148 -0.119638 0.992704 0
-0.014624 -0.12013 0.992651 0.00238643
-0.00359649 -0.117042 0.99312 0.00789241
0.000797355 -0.117702 0.993049 0.0115189
0.00169339 -0.118543 0.992947 0.00989732
0.0131444 -0.125903 0.991955 0.00253492
0.0136056 -0.123371 0.992267 0.0103543
0.023886 -0.130666 0.991139 0.00464445
0.0279365 -0.133189 0.990697 0.00614635
0.0330305 -0.133648 0.990478 0.00701756
0.0338038 -0.137937 0.989864 0.00521844
0.0443122 -0.143283 0.988689 0.00258178
0.0498051 -0.150903 0.987293 0
-0.0934159 -0.116975 0.988732 0.00290441
-0.088042 -0.11498 0.989459 0.00229405
-0.0713677 -0.110181 0.991346 0.0096199
-0.0638031 -0.11098 0.991772 0.0019215
-0.0566857 -0.112589 0.992023 0.00353816
-0.046604 -0.110699 0.992761 0.00408955
-0.0448374 -0.108306 0.993106 0.00281428
-0.0438926 -0.106553 0.993338 0.0033762
-0.0380892 -0.108279 0.993391 0
-0.0255208 -0.11178 0.993405 0
-0.00282826 -0.112285 0.993672 0.00946362
0.00126168 -0.112386 0.993664 0.00595539
0.011059 -0.118987 0.992834 0.00238804
0.010757 -0.118491 0.992897 0.00867115
0.02368 -0.124161 0.991979 0.00378587
0.0267748 -0.123452 0.991989 0.00418112
0.0303757 -0.127421 0.991384 0.00278205
0.0349752 -0.132756 0.990532 0.00423533
0.0403181 -0.138113 0.989595 0.00511757
0.0409852 -0.139838 0.989326 0.0102902
0.0476292 -0.148185 0.987812 0.0129741
-0.0952403 -0.116352 0.988631 0.00890169
-0.0898514 -0.110753 0.989778 0.000999901
-0.0828491 -0.108768 0.990609 0.0041994
-0.0700423 -0.106219 0.991873 0.00285642
-0.0660689 -0.105635 0.992208 0.00829668
-0.0583645 -0.104812 0.992778 0.00404022
-0.0517683 -0.103253 0.993307 0.00543399
-0.0490659 -0.0997828 0.993799 0.00822805
0.00656726 -0.112671 0.993611 0.00785273
0.0132737 -0.116919 0.993053 0.00455663
0.0250906 -0.119101 0.992565 0.00199759
0.0231489 -0.117439 0.99281 0.00396071
0.0256318 -0.121869 0.992215 0.00660559
0.0355945 -0.128618 0.991055 0.00382034
0.0375651 -0.131177 0.990647 0.00636974
0.0381938 -0.130748 0.99068 0.0114161
0.047456 -0.138874 0.989172 0.00789047
0.0626489 -0.148722 0.986893 0.00275045
0.0834476 -0.156753 0.984106 0
0.090573 -0.161467 0.982713 0.000605461
-0.0887301 -0.107534 0.990234 0.0055568
-0.0889575 -0.109716 0.989974 0.00419941
-0.0835295 -0.100796 0.991395 0.00452479
-0.0789431 -0.0995559 0.991895 0.00417768
-0.0741188 -0.0976781 0.992454 0.00525351
-0.0688891 -0.101166 0.992482 0.00755781
-0.0690116 -0.100076 0.992584 0.00817574
-0.0621073 -0.0974913 0.993297 0.00639742
-0.0533887 -0.099387 0.993616 0.00816768
0.0239437 -0.114143 0.993176 0.00248065
0.0266061 -0.118646 0.99258 0.00363016
0.0329071 -0.118903 0.99236 0.00324982
0.0363556 -0.123939 0.991624 0.00527933
0.0379755 -0.124139 0.991538 0.00634386
0.0453343 -0.128827 0.99063 0.0113648
0.0592129 -0.143148 0.987928 0.00518341
0.0810505 -0.152649 0.984951 0.00591205
0.0901944 -0.156602 0.983535 0
0.102677 -0.168593 0.980323 0
-0.097216 -0.104297 0.989783 0.00262295
-0.085357 -0.100125 0.991307 0.00662809
-0.0834109 -0.0999823 0.991487 0.00258289
-0.0822563 -0.0947994 0.992092 0.00569397
-0.0768393 -0.0927956 0.992716 0.00443758
-0.0766095 -0.0911855 0.992883 0.00464945
-0.0716429 -0.0921683 0.993163 0.00791545
-0.0692052 -0.0954071 0.99303 0.00840939
-0.0645522 -0.0917905 0.993684 0.00982087
0.0252148 -0.113054 0.993269 0.00173714
0.0306029 -0.115376 0.99285 0.00208123
0.0329111 -0.114326 0.992898 0.00796046
0.040084 -0.120514 0.991902 0.00802696
0.041842 -0.118929 0.992021 0.0130273
0.0585595 -0.134956 0.98912 0.00543886
0.0608247 -0.133718 0.989151 0.0111425
0.082505 -0.145062 0.985977 0
0.0893061 -0.153788 0.98406 0
0.0951105 -0.160473 0.982447 0
-0.104747 -0.103779 0.989069 0.00504934
-0.095526 -0.0994784 0.990444 0.00264102
-0.0919844 -0.0969682 0.991028 0.00176655
-0.0847284 -0.0903031 0.992304 0.00560988
-0.0825204 -0.0918763 0.992345 0.00559555
-0.0765529 -0.0889349 0.993091 0.0019098
-0.073811 -0.0878757 0.993393 0.00357232
-0.0711605 -0.0887817 0.993506 0.00107702
-0.069773 -0.0860429 0.993845 0.006183
-0.0708618 -0.0854145 0.993822 0.013074
-0.0648575 -0.0845637 0.994305 0.0125935
-0.0587871 -0.0862861 0.994534 0.0117932
0.0288775 -0.111035 0.993397 0.00451218
0.0333635 -0.107712 0.993622 0.0105968
0.0364052 -0.11386 0.99283 0.00936509
0.0405587 -0.113845 0.99267 0.0087122
0.0564308 -0.127241 0.990265 0.00943394
0.060167 -0.131901 0.989435 0.0132923
0.0793335 -0.139088 0.987097 0
0.0830857 -0.145278 0.985896 0
0.0902099 -0.150511 0.984484 0
0.0920072 -0.153404 0.983871 0
0.0964341 -0.160198 0.982363 0
-0.100418 -0.0965592 0.990249 0.00518429
-0.0958241 -0.0941556 0.990935 0.00330856
-0.0934927 -0.0898343 0.991559 0.00142737
-0.0829566 -0.0870681 0.992742 0.00495548
-0.082882 -0.0860813 0.992835 0.00600335
-0.0789954 -0.0851037 0.993236 0.00659662
-0.0743091 -0.0826181 0.993807 0.00897931
-0.0697519 -0.0817953 0.994205 0.00538627
-0.0695124 -0.0812732 0.994265 0.00977906
-0.0702633 -0.0818675 0.994163 0.0103433
0.0335461 -0.108605 0.993519 0.0103034
0.0716636 -0.12867 0.989095 0
0.0784355 -0.13546 0.987673 0
0.0839654 -0.14228 0.986259 0
0.0855692 -0.146826 0.985454 0
0.095317 -0.15766 0.982882 0
0.0914132 -0.154551 0.983747 0.00912609
-0.105016 -0.0909275 0.990305 0.00647067
-0.0974806 -0.0880559 0.991334 0.00652216
-0.0947642 -0.0848541 0.991877 0.0058756
-0.0825038 -0.081031 0.993291 0.0048371
-0.0774068 -0.0814543 0.993667 4.01587e-05
-0.0768581 -0.0785054 0.993946 0.00331401
-0.0719146 -0.0806653 0.994144 0.00293229
-0.068519 -0.0792466 0.994497 0.0049197
-0.0673362 -0.0780586 0.994672 0.00715251
-0.0667549 -0.0784231 0.994683 0.00895988
-0.05976 -0.071659 0.995637 0.0124488
0.0762716 -0.132191 0.988285 0
0.0745136 -0.1346 0.988094 0
0.0767273 -0.139197 0.987288 0
0.0817732 -0.144961 0.986052 0.00415467
0.0981293 -0.152662 0.983395 0
-0.103211 -0.0834861 0.99115 0.0060982
-0.0988377 -0.0848067 0.991483 0.00253729
-0.0907054 -0.0812432 0.992558 0
-0.0875588 -0.0806055 0.992893 0
-0.0818778 -0.0794624 0.99347 0.00124197
-0.0785123 -0.0768323 0.993948 0
-0.0729353 -0.0742663 0.994568 0.000218478
-0.0743037 -0.0719494 0.994637 0.00492575
-0.062173 -0.0728333 0.995404 0.00340871
-0.0653805 -0.0734158 0.995156 0.00602546
-0.065207 -0.0721151 0.995263 0.0105567
0.069369 -0.130547 0.989012 0
0.0746197 -0.133767 0.9882 0
0.0847795 -0.142608 0.986142 0.00250265
0.102034 -0.155838 0.982499 0
0.10699 -0.158944 0.981473 0
0.103456 -0.156269 0.982282 0.00271023
0.107831 -0.159171 0.981344 0.00466103
0.123795 -0.168781 0.977849 0.0104304
0.13099 -0.170664 0.976584 0.00813647
0.136715 -0.174082 0.975195 0.00806403
-0.120436 -0.0986953 0.987803 0.00631602
-0.109318 -0.0945195 0.989503 0
-0.10788 -0.0888391 0.990187 9.49487e-05
-0.0987733 -0.0791394 0.991958 0.00482603
-0.0921309 -0.0742131 0.992977 0.00165222
-0.0828642 -0.0726951 0.993906 0
-0.0826017 -0.0677542 0.994277 0
-0.0772268 -0.0759776 0.994114 0
-0.0750771 -0.0722769 0.994555 0
-0.0718103 -0.070929 0.994893 0
-0.0700667 -0.0704489 0.995052 0.00176265
-0.0618206 -0.0664983 0.99587 0.00242829
-0.066492 -0.0663067 0.995581 0.00657374
-0.0675296 -0.0672231 0.99545 0.00654931
0.0712411 -0.131166 0.988797 0
0.0841381 -0.138998 0.986712 0.000235783
0.097462 -0.147419 0.984261 0
0.103297 -0.153407 0.982749 0.00109458
0.10466 -0.155944 0.982206 0.00109059
0.111465 -0.159504 0.980884 0
0.114755 -0.161636 0.980156 0.0129922
0.121461 -0.162991 0.979123 0.0133709
0.131832 -0.166625 0.977167 0.0133561
-0.122815 -0.0972262 0.987656 0.00883657
-0.114358 -0.0920084 0.98917 0.00725599
-0.10716 -0.0893575 0.990218 0.00252345
-0.0977017 -0.0747494 0.992405 0.00160401
-0.0889974 -0.0731723 0.993341 0
-0.0855385 -0.0705616 0.993833 0
-0.0756678 -0.0651757 0.995001 0
-0.0731903 -0.067321 0.995043 0
-0.0667767 -0.0688294 0.995391 0
-0.0712106 -0.0648656 0.99535 0.00157481
-0.0726952 -0.0640454 0.995296 0
-0.0678619 -0.0633573 0.995681 0
-0.0626931 -0.0586972 0.996305 0.00473898
-0.0630832 -0.0593309 0.996243 0.00221689
0.0841315 -0.13373 0.98744 0
0.0907067 -0.138147 0.986249 0
0.0973096 -0.143278 0.984887 0.00389607
0.101249 -0.146032 0.984085 0.00334366
0.109131 -0.152112 0.98232 0.00029354
0.11251 -0.152896 0.981817 0.00780743
0.121467 -0.15667 0.980153 0.0065558
0.130635 -0.160546 0.978345 0.00740023
0.135205 -0.162713 0.977366 0.00640853
-0.12091 -0.0904953 0.98853 0.0140714
-0.113821 -0.0831312 0.990017 0.0132993
-0.105775 -0.0836132 0.990869 0.00510591
-0.0919163 -0.0690377 0.993371 0
-0.0852011 -0.0660745 0.99417 0
-0.0838204 -0.0663692 0.994268 0
-0.0833931 -0.066812 0.994274 0
-0.0686481 -0.0611001 0.995768 0.00121431
-0.0663239 -0.0620753 0.995865 0
-0.0722599 -0.0612738 0.995502 0
-0.0733077 -0.0643296 0.995232 0
-0.0697764 -0.0587615 0.99583 0.00147259
-0.0636914 -0.0576475 0.996303 0.00343753
-0.063997 -0.0520845 0.99659 0.00460012
-0.0493254 -0.0442394 0.997803 0.00459985
-0.0482711 -0.0429936 0.997909 0.00495049
0.0835825 -0.131622 0.98777 0
0.0943655 -0.138676 0.985832 0.0036276
0.0958996 -0.137084 0.985906 0.0040441
0.103078 -0.142526 0.984409 0.000584965
0.112531 -0.148218 0.982531 0.00176048
0.120464 -0.151646 0.981067 0
0.119596 -0.151127 0.981253 0.00775677
0.130669 -0.156745 0.978957 0.00519205
-0.116122 -0.0953468 0.988648 0.0143696
-0.113184 -0.0875782 0.989707 0.0151598
-0.106243 -0.0828085 0.990886 0.00988421
-0.100803 -0.0782661 0.991823 0.00942967
-0.089262 -0.0692384 0.993599 0.00276769
-0.0838451 -0.0663637 0.994267 0.00282861
-0.0845258 -0.0607566 0.994567 0.00132603
-0.080221 -0.0615313 0.994876 0
-0.072345 -0.0602066 0.995561 0.000933345
-0.0633769 -0.0565713 0.996385 0
-0.0710341 -0.0559851 0.995902 0
-0.0764314 -0.0550176 0.995556 0.00157768
-0.0672379 -0.0531089 0.996323 0.00149828
-0.0671066 -0.049269 0.996529 0.00694786
-0.0444747 -0.0443411 0.998026 0.00179546
-0.0419867 -0.0413253 0.998263 0.0025899
-0.0444981 -0.0418934 0.998131 0.00425509
-0.0155757 -0.048976 0.998679 0
0.0927161 -0.133207 0.986742 0.00428167
0.102551 -0.142574 0.984457 0
0.105003 -0.141372 0.984372 0.00497622
0.109877 -0.142218 0.983718 0.00769477
0.119231 -0.14817 0.981748 0.00367324
-0.114087 -0.0906671 0.989325 0.0150088
-0.107702 -0.089368 0.990158 0.0126988
-0.107799 -0.087207 0.990341 0.0159847
-0.101931 -0.086147 0.991054 0.00640346
-0.0982325 -0.0748246 0.992347 0.0122234
-0.0797335 -0.0638285 0.994771 0.00305146
-0.0737303 -0.0617257 0.995366 0.00314762
-0.0728921 -0.0610121 0.995472 0.00233509
-0.0700775 -0.0576903 0.995872 0.00335996
-0.0724666 -0.0548621 0.995861 0.0039016
-0.0768151 -0.0520495 0.995686 0.00917713
-0.0764581 -0.0490712 0.995865 0.00662197
-0.0667034 -0.0473523 0.996649 0.00820101
-0.0623531 -0.0457028 0.997007 0.00526253
-0.045651 -0.0413309 0.998102 0
-0.0392551 -0.0384077 0.998491 0.00141304
-0.038226 -0.0380672 0.998544 0.00275002
-0.0361133 -0.0385337 0.998604 0.00437635
-0.0194166 -0.0356885 0.999174 0
0.101636 -0.134975 0.985623 0.00489512
0.112728 -0.143062 0.983273 0.00570255
0.120188 -0.146817 0.981835 0
-0.113494 -0.0855723 0.989847 0.0171813
-0.107239 -0.0846444 0.990624 0.0126967
-0.101511 -0.0805435 0.991569 0.0171834
-0.0914676 -0.0781112 0.99274 0.0130741
-0.0927618 -0.0768124 0.992721 0.0123371
-0.0805464 -0.0643725 0.99467 0.00798856
-0.0714299 -0.0606837 0.995598 0.00541839
-0.068591 -0.0592472 0.995884 0.00364128
-0.0756055 -0.0568786 0.995514 0.00807657
-0.0756455 -0.0545097 0.995644 0.00933537
-0.0766822 -0.0520051 0.995698 0.00880829
-0.0705508 -0.044763 0.996503 0.00950314
-0.0670947 -0.0431464 0.996813 0.00898374
-0.0587585 -0.0366111 0.997601 0.00452284
-0.0527114 -0.0319908 0.998097 0.00559768
-0.0496577 -0.0331099 0.998217 0.00567271
-0.0405128 -0.0328855 0.998638 0.00414504
-0.0328243 -0.0334518 0.998901 0.00104025
-0.0289759 -0.0321795 0.999062 0.00417841
-0.0228714 -0.028141 0.999342 0.000891774
-0.0145753 -0.025461 0.99957 0
-0.0207705 -0.0283581 0.999382 0.000748885
-0.0206064 -0.0313518 0.999296 0.000840258
0.103565 -0.136242 0.985247 0.00179416
0.111261 -0.14076 0.983772 0.00670598
0.131356 -0.150283 0.979878 0.0107194
0.145514 -0.153195 0.977424 0.00516633
-0.108627 -0.0877458 0.990202 0.0117112
-0.108285 -0.086252 0.990371 0.016979
-0.107597 -0.0826743 0.990751 0.0188318
-0.100986 -0.0765837 0.991936 0.0178837
-0.100189 -0.076479 0.992025 0.0129862
-0.0900275 -0.0720136 0.993332 0.0140824
-0.0762897 -0.0612884 0.9952 0.00665718
-0.0700164 -0.0582756 0.995842 0.00456215
-0.0710595 -0.0578051 0.995796 0.00468085
-0.0726996 -0.0519595 0.995999 0.00998437
-0.0694984 -0.0503841 0.996309 0.0105205
-0.0727042 -0.0482477 0.996186 0.00809326
-0.0701237 -0.0409366 0.996698 0.0107697
-0.0658602 -0.0382048 0.997097 0.00983013
-0.0586213 -0.0360275 0.99763 0.00548198
-0.05521 -0.0327933 0.997936 0.00443576
-0.0515196 -0.0297629 0.998228 0.00433901
-0.0487711 -0.0268857 0.998448 0.00665938
-0.0405562 -0.0258808 0.998842 0.00474214
-0.0422206 -0.0275366 0.998729 0.00440766
-0.0382368 -0.0261517 0.998926 0.000939759
-0.0253331 -0.020123 0.999476 0.00187683
-0.0291218 -0.00907186 0.999535 0.00403171
-0.0217135 -0.0157366 0.99964 0
-0.013698 -0.0185241 0.999735 0.00165383
-0.0226749 -0.0171729 0.999595 0.00013902
-0.0195677 -0.0179901 0.999647 0.000908774
-0.0224688 -0.0188252 0.99957 0.00469611
0.100545 -0.132775 0.986033 0.00617418
0.11073 -0.139199 0.984054 0.00950307
0.12515 -0.144628 0.98154 0.00798548
0.146814 -0.152217 0.977382 0.0100144
-0.103413 -0.0864633 0.990873 0.00375272
-0.102929 -0.0835236 0.991176 0.0107807
-0.104013 -0.0815192 0.991229 0.0162132
-0.0963122 -0.0787692 0.99223 0.016073
-0.103156 -0.0761329 0.991747 0.0170273
-0.0961721 -0.0713216 0.992806 0.0150408
-0.0698316 -0.0639283 0.995508 0.00406392
-0.0751904 -0.0583543 0.99546 0.00746241
-0.070291 -0.0572615 0.995882 0.00557233
-0.0625105 -0.0483176 0.996874 0.00868261
-0.0656817 -0.0473844 0.996715 0.00942953
-0.0657019 -0.0462171 0.996768 0.00851398
-0.0610649 -0.0400028 0.997332 0.0094753
-0.0646013 -0.0361069 0.997258 0.00950802
-0.0564493 -0.0317522 0.9979 0.0068068
-0.046749 -0.0270726 0.99854 0.00709993
-0.0468232 -0.0207652 0.998687 0.00726036
-0.0482776 -0.017334 0.998684 0.00922236
-0.0421467 -0.0162142 0.99898 0.00244827
-0.0362499 -0.0135681 0.999251 8.08778e-05
-0.0311247 -0.0117137 0.999447 0.000877316
-0.0224696 -0.00891429 0.999708 0
-0.0275022 -0.00457007 0.999611 0.00579973
-0.0284803 -0.00381732 0.999587 0.00329087
-0.0180264 -0.00287801 0.999833 0.0024254
-0.0243673 -0.00211702 0.999701 0
-0.0255883 -0.00368712 0.999666 0
-0.0275031 -0.00707492 0.999597 0.00408758
-0.0273597 -0.0122967 0.99955 0.00714004
0.0976893 -0.130034 0.986685 0.00849401
0.106907 -0.135978 0.984927 0.00314483
0.123482 -0.140494 0.982351 0.00902794
0.144914 -0.146015 0.978611 0.0135511
-0.0990641 -0.085185 0.991428 0.00346493
-0.0950488 -0.0810432 0.992168 0.0063243
-0.0923672 -0.0774819 0.992706 0.0131362
-0.0919702 -0.0755866 0.992889 0.0153896
-0.092904 -0.0710551 0.993136 0.0162569
-0.0900209 -0.0681947 0.993602 0.0155723
-0.0715953 -0.0603239 0.995608 0.00487829
-0.0708823 -0.0580924 0.995792 0.000367574
-0.068823 -0.0574411 0.995974 0.00306646
-0.0593121 -0.046038 0.997177 0.00546444
-0.063005 -0.0448906 0.997003 0.00639898
-0.0543784 -0.0420141 0.997636 0.00967474
-0.0607564 -0.0339554 0.997575 0.0107699
-0.0608951 -0.0294819 0.997709 0.0131925
-0.0492824 -0.0205505 0.998573 0.0125785
-0.0392238 -0.018746 0.999055 0.00906287
-0.0341109 -0.0164849 0.999282 0.00507205
-0.0321683 -0.0126132 0.999403 0.00431617
-0.0346558 -0.0097553 0.999352 0.00301237
-0.0288631 -0.00394402 0.999576 0.00158612
-0.0236336 -0.000704108 0.99972 0.0021777
-0.0094338 0.00336378 0.99995 0.00237798
-0.0191036 0.00407558 0.999809 0.00485434
-0.024176 0.00655685 0.999686 0.00663672
-0.029878 0.00732036 0.999527 0.00625308
-0.0331568 0.00633737 0.99943 0.00418302
-0.0227786 0.00666123 0.999718 0.00332895
-0.0320249 -0.000623324 0.999487 0.00620478
-0.0374473 -0.00438497 0.999289 0.0113027
-0.0321099 -0.00628598 0.999465 0.0098861
0.102845 -0.131381 0.985983 0.0114868
0.12135 -0.138106 0.982955 0.0124832
0.14334 -0.144222 0.979109 0.01019
-0.11646 -0.0971854 0.988429 0
-0.115456 -0.0959953 0.988663 0
-0.10251 -0.0884275 0.990794 0
-0.101117 -0.0840223 0.99132 0
-0.0964007 -0.0825705 0.991912 0.00408267
-0.0965643 -0.0783482 0.992238 0.00463441
-0.0974923 -0.0780707 0.992169 0.0106813
-0.0878473 -0.0754616 0.993272 0.00892842
-0.087222 -0.0720628 0.993579 0.00948881
-0.0847185 -0.0691513 0.994003 0.0154668
-0.0751709 -0.0578984 0.995488 0.00926883
-0.0632177 -0.0568609 0.996379 0.000991135
-0.0619385 -0.0525694 0.996695 0.00180339
-0.0603306 -0.04313 0.997246 0.00788975
-0.0597982 -0.0397701 0.997418 0.00652187
-0.0587294 -0.0360691 0.997622 0.00815712
-0.0590755 -0.0318994 0.997744 0.0117943
-0.0541235 -0.0200664 0.998333 0.0133957
-0.0499543 -0.0136894 0.998658 0.0110719
-0.040006 -0.00908056 0.999158 0.00822303
-0.0320898 -0.00749138 0.999457 0.0083063
-0.0233386 -0.00360323 0.999721 0.00719838
-0.0270412 -0.00145142 0.999633 0.00341313
-0.0221368 0.000743921 0.999755 0.00276353
-0.0151791 0.00568521 0.999869 0
-0.0176034 0.0124796 0.999767 0.00610244
-0.0220811 0.0131196 0.99967 0.00664128
-0.0300176 0.0137078 0.999455 0.010228
-0.0330857 0.0115401 0.999386 0.00713508
-0.0309374 0.0110543 0.99946 0.00488789
-0.0304692 0.0113587 0.999471 0.00588217
-0.0343216 0.0142396 0.999309 0.00708474
-0.0333358 0.00716248 0.999419 0.0102968
-0.0306458 0.00416866 0.999522 0.00853327
-0.0333084 0.000602656 0.999445 0.00889117
-0.0353716 -0.00149356 0.999373 0.0112125
0.10349 -0.125994 0.986618 0.00948762
0.113676 -0.129699 0.985016 0.0150188
0.128452 -0.134287 0.982582 0.0146379
0.141079 -0.137869 0.980351 0.00499531
-0.108436 -0.094777 0.989575 0
-0.104354 -0.0917136 0.990302 0
-0.0995396 -0.0876712 0.991164 0
-0.0949026 -0.0820565 0.992099 0.000216634
-0.0887676 -0.0778194 0.993008 0.00486638
-0.0884422 -0.0750987 0.993246 0.00501243
-0.0879991 -0.0726472 0.993468 0.00987581
-0.086087 -0.0715976 0.993712 0.00871751
-0.0818177 -0.0699101 0.994192 0.0105584
-0.0838786 -0.0671726 0.994209 0.0148167
-0.0787715 -0.0629646 0.994902 0.0153286
-0.0677975 -0.0566666 0.996089 0.00693125
-0.0633597 -0.0548299 0.996483 0.00219879
-0.0597961 -0.049711 0.996972 0.0010118
-0.0653288 -0.0358351 0.99722 0.00779752
-0.0653486 -0.032244 0.997341 0.0102187
-0.0560961 -0.0255844 0.998098 0.0106866
-0.0452364 -0.0157426 0.998852 0.00814572
-0.0432931 -0.00630793 0.999043 0.0103708
-0.0375666 -0.00125297 0.999293 0.00741056
-0.0310001 -0.00123547 0.999519 0.00213555
-0.0184485 -0.00040182 0.99983 0.00173162
-0.0251993 0.00443727 0.999673 0.00382171
-0.0240242 0.00995083 0.999662 0.00476281
-0.024631 0.0121169 0.999623 0.0071621
-0.0236422 0.0179039 0.99956 0.00928768
-0.0146105 0.0209665 0.999673 0.00438019
-0.023615 0.0209618 0.999501 0.00801258
-0.0313711 0.0214571 0.999277 0.0104784
-0.0339551 0.0177914 0.999265 0.0072269
-0.0374144 0.017839 0.999141 0.00799381
-0.0368101 0.0165693 0.999185 0.00697345
-0.0423558 0.011678 0.999034 0.0099028
-0.0341681 0.00601645 0.999398 0.00977328
-0.0306753 0.00456131 0.999519 0.00923011
-0.0375764 -9.6482e-05 0.999294 0.00948693
0.112773 -0.124544 0.985784 0.0162539
0.129682 -0.13114 0.982845 0.000617508
0.137173 -0.135365 0.981254 0.00118874
0.145276 -0.138782 0.979609 0.000652547
0.162637 -0.145462 0.975905 0
0.173922 -0.149988 0.97327 0
0.188084 -0.155354 0.969788 0
-0.117222 -0.0969983 0.988357 0
-0.108947 -0.0925204 0.989733 0
-0.104304 -0.089476 0.990512 0
-0.0954332 -0.0842042 0.991868 0
-0.0924885 -0.0821682 0.992318 0
-0.0834172 -0.0752323 0.993671 0.000694713
-0.0865085 -0.0729646 0.993576 0.00580679
-0.0818448 -0.0698593 0.994194 0.00796125
-0.083072 -0.0693714 0.994126 0.0102292
-0.0787072 -0.0655855 0.994738 0.0113403
-0.0741901 -0.0636986 0.995208 0.0134323
-0.0735212 -0.0588231 0.995557 0.0143966
-0.0725664 -0.0555942 0.995813 0.00916173
-0.0576235 -0.0511373 0.997028 0.00136126
-0.0624436 -0.0479984 0.996894 0.00137425
-0.0618078 -0.0313472 0.997596 0.000833068
-0.0600232 -0.0229799 0.997932 0.00660448
-0.0478728 -0.0186216 0.99868 0.00515488
-0.0423184 -0.0095984 0.999058 0.00750913
-0.0431363 -0.00241582 0.999066 0.00636976
-0.0315789 0.00714925 0.999476 0.00648906
-0.0247409 0.00614521 0.999675 0.0032185
-0.0244588 0.00765974 0.999671 0.00213562
-0.0214914 0.0107177 0.999712 0.0034898
-0.0287394 0.0149204 0.999476 0.00754557
-0.0253752 0.01745 0.999526 0.00653434
-0.0246307 0.0197415 0.999502 0.00705562
-0.0209328 0.0239979 0.999493 0.00534836
-0.0295805 0.0249367 0.999251 0.00417472
-0.0260976 0.0264534 0.999309 0.00782211
-0.0366475 0.0209752 0.999108 0.0082901
-0.0354359 0.0225255 0.999118 0.00488662
-0.0353464 0.0190386 0.999194 0.00558561
-0.0447275 0.0129395 0.998915 0.00976203
-0.0436693 0.0103073 0.998993 0.0105047
-0.0393256 0.00387219 0.999219 0.00556522
-0.0414311 0.00556497 0.999126 0.00478006
-0.0375607 0.00193609 0.999292 0.0053847
0.115462 -0.12648 0.985227 0.0121884
0.129622 -0.127492 0.983333 0.00243485
0.142741 -0.132138 0.9809 0
0.152604 -0.137938 0.978614 0
0.160281 -0.14226 0.976766 0
0.172403 -0.147181 0.973969 0
0.170572 -0.14724 0.974282 0.0013561
-0.132364 -0.101575 0.985983 0.00294064
-0.119101 -0.0967658 0.988156 0
-0.112328 -0.0908203 0.989512 0.000959212
-0.100853 -0.0854508 0.991225 0
-0.0856971 -0.0818454 0.992954 0
-0.0887729 -0.079366 0.992885 0
-0.0825494 -0.0754366 0.993728 0
-0.0829609 -0.0698912 0.994099 0.00552803
-0.083096 -0.0689967 0.99415 0.0127609
-0.0821078 -0.0651281 0.994493 0.0121556
-0.0755291 -0.0658448 0.994967 0.00941143
-0.0691699 -0.0619225 0.995681 0.00804666
-0.0650628 -0.0610052 0.996015 0.00829286
-0.06426 -0.0480157 0.996777 0.00609519
-0.0602634 -0.0474853 0.997052 1.45989e-05
-0.0593203 -0.0425306 0.997333 0.00309279
-0.0543699 -0.0249289 0.99821 0.001231
-0.0468823 -0.0171045 0.998754 0.00183552
-0.0356671 -0.00822794 0.99933 0.0043035
-0.0387093 -0.00130854 0.99925 0.0080866
-0.0316898 0.00456355 0.999487 0.00462793
-0.0250838 0.00925139 0.999642 0.00363712
-0.0196287 0.00514817 0.999794 0.000438718
-0.0225403 0.01111 0.999684 0.00222365
-0.0271408 0.0113253 0.999567 0.00573319
-0.0220433 0.0161708 0.999626 0.00416662
-0.0234663 0.0205563 0.999513 0.00500808
-0.0201625 0.0238841 0.999511 0.00803763
-0.0166829 0.023052 0.999595 0.00370062
-0.0237234 0.025512 0.999393 0.00788539
-0.0293789 0.0271363 0.9992 0.0102268
-0.0365469 0.0241599 0.99904 0.00576404
-0.0409001 0.0202285 0.998958 0.00354314
-0.0406915 0.0214015 0.998942 0.00412779
-0.0439562 0.0157868 0.998909 0.00610812
-0.0464593 0.0114531 0.998855 0.0044396
-0.0397419 0.0053861 0.999196 0.00203234
-0.0390273 0.00380536 0.999231 0.00179827
-0.0375052 0.0020931 0.999294 0.00383348
-0.033896 -0.00611218 0.999407 0.000780574
0.126223 -0.127 0.983839 0.00464522
0.139714 -0.13157 0.981412 0.00230506
0.15266 -0.134479 0.979086 0.00184428
0.170473 -0.141106 0.975207 0.000717716
0.167924 -0.141636 0.975572 0.00666984
0.170134 -0.142722 0.975031 0.00344581
-0.128138 -0.0977761 0.986925 0.00310649
-0.11158 -0.0896071 0.989707 0.0017125
-0.110648 -0.0879782 0.989958 0.00463841
-0.0976733 -0.0847035 0.991607 0.000645352
-0.0937612 -0.0825965 0.992163 0
-0.0915699 -0.0789436 0.992665 0
-0.0864363 -0.073965 0.993508 0.00462763
-0.0785368 -0.0704444 0.994419 0.00326091
-0.0796014 -0.0670156 0.994572 0.00879358
-0.0744655 -0.0621152 0.995287 0.00939931
-0.06944 -0.059131 0.995832 0.013203
-0.063507 -0.0580515 0.996292 0.00754849
-0.0675284 -0.0599008 0.995918 0.00733649
-0.0561775 -0.049095 0.997213 0.00405496
-0.0526114 -0.045515 0.997577 0
-0.0500632 -0.0403939 0.997929 0.00098355
-0.0385022 -0.0199667 0.999059 0.000405505
-0.0323 -0.0124863 0.9994 0.00315822
-0.032879 -0.00392313 0.999452 0.00515863
-0.0256394 0.00106497 0.999671 0.00419675
-0.0218473 0.00518599 0.999748 0.000371992
-0.0211691 0.0101541 0.999724 0
-0.0194189 0.00817757 0.999778 0
-0.0285926 0.0124482 0.999514 0.00237165
-0.0251568 0.0138995 0.999587 0.00547354
-0.0187842 0.0182249 0.999657 0.00672317
-0.0219276 0.0214043 0.99953 0.00554188
-0.0198312 0.0223675 0.999553 0.00922236
-0.0234727 0.0245522 0.999423 0.00909877
-0.0254587 0.0283778 0.999273 0.0104642
-0.033589 0.0267347 0.999078 0.00885622
-0.0366533 0.0276235 0.998946 0.00837584
-0.0351877 0.0245131 0.99908 0.00409551
-0.0363256 0.0218244 0.999102 0.00373919
-0.0380954 0.0150385 0.999161 0.00264264
-0.0388492 0.0105033 0.99919 0.00192943
-0.037713 0.00899349 0.999248 0
-0.0345322 0.00528655 0.99939 0
-0.03933 0.00288885 0.999222 0
-0.0455568 0.00184737 0.99896 0
-0.042149 -0.00205458 0.999109 0
0.144179 -0.130919 0.980853 0
0.158433 -0.13375 0.978269 0.000254944
0.162063 -0.134388 0.977587 0.00228028
0.170482 -0.136242 0.975896 0.00301105
0.170056 -0.135813 0.976031 0.00231982
-0.135212 -0.0974655 0.986011 0.00520793
-0.128676 -0.0961168 0.987018 0.00366542
-0.115657 -0.088626 0.989327 0.00246957
-0.099547 -0.0847748 0.991415 0
-0.100078 -0.0794898 0.991799 0.00558837
-0.0958419 -0.0810478 0.992091 0.00234209
-0.0865058 -0.0760761 0.993342 0.00378127
-0.0809956 -0.069763 0.99427 0.00441794
-0.085464 -0.0667089 0.994106 0.00691795
-0.0741418 -0.0641229 0.995184 0.00804824
-0.0663541 -0.0613751 0.995907 0.0106179
-0.0644604 -0.0572206 0.996278 0.0132758
-0.0702871 -0.0543441 0.996045 0.0117168
-0.0648624 -0.0521021 0.996533 0.00655891
-0.0556117 -0.043635 0.997499 0.00456975
-0.0497385 -0.040963 0.997922 0.00144205
-0.0436877 -0.0364068 0.998382 0.00106407
-0.0209257 -0.0195377 0.99959 0
-0.0155719 -0.0103162 0.999826 0
-0.0192779 -0.00581767 0.999797 0
-0.016724 0.000356278 0.99986 0
-0.0178933 0.000768835 0.99984 0
-0.0203846 0.00862341 0.999755 0.000252395
-0.0225306 0.0104238 0.999692 0
-0.0131907 0.0119327 0.999842 0.000634244
-0.0200736 0.01461 0.999692 0.00285009
-0.0194002 0.0170926 0.999666 0.00626312
-0.0188094 0.0188084 0.999646 0.00275659
-0.0162479 0.0222341 0.999621 0.00493491
-0.0244756 0.0235514 0.999423 0.00981412
-0.0233816 0.0235793 0.999448 0.00671115
-0.0244282 0.0263115 0.999355 0.00822974
-0.0357237 0.0226821 0.999104 0.00526631
-0.0334063 0.0255826 0.999114 0.00691537
-0.0329207 0.0228623 0.999196 0.00388536
-0.037779 0.0178135 0.999127 0.000484109
-0.0410945 0.0109229 0.999096 0
-0.0417757 0.0125998 0.999048 0
-0.0367672 0.00821552 0.99929 0
-0.0405771 0.00681382 0.999153 0
-0.0463914 0.00635416 0.998903 0
-0.048186 0.00212006 0.998836 0
