# .PCD v0.7 - Point Cloud Data file format
VERSION 0.7
FIELDS x y z
SIZE 4 4 4
TYPE F F F
COUNT 1 1 1
WIDTH 1601
HEIGHT 1
VIEWPOINT 0 0 0 1 0 0 0
POINTS 1601
DATA ascii
-0.115465 -0.023497 -0.265489
-0.115462 -0.023421 -0.265491
-0.115459 -0.023344 -0.265489
-0.115456 -0.023268 -0.265485
-0.115453 -0.023190 -0.265483
-0.115449 -0.023112 -0.265491
-0.115446 -0.023036 -0.265496
-0.115443 -0.022958 -0.265488
-0.115441 -0.022882 -0.265482
-0.115437 -0.022804 -0.265484
-0.115434 -0.022728 -0.265492
-0.115430 -0.022650 -0.265501
-0.115427 -0.022574 -0.265503
-0.115424 -0.022495 -0.265515
-0.115420 -0.022419 -0.265527
-0.115417 -0.022341 -0.265523
-0.115414 -0.022266 -0.265516
-0.115411 -0.022188 -0.265518
-0.115408 -0.022112 -0.265520
-0.115405 -0.022034 -0.265520
-0.115402 -0.021958 -0.265522
-0.115398 -0.021879 -0.265536
-0.115394 -0.021803 -0.265547
-0.115391 -0.021725 -0.265545
-0.115388 -0.021649 -0.265547
-0.115385 -0.021571 -0.265553
-0.115382 -0.021495 -0.265555
-0.115378 -0.021417 -0.265557
-0.115375 -0.021341 -0.265560
-0.115372 -0.021263 -0.265562
-0.115369 -0.021187 -0.265564
-0.115366 -0.021109 -0.265560
-0.115363 -0.021031 -0.265552
-0.115360 -0.020956 -0.265549
-0.115357 -0.020878 -0.265545
-0.115355 -0.020800 -0.265537
-0.115352 -0.020724 -0.265525
-0.115349 -0.020646 -0.265519
-0.115346 -0.020570 -0.265523
-0.115343 -0.020492 -0.265518
-0.115340 -0.020415 -0.265510
-0.115337 -0.020339 -0.265508
-0.115334 -0.020261 -0.265510
-0.115331 -0.020185 -0.265512
-0.115328 -0.020107 -0.265505
-0.115325 -0.020029 -0.265499
-0.115322 -0.019953 -0.265509
-0.115318 -0.019875 -0.265521
-0.115315 -0.019799 -0.265525
-0.115312 -0.019721 -0.265527
-0.115308 -0.019645 -0.265534
-0.115305 -0.019566 -0.265538
-0.115302 -0.019489 -0.265534
-0.115299 -0.019413 -0.265534
-0.115296 -0.019337 -0.265540
-0.115292 -0.019258 -0.265544
-0.115289 -0.019181 -0.265545
-0.115286 -0.019105 -0.265541
-0.115283 -0.019027 -0.265545
-0.115279 -0.018950 -0.265559
-0.115276 -0.018872 -0.265561
-0.115273 -0.018796 -0.265556
-0.115271 -0.018719 -0.265548
-0.115268 -0.018641 -0.265542
-0.115265 -0.018565 -0.265538
-0.115262 -0.018487 -0.265536
-0.115259 -0.018411 -0.265528
-0.115256 -0.018333 -0.265529
-0.115253 -0.018255 -0.265533
-0.115250 -0.018179 -0.265527
-0.115247 -0.018102 -0.265515
-0.115245 -0.018024 -0.265505
-0.115242 -0.017948 -0.265502
-0.115239 -0.017870 -0.265500
-0.115236 -0.017794 -0.265500
-0.115233 -0.017716 -0.265504
-0.115229 -0.017640 -0.265504
-0.115226 -0.017562 -0.265508
-0.115223 -0.017484 -0.265509
-0.115221 -0.017409 -0.265495
-0.115218 -0.017331 -0.265489
-0.115214 -0.017255 -0.265497
-0.115211 -0.017177 -0.265497
-0.115209 -0.017099 -0.265488
-0.115206 -0.017023 -0.265478
-0.115203 -0.016945 -0.265470
-0.115200 -0.016869 -0.265468
-0.115197 -0.016791 -0.265472
-0.115194 -0.016713 -0.265476
-0.115190 -0.016637 -0.265483
-0.115187 -0.016559 -0.265485
-0.115184 -0.016483 -0.265479
-0.115181 -0.016405 -0.265475
-0.115179 -0.016328 -0.265467
-0.115176 -0.016252 -0.265454
-0.115173 -0.016174 -0.265454
-0.115169 -0.016098 -0.265470
-0.115166 -0.016020 -0.265480
-0.115163 -0.015942 -0.265480
-0.115160 -0.015866 -0.265478
-0.115156 -0.015788 -0.265481
-0.115154 -0.015712 -0.265475
-0.115151 -0.015634 -0.265465
-0.115148 -0.015556 -0.265457
-0.115145 -0.015480 -0.265455
-0.115142 -0.015402 -0.265458
-0.115139 -0.015326 -0.265460
-0.115136 -0.015249 -0.265450
-0.115134 -0.015173 -0.265436
-0.115131 -0.015095 -0.265426
-0.115128 -0.015017 -0.265424
-0.115126 -0.014942 -0.265415
-0.115123 -0.014864 -0.265405
-0.115120 -0.014788 -0.265397
-0.115117 -0.014710 -0.265391
-0.115114 -0.014634 -0.265391
-0.115112 -0.014556 -0.265386
-0.115109 -0.014479 -0.265376
-0.115106 -0.014403 -0.265368
-0.115103 -0.014327 -0.265368
-0.115100 -0.014249 -0.265372
-0.115096 -0.014171 -0.265378
-0.115093 -0.014093 -0.265387
-0.115090 -0.014017 -0.265383
-0.115087 -0.013941 -0.265373
-0.115085 -0.013863 -0.265367
-0.115082 -0.013785 -0.265361
-0.115079 -0.013710 -0.265348
-0.115077 -0.013632 -0.265332
-0.115074 -0.013556 -0.265338
-0.115070 -0.013478 -0.265354
-0.115066 -0.013400 -0.265358
-0.115063 -0.013321 -0.265366
-0.115059 -0.013245 -0.265379
-0.115056 -0.013167 -0.265379
-0.115054 -0.013092 -0.265365
-0.115051 -0.013014 -0.265363
-0.115047 -0.012935 -0.265375
-0.115044 -0.012860 -0.265372
-0.115042 -0.012782 -0.265360
-0.115038 -0.012704 -0.265364
-0.115035 -0.012628 -0.265362
-0.115033 -0.012550 -0.265348
-0.115030 -0.012474 -0.265342
-0.115027 -0.012396 -0.265351
-0.115023 -0.012318 -0.265357
-0.115020 -0.012242 -0.265353
-0.115017 -0.012164 -0.265351
-0.115014 -0.012089 -0.265347
-0.115011 -0.012010 -0.265352
-0.115008 -0.011932 -0.265358
-0.115005 -0.011856 -0.265354
-0.115002 -0.011779 -0.265342
-0.115000 -0.011703 -0.265332
-0.114997 -0.011625 -0.265328
-0.114993 -0.011547 -0.265339
-0.114989 -0.011471 -0.265353
-0.114986 -0.011393 -0.265359
-0.114983 -0.011315 -0.265365
-0.114980 -0.011239 -0.265357
-0.114977 -0.011161 -0.265351
-0.114974 -0.011083 -0.265354
-0.114971 -0.011007 -0.265348
-0.114968 -0.010929 -0.265340
-0.114965 -0.010853 -0.265338
-0.114962 -0.010775 -0.265338
-0.114959 -0.010697 -0.265343
-0.114956 -0.010619 -0.265345
-0.114953 -0.010544 -0.265335
-0.114950 -0.010468 -0.265331
-0.114947 -0.010390 -0.265333
-0.114944 -0.010312 -0.265331
-0.114941 -0.010234 -0.265328
-0.114938 -0.010158 -0.265320
-0.114936 -0.010082 -0.265308
-0.114933 -0.010005 -0.265304
-0.114930 -0.009927 -0.265300
-0.114927 -0.009851 -0.265293
-0.114924 -0.009773 -0.265289
-0.114921 -0.009697 -0.265293
-0.114918 -0.009619 -0.265299
-0.114915 -0.009541 -0.265299
-0.114912 -0.009463 -0.265299
-0.114909 -0.009387 -0.265298
-0.114905 -0.009309 -0.265304
-0.114902 -0.009231 -0.265306
-0.114899 -0.009155 -0.265300
-0.114896 -0.009077 -0.265294
-0.114893 -0.008999 -0.265292
-0.114890 -0.008923 -0.265293
-0.114887 -0.008845 -0.265291
-0.114884 -0.008768 -0.265285
-0.114882 -0.008692 -0.265277
-0.114879 -0.008614 -0.265267
-0.114876 -0.008538 -0.265264
-0.114873 -0.008460 -0.265266
-0.114870 -0.008382 -0.265264
-0.114867 -0.008306 -0.265260
-0.114864 -0.008229 -0.265254
-0.114862 -0.008153 -0.265247
-0.114859 -0.008075 -0.265235
-0.114856 -0.007999 -0.265225
-0.114853 -0.007921 -0.265235
-0.114849 -0.007843 -0.265249
-0.114846 -0.007765 -0.265247
-0.114843 -0.007689 -0.265246
-0.114840 -0.007611 -0.265252
-0.114836 -0.007533 -0.265254
-0.114833 -0.007455 -0.265252
-0.114830 -0.007379 -0.265248
-0.114827 -0.007301 -0.265246
-0.114824 -0.007223 -0.265243
-0.114822 -0.007148 -0.265237
-0.114819 -0.007070 -0.265227
-0.114816 -0.006994 -0.265223
-0.114813 -0.006916 -0.265231
-0.114809 -0.006838 -0.265235
-0.114806 -0.006760 -0.265234
-0.114804 -0.006684 -0.265222
-0.114801 -0.006606 -0.265220
-0.114797 -0.006528 -0.265226
-0.114795 -0.006452 -0.265222
-0.114792 -0.006374 -0.265211
-0.114789 -0.006299 -0.265203
-0.114786 -0.006221 -0.265207
-0.114783 -0.006143 -0.265205
-0.114780 -0.006067 -0.265195
-0.114777 -0.005989 -0.265191
-0.114774 -0.005911 -0.265190
-0.114771 -0.005833 -0.265198
-0.114768 -0.005755 -0.265200
-0.114765 -0.005679 -0.265182
-0.114764 -0.005604 -0.265156
-0.114761 -0.005528 -0.265155
-0.114757 -0.005450 -0.265171
-0.114753 -0.005370 -0.265177
-0.114751 -0.005294 -0.265169
-0.114748 -0.005218 -0.265153
-0.114747 -0.005143 -0.265122
-0.114744 -0.005067 -0.265116
-0.114741 -0.004989 -0.265124
-0.114738 -0.004911 -0.265112
-0.114735 -0.004836 -0.265106
-0.114731 -0.004755 -0.265132
-0.114727 -0.004677 -0.265149
-0.114723 -0.004597 -0.265159
-0.114720 -0.004520 -0.265165
-0.114717 -0.004443 -0.265155
-0.114715 -0.004367 -0.265131
-0.114713 -0.004291 -0.265125
-0.114709 -0.004211 -0.265136
-0.114706 -0.004135 -0.265136
-0.114704 -0.004060 -0.265114
-0.114702 -0.003984 -0.265090
-0.114699 -0.003906 -0.265094
-0.114695 -0.003828 -0.265109
-0.114692 -0.003750 -0.265111
-0.114689 -0.003672 -0.265103
-0.114686 -0.003596 -0.265097
-0.114683 -0.003518 -0.265105
-0.114679 -0.003438 -0.265111
-0.114676 -0.003362 -0.265116
-0.114672 -0.003282 -0.265120
-0.114669 -0.003206 -0.265120
-0.114666 -0.003128 -0.265120
-0.114663 -0.003050 -0.265120
-0.114660 -0.002972 -0.265120
-0.114658 -0.002897 -0.265105
-0.114655 -0.002821 -0.265089
-0.114652 -0.002743 -0.265101
-0.114649 -0.002665 -0.265099
-0.114646 -0.002589 -0.265085
-0.114643 -0.002511 -0.265081
-0.114640 -0.002433 -0.265080
-0.114637 -0.002355 -0.265090
-0.114632 -0.002275 -0.265114
-0.114628 -0.002194 -0.265130
-0.114625 -0.002117 -0.265128
-0.114623 -0.002041 -0.265114
-0.114621 -0.001967 -0.265095
-0.114617 -0.001887 -0.265103
-0.114614 -0.001809 -0.265113
-0.114611 -0.001731 -0.265111
-0.114607 -0.001653 -0.265115
-0.114604 -0.001575 -0.265119
-0.114601 -0.001497 -0.265115
-0.114598 -0.001421 -0.265116
-0.114595 -0.001343 -0.265114
-0.114592 -0.001265 -0.265112
-0.114589 -0.001187 -0.265108
-0.114586 -0.001112 -0.265100
-0.114583 -0.001034 -0.265095
-0.114580 -0.000956 -0.265099
-0.114577 -0.000878 -0.265099
-0.114574 -0.000802 -0.265091
-0.114572 -0.000724 -0.265079
-0.114569 -0.000649 -0.265066
-0.114566 -0.000571 -0.265072
-0.114562 -0.000490 -0.265092
-0.114558 -0.000410 -0.265104
-0.114555 -0.000332 -0.265108
-0.114552 -0.000256 -0.265108
-0.114548 -0.000176 -0.265110
-0.114545 -0.000100 -0.265109
-0.114543 -0.000024 -0.265093
-0.114540 0.000053 -0.265087
-0.114537 0.000132 -0.265097
-0.114534 0.000210 -0.265097
-0.114531 0.000287 -0.265091
-0.114528 0.000365 -0.265092
-0.114524 0.000443 -0.265092
-0.114522 0.000519 -0.265086
-0.114519 0.000597 -0.265076
-0.114516 0.000673 -0.265072
-0.114513 0.000751 -0.265066
-0.114510 0.000829 -0.265065
-0.114507 0.000907 -0.265065
-0.114504 0.000984 -0.265063
-0.114501 0.001060 -0.265063
-0.114498 0.001140 -0.265065
-0.114495 0.001216 -0.265058
-0.114492 0.001292 -0.265052
-0.114489 0.001372 -0.265054
-0.114486 0.001450 -0.265060
-0.114482 0.001528 -0.265062
-0.114479 0.001606 -0.265060
-0.114476 0.001682 -0.265058
-0.114473 0.001760 -0.265055
-0.114471 0.001838 -0.265049
-0.114468 0.001916 -0.265045
-0.114465 0.001991 -0.265041
-0.114462 0.002069 -0.265039
-0.114458 0.002148 -0.265048
-0.114454 0.002228 -0.265062
-0.114451 0.002306 -0.265064
-0.114448 0.002384 -0.265062
-0.114446 0.002459 -0.265052
-0.114443 0.002537 -0.265042
-0.114440 0.002613 -0.265039
-0.114436 0.002693 -0.265045
-0.114433 0.002771 -0.265051
-0.114430 0.002849 -0.265049
-0.114427 0.002927 -0.265043
-0.114424 0.003003 -0.265039
-0.114421 0.003081 -0.265035
-0.114418 0.003159 -0.265038
-0.114415 0.003237 -0.265042
-0.114412 0.003315 -0.265044
-0.114409 0.003393 -0.265038
-0.114406 0.003470 -0.265032
-0.114403 0.003548 -0.265034
-0.114399 0.003626 -0.265037
-0.114396 0.003705 -0.265039
-0.114393 0.003783 -0.265041
-0.114390 0.003861 -0.265043
-0.114387 0.003939 -0.265045
-0.114383 0.004016 -0.265045
-0.114380 0.004094 -0.265044
-0.114377 0.004172 -0.265046
-0.114374 0.004250 -0.265048
-0.114371 0.004328 -0.265046
-0.114368 0.004406 -0.265044
-0.114365 0.004484 -0.265044
-0.114361 0.004562 -0.265047
-0.114358 0.004640 -0.265045
-0.114356 0.004718 -0.265041
-0.114353 0.004794 -0.265035
-0.114350 0.004872 -0.265035
-0.114346 0.004950 -0.265035
-0.114343 0.005028 -0.265036
-0.114340 0.005106 -0.265032
-0.114337 0.005184 -0.265032
-0.114334 0.005262 -0.265040
-0.114330 0.005342 -0.265042
-0.114328 0.005418 -0.265034
-0.114325 0.005493 -0.265025
-0.114322 0.005571 -0.265023
-0.114319 0.005649 -0.265021
-0.114316 0.005727 -0.265019
-0.114313 0.005805 -0.265023
-0.114310 0.005883 -0.265023
-0.114307 0.005959 -0.265018
-0.114304 0.006037 -0.265012
-0.114301 0.006115 -0.265010
-0.114297 0.006195 -0.265018
-0.114294 0.006273 -0.265020
-0.114291 0.006349 -0.265014
-0.114289 0.006426 -0.265009
-0.114285 0.006504 -0.265009
-0.114283 0.006582 -0.265003
-0.114280 0.006658 -0.264995
-0.114277 0.006736 -0.264997
-0.114273 0.006814 -0.265001
-0.114270 0.006894 -0.265005
-0.114267 0.006970 -0.265002
-0.114264 0.007048 -0.264998
-0.114261 0.007126 -0.264996
-0.114258 0.007204 -0.264992
-0.114255 0.007282 -0.264992
-0.114252 0.007360 -0.264998
-0.114248 0.007438 -0.265001
-0.114245 0.007516 -0.264999
-0.114242 0.007594 -0.265001
-0.114239 0.007672 -0.265001
-0.114236 0.007749 -0.264997
-0.114233 0.007827 -0.264995
-0.114230 0.007905 -0.264998
-0.114226 0.007984 -0.265004
-0.114223 0.008061 -0.265000
-0.114221 0.008139 -0.264996
-0.114217 0.008217 -0.264994
-0.115771 -0.041626 -0.268596
-0.115767 -0.041546 -0.268596
-0.115764 -0.041468 -0.268605
-0.115761 -0.041392 -0.268611
-0.115757 -0.041312 -0.268613
-0.115754 -0.041234 -0.268613
-0.115751 -0.041154 -0.268605
-0.115748 -0.041074 -0.268601
-0.115745 -0.040996 -0.268604
-0.115742 -0.040917 -0.268604
-0.115739 -0.040839 -0.268604
-0.115736 -0.040759 -0.268604
-0.115732 -0.040681 -0.268604
-0.115729 -0.040601 -0.268598
-0.115727 -0.040521 -0.268588
-0.115724 -0.040441 -0.268586
-0.115720 -0.040363 -0.268595
-0.115717 -0.040285 -0.268595
-0.115714 -0.040205 -0.268591
-0.115712 -0.040124 -0.268573
-0.115709 -0.040046 -0.268571
-0.115705 -0.039967 -0.268583
-0.115701 -0.039889 -0.268591
-0.115698 -0.039811 -0.268590
-0.115695 -0.039731 -0.268590
-0.115692 -0.039652 -0.268586
-0.115689 -0.039574 -0.268590
-0.115685 -0.039495 -0.268596
-0.115682 -0.039416 -0.268590
-0.115679 -0.039336 -0.268584
-0.115676 -0.039258 -0.268584
-0.115673 -0.039178 -0.268581
-0.115670 -0.039100 -0.268581
-0.115667 -0.039020 -0.268583
-0.115664 -0.038942 -0.268583
-0.115660 -0.038862 -0.268583
-0.115657 -0.038782 -0.268583
-0.115655 -0.038702 -0.268571
-0.115652 -0.038625 -0.268566
-0.115649 -0.038545 -0.268566
-0.115645 -0.038467 -0.268570
-0.115642 -0.038388 -0.268578
-0.115639 -0.038309 -0.268576
-0.115635 -0.038230 -0.268580
-0.115632 -0.038152 -0.268590
-0.115629 -0.038074 -0.268591
-0.115626 -0.037993 -0.268579
-0.115623 -0.037913 -0.268567
-0.115620 -0.037835 -0.268567
-0.115617 -0.037757 -0.268573
-0.115613 -0.037679 -0.268579
-0.115610 -0.037599 -0.268581
-0.115607 -0.037521 -0.268581
-0.115603 -0.037443 -0.268588
-0.115600 -0.037365 -0.268594
-0.115597 -0.037285 -0.268582
-0.115595 -0.037203 -0.268568
-0.115592 -0.037125 -0.268566
-0.115588 -0.037047 -0.268572
-0.115585 -0.036969 -0.268580
-0.115582 -0.036889 -0.268575
-0.115579 -0.036809 -0.268567
-0.115576 -0.036731 -0.268569
-0.115572 -0.036652 -0.268569
-0.115570 -0.036572 -0.268557
-0.115567 -0.036492 -0.268555
-0.115563 -0.036414 -0.268559
-0.115560 -0.036336 -0.268566
-0.115557 -0.036258 -0.268570
-0.115554 -0.036178 -0.268566
-0.115551 -0.036098 -0.268558
-0.115548 -0.036018 -0.268550
-0.115545 -0.035940 -0.268548
-0.115541 -0.035862 -0.268558
-0.115538 -0.035782 -0.268560
-0.115535 -0.035702 -0.268549
-0.115532 -0.035623 -0.268545
-0.115529 -0.035545 -0.268545
-0.115526 -0.035467 -0.268547
-0.115523 -0.035389 -0.268553
-0.115519 -0.035310 -0.268565
-0.115516 -0.035230 -0.268563
-0.115512 -0.035152 -0.268566
-0.115509 -0.035074 -0.268566
-0.115506 -0.034995 -0.268562
-0.115503 -0.034917 -0.268560
-0.115500 -0.034837 -0.268558
-0.115498 -0.034757 -0.268546
-0.115495 -0.034677 -0.268540
-0.115491 -0.034599 -0.268547
-0.115488 -0.034521 -0.268555
-0.115485 -0.034443 -0.268555
-0.115482 -0.034363 -0.268551
-0.115478 -0.034285 -0.268555
-0.115475 -0.034207 -0.268561
-0.115472 -0.034127 -0.268553
-0.115469 -0.034047 -0.268543
-0.115466 -0.033969 -0.268544
-0.115463 -0.033891 -0.268548
-0.115459 -0.033811 -0.268556
-0.115456 -0.033735 -0.268566
-0.115452 -0.033655 -0.268564
-0.115450 -0.033576 -0.268552
-0.115448 -0.033496 -0.268534
-0.115445 -0.033414 -0.268513
-0.115442 -0.033335 -0.268507
-0.115439 -0.033256 -0.268517
-0.115435 -0.033180 -0.268529
-0.115432 -0.033102 -0.268537
-0.115428 -0.033022 -0.268541
-0.115425 -0.032946 -0.268551
-0.115422 -0.032864 -0.268540
-0.115420 -0.032785 -0.268520
-0.115417 -0.032705 -0.268512
-0.115413 -0.032627 -0.268522
-0.115410 -0.032549 -0.268530
-0.115406 -0.032470 -0.268536
-0.115403 -0.032392 -0.268536
-0.115400 -0.032313 -0.268537
-0.115397 -0.032235 -0.268537
-0.115394 -0.032155 -0.268533
-0.115391 -0.032075 -0.268527
-0.115388 -0.031997 -0.268525
-0.115385 -0.031919 -0.268529
-0.115382 -0.031839 -0.268525
-0.115378 -0.031761 -0.268526
-0.115375 -0.031683 -0.268534
-0.115372 -0.031605 -0.268534
-0.115369 -0.031525 -0.268524
-0.115366 -0.031445 -0.268516
-0.115363 -0.031368 -0.268512
-0.115360 -0.031287 -0.268518
-0.115356 -0.031211 -0.268531
-0.115353 -0.031133 -0.268531
-0.115350 -0.031053 -0.268529
-0.115347 -0.030975 -0.268529
-0.115343 -0.030895 -0.268529
-0.115340 -0.030817 -0.268531
-0.115337 -0.030740 -0.268525
-0.115335 -0.030658 -0.268514
-0.115331 -0.030580 -0.268520
-0.115328 -0.030502 -0.268516
-0.115326 -0.030422 -0.268504
-0.115323 -0.030342 -0.268500
-0.115319 -0.030264 -0.268508
-0.115316 -0.030186 -0.268516
-0.115312 -0.030108 -0.268525
-0.115309 -0.030030 -0.268527
-0.115306 -0.029950 -0.268521
-0.115303 -0.029872 -0.268519
-0.115300 -0.029794 -0.268519
-0.115297 -0.029714 -0.268517
-0.115294 -0.029634 -0.268511
-0.115291 -0.029557 -0.268510
-0.115287 -0.029478 -0.268520
-0.115284 -0.029400 -0.268526
-0.115281 -0.029320 -0.268524
-0.115277 -0.029242 -0.268530
-0.115274 -0.029164 -0.268532
-0.115271 -0.029085 -0.268520
-0.115268 -0.029007 -0.268517
-0.115265 -0.028927 -0.268519
-0.115262 -0.028849 -0.268517
-0.115259 -0.028771 -0.268523
-0.115255 -0.028693 -0.268527
-0.115252 -0.028613 -0.268523
-0.115249 -0.028533 -0.268515
-0.115246 -0.028455 -0.268512
-0.115243 -0.028377 -0.268510
-0.115240 -0.028297 -0.268506
-0.115238 -0.028220 -0.268498
-0.115235 -0.028140 -0.268488
-0.115232 -0.028060 -0.268478
-0.115230 -0.027981 -0.268456
-0.115231 -0.027896 -0.268372
-0.115233 -0.027813 -0.268265
-0.115230 -0.027733 -0.268241
-0.115227 -0.027655 -0.268243
-0.115288 -0.027511 -0.266861
-0.115286 -0.027430 -0.266827
-0.115284 -0.027353 -0.266799
-0.115288 -0.027266 -0.266647
-0.115294 -0.027180 -0.266455
-0.115296 -0.027099 -0.266351
-0.115299 -0.027014 -0.266218
-0.115301 -0.026932 -0.266104
-0.115301 -0.026852 -0.266042
-0.115300 -0.026771 -0.265978
-0.115300 -0.026690 -0.265910
-0.115300 -0.026610 -0.265852
-0.115299 -0.026531 -0.265807
-0.115298 -0.026452 -0.265761
-0.115297 -0.026373 -0.265721
-0.115295 -0.026295 -0.265697
-0.115293 -0.026216 -0.265675
-0.115291 -0.026138 -0.265653
-0.115288 -0.026061 -0.265636
-0.115286 -0.025983 -0.265620
-0.115284 -0.025904 -0.265598
-0.115282 -0.025826 -0.265580
-0.115279 -0.025748 -0.265566
-0.115276 -0.025671 -0.265556
-0.115274 -0.025593 -0.265549
-0.115271 -0.025517 -0.265539
-0.115269 -0.025439 -0.265527
-0.115266 -0.025362 -0.265517
-0.115263 -0.025284 -0.265511
-0.115260 -0.025206 -0.265504
-0.115258 -0.025130 -0.265496
-0.115255 -0.025052 -0.265490
-0.115252 -0.024975 -0.265482
-0.115249 -0.024897 -0.265476
-0.115246 -0.024821 -0.265474
-0.115243 -0.024743 -0.265475
-0.115241 -0.024665 -0.265463
-0.115238 -0.024589 -0.265457
-0.115234 -0.024511 -0.265467
-0.115231 -0.024435 -0.265479
-0.115228 -0.024357 -0.265476
-0.115225 -0.024279 -0.265468
-0.115222 -0.024203 -0.265462
-0.115219 -0.024126 -0.265456
-0.115216 -0.024050 -0.265460
-0.115212 -0.023973 -0.265471
-0.115209 -0.023895 -0.265471
-0.115207 -0.023818 -0.265463
-0.115203 -0.023741 -0.265473
-0.115200 -0.023663 -0.265481
-0.115196 -0.023587 -0.265481
-0.115193 -0.023509 -0.265480
-0.115190 -0.023433 -0.265486
-0.115187 -0.023355 -0.265492
-0.115184 -0.023279 -0.265488
-0.115181 -0.023202 -0.265484
-0.115178 -0.023123 -0.265488
-0.115175 -0.023048 -0.265487
-0.115172 -0.022970 -0.265485
-0.115168 -0.022894 -0.265489
-0.115165 -0.022816 -0.265491
-0.115162 -0.022739 -0.265499
-0.115158 -0.022661 -0.265509
-0.115155 -0.022585 -0.265516
-0.115151 -0.022507 -0.265520
-0.115148 -0.022431 -0.265530
-0.115144 -0.022355 -0.265534
-0.115141 -0.022277 -0.265532
-0.115138 -0.022199 -0.265541
-0.115134 -0.022123 -0.265549
-0.115131 -0.022047 -0.265549
-0.115128 -0.021969 -0.265557
-0.115124 -0.021892 -0.265569
-0.115121 -0.021814 -0.265579
-0.115118 -0.021738 -0.265580
-0.115115 -0.021660 -0.265574
-0.115112 -0.021585 -0.265570
-0.115109 -0.021507 -0.265568
-0.115106 -0.021429 -0.265564
-0.115103 -0.021353 -0.265557
-0.115100 -0.021275 -0.265551
-0.115098 -0.021197 -0.265545
-0.115095 -0.021121 -0.265541
-0.115092 -0.021044 -0.265537
-0.115089 -0.020968 -0.265535
-0.115086 -0.020890 -0.265536
-0.115082 -0.020812 -0.265540
-0.115079 -0.020736 -0.265538
-0.115076 -0.020658 -0.265536
-0.115073 -0.020582 -0.265532
-0.115071 -0.020504 -0.265527
-0.115068 -0.020426 -0.265523
-0.115064 -0.020350 -0.265529
-0.115061 -0.020272 -0.265539
-0.115057 -0.020196 -0.265549
-0.115054 -0.020120 -0.265553
-0.115051 -0.020042 -0.265554
-0.115048 -0.019964 -0.265550
-0.115045 -0.019886 -0.265548
-0.115041 -0.019810 -0.265562
-0.115037 -0.019733 -0.265578
-0.115034 -0.019655 -0.265584
-0.115030 -0.019579 -0.265595
-0.115027 -0.019501 -0.265603
-0.115023 -0.019425 -0.265607
-0.115020 -0.019347 -0.265611
-0.115017 -0.019269 -0.265613
-0.115014 -0.019193 -0.265617
-0.115011 -0.019115 -0.265612
-0.115008 -0.019039 -0.265610
-0.115004 -0.018961 -0.265620
-0.115001 -0.018885 -0.265624
-0.114998 -0.018807 -0.265612
-0.114996 -0.018729 -0.265607
-0.114992 -0.018653 -0.265615
-0.114989 -0.018575 -0.265623
-0.114986 -0.018497 -0.265615
-0.114983 -0.018421 -0.265603
-0.114980 -0.018344 -0.265601
-0.114977 -0.018268 -0.265600
-0.114975 -0.018190 -0.265588
-0.114972 -0.018112 -0.265578
-0.114969 -0.018036 -0.265580
-0.114966 -0.017958 -0.265582
-0.114962 -0.017882 -0.265591
-0.114959 -0.017804 -0.265593
-0.114957 -0.017726 -0.265579
-0.114954 -0.017651 -0.265573
-0.114951 -0.017573 -0.265567
-0.114948 -0.017497 -0.265566
-0.114945 -0.017419 -0.265564
-0.114942 -0.017341 -0.265564
-0.114939 -0.017265 -0.265564
-0.114936 -0.017187 -0.265558
-0.114933 -0.017109 -0.265554
-0.114930 -0.017033 -0.265559
-0.114927 -0.016955 -0.265559
-0.114924 -0.016879 -0.265557
-0.114921 -0.016801 -0.265551
-0.114918 -0.016724 -0.265547
-0.114915 -0.016648 -0.265545
-0.114912 -0.016570 -0.265544
-0.114909 -0.016494 -0.265538
-0.114906 -0.016416 -0.265534
-0.114903 -0.016338 -0.265530
-0.114900 -0.016262 -0.265530
-0.114897 -0.016184 -0.265531
-0.114894 -0.016108 -0.265535
-0.114891 -0.016030 -0.265535
-0.114888 -0.015952 -0.265535
-0.114884 -0.015876 -0.265537
-0.114881 -0.015798 -0.265535
-0.114879 -0.015722 -0.265530
-0.114876 -0.015645 -0.265524
-0.114873 -0.015567 -0.265508
-0.114871 -0.015491 -0.265498
-0.114868 -0.015413 -0.265500
-0.114865 -0.015337 -0.265497
-0.114862 -0.015260 -0.265489
-0.114859 -0.015182 -0.265481
-0.114857 -0.015106 -0.265471
-0.114854 -0.015028 -0.265463
-0.114851 -0.014952 -0.265458
-0.114849 -0.014875 -0.265448
-0.114846 -0.014799 -0.265436
-0.114843 -0.014721 -0.265436
-0.114840 -0.014643 -0.265442
-0.114837 -0.014567 -0.265436
-0.114834 -0.014489 -0.265431
-0.114831 -0.014413 -0.265431
-0.114828 -0.014335 -0.265431
-0.114825 -0.014257 -0.265427
-0.114822 -0.014182 -0.265419
-0.114819 -0.014104 -0.265416
-0.114816 -0.014028 -0.265422
-0.114813 -0.013950 -0.265426
-0.114809 -0.013872 -0.265424
-0.114806 -0.013796 -0.265424
-0.114803 -0.013718 -0.265428
-0.114800 -0.013640 -0.265431
-0.114797 -0.013564 -0.265425
-0.114794 -0.013486 -0.265417
-0.114791 -0.013410 -0.265425
-0.114787 -0.013332 -0.265433
-0.114785 -0.013254 -0.265425
-0.114782 -0.013178 -0.265424
-0.114778 -0.013100 -0.265432
-0.114775 -0.013022 -0.265428
-0.114772 -0.012946 -0.265422
-0.114769 -0.012868 -0.265422
-0.114766 -0.012792 -0.265421
-0.114764 -0.012715 -0.265415
-0.114761 -0.012637 -0.265409
-0.114757 -0.012561 -0.265413
-0.114754 -0.012483 -0.265409
-0.114752 -0.012407 -0.265396
-0.114750 -0.012329 -0.265384
-0.114746 -0.012251 -0.265390
-0.114742 -0.012173 -0.265404
-0.114739 -0.012097 -0.265414
-0.114736 -0.012019 -0.265408
-0.114733 -0.011943 -0.265399
-0.114730 -0.011865 -0.265397
-0.114727 -0.011787 -0.265407
-0.114723 -0.011709 -0.265421
-0.114720 -0.011633 -0.265417
-0.114718 -0.011555 -0.265401
-0.114715 -0.011480 -0.265398
-0.114712 -0.011402 -0.265398
-0.114709 -0.011326 -0.265394
-0.114706 -0.011248 -0.265396
-0.114702 -0.011170 -0.265402
-0.114699 -0.011092 -0.265406
-0.114696 -0.011016 -0.265403
-0.114693 -0.010938 -0.265393
-0.114690 -0.010862 -0.265393
-0.114687 -0.010784 -0.265391
-0.114684 -0.010706 -0.265383
-0.114681 -0.010630 -0.265384
-0.114678 -0.010552 -0.265388
-0.114675 -0.010474 -0.265390
-0.114672 -0.010398 -0.265384
-0.114669 -0.010321 -0.265376
-0.114667 -0.010245 -0.265366
-0.114664 -0.010167 -0.265359
-0.114661 -0.010091 -0.265359
-0.114657 -0.010011 -0.265371
-0.114654 -0.009935 -0.265379
-0.114651 -0.009857 -0.265377
-0.114648 -0.009779 -0.265372
-0.114645 -0.009703 -0.265366
-0.114642 -0.009625 -0.265372
-0.114638 -0.009547 -0.265374
-0.114636 -0.009471 -0.265366
-0.114633 -0.009394 -0.265354
-0.114631 -0.009318 -0.265345
-0.114627 -0.009240 -0.265353
-0.114623 -0.009162 -0.265363
-0.114620 -0.009084 -0.265361
-0.114617 -0.009008 -0.265359
-0.114615 -0.008930 -0.265353
-0.114612 -0.008852 -0.265348
-0.114609 -0.008776 -0.265348
-0.114606 -0.008698 -0.265348
-0.114603 -0.008620 -0.265344
-0.114600 -0.008544 -0.265338
-0.114597 -0.008467 -0.265333
-0.114594 -0.008391 -0.265323
-0.114592 -0.008313 -0.265311
-0.114589 -0.008237 -0.265309
-0.114586 -0.008159 -0.265311
-0.114582 -0.008081 -0.265315
-0.114580 -0.008005 -0.265310
-0.114577 -0.007927 -0.265304
-0.114573 -0.007849 -0.265310
-0.114570 -0.007771 -0.265314
-0.114567 -0.007695 -0.265314
-0.114564 -0.007617 -0.265313
-0.114561 -0.007539 -0.265313
-0.114557 -0.007461 -0.265317
-0.114555 -0.007386 -0.265313
-0.114552 -0.007308 -0.265307
-0.114549 -0.007232 -0.265299
-0.114546 -0.007154 -0.265294
-0.114543 -0.007076 -0.265296
-0.114540 -0.006998 -0.265302
-0.114537 -0.006922 -0.265300
-0.114534 -0.006844 -0.265296
-0.114530 -0.006766 -0.265298
-0.114527 -0.006688 -0.265299
-0.114525 -0.006612 -0.265291
-0.114522 -0.006535 -0.265283
-0.114519 -0.006459 -0.265279
-0.114516 -0.006381 -0.265281
-0.114512 -0.006303 -0.265288
-0.114509 -0.006225 -0.265290
-0.114506 -0.006147 -0.265292
-0.114503 -0.006071 -0.265286
-0.114500 -0.005993 -0.265278
-0.114498 -0.005915 -0.265272
-0.114495 -0.005839 -0.265261
-0.114492 -0.005762 -0.265257
-0.114489 -0.005686 -0.265257
-0.114486 -0.005608 -0.265257
-0.114483 -0.005530 -0.265263
-0.114480 -0.005452 -0.265261
-0.114477 -0.005376 -0.265246
-0.114474 -0.005298 -0.265244
-0.114471 -0.005220 -0.265252
-0.114467 -0.005142 -0.265254
-0.114465 -0.005066 -0.265250
-0.114462 -0.004988 -0.265241
-0.114459 -0.004913 -0.265235
-0.114456 -0.004835 -0.265233
-0.114453 -0.004757 -0.265231
-0.114450 -0.004681 -0.265223
-0.114447 -0.004603 -0.265219
-0.114445 -0.004527 -0.265212
-0.114442 -0.004450 -0.265196
-0.114440 -0.004374 -0.265192
-0.114436 -0.004296 -0.265196
-0.114433 -0.004218 -0.265204
-0.114430 -0.004140 -0.265205
-0.114427 -0.004062 -0.265197
-0.114424 -0.003986 -0.265193
-0.114421 -0.003908 -0.265197
-0.114418 -0.003830 -0.265195
-0.114415 -0.003752 -0.265195
-0.114411 -0.003674 -0.265202
-0.114408 -0.003596 -0.265202
-0.114405 -0.003520 -0.265200
-0.114402 -0.003442 -0.265194
-0.114399 -0.003366 -0.265186
-0.114397 -0.003289 -0.265182
-0.114393 -0.003211 -0.265185
-0.114390 -0.003133 -0.265181
-0.114388 -0.003057 -0.265165
-0.114386 -0.002981 -0.265155
-0.114382 -0.002903 -0.265155
-0.114379 -0.002825 -0.265162
-0.114376 -0.002747 -0.265164
-0.114373 -0.002669 -0.265164
-0.114370 -0.002591 -0.265158
-0.114367 -0.002516 -0.265150
-0.114364 -0.002438 -0.265150
-0.114360 -0.002360 -0.265159
-0.114357 -0.002282 -0.265161
-0.114354 -0.002204 -0.265157
-0.114351 -0.002126 -0.265157
-0.114348 -0.002048 -0.265157
-0.114345 -0.001972 -0.265159
-0.114342 -0.001894 -0.265158
-0.114339 -0.001816 -0.265158
-0.114335 -0.001738 -0.265160
-0.114332 -0.001660 -0.265162
-0.114329 -0.001582 -0.265164
-0.114326 -0.001504 -0.265162
-0.114323 -0.001426 -0.265164
-0.114319 -0.001348 -0.265169
-0.114316 -0.001270 -0.265171
-0.114313 -0.001192 -0.265171
-0.114310 -0.001116 -0.265165
-0.114307 -0.001038 -0.265157
-0.114304 -0.000960 -0.265162
-0.114301 -0.000882 -0.265166
-0.114298 -0.000804 -0.265164
-0.114295 -0.000726 -0.265164
-0.114291 -0.000648 -0.265170
-0.114288 -0.000570 -0.265172
-0.114285 -0.000492 -0.265166
-0.114283 -0.000417 -0.265157
-0.114279 -0.000339 -0.265159
-0.114275 -0.000258 -0.265173
-0.114272 -0.000180 -0.265183
-0.114269 -0.000102 -0.265177
-0.114266 -0.000027 -0.265167
-0.114263 0.000051 -0.265164
-0.114261 0.000127 -0.265158
-0.114258 0.000205 -0.265146
-0.114256 0.000281 -0.265136
-0.114253 0.000358 -0.265126
-0.114250 0.000434 -0.265123
-0.114247 0.000512 -0.265123
-0.114244 0.000590 -0.265123
-0.114241 0.000668 -0.265125
-0.114238 0.000746 -0.265119
-0.114235 0.000824 -0.265115
-0.114232 0.000900 -0.265116
-0.114229 0.000978 -0.265108
-0.114226 0.001053 -0.265098
-0.114223 0.001131 -0.265096
-0.114220 0.001209 -0.265094
-0.114217 0.001287 -0.265097
-0.114214 0.001367 -0.265105
-0.114210 0.001443 -0.265107
-0.114208 0.001521 -0.265095
-0.114206 0.001597 -0.265079
-0.114203 0.001673 -0.265075
-0.114199 0.001753 -0.265088
-0.114196 0.001831 -0.265090
-0.114193 0.001909 -0.265082
-0.114190 0.001984 -0.265074
-0.114188 0.002060 -0.265066
-0.114185 0.002138 -0.265054
-0.114182 0.002214 -0.265049
-0.114178 0.002294 -0.265061
-0.114175 0.002372 -0.265065
-0.114172 0.002450 -0.265063
-0.114169 0.002528 -0.265061
-0.114166 0.002606 -0.265059
-0.114164 0.002681 -0.265046
-0.114161 0.002757 -0.265028
-0.114158 0.002835 -0.265032
-0.114155 0.002913 -0.265038
-0.114152 0.002989 -0.265026
-0.114150 0.003064 -0.265001
-0.114148 0.003140 -0.264989
-0.114144 0.003220 -0.265001
-0.114140 0.003301 -0.265023
-0.114136 0.003381 -0.265035
-0.114133 0.003459 -0.265039
-0.114130 0.003535 -0.265032
-0.114127 0.003612 -0.265022
-0.114124 0.003690 -0.265026
-0.114121 0.003768 -0.265028
-0.114118 0.003846 -0.265022
-0.114115 0.003924 -0.265028
-0.114111 0.004002 -0.265032
-0.114108 0.004080 -0.265031
-0.114105 0.004158 -0.265033
-0.114102 0.004236 -0.265025
-0.114099 0.004312 -0.265019
-0.114096 0.004390 -0.265021
-0.114093 0.004468 -0.265018
-0.114091 0.004544 -0.265006
-0.114088 0.004621 -0.265006
-0.114084 0.004702 -0.265014
-0.114081 0.004780 -0.265022
-0.114077 0.004860 -0.265024
-0.114074 0.004936 -0.265022
-0.114071 0.005014 -0.265019
-0.114069 0.005089 -0.265005
-0.114066 0.005167 -0.265001
-0.114062 0.005245 -0.265011
-0.114059 0.005325 -0.265019
-0.114055 0.005403 -0.265023
-0.114053 0.005481 -0.265020
-0.114050 0.005557 -0.265012
-0.114047 0.005635 -0.265012
-0.114043 0.005715 -0.265020
-0.114040 0.005793 -0.265026
-0.114037 0.005871 -0.265016
-0.114035 0.005945 -0.264999
-0.114032 0.006023 -0.264999
-0.114029 0.006101 -0.265001
-0.114026 0.006178 -0.264995
-0.114023 0.006256 -0.264993
-0.114020 0.006332 -0.264987
-0.114017 0.006410 -0.264988
-0.114014 0.006488 -0.264990
-0.114011 0.006566 -0.264980
-0.114008 0.006642 -0.264970
-0.114005 0.006720 -0.264970
-0.114002 0.006798 -0.264977
-0.113998 0.006878 -0.264985
-0.113995 0.006956 -0.264983
-0.113993 0.007031 -0.264971
-0.113990 0.007107 -0.264965
-0.113987 0.007185 -0.264963
-0.113984 0.007263 -0.264964
-0.113980 0.007343 -0.264968
-0.113977 0.007421 -0.264968
-0.113974 0.007497 -0.264966
-0.113971 0.007575 -0.264966
-0.113968 0.007653 -0.264964
-0.113965 0.007731 -0.264962
-0.113962 0.007809 -0.264967
-0.113958 0.007889 -0.264977
-0.113954 0.007969 -0.264985
-0.113951 0.008047 -0.264983
-0.113949 0.008123 -0.264969
-0.113947 0.008199 -0.264957
-0.115556 -0.041652 -0.268630
-0.115553 -0.041570 -0.268610
-0.115551 -0.041489 -0.268594
-0.115547 -0.041412 -0.268606
-0.115544 -0.041334 -0.268613
-0.115541 -0.041254 -0.268609
-0.115537 -0.041176 -0.268613
-0.115534 -0.041096 -0.268607
-0.115532 -0.041017 -0.268597
-0.115529 -0.040937 -0.268597
-0.115525 -0.040861 -0.268609
-0.115522 -0.040781 -0.268606
-0.115519 -0.040699 -0.268594
-0.115516 -0.040623 -0.268602
-0.115513 -0.040543 -0.268602
-0.115510 -0.040463 -0.268588
-0.115506 -0.040385 -0.268598
-0.115503 -0.040307 -0.268610
-0.115500 -0.040227 -0.268598
-0.115497 -0.040147 -0.268593
-0.115493 -0.040069 -0.268603
-0.115490 -0.039993 -0.268619
-0.115487 -0.039913 -0.268617
-0.115484 -0.039833 -0.268601
-0.115481 -0.039753 -0.268595
-0.115478 -0.039675 -0.268597
-0.115475 -0.039595 -0.268596
-0.115472 -0.039516 -0.268592
-0.115469 -0.039438 -0.268590
-0.115465 -0.039358 -0.268592
-0.115462 -0.039280 -0.268600
-0.115459 -0.039201 -0.268606
-0.115455 -0.039123 -0.268610
-0.115452 -0.039045 -0.268613
-0.115449 -0.038964 -0.268603
-0.115447 -0.038884 -0.268591
-0.115443 -0.038804 -0.268587
-0.115440 -0.038726 -0.268597
-0.115437 -0.038650 -0.268603
-0.115433 -0.038570 -0.268603
-0.115430 -0.038492 -0.268604
-0.115427 -0.038412 -0.268602
-0.115424 -0.038334 -0.268606
-0.115421 -0.038252 -0.268586
-0.115419 -0.038171 -0.268568
-0.115415 -0.038093 -0.268578
-0.115412 -0.038016 -0.268594
-0.115408 -0.037938 -0.268594
-0.115405 -0.037859 -0.268589
-0.115402 -0.037779 -0.268589
-0.115399 -0.037701 -0.268591
-0.115396 -0.037621 -0.268591
-0.115393 -0.037543 -0.268589
-0.115390 -0.037463 -0.268581
-0.115387 -0.037383 -0.268579
-0.115384 -0.037305 -0.268580
-0.115381 -0.037225 -0.268578
-0.115377 -0.037147 -0.268580
-0.115374 -0.037069 -0.268584
-0.115371 -0.036989 -0.268578
-0.115368 -0.036909 -0.268572
-0.115365 -0.036829 -0.268570
-0.115362 -0.036751 -0.268578
-0.115358 -0.036675 -0.268591
-0.115355 -0.036595 -0.268587
-0.115352 -0.036515 -0.268579
-0.115349 -0.036437 -0.268581
-0.115346 -0.036358 -0.268577
-0.115343 -0.036278 -0.268571
-0.115340 -0.036200 -0.268573
-0.115336 -0.036120 -0.268574
-0.115334 -0.036042 -0.268570
-0.115330 -0.035964 -0.268574
-0.115327 -0.035886 -0.268584
-0.115323 -0.035806 -0.268584
-0.115320 -0.035726 -0.268578
-0.115318 -0.035646 -0.268570
-0.115314 -0.035568 -0.268571
-0.115311 -0.035490 -0.268577
-0.115308 -0.035410 -0.268577
-0.115305 -0.035330 -0.268569
-0.115303 -0.035251 -0.268555
-0.115299 -0.035173 -0.268555
-0.115296 -0.035094 -0.268569
-0.115292 -0.035016 -0.268575
-0.115289 -0.034938 -0.268574
-0.115286 -0.034857 -0.268566
-0.115283 -0.034779 -0.268566
-0.115280 -0.034701 -0.268568
-0.115277 -0.034621 -0.268562
-0.115274 -0.034541 -0.268546
-0.115271 -0.034461 -0.268542
-0.115268 -0.034385 -0.268557
-0.115264 -0.034307 -0.268561
-0.115262 -0.034225 -0.268551
-0.115259 -0.034147 -0.268543
-0.115256 -0.034068 -0.268535
-0.115253 -0.033988 -0.268531
-0.115250 -0.033910 -0.268537
-0.115246 -0.033832 -0.268548
-0.115243 -0.033754 -0.268546
-0.115240 -0.033674 -0.268546
-0.115236 -0.033596 -0.268550
-0.115233 -0.033518 -0.268550
-0.115230 -0.033438 -0.268552
-0.115227 -0.033360 -0.268556
-0.115223 -0.033280 -0.268555
-0.115220 -0.033202 -0.268557
-0.115217 -0.033124 -0.268555
-0.115214 -0.033044 -0.268555
-0.115211 -0.032966 -0.268555
-0.115208 -0.032886 -0.268551
-0.115205 -0.032808 -0.268549
-0.115202 -0.032728 -0.268552
-0.115198 -0.032650 -0.268554
-0.115195 -0.032572 -0.268554
-0.115192 -0.032492 -0.268554
-0.115189 -0.032412 -0.268548
-0.115186 -0.032334 -0.268540
-0.115183 -0.032255 -0.268540
-0.115180 -0.032176 -0.268544
-0.115177 -0.032097 -0.268545
-0.115174 -0.032019 -0.268539
-0.115170 -0.031941 -0.268545
-0.115166 -0.031862 -0.268559
-0.115163 -0.031784 -0.268559
-0.115160 -0.031705 -0.268553
-0.115157 -0.031625 -0.268550
-0.115154 -0.031547 -0.268550
-0.115151 -0.031469 -0.268546
-0.115148 -0.031389 -0.268540
-0.115145 -0.031309 -0.268536
-0.115142 -0.031231 -0.268532
-0.115139 -0.031151 -0.268530
-0.115136 -0.031073 -0.268532
-0.115133 -0.030995 -0.268531
-0.115130 -0.030916 -0.268525
-0.115127 -0.030836 -0.268523
-0.115124 -0.030758 -0.268525
-0.115121 -0.030680 -0.268527
-0.115117 -0.030601 -0.268537
-0.115113 -0.030523 -0.268550
-0.115110 -0.030445 -0.268552
-0.115107 -0.030365 -0.268546
-0.115104 -0.030288 -0.268542
-0.115101 -0.030208 -0.268540
-0.115098 -0.030128 -0.268536
-0.115095 -0.030050 -0.268534
-0.115092 -0.029972 -0.268534
-0.115089 -0.029892 -0.268527
-0.115086 -0.029814 -0.268525
-0.115083 -0.029734 -0.268529
-0.115079 -0.029656 -0.268537
-0.115076 -0.029578 -0.268543
-0.115073 -0.029500 -0.268541
-0.115070 -0.029420 -0.268533
-0.115067 -0.029340 -0.268528
-0.115064 -0.029262 -0.268530
-0.115061 -0.029184 -0.268528
-0.115058 -0.029105 -0.268520
-0.115055 -0.029025 -0.268516
-0.115051 -0.028947 -0.268518
-0.115048 -0.028869 -0.268520
-0.115045 -0.028791 -0.268525
-0.115042 -0.028711 -0.268523
-0.115039 -0.028633 -0.268521
-0.115036 -0.028553 -0.268519
-0.115032 -0.028475 -0.268519
-0.115029 -0.028397 -0.268519
-0.115027 -0.028317 -0.268511
-0.115024 -0.028239 -0.268508
-0.115020 -0.028159 -0.268508
-0.115018 -0.028082 -0.268502
-0.115015 -0.028002 -0.268478
-0.115015 -0.027920 -0.268412
-0.115018 -0.027834 -0.268284
-0.115018 -0.027750 -0.268208
-0.115016 -0.027672 -0.268197
-0.115051 -0.027555 -0.267359
-0.115068 -0.027454 -0.266915
-0.115067 -0.027375 -0.266879
-0.115070 -0.027290 -0.266737
-0.115076 -0.027203 -0.266539
-0.115081 -0.027118 -0.266375
-0.115082 -0.027036 -0.266281
-0.115083 -0.026954 -0.266193
-0.115083 -0.026874 -0.266126
-0.115084 -0.026793 -0.266048
-0.115084 -0.026713 -0.265980
-0.115083 -0.026632 -0.265920
-0.115083 -0.026554 -0.265862
-0.115082 -0.026473 -0.265818
-0.115080 -0.026395 -0.265783
-0.115078 -0.026316 -0.265755
-0.115077 -0.026237 -0.265713
-0.115075 -0.026158 -0.265683
-0.115073 -0.026080 -0.265661
-0.115071 -0.026003 -0.265643
-0.115069 -0.025925 -0.265620
-0.115067 -0.025846 -0.265594
-0.115065 -0.025768 -0.265574
-0.115062 -0.025691 -0.265564
-0.115060 -0.025613 -0.265554
-0.115057 -0.025535 -0.265545
-0.115054 -0.025457 -0.265539
-0.115052 -0.025381 -0.265531
-0.115049 -0.025304 -0.265519
-0.115046 -0.025226 -0.265511
-0.115044 -0.025148 -0.265505
-0.115041 -0.025070 -0.265494
-0.115038 -0.024995 -0.265484
-0.115035 -0.024917 -0.265490
-0.115032 -0.024839 -0.265484
-0.115030 -0.024763 -0.265472
-0.115027 -0.024685 -0.265471
-0.115023 -0.024609 -0.265477
-0.115020 -0.024531 -0.265473
-0.115017 -0.024453 -0.265469
-0.115015 -0.024377 -0.265459
-0.115012 -0.024300 -0.265451
-0.115009 -0.024222 -0.265460
-0.115005 -0.024145 -0.265466
-0.115002 -0.024068 -0.265466
-0.114999 -0.023992 -0.265466
-0.114996 -0.023914 -0.265458
-0.114993 -0.023836 -0.265460
-0.114990 -0.023760 -0.265465
-0.114987 -0.023682 -0.265467
-0.114983 -0.023606 -0.265471
-0.114980 -0.023528 -0.265473
-0.114977 -0.023452 -0.265473
-0.114974 -0.023374 -0.265478
-0.114971 -0.023298 -0.265478
-0.114968 -0.023220 -0.265476
-0.114965 -0.023142 -0.265474
-0.114961 -0.023066 -0.265476
-0.114958 -0.022988 -0.265480
-0.114955 -0.022912 -0.265487
-0.114952 -0.022836 -0.265483
-0.114949 -0.022758 -0.265483
-0.114945 -0.022680 -0.265491
-0.114942 -0.022604 -0.265501
-0.114938 -0.022527 -0.265506
-0.114935 -0.022450 -0.265506
-0.114932 -0.022371 -0.265510
-0.114928 -0.022295 -0.265518
-0.114925 -0.022217 -0.265518
-0.114923 -0.022141 -0.265514
-0.114919 -0.022065 -0.265521
-0.114916 -0.021987 -0.265529
-0.114912 -0.021911 -0.265539
-0.114909 -0.021833 -0.265543
-0.114906 -0.021757 -0.265539
-0.114903 -0.021679 -0.265543
-0.114899 -0.021603 -0.265554
-0.114896 -0.021525 -0.265546
-0.114894 -0.021447 -0.265532
-0.114891 -0.021371 -0.265532
-0.114888 -0.021294 -0.265530
-0.114884 -0.021216 -0.265535
-0.114881 -0.021139 -0.265539
-0.114878 -0.021062 -0.265529
-0.114876 -0.020986 -0.265523
-0.114873 -0.020908 -0.265525
-0.114869 -0.020830 -0.265527
-0.114866 -0.020754 -0.265524
-0.114863 -0.020676 -0.265526
-0.114860 -0.020600 -0.265536
-0.114856 -0.020524 -0.265538
-0.114854 -0.020446 -0.265528
-0.114851 -0.020368 -0.265529
-0.114847 -0.020292 -0.265543
-0.114844 -0.020214 -0.265545
-0.114841 -0.020138 -0.265543
-0.114837 -0.020060 -0.265559
-0.114833 -0.019983 -0.265577
-0.114830 -0.019905 -0.265582
-0.114827 -0.019827 -0.265578
-0.114823 -0.019751 -0.265584
-0.114820 -0.019673 -0.265594
-0.114816 -0.019597 -0.265608
-0.114813 -0.019519 -0.265610
-0.114810 -0.019443 -0.265601
-0.114807 -0.019365 -0.265603
-0.114803 -0.019289 -0.265621
-0.114799 -0.019210 -0.265633
-0.114796 -0.019133 -0.265629
-0.114793 -0.019057 -0.265631
-0.114790 -0.018980 -0.265638
-0.114787 -0.018902 -0.265640
-0.114783 -0.018824 -0.265640
-0.114780 -0.018748 -0.265642
-0.114777 -0.018671 -0.265638
-0.114775 -0.018595 -0.265633
-0.114771 -0.018517 -0.265633
-0.114768 -0.018439 -0.265637
-0.114765 -0.018361 -0.265633
-0.114763 -0.018285 -0.265625
-0.114759 -0.018207 -0.265625
-0.114757 -0.018131 -0.265618
-0.114754 -0.018054 -0.265606
-0.114751 -0.017976 -0.265600
-0.114749 -0.017900 -0.265592
-0.114746 -0.017822 -0.265586
-0.114743 -0.017744 -0.265577
-0.114740 -0.017669 -0.265571
-0.114737 -0.017591 -0.265569
-0.114734 -0.017515 -0.265567
-0.114731 -0.017437 -0.265569
-0.114728 -0.017359 -0.265563
-0.114725 -0.017283 -0.265564
-0.114722 -0.017205 -0.265572
-0.114719 -0.017129 -0.265576
-0.114716 -0.017051 -0.265570
-0.114713 -0.016973 -0.265566
-0.114710 -0.016897 -0.265567
-0.114707 -0.016819 -0.265561
-0.114704 -0.016741 -0.265557
-0.114701 -0.016665 -0.265559
-0.114698 -0.016587 -0.265561
-0.114694 -0.016511 -0.265562
-0.114691 -0.016433 -0.265566
-0.114688 -0.016355 -0.265566
-0.114685 -0.016279 -0.265568
-0.114682 -0.016201 -0.265570
-0.114679 -0.016126 -0.265564
-0.114676 -0.016048 -0.265567
-0.114672 -0.015969 -0.265573
-0.114670 -0.015894 -0.265563
-0.114667 -0.015816 -0.265553
-0.114664 -0.015738 -0.265547
-0.114661 -0.015662 -0.265539
-0.114659 -0.015585 -0.265532
-0.114656 -0.015509 -0.265530
-0.114653 -0.015431 -0.265522
-0.114650 -0.015353 -0.265516
-0.114647 -0.015277 -0.265514
-0.114644 -0.015199 -0.265509
-0.114642 -0.015123 -0.265503
-0.114639 -0.015046 -0.265495
-0.114636 -0.014968 -0.265485
-0.114633 -0.014892 -0.265481
-0.114630 -0.014814 -0.265478
-0.114628 -0.014738 -0.265470
-0.114625 -0.014660 -0.265468
-0.114622 -0.014582 -0.265466
-0.114619 -0.014507 -0.265460
-0.114616 -0.014429 -0.265452
-0.114613 -0.014353 -0.265453
-0.114610 -0.014275 -0.265447
-0.114607 -0.014199 -0.265445
-0.114604 -0.014121 -0.265447
-0.114601 -0.014043 -0.265443
-0.114598 -0.013967 -0.265442
-0.114595 -0.013889 -0.265438
-0.114592 -0.013814 -0.265432
-0.114589 -0.013736 -0.265438
-0.114586 -0.013658 -0.265440
-0.114583 -0.013582 -0.265438
-0.114579 -0.013504 -0.265445
-0.114576 -0.013425 -0.265453
-0.114573 -0.013348 -0.265447
-0.114570 -0.013272 -0.265443
-0.114567 -0.013194 -0.265443
-0.114564 -0.013118 -0.265446
-0.114561 -0.013040 -0.265446
-0.114558 -0.012962 -0.265442
-0.114554 -0.012886 -0.265448
-0.114551 -0.012808 -0.265450
-0.114548 -0.012730 -0.265444
-0.114546 -0.012654 -0.265441
-0.114542 -0.012576 -0.265439
-0.114539 -0.012498 -0.265443
-0.114536 -0.012422 -0.265443
-0.114533 -0.012344 -0.265435
-0.114530 -0.012268 -0.265437
-0.114527 -0.012190 -0.265436
-0.114524 -0.012113 -0.265428
-0.114521 -0.012037 -0.265428
-0.114518 -0.011958 -0.265438
-0.114515 -0.011881 -0.265436
-0.114512 -0.011803 -0.265431
-0.114509 -0.011727 -0.265431
-0.114506 -0.011649 -0.265429
-0.114503 -0.011573 -0.265427
-0.114500 -0.011495 -0.265425
-0.114497 -0.011417 -0.265425
-0.114493 -0.011341 -0.265428
-0.114490 -0.011263 -0.265426
-0.114488 -0.011185 -0.265414
-0.114485 -0.011110 -0.265410
-0.114482 -0.011031 -0.265416
-0.114478 -0.010953 -0.265426
-0.114475 -0.010877 -0.265435
-0.114471 -0.010799 -0.265435
-0.114469 -0.010722 -0.265421
-0.114466 -0.010646 -0.265415
-0.114463 -0.010568 -0.265417
-0.114460 -0.010492 -0.265410
-0.114458 -0.010414 -0.265396
-0.114455 -0.010336 -0.265398
-0.114451 -0.010258 -0.265400
-0.114449 -0.010182 -0.265392
-0.114446 -0.010104 -0.265392
-0.114442 -0.010026 -0.265397
-0.114439 -0.009950 -0.265405
-0.114436 -0.009872 -0.265407
-0.114434 -0.009797 -0.265385
-0.114431 -0.009719 -0.265367
-0.114428 -0.009641 -0.265374
-0.114425 -0.009565 -0.265380
-0.114421 -0.009487 -0.265384
-0.114418 -0.009409 -0.265384
-0.114415 -0.009333 -0.265380
-0.114412 -0.009255 -0.265386
-0.114408 -0.009177 -0.265395
-0.114405 -0.009099 -0.265391
-0.114403 -0.009023 -0.265385
-0.114400 -0.008945 -0.265383
-0.114397 -0.008867 -0.265377
-0.114394 -0.008792 -0.265373
-0.114391 -0.008714 -0.265366
-0.114389 -0.008638 -0.265350
-0.114386 -0.008560 -0.265340
-0.114383 -0.008482 -0.265340
-0.114380 -0.008407 -0.265338
-0.114377 -0.008329 -0.265329
-0.114374 -0.008253 -0.265333
-0.114371 -0.008175 -0.265343
-0.114368 -0.008097 -0.265339
-0.114365 -0.008021 -0.265325
-0.114362 -0.007943 -0.265321
-0.114359 -0.007865 -0.265326
-0.114356 -0.007787 -0.265332
-0.114353 -0.007711 -0.265330
-0.114349 -0.007633 -0.265330
-0.114347 -0.007555 -0.265324
-0.114344 -0.007479 -0.265319
-0.114341 -0.007401 -0.265319
-0.114338 -0.007324 -0.265317
-0.114335 -0.007248 -0.265313
-0.114332 -0.007170 -0.265311
-0.114329 -0.007092 -0.265309
-0.114326 -0.007016 -0.265308
-0.114323 -0.006938 -0.265310
-0.114319 -0.006860 -0.265310
-0.114316 -0.006782 -0.265310
-0.114313 -0.006704 -0.265308
-0.114310 -0.006628 -0.265304
-0.114307 -0.006550 -0.265307
-0.114304 -0.006472 -0.265313
-0.114300 -0.006394 -0.265317
-0.114297 -0.006316 -0.265315
-0.114295 -0.006240 -0.265309
-0.114292 -0.006163 -0.265298
-0.114289 -0.006087 -0.265288
-0.114286 -0.006009 -0.265288
-0.114283 -0.005931 -0.265284
-0.114280 -0.005855 -0.265284
-0.114277 -0.005777 -0.265290
-0.114274 -0.005699 -0.265289
-0.114271 -0.005621 -0.265283
-0.114268 -0.005545 -0.265279
-0.114266 -0.005468 -0.265267
-0.114263 -0.005392 -0.265261
-0.114259 -0.005314 -0.265267
-0.114256 -0.005236 -0.265272
-0.114253 -0.005158 -0.265270
-0.114250 -0.005080 -0.265268
-0.114247 -0.005002 -0.265270
-0.114244 -0.004926 -0.265268
-0.114241 -0.004848 -0.265258
-0.114238 -0.004772 -0.265255
-0.114236 -0.004695 -0.265243
-0.114233 -0.004619 -0.265233
-0.114230 -0.004541 -0.265231
-0.114227 -0.004463 -0.265227
-0.114224 -0.004387 -0.265224
-0.114221 -0.004309 -0.265224
-0.114218 -0.004231 -0.265222
-0.114215 -0.004155 -0.265220
-0.114212 -0.004077 -0.265214
-0.114209 -0.004000 -0.265213
-0.114207 -0.003924 -0.265209
-0.114203 -0.003846 -0.265207
-0.114200 -0.003768 -0.265211
-0.114197 -0.003690 -0.265211
-0.114194 -0.003612 -0.265205
-0.114191 -0.003536 -0.265204
-0.114188 -0.003458 -0.265206
-0.114185 -0.003380 -0.265202
-0.114182 -0.003302 -0.265198
-0.114179 -0.003224 -0.265200
-0.114176 -0.003148 -0.265194
-0.114173 -0.003071 -0.265185
-0.114170 -0.002995 -0.265183
-0.114167 -0.002915 -0.265185
-0.114165 -0.002839 -0.265177
-0.114162 -0.002763 -0.265167
-0.114159 -0.002685 -0.265170
-0.114155 -0.002607 -0.265176
-0.114152 -0.002529 -0.265174
-0.114149 -0.002451 -0.265168
-0.114146 -0.002375 -0.265166
-0.114143 -0.002297 -0.265166
-0.114140 -0.002219 -0.265169
-0.114137 -0.002141 -0.265169
-0.114134 -0.002064 -0.265167
-0.114131 -0.001986 -0.265167
-0.114127 -0.001908 -0.265173
-0.114124 -0.001829 -0.265177
-0.114121 -0.001751 -0.265179
-0.114117 -0.001673 -0.265184
-0.114114 -0.001595 -0.265186
-0.114111 -0.001517 -0.265190
-0.114107 -0.001439 -0.265196
-0.114104 -0.001359 -0.265204
-0.114101 -0.001283 -0.265204
-0.114097 -0.001203 -0.265207
-0.114094 -0.001125 -0.265221
-0.114090 -0.001047 -0.265225
-0.114088 -0.000969 -0.265217
-0.114085 -0.000893 -0.265211
-0.114082 -0.000815 -0.265207
-0.114079 -0.000737 -0.265206
-0.114076 -0.000659 -0.265206
-0.114073 -0.000581 -0.265208
-0.114069 -0.000503 -0.265210
-0.114066 -0.000425 -0.265214
-0.114063 -0.000347 -0.265214
-0.114060 -0.000270 -0.265210
-0.114057 -0.000194 -0.265201
-0.114054 -0.000116 -0.265197
-0.114051 -0.000038 -0.265197
-0.114048 0.000038 -0.265191
-0.114046 0.000116 -0.265181
-0.114043 0.000191 -0.265170
-0.114041 0.000267 -0.265160
-0.114038 0.000345 -0.265154
-0.114035 0.000423 -0.265150
-0.114032 0.000499 -0.265146
-0.114029 0.000579 -0.265151
-0.114026 0.000655 -0.265149
-0.114023 0.000732 -0.265141
-0.114020 0.000810 -0.265141
-0.114017 0.000888 -0.265139
-0.114014 0.000964 -0.265131
-0.114011 0.001042 -0.265126
-0.114008 0.001120 -0.265132
-0.114004 0.001200 -0.265140
