# .PCD v0.7 - Point Cloud Data file format
VERSION 0.7
FIELDS x y z
SIZE 4 4 4
TYPE F F F
COUNT 1 1 1
WIDTH 1461
HEIGHT 1
VIEWPOINT 0 0 0 1 0 0 0
POINTS 1461
DATA ascii
-0.08794 0.164634 -0.229734
-0.087936997 0.164708 -0.229734
-0.087932996 0.164782 -0.229757
-0.087929003 0.164859 -0.229781
-0.087925002 0.164933 -0.22979499
-0.087921999 0.165005 -0.229799
-0.087918997 0.165079 -0.229799
-0.087917 0.165151 -0.22979601
-0.087912999 0.165225 -0.229802
-0.087909997 0.165299 -0.22982
-0.087906003 0.165374 -0.22983199
-0.087903 0.165448 -0.229844
-0.087898001 0.16552199 -0.229871
-0.087894998 0.16559701 -0.22987901
-0.087892003 0.16567101 -0.229891
-0.087886997 0.16575 -0.229931
-0.087881997 0.165824 -0.22996099
-0.087878004 0.16590101 -0.229991
-0.087872997 0.16598 -0.23002701
-0.087870002 0.166052 -0.230038
-0.087866999 0.166126 -0.23004
-0.087862998 0.16620301 -0.230068
-0.087857001 0.166282 -0.230122
-0.087852001 0.166361 -0.23016401
-0.087847002 0.166437 -0.230196
-0.087843999 0.16651399 -0.23021001
-0.087839 0.16659001 -0.230241
-0.087834999 0.166665 -0.23026501
-0.087830998 0.166743 -0.230299
-0.087825999 0.16682 -0.23033699
-0.087820999 0.166899 -0.230363
-0.087817997 0.16697299 -0.23038299
-0.087814003 0.16705 -0.230405
-0.087810002 0.167126 -0.23042101
-0.087806001 0.1672 -0.23043799
-0.087802 0.16727901 -0.230468
-0.087796003 0.167358 -0.23052
-0.087791003 0.16743501 -0.23055799
-0.087787002 0.167513 -0.230584
-0.087783001 0.16759001 -0.23061401
-0.087777004 0.16767099 -0.23067001
-0.087768003 0.167758 -0.230774
-0.087761998 0.167841 -0.230848
-0.087751999 0.167932 -0.23097201
-0.087745003 0.168016 -0.231061
-0.087737001 0.168102 -0.23114701
-0.087729 0.16819 -0.23124699
-0.087723002 0.16827101 -0.231305
-0.087719001 0.16835 -0.23133899
-0.088812999 0.137844 -0.231831
-0.088813998 0.137924 -0.231736
-0.088815004 0.13800301 -0.23166201
-0.088816002 0.138082 -0.231562
-0.088817 0.138161 -0.23149
-0.088813998 0.138234 -0.23147801
-0.088812001 0.13831 -0.23145901
-0.088811003 0.138385 -0.23142301
-0.088809997 0.13846 -0.231383
-0.088808998 0.13853499 -0.231343
-0.088807002 0.138611 -0.231317
-0.088804998 0.138684 -0.231298
-0.088803001 0.13876 -0.23127399
-0.088802002 0.138835 -0.231236
-0.088800997 0.13891 -0.23119999
-0.088799998 0.13898499 -0.231162
-0.088799998 0.139062 -0.231103
-0.088798001 0.139137 -0.23107301
-0.088795997 0.139211 -0.23106299
-0.088794 0.139284 -0.23104499
-0.088792004 0.139358 -0.231022
-0.088789999 0.139431 -0.231006
-0.088788003 0.139505 -0.230994
-0.088785 0.139579 -0.230984
-0.088783003 0.139653 -0.230974
-0.088780001 0.139726 -0.230967
-0.088777997 0.1398 -0.23094501
-0.088776998 0.139873 -0.23092499
-0.088774003 0.139947 -0.230919
-0.088771999 0.140021 -0.230894
-0.088772997 0.14009701 -0.23082601
-0.088771999 0.140174 -0.230764
-0.088771001 0.140249 -0.23073199
-0.088770002 0.140324 -0.23068701
-0.088768996 0.140397 -0.230647
-0.088767 0.140471 -0.230635
-0.088763997 0.140544 -0.230629
-0.088762 0.140618 -0.230615
-0.088760003 0.14069 -0.2306
-0.088757999 0.140763 -0.23058601
-0.088756002 0.140837 -0.230574
-0.088753998 0.140911 -0.230556
-0.088752002 0.140984 -0.230533
-0.088751003 0.141059 -0.23049501
-0.088749997 0.141132 -0.230453
-0.088748999 0.14120699 -0.23041099
-0.088747002 0.14128099 -0.23039
-0.088744 0.14135499 -0.23038401
-0.088742003 0.141427 -0.230386
-0.088739 0.141498 -0.23038401
-0.088735998 0.14157 -0.230387
-0.088733003 0.141642 -0.230387
-0.08873 0.14171501 -0.23039301
-0.088726997 0.14178699 -0.23040099
-0.088724002 0.14185899 -0.230408
-0.088721 0.141931 -0.23040999
-0.088717997 0.142005 -0.230408
-0.088716 0.142078 -0.23039199
-0.088714004 0.14215 -0.23036499
-0.088712998 0.142223 -0.230341
-0.088710003 0.142297 -0.230327
-0.088707998 0.142369 -0.230327
-0.088703997 0.142441 -0.23033801
-0.088701002 0.14251301 -0.23034599
-0.088698 0.14258499 -0.230344
-0.088696003 0.14265899 -0.230336
-0.088693 0.142731 -0.23033699
-0.088689998 0.142803 -0.230341
-0.088687003 0.142877 -0.23033901
-0.088684998 0.142949 -0.230335
-0.088682003 0.143021 -0.230332
-0.088679999 0.143094 -0.23031799
-0.088678002 0.143168 -0.230298
-0.088675998 0.14323901 -0.23027501
-0.088674001 0.14331301 -0.230261
-0.088670999 0.14338499 -0.230269
-0.088666998 0.143457 -0.230279
-0.088664003 0.143529 -0.230285
-0.088661 0.143601 -0.23029201
-0.088657998 0.143674 -0.230298
-0.088655002 0.143746 -0.230304
-0.088652 0.14381801 -0.230303
-0.088648997 0.14388999 -0.230307
-0.088646002 0.143962 -0.230321
-0.088643 0.144034 -0.230327
-0.088639997 0.144106 -0.23032001
-0.088638 0.14418 -0.230308
-0.088634998 0.144251 -0.230304
-0.088632002 0.14432301 -0.230304
-0.088629998 0.14439701 -0.23029301
-0.088628002 0.14446899 -0.230281
-0.088624999 0.144541 -0.23028301
-0.088621996 0.14461499 -0.230289
-0.088618003 0.144685 -0.230304
-0.088615 0.144758 -0.23032001
-0.088610999 0.14483 -0.23033001
-0.088609003 0.14490201 -0.23033001
-0.088606 0.144976 -0.23032901
-0.088602997 0.14504699 -0.230325
-0.088601001 0.145119 -0.23031101
-0.088598996 0.145193 -0.230289
-0.088597 0.145264 -0.23028
-0.088593997 0.145338 -0.23028199
-0.088591002 0.145408 -0.230288
-0.088587001 0.14548101 -0.230304
-0.088583998 0.14555299 -0.23031899
-0.088581003 0.145625 -0.230323
-0.088578001 0.14569899 -0.230327
-0.088574 0.145769 -0.23033699
-0.088570997 0.145842 -0.23034801
-0.088568002 0.145916 -0.23036
-0.088564999 0.14598601 -0.23036601
-0.088561997 0.14606 -0.230358
-0.08856 0.14613099 -0.230345
-0.088558003 0.14620499 -0.230333
-0.088555001 0.146277 -0.23032901
-0.088551998 0.146349 -0.230335
-0.088549003 0.146421 -0.23033801
-0.088546 0.146493 -0.230336
-0.088544004 0.14656501 -0.230336
-0.088541001 0.146639 -0.23033801
-0.088537998 0.14671101 -0.23033699
-0.088535003 0.14678299 -0.23033699
-0.088532001 0.146855 -0.230335
-0.088529997 0.146927 -0.230333
-0.088527001 0.147001 -0.230322
-0.088524997 0.147072 -0.230308
-0.088522002 0.147146 -0.230304
-0.088519998 0.147218 -0.230294
-0.088518001 0.14728899 -0.230279
-0.088514999 0.14736199 -0.230285
-0.088510998 0.147434 -0.230307
-0.088506997 0.147506 -0.230325
-0.088504001 0.147578 -0.23033001
-0.088500999 0.147651 -0.230342
-0.088496998 0.147723 -0.23036601
-0.088494003 0.14779501 -0.23037399
-0.088491 0.14786699 -0.23037501
-0.088487998 0.147939 -0.230379
-0.088485003 0.148011 -0.230379
-0.088482998 0.148085 -0.230371
-0.088480003 0.148157 -0.230362
-0.088477999 0.14823 -0.23034599
-0.088476002 0.148302 -0.230334
-0.088473998 0.14837401 -0.230324
-0.088471003 0.14844801 -0.230321
-0.088468 0.14851999 -0.230323
-0.088464998 0.148592 -0.230323
-0.088462003 0.148664 -0.23031899
-0.088459998 0.148736 -0.230322
-0.088457003 0.14881 -0.230322
-0.088454001 0.148881 -0.230312
-0.088451996 0.14895301 -0.230307
-0.088449001 0.14902499 -0.23030899
-0.088446997 0.149097 -0.230297
-0.088445 0.14917099 -0.230279
-0.088441998 0.149242 -0.230268
-0.088439003 0.149314 -0.23027
-0.088436 0.149386 -0.23028
-0.088432997 0.149459 -0.230286
-0.088431001 0.14953201 -0.230279
-0.088427998 0.14960399 -0.230279
-0.088423997 0.14967699 -0.230299
-0.088420004 0.149749 -0.230315
-0.088417001 0.149821 -0.230322
-0.088413 0.149894 -0.230342
-0.088409998 0.149966 -0.23035599
-0.088407002 0.150038 -0.230354
-0.088404998 0.150112 -0.230343
-0.088403001 0.15018301 -0.230323
-0.088400997 0.150254 -0.230299
-0.088399999 0.150326 -0.230279
-0.088395998 0.1504 -0.230286
-0.088393003 0.150472 -0.230298
-0.08839 0.150544 -0.230294
-0.088388003 0.15061601 -0.23028401
-0.088385001 0.15068799 -0.230285
-0.088381998 0.15076201 -0.230295
-0.088379003 0.15083399 -0.230297
-0.088376001 0.150906 -0.230289
-0.088373996 0.150978 -0.23027401
-0.088372998 0.151049 -0.230248
-0.088371001 0.151123 -0.23023
-0.088367999 0.15119401 -0.23022801
-0.088366002 0.15126599 -0.230223
-0.088362999 0.151338 -0.23021699
-0.088359997 0.15141 -0.23021901
-0.088357002 0.151484 -0.23022699
-0.088353999 0.151556 -0.230234
-0.088349998 0.151629 -0.230242
-0.088347003 0.151701 -0.23025399
-0.088344 0.15177301 -0.23027
-0.088339999 0.151847 -0.23028301
-0.088336997 0.15191901 -0.23028301
-0.088335 0.15199099 -0.230261
-0.088334002 0.152062 -0.230231
-0.088331997 0.152134 -0.230212
-0.088330001 0.15220501 -0.230194
-0.088327996 0.15227699 -0.230186
-0.088325001 0.152349 -0.230189
-0.088321999 0.15242299 -0.230193
-0.088319004 0.152495 -0.230197
-0.088316001 0.152567 -0.230205
-0.088312998 0.152639 -0.230212
-0.088308997 0.152712 -0.230222
-0.088306002 0.152786 -0.23022801
-0.088303998 0.15285701 -0.23021799
-0.088301003 0.15292899 -0.23020899
-0.088299997 0.153001 -0.230189
-0.088298 0.153072 -0.23016299
-0.088296004 0.153144 -0.230149
-0.088293001 0.153216 -0.23014399
-0.088289998 0.15329 -0.23014399
-0.088287003 0.15336201 -0.230148
-0.088284001 0.15343399 -0.23015
-0.088280998 0.153506 -0.230157
-0.088278003 0.153578 -0.230169
-0.088275 0.153652 -0.230179
-0.088270999 0.153724 -0.23019101
-0.088267997 0.153797 -0.230206
-0.088264003 0.153871 -0.230222
-0.088261001 0.153943 -0.230224
-0.088260002 0.15401401 -0.230198
-0.088257998 0.15408599 -0.230169
-0.088256001 0.154157 -0.23014501
-0.088255003 0.154229 -0.23012701
-0.088252001 0.154301 -0.230122
-0.088248998 0.15437301 -0.23013601
-0.088244997 0.154447 -0.230158
-0.088241003 0.15452 -0.230166
-0.088238999 0.15459099 -0.23016
-0.088235997 0.154663 -0.230161
-0.088233002 0.154737 -0.230169
-0.088229999 0.15481 -0.230175
-0.088226996 0.154882 -0.230179
-0.088224001 0.154953 -0.23017401
-0.088221997 0.15502501 -0.230158
-0.08822 0.15509699 -0.230138
-0.088218004 0.155168 -0.230121
-0.088215999 0.15524 -0.230115
-0.088212997 0.155314 -0.230115
-0.088210002 0.155386 -0.230123
-0.088206001 0.155458 -0.23013601
-0.088203996 0.15553001 -0.23012801
-0.088201001 0.15560199 -0.23012599
-0.088197999 0.15567601 -0.230134
-0.088195004 0.15574799 -0.230143
-0.088191003 0.15582301 -0.230149
-0.088188 0.15589499 -0.230151
-0.088184997 0.155967 -0.230159
-0.088183001 0.156039 -0.230158
-0.088180996 0.15611 -0.23013601
-0.088179 0.15618201 -0.230114
-0.088177003 0.156253 -0.23010001
-0.088174999 0.156325 -0.230087
-0.088172004 0.156397 -0.230095
-0.088168003 0.156471 -0.23010901
-0.088165 0.156543 -0.230105
-0.088163003 0.156615 -0.230104
-0.088160001 0.15668701 -0.230104
-0.088156998 0.15676101 -0.230106
-0.088154003 0.15683299 -0.230114
-0.088151 0.156905 -0.230111
-0.088149004 0.156977 -0.23009899
-0.088146001 0.157049 -0.23008899
-0.088143997 0.15712 -0.230075
-0.088142 0.15719201 -0.23006
-0.088140003 0.15726399 -0.23005401
-0.088137001 0.157336 -0.230056
-0.088133998 0.15741 -0.23006099
-0.088131003 0.157482 -0.23006301
-0.088128 0.157554 -0.230067
-0.088124 0.157628 -0.230077
-0.088120997 0.1577 -0.23008899
-0.088117003 0.157775 -0.230104
-0.088114001 0.157849 -0.230122
-0.088110998 0.157921 -0.23012599
-0.088108003 0.157993 -0.23011599
-0.088105999 0.15806399 -0.230101
-0.088104002 0.158136 -0.230085
-0.088102996 0.158205 -0.230059
-0.088101 0.158277 -0.23003399
-0.088097997 0.158351 -0.230038
-0.088095002 0.15842301 -0.230042
-0.088092998 0.15849499 -0.23003399
-0.088090003 0.158566 -0.230023
-0.088087998 0.158638 -0.230023
-0.088085003 0.15871 -0.23002499
-0.088082001 0.15878201 -0.23001701
-0.088079996 0.15885399 -0.230012
-0.088078 0.158926 -0.22999001
-0.088076003 0.158997 -0.229964
-0.088073999 0.159069 -0.22995301
-0.088072002 0.15914001 -0.22993299
-0.088069998 0.15921 -0.229927
-0.088065997 0.159284 -0.229937
-0.088063002 0.15935799 -0.229946
-0.088059999 0.15943 -0.229954
-0.088056996 0.159503 -0.22995999
-0.088054001 0.159577 -0.22995999
-0.088050999 0.159649 -0.22996899
-0.088046998 0.159723 -0.229987
-0.088042997 0.159797 -0.22999901
-0.088041 0.159869 -0.230001
-0.088037997 0.159941 -0.22999699
-0.088035002 0.16001301 -0.22999001
-0.088033997 0.16008499 -0.229972
-0.088032 0.160154 -0.22994199
-0.088030003 0.160226 -0.229931
-0.088027 0.160298 -0.22993299
-0.088025004 0.16036899 -0.229921
-0.088022999 0.160441 -0.22990499
-0.088019997 0.160513 -0.229904
-0.088018 0.160585 -0.229894
-0.088014998 0.16065601 -0.229884
-0.088012002 0.16073 -0.22989
-0.088009 0.16080301 -0.229901
-0.088005997 0.16087601 -0.229891
-0.088004999 0.160946 -0.229867
-0.088003002 0.161015 -0.229844
-0.088001996 0.16108701 -0.22982
-0.088 0.161158 -0.22980601
-0.087996997 0.16123 -0.22980399
-0.087994002 0.161302 -0.229807
-0.087990999 0.161376 -0.22981299
-0.087987997 0.161449 -0.229819
-0.087985002 0.16152 -0.229811
-0.087982997 0.16159201 -0.22980601
-0.087978996 0.161667 -0.22982401
-0.087975003 0.161741 -0.229844
-0.087972 0.161815 -0.229854
-0.087968998 0.161887 -0.22985899
-0.087966003 0.16195901 -0.229847
-0.087964997 0.16203 -0.229825
-0.087962002 0.1621 -0.22981501
-0.087959997 0.162174 -0.22981
-0.087958001 0.16224401 -0.229794
-0.087955996 0.162315 -0.22978
-0.087954 0.162387 -0.229761
-0.087950997 0.162459 -0.229755
-0.087948002 0.162531 -0.229761
-0.087945998 0.16260201 -0.229745
-0.087944001 0.16267399 -0.229728
-0.08794 0.16274799 -0.229746
-0.087936997 0.16282099 -0.22976001
-0.087935001 0.162892 -0.229748
-0.087932996 0.162964 -0.229727
-0.087931 0.16303299 -0.229709
-0.087929003 0.163105 -0.229691
-0.087926999 0.163175 -0.22968
-0.087924004 0.163248 -0.229674
-0.087921001 0.16332 -0.22967599
-0.087917998 0.163395 -0.229688
-0.087915003 0.163467 -0.229697
-0.087912001 0.163541 -0.229693
-0.087908998 0.16361301 -0.229689
-0.087906003 0.16368499 -0.229699
-0.087902002 0.163761 -0.229715
-0.087898999 0.163835 -0.22973201
-0.087894998 0.163908 -0.22974201
-0.087893002 0.163982 -0.22973999
-0.087889999 0.16405299 -0.229734
-0.087886997 0.164125 -0.22973301
-0.087884001 0.164197 -0.22973301
-0.087880999 0.164271 -0.229737
-0.087879002 0.164343 -0.229737
-0.087875001 0.164417 -0.22974201
-0.087871999 0.164492 -0.229748
-0.087869003 0.164564 -0.229754
-0.087866001 0.164638 -0.229764
-0.087862998 0.164712 -0.22976799
-0.087860003 0.164784 -0.22976901
-0.087856002 0.164858 -0.229783
-0.087853 0.164932 -0.229793
-0.087849997 0.165004 -0.22979499
-0.087847002 0.165078 -0.229798
-0.087843999 0.16515 -0.22980399
-0.087839998 0.165227 -0.229818
-0.087837003 0.165299 -0.229828
-0.087834001 0.165373 -0.22983401
-0.08783 0.165447 -0.229847
-0.087826997 0.16552199 -0.229865
-0.087821998 0.16559801 -0.229891
-0.087817997 0.165675 -0.22992299
-0.087814003 0.165749 -0.22994301
-0.087810002 0.16582599 -0.22997101
-0.087805003 0.165903 -0.230005
-0.087801002 0.165979 -0.23003
-0.087797999 0.166053 -0.23004
-0.087794997 0.166127 -0.230042
-0.087789997 0.16620199 -0.23007201
-0.087784998 0.166281 -0.230114
-0.087780997 0.166357 -0.23014399
-0.087775998 0.166434 -0.230177
-0.087771997 0.166513 -0.230207
-0.087766998 0.16658901 -0.230239
-0.087762997 0.166664 -0.230259
-0.087759003 0.166743 -0.23029099
-0.087752998 0.166822 -0.23033901
-0.087748997 0.166898 -0.23036499
-0.087745003 0.16697501 -0.230391
-0.087741002 0.16704901 -0.230409
-0.087738 0.167123 -0.230416
-0.087733999 0.167199 -0.230432
-0.087729 0.16727801 -0.230472
-0.087724999 0.167355 -0.230508
-0.087720998 0.167432 -0.23052999
-0.087715998 0.16750801 -0.230556
-0.087710001 0.16758899 -0.23061401
-0.087702997 0.167675 -0.230698
-0.087696001 0.167757 -0.230772
-0.087688997 0.167843 -0.230856
-0.087681003 0.16792899 -0.23095
-0.087673999 0.16801199 -0.23102801
-0.087664999 0.16810299 -0.231149
-0.087655999 0.168192 -0.231261
-0.087650001 0.168273 -0.23132899
-0.088729002 0.13784 -0.23185199
-0.088731997 0.137923 -0.231718
-0.088731997 0.137999 -0.23165999
-0.088731997 0.138078 -0.23158599
-0.088733003 0.13815799 -0.2315
-0.088730998 0.13823099 -0.23147599
-0.08873 0.13830601 -0.23144899
-0.088728003 0.138382 -0.23141301
-0.088726997 0.138457 -0.231379
-0.088725999 0.138532 -0.23134699
-0.088724002 0.138607 -0.231315
-0.088722996 0.13868199 -0.23128
-0.088721998 0.138758 -0.23124801
-0.088720001 0.138833 -0.23122001
-0.088717997 0.138905 -0.231206
-0.088716 0.13898 -0.231189
-0.088715002 0.139057 -0.23113699
-0.088715002 0.139134 -0.231069
-0.088714004 0.139209 -0.231039
-0.088711999 0.139282 -0.23101901
-0.088710003 0.139356 -0.231004
-0.088707998 0.13943 -0.230988
-0.088705003 0.139503 -0.230976
-0.088702999 0.139577 -0.230966
-0.088699996 0.139649 -0.23096099
-0.088698 0.139723 -0.230955
-0.088694997 0.139796 -0.23094299
-0.088693 0.13987 -0.23092701
-0.088692002 0.139943 -0.2309
-0.088689998 0.140019 -0.23086999
-0.088689998 0.140095 -0.230812
-0.088691004 0.140172 -0.230738
-0.088689998 0.140246 -0.230684
-0.088688999 0.140321 -0.230639
-0.088688001 0.140396 -0.230597
-0.088685997 0.14047 -0.230593
-0.088682003 0.140543 -0.23060299
-0.088679999 0.140614 -0.230598
-0.088678002 0.140688 -0.230582
-0.088675998 0.140762 -0.230564
-0.088674001 0.140835 -0.23054799
-0.088671997 0.140909 -0.230529
-0.08867 0.140982 -0.23050299
-0.088669002 0.141055 -0.230471
-0.088666998 0.141131 -0.230437
-0.088665999 0.141206 -0.230397
-0.088665001 0.141279 -0.23037
-0.088661999 0.141351 -0.230362
-0.088659003 0.141423 -0.23037
-0.088656001 0.141495 -0.230371
-0.088653997 0.141569 -0.23036499
-0.088651001 0.14164101 -0.23036499
-0.088647999 0.14171299 -0.23037501
-0.088643998 0.141785 -0.230386
-0.088641003 0.141855 -0.230396
-0.088638 0.141927 -0.230404
-0.088634998 0.142001 -0.230398
-0.088633999 0.142074 -0.23036499
-0.088633001 0.14215 -0.230327
-0.088630997 0.142223 -0.23030099
-0.088629 0.142295 -0.230297
-0.088624999 0.14236701 -0.230308
-0.088621996 0.14243899 -0.230316
-0.088619001 0.142511 -0.230314
-0.088616997 0.142583 -0.230314
-0.088613003 0.142655 -0.230325
-0.088610001 0.142727 -0.230327
-0.088607997 0.142801 -0.230325
-0.088605002 0.142873 -0.230327
-0.088601999 0.14294501 -0.230322
-0.088600002 0.14301901 -0.230304
-0.088597998 0.14309201 -0.23028401
-0.088596001 0.14316399 -0.23027
-0.088593997 0.14323699 -0.23024701
-0.088592 0.143309 -0.230239
-0.088587999 0.143381 -0.230253
-0.088584997 0.143454 -0.23026299
-0.088582002 0.143526 -0.230266
-0.088578999 0.14359801 -0.230268
-0.088575996 0.14366999 -0.23027401
-0.088573001 0.143742 -0.23028401
-0.088569 0.143814 -0.230297
-0.088565998 0.143886 -0.230303
-0.088564001 0.143958 -0.23030099
-0.088560998 0.144032 -0.230295
-0.088559002 0.144104 -0.23028401
-0.088555999 0.14417601 -0.230276
-0.088552997 0.14424901 -0.230276
-0.088551 0.14432099 -0.230268
-0.088547997 0.144393 -0.230269
-0.088545002 0.144465 -0.230281
-0.088541001 0.144538 -0.23029099
-0.088538997 0.14461 -0.23029099
-0.088536002 0.14468201 -0.23029201
-0.088532999 0.14475399 -0.230296
-0.088529997 0.14482801 -0.23029999
-0.088527001 0.14489999 -0.230294
-0.088524997 0.144971 -0.230287
-0.088522002 0.145045 -0.230285
-0.088519998 0.145117 -0.23027501
-0.088518001 0.145191 -0.23025499
-0.088514999 0.145262 -0.23024601
-0.088512003 0.14533401 -0.230248
-0.088509001 0.14540599 -0.23025601
-0.088505998 0.14547899 -0.230262
-0.088503003 0.145551 -0.230279
-0.088499002 0.145623 -0.230299
-0.088495001 0.145696 -0.230315
-0.088491999 0.145768 -0.23031899
-0.088489003 0.14584 -0.230326
-0.088486001 0.14591201 -0.23034
-0.088482 0.14598399 -0.230352
-0.088480003 0.146056 -0.23034801
-0.088477999 0.14613 -0.23032901
-0.088474996 0.146202 -0.230325
-0.088471003 0.146274 -0.23033901
-0.088468999 0.146346 -0.230341
-0.088466004 0.14641801 -0.23032799
-0.088463999 0.14648999 -0.230324
-0.088460997 0.146562 -0.230326
-0.088458002 0.14663599 -0.23032799
-0.088454999 0.146707 -0.230323
-0.088453002 0.146779 -0.230317
-0.08845 0.146853 -0.23031101
-0.088448003 0.146925 -0.230305
-0.088445 0.146997 -0.230298
-0.088443004 0.14706799 -0.23029
-0.088440001 0.14714199 -0.230278
-0.088437997 0.147214 -0.23026501
-0.088435002 0.147286 -0.23027501
-0.088431001 0.147359 -0.230299
-0.088427998 0.147431 -0.230307
-0.088425003 0.147503 -0.23030999
-0.088422 0.14757501 -0.23031799
-0.088418998 0.14764699 -0.230324
-0.088414997 0.147719 -0.230334
-0.088411003 0.147792 -0.23036
-0.088407002 0.147864 -0.230381
-0.088404 0.147936 -0.230387
-0.088402003 0.148008 -0.23037501
-0.088399999 0.148081 -0.23035
-0.088399 0.148155 -0.230322
-0.088395998 0.14822599 -0.230314
-0.088394001 0.148298 -0.23030999
-0.088390999 0.14837 -0.230305
-0.088389002 0.148444 -0.23030099
-0.088385999 0.148516 -0.230289
-0.088384002 0.148588 -0.230287
-0.088381 0.14866 -0.23029201
-0.088377997 0.14873201 -0.23029
-0.088375002 0.14880601 -0.230286
-0.088372 0.14887799 -0.230294
-0.088368997 0.14895 -0.230299
-0.088366002 0.149022 -0.23029301
-0.088365003 0.149095 -0.230271
-0.088362999 0.149167 -0.230249
-0.088361003 0.14923801 -0.23024
-0.088357002 0.149312 -0.230244
-0.088354997 0.149382 -0.230248
-0.088350996 0.149455 -0.23025601
-0.088348001 0.149529 -0.230271
-0.088344 0.149601 -0.230281
-0.088340998 0.149673 -0.230295
-0.088336997 0.149746 -0.23031101
-0.088334002 0.149818 -0.23031799
-0.088330999 0.14989001 -0.230322
-0.088327996 0.14996199 -0.230332
-0.088325001 0.15003601 -0.23032799
-0.088322997 0.150107 -0.230307
-0.088321999 0.150179 -0.230281
-0.088321 0.15025 -0.230251
-0.088319004 0.150324 -0.23022901
-0.088315003 0.150396 -0.23024
-0.088311002 0.15046801 -0.23026399
-0.088307999 0.15053999 -0.230272
-0.088304996 0.150612 -0.23027401
-0.088302001 0.150685 -0.230279
-0.088299997 0.150758 -0.230271
-0.088297002 0.15083 -0.23026501
-0.088293999 0.150902 -0.23026501
-0.088292003 0.15097401 -0.230262
-0.088289998 0.15104599 -0.23025
-0.088288002 0.15111899 -0.230224
-0.088285998 0.151191 -0.23020101
-0.088283002 0.151263 -0.230203
-0.08828 0.151335 -0.23021699
-0.088276997 0.151407 -0.230225
-0.088274002 0.151481 -0.23023
-0.088270999 0.151553 -0.230226
-0.088267997 0.15162501 -0.230226
-0.088265002 0.15169699 -0.230232
-0.088261999 0.151769 -0.230243
-0.088257998 0.15184399 -0.230257
-0.088255003 0.151916 -0.23026299
-0.088252999 0.151987 -0.230251
-0.088252001 0.152059 -0.23022
-0.088248998 0.15212999 -0.230204
-0.088247001 0.152202 -0.23019201
-0.088244997 0.152273 -0.23017
-0.088243 0.152345 -0.230159
-0.088239998 0.152419 -0.230165
-0.088237002 0.152491 -0.230177
-0.088233002 0.152564 -0.230187
-0.088229999 0.15263601 -0.230194
-0.088226996 0.15270799 -0.230196
-0.088224001 0.15278199 -0.230202
-0.088220999 0.152854 -0.230206
-0.088219002 0.152926 -0.23020101
-0.088215999 0.152997 -0.230189
-0.088215001 0.153069 -0.230165
-0.088212997 0.15313999 -0.23013601
-0.088211 0.153212 -0.230122
-0.088207997 0.153286 -0.23012801
-0.088205002 0.153358 -0.23014
-0.088201001 0.15343 -0.230151
-0.088197999 0.153503 -0.23016299
-0.088195004 0.153575 -0.230167
-0.088192001 0.153649 -0.230165
-0.088188998 0.153721 -0.230175
-0.088184997 0.15379301 -0.23018999
-0.088182002 0.15386499 -0.230202
-0.088179 0.15393899 -0.230204
-0.088177003 0.154011 -0.230188
-0.088174999 0.154082 -0.230159
-0.088174 0.154154 -0.230141
-0.088170998 0.15422601 -0.230131
-0.088168003 0.15429799 -0.230132
-0.088165 0.15436999 -0.23014
-0.088161997 0.15444399 -0.230148
-0.088159002 0.154516 -0.23014399
-0.088156998 0.154588 -0.230141
-0.088154003 0.15466 -0.230143
-0.088151 0.154732 -0.230149
-0.088146999 0.154806 -0.23015501
-0.088145003 0.15487801 -0.230152
-0.088142 0.15494999 -0.230148
-0.088140003 0.155021 -0.230142
-0.088137001 0.155093 -0.230134
-0.088134997 0.155165 -0.230113
-0.088133 0.15523601 -0.230097
-0.088129997 0.15530799 -0.230103
-0.088127002 0.15538301 -0.230111
-0.088124998 0.15545399 -0.23010001
-0.088122003 0.155526 -0.230092
-0.088119999 0.155598 -0.230092
-0.088115998 0.155672 -0.230104
-0.088111997 0.155745 -0.230121
-0.088109002 0.155817 -0.230133
-0.088105999 0.155891 -0.230139
-0.088102996 0.155963 -0.23014501
-0.088100001 0.15603501 -0.230142
-0.088097997 0.15610699 -0.23012801
-0.088096 0.156178 -0.23010799
-0.088094003 0.15625 -0.230096
-0.088091001 0.156322 -0.23009101
-0.088088997 0.156394 -0.230085
-0.088086002 0.156468 -0.230093
-0.088082001 0.15654001 -0.23009899
-0.088079996 0.15661199 -0.23010001
-0.088077001 0.156684 -0.23009799
-0.088073999 0.156758 -0.230096
-0.088072002 0.156829 -0.23009001
-0.088068999 0.156901 -0.230079
-0.088067003 0.156973 -0.230065
-0.088064998 0.157042 -0.230047
-0.088063002 0.157116 -0.230038
-0.088059999 0.157188 -0.23003399
-0.088056996 0.15726 -0.23003399
-0.088054001 0.157332 -0.23004
-0.088050999 0.157406 -0.230055
-0.088048004 0.157478 -0.23005299
-0.088045001 0.15755001 -0.23005299
-0.088041 0.157625 -0.23007099
-0.088037997 0.15769701 -0.23009001
-0.088033997 0.15777101 -0.23009799
-0.088032 0.15784299 -0.23010001
-0.088028997 0.157915 -0.230102
-0.088026002 0.157989 -0.230092
-0.088023998 0.158059 -0.230079
-0.088022001 0.15813001 -0.230057
-0.088021003 0.15820099 -0.23002499
-0.088019997 0.158271 -0.229996
-0.088017002 0.158345 -0.229996
-0.088013999 0.158417 -0.230004
-0.088010997 0.158489 -0.230003
-0.088009 0.15856101 -0.22999699
-0.088005997 0.15863299 -0.22999699
-0.088003002 0.15870699 -0.230001
-0.088 0.158778 -0.22999801
-0.087998003 0.15885 -0.229986
-0.087995 0.158922 -0.229974
-0.087994002 0.15899301 -0.229956
-0.087990999 0.15906499 -0.229947
-0.087989002 0.159137 -0.22993299
-0.087986998 0.159207 -0.22992299
-0.087984003 0.159281 -0.229927
-0.087981001 0.159353 -0.229932
-0.087977998 0.159427 -0.22993
-0.087975003 0.159499 -0.229936
-0.087971002 0.15957101 -0.22995
-0.087967999 0.15964501 -0.229965
-0.087963998 0.15972 -0.229975
-0.087961003 0.15979201 -0.229985
-0.087958001 0.15986601 -0.229993
-0.087954998 0.15993799 -0.229984
-0.087953001 0.160009 -0.229968
-0.087952003 0.160079 -0.229946
-0.087949999 0.16015001 -0.22992601
-0.087948002 0.16022199 -0.229911
-0.087945998 0.160292 -0.229899
-0.087944001 0.160363 -0.229883
-0.087940998 0.16043501 -0.22987799
-0.087938003 0.16050901 -0.22988801
-0.087935001 0.16058099 -0.229892
-0.087931998 0.160653 -0.229884
-0.087930001 0.16072699 -0.229881
-0.087926999 0.160799 -0.229877
-0.087924004 0.160871 -0.229873
-0.087921999 0.160942 -0.22985899
-0.087920003 0.16101199 -0.22984201
-0.087918997 0.161083 -0.229816
-0.087917 0.161153 -0.22979
-0.087915003 0.16122399 -0.229781
-0.087911002 0.16129901 -0.229791
-0.087908 0.16137099 -0.229803
-0.087904997 0.16144501 -0.229803
-0.087902002 0.16151699 -0.22980601
-0.087898999 0.16159099 -0.22981399
-0.087895997 0.161663 -0.22982
-0.087893002 0.16173699 -0.22982401
-0.087889999 0.161809 -0.229826
-0.087886997 0.161881 -0.229829
-0.087885 0.161953 -0.229821
-0.087883003 0.162025 -0.229803
-0.08788 0.16209599 -0.229794
-0.087878004 0.162168 -0.229784
-0.087875001 0.16224 -0.229776
-0.087872997 0.162312 -0.229774
-0.087870002 0.162384 -0.229765
-0.087869003 0.162453 -0.229737
-0.087866001 0.16252699 -0.22974101
-0.087862998 0.162599 -0.229753
-0.087858997 0.162673 -0.22976001
-0.087857001 0.162745 -0.22975799
-0.087853998 0.162817 -0.22975001
-0.087852001 0.162889 -0.229738
-0.087849997 0.16295999 -0.229725
-0.087848 0.16303 -0.229707
-0.087847002 0.16309901 -0.22967701
-0.087844998 0.16317099 -0.229654
-0.087842003 0.163243 -0.22964799
-0.087839 0.163315 -0.22965799
-0.087835997 0.163389 -0.229672
-0.087831996 0.163463 -0.229679
-0.087829001 0.163535 -0.229683
-0.087825999 0.163609 -0.229693
-0.087821998 0.163684 -0.229711
-0.087819003 0.16375799 -0.229718
-0.087816 0.16383 -0.22972199
-0.087812997 0.163904 -0.22973
-0.087810002 0.163978 -0.229734
-0.087807998 0.164048 -0.229719
-0.087806001 0.16411901 -0.229691
-0.087803997 0.164189 -0.22967701
-0.087801002 0.164263 -0.229689
-0.087797001 0.16433699 -0.229706
-0.087793998 0.16441201 -0.229716
-0.087789997 0.16448601 -0.229726
-0.087787002 0.16456001 -0.22974201
-0.087783001 0.164634 -0.22975799
-0.087779 0.164709 -0.229775
-0.087774999 0.164783 -0.22979499
-0.087773003 0.164855 -0.229791
-0.087770998 0.16492701 -0.22977901
-0.087766998 0.165001 -0.229791
-0.087764002 0.165075 -0.229794
-0.087761998 0.16514701 -0.22978599
-0.087759003 0.16521899 -0.22978801
-0.087755002 0.16529299 -0.22980399
-0.087751001 0.16536801 -0.229825
-0.087747 0.165444 -0.22984099
-0.087743998 0.165518 -0.229857
-0.087739997 0.165592 -0.22986899
-0.087737001 0.165667 -0.229885
-0.087732002 0.16574299 -0.229917
-0.087728001 0.16582 -0.22994401
-0.087724 0.165894 -0.229968
-0.087719999 0.165971 -0.22999001
-0.087715998 0.166045 -0.23000599
-0.087713003 0.16612101 -0.230018
-0.087707996 0.166196 -0.23004401
-0.087704003 0.166273 -0.230078
-0.087699004 0.16635101 -0.23010901
-0.087693997 0.166428 -0.230149
-0.087690003 0.16650701 -0.230185
-0.087684996 0.166584 -0.230215
-0.087681003 0.16666 -0.230251
-0.087674998 0.166742 -0.230307
-0.087669998 0.16681799 -0.23033699
-0.087667003 0.166895 -0.230353
-0.087663002 0.166969 -0.23037501
-0.087658003 0.167046 -0.2304
-0.087655 0.16711999 -0.230406
-0.087651998 0.16719399 -0.230416
-0.087646998 0.167272 -0.230446
-0.087642998 0.167349 -0.23047
-0.087638997 0.16742299 -0.23049399
-0.087633997 0.167505 -0.230546
-0.087627001 0.167586 -0.230616
-0.087621003 0.167669 -0.23067801
-0.087614998 0.167751 -0.23074199
-0.087609001 0.167832 -0.23080599
-0.087600999 0.167918 -0.230892
-0.087591 0.168009 -0.231024
-0.087582 0.1681 -0.231143
-0.087572999 0.16818801 -0.231261
-0.088641003 0.13783699 -0.23181701
-0.088641003 0.137915 -0.23174299
-0.088642001 0.13799299 -0.231667
-0.088644996 0.13807499 -0.23154099
-0.088643998 0.138151 -0.23148499
-0.088642001 0.138227 -0.231466
-0.088639997 0.138301 -0.231454
-0.088638999 0.138376 -0.23142
-0.088638 0.138451 -0.23137
-0.088637002 0.13852599 -0.231335
-0.088634998 0.138603 -0.23130099
-0.088633999 0.138676 -0.231279
-0.088632002 0.13875 -0.231261
-0.088629998 0.138825 -0.231235
-0.088629 0.1389 -0.231194
-0.088627003 0.13897599 -0.23117
-0.088624999 0.13904899 -0.23115399
-0.088623002 0.139125 -0.231124
-0.088623002 0.1392 -0.23107401
-0.088623002 0.139276 -0.231015
-0.088621996 0.139351 -0.230977
-0.088619001 0.139423 -0.23097301
-0.088615999 0.139497 -0.23097301
-0.088614002 0.139571 -0.230966
-0.088610999 0.139643 -0.23096
-0.088607997 0.139717 -0.230956
-0.088606 0.13979 -0.230942
-0.088604003 0.139864 -0.230929
-0.088601999 0.139937 -0.230901
-0.088601999 0.140012 -0.23085301
-0.088601001 0.14008901 -0.230803
-0.088601001 0.140164 -0.230749
-0.088601001 0.14024 -0.23068599
-0.088600002 0.14031699 -0.23063201
-0.088598996 0.14039101 -0.23060399
-0.088596001 0.140462 -0.2306
-0.088592999 0.140536 -0.230597
-0.088591002 0.140608 -0.230593
-0.088587999 0.140682 -0.230589
-0.088586003 0.140754 -0.23056699
-0.088583998 0.140829 -0.23055001
-0.088582002 0.140901 -0.230528
-0.088581003 0.140976 -0.23049
-0.088579997 0.14105099 -0.230452
-0.088578999 0.14112601 -0.230409
-0.088578999 0.141201 -0.230363
-0.088575996 0.14127301 -0.230351
-0.088573001 0.14134499 -0.230363
-0.088569999 0.141417 -0.23036601
-0.088567004 0.141489 -0.230362
-0.088564001 0.141563 -0.23036399
-0.088561997 0.141635 -0.23036601
-0.088559002 0.141706 -0.230359
-0.088555999 0.14177901 -0.23036499
-0.088551998 0.14185099 -0.230379
-0.088549003 0.141923 -0.23038299
-0.088546 0.141995 -0.230388
-0.088544004 0.142069 -0.23037399
-0.088542998 0.142142 -0.23034
-0.088541999 0.142215 -0.230308
-0.088540003 0.142289 -0.23029301
-0.088537 0.142361 -0.23029301
-0.088533998 0.142433 -0.230299
-0.088529997 0.14250501 -0.23030899
-0.088527001 0.14257701 -0.23031799
-0.088523999 0.14265101 -0.230314
-0.088522002 0.14272299 -0.230306
-0.088519 0.142795 -0.23029999
-0.088517003 0.142869 -0.230299
-0.088514 0.14294 -0.230295
-0.088510998 0.143012 -0.230289
-0.088509001 0.143086 -0.23028301
-0.088506997 0.14316 -0.23026399
-0.088505998 0.143231 -0.230234
-0.088503003 0.143305 -0.230224
-0.088500001 0.14337701 -0.23022801
-0.088496998 0.14344899 -0.230241
-0.088492997 0.143521 -0.230253
-0.088490002 0.143591 -0.23026299
-0.088486999 0.143663 -0.23026501
-0.088483997 0.143736 -0.230278
-0.088480003 0.14380801 -0.230296
-0.088477001 0.14387999 -0.230298
-0.088474996 0.14395399 -0.23029
-0.088472001 0.144026 -0.230279
-0.088469997 0.144099 -0.230261
-0.088468 0.144171 -0.230253
-0.088464998 0.144243 -0.23025499
-0.088462003 0.144315 -0.230258
-0.088459998 0.14438701 -0.230252
-0.088457003 0.14446101 -0.230248
-0.088454001 0.14453299 -0.23025399
-0.088450998 0.144605 -0.230257
-0.088448003 0.144677 -0.23026299
-0.088445 0.144749 -0.23026501
-0.088441998 0.144821 -0.23026501
-0.088439003 0.14489301 -0.230278
-0.088436 0.144967 -0.23028199
-0.088432997 0.14503901 -0.23028
-0.088430002 0.14511099 -0.230278
-0.088427998 0.145183 -0.23026501
-0.088426001 0.145256 -0.23024701
-0.088423997 0.145328 -0.230235
-0.088420004 0.1454 -0.230244
-0.088417001 0.145473 -0.23026399
-0.088413 0.14554501 -0.230276
-0.088409998 0.14561699 -0.230286
-0.088407002 0.145689 -0.230297
-0.088403001 0.145761 -0.230305
-0.088399999 0.145834 -0.23031899
-0.088395998 0.145906 -0.230335
-0.088393003 0.145978 -0.23033801
-0.088390999 0.146052 -0.23032001
-0.088389002 0.14612301 -0.23030999
-0.088385999 0.14619599 -0.23032001
-0.088382997 0.146267 -0.23031899
-0.088381 0.146339 -0.23030899
-0.088377997 0.146413 -0.23030899
-0.088375002 0.146485 -0.230315
-0.088372 0.146557 -0.230312
-0.088368997 0.14662901 -0.230312
-0.088366002 0.14670099 -0.230316
-0.088362999 0.146773 -0.230316
-0.088361003 0.14684699 -0.230313
-0.088358 0.146919 -0.23030899
-0.088356003 0.146991 -0.230299
-0.088353001 0.147062 -0.23029099
-0.088350996 0.147136 -0.23028199
-0.088349 0.14720801 -0.230268
-0.088345997 0.14727999 -0.230266
-0.088343002 0.147352 -0.23028
-0.088339001 0.147424 -0.23029301
-0.088335998 0.147498 -0.23029301
-0.088333003 0.14757 -0.23029301
-0.088330001 0.147641 -0.230307
-0.088326 0.147715 -0.230326
-0.088322997 0.14778499 -0.23033801
-0.088319004 0.14785901 -0.230354
-0.088316001 0.14793199 -0.230358
-0.088313997 0.148003 -0.230343
-0.088312 0.148077 -0.230325
-0.088310003 0.148148 -0.230313
-0.088307999 0.14822 -0.230305
-0.088304996 0.14829201 -0.230296
-0.088303 0.14836399 -0.23029201
-0.088298999 0.14843801 -0.23029999
-0.088296004 0.14850999 -0.23030201
-0.088293999 0.148582 -0.230289
-0.088292003 0.148654 -0.230285
-0.088288002 0.148726 -0.230295
-0.088284999 0.1488 -0.230305
-0.088281997 0.148872 -0.23030999
-0.088279001 0.14894401 -0.230304
-0.088276997 0.14901499 -0.230288
-0.088275999 0.14908899 -0.230258
-0.088274002 0.14916 -0.230231
-0.088271998 0.149232 -0.23021901
-0.088269003 0.149306 -0.230235
-0.088265002 0.149376 -0.230244
-0.088261999 0.14944801 -0.23025
-0.088258997 0.149523 -0.230262
-0.088255003 0.14959501 -0.23027401
-0.088252001 0.14966699 -0.23028401
-0.088248998 0.149739 -0.230299
-0.088244997 0.149812 -0.23031101
-0.088242002 0.149884 -0.230321
-0.088238999 0.149956 -0.230323
-0.088237002 0.15003 -0.230314
-0.088234 0.15010101 -0.230306
-0.088232003 0.15017299 -0.23029201
-0.088229999 0.150245 -0.230271
-0.088228002 0.150316 -0.23026501
-0.088224001 0.150391 -0.23027299
-0.088221997 0.150462 -0.23027299
-0.088219002 0.150534 -0.23027401
-0.088215999 0.150607 -0.230278
-0.088212997 0.15067799 -0.230268
-0.088211 0.15075199 -0.230262
-0.088207997 0.150824 -0.230267
-0.088205002 0.150896 -0.230261
-0.088202998 0.150968 -0.23024701
-0.088201001 0.151039 -0.230235
-0.088198997 0.151113 -0.230224
-0.088196002 0.15118501 -0.230212
-0.088193998 0.15125699 -0.230206
-0.088191003 0.151329 -0.230206
-0.088188 0.151401 -0.230205
-0.088184997 0.151475 -0.23020899
-0.088182002 0.151547 -0.23021901
-0.088179 0.151619 -0.230221
-0.088175997 0.151691 -0.230224
-0.088173002 0.15176301 -0.230234
-0.088169001 0.15183701 -0.230248
-0.088165998 0.15190899 -0.230248
-0.088164002 0.151981 -0.23023701
-0.088161997 0.152052 -0.230215
-0.088160001 0.152124 -0.230203
-0.088156998 0.152196 -0.230204
-0.088155001 0.15226801 -0.230184
-0.088154003 0.152339 -0.23016401
-0.088151 0.152413 -0.230168
-0.088146999 0.152485 -0.23018099
-0.088143997 0.152558 -0.230185
-0.088141002 0.15263 -0.230189
-0.088137999 0.152702 -0.230189
-0.088134997 0.152775 -0.230188
-0.088133 0.15284701 -0.23018999
-0.088129997 0.15291899 -0.230188
-0.088127002 0.152991 -0.230188
-0.088124998 0.153063 -0.23017301
-0.088124 0.153134 -0.230133
-0.088122003 0.15320601 -0.230113
-0.088119 0.15328 -0.230115
-0.088115998 0.15335201 -0.23012
-0.088113002 0.15342399 -0.23013
-0.088109002 0.153496 -0.23014601
-0.088105999 0.153568 -0.230152
-0.088102996 0.153642 -0.230151
-0.088100001 0.153714 -0.230159
-0.088096 0.153787 -0.230179
-0.088092998 0.153859 -0.230187
-0.088091001 0.15393101 -0.230184
-0.088087998 0.15400501 -0.23017199
-0.088086002 0.154076 -0.23015399
-0.088083997 0.154148 -0.23014399
-0.088082001 0.15422 -0.230133
-0.088078998 0.154291 -0.230125
-0.088076003 0.15436301 -0.230131
-0.088073 0.15443601 -0.23013701
-0.088069998 0.15451001 -0.23014
-0.088067003 0.15458199 -0.230148
-0.088064998 0.154654 -0.230138
-0.088062003 0.154725 -0.230131
-0.088059001 0.154798 -0.230143
-0.088055 0.154872 -0.23015501
-0.088051997 0.154944 -0.23015501
-0.08805 0.15501501 -0.230139
-0.088048004 0.15508699 -0.230122
-0.088046998 0.155158 -0.230102
-0.088044003 0.15523 -0.230088
-0.088041998 0.155302 -0.23008899
-0.088039003 0.15537401 -0.230087
-0.088036001 0.155448 -0.230083
-0.088032998 0.15552001 -0.230093
-0.088030003 0.15559199 -0.23010001
-0.088027 0.155664 -0.23009799
-0.088023998 0.155738 -0.230106
-0.088019997 0.155811 -0.230122
-0.088017002 0.155885 -0.23013701
-0.088013001 0.155957 -0.230143
-0.088010997 0.156029 -0.23013701
-0.088009 0.1561 -0.23011699
-0.088007003 0.15617201 -0.230106
-0.088004 0.15624399 -0.23009799
-0.088001996 0.156315 -0.23008201
-0.088 0.156387 -0.23007201
-0.087996997 0.156459 -0.230083
-0.087994002 0.156533 -0.230087
-0.087990999 0.15660501 -0.23008101
-0.087987997 0.15667699 -0.230077
-0.087986 0.156749 -0.23007999
-0.087982997 0.156821 -0.23008201
-0.087980002 0.156895 -0.23007999
-0.087977 0.156967 -0.23007999
-0.087973997 0.157039 -0.230077
-0.087972999 0.15711001 -0.230055
-0.087971002 0.15718199 -0.230031
-0.087968998 0.157254 -0.230022
-0.087966003 0.157326 -0.230024
-0.087963 0.157398 -0.23003
-0.087958999 0.157472 -0.230042
-0.087955996 0.157544 -0.23005299
-0.087953001 0.157618 -0.230059
-0.087949999 0.15769 -0.230065
-0.087945998 0.157763 -0.230079
-0.087943003 0.157837 -0.23008899
-0.08794 0.15790901 -0.230086
-0.087938003 0.15798 -0.230068
-0.087935999 0.158052 -0.230046
-0.087934002 0.158124 -0.230037
-0.087931998 0.158195 -0.230019
-0.087931 0.158264 -0.229983
-0.087929003 0.158336 -0.22997101
-0.087925002 0.15841 -0.229986
-0.087921999 0.158483 -0.23
-0.087918997 0.158557 -0.230002
-0.087916002 0.15862601 -0.229994
-0.087913997 0.1587 -0.229991
-0.087911002 0.15877201 -0.22998901
-0.087908998 0.15884399 -0.22997899
-0.087907001 0.158915 -0.229956
-0.087904997 0.158985 -0.229932
-0.087903 0.159059 -0.22993
-0.087899998 0.15913101 -0.22992601
-0.087897003 0.15920299 -0.22992501
-0.087894 0.159275 -0.229931
-0.087890998 0.159347 -0.22993501
-0.087888002 0.159421 -0.22993299
-0.087885998 0.159493 -0.22993
-0.087881997 0.159565 -0.22994
-0.087879002 0.159639 -0.22995
-0.087876 0.159711 -0.22995999
-0.087871999 0.159785 -0.22996999
-0.087869003 0.159858 -0.22998101
-0.087866001 0.15992901 -0.229977
-0.087863997 0.16000301 -0.229963
-0.087862 0.160073 -0.22995199
-0.087860003 0.160145 -0.22994
-0.087857999 0.160216 -0.229922
-0.087856002 0.16028801 -0.229904
-0.087853998 0.160359 -0.229895
-0.087851003 0.160431 -0.22988901
-0.087848 0.160503 -0.22988699
-0.087844998 0.160575 -0.22988801
-0.087843001 0.160647 -0.22988801
-0.087839998 0.160721 -0.229886
-0.087837003 0.16079301 -0.22987799
-0.087834999 0.16086499 -0.22986899
-0.087833002 0.160934 -0.229847
-0.087831996 0.161006 -0.229825
-0.087829001 0.16107699 -0.22981299
-0.087826997 0.161149 -0.22980601
-0.087825 0.161221 -0.22979601
-0.087821998 0.161293 -0.229794
-0.087819003 0.161365 -0.22979499
-0.087816 0.161439 -0.22979499
-0.087812997 0.161511 -0.229793
-0.087811001 0.16158301 -0.22979499
-0.087807 0.16165701 -0.229807
-0.087803997 0.16172899 -0.22981399
-0.087801002 0.16180301 -0.22981
-0.087797999 0.16187499 -0.229812
-0.087796003 0.161947 -0.229808
-0.087793998 0.162018 -0.22978701
-0.087792002 0.16208801 -0.22977901
-0.087788999 0.16216201 -0.22976901
-0.087787002 0.162231 -0.229756
-0.087784 0.162305 -0.229756
-0.087780997 0.162377 -0.22976001
-0.087778002 0.162449 -0.22975799
-0.087775998 0.162521 -0.22974899
-0.087774001 0.16259301 -0.22974101
-0.087770998 0.16266499 -0.229735
-0.087769002 0.162737 -0.229727
-0.087765999 0.162809 -0.22973
-0.087762997 0.162883 -0.22973
-0.087761 0.16295201 -0.229718
-0.087759003 0.16302399 -0.229707
-0.087756 0.163096 -0.22969501
-0.087754004 0.163167 -0.229683
-0.087751999 0.163239 -0.229669
-0.087750003 0.16330899 -0.22965799
-0.087747 0.16338301 -0.229656
-0.087743998 0.16345499 -0.229664
-0.087739997 0.16352899 -0.229672
-0.087737001 0.16360299 -0.22967499
-0.087733999 0.163675 -0.22968701
-0.087729998 0.16374899 -0.229701
-0.087727003 0.16382401 -0.229717
-0.087723002 0.16389801 -0.229727
-0.087720998 0.16396999 -0.229726
-0.087718002 0.164042 -0.22971401
-0.087716997 0.164113 -0.22969601
-0.087714002 0.164185 -0.229691
-0.087710999 0.164257 -0.229701
-0.087706998 0.164334 -0.229719
-0.087702997 0.164408 -0.22973099
-0.087700002 0.16448 -0.229737
-0.087696999 0.164554 -0.229744
-0.087693997 0.164626 -0.229752
-0.087690003 0.164702 -0.229762
-0.087687001 0.164775 -0.22977
-0.087683998 0.164849 -0.22977
-0.087682001 0.16491801 -0.22975899
-0.087678999 0.164992 -0.22975899
-0.087674998 0.165067 -0.229781
-0.087672003 0.165141 -0.22978701
-0.087669 0.165213 -0.22978599
-0.087665997 0.165287 -0.22979601
-0.087663002 0.165361 -0.22980601
-0.087659001 0.165435 -0.229816
-0.087655 0.16551 -0.229836
-0.087650999 0.16558599 -0.22985899
-0.087647997 0.16566101 -0.229877
-0.087642998 0.165737 -0.22990701
-0.087638997 0.165814 -0.229937
-0.087633997 0.16588999 -0.22996899
-0.087631002 0.16596501 -0.229987
-0.087627001 0.166039 -0.229995
-0.087623999 0.166113 -0.230012
-0.087618999 0.16619 -0.23004401
-0.087614998 0.16626599 -0.230066
-0.087610997 0.16634101 -0.23008201
-0.087606996 0.166417 -0.23011599
-0.087600999 0.16649801 -0.23016
-0.087596998 0.166575 -0.23018999
-0.087591998 0.16665199 -0.23022699
-0.087586999 0.166731 -0.230271
-0.087582998 0.166807 -0.230303
-0.087577999 0.166886 -0.23033699
-0.087573998 0.166963 -0.230363
-0.087569997 0.167037 -0.230379
-0.087567002 0.16711099 -0.23038501
-0.087563999 0.16718499 -0.23039301
-0.087559998 0.167262 -0.230418
-0.087554 0.16734099 -0.23046599
-0.087549001 0.16742 -0.23051
-0.087544002 0.16749901 -0.230546
-0.087537996 0.16757999 -0.230602
-0.087532997 0.167659 -0.23064201
-0.087527998 0.16773801 -0.230692
-0.087520003 0.167824 -0.230782
-0.087513 0.16790999 -0.23087201
-0.087503001 0.168001 -0.231005
-0.087493002 0.168091 -0.23112901
-0.087485 0.16817801 -0.231233
-0.088556997 0.13791201 -0.23176
-0.088556997 0.13799 -0.231692
-0.088558003 0.13806801 -0.23159599
-0.088560998 0.13814899 -0.23147801
-0.088559002 0.138225 -0.231455
-0.088555999 0.138298 -0.231447
-0.088554002 0.138372 -0.231429
-0.088552997 0.138449 -0.231383
-0.088552997 0.138524 -0.23134001
-0.088551 0.13859899 -0.231316
-0.088549003 0.138675 -0.23128401
-0.088549003 0.13875 -0.23124
-0.088546999 0.138825 -0.23120999
-0.088545002 0.138899 -0.231199
-0.088542998 0.138972 -0.23117299
-0.088541999 0.139047 -0.231133
-0.088541001 0.13912199 -0.23110101
-0.088538997 0.13919801 -0.231068
-0.088537998 0.139272 -0.231022
-0.088537 0.139348 -0.230996
-0.088533998 0.139422 -0.23098999
-0.088532001 0.139494 -0.230984
-0.088528998 0.139567 -0.23098101
-0.088526003 0.13963901 -0.230977
-0.088523999 0.139713 -0.230967
-0.088522002 0.139787 -0.230955
-0.088519998 0.139862 -0.230928
-0.088519 0.139937 -0.230884
-0.088518001 0.14001 -0.230848
-0.088517003 0.140086 -0.23081601
-0.088515997 0.14016201 -0.230754
-0.088515997 0.140239 -0.23069499
-0.088514999 0.140314 -0.23065101
-0.088514 0.140387 -0.230625
-0.088512003 0.140461 -0.230609
-0.088509001 0.140532 -0.2306
-0.088506997 0.140606 -0.230592
-0.088505 0.14068 -0.23057801
-0.088503003 0.140753 -0.23056
-0.088500001 0.140827 -0.230545
-0.088499002 0.140901 -0.23052099
-0.088497996 0.140976 -0.230483
-0.088496 0.141049 -0.230455
-0.088496 0.141124 -0.230398
-0.088496 0.14120001 -0.23032799
-0.088494003 0.14127199 -0.23032001
-0.088490002 0.141344 -0.23034
-0.088486999 0.141416 -0.230351
-0.088483997 0.141489 -0.230353
-0.088481002 0.141561 -0.230359
-0.088477999 0.141633 -0.230361
-0.088474996 0.14170501 -0.23036399
-0.088472001 0.14177699 -0.23037399
-0.088468 0.141849 -0.230382
-0.088464998 0.141921 -0.230388
-0.088462003 0.141993 -0.230391
-0.088459998 0.142067 -0.230379
-0.088458002 0.14214 -0.23035499
-0.088455997 0.142212 -0.230333
-0.088454999 0.142287 -0.23030999
-0.088453002 0.142359 -0.23029
-0.08845 0.142433 -0.23029201
-0.088445999 0.14250299 -0.230306
-0.088443004 0.142575 -0.230317
-0.088440001 0.142647 -0.230321
-0.088436998 0.142719 -0.23031899
-0.088435002 0.142793 -0.230313
-0.088431999 0.142865 -0.230306
-0.088430002 0.142937 -0.23030201
-0.088427 0.14301001 -0.23029201
-0.088425003 0.143084 -0.23027
-0.088422999 0.143158 -0.23025499
-0.088421002 0.14322899 -0.230249
-0.088417999 0.143301 -0.23024499
-0.088416003 0.14337499 -0.23023701
-0.088413 0.143447 -0.230234
-0.088409998 0.143519 -0.230242
-0.088405997 0.143589 -0.230262
-0.088403001 0.14366201 -0.230276
-0.088399 0.14373399 -0.230285
-0.088395998 0.143806 -0.230289
-0.088394001 0.14387999 -0.230287
-0.088390999 0.14395 -0.23029301
-0.088388003 0.144022 -0.230294
-0.088385999 0.144096 -0.23027401
-0.088384002 0.144169 -0.23026
-0.088381 0.14424101 -0.23025601
-0.088377997 0.14431299 -0.230261
-0.088375002 0.144385 -0.230261
-0.088372 0.14445899 -0.23026299
-0.088368997 0.144531 -0.230261
-0.088367 0.144603 -0.23025601
-0.088363998 0.144675 -0.230262
-0.088359997 0.144747 -0.230278
-0.088357002 0.14482 -0.230288
-0.088353999 0.14489201 -0.230295
-0.088350996 0.144963 -0.230287
-0.088349 0.145037 -0.230269
-0.088347003 0.145109 -0.23026
-0.088344 0.145183 -0.230252
-0.088342004 0.145254 -0.230248
-0.088339001 0.145326 -0.230252
-0.088335998 0.145399 -0.230257
-0.088333003 0.14547101 -0.230259
-0.088330001 0.14554299 -0.23026299
-0.088326 0.145615 -0.23027501
-0.088322997 0.145687 -0.230294
-0.088319004 0.14576 -0.23030999
-0.088316001 0.145832 -0.230316
-0.088312998 0.145904 -0.230326
-0.088310003 0.14597601 -0.230331
-0.088307001 0.14604799 -0.230331
-0.088303998 0.14612 -0.230335
-0.088301003 0.146192 -0.230333
-0.088298999 0.146266 -0.230322
-0.088297002 0.146337 -0.230312
-0.088293001 0.146409 -0.23031799
-0.088289998 0.14648101 -0.230322
-0.088288002 0.14655299 -0.230323
-0.088284999 0.14662699 -0.230321
-0.088281997 0.146699 -0.230321
-0.088279001 0.146771 -0.230327
-0.088275999 0.146844 -0.230332
-0.088273004 0.146915 -0.230324
-0.088270999 0.146989 -0.23030999
-0.088269003 0.14706101 -0.230304
-0.088266 0.14713299 -0.23030099
-0.088264003 0.14720599 -0.230287
-0.088261001 0.147278 -0.230281
-0.088257998 0.14735 -0.23029301
-0.088255003 0.147422 -0.230296
-0.088252001 0.147494 -0.230296
-0.088248998 0.147567 -0.23030999
-0.088244997 0.14763901 -0.230324
-0.088242002 0.14771099 -0.23033901
-0.088238001 0.147783 -0.230349
-0.088234998 0.14785799 -0.230359
-0.088232003 0.147928 -0.230371
-0.088229001 0.148002 -0.23036399
-0.088228002 0.148073 -0.230332
-0.088225998 0.148146 -0.230306
-0.088224001 0.14821801 -0.230304
-0.088220999 0.14828999 -0.230297
-0.088218004 0.148362 -0.23029301
-0.088215999 0.14843599 -0.23029301
-0.088212997 0.148508 -0.23028301
-0.088210002 0.14858 -0.23028199
-0.088207997 0.148652 -0.23028
-0.088205002 0.148724 -0.230286
-0.088201001 0.148798 -0.23029999
-0.088197999 0.14887001 -0.230303
-0.088196002 0.14894199 -0.230297
-0.088192999 0.149014 -0.230289
-0.088191003 0.149085 -0.230272
-0.088189997 0.149159 -0.230248
-0.088188 0.14923 -0.23022801
-0.088184997 0.149304 -0.230224
-0.088182002 0.149376 -0.230231
-0.088179 0.14944801 -0.230233
-0.088175997 0.14951999 -0.230241
-0.088172004 0.149593 -0.23025499
-0.088168003 0.149665 -0.230276
-0.088165 0.149737 -0.230294
