# .PCD v0.7 - Point Cloud Data file format
VERSION 0.7
FIELDS x y z
SIZE 4 4 4
TYPE F F F
COUNT 1 1 1
WIDTH 1649
HEIGHT 1
VIEWPOINT 0 0 0 1 0 0 0
POINTS 1649
DATA ascii
-0.081323 0.079517 -0.239494
-0.081321 0.079593 -0.239488
-0.081318 0.079671 -0.239488
-0.081315 0.079747 -0.239488
-0.081312 0.079823 -0.239489
-0.081309 0.079899 -0.239483
-0.081307 0.079977 -0.239471
-0.081304 0.080052 -0.239461
-0.081301 0.080128 -0.239453
-0.081298 0.080206 -0.239453
-0.081296 0.080282 -0.239450
-0.081293 0.080358 -0.239446
-0.081289 0.080434 -0.239458
-0.081286 0.080510 -0.239460
-0.081283 0.080588 -0.239452
-0.081281 0.080664 -0.239450
-0.081278 0.080742 -0.239449
-0.081275 0.080818 -0.239447
-0.081272 0.080894 -0.239447
-0.081269 0.080969 -0.239447
-0.081266 0.081045 -0.239445
-0.081263 0.081123 -0.239437
-0.081260 0.081199 -0.239434
-0.081258 0.081275 -0.239428
-0.081255 0.081353 -0.239420
-0.081252 0.081429 -0.239428
-0.081249 0.081505 -0.239428
-0.081246 0.081581 -0.239424
-0.081243 0.081657 -0.239431
-0.081240 0.081735 -0.239425
-0.081237 0.081810 -0.239413
-0.081235 0.081886 -0.239407
-0.081231 0.081962 -0.239413
-0.081228 0.082038 -0.239415
-0.081226 0.082116 -0.239408
-0.081223 0.082192 -0.239406
-0.081220 0.082270 -0.239404
-0.081217 0.082346 -0.239402
-0.081213 0.082422 -0.239412
-0.081211 0.082498 -0.239410
-0.081208 0.082574 -0.239397
-0.081205 0.082651 -0.239393
-0.081203 0.082727 -0.239391
-0.081200 0.082803 -0.239381
-0.081197 0.082879 -0.239375
-0.081195 0.082955 -0.239372
-0.081192 0.083033 -0.239362
-0.081189 0.083109 -0.239362
-0.081185 0.083185 -0.239374
-0.081182 0.083261 -0.239378
-0.081180 0.083339 -0.239364
-0.081177 0.083414 -0.239355
-0.081174 0.083490 -0.239355
-0.081171 0.083566 -0.239353
-0.081168 0.083644 -0.239351
-0.081165 0.083720 -0.239357
-0.081162 0.083796 -0.239361
-0.081160 0.083872 -0.239352
-0.081157 0.083948 -0.239346
-0.081153 0.084026 -0.239354
-0.081150 0.084102 -0.239360
-0.081148 0.084178 -0.239348
-0.081145 0.084254 -0.239338
-0.081142 0.084331 -0.239339
-0.081139 0.084407 -0.239339
-0.081137 0.084483 -0.239331
-0.081134 0.084561 -0.239327
-0.081131 0.084637 -0.239329
-0.081127 0.084713 -0.239333
-0.081124 0.084789 -0.239344
-0.081121 0.084865 -0.239338
-0.081119 0.084943 -0.239322
-0.081117 0.085018 -0.239306
-0.081114 0.085094 -0.239302
-0.081111 0.085170 -0.239302
-0.081108 0.085246 -0.239307
-0.081105 0.085324 -0.239307
-0.081102 0.085400 -0.239305
-0.081099 0.085476 -0.239309
-0.081096 0.085552 -0.239303
-0.081094 0.085628 -0.239291
-0.081091 0.085706 -0.239290
-0.081087 0.085782 -0.239296
-0.081084 0.085858 -0.239294
-0.081082 0.085936 -0.239288
-0.081078 0.086012 -0.239292
-0.081075 0.086088 -0.239296
-0.081073 0.086164 -0.239291
-0.081071 0.086239 -0.239273
-0.081068 0.086317 -0.239267
-0.081064 0.086393 -0.239275
-0.081062 0.086469 -0.239265
-0.081059 0.086545 -0.239257
-0.081056 0.086621 -0.239262
-0.081053 0.086699 -0.239264
-0.081050 0.086774 -0.239254
-0.081048 0.086850 -0.239250
-0.081044 0.086926 -0.239254
-0.081041 0.087004 -0.239258
-0.081038 0.087080 -0.239255
-0.081036 0.087156 -0.239245
-0.081033 0.087232 -0.239247
-0.081029 0.087310 -0.239255
-0.081027 0.087386 -0.239249
-0.081024 0.087462 -0.239242
-0.081021 0.087538 -0.239242
-0.081018 0.087616 -0.239242
-0.081015 0.087692 -0.239244
-0.081012 0.087768 -0.239242
-0.081009 0.087844 -0.239238
-0.081006 0.087920 -0.239237
-0.081003 0.087998 -0.239243
-0.081000 0.088074 -0.239249
-0.080997 0.088150 -0.239243
-0.080995 0.088227 -0.239231
-0.080993 0.088301 -0.239205
-0.080378 0.104607 -0.238689
-0.080376 0.104681 -0.238671
-0.080374 0.104757 -0.238665
-0.080370 0.104835 -0.238675
-0.080366 0.104915 -0.238687
-0.080363 0.104993 -0.238699
-0.080360 0.105071 -0.238701
-0.080357 0.105147 -0.238698
-0.080353 0.105225 -0.238706
-0.080350 0.105303 -0.238710
-0.080347 0.105381 -0.238710
-0.080344 0.105460 -0.238714
-0.080341 0.105536 -0.238716
-0.080338 0.105614 -0.238718
-0.080335 0.105692 -0.238719
-0.080331 0.105770 -0.238731
-0.080327 0.105850 -0.238751
-0.080324 0.105926 -0.238747
-0.080321 0.106004 -0.238739
-0.080319 0.106077 -0.238721
-0.080318 0.106149 -0.238686
-0.080316 0.106222 -0.238672
-0.080312 0.106302 -0.238686
-0.080309 0.106381 -0.238694
-0.080306 0.106457 -0.238690
-0.080304 0.106532 -0.238670
-0.080303 0.106601 -0.238629
-0.080303 0.106668 -0.238567
-0.080301 0.106744 -0.238561
-0.080298 0.106822 -0.238564
-0.080295 0.106897 -0.238558
-0.080292 0.106973 -0.238552
-0.080289 0.107051 -0.238552
-0.080286 0.107129 -0.238558
-0.080283 0.107203 -0.238548
-0.080282 0.107276 -0.238527
-0.080281 0.107348 -0.238487
-0.080277 0.107426 -0.238503
-0.080272 0.107508 -0.238527
-0.080268 0.107589 -0.238547
-0.080262 0.107678 -0.238607
-0.080259 0.107756 -0.238615
-0.080256 0.107832 -0.238611
-0.080253 0.107908 -0.238605
-0.080250 0.107986 -0.238608
-0.080247 0.108064 -0.238610
-0.080244 0.108140 -0.238608
-0.080241 0.108216 -0.238602
-0.080238 0.108292 -0.238596
-0.080236 0.108367 -0.238592
-0.080233 0.108445 -0.238593
-0.080229 0.108523 -0.238595
-0.080226 0.108602 -0.238603
-0.080223 0.108680 -0.238609
-0.080220 0.108755 -0.238601
-0.080217 0.108831 -0.238593
-0.080214 0.108909 -0.238597
-0.081473 0.073834 -0.239876
-0.081473 0.073913 -0.239820
-0.081471 0.073990 -0.239791
-0.081470 0.074069 -0.239749
-0.081469 0.074148 -0.239703
-0.081467 0.074227 -0.239675
-0.081466 0.074304 -0.239639
-0.081464 0.074382 -0.239615
-0.081461 0.074458 -0.239616
-0.081458 0.074534 -0.239626
-0.081455 0.074612 -0.239624
-0.081452 0.074688 -0.239616
-0.081449 0.074766 -0.239610
-0.081447 0.074841 -0.239602
-0.081444 0.074919 -0.239600
-0.081441 0.074995 -0.239601
-0.081438 0.075073 -0.239595
-0.081435 0.075149 -0.239597
-0.081431 0.075225 -0.239605
-0.081428 0.075301 -0.239607
-0.081425 0.075377 -0.239609
-0.081423 0.075455 -0.239604
-0.081420 0.075531 -0.239596
-0.081417 0.075609 -0.239590
-0.081414 0.075685 -0.239596
-0.081411 0.075761 -0.239586
-0.081409 0.075838 -0.239572
-0.081406 0.075914 -0.239571
-0.081403 0.075992 -0.239569
-0.081400 0.076068 -0.239565
-0.081397 0.076144 -0.239569
-0.081394 0.076220 -0.239563
-0.081392 0.076298 -0.239555
-0.081389 0.076374 -0.239560
-0.081386 0.076450 -0.239560
-0.081382 0.076528 -0.239562
-0.081379 0.076604 -0.239570
-0.081376 0.076680 -0.239574
-0.081373 0.076756 -0.239564
-0.081371 0.076833 -0.239559
-0.081368 0.076909 -0.239555
-0.081365 0.076987 -0.239543
-0.081363 0.077063 -0.239535
-0.081360 0.077139 -0.239535
-0.081357 0.077215 -0.239537
-0.081354 0.077293 -0.239538
-0.081350 0.077369 -0.239542
-0.081348 0.077445 -0.239536
-0.081345 0.077522 -0.239528
-0.081342 0.077598 -0.239526
-0.081339 0.077676 -0.239522
-0.081337 0.077752 -0.239515
-0.081334 0.077828 -0.239511
-0.081331 0.077906 -0.239505
-0.081329 0.077982 -0.239497
-0.081325 0.078058 -0.239503
-0.081322 0.078134 -0.239515
-0.081319 0.078212 -0.239508
-0.081317 0.078287 -0.239488
-0.081314 0.078363 -0.239496
-0.081310 0.078441 -0.239506
-0.081307 0.078517 -0.239500
-0.081305 0.078593 -0.239496
-0.081302 0.078671 -0.239491
-0.081299 0.078747 -0.239481
-0.081297 0.078823 -0.239475
-0.081294 0.078900 -0.239469
-0.081291 0.078976 -0.239471
-0.081287 0.079053 -0.239479
-0.081284 0.079129 -0.239480
-0.081281 0.079205 -0.239480
-0.081278 0.079280 -0.239480
-0.081276 0.079358 -0.239478
-0.081272 0.079434 -0.239480
-0.081270 0.079510 -0.239474
-0.081267 0.079588 -0.239465
-0.081264 0.079664 -0.239463
-0.081261 0.079740 -0.239461
-0.081258 0.079816 -0.239463
-0.081255 0.079892 -0.239463
-0.081253 0.079970 -0.239453
-0.081250 0.080045 -0.239440
-0.081248 0.080123 -0.239432
-0.081245 0.080199 -0.239430
-0.081242 0.080275 -0.239432
-0.081239 0.080351 -0.239432
-0.081236 0.080429 -0.239436
-0.081233 0.080505 -0.239435
-0.081230 0.080581 -0.239429
-0.081227 0.080657 -0.239435
-0.081223 0.080733 -0.239447
-0.081220 0.080811 -0.239439
-0.081218 0.080887 -0.239427
-0.081215 0.080962 -0.239424
-0.081212 0.081040 -0.239422
-0.081210 0.081116 -0.239418
-0.081207 0.081192 -0.239408
-0.081205 0.081268 -0.239398
-0.081201 0.081346 -0.239404
-0.081198 0.081422 -0.239411
-0.081195 0.081498 -0.239403
-0.081192 0.081574 -0.239405
-0.081189 0.081650 -0.239401
-0.081187 0.081727 -0.239391
-0.081184 0.081803 -0.239391
-0.081181 0.081879 -0.239390
-0.081178 0.081957 -0.239394
-0.081175 0.082033 -0.239398
-0.081172 0.082109 -0.239394
-0.081169 0.082185 -0.239394
-0.081166 0.082263 -0.239392
-0.081163 0.082339 -0.239389
-0.081160 0.082415 -0.239385
-0.081157 0.082491 -0.239381
-0.081155 0.082567 -0.239375
-0.081152 0.082644 -0.239369
-0.081149 0.082720 -0.239369
-0.081146 0.082796 -0.239370
-0.081143 0.082872 -0.239368
-0.081140 0.082948 -0.239364
-0.081138 0.083026 -0.239354
-0.081135 0.083102 -0.239350
-0.081132 0.083178 -0.239357
-0.081129 0.083256 -0.239349
-0.081126 0.083331 -0.239341
-0.081123 0.083407 -0.239341
-0.081121 0.083483 -0.239333
-0.081118 0.083559 -0.239333
-0.081115 0.083637 -0.239338
-0.081111 0.083713 -0.239340
-0.081108 0.083789 -0.239344
-0.081105 0.083865 -0.239350
-0.081102 0.083941 -0.239350
-0.081099 0.084019 -0.239342
-0.081097 0.084095 -0.239335
-0.081094 0.084171 -0.239331
-0.081091 0.084247 -0.239329
-0.081088 0.084325 -0.239327
-0.081085 0.084401 -0.239323
-0.081082 0.084477 -0.239323
-0.081079 0.084554 -0.239320
-0.081077 0.084630 -0.239308
-0.081074 0.084706 -0.239312
-0.081071 0.084782 -0.239318
-0.081068 0.084858 -0.239312
-0.081065 0.084936 -0.239308
-0.081062 0.085012 -0.239305
-0.081060 0.085088 -0.239297
-0.081057 0.085164 -0.239293
-0.081054 0.085240 -0.239299
-0.081051 0.085318 -0.239297
-0.081047 0.085394 -0.239301
-0.081045 0.085470 -0.239300
-0.081042 0.085545 -0.239296
-0.081039 0.085621 -0.239290
-0.081037 0.085699 -0.239278
-0.081034 0.085775 -0.239270
-0.081031 0.085851 -0.239276
-0.081028 0.085929 -0.239279
-0.081025 0.086005 -0.239269
-0.081022 0.086081 -0.239267
-0.081019 0.086157 -0.239271
-0.081016 0.086233 -0.239273
-0.081013 0.086310 -0.239269
-0.081010 0.086386 -0.239266
-0.081008 0.086462 -0.239250
-0.081006 0.086537 -0.239228
-0.081003 0.086613 -0.239226
-0.080999 0.086692 -0.239242
-0.080996 0.086768 -0.239248
-0.080993 0.086844 -0.239243
-0.080990 0.086920 -0.239247
-0.080987 0.086998 -0.239251
-0.080985 0.087073 -0.239233
-0.080983 0.087149 -0.239215
-0.080980 0.087225 -0.239222
-0.080976 0.087301 -0.239228
-0.080973 0.087379 -0.239232
-0.080970 0.087455 -0.239226
-0.080968 0.087531 -0.239222
-0.080965 0.087609 -0.239220
-0.080962 0.087685 -0.239218
-0.080959 0.087761 -0.239221
-0.080955 0.087837 -0.239229
-0.080952 0.087915 -0.239233
-0.080949 0.087991 -0.239227
-0.080947 0.088067 -0.239221
-0.080944 0.088142 -0.239218
-0.080942 0.088218 -0.239198
-0.080940 0.088293 -0.239172
-0.080325 0.104667 -0.238615
-0.080320 0.104748 -0.238644
-0.080317 0.104828 -0.238654
-0.080313 0.104906 -0.238666
-0.080310 0.104984 -0.238678
-0.080306 0.105063 -0.238686
-0.080303 0.105141 -0.238692
-0.080300 0.105219 -0.238692
-0.080297 0.105295 -0.238692
-0.080293 0.105375 -0.238700
-0.080290 0.105451 -0.238701
-0.080287 0.105529 -0.238703
-0.080284 0.105607 -0.238705
-0.080281 0.105682 -0.238697
-0.080279 0.105758 -0.238689
-0.080275 0.105839 -0.238705
-0.080270 0.105919 -0.238735
-0.080267 0.105997 -0.238737
-0.080266 0.106068 -0.238698
-0.080265 0.106137 -0.238654
-0.080264 0.106211 -0.238628
-0.080261 0.106286 -0.238619
-0.080258 0.106365 -0.238629
-0.080254 0.106445 -0.238649
-0.080251 0.106521 -0.238639
-0.080251 0.106590 -0.238593
-0.080249 0.106661 -0.238562
-0.080247 0.106737 -0.238548
-0.080244 0.106813 -0.238546
-0.080242 0.106888 -0.238532
-0.080240 0.106962 -0.238521
-0.080237 0.107038 -0.238511
-0.080235 0.107113 -0.238497
-0.080232 0.107189 -0.238493
-0.080230 0.107263 -0.238477
-0.080227 0.107339 -0.238464
-0.080224 0.107417 -0.238474
-0.080220 0.107497 -0.238486
-0.080215 0.107580 -0.238522
-0.080211 0.107660 -0.238546
-0.080207 0.107741 -0.238564
-0.080203 0.107821 -0.238586
-0.080199 0.107901 -0.238596
-0.080196 0.107977 -0.238592
-0.080194 0.108053 -0.238586
-0.080191 0.108131 -0.238584
-0.080188 0.108207 -0.238587
-0.080184 0.108285 -0.238589
-0.080182 0.108361 -0.238583
-0.080179 0.108436 -0.238575
-0.080176 0.108514 -0.238577
-0.080173 0.108593 -0.238585
-0.080169 0.108671 -0.238591
-0.080166 0.108749 -0.238590
-0.080163 0.108825 -0.238586
-0.080161 0.108900 -0.238576
-0.081417 0.073905 -0.239854
-0.081417 0.073984 -0.239798
-0.081417 0.074064 -0.239722
-0.081416 0.074143 -0.239680
-0.081414 0.074221 -0.239652
-0.081413 0.074298 -0.239623
-0.081411 0.074375 -0.239599
-0.081408 0.074453 -0.239589
-0.081405 0.074529 -0.239591
-0.081402 0.074607 -0.239601
-0.081398 0.074683 -0.239607
-0.081396 0.074759 -0.239602
-0.081393 0.074837 -0.239586
-0.081391 0.074913 -0.239584
-0.081387 0.074991 -0.239588
-0.081385 0.075067 -0.239580
-0.081382 0.075144 -0.239566
-0.081380 0.075220 -0.239561
-0.081376 0.075296 -0.239565
-0.081373 0.075374 -0.239567
-0.081370 0.075450 -0.239569
-0.081367 0.075526 -0.239575
-0.081364 0.075602 -0.239581
-0.081361 0.075678 -0.239580
-0.081358 0.075756 -0.239566
-0.081356 0.075833 -0.239548
-0.081353 0.075909 -0.239546
-0.081350 0.075985 -0.239546
-0.081347 0.076061 -0.239546
-0.081344 0.076139 -0.239546
-0.081341 0.076215 -0.239557
-0.081338 0.076291 -0.239557
-0.081335 0.076367 -0.239551
-0.081332 0.076445 -0.239547
-0.081329 0.076521 -0.239549
-0.081326 0.076597 -0.239553
-0.081323 0.076673 -0.239556
-0.081321 0.076751 -0.239538
-0.081319 0.076828 -0.239516
-0.081316 0.076904 -0.239518
-0.081312 0.076980 -0.239526
-0.081309 0.077056 -0.239530
-0.081306 0.077134 -0.239529
-0.081303 0.077210 -0.239525
-0.081301 0.077286 -0.239521
-0.081298 0.077364 -0.239511
-0.081295 0.077440 -0.239507
-0.081292 0.077516 -0.239509
-0.081289 0.077592 -0.239518
-0.081286 0.077670 -0.239516
-0.081283 0.077746 -0.239502
-0.081281 0.077823 -0.239494
-0.081277 0.077899 -0.239502
-0.081274 0.077976 -0.239508
-0.081272 0.078053 -0.239493
-0.081269 0.078129 -0.239481
-0.081266 0.078205 -0.239487
-0.081263 0.078281 -0.239493
-0.081260 0.078359 -0.239485
-0.081258 0.078435 -0.239473
-0.081255 0.078511 -0.239478
-0.081251 0.078587 -0.239482
-0.081249 0.078665 -0.239478
-0.081246 0.078740 -0.239470
-0.081243 0.078818 -0.239466
-0.081241 0.078894 -0.239458
-0.081238 0.078970 -0.239445
-0.081236 0.079047 -0.239437
-0.081232 0.079124 -0.239445
-0.081229 0.079200 -0.239449
-0.081226 0.079276 -0.239445
-0.081224 0.079351 -0.239439
-0.081221 0.079429 -0.239436
-0.081217 0.079505 -0.239444
-0.081214 0.079582 -0.239456
-0.081211 0.079657 -0.239450
-0.081209 0.079733 -0.239434
-0.081206 0.079811 -0.239424
-0.081203 0.079887 -0.239431
-0.081200 0.079963 -0.239439
-0.081196 0.080039 -0.239443
-0.081194 0.080115 -0.239441
-0.081191 0.080193 -0.239433
-0.081188 0.080269 -0.239427
-0.081185 0.080347 -0.239430
-0.081182 0.080423 -0.239428
-0.081180 0.080498 -0.239418
-0.081177 0.080574 -0.239406
-0.081175 0.080652 -0.239394
-0.081171 0.080728 -0.239401
-0.081168 0.080804 -0.239413
-0.081165 0.080880 -0.239411
-0.081162 0.080958 -0.239403
-0.081160 0.081034 -0.239399
-0.081157 0.081110 -0.239395
-0.081154 0.081185 -0.239394
-0.081151 0.081261 -0.239396
-0.081148 0.081339 -0.239390
-0.081146 0.081415 -0.239378
-0.081143 0.081493 -0.239374
-0.081140 0.081569 -0.239376
-0.081136 0.081645 -0.239383
-0.081133 0.081721 -0.239383
-0.081131 0.081797 -0.239379
-0.081128 0.081875 -0.239379
-0.081125 0.081951 -0.239375
-0.081122 0.082027 -0.239369
-0.081119 0.082102 -0.239368
-0.081116 0.082179 -0.239376
-0.081112 0.082257 -0.239384
-0.081109 0.082333 -0.239384
-0.081107 0.082409 -0.239378
-0.081104 0.082484 -0.239362
-0.081102 0.082560 -0.239357
-0.081098 0.082638 -0.239363
-0.081096 0.082714 -0.239355
-0.081093 0.082790 -0.239353
-0.081090 0.082866 -0.239357
-0.081087 0.082944 -0.239351
-0.081084 0.083019 -0.239344
-0.081082 0.083095 -0.239340
-0.081079 0.083171 -0.239332
-0.081076 0.083249 -0.239328
-0.081073 0.083325 -0.239328
-0.081070 0.083401 -0.239330
-0.081067 0.083477 -0.239335
-0.081064 0.083553 -0.239333
-0.081061 0.083631 -0.239331
-0.081058 0.083707 -0.239331
-0.081055 0.083783 -0.239323
-0.081053 0.083858 -0.239313
-0.081050 0.083934 -0.239314
-0.081047 0.084012 -0.239312
-0.081044 0.084088 -0.239304
-0.081042 0.084164 -0.239298
-0.081039 0.084240 -0.239300
-0.081035 0.084318 -0.239302
-0.081033 0.084394 -0.239301
-0.081030 0.084470 -0.239299
-0.081026 0.084548 -0.239305
-0.081023 0.084624 -0.239307
-0.081020 0.084700 -0.239305
-0.081018 0.084776 -0.239299
-0.081015 0.084851 -0.239290
-0.081012 0.084929 -0.239286
-0.081010 0.085005 -0.239276
-0.081007 0.085081 -0.239264
-0.081004 0.085157 -0.239266
-0.081001 0.085233 -0.239278
-0.080998 0.085311 -0.239273
-0.080996 0.085386 -0.239259
-0.080993 0.085462 -0.239261
-0.080989 0.085539 -0.239271
-0.080986 0.085615 -0.239275
-0.080983 0.085692 -0.239265
-0.080981 0.085768 -0.239254
-0.080978 0.085844 -0.239252
-0.080975 0.085920 -0.239254
-0.080972 0.085998 -0.239254
-0.080969 0.086074 -0.239250
-0.080966 0.086150 -0.239245
-0.080964 0.086226 -0.239241
-0.080961 0.086301 -0.239233
-0.080958 0.086377 -0.239225
-0.080956 0.086455 -0.239219
-0.080953 0.086531 -0.239211
-0.080950 0.086607 -0.239222
-0.080946 0.086685 -0.239230
-0.080943 0.086761 -0.239230
-0.080940 0.086837 -0.239236
-0.080937 0.086913 -0.239230
-0.080935 0.086989 -0.239218
-0.080932 0.087067 -0.239215
-0.080929 0.087143 -0.239211
-0.080927 0.087218 -0.239197
-0.080924 0.087294 -0.239191
-0.080921 0.087370 -0.239199
-0.080917 0.087448 -0.239207
-0.080915 0.087524 -0.239202
-0.080912 0.087600 -0.239198
-0.080909 0.087676 -0.239200
-0.080905 0.087754 -0.239212
-0.080902 0.087830 -0.239222
-0.080899 0.087906 -0.239222
-0.080896 0.087984 -0.239211
-0.080894 0.088060 -0.239195
-0.080891 0.088136 -0.239201
-0.080888 0.088212 -0.239193
-0.080268 0.104737 -0.238611
-0.080265 0.104817 -0.238627
-0.080261 0.104893 -0.238631
-0.080258 0.104973 -0.238641
-0.080253 0.105054 -0.238665
-0.080249 0.105134 -0.238683
-0.080246 0.105212 -0.238690
-0.080243 0.105288 -0.238684
-0.080241 0.105364 -0.238672
-0.080238 0.105440 -0.238666
-0.080234 0.105518 -0.238682
-0.080231 0.105596 -0.238684
-0.080228 0.105674 -0.238681
-0.080226 0.105750 -0.238675
-0.080223 0.105826 -0.238669
-0.080219 0.105906 -0.238685
-0.080215 0.105987 -0.238713
-0.080212 0.106062 -0.238703
-0.080211 0.106133 -0.238670
-0.080209 0.106207 -0.238648
-0.080206 0.106283 -0.238642
-0.080204 0.106361 -0.238636
-0.080201 0.106436 -0.238630
-0.080199 0.106510 -0.238617
-0.080197 0.106581 -0.238585
-0.080194 0.106659 -0.238591
-0.080192 0.106733 -0.238565
-0.080192 0.106802 -0.238522
-0.080191 0.106873 -0.238486
-0.080188 0.106949 -0.238476
-0.080185 0.107025 -0.238478
-0.080182 0.107103 -0.238474
-0.080180 0.107176 -0.238453
-0.080178 0.107252 -0.238443
-0.080174 0.107330 -0.238461
-0.080171 0.107408 -0.238465
-0.080169 0.107484 -0.238449
-0.080164 0.107567 -0.238483
-0.080160 0.107647 -0.238503
-0.080155 0.107730 -0.238539
-0.080150 0.107812 -0.238571
-0.080146 0.107893 -0.238581
-0.080143 0.107969 -0.238584
-0.080140 0.108046 -0.238576
-0.080138 0.108120 -0.238568
-0.080135 0.108198 -0.238568
-0.080132 0.108276 -0.238568
-0.080129 0.108352 -0.238570
-0.080126 0.108430 -0.238572
-0.080123 0.108506 -0.238567
-0.080120 0.108582 -0.238563
-0.080117 0.108662 -0.238569
-0.080114 0.108738 -0.238565
-0.080111 0.108814 -0.238555
-0.080109 0.108890 -0.238553
-0.081360 0.073897 -0.239856
-0.081359 0.073974 -0.239812
-0.081358 0.074055 -0.239756
-0.081358 0.074133 -0.239707
-0.081357 0.074213 -0.239665
-0.081355 0.074290 -0.239631
-0.081353 0.074367 -0.239619
-0.081350 0.074443 -0.239617
-0.081347 0.074521 -0.239611
-0.081344 0.074597 -0.239609
-0.081341 0.074675 -0.239608
-0.081338 0.074751 -0.239608
-0.081335 0.074827 -0.239610
-0.081332 0.074903 -0.239610
-0.081329 0.074981 -0.239608
-0.081327 0.075057 -0.239602
-0.081324 0.075135 -0.239599
-0.081321 0.075211 -0.239601
-0.081318 0.075288 -0.239589
-0.081316 0.075366 -0.239573
-0.081313 0.075442 -0.239567
-0.081310 0.075518 -0.239571
-0.081307 0.075594 -0.239576
-0.081304 0.075670 -0.239580
-0.081300 0.075746 -0.239586
-0.081298 0.075824 -0.239578
-0.081295 0.075900 -0.239568
-0.081292 0.075978 -0.239568
-0.081289 0.076053 -0.239567
-0.081286 0.076129 -0.239567
-0.081283 0.076205 -0.239567
-0.081281 0.076283 -0.239557
-0.081278 0.076359 -0.239551
-0.081275 0.076437 -0.239547
-0.081272 0.076513 -0.239548
-0.081269 0.076589 -0.239548
-0.081266 0.076665 -0.239548
-0.081263 0.076743 -0.239550
-0.081260 0.076819 -0.239544
-0.081257 0.076896 -0.239540
-0.081254 0.076973 -0.239543
-0.081252 0.077048 -0.239535
-0.081249 0.077124 -0.239537
-0.081246 0.077200 -0.239537
-0.081243 0.077278 -0.239525
-0.081240 0.077354 -0.239523
-0.081237 0.077430 -0.239532
-0.081234 0.077508 -0.239526
-0.081232 0.077584 -0.239516
-0.081229 0.077662 -0.239514
-0.081225 0.077738 -0.239520
-0.081223 0.077813 -0.239514
-0.081220 0.077891 -0.239513
-0.081217 0.077967 -0.239513
-0.081214 0.078043 -0.239503
-0.081211 0.078121 -0.239503
-0.081208 0.078197 -0.239501
-0.081205 0.078273 -0.239501
-0.081202 0.078349 -0.239506
-0.081200 0.078427 -0.239498
-0.081197 0.078502 -0.239482
-0.081194 0.078578 -0.239482
-0.081191 0.078656 -0.239488
-0.081188 0.078733 -0.239490
-0.081185 0.078808 -0.239483
-0.081183 0.078884 -0.239477
-0.081180 0.078960 -0.239479
-0.081176 0.079038 -0.239479
-0.081174 0.079114 -0.239475
-0.081171 0.079190 -0.239473
-0.081168 0.079268 -0.239473
-0.081165 0.079344 -0.239466
-0.081163 0.079419 -0.239458
-0.081160 0.079497 -0.239450
-0.081157 0.079573 -0.239440
-0.081155 0.079649 -0.239432
-0.081152 0.079727 -0.239427
-0.081148 0.079803 -0.239445
-0.081144 0.079877 -0.239463
-0.081142 0.079955 -0.239453
-0.081140 0.080031 -0.239437
-0.081137 0.080108 -0.239427
-0.081134 0.080184 -0.239428
-0.081131 0.080260 -0.239432
-0.081128 0.080338 -0.239428
-0.081125 0.080414 -0.239430
-0.081122 0.080490 -0.239434
-0.081119 0.080566 -0.239432
-0.081117 0.080642 -0.239419
-0.081114 0.080720 -0.239409
-0.081111 0.080796 -0.239411
-0.081108 0.080872 -0.239411
-0.081105 0.080948 -0.239417
-0.081101 0.081024 -0.239425
-0.081098 0.081102 -0.239426
-0.081095 0.081178 -0.239424
-0.081092 0.081254 -0.239424
-0.081090 0.081332 -0.239416
-0.081087 0.081407 -0.239408
-0.081084 0.081483 -0.239404
-0.081081 0.081559 -0.239405
-0.081078 0.081635 -0.239403
-0.081075 0.081713 -0.239409
-0.081072 0.081789 -0.239409
-0.081070 0.081865 -0.239391
-0.081067 0.081943 -0.239383
-0.081064 0.082019 -0.239384
-0.081061 0.082094 -0.239382
-0.081058 0.082171 -0.239384
-0.081056 0.082248 -0.239378
-0.081053 0.082324 -0.239368
-0.081050 0.082400 -0.239360
-0.081047 0.082476 -0.239363
-0.081044 0.082552 -0.239365
-0.081041 0.082630 -0.239365
-0.081038 0.082706 -0.239361
-0.081036 0.082782 -0.239357
-0.081033 0.082858 -0.239357
-0.081030 0.082934 -0.239356
-0.081027 0.083011 -0.239354
-0.081024 0.083087 -0.239354
-0.081021 0.083163 -0.239352
-0.081018 0.083241 -0.239350
-0.081015 0.083317 -0.239350
-0.081012 0.083393 -0.239351
-0.081009 0.083469 -0.239347
-0.081007 0.083545 -0.239339
-0.081004 0.083623 -0.239325
-0.081001 0.083698 -0.239325
-0.080998 0.083775 -0.239329
-0.080995 0.083850 -0.239326
-0.080992 0.083926 -0.239328
-0.080989 0.084004 -0.239332
-0.080986 0.084080 -0.239324
-0.080984 0.084156 -0.239318
-0.080981 0.084232 -0.239313
-0.080978 0.084310 -0.239309
-0.080975 0.084386 -0.239311
-0.080972 0.084462 -0.239317
-0.080969 0.084540 -0.239313
-0.080966 0.084616 -0.239309
-0.080963 0.084691 -0.239302
-0.080961 0.084767 -0.239298
-0.080957 0.084843 -0.239302
-0.080954 0.084922 -0.239308
-0.080951 0.084997 -0.239302
-0.080949 0.085073 -0.239296
-0.080946 0.085149 -0.239301
-0.080942 0.085225 -0.239305
-0.080940 0.085303 -0.239289
-0.080938 0.085379 -0.239277
-0.080935 0.085455 -0.239275
-0.080932 0.085530 -0.239267
-0.080929 0.085606 -0.239266
-0.080926 0.085684 -0.239264
-0.080924 0.085760 -0.239256
-0.080921 0.085836 -0.239248
-0.080918 0.085912 -0.239244
-0.080915 0.085988 -0.239248
-0.080912 0.086066 -0.239251
-0.080909 0.086141 -0.239243
-0.080907 0.086217 -0.239239
-0.080903 0.086296 -0.239249
-0.080900 0.086371 -0.239247
-0.080898 0.086447 -0.239239
-0.080895 0.086523 -0.239236
-0.080892 0.086599 -0.239242
-0.080888 0.086677 -0.239244
-0.080885 0.086753 -0.239246
-0.080882 0.086829 -0.239246
-0.080880 0.086905 -0.239234
-0.080878 0.086981 -0.239219
-0.080875 0.087058 -0.239217
-0.080872 0.087135 -0.239221
-0.080868 0.087211 -0.239227
-0.080865 0.087289 -0.239235
-0.080862 0.087365 -0.239231
-0.080860 0.087440 -0.239218
-0.080857 0.087516 -0.239222
-0.080854 0.087594 -0.239220
-0.080851 0.087670 -0.239212
-0.080848 0.087746 -0.239216
-0.080845 0.087822 -0.239220
-0.080842 0.087898 -0.239223
-0.080839 0.087976 -0.239215
-0.080837 0.088051 -0.239185
-0.080834 0.088127 -0.239185
-0.080209 0.104736 -0.238655
-0.080206 0.104811 -0.238649
-0.080203 0.104889 -0.238653
-0.080200 0.104968 -0.238664
-0.080196 0.105048 -0.238680
-0.080192 0.105126 -0.238692
-0.080188 0.105206 -0.238704
-0.080185 0.105285 -0.238714
-0.080182 0.105360 -0.238708
-0.080179 0.105436 -0.238702
-0.080176 0.105514 -0.238706
-0.080173 0.105592 -0.238711
-0.080169 0.105670 -0.238717
-0.080166 0.105751 -0.238725
-0.080163 0.105826 -0.238719
-0.080161 0.105900 -0.238709
-0.080158 0.105978 -0.238707
-0.080156 0.106052 -0.238692
-0.080154 0.106127 -0.238676
-0.080151 0.106201 -0.238660
-0.080149 0.106277 -0.238658
-0.080146 0.106355 -0.238650
-0.080144 0.106428 -0.238633
-0.080141 0.106504 -0.238631
-0.080138 0.106582 -0.238633
-0.080136 0.106654 -0.238607
-0.080133 0.106732 -0.238609
-0.080133 0.106800 -0.238556
-0.080132 0.106869 -0.238514
-0.080130 0.106943 -0.238496
-0.080128 0.107019 -0.238483
-0.080125 0.107097 -0.238485
-0.080121 0.107175 -0.238497
-0.080118 0.107253 -0.238493
-0.080115 0.107329 -0.238497
-0.080112 0.107405 -0.238491
-0.080110 0.107480 -0.238481
-0.080106 0.107559 -0.238494
-0.080102 0.107639 -0.238508
-0.080098 0.107719 -0.238526
-0.080094 0.107802 -0.238554
-0.080090 0.107882 -0.238570
-0.080086 0.107963 -0.238590
-0.080082 0.108041 -0.238594
-0.080080 0.108117 -0.238594
-0.080077 0.108192 -0.238588
-0.080074 0.108270 -0.238580
-0.080071 0.108346 -0.238577
-0.080068 0.108424 -0.238579
-0.080065 0.108500 -0.238579
-0.080063 0.108576 -0.238571
-0.080060 0.108652 -0.238563
-0.080057 0.108730 -0.238569
-0.080053 0.108808 -0.238575
-0.080050 0.108886 -0.238574
-0.081293 0.073809 -0.239880
-0.081290 0.073887 -0.239875
-0.081290 0.073965 -0.239813
-0.081289 0.074046 -0.239765
-0.081288 0.074123 -0.239721
-0.081287 0.074202 -0.239689
-0.081285 0.074280 -0.239667
-0.081283 0.074357 -0.239641
-0.081281 0.074435 -0.239620
-0.081278 0.074512 -0.239608
-0.081276 0.074590 -0.239600
-0.081273 0.074666 -0.239596
-0.081270 0.074742 -0.239604
-0.081266 0.074818 -0.239612
-0.081263 0.074894 -0.239615
-0.081260 0.074972 -0.239613
-0.081257 0.075048 -0.239611
-0.081254 0.075124 -0.239611
-0.081252 0.075202 -0.239605
-0.081249 0.075278 -0.239597
-0.081246 0.075355 -0.239586
-0.081244 0.075431 -0.239586
-0.081240 0.075507 -0.239590
-0.081238 0.075585 -0.239584
-0.081235 0.075661 -0.239584
-0.081231 0.075737 -0.239594
-0.081228 0.075814 -0.239603
-0.081225 0.075889 -0.239597
-0.081222 0.075967 -0.239587
-0.081220 0.076043 -0.239579
-0.081217 0.076121 -0.239579
-0.081214 0.076197 -0.239585
-0.081211 0.076273 -0.239584
-0.081208 0.076351 -0.239580
-0.081205 0.076427 -0.239578
-0.081202 0.076503 -0.239568
-0.081200 0.076580 -0.239562
-0.081197 0.076656 -0.239564
-0.081193 0.076732 -0.239569
-0.081190 0.076808 -0.239569
-0.081188 0.076886 -0.239559
-0.081185 0.076962 -0.239557
-0.081182 0.077038 -0.239561
-0.081179 0.077116 -0.239553
-0.081176 0.077192 -0.239551
-0.081173 0.077270 -0.239550
-0.081171 0.077345 -0.239538
-0.081168 0.077421 -0.239528
-0.081165 0.077499 -0.239524
-0.081163 0.077575 -0.239522
-0.081159 0.077653 -0.239522
-0.081156 0.077729 -0.239527
-0.081153 0.077805 -0.239527
-0.081151 0.077881 -0.239517
-0.081148 0.077959 -0.239513
-0.081145 0.078035 -0.239521
-0.081142 0.078111 -0.239521
-0.081139 0.078187 -0.239516
-0.081136 0.078264 -0.239508
-0.081133 0.078340 -0.239506
-0.081130 0.078416 -0.239512
-0.081127 0.078492 -0.239516
-0.081125 0.078570 -0.239496
-0.081122 0.078648 -0.239487
-0.081119 0.078722 -0.239503
-0.081115 0.078798 -0.239521
-0.081112 0.078876 -0.239507
-0.081111 0.078951 -0.239479
-0.081108 0.079029 -0.239473
-0.081104 0.079105 -0.239486
-0.081102 0.079181 -0.239478
-0.081099 0.079259 -0.239472
-0.081096 0.079333 -0.239480
-0.081092 0.079411 -0.239486
-0.081090 0.079487 -0.239476
-0.081087 0.079565 -0.239465
-0.081085 0.079641 -0.239455
-0.081082 0.079716 -0.239453
-0.081079 0.079792 -0.239453
-0.081076 0.079870 -0.239451
-0.081073 0.079946 -0.239451
-0.081070 0.080022 -0.239460
-0.081066 0.080099 -0.239472
-0.081063 0.080175 -0.239470
-0.081061 0.080252 -0.239460
-0.081058 0.080328 -0.239450
-0.081056 0.080404 -0.239441
-0.081053 0.080480 -0.239441
-0.081050 0.080558 -0.239435
-0.081047 0.080633 -0.239425
-0.081044 0.080710 -0.239443
-0.081040 0.080786 -0.239455
-0.081037 0.080864 -0.239453
-0.081034 0.080940 -0.239452
-0.081032 0.081015 -0.239438
-0.081029 0.081093 -0.239428
-0.081027 0.081169 -0.239418
-0.081024 0.081245 -0.239408
-0.081021 0.081323 -0.239408
-0.081018 0.081399 -0.239409
-0.081015 0.081474 -0.239403
-0.081012 0.081551 -0.239405
-0.081009 0.081627 -0.239409
-0.081006 0.081704 -0.239407
-0.081003 0.081780 -0.239404
-0.081000 0.081856 -0.239408
-0.080997 0.081933 -0.239416
-0.080994 0.082008 -0.239406
-0.080992 0.082086 -0.239388
-0.080989 0.082162 -0.239386
-0.080986 0.082240 -0.239385
-0.080984 0.082315 -0.239369
-0.080981 0.082391 -0.239369
-0.080978 0.082467 -0.239373
-0.080975 0.082543 -0.239367
-0.080973 0.082621 -0.239361
-0.080969 0.082697 -0.239364
-0.080966 0.082773 -0.239370
-0.080963 0.082849 -0.239364
-0.080961 0.082925 -0.239358
-0.080957 0.083003 -0.239364
-0.080954 0.083079 -0.239374
-0.080951 0.083155 -0.239371
-0.080949 0.083231 -0.239361
-0.080946 0.083308 -0.239351
-0.080943 0.083384 -0.239345
-0.080940 0.083460 -0.239349
-0.080937 0.083536 -0.239351
-0.080934 0.083614 -0.239352
-0.080931 0.083690 -0.239350
-0.080929 0.083766 -0.239344
-0.080926 0.083842 -0.239340
-0.080923 0.083918 -0.239336
-0.080920 0.083996 -0.239336
-0.080917 0.084072 -0.239331
-0.080914 0.084148 -0.239331
-0.080911 0.084224 -0.239329
-0.080909 0.084301 -0.239319
-0.080906 0.084377 -0.239319
-0.080902 0.084453 -0.239327
-0.080899 0.084531 -0.239324
-0.080897 0.084607 -0.239318
-0.080894 0.084683 -0.239318
-0.080891 0.084759 -0.239314
-0.080888 0.084835 -0.239306
-0.080886 0.084913 -0.239302
-0.080883 0.084989 -0.239299
-0.080880 0.085064 -0.239299
-0.080877 0.085140 -0.239299
-0.080874 0.085216 -0.239301
-0.080871 0.085294 -0.239295
-0.080868 0.085370 -0.239287
-0.080865 0.085446 -0.239286
-0.080862 0.085522 -0.239288
-0.080859 0.085600 -0.239292
-0.080856 0.085676 -0.239296
-0.080853 0.085752 -0.239292
-0.080851 0.085828 -0.239273
-0.080849 0.085903 -0.239255
-0.080846 0.085981 -0.239257
-0.080843 0.086057 -0.239265
-0.080839 0.086133 -0.239269
-0.080836 0.086209 -0.239269
-0.080834 0.086287 -0.239256
-0.080831 0.086363 -0.239254
-0.080828 0.086439 -0.239264
-0.080825 0.086515 -0.239264
-0.080822 0.086591 -0.239258
-0.080819 0.086669 -0.239256
-0.080816 0.086745 -0.239255
-0.080813 0.086821 -0.239249
-0.080810 0.086896 -0.239249
-0.080807 0.086974 -0.239249
-0.080805 0.087050 -0.239245
-0.080802 0.087126 -0.239241
-0.080799 0.087202 -0.239240
-0.080796 0.087280 -0.239234
-0.080793 0.087356 -0.239234
-0.080790 0.087432 -0.239236
-0.080787 0.087508 -0.239240
-0.080784 0.087586 -0.239232
-0.080781 0.087662 -0.239231
-0.080778 0.087738 -0.239235
-0.080775 0.087814 -0.239233
-0.080772 0.087892 -0.239231
-0.080769 0.087968 -0.239229
-0.080768 0.088043 -0.239193
-0.080139 0.104798 -0.238612
-0.080135 0.104878 -0.238638
-0.080131 0.104959 -0.238658
-0.080128 0.105037 -0.238664
-0.080124 0.105117 -0.238680
-0.080119 0.105198 -0.238704
-0.080115 0.105280 -0.238732
-0.080111 0.105359 -0.238748
-0.080108 0.105436 -0.238746
-0.080106 0.105510 -0.238735
-0.080103 0.105588 -0.238731
-0.080100 0.105666 -0.238733
-0.080097 0.105742 -0.238731
-0.080094 0.105818 -0.238721
-0.080092 0.105891 -0.238706
-0.080089 0.105969 -0.238702
-0.080086 0.106047 -0.238706
-0.080084 0.106121 -0.238694
-0.080082 0.106194 -0.238670
-0.080079 0.106272 -0.238670
-0.080077 0.106346 -0.238655
-0.080075 0.106420 -0.238635
-0.080072 0.106495 -0.238621
-0.080070 0.106571 -0.238617
-0.080066 0.106649 -0.238621
-0.080063 0.106727 -0.238628
-0.080061 0.106801 -0.238612
-0.080062 0.106865 -0.238536
-0.080060 0.106941 -0.238527
-0.080057 0.107017 -0.238519
-0.080055 0.107090 -0.238503
-0.080052 0.107166 -0.238499
-0.080049 0.107246 -0.238503
-0.080046 0.107322 -0.238503
-0.080043 0.107398 -0.238498
-0.080040 0.107476 -0.238498
-0.080036 0.107554 -0.238508
-0.080032 0.107635 -0.238526
-0.080027 0.107717 -0.238564
-0.080024 0.107798 -0.238576
-0.080020 0.107876 -0.238586
-0.080016 0.107956 -0.238596
-0.080013 0.108034 -0.238602
-0.080010 0.108112 -0.238606
-0.080007 0.108188 -0.238609
-0.080004 0.108266 -0.238605
-0.080002 0.108340 -0.238593
-0.079999 0.108415 -0.238583
-0.079996 0.108493 -0.238581
-0.079993 0.108571 -0.238587
-0.079990 0.108647 -0.238582
-0.079988 0.108721 -0.238562
-0.079985 0.108799 -0.238564
-0.079981 0.108877 -0.238578
-0.081207 0.073879 -0.239869
-0.081206 0.073958 -0.239817
-0.081205 0.074037 -0.239777
-0.081205 0.074116 -0.239711
-0.081204 0.074197 -0.239667
-0.081202 0.074274 -0.239636
-0.081200 0.074350 -0.239624
-0.081197 0.074428 -0.239620
-0.081194 0.074503 -0.239616
-0.081191 0.074581 -0.239610
-0.081189 0.074659 -0.239594
-0.081187 0.074735 -0.239583
-0.081184 0.074813 -0.239585
-0.081181 0.074889 -0.239585
-0.081178 0.074966 -0.239581
-0.081175 0.075043 -0.239585
-0.081171 0.075119 -0.239589
-0.081168 0.075195 -0.239595
-0.081165 0.075271 -0.239598
-0.081162 0.075348 -0.239588
-0.081160 0.075424 -0.239576
-0.081157 0.075500 -0.239578
-0.081154 0.075578 -0.239578
-0.081151 0.075654 -0.239578
-0.081148 0.075730 -0.239579
-0.081145 0.075806 -0.239581
-0.081142 0.075884 -0.239579
-0.081139 0.075960 -0.239585
-0.081136 0.076036 -0.239587
-0.081133 0.076114 -0.239569
-0.081131 0.076191 -0.239554
-0.081128 0.076267 -0.239556
-0.081125 0.076343 -0.239562
-0.081122 0.076419 -0.239562
-0.081119 0.076497 -0.239554
-0.081116 0.076573 -0.239552
-0.081113 0.076649 -0.239555
-0.081110 0.076725 -0.239555
-0.081107 0.076803 -0.239555
-0.081104 0.076879 -0.239557
-0.081101 0.076955 -0.239549
-0.081098 0.077031 -0.239547
-0.081096 0.077109 -0.239544
-0.081093 0.077184 -0.239532
-0.081090 0.077262 -0.239526
-0.081087 0.077338 -0.239534
-0.081084 0.077414 -0.239536
-0.081081 0.077492 -0.239528
-0.081079 0.077568 -0.239521
-0.081076 0.077646 -0.239517
-0.081073 0.077722 -0.239517
-0.081070 0.077798 -0.239523
-0.081066 0.077874 -0.239527
-0.081064 0.077950 -0.239519
-0.081061 0.078027 -0.239508
-0.081059 0.078103 -0.239500
-0.081056 0.078181 -0.239492
-0.081053 0.078257 -0.239488
-0.081050 0.078333 -0.239486
-0.081048 0.078411 -0.239476
-0.081045 0.078486 -0.239471
-0.081042 0.078562 -0.239473
-0.081039 0.078640 -0.239475
-0.081036 0.078716 -0.239469
-0.081033 0.078792 -0.239465
-0.081030 0.078868 -0.239463
-0.081027 0.078944 -0.239468
-0.081024 0.079022 -0.239476
-0.081021 0.079098 -0.239478
-0.081018 0.079174 -0.239474
-0.081015 0.079252 -0.239466
-0.081012 0.079328 -0.239468
-0.081009 0.079404 -0.239475
-0.081006 0.079480 -0.239473
-0.081003 0.079558 -0.239463
-0.081001 0.079633 -0.239453
-0.080998 0.079709 -0.239445
-0.080996 0.079787 -0.239437
-0.080993 0.079863 -0.239436
-0.080990 0.079939 -0.239438
-0.080986 0.080015 -0.239448
-0.080983 0.080091 -0.239456
-0.080980 0.080169 -0.239444
-0.080978 0.080245 -0.239430
-0.080975 0.080321 -0.239433
-0.080972 0.080397 -0.239443
-0.080969 0.080475 -0.239435
-0.080967 0.080550 -0.239419
-0.080964 0.080626 -0.239421
-0.080960 0.080704 -0.239431
-0.080957 0.080780 -0.239424
-0.080955 0.080856 -0.239416
-0.080952 0.080932 -0.239408
-0.080950 0.081010 -0.239398
-0.080947 0.081085 -0.239394
-0.080943 0.081162 -0.239406
-0.080940 0.081238 -0.239417
-0.080937 0.081316 -0.239417
-0.080934 0.081392 -0.239415
-0.080931 0.081468 -0.239419
-0.080928 0.081544 -0.239415
-0.080926 0.081619 -0.239403
-0.080923 0.081697 -0.239392
-0.080920 0.081773 -0.239392
-0.080917 0.081849 -0.239400
-0.080913 0.081925 -0.239410
-0.080911 0.082001 -0.239402
-0.080908 0.082079 -0.239388
-0.080905 0.082155 -0.239385
-0.080902 0.082231 -0.239395
-0.080899 0.082307 -0.239399
-0.080896 0.082385 -0.239395
-0.080893 0.082461 -0.239385
-0.080891 0.082536 -0.239370
-0.080889 0.082614 -0.239360
-0.080886 0.082690 -0.239362
-0.080883 0.082766 -0.239364
-0.080880 0.082842 -0.239354
-0.080877 0.082918 -0.239350
-0.080874 0.082996 -0.239355
-0.080871 0.083071 -0.239349
-0.080869 0.083147 -0.239343
-0.080865 0.083225 -0.239349
-0.080862 0.083301 -0.239353
-0.080859 0.083377 -0.239355
-0.080857 0.083453 -0.239344
-0.080854 0.083529 -0.239334
-0.080851 0.083607 -0.239334
-0.080848 0.083683 -0.239336
-0.080845 0.083759 -0.239340
-0.080842 0.083835 -0.239338
-0.080839 0.083911 -0.239333
-0.080836 0.083989 -0.239333
-0.080833 0.084065 -0.239333
-0.080831 0.084140 -0.239321
-0.080828 0.084216 -0.239317
-0.080825 0.084294 -0.239317
-0.080822 0.084370 -0.239316
-0.080819 0.084446 -0.239312
-0.080817 0.084524 -0.239300
-0.080814 0.084599 -0.239284
-0.080812 0.084675 -0.239278
-0.080809 0.084751 -0.239278
-0.080806 0.084827 -0.239285
-0.080802 0.084905 -0.239293
-0.080799 0.084981 -0.239295
-0.080796 0.085057 -0.239291
-0.080793 0.085133 -0.239289
-0.080790 0.085209 -0.239297
-0.080787 0.085287 -0.239292
-0.080785 0.085363 -0.239274
-0.080782 0.085439 -0.239272
-0.080779 0.085515 -0.239278
-0.080776 0.085591 -0.239280
-0.080773 0.085669 -0.239274
-0.080771 0.085744 -0.239265
-0.080768 0.085820 -0.239263
-0.080764 0.085898 -0.239269
-0.080761 0.085974 -0.239271
-0.080759 0.086050 -0.239261
-0.080756 0.086126 -0.239251
-0.080753 0.086202 -0.239250
-0.080750 0.086280 -0.239252
-0.080747 0.086356 -0.239252
-0.080745 0.086432 -0.239246
-0.080741 0.086508 -0.239248
-0.080738 0.086584 -0.239255
-0.080735 0.086662 -0.239253
-0.080733 0.086737 -0.239245
-0.080730 0.086813 -0.239239
-0.080727 0.086889 -0.239227
-0.080725 0.086965 -0.239223
-0.080722 0.087043 -0.239220
-0.080719 0.087118 -0.239210
-0.080716 0.087194 -0.239210
-0.080713 0.087271 -0.239222
-0.080709 0.087349 -0.239232
-0.080706 0.087425 -0.239236
-0.080703 0.087501 -0.239235
-0.080700 0.087579 -0.239231
-0.080697 0.087655 -0.239241
-0.080694 0.087731 -0.239241
-0.080691 0.087807 -0.239229
-0.080689 0.087882 -0.239217
-0.080687 0.087960 -0.239190
-0.080048 0.104949 -0.238636
-0.080044 0.105030 -0.238652
-0.080041 0.105106 -0.238659
-0.080037 0.105186 -0.238667
-0.080034 0.105264 -0.238675
-0.080031 0.105342 -0.238681
-0.080027 0.105420 -0.238689
-0.080023 0.105498 -0.238701
-0.080020 0.105576 -0.238701
-0.080017 0.105654 -0.238705
-0.080013 0.105735 -0.238717
-0.080010 0.105811 -0.238722
-0.080008 0.105887 -0.238716
-0.080005 0.105962 -0.238706
-0.080002 0.106038 -0.238700
-0.079999 0.106118 -0.238710
-0.079997 0.106192 -0.238696
-0.079996 0.106261 -0.238645
-0.079994 0.106336 -0.238627
-0.079992 0.106410 -0.238613
-0.079990 0.106484 -0.238598
-0.079987 0.106559 -0.238588
-0.079984 0.106637 -0.238594
-0.079980 0.106718 -0.238606
-0.079978 0.106794 -0.238600
-0.079977 0.106865 -0.238562
-0.079977 0.106931 -0.238507
-0.079974 0.107007 -0.238503
-0.079971 0.107085 -0.238507
-0.079968 0.107161 -0.238507
-0.079964 0.107239 -0.238508
-0.079961 0.107317 -0.238508
-0.079959 0.107391 -0.238498
-0.079956 0.107469 -0.238502
-0.079952 0.107549 -0.238520
-0.079948 0.107632 -0.238540
-0.079944 0.107710 -0.238552
-0.079940 0.107790 -0.238568
-0.079936 0.107869 -0.238580
-0.079934 0.107944 -0.238577
-0.079931 0.108022 -0.238575
-0.079927 0.108100 -0.238579
-0.079924 0.108179 -0.238585
-0.079921 0.108257 -0.238591
-0.079918 0.108332 -0.238585
-0.079916 0.108406 -0.238567
-0.079913 0.108482 -0.238564
-0.079910 0.108560 -0.238566
-0.079907 0.108638 -0.238572
-0.079903 0.108718 -0.238582
-0.079900 0.108794 -0.238576
-0.079898 0.108870 -0.238568
-0.081123 0.073874 -0.239849
-0.081122 0.073951 -0.239817
-0.081121 0.074030 -0.239768
-0.081122 0.074110 -0.239692
-0.081120 0.074190 -0.239654
-0.081118 0.074267 -0.239634
-0.081116 0.074343 -0.239624
-0.081113 0.074420 -0.239606
-0.081111 0.074498 -0.239593
-0.081108 0.074574 -0.239595
-0.081105 0.074652 -0.239597
-0.081102 0.074728 -0.239593
-0.081099 0.074806 -0.239589
-0.081096 0.074882 -0.239589
-0.081093 0.074958 -0.239586
-0.081091 0.075035 -0.239570
-0.081088 0.075111 -0.239562
-0.081085 0.075189 -0.239568
-0.081082 0.075265 -0.239572
-0.081079 0.075341 -0.239570
-0.081076 0.075417 -0.239579
-0.081073 0.075493 -0.239575
-0.081071 0.075571 -0.239557
-0.081068 0.075648 -0.239543
-0.081065 0.075724 -0.239541
-0.081062 0.075800 -0.239545
-0.081059 0.075877 -0.239558
-0.081055 0.075953 -0.239566
-0.081052 0.076029 -0.239570
-0.081050 0.076107 -0.239560
-0.081048 0.076184 -0.239534
-0.081045 0.076260 -0.239534
-0.081041 0.076336 -0.239542
-0.081038 0.076412 -0.239545
-0.081035 0.076490 -0.239543
-0.081033 0.076566 -0.239537
-0.081030 0.076642 -0.239531
-0.081027 0.076720 -0.239535
-0.081024 0.076796 -0.239529
-0.081021 0.076873 -0.239522
-0.081018 0.076949 -0.239528
-0.081015 0.077026 -0.239536
-0.081012 0.077101 -0.239530
-0.081009 0.077179 -0.239522
-0.081007 0.077255 -0.239508
-0.081004 0.077331 -0.239509
-0.081000 0.077407 -0.239525
-0.080997 0.077485 -0.239523
-0.080995 0.077561 -0.239511
-0.080992 0.077639 -0.239509
-0.080989 0.077715 -0.239507
-0.080986 0.077790 -0.239504
-0.080983 0.077868 -0.239504
-0.080980 0.077945 -0.239512
-0.080977 0.078020 -0.239504
-0.080975 0.078098 -0.239488
-0.080972 0.078174 -0.239486
-0.080969 0.078250 -0.239495
-0.080966 0.078326 -0.239499
-0.080963 0.078404 -0.239491
-0.080960 0.078480 -0.239485
-0.080957 0.078556 -0.239491
-0.080954 0.078632 -0.239485
-0.080951 0.078710 -0.239480
-0.080948 0.078785 -0.239480
-0.080946 0.078861 -0.239472
-0.080943 0.078937 -0.239470
-0.080940 0.079015 -0.239474
-0.080937 0.079091 -0.239478
-0.080934 0.079167 -0.239475
-0.080932 0.079245 -0.239453
-0.080929 0.079320 -0.239447
-0.080926 0.079396 -0.239443
-0.080924 0.079474 -0.239433
-0.080921 0.079550 -0.239433
-0.080917 0.079626 -0.239442
-0.080914 0.079702 -0.239442
-0.080911 0.079780 -0.239440
-0.080909 0.079856 -0.239434
-0.080906 0.079932 -0.239436
-0.080903 0.080008 -0.239434
-0.080900 0.080084 -0.239429
-0.080897 0.080162 -0.239423
-0.080895 0.080237 -0.239415
-0.080892 0.080315 -0.239409
-0.080889 0.080391 -0.239413
-0.080885 0.080467 -0.239421
-0.080882 0.080543 -0.239424
-0.080879 0.080619 -0.239424
-0.080876 0.080697 -0.239424
-0.080873 0.080773 -0.239418
-0.080871 0.080849 -0.239414
-0.080868 0.080925 -0.239414
-0.080865 0.081003 -0.239411
-0.080862 0.081079 -0.239399
-0.080860 0.081154 -0.239391
-0.080857 0.081230 -0.239379
-0.080855 0.081308 -0.239373
-0.080851 0.081384 -0.239384
-0.080848 0.081460 -0.239394
-0.080844 0.081536 -0.239402
-0.080841 0.081612 -0.239400
-0.080839 0.081690 -0.239386
-0.080837 0.081766 -0.239374
-0.080834 0.081844 -0.239372
-0.080831 0.081919 -0.239365
-0.080829 0.081995 -0.239357
-0.080825 0.082071 -0.239363
-0.080822 0.082147 -0.239367
-0.080819 0.082225 -0.239373
-0.080816 0.082301 -0.239372
-0.080813 0.082377 -0.239374
-0.080810 0.082453 -0.239372
-0.080807 0.082529 -0.239368
-0.080804 0.082607 -0.239358
-0.080802 0.082683 -0.239350
-0.080799 0.082759 -0.239351
-0.080796 0.082835 -0.239353
-0.080793 0.082911 -0.239349
-0.080790 0.082988 -0.239343
-0.080788 0.083064 -0.239337
-0.080785 0.083140 -0.239335
-0.080781 0.083218 -0.239348
-0.080778 0.083294 -0.239348
-0.080776 0.083370 -0.239338
-0.080773 0.083446 -0.239332
-0.080770 0.083522 -0.239334
-0.080767 0.083600 -0.239336
-0.080764 0.083676 -0.239333
-0.080761 0.083752 -0.239325
-0.080759 0.083827 -0.239319
-0.080755 0.083904 -0.239323
-0.080752 0.083982 -0.239325
-0.080750 0.084057 -0.239319
-0.080747 0.084133 -0.239316
-0.080744 0.084209 -0.239314
-0.080741 0.084287 -0.239304
-0.080739 0.084363 -0.239294
-0.080736 0.084438 -0.239282
-0.080734 0.084516 -0.239276
-0.080730 0.084592 -0.239283
-0.080728 0.084668 -0.239279
-0.080725 0.084744 -0.239275
-0.080721 0.084820 -0.239285
-0.080718 0.084898 -0.239285
-0.080716 0.084974 -0.239269
-0.080713 0.085050 -0.239266
-0.080710 0.085126 -0.239280
-0.080706 0.085202 -0.239292
-0.080703 0.085280 -0.239288
-0.080701 0.085356 -0.239274
-0.080698 0.085432 -0.239268
-0.080695 0.085508 -0.239277
-0.080692 0.085586 -0.239279
-0.080689 0.085661 -0.239267
-0.080687 0.085737 -0.239255
-0.080684 0.085813 -0.239259
-0.080681 0.085891 -0.239259
-0.080678 0.085967 -0.239250
-0.080675 0.086043 -0.239252
-0.080672 0.086119 -0.239254
-0.080669 0.086195 -0.239244
-0.080667 0.086273 -0.239238
-0.080664 0.086348 -0.239237
-0.080661 0.086424 -0.239235
-0.080658 0.086500 -0.239233
-0.080655 0.086576 -0.239231
-0.080652 0.086654 -0.239227
-0.080649 0.086730 -0.239221
-0.080647 0.086806 -0.239220
-0.080643 0.086882 -0.239228
-0.080640 0.086958 -0.239230
-0.080637 0.087036 -0.239228
-0.080635 0.087111 -0.239204
-0.080633 0.087187 -0.239186
-0.080630 0.087263 -0.239195
-0.080626 0.087341 -0.239213
-0.080622 0.087418 -0.239223
-0.080619 0.087494 -0.239225
-0.080616 0.087572 -0.239227
-0.080613 0.087648 -0.239225
-0.080611 0.087723 -0.239210
-0.080609 0.087799 -0.239194
-0.080607 0.087874 -0.239178
-0.079966 0.104937 -0.238599
-0.079961 0.105018 -0.238633
-0.079958 0.105096 -0.238635
-0.079954 0.105176 -0.238645
-0.079951 0.105252 -0.238649
-0.079947 0.105333 -0.238668
-0.079943 0.105413 -0.238692
-0.079939 0.105494 -0.238708
-0.079936 0.105572 -0.238710
-0.079932 0.105650 -0.238714
-0.079929 0.105728 -0.238722
-0.079926 0.105804 -0.238714
-0.079924 0.105877 -0.238694
-0.079922 0.105951 -0.238675
-0.079920 0.106026 -0.238665
-0.079917 0.106104 -0.238663
-0.079913 0.106185 -0.238683
-0.079909 0.106263 -0.238693
-0.079909 0.106332 -0.238650
-0.079910 0.106396 -0.238576
-0.079908 0.106470 -0.238552
-0.079904 0.106550 -0.238562
-0.079901 0.106628 -0.238575
-0.079897 0.106706 -0.238577
-0.079895 0.106780 -0.238567
-0.079894 0.106853 -0.238531
-0.079892 0.106925 -0.238511
-0.079889 0.107003 -0.238512
-0.079888 0.107074 -0.238482
-0.079883 0.107156 -0.238508
-0.079882 0.107228 -0.238480
-0.079878 0.107306 -0.238484
-0.079875 0.107386 -0.238498
-0.079872 0.107462 -0.238495
-0.079869 0.107540 -0.238499
-0.079865 0.107618 -0.238511
-0.079861 0.107698 -0.238525
-0.079857 0.107779 -0.238545
-0.079853 0.107859 -0.238557
-0.079850 0.107935 -0.238559
-0.079847 0.108015 -0.238569
-0.079844 0.108091 -0.238565
-0.079841 0.108167 -0.238556
-0.079838 0.108243 -0.238554
-0.079835 0.108323 -0.238566
-0.079831 0.108403 -0.238582
-0.079828 0.108479 -0.238578
-0.079826 0.108553 -0.238564
-0.079823 0.108629 -0.238557
-0.079820 0.108707 -0.238557
-0.079817 0.108783 -0.238555
-0.079815 0.108858 -0.238545
-0.081037 0.073867 -0.239856
-0.081037 0.073948 -0.239794
-0.081036 0.074025 -0.239762
-0.081035 0.074104 -0.239713
-0.081034 0.074183 -0.239671
-0.081032 0.074260 -0.239647
-0.081031 0.074338 -0.239615
-0.081028 0.074417 -0.239595
-0.081025 0.074493 -0.239599
-0.081022 0.074569 -0.239599
-0.081019 0.074645 -0.239604
-0.081016 0.074723 -0.239602
-0.081014 0.074801 -0.239582
-0.081012 0.074876 -0.239568
-0.081008 0.074954 -0.239572
-0.081005 0.075030 -0.239580
-0.081002 0.075107 -0.239591
-0.080999 0.075183 -0.239585
-0.080996 0.075260 -0.239577
-0.080993 0.075336 -0.239573
-0.080991 0.075414 -0.239565
-0.080988 0.075490 -0.239567
-0.080985 0.075566 -0.239566
-0.080982 0.075642 -0.239556
-0.080979 0.075720 -0.239552
-0.080977 0.075795 -0.239550
-0.080974 0.075871 -0.239544
-0.080971 0.075949 -0.239544
-0.080967 0.076026 -0.239559
-0.080963 0.076102 -0.239573
-0.080961 0.076178 -0.239561
