0.0478851 -0.0199528 0.998654 0
0.0678194 -0.021035 0.997476 0
0.106078 -0.0229481 0.994093 0
0.100571 -0.022948 0.994665 0
0.0707214 -0.0228142 0.997235 0.00325098
0.0799166 -0.0223258 0.996552 0.00596076
0.0956263 -0.0227751 0.995157 0.00305177
0.0943577 -0.022689 0.99528 0.00388349
0.110136 -0.0220719 0.993671 0.000858
0.083904 -0.0214229 0.996244 0.00317944
0.0889899 -0.0219167 0.995791 0.00839647
0.0697205 -0.0208385 0.997349 0.00928651
0.0839888 -0.0200352 0.996265 0.00267764
0.0879713 -0.0192969 0.995936 0
0.0824437 -0.0187743 0.996419 0
0.089799 -0.0182122 0.995793 0
0.0619567 -0.0164177 0.997944 0
0.0679651 -0.0156203 0.997565 0
0.0873463 -0.0149357 0.996066 0
0.0647191 -0.0145868 0.997797 0
0.0495228 -0.0149161 0.998662 0.0106078
0.0528881 -0.0154105 0.998482 0.0147317
0.0665028 -0.0146572 0.997679 0.00803405
0.0656328 -0.014118 0.997744 0.00282963
0.0524379 -0.013708 0.99853 0.00416194
0.055326 -0.0136344 0.998375 0.0103886
0.0404128 -0.0121207 0.99911 0.0102076
0.0565115 -0.0119444 0.99833 0.0039548
0.0490313 -0.0107813 0.998739 0.00459911
0.0138443 -0.00975857 0.999857 0.0136061
0.0195078 -0.00887674 0.99977 0.0131575
0.00639898 -0.00788104 0.999949 0.00829305
0.000816965 -0.0057595 0.999983 0.0128897
-0.00140327 -0.00395264 0.999991 0.0109681
0.0174343 -0.0049712 0.999836 0.00444366
0.0184335 -0.00377205 0.999823 0
0.000702489 -0.0028339 0.999996 0
0.0243307 -0.00181386 0.999702 0
0.0405662 -0.00204336 0.999175 0
0.0352973 -0.00144202 0.999376 0
0.0385845 -0.00100674 0.999255 0
0.0265771 0.000404105 0.999647 0
0.0425692 0.00166377 0.999092 0
0.0707998 0.00296228 0.997486 0
0.0431258 0.00429041 0.99906 0
0.0448708 0.00581137 0.998976 0
0.0374757 0.00782725 0.999267 0
0.0465479 0.00903483 0.998875 0
0.051086 0.0113718 0.99863 0
0.0685739 0.012454 0.997568 0
0.0516152 0.0137512 0.998572 0
0.0576289 0.0141018 0.998239 0
0.0474905 0.0151476 0.998757 0
0.0561587 0.0165415 0.998285 0
0.0656041 0.0168543 0.997703 0
0.0579185 0.0180687 0.998158 0
0.0622358 0.0183205 0.997893 0
0.0603126 0.0188558 0.998001 0
0.0612412 0.0195258 0.997932 0
0.0671719 0.0200634 0.99754 0
0.0643689 0.0209847 0.997706 0
0.0660221 0.0211044 0.997595 0
0.0697324 0.0217287 0.997329 0
0.0902233 0.0220333 0.995678 0
0.094258 0.022899 0.995284 0
0.107227 0.0227268 0.993975 0
0.095005 0.02321 0.995206 0
0.0926417 0.0231658 0.99543 0
0.0799175 0.024165 0.996508 0
0.0679832 0.02578 0.997353 0
0.0685356 0.0263302 0.997301 0
0.0689937 0.0264301 0.997267 0.00315717
0.0484098 0.027464 0.99845 0.00980962
0.0674145 0.0273574 0.99735 0.0071583
0.0806424 0.0283325 0.99634 0.013375
0.086826 0.0290902 0.995799 0.0198903
0.100287 0.0298416 0.994511 0.0195187
0.071725 0.0320836 0.996908 0.020108
0.0658843 0.0326256 0.997294 0.0290009
0.0646186 0.0335455 0.997346 0.0342237
0.0476904 0.0348392 0.998254 0.0377274
0.0545661 0.0358656 0.997866 0.0329221
0.0412404 0.0373228 0.998452 0.0380539
0.0439606 0.0380015 0.99831 0.0329866
0.0479918 0.0380755 0.998122 0.0290158
0.0433704 0.0391947 0.99829 0.0296144
0.0282555 0.0401972 0.998792 0.0288213
0.0435337 0.0417058 0.998181 0.0238348
0.0430435 0.0433309 0.998133 0.0157753
0.0492347 0.0436937 0.997831 0.00851716
0.0498233 0.045716 0.997711 0.00743932
0.0523603 0.0460322 0.997567 0.00804102
0.0484307 0.0471521 0.997713 0.000814078
0.0437831 0.0494486 0.997817 0.00564006
0.03592 0.0503696 0.998084 0.0144332
0.0418058 0.0511855 0.997814 0.0155946
0.0606759 0.0531134 0.996743 0.0122402
0.0618106 0.0551559 0.996563 0.0111112
0.0658902 0.0569364 0.996201 0.00050912
0.0444459 0.0579008 0.997332 0.00520245
0.055097 0.0581775 0.996785 0.00104906
0.0746794 0.0607158 0.995358 0
0.0664269 0.0630907 0.995795 0.0105211
0.057464 0.065278 0.996211 0.0191498
0.0576392 0.0672311 0.996071 0.0186328
0.0629336 0.0690967 0.995623 0.0127053
0.0715564 0.0719563 0.994838 0.012086
0.0691827 0.0729773 0.994931 0
0.0738016 0.0757217 0.994394 0
0.0744223 0.0784138 0.994139 0
0.0733095 0.0808899 0.994023 0
0.068881 0.0830509 0.994162 0.00631101
0.0785648 0.0848635 0.99329 0
0.0840104 0.0869666 0.992663 0
0.0686808 -0.153648 0.985736 0.00371846
0.073394 -0.150442 0.985891 0
0.0897164 -0.145865 0.985228 0
0.0996545 -0.143122 0.984675 0
0.0994839 -0.140105 0.985126 0
0.0820583 -0.137266 0.987129 0
0.0832661 -0.134293 0.987437 0
0.0871798 -0.132981 0.987277 0
0.079171 -0.130453 0.988288 0
0.0672017 -0.127345 0.989579 0
0.0513166 -0.124409 0.990903 0
0.0425451 -0.123132 0.991478 0.000362804
0.0443065 -0.121428 0.991611 0.00114074
0.0514992 -0.118965 0.991562 0
0.0492469 -0.115197 0.992121 0
0.0474064 -0.113238 0.992436 0
0.0594158 -0.110681 0.992079 0
0.0523184 -0.109037 0.99266 0
0.0482244 -0.106753 0.993115 0
0.0510196 -0.105324 0.993128 0
0.0458139 -0.102524 0.993675 0
0.0454487 -0.0997447 0.993975 0
0.0661051 -0.0974759 0.99304 0
0.0717179 -0.0966769 0.992729 0
0.0715377 -0.0956608 0.99284 0
0.0618597 -0.0951071 0.993543 0
0.0675094 -0.092612 0.993411 0
0.0694094 -0.0918329 0.993352 0
0.0847776 -0.0908182 0.992252 0
0.0802007 -0.0900438 0.992703 0
0.0727723 -0.0892657 0.993346 0
0.0716979 -0.0896838 0.993386 0
0.0740625 -0.0887107 0.9933 0
0.0777303 -0.0880093 0.993082 0
0.0875251 -0.0866447 0.992387 0
0.0784533 -0.0851495 0.993275 0
0.084544 -0.0841126 0.992863 0
0.0838736 -0.083467 0.992975 0
0.0659564 -0.0823538 0.994418 0
0.0650911 -0.0815287 0.994543 0
0.0825028 -0.0793001 0.993431 0
0.0819808 -0.0773682 0.993626 0
0.101621 -0.0766318 0.991867 0
0.123785 -0.0756687 0.98942 0
0.117379 -0.072339 0.990449 0
0.11962 -0.0730882 0.990126 0
0.126413 -0.0716305 0.989388 0
0.115964 -0.0707027 0.990734 0
0.113097 -0.0698407 0.991126 0
0.116362 -0.0680834 0.990871 0
0.114932 -0.0669357 0.991116 0
0.0967555 -0.0650242 0.993182 0
0.101846 -0.0643616 0.992716 0
0.110408 -0.0623875 0.991926 0
0.113895 -0.0617093 0.991574 0
0.102761 -0.0606028 0.992858 0.000303025
0.103263 -0.0590083 0.992902 0
0.104252 -0.057481 0.992888 0.000886145
0.107833 -0.0553088 0.992629 0.00122604
0.112238 -0.0537491 0.992227 0.00254399
0.108449 -0.0531807 0.992679 0.00649587
0.0916265 -0.0508737 0.994493 0.00374907
0.0940411 -0.0484452 0.994389 0.00199008
0.128995 -0.0471297 0.990525 0.000227156
0.138238 -0.0464665 0.989308 0.0122201
0.1358 -0.0452217 0.989704 0.0174005
0.128842 -0.0427935 0.990741 0.0202734
0.116156 -0.0396484 0.992439 0.010565
0.118999 -0.0384399 0.99215 0.0116384
0.118699 -0.0370176 0.99224 0.00285494
0.111969 -0.0357334 0.993069 0
0.107454 -0.0342542 0.99362 0.00672395
0.120581 -0.0337204 0.992131 0.00482425
0.123288 -0.0326701 0.991833 0.00254466
0.112235 -0.0303877 0.993217 0.000114724
0.108843 -0.0283043 0.993656 0.00166678
0.093132 -0.0268511 0.995292 0.00890398
0.10617 -0.0264113 0.993997 0.0098138
0.114396 -0.0249689 0.993121 0.00292654
0.106731 -0.0243656 0.993989 0.0113673
0.114284 -0.0230513 0.993181 0.00323608
0.0989226 -0.0216944 0.994859 0.00845116
0.108539 -0.0208028 0.993875 0.00610556
0.09564 -0.0187204 0.99524 0.00189112
0.0771238 -0.0182155 0.996855 0.00551476
0.0718096 -0.0175015 0.997265 0.00791996
0.0696317 -0.0160995 0.997443 0.000735634
0.0446166 -0.0150065 0.998892 0.0123437
0.0748319 -0.0141522 0.997096 0.00332759
0.0877012 -0.0122653 0.996071 0
0.0836855 -0.0112929 0.996428 0
0.0690651 -0.010135 0.997561 0
0.049165 -0.00971608 0.998743 0.00533906
0.071056 -0.0107162 0.997415 0
0.0654921 -0.00946073 0.997808 0
0.0568799 -0.00966586 0.998334 0
0.0464062 -0.00875643 0.998884 0
0.0540328 -0.00864423 0.998502 0
0.0692137 -0.00943518 0.997557 0
0.076681 -0.00989939 0.997007 0
0.0753587 -0.0104691 0.997101 0
0.0757611 -0.0100554 0.997075 0
0.0655001 -0.00971396 0.997805 0
0.084059 -0.0103192 0.996407 0
0.0782541 -0.0100823 0.996882 0
0.0860859 -0.0102285 0.996235 0
0.078633 -0.00954555 0.996858 0
0.0829804 -0.0100336 0.996501 0
0.0981338 -0.0112033 0.99511 0
0.100017 -0.0111169 0.994924 0
0.090562 -0.0116353 0.995823 0
0.125267 -0.0121027 0.992049 0
0.146132 -0.0123051 0.989189 0
0.125859 -0.0122628 0.991972 0
0.127519 -0.0114658 0.99177 0
0.130913 -0.0107102 0.991336 0
0.135004 -0.0118837 0.990774 0
0.11413 -0.012341 0.993389 0
0.123988 -0.012946 0.992199 0
0.127335 -0.0128932 0.991776 0
0.114709 -0.0128212 0.993316 0
0.105308 -0.0117965 0.99437 0
0.0839435 -0.0109585 0.99641 0
0.0871666 -0.0112338 0.99613 0
0.0823866 -0.0109098 0.996541 0
0.0629435 -0.0105073 0.997962 0
0.0441212 -0.0103641 0.998972 0
0.0249073 -0.0105605 0.999634 0
0.0237273 -0.0108847 0.999659 0
0.0361367 -0.0115886 0.99928 0.000160649
0.0416049 -0.0106124 0.999078 0
0.0312679 -0.0105729 0.999455 0
0.0352619 -0.0112183 0.999315 0
0.0342719 -0.0123416 0.999336 0.00353185
0.0415859 -0.013055 0.99905 0.00251442
0.0382792 -0.013239 0.999179 0.00528032
0.0236299 -0.013292 0.999632 0.0135472
-0.00835485 -0.0137001 0.999871 0.0164844
0.0256506 -0.0152747 0.999554 0.00807846
0.0212275 -0.0157696 0.99965 0.0130175
0.0310713 -0.0157726 0.999393 0.00859409
0.0270641 -0.0162177 0.999502 0.00838732
0.00582271 -0.0153097 0.999866 0.00643258
0.0163157 -0.0160423 0.999738 0.000253725
0.0332603 -0.0159086 0.99932 0
0.0520615 -0.0174497 0.998491 0
0.0585726 -0.0183656 0.998114 0
0.0406804 -0.0190197 0.998991 0
0.0477594 -0.0196671 0.998665 0
0.0777647 -0.0208113 0.996755 0
0.0946564 -0.0211004 0.995286 0
0.0885653 -0.020757 0.995854 0
0.0744566 -0.021819 0.996986 0
0.0695935 -0.0224288 0.997323 0
0.0831791 -0.0230333 0.996268 0.00548562
0.104933 -0.0226545 0.994221 0
0.086258 -0.0220393 0.996029 0
0.0798056 -0.0216771 0.996575 0
0.0987941 -0.0214398 0.994877 0
0.112303 -0.0204058 0.993464 0
0.123236 -0.0208001 0.992159 0.00187809
0.0909173 -0.01951 0.995667 0.0013688
0.0876075 -0.019004 0.995974 0
0.099785 -0.0198382 0.994811 0
0.0774781 -0.018356 0.996825 0
0.0757307 -0.0183943 0.996959 0
0.0529175 -0.0178345 0.99844 0.00898821
0.0532381 -0.0172663 0.998433 0.000389837
0.0666052 -0.0166874 0.99764 0.001762
0.0565141 -0.0161446 0.998271 0.00427951
0.0774894 -0.0156118 0.996871 0
0.0668536 -0.0155803 0.997641 0.00359773
0.062761 -0.0153261 0.997911 0.00156418
0.0520267 -0.0156337 0.998523 0.00679548
0.0524744 -0.0154501 0.998503 0.00901748
0.040452 -0.0137287 0.999087 0.00838958
0.03733 -0.0128846 0.99922 0.00561672
0.0353619 -0.0117852 0.999305 0.00730835
0.0443242 -0.0102299 0.998965 0.00943725
0.0311716 -0.0101736 0.999462 0.00999264
0.042503 -0.00877861 0.999058 0
0.0464845 -0.00743234 0.998891 0
0.0345954 -0.00740677 0.999374 0
0.0394307 -0.00740391 0.999195 0
0.0218407 -0.00700495 0.999737 0
0.0251262 -0.00561898 0.999668 0
0.0330628 -0.00513078 0.99944 0
0.0291586 -0.00401172 0.999567 0
0.0254227 -0.00225402 0.999674 0
0.0130087 -0.00162278 0.999914 0
0.0117878 -0.000777938 0.99993 0
0.0103576 -1.77849e-05 0.999946 0
0.0215199 0.000210676 0.999768 0.000768091
0.0168591 0.00203774 0.999856 0
0.0363828 0.00397715 0.99933 0
0.0431461 0.0053235 0.999055 0
0.0416418 0.00726996 0.999106 0
0.0537016 0.00867953 0.998519 0
0.0482565 0.00962261 0.998789 0
0.0421797 0.0110187 0.999049 0
0.0487847 0.011633 0.998742 0
0.044265 0.0127715 0.998938 0
0.0439627 0.0134936 0.998942 0
0.0602572 0.0146711 0.998075 0
0.0478603 0.0161396 0.998724 0
0.0557353 0.0172086 0.998297 0
0.0730113 0.0180899 0.997167 0
0.0745802 0.0195655 0.997023 0
0.0734625 0.0203091 0.997091 0
0.0653514 0.0210619 0.99764 0
0.0702607 0.0223619 0.997278 0
0.0535022 0.0223768 0.998317 0
0.0605861 0.022632 0.997906 0
0.0668715 0.0232553 0.997491 0
0.0776874 0.0234861 0.996701 0
0.0642935 0.0239263 0.997644 0
0.0532729 0.0245078 0.998279 0
0.0507988 0.0246058 0.998406 7.91008e-05
0.0579794 0.0255966 0.99799 0
0.0621522 0.0261717 0.997723 0.000786218
0.0531035 0.0274257 0.998212 0.00469406
0.0631098 0.0277873 0.99762 0.010959
0.0664389 0.0282041 0.997392 0.0112124
0.0704089 0.0293777 0.997086 0.0149471
0.0690176 0.0305941 0.997146 0.0135662
0.0694654 0.032381 0.997059 0.0156842
0.0758848 0.0325383 0.996586 0.0179817
0.0737202 0.0335833 0.996713 0.0135533
0.0615595 0.0347088 0.9975 0.0173676
0.0495569 0.0357776 0.99813 0.0291396
0.0538476 0.0362859 0.99789 0.0226183
0.055121 0.0364184 0.997815 0.0271945
0.0543551 0.0374184 0.99782 0.031852
0.0584957 0.0393911 0.99751 0.0312814
0.0687533 0.0397508 0.996841 0.0269591
0.0492144 0.0402012 0.997979 0.0337487
0.0383228 0.0413709 0.998409 0.0243764
0.036468 0.0435777 0.998384 0.0193851
0.0504329 0.0448824 0.997718 0.012056
0.041549 0.0466144 0.998048 0.0175564
0.0244429 0.0471435 0.998589 0.00975216
0.0303868 0.0486957 0.998351 0.0183597
0.0419983 0.0502144 0.997855 0.0174247
0.0409401 0.0501751 0.997901 0.018974
0.049971 0.0517024 0.997411 0.016375
0.0497141 0.0520217 0.997408 0.0193388
0.0503544 0.0542469 0.997257 0.0140957
0.0510641 0.054502 0.997207 0.012538
0.0572301 0.0571483 0.996724 0.0137164
0.0609777 0.0583072 0.996435 0.00844777
0.0628087 0.0601413 0.996212 0.0118518
0.0670824 0.0625247 0.995786 0.0181854
0.0592058 0.0639606 0.996195 0.023792
0.0670024 0.0656652 0.99559 0.0235074
0.0746371 0.0686506 0.994845 0.017755
0.0730959 0.0706981 0.994816 0.0117611
0.0830429 0.0723431 0.993917 0.000959765
0.0806308 0.0750992 0.993911 0.000382225
0.0724905 0.0774962 0.994354 0.00536398
0.0683886 0.0786352 0.994555 0
0.0928174 0.0828069 0.992234 0
-0.206063 -0.135409 0.969125 0.00312696
-0.202866 -0.130122 0.970522 0.000337514
-0.205685 -0.125333 0.970559 0
-0.204552 -0.122895 0.97111 0
-0.21559 -0.126501 0.968255 0.00836581
-0.210232 -0.123489 0.969821 0.00269341
-0.217922 -0.122387 0.968262 0.00461797
-0.217343 -0.117513 0.968996 0.00722022
-0.216993 -0.115154 0.969357 0.00778009
-0.226902 -0.116594 0.966913 0.0113083
-0.227213 -0.112498 0.967325 0.0104159
-0.227852 -0.109677 0.967499 0.0093547
-0.220767 -0.10388 0.969779 0.00587065
-0.214612 -0.097643 0.971806 0
-0.217251 -0.0953301 0.971449 0
-0.22581 -0.0974017 0.96929 0.00292153
-0.218426 -0.0925137 0.971458 0
-0.220151 -0.0920999 0.971108 0
-0.219321 -0.0897679 0.971514 0
-0.217477 -0.086964 0.972184 0
-0.213146 -0.0854766 0.973274 0
-0.216935 -0.0855871 0.972427 0
-0.214289 -0.0843638 0.97312 0
-0.208077 -0.082287 0.974645 0
-0.204373 -0.0805049 0.975577 0
-0.207155 -0.078596 0.975146 0
-0.210176 -0.0775062 0.974587 0
-0.210167 -0.075838 0.97472 0
-0.205567 -0.0748203 0.975779 0
-0.19437 -0.0699618 0.97843 0
-0.197806 -0.0690798 0.977804 0
-0.191299 -0.0665518 0.979273 0
-0.203105 -0.0669384 0.976866 0
-0.189273 -0.0617158 0.979983 0
-0.201259 -0.0636849 0.977466 0
-0.20637 -0.0640294 0.976377 0
-0.211443 -0.0648821 0.975234 0.00155937
-0.209991 -0.0630746 0.975667 0.000495199
-0.230735 -0.0663951 0.970749 0.0136039
-0.227413 -0.0642368 0.971677 0.0126488
-0.228606 -0.0625023 0.971511 0.0136381
-0.219839 -0.0600482 0.973686 0.00809027
-0.218937 -0.0584762 0.973985 0.00710354
-0.212987 -0.0553428 0.975486 0
-0.215323 -0.0537652 0.975062 0
-0.220241 -0.0541205 0.973943 0
-0.22628 -0.0542866 0.972548 0
-0.236813 -0.0540584 0.97005 0.0061329
-0.229883 -0.0545321 0.971689 0.00992412
-0.232817 -0.0535674 0.971044 0.0092154
-0.247426 -0.0530302 0.967454 0.0127277
-0.243109 -0.0513448 0.968639 0.0140987
-0.224739 -0.0474441 0.973263 0.00523731
-0.228757 -0.0463137 0.972381 0.00488038
-0.220473 -0.0448263 0.974362 0.000424597
-0.207023 -0.0443161 0.977332 0
-0.206946 -0.0438069 0.977371 0
-0.204622 -0.043121 0.977891 0
-0.180063 -0.0425662 0.982734 0
-0.15949 -0.0411236 0.986343 0
-0.140512 -0.0407575 0.98924 0
-0.147929 -0.0406107 0.988164 0
-0.154035 -0.0391678 0.987289 0
-0.1355 -0.0360197 0.990122 0
-0.134678 -0.0343993 0.990292 0
-0.120839 -0.0320821 0.992154 0
-0.128017 -0.0303925 0.991306 0
-0.127965 -0.0287749 0.991361 0
-0.119426 -0.0278298 0.992453 0
-0.125699 -0.0262848 0.99172 0
-0.130554 -0.0253148 0.991118 0
-0.128513 -0.0243387 0.991409 0
-0.15445 -0.0224486 0.987746 0
-0.161006 -0.0207595 0.986735 0
-0.161605 -0.0199461 0.986654 0
-0.161672 -0.0186667 0.986668 0
-0.16135 -0.0175761 0.986741 0
-0.161629 -0.0164356 0.986715 0
-0.173873 -0.015644 0.984644 0.00181258
-0.153357 -0.0153038 0.988052 0
-0.139362 -0.0149488 0.990129 0.0011057
-0.121714 -0.0149742 0.992452 6.86058e-05
-0.120784 -0.0145366 0.992572 0.00208793
-0.130758 -0.0134397 0.991323 0.00601888
-0.147719 -0.0117198 0.98896 0.00698382
-0.168743 -0.0100298 0.985609 0.00829318
-0.169454 -0.00958261 0.985492 0.00873807
-0.176781 -0.0079703 0.984218 0.0055722
-0.175743 -0.00723859 0.984409 0.00461764
-0.168732 -0.00644245 0.985641 0.0022973
-0.164101 -0.0055809 0.986428 0
-0.161692 -0.00534255 0.986827 0
-0.159305 -0.00488707 0.987217 0
-0.137274 -0.00506921 0.99052 0
-0.137596 -0.00481457 0.990477 0
-0.145096 -0.00466135 0.989407 0
-0.144996 -0.00392876 0.989424 0
-0.150919 -0.00481664 0.988534 0
-0.137078 -0.0052262 0.990547 0
-0.131082 -0.00435495 0.991362 0
-0.131723 -0.00360539 0.99128 0
-0.11843 -0.00408029 0.992954 0
-0.125662 -0.00404784 0.992065 0
-0.128296 -0.00375075 0.991729 0
-0.139313 -0.00314676 0.990243 0
-0.139346 -0.002867 0.99024 0
-0.150489 -0.00243581 0.988609 0
-0.159644 -0.002143 0.987172 0
-0.166799 -0.00174491 0.985989 0
-0.182118 -0.00131639 0.983276 0
-0.180751 -0.00112897 0.983528 0
-0.163627 0.000170929 0.986522 0
-0.176959 0.000991631 0.984218 0
-0.176918 0.00127605 0.984225 0
-0.170494 0.00172621 0.985357 0
-0.172576 0.000848031 0.984996 0.00128417
-0.157472 0.00251368 0.98752 0
-0.160871 0.00228707 0.986973 0
-0.154751 0.00190452 0.987952 0
-0.169304 0.00109235 0.985563 0.00639334
-0.16868 0.00114454 0.98567 0.00165306
-0.166749 0.00108089 0.985999 0
-0.168183 0.00144098 0.985755 0
-0.171857 0.00201162 0.98512 0
-0.173447 0.00118143 0.984843 0
-0.179813 0.00224628 0.983698 0
-0.183332 0.00242613 0.983048 0
-0.185068 0.0027786 0.982722 0
-0.184715 0.00211385 0.98279 0
-0.181778 0.00173809 0.983338 0
-0.182866 0.00077824 0.983137 0
-0.180275 0.00137509 0.983615 0
-0.183538 0.00160792 0.983011 0
-0.182767 0.00189677 0.983154 0
-0.189725 0.00168052 0.981836 0
-0.197574 0.000785881 0.980288 0
-0.190127 0.000457379 0.981759 0
-0.172927 -0.000347019 0.984935 0
-0.178246 -0.000375668 0.983986 0
-0.182369 -0.00079551 0.98323 0
-0.178664 -0.00205402 0.983908 0
-0.182839 -0.00269608 0.983139 0.00150139
-0.18622 -0.00244755 0.982505 0.00458178
-0.187337 -0.00144674 0.982295 0.00349865
-0.192512 -0.000977637 0.981294 0.00367463
-0.182744 -0.000453169 0.98316 0
-0.188432 -0.000170132 0.982086 0
-0.189602 -0.000269709 0.981861 0
-0.178388 -3.09813e-05 0.98396 0
-0.171113 -0.000952899 0.985251 0
-0.160021 -0.00110772 0.987113 0
-0.151866 -0.0012869 0.9884 0
-0.162883 -0.0017863 0.986644 0
-0.17086 -0.00123933 0.985295 0
-0.171851 -0.00124976 0.985122 0
-0.174247 -0.0010089 0.984701 0
-0.16465 -0.00124084 0.986351 0
-0.170677 -0.000149106 0.985327 0
-0.171705 0.000538085 0.985148 0
-0.179847 0.000936754 0.983694 0
-0.181018 0.000763966 0.983479 0
-0.163341 0.000334401 0.98657 0
-0.161445 -7.06446e-06 0.986882 0
-0.163109 -0.00020854 0.986608 0
-0.164178 -0.000117871 0.986431 0
-0.163888 0.000630575 0.986479 0
-0.155244 0.000395664 0.987876 0
-0.143949 0.000989357 0.989585 0
-0.150613 0.00217109 0.98859 0
-0.154078 0.00168983 0.988057 0
-0.159777 0.00184317 0.987151 0
-0.151357 0.00191671 0.988477 0
-0.142833 0.00144709 0.989746 0
-0.151172 0.00236165 0.988505 0.000291093
-0.163854 0.00322536 0.986479 0.0003607
-0.160492 0.00354821 0.987031 0
-0.162066 0.00410809 0.986771 0
-0.172898 0.00510576 0.984926 0
-0.182652 0.00511934 0.983164 0
-0.178542 0.00684853 0.983908 0
-0.180187 0.00705363 0.983607 0
-0.18588 0.00839761 0.982537 0
-0.186955 0.00872317 0.98233 0
-0.19055 0.00947187 0.981632 0.00118265
-0.196442 0.0105745 0.980458 0.0060662
-0.195386 0.0121528 0.980651 0
-0.184947 0.0133994 0.982657 0
-0.172096 0.0140492 0.98498 0
-0.179341 0.0149296 0.983674 0
-0.181651 0.0158285 0.983236 0
-0.194666 0.0175593 0.980712 0
-0.201437 0.0185001 0.979327 0
-0.195048 0.0196381 0.980597 0
-0.197223 0.02014 0.980152 0
-0.204266 0.021428 0.978681 0
-0.205738 0.0219499 0.978361 0
-0.205217 0.0247557 0.978403 0
-0.19597 0.0250182 0.980291 0
-0.188625 0.0257422 0.981712 0
-0.1893 0.0274823 0.981535 0
-0.186516 0.0280943 0.98205 0
-0.188242 0.0297563 0.981672 0
-0.18144 0.0316525 0.982892 0
-0.183057 0.0344102 0.9825 0
-0.179323 0.0362944 0.983121 0
-0.1894 0.0379913 0.981165 0
-0.187855 0.0397366 0.981393 0
-0.185179 0.0410253 0.981848 0
-0.191426 0.0426876 0.980578 0
-0.199257 0.0436419 0.978975 0
-0.213104 0.0446242 0.97601 0
-0.220441 0.0456362 0.974332 0
-0.235476 0.0467164 0.970757 0.00367566
-0.240196 0.0479166 0.969541 0.00603061
-0.223263 0.0490811 0.973522 0
-0.226486 0.0526366 0.972591 0
-0.225407 0.0527935 0.972833 0.00120281
-0.21909 0.053484 0.974238 0.00123428
-0.208281 0.0540755 0.976573 0
-0.205175 0.0554059 0.977156 0
-0.20827 0.0571878 0.976398 0
-0.217722 0.0587705 0.97424 0.00456304
-0.211905 0.0600282 0.975445 0
-0.215703 0.0608946 0.974558 0
-0.239563 0.0661513 0.968624 0.00743445
-0.250973 0.0690612 0.965527 0.0160888
-0.258792 0.0712363 0.963303 0.0183688
-0.261488 0.0734172 0.96241 0.0221234
-0.258967 0.0759409 0.962896 0.0224911
-0.249996 0.0762625 0.965239 0.0162578
-0.233326 0.0760333 0.969422 0.00787405
-0.226647 0.0769509 0.970932 0.00236552
-0.21267 0.0776991 0.97403 0
-0.20126 0.0772492 0.976487 0
-0.196713 0.0795916 0.977225 0
-0.19467 0.080507 0.977559 0
-0.199911 0.0829815 0.976294 0
-0.203621 0.0855835 0.975302 0
-0.201203 0.086558 0.975718 0
-0.20137 0.0886146 0.975499 0.0033131
-0.203141 0.0907824 0.974932 0
-0.201603 0.0931763 0.975025 0
-0.200037 0.0955304 0.97512 0
-0.19938 0.0973703 0.975073 0
-0.196518 0.0998893 0.975399 0
-0.197016 0.102418 0.975036 0
-0.195752 0.104924 0.975024 0
-0.19248 0.106784 0.975474 0
-0.190346 0.109596 0.97558 0
-0.188393 0.113697 0.97549 0
-0.20597 0.118487 0.971358 0
-0.214166 0.123861 0.968912 0
-0.202637 0.124011 0.97137 0
-0.198619 0.127674 0.971725 0
-0.204314 0.131873 0.969982 0
-0.212449 0.135311 0.967759 0
-0.208434 0.137358 0.968343 0
-0.20613 0.1411 0.968298 0
-0.206619 0.143461 0.967847 0
-0.208786 0.14817 0.966672 0
-0.204633 0.147316 0.96769 0
-0.206951 0.149138 0.966917 0
-0.19757 -0.146817 0.969232 0
-0.194391 -0.139598 0.97094 0
-0.196664 -0.134671 0.971178 0
-0.201254 -0.131881 0.970621 0
-0.206582 -0.13393 0.96922 0.00285211
-0.202982 -0.12978 0.970544 0
-0.204034 -0.12782 0.970583 0.000130251
-0.209803 -0.128374 0.969279 0.00433177
-0.204011 -0.124461 0.971025 0.00131222
-0.209281 -0.122594 0.97014 0.00623243
-0.208673 -0.118847 0.970737 0.0102227
-0.207085 -0.113906 0.971669 0.00675149
-0.215924 -0.114809 0.969637 0.0108802
-0.217968 -0.110604 0.969668 0.00742518
-0.22336 -0.110222 0.968484 0.00784876
-0.215923 -0.104121 0.970843 0.00400639
-0.213578 -0.102288 0.971556 0.00230962
-0.208634 -0.0982534 0.973046 0
-0.205774 -0.0935519 0.974118 0
-0.20582 -0.0930157 0.974159 0
-0.205363 -0.0918416 0.974367 0
-0.2027 -0.0896252 0.975131 0
-0.202339 -0.0862176 0.975513 0
-0.200133 -0.0854011 0.97604 0
-0.203601 -0.0853319 0.975328 0
-0.202974 -0.0826799 0.975687 0
-0.202748 -0.0806395 0.975905 0
-0.199095 -0.0796735 0.976736 0
-0.205467 -0.0795497 0.975426 0
-0.210796 -0.0789593 0.974336 0
-0.202565 -0.0740427 0.976466 0
-0.211197 -0.0745691 0.974595 0
-0.207862 -0.0735679 0.975388 0
-0.197239 -0.0716405 0.977734 0
-0.194542 -0.0692287 0.978448 0
-0.186586 -0.066579 0.98018 0
-0.184767 -0.0638658 0.980705 0
-0.175666 -0.0625374 0.982461 0
-0.185118 -0.0630481 0.980692 0
-0.194513 -0.0628602 0.978884 0
-0.194733 -0.0619025 0.978901 0
-0.204004 -0.0617098 0.977023 0
-0.217655 -0.0627627 0.974006 0.00312069
-0.214648 -0.0606953 0.974804 0.00136918
-0.22033 -0.0608484 0.973526 0.00912611
-0.206449 -0.0581949 0.976725 0.00441336
-0.199593 -0.0552879 0.978318 0.000148527
-0.189025 -0.0525378 0.980566 0
-0.196129 -0.0513274 0.979234 0
-0.192008 -0.0502679 0.980105 0
-0.194907 -0.0504425 0.979524 0
-0.196708 -0.0496239 0.979206 0
-0.197464 -0.0490292 0.979083 0
-0.197435 -0.0478781 0.979146 0
-0.194262 -0.0457545 0.979882 0
-0.191102 -0.0443408 0.980568 0
-0.193795 -0.043955 0.980057 0
-0.189795 -0.0438346 0.980845 0
-0.185686 -0.0436727 0.981638 0
-0.180743 -0.0421914 0.982625 0
-0.175317 -0.0421484 0.983609 0
-0.174938 -0.041088 0.983722 0
-0.173012 -0.0397142 0.984119 0
-0.170821 -0.0399394 0.984492 0
-0.163604 -0.0403347 0.985701 0
-0.158046 -0.0399358 0.986624 0
-0.164757 -0.038908 0.985567 0
-0.15445 -0.0360802 0.987342 0
-0.154086 -0.034356 0.98746 0
-0.156779 -0.0329571 0.987084 0
-0.155237 -0.0304098 0.987409 0
-0.146244 -0.0295285 0.988808 0
-0.152254 -0.0271356 0.987969 0
-0.168368 -0.0262878 0.985374 0
-0.175078 -0.0255576 0.984223 0
-0.17927 -0.024683 0.98349 0
-0.161956 -0.0237147 0.986513 0
-0.159019 -0.0214053 0.987044 0
-0.144476 -0.0197367 0.989311 0
-0.13977 -0.0178652 0.990023 0
-0.132063 -0.0163114 0.991107 0
-0.134087 -0.0156641 0.990846 0
-0.124286 -0.0142035 0.992145 0
-0.128813 -0.0136491 0.991575 0
-0.124498 -0.0128223 0.992137 0
-0.122079 -0.0135801 0.992428 0
-0.127243 -0.0126018 0.991792 0
-0.120462 -0.0114154 0.992652 0
-0.129198 -0.0105891 0.991562 0
-0.136283 -0.00914708 0.990628 0
-0.137068 -0.00880729 0.990522 0
-0.155484 -0.00808728 0.987805 0
-0.162288 -0.00715246 0.986718 0
-0.169478 -0.00649275 0.985513 0.0042525
-0.159273 -0.00568977 0.987218 0
-0.145122 -0.00559249 0.989398 0.000713713
-0.147066 -0.00480753 0.989115 0
-0.136579 -0.0042728 0.99062 0
-0.138798 -0.00362752 0.990314 0
-0.142285 -0.00361268 0.989819 0
-0.145071 -0.00482256 0.98941 0
-0.154715 -0.00499561 0.987946 0
-0.153543 -0.00376914 0.988135 0
-0.150514 -0.00314409 0.988603 0
-0.136769 -0.00295908 0.990598 0
-0.131773 -0.00260643 0.991276 0
-0.126394 -0.00197055 0.991978 0
-0.130587 -0.00235634 0.991434 0
-0.143365 -0.00206417 0.989668 0
-0.151923 -0.00192027 0.988391 0
-0.159094 -0.00131364 0.987263 0
-0.170128 -0.000883353 0.985422 0
-0.172951 -9.22477e-05 0.984931 0
-0.175144 0.00070382 0.984543 0
-0.174146 0.00158872 0.984718 0
-0.17612 0.0019733 0.984367 0
-0.172148 0.00210297 0.985069 0
-0.168185 0.00275851 0.985752 0
-0.173949 0.0033095 0.984749 0
-0.176463 0.00273658 0.984303 0
-0.175 0.00278457 0.984565 0
-0.169668 0.00320627 0.985496 0
-0.16765 0.00309177 0.985842 0
-0.164661 0.00269396 0.986347 0
-0.159717 0.00274124 0.987159 0
-0.166158 0.00298824 0.986095 0
-0.168692 0.00318659 0.985664 0
-0.167254 0.00362483 0.985907 0
-0.172091 0.00327789 0.985076 0
-0.181823 0.00284896 0.983327 0
-0.187577 0.00171932 0.982248 0.000881987
-0.189363 0.00220661 0.981905 0
-0.187334 0.00127334 0.982296 0
-0.178796 0.00119963 0.983885 0
-0.176915 0.00163271 0.984225 0
-0.189026 0.00226364 0.98197 0
-0.192695 0.000794681 0.981258 0
-0.187471 0.00053531 0.98227 0
-0.182802 -0.000548287 0.98315 0.00190203
-0.182615 -0.000962435 0.983184 0.00281424
-0.183684 -0.00148679 0.982984 0.00377526
-0.189452 -0.000717961 0.98189 0.00154576
-0.184222 -6.81265e-05 0.982885 0
-0.178583 -0.00086099 0.983924 0
-0.168701 -0.000584014 0.985667 0
-0.176178 -0.000212537 0.984358 0
-0.178439 4.20979e-05 0.983951 0
-0.170038 0.000347659 0.985438 0
-0.164934 0.000560886 0.986304 0
-0.159288 0.000128392 0.987232 0
-0.160695 0.000519314 0.987004 0
-0.16453 -0.000347026 0.986372 0
-0.160624 -0.000141271 0.987016 0
-0.160074 -0.000804732 0.987105 0
-0.160945 -0.0010408 0.986963 0
-0.170133 -0.000202639 0.985421 0
-0.163499 0.000361751 0.986543 0
-0.170351 0.000374152 0.985383 0
-0.158993 -0.000436542 0.98728 0
-0.150778 0.000305546 0.988568 0
-0.146764 0.000664335 0.989171 0
-0.155066 0.000442765 0.987904 0
-0.159995 0.000284268 0.987118 0
-0.158765 0.00053773 0.987316 0
-0.167508 0.000236745 0.985871 0
-0.171966 0.000838249 0.985102 0
-0.186709 0.000402405 0.982415 0
-0.176609 -0.000250846 0.984281 0
-0.167988 0.000626225 0.985789 0
-0.158355 -0.00037991 0.987382 0
-0.162693 0.000105758 0.986677 0
-0.152201 0.000921901 0.988349 0
-0.145437 0.00247638 0.989364 0
-0.135552 0.00287983 0.990766 0
-0.139348 0.00285966 0.990239 0
-0.146605 0.00320019 0.98919 0
-0.154689 0.0043281 0.987954 0
-0.14938 0.00513351 0.988766 0
-0.148697 0.00559231 0.988867 0
-0.156053 0.00613722 0.98773 0
-0.150751 0.00533416 0.988557 0
-0.152518 0.00626989 0.988281 0
-0.154603 0.00673541 0.987954 0
-0.152274 0.00786702 0.988307 0
-0.155769 0.00818734 0.98776 0
-0.162226 0.00965325 0.986706 0
-0.170925 0.0110842 0.985222 0
-0.176608 0.0122017 0.984206 0
-0.179593 0.0131719 0.983653 0
-0.182235 0.0138532 0.983157 0
-0.175575 0.0140668 0.984366 0
-0.175553 0.0149296 0.984357 0
-0.177694 0.0160081 0.983956 0
-0.184213 0.0169009 0.982741 0
-0.193133 0.0180825 0.981006 0
-0.206241 0.0200188 0.978296 0
-0.206128 0.0208245 0.978303 0
-0.197956 0.0219791 0.979965 0
-0.200553 0.0221489 0.979433 0
-0.204927 0.0229484 0.978508 0
-0.200476 0.0245282 0.979392 0
-0.198827 0.0254423 0.979704 0
-0.19419 0.0269928 0.980593 0
-0.182267 0.0279254 0.982852 0
-0.176202 0.0302526 0.983889 0
-0.165571 0.0329097 0.985649 0
-0.170882 0.0352545 0.984661 0
-0.171253 0.0360061 0.984569 0
-0.178005 0.0388009 0.983264 0
-0.181208 0.040172 0.982624 0
-0.176995 0.0418648 0.983321 0
-0.182281 0.041876 0.982354 0
-0.182121 0.0425398 0.982355 0
-0.195088 0.0431013 0.979838 0
-0.203268 0.0435407 0.978155 0
-0.217049 0.045079 0.975119 0
-0.221358 0.0464336 0.974087 0
-0.224791 0.0462659 0.973308 0
-0.219621 0.0486601 0.974371 0
-0.216578 0.0507526 0.974945 0
-0.222487 0.0513756 0.973581 0
-0.214034 0.0522729 0.975427 0
-0.211425 0.0540317 0.9759 0
-0.197188 0.0549023 0.978827 0
-0.190262 0.0562141 0.980123 0
-0.193358 0.0579825 0.979414 0
-0.199096 0.0608469 0.978089 0
-0.213244 0.0629298 0.97497 0
-0.212478 0.0640909 0.975062 0
-0.20557 0.0640641 0.976543 0
-0.198428 0.0636593 0.978046 0
-0.1798 0.0642994 0.9816 0
-0.189951 0.0680689 0.979431 0
-0.18582 0.0694641 0.980125 0
-0.194257 0.0731152 0.978222 0
-0.190965 0.075255 0.978708 0
-0.191759 0.076958 0.97842 0
-0.203105 0.0794829 0.975926 0
-0.203433 0.0807716 0.975751 0
-0.192155 0.0803516 0.978069 0
-0.186152 0.0822008 0.979076 0
-0.194593 0.0846057 0.977229 0
-0.188984 0.0850541 0.97829 0
-0.195386 0.0886528 0.976711 0
-0.190843 0.0897372 0.97751 0
-0.187773 0.0919832 0.977896 0
-0.190944 0.0952246 0.976971 0
-0.192534 0.0979646 0.976388 0
-0.195538 0.100381 0.975545 0
-0.190796 0.102857 0.976226 0
-0.191465 0.105457 0.975818 0
-0.191098 0.107065 0.975714 0
-0.191332 0.110608 0.975273 0
-0.190231 0.113845 0.975116 0
-0.196252 0.11806 0.97342 0
-0.198936 0.12134 0.972472 0
-0.195796 0.123036 0.972896 0
-0.191258 0.124549 0.973606 0
-0.192914 0.128384 0.97278 0
-0.194455 0.131499 0.972057 0
-0.191204 0.133796 0.972389 0
-0.186741 0.135407 0.973033 0
-0.180681 0.137772 0.973845 0
-0.182937 0.140159 0.973082 0
-0.184744 0.145835 0.971906 0
-0.180729 0.145907 0.97265 0
-0.187537 0.149091 0.970877 0
-0.201803 0.154806 0.967115 0.00121923
-0.207488 0.160699 0.964948 0.00395076
-0.208487 0.164211 0.964141 0.00453098
-0.189856 -0.145574 0.97096 0
-0.18983 -0.140736 0.971678 0
-0.193294 -0.139343 0.971196 0
-0.195066 -0.134709 0.971495 0
-0.193315 -0.131799 0.972244 0
-0.193441 -0.128825 0.972618 0
-0.191787 -0.124156 0.973552 0
-0.190234 -0.120798 0.974279 0
-0.191708 -0.121249 0.973934 0
-0.190783 -0.118594 0.974442 0
-0.191404 -0.114864 0.974767 0
-0.194482 -0.113281 0.974343 0
-0.19492 -0.111893 0.974416 0.00384521
-0.197999 -0.109472 0.97407 0.00278171
-0.199541 -0.108205 0.973897 0.00606772
-0.197148 -0.10216 0.975036 0.00116111
-0.200554 -0.101108 0.974451 0
-0.196056 -0.0985871 0.975624 0
-0.205065 -0.0997842 0.973649 0.0060708
-0.196264 -0.094032 0.976032 0
-0.193956 -0.0921374 0.976674 0
-0.191829 -0.0899695 0.977296 0
-0.192385 -0.0875609 0.977405 0
-0.193828 -0.0876178 0.977115 0
-0.197842 -0.0873571 0.976334 0
-0.198769 -0.0850186 0.976352 0
-0.187294 -0.0805723 0.978994 0
-0.185034 -0.0770486 0.979707 0
-0.187211 -0.0741883 0.979514 0
-0.190013 -0.0750452 0.978909 0
-0.185301 -0.0708906 0.980121 0
-0.182659 -0.0701981 0.980667 0
-0.183986 -0.0701301 0.980424 0
-0.188914 -0.0695935 0.979525 0
-0.18411 -0.067575 0.98058 0
-0.177166 -0.0644054 0.982071 0
-0.17996 -0.0643691 0.981566 0
-0.174114 -0.0642946 0.982624 0
-0.167118 -0.0608934 0.984055 0
-0.171384 -0.0607269 0.983331 0
-0.175332 -0.0596375 0.982701 0
-0.174026 -0.0583803 0.983009 0
-0.171574 -0.0578166 0.983473 0
-0.177254 -0.057407 0.982489 0
-0.181827 -0.0570955 0.981672 0
-0.181659 -0.0558669 0.981773 0
-0.187159 -0.0551706 0.980779 0
-0.180576 -0.0520226 0.982184 0
-0.181384 -0.0501504 0.982133 0
-0.173166 -0.0489905 0.983673 0
-0.176281 -0.0483845 0.98315 0
-0.182226 -0.0485498 0.982057 0
-0.182674 -0.0478525 0.982008 0
-0.180039 -0.0452106 0.98262 0
-0.182151 -0.0446896 0.982255 0
-0.173583 -0.0441607 0.983829 0
-0.172648 -0.0451577 0.983948 0
-0.174326 -0.0451765 0.983651 0
-0.172029 -0.0440344 0.984107 0
-0.180975 -0.0445134 0.98248 0
-0.191025 -0.0433101 0.980629 0
-0.195737 -0.0426932 0.979727 0
-0.184797 -0.0423116 0.981865 0
-0.177489 -0.0416819 0.98324 0
-0.169295 -0.0407529 0.984723 0
-0.158685 -0.0402795 0.986507 0
-0.146542 -0.0387938 0.988443 0
-0.142067 -0.036672 0.989178 0
-0.13834 -0.0359172 0.989733 0
-0.145946 -0.0338668 0.988713 0
-0.146198 -0.0305133 0.988785 0
-0.15116 -0.028587 0.988096 0
-0.150226 -0.0263959 0.988299 0
-0.15951 -0.024533 0.986891 0
-0.155699 -0.0239292 0.987515 0
-0.160495 -0.0235396 0.986756 0
-0.152229 -0.0225782 0.988087 0
-0.134819 -0.0212386 0.990643 0
-0.128749 -0.0187247 0.9915 0
-0.135166 -0.018069 0.990658 0
-0.141936 -0.0169625 0.98973 0
-0.140899 -0.0155758 0.989901 0
-0.146425 -0.0154165 0.989102 0
-0.144168 -0.0144496 0.989448 0
-0.139659 -0.0140644 0.9901 0
-0.143744 -0.0135202 0.989523 0
-0.130352 -0.0114028 0.991402 0
-0.118327 -0.0102087 0.992922 0
-0.122908 -0.0101913 0.992366 0
-0.134817 -0.0102653 0.990817 0
-0.147826 -0.00998138 0.988963 0
-0.153986 -0.00952759 0.988027 0
-0.155015 -0.00928546 0.987868 0
-0.144449 -0.00803899 0.98948 5.78019e-05
-0.145309 -0.00685809 0.989363 0
-0.140163 -0.00628782 0.990108 0
-0.133181 -0.00497492 0.991079 0
-0.131741 -0.00517971 0.991271 0
-0.139554 -0.00540573 0.9902 0
-0.149762 -0.0050496 0.988709 0
-0.162576 -0.00574582 0.986679 0
-0.168066 -0.00599093 0.985758 0.00455144
-0.165961 -0.00534782 0.986118 0.00404563
-0.163044 -0.0042525 0.98661 0.0025476
-0.157193 -0.00376583 0.987561 0.00109794
-0.162236 -0.00395093 0.986744 0.00456124
-0.156502 -0.00300794 0.987673 0.000632689
-0.152738 -0.00322491 0.988261 0.00297248
-0.163294 -0.00297274 0.986573 0.00330308
-0.172611 -0.00265017 0.984986 0.00437945
-0.172674 -0.00190167 0.984977 0.000646118
-0.172269 -0.00112797 0.985049 7.62794e-05
-0.173112 -0.000537145 0.984902 0
-0.176554 0.000603225 0.984291 0
-0.172403 0.00115575 0.985026 0
-0.172874 0.00143297 0.984943 0
-0.168647 0.00220308 0.985674 0
-0.165146 0.00196865 0.986267 0
-0.172274 0.00257304 0.985046 0
-0.177917 0.00243256 0.984043 0
-0.177917 0.00294651 0.984041 0
-0.167833 0.00293295 0.985811 0
-0.165193 0.00335297 0.986256 0
-0.1585 0.00362539 0.987352 0
-0.15365 0.00416087 0.988117 0
-0.156217 0.00398442 0.987715 0
-0.160519 0.00450395 0.987023 0
-0.166637 0.0047428 0.986007 0
-0.169611 0.00432852 0.985502 0
-0.170757 0.00425686 0.985304 0
-0.171187 0.00407281 0.98523 0
-0.175965 0.00361596 0.98439 0
-0.178747 0.00266234 0.983891 0
-0.185025 0.00249316 0.982731 0
-0.185324 0.0010314 0.982677 0
-0.186584 0.00172231 0.982437 0
-0.185582 0.000711782 0.982628 0
-0.184346 0.000110442 0.982861 0.00114715
-0.185402 -0.00010188 0.982663 0.00292685
-0.185257 -0.000164523 0.98269 0.00046198
-0.182796 0.000780934 0.983151 0
-0.175325 -0.000415775 0.98451 0
-0.175715 -0.000533331 0.984441 2.05593e-05
-0.172369 -0.000481177 0.985032 0
-0.171923 -0.000457308 0.98511 0
-0.164715 0.000435229 0.986341 0
-0.163877 -0.00044967 0.986481 0
-0.157133 -0.00054105 0.987577 0
-0.153627 0.000327756 0.988129 0
-0.145928 0.00051456 0.989295 0
-0.148601 0.00050458 0.988897 0
-0.150997 -3.95652e-05 0.988534 0
-0.142608 0.000117307 0.989779 0
-0.135742 0.000774703 0.990744 0
-0.134554 0.00166894 0.990905 0
-0.135939 0.00183749 0.990716 0
-0.145111 0.00105708 0.989415 0
-0.152602 0.000863603 0.988287 0
-0.157483 0.000804031 0.987521 0
-0.166391 -0.000308093 0.98606 0
-0.166017 0.000146313 0.986123 0
-0.166499 9.5293e-05 0.986042 0
-0.164973 0.000401875 0.986298 0
-0.154935 0.00133658 0.987924 0
-0.155415 0.00190703 0.987847 0
-0.1625 0.00126148 0.986708 0
-0.158626 0.0010884 0.987338 0
-0.162772 0.000332645 0.986664 0
-0.166296 -6.1027e-05 0.986076 0
-0.169922 0.000607814 0.985457 0
-0.173237 0.000853723 0.98488 0
-0.160412 0.0020831 0.987048 0
-0.15342 0.00219734 0.988159 0
-0.139657 0.0023536 0.990197 0
-0.129812 0.00342926 0.991533 0
-0.129872 0.00347916 0.991525 0
-0.133352 0.00405348 0.99106 0
-0.136681 0.00451054 0.990605 0
-0.153794 0.00519271 0.988089 0
-0.160957 0.0061577 0.986942 0
-0.157912 0.00673881 0.98743 0
-0.146023 0.00663156 0.989259 0
-0.140181 0.0072074 0.9901 0
-0.134908 0.00775076 0.990828 0
-0.127735 0.00956628 0.991762 0
-0.133505 0.0105155 0.990992 0
-0.145025 0.0114989 0.989361 0
-0.164632 0.0123615 0.986278 0
-0.168504 0.0128612 0.985617 0
-0.175164 0.0137506 0.984443 0
-0.176665 0.0146113 0.984163 0
-0.170459 0.0152988 0.985246 0
-0.16668 0.016074 0.98588 0
-0.162997 0.0171807 0.986477 0
-0.168417 0.0189834 0.985533 0
-0.171212 0.0199762 0.985032 0
-0.178261 0.0217407 0.983743 0
-0.184728 0.0224115 0.982534 0
-0.190418 0.0231997 0.981429 0
-0.1876 0.0241581 0.981948 0
-0.183852 0.0251581 0.982632 0
-0.176966 0.0263671 0.983864 0
-0.16525 0.0281493 0.98585 0
-0.164743 0.0305968 0.985862 0
-0.152999 0.0316495 0.987719 0
-0.155174 0.0344101 0.987288 0
-0.163167 0.0364967 0.985923 0
-0.171104 0.038791 0.984489 0
-0.180576 0.0399946 0.982747 0
-0.182747 0.0405302 0.982324 0
-0.175478 0.0408266 0.983636 0
-0.181797 0.0406555 0.982495 0
-0.180423 0.0412054 0.982726 0
-0.176546 0.0418044 0.983404 0
-0.180986 0.0437985 0.98251 0
-0.195526 0.0449736 0.979667 0
-0.199912 0.0460421 0.978731 0
-0.205169 0.0474669 0.977575 0
-0.205692 0.0482445 0.977427 0
-0.200902 0.0494426 0.978363 0
-0.197375 0.0518173 0.978958 0
-0.191972 0.0524212 0.979999 0
-0.189057 0.0542281 0.980468 0
-0.180423 0.0539747 0.982107 0
-0.181557 0.0556744 0.981803 0
-0.187868 0.0575083 0.980509 0
-0.195494 0.0599548 0.978871 0
-0.189464 0.0606164 0.980015 0
-0.190013 0.0614801 0.979855 0
-0.179988 0.0617023 0.981732 0
-0.178002 0.0632327 0.981996 0
-0.178191 0.0644931 0.98188 0
-0.181507 0.0678876 0.981044 0
-0.179176 0.0691158 0.981386 0
-0.187123 0.0719265 0.9797 0
-0.192618 0.0745053 0.978441 0
-0.196441 0.0760708 0.97756 0
-0.195927 0.075026 0.977744 0
-0.191099 0.0769395 0.978551 0
-0.189646 0.0791126 0.97866 0
-0.188677 0.0810007 0.978693 0
-0.187092 0.0814365 0.978961 0
-0.185169 0.0836367 0.979141 0
-0.185054 0.0862855 0.978933 0
-0.191317 0.0888398 0.9775 0
-0.19797 0.093298 0.975758 0
-0.18602 0.095241 0.977919 0
-0.189291 0.0976651 0.977052 0
-0.190244 0.0995077 0.976681 0
-0.195752 0.103035 0.975226 0
-0.189894 0.104852 0.97619 0
-0.189044 0.106753 0.976149 0
-0.188342 0.108711 0.976068 0
-0.190868 0.113255 0.97506 0
-0.186646 0.114514 0.97573 0
-0.1896 0.118057 0.974738 0
-0.188037 0.12052 0.974739 0
-0.183892 0.121405 0.97542 0
-0.183891 0.122929 0.97523 0
-0.178576 0.124178 0.976059 0
-0.177612 0.127694 0.975781 0
-0.17812 0.130218 0.975355 0
-0.177433 0.134581 0.974887 0
-0.177122 0.138216 0.974435 0
-0.180996 0.142463 0.973111 0
-0.18354 0.14335 0.972504 0
-0.187329 0.145576 0.97145 0
-0.187021 0.147862 0.971164 0
-0.190327 0.153566 0.969635 0.00457347
-0.193163 0.159433 0.968127 0.00706663
-0.191596 0.160392 0.96828 0.00650453
-0.177629 -0.145726 0.973248 0
-0.177247 -0.141187 0.973987 0
-0.174193 -0.132021 0.975821 0
-0.181085 -0.12798 0.975105 0
-0.181358 -0.126651 0.975227 0
-0.180312 -0.125448 0.975577 0
-0.178049 -0.123459 0.976246 0
-0.179376 -0.124121 0.975919 0
-0.183494 -0.123209 0.975269 0
-0.181234 -0.11989 0.976105 0
-0.183902 -0.117876 0.975851 0
-0.185057 -0.119433 0.975443 0.00246584
-0.186683 -0.118089 0.975297 0.00177497
-0.187043 -0.115226 0.975571 0.00289514
-0.183322 -0.110692 0.976801 0.000752538
-0.185947 -0.108385 0.976564 0.000998223
-0.183709 -0.106206 0.977226 0.000218047
-0.178554 -0.101955 0.978634 0
-0.180573 -0.09918 0.978548 0
-0.173984 -0.0953075 0.980126 0
-0.170929 -0.092909 0.980893 0
-0.165796 -0.0874889 0.982271 0
-0.161178 -0.0830953 0.983421 0
-0.165192 -0.083061 0.982758 0
-0.17093 -0.0824754 0.981825 0
-0.175154 -0.0815067 0.981161 0
-0.177614 -0.0795844 0.980877 0
-0.175036 -0.0774235 0.981513 0
-0.176619 -0.0747456 0.981437 0
-0.167509 -0.0698361 0.983394 0
-0.165093 -0.0680774 0.983926 0
-0.164651 -0.0666449 0.984098 0
-0.160613 -0.0654896 0.984842 0
-0.159367 -0.0650823 0.985072 0
-0.166996 -0.0653206 0.983791 0
-0.161128 -0.0617853 0.984998 0
-0.158616 -0.0608544 0.985463 0
-0.160337 -0.0603528 0.985216 0
-0.160113 -0.060597 0.985237 0
-0.150874 -0.0575714 0.986875 0
-0.158487 -0.0568099 0.985725 0
-0.155828 -0.0556299 0.986216 0
-0.153214 -0.05449 0.986689 0
-0.155842 -0.052839 0.986368 0
-0.154981 -0.0523604 0.986529 0
-0.160308 -0.0505932 0.98577 0
-0.159647 -0.0482673 0.985994 0
-0.161437 -0.0467662 0.985774 0
-0.170195 -0.0493117 0.984176 0
-0.174235 -0.0489931 0.983485 0
-0.173073 -0.0487254 0.983703 0
-0.178279 -0.0486428 0.982777 0
-0.178564 -0.048665 0.982724 0
-0.17587 -0.0478233 0.983251 0
-0.173805 -0.047989 0.98361 0
-0.16956 -0.0463684 0.984428 0
-0.167091 -0.045234 0.984903 0
-0.166168 -0.0448299 0.985078 0
-0.167614 -0.0439994 0.98487 0
-0.175375 -0.0418816 0.98361 0
-0.181492 -0.0423619 0.98248 0
-0.188635 -0.0431284 0.9811 0
-0.181402 -0.042396 0.982495 0
-0.169524 -0.0416885 0.984644 0
-0.161221 -0.0415299 0.986044 0
-0.157357 -0.0407054 0.986703 0
-0.147322 -0.0375676 0.988375 0
-0.136215 -0.0343035 0.990085 0
-0.140649 -0.0331055 0.989506 0
-0.142795 -0.0314099 0.989254 0
-0.149942 -0.0300573 0.988238 0
-0.15461 -0.0261182 0.98763 0
-0.157431 -0.0255833 0.987199 0
-0.155442 -0.0241805 0.987549 0
-0.153095 -0.0234022 0.987934 0
-0.152174 -0.0231686 0.988082 0
-0.152285 -0.0234547 0.988058 0
-0.146487 -0.0206521 0.988997 0
-0.150741 -0.0196053 0.988379 0
-0.154466 -0.0189638 0.987816 0
-0.16194 -0.0175211 0.986645 0
-0.159667 -0.0162775 0.987037 0
-0.157327 -0.015815 0.98742 0
-0.157441 -0.0146875 0.987419 0
-0.153279 -0.0126738 0.988102 0
-0.147081 -0.0127461 0.989042 0
-0.140607 -0.0117802 0.989995 0
-0.13737 -0.0110486 0.990458 0
-0.140171 -0.0106504 0.99007 0
-0.141128 -0.0107833 0.989933 0
-0.149399 -0.0102011 0.988724 0.00259922
-0.151208 -0.0102537 0.988449 0.000566474
-0.149387 -0.00974008 0.988731 0.00288233
-0.160497 -0.0078425 0.987005 0.00220606
-0.165077 -0.00867781 0.986243 0.0056919
-0.155445 -0.00679744 0.987821 0
-0.153359 -0.00708415 0.988145 0.00236148
-0.157061 -0.00655912 0.987567 0.00504031
-0.154552 -0.00575793 0.987968 0.00299885
-0.163893 -0.00583853 0.986461 0.00747962
-0.168166 -0.00539859 0.985744 0.00751025
-0.169411 -0.00533175 0.985531 0.0065626
-0.17757 -0.00512804 0.984095 0.00922769
-0.183951 -0.00502056 0.982923 0.0125244
-0.189653 -0.00444276 0.981841 0.0165325
-0.186245 -0.00347568 0.982497 0.0170134
-0.183963 -0.00250745 0.98293 0.0192537
-0.186079 -0.0027552 0.982531 0.0194264
-0.189353 -0.00227773 0.981906 0.0202312
-0.182398 -0.00181542 0.983223 0.0121843
-0.182858 -0.00192331 0.983137 0.0116399
-0.182431 -0.0010619 0.983218 0.0124933
-0.180951 -0.000212927 0.983492 0.011449
-0.188109 0.000100696 0.982148 0.0133284
-0.188015 -2.51344e-05 0.982166 0.0127672
-0.191056 0.000439371 0.981579 0.0102518
-0.191209 0.000383446 0.981549 0.00643515
-0.17569 0.000919845 0.984445 0.00399583
-0.169039 0.00188586 0.985607 0
-0.171474 0.00240208 0.985186 0
-0.173307 0.00239762 0.984865 0
-0.171656 0.00274694 0.985153 0
-0.162775 0.00319589 0.986658 0
-0.16425 0.00485199 0.986407 0
-0.162825 0.0050172 0.986642 0
-0.172795 0.00377992 0.984951 0
-0.17398 0.00342992 0.984743 0
-0.177896 0.00377042 0.984042 0
-0.176122 0.00395681 0.98436 0
-0.173974 0.00396924 0.984742 0
-0.176455 0.00346629 0.984303 0
-0.179356 0.0029191 0.98378 0
-0.185203 0.00184357 0.982699 0
-0.190216 0.00093292 0.981742 0
-0.185572 0.00147405 0.982629 0
-0.183168 0.00160345 0.98308 0
-0.190796 0.000649483 0.981629 0.00225021
-0.208449 -0.00049506 0.978033 0.0154576
-0.211162 -0.000935002 0.977451 0.0136265
-0.211279 -0.00143255 0.977425 0.0162839
-0.204812 -0.0012487 0.9788 0.01624
-0.199563 -0.000398429 0.979885 0.0122999
-0.186729 -0.000754851 0.982411 0.00555966
-0.182644 -0.00114912 0.983178 0.00209338
-0.178766 -0.00130352 0.983891 0
-0.175686 -0.0013349 0.984445 0
-0.163327 -0.00116094 0.986571 0
-0.156531 -0.00115174 0.987672 0
-0.156823 -0.000293964 0.987627 0
-0.157684 -0.000315449 0.98749 0
-0.155651 -0.0002975 0.987812 0
-0.152847 0.000684213 0.98825 0
-0.141624 0.00097611 0.98992 0
-0.139654 0.0010513 0.9902 0
-0.139673 0.000589968 0.990197 0
-0.142577 0.00115463 0.989783 0
-0.146585 0.000516528 0.989198 0
-0.151595 0.000845088 0.988442 0
-0.149968 0.000973499 0.98869 0
-0.152525 0.000452037 0.988299 0
-0.151904 0.000373582 0.988395 0
-0.152373 0.000885307 0.988323 0
-0.151219 0.00140201 0.988499 0
-0.147939 0.00200019 0.988994 0
-0.138193 0.00321437 0.9904 0
-0.143925 0.00285144 0.989584 0
-0.149833 0.00133713 0.98871 0
-0.15231 0.00110352 0.988332 0
-0.157188 0.00161265 0.987567 0
-0.155903 0.00292825 0.987768 0
-0.153086 0.00340092 0.988207 0
-0.145169 0.00382438 0.989399 0
-0.140334 0.00436342 0.990095 0
-0.134593 0.00429049 0.990892 0
-0.131812 0.00418914 0.991266 0
-0.133612 0.00349025 0.991027 0
-0.142628 0.00428228 0.989767 0
-0.149379 0.00554113 0.988765 0
-0.14546 0.00627939 0.989344 0
-0.142459 0.00771725 0.989771 0
-0.138865 0.00754206 0.990283 0
-0.132226 0.00879308 0.991181 0
-0.121725 0.0094139 0.992519 0
-0.12406 0.0102835 0.992221 0
-0.141049 0.0106078 0.989946 0
-0.152704 0.0116616 0.988203 0
-0.159167 0.0127476 0.987169 0
-0.164388 0.0140026 0.986296 0
-0.171218 0.0147543 0.985123 0
-0.173707 0.0153527 0.984678 0
-0.164478 0.0154748 0.986259 0
-0.161498 0.016018 0.986743 0
-0.157506 0.0171206 0.98737 0
-0.155361 0.0177064 0.987699 0
-0.156658 0.0194131 0.987462 0
-0.164409 0.0205279 0.986179 0
-0.172452 0.0223856 0.984764 0
-0.176581 0.0233211 0.98401 0
-0.174149 0.0245383 0.984414 0
-0.172188 0.0256941 0.984729 0
-0.164341 0.0265164 0.986047 0
-0.159151 0.0272241 0.986879 0
-0.153177 0.0286796 0.987783 0
-0.153999 0.0309803 0.987585 0
-0.159649 0.0328388 0.986627 0
-0.170369 0.0348537 0.984764 0
-0.177109 0.0369599 0.983497 0
-0.178744 0.0381628 0.983155 0
-0.178403 0.0397059 0.983156 0
-0.188088 0.040052 0.981335 0
-0.18572 0.0399605 0.98179 0
-0.180224 0.0408476 0.982777 0
-0.173116 0.041928 0.984009 0
-0.175775 0.0429644 0.983492 0
-0.180077 0.043517 0.98269 0
-0.177979 0.0445185 0.983027 0
-0.186974 0.0460287 0.981286 0
-0.190747 0.0473135 0.980498 0
-0.192766 0.0484943 0.980046 0
-0.187218 0.0504295 0.981023 0
-0.178831 0.0509366 0.98256 0
-0.175629 0.0512307 0.983122 0
-0.176007 0.0521634 0.983006 0
-0.176284 0.0530033 0.982911 0
-0.171186 0.0550347 0.9837 0
-0.163557 0.0564077 0.98492 0
-0.168285 0.0588151 0.983982 0
-0.170238 0.0613796 0.98349 0
-0.177478 0.0633996 0.982081 0
-0.175824 0.0644977 0.982306 0
-0.184813 0.0657348 0.980573 0
-0.179472 0.0658366 0.981558 0
-0.178471 0.0669672 0.981664 0
-0.178005 0.069865 0.981546 0
-0.18944 0.0726718 0.979199 0
-0.198428 0.0756908 0.977188 0
-0.199336 0.0774039 0.976869 0
-0.200957 0.0791992 0.976393 0
-0.19753 0.0806161 0.976977 0
-0.188424 0.0803997 0.978791 0
-0.194667 0.0843436 0.977236 0.0046497
-0.18465 0.0835709 0.979245 0.00159128
-0.182729 0.0858099 0.979411 0.00492386
-0.187189 0.0883152 0.978346 0
-0.185188 0.0896111 0.978609 0
-0.190285 0.0966162 0.976963 0
-0.195621 0.100092 0.975558 0
-0.197148 0.101701 0.975084 0
-0.194364 0.103193 0.975487 0
-0.185878 0.105673 0.976874 0
-0.182796 0.106129 0.977406 0
-0.185372 0.109884 0.976505 0
-0.181787 0.110579 0.977101 0
-0.178657 0.113015 0.977399 0
-0.178769 0.115906 0.97704 0
-0.176825 0.117867 0.977159 0
-0.171065 0.119594 0.977974 0
-0.176402 0.122265 0.976695 0
-0.17612 0.125869 0.976288 0
-0.174813 0.127214 0.976349 0
