# .PCD v0.7 - Point Cloud Data file format
VERSION 0.7
FIELDS x y z
SIZE 4 4 4
TYPE F F F
COUNT 1 1 1
WIDTH 1464
HEIGHT 1
VIEWPOINT 0 0 0 1 0 0 0
POINTS 1464
DATA ascii
-0.087242 0.13192201 -0.22650599
-0.087238997 0.131992 -0.226522
-0.087236002 0.132062 -0.226513
-0.087233998 0.13213401 -0.226505
-0.087231003 0.132204 -0.226505
-0.087228 0.132274 -0.22651701
-0.087223999 0.132342 -0.22653399
-0.087220997 0.132413 -0.226542
-0.087218001 0.13248301 -0.22655
-0.087214001 0.132551 -0.226577
-0.087210998 0.13262001 -0.226597
-0.087208003 0.13269 -0.226605
-0.087205 0.13276 -0.22661
-0.087200999 0.13282999 -0.226624
-0.087196998 0.132899 -0.22665399
-0.087192997 0.132967 -0.226684
-0.087190002 0.133038 -0.22669899
-0.087187 0.133108 -0.226705
-0.087183997 0.133178 -0.226703
-0.087182 0.133248 -0.226694
-0.087178998 0.13331901 -0.22668999
-0.087174997 0.133388 -0.226714
-0.087172002 0.133458 -0.226734
-0.087168999 0.13352799 -0.226735
-0.087167002 0.133598 -0.226725
-0.087164 0.13367 -0.226713
-0.087162003 0.13373999 -0.22671001
-0.087159 0.13381 -0.226716
-0.087155998 0.13388 -0.22672801
-0.087151997 0.13395 -0.22674499
-0.087149002 0.134021 -0.226753
-0.087145999 0.134091 -0.226757
-0.087142996 0.134161 -0.226769
-0.087140001 0.134231 -0.226778
-0.087136999 0.13430101 -0.22678
-0.087134004 0.134371 -0.22679
-0.087131001 0.134441 -0.226797
-0.087127998 0.13451099 -0.226803
-0.087125003 0.134581 -0.226799
-0.087122001 0.13465101 -0.226805
-0.087118 0.13472199 -0.226826
-0.087114997 0.13479 -0.22684599
-0.087112002 0.13486201 -0.22685
-0.087109998 0.134932 -0.226831
-0.087108001 0.135003 -0.226807
-0.087105997 0.135075 -0.226799
-0.087103002 0.13514499 -0.226795
-0.087100998 0.135215 -0.226796
-0.087096997 0.135285 -0.22680999
-0.087094001 0.135354 -0.226832
-0.087090001 0.135426 -0.226843
-0.087087996 0.13549601 -0.22683901
-0.087085001 0.135566 -0.226835
-0.087081999 0.135636 -0.226836
-0.087080002 0.13570599 -0.22683799
-0.087076001 0.135776 -0.226854
-0.087072998 0.135846 -0.22687
-0.087070003 0.13591801 -0.226869
-0.087067999 0.135988 -0.22685701
-0.087064996 0.136058 -0.22685499
-0.087062001 0.13612799 -0.22687399
-0.087058999 0.136198 -0.22688
-0.087056004 0.13627 -0.22687399
-0.087053001 0.13634001 -0.22687399
-0.087050997 0.13641 -0.22687501
-0.087047003 0.13648 -0.22688299
-0.087043002 0.13655099 -0.226909
-0.08704 0.136621 -0.226934
-0.087036997 0.136691 -0.226934
-0.087034002 0.13676099 -0.226936
-0.087030999 0.136832 -0.226944
-0.087027997 0.136902 -0.226945
-0.087026 0.13697299 -0.226927
-0.087024003 0.137043 -0.226917
-0.087021001 0.137113 -0.226928
-0.087017 0.137183 -0.226942
-0.087013997 0.137254 -0.226954
-0.087012 0.137325 -0.22694799
-0.087010004 0.13739499 -0.226935
-0.087006003 0.137465 -0.226951
-0.087002002 0.137536 -0.226971
-0.086999997 0.13760599 -0.226972
-0.086997002 0.137678 -0.226974
-0.086994 0.137748 -0.22697601
-0.086990997 0.13781799 -0.226978
-0.086988002 0.137888 -0.226987
-0.086984999 0.13795801 -0.226991
-0.086981997 0.13802999 -0.226987
-0.08698 0.1381 -0.226972
-0.086978003 0.13816901 -0.22696
-0.086975999 0.13824099 -0.226954
-0.086971998 0.138311 -0.22696599
-0.086969003 0.138382 -0.22698499
-0.086966 0.13845199 -0.226989
-0.086963996 0.138522 -0.226979
-0.086962 0.138593 -0.22696
-0.086958997 0.13866299 -0.22695599
-0.086956002 0.138735 -0.22696
-0.086953998 0.138805 -0.226962
-0.086951002 0.13887499 -0.226969
-0.086948 0.138945 -0.22696701
-0.086944997 0.139015 -0.22696701
-0.086942002 0.13908701 -0.22696801
-0.086939998 0.139157 -0.22696
-0.086937003 0.139227 -0.22695801
-0.086934 0.13929901 -0.226964
-0.086930998 0.139369 -0.22696701
-0.086929001 0.139439 -0.22696701
-0.086925998 0.13950901 -0.226961
-0.086924002 0.13958 -0.22695
-0.086921997 0.13965 -0.226942
-0.086919002 0.139722 -0.226932
-0.086916998 0.139792 -0.22693001
-0.086914003 0.139862 -0.226927
-0.086911999 0.13993099 -0.226917
-0.086909004 0.140003 -0.226915
-0.086906999 0.140073 -0.226916
-0.086905003 0.140145 -0.226886
-0.086905003 0.140214 -0.226834
-0.086902998 0.140283 -0.226815
-0.086900003 0.14035501 -0.226831
-0.086896002 0.140424 -0.226861
-0.086892001 0.140496 -0.226881
-0.086888999 0.14056601 -0.22688
-0.086887002 0.140636 -0.226868
-0.086884998 0.140708 -0.226858
-0.086883001 0.14077701 -0.226841
-0.086879998 0.140847 -0.226835
-0.086877003 0.140917 -0.22684699
-0.086874001 0.14098801 -0.226862
-0.086870998 0.14105999 -0.226864
-0.086868003 0.14113 -0.22685599
-0.086865999 0.14119899 -0.22685
-0.086863004 0.141269 -0.226853
-0.086860999 0.141341 -0.226843
-0.086857997 0.14141101 -0.226845
-0.086855002 0.141481 -0.226852
-0.086852998 0.141551 -0.226844
-0.086851001 0.14162301 -0.226826
-0.086848997 0.141692 -0.22679999
-0.086847 0.141762 -0.22678301
-0.086845003 0.14183199 -0.22678301
-0.086842 0.141904 -0.226779
-0.086838998 0.141973 -0.226778
-0.086836003 0.14204399 -0.22679
-0.086833 0.142114 -0.226794
-0.086831003 0.142185 -0.226779
-0.086829998 0.14225499 -0.226753
-0.086828001 0.142324 -0.22672699
-0.086825997 0.14239401 -0.226725
-0.086822003 0.14246599 -0.226744
-0.086818002 0.142537 -0.226762
-0.086815 0.142607 -0.226772
-0.086811997 0.14267699 -0.226771
-0.08681 0.142747 -0.226759
-0.086809002 0.142818 -0.226733
-0.086805999 0.14288799 -0.226725
-0.086802997 0.142958 -0.226748
-0.086797997 0.143029 -0.22678401
-0.086795002 0.14310101 -0.22679
-0.086792998 0.143171 -0.226771
-0.086791001 0.14324 -0.226759
-0.086788997 0.14331 -0.22675499
-0.086786002 0.143382 -0.22675499
-0.086782999 0.143452 -0.22676
-0.086779997 0.14352199 -0.22676
-0.086778 0.143592 -0.226758
-0.086774997 0.143664 -0.226763
-0.086772002 0.14373399 -0.226759
-0.086769998 0.143804 -0.22674499
-0.086768001 0.14387301 -0.22673
-0.086764999 0.143943 -0.22673
-0.086760998 0.144016 -0.22675
-0.086758003 0.144086 -0.22675601
-0.086755998 0.14415599 -0.22674499
-0.086754002 0.144225 -0.22673699
-0.086750001 0.144298 -0.22675499
-0.086746998 0.14436799 -0.226777
-0.086744003 0.144438 -0.22678
-0.086741 0.144508 -0.22677401
-0.086739004 0.14458001 -0.22677
-0.086736999 0.14465 -0.22675499
-0.086735003 0.144719 -0.22673699
-0.086732 0.144789 -0.22672901
-0.086730003 0.144859 -0.226726
-0.086727001 0.144931 -0.22672001
-0.086724997 0.14500099 -0.22671799
-0.086721003 0.145071 -0.22673599
-0.086717002 0.145144 -0.226761
-0.086714 0.14521401 -0.226771
-0.086712003 0.145284 -0.22676501
-0.086709 0.145353 -0.226758
-0.086707003 0.14542501 -0.22675399
-0.086704001 0.145495 -0.22674599
-0.086701997 0.145565 -0.22673599
-0.0867 0.14563499 -0.226733
-0.086695999 0.145707 -0.22674701
-0.086692996 0.145777 -0.226763
-0.086690001 0.14584699 -0.226762
-0.086687997 0.145917 -0.226748
-0.086686 0.145988 -0.22672001
-0.086685002 0.146056 -0.226703
-0.086681999 0.146128 -0.226695
-0.086678997 0.146198 -0.22670101
-0.086676002 0.146268 -0.226707
-0.086673997 0.14634 -0.226702
-0.086671002 0.14641 -0.226696
-0.086668998 0.146479 -0.226678
-0.086667001 0.146549 -0.226677
-0.086663 0.14661901 -0.226689
-0.086661004 0.14669099 -0.226679
-0.086659998 0.14675801 -0.22665399
-0.086658001 0.14683001 -0.226638
-0.086655997 0.1469 -0.22661801
-0.086654 0.14696699 -0.226597
-0.086650997 0.147039 -0.226605
-0.086648002 0.14711 -0.226623
-0.086645 0.147182 -0.226625
-0.086641997 0.147251 -0.22662
-0.08664 0.147321 -0.22660001
-0.086639002 0.14738999 -0.22656401
-0.086636998 0.147458 -0.226555
-0.086634003 0.14753 -0.22656099
-0.086631998 0.1476 -0.226547
-0.086630002 0.147669 -0.226528
-0.086627997 0.14773899 -0.226528
-0.086625002 0.147809 -0.226532
-0.086622 0.147881 -0.226522
-0.086620003 0.147949 -0.226511
-0.086617999 0.148018 -0.22649699
-0.086617 0.14808799 -0.226459
-0.086617 0.148155 -0.226422
-0.086613998 0.14822599 -0.22641601
-0.086611003 0.148297 -0.22643
-0.086608 0.148367 -0.226439
-0.086604998 0.14843901 -0.226423
-0.086603999 0.148506 -0.22640499
-0.086600997 0.148578 -0.22640599
-0.086598001 0.14864799 -0.22641
-0.086595997 0.148718 -0.22639599
-0.086594 0.14878701 -0.226375
-0.086592004 0.148855 -0.22635899
-0.086589999 0.148927 -0.226357
-0.086586997 0.14899699 -0.226349
-0.086586997 0.149064 -0.22631
-0.086585999 0.149133 -0.226274
-0.086583003 0.149203 -0.226273
-0.086580001 0.14927299 -0.22628701
-0.086576998 0.149345 -0.226291
-0.086575001 0.149413 -0.22627699
-0.086572997 0.149482 -0.22624999
-0.086571999 0.14954901 -0.22622
-0.086570002 0.149619 -0.22620399
-0.086567 0.149691 -0.22620501
-0.086563997 0.14976101 -0.226209
-0.086562 0.149831 -0.22620501
-0.086560003 0.149901 -0.22618601
-0.086557999 0.14997 -0.22616801
-0.086556002 0.15004 -0.22616
-0.086553998 0.15010799 -0.226151
-0.086553 0.150177 -0.226109
-0.086553 0.150241 -0.22604901
-0.086552002 0.150309 -0.226016
-0.086549997 0.150378 -0.226008
-0.086548001 0.15044799 -0.225995
-0.086544998 0.150518 -0.225989
-0.086542003 0.15058801 -0.225997
-0.086539999 0.150658 -0.225979
-0.086539 0.15072501 -0.22594599
-0.086538002 0.150794 -0.225922
-0.086537004 0.150861 -0.225881
-0.086537004 0.15092801 -0.225841
-0.086534001 0.150998 -0.225843
-0.08653 0.151069 -0.22585601
-0.086528003 0.15113799 -0.22584599
-0.086526997 0.151208 -0.225822
-0.086525001 0.15127499 -0.225803
-0.086521998 0.151347 -0.225803
-0.086519003 0.151417 -0.22580899
-0.086516 0.15148699 -0.225811
-0.086512998 0.15155999 -0.225826
-0.086507998 0.15163299 -0.22587
-0.086503997 0.151705 -0.225894
-0.086499996 0.151778 -0.225912
-0.086497001 0.15185 -0.22592901
-0.086493999 0.15192001 -0.225925
-0.086491004 0.15199 -0.22593699
-0.086487003 0.15206499 -0.22596499
-0.086483002 0.152137 -0.22598401
-0.086479001 0.15221 -0.22601201
-0.086475 0.152282 -0.226034
-0.086471997 0.15235201 -0.22603799
-0.08647 0.152422 -0.22603101
-0.086466998 0.152492 -0.22602101
-0.086465001 0.15256201 -0.226019
-0.086461999 0.152631 -0.226009
-0.086460002 0.15270101 -0.22600199
-0.086457998 0.152771 -0.226
-0.086455002 0.152841 -0.22599401
-0.086452998 0.15291101 -0.225981
-0.086451001 0.15298 -0.22596499
-0.086448997 0.15304799 -0.225943
-0.086447001 0.153117 -0.225934
-0.086443998 0.15319 -0.22595
-0.086439997 0.153262 -0.22597399
-0.086436003 0.15333501 -0.22599199
-0.086433001 0.153405 -0.22600301
-0.086429998 0.153477 -0.22601099
-0.086425997 0.153549 -0.22602899
-0.086423002 0.15361901 -0.226033
-0.08642 0.15369201 -0.22604001
-0.086415999 0.15376399 -0.226054
-0.086413004 0.153834 -0.22606
-0.086410001 0.153906 -0.22606599
-0.086406998 0.15397599 -0.226073
-0.086404003 0.154048 -0.226079
-0.086401001 0.154118 -0.226083
-0.086397 0.154193 -0.226107
-0.086392 0.154268 -0.22614799
-0.086388998 0.15434 -0.22617
-0.086384997 0.154413 -0.226188
-0.087357998 0.12726299 -0.226781
-0.087355003 0.127331 -0.226805
-0.087352 0.12740099 -0.226814
-0.087350003 0.127473 -0.226794
-0.087350003 0.12754899 -0.22671799
-0.087348998 0.12762199 -0.226684
-0.087347001 0.12769599 -0.22666299
-0.087346002 0.127767 -0.226639
-0.087343998 0.127841 -0.226611
-0.087342001 0.12791 -0.226605
-0.087338999 0.12798101 -0.226612
-0.087335996 0.12805 -0.226606
-0.087334 0.128124 -0.226584
-0.087333001 0.128197 -0.22655299
-0.087332003 0.128268 -0.226521
-0.087329999 0.12834001 -0.22650699
-0.087328002 0.12841199 -0.226487
-0.087325998 0.128483 -0.226478
-0.087321997 0.128554 -0.22648799
-0.087319002 0.128622 -0.2265
-0.087316997 0.128691 -0.22648899
-0.087315999 0.128767 -0.22645099
-0.087315001 0.12884 -0.226411
-0.087314002 0.128911 -0.226377
-0.087311998 0.12898301 -0.226362
-0.087310001 0.129054 -0.226346
-0.087307997 0.129127 -0.226316
-0.087306999 0.129199 -0.22628
-0.087306 0.129272 -0.226255
-0.087304004 0.129343 -0.226229
-0.087301999 0.12941299 -0.22621299
-0.087298997 0.129485 -0.22621401
-0.087297 0.129555 -0.226202
-0.087295003 0.12962601 -0.226188
-0.087292001 0.129696 -0.226192
-0.087288998 0.129765 -0.22620299
-0.087286003 0.12983499 -0.226211
-0.087283 0.129903 -0.226221
-0.087278999 0.12997299 -0.22623201
-0.087277003 0.130043 -0.226236
-0.087274 0.13011301 -0.22623
-0.087270997 0.130183 -0.22623099
-0.087268002 0.130253 -0.226243
-0.087265 0.13032299 -0.22624899
-0.087261997 0.130391 -0.22625101
-0.087259002 0.13046201 -0.226262
-0.087255001 0.13053 -0.226282
-0.087251998 0.13060001 -0.226298
-0.087247998 0.130669 -0.226317
-0.087245002 0.13073701 -0.226329
-0.087242 0.130807 -0.22633301
-0.087238997 0.130877 -0.22634199
-0.087236002 0.13094699 -0.22635201
-0.087233 0.131018 -0.22635999
-0.087228999 0.13108601 -0.226381
-0.087224998 0.131153 -0.226411
-0.087222002 0.13122299 -0.226429
-0.087219 0.131293 -0.22642501
-0.087215997 0.131363 -0.226436
-0.087211996 0.131432 -0.226458
-0.087209001 0.131502 -0.226466
-0.087205999 0.13157199 -0.226469
-0.087203003 0.13164 -0.22647899
-0.087200001 0.13170999 -0.226493
-0.087196998 0.13178 -0.226492
-0.087194003 0.13185 -0.226492
-0.087191001 0.13191999 -0.22650801
-0.087187998 0.131991 -0.22651599
-0.087185003 0.132061 -0.226515
-0.087182 0.132131 -0.226515
-0.087178998 0.132201 -0.226519
-0.087176003 0.13227101 -0.226532
-0.087173 0.132339 -0.22655
-0.087168999 0.13240901 -0.22656199
-0.087165996 0.13248 -0.22657201
-0.087163001 0.132548 -0.22658899
-0.087159 0.132618 -0.226605
-0.087155998 0.132688 -0.22660699
-0.087154001 0.13275801 -0.226604
-0.08715 0.132829 -0.226622
-0.087145999 0.132897 -0.22665
-0.087141998 0.132966 -0.226679
-0.087139003 0.133036 -0.226693
-0.087136 0.13310599 -0.22669899
-0.087132998 0.133176 -0.226695
-0.087131001 0.133246 -0.22668201
-0.087127998 0.13331801 -0.226686
-0.087125003 0.133386 -0.226706
-0.087121002 0.13345601 -0.22671901
-0.087118 0.133527 -0.226725
-0.087116003 0.133597 -0.226723
-0.087113 0.13366801 -0.226712
-0.087111004 0.133738 -0.226702
-0.087108001 0.133808 -0.226712
-0.087104 0.13387901 -0.22672801
-0.087100998 0.133949 -0.226741
-0.087098002 0.134019 -0.22674499
-0.087095 0.13408899 -0.22674701
-0.087091997 0.134159 -0.226758
-0.087089002 0.134229 -0.226762
-0.087086998 0.134299 -0.226762
-0.087082997 0.134369 -0.226772
-0.087080002 0.13443799 -0.226795
-0.087076001 0.134508 -0.22681101
-0.087072998 0.134578 -0.226817
-0.087070003 0.134648 -0.226818
-0.087067001 0.13472 -0.226826
-0.087063998 0.134789 -0.22684
-0.087061003 0.13486101 -0.22684
-0.087058999 0.13493 -0.22682901
-0.087057002 0.135002 -0.22681101
-0.087054998 0.13507099 -0.226795
-0.087052003 0.135143 -0.226794
-0.087049 0.135214 -0.22680999
-0.087044999 0.13528199 -0.226826
-0.087041996 0.135352 -0.226842
-0.087039001 0.135423 -0.226853
-0.087035999 0.135492 -0.226845
-0.087034002 0.135564 -0.226833
-0.087030999 0.13563401 -0.226834
-0.087029003 0.135704 -0.22683001
-0.087026 0.135776 -0.22683799
-0.087021999 0.13584401 -0.22685701
-0.087018996 0.13591699 -0.226859
-0.087017 0.135986 -0.226849
-0.087013997 0.13605601 -0.226853
-0.087011002 0.136127 -0.22687
-0.087007001 0.136197 -0.226882
-0.087004997 0.13626701 -0.22688
-0.087002002 0.13633899 -0.226873
-0.086999997 0.136408 -0.226863
-0.086997002 0.13647901 -0.22687501
-0.086992003 0.136549 -0.226909
-0.086988002 0.13662 -0.22693799
-0.086984999 0.13669001 -0.226942
-0.086981997 0.13676 -0.22694799
-0.086979002 0.13683 -0.22695699
-0.086975999 0.13689999 -0.226963
-0.086974002 0.13697 -0.22695699
-0.086971 0.137042 -0.226945
-0.086969003 0.13711201 -0.226942
-0.086966 0.137182 -0.226944
-0.086962998 0.137252 -0.226946
-0.086961001 0.13732401 -0.226945
-0.086957999 0.137394 -0.22693899
-0.086955003 0.137464 -0.226943
-0.086952001 0.13753401 -0.22695699
-0.086948998 0.137604 -0.22696599
-0.086944997 0.137676 -0.22697601
-0.086942002 0.13774601 -0.22698
-0.086939998 0.137816 -0.226979
-0.086937003 0.137886 -0.226979
-0.086934 0.13795599 -0.22698499
-0.086932003 0.138028 -0.22697499
-0.086929999 0.138098 -0.226952
-0.086928003 0.13816699 -0.22694799
-0.086924002 0.13823999 -0.226964
-0.086920999 0.13831 -0.226971
-0.086917996 0.13838001 -0.226979
-0.086915001 0.13845 -0.22697701
-0.086912997 0.13852 -0.22696701
-0.086911 0.13859101 -0.22695
-0.086909004 0.138661 -0.22694001
-0.086906001 0.138733 -0.226946
-0.086902998 0.13880301 -0.226955
-0.086900003 0.138873 -0.226959
-0.086897001 0.138943 -0.22695699
-0.086894996 0.139015 -0.226951
-0.086892001 0.13908499 -0.22694799
-0.086888999 0.139155 -0.22695
-0.086886004 0.13922501 -0.226954
-0.086883001 0.13929699 -0.226963
-0.086879998 0.139367 -0.226969
-0.086877003 0.139437 -0.226971
-0.086874999 0.139507 -0.226965
-0.086873002 0.139579 -0.22695
-0.086870998 0.13964801 -0.226934
-0.086868003 0.139718 -0.226932
-0.086865 0.13979 -0.226937
-0.086861998 0.139861 -0.226943
-0.086859003 0.13993099 -0.226945
-0.086856999 0.14 -0.22694001
-0.086855002 0.140072 -0.22693001
-0.086852998 0.14014199 -0.22691
-0.086851999 0.140213 -0.226862
-0.086851999 0.14028201 -0.226825
-0.086848997 0.14035399 -0.226823
-0.086845003 0.140424 -0.226843
-0.086841002 0.140495 -0.226864
-0.086838 0.14056499 -0.226878
-0.086834997 0.140635 -0.22688
-0.086833 0.140705 -0.22687601
-0.086831003 0.14077599 -0.226863
-0.086828999 0.140846 -0.22684699
-0.086825997 0.140916 -0.226851
-0.086822003 0.140986 -0.22686601
-0.086819999 0.141058 -0.226862
-0.086818002 0.141128 -0.22684599
-0.086815 0.14119799 -0.226851
-0.086811997 0.141268 -0.226861
-0.086809002 0.14133801 -0.22685499
-0.086806998 0.14140999 -0.226843
-0.086804003 0.14148 -0.22684
-0.086801998 0.141551 -0.226834
-0.086800002 0.14162099 -0.226816
-0.086797997 0.141691 -0.226799
-0.086796001 0.14176001 -0.226785
-0.086793996 0.14183 -0.22677501
-0.086791001 0.141902 -0.22677299
-0.086788997 0.14197201 -0.226768
-0.086786002 0.142042 -0.22677401
-0.086782001 0.142112 -0.22678401
-0.086778998 0.142184 -0.226789
-0.086778 0.14225399 -0.22676501
-0.086777002 0.142322 -0.22671901
-0.086774997 0.14239199 -0.22671001
-0.086770996 0.142465 -0.22673
-0.086768001 0.142535 -0.22675
-0.086764 0.14260501 -0.22677
-0.086760998 0.142676 -0.226781
-0.086759001 0.142745 -0.22675499
-0.086758003 0.14281601 -0.226717
-0.086755998 0.142886 -0.22670799
-0.086751997 0.142956 -0.226734
-0.086747997 0.14302699 -0.226772
-0.086745001 0.143099 -0.226776
-0.086742997 0.143169 -0.226761
-0.086740002 0.14323901 -0.226759
-0.086736999 0.143309 -0.22676501
-0.086735003 0.143381 -0.226758
-0.086732 0.14345101 -0.226752
-0.086728998 0.143521 -0.226752
-0.086727001 0.143591 -0.22675399
-0.086723998 0.143663 -0.226751
-0.086722001 0.143732 -0.226743
-0.086719997 0.143802 -0.22672901
-0.086717002 0.14387199 -0.226722
-0.086714 0.143942 -0.22673599
-0.086709999 0.144015 -0.226758
-0.086707003 0.144085 -0.22676
-0.086704999 0.144154 -0.226741
-0.086703002 0.144224 -0.226731
-0.086699001 0.14429601 -0.226753
-0.086695001 0.14436699 -0.226776
-0.086692996 0.144437 -0.22677
-0.086691 0.14450601 -0.22676399
-0.086687997 0.14457799 -0.22676501
-0.086686 0.144648 -0.226749
-0.086684003 0.14471801 -0.226733
-0.086681999 0.144787 -0.22671901
-0.086680003 0.144857 -0.226704
-0.086677998 0.14492901 -0.22669201
-0.086675003 0.144999 -0.226696
-0.086669996 0.145069 -0.226731
-0.086666003 0.145142 -0.226761
-0.086663 0.14521199 -0.226769
-0.086661004 0.145282 -0.226759
-0.086658001 0.14535201 -0.22675399
-0.086655997 0.14542399 -0.226748
-0.086654 0.145493 -0.22672801
-0.086652003 0.14556301 -0.226717
-0.086649001 0.145633 -0.22671901
-0.086645 0.145705 -0.22673699
-0.086641997 0.145776 -0.226757
-0.086639002 0.14584599 -0.22675
-0.086638004 0.145915 -0.22672801
-0.086635999 0.145987 -0.226712
-0.086634003 0.146056 -0.22669899
-0.086631 0.146126 -0.22669099
-0.086629003 0.14619599 -0.22669099
-0.086625002 0.146266 -0.22669999
-0.086622998 0.146338 -0.226698
-0.086620003 0.14640801 -0.226694
-0.086617999 0.146478 -0.22668201
-0.086616002 0.146548 -0.226675
-0.086612999 0.14661799 -0.226677
-0.086611003 0.146689 -0.226661
-0.086608998 0.14675701 -0.226638
-0.086607002 0.146828 -0.22663
-0.086603999 0.146898 -0.22662599
-0.086602002 0.14696801 -0.22662701
-0.086599 0.147038 -0.226629
-0.086595997 0.14711 -0.22662701
-0.086594 0.14718001 -0.22661699
-0.086592004 0.14725 -0.226606
-0.086589999 0.147319 -0.226588
-0.086589001 0.147388 -0.226556
-0.086586997 0.14745601 -0.226541
-0.086584002 0.14752799 -0.226549
-0.086580999 0.147598 -0.22654501
-0.086579002 0.147668 -0.22653601
-0.086576 0.14773799 -0.22653399
-0.086574003 0.147808 -0.22652601
-0.086571999 0.147879 -0.226513
-0.086568996 0.147949 -0.226511
-0.086567998 0.148017 -0.226487
-0.086567 0.148086 -0.22644401
-0.086566001 0.14815301 -0.226418
-0.086562999 0.14822499 -0.22641601
-0.086560003 0.148295 -0.226421
-0.086557001 0.14836501 -0.226421
-0.086554997 0.148435 -0.226409
-0.086553 0.148504 -0.226401
-0.086549997 0.148577 -0.22640599
-0.086547002 0.148647 -0.22640599
-0.086544998 0.148716 -0.226394
-0.086543001 0.14878599 -0.226373
-0.086540997 0.148855 -0.226353
-0.086539 0.14892501 -0.226357
-0.086535998 0.148995 -0.22635201
-0.086534999 0.14906199 -0.22632
-0.086533003 0.149132 -0.22629599
-0.086530998 0.149202 -0.22628701
-0.086529002 0.149271 -0.226281
-0.086525999 0.149341 -0.226275
-0.086524002 0.14941099 -0.226262
-0.086521998 0.14948 -0.226244
-0.086521 0.14955001 -0.22622
-0.086519003 0.149619 -0.226199
-0.086516 0.149689 -0.226201
-0.086512998 0.14975999 -0.226215
-0.086510003 0.149832 -0.226217
-0.086507998 0.14989901 -0.22619601
-0.086507 0.149969 -0.226166
-0.086505003 0.150038 -0.226154
-0.086502999 0.150106 -0.226143
-0.086502001 0.15017501 -0.22611099
-0.086501002 0.150242 -0.226062
-0.086499996 0.150309 -0.22603001
-0.086498 0.150379 -0.226016
-0.086496003 0.15044899 -0.22601099
-0.086493999 0.150519 -0.22600099
-0.086492002 0.15058599 -0.225987
-0.086489998 0.150656 -0.225968
-0.086488001 0.150723 -0.225942
-0.086487003 0.150793 -0.225924
-0.086484998 0.15086 -0.225895
-0.086484 0.15092701 -0.225859
-0.086482003 0.15099899 -0.225851
-0.086479001 0.151069 -0.225858
-0.086475998 0.15113901 -0.225858
-0.086474001 0.151209 -0.225852
-0.086471997 0.15127601 -0.225833
-0.08647 0.151346 -0.225821
-0.086466998 0.151418 -0.22582901
-0.086464003 0.15148801 -0.22583701
-0.086460002 0.15156101 -0.225848
-0.086456999 0.15163299 -0.225872
-0.086452998 0.151706 -0.22589
-0.086450003 0.151776 -0.22590201
-0.086446002 0.15184601 -0.225913
-0.086443 0.15191799 -0.225917
-0.086438999 0.15199099 -0.225943
-0.086434998 0.152063 -0.225973
-0.086430997 0.152136 -0.22599401
-0.086427003 0.152208 -0.226026
-0.086423002 0.152281 -0.22604001
-0.086421996 0.15234999 -0.22602201
-0.08642 0.15242 -0.226007
-0.086416997 0.15249 -0.226005
-0.086415 0.15256 -0.225999
-0.086411998 0.152629 -0.225988
-0.086410001 0.15269899 -0.225986
-0.086406998 0.152769 -0.22599
-0.086404003 0.152839 -0.22598501
-0.086401999 0.152909 -0.225969
-0.086401001 0.15297601 -0.225953
-0.086398996 0.153046 -0.225936
-0.086397 0.153116 -0.22591799
-0.086393997 0.15318599 -0.22592799
-0.086390004 0.153258 -0.22595
-0.086386003 0.153331 -0.225973
-0.086383 0.153403 -0.22598299
-0.086378999 0.153475 -0.22600099
-0.086374998 0.153548 -0.226019
-0.086373001 0.15361699 -0.226014
-0.086369999 0.153687 -0.226014
-0.086367004 0.15376 -0.226028
-0.086364001 0.153832 -0.226034
-0.086360998 0.15390199 -0.226033
-0.086358003 0.153972 -0.226043
-0.086355001 0.154044 -0.22604901
-0.086351998 0.15411399 -0.226052
-0.086347997 0.15418901 -0.226074
-0.086342998 0.15426099 -0.226106
-0.086340003 0.15433399 -0.22612201
-0.086336002 0.154406 -0.226138
-0.086333998 0.154476 -0.22613101
-0.086315997 0.154708 -0.226319
-0.087305002 0.127259 -0.226762
-0.087302998 0.12733001 -0.22673801
-0.087301001 0.12740199 -0.226731
-0.087300003 0.12747499 -0.22670101
-0.087298997 0.12754799 -0.226657
-0.087297 0.127621 -0.226629
-0.087295003 0.127693 -0.226614
-0.087292999 0.127765 -0.22659799
-0.087292001 0.127838 -0.22657201
-0.087288998 0.12790801 -0.22656099
-0.087287001 0.127978 -0.22656099
-0.087283999 0.128049 -0.22655299
-0.087283 0.128121 -0.226529
-0.087282002 0.128196 -0.22649001
-0.087279998 0.12826701 -0.22646999
-0.087277003 0.128335 -0.22646999
-0.087274998 0.128407 -0.226465
-0.087273002 0.128479 -0.226449
-0.087269999 0.12854899 -0.22645301
-0.087266997 0.128619 -0.226457
-0.087265 0.128691 -0.226436
-0.087264001 0.128764 -0.226404
-0.087261997 0.12883499 -0.226372
-0.087260999 0.12890799 -0.226346
-0.087259002 0.128978 -0.22633301
-0.087256998 0.12905 -0.22631299
-0.087255999 0.129123 -0.226275
-0.087254003 0.12919401 -0.22624999
-0.087251998 0.12926599 -0.226244
-0.087249003 0.129336 -0.226246
-0.087246999 0.12940601 -0.226236
-0.087245002 0.12947699 -0.22621299
-0.087242998 0.12955099 -0.22618701
-0.087241001 0.12962 -0.226173
-0.087238997 0.12969001 -0.22617599
-0.087236002 0.12976 -0.22617599
-0.087233 0.12983 -0.22618601
-0.087228999 0.129899 -0.226209
-0.087226003 0.129969 -0.226217
-0.087223001 0.13003699 -0.226221
-0.087219998 0.130107 -0.22623099
-0.087215997 0.13017599 -0.226246
-0.087214001 0.130246 -0.226246
-0.087210998 0.130317 -0.22624201
-0.087209001 0.13038699 -0.226239
-0.087205999 0.130455 -0.226243
-0.087201998 0.13052601 -0.226265
-0.087197997 0.130594 -0.22629
-0.087194003 0.13066299 -0.22631
-0.087191001 0.130731 -0.22633
-0.087187 0.13079999 -0.226347
-0.087185003 0.130872 -0.226347
-0.087182 0.130941 -0.226335
-0.087180004 0.13101099 -0.226337
-0.087176003 0.13108 -0.226358
-0.087172002 0.131148 -0.226384
-0.087168001 0.131217 -0.22642
-0.087164 0.131286 -0.226445
-0.087160997 0.131356 -0.22645099
-0.087158002 0.13142601 -0.226447
-0.087155998 0.131495 -0.22644401
-0.087153003 0.131566 -0.22645
-0.08715 0.13163599 -0.226456
-0.087146997 0.131706 -0.226464
-0.087142996 0.13177601 -0.226477
-0.087141 0.131844 -0.22647899
-0.087137997 0.131916 -0.226475
-0.087135002 0.131984 -0.226486
-0.087131001 0.132055 -0.22651
-0.087127 0.13212299 -0.22653399
-0.087123998 0.132192 -0.226551
-0.087121002 0.132264 -0.226557
-0.087118 0.132332 -0.226565
-0.087113999 0.132402 -0.226579
-0.087111004 0.13247199 -0.226584
-0.087108001 0.13254 -0.226596
-0.087104 0.13261101 -0.226616
-0.087102003 0.132681 -0.226615
-0.087099999 0.132752 -0.226597
-0.087096997 0.13282201 -0.226597
-0.087094001 0.132893 -0.226611
-0.087090001 0.132961 -0.226638
-0.087086 0.13303 -0.226666
-0.087082997 0.1331 -0.226676
-0.087080002 0.13316999 -0.226675
-0.087076999 0.13324 -0.226687
-0.087072998 0.13331001 -0.226703
-0.087071002 0.13338 -0.22669999
-0.087067999 0.133452 -0.22668999
-0.087064996 0.133522 -0.226696
-0.087062001 0.13359 -0.22671001
-0.087058999 0.133662 -0.226707
-0.087058 0.133734 -0.226685
-0.087056004 0.13380501 -0.22666299
-0.087053001 0.133874 -0.226678
-0.087048002 0.13394199 -0.226716
-0.087044999 0.134013 -0.226726
-0.087043002 0.134084 -0.226716
-0.08704 0.13415401 -0.226715
-0.087036997 0.134224 -0.226723
-0.087033004 0.134295 -0.226735
-0.087030001 0.134363 -0.226762
-0.087026 0.134434 -0.22678401
-0.087022997 0.13450401 -0.226794
-0.087018996 0.134572 -0.226806
-0.087016001 0.134642 -0.226813
-0.087012999 0.13471401 -0.226815
-0.087011002 0.134784 -0.226817
-0.087007999 0.134854 -0.226814
-0.087006003 0.13492399 -0.226808
-0.087003 0.134996 -0.226804
-0.087001003 0.135067 -0.22678401
-0.086998999 0.13513701 -0.226779
-0.086994998 0.135208 -0.226799
-0.086990997 0.135276 -0.22682101
-0.086989 0.135346 -0.22682001
-0.086985998 0.135418 -0.22680999
-0.086984001 0.135488 -0.22680999
-0.086980999 0.13555799 -0.226817
-0.086976998 0.135628 -0.226827
-0.086974002 0.13569801 -0.226833
-0.086971 0.13576999 -0.22683699
-0.086967997 0.135838 -0.22684599
-0.086965002 0.135911 -0.226858
-0.086962 0.135979 -0.226868
-0.086958997 0.136051 -0.226863
-0.086957 0.136121 -0.22685499
-0.086953998 0.13619 -0.226851
-0.086952001 0.136262 -0.226853
-0.086948998 0.13633201 -0.22685599
-0.086946003 0.136402 -0.22684801
-0.086943001 0.136474 -0.226852
-0.086939 0.13654301 -0.22688501
-0.086935997 0.136613 -0.226905
-0.086932003 0.136684 -0.226917
-0.086929001 0.13675401 -0.226923
-0.086925998 0.136824 -0.226928
-0.086923003 0.136894 -0.226942
-0.086920001 0.13696399 -0.226952
-0.086916998 0.137034 -0.226953
-0.086914003 0.137106 -0.22694699
-0.086912997 0.13717601 -0.22692899
-0.086910002 0.137247 -0.226917
-0.086906999 0.137318 -0.22693001
-0.086903997 0.13738801 -0.226934
-0.086902 0.137458 -0.226926
-0.086898997 0.13753 -0.22693101
-0.086894996 0.1376 -0.226943
-0.086892001 0.13767 -0.226955
-0.086888999 0.13774 -0.226961
-0.086886004 0.13781001 -0.226962
-0.086883999 0.13788 -0.226952
-0.086882003 0.137952 -0.226944
-0.086879998 0.13802101 -0.22693101
-0.086878002 0.13809299 -0.22690099
-0.086875997 0.138163 -0.22690301
-0.086871997 0.13823301 -0.22692899
-0.086868003 0.138304 -0.226946
-0.086865 0.138374 -0.226952
-0.086861998 0.13844401 -0.22695
-0.086860001 0.138515 -0.22693899
-0.086857997 0.138585 -0.22692899
-0.086856 0.138657 -0.226919
-0.086852998 0.13872699 -0.226918
-0.086850002 0.138797 -0.226928
-0.086847 0.13886701 -0.226926
-0.086845003 0.13893899 -0.226918
-0.086842 0.139009 -0.226915
-0.086839996 0.13908 -0.226905
-0.086838 0.13914999 -0.226897
-0.086833999 0.13922 -0.226908
-0.086829998 0.139291 -0.226934
-0.086827002 0.13936099 -0.22695
-0.086824 0.139431 -0.226946
-0.086822003 0.139503 -0.226935
-0.086819999 0.13957199 -0.22692101
-0.086818002 0.139644 -0.226905
-0.086815 0.139714 -0.226908
-0.086811997 0.13978399 -0.226918
-0.086809002 0.139854 -0.226928
-0.086805999 0.139925 -0.226932
-0.086802997 0.13999601 -0.226927
-0.086801 0.140066 -0.226925
-0.086797997 0.140136 -0.226919
-0.086796001 0.14020599 -0.226906
-0.086793996 0.140277 -0.22689
-0.086792 0.140347 -0.22687601
-0.086790003 0.14041699 -0.22685701
-0.086787999 0.140488 -0.22684699
-0.086783998 0.140559 -0.22686499
-0.086781003 0.14062899 -0.226877
-0.086778 0.140699 -0.22688
-0.086776003 0.140769 -0.22688
-0.086773001 0.14084101 -0.226872
-0.086770996 0.140911 -0.226863
-0.086769 0.14098001 -0.22685499
-0.086767003 0.14105199 -0.22683699
-0.086764999 0.141121 -0.226817
-0.086762004 0.14119101 -0.22682001
-0.086759001 0.14126199 -0.226826
-0.086755998 0.141333 -0.226824
-0.086754002 0.141403 -0.226823
-0.086751997 0.141473 -0.226805
-0.086750001 0.141544 -0.22677501
-0.086747997 0.141614 -0.226762
-0.086745001 0.141684 -0.226768
-0.086741999 0.141754 -0.226776
-0.086740002 0.14182401 -0.22677401
-0.086736999 0.14189599 -0.226779
-0.086733997 0.141966 -0.226777
-0.086732 0.14203601 -0.226771
-0.086728998 0.142106 -0.226776
-0.086726002 0.142178 -0.22677401
-0.086724997 0.14224701 -0.22674599
-0.086723998 0.142316 -0.226707
-0.086722001 0.142386 -0.226693
-0.086718 0.14245801 -0.226705
-0.086714 0.142529 -0.226731
-0.086709999 0.142599 -0.22675601
-0.086708002 0.14266901 -0.226758
-0.086705998 0.142739 -0.226734
-0.086704999 0.14281 -0.226697
-0.086703002 0.14287999 -0.226687
-0.086699001 0.14295 -0.226711
-0.086695001 0.143021 -0.226739
-0.086691 0.143093 -0.226758
-0.086687997 0.143163 -0.22676
-0.086686 0.143233 -0.226748
-0.086684003 0.14330301 -0.22673699
-0.086681999 0.143372 -0.226723
-0.086680003 0.143444 -0.22670899
-0.086677 0.14351401 -0.226713
-0.086673997 0.143584 -0.226724
-0.086672001 0.143654 -0.226706
-0.086669996 0.143723 -0.226684
-0.086667001 0.143796 -0.22670101
-0.086663 0.143866 -0.226715
-0.086659998 0.14393599 -0.226725
-0.086655997 0.14400899 -0.226751
-0.086653002 0.144079 -0.22676601
-0.086650997 0.14414801 -0.22673801
-0.086649999 0.144217 -0.22669999
-0.086646996 0.144288 -0.226711
-0.086643003 0.14436001 -0.22674701
-0.086639002 0.14443099 -0.226757
-0.086636998 0.1445 -0.226749
-0.086635001 0.144572 -0.22674
-0.086632997 0.144642 -0.226722
-0.086631 0.144711 -0.226712
-0.086629003 0.14478099 -0.22669899
-0.086626999 0.14485 -0.22667301
-0.086623996 0.14492001 -0.226671
-0.086621001 0.14499301 -0.226688
-0.086617 0.145063 -0.226712
-0.086612999 0.145136 -0.226734
-0.086609997 0.145206 -0.22673599
-0.086608 0.145276 -0.22672901
-0.086604998 0.145346 -0.226735
-0.086602002 0.145418 -0.226735
-0.086600997 0.145487 -0.22670799
-0.086599 0.145557 -0.22669201
-0.086594999 0.14562701 -0.226704
-0.086592004 0.14569899 -0.22671799
-0.086589001 0.145769 -0.226733
-0.086585999 0.14583901 -0.226733
-0.086584002 0.145909 -0.22670899
-0.086583003 0.145978 -0.22668999
-0.086580001 0.14604799 -0.22668
-0.086577997 0.14612 -0.22667401
-0.086575001 0.14619 -0.226666
-0.086571999 0.14625999 -0.22667301
-0.086568996 0.146332 -0.226677
-0.086567 0.146402 -0.226669
-0.086565003 0.14647201 -0.22666401
-0.086562 0.146541 -0.22666
-0.086560003 0.14661101 -0.226656
-0.086557999 0.146681 -0.226641
-0.086556002 0.14675 -0.226615
-0.086553998 0.14681999 -0.226597
-0.086552002 0.14689 -0.226588
-0.086548999 0.146962 -0.226596
-0.086545996 0.14703199 -0.22660001
-0.086544 0.147102 -0.226586
-0.086542003 0.14717101 -0.22657301
-0.086539 0.147241 -0.226569
-0.086537004 0.147311 -0.226569
-0.086534001 0.147383 -0.226568
-0.086531997 0.147452 -0.226548
-0.086530998 0.147522 -0.22652
-0.086528003 0.14759199 -0.22651701
-0.086525001 0.147662 -0.22652499
-0.086521998 0.147732 -0.22652701
-0.086520001 0.147802 -0.22651701
-0.086517997 0.147871 -0.2265
-0.086516 0.14794099 -0.226484
-0.086515002 0.14801 -0.22645
-0.086515002 0.148077 -0.22639699
-0.086512998 0.148146 -0.226381
-0.086510003 0.14821599 -0.226386
-0.086507 0.148289 -0.2264
-0.086503997 0.148359 -0.226402
-0.086502001 0.14842799 -0.22638801
-0.086498998 0.148498 -0.226383
-0.086496003 0.148571 -0.226395
-0.086493 0.14864101 -0.226399
-0.086491004 0.14871 -0.22638801
-0.086489998 0.14878 -0.22635999
-0.086488001 0.148847 -0.22633401
-0.086484998 0.148919 -0.22633401
-0.086483002 0.14898901 -0.226337
-0.086479999 0.149059 -0.22632299
-0.086478002 0.149128 -0.226309
-0.086476997 0.149196 -0.22629
-0.086475 0.14926501 -0.22627001
-0.086473003 0.149335 -0.226264
-0.086470999 0.149405 -0.226245
-0.086469002 0.14947399 -0.226215
-0.086468004 0.149542 -0.226201
-0.086465001 0.14961299 -0.226192
-0.086462997 0.149683 -0.226188
-0.086459003 0.149754 -0.226206
-0.086456001 0.14982399 -0.22620501
-0.086455002 0.149893 -0.22617701
-0.086453997 0.14996 -0.22614101
-0.086452998 0.15002701 -0.226108
-0.086451001 0.150097 -0.22609399
-0.086448997 0.150167 -0.226082
-0.086447001 0.150236 -0.226059
-0.086446002 0.150304 -0.22603101
-0.086443998 0.150373 -0.226019
-0.086441003 0.150443 -0.226014
-0.086439997 0.15051299 -0.22599199
-0.086438 0.15058 -0.225972
-0.086436003 0.15064999 -0.225953
-0.086434998 0.15071701 -0.225917
-0.086433999 0.150784 -0.22589999
-0.086430997 0.150856 -0.225896
-0.086429 0.150924 -0.225886
-0.086425997 0.150996 -0.22588401
-0.086423002 0.15106601 -0.225885
-0.08642 0.151136 -0.22589099
-0.086418003 0.151206 -0.225887
-0.086416997 0.151273 -0.225858
-0.086415 0.151343 -0.22583801
-0.086410999 0.15141501 -0.22586399
-0.086406998 0.15148801 -0.225888
-0.086404003 0.151558 -0.22588301
-0.086401999 0.151627 -0.22587299
-0.086398996 0.15169799 -0.225879
-0.086396001 0.15177 -0.225898
-0.086392 0.151842 -0.225916
-0.086388998 0.151912 -0.22592001
-0.086384997 0.151985 -0.22594
-0.086381003 0.15205701 -0.225971
-0.086377002 0.15212999 -0.225995
-0.086372003 0.15220501 -0.22602899
-0.086369 0.15227699 -0.22604699
-0.086367004 0.152345 -0.226026
-0.086365998 0.152412 -0.225986
-0.086364001 0.152481 -0.22597399
-0.086361997 0.152551 -0.225969
-0.086359002 0.152621 -0.22596499
-0.086356997 0.15269101 -0.225961
-0.086354002 0.152761 -0.225954
-0.086351998 0.15283 -0.225942
-0.086351 0.152898 -0.225924
-0.086347997 0.152968 -0.22591101
-0.086346 0.153037 -0.225905
-0.086344004 0.153107 -0.22589099
-0.086341001 0.15317699 -0.225887
-0.086337999 0.153247 -0.22590201
-0.086335003 0.15332 -0.225914
-0.086331002 0.153392 -0.225926
-0.086327001 0.153464 -0.22594801
-0.086323999 0.15353701 -0.225961
-0.086320996 0.153606 -0.225959
-0.086319 0.153676 -0.225959
-0.086315997 0.153749 -0.22596601
-0.086313002 0.153818 -0.225962
-0.086309999 0.153889 -0.225968
-0.086306997 0.153961 -0.22597601
-0.086303003 0.15403301 -0.225989
-0.086300001 0.15410499 -0.226005
-0.086296 0.15417799 -0.22602101
-0.086292997 0.154248 -0.226025
-0.086289003 0.154322 -0.22605599
-0.086285003 0.154395 -0.22607601
-0.086282998 0.15446199 -0.226062
-0.086281002 0.154532 -0.226044
-0.086273998 0.154612 -0.226136
-0.086266004 0.15469401 -0.22624201
-0.086263001 0.15476599 -0.22624899
-0.087251998 0.12718 -0.226809
-0.087251 0.12725499 -0.226767
-0.087250002 0.12732799 -0.22672901
-0.087249003 0.12740099 -0.226686
-0.087247998 0.12747601 -0.226642
-0.087246999 0.12754899 -0.226616
-0.087245002 0.127621 -0.22659799
-0.087242998 0.127692 -0.226585
-0.087241001 0.127762 -0.22657301
-0.087237999 0.12783401 -0.22656099
-0.087236002 0.12790599 -0.226549
-0.087233998 0.127975 -0.226542
-0.087232001 0.128047 -0.226528
-0.087229997 0.12812001 -0.226494
-0.087229997 0.128195 -0.226438
-0.087228 0.12826601 -0.22641701
-0.087224998 0.128337 -0.226427
-0.087222002 0.128405 -0.226441
-0.087219 0.128475 -0.22644199
-0.087217003 0.128547 -0.226432
-0.087214001 0.128617 -0.22643
-0.087211996 0.128686 -0.22642501
-0.08721 0.12876 -0.22640499
-0.087209001 0.128831 -0.22636899
-0.087208003 0.128904 -0.22633301
-0.087205 0.128976 -0.22632401
-0.087204002 0.12904599 -0.22630601
-0.087201998 0.12911899 -0.226274
-0.087200001 0.12919 -0.226254
-0.087197997 0.129262 -0.226247
-0.087196 0.12933201 -0.226235
-0.087194003 0.129403 -0.226219
-0.087191001 0.129475 -0.22621199
-0.087187998 0.12954301 -0.226216
-0.087186001 0.129613 -0.226216
-0.087183997 0.129685 -0.22620399
-0.087181002 0.12975501 -0.226193
-0.087178998 0.12982699 -0.226193
-0.087176003 0.129895 -0.226197
-0.087173 0.12996501 -0.2262
-0.087169997 0.130035 -0.226208
-0.087167002 0.13010301 -0.22622
-0.087163001 0.130173 -0.22623099
-0.087159999 0.130242 -0.22624101
-0.087157004 0.130312 -0.226247
-0.087154999 0.130384 -0.22624101
-0.087151997 0.13045201 -0.226246
-0.087148003 0.13052 -0.226274
-0.087144002 0.13058899 -0.226298
-0.087141 0.130659 -0.226311
-0.087136999 0.13072699 -0.226327
-0.087134004 0.130796 -0.226347
-0.087131001 0.13086601 -0.226354
-0.087127998 0.130936 -0.226348
-0.087125003 0.131006 -0.226366
-0.087121002 0.13107499 -0.22638901
-0.087118 0.131143 -0.226403
-0.087113999 0.13121299 -0.22641701
-0.087111004 0.131283 -0.226429
-0.087108001 0.13135201 -0.22644199
-0.087104 0.131422 -0.226456
-0.087100998 0.13149001 -0.226464
-0.087098002 0.13156199 -0.226473
-0.087095 0.13163 -0.22648101
-0.087091997 0.13169999 -0.226485
-0.087089002 0.13177 -0.226486
-0.087086998 0.13184001 -0.22648799
-0.087082997 0.13191099 -0.2265
-0.087080002 0.131981 -0.22651
-0.087076999 0.13205101 -0.226519
-0.087073997 0.132119 -0.22652701
-0.087071002 0.13218901 -0.226539
-0.087067001 0.13225999 -0.226556
-0.087063998 0.132328 -0.22657201
-0.087059997 0.13239799 -0.22657999
-0.087057002 0.132469 -0.226595
-0.087053001 0.13253701 -0.22661699
-0.087049998 0.132605 -0.22663701
-0.087045997 0.13267601 -0.226649
-0.087044001 0.132746 -0.226652
-0.087041996 0.132817 -0.226632
-0.08704 0.132888 -0.226602
-0.087038003 0.13296001 -0.22659899
-0.087034002 0.133029 -0.226631
-0.087029003 0.13309801 -0.22666501
-0.087026 0.133166 -0.226687
-0.087021999 0.133237 -0.226702
-0.087018996 0.133307 -0.226712
-0.087017 0.133377 -0.226704
-0.087015003 0.133448 -0.22669099
-0.087012 0.133518 -0.226687
-0.087008998 0.133588 -0.226697
-0.087006003 0.13365901 -0.226707
-0.087003 0.133729 -0.22671001
-0.087001003 0.1338 -0.22669201
-0.086998999 0.13387001 -0.22667401
-0.086995997 0.13394 -0.22668099
-0.086992003 0.13401 -0.226703
-0.086988002 0.13407899 -0.22672699
-0.086984999 0.134149 -0.226744
-0.086981997 0.13421901 -0.226744
-0.08698 0.134289 -0.22674
-0.086975999 0.134361 -0.226752
-0.086972997 0.13443001 -0.22677299
-0.086969003 0.1345 -0.226799
-0.086965002 0.134569 -0.226815
-0.086962998 0.13463999 -0.22680201
-0.086961001 0.134712 -0.22678199
-0.086957999 0.13478 -0.22679
-0.086955003 0.13485201 -0.22679999
-0.086952001 0.134922 -0.226799
-0.086949997 0.134992 -0.22679099
-0.086948 0.13506299 -0.22677501
-0.086944997 0.135133 -0.22677
-0.086940996 0.135204 -0.226798
-0.086938001 0.13527399 -0.22680999
-0.086935997 0.135344 -0.22680201
-0.086933002 0.135414 -0.226799
-0.086929999 0.135484 -0.22680099
-0.086926997 0.135554 -0.226815
-0.086924002 0.13562401 -0.22683001
-0.086920999 0.135694 -0.226832
-0.086917996 0.135766 -0.226824
-0.086916 0.13583601 -0.226817
-0.086911999 0.135906 -0.226833
-0.086907998 0.135977 -0.226861
-0.086905003 0.13604499 -0.226871
-0.086902998 0.136117 -0.22686
-0.086901002 0.136189 -0.22685
-0.086897999 0.136259 -0.226858
-0.086894996 0.136329 -0.226863
-0.086892001 0.136399 -0.226853
-0.086889997 0.13647 -0.226851
-0.086886004 0.136539 -0.22686701
-0.086883001 0.136609 -0.22689
-0.086879 0.13668001 -0.22691
-0.086875997 0.13675 -0.226918
-0.086873002 0.13682 -0.226919
-0.08687 0.13688999 -0.22692899
-0.086865999 0.136962 -0.226943
-0.086863004 0.13703001 -0.226953
-0.086860999 0.13710199 -0.22695
-0.086857997 0.137172 -0.226936
-0.086856 0.137244 -0.22693001
-0.086852998 0.13731401 -0.226935
-0.086850002 0.137384 -0.22693899
-0.086847998 0.137454 -0.226937
-0.086845003 0.13752601 -0.226935
-0.086842 0.137596 -0.226934
-0.086838998 0.137666 -0.226944
-0.086836003 0.13773599 -0.22695
-0.086833999 0.137806 -0.226943
-0.086831003 0.137878 -0.22692899
-0.086828999 0.13794699 -0.226919
-0.086827002 0.138019 -0.22691099
-0.086824 0.138089 -0.226914
-0.086820997 0.13815901 -0.22691999
-0.086818002 0.138229 -0.226926
-0.086815 0.138299 -0.22693101
-0.086811997 0.13837101 -0.22693101
-0.086809002 0.138441 -0.226933
-0.086806998 0.138511 -0.226933
-0.086804003 0.13858099 -0.226928
-0.086801998 0.138653 -0.226916
-0.086800002 0.138723 -0.226908
-0.086796999 0.13879301 -0.226907
-0.086795002 0.138864 -0.226895
-0.086792998 0.138934 -0.226873
-0.086790003 0.13900401 -0.226878
-0.086786002 0.13907599 -0.2269
-0.086782999 0.139147 -0.226908
-0.086779997 0.139217 -0.22691
-0.086778 0.13928699 -0.22691301
-0.086774997 0.139357 -0.226917
-0.086770996 0.139429 -0.226925
-0.086769 0.13949899 -0.226927
-0.086765997 0.139569 -0.22692201
-0.086764 0.13963901 -0.226918
-0.086760998 0.13970999 -0.22691201
-0.086759001 0.13978 -0.226907
-0.086755998 0.13985001 -0.226909
-0.086753003 0.13992 -0.226909
-0.086750001 0.139992 -0.226909
-0.086746998 0.140062 -0.226914
-0.086745001 0.140132 -0.22691201
-0.086741999 0.140202 -0.226906
-0.086740002 0.140274 -0.22689299
-0.086737998 0.140343 -0.226877
-0.086736999 0.140413 -0.226849
-0.086735003 0.14048401 -0.226826
-0.086732 0.140554 -0.226832
-0.086728998 0.140624 -0.22684599
-0.086726002 0.14069501 -0.226852
-0.086723 0.14076699 -0.226863
-0.086719997 0.140837 -0.226859
-0.086718 0.14090601 -0.226849
-0.086714998 0.140976 -0.22684599
-0.086713001 0.141048 -0.226826
-0.086712003 0.14111701 -0.226794
-0.086709999 0.141187 -0.22679301
-0.086705998 0.141259 -0.226805
-0.086703002 0.14132901 -0.226815
-0.0867 0.141399 -0.22681899
-0.086698003 0.141469 -0.22681201
-0.086695999 0.141541 -0.22678199
-0.086695999 0.14161 -0.22673599
-0.086692996 0.14168 -0.226739
-0.086689003 0.14174999 -0.22677299
-0.086685002 0.141821 -0.22679099
-0.086681999 0.141893 -0.226795
-0.086678997 0.14196301 -0.226794
-0.086677 0.142032 -0.22678
-0.086675003 0.142102 -0.22677
-0.086672001 0.14217401 -0.226771
-0.086669996 0.142244 -0.226767
-0.086667001 0.142314 -0.226759
-0.086664997 0.14238399 -0.226752
-0.086662002 0.142456 -0.22675601
-0.086658999 0.142526 -0.22676601
-0.086655997 0.14259601 -0.22676601
-0.086654 0.142666 -0.226763
-0.086650997 0.142736 -0.226761
-0.086649001 0.14280701 -0.226749
-0.086646996 0.142877 -0.22673
-0.086645 0.142946 -0.22670799
-0.086641997 0.143016 -0.226714
-0.086638004 0.143087 -0.22673801
-0.086635001 0.143159 -0.22674499
-0.086634003 0.14322899 -0.22672699
-0.086631 0.143298 -0.22671901
-0.086627997 0.143369 -0.22673
-0.086625002 0.14343999 -0.226724
-0.086622998 0.14351 -0.22671001
-0.086621001 0.14358 -0.226703
-0.086618997 0.143649 -0.226685
-0.086617 0.143719 -0.226671
-0.086612999 0.143792 -0.226695
-0.086607002 0.14386301 -0.226758
-0.086603001 0.14393599 -0.226788
-0.086599998 0.144006 -0.22679199
-0.086597003 0.144076 -0.226796
-0.086594999 0.144146 -0.226795
-0.086593002 0.144217 -0.22677501
-0.086590998 0.14428701 -0.226767
-0.086586997 0.144357 -0.22678199
-0.086585 0.144427 -0.22678
-0.086581998 0.144499 -0.22677401
-0.086580001 0.14456899 -0.226758
-0.086579002 0.144638 -0.226731
-0.086576 0.14470799 -0.22672901
-0.086572997 0.144778 -0.22674499
-0.086570002 0.14485 -0.226748
-0.086567 0.14492001 -0.22674
-0.086565003 0.14499 -0.226734
-0.086562999 0.14506 -0.226725
-0.086560003 0.14513201 -0.226731
-0.086556002 0.145202 -0.226741
-0.086553998 0.145272 -0.226731
-0.086551003 0.14534201 -0.22673
-0.086548999 0.14541399 -0.22673
-0.086547002 0.145483 -0.226706
-0.086544998 0.14555299 -0.226685
-0.086542003 0.145623 -0.22669099
-0.086539 0.145693 -0.226711
-0.086534999 0.14576501 -0.226723
-0.086533003 0.145835 -0.226724
-0.08653 0.145905 -0.22671799
-0.086528003 0.14597701 -0.22671001
-0.086525001 0.146047 -0.22670899
-0.086522996 0.146117 -0.226705
-0.086521 0.14618599 -0.226687
-0.086519003 0.146256 -0.22667199
-0.086516999 0.14632601 -0.226662
-0.086514004 0.146396 -0.22666
-0.086511001 0.146468 -0.226668
-0.086507998 0.146538 -0.226661
-0.086507 0.146607 -0.226625
-0.086506002 0.146676 -0.22659101
-0.086503997 0.14674599 -0.226578
-0.086502001 0.146815 -0.22656401
-0.086499996 0.14688499 -0.226556
-0.086497001 0.146955 -0.22656301
-0.086493999 0.147027 -0.22657099
-0.086489998 0.147098 -0.226583
-0.086488001 0.147168 -0.226586
-0.086485997 0.147237 -0.226568
-0.086484 0.14730699 -0.22655401
-0.086480998 0.147379 -0.226556
-0.086478002 0.147449 -0.226551
-0.086475998 0.14751799 -0.22653501
-0.086474001 0.147588 -0.226533
-0.086470999 0.14765801 -0.226538
-0.086469002 0.147728 -0.226522
-0.086466998 0.147798 -0.22650801
-0.086465001 0.14786699 -0.226495
-0.086462997 0.147937 -0.226469
-0.086461999 0.148004 -0.226437
-0.086461 0.148073 -0.226394
-0.086459003 0.14814299 -0.22638001
-0.086456001 0.148213 -0.22638801
-0.086452998 0.148285 -0.226403
-0.086450003 0.14835501 -0.22641499
-0.086447001 0.148425 -0.22640701
-0.086446002 0.14849401 -0.226383
-0.086443 0.14856599 -0.226382
-0.086439997 0.148636 -0.226376
-0.086438999 0.14870401 -0.226358
-0.086437002 0.148773 -0.226331
-0.086434998 0.14884301 -0.226317
-0.086432002 0.148913 -0.226319
-0.086429998 0.148982 -0.22630601
-0.086428002 0.14905199 -0.22629599
-0.086424999 0.149122 -0.226298
-0.086424001 0.14919201 -0.226271
-0.086423002 0.149261 -0.226239
-0.08642 0.149331 -0.22623301
-0.086418003 0.14940099 -0.22623
-0.086415 0.14947 -0.226226
-0.086411998 0.14954101 -0.22623201
-0.086409003 0.14961299 -0.22623999
-0.086406 0.149683 -0.22624101
-0.086405002 0.14974999 -0.226221
-0.086402997 0.14982 -0.226197
-0.086401001 0.14988901 -0.22617801
-0.086401001 0.149956 -0.226136
-0.086400002 0.150023 -0.226091
-0.086398996 0.15008999 -0.226061
-0.086396001 0.15016299 -0.226063
-0.086392999 0.150233 -0.226079
-0.086391002 0.15030199 -0.226064
-0.086388998 0.150372 -0.226052
-0.086386003 0.150442 -0.22605
-0.086383998 0.15051199 -0.226041
-0.086382002 0.150581 -0.226027
-0.086381003 0.150649 -0.22599301
-0.086381003 0.150713 -0.22592799
-0.086379997 0.15078001 -0.225894
-0.086377002 0.15085299 -0.225905
-0.086374 0.150923 -0.22590899
-0.086370997 0.150993 -0.225905
-0.086369 0.151062 -0.22589999
-0.086365998 0.151132 -0.225898
-0.086364001 0.15120199 -0.22589201
-0.086361997 0.151272 -0.225878
-0.086359002 0.151342 -0.225879
-0.086355999 0.15141401 -0.225887
-0.086352997 0.151484 -0.225885
-0.086350001 0.151554 -0.225894
-0.086346 0.15162601 -0.225914
-0.086342998 0.15169901 -0.22592001
-0.086340003 0.151769 -0.225926
-0.086337 0.151839 -0.22593901
-0.086332999 0.15191101 -0.22595499
-0.086328998 0.15198401 -0.225979
-0.086326003 0.15205599 -0.225997
-0.086322002 0.15212899 -0.226016
-0.086319 0.152201 -0.226032
-0.086315997 0.152271 -0.22603799
-0.086314 0.15234099 -0.226024
-0.086312003 0.15241 -0.22600099
-0.086309999 0.15247799 -0.22598501
-0.086308002 0.152547 -0.225969
