0.253064 0.175533 0.951392 0.0272132
0.26433 0.175361 0.948355 0.0257533
0.264532 0.178697 0.947676 0.0201033
-0.282386 0.149404 0.947595 0.0424306
-0.265789 0.160524 0.950572 0.0296224
-0.265811 0.16772 0.949323 0.0391219
-0.256989 0.153012 0.954224 0.0437035
-0.243181 0.1717 0.954663 0.0345851
-0.223263 0.181722 0.95767 0.0191697
0.248767 0.217888 0.943737 0.0239265
0.253736 0.181547 0.950084 0.0241864
0.256782 0.176426 0.95023 0.0185371
-0.261308 0.167264 0.950653 0.0276757
-0.260244 0.170139 0.950435 0.038606
-0.249384 0.175736 0.952326 0.039221
-0.238226 0.175014 0.955311 0.0321878
-0.223551 0.188256 0.956339 0.0237931
0.235336 0.254441 0.938017 0.0181926
0.248797 0.250705 0.935546 0.0329724
0.251709 0.219414 0.942603 0.0261529
-0.248539 0.170244 0.953544 0.0282096
-0.246519 0.170549 0.954013 0.040701
-0.235771 0.178955 0.95519 0.0327288
-0.218191 0.184874 0.958235 0.0160978
0.0142689 0.198446 0.980008 0
0.0102976 0.182991 0.983061 0
0.00705459 0.189742 0.981809 0
-0.0169547 0.196359 0.980385 0
-0.0184077 0.201816 0.97925 0
-0.0342317 0.236097 0.971126 0.00844961
-0.0345578 0.250933 0.967387 0
-0.0390979 0.256322 0.9658 0
-0.033756 0.299776 0.953412 0
-0.0349173 0.267398 0.962953 0
0.144697 0.302162 0.942211 0
0.154558 0.340411 0.927487 0
0.161177 0.316927 0.934655 0
0.223026 0.299779 0.927573 0.0112834
0.229568 0.283595 0.93106 0.00935607
-0.23163 0.184355 0.955176 0.0283613
-0.229366 0.192756 0.954063 0.0319088
-0.214299 0.198084 0.956472 0.0307625
-0.209875 0.205791 0.955825 0.0279945
0.0159267 0.180413 0.983462 0.00824722
0.0138609 0.175028 0.984466 0.00964619
0.0133084 0.216055 0.97629 0
0.0133796 0.214037 0.976734 0
0.0118189 0.226037 0.974047 0
0.0071377 0.212317 0.977175 0
0.00474875 0.207218 0.978283 0
0.00165503 0.193993 0.981001 0
-0.0170883 0.155927 0.987621 0
-0.0194797 0.15479 0.987755 0
-0.0216915 0.185976 0.982315 0.0146526
-0.0233084 0.195633 0.9804 0.0135668
-0.0295776 0.109441 0.993553 0.0154416
-0.00824172 0.193401 0.981085 0.00406484
-0.0112291 0.201534 0.979417 0
-0.0149593 0.19835 0.980017 0
-0.0157056 0.208192 0.977962 0
-0.0225399 0.176874 0.983975 0.012469
-0.0257036 0.140104 0.989803 0.0119123
-0.0237896 0.257359 0.966023 0
-0.0274015 0.244327 0.969306 0.00845407
-0.0319583 0.248355 0.968142 0.0103413
-0.0322988 0.259963 0.965078 0
-0.037122 0.268543 0.962552 0
-0.0397744 0.257096 0.965567 0
-0.0438477 0.245071 0.968513 0
-0.0407752 0.277581 0.959837 0
-0.0389637 0.278187 0.959736 0
-0.0369329 0.287174 0.957166 0
-0.0355634 0.282814 0.958515 0
-0.0334574 0.29309 0.955499 0
-0.0354597 0.265694 0.963405 0
-0.0349388 0.265737 0.963412 0.0011004
-0.0347424 0.278434 0.959827 0.00451038
-0.0356958 0.271631 0.961739 0.0113598
0.0135751 0.326546 0.945084 0
0.129163 0.276408 0.952321 0.00136216
0.140939 0.294352 0.945248 0
0.154906 0.330765 0.930913 0
0.164607 0.290993 0.942458 0.0024326
0.174116 0.312857 0.933705 0.00038087
0.184981 0.302673 0.934971 0
0.199063 0.300941 0.932635 0
0.210276 0.307655 0.927972 0
-0.216367 0.201766 0.955236 0.0328128
-0.2115 0.209985 0.954554 0.0312792
-0.20712 0.213823 0.954663 0.0399008
0.0188718 0.208065 0.977933 0
0.0171243 0.210702 0.9774 0.0074269
0.0156775 0.177179 0.984054 0.020503
0.0143265 0.177018 0.984103 0.0126771
0.0146781 0.182689 0.983061 0.0100316
0.0138541 0.183591 0.982905 0
0.0166532 0.197472 0.980167 0
0.0138995 0.213918 0.976753 0
0.0118649 0.199682 0.979789 0
0.0105277 0.217955 0.975902 0
0.00642579 0.215706 0.976437 0
0.00469843 0.208353 0.978043 0
0.0021311 0.206511 0.978442 0
-0.00425416 0.14068 0.990046 0
-0.00545184 0.162192 0.986744 0
-0.00712073 0.194257 0.980925 0
-0.0106553 0.184105 0.982849 0.000187204
-0.0145901 0.16678 0.985886 0
-0.0172546 0.169348 0.985405 0
-0.0206656 0.155403 0.987635 0.00776961
-0.0204974 0.198974 0.97979 0
-0.02617 0.174505 0.984308 0.0168604
-0.0264961 0.145464 0.989009 0.0347046
-0.0278266 0.147046 0.988738 0.0219393
-0.0292497 0.124778 0.991754 0.0229617
-0.0280587 0.137971 0.990039 0.00452308
-0.0255577 0.170126 0.985091 0
-0.0241338 0.225305 0.973989 0
-0.012824 0.200677 0.979574 0.0101513
-0.0129644 0.17618 0.984273 0.020542
-0.0120533 0.196955 0.980339 0.034503
-0.0122474 0.199798 0.979761 0.0311113
-0.0105321 0.181009 0.983425 0.0185457
-0.0131054 0.135546 0.990684 0.0319736
-0.0109421 0.157228 0.987502 0.0311284
-0.0106557 0.146251 0.98919 0.0225637
-0.00683925 0.174153 0.984695 0.0148924
-0.00583434 0.18248 0.983192 0.00509363
-0.00553635 0.211537 0.977354 0.0032119
-0.0094193 0.19059 0.981624 0
-0.0119378 0.179471 0.983691 0
-0.0212334 0.196597 0.980254 0.0138308
-0.0240667 0.164788 0.986035 0.0145248
-0.0252276 0.145264 0.989071 0.01574
-0.0262533 0.179488 0.98341 0.00570519
-0.0241279 0.227636 0.973447 0
-0.0236216 0.267636 0.963231 0
-0.0272512 0.253997 0.966821 0.0100051
-0.0419224 0.25855 0.965088 0
-0.0411299 0.280984 0.958831 0
-0.0386251 0.272632 0.961343 0
-0.0354154 0.289653 0.956476 0
-0.0333588 0.300998 0.953041 0
0.0368851 0.29808 0.953828 0.00633351
-0.207259 0.192974 0.959065 0.02862
-0.198711 0.197242 0.960005 0.0355031
-0.187299 0.22729 0.955646 0.0371487
-0.160296 0.233428 0.959071 0.0340522
-0.14754 0.243053 0.958727 0.0257489
-0.139571 0.233966 0.962175 0.0199711
-0.13471 0.234486 0.962741 0.0246843
-0.126382 0.204173 0.970742 0.0232058
-0.023692 0.234933 0.971723 0.02872
-0.0150471 0.238292 0.971077 0.0227579
-0.00897816 0.222611 0.974866 0.0143117
-0.00254673 0.247564 0.968868 0.0148853
0.0155711 0.212514 0.977034 0.00595205
0.0145437 0.18369 0.982877 0.010581
0.0159826 0.191069 0.981447 0.00599148
0.0164096 0.192301 0.981199 0
0.0168761 0.201638 0.979315 0.00560945
0.0167864 0.189726 0.981693 0.0124953
0.0148185 0.190512 0.981573 0.0100693
0.0154065 0.194667 0.980748 0.00828018
0.014717 0.197751 0.980142 0.019542
0.0157572 0.192088 0.981251 0
0.016979 0.201192 0.979405 0
0.0129297 0.204282 0.978827 0
-9.51397e-05 0.172619 0.984989 0
-0.00462114 0.149362 0.988772 0
-0.00594577 0.177073 0.98418 0
-0.00771364 0.191202 0.98152 0
-0.0103802 0.201455 0.979443 0
-0.0144952 0.182204 0.983154 0
-0.0198671 0.190366 0.981512 0.0100635
-0.021422 0.18451 0.982597 0.00919703
-0.0239564 0.190467 0.981401 0.0143423
-0.0273098 0.171637 0.984782 0.0206711
-0.0260815 0.166456 0.985704 0.0291939
-0.0256681 0.17179 0.984799 0.0320005
-0.0261297 0.175192 0.984187 0.0425288
-0.0247719 0.150834 0.988249 0.0300024
-0.0272416 0.143246 0.989312 0.0257229
-0.0292571 0.129541 0.991142 0.0318056
-0.0265886 0.154191 0.987683 0.0046388
-0.0255415 0.192163 0.98103 0
-0.0233017 0.238373 0.970894 0
-0.0228173 0.223452 0.974448 0
-0.0199388 0.228047 0.973446 0
-0.0171036 0.198401 0.979972 0
-0.0128172 0.17147 0.985106 0
-0.0103539 0.183326 0.982998 0
-0.0117557 0.198852 0.979959 0.00672257
-0.0105579 0.196427 0.980462 0.0171193
-0.00907176 0.240963 0.970492 0.0161994
-0.00902152 0.168463 0.985667 0.0320003
-0.0103025 0.155181 0.987832 0.0411634
-0.00904884 0.143401 0.989623 0.0331399
-0.00907172 0.166486 0.986002 0.0245092
-0.00522842 0.197432 0.980303 0.0216784
-0.00323378 0.19318 0.981158 0
-0.0351939 0.228393 0.972933 0.0185539
-0.20352 0.193333 0.959793 0.0320571
-0.199747 0.214478 0.956086 0.0424202
-0.186462 0.215209 0.958602 0.040976
-0.175868 0.244076 0.953676 0.0404506
-0.167144 0.266148 0.94933 0.0419133
-0.154935 0.257382 0.953808 0.0301629
-0.143882 0.24962 0.957595 0.0285537
-0.132123 0.244395 0.960632 0.0214251
-0.124885 0.235745 0.963757 0.0279318
-0.111576 0.24729 0.962496 0.0202851
-0.101908 0.255207 0.961501 0.020242
-0.046789 0.278428 0.959317 0.0214378
-0.0373165 0.247484 0.968173 0.0241009
-0.0286582 0.25722 0.965928 0.0235096
-0.0254188 0.251577 0.967503 0.0291853
-0.0166476 0.244607 0.969479 0.0305692
-0.00772469 0.246304 0.969162 0.0248361
-0.000993185 0.266745 0.963767 0.0233788
0.00534587 0.243777 0.969817 0.0113921
0.00961412 0.236108 0.971679 0.01536
0.0140799 0.208019 0.978024 0.0127958
0.013685 0.194565 0.980794 0.00970488
0.0164597 0.184739 0.98265 0
0.0160484 0.204265 0.978784 0
0.0143625 0.192425 0.981207 0.000170402
-0.0270018 0.184012 0.982553 0.0208666
-0.01887 0.191876 0.981238 0
-0.194031 0.22839 0.954039 0.0314553
-0.185793 0.229075 0.955513 0.0363616
-0.170897 0.254824 0.951766 0.0329442
-0.167525 0.254518 0.952447 0.037844
-0.158938 0.278869 0.947086 0.0339
-0.139869 0.262375 0.954775 0.0114923
-0.110049 0.272563 0.955824 0.0188459
-0.10281 0.290072 0.951467 0.0244901
-0.0895297 0.290228 0.95276 0.0110363
-0.0752914 0.3112 0.947357 0.020325
-0.062442 0.268259 0.961321 0.01978
-0.0489346 0.273665 0.960579 0.0214793
-0.0349791 0.273883 0.961127 0.0221963
-0.0299136 0.261108 0.964846 0.0162238
0.00150817 0.257977 0.96615 0.0200858
0.00408862 0.248844 0.968535 0.013268
-0.0971631 0.334985 0.9372 0.0215052
-0.092707 0.313968 0.944897 0.0243931
-0.0691289 0.292245 0.953842 0.0212053
-0.0640471 0.310155 0.948526 0.0188475
-0.0566297 -0.27344 0.960221 0.0135632
-0.0470898 -0.241087 0.96936 0.0060558
-0.0403016 -0.245998 0.968432 0.0033328
0.014531 -0.346257 0.938027 0.0144879
-0.067365 -0.267293 0.961258 0.00591094
-0.0603305 -0.260917 0.963474 0.00517561
-0.0524002 -0.219218 0.974268 0.000896771
-0.0475527 -0.231118 0.971763 0
-0.0391679 -0.252755 0.966737 0
-0.030358 -0.23221 0.972192 0
-0.0262573 -0.242032 0.969913 0
0.00356472 -0.313204 0.949679 0.000649776
0.00965853 -0.326643 0.945099 0.011311
0.0173178 -0.32068 0.947029 0.0126948
0.0244415 -0.337348 0.941063 0.0142356
0.0324326 -0.330687 0.943183 0.0168738
0.0398111 -0.340992 0.939223 0.0268207
-0.0933046 -0.239656 0.966364 0.00021665
-0.0897802 -0.229714 0.969108 0.00127749
-0.0863655 -0.249274 0.964574 0.00368399
-0.0836766 -0.269726 0.959295 0.00575432
-0.0735567 -0.231843 0.969968 0.00406265
-0.0739378 -0.266748 0.960926 0.00973371
-0.0699717 -0.256485 0.964012 0.00260423
-0.0681898 -0.262086 0.962632 0.00195102
-0.0650264 -0.265503 0.961915 0.00361948
-0.0590585 -0.231335 0.97108 0
-0.0477772 -0.223313 0.973575 0.00899829
-0.0297611 -0.237241 0.970995 0
-0.0233819 -0.263188 0.964461 0
-0.0185545 -0.254084 0.967004 0
-0.0130121 -0.254579 0.966964 0
-0.00556743 -0.270261 0.962771 0
0.000891583 -0.287051 0.957915 0.00327248
0.00373411 -0.298554 0.954385 0.00876306
0.0291101 -0.302159 0.952813 0.0134786
0.0353391 -0.314845 0.948485 0.0319008
0.0445272 -0.338688 0.939845 0.0242677
0.0455078 -0.313049 0.948646 0.0189713
0.0522838 -0.303067 0.951534 0.0105093
0.0553405 -0.296155 0.953535 0.0101715
0.0661716 -0.31457 0.946925 0.021112
0.0778928 -0.335476 0.938823 0.0200786
-0.0983489 -0.254658 0.962017 0.00594347
-0.093792 -0.233958 0.967712 0.00889948
-0.0898463 -0.236213 0.967539 0.00723777
-0.0805566 -0.212287 0.973881 0
-0.072342 -0.232819 0.969826 0.00127608
-0.0738355 -0.265821 0.961191 0.0166669
-0.0689453 -0.242689 0.967651 0.0144487
-0.0676856 -0.242155 0.967874 0.0129824
-0.0128962 -0.246073 0.969165 0
0.0440814 -0.292469 0.955258 0.018759
0.0463234 -0.272255 0.961109 0.0104291
0.0535699 -0.293759 0.954377 0.0133149
0.0661139 -0.316221 0.946379 0.0216836
0.0764648 -0.32916 0.941173 0.0230391
0.0756397 -0.285278 0.955455 0.0114739
0.0871695 -0.296778 0.95096 0.0265397
0.0833478 -0.257478 0.962683 0.00648462
-0.0984846 -0.245194 0.964459 0
-0.0962977 -0.24941 0.963598 0
0.0493718 -0.276767 0.959668 0.0202263
0.086742 -0.267787 0.959566 0.0147708
0.0942494 -0.280573 0.955194 0.015768
-0.0903798 -0.204121 0.974765 0
-0.0939474 -0.219485 0.971082 0
-0.0931685 -0.218505 0.971378 0
0.0882071 -0.256581 0.962489 0.0202814
0.0926751 -0.250176 0.963755 0.0212615
0.0933678 -0.239829 0.966315 0.0213564
-0.107008 -0.242688 0.964185 0.00487988
-0.102786 -0.244127 0.964281 0
-0.102062 -0.235744 0.966441 0.0103233
-0.10145 -0.243149 0.964669 0.00416955
-0.0990614 -0.23607 0.966673 0.00820042
-0.089639 -0.197873 0.97612 0
-0.0875631 -0.195186 0.97685 0
-0.0878238 -0.187495 0.978332 0
0.101625 -0.268412 0.957929 0.0268654
0.105034 -0.270044 0.957102 0.0188601
-0.112831 -0.254073 0.960581 0.016905
-0.103094 -0.224059 0.969107 0.00691966
-0.100462 -0.219229 0.970488 0.0106552
-0.100083 -0.230147 0.967996 0.0117449
-0.10108 -0.248481 0.963348 0.0184365
-0.0946752 -0.225047 0.969737 0.0138678
-0.0973127 -0.232371 0.967747 0.0190227
0.10481 -0.259648 0.959999 0.0197096
0.108518 -0.257914 0.960054 0.016287
-0.102016 -0.205513 0.973323 0
-0.103879 -0.218146 0.970372 0.00744352
-0.102379 -0.226686 0.968572 0.00656238
0.105323 -0.231824 0.967039 0.0128296
0.112805 -0.242411 0.963593 0.00757745
0.121379 -0.254811 0.959343 0.00028456
0.140114 -0.284189 0.948475 0.00118972
0.147435 -0.282528 0.947861 0
-0.125415 -0.229637 0.965162 0
-0.126525 -0.241391 0.962145 0
-0.120403 -0.239537 0.963392 0
-0.115985 -0.235632 0.964896 0
-0.11992 -0.24945 0.960934 0
-0.103135 -0.219165 0.970222 0
-0.0975086 -0.195239 0.975896 0
-0.0987641 -0.198007 0.975212 0
0.138322 -0.271998 0.952305 0.00584232
0.143872 -0.270599 0.951881 0
0.143561 -0.253713 0.956567 0
0.149566 -0.257118 0.954736 0
-0.131265 -0.229541 0.964407 0
-0.122276 -0.216919 0.968501 0
-0.119433 -0.222919 0.967493 0
-0.11675 -0.22036 0.968406 0
-0.114854 -0.234693 0.965261 0
-0.113749 -0.238884 0.964363 0
-0.1086 -0.231269 0.96681 0
-0.109532 -0.241248 0.964263 0.0070049
-0.0958126 -0.196375 0.975836 0
0.144339 -0.247729 0.958017 0
0.147282 -0.239949 0.959548 0
-0.130026 -0.209422 0.969142 0
-0.130936 -0.228689 0.964654 0
-0.11868 -0.195143 0.973568 0
-0.112899 -0.196532 0.973976 0
-0.115764 -0.23095 0.966054 0
-0.110868 -0.223981 0.968267 0
-0.106455 -0.228191 0.967779 0
0.137176 -0.215827 0.966748 0
0.138283 -0.216758 0.966382 0
0.139703 -0.219098 0.96565 0
-0.122952 -0.150592 0.98092 0
-0.109051 -0.11952 0.986825 0
-0.116582 -0.154986 0.981014 0
-0.118962 -0.167674 0.978639 0
-0.124648 -0.185068 0.974789 0
-0.126874 -0.199132 0.971725 0
-0.119417 -0.191544 0.974192 0
0.143023 -0.227716 0.963167 0
-0.147732 -0.165381 0.975102 0
-0.138967 -0.153518 0.978325 0
-0.12509 -0.139188 0.982334 0
-0.126682 -0.157066 0.979429 0
-0.115367 -0.132874 0.984396 0
-0.111408 -0.134096 0.984686 0
-0.119788 -0.166414 0.978753 0
-0.120066 -0.169138 0.978252 0
-0.123455 -0.18892 0.974201 0
0.140839 -0.225706 0.963961 0
0.147267 -0.227564 0.962563 0
0.151282 -0.231446 0.961013 0
-0.143267 -0.157542 0.977065 0
-0.136439 -0.146504 0.979756 0
-0.128459 -0.139369 0.981873 0
-0.113552 -0.141364 0.983424 0
0.149965 -0.232923 0.960863 0
0.157325 -0.230697 0.960223 0
0.166355 -0.231393 0.958532 0
0.176343 -0.235897 0.955644 0
0.186657 -0.247002 0.950868 0.000634343
-0.146366 -0.163309 0.975657 0
-0.137077 -0.146162 0.979718 0
0.15587 -0.220663 0.962815 0
0.156265 -0.214302 0.964187 0
0.178648 -0.241573 0.953796 0.00771369
0.193648 -0.260779 0.945778 0.00501017
0.191849 -0.249027 0.949305 0.0013671
-0.169553 -0.203456 0.964291 0.0116961
-0.15455 -0.181127 0.97124 0.0044173
-0.15493 -0.183383 0.970756 0.0108985
0.183373 -0.238513 0.953669 0.006595
0.18557 -0.232564 0.954714 0.00508625
0.188093 -0.234349 0.953783 0
-0.172675 -0.197302 0.965016 0.013578
-0.171633 -0.203445 0.963925 0.0161278
-0.16706 -0.203158 0.964789 0.0154486
0.176713 -0.206346 0.96239 0
0.182893 -0.211101 0.960201 0
-0.1546 -0.137933 0.978301 0
-0.176939 -0.183814 0.966905 0.0137303
-0.166754 -0.180898 0.969262 0.00712086
-0.182867 -0.21674 0.958949 0.0263266
-0.176612 -0.217726 0.959898 0.0167042
0.176218 -0.197524 0.96433 0
0.178177 -0.196721 0.964134 0
-0.155215 -0.115039 0.98116 0
-0.151166 -0.121824 0.980973 0
-0.15743 -0.149825 0.976098 0
-0.16157 -0.165313 0.972917 0.00884825
-0.169317 -0.18862 0.967344 0.0172992
0.17464 -0.194371 0.965257 0
-0.173513 -0.116684 0.977895 0
-0.157416 -0.100963 0.982358 0
-0.159701 -0.11887 0.979982 0
-0.15778 -0.130581 0.978802 0
-0.150484 -0.132004 0.97976 0
-0.1614 -0.16808 0.972471 0.00362679
0.170447 -0.184624 0.967916 0
0.169851 -0.177234 0.969401 0
-0.169207 -0.0964485 0.98085 0
-0.172422 -0.109683 0.978897 0
-0.173972 -0.117682 0.977694 0
-0.154205 -0.101206 0.982842 0
-0.157155 -0.120516 0.980193 0
-0.146863 -0.117442 0.98216 0
0.15357 -0.149671 0.976737 0
0.161814 -0.165063 0.972918 0
-0.164693 -0.0876998 0.982438 0
-0.165471 -0.0984721 0.981286 0
-0.159414 -0.0914834 0.982964 0
0.154539 -0.149934 0.976544 0
0.160124 -0.157777 0.974406 0
-0.177298 -0.104006 0.978646 0
-0.160563 -0.0893054 0.982977 0
0.154606 -0.157974 0.975265 0
0.159591 -0.167553 0.97286 0
0.174757 -0.184733 0.967126 0
0.194545 -0.20759 0.958675 0.00412333
0.196407 -0.201247 0.959648 0.00108989
0.217272 -0.228539 0.94898 0.00998977
-0.191774 -0.116227 0.974533 0
-0.174748 -0.0969413 0.979829 0
-0.165197 -0.0935192 0.981817 0
0.151898 -0.156696 0.975896 0
0.164493 -0.173385 0.97102 0
0.179761 -0.188234 0.965533 0.00052208
0.189954 -0.195124 0.962208 0.0030813
0.202074 -0.20756 0.957123 0.0111577
-0.203591 -0.133166 0.969957 0.00800144
-0.184738 -0.108766 0.976751 0
0.20958 -0.219707 0.952788 0.00176085
-0.215136 -0.14036 0.966445 0.0140363
-0.206674 -0.131131 0.969583 0.0134071
-0.195817 -0.133468 0.971515 0
-0.223905 -0.139006 0.964647 0.0176084
-0.23496 -0.162782 0.958277 0.0246305
-0.227976 -0.15614 0.961066 0.027108
0.219015 -0.237075 0.946482 0
-0.220022 -0.132343 0.966476 0.0139415
-0.230331 -0.146335 0.962047 0.0227244
-0.227101 -0.152592 0.961843 0.0243299
0.217664 -0.241283 0.94573 0.00121426
0.216619 -0.233598 0.947897 0
-0.225639 -0.13107 0.965354 0.00243828
-0.215571 -0.121538 0.968895 0.00273141
-0.242991 -0.157937 0.957085 0.0250956
-0.229846 -0.143481 0.962592 0.0266827
-0.218744 -0.142741 0.965285 0.0192165
0.220775 -0.238749 0.945652 0
-0.224216 -0.126183 0.966336 0
-0.226035 -0.130796 0.965298 0.00432723
-0.223333 -0.139645 0.964687 0.00200252
-0.228262 -0.145195 0.962712 0.0144041
-0.205389 -0.114103 0.972006 0.00988191
0.220009 -0.229469 0.948125 0
0.217102 -0.215494 0.952066 0
-0.219177 -0.115598 0.968813 0
-0.215426 -0.113993 0.969844 0
-0.219273 -0.126658 0.967407 0
-0.221582 -0.13922 0.965152 0.00160924
-0.213072 -0.125478 0.968946 0.00578735
-0.224018 -0.14477 0.963773 0.0170115
0.204962 -0.201203 0.957866 0
0.210189 -0.205138 0.955897 0
0.211923 -0.199179 0.956774 0
-0.224274 -0.113392 0.967907 0
-0.227422 -0.124966 0.965745 0
-0.211587 -0.107689 0.971408 0
-0.213066 -0.110823 0.970732 0
-0.224833 -0.134071 0.96513 0.0104137
0.20667 -0.197619 0.958245 0
0.209135 -0.1961 0.958023 0
-0.224098 -0.108302 0.96853 0
-0.218655 -0.104149 0.970228 0
-0.210868 -0.0990226 0.972486 0
-0.204815 -0.0937311 0.974302 0
0.207031 -0.190761 0.959556 0
-0.225657 -0.11467 0.967435 0
-0.220141 -0.107548 0.969521 0
-0.212866 -0.104813 0.971443 0
0.206602 -0.186336 0.960518 0
-0.220618 -0.110707 0.969057 0
-0.215465 -0.105256 0.970822 0
0.201595 -0.173362 0.964005 0
0.205468 -0.163339 0.964937 0
0.226253 -0.181716 0.956969 0
-0.215101 -0.104311 0.971005 0
-0.213003 -0.10706 0.971168 0
0.20727 -0.156479 0.965688 0
0.218885 -0.161142 0.962353 0
0.234487 -0.158996 0.959029 0
0.259995 -0.176174 0.949403 0
0.285484 -0.196311 0.938062 0
-0.23524 -0.131696 0.962974 0.00513972
-0.22273 -0.120271 0.967433 0.000550989
0.216147 -0.154888 0.963997 0
0.241406 -0.165542 0.9562 0
0.262171 -0.179067 0.948262 0
0.277197 -0.178513 0.944084 0
0.289938 -0.181694 0.93964 0
-0.226555 -0.10418 0.968411 0
-0.227843 -0.114438 0.96695 0.00114393
0.278935 -0.175069 0.944217 0.00343405
0.317792 -0.194235 0.928052 0.0151593
-0.226627 -0.0968186 0.969158 0.000942462
-0.224382 -0.0988279 0.969477 0.00313381
0.302696 -0.174608 0.936957 0.010135
-0.228265 -0.101059 0.96834 0
-0.227422 -0.0987878 0.968772 0.0072326
-0.238497 -0.10645 0.965292 0.00548061
-0.228258 -0.101538 0.968291 0.0049171
-0.251839 -0.102758 0.962298 0.0120482
-0.229611 -0.0934863 0.968782 0.00478303
-0.234665 -0.0979077 0.967133 0.015542
-0.256354 -0.0919687 0.962198 0.00964679
-0.254309 -0.108921 0.96097 0.00847922
-0.259516 -0.11951 0.958316 0.0235682
-0.279457 -0.0940976 0.955536 0.0137833
-0.246626 -0.0824391 0.965598 0.000513957
-0.25468 -0.102537 0.961574 0.0117687
-0.255175 -0.107309 0.960922 0.0182616
-0.313414 -0.104981 0.943796 0.0294961
-0.288543 -0.0956348 0.952679 0.0179109
-0.257824 -0.0873704 0.962233 0.0143675
-0.247818 -0.0813873 0.965382 0.012077
-0.239169 -0.0816066 0.967542 0.0116001
0.315892 -0.0939022 0.944137 0
0.323706 -0.0925087 0.941624 0
-0.347949 -0.12668 0.928915 0.0418217
-0.32099 -0.107631 0.940947 0.033846
-0.307089 -0.103337 0.946054 0.033206
-0.275475 -0.0966253 0.95644 0.0231753
-0.247311 -0.0851714 0.965185 0.00836193
-0.242242 -0.0811062 0.96682 0.0134682
0.310596 -0.0768925 0.947427 0
0.315608 -0.0767374 0.945782 0
-0.32008 -0.0951544 0.9426 0.0183286
-0.294789 -0.0865011 0.951639 0.00989404
-0.284625 -0.0748549 0.955712 0.0149814
-0.289513 -0.0827212 0.953593 0.0270244
-0.249482 -0.0555607 0.966784 0.0155302
-0.247597 -0.0629491 0.966816 0.0123842
0.313078 -0.0609944 0.947767 0
-0.336447 -0.0950076 0.936898 0.0212853
-0.328783 -0.0951174 0.939603 0.0210607
-0.299555 -0.0765169 0.951006 0.0140969
-0.282369 -0.0697798 0.956765 0.0142588
-0.284143 -0.07394 0.955927 0.0255183
0.316622 -0.0605313 0.946618 0
-0.34085 -0.0944091 0.935365 0.0217111
-0.32013 -0.0761461 0.944309 0.0203985
-0.311452 -0.0807925 0.946821 0.0238788
-0.285957 -0.0632348 0.956154 0.0178697
-0.279856 -0.0696891 0.957509 0.0207014
-0.338016 -0.0736929 0.938251 0.0236929
-0.308634 -0.0596681 0.949307 0.0157298
-0.293172 -0.0526184 0.95461 0.0186976
-0.27778 -0.0540032 0.959126 0.014191
-0.324829 -0.0557773 0.944127 0.0216486
-0.30453 -0.0507496 0.95115 0.0169549
-0.301233 -0.0520579 0.952129 0.0239564
-0.313959 -0.0348647 0.948796 0.0227747
-0.306705 -0.0371252 0.95108 0.0228546
-0.289794 -0.03762 0.956349 0.0180999
-0.272181 0.0045206 0.962236 0
-0.267199 -0.0028439 0.963637 0
-0.308382 -0.0132079 0.951171 0.0197404
-0.264181 0.00787862 0.964441 0
0.314237 -0.00830031 0.949308 0
-0.324556 -0.00174764 0.945865 0.0218308
-0.293049 0.000465342 0.956097 0.00695415
-0.29345 0.00506894 0.955961 0.0183221
-0.33473 0.0166778 0.942166 0.0284048
-0.323338 0.0140711 0.946179 0.027252
-0.298442 0.0226896 0.954158 0.0192783
0.312366 0.000120131 0.949962 0.00186816
-0.334724 0.0245832 0.941995 0.0303678
-0.30339 0.0403503 0.952012 0.0199187
-0.289772 0.0352431 0.956447 0.0145293
0.306972 0.00978417 0.951668 0.00471931
-0.343642 0.0300106 0.938621 0.039108
-0.297843 0.0462344 0.953495 0.018382
-0.277003 0.0601457 0.958985 0.0129073
0.286794 0.0427836 0.957037 0
-0.323602 0.0465224 0.945049 0.031841
-0.305067 0.0565687 0.950649 0.0269483
-0.285256 0.0583253 0.956675 0.0221845
0.287785 0.0523547 0.956263 0
-0.302576 0.0587849 0.951311 0.02082
-0.299228 0.0545311 0.952622 0.0239711
-0.293413 0.0583926 0.954201 0.0315386
-0.285979 0.0686993 0.95577 0.0359711
0.283212 0.0648895 0.95686 0
-0.320176 0.052989 0.945875 0.0462329
-0.286872 0.0734985 0.955145 0.0336882
-0.277121 0.0728796 0.958067 0.0320923
0.275954 0.0765869 0.958115 0
0.303746 0.0678272 0.950336 0.0150571
-0.289552 0.0589269 0.955347 0.0327708
-0.266765 0.0769639 0.960684 0.0225919
-0.258777 0.0805713 0.962571 0.0199049
0.278313 0.0853306 0.956693 0.0144217
0.290907 0.0876961 0.952724 0.00449788
-0.278595 0.0746663 0.957502 0.0251374
-0.261736 0.0821056 0.961641 0.0208867
-0.240034 0.0884995 0.966722 0.0107172
0.264018 0.108462 0.9584 0.0137204
0.277538 0.109056 0.954505 0.017136
0.282828 0.103973 0.953519 0.000564311
0.299647 0.0930372 0.949503 0
-0.268796 0.0894337 0.959036 0.0197662
-0.263495 0.0831386 0.961072 0.0251175
-0.24295 0.0869312 0.966136 0.0183385
-0.228064 0.0967348 0.968829 0.010712
0.241647 0.154684 0.957956 0.00728035
0.266266 0.127222 0.955467 0.0187529
0.26841 0.128983 0.95463 0.0058524
0.287935 0.117597 0.950402 0.0129326
0.295786 0.11772 0.947973 0
-0.261555 0.103248 0.95965 0.0198719
-0.252828 0.0973718 0.962599 0.0234929
-0.229066 0.105567 0.96767 0.00887919
-0.217798 0.104088 0.970428 0
0.247941 0.144072 0.958002 0.0174583
0.259499 0.140008 0.955541 0.0124215
0.277348 0.118977 0.953374 0.0217018
0.277734 0.127193 0.9522 0.000351204
0.2957 0.12946 0.946468 0
-0.269033 0.0931658 0.958614 0.0308595
-0.254565 0.10133 0.961732 0.026576
-0.245504 0.11031 0.963099 0.0192791
-0.218468 0.113492 0.969222 0
-0.215246 0.111818 0.970137 0
0.255228 0.143598 0.956158 0.0298168
0.265734 0.142478 0.95346 0.0259497
0.277544 0.131824 0.951626 0.0245763
-0.264176 0.116442 0.957419 0.0337465
-0.246525 0.121913 0.961438 0.0220369
-0.22269 0.122604 0.967149 0.00176819
-0.220122 0.116656 0.968472 0.00367557
0.257879 0.146338 0.955031 0.0367759
0.274661 0.14034 0.951244 0.0447753
0.277003 0.146703 0.949604 0.026956
-0.253796 0.122368 0.959486 0.0238308
-0.254943 0.131936 0.957913 0.0322195
-0.236332 0.122652 0.9639 0.0197849
-0.223635 0.120244 0.967227 0.0148019
0.25947 0.157798 0.952772 0.0436244
0.269466 0.148531 0.951486 0.0445445
-0.260471 0.140822 0.955157 0.0323719
-0.250771 0.153499 0.955799 0.0305034
-0.229496 0.135053 0.963894 0.0125554
0.257173 0.159679 0.953082 0.0408415
-0.259179 0.145406 0.954821 0.0326909
-0.251777 0.150136 0.956069 0.0336135
-0.233063 0.156579 0.959773 0.0160006
0.242726 0.185762 0.952143 0.0277001
0.258501 0.170666 0.950815 0.0373168
-0.234579 0.173586 0.956473 0.0251808
-0.207057 0.171366 0.963204 0.0172657
0.237841 0.219029 0.946286 0.0291663
0.245117 0.189006 0.950891 0.0268877
-0.224662 0.176874 0.95825 0.017569
-0.21003 0.201468 0.956712 0.0261222
0.0145638 0.182891 0.983025 0
0.00902743 0.165691 0.986136 0
0.00760946 0.161145 0.986901 0
-0.0186947 0.140311 0.989931 0
0.234359 0.241941 0.941563 0.0277228
0.242873 0.225826 0.943406 0.0314232
0.246758 0.205606 0.947015 0.0225608
-0.210683 0.194365 0.958037 0.0266234
-0.202887 0.198447 0.958882 0.0190555
-0.136049 0.191209 0.972075 0.0109153
0.0165615 0.192206 0.981215 0
0.0175526 0.198321 0.97998 0.002373
0.0158956 0.207386 0.97813 0
0.0138497 0.192124 0.981273 0
0.00946782 0.157378 0.987493 0
0.00654942 0.171318 0.985194 0
0.00474862 0.19725 0.980342 0
-0.0176275 0.134469 0.990761 0.00217867
-0.0184329 0.127356 0.991686 0.000401668
-0.0210279 0.13165 0.991073 0.0048299
-0.0210516 0.159422 0.986986 0.00999124
-0.0175028 0.186502 0.982299 0
-0.0188428 0.194572 0.980707 0
-0.0225633 0.175359 0.984246 0
-0.0366177 0.211867 0.976612 0.00907937
-0.0406509 0.201945 0.978553 0.00553823
-0.043089 0.204249 0.97797 0
-0.043755 0.21502 0.975629 0
-0.0357912 0.276559 0.96033 0
-0.0367189 0.259447 0.965059 0.00569962
-0.0396698 0.217323 0.975293 0.0112708
0.148837 0.303782 0.941044 0
0.156272 0.29099 0.943877 0
0.168717 0.285356 0.943455 0.00437711
0.202446 0.281585 0.937937 0
0.221737 0.262494 0.939111 0.0204443
0.230185 0.246969 0.941287 0.0213648
0.243836 0.232975 0.941417 0.0308903
-0.206864 0.184635 0.96079 0.0237725
-0.204284 0.188221 0.960646 0.030587
-0.146838 0.198215 0.969097 0.022825
-0.139523 0.207078 0.968324 0.0199308
-0.136162 0.196155 0.971073 0.01898
-0.123392 0.214464 0.968906 0.00859877
-0.0231794 0.214818 0.976379 0.0267844
-0.0185421 0.210811 0.977351 0.0164391
0.0181809 0.213529 0.976767 0
0.0181546 0.20003 0.979622 0
0.0170029 0.204327 0.978755 0
0.0150388 0.180511 0.983458 0.0111744
0.016107 0.180602 0.983424 0.0103142
0.0122793 0.171884 0.985041 0.000241535
0.0160624 0.221442 0.975041 0
0.0141662 0.19696 0.980309 0
0.00986497 0.168746 0.98561 0
0.0057506 0.184596 0.982798 0
0.00410182 0.200413 0.979703 0
-0.000574123 0.17986 0.983692 0
-0.00242284 0.178037 0.984021 0
0.000112612 0.204064 0.978958 0
-0.00632623 0.156249 0.987697 0.00525028
-0.0113937 0.157083 0.98752 0.00981348
-0.0141973 0.150194 0.988555 0
-0.0197765 0.124345 0.992042 0.00256488
-0.0204126 0.146839 0.98895 0.00429771
-0.0214987 0.163075 0.986379 0.0069194
-0.0250606 0.147869 0.988689 0.0147277
-0.0273026 0.121067 0.992269 0.0171674
-0.0276647 0.108327 0.99373 0.00150828
-0.028804 0.120984 0.992236 0.00643495
-0.0281868 0.128945 0.991251 0
-0.0158104 0.150296 0.988515 0.0205056
-0.0154686 0.157737 0.98736 0.0250759
-0.00853843 0.217109 0.97611 0
-0.0163506 0.190701 0.981512 0.0154952
-0.0177983 0.201497 0.979327 0
-0.0194004 0.193322 0.980944 0
-0.0246582 0.175114 0.984239 0.0103826
-0.0251326 0.167238 0.985596 0.00390831
-0.0269316 0.24405 0.969388 0
-0.0271773 0.238993 0.970641 0.00381717
-0.028345 0.245215 0.969054 0.00140319
-0.0323191 0.243916 0.969258 0.00740094
-0.0361394 0.242204 0.969552 0
-0.0424465 0.217061 0.975235 0
-0.0424775 0.240846 0.969633 0
-0.0438851 0.244169 0.968739 0
-0.0428384 0.255587 0.965836 0
-0.043603 0.224355 0.973532 0
-0.0393498 0.25036 0.967353 0
-0.036909 0.258972 0.965179 0
-0.0334383 0.287079 0.957323 0
-0.0353488 0.286124 0.95754 0
-0.0360666 0.257649 0.965565 0.000175622
-0.0363169 0.24404 0.969085 0.0067179
-0.0355247 0.248626 0.967948 0.00720784
0.000116717 0.283822 0.958877 0
0.0190583 0.318364 0.947777 0
0.129483 0.256171 0.95792 0
0.140123 0.287398 0.947506 0
0.14994 0.30383 0.940854 0
0.162112 0.317729 0.934221 0
0.171486 0.309812 0.935205 0
0.185775 0.308179 0.933013 0.0170548
0.195886 0.277431 0.940564 0
0.206905 0.279093 0.937709 0
0.215313 0.287901 0.933142 0.00669456
-0.217465 0.191831 0.957032 0.0392119
-0.204658 0.206476 0.956809 0.0283963
-0.196394 0.191639 0.961615 0.0357477
-0.192179 0.213798 0.957788 0.0322691
-0.172592 0.204206 0.963593 0.0274741
-0.157921 0.2015 0.966674 0.02555
-0.141044 0.203567 0.968848 0.00497056
-0.140746 0.200173 0.969599 0.0261502
-0.135144 0.193044 0.971838 0.0171319
-0.126619 0.219685 0.967319 0.0196514
-0.0266379 0.2431 0.969635 0.0190347
-0.0233753 0.228206 0.973332 0.020981
-0.0139834 0.214606 0.976601 0.0157271
-0.0110831 0.212711 0.977052 0.0245444
0.0201761 0.233628 0.972117 0
0.019682 0.213486 0.976748 0
0.0146344 0.174103 0.984619 0.0112694
0.0151229 0.187333 0.98218 0.002367
0.0133093 0.172195 0.984973 0.0116983
0.0165386 0.195123 0.980639 0.00435649
0.0156597 0.184117 0.98278 0.0199972
0.0151293 0.201387 0.979395 0
0.0129275 0.184718 0.982706 0.000234305
0.0119554 0.203787 0.978942 0
0.0116327 0.187502 0.982195 0
0.00396184 0.196109 0.980574 0
0.000296759 0.185739 0.982599 0
-0.00208735 0.163121 0.986604 0
-0.00434333 0.165814 0.986148 0
-0.00669628 0.170928 0.985261 0.00433158
-0.0086481 0.187206 0.982283 0
-0.0133453 0.167259 0.985823 0
-0.0184466 0.1483 0.98877 0
-0.0189193 0.160058 0.986926 0
-0.0216987 0.18905 0.981728 0.0111572
-0.0271766 0.156242 0.987345 0.0304507
-0.0252111 0.184941 0.982426 0.0291814
-0.0271438 0.141166 0.989614 0.0412315
-0.0260745 0.120151 0.992413 0.0382991
-0.0277409 0.11334 0.993169 0.0293777
-0.0278086 0.127544 0.991443 0.0180502
-0.0284364 0.1171 0.992713 0.00788598
-0.0287776 0.109964 0.993519 0.00437036
-0.0267475 0.155274 0.987509 0
-0.0260934 0.194269 0.980601 0
-0.0129814 0.17023 0.985319 0.00760037
-0.0137652 0.17675 0.98416 0.00889469
-0.0146864 0.144774 0.989356 0.0231593
-0.0141805 0.165439 0.986118 0.0240723
-0.0128909 0.172514 0.984923 0.0373258
-0.0141314 0.191016 0.981485 0.0271996
-0.0135435 0.164618 0.986264 0.0238714
-0.0146338 0.145198 0.989295 0.0283094
-0.00979853 0.172037 0.985042 0.0176959
-0.00860788 0.19564 0.980638 0.00364807
-0.00771133 0.230232 0.973105 0.0054801
-0.00790849 0.216222 0.976312 0
-0.0130471 0.185396 0.982577 0.00283246
-0.0161782 0.198227 0.980023 0
-0.0228962 0.183892 0.98268 0.00500764
-0.0255277 0.157649 0.987165 0.00588708
-0.0262943 0.147503 0.988712 0.00713302
-0.0257714 0.197266 0.980011 0
-0.0250455 0.233954 0.971925 0
-0.0256022 0.246993 0.968679 0
-0.0403886 0.258773 0.965093 0
-0.0427504 0.243369 0.968991 0
-0.0429072 0.247231 0.968006 0
-0.0391485 0.270418 0.961947 0
-0.0384651 0.271399 0.961698 0
-0.0338152 0.287437 0.957203 0
-0.0338519 0.26207 0.964455 0.0114157
-0.0219107 0.237805 0.971066 0.0033516
-0.00860513 0.272119 0.962225 0
0.002154 0.299863 0.95398 0
0.0109628 0.306551 0.951791 0
0.0199003 0.349018 0.936905 0
0.0291244 0.302768 0.952619 0
0.0362904 0.27999 0.959317 0
0.0442154 0.266941 0.962698 0.0195466
0.0614296 0.282224 0.95738 0.0187116
0.175619 0.307514 0.935197 0.00189402
-0.20513 0.195934 0.958922 0.0367905
-0.197744 0.202158 0.959182 0.0377329
-0.189691 0.221393 0.956558 0.0372691
-0.173564 0.20156 0.963976 0.0320983
-0.160824 0.233519 0.95896 0.0250219
-0.150965 0.214112 0.965073 0.0251427
-0.142494 0.195125 0.970372 0.0288373
-0.130004 0.199391 0.971258 0.0079707
-0.123065 0.207589 0.970444 0.0131972
-0.115552 0.204589 0.972004 0.0216249
-0.0422662 0.25191 0.966827 0.0270671
-0.0292532 0.253973 0.966769 0.0195892
-0.0239344 0.217003 0.975878 0.0270216
-0.0147827 0.21685 0.976093 0.0219055
-0.00889452 0.233618 0.972288 0.0168279
-0.00451348 0.21619 0.976341 0.020464
0.00201881 0.223515 0.974698 0.00822243
0.00765093 0.220779 0.975294 0
0.0119544 0.192241 0.981275 0
0.0164492 0.199782 0.979702 0
0.0178958 0.201333 0.979359 0.000768749
0.0173821 0.204445 0.978724 0.00310838
0.0180919 0.202605 0.979093 0
0.0160705 0.18623 0.982375 0.0152633
0.0154305 0.202845 0.979089 0.0108677
0.0140876 0.198908 0.979917 0.0231169
0.0137444 0.192582 0.981185 0.00604017
0.0158195 0.192772 0.981116 0
-0.00219722 0.157343 0.987542 0
-0.00746563 0.163265 0.986554 0.000717192
-0.00717595 0.17559 0.984437 0
-0.0105839 0.195902 0.980566 0.000975008
-0.0248414 0.187217 0.982004 0.0156186
-0.0275029 0.164208 0.986042 0.0276862
-0.0264775 0.16565 0.985829 0.0371038
-0.0244786 0.157731 0.987179 0.0423297
-0.0254828 0.149315 0.988461 0.0369316
-0.0261162 0.130898 0.991052 0.0316155
-0.0281948 0.133949 0.990587 0.0272696
-0.0290135 0.128756 0.991252 0.019308
-0.0261951 0.170139 0.985072 0
-0.0253777 0.210257 0.977317 0
-0.0233527 0.22322 0.974488 0
-0.0204303 0.218219 0.975686 0
-0.017118 0.195275 0.980599 0
-0.0124803 0.206015 0.978469 0
-0.0115845 0.197352 0.980264 0
-0.0136791 0.185926 0.982469 0.00999159
-0.0144152 0.124641 0.992097 0.0259875
-0.0125156 0.145482 0.989282 0.0267688
-0.009581 0.165864 0.986102 0.016845
-0.00859289 0.167725 0.985796 0.0150432
0.0201932 0.318002 0.947875 0
0.0275223 0.311109 0.949976 0
0.0386692 0.298333 0.953678 0.0135753
-0.197817 0.214086 0.956575 0.0424456
-0.189323 0.208932 0.959429 0.0408898
-0.173759 0.222763 0.959262 0.0368135
-0.161019 0.233509 0.95893 0.0314705
-0.151898 0.246641 0.957129 0.0247832
-0.140572 0.22558 0.96403 0.0227225
-0.121345 0.192658 0.973734 0.0189924
-0.113054 0.222453 0.968366 0.0255838
-0.103874 0.233901 0.966696 0.0176142
-0.0745255 0.280133 0.957064 0.00175305
-0.0576111 0.246904 0.967326 0.0232582
-0.0491113 0.273238 0.960692 0.0212165
-0.0398102 0.269724 0.962114 0.0254004
-0.0293335 0.251186 0.967494 0.0208007
-0.00785781 0.234379 0.972113 0.0179094
-0.00324355 0.231235 0.972893 0.0177288
0.0030833 0.226411 0.974027 0.00921532
0.00894596 0.213804 0.976836 0.0028846
0.0139442 0.196958 0.980313 0.00255169
0.0139687 0.187338 0.982196 0.00818283
-0.0274317 0.158108 0.987041 0.0290324
-0.0255124 0.168179 0.985426 0.0371584
-0.0254579 0.168375 0.985394 0.0351221
-0.0216362 0.245372 0.969188 0
-0.0163242 0.196124 0.980443 0
-0.109713 0.241618 0.964149 0.025183
-0.101073 0.251882 0.962465 0.0186498
-0.087992 0.266162 0.959904 0.0138156
-0.0724348 0.273756 0.959068 0.019398
-0.0604056 0.255672 0.964875 0.0307074
-0.051928 0.251849 0.966372 0.0319393
-0.0404373 0.262194 0.964167 0.0239447
-0.0282387 0.279505 0.959729 0.0120821
0.00374298 0.240483 0.970646 0.0120792
0.0095694 0.241367 0.970387 0.0119487
-0.0426318 -0.223959 0.973666 0.000113007
-0.0392511 -0.231678 0.972 0
0.0142667 -0.3053 0.952149 0.00795
-0.0641255 -0.268115 0.96125 0.00645175
-0.0579049 -0.2174 0.974363 0.00413608
-0.0513807 -0.218289 0.974531 0
-0.0462706 -0.227396 0.972702 0.00756522
-0.0376345 -0.241073 0.969777 0
-0.0313278 -0.251499 0.96735 0.00169725
-0.0221589 -0.260056 0.965339 0
-2.08127e-05 -0.278371 0.960474 0.000738877
0.00806062 -0.312758 0.949799 0.013759
0.0136148 -0.305807 0.951996 0.0108802
0.0171855 -0.281489 0.959411 0.00720877
0.0245428 -0.282261 0.959024 0.0161517
0.0294416 -0.294704 0.955135 0.0285319
0.0382583 -0.302243 0.952463 0.0240686
-0.088484 -0.215387 0.972512 0.00147149
-0.0865899 -0.21554 0.972648 0.00489725
-0.0804431 -0.201114 0.976259 0.0017235
-0.0768373 -0.218756 0.97275 0.00559631
-0.0708231 -0.224317 0.971939 0.000205206
-0.0716753 -0.242496 0.967501 0.0078096
-0.0680904 -0.239743 0.968446 0.0129134
-0.0654453 -0.218953 0.973538 0.00827516
-0.0646949 -0.255713 0.964586 0.0148367
-0.0602803 -0.24731 0.967059 0.0177953
-0.0453852 -0.214017 0.975775 0.00606092
-0.0378023 -0.219274 0.974931 0.00125974
-0.0252487 -0.231382 0.972535 0
-0.0225569 -0.235536 0.971604 0
-0.0194992 -0.234495 0.971922 0
-0.0136064 -0.236111 0.971631 0
-0.00670059 -0.249909 0.968246 0
-0.00276261 -0.238341 0.971178 0
0.00335828 -0.260265 0.965531 0.000123571
0.00841431 -0.277931 0.960564 0.00748063
0.0149831 -0.266303 0.963773 0.0140773
0.0234271 -0.267635 0.963236 0.0190253
0.03437 -0.309063 0.95042 0.0351869
0.0355274 -0.293651 0.955252 0.024781
0.0420726 -0.302372 0.952261 0.0261487
0.074624 -0.317259 0.945398 0.027665
0.0729412 -0.27889 0.957549 0.021044
-0.0934639 -0.224032 0.97009 0
-0.0895817 -0.201328 0.975419 0.000639604
-0.0820202 -0.18895 0.978555 0
-0.078042 -0.202608 0.976145 0
-0.0735683 -0.19566 0.977908 0.00115824
-0.0679215 -0.192244 0.978994 0
-0.0670326 -0.210174 0.975363 0
-0.0662215 -0.212283 0.974962 0.0123114
-0.0634426 -0.197432 0.978261 0.0088662
-0.065591 -0.243067 0.967789 0.0261081
-0.0195775 -0.236428 0.971452 0
-0.0139039 -0.226031 0.974021 0
-0.00937016 -0.221473 0.975121 0
0.0449749 -0.297525 0.953654 0.0266769
0.0499501 -0.301253 0.952235 0.0236622
0.0504891 -0.277007 0.959541 0.0179687
0.0624699 -0.293959 0.953774 0.0271967
0.0700231 -0.301305 0.950953 0.0271157
0.0697681 -0.26642 0.961329 0.02038
0.0809531 -0.265903 0.960595 0.026975
0.0868578 -0.267583 0.959612 0.0210917
0.0848325 -0.250732 0.964332 0.0123339
-0.0919019 -0.211919 0.972956 0
-0.0893218 -0.196134 0.9765 0.00252882
-0.0827051 -0.155765 0.984326 0
-0.0666179 -0.206886 0.976094 0.0198372
-0.0172759 -0.218982 0.975576 0.00173831
0.0455798 -0.274938 0.960381 0.024741
0.0515675 -0.274415 0.960228 0.0228873
0.0576386 -0.281733 0.95776 0.0247762
0.0642165 -0.281381 0.957445 0.027991
0.0646018 -0.24498 0.967373 0.0172175
0.0865726 -0.267037 0.95979 0.0241856
0.0892913 -0.262575 0.960771 0.0249515
0.0900294 -0.255243 0.962676 0.0146446
-0.0860677 -0.176461 0.980538 0
-0.0847615 -0.183887 0.979286 0
-0.0862071 -0.183114 0.979305 0
0.0933927 -0.276594 0.956438 0.0263255
0.0955005 -0.264196 0.959729 0.0246222
0.0995975 -0.268422 0.958139 0.0242867
-0.108009 -0.24981 0.962252 0.01705
-0.103022 -0.231391 0.967391 0.017946
-0.0944268 -0.204227 0.974359 0.00566696
-0.100338 -0.239512 0.965695 0.0127033
-0.102379 -0.252668 0.962121 0.0280758
-0.0935613 -0.213356 0.972484 0.0145234
-0.0910516 -0.206018 0.974303 0.0132806
-0.0864579 -0.179507 0.97995 0.00653411
-0.0831128 -0.170151 0.981907 0
0.0975297 -0.258914 0.960964 0.0264064
0.0985812 -0.241358 0.965416 0.0203726
-0.107584 -0.240588 0.964647 0.0182082
-0.106817 -0.244912 0.963643 0.0253972
-0.0990153 -0.226894 0.968873 0.0170895
-0.103877 -0.257075 0.960792 0.0205029
-0.0927874 -0.218706 0.971369 0.0177312
-0.0875901 -0.18582 0.978672 0.0103038
-0.090408 -0.193116 0.977002 0.0248548
-0.0844364 -0.175334 0.980882 0.0076517
0.0957914 -0.228429 0.968836 0.0194331
0.0979602 -0.217587 0.971113 0.0176554
-0.100746 -0.20959 0.972585 0.00251457
-0.110154 -0.250183 0.961912 0.0280659
-0.106 -0.247514 0.963068 0.0239795
-0.0857135 -0.180995 0.979742 0.0108284
0.0908322 -0.20747 0.974015 0.0187555
0.104889 -0.23004 0.967512 0.0185421
0.105808 -0.221302 0.969448 0.0134754
0.105976 -0.201964 0.973643 0
0.126456 -0.246038 0.960976 0.00121488
0.137304 -0.258142 0.9563 0
0.136454 -0.243598 0.960229 0
-0.116167 -0.220857 0.968363 0
-0.0986087 -0.212545 0.972163 0.00113218
-0.0969969 -0.208747 0.973148 0
-0.0938196 -0.190609 0.977173 0
-0.107271 -0.24751 0.962929 0.0215012
0.098387 -0.208407 0.973081 0.0185198
0.0968711 -0.197424 0.97552 0.00885238
0.102415 -0.188945 0.976632 0
0.122852 -0.232252 0.964866 0
0.126806 -0.228088 0.965348 0
0.132433 -0.228849 0.964412 0
0.140691 -0.244456 0.9594 0
-0.115336 -0.189896 0.975006 0
-0.113288 -0.191876 0.974859 0
-0.10745 -0.195967 0.974706 0
-0.114626 -0.236706 0.964796 0.000656996
-0.108573 -0.223857 0.968556 0.00159117
-0.103293 -0.216448 0.970815 0.00897439
-0.0936757 -0.188308 0.977632 0.00421431
-0.0957342 -0.208252 0.973379 0.000423024
-0.0923533 -0.1827 0.978821 0.00426439
0.131839 -0.216723 0.96729 0
0.135269 -0.218638 0.966385 0
0.138602 -0.221083 0.965356 0
-0.120962 -0.20243 0.971797 0
-0.109534 -0.173563 0.978712 0
-0.107686 -0.171652 0.979254 0
-0.10662 -0.189711 0.976034 0
-0.10932 -0.21651 0.97014 0
-0.109384 -0.23134 0.966704 0.011214
-0.10356 -0.219164 0.970176 0.00870543
-0.100685 -0.212326 0.971998 0.01882
0.132076 -0.214103 0.967841 0
0.134094 -0.209858 0.968493 0
0.140699 -0.228772 0.963259 0
-0.113504 -0.153568 0.981597 0
-0.121908 -0.188173 0.974541 0
-0.119116 -0.192784 0.973984 0
-0.101551 -0.147337 0.983859 0
-0.0998517 -0.151987 0.983326 0
-0.0959684 -0.191363 0.976816 0
-0.0950294 -0.197974 0.97559 0
0.135806 -0.219565 0.9661 0
0.144525 -0.247967 0.957927 0
-0.123876 -0.120871 0.984909 0
-0.121335 -0.133566 0.983584 0
-0.109292 -0.118835 0.986881 0
-0.115756 -0.140371 0.983309 0
-0.114203 -0.148344 0.98232 0
-0.106589 -0.128685 0.985941 0
-0.11409 -0.163977 0.979845 0
-0.113093 -0.16987 0.978956 0
0.14562 -0.245335 0.958439 0.00933963
0.151842 -0.246192 0.957253 0.0129012
0.145119 -0.225045 0.963481 0
-0.131167 -0.138728 0.981606 0
-0.129754 -0.134773 0.982344 0
-0.119362 -0.119284 0.985659 0
-0.114928 -0.131796 0.984592 0
-0.123168 -0.163487 0.978827 0
-0.112508 -0.144116 0.983144 0
-0.101773 -0.117542 0.987839 0
-0.109102 -0.143763 0.98358 0
0.136446 -0.213461 0.967376 0
0.136499 -0.199566 0.97033 0
0.145853 -0.208354 0.967117 0
0.158852 -0.222083 0.962001 0.00497441
0.171615 -0.236739 0.956296 0
0.189709 -0.261503 0.946375 0.01234
-0.154837 -0.183609 0.970728 0.0107605
-0.141453 -0.161539 0.976676 0.0053412
-0.147169 -0.1807 0.972465 0.0113833
-0.111386 -0.141071 0.983713 0
0.126717 -0.180047 0.975462 0
0.14606 -0.212769 0.966124 0.00660371
0.161966 -0.226328 0.960491 0.0120203
0.166143 -0.224422 0.960225 0.00511766
0.170066 -0.222971 0.959876 0.00463188
0.170058 -0.211574 0.962453 0
-0.154743 -0.184091 0.970652 0.0129266
-0.144555 -0.165431 0.97557 0.0118819
0.169504 -0.209463 0.963013 0
0.176559 -0.214287 0.960681 0
-0.167867 -0.206479 0.963943 0.0126764
-0.155972 -0.187539 0.969795 0.0150377
-0.148124 -0.172145 0.973871 0.0198777
0.163168 -0.195274 0.96708 0
0.166981 -0.196514 0.966178 0
0.169116 -0.190441 0.967022 0
-0.173626 -0.190508 0.966209 0.0247207
-0.146735 -0.158776 0.97635 0.00498835
-0.148794 -0.171983 0.973798 0.00729716
0.164102 -0.192972 0.967384 0
0.16729 -0.187717 0.967872 0
0.168454 -0.184559 0.968277 0
-0.15441 -0.155499 0.975693 0
-0.164406 -0.172222 0.971242 0.0175222
-0.14889 -0.156689 0.976361 0.0106818
-0.14637 -0.161262 0.975997 0.0106795
0.157993 -0.168773 0.97291 0
0.163406 -0.180043 0.969991 0
-0.168608 -0.113432 0.979135 0
-0.159422 -0.108015 0.981284 0
-0.155524 -0.115316 0.981078 0
-0.148068 -0.122802 0.981323 0
-0.163306 -0.162894 0.973035 0.0159945
-0.1635 -0.173322 0.971199 0.0191821
0.148726 -0.14259 0.978544 0
-0.162573 -0.104141 0.981185 0
-0.151782 -0.0962976 0.983712 0
-0.150652 -0.0992045 0.983597 0
-0.14811 -0.120282 0.981629 0
-0.145795 -0.135179 0.980036 0
-0.160537 -0.171188 0.972071 0.0115096
0.149316 -0.153802 0.976755 0
0.14913 -0.148688 0.977575 0
-0.162218 -0.0950383 0.982168 0
-0.152506 -0.0846812 0.984668 0
-0.149584 -0.091293 0.984525 0
-0.15062 -0.10174 0.983343 0
-0.142714 -0.100686 0.984629 0
-0.146028 -0.133549 0.980225 0.00627647
0.151392 -0.155442 0.976175 0
-0.168591 -0.10545 0.980029 0
-0.15081 -0.0763549 0.98561 0
-0.151477 -0.0945371 0.98393 0
-0.147071 -0.0889157 0.985121 0
0.144333 -0.152539 0.977701 0
0.146614 -0.152374 0.977388 0
0.158497 -0.167013 0.973132 0
0.172565 -0.180096 0.968394 0
0.178463 -0.182264 0.966918 0
-0.177036 -0.0997823 0.979133 0
-0.165502 -0.0931989 0.981796 0
-0.164227 -0.101396 0.981197 0
0.141589 -0.139994 0.979977 0
0.148112 -0.150114 0.977511 0
0.168035 -0.179884 0.96923 0
0.176458 -0.184756 0.966813 0.00132379
0.19716 -0.207995 0.958053 0.00909758
0.218734 -0.235227 0.947008 0.0108624
-0.185934 -0.117195 0.975548 0
-0.178354 -0.115282 0.97719 0
0.146585 -0.149714 0.977803 0
0.152233 -0.157791 0.975668 0
0.172483 -0.18694 0.967111 0.00341756
0.191872 -0.209423 0.958816 0.010571
0.210318 -0.228326 0.950596 0.00869573
-0.226163 -0.166948 0.959676 0.0202349
-0.206657 -0.147213 0.967275 0.0135907
-0.195087 -0.131676 0.971907 0.00931601
0.211705 -0.232927 0.949171 0
-0.229768 -0.163042 0.959491 0.0300278
-0.199004 -0.130481 0.971273 0.0116492
0.204134 -0.225957 0.952509 0.00128783
0.212408 -0.23376 0.948809 0.00154762
-0.223189 -0.142439 0.964312 0.0250977
-0.214625 -0.142796 0.966202 0.0199498
-0.215037 -0.141505 0.9663 0.0297987
0.195588 -0.213517 0.95716 0
0.204977 -0.223368 0.952938 0
-0.206605 -0.116541 0.971459 0.013955
-0.208367 -0.116889 0.971041 0.0217738
-0.200106 -0.116846 0.972782 0.0175422
-0.197272 -0.114619 0.973625 0.0202726
0.200232 -0.213515 0.9562 0
0.206736 -0.217156 0.953993 0
-0.223358 -0.14266 0.96424 0.0111763
-0.213555 -0.127281 0.968604 0.0190825
-0.209594 -0.120825 0.970295 0.0259866
-0.203554 -0.113719 0.972437 0.0276563
0.193367 -0.190578 0.962439 0.00105928
0.203218 -0.199658 0.958561 0
-0.212033 -0.116803 0.970257 0.00336678
-0.224219 -0.136649 0.964911 0.0162255
-0.218718 -0.13154 0.966881 0.0226813
-0.206846 -0.11775 0.971262 0.0249633
0.194268 -0.194202 0.961533 0
0.204899 -0.201436 0.957831 0
-0.208866 -0.0977063 0.973051 0
-0.203632 -0.0906766 0.974839 0
-0.20696 -0.108043 0.972365 0.000612662
-0.211843 -0.124619 0.969326 0.00384069
-0.214637 -0.12767 0.968314 0.0176017
-0.207011 -0.116658 0.971359 0.0196346
0.191133 -0.187052 0.963577 0.00232149
0.187516 -0.17415 0.9667 0
0.196969 -0.181375 0.963486 0
-0.210684 -0.107123 0.971667 0
-0.213738 -0.116609 0.969906 0
-0.206783 -0.113397 0.971793 0
-0.204008 -0.117916 0.971842 0
-0.206287 -0.120441 0.971051 0.00864939
0.19225 -0.178848 0.964911 0
0.199542 -0.182468 0.96275 0.00189772
-0.207846 -0.101016 0.972932 0
-0.208012 -0.108843 0.972051 0
-0.197985 -0.0978205 0.975312 0
-0.199984 -0.114468 0.97309 0.00334691
-0.198987 -0.111003 0.973695 0.00610559
0.192803 -0.163491 0.967521 0
-0.212327 -0.105933 0.97144 0
-0.207337 -0.107439 0.972352 0
-0.195939 -0.0930302 0.976193 0
-0.191501 -0.0904715 0.977314 0
0.191424 -0.15022 0.969944 0
-0.216448 -0.110019 0.970075 0
-0.205492 -0.109594 0.972503 0
-0.202415 -0.110536 0.973042 0
0.202443 -0.156487 0.96671 0.00704657
0.205409 -0.148382 0.967362 0.00346172
0.216121 -0.150625 0.964678 0
0.239785 -0.157624 0.957945 0
0.261525 -0.17233 0.949688 0
-0.23503 -0.130723 0.963157 0.0121645
-0.228313 -0.124736 0.965564 0.00741586
-0.211439 -0.105262 0.971706 0.00404604
0.208872 -0.142841 0.967455 0.00555338
0.217082 -0.147724 0.964911 0
0.234862 -0.152337 0.960017 0
0.255445 -0.164488 0.952728 0.000545473
0.291933 -0.179156 0.93951 0.0172162
0.299828 -0.176395 0.937544 0.014887
-0.221829 -0.100535 0.969889 0.00293097
-0.221931 -0.104956 0.969397 0.00741416
-0.208193 -0.104472 0.972492 0
0.232963 -0.143529 0.961836 0.00499769
0.256641 -0.161079 0.95299 0.00377357
0.280999 -0.163901 0.945609 0.0107934
0.305013 -0.173374 0.936434 0.017254
-0.23058 -0.101177 0.967779 0.0135054
-0.217143 -0.0966756 0.971341 0.00617288
-0.206491 -0.0897611 0.974322 0.00593095
0.294128 -0.161885 0.941957 0.016486
0.299451 -0.158746 0.940813 0.0110439
-0.231487 -0.102906 0.96738 0.0140767
-0.212286 -0.0835068 0.973633 0.00811963
0.311126 -0.15534 0.937587 0.00627285
-0.239002 -0.0991612 0.965943 0.0234183
-0.222337 -0.085149 0.971245 0.0183473
0.295647 -0.131773 0.946165 0.00207062
-0.244267 -0.10688 0.9638 0.0194537
-0.239329 -0.10154 0.965614 0.0229771
-0.228738 -0.091299 0.969197 0.0190575
0.297642 -0.126778 0.946222 0.00347813
-0.249392 -0.106796 0.962496 0.0234146
-0.242397 -0.103499 0.964641 0.022882
-0.216486 -0.0758962 0.973331 0.0122584
