# .PCD v0.7 - Point Cloud Data file format
VERSION 0.7
FIELDS x y z
SIZE 4 4 4
TYPE F F F
COUNT 1 1 1
WIDTH 1344
HEIGHT 1
VIEWPOINT 0 0 0 1 0 0 0
POINTS 1344
DATA ascii
-0.0357555 -0.22363 -0.36066651
-0.035474502 -0.22363999 -0.36061949
-0.034857001 -0.223682 -0.360605
-0.034688 -0.22368 -0.36067301
-0.034508333 -0.22371434 -0.36066401
-0.034275167 -0.22369783 -0.36072814
-0.034091081 -0.22371 -0.3606666
-0.033920199 -0.2236928 -0.360704
-0.033727501 -0.22369525 -0.360679
-0.033476248 -0.22369 -0.36067426
-0.033264667 -0.22370434 -0.36069396
-0.0330415 -0.22369549 -0.36070198
-0.032925498 -0.22373976 -0.36063826
-0.032715499 -0.22378901 -0.36062902
-0.032572001 -0.223796 -0.360605
-0.028206 -0.22376999 -0.36069801
-0.0280635 -0.2237775 -0.36074501
-0.027930999 -0.22376116 -0.36065117
-0.052292336 -0.22355367 -0.36077735
-0.052091122 -0.22353113 -0.36074889
-0.051958501 -0.2235415 -0.36075151
-0.051655501 -0.2234875 -0.36062902
-0.051557999 -0.22345901 -0.36060601
-0.046261001 -0.223409 -0.360614
-0.046114877 -0.22345024 -0.36065015
-0.045929 -0.22346616 -0.36064267
-0.045775 -0.223437 -0.360636
-0.04445 -0.22348161 -0.3606638
-0.044281751 -0.2235425 -0.36067873
-0.044100001 -0.22355339 -0.36071202
-0.043918665 -0.22353518 -0.36072969
-0.043702003 -0.22351368 -0.36068964
-0.043499663 -0.22346616 -0.36062816
-0.043263499 -0.2234095 -0.36067951
-0.043125249 -0.223441 -0.36063424
-0.042898498 -0.22343999 -0.36062902
-0.042696998 -0.223444 -0.36064601
-0.042503666 -0.22347499 -0.36066803
-0.042301167 -0.22349866 -0.36066699
-0.042080376 -0.22349098 -0.36063737
-0.041879199 -0.22344439 -0.36065602
-0.041713666 -0.22345233 -0.36063531
-0.040633 -0.223473 -0.360612
-0.040482 -0.22345601 -0.360661
-0.040304665 -0.223462 -0.36071667
-0.040113375 -0.22345726 -0.36070251
-0.039923284 -0.22346313 -0.36067328
-0.0390305 -0.223406 -0.36062551
-0.038879998 -0.2234145 -0.36061999
-0.038371 -0.223582 -0.36060101
-0.037325334 -0.22349566 -0.36065134
-0.037099399 -0.223471 -0.36067161
-0.036916502 -0.22352001 -0.36063051
-0.036712497 -0.22354749 -0.36061251
-0.036481 -0.22358549 -0.36066902
-0.036295999 -0.22352001 -0.36075249
-0.036123831 -0.22350933 -0.36069885
-0.035931997 -0.22351426 -0.36077726
-0.035705 -0.22355168 -0.36073634
-0.034219999 -0.22354899 -0.36079401
-0.034084667 -0.22353382 -0.36070883
-0.033961002 -0.22357599 -0.36071199
-0.033722498 -0.223581 -0.360728
-0.033537 -0.22359049 -0.36073202
-0.051646668 -0.22330034 -0.36070201
-0.0515166 -0.22329518 -0.36065519
-0.051376 -0.223243 -0.36061299
-0.050241001 -0.22326401 -0.36061698
-0.050133999 -0.22325049 -0.3606405
-0.049950998 -0.22324499 -0.36062399
-0.048125997 -0.22324449 -0.36063099
-0.046872001 -0.223244 -0.360607
-0.046702337 -0.223248 -0.36062035
-0.046471499 -0.223251 -0.36070502
-0.046309665 -0.22329932 -0.36073601
-0.046106502 -0.22329712 -0.36074302
-0.04592083 -0.22331417 -0.360719
-0.045714401 -0.22330001 -0.3606956
-0.045498401 -0.22326799 -0.360677
-0.045266204 -0.22329059 -0.36072201
-0.045103572 -0.22334886 -0.36065799
-0.043664001 -0.223349 -0.36077899
-0.043514498 -0.22334298 -0.3607035
-0.043258 -0.223331 -0.36074251
-0.043106332 -0.22334401 -0.36071166
-0.042892002 -0.223361 -0.36071
-0.042737 -0.223361 -0.36075699
-0.042201001 -0.22338 -0.360789
-0.042087 -0.22335961 -0.36073142
-0.041678667 -0.22332567 -0.360697
-0.040534999 -0.2234 -0.360704
-0.040357001 -0.223399 -0.36078599
-0.039867498 -0.22333725 -0.36075026
-0.039676502 -0.2233725 -0.36064801
-0.039315999 -0.22338501 -0.36063349
-0.039198 -0.22339401 -0.360616
-0.051638 -0.22311249 -0.36077401
-0.051489998 -0.22309959 -0.36073142
-0.051370665 -0.223096 -0.36063901
-0.051108662 -0.22306085 -0.36063585
-0.050921999 -0.22308244 -0.36064011
-0.050625 -0.223103 -0.36063951
-0.050478667 -0.22308867 -0.36067232
-0.050301671 -0.22309667 -0.36069068
-0.05010125 -0.22313452 -0.36075097
-0.049887799 -0.223139 -0.36069661
-0.0497315 -0.22304675 -0.36068174
-0.048901998 -0.22300151 -0.36061999
-0.048740499 -0.223004 -0.36062402
-0.048465997 -0.22307751 -0.360672
-0.048289999 -0.2231165 -0.36073852
-0.048118502 -0.22312699 -0.36072451
-0.0479265 -0.2231425 -0.3606925
-0.047725566 -0.22311616 -0.36067787
-0.047508501 -0.223056 -0.36066401
-0.047277331 -0.22308733 -0.36073101
-0.047097892 -0.22309934 -0.36071822
-0.046934001 -0.22310571 -0.36070243
-0.046695333 -0.22316533 -0.36072031
-0.04651 -0.223168 -0.36078599
-0.046101999 -0.223185 -0.36076674
-0.045584999 -0.22315501 -0.36060601
-0.051449001 -0.222938 -0.360753
-0.051309802 -0.2228934 -0.36065701
-0.051118374 -0.22292037 -0.36069164
-0.05094675 -0.222949 -0.36073801
-0.050728749 -0.222959 -0.36074325
-0.050486501 -0.22298449 -0.36075348
-0.049681 -0.22293475 -0.36074674
-0.049499672 -0.22291298 -0.36070368
-0.049291998 -0.22292434 -0.36069736
-0.049105376 -0.222928 -0.3606776
-0.048934396 -0.22288962 -0.3607184
-0.048733003 -0.22292149 -0.36072999
-0.051355999 -0.222794 -0.36076301
-0.051185999 -0.2228 -0.360771
-0.040073998 -0.238869 -0.36054701
-0.039939333 -0.23889601 -0.36052001
-0.039666001 -0.23886333 -0.36046967
-0.039527666 -0.238822 -0.36042631
-0.039391 -0.238833 -0.36044499
-0.037884001 -0.238828 -0.36045501
-0.037666999 -0.238837 -0.36045998
-0.037100002 -0.23880249 -0.36055499
-0.041807003 -0.23866899 -0.36058399
-0.041680001 -0.2386345 -0.360513
-0.04150825 -0.23868699 -0.36052012
-0.041333001 -0.23869181 -0.36050659
-0.041099664 -0.238693 -0.36052033
-0.040902287 -0.23865984 -0.36047515
-0.040674001 -0.23866177 -0.36050275
-0.040484998 -0.23865516 -0.360517
-0.040310752 -0.23870388 -0.36050075
-0.040119 -0.23875751 -0.3604725
-0.039904002 -0.23879766 -0.36044899
-0.039293997 -0.23876849 -0.360421
-0.039123502 -0.23873749 -0.36043602
-0.038900997 -0.23866433 -0.3604193
-0.037928 -0.2387535 -0.36042798
-0.0376665 -0.23876449 -0.36043599
-0.0374525 -0.23878449 -0.36041951
-0.037286751 -0.23877776 -0.36050174
-0.037102997 -0.23872849 -0.36046249
-0.036932666 -0.23868465 -0.36046997
-0.036732003 -0.2386425 -0.3605485
-0.042082999 -0.23840401 -0.360542
-0.041872431 -0.23847099 -0.36049715
-0.041682001 -0.238561 -0.36042851
-0.041509502 -0.2385765 -0.36042053
-0.041257001 -0.238591 -0.36041901
-0.041069001 -0.23859701 -0.36041999
-0.040635001 -0.23855001 -0.36040601
-0.040550001 -0.2385515 -0.36041301
-0.038706001 -0.23857901 -0.36042601
-0.038532499 -0.238585 -0.36044502
-0.038316999 -0.23859601 -0.36042401
-0.036668669 -0.238535 -0.360477
-0.0364925 -0.238509 -0.36049858
-0.036304001 -0.23851918 -0.36051032
-0.0360935 -0.2385295 -0.360522
-0.035917331 -0.23852301 -0.36046866
-0.042243 -0.238252 -0.36057901
-0.042110335 -0.23828299 -0.36049402
-0.041994501 -0.2382935 -0.36045501
-0.035199001 -0.238254 -0.36042401
-0.042803001 -0.238001 -0.36059099
-0.042655002 -0.23802866 -0.36058167
-0.042471502 -0.23805183 -0.36054781
-0.04231289 -0.23810035 -0.36051479
-0.042165998 -0.23818401 -0.360468
-0.035061002 -0.238149 -0.36045951
-0.034876503 -0.2380515 -0.36049199
-0.043632999 -0.237803 -0.36053401
-0.043525834 -0.23784751 -0.36049399
-0.0433244 -0.23788619 -0.360493
-0.043111831 -0.23790717 -0.36050567
-0.042900998 -0.23791011 -0.36049512
-0.04267025 -0.23789474 -0.360502
-0.042494752 -0.23790161 -0.36047912
-0.0423485 -0.23794951 -0.360425
-0.034834001 -0.23797999 -0.360443
-0.034686249 -0.2379185 -0.36052579
-0.034566998 -0.23785201 -0.360531
-0.043861248 -0.23768499 -0.36054075
-0.043678001 -0.237764 -0.36048099
-0.043251999 -0.23776101 -0.36040801
-0.042670999 -0.23778549 -0.36042398
-0.042518001 -0.23776948 -0.36042425
-0.034483999 -0.237716 -0.36048549
-0.0343385 -0.2376515 -0.36055601
-0.04410233 -0.237444 -0.36054668
-0.043933 -0.23752333 -0.36047065
-0.034296498 -0.23756075 -0.36047876
-0.034126669 -0.23751368 -0.36048618
-0.033925336 -0.23750119 -0.36050931
-0.033675753 -0.2375025 -0.360553
-0.033535 -0.237434 -0.3604975
-0.0455385 -0.237262 -0.36058199
-0.045159999 -0.23721001 -0.36051801
-0.044850998 -0.2372275 -0.360571
-0.044720002 -0.237233 -0.36058801
-0.04442 -0.237261 -0.360596
-0.044314668 -0.23726232 -0.36054066
-0.044115998 -0.23731025 -0.36047825
-0.043990001 -0.23735 -0.36040199
-0.033678502 -0.2373915 -0.36042351
-0.03348675 -0.23734875 -0.360448
-0.033315249 -0.23728499 -0.36048475
-0.033151001 -0.237205 -0.36047
-0.046069998 -0.23701601 -0.360598
-0.045877002 -0.23705599 -0.36053741
-0.045685597 -0.2371248 -0.36049938
-0.04548014 -0.23716143 -0.36049682
-0.045162 -0.23713601 -0.36044601
-0.044838 -0.23713066 -0.36048999
-0.044663802 -0.23710918 -0.36049622
-0.044491913 -0.23710869 -0.36052167
-0.044324249 -0.23712501 -0.36045814
-0.044160001 -0.23719899 -0.36041099
-0.033240002 -0.23719899 -0.360421
-0.033047002 -0.237137 -0.360533
-0.046685003 -0.23683751 -0.3605805
-0.046571001 -0.236843 -0.36059001
-0.046101332 -0.23689467 -0.36050501
-0.045894831 -0.236917 -0.36044648
-0.045720998 -0.23696201 -0.36041
-0.044492997 -0.2369625 -0.36042202
-0.032867 -0.236917 -0.36043501
-0.032779999 -0.236856 -0.36043
-0.047346 -0.2366645 -0.36057299
-0.047122799 -0.2366614 -0.36052659
-0.046905778 -0.23668422 -0.36049911
-0.0466865 -0.23668998 -0.36046466
-0.046496499 -0.23670131 -0.36050382
-0.046309892 -0.23671767 -0.36049825
-0.046137001 -0.236743 -0.36044574
-0.047663335 -0.23645167 -0.36054468
-0.047495 -0.23649557 -0.36049849
-0.047316227 -0.23652066 -0.36046055
-0.047132999 -0.2365295 -0.36041799
-0.046815999 -0.236545 -0.36040899
-0.046471667 -0.23655732 -0.36041102
-0.046309996 -0.23657198 -0.36040735
-0.032311998 -0.2364845 -0.36048099
-0.047703501 -0.23629117 -0.36049199
-0.047521997 -0.23636132 -0.36042103
-0.0321288 -0.23632979 -0.36048442
-0.03191825 -0.23631275 -0.360497
-0.031685002 -0.236297 -0.36051551
-0.031505 -0.23624867 -0.36055234
-0.031399999 -0.236211 -0.36055499
-0.047923751 -0.236085 -0.36057478
-0.047763996 -0.23611641 -0.3604874
-0.031643 -0.23618899 -0.36041099
-0.031489331 -0.23617701 -0.36044899
-0.0312845 -0.23610775 -0.36053401
-0.031151 -0.236003 -0.36050901
-0.048071999 -0.23585749 -0.3605665
-0.047922667 -0.23590285 -0.36049619
-0.047773998 -0.23593074 -0.3604385
-0.031256501 -0.235999 -0.360432
-0.031090334 -0.23591132 -0.36046734
-0.048531 -0.23564699 -0.36059099
-0.048285 -0.235669 -0.36059701
-0.048109666 -0.23567601 -0.36051086
-0.047935665 -0.23573433 -0.3604323
-0.030968999 -0.23579501 -0.360466
-0.048863001 -0.235416 -0.36058599
-0.048673801 -0.2354528 -0.3605414
-0.048487402 -0.23549299 -0.3605274
-0.048285663 -0.23552233 -0.36049768
-0.048147999 -0.23549449 -0.3604435
-0.049044002 -0.235267 -0.36055601
-0.048863001 -0.2353085 -0.36052251
-0.048702858 -0.23529944 -0.36046001
-0.048476752 -0.23532826 -0.36044076
-0.048285998 -0.235377 -0.36040899
-0.049288861 -0.23507428 -0.36055031
-0.049089 -0.23512165 -0.36049268
-0.048863001 -0.235164 -0.3604275
-0.030437399 -0.23507139 -0.36047941
-0.030352 -0.235026 -0.36054999
-0.049605668 -0.23488133 -0.36055836
-0.049476776 -0.2348841 -0.36049443
-0.049310498 -0.2349124 -0.36046448
-0.049132999 -0.234975 -0.36043701
-0.030409999 -0.234945 -0.36040401
-0.0302958 -0.23487882 -0.3605122
-0.049601998 -0.23473699 -0.36054701
-0.049510799 -0.2347106 -0.36045742
-0.049377002 -0.234749 -0.360405
-0.030239999 -0.234696 -0.36046851
-0.0301215 -0.234662 -0.3605805
-0.049665 -0.23453176 -0.36053801
-0.049575001 -0.23452099 -0.36044335
-0.03010275 -0.23453625 -0.36047125
-0.029937169 -0.23452581 -0.36051652
-0.029707998 -0.23449083 -0.36053401
-0.0294565 -0.23445326 -0.36051825
-0.0293645 -0.2344465 -0.36049849
-0.049853001 -0.234216 -0.36058199
-0.04972817 -0.23429149 -0.36050269
-0.049598001 -0.234375 -0.36042699
-0.0298425 -0.23438251 -0.360441
-0.029663499 -0.23435673 -0.36042604
-0.0294705 -0.23436174 -0.36042523
-0.049879998 -0.23409401 -0.36054567
-0.049726002 -0.234111 -0.36043724
-0.050253998 -0.23390999 -0.36059901
-0.050081 -0.23390384 -0.36056283
-0.049892664 -0.23392582 -0.36048082
-0.049768999 -0.234 -0.360414
-0.050466001 -0.233603 -0.360594
-0.050280001 -0.23364466 -0.36056134
-0.050103109 -0.23369823 -0.36052948
-0.049931001 -0.23370834 -0.36044535
-0.050657 -0.233448 -0.36058
-0.050501335 -0.23349284 -0.3605465
-0.05029517 -0.23347567 -0.36048198
-0.05011243 -0.23350228 -0.3604534
-0.02857 -0.233426 -0.36044201
-0.050872501 -0.23326001 -0.36056951
-0.050699834 -0.23330249 -0.36052766
-0.050499998 -0.23331366 -0.36046767
-0.05030933 -0.23330633 -0.36042771
-0.028478166 -0.23328167 -0.36046329
-0.02837 -0.23321401 -0.36048999
-0.051033333 -0.23309402 -0.36055365
-0.050872002 -0.23308051 -0.36047783
-0.050707597 -0.23310038 -0.3604354
-0.050502501 -0.23316899 -0.360416
-0.028419498 -0.2331025 -0.360434
-0.028320333 -0.23307818 -0.36049202
-0.051260334 -0.23289017 -0.36055669
-0.051086996 -0.23292547 -0.36049286
-0.050914001 -0.232935 -0.36040601
-0.028310601 -0.232934 -0.36043602
-0.051421501 -0.23264399 -0.36058199
-0.051300835 -0.23269318 -0.36051318
-0.051133595 -0.23272181 -0.36043662
-0.028193999 -0.232723 -0.36048499
-0.051418997 -0.232501 -0.36055702
-0.051330671 -0.23247434 -0.36047664
-0.0281245 -0.23247001 -0.36049598
-0.051426247 -0.23230025 -0.36055404
-0.051335167 -0.232316 -0.36049137
-0.028069001 -0.23230626 -0.36048275
-0.027960001 -0.2322495 -0.36055899
-0.051433835 -0.23210184 -0.36054733
-0.051312003 -0.2321139 -0.36046869
-0.028051 -0.232145 -0.360405
-0.027915999 -0.23210476 -0.36053348
-0.027727751 -0.232044 -0.36054701
-0.051443432 -0.23187372 -0.36052459
-0.051313747 -0.23190539 -0.36045524
-0.027903667 -0.23197533 -0.36043468
-0.027713001 -0.23191233 -0.36046335
-0.027460834 -0.231875 -0.36050382
-0.027284749 -0.23184861 -0.360531
-0.027079334 -0.23181868 -0.36056301
-0.051459998 -0.23170383 -0.36049381
-0.051335 -0.2316924 -0.36043137
-0.027424 -0.23173299 -0.36040699
-0.027286001 -0.23174226 -0.36043876
-0.027067203 -0.231721 -0.36046341
-0.026920667 -0.23168366 -0.36046204
-0.051611003 -0.23151232 -0.36058298
-0.051485833 -0.2315225 -0.360477
-0.05138433 -0.23155333 -0.36041132
-0.026821001 -0.23150349 -0.36052901
-0.05162875 -0.23127925 -0.36053026
-0.05152167 -0.23130466 -0.36043
-0.026822001 -0.231398 -0.360448
-0.051678628 -0.23107001 -0.36051953
-0.051518001 -0.231125 -0.360401
-0.051868003 -0.23092568 -0.36057368
-0.051703602 -0.23090521 -0.36049956
-0.051600002 -0.230866 -0.36042401
-0.052285004 -0.2306294 -0.36058339
-0.052168999 -0.23069835 -0.36056498
-0.051865 -0.23071067 -0.36050305
-0.051727165 -0.23071867 -0.36044863
-0.051599 -0.230795 -0.360403
-0.052416001 -0.23046499 -0.36057401
-0.052289665 -0.23049535 -0.36053866
-0.052166998 -0.23048334 -0.3604897
-0.05186167 -0.23049401 -0.36045265
-0.051745251 -0.23051949 -0.36041451
-0.052482754 -0.23030563 -0.36056235
-0.052300822 -0.23032036 -0.36050063
-0.052162997 -0.230304 -0.360457
-0.0518585 -0.230315 -0.36042148
-0.051763002 -0.23035701 -0.360401
-0.052683 -0.23006825 -0.3605735
-0.052490111 -0.23009835 -0.36050412
-0.052290838 -0.23011148 -0.36045691
-0.052160501 -0.230161 -0.36041999
-0.026301 -0.230029 -0.360414
-0.052839998 -0.229858 -0.36057001
-0.052693397 -0.22988482 -0.36052436
-0.052487221 -0.22988346 -0.3604449
-0.0523028 -0.229937 -0.3604154
-0.053011999 -0.229634 -0.36055201
-0.052886501 -0.22971267 -0.36053482
-0.052708399 -0.22971201 -0.36048037
-0.052538667 -0.22971201 -0.36041436
-0.053067122 -0.22947724 -0.36054954
-0.0528845 -0.22949867 -0.36045316
-0.052697003 -0.22954726 -0.36043525
-0.053086665 -0.22929324 -0.36052966
-0.052929498 -0.22931699 -0.36042452
-0.053111397 -0.22912291 -0.36052018
-0.052961998 -0.2290615 -0.36043799
-0.053115889 -0.22890346 -0.36055857
-0.052996334 -0.22891401 -0.36045933
-0.053110667 -0.22868745 -0.36053944
-0.052989334 -0.22869635 -0.36047831
-0.053208999 -0.22849301 -0.36059952
-0.053100374 -0.22848135 -0.36050263
-0.052984666 -0.22848034 -0.36044535
-0.05320533 -0.228312 -0.36057734
-0.053109858 -0.22830698 -0.36047414
-0.052980497 -0.228301 -0.36042899
-0.053250432 -0.22809145 -0.36056259
-0.053108804 -0.22810359 -0.36045668
-0.053293228 -0.22787343 -0.36056587
-0.053150624 -0.22789788 -0.36046797
-0.053277802 -0.22768497 -0.36056399
-0.053138006 -0.22767286 -0.36045903
-0.025702 -0.227727 -0.36042801
-0.05328422 -0.22751267 -0.36053768
-0.053151503 -0.22751367 -0.36045882
-0.025496501 -0.22747301 -0.3605735
-0.053277887 -0.22729522 -0.36054456
-0.053135 -0.22730149 -0.3604489
-0.025493333 -0.22729333 -0.36052966
-0.05327189 -0.2270781 -0.3605389
-0.05310427 -0.22709554 -0.36043936
-0.025490999 -0.22707833 -0.3604553
-0.025314001 -0.22707565 -0.36055732
-0.053266834 -0.226897 -0.36053863
-0.053099558 -0.22687867 -0.36043921
-0.025487501 -0.22689849 -0.36041149
-0.025278749 -0.22689751 -0.36052302
-0.025194 -0.22686499 -0.36059901
-0.053236667 -0.22671466 -0.36054432
-0.053094003 -0.22670743 -0.36046576
-0.052933998 -0.226602 -0.360401
-0.0252755 -0.22671682 -0.36048532
-0.025171399 -0.22670701 -0.36057702
-0.053229 -0.22649498 -0.36057353
-0.05307883 -0.22651441 -0.36048135
-0.0529305 -0.226491 -0.36040851
-0.025269834 -0.2264985 -0.36047134
-0.025135111 -0.22650422 -0.36056745
-0.053203002 -0.22635099 -0.36057401
-0.053105999 -0.22629099 -0.3605423
-0.052960839 -0.2263065 -0.36043915
-0.025247751 -0.22626176 -0.36046651
-0.025129111 -0.22628532 -0.360562
-0.053083628 -0.22608525 -0.36052462
-0.052954003 -0.22608851 -0.36045635
-0.025227498 -0.226099 -0.36046052
-0.025123833 -0.22610234 -0.36056367
-0.053105496 -0.2259185 -0.36053663
-0.052948248 -0.22590624 -0.36046976
-0.025458001 -0.225839 -0.360401
-0.02523775 -0.22589725 -0.36045775
-0.025118001 -0.22591768 -0.36057681
-0.053085115 -0.22572657 -0.36054969
-0.052925713 -0.22571485 -0.36047798
-0.025643 -0.22560801 -0.36040801
-0.025452999 -0.22569032 -0.36042967
-0.025245165 -0.22569032 -0.36051098
-0.025118144 -0.2256967 -0.36059147
-0.053045001 -0.22549666 -0.36055601
-0.052897558 -0.2255089 -0.36047915
-0.0256385 -0.2254965 -0.36042699
-0.025446 -0.22550499 -0.36046499
-0.025238 -0.22550476 -0.36055002
-0.025131332 -0.2254755 -0.36058882
-0.0530334 -0.2252924 -0.36057663
-0.052890226 -0.22528945 -0.360506
-0.052717 -0.22523201 -0.360412
-0.025869332 -0.22530483 -0.36042014
-0.025693858 -0.22529815 -0.36044502
-0.025439 -0.22531867 -0.36050296
-0.0252485 -0.22533725 -0.36056724
-0.025162751 -0.22530624 -0.36059076
-0.053007998 -0.225098 -0.36058849
-0.052872289 -0.2250917 -0.36052313
-0.052663833 -0.22508831 -0.36043084
-0.052527502 -0.22506049 -0.36041498
-0.026008001 -0.22501101 -0.36040401
-0.025913 -0.22508185 -0.36044502
-0.025709223 -0.22508413 -0.36049932
-0.025429999 -0.22509567 -0.36055267
-0.0252575 -0.2251325 -0.3605915
-0.053004999 -0.224989 -0.360585
-0.05289986 -0.22492228 -0.36055145
-0.052685 -0.224895 -0.36048159
-0.052498251 -0.22486101 -0.3604365
-0.026054 -0.22488034 -0.36041701
-0.025905499 -0.22489499 -0.36048698
-0.0257225 -0.22491324 -0.36055952
-0.052871332 -0.22470267 -0.36058733
-0.052710123 -0.22472489 -0.36052024
-0.052495997 -0.2246882 -0.3604632
-0.052259125 -0.22468424 -0.36043203
-0.052151501 -0.2246605 -0.36041051
-0.026094779 -0.22469646 -0.36049765
-0.02592922 -0.22470768 -0.36054599
-0.02578 -0.22477999 -0.360598
-0.052866999 -0.224557 -0.36059999
-0.052737832 -0.22449301 -0.36056384
-0.052506335 -0.22450989 -0.36050954
-0.052299 -0.224509 -0.36047679
-0.052155335 -0.22449516 -0.36046016
-0.051998999 -0.22440401 -0.36041099
-0.026252 -0.22447599 -0.36043701
-0.026086332 -0.22454233 -0.36058033
-0.025958 -0.224558 -0.36056799
-0.052683003 -0.22431301 -0.36058199
-0.05249789 -0.22428799 -0.36055985
-0.052284166 -0.22430384 -0.36051014
-0.052125167 -0.22431333 -0.3604956
-0.051995002 -0.22429299 -0.36042801
-0.026621999 -0.22424001 -0.36040199
-0.0264415 -0.2242815 -0.36048001
-0.026247 -0.224398 -0.360497
-0.052461665 -0.22411799 -0.36058366
-0.052275002 -0.22408134 -0.360569
-0.052116577 -0.22409147 -0.36054766
-0.051987004 -0.22410733 -0.36048803
-0.044261001 -0.224043 -0.360405
-0.044113286 -0.22407129 -0.3604224
-0.043951999 -0.22406 -0.360401
-0.036012001 -0.22400101 -0.360425
-0.035909001 -0.224002 -0.360452
-0.034251999 -0.224021 -0.360421
-0.034116399 -0.22403541 -0.36043701
-0.033932332 -0.22403933 -0.36041832
-0.032237001 -0.22404701 -0.36040699
-0.032118 -0.22405501 -0.360432
-0.028265499 -0.224012 -0.36041999
-0.02808575 -0.22402474 -0.36042023
-0.027921502 -0.224039 -0.360412
-0.026915498 -0.22404049 -0.36044222
-0.0267234 -0.22412641 -0.36047322
-0.052078605 -0.2239162 -0.36057898
-0.0519775 -0.223919 -0.36057252
-0.051674001 -0.223829 -0.36043799
-0.051578999 -0.223838 -0.36040899
-0.046009999 -0.22380599 -0.36041501
-0.045919001 -0.2238165 -0.360423
-0.044479501 -0.22380701 -0.36041301
-0.0442922 -0.22387481 -0.36045942
-0.04409847 -0.22389932 -0.36050069
-0.043905001 -0.22391015 -0.3604838
-0.043712605 -0.22387901 -0.36044642
-0.043519001 -0.22386099 -0.36041901
-0.042277999 -0.22384951 -0.36041
-0.042103 -0.2238545 -0.360414
-0.041913502 -0.22383499 -0.36041749
-0.041763 -0.223811 -0.36041
-0.040158 -0.22380701 -0.36040899
-0.036453001 -0.22383 -0.36040601
-0.036279999 -0.223878 -0.36044702
-0.036091886 -0.2238759 -0.36051947
-0.0359 -0.22390313 -0.360533
-0.035699334 -0.223891 -0.36044869
-0.035264 -0.22381701 -0.36041099
-0.034703668 -0.22384834 -0.36042067
-0.034478247 -0.223892 -0.3604615
-0.034291252 -0.22389852 -0.36051297
-0.034093428 -0.22390927 -0.36053187
-0.033923998 -0.22392134 -0.36052135
-0.033726834 -0.22388233 -0.36049214
-0.033513501 -0.2238545 -0.36045122
-0.033294998 -0.22388175 -0.36047375
-0.033121828 -0.22387834 -0.36046365
-0.032913201 -0.2238954 -0.36045319
-0.032742333 -0.22389734 -0.36047733
-0.032498002 -0.22391701 -0.36046329
-0.0322765 -0.22396451 -0.36050647
-0.032111 -0.223974 -0.36052999
-0.031893 -0.2239545 -0.36046201
-0.031752001 -0.22393 -0.36040699
-0.030451 -0.22384501 -0.36040601
-0.028472999 -0.22392499 -0.360466
-0.028301999 -0.22392933 -0.36050633
-0.028079499 -0.22394575 -0.36050123
-0.02788 -0.22392066 -0.36051765
-0.027701667 -0.223913 -0.36047435
-0.0275025 -0.22393677 -0.36047551
-0.027251666 -0.22396033 -0.36047533
-0.027117334 -0.2239515 -0.36050901
-0.051666334 -0.22367834 -0.36051667
-0.051529005 -0.22368984 -0.36044982
-0.051397 -0.22362401 -0.36040401
-0.046229664 -0.22366799 -0.36045167
-0.046083886 -0.22369944 -0.36045811
-0.045913249 -0.223702 -0.36048001
-0.045700833 -0.22368634 -0.36043286
-0.045520999 -0.223611 -0.36041999
-0.045088001 -0.22363201 -0.36040351
-0.044780999 -0.223644 -0.36044201
-0.044472747 -0.22369176 -0.36049202
-0.0442915 -0.2236975 -0.36055899
-0.044075329 -0.22374801 -0.36058798
-0.043895498 -0.22375649 -0.36058199
-0.0437048 -0.2237412 -0.36053061
-0.043502003 -0.22369924 -0.36049163
-0.043282252 -0.22368349 -0.36045274
-0.043139599 -0.22368741 -0.3604328
-0.042892337 -0.22365201 -0.36045167
-0.042713501 -0.22367899 -0.36044452
-0.042501498 -0.22369777 -0.36046547
-0.04228786 -0.22368385 -0.36052054
-0.042092085 -0.22370167 -0.36051795
-0.041915998 -0.22370875 -0.36050847
-0.041728664 -0.22368634 -0.36045703
-0.040646002 -0.223635 -0.360432
-0.040499002 -0.22366899 -0.36043367
-0.040296335 -0.22369015 -0.36046031
-0.040080372 -0.2236965 -0.36047825
-0.03989825 -0.2236895 -0.36046401
-0.039678335 -0.22363202 -0.36045003
-0.038568001 -0.22366799 -0.36040601
-0.038332753 -0.22370824 -0.36046547
-0.0381018 -0.2236952 -0.36047199
-0.037896499 -0.22372749 -0.36044848
-0.037641 -0.22369766 -0.36042833
-0.037501998 -0.22363099 -0.36042202
-0.037325002 -0.223634 -0.36044699
-0.03712 -0.22364974 -0.36045498
-0.036890198 -0.22367921 -0.3604624
-0.036678001 -0.22370626 -0.3604795
-0.036507666 -0.22371869 -0.36051932
-0.0363115 -0.22375551 -0.36056
-0.036192 -0.223759 -0.360596
-0.0356666 -0.22373059 -0.36052102
-0.035483502 -0.2237235 -0.36048448
-0.035257 -0.22373401 -0.36052501
-0.035092998 -0.22375201 -0.360466
-0.034927253 -0.22374126 -0.36049902
-0.034695331 -0.223765 -0.360544
-0.034511 -0.22376999 -0.36059099
-0.033551 -0.223754 -0.36053199
-0.033330001 -0.22376101 -0.36058801
-0.033096753 -0.22377226 -0.36058927
-0.032853 -0.223785 -0.360589
-0.032490999 -0.223796 -0.36054301
-0.029933 -0.223722 -0.360401
-0.051505666 -0.22351401 -0.36052868
-0.051345501 -0.22347826 -0.36043674
-0.051096499 -0.22342199 -0.36041251
-0.050646 -0.22344901 -0.360405
-0.050471999 -0.223452 -0.360401
-0.050299801 -0.22348838 -0.36042243
-0.050112002 -0.22350526 -0.36045301
-0.049895 -0.22348101 -0.36044484
-0.048114747 -0.22348075 -0.36045602
-0.047877502 -0.22349201 -0.36047217
-0.047690999 -0.223453 -0.36045066
-0.047532 -0.223442 -0.360403
-0.046844497 -0.22340551 -0.36044002
-0.046654999 -0.22343235 -0.36046401
-0.046489667 -0.22348885 -0.36046648
-0.046320997 -0.2235034 -0.36050281
-0.046123751 -0.22356799 -0.36054224
-0.045937333 -0.223584 -0.36054066
-0.045727801 -0.22353141 -0.36054581
-0.0455135 -0.22349501 -0.36049381
-0.045293249 -0.22350775 -0.36047524
-0.045097109 -0.22350144 -0.36050436
-0.044775002 -0.22352949 -0.36050802
-0.044509999 -0.22357599 -0.36055899
-0.043460999 -0.22355801 -0.36056799
-0.043272249 -0.22352925 -0.36056051
-0.043110002 -0.2235492 -0.36054522
-0.04292633 -0.223545 -0.36053169
-0.042720664 -0.22354801 -0.36055067
-0.042564001 -0.223526 -0.360596
-0.042011999 -0.223561 -0.360594
-0.041915499 -0.22354551 -0.36059052
-0.041693669 -0.22355999 -0.36052766
-0.041551247 -0.22351426 -0.36047775
-0.041386999 -0.22349149 -0.36042702
-0.041064199 -0.22348061 -0.36051399
-0.040893167 -0.22351567 -0.36048436
-0.040703997 -0.22352767 -0.36052534
-0.040504001 -0.223561 -0.36055797
-0.04028767 -0.22357233 -0.360569
-0.040072501 -0.22357875 -0.36057451
-0.039871499 -0.22357249 -0.36056224
-0.039686002 -0.22349274 -0.36051652
-0.039507333 -0.22348766 -0.36045668
-0.039286669 -0.22350848 -0.36048567
-0.03908914 -0.22349645 -0.360486
-0.038893573 -0.22352056 -0.36049417
-0.038691752 -0.22354174 -0.36050001
-0.038532332 -0.223563 -0.36051166
-0.038276002 -0.223593 -0.36057001
-0.038151 -0.22359601 -0.36055699
-0.037634 -0.22354899 -0.360479
-0.037494503 -0.2235485 -0.36053002
-0.037273999 -0.223552 -0.36055201
-0.037114002 -0.22356924 -0.36053449
-0.036909334 -0.22357966 -0.36057666
-0.036711998 -0.223589 -0.36057901
-0.034017 -0.223509 -0.36059701
-0.05147 -0.223389 -0.36058301
-0.051296335 -0.22331633 -0.36051035
-0.051087625 -0.22330526 -0.36048776
-0.050890889 -0.22328387 -0.36048788
-0.050685834 -0.22329415 -0.36047748
-0.05050816 -0.22329782 -0.36049283
-0.050319333 -0.22333099 -0.3604885
-0.050087001 -0.22336566 -0.36055365
-0.049884666 -0.22331451 -0.36055031
-0.049701665 -0.22329335 -0.36045
-0.049509 -0.22324249 -0.3604075
-0.048710998 -0.22324 -0.36042401
-0.048467334 -0.22326767 -0.36045432
-0.048299797 -0.22330661 -0.36046642
-0.048151661 -0.22334766 -0.36053202
-0.047936998 -0.22329751 -0.36057901
-0.047694001 -0.22329558 -0.36055198
-0.047480334 -0.22329199 -0.36048666
-0.047307998 -0.22323051 -0.36046049
-0.047112897 -0.22329769 -0.36049953
-0.046952665 -0.22330783 -0.36050299
-0.046709001 -0.22332734 -0.36053362
-0.046479501 -0.22333351 -0.36059499
-0.045506001 -0.223378 -0.36058199
-0.045329999 -0.223389 -0.36056599
-0.041565999 -0.22335801 -0.36059299
-0.039147999 -0.2234 -0.36056599
-0.051252205 -0.2231216 -0.3605696
-0.0510948 -0.22317362 -0.36057201
-0.050806001 -0.223133 -0.36059299
-0.050723501 -0.22310051 -0.36057001
-0.050544001 -0.223143 -0.36059099
-0.050365999 -0.223149 -0.36059001
-0.049677253 -0.22315399 -0.3605355
-0.049508803 -0.22310841 -0.360515
-0.049298801 -0.2231096 -0.36046341
-0.049107857 -0.22310229 -0.36049399
-0.048940498 -0.22312182 -0.36047301
-0.048748001 -0.22311999 -0.36054149
-0.048475001 -0.22316301 -0.36054301
-0.048342999 -0.22316501 -0.360571
-0.047472499 -0.22314 -0.3605575
-0.047343999 -0.22315 -0.36052099
-0.049449999 -0.22297201 -0.36059099
-0.04936 -0.22297999 -0.36057201
-0.049036 -0.222995 -0.360587
-0.048987001 -0.22299901 -0.36059999
-0.039717998 -0.23881 -0.360367
-0.039507002 -0.23882701 -0.36038199
-0.039336 -0.238839 -0.36039099
-0.037801001 -0.238832 -0.360369
-0.040121 -0.23864749 -0.36035651
-0.03990617 -0.23868616 -0.36033681
-0.039683748 -0.23870149 -0.36026275
-0.03952311 -0.23870079 -0.36029541
-0.039328802 -0.23868999 -0.36029163
-0.039141666 -0.23864865 -0.360315
-0.038993999 -0.238635 -0.36034101
-0.038067002 -0.238673 -0.36037099
-0.037874717 -0.23866098 -0.36030886
-0.037671499 -0.2386885 -0.36028802
-0.037511803 -0.2386899 -0.36030421
-0.037324402 -0.23867421 -0.36031261
-0.037105501 -0.23865351 -0.36036348
-0.041683253 -0.23845026 -0.36033577
-0.041511375 -0.23846564 -0.36032164
-0.041331753 -0.23850589 -0.36032209
-0.041130401 -0.2385048 -0.36031401
-0.0408925 -0.2384965 -0.36032549
-0.040686402 -0.23846181 -0.36030078
-0.040493902 -0.23846701 -0.36034611
-0.040321115 -0.23849146 -0.36032954
-0.040130801 -0.23851399 -0.36027059
-0.03993025 -0.23855676 -0.36022401
-0.039551999 -0.2386 -0.36022499
-0.039085001 -0.238555 -0.360219
-0.038886003 -0.2385364 -0.36028081
-0.038709998 -0.23846801 -0.36027849
-0.0385345 -0.23847452 -0.36034474
-0.038321503 -0.23848349 -0.36026049
-0.038068499 -0.23856249 -0.36026102
-0.037976999 -0.23853099 -0.36023
-0.037280001 -0.238574 -0.36022449
-0.037094336 -0.23855467 -0.36024401
-0.036919996 -0.23854975 -0.36032075
-0.036739249 -0.23849325 -0.36031651
-0.036472999 -0.238401 -0.360351
-0.0362745 -0.23841199 -0.36037499
-0.0360975 -0.238418 -0.36037397
-0.035903499 -0.238424 -0.36037397
-0.041854255 -0.23829851 -0.36034399
-0.041696999 -0.23831433 -0.36024264
-0.041512001 -0.2383555 -0.36023897
-0.041324999 -0.23836733 -0.36021534
-0.040893998 -0.23838633 -0.36023065
-0.040637001 -0.23833001 -0.360223
-0.04052775 -0.23831549 -0.360241
-0.040358 -0.238343 -0.36022449
-0.038535751 -0.23832799 -0.3602325
-0.036645666 -0.23836534 -0.36024764
-0.036499545 -0.23831671 -0.36028346
-0.036318284 -0.23831214 -0.3602877
-0.036099251 -0.23830725 -0.36027622
-0.035904501 -0.238314 -0.3602885
-0.035679501 -0.2383295 -0.36029151
-0.035475668 -0.238261 -0.36031365
-0.0353125 -0.23824701 -0.36036199
-0.042118404 -0.238096 -0.36033762
-0.041932497 -0.23813617 -0.36029217
-0.036320999 -0.238185 -0.36021399
-0.035278 -0.23815067 -0.36025605
-0.035109665 -0.23810999 -0.36034933
-0.042424999 -0.237804 -0.360369
-0.042292167 -0.23786999 -0.36033383
-0.042146996 -0.23790975 -0.3602545
-0.035021 -0.237965 -0.36022201
-0.034881499 -0.23790351 -0.36030224
-0.034738999 -0.23784 -0.36037201
-0.043695334 -0.23767634 -0.36036566
-0.043529332 -0.23770066 -0.36034083
-0.0433282 -0.2376662 -0.36028484
-0.043114498 -0.23768751 -0.36031213
-0.042892337 -0.23770012 -0.36033446
-0.042671751 -0.23767425 -0.36034524
-0.042492144 -0.23767772 -0.36033103
-0.042337 -0.23771934 -0.36027148
-0.034676332 -0.23774798 -0.36029866
-0.034554999 -0.23765333 -0.36034334
-0.043850001 -0.23745365 -0.36035165
-0.043688603 -0.2375216 -0.36029419
-0.043529332 -0.23755451 -0.36024866
-0.043255001 -0.23754101 -0.36020699
-0.042893667 -0.23755334 -0.36022303
-0.042658333 -0.23754101 -0.36023402
-0.042520668 -0.23756766 -0.36024001
-0.034481499 -0.23751649 -0.36028135
-0.034326799 -0.23746081 -0.36033159
-0.044075999 -0.237203 -0.36034101
-0.043894753 -0.23727252 -0.36029002
-0.043721002 -0.237361 -0.36024001
-0.034272 -0.237305 -0.36025149
-0.034130666 -0.23729368 -0.36028484
-0.033900555 -0.23730677 -0.36029267
-0.033681501 -0.23728174 -0.36030251
-0.033504199 -0.2372698 -0.3603352
-0.045634001 -0.23704 -0.36039501
-0.045508601 -0.2370594 -0.36038423
-0.045162 -0.23706301 -0.360392
-0.04487 -0.237031 -0.36035836
-0.044723999 -0.237014 -0.36037299
-0.044241 -0.237049 -0.36039099
-0.0441195 -0.23709001 -0.36028725
-0.043947499 -0.2371335 -0.36023349
-0.033638999 -0.23717301 -0.36021501
-0.033481143 -0.23715459 -0.36023742
-0.033305142 -0.23712157 -0.36030871
-0.033119667 -0.23708367 -0.36036602
-0.045895338 -0.236808 -0.36036897
-0.045669399 -0.2368774 -0.36031219
-0.04549408 -0.23690026 -0.36027732
-0.045163997 -0.23695451 -0.360291
-0.044855248 -0.236899 -0.36029151
-0.044666201 -0.23689041 -0.36031401
-0.044494398 -0.23687562 -0.36033291
-0.044326253 -0.23690724 -0.36029074
-0.044162001 -0.23697899 -0.36023399
-0.033087336 -0.236964 -0.36027765
-0.0329355 -0.23690225 -0.36030078
-0.046072498 -0.23668849 -0.3603555
-0.045896169 -0.23669885 -0.36029136
-0.045721501 -0.23670751 -0.36025101
-0.045492001 -0.236754 -0.36020398
-0.044855502 -0.236789 -0.360223
-0.044692334 -0.23675133 -0.36022469
-0.044519503 -0.23672299 -0.36023274
-0.032871999 -0.236771 -0.36022499
-0.032738999 -0.2367125 -0.36027524
-0.032596 -0.23664699 -0.360324
-0.0471325 -0.2364575 -0.360376
-0.0469248 -0.2364932 -0.36036283
-0.046677403 -0.23648801 -0.36035642
-0.046505112 -0.23645888 -0.36035356
-0.04631117 -0.23646367 -0.36032569
-0.046115171 -0.23650615 -0.36029685
-0.045916747 -0.23657025 -0.36022851
-0.032536253 -0.23650801 -0.36026427
-0.047637001 -0.23620901 -0.360376
-0.047486886 -0.236269 -0.36036256
-0.047316667 -0.23630267 -0.36032122
-0.047133997 -0.23631084 -0.36026597
-0.046907 -0.23632009 -0.36025965
-0.046694402 -0.23631279 -0.36025739
-0.046496376 -0.23630124 -0.36026737
-0.046310831 -0.23631817 -0.3602415
-0.046160001 -0.236362 -0.36022499
-0.032476 -0.236367 -0.36021999
-0.032315668 -0.236302 -0.36029735
-0.032179002 -0.23624 -0.36034101
-0.047635 -0.236102 -0.36035198
-0.047485217 -0.23609966 -0.36029568
-0.047316331 -0.236158 -0.36023936
-0.046519667 -0.236193 -0.36021331
-0.032133602 -0.2361114 -0.36025521
-0.031910885 -0.2361051 -0.36030433
-0.031697202 -0.2361 -0.36032876
-0.031497002 -0.23608716 -0.36031312
-0.031350002 -0.23607101 -0.360369
-0.047663998 -0.2359046 -0.36032659
-0.047524001 -0.23593551 -0.36024711
-0.031824 -0.235967 -0.36020699
-0.031690001 -0.2359685 -0.36022151
-0.031469498 -0.2359625 -0.36023018
-0.03129017 -0.23591417 -0.3602955
-0.031153999 -0.23586001 -0.36036199
-0.047907334 -0.23563902 -0.36035898
-0.047724996 -0.23571901 -0.36026329
-0.047561999 -0.235778 -0.36021399
-0.031230001 -0.23578399 -0.36022601
-0.031100601 -0.2357322 -0.36027557
-0.030973 -0.235687 -0.36032349
-0.048071999 -0.235496 -0.3603625
-0.047921002 -0.23550498 -0.36029777
-0.047793001 -0.23547667 -0.36022365
-0.030888334 -0.23549932 -0.36028835
-0.030781999 -0.23543499 -0.36032599
-0.048648499 -0.2352085 -0.36038449
-0.048475999 -0.23521951 -0.36037999
-0.048285998 -0.23526949 -0.360342
-0.048109163 -0.23531349 -0.36030665
-0.047935337 -0.23537099 -0.36022767
-0.030725801 -0.23530801 -0.36026639
-0.030595001 -0.235227 -0.36035401
-0.048863001 -0.235055 -0.36037201
-0.048690334 -0.23509818 -0.36034501
-0.048464995 -0.23509081 -0.36031881
-0.048284996 -0.235089 -0.36026135
-0.048121333 -0.23514433 -0.360237
-0.030597501 -0.23512051 -0.36024702
-0.049246501 -0.2348295 -0.36039251
-0.049079601 -0.23489141 -0.36035979
-0.048861668 -0.23491101 -0.36031199
-0.048688997 -0.23491767 -0.36027122
-0.048483796 -0.23491481 -0.36026019
-0.048283 -0.234945 -0.36021301
-0.030434249 -0.23486975 -0.36033076
-0.0303555 -0.234845 -0.36035401
-0.049449001 -0.234667 -0.3603895
-0.049292911 -0.23467542 -0.36031768
-0.049096398 -0.2347028 -0.36027679
-0.0488615 -0.23473051 -0.3602145
-0.048715334 -0.23474832 -0.36021164
-0.048488665 -0.23475967 -0.36021468
-0.030435499 -0.23476151 -0.36024052
-0.030328501 -0.23469976 -0.36028326
-0.049465377 -0.23451425 -0.36037439
-0.049297877 -0.234502 -0.36026549
-0.04913 -0.23450649 -0.360223
-0.030265201 -0.2345318 -0.36027962
-0.030167501 -0.2344795 -0.36037397
-0.049491726 -0.23429953 -0.36033899
-0.049343802 -0.2343466 -0.36023358
-0.030243 -0.23437101 -0.36020699
-0.030125165 -0.23430085 -0.36029816
-0.029906569 -0.23428944 -0.36036143
-0.029664502 -0.234248 -0.3603535
-0.029486999 -0.2342705 -0.36037451
-0.029365499 -0.234301 -0.36038899
-0.049679998 -0.234007 -0.36037901
-0.049497586 -0.23408967 -0.36028516
-0.049368002 -0.234135 -0.360221
-0.030084001 -0.23415799 -0.36020601
-0.029893501 -0.23413049 -0.36024749
-0.02966575 -0.23414126 -0.36026075
-0.029464126 -0.23411888 -0.36028662
-0.029364666 -0.23412132 -0.3603003
-0.049723998 -0.23389475 -0.36035499
-0.049546402 -0.233888 -0.36023581
-0.0291255 -0.23395151 -0.36027199
-0.049848665 -0.23371001 -0.36038399
-0.049721669 -0.233715 -0.36029497
-0.049590498 -0.23376299 -0.36021701
-0.050062999 -0.2334125 -0.36037901
-0.049886167 -0.23349333 -0.36035681
-0.049740501 -0.23351499 -0.36026001
-0.028707251 -0.23345649 -0.36031377
-0.050244998 -0.233261 -0.360394
-0.050100502 -0.23330216 -0.36034986
-0.049885165 -0.23327766 -0.36025217
-0.0286645 -0.2333135 -0.36025101
-0.028568 -0.233245 -0.36036903
-0.050655 -0.233018 -0.36038101
-0.050496854 -0.23307814 -0.36037272
-0.050291333 -0.23311669 -0.36035451
-0.050097115 -0.23312277 -0.36031842
-0.049883001 -0.23313349 -0.3602125
-0.02852775 -0.2331025 -0.36030853
-0.050856996 -0.23288834 -0.36038497
-0.050687999 -0.23288541 -0.3603456
-0.050495777 -0.23288192 -0.36030447
-0.050288837 -0.23290019 -0.36027768
-0.050104372 -0.23291512 -0.36024997
-0.0284466 -0.23293701 -0.36029539
-0.028338999 -0.232859 -0.36033851
-0.05102475 -0.23269449 -0.36036527
-0.050869003 -0.23272167 -0.360329
-0.050702799 -0.2327126 -0.36030403
-0.050493333 -0.23270316 -0.36024415
-0.0502875 -0.232757 -0.36022449
-0.050170001 -0.232761 -0.36022699
-0.028421 -0.232779 -0.36021999
-0.028306123 -0.23273037 -0.36026251
-0.028197 -0.23265301 -0.36038801
-0.0512444 -0.2324992 -0.36037618
-0.051082667 -0.23249453 -0.36033344
-0.050866667 -0.23250566 -0.36025652
-0.050691333 -0.23251116 -0.36024299
-0.050475501 -0.23257649 -0.36021149
-0.028258 -0.232583 -0.36023101
-0.028198667 -0.23251067 -0.360266
-0.051235333 -0.23229134 -0.36037731
-0.051118832 -0.2322765 -0.36030781
-0.050937999 -0.23230983 -0.36022651
-0.050733 -0.232365 -0.36020601
-0.028150668 -0.23229301 -0.36028031
-0.051215664 -0.23212565 -0.36035731
-0.051115498 -0.232097 -0.36027476
-0.050996002 -0.23213901 -0.36020201
-0.028078668 -0.232076 -0.36026731
-0.05122 -0.23188876 -0.36037725
-0.051110666 -0.23191667 -0.36026648
-0.028054999 -0.231933 -0.360203
-0.027933335 -0.23188101 -0.36033133
-0.027775001 -0.231865 -0.36039001
-0.051238716 -0.23167856 -0.36034018
-0.051126 -0.23171699 -0.36026126
-0.027917668 -0.23171265 -0.36027384
-0.027729169 -0.231723 -0.36032233
-0.027475668 -0.23168534 -0.36034533
-0.027269 -0.23164999 -0.36036086
-0.027100749 -0.23162401 -0.36035651
-0.051270299 -0.23147699 -0.36030713
-0.051144 -0.23151949 -0.360208
-0.027729999 -0.23157901 -0.36023051
-0.02746325 -0.23155475 -0.36026424
-0.027315624 -0.23152676 -0.36026889
-0.027084 -0.23150001 -0.36027348
-0.026922001 -0.2315055 -0.360333
-0.051445667 -0.231309 -0.36037302
-0.051329639 -0.23131266 -0.36030549
-0.0270495 -0.23139399 -0.360221
-0.02687275 -0.23132825 -0.36029848
-0.051460002 -0.23107475 -0.36034653
-0.051344 -0.23110157 -0.36028013
-0.026828 -0.231188 -0.360201
-0.051468004 -0.2308906 -0.36031461
-0.051346872 -0.23089474 -0.36024174
-0.051513288 -0.23070844 -0.3603203
-0.0513625 -0.2307045 -0.36021447
-0.051680498 -0.230469 -0.36037499
-0.051510446 -0.23051378 -0.3602787
-0.051382001 -0.230593 -0.360201
-0.051856998 -0.23020799 -0.36038801
-0.051710598 -0.23027238 -0.36035079
-0.051528145 -0.230296 -0.3602747
-0.052159 -0.23005299 -0.360392
-0.051855501 -0.23010051 -0.36036
-0.051707797 -0.23008621 -0.36030141
-0.051541999 -0.23008083 -0.36023068
-0.052276999 -0.22986785 -0.36038169
-0.052157 -0.22991 -0.36036101
-0.051853001 -0.22992165 -0.36029831
-0.051722199 -0.22991399 -0.3602618
-0.051583 -0.22989801 -0.36020699
-0.026280601 -0.2298784 -0.36031121
-0.026197501 -0.229864 -0.36034352
-0.052423 -0.22967376 -0.36037549
-0.05228417 -0.22968191 -0.36034176
-0.052154001 -0.22969568 -0.36029366
-0.051850002 -0.22970666 -0.36024001
-0.0517186 -0.22972779 -0.3602308
-0.051578999 -0.229753 -0.36021501
-0.026264668 -0.229728 -0.36026034
-0.026169501 -0.229688 -0.36030599
-0.052696001 -0.229441 -0.36038852
-0.05250429 -0.22952355 -0.36035272
-0.052285999 -0.22948837 -0.36029607
-0.052149665 -0.22948034 -0.36025667
-0.051844999 -0.22949134 -0.36021462
-0.051750001 -0.229569 -0.36021301
-0.026111748 -0.229476 -0.36025926
-0.052856501 -0.22926775 -0.36039051
-0.05269416 -0.22929783 -0.36034599
-0.052517172 -0.22930716 -0.36031684
-0.052308075 -0.229316 -0.3602764
-0.052146003 -0.22930101 -0.36022902
-0.026079999 -0.229331 -0.36022201
-0.052861001 -0.22911668 -0.36037731
-0.052689832 -0.22908269 -0.36030969
-0.052513003 -0.229092 -0.36027816
-0.052303933 -0.22911099 -0.36023983
-0.052143 -0.229156 -0.36020899
-0.052872825 -0.2289245 -0.36035785
-0.052685499 -0.228902 -0.360291
-0.052509334 -0.22887699 -0.36022881
-0.052316498 -0.22893699 -0.36021164
-0.052867502 -0.22870833 -0.3603445
-0.052680999 -0.22872134 -0.36028317
-0.052504998 -0.22869749 -0.36020803
-0.052861001 -0.22849135 -0.36034951
-0.052676171 -0.22850583 -0.36025882
-0.052545998 -0.228587 -0.36021301
-0.052856166 -0.22827499 -0.36032319
-0.052671332 -0.22829033 -0.36022997
-0.052906003 -0.22810701 -0.36033502
-0.052681666 -0.228122 -0.36022034
-0.0258085 -0.2281335 -0.3602545
-0.053057499 -0.22788174 -0.36038974
-0.052915718 -0.22792158 -0.36031368
-0.052742999 -0.22790959 -0.36023301
-0.053052999 -0.22770175 -0.36037824
-0.052929003 -0.22769201 -0.36032203
-0.052795004 -0.227704 -0.36023304
-0.025703 -0.227659 -0.36035299
-0.053051334 -0.22749101 -0.36038336
-0.052923668 -0.22747634 -0.360304
-0.052792002 -0.22756 -0.36021399
-0.025704002 -0.22751899 -0.36026034
-0.053042497 -0.22733924 -0.36038679
-0.052918248 -0.22729525 -0.36030751
-0.052735001 -0.227237 -0.3602075
-0.025720999 -0.22728275 -0.36021549
-0.053022001 -0.22710399 -0.36039999
-0.0529125 -0.22711416 -0.36031964
-0.052755751 -0.227127 -0.36021799
-0.025694 -0.22708333 -0.36021432
-0.053016998 -0.226923 -0.36039501
-0.052906498 -0.22689682 -0.36031929
-0.052747753 -0.22689125 -0.36024052
-0.052588001 -0.22684801 -0.360203
-0.025687501 -0.226899 -0.36023501
-0.052892398 -0.22669402 -0.36032861
-0.052717999 -0.22669299 -0.36024585
-0.052583996 -0.226704 -0.36021101
-0.0257168 -0.22669962 -0.36023661
-0.025486 -0.22671966 -0.36034867
-0.052854501 -0.22649901 -0.36034
-0.052701801 -0.22649018 -0.36026281
-0.052576672 -0.22648533 -0.36023298
-0.025719665 -0.22649433 -0.36023816
-0.025482999 -0.22650534 -0.36028567
-0.052848 -0.22631668 -0.36036363
-0.052713603 -0.22631299 -0.36031061
-0.052540332 -0.22629333 -0.36023831
-0.025882 -0.22630799 -0.36021054
-0.025704199 -0.22628942 -0.36025518
-0.025476666 -0.22628532 -0.36028266
-0.025301 -0.22632 -0.360376
-0.052841995 -0.22610001 -0.36036265
-0.052697837 -0.22611003 -0.36032185
-0.052520335 -0.22612466 -0.36024702
-0.052386001 -0.22606 -0.360219
-0.0261715 -0.22603101 -0.36020797
-0.025875835 -0.22612382 -0.3602345
-0.0257154 -0.22611038 -0.36028099
-0.0254685 -0.226098 -0.36035001
-0.025294501 -0.2261 -0.36038601
-0.052834999 -0.22588134 -0.36037967
-0.052691162 -0.22589183 -0.36032847
-0.052513335 -0.22590649 -0.36026466
-0.052381668 -0.225915 -0.36022997
-0.026126098 -0.22587499 -0.36022404
-0.025905665 -0.22590089 -0.36026579
-0.025698835 -0.22590417 -0.36031783
-0.025462501 -0.22595 -0.36038148
-0.0252905 -0.225954 -0.36038649
-0.052829999 -0.22573601 -0.36039999
-0.052674402 -0.22568819 -0.3603552
-0.052506004 -0.2256875 -0.36029133
-0.052289888 -0.22569455 -0.36023563
-0.0521775 -0.22563499 -0.36021602
-0.026101556 -0.22569554 -0.36024702
-0.025897333 -0.22567824 -0.36031052
-0.025699401 -0.22569521 -0.3603642
-0.052687801 -0.2255116 -0.3603732
-0.05249925 -0.22550401 -0.36032501
-0.052298114 -0.2254831 -0.36027232
-0.052173 -0.22549033 -0.36022797
-0.026109546 -0.22551264 -0.36028969
-0.025889501 -0.22549166 -0.36036587
-0.025727499 -0.225493 -0.36038852
-0.052662402 -0.2253236 -0.3603934
-0.052492499 -0.22532034 -0.36035433
-0.052291665 -0.22530085 -0.36029598
-0.052123122 -0.2252866 -0.36023226
-0.026095085 -0.22529869 -0.36032411
-0.025959499 -0.2253415 -0.36037949
-0.052463252 -0.2251205 -0.36037526
-0.052284226 -0.22511557 -0.36034387
-0.0521187 -0.22511439 -0.36027431
-0.0260881 -0.2250926 -0.36034513
-0.052433997 -0.224921 -0.36039501
-0.052276 -0.22489588 -0.36038232
-0.052100495 -0.22490977 -0.36031911
-0.026272999 -0.224858 -0.36022401
-0.026106499 -0.22491248 -0.36038032
-0.0520625 -0.22470249 -0.36034438
-0.051708002 -0.22464401 -0.36021501
-0.026465001 -0.22463401 -0.360203
-0.026265332 -0.22470599 -0.360304
-0.052034501 -0.224511 -0.36038101
-0.051678251 -0.22448251 -0.36022875
-0.044275403 -0.22444901 -0.36023721
-0.044107575 -0.22445954 -0.36024231
-0.043946337 -0.22446334 -0.36021635
-0.042197 -0.224447 -0.360201
-0.026636001 -0.224472 -0.36025101
-0.026457001 -0.22451651 -0.36028802
-0.026257001 -0.224553 -0.360385
-0.05167 -0.22429651 -0.36029175
-0.051554501 -0.22424975 -0.36024526
-0.050248001 -0.224206 -0.36020201
-0.046133 -0.22429129 -0.36022714
-0.045942001 -0.224269 -0.36021301
-0.044487666 -0.22428368 -0.36022165
-0.044285834 -0.22430564 -0.36028183
-0.044089179 -0.22428598 -0.36030763
-0.043907855 -0.22429128 -0.36027858
-0.043744337 -0.22425365 -0.36025068
-0.042433001 -0.224227 -0.36021799
-0.042290401 -0.2242856 -0.36023101
-0.042124819 -0.22429237 -0.36023644
-0.04194 -0.224252 -0.360219
-0.036247998 -0.22425099 -0.36023033
-0.036113299 -0.22428951 -0.36024162
-0.035931252 -0.22425801 -0.36023125
-0.034315001 -0.224252 -0.36022151
-0.034102 -0.22429471 -0.36026809
-0.033898599 -0.22430161 -0.36025637
-0.033669502 -0.224213 -0.3602275
-0.032281335 -0.224231 -0.36023998
-0.032134667 -0.22429132 -0.36022535
-0.031978998 -0.224226 -0.36021
-0.028102001 -0.224261 -0.36022276
-0.027904334 -0.22427399 -0.36022934
-0.027709 -0.224205 -0.36020899
-0.027139999 -0.224232 -0.360208
-0.0268605 -0.2242565 -0.36029473
-0.026682198 -0.22432999 -0.36034301
-0.026450001 -0.2244 -0.36037299
-0.051686503 -0.2240915 -0.36034399
-0.051505495 -0.224104 -0.36026517
-0.050454497 -0.224051 -0.36020398
-0.050270334 -0.22408234 -0.36022401
-0.0501385 -0.22406726 -0.36022949
-0.049958501 -0.224007 -0.36020201
-0.048115 -0.224012 -0.36022499
-0.047975 -0.22401901 -0.36020201
-0.046280999 -0.22408544 -0.36023444
-0.046100829 -0.22410132 -0.36028373
-0.04589444 -0.22411977 -0.36026466
-0.045691665 -0.22407834 -0.3602263
-0.045543998 -0.22406299 -0.360201
-0.044801999 -0.224024 -0.360241
-0.044494506 -0.22410865 -0.36028683
-0.044290286 -0.22413857 -0.36034185
-0.044081669 -0.22415365 -0.36037198
-0.043902665 -0.22411467 -0.36037031
-0.043697 -0.22408913 -0.36030927
-0.043476332 -0.22404568 -0.36025235
-0.043317664 -0.22405232 -0.36022666
-0.043198999 -0.22403599 -0.36021799
-0.042935498 -0.22405699 -0.36021602
-0.042736001 -0.2240635 -0.36020851
-0.042483497 -0.22408466 -0.36025682
-0.042290494 -0.22407685 -0.3602967
-0.042098504 -0.22409765 -0.36029366
-0.041920502 -0.22409225 -0.36028776
-0.041749999 -0.22406833 -0.36023867
-0.040468 -0.22404626 -0.360219
-0.040275749 -0.22407849 -0.36022851
-0.040120251 -0.22408786 -0.36024275
-0.039933801 -0.2240822 -0.36023641
-0.038149331 -0.22408666 -0.36023334
-0.037914999 -0.224071 -0.360255
-0.036516 -0.22406 -0.3602235
-0.036296498 -0.22411083 -0.36026368
-0.036091335 -0.2241029 -0.36032945
-0.035895575 -0.22411071 -0.36032057
-0.035706401 -0.22408481 -0.36029378
-0.035549998 -0.224032 -0.360275
-0.034844499 -0.22400451 -0.36025599
-0.034655999 -0.22403133 -0.3602787
-0.034492664 -0.22408898 -0.36028185
-0.034316599 -0.22411239 -0.360309
-0.034114569 -0.22414346 -0.36036327
-0.033894334 -0.22414377 -0.3603451
-0.033662997 -0.224098 -0.36029899
-0.033500668 -0.22409832 -0.36023867
-0.033294667 -0.22405566 -0.36027899
-0.033119626 -0.22405376 -0.36028537
-0.032937501 -0.22406316 -0.36028099
-0.032739501 -0.22407201 -0.36029676
-0.032501373 -0.22410625 -0.36028314
-0.032304667 -0.22410035 -0.36032769
-0.032125 -0.22413699 -0.36032999
-0.031890601 -0.2240926 -0.36030918
-0.031729002 -0.22404301 -0.36024764
-0.030738 -0.224003 -0.360201
-0.030329499 -0.224014 -0.3602125
-0.028459333 -0.22406568 -0.36024967
-0.028299201 -0.22410759 -0.3603138
-0.028093375 -0.22414261 -0.360329
