-0.0793538 -0.115413 0.990143 0
-0.077445 -0.111432 0.99075 0
-0.0755988 -0.110291 0.99102 0
-0.0754481 -0.100987 0.992023 0.00597023
-0.0719766 -0.0979163 0.992588 0.0049338
-0.0668056 -0.101518 0.992588 0
-0.0608998 -0.0847791 0.994537 0.00341076
-0.0590805 -0.0862477 0.99452 0
-0.0571395 -0.0823627 0.994963 0
-0.0551492 -0.0821751 0.995091 0
-0.0535999 -0.0824719 0.995151 0
-0.0489203 -0.0755758 0.995939 0.00386515
-0.0468266 -0.073314 0.996209 0.00365167
-0.0452098 -0.0674845 0.996696 0
-0.0449789 -0.0646024 0.996897 0
-0.0447091 -0.062073 0.99707 0.000706369
-0.0431993 -0.054513 0.997578 0.00227217
-0.0445139 -0.0468239 0.997911 0.0095269
-0.0439059 -0.0452982 0.998008 0.00560251
-0.0449715 -0.0479391 0.997837 0.0100226
-0.0437306 -0.0507627 0.997753 0.00146921
-0.0443346 -0.0530515 0.997607 0.00366525
-0.0453072 -0.0496394 0.997739 0.00229595
-0.0463674 -0.0478363 0.997778 0.000739272
-0.048033 -0.0498901 0.997599 0
-0.0501419 -0.0424979 0.997838 0.000894273
-0.0526621 -0.0400282 0.99781 0.00316057
-0.0536498 -0.0393033 0.997786 0.00287039
-0.0566119 -0.0274452 0.998019 0.009671
-0.0591673 -0.0250045 0.997935 0.0130722
-0.0625787 -0.0242924 0.997744 0.015071
-0.0654941 -0.0220615 0.997609 0.0187966
-0.0654908 -0.0268344 0.997492 0.015063
-0.0650745 -0.0283433 0.997478 0.0082426
-0.0654245 -0.024641 0.997553 0.000762826
-0.0664287 -0.0249263 0.99748 0
-0.0681198 -0.0239401 0.99739 0
-0.0694955 -0.0221627 0.997336 0
-0.0717742 -0.0203482 0.997213 0
-0.0744434 -0.0223425 0.996975 0
-0.0745889 -0.022152 0.996968 0
-0.0974421 -0.127847 0.986996 0.00528524
-0.0947471 -0.126457 0.987437 0.00429624
-0.0907034 -0.12566 0.987918 0.0024779
-0.085446 -0.122758 0.988752 0
-0.0823673 -0.117457 0.989656 0
-0.080286 -0.116852 0.989899 0
-0.078507 -0.109621 0.990868 0
-0.0759693 -0.107247 0.991326 0
-0.0741336 -0.100703 0.992151 0.000804295
-0.0735464 -0.104459 0.991806 0.00229386
-0.0720408 -0.102851 0.992085 0
-0.069187 -0.0994868 0.992631 0.00071375
-0.0629014 -0.0948465 0.993503 0
-0.05686 -0.079694 0.995196 0.00143896
-0.0548436 -0.0771716 0.995508 0.000400892
-0.0523807 -0.0762655 0.995711 0
-0.0502824 -0.0714906 0.996173 0
-0.0494323 -0.0723865 0.996151 0
-0.0467108 -0.0719003 0.996317 0
-0.0433553 -0.0632133 0.997058 0
-0.0428334 -0.0619614 0.997159 0
-0.0428072 -0.060894 0.997226 0
-0.0419668 -0.0526056 0.997733 0
-0.0408988 -0.04389 0.998199 0.00118793
-0.0428075 -0.0391407 0.998316 0.0079126
-0.0426928 -0.042201 0.998197 0.00411998
-0.0428418 -0.0412333 0.998231 0.00429295
-0.0431468 -0.0438777 0.998105 0.00666221
-0.0435156 -0.0449724 0.99804 0.00355739
-0.0440695 -0.041646 0.99816 0.00265139
-0.0453834 -0.0414412 0.99811 0
-0.0467738 -0.041509 0.998043 0
-0.0489523 -0.0363471 0.99814 0
-0.0513539 -0.0355985 0.998046 0.00380357
-0.0521633 -0.0355898 0.998004 0.00118722
-0.0546484 -0.0283508 0.998103 0.00235228
-0.0586489 -0.018685 0.998104 0.0148401
-0.0614617 -0.0179561 0.997948 0.0161471
-0.0629411 -0.0226206 0.997761 0.0111055
-0.0635488 -0.0212814 0.997752 0.00993561
-0.0648094 -0.0207239 0.997682 0.00995955
-0.0656256 -0.017915 0.997683 0.00552131
-0.0660234 -0.019306 0.997631 0.000792901
-0.0673805 -0.0219002 0.997487 0
-0.0687309 -0.0224509 0.997383 0
-0.0704335 -0.0240635 0.997226 0
-0.072939 -0.020876 0.997118 0
-0.100258 -0.127231 0.986793 0.00654091
-0.0985447 -0.122071 0.987617 0.00894729
-0.0952726 -0.12371 0.987734 0.00362813
-0.091562 -0.118825 0.988684 0.00163013
-0.087237 -0.116321 0.989373 0.00195764
-0.0838782 -0.118183 0.989443 0
-0.0798317 -0.111111 0.990596 0
-0.0774561 -0.112617 0.990615 0
-0.0759714 -0.108524 0.991187 0
-0.0753869 -0.105503 0.991557 0.00336576
-0.0733858 -0.0983809 0.992439 0.0018579
-0.0720286 -0.0985067 0.992526 0.00596691
-0.068986 -0.0973731 0.992854 0.00311832
-0.0654134 -0.089546 0.993832 0.00215717
-0.0589662 -0.0828784 0.994814 0
-0.0529711 -0.0718571 0.996007 0
-0.0501963 -0.0699188 0.996289 0
-0.0482833 -0.0712725 0.996288 0
-0.0465911 -0.0657412 0.996748 0
-0.0458207 -0.0635891 0.996924 0
-0.0423538 -0.0613651 0.997216 0
-0.0416296 -0.0587762 0.997403 0
-0.0403151 -0.0580176 0.997501 0
-0.0399316 -0.054262 0.997728 0
-0.0397164 -0.0507515 0.997921 0
-0.0400139 -0.0387239 0.998448 0.00315999
-0.0409411 -0.0416724 0.998292 0.00463974
-0.041394 -0.0379696 0.998421 0.00362447
-0.0422572 -0.0384211 0.998368 0.00316583
-0.0425966 -0.0339109 0.998517 0.00782349
-0.042748 -0.0360549 0.998435 0.00334462
-0.0429767 -0.0409049 0.998238 0
-0.0445966 -0.0387848 0.998252 0
-0.0462418 -0.0378497 0.998213 0
-0.0485734 -0.033697 0.998251 0
-0.0500371 -0.0319002 0.998238 0.00164106
-0.0526689 -0.0203259 0.998405 0.00585383
-0.0554208 -0.016833 0.998321 0.00856274
-0.0573786 -0.0182312 0.998186 0.0109997
-0.0597339 -0.0181894 0.998049 0.0128001
-0.0607729 -0.0207894 0.997935 0.00711749
-0.062625 -0.0169435 0.997893 0.0107134
-0.0637931 -0.0154888 0.997843 0.00713084
-0.0647251 -0.0156987 0.99778 0.00377379
-0.0654811 -0.0180827 0.99769 0
-0.06704 -0.0212885 0.997523 0
-0.0676709 -0.0224806 0.997454 0
-0.0693686 -0.0219354 0.99735 0
-0.0714968 -0.0182479 0.997274 0
-0.0936942 -0.1166 0.98875 7.61366e-05
-0.0922512 -0.116508 0.988896 0.00320625
-0.0905663 -0.115162 0.98921 0.00730321
-0.0845952 -0.11119 0.990192 0.00327453
-0.0804126 -0.110258 0.990645 0
-0.0776119 -0.108767 0.991033 0
-0.0750411 -0.099813 0.992172 0
-0.073801 -0.0993358 0.992313 0.00187233
-0.0719433 -0.095955 0.992782 0.00105291
-0.0704495 -0.0941309 0.993064 0
-0.0688876 -0.0907432 0.993489 0.00182069
-0.0660592 -0.0918919 0.993575 0.0025484
-0.0622209 -0.0813561 0.994741 0.00117097
-0.0549985 -0.0767629 0.995531 0
-0.0464199 -0.0667748 0.996688 0
-0.0447696 -0.0654475 0.996851 0
-0.0428512 -0.0563679 0.99749 0
-0.0426103 -0.0588705 0.997356 0
-0.039422 -0.0551293 0.997701 0
-0.0381198 -0.0523299 0.997902 0
-0.0376391 -0.0493388 0.998073 0
-0.0380133 -0.0460562 0.998215 0
-0.0396119 -0.0303363 0.998755 0.00425304
-0.039892 -0.0356185 0.998569 0
-0.0416176 -0.0317447 0.998629 0.00508275
-0.0410009 -0.0334379 0.998599 0.000995526
-0.0412757 -0.0349947 0.998535 0
-0.0420565 -0.038581 0.99837 0
-0.0434924 -0.0361646 0.998399 0
-0.0453712 -0.0325969 0.998438 0.000574326
-0.0482488 -0.0271147 0.998467 0.00559009
-0.0492658 -0.0228372 0.998525 0.00156462
-0.0517959 -0.0182584 0.998491 0.00346472
-0.0548012 -0.0131067 0.998411 0.00862756
-0.0562788 -0.0155242 0.998294 0.00839136
-0.0594701 -0.0130093 0.998145 0.0141865
-0.0610204 -0.0150578 0.998023 0.0105299
-0.0622546 -0.0161908 0.997929 0.0110091
-0.0628318 -0.0159147 0.997897 0.00555108
-0.0635113 -0.0119189 0.99791 0.00188391
-0.0652099 -0.012249 0.997796 0.00199424
-0.0656816 -0.0151836 0.997725 0
-0.0672261 -0.0183229 0.99757 0
-0.0687906 -0.0211259 0.997407 0
-0.0716076 -0.0179543 0.997271 0
-0.0722744 -0.0173582 0.997234 0
-0.0920368 -0.110341 0.989623 0.00672077
-0.089436 -0.107635 0.99016 0.00461935
-0.087863 -0.109306 0.990117 0.0038037
-0.0834667 -0.103109 0.991162 0.00291008
-0.0777857 -0.105765 0.991344 0
-0.0750728 -0.103019 0.991842 0
-0.0727428 -0.0970441 0.992618 0.000541659
-0.0718878 -0.0939624 0.992977 0.00382379
-0.0695389 -0.0858215 0.993881 0.0036296
-0.0673699 -0.0885437 0.993791 0
-0.0636568 -0.0876123 0.994119 0
-0.0633113 -0.0831147 0.994527 0.00431457
-0.0595079 -0.0770721 0.995248 0.00270677
-0.0509841 -0.0678915 0.996389 0
-0.043295 -0.0585371 0.997346 0
-0.0401211 -0.0545963 0.997702 0
-0.0387147 -0.0534225 0.997821 0
-0.0359879 -0.0434075 0.998409 0
-0.0400165 -0.0306948 0.998727 0.00185342
-0.0407771 -0.0299079 0.998721 0.000595138
-0.0411809 -0.0329324 0.998609 0
-0.0416719 -0.0352846 0.998508 0
-0.0429107 -0.0298775 0.998632 0
-0.0451551 -0.0258822 0.998645 0
-0.0470586 -0.0263117 0.998546 0
-0.0485025 -0.0237795 0.99854 0.000583013
-0.0513797 -0.0182257 0.998513 0.00412164
-0.0537174 -0.0167674 0.998415 0.00445447
-0.0560206 -0.0120816 0.998357 0.0105338
-0.058563 -0.0109553 0.998224 0.0134015
-0.0593164 -0.0139221 0.998142 0.0097072
-0.0608527 -0.0109301 0.998087 0.00823407
-0.0623563 -0.00816068 0.998021 0.00593206
-0.0631313 -0.010453 0.99795 0.00220295
-0.0641705 -0.0093027 0.997896 0
-0.0649464 -0.0172532 0.99774 0
-0.0670398 -0.0163359 0.997617 0
-0.068584 -0.0182404 0.997479 0
-0.0709577 -0.0162982 0.997346 0
-0.0721206 -0.016643 0.997257 0
-0.0734567 -0.0150838 0.997184 0
-0.0745792 -0.0142666 0.997113 0
-0.0905071 -0.104692 0.990378 0.0120188
-0.087962 -0.103134 0.990771 0.0069575
-0.0855505 -0.103886 0.990903 0.00434825
-0.079438 -0.0972311 0.992087 0.0029794
-0.0745252 -0.0986827 0.992324 0
-0.07349 -0.0976938 0.992499 0.00149208
-0.0699965 -0.0928478 0.993217 0.000148031
-0.0683508 -0.0851099 0.994024 0.00361865
-0.0670693 -0.0817998 0.99439 0
-0.0657079 -0.084851 0.994225 0.00189322
-0.0597479 -0.0765096 0.995277 0.00108901
-0.0587255 -0.0747593 0.995471 0.00532167
-0.053216 -0.0190903 0.9984 0.000556208
-0.0550574 -0.0122434 0.998408 0.00591614
-0.0573323 -0.011305 0.998291 0.00880015
-0.0594863 -0.00737247 0.998202 0.0119575
-0.0602967 -0.00813848 0.998147 0.00734359
-0.0618027 -0.0077935 0.998058 0.00579026
-0.0628209 -0.00991196 0.997976 0.00339012
-0.0635538 -0.00974563 0.997931 0.00158251
-0.0647933 -0.0149119 0.997787 0
-0.0670309 -0.0158022 0.997626 0
-0.068503 -0.0185992 0.997478 0
-0.0709203 -0.02028 0.997276 0
-0.0718285 -0.0146702 0.997309 0
-0.0729758 -0.013343 0.997244 0
-0.0747292 -0.0126805 0.997123 0
-0.087145 -0.0995397 0.99121 0.009129
-0.0778507 -0.0922662 0.992686 0.00878685
-0.0729788 -0.0913976 0.993137 0.00812563
-0.0670006 -0.088456 0.993824 9.81289e-05
-0.0666277 -0.0865429 0.994018 0.00309581
-0.0623071 -0.0784612 0.994968 0.00157771
-0.0557685 -0.0758738 0.995557 0
-0.0562469 -0.00871798 0.998379 0.00712567
-0.0555667 -0.00885509 0.998416 0.00143162
-0.0589657 -0.00476237 0.998249 0.0107146
-0.0606425 -0.004102 0.998151 0.0117804
-0.0619762 -0.00261523 0.998074 0.00740444
-0.0633017 -0.00545753 0.99798 0.00664397
-0.0633452 -0.00796976 0.99796 0.00162554
-0.0646877 -0.00914523 0.997864 0
-0.0668083 -0.0162954 0.997633 0
-0.0686928 -0.015064 0.997524 0
-0.0704018 -0.0193013 0.997332 0
-0.0717813 -0.0155762 0.997299 0
-0.0731198 -0.0174378 0.997171 0
-0.0749443 -0.0167167 0.997048 0
-0.0776793 -0.0099636 0.996929 0
-0.0792172 -0.00901962 0.996817 0
-0.0838348 -0.00879453 0.996441 0
-0.0979052 -0.111815 0.988894 0
-0.0888084 -0.101686 0.990845 0
-0.0767687 -0.087554 0.993197 0.00506316
-0.069803 -0.0891762 0.993567 0.00394848
-0.066413 -0.0859549 0.994083 0.00237785
-0.0662608 -0.0832304 0.994325 0.00880093
-0.0640831 -0.0781084 0.994883 0.00665467
-0.0586574 -0.0724125 0.995648 0.00112959
-0.0324218 -0.0506012 0.998192 0
-0.049089 -0.0177933 0.998636 0
-0.0534667 -0.0126711 0.998489 0
-0.0553385 -0.0082244 0.998434 0.000147294
-0.0589854 -0.0046852 0.998248 0.0110733
-0.0608441 -0.00392791 0.99814 0.0121688
-0.0611043 -0.00926721 0.998088 0.00385571
-0.0615009 -0.0129984 0.998022 0.00190351
-0.0629153 -0.00944484 0.997974 0.00237002
-0.064557 -0.0157297 0.99779 0
-0.0669052 -0.0175101 0.997606 0
-0.0686321 -0.0189494 0.997462 0
-0.0705702 -0.0182116 0.997341 0
-0.0715348 -0.0189082 0.997259 0
-0.0733466 -0.0163363 0.997173 0
-0.0745522 -0.0173006 0.997067 0
-0.0774512 -0.0115067 0.99693 0
-0.0791464 -0.011206 0.9968 0
-0.0803127 -0.0166543 0.996631 0
-0.0996269 -0.113427 0.988539 0
-0.0968107 -0.113324 0.98883 0
-0.0873773 -0.100452 0.991098 0
-0.0633953 -0.0814382 0.99466 0
-0.0606935 -0.0794782 0.994987 0.00165545
-0.0587387 -0.0737395 0.995546 0.00265816
-0.0297261 -0.0474754 0.99843 0
-0.0474308 -0.0168282 0.998733 0
-0.049748 -0.0154229 0.998643 0
-0.0530715 -0.0106371 0.998534 0.00227726
-0.0539872 -0.0116113 0.998474 0.00204197
-0.0563436 -0.00833535 0.998377 0.00239792
-0.0581485 -0.0111186 0.998246 0.00476986
-0.0594359 -0.0115338 0.998165 0.00484589
-0.0612454 -0.0118076 0.998053 0.00441411
-0.0618553 -0.0110291 0.998024 0.00337555
-0.064102 -0.00925875 0.9979 0.00755038
-0.0657133 -0.0137122 0.997744 0.00466521
-0.066805 -0.0161048 0.997636 0.00120312
-0.0680901 -0.0176759 0.997523 0
-0.0695748 -0.0197925 0.99738 0
-0.0713 -0.0213748 0.997226 0
-0.0731594 -0.0217238 0.997084 0
-0.0742351 -0.0177629 0.997083 0
-0.0773872 -0.0159752 0.996873 0
-0.0792539 -0.0162617 0.996722 0
-0.0805285 -0.0206884 0.996538 0
-0.0597955 -0.0811614 0.994906 0
-0.0555448 -0.0764194 0.995527 0
-0.0536702 -0.0670531 0.996305 0.00457111
-0.0504587 -0.0144347 0.998622 0.000821342
-0.0569227 -0.0112148 0.998316 0.00344439
-0.0586363 -0.0130541 0.998194 0.00684693
-0.0594627 -0.0170283 0.998085 0.00403024
-0.0610919 -0.0107143 0.998075 0.00511854
-0.062289 -0.0119541 0.997987 0.00721918
-0.0639141 -0.0167376 0.997815 0.00755078
-0.0659373 -0.0168715 0.997681 0.00602198
-0.0670812 -0.0192664 0.997561 0.00332367
-0.0679907 -0.0204673 0.997476 0
-0.0697672 -0.0185924 0.99739 0
-0.0712404 -0.0184483 0.997289 0
-0.0728783 -0.0203486 0.997133 0
-0.0742068 -0.0232934 0.996971 0
-0.0777196 -0.0170863 0.996829 0
-0.0792686 -0.0207601 0.996637 0
-0.0805272 -0.0209545 0.996532 0
-0.0834242 -0.022712 0.996255 0
-0.0757996 -0.0945395 0.992631 0
-0.05658 -0.0153604 0.99828 0
-0.0584043 -0.0182839 0.998126 0.00450624
-0.0603633 -0.0115879 0.998109 0.00324218
-0.0630046 -0.0111676 0.997951 0.00767078
-0.0644145 -0.0118483 0.997853 0.00880508
-0.0661812 -0.0186075 0.997634 0.00747656
-0.0671476 -0.0207539 0.997527 0.00166451
-0.0683359 -0.0194243 0.997473 0
-0.0697496 -0.0241988 0.997271 0
-0.0713221 -0.0217974 0.997215 0
-0.073004 -0.0250043 0.997018 0
-0.0746168 -0.0227061 0.996954 0
-0.0777424 -0.0186507 0.996799 0
-0.0792759 -0.025858 0.996517 0
-0.0806882 -0.0267983 0.996379 0
-0.084132 -0.0255263 0.996128 0
-0.0855581 -0.0220059 0.99609 0
-0.0734638 -0.0863276 0.993555 0.000260946
-0.060075 -0.0216578 0.997959 0.00896869
-0.0608247 -0.0197 0.997954 0.00675897
-0.0633979 -0.0178494 0.997829 0.0092234
-0.0643509 -0.0213934 0.997698 0.00591981
-0.065882 -0.0263052 0.997481 0.00503255
-0.0675126 -0.0267156 0.997361 0.00340745
-0.0687042 -0.0243177 0.997341 0
-0.0701295 -0.02346 0.997262 0
-0.0716302 -0.0260816 0.99709 0
-0.0734743 -0.0267184 0.996939 0
-0.0752117 -0.0242224 0.996873 0
-0.0755347 -0.030698 0.99667 0
-0.0780853 -0.0274468 0.996569 0
-0.0795498 -0.0279081 0.99644 0
-0.0807974 -0.0278155 0.996342 0
-0.0872512 -0.0191795 0.996002 0
-0.100175 -0.117774 0.987975 0.0120897
-0.0938437 -0.11395 0.989044 0.0072439
-0.0846455 -0.110432 0.990273 0
-0.0817214 -0.109243 0.99065 0
-0.0683958 -0.0886367 0.993713 0
-0.0561054 -0.0295386 0.997988 0
-0.0588522 -0.0223291 0.998017 0.00384855
-0.0605053 -0.0235611 0.99789 0.00835047
-0.061114 -0.0252921 0.99781 0.00451229
-0.0631167 -0.0253722 0.997684 0.00525377
-0.0653929 -0.024927 0.997548 0.00821997
-0.0667225 -0.0270176 0.997406 0.00776729
-0.0677635 -0.0291925 0.997274 0.00188797
-0.06933 -0.0319658 0.997081 0
-0.0702815 -0.0330562 0.996979 0
-0.0718218 -0.0320188 0.996903 0
-0.0738306 -0.0333453 0.996713 0
-0.0753419 -0.0309585 0.996677 0
-0.0761186 -0.0312081 0.99661 0
-0.0783612 -0.0323584 0.9964 0
-0.079871 -0.0355251 0.996172 0
-0.0811717 -0.031426 0.996205 0
-0.104619 -0.121254 0.987093 0.0201003
-0.0984852 -0.113406 0.988655 0.0117783
-0.0916964 -0.113826 0.98926 0.00650927
-0.0833752 -0.109565 0.990477 0.000241159
-0.0787564 -0.103351 0.991522 0.00123517
-0.0748911 -0.102282 0.991932 0
-0.0682492 -0.0916933 0.993446 0
-0.0654824 -0.0858683 0.994152 0
-0.0634372 -0.084524 0.9944 0
-0.0544769 -0.036116 0.997862 0
-0.0563025 -0.0333567 0.997856 0
-0.0578326 -0.0296013 0.997887 0
-0.0597065 -0.0290567 0.997793 0.00215687
-0.061415 -0.026864 0.997751 0.00363798
-0.0632652 -0.0317199 0.997493 0.00306548
-0.0659725 -0.0312947 0.997331 0.00820337
-0.0669515 -0.0352415 0.997134 0.00685613
-0.0689865 -0.0396036 0.996831 0.00568346
-0.0699536 -0.0403965 0.996732 0
-0.0710601 -0.0406036 0.996645 0
-0.072533 -0.0428614 0.996445 0
-0.0744649 -0.0336884 0.996654 0
-0.0758538 -0.0343306 0.996528 0
-0.0766666 -0.0330504 0.996509 0
-0.0789891 -0.0408608 0.996038 0
-0.080257 -0.0423744 0.995873 0
-0.109734 -0.134919 0.984762 0.0123566
-0.104926 -0.13469 0.985317 0.0164115
-0.101738 -0.124599 0.986978 0.0175059
-0.0997929 -0.121685 0.987539 0.016335
-0.0994569 -0.121741 0.987566 0.013744
-0.0897976 -0.11772 0.988978 0.00995001
-0.088648 -0.115191 0.98938 0.00908325
-0.0757197 -0.107072 0.991364 0.00111331
-0.0722601 -0.0997046 0.99239 0
-0.0681721 -0.0953362 0.993108 0.00223559
-0.0661848 -0.0889588 0.993834 0.00682704
-0.0606755 -0.0855779 0.994482 0.00484655
-0.0583739 -0.0824855 0.994881 0
-0.0529335 -0.0400097 0.997796 0
-0.0552098 -0.0442432 0.997494 0
-0.0572812 -0.0404473 0.997538 0
-0.0586073 -0.0348119 0.997674 8.72778e-05
-0.0609827 -0.0336698 0.997571 0
-0.0636201 -0.0345137 0.997377 0.00356122
-0.0666158 -0.033503 0.997216 0.00920739
-0.0680864 -0.0328632 0.997138 0.00885335
-0.070463 -0.0362652 0.996855 0.0104593
-0.0707188 -0.0446894 0.996495 0
-0.0716351 -0.0517063 0.99609 0
-0.0734255 -0.0405984 0.996474 0
-0.0748007 -0.0400656 0.996393 0
-0.0760798 -0.0403824 0.996284 0
-0.080026 -0.048407 0.995617 0
-0.109058 -0.137482 0.984482 0.0163342
-0.104707 -0.133484 0.985504 0.0126277
-0.099495 -0.134598 0.985893 0.00918733
-0.0975392 -0.132072 0.986429 0.0109574
-0.0961592 -0.126066 0.98735 0.0140969
-0.0959247 -0.119844 0.988148 0.0146295
-0.0904411 -0.11666 0.989046 0.0120171
-0.0836884 -0.11793 0.989489 0.00387842
-0.0753422 -0.113541 0.990673 0.00159176
-0.072132 -0.109036 0.991417 0.000198909
-0.0690121 -0.0995914 0.992632 0.000602933
-0.0654802 -0.0932346 0.993489 0.0072452
-0.0609151 -0.0867378 0.994367 0.00528521
-0.0572551 -0.0784169 0.995275 0.00507225
-0.0543647 -0.0787103 0.995414 0.00474621
-0.0495701 -0.0430501 0.997842 0
-0.0511408 -0.0462005 0.997622 0
-0.0537944 -0.0449355 0.99754 0
-0.056039 -0.0497693 0.997187 0
-0.0581233 -0.0449696 0.997296 0
-0.0591952 -0.0380749 0.99752 0
-0.0607043 -0.0367759 0.997478 0
-0.0616315 -0.0421023 0.997211 0
-0.0640073 -0.0447852 0.996944 0.00210748
-0.0665356 -0.0480779 0.996625 0.00189007
-0.0679058 -0.0425691 0.996783 0.00173932
-0.0705382 -0.0398517 0.996713 0.00639014
-0.0712758 -0.0467121 0.996362 0.000777318
-0.0718566 -0.0560595 0.995838 0
-0.0735709 -0.049635 0.996054 0
-0.0748516 -0.0483875 0.99602 0
-0.0760524 -0.0509626 0.995801 0
-0.0771005 -0.0544051 0.995538 0
-0.0801023 -0.0490389 0.99558 0
-0.102281 -0.134353 0.985641 0.0135302
-0.0946107 -0.135643 0.98623 0.00701273
-0.0931671 -0.134538 0.986519 0.00744643
-0.09125 -0.12945 0.987378 0.00841934
-0.0916849 -0.122122 0.988271 0.0125402
-0.0839269 -0.118792 0.989366 0.00437294
-0.0791259 -0.113111 0.990427 0.00237598
-0.0700506 -0.10809 0.99167 0.000175723
-0.0680815 -0.106477 0.991982 0
-0.0646933 -0.0978177 0.993099 0
-0.0588323 -0.0919676 0.994023 0.00115357
-0.0540243 -0.0818864 0.995176 0.00361325
-0.0475766 -0.0794668 0.995701 0
-0.0400034 -0.062211 0.997261 0.000250822
-0.0525317 -0.0476839 0.99748 0
-0.055009 -0.0539129 0.997029 0
-0.0573635 -0.0524201 0.996976 0
-0.0584867 -0.048549 0.997107 0
-0.0597904 -0.0464909 0.997128 0
-0.0613303 -0.0491212 0.996908 0
-0.0624447 -0.0490486 0.996843 0
-0.0650153 -0.04776 0.996741 0.00185791
-0.0674547 -0.0496018 0.996489 0.00188322
-0.0688188 -0.0506202 0.996344 0.000376341
-0.0710467 -0.0491557 0.996261 0.00309864
-0.0715429 -0.0548194 0.99593 0
-0.0717758 -0.0578146 0.995744 0
-0.0733294 -0.0572668 0.995662 0
-0.0752946 -0.0567466 0.995545 0
-0.0767406 -0.0578876 0.995369 0
-0.0778829 -0.0595317 0.995184 0
-0.0996228 -0.13698 0.985551 0.0169683
-0.091668 -0.137357 0.986271 0.00507878
-0.0889538 -0.130232 0.987485 0.00708793
-0.087061 -0.132309 0.987378 0.00404166
-0.0854439 -0.122637 0.988767 0.00439143
-0.0795804 -0.116774 0.989965 0.00247236
-0.0754943 -0.115057 0.990486 0.00219802
-0.0655926 -0.109106 0.991864 0
-0.0631206 -0.0983423 0.993149 0
-0.0593702 -0.0993526 0.99328 0
-0.0543551 -0.0852921 0.994872 0.00660267
-0.0436855 -0.0771335 0.996063 0.000364432
-0.0546341 -0.0578265 0.996831 0
-0.0558604 -0.0589653 0.996696 0
-0.0583296 -0.0552914 0.996765 0
-0.0593383 -0.0543746 0.996756 0
-0.0606918 -0.0541135 0.996689 0
-0.0616266 -0.0555308 0.996553 0
-0.0634539 -0.0534719 0.996551 0
-0.0654874 -0.0563243 0.996262 0
-0.0675322 -0.0548159 0.99621 0.000397346
-0.0692773 -0.0521938 0.996231 0.0011844
-0.0709462 -0.0554649 0.995937 0
-0.0720375 -0.0546201 0.995905 0
-0.0725286 -0.063363 0.995352 0
-0.0739813 -0.0636444 0.995227 0
-0.0756274 -0.0641813 0.995068 0
-0.0775433 -0.065756 0.994818 0
-0.0783421 -0.0692917 0.994516 0
-0.102097 -0.144061 0.984288 0.0102085
-0.100301 -0.145501 0.984261 0.00992396
-0.0952337 -0.139373 0.98565 0.0132546
-0.0865927 -0.128997 0.987857 0.00713476
-0.0854896 -0.12369 0.988631 0.00808951
-0.0819539 -0.127774 0.988411 0.0046583
-0.0817806 -0.125181 0.988758 0.0041178
-0.0766776 -0.122146 0.989546 0.00161643
-0.0725707 -0.116171 0.990575 0.00658162
-0.0536633 -0.0971925 0.993818 0
-0.0592151 -0.0563405 0.996654 0
-0.0603964 -0.0612479 0.996294 0
-0.0614681 -0.0602026 0.996292 0
-0.0627478 -0.0622532 0.996086 0
-0.0642158 -0.0548948 0.996425 0
-0.0661626 -0.0566291 0.996201 0
-0.0688144 -0.0562838 0.996041 0.00454745
-0.0697552 -0.0626806 0.995593 0
-0.0716275 -0.0616988 0.995521 0
-0.0729255 -0.0623354 0.995387 0
-0.0730788 -0.0636686 0.995292 0
-0.0744395 -0.0693544 0.994811 0
-0.0761317 -0.0712743 0.994547 0
-0.0776407 -0.0680296 0.994658 0
-0.0785455 -0.0690562 0.994516 0
-0.080948 -0.0720853 0.994108 0
-0.0825243 -0.0675901 0.994294 0
-0.107213 -0.154859 0.982102 0.0100782
-0.0982968 -0.14319 0.984802 0.00933055
-0.0933519 -0.145061 0.985009 0.015566
-0.0853938 -0.138465 0.986679 0.0132146
-0.079051 -0.133534 0.987886 0.00533552
-0.0784265 -0.131646 0.988189 0.00773334
-0.0598367 -0.0682024 0.995875 0
-0.0624394 -0.0690893 0.995655 0
-0.062911 -0.067762 0.995716 0
-0.0651076 -0.0653059 0.995739 0
-0.066903 -0.0712551 0.995212 0
-0.0685778 -0.0681544 0.995315 0
-0.0706004 -0.0636008 0.995475 0
-0.0724946 -0.0728067 0.994708 0
-0.0735487 -0.0715582 0.994721 0
-0.0736606 -0.0746123 0.994488 0
-0.0746519 -0.0742086 0.994445 0
-0.0757486 -0.0773314 0.994124 0
-0.0782937 -0.0810627 0.993629 0
-0.0790934 -0.0837885 0.99334 0
-0.0814496 -0.0783888 0.99359 0
-0.0826004 -0.0812145 0.993268 0
-0.106781 -0.15468 0.982177 0.0148002
-0.0895327 -0.147974 0.98493 0.00924814
-0.0802324 -0.14109 0.98674 0.0104297
-0.0777702 -0.132392 0.988142 0.00713507
-0.0603395 -0.122446 0.990639 0.00177987
-0.0570424 -0.0720324 0.99577 0
-0.0615613 -0.0772788 0.995107 0
-0.0632038 -0.0772076 0.99501 0
-0.0636281 -0.0769309 0.995004 0
-0.0647795 -0.0739839 0.995153 0
-0.0659661 -0.0712084 0.995278 0
-0.0681289 -0.0701241 0.995209 0
-0.0697966 -0.0741863 0.994799 0
-0.0715858 -0.0768517 0.994469 0
-0.0731507 -0.0791954 0.994172 0
-0.0739548 -0.0799313 0.994053 0
-0.0744898 -0.0826704 0.993789 0
-0.0751738 -0.0814481 0.993839 0
-0.0768092 -0.0810754 0.993744 0
-0.0779878 -0.0814353 0.993623 0
-0.0793939 -0.0882384 0.99293 0
-0.0774816 -0.149869 0.985665 0.00827532
-0.05599 -0.121878 0.990965 0.00316815
-0.0411849 -0.102583 0.993872 0
-0.036529 -0.100082 0.994308 0
-0.057604 -0.0813629 0.995019 0
-0.0593 -0.0862916 0.994504 0
-0.0605432 -0.0824071 0.994758 0
-0.0628234 -0.0858262 0.994327 0
-0.0641376 -0.0810306 0.994646 0
-0.0651579 -0.0762504 0.994957 0
-0.0662536 -0.0753908 0.994951 0
-0.0673613 -0.0748739 0.994915 0
-0.0693309 -0.0724492 0.994959 0
-0.0706435 -0.0751392 0.994668 0
-0.0724992 -0.0793518 0.994207 0
-0.0735396 -0.0860599 0.993572 0
-0.0748069 -0.0886283 0.993252 0
-0.0751534 -0.092423 0.99288 0
-0.0758413 -0.0921977 0.992848 0
-0.0768172 -0.096361 0.992378 0
-0.0802468 -0.0916456 0.992553 0
-0.0582574 -0.0910763 0.994138 0
-0.0598896 -0.0891027 0.99422 0
-0.0612565 -0.0866995 0.994349 0
-0.0636253 -0.0876765 0.994115 0
-0.0654101 -0.0848965 0.99424 0
-0.0663645 -0.0835909 0.994288 0
-0.0671733 -0.0858137 0.994044 0
-0.0685681 -0.075225 0.994806 0
-0.0702988 -0.081701 0.994175 0
-0.0715665 -0.0860594 0.993716 0
-0.0732882 -0.0910165 0.993149 0
-0.0741637 -0.0912952 0.993058 0
-0.075428 -0.0933729 0.99277 0
-0.0762814 -0.102719 0.991781 0
-0.089456 -0.158806 0.983249 0.00656597
-0.0607752 -0.098325 0.993297 0
-0.0633698 -0.0917516 0.993764 0
-0.0642423 -0.0884178 0.99401 0
-0.0657104 -0.0928272 0.993512 0
-0.0674234 -0.0925826 0.99342 0
-0.068438 -0.0869185 0.993862 0
-0.0694687 -0.0892967 0.99358 0
-0.070638 -0.0885128 0.993567 0
-0.0719729 -0.0900626 0.993332 0
-0.0743611 -0.0963332 0.992568 0
-0.0748707 -0.102137 0.991949 0
-0.0760001 -0.102284 0.991848 0
-0.0767043 -0.107385 0.991254 0
-0.0779038 -0.105197 0.991395 0
-0.0792827 -0.102283 0.991591 0
-0.090476 -0.166243 0.981925 0.00839928
-0.0884399 -0.162551 0.982729 0.0119432
-0.0726294 -0.152534 0.985626 0.0146891
-0.0253049 -0.0963411 0.995027 0.00316842
-0.0617209 -0.0965569 0.993412 0.000214649
-0.0637161 -0.0959057 0.993349 0.00232047
-0.0634743 -0.0955126 0.993402 0
-0.0652547 -0.0948538 0.99335 0
-0.0668432 -0.0908719 0.993617 0
-0.0685654 -0.0957196 0.993044 0
-0.0694227 -0.09041 0.993482 0
-0.0705089 -0.0958214 0.992898 0
-0.071468 -0.100933 0.992323 0
-0.072618 -0.100731 0.99226 0
-0.075031 -0.107762 0.991341 0
-0.0769952 -0.115276 0.990345 0
-0.0776195 -0.11307 0.990551 0
-0.07804 -0.10559 0.991343 0
-0.104311 -0.191659 0.975903 0.0174399
-0.100423 -0.188869 0.976854 0.0164052
-0.0963873 -0.180003 0.978932 0.0174197
-0.0930516 -0.177484 0.979715 0.0137879
-0.0894717 -0.180274 0.979539 0.00643194
-0.0868116 -0.174359 0.980848 0.00708268
-0.0850021 -0.174911 0.980908 0.00928409
-0.0831463 -0.171685 0.981637 0.00742632
-0.0773557 -0.166493 0.983004 0.00294858
-0.0732752 -0.158536 0.98463 0.00875305
-0.0681325 -0.156816 0.985275 0.00903987
-0.0628298 -0.156101 0.985741 0.00991344
-0.055787 -0.147317 0.987515 0.00803143
-0.0512622 -0.142333 0.98849 0.00996026
-0.018236 -0.0969464 0.995123 0.00492771
-0.0580899 -0.0954976 0.993733 0
-0.0606744 -0.0994811 0.993188 0.000840416
-0.0614018 -0.100456 0.993045 0.000460934
-0.0637532 -0.105499 0.992374 0
-0.0648656 -0.101891 0.992678 0.00115439
-0.0655718 -0.099489 0.992876 0.000342312
-0.0673968 -0.09879 0.992823 0.00288587
-0.0674952 -0.0989131 0.992804 0.000301861
-0.0698578 -0.0988223 0.99265 0.00189823
-0.0704927 -0.0998928 0.992498 0
-0.0711686 -0.101006 0.992337 0
-0.0724238 -0.102122 0.992132 0
-0.0739451 -0.109491 0.991233 0
-0.075716 -0.110621 0.990974 0
-0.0770864 -0.121276 0.989621 0
-0.0780838 -0.118416 0.989889 0
-0.0786957 -0.119579 0.989701 0
-0.118369 -0.217819 0.968785 0.0192861
-0.115923 -0.208211 0.97119 0.0202987
-0.10858 -0.195475 0.974679 0.0189139
-0.103498 -0.194348 0.975457 0.0159848
-0.100103 -0.190006 0.976666 0.016296
-0.0969351 -0.188299 0.977316 0.0141759
-0.0921658 -0.182718 0.978836 0.0179287
-0.089329 -0.184867 0.978695 0.015899
-0.0857574 -0.184618 0.979062 0.011162
-0.0839744 -0.182365 0.979638 0.0123858
-0.0830829 -0.181926 0.979796 0.0104925
-0.0779311 -0.177018 0.981117 0.00455389
-0.074387 -0.170345 0.982573 0.00492694
-0.0688214 -0.159974 0.984719 0.00611126
-0.063785 -0.153695 0.986057 0.00845524
-0.0576741 -0.151151 0.986827 0.0129185
-0.0491675 -0.140728 0.988827 0.0105702
-0.0447962 -0.124535 0.991203 0.0135717
-0.0387155 -0.117269 0.992345 0.0117786
-0.0333772 -0.113678 0.992957 0.0164674
-0.0278649 -0.118032 0.992619 0.00998959
-0.0142645 -0.10036 0.994849 0
-0.0553256 -0.115818 0.991728 0
-0.0587494 -0.109749 0.992222 0
-0.0594649 -0.10293 0.992909 0
-0.0608513 -0.104519 0.99266 0.0034634
-0.0617888 -0.105569 0.992491 0.00275265
-0.0631794 -0.101364 0.992841 0.00261971
-0.0650281 -0.107792 0.992045 0.00193153
-0.0662682 -0.110016 0.991718 0.00194174
-0.0672842 -0.104872 0.992207 0.00367066
-0.0683034 -0.106264 0.991989 0.00347865
-0.069413 -0.103708 0.992183 0.000717928
-0.0710427 -0.10632 0.991791 0.00078143
-0.0720661 -0.107692 0.991569 0.00305913
-0.07206 -0.112447 0.991041 0
-0.0734726 -0.112656 0.990914 0
-0.0749584 -0.108459 0.991271 0
-0.0779785 -0.12362 0.989261 0
-0.118009 -0.219807 0.96838 0.016649
-0.115919 -0.2185 0.968928 0.0202243
-0.111583 -0.210722 0.971157 0.0208669
-0.105104 -0.198044 0.974542 0.0192767
-0.100774 -0.197144 0.975182 0.0175227
-0.0963442 -0.19442 0.976175 0.016905
-0.092846 -0.188682 0.977639 0.0159736
-0.0885982 -0.187454 0.978269 0.0183751
-0.0867253 -0.183038 0.979273 0.0225675
-0.0804678 -0.183374 0.979744 0.0134762
-0.0795248 -0.180516 0.980352 0.0127531
-0.0794 -0.178087 0.980806 0.00958094
-0.0742102 -0.167417 0.983089 0.00486418
-0.0702548 -0.164198 0.983922 0.00525824
-0.0638951 -0.162427 0.98465 0.00304826
-0.0582383 -0.157839 0.985746 0.00542809
-0.0506241 -0.144293 0.988239 0.0110269
-0.0437019 -0.13734 0.989559 0.0116982
-0.0387836 -0.126441 0.991216 0.0173101
-0.0329531 -0.12148 0.992047 0.0175317
-0.0262188 -0.115475 0.992964 0.0163604
-0.0226863 -0.116765 0.9929 0.0163983
-0.010536 -0.0989397 0.995038 0.00338364
-0.0572751 -0.115325 0.991675 0
-0.0591376 -0.112516 0.991888 0
-0.0606529 -0.112208 0.991832 0
-0.0616996 -0.113008 0.991677 0.000784111
-0.0633384 -0.110628 0.991842 0.00481093
-0.0653617 -0.110959 0.991673 0.00777978
-0.0665168 -0.109899 0.991715 0.00782505
-0.0683487 -0.109566 0.991627 0.00714616
-0.0686698 -0.11208 0.991324 0.00548807
-0.0700465 -0.110506 0.991404 0.00473767
-0.07044 -0.111996 0.991209 0.0035379
-0.0721248 -0.116147 0.99061 0.0032149
-0.0732014 -0.113074 0.990886 0.00256731
-0.119037 -0.229453 0.966013 0.0121395
-0.115003 -0.221577 0.968338 0.0130276
-0.11178 -0.217449 0.96965 0.0206714
-0.107922 -0.210445 0.971631 0.0230536
-0.104015 -0.206514 0.972899 0.0230096
-0.0992221 -0.201529 0.974444 0.0223444
-0.0953527 -0.195153 0.976127 0.0236109
-0.0910107 -0.189108 0.97773 0.0190407
-0.0857653 -0.189298 0.978167 0.0206637
-0.0821156 -0.183768 0.979534 0.0212564
-0.0761716 -0.18271 0.980212 0.0133087
-0.0742628 -0.181989 0.980492 0.00884317
-0.0744554 -0.174572 0.981825 0.00865697
-0.0701067 -0.171264 0.982728 0.0052989
-0.0654549 -0.169455 0.983362 0.00314351
-0.0604257 -0.16752 0.984015 0.00754153
-0.0522073 -0.161326 0.985519 0.00723852
-0.0453854 -0.151035 0.987486 0.00975377
-0.0369766 -0.144326 0.988839 0.015315
-0.0337958 -0.132059 0.990666 0.0184106
-0.0271276 -0.125706 0.991697 0.0158241
-0.0211168 -0.128521 0.991482 0.0126965
-0.0176941 -0.123112 0.992235 0.0131672
-0.00518497 -0.1062 0.994331 0.00656165
-0.00313614 -0.104839 0.994484 0.00258797
-0.0548815 -0.114622 0.991892 0.00246222
-0.0566844 -0.11859 0.991324 0
-0.0584972 -0.11745 0.991354 0
-0.0602922 -0.116181 0.991396 0
-0.0633829 -0.113603 0.991502 0.00657847
-0.0639289 -0.120049 0.990708 0.00434863
-0.0652177 -0.120003 0.990629 0.00742349
-0.0667702 -0.116313 0.990966 0.00917447
-0.0679473 -0.124221 0.989925 0.00839994
-0.0699769 -0.122596 0.989987 0.00866254
-0.070513 -0.121659 0.990064 0.00868614
-0.0717222 -0.124338 0.989644 0.00768284
-0.0727931 -0.12744 0.989172 0.00668045
-0.0731705 -0.12725 0.989168 0.00407835
-0.0741385 -0.126766 0.989158 0.00524697
-0.118168 -0.228788 0.966278 0.0132956
-0.114954 -0.225412 0.967458 0.0129135
-0.110279 -0.220655 0.969098 0.0172105
-0.105554 -0.21619 0.970629 0.0190406
-0.104423 -0.210622 0.971975 0.0232957
-0.0979453 -0.207769 0.973262 0.0177292
-0.0953762 -0.202343 0.974659 0.0257685
-0.0906165 -0.201755 0.975235 0.02193
-0.0865884 -0.194436 0.977086 0.0201181
-0.0825516 -0.193384 0.977644 0.0145317
-0.0773276 -0.184369 0.97981 0.0143691
-0.0721392 -0.18689 0.979729 0.0132692
-0.0708627 -0.19308 0.978621 0.00641298
-0.0696969 -0.178852 0.981404 0.00921594
-0.067584 -0.179118 0.981504 0.00768667
-0.0615841 -0.183562 0.981077 0.00647837
-0.0542667 -0.176641 0.982778 0.00260571
-0.0460315 -0.165166 0.985191 0.00688184
-0.0395719 -0.159853 0.986347 0.00922075
-0.0325514 -0.147599 0.988512 0.013363
-0.0302085 -0.131782 0.990818 0.0189682
-0.024331 -0.131239 0.991052 0.0144972
-0.0173012 -0.122996 0.992256 0.0156922
-0.0144752 -0.112796 0.993513 0.0174309
-0.00491623 -0.110204 0.993897 0.00967533
-0.00251178 -0.108441 0.9941 0.00789756
-0.0521185 -0.126902 0.990545 0.00321151
-0.0558195 -0.12598 0.990461 0
-0.0577608 -0.130577 0.989754 0
-0.0602496 -0.127992 0.989943 0.000992721
-0.0621227 -0.123525 0.990395 0.000559842
-0.0636356 -0.126088 0.989976 0
-0.0650065 -0.125145 0.990007 0
-0.0667518 -0.125117 0.989894 0.00585808
-0.0676457 -0.126484 0.989659 0.00634754
-0.06863 -0.128797 0.989293 0.00411055
-0.069735 -0.132824 0.988683 0.00221835
-0.07063 -0.136159 0.988166 0.00302123
-0.0715559 -0.135649 0.98817 0.00314918
-0.0729649 -0.136743 0.987916 0.00613466
-0.115257 -0.227435 0.966948 0.0160254
-0.113185 -0.224311 0.967922 0.018075
-0.106648 -0.221738 0.969257 0.0154774
-0.101782 -0.219085 0.970382 0.0158562
-0.098566 -0.215413 0.971536 0.0186071
-0.0949095 -0.207532 0.973613 0.0236519
-0.0910546 -0.207086 0.974076 0.0248805
-0.0895639 -0.201816 0.97532 0.0293874
-0.0825276 -0.199353 0.976446 0.0216794
-0.0778369 -0.204564 0.975753 0.0139068
-0.07285 -0.197424 0.977608 0.0112999
-0.0688625 -0.185547 0.98022 0.0121545
-0.068027 -0.18635 0.980125 0.00922808
-0.0649926 -0.183949 0.980785 0.00372339
-0.061991 -0.179519 0.981799 0.00334837
-0.0555504 -0.184016 0.981352 0
-0.0478133 -0.178436 0.982789 0
-0.0401153 -0.164885 0.985497 0.00367156
-0.0333821 -0.163129 0.98604 0.00989328
-0.0269964 -0.150441 0.98825 0.01565
-0.0253206 -0.137841 0.990131 0.0222689
-0.0185629 -0.139704 0.990019 0.0169566
-0.0129216 -0.131556 0.991225 0.0169619
-0.00945902 -0.120417 0.992678 0.0190944
-0.0024493 -0.116994 0.99313 0.0131163
-0.054879 -0.140734 0.988525 0.000106915
-0.0593577 -0.133778 0.989232 0.00391266
-0.0608538 -0.133349 0.989199 0.00329453
-0.0619213 -0.134643 0.988958 0.0021041
-0.0638928 -0.135021 0.988781 0.00247723
-0.0644211 -0.136991 0.988475 0
-0.0656856 -0.137032 0.988386 0
-0.0672617 -0.132093 0.988953 0.0023067
-0.0684548 -0.135848 0.988362 0.00171572
-0.0701597 -0.136078 0.988211 0.0050154
-0.0714 -0.135132 0.988252 0.00653155
-0.0725431 -0.142426 0.987143 0.00642316
-0.0735548 -0.144582 0.986755 0.00412207
-0.120849 -0.239877 0.963252 0.0218617
-0.11369 -0.23214 0.966015 0.0227367
-0.108552 -0.223969 0.968532 0.0229721
-0.101896 -0.222392 0.969618 0.0196643
-0.097921 -0.221095 0.970324 0.0156632
-0.0944332 -0.211323 0.972844 0.0175382
-0.0927403 -0.203429 0.974688 0.0271638
-0.0869597 -0.197747 0.976388 0.0289504
-0.0786404 -0.20165 0.976296 0.0214228
-0.0730069 -0.203925 0.97626 0.0158642
-0.06932 -0.194709 0.978408 0.0157416
-0.0643139 -0.192348 0.979217 0.0125096
-0.0623095 -0.189935 0.979817 0.00315296
-0.0581662 -0.187555 0.98053 0
-0.0565347 -0.179383 0.982154 0.000914758
-0.0491195 -0.19096 0.980368 0
-0.0409078 -0.182208 0.982409 0
-0.0344593 -0.167699 0.985236 0.000963837
-0.0279164 -0.160043 0.986715 0.00645386
-0.0220336 -0.14829 0.988698 0.0154545
-0.0183256 -0.144223 0.989375 0.0176832
-0.0131462 -0.142981 0.989638 0.0154881
-0.0100787 -0.13048 0.9914 0.016775
-0.00683635 -0.126974 0.991883 0.0190643
-0.0569363 -0.145883 0.987662 0.00498103
-0.0614932 -0.145384 0.987462 0.00455049
-0.0623943 -0.149144 0.986845 0.00208728
-0.0632119 -0.146619 0.987171 0
-0.064793 -0.143417 0.987539 0
-0.0662148 -0.149074 0.986607 0
-0.0672464 -0.143436 0.987372 0.000259675
-0.069081 -0.143102 0.987294 0.00227833
-0.0705729 -0.14941 0.986254 0.00505183
-0.0711093 -0.15438 0.985449 0.000763369
-0.0729613 -0.151736 0.985725 0.0056919
-0.0732762 -0.153277 0.985463 0.00509663
-0.117352 -0.24378 0.962704 0.0224623
-0.111294 -0.230763 0.966624 0.0294756
-0.106136 -0.228403 0.967764 0.0238573
-0.100638 -0.225543 0.969021 0.0214997
-0.0959829 -0.220977 0.970544 0.0198467
-0.0913123 -0.215121 0.972309 0.0176221
-0.0880428 -0.209477 0.973842 0.0210597
-0.0825458 -0.203194 0.975653 0.0225355
-0.0754093 -0.207654 0.975291 0.0166605
-0.0700849 -0.206091 0.97602 0.0176047
-0.0662983 -0.202158 0.977106 0.0161537
-0.0605218 -0.196545 0.978625 0.0149562
-0.0566956 -0.189338 0.980274 0.00606524
-0.0519867 -0.194645 0.979495 0
-0.049653 -0.195181 0.97951 0
-0.0431056 -0.190968 0.980649 0
-0.034797 -0.18006 0.98304 0
-0.0287083 -0.169368 0.985135 0
-0.0216328 -0.160063 0.98687 0.00666653
-0.0175973 -0.155704 0.987647 0.00652121
-0.0146261 -0.14706 0.989019 0.0133468
-0.00992751 -0.145078 0.98937 0.0137137
-0.00593921 -0.138827 0.990299 0.0158426
-0.0026423 -0.136492 0.990638 0.0169968
0.00404136 -0.123142 0.992381 0.0193994
-0.0485981 -0.145949 0.988098 0
-0.0516382 -0.149288 0.987444 0.00217716
-0.0590082 -0.157201 0.985802 0.00185552
-0.062944 -0.150562 0.986595 0.00513931
-0.0644367 -0.152477 0.986204 0.0067495
-0.0643494 -0.152747 0.986168 0
-0.0665279 -0.153086 0.985971 0
-0.067537 -0.151411 0.986161 0
-0.0691252 -0.15125 0.986076 0.00334196
-0.0712746 -0.151577 0.985872 0.00592435
-0.0722649 -0.156788 0.984985 0.00349116
-0.0732182 -0.156153 0.985015 0.00446565
-0.0739464 -0.154903 0.985158 0.00696958
-0.0750514 -0.163941 0.983611 0.00741672
-0.130596 -0.268385 0.954418 0.0268006
-0.122123 -0.26347 0.956906 0.0228583
-0.121277 -0.257704 0.958583 0.0271869
-0.113766 -0.248322 0.961974 0.0226373
-0.106779 -0.229832 0.967355 0.0291736
-0.099646 -0.232037 0.967589 0.0200054
-0.0973 -0.227014 0.969019 0.0232474
-0.0931247 -0.224079 0.970112 0.020424
-0.0889943 -0.215096 0.97253 0.0239413
-0.083306 -0.208651 0.974436 0.019734
-0.0783 -0.206271 0.975357 0.0187227
-0.0708024 -0.211673 0.974773 0.0126731
-0.0671931 -0.206941 0.976043 0.0143639
-0.0639836 -0.204487 0.976776 0.0127374
-0.0543167 -0.202153 0.977847 0.00628635
-0.0501318 -0.195071 0.979507 0.00397877
-0.0456191 -0.198034 0.979133 0
-0.0437341 -0.199721 0.978876 0
-0.0380537 -0.195523 0.979961 0
-0.0294823 -0.191452 0.981059 0
-0.0227048 -0.173379 0.984593 0
-0.0158994 -0.160917 0.98684 0.00102064
-0.0126031 -0.157378 0.987458 0.00371494
-0.0103065 -0.154043 0.98801 0.0067541
-0.00526222 -0.152739 0.988253 0.0125805
-0.00209548 -0.147319 0.989087 0.0166477
-0.000335061 -0.138467 0.990367 0.0191665
0.00538799 -0.129688 0.99154 0.0168412
0.00663414 -0.129749 0.991525 0.0168759
-0.0336023 -0.144171 0.988982 0
-0.0451371 -0.146587 0.988168 0.00206561
-0.0474899 -0.151215 0.987359 0
-0.0503249 -0.154886 0.98665 0
-0.0533702 -0.152974 0.986788 0.00510939
-0.0603293 -0.163567 0.984686 0.0035529
-0.0620095 -0.163874 0.98453 0.007308
-0.0648969 -0.160322 0.984929 0.0094051
-0.065977 -0.160789 0.984781 0.00876008
-0.0671815 -0.160333 0.984774 0.00617405
-0.0684719 -0.15804 0.985056 0.00560921
-0.0696156 -0.155745 0.985341 0.00271452
-0.0701824 -0.15701 0.9851 0
-0.0709933 -0.160708 0.984446 0.000902977
-0.0735959 -0.162868 0.983899 0.00274358
-0.0746016 -0.164356 0.983576 0.00653851
-0.12773 -0.273725 0.953289 0.0285886
-0.118106 -0.262236 0.957749 0.0224248
-0.116496 -0.258679 0.958913 0.0252766
-0.110586 -0.248846 0.962209 0.0251386
-0.100208 -0.238156 0.966044 0.0226834
-0.0961524 -0.235579 0.967087 0.0232624
-0.0934958 -0.229004 0.968925 0.0227278
-0.0885882 -0.221571 0.971112 0.0188329
-0.0776384 -0.216651 0.973157 0.0207001
-0.0711354 -0.208639 0.975402 0.0154506
-0.0597956 -0.207636 0.976377 0.0126229
-0.0491787 -0.20214 0.978121 0.00229747
-0.0440718 -0.198794 0.97905 0
-0.0403612 -0.202642 0.978421 0
-0.0375328 -0.200714 0.978931 0
-0.0309187 -0.200183 0.97927 0
-0.0246895 -0.191779 0.981127 0
-0.0179084 -0.17963 0.983571 0
-0.0123351 -0.167945 0.985719 4.59854e-05
-0.00843641 -0.165591 0.986158 0.00294174
-0.00641089 -0.162708 0.986653 0.00671521
-0.00143878 -0.15783 0.987465 0.00962705
0.00185655 -0.151215 0.988499 0.0101911
0.00337958 -0.143643 0.989624 0.0166949
0.00861847 -0.147093 0.989085 0.0151629
0.00892413 -0.144937 0.989401 0.0157279
0.00912123 -0.135142 0.990784 0.0132791
0.0102601 -0.141141 0.989936 0.010245
-0.0349288 -0.150628 0.987973 0
-0.0431801 -0.159862 0.986194 0
-0.0470785 -0.159652 0.98605 0.00220038
-0.0499398 -0.163129 0.98534 0
-0.0516252 -0.157615 0.98615 0
-0.0565221 -0.162806 0.985038 0.0102563
-0.063413 -0.168696 0.983626 0.00943487
-0.0664934 -0.167879 0.983562 0.0115368
-0.068066 -0.164938 0.983952 0.0141161
-0.0699619 -0.168952 0.983138 0.011471
-0.0704949 -0.174099 0.982202 0.00824652
-0.0714416 -0.172493 0.982417 0.00560467
-0.0716583 -0.166457 0.983441 0.00366162
-0.0728204 -0.168763 0.982963 0.0050198
-0.133122 -0.284523 0.949381 0.0293816
-0.122561 -0.272924 0.954197 0.0297458
-0.115859 -0.269518 0.956 0.0249376
-0.112267 -0.261453 0.958665 0.0248939
-0.107052 -0.255453 0.960877 0.024813
-0.096815 -0.24261 0.965281 0.0236882
-0.0933235 -0.236389 0.967167 0.0245013
-0.0907859 -0.232076 0.968452 0.0225462
-0.0883001 -0.22792 0.969668 0.0206933
-0.0550468 -0.207409 0.976704 0.00835155
-0.0447156 -0.201495 0.978468 0.00373126
-0.0415246 -0.199659 0.978985 0
-0.034589 -0.200751 0.979031 0
-0.0320829 -0.202949 0.978664 0
-0.0265884 -0.200156 0.979403 0
-0.0197774 -0.189448 0.981691 0
-0.0141945 -0.185545 0.982533 0
-0.00830721 -0.172708 0.984938 0.00184426
-0.00399892 -0.170584 0.985335 0
-0.000478741 -0.161133 0.986933 0.00438557
0.00332788 -0.158036 0.987428 0.00650071
0.00507333 -0.156024 0.98774 0.00392455
0.00606476 -0.156839 0.987606 0.00802184
0.0101787 -0.146892 0.9891 0.0127323
0.0118385 -0.150662 0.988514 0.0115372
0.0105416 -0.146329 0.98918 0.00677013
-0.0373067 -0.162885 0.98594 0
-0.0452902 -0.169808 0.984436 0
-0.0489455 -0.169975 0.984232 0
-0.0519492 -0.164016 0.985089 0
-0.0539316 -0.169869 0.98399 0.00203681
-0.0591687 -0.172161 0.98329 0.0154448
-0.0651006 -0.176325 0.982177 0.0122723
-0.0688879 -0.179171 0.981403 0.0168519
-0.0706284 -0.176136 0.981829 0.019027
-0.0713704 -0.180937 0.980902 0.00865644
-0.0717657 -0.181891 0.980696 0.00328935
-0.135072 -0.289693 0.947541 0.0305582
-0.128482 -0.285102 0.949847 0.0308425
-0.121622 -0.27924 0.952488 0.02943
-0.115537 -0.275725 0.954268 0.0279438
-0.107674 -0.266538 0.957791 0.0249386
-0.102969 -0.262049 0.959546 0.0201265
-0.0528631 -0.209099 0.976465 0.00800768
-0.0423132 -0.205342 0.977775 0.00454932
-0.0300895 -0.201385 0.97905 0
-0.0267003 -0.206705 0.978039 0
-0.020931 -0.20276 0.979005 0
-0.0155227 -0.19884 0.979909 0
-0.0112073 -0.189226 0.98187 0
-0.00599561 -0.178804 0.983867 0
-0.00154828 -0.177236 0.984167 0.00131437
0.00177364 -0.165364 0.986231 0
0.00685837 -0.164769 0.986308 0.0044613
0.00771381 -0.161966 0.986766 0.00506916
0.00846064 -0.157094 0.987547 0.00450136
0.00912145 -0.152834 0.98821 0.01135
0.0137051 -0.162819 0.986561 0.00421763
0.0132367 -0.155268 0.987784 0.00878086
0.0138339 -0.155444 0.987748 0.0076708
0.0127262 -0.153632 0.988046 0.0156933
-0.038206 -0.168563 0.98495 0.000600718
-0.0391266 -0.177048 0.983424 0
-0.0473899 -0.182936 0.981982 0
-0.0510324 -0.184731 0.981463 0
-0.0538369 -0.179333 0.982314 0
-0.056521 -0.176256 0.98272 0.00446409
-0.060637 -0.178021 0.982157 0.0137692
-0.0680697 -0.178851 0.981519 0.0212012
-0.0707457 -0.182747 0.980611 0.0240733
-0.0713592 -0.184953 0.980153 0.020303
-0.0720257 -0.183393 0.980397 0.0191249
-0.0733158 -0.183728 0.980239 0.014101
-0.140114 -0.296315 0.944757 0.0283309
-0.133976 -0.29452 0.946208 0.0266628
-0.130871 -0.290021 0.94803 0.0264067
-0.124665 -0.283255 0.950908 0.0299243
-0.116639 -0.279748 0.952962 0.0295229
-0.117139 -0.279045 0.953107 0.0319285
-0.10534 -0.271087 0.956773 0.026027
-0.104483 -0.267301 0.957932 0.0295431
-0.0221995 -0.213967 0.976589 0
-0.0167785 -0.207661 0.978057 0
-0.0115432 -0.198893 0.979953 0
-0.00602483 -0.194087 0.980966 0
-0.00176967 -0.186474 0.982458 0
0.00160866 -0.178325 0.98397 0
0.00637222 -0.177071 0.984177 0.00431995
0.00865869 -0.173781 0.984746 0.00165655
0.00962231 -0.171202 0.985189 0.00526839
0.0112988 -0.16092 0.986903 0.00735422
0.0123792 -0.161605 0.986778 0.00797041
0.0150145 -0.168465 0.985593 9.48088e-05
0.0152484 -0.162713 0.986556 0.00436382
0.0141992 -0.158699 0.987225 0.0090144
0.0135218 -0.161383 0.986799 0.011193
0.0115898 -0.15765 0.987427 0.0116081
0.0118954 -0.162731 0.986599 0.0041045
-0.0137918 -0.176244 0.98425 0.00706771
-0.0172753 -0.172234 0.984905 0.00898864
-0.0187341 -0.171274 0.985045 0.00938636
-0.0346419 -0.174587 0.984032 0
-0.0394329 -0.180979 0.982696 0
-0.0411464 -0.179506 0.982896 0
-0.0500009 -0.193135 0.979897 0
-0.0529447 -0.196285 0.979116 0
-0.0550189 -0.193902 0.979477 0
-0.0569333 -0.189581 0.980213 0
-0.0602545 -0.186636 0.98058 0.0074606
-0.138869 -0.297205 0.944661 0.0290553
-0.128934 -0.297078 0.946108 0.0236793
-0.125106 -0.291896 0.948233 0.0232942
-0.0137479 -0.209414 0.97773 0
-0.00793248 -0.203827 0.978975 0
-0.00339559 -0.204855 0.978786 0
0.00180811 -0.197961 0.980208 0
0.00558052 -0.194761 0.980835 0
0.00955454 -0.189482 0.981838 0.00245726
0.0110126 -0.180765 0.983465 0.00289417
0.0133071 -0.17907 0.983746 4.16314e-05
0.0141195 -0.173735 0.984691 0.00569336
0.0146295 -0.167915 0.985693 0.00184057
0.0165255 -0.168487 0.985565 0.00489815
0.0156569 -0.17057 0.985221 0.00636323
0.0151591 -0.171107 0.985136 0.00654836
0.0150566 -0.172391 0.984914 0.00680514
0.0141011 -0.168668 0.985572 0.0053759
0.0123405 -0.173142 0.98482 0.00296265
0.0118857 -0.172502 0.984937 0.00523303
0.00812538 -0.18014 0.983607 0
0.00640865 -0.179659 0.983708 0
0.00338569 -0.178946 0.983853 0
-0.000352909 -0.182704 0.983168 0
-0.00239654 -0.184561 0.982818 0
-0.00382154 -0.183502 0.983012 0
-0.0096207 -0.179669 0.98368 0.00686078
-0.0113149 -0.179645 0.983666 0.00369715
-0.014305 -0.179335 0.983684 0.00432265
-0.0177885 -0.179036 0.983682 0.00790209
-0.0198288 -0.183094 0.982895 0.00350949
-0.0255093 -0.183408 0.982706 0.00496547
-0.0344845 -0.183216 0.982468 0.00165741
-0.0372272 -0.182555 0.982491 0.0017794
-0.0398116 -0.187093 0.981535 0.00176316
-0.0428932 -0.195889 0.979688 0
-0.0510402 -0.202413 0.977969 0
-0.0543 -0.200608 0.978166 0
-0.0562557 -0.197263 0.978735 0
-0.0582204 -0.197598 0.978553 0
-0.153106 -0.307164 0.93926 0.0198871
-0.147689 -0.305614 0.940632 0.0210032
-0.140834 -0.300476 0.943335 0.0196391
-0.128335 -0.294298 0.947058 0.017368
0.00937458 -0.19593 0.980573 0.000594123
0.0118046 -0.191221 0.981476 0.00233826
0.0142091 -0.194869 0.980726 0.00473637
0.0150715 -0.190605 0.981551 0.00360607
0.0156573 -0.186355 0.982358 0.00485053
0.0164576 -0.184841 0.982631 0.00388077
0.0179243 -0.178572 0.983764 0.000559089
0.0166335 -0.180115 0.983505 0.0044233
0.0154064 -0.176754 0.984135 0.00748179
0.015357 -0.176813 0.984125 0.00249254
0.013667 -0.175123 0.984452 0.00459384
0.012988 -0.18234 0.98315 0
0.0112987 -0.186684 0.982355 0.00111511
0.00723967 -0.185066 0.982699 0
0.00601788 -0.188668 0.982023 0
0.00386941 -0.193342 0.981124 0
0.00231017 -0.195306 0.98074 0
-2.59453e-05 -0.194007 0.981 0
-0.00174842 -0.19267 0.981262 0
-0.00576734 -0.188927 0.981974 0
-0.00851555 -0.189653 0.981814 0
-0.0116996 -0.188608 0.981983 0.00676133
-0.0156983 -0.192421 0.981187 0.00482403
-0.0192184 -0.192235 0.981161 0.0059442
-0.0220601 -0.188368 0.981851 0.00862922
-0.02685 -0.189059 0.981599 0.00370907
-0.0279598 -0.195665 0.980272 0.00453839
-0.0349132 -0.196494 0.979883 0
-0.037834 -0.196843 0.979705 0.000713362
-0.0415567 -0.199661 0.978983 0
-0.0441036 -0.206274 0.9775 0
-0.0520297 -0.216488 0.974898 0
-0.0567696 -0.205508 0.977008 0
-0.0587137 -0.212044 0.975495 0
-0.15526 -0.315625 0.936096 0.0185282
-0.150589 -0.308674 0.939172 0.022498
-0.142337 -0.305502 0.941493 0.0192736
-0.137065 -0.30341 0.942951 0.0199236
0.0160486 -0.185976 0.982423 0.0050267
0.0178608 -0.184006 0.982763 0.00210887
0.0181314 -0.184324 0.982698 0.00423464
0.0186442 -0.186099 0.982354 0.00523298
0.0176197 -0.18993 0.98164 0.00217382
0.0170636 -0.19145 0.981354 0
0.0158535 -0.189028 0.981844 0
0.0129989 -0.188572 0.981973 0.000563606
0.0131202 -0.196965 0.980323 0
0.0114085 -0.19405 0.980925 0
0.00765271 -0.192075 0.98135 0
0.00547795 -0.196069 0.980575 0
0.0037456 -0.199432 0.979905 0
0.00194929 -0.201982 0.979387 0
-0.000166031 -0.206111 0.978529 0
-0.00326477 -0.198785 0.980038 0
-0.00670149 -0.200429 0.979685 0.000132681
-0.0105854 -0.200807 0.979574 0.00367846
-0.0127854 -0.19843 0.980032 0.00203395
-0.0174949 -0.199097 0.979824 0
