# .PCD v0.7 - Point Cloud Data file format
VERSION 0.7
FIELDS x y z
SIZE 4 4 4
TYPE F F F
COUNT 1 1 1
WIDTH 1441
HEIGHT 1
VIEWPOINT 0 0 0 1 0 0 0
POINTS 1441
DATA ascii
0.010687 0.14635301 -0.228754
0.015815999 0.14633866 -0.22879069
0.0103845 0.146488 -0.22888249
0.010589 0.1464725 -0.228808
0.010692 0.14646451 -0.22877625
0.016030502 0.14649549 -0.228855
0.0103905 0.146635 -0.22889301
0.01059625 0.14662099 -0.2288375
0.01069925 0.14661275 -0.22880524
0.016032498 0.14664 -0.228781
0.016223 0.146671 -0.228884
0.01060275 0.146769 -0.22885799
0.010705499 0.14676049 -0.22881
0.016254 0.14679334 -0.22884466
0.010609 0.14691749 -0.22886974
0.01071225 0.14690849 -0.22884275
0.016315 0.14692551 -0.22881651
0.016407501 0.14692351 -0.22887501
0.010623001 0.147052 -0.22887868
0.0107195 0.14705725 -0.22886674
0.016444001 0.14706576 -0.22881524
0.016556 0.14709699 -0.22888801
0.010645 0.147174 -0.228893
0.0107255 0.1472055 -0.2288765
0.016480001 0.147172 -0.228763
0.01655525 0.14720374 -0.2287925
0.01073225 0.1473525 -0.2288935
0.01675 0.147338 -0.2288425
0.010721 0.14750841 -0.22886482
0.010713667 0.14764701 -0.22882348
0.0107318 0.14778881 -0.22886761
0.01075425 0.14794375 -0.228881
0.011212 0.14803199 -0.228755
0.0107605 0.1480915 -0.22889501
0.011216501 0.148142 -0.228762
0.011223 0.14829001 -0.228781
0.017209999 0.14824601 -0.22877599
0.0112285 0.14843699 -0.22877601
0.011236001 0.148587 -0.22881049
0.0112425 0.148734 -0.22883201
0.011414999 0.148725 -0.228772
0.011248 0.148848 -0.22885101
0.011251 0.14892 -0.228853
0.011448 0.148884 -0.22877933
0.011255 0.14903149 -0.228854
0.0114665 0.149019 -0.22878075
0.011587 0.149012 -0.22876051
0.011263 0.1491815 -0.228894
0.011473 0.14916649 -0.22878799
0.011619 0.149119 -0.228756
0.011266 0.1493265 -0.2288405
0.011464 0.14930201 -0.22877501
0.011268999 0.149471 -0.22878501
0.011441 0.149425 -0.228753
0.01085 0.14967699 -0.228893
0.011274001 0.14961851 -0.22877699
0.010781333 0.14980434 -0.22888732
0.010853 0.14978749 -0.228864
0.011278 0.149729 -0.22876
0.018131001 0.149755 -0.228778
0.010752 0.149942 -0.228882
0.01083075 0.14993601 -0.22886601
0.018237 0.149974 -0.22878
0.01073225 0.15009224 -0.22887576
0.01083575 0.150084 -0.228856
0.01833 0.150121 -0.22884899
0.010737 0.15023801 -0.22885525
0.010840749 0.15023026 -0.22883874
0.010538 0.15043899 -0.2289
0.0107425 0.15038624 -0.22885326
0.0108465 0.150378 -0.22883701
0.018425999 0.15033901 -0.228829
0.010542 0.150548 -0.2288865
0.010748001 0.15053374 -0.2288475
0.010851501 0.150525 -0.22882125
0.018516 0.15055799 -0.228778
0.0105455 0.15069449 -0.22884899
0.0107525 0.15068001 -0.22882201
0.0108555 0.15067075 -0.22879225
0.010551499 0.15084299 -0.22885999
0.0107575 0.15082726 -0.22881401
0.01086025 0.1508185 -0.22876701
0.010244667 0.15101933 -0.22888632
0.0105555 0.15098849 -0.22882301
0.010762 0.15097325 -0.22878501
0.010836 0.15092801 -0.228761
0.010031 0.15109301 -0.228894
0.010133 0.15119401 -0.22888599
0.0102645 0.151153 -0.22887276
0.010557 0.151095 -0.22875801
0.01074 0.151085 -0.228752
0.0098515004 0.15128449 -0.22889599
0.010036667 0.15127601 -0.22886501
0.010136 0.15130299 -0.22885001
0.01026775 0.15129775 -0.22883026
0.010562 0.151243 -0.228755
0.0095490003 0.151448 -0.22888801
0.0096733337 0.151438 -0.22888733
0.0098291663 0.15139334 -0.22886167
0.0099877995 0.1514394 -0.22883961
0.0101385 0.15144649 -0.228791
0.0102695 0.15140599 -0.228781
0.0092080003 0.151611 -0.228879
0.0093475003 0.1516045 -0.22888151
0.0095117502 0.15155974 -0.22886527
0.0096760001 0.15154783 -0.22885883
0.0098392498 0.15156576 -0.22880362
0.0099853324 0.15159434 -0.22878735
0.0086279996 0.15179101 -0.22887599
0.0087879999 0.151779 -0.228865
0.0089619998 0.151769 -0.228864
0.0092094997 0.1517175 -0.228826
0.0093485005 0.15171149 -0.22881974
0.0095144995 0.15170425 -0.228808
0.0096793333 0.15169266 -0.22880916
0.0097860005 0.15168649 -0.2287695
0.0099579999 0.15171701 -0.228751
0.0078159999 0.151904 -0.22888599
0.0080960002 0.151895 -0.228889
0.0081900004 0.15188301 -0.228872
0.0083483336 0.15190001 -0.22886433
0.0086300001 0.1518985 -0.22882399
0.0087895002 0.15188551 -0.22880149
0.0089624999 0.1518755 -0.22879399
0.0092110001 0.151824 -0.228778
0.0093366662 0.15184467 -0.22877133
0.0095160007 0.151811 -0.22875449
0.0096770003 0.15180001 -0.228754
0.007584 0.15206534 -0.22889034
0.0077160001 0.15205599 -0.228889
0.00788025 0.15201025 -0.22887
0.0080570001 0.15200301 -0.22885524
0.0081930002 0.1519925 -0.22883749
0.0083258003 0.1520358 -0.22880201
0.0086335 0.15204349 -0.22877
0.0087909997 0.151994 -0.228756
0.0068689999 0.152246 -0.228883
0.0070699998 0.152237 -0.22887699
0.0073530003 0.1521845 -0.2288745
0.007586 0.15217416 -0.22884549
0.0077175 0.152165 -0.2288475
0.0078832498 0.152155 -0.22881049
0.0080185002 0.152147 -0.22881001
0.0081484998 0.15214224 -0.228783
0.0082919998 0.15216801 -0.22875801
0.0062489999 0.152357 -0.2289
0.006335 0.152353 -0.228894
0.0065159998 0.152338 -0.22887599
0.006662 0.15233299 -0.22888499
0.0068715001 0.15235451 -0.2288425
0.0070725 0.15234551 -0.228835
0.0073560001 0.152328 -0.228817
0.0075893332 0.15231784 -0.22879416
0.0077210004 0.15230849 -0.228792
0.0079063335 0.15228599 -0.22876233
0.0080209998 0.152255 -0.228772
0.0058995001 0.15251401 -0.22889349
0.0060740001 0.15251 -0.22889499
0.00620875 0.15246825 -0.22888151
0.0063780001 0.15245827 -0.22886899
0.0065184999 0.1524455 -0.22883099
0.0066767996 0.15246341 -0.22885001
0.0068739997 0.15249851 -0.22878399
0.0070754997 0.15248901 -0.228783
0.0073600002 0.152473 -0.22877449
0.007528 0.152429 -0.22875699
0.0077229999 0.152417 -0.22876
0.0052160001 0.152696 -0.228891
0.0054515 0.15268449 -0.2288795
0.0056090001 0.15265433 -0.22887801
0.0057716006 0.15263921 -0.22887421
0.0059203999 0.152615 -0.22885399
0.0060506663 0.15262966 -0.228854
0.0062120003 0.15261325 -0.22883376
0.0063817501 0.152603 -0.22882226
0.0065219998 0.1525915 -0.228793
0.0066582002 0.15263741 -0.22878759
0.006877 0.15260699 -0.228754
0.0070779999 0.15260001 -0.228755
0.004468 0.152807 -0.228871
0.0045840004 0.15279901 -0.22886401
0.004735 0.15279467 -0.22888
0.0048460001 0.15275151 -0.2288875
0.0049660001 0.152779 -0.22888
0.0052169999 0.15280351 -0.228827
0.0054525002 0.1527915 -0.22881225
0.0056232498 0.15278375 -0.22880726
0.0057743336 0.15277417 -0.22879834
0.0058933333 0.15275501 -0.22878933
0.00604025 0.15276225 -0.228798
0.0062152501 0.1527575 -0.2287875
0.006385 0.15274701 -0.22877499
0.0065250001 0.15270001 -0.228756
0.0037070001 0.152997 -0.228884
0.0038013335 0.15298867 -0.22887634
0.0039630001 0.152981 -0.228894
0.0041100001 0.152972 -0.228865
0.0042689997 0.152942 -0.22886765
0.00442925 0.15292175 -0.22885551
0.0045864997 0.152907 -0.22882175
0.0047361669 0.1529015 -0.22881533
0.0048475 0.1528935 -0.22879601
0.0049670003 0.15292101 -0.22879033
0.0052180002 0.152909 -0.22876
0.0054080002 0.15290099 -0.228755
0.0055869999 0.15289301 -0.228761
0.0036705001 0.15310851 -0.22887176
0.0038041666 0.15309684 -0.22884701
0.0039654998 0.15309051 -0.228856
0.0041129999 0.15308 -0.2288285
0.004255 0.15307449 -0.22882324
0.0044327499 0.1530675 -0.22882026
0.0045909998 0.153054 -0.22880301
0.0047399998 0.15304665 -0.22877766
0.0048500001 0.153001 -0.228756
0.0029185 0.153254 -0.2288885
0.0032820001 0.15324 -0.228874
0.0035116002 0.1532128 -0.22886321
0.00367375 0.1532535 -0.22882424
0.0038085002 0.15324233 -0.22881852
0.0039680004 0.1532325 -0.22879601
0.0041159997 0.153225 -0.228787
0.0042410004 0.153207 -0.22877334
0.0044344999 0.153174 -0.22877
0.0045934999 0.153163 -0.2287655
0.0047145002 0.1531575 -0.228769
0.0025150001 0.153422 -0.228881
0.00269 0.153413 -0.228894
0.00280025 0.15338825 -0.2288785
0.0029214998 0.153364 -0.22886375
0.0030184998 0.1533595 -0.22886801
0.0032835002 0.15334651 -0.22881851
0.0034981999 0.153386 -0.22879341
0.00367675 0.15339725 -0.228769
0.0037789999 0.15337832 -0.22877701
0.00397 0.15334199 -0.228753
0.0041189999 0.15333299 -0.228754
0.00190625 0.153558 -0.22886974
0.0020387501 0.1535545 -0.22887176
0.0022534998 0.1535435 -0.228862
0.0025160001 0.15352851 -0.2288295
0.0026914999 0.15352151 -0.2288395
0.0027910003 0.15351534 -0.22883318
0.0029237499 0.15350676 -0.2287945
0.003021 0.153502 -0.22880301
0.0032860001 0.15345401 -0.228769
0.00087400002 0.153721 -0.228892
0.00095549994 0.15371799 -0.2288935
0.001149 0.15371101 -0.22887599
0.0012802499 0.1536665 -0.22887899
0.001406 0.15370101 -0.22886699
0.00155075 0.1536535 -0.228862
0.0017415714 0.15365998 -0.22885898
0.0018760001 0.15368871 -0.22880657
0.0020412502 0.15369675 -0.228801
0.0022554998 0.1536845 -0.228783
0.0025170001 0.153635 -0.22876801
0.002693 0.15362699 -0.228781
0.002781 0.15364149 -0.22877875
0.0029559999 0.153613 -0.22876
0.003023 0.15360899 -0.228761
0.0005195 0.1538925 -0.2288895
0.00069000002 0.1538465 -0.2288865
0.0008276666 0.153836 -0.22887667
0.00095799996 0.15382749 -0.22885899
0.00110975 0.153824 -0.22885825
0.0012832499 0.15381101 -0.22883375
0.0014075 0.1538085 -0.22881949
0.00155325 0.15379599 -0.22879675
0.0017380001 0.15382443 -0.22879028
0.0018375 0.153854 -0.22876701
0.0020435001 0.15380451 -0.228761
0.000118 0.153983 -0.228894
0.000218 0.15397801 -0.22888599
0.000352 0.154047 -0.22887099
0.00052199996 0.15400049 -0.22885701
0.00069400005 0.15399301 -0.2288565
0.00083166664 0.153981 -0.22884183
0.00096150005 0.15397125 -0.22881299
0.0011135 0.1539685 -0.228818
0.001287 0.153955 -0.228788
0.001411 0.15395251 -0.22877499
0.0015416667 0.15393032 -0.22876634
0.001755 0.1539695 -0.22876775
0.001841 0.153965 -0.22876
-0.00060000003 0.15417001 -0.228899
-0.00039 0.154158 -0.2288855
-0.00022649999 0.1541135 -0.22888733
-2.75e-05 0.15410051 -0.22889599
0.000121 0.154091 -0.22885999
0.000222 0.15412433 -0.22885567
0.00035475002 0.15415549 -0.22883749
0.00052574999 0.15414551 -0.22882251
0.00069850002 0.15413775 -0.2288285
0.00083616673 0.15412633 -0.22881602
0.00096575008 0.154117 -0.2287825
0.0011175 0.15411375 -0.22878525
0.0012766666 0.15408899 -0.22875933
-0.001066 0.154339 -0.228899
-0.00076800003 0.154324 -0.22888599
-0.00067899999 0.154282 -0.2288875
-0.00055500004 0.15427776 -0.22888675
-0.0003865 0.15426776 -0.22886327
-0.00022233336 0.15425918 -0.22886467
-2.4000001e-05 0.15424451 -0.228855
0.00012633333 0.154274 -0.22882999
0.00022700001 0.15430599 -0.22881749
0.00036000001 0.15430149 -0.22882524
0.00053024996 0.1542915 -0.22879826
0.00070224999 0.15428275 -0.228791
0.00082980003 0.1542654 -0.22878221
0.00097025 0.15426251 -0.228764
0.0011073333 0.154247 -0.22876133
-0.0011079999 0.15446366 -0.22887568
-0.00097649998 0.15444374 -0.2288835
-0.00081350002 0.15443525 -0.22886226
-0.00067500002 0.15442801 -0.228856
-0.00055075 0.15442374 -0.2288565
-0.00038225 0.15441351 -0.22884201
-0.00021766667 0.154405 -0.22884166
-1.8999999e-05 0.15442599 -0.228809
0.00013199999 0.1544565 -0.22880501
0.00023100001 0.15445 -0.228787
0.00036400004 0.15444675 -0.2287945
0.00053475 0.15443701 -0.228779
0.00070675003 0.15442875 -0.2287655
0.0008113333 0.15440799 -0.22876233
-0.0015059999 0.15458301 -0.22888599
-0.001419 0.154579 -0.228889
-0.001331 0.15457468 -0.22886801
-0.001127 0.154599 -0.22885126
-0.00097274996 0.15458825 -0.22884899
-0.00080899999 0.1545805 -0.22883049
-0.00067099999 0.1545735 -0.22882751
-0.00054649997 0.15456849 -0.22882199
-0.00037824997 0.1545575 -0.22880624
-0.00021366666 0.15454967 -0.22880501
-1.3999999e-05 0.1546075 -0.2287735
0.00013499999 0.15456399 -0.228778
0.00023400001 0.154559 -0.22876599
0.0003665 0.1545545 -0.22876149
0.00058200001 0.15454499 -0.22875801
0.00074799999 0.15453701 -0.228753
-0.002014 0.15475132 -0.22889102
-0.0016775 0.1547025 -0.22886699
-0.001504 0.15469149 -0.228838
-0.0014149999 0.15472434 -0.22885101
-0.001326 0.15475649 -0.22882301
-0.00112275 0.15474449 -0.22881751
-0.00096899993 0.15473275 -0.22880699
-0.00080549996 0.15472449 -0.22878774
-0.00066750002 0.1547175 -0.22877601
-0.00054325 0.1547125 -0.22877651
-0.00037374999 0.15470375 -0.22877949
-0.00020119999 0.15468641 -0.22876962
-1.1e-05 0.154716 -0.228752
-0.0023059999 0.154921 -0.22889501
-0.0021552499 0.15489176 -0.22888675
-0.0020227998 0.15485421 -0.22887501
-0.001948 0.15489399 -0.228875
-0.0016739999 0.154846 -0.22882999
-0.0014616001 0.15488799 -0.22883138
-0.0013205 0.154902 -0.228818
-0.0011865 0.154898 -0.2288045
-0.00095500005 0.15486467 -0.22877268
-0.00080074999 0.15487051 -0.2287685
-0.0005805 0.154861 -0.22875899
-0.00041400001 0.154815 -0.22875901
-0.0023025 0.155031 -0.22888449
-0.0021645001 0.15501951 -0.22886866
-0.0020364998 0.15500875 -0.22885075
-0.0019445 0.15500399 -0.2288665
-0.0016685 0.154994 -0.22882199
-0.00144675 0.155056 -0.22882
-0.001315 0.15504999 -0.228816
-0.001181 0.1550445 -0.228789
-0.00097699999 0.15503201 -0.2287612
-0.00084450003 0.155021 -0.22875601
-0.000749 0.154976 -0.228754
-0.00057600002 0.154971 -0.228752
-0.002602 0.15522601 -0.22889
-0.002298 0.15517575 -0.22885874
-0.0021591666 0.155167 -0.22886185
-0.0020320001 0.15515399 -0.2288285
-0.00194 0.15515099 -0.228845
-0.001663 0.155141 -0.228816
-0.0014417501 0.155203 -0.22880974
-0.00131 0.15519699 -0.22880051
-0.0011765 0.15519001 -0.228765
-0.00098283333 0.1551735 -0.22876649
-0.0031020001 0.155396 -0.22889
-0.0028520001 0.155387 -0.228899
-0.002599 0.15533499 -0.22886699
-0.0022932501 0.15532249 -0.2288435
-0.0021649997 0.15530699 -0.22885442
-0.0020413999 0.15531 -0.22881898
-0.0019350001 0.155296 -0.2288315
-0.0016566667 0.15532467 -0.22880499
-0.0014375 0.155349 -0.2287865
-0.001305 0.155342 -0.22878399
-0.0011704999 0.155339 -0.228779
-0.00091549999 0.15531951 -0.22876999
-0.0030980001 0.155507 -0.22888401
-0.0029879999 0.15549949 -0.22887799
-0.002849 0.155496 -0.22887701
-0.002594 0.15548149 -0.228853
-0.0023013332 0.15545733 -0.22883065
-0.0021903999 0.15546961 -0.22883959
-0.0020466668 0.15545 -0.22880334
-0.0019305 0.155442 -0.228807
-0.001652 0.15547 -0.22879601
-0.00165 0.155544 -0.228778
-0.0014183334 0.15548201 -0.22877133
-0.0013005 0.155489 -0.22876251
-0.0011655 0.1554845 -0.22876501
-0.0031920001 0.15564866 -0.22888701
-0.0031145001 0.15565425 -0.22887076
-0.0029834998 0.155646 -0.22885001
-0.0028444999 0.155641 -0.228854
-0.0025895 0.155628 -0.228829
-0.0023205001 0.155619 -0.22881901
-0.002196 0.155609 -0.22881599
-0.0020416665 0.15559649 -0.22879016
-0.0019243333 0.15562533 -0.22879066
-0.001646 0.155652 -0.228763
-0.001385 0.15560099 -0.22875801
-0.0032001999 0.15578701 -0.2288678
-0.0031087501 0.155801 -0.2288685
-0.0029780001 0.15579399 -0.22884899
-0.0028395001 0.155789 -0.228847
-0.0025835 0.15577599 -0.228839
-0.0023145 0.15576699 -0.228818
-0.0021908332 0.1557555 -0.22880733
-0.0020284285 0.15575841 -0.22878328
-0.0019179999 0.155808 -0.228769
-0.0016405 0.1558 -0.22875699
-0.0033869999 0.15586101 -0.228899
-0.0031959999 0.155946 -0.22888868
-0.0030804998 0.15594999 -0.22888601
-0.0029724999 0.15594099 -0.228852
-0.0028324998 0.15593851 -0.2288745
-0.0025785002 0.15592399 -0.22883251
-0.0023095 0.155913 -0.228811
-0.0021861668 0.15590233 -0.22879384
-0.0020298334 0.15591566 -0.22878085
-0.0019125 0.155954 -0.22876251
-0.002965 0.1560905 -0.228879
-0.0028265002 0.1560865 -0.228875
-0.002571 0.1560725 -0.228856
-0.0023025 0.15606301 -0.22882599
-0.0021795002 0.1560505 -0.22881199
-0.0020238573 0.15607572 -0.22878285
-0.0019055 0.156105 -0.228791
-0.0016284999 0.15609649 -0.22877
-0.001452 0.156124 -0.228752
-0.00296 0.156204 -0.2289
-0.0028205002 0.1562345 -0.228881
-0.002565 0.1562205 -0.22886699
-0.002297 0.15621001 -0.22882551
-0.0021724999 0.15620132 -0.22883485
-0.0020158335 0.15623783 -0.22880931
-0.001899 0.1562545 -0.22881299
-0.0016225 0.15624499 -0.228782
-0.0014042499 0.15623251 -0.22876173
-0.0025585 0.156371 -0.22888151
-0.0022904999 0.156359 -0.22884201
-0.0021658333 0.15635033 -0.22885251
-0.0020093333 0.15638702 -0.228827
-0.0018915 0.156405 -0.228845
-0.0016155 0.156394 -0.228802
-0.0013977501 0.1563805 -0.2287735
-0.001265 0.15641101 -0.228756
-0.00113 0.156407 -0.228761
-0.0025530001 0.156482 -0.228898
-0.0022829999 0.15651 -0.22887701
-0.0021586667 0.15650018 -0.22887735
-0.002014 0.15652399 -0.22883502
-0.0019056667 0.15656699 -0.228857
-0.0016085 0.15654451 -0.22882849
-0.001434 0.156534 -0.228809
-0.0013039999 0.156525 -0.2287775
-0.0011245001 0.1565195 -0.228778
-0.00093500002 0.156537 -0.228754
-0.00082750001 0.15653449 -0.2287575
-0.00068900001 0.156526 -0.228752
-0.000596 0.156598 -0.228751
-0.0021540001 0.15661134 -0.22888601
-0.002023 0.1566745 -0.228852
-0.0019107499 0.15670374 -0.228863
-0.001602 0.15669399 -0.22883901
-0.0014265 0.156684 -0.228836
-0.001297 0.15667599 -0.22881426
-0.0011175 0.15667 -0.22880599
-0.00092949998 0.15664899 -0.228774
-0.00082200003 0.156648 -0.2287785
-0.00068200001 0.15667599 -0.22877268
-0.00054949999 0.15670824 -0.22877225
-0.00042549998 0.156701 -0.228754
-0.002016 0.15682524 -0.22887924
-0.0019045001 0.15685301 -0.22887349
-0.001595 0.1568435 -0.228863
-0.001419 0.156836 -0.228874
-0.0012895 0.1568265 -0.2288435
-0.0011094999 0.156821 -0.2288505
-0.0009485 0.15680175 -0.228809
-0.00081449997 0.15679851 -0.22881401
-0.00067500002 0.156827 -0.228807
-0.00054225 0.156859 -0.2288045
-0.00038999997 0.15686132 -0.228783
-0.00022200002 0.15685232 -0.22876133
-0.00012700001 0.156872 -0.22876
-0.0012686667 0.15696333 -0.22886567
-0.001103 0.156936 -0.228898
-0.00094100001 0.15695301 -0.22884476
-0.00080699997 0.15694976 -0.22884999
-0.00066899997 0.15693951 -0.228834
-0.00052133336 0.15699767 -0.22883867
-0.00036850001 0.15700024 -0.22882301
-0.0002025 0.15699024 -0.228792
-9.8249999e-05 0.156984 -0.22879
7.8999998e-05 0.15700699 -0.22876599
0.000228 0.15699799 -0.228754
-0.000925 0.15709133 -0.22888066
-0.00080050004 0.157065 -0.22889149
-0.00066100003 0.15709251 -0.228881
-0.00054366671 0.15709867 -0.22886634
-0.00036100001 0.15715125 -0.22886474
-0.00019424999 0.157142 -0.22884175
-9.0750007e-05 0.15713525 -0.228825
8.5e-05 0.157121 -0.22880799
0.000235 0.15711349 -0.22879849
0.0003785 0.15710725 -0.22877449
0.00055200001 0.15713599 -0.2287665
0.00077500002 0.157198 -0.228751
-0.000566 0.15720101 -0.2289
-0.000313 0.157263 -0.228898
-0.000226 0.157259 -0.228883
-9.3499999e-05 0.15727076 -0.22888276
9.3000002e-05 0.15727299 -0.228857
0.000243 0.15726751 -0.228857
0.00038699998 0.15725949 -0.22882649
0.0005433333 0.15723799 -0.22880566
0.00065899995 0.15725601 -0.22878833
0.00083100004 0.15729733 -0.22878234
0.00094680005 0.157307 -0.22876959
9.8999997e-05 0.157388 -0.228889
0.000249 0.157381 -0.228881
0.0004103333 0.1574 -0.22888267
0.00052400003 0.157405 -0.228864
0.00065274996 0.15739775 -0.22884551
0.0008113333 0.1574 -0.22881834
0.00096466672 0.15745133 -0.22881818
0.00109375 0.15743975 -0.22877449
0.001232 0.15745001 -0.22878367
0.001378 0.157461 -0.22875801
0.00067466666 0.15753633 -0.22888701
0.00083175005 0.1575405 -0.2288675
0.00098524999 0.15758501 -0.2288795
0.0011035 0.15759526 -0.22885299
0.0012542501 0.15759026 -0.22883551
0.001427 0.15757549 -0.22879425
0.0015509999 0.157573 -0.22877699
0.001698 0.15759701 -0.228753
0.00079999998 0.157657 -0.22889701
0.001143 0.15771 -0.22889701
0.001302 0.157701 -0.22886699
0.001437 0.1577305 -0.228872
0.00156 0.1577265 -0.228839
0.00170425 0.15771049 -0.2287825
0.0018988 0.1577094 -0.22878461
0.0020382002 0.157727 -0.2287744
0.00219725 0.15775901 -0.228782
0.002414 0.157786 -0.228773
0.001713 0.15782949 -0.228865
0.0018972501 0.15784025 -0.22886199
0.0020216668 0.15786 -0.22884886
0.002205 0.15787649 -0.22885001
0.0024204999 0.1579005 -0.228824
0.0026839999 0.157923 -0.228781
0.002051 0.15796 -0.22888801
0.002136 0.1579555 -0.2288855
0.0022509999 0.15795299 -0.228873
0.0024280001 0.15801799 -0.228893
0.0026914999 0.15803951 -0.22884101
0.0029153333 0.15802634 -0.22882235
0.0030562498 0.15803501 -0.22879525
0.0031969999 0.158048 -0.22879501
0.00373 0.158098 -0.22876801
0.0030779997 0.15815225 -0.22886226
0.0032019999 0.15812699 -0.228845
0.0034699999 0.15815251 -0.228827
0.0036776669 0.15815367 -0.22880931
0.003823 0.158172 -0.228815
0.0039654286 0.15819429 -0.22881815
0.0041240002 0.15820134 -0.22880299
0.0043100002 0.158216 -0.228793
0.0044010002 0.15821201 -0.228779
0.0045444998 0.15820751 -0.228772
0.0037420001 0.158259 -0.22888599
0.0038290001 0.158252 -0.22886901
0.004005 0.158316 -0.228894
0.0041129999 0.158308 -0.22888049
0.0043159998 0.158298 -0.22886699
0.0044069998 0.158292 -0.228847
0.0045504998 0.158288 -0.2288335
0.0047217505 0.1583135 -0.22884251
0.0048726001 0.15829401 -0.22880021
0.0050032502 0.158315 -0.22879975
0.0051759998 0.15831999 -0.228793
0.0054299999 0.1583495 -0.228791
0.0056230002 0.15838 -0.228808
0.0057560001 0.15837 -0.228782
0.0059343334 0.15835999 -0.22876334
0.00489 0.15842099 -0.22888
0.00501 0.15841466 -0.22886366
0.0051819999 0.158402 -0.22885901
0.0054390002 0.158472 -0.228894
0.0057629999 0.15845251 -0.228855
0.0059115002 0.158445 -0.2288405
0.0060582496 0.15845126 -0.22881275
0.0062075001 0.158444 -0.22881
0.0063485 0.1585 -0.22882649
0.0065254997 0.1584935 -0.228816
0.006699 0.1584775 -0.22878751
0.0068379999 0.15847 -0.228773
0.0069559999 0.158545 -0.228824
0.0066559999 0.158566 -0.228894
0.0068009999 0.15855449 -0.22885999
0.007766 0.158572 -0.228756
0.0078705 0.158657 -0.22888049
0.008001999 0.15861766 -0.22882299
0.0081949998 0.158631 -0.228824
0.0083085001 0.1586225 -0.22876
0.0084530003 0.15869799 -0.228854
0.0083600003 0.158712 -0.22888701
0.0095769996 0.158788 -0.228799
0.0097460002 0.158778 -0.22877
0.0099844998 0.15884751 -0.2288595
0.0101405 0.1588375 -0.22883201
0.0099090002 0.15885501 -0.22889
0.011503 0.143618 -0.22873899
0.011558499 0.143613 -0.22874901
0.011887 0.143638 -0.228747
0.012248 0.143693 -0.228735
0.012556501 0.14367649 -0.228734
0.0112225 0.14378449 -0.22874501
0.011338 0.14379133 -0.228736
0.0114688 0.14377621 -0.228724
0.0116285 0.14375733 -0.22872566
0.0118005 0.143751 -0.2287195
0.01193325 0.1437465 -0.22873425
0.0120595 0.143742 -0.228747
0.012202 0.14380801 -0.22872125
0.01240125 0.143794 -0.2287275
0.012533667 0.14378683 -0.22870749
0.011053 0.14394 -0.22874299
0.0112275 0.143932 -0.22872901
0.0113335 0.14392701 -0.22871575
0.011463333 0.14391699 -0.22869867
0.0115975 0.14390574 -0.22868249
0.01175325 0.1438995 -0.2286835
0.01193775 0.14389375 -0.22870575
0.012064334 0.14392598 -0.22870399
0.012205999 0.1439545 -0.22868675
0.012403999 0.14394075 -0.2286675
0.012537499 0.14393383 -0.22867066
0.012755 0.143923 -0.228737
0.0105715 0.144108 -0.22874701
0.011057001 0.14408749 -0.228716
0.011232 0.14407951 -0.22870499
0.011337751 0.1440745 -0.22868399
0.011468 0.14406432 -0.22867532
0.0116015 0.14405325 -0.22865325
0.01175775 0.14404675 -0.2286555
0.0119498 0.14406201 -0.22864699
0.012066999 0.144109 -0.22860849
0.012434 0.14404599 -0.22860999
0.0125522 0.1440734 -0.22864561
0.01276 0.144071 -0.2287195
0.012971334 0.14407633 -0.22873668
0.010615334 0.144265 -0.22874801
0.011062 0.144234 -0.228698
0.0112365 0.144227 -0.22868049
0.011341999 0.1442215 -0.22865775
0.011471999 0.14421166 -0.22864683
0.011606 0.14420049 -0.22863051
0.011762 0.14419401 -0.22862349
0.011930999 0.14420067 -0.22860932
0.012071 0.14421999 -0.228607
0.012423 0.14424501 -0.22861134
0.012543 0.14419401 -0.22862799
0.0126015 0.144224 -0.22863999
0.012763 0.14421749 -0.228659
0.012988999 0.14421 -0.2286925
0.013131 0.144237 -0.22872999
0.013231 0.144233 -0.228734
0.010584167 0.14440201 -0.22873966
0.011067 0.144381 -0.228681
0.011241499 0.14437249 -0.22866601
0.01134675 0.14436799 -0.22863501
0.0114672 0.1443512 -0.22863121
0.011641501 0.14434549 -0.228615
0.0117165 0.14434201 -0.228614
0.012388 0.144348 -0.22860099
0.012604 0.144334 -0.22860201
0.012767 0.14436451 -0.2286215
0.01299325 0.14435725 -0.22865875
0.013133001 0.14434899 -0.22869399
0.013278751 0.14437675 -0.2286965
0.013434 0.1444425 -0.228728
0.0135585 0.144435 -0.228735
0.010589667 0.14455 -0.22873567
0.0110725 0.14452851 -0.22867051
0.011245999 0.14451951 -0.228635
0.01135225 0.14451474 -0.22863699
0.011458 0.14450699 -0.22862402
0.0116145 0.144457 -0.228605
0.01172 0.14445201 -0.22860201
0.012997249 0.1445045 -0.22862075
0.0131365 0.14449549 -0.2286455
0.0132728 0.1445388 -0.2286274
0.013435666 0.14455251 -0.22866367
0.0135895 0.14454366 -0.22868834
0.013723 0.144573 -0.228715
0.0138515 0.144567 -0.228728
0.01058175 0.14467975 -0.22874324
0.0110775 0.144676 -0.228668
0.011249 0.14463 -0.228618
0.0113366 0.1446708 -0.22862521
0.011454667 0.14464301 -0.22861099
0.013000499 0.1446135 -0.22861099
0.013139 0.144604 -0.228607
0.013447801 0.1446912 -0.22861159
0.01359175 0.14467201 -0.22863725
0.013699667 0.14469667 -0.228643
0.013852749 0.14467651 -0.22866499
0.014015335 0.144683 -0.228719
0.010566 0.14485835 -0.22874399
0.011084 0.14482349 -0.228677
0.0113275 0.14481117 -0.22862051
0.011443 0.144767 -0.228608
0.01369 0.14479551 -0.2286125
0.013898 0.144784 -0.228627
0.0140325 0.14481649 -0.2286475
0.014173999 0.144813 -0.22868699
0.014294001 0.14481767 -0.22871333
0.014450666 0.14483266 -0.22874367
0.01456 0.144899 -0.228737
0.010578999 0.14499301 -0.22873124
0.010661 0.14498851 -0.228724
0.0110885 0.14496949 -0.228652
0.011313999 0.14494176 -0.22860426
0.014176 0.144921 -0.22863699
0.014322333 0.14493799 -0.22865231
0.014460429 0.14495727 -0.22869286
0.0146072 0.1450164 -0.22870299
0.01057 0.1451498 -0.22873259
0.010665501 0.145136 -0.2287005
0.011092501 0.145117 -0.228614
0.014351 0.14506 -0.22860099
0.014447332 0.14511384 -0.22862482
0.014621665 0.14515465 -0.22864734
0.014855 0.145182 -0.228726
0.010565334 0.14528932 -0.22873467
0.0106715 0.145282 -0.22871199
0.011097 0.145228 -0.228624
0.0111 0.145302 -0.228624
0.0146825 0.14529851 -0.22861899
0.014857 0.14529249 -0.22868
0.010581399 0.14544339 -0.22872838
0.0106775 0.14543 -0.228719
0.0111045 0.145411 -0.22863901
0.014859 0.145402 -0.228635
0.0151425 0.14542949 -0.22873101
0.010576166 0.14558484 -0.2287185
0.0106825 0.145578 -0.228698
0.01111 0.145559 -0.2286265
0.0151455 0.14557549 -0.22867
0.0105918 0.1457238 -0.2287254
0.0106885 0.145725 -0.228707
0.011115 0.145707 -0.228613
0.015147 0.145685 -0.228623
0.01515 0.145759 -0.228609
0.015411 0.145749 -0.228746
0.01061275 0.1458765 -0.22872101
0.0106945 0.145872 -0.22870651
0.0111205 0.14585251 -0.22861001
0.015154 0.14586949 -0.228607
0.015414 0.145859 -0.228716
0.010617999 0.14602426 -0.228717
0.0107005 0.14602 -0.22872201
0.011125 0.145963 -0.228604
0.015419 0.14600649 -0.22869599
0.015548 0.146033 -0.2287385
0.010615666 0.14615966 -0.22872533
0.010687667 0.14617966 -0.22871332
0.011133 0.146183 -0.22861201
0.015422 0.14615151 -0.22864401
0.0155572 0.14616461 -0.22870998
0.015637999 0.146248 -0.228734
0.010683 0.1462805 -0.22872999
0.011139 0.146295 -0.2286405
0.015555 0.1463245 -0.22864775
0.015668001 0.14635651 -0.228688
0.015763 0.14638899 -0.228732
0.0111455 0.14644299 -0.22865799
0.011323 0.14654499 -0.22860301
0.01553 0.1464 -0.22861201
0.015699498 0.14650151 -0.2286365
0.015804501 0.14649749 -0.22869176
0.011151999 0.1465915 -0.22867
0.011328001 0.1466555 -0.22862801
0.011408 0.146688 -0.22860201
0.015702 0.146612 -0.22860301
0.015819998 0.14663133 -0.22863233
0.011160334 0.14677633 -0.22869568
0.011334499 0.14680301 -0.22863999
0.011456 0.1468036 -0.22860798
0.015849 0.146753 -0.228605
0.0160335 0.1467855 -0.2286865
0.0111675 0.14696001 -0.228697
0.011341 0.146951 -0.22865799
0.011473167 0.14694333 -0.22862034
0.016035 0.14689501 -0.228616
0.0162255 0.14692649 -0.228726
0.0111745 0.147108 -0.2287145
0.0113465 0.147099 -0.22865951
0.011478667 0.14709133 -0.22861832
0.01627125 0.14706999 -0.22867875
0.0111805 0.147256 -0.228725
0.0113525 0.147246 -0.22866201
0.011456749 0.147239 -0.22861899
0.016316 0.147177 -0.228643
0.016433667 0.14722399 -0.22870731
0.011185501 0.147403 -0.228719
0.011357499 0.147393 -0.22864899
0.0114796 0.14739361 -0.22862501
0.016458001 0.14734234 -0.22865067
0.016556501 0.14734876 -0.228701
0.01675 0.147447 -0.22875001
0.011192 0.14755 -0.22872901
0.0113645 0.147541 -0.22866699
0.011469 0.1475355 -0.22863351
0.011567 0.14754035 -0.22861965
0.016483 0.14746299 -0.228608
0.0165585 0.147494 -0.22862625
0.01675 0.147554 -0.22867149
0.0111975 0.147698 -0.228719
0.011370501 0.147689 -0.228669
0.01147575 0.14768299 -0.22864701
0.01158075 0.14767501 -0.22862649
0.016754 0.1477 -0.228633
0.011203 0.147846 -0.2287215
0.011376 0.147837 -0.2286755
0.011481499 0.14783001 -0.22865325
0.011587 0.14782201 -0.22863623
0.011208 0.147958 -0.228745
0.011382001 0.147983 -0.228679
0.01148725 0.14797774 -0.22865801
0.01159275 0.14796999 -0.22863999
0.011388499 0.148131 -0.228696
0.0114935 0.14812626 -0.22867027
0.011599001 0.148118 -0.22864801
0.017112501 0.1481365 -0.228724
0.011394501 0.148279 -0.228701
0.0115 0.1482745 -0.22868225
0.0116196 0.14827159 -0.22865041
0.011793 0.148285 -0.228605
0.017147666 0.14829433 -0.22869898
0.011399 0.14839 -0.22870401
0.011485799 0.14843099 -0.22870441
0.011635668 0.14841099 -0.22866434
0.011768251 0.14839876 -0.22862576
0.011874 0.14843 -0.228605
0.017166 0.1484275 -0.22865975
0.01732 0.148461 -0.22873101
0.011477999 0.14857249 -0.22872601
0.011641999 0.14855967 -0.22868098
0.011775499 0.14854725 -0.22865351
0.011879999 0.148542 -0.228633
0.017216001 0.1485725 -0.22863799
0.017323 0.14857051 -0.228697
0.01151875 0.14871725 -0.22871649
0.011648334 0.14870699 -0.22869533
0.01178175 0.1486955 -0.22866799
0.011921001 0.14872567 -0.22864567
0.017324001 0.148678 -0.228642
0.011498 0.14883199 -0.22874901
0.011604334 0.14885916 -0.228719
0.011759333 0.14884567 -0.22867434
0.011934599 0.14888799 -0.22864962
0.0120845 0.148904 -0.2286095
0.0116615 0.149005 -0.2287325
0.011765166 0.14899367 -0.22867566
0.011933667 0.14904501 -0.22864699
0.012061 0.149065 -0.22861433
0.0116164 0.1491632 -0.22873881
0.011780143 0.14915629 -0.22868128
0.0119065 0.149207 -0.22866
0.012005 0.149165 -0.228614
0.011517 0.14934701 -0.228735
0.011621334 0.14930318 -0.22872101
0.011777 0.14932415 -0.22866
0.011911999 0.149354 -0.22865251
0.011494999 0.149471 -0.22872899
0.011625334 0.1494485 -0.22868033
0.011762167 0.14948383 -0.22862333
0.011915 0.149464 -0.228622
0.011486501 0.149606 -0.22871625
0.011630166 0.14959584 -0.22866865
0.011788 0.14965433 -0.22861801
0.018025 0.149676 -0.22863901
0.01128 0.149803 -0.22875001
0.01149075 0.149753 -0.22868849
0.011642857 0.14975742 -0.22864914
0.011737 0.1498065 -0.228622
0.01185 0.14976101 -0.22860301
0.0180785 0.14978799 -0.228669
0.011283999 0.149912 -0.228742
0.011496 0.14989975 -0.22868176
0.011641834 0.14991383 -0.22865331
0.011743 0.14999101 -0.228604
0.0181325 0.1499325 -0.228654
0.011289001 0.150059 -0.228726
0.0115015 0.15004724 -0.22867325
0.011647999 0.15007401 -0.22864072
0.018235501 0.15007749 -0.228668
0.011295 0.150207 -0.22873199
0.0115065 0.150194 -0.22866201
0.0116226 0.15023699 -0.2286292
0.011703501 0.15025249 -0.22861001
0.018328499 0.15022349 -0.228718
0.0113005 0.150355 -0.2287375
0.011498 0.15033033 -0.22865599
0.0116184 0.1504014 -0.22863701
0.0117095 0.15040049 -0.22861651
0.018376 0.150369 -0.22868499
0.011306 0.150502 -0.228724
0.011477999 0.15049151 -0.22866
0.011605286 0.15054129 -0.22863771
0.011714 0.15051199 -0.228623
0.018423501 0.1505125 -0.22862199
0.011309 0.150648 -0.228679
0.011483 0.150673 -0.22862232
0.011581334 0.15069367 -0.22861834
0.018513 0.150626 -0.22866499
0.011314 0.15079349 -0.228662
0.018666999 0.15084 -0.228742
0.010874334 0.15097533 -0.22874534
0.01132 0.150977 -0.228634
0.018666498 0.15094501 -0.228654
0.018756501 0.151013 -0.22868401
0.010559 0.151169 -0.228744
0.010773 0.15112901 -0.22871667
0.010869 0.15110976 -0.22871549
0.018820332 0.15112033 -0.22864199
0.010565 0.151317 -0.22874901
0.010769751 0.1512645 -0.228705
0.010872249 0.151255 -0.22866975
0.010270501 0.1514775 -0.22874551
0.010567 0.151425 -0.22871101
0.01077375 0.15141 -0.22867276
0.010876 0.15140074 -0.22863099
0.010045 0.151638 -0.22873899
0.010141 0.15159 -0.22872001
0.010271749 0.151585 -0.228686
0.0105695 0.1515685 -0.22864801
0.010753 0.15155849 -0.22863701
0.010817667 0.15153766 -0.22860901
0.0097359996 0.151794 -0.228745
0.0098463995 0.15176101 -0.2287188
0.010017334 0.15175901 -0.22869234
0.0101445 0.1517345 -0.22867599
0.010276 0.15173075 -0.22865325
0.010572 0.151678 -0.22860999
0.010755 0.151667 -0.228604
0.0092120003 0.151898 -0.228743
0.0093970001 0.15188999 -0.22875001
0.0095170001 0.15188399 -0.22870901
0.0096735712 0.15189144 -0.22868742
0.0098386668 0.15189783 -0.22865315
0.0099903336 0.15188199 -0.22865666
0.010098 0.1518845 -0.228625
0.010278501 0.151839 -0.2286185
0.0087930001 0.15206601 -0.22872999
0.0089654997 0.1520205 -0.22873351
0.0092139998 0.15200549 -0.22869599
0.009354 0.1519995 -0.22868975
0.0095274001 0.1520122 -0.22865359
0.0096845003 0.15205051 -0.22862549
0.0098406663 0.152007 -0.22860968
0.0099630002 0.152004 -0.22861201
0.0081979996 0.152246 -0.22874101
0.0083539998 0.15221201 -0.22872967
0.0086365007 0.152187 -0.22872201
0.0087950006 0.1521745 -0.22868949
0.0089689996 0.152164 -0.22868299
0.0092169996 0.15214899 -0.2286455
0.0093565006 0.15214249 -0.22862899
0.009482 0.15213749 -0.228617
0.0078269998 0.152339 -0.228746
0.0080220001 0.152328 -0.228746
0.0081429994 0.1523376 -0.22870961
0.0083422493 0.15234599 -0.22869776
0.0086400006 0.15233201 -0.2286755
0.0087989997 0.15232 -0.228654
0.0089720003 0.15231 -0.2286465
0.0092200004 0.15225799 -0.22861201
0.0075743333 0.15247466 -0.22873332
0.0076756664 0.15247034 -0.22873567
0.0078295004 0.15244851 -0.228709
0.0079885004 0.15247433 -0.22870399
0.0081569999 0.15250427 -0.2286645
0.0083459998 0.15249151 -0.22865325
0.0086439997 0.15247849 -0.228641
0.0088030007 0.152465 -0.2286205
0.0089750001 0.152419 -0.228615
0.006879 0.15267999 -0.228733
0.0070799999 0.15267099 -0.228725
0.0073635001 0.152619 -0.228737
0.0075665005 0.15260825 -0.228698
0.0076905 0.15260075 -0.22868675
0.007832 0.152592 -0.22865599
0.00799275 0.15265474 -0.22864275
0.0081612496 0.15264951 -0.22863451
0.0083504999 0.152637 -0.2286355
0.0086460002 0.152586 -0.228605
0.005934 0.152799 -0.228746
0.0065265 0.1528075 -0.22871101
0.0066722501 0.1528015 -0.22870874
0.0068804999 0.152787 -0.228686
0.0070815003 0.15277749 -0.228677
0.0073664999 0.15276399 -0.2286825
0.0075699999 0.15275276 -0.22865574
0.0076937499 0.15274575 -0.22864026
0.0078339996 0.15270001 -0.228615
0.0083999997 0.15274499 -0.228605
0.0052189999 0.15298299 -0.228734
0.005469 0.15294467 -0.22872333
0.005638333 0.15293933 -0.228734
0.0057763332 0.15291767 -0.22872998
0.0059054997 0.1529085 -0.2287035
0.0060419999 0.15290476 -0.22872226
0.0062172501 0.15290099 -0.22871776
0.0063960003 0.15291139 -0.228701
0.0065299999 0.15295151 -0.228663
0.0066546667 0.152933 -0.22863133
0.006881 0.15289301 -0.228606
0.0070830001 0.15288401 -0.228616
0.0073694997 0.15290651 -0.228626
0.0075719999 0.15286151 -0.22861099
0.0048519997 0.15310949 -0.228725
0.0049710004 0.153101 -0.22873601
0.0052230004 0.1530925 -0.228724
0.0054575 0.15307799 -0.22869125
0.00563 0.153073 -0.22871076
0.0057806666 0.153063 -0.22869901
0.0059094997 0.15305449 -0.22867601
0.0060457503 0.15304925 -0.22868049
0.0062195002 0.15304326 -0.22864249
0.0063836002 0.15308639 -0.22863579
0.0065334998 0.1530965 -0.228622
0.0066209999 0.153055 -0.22861101
0.004309 0.153253 -0.228747
0.0044360003 0.153247 -0.22873899
0.0045945002 0.153234 -0.22873101
0.0047154999 0.153229 -0.228737
0.0048237997 0.1532366 -0.22870319
0.0049750004 0.15324649 -0.22869501
0.0052265003 0.15323749 -0.22867
0.0054614996 0.15322399 -0.22865275
0.0056325002 0.153217 -0.22865525
0.0057834997 0.15320717 -0.22864084
0.0059226663 0.15318567 -0.22862732
0.0060492498 0.1531945 -0.22863926
0.006267 0.15315001 -0.228627
0.0038429999 0.15339367 -0.22873367
0.003972 0.153413 -0.228727
0.0041200002 0.153404 -0.22872099
0.00426075 0.15336224 -0.22871026
0.0044384999 0.15335426 -0.22870499
0.0046035997 0.15336181 -0.22867461
0.0047188331 0.153373 -0.22868268
0.0048334999 0.15340251 -0.22865425
0.0049785003 0.15339151 -0.22864899
0.0052295001 0.153381 -0.228625
0.0054639997 0.1533315 -0.22862399
0.0057615 0.1533155 -0.22860551
0.0060129999 0.153304 -0.228604
0.0032865 0.15356049 -0.2287115
0.0035095001 0.153551 -0.22872201
0.0036795 0.15354025 -0.22871175
0.0038140004 0.15352982 -0.22869818
0.0039750002 0.15352151 -0.22870299
0.0041215001 0.15351149 -0.22866699
0.0042637498 0.15350601 -0.22865525
0.0044415002 0.1534975 -0.22864726
0.0045675002 0.15348649 -0.2286295
0.0047209999 0.1535165 -0.22861299
0.0048079998 0.153512 -0.22860201
0.0025180001 0.153706 -0.228726
0.002694 0.153697 -0.22873101
0.0028174999 0.1536925 -0.2287415
0.0029163333 0.15366167 -0.22872466
0.003024 0.15368 -0.22871201
0.0032889999 0.1537025 -0.228644
0.0035115001 0.15369299 -0.22864623
0.0036809999 0.15368199 -0.22863001
0.0038060001 0.1536662 -0.2286392
0.0039774999 0.15366501 -0.228636
0.004123 0.15361799 -0.228614
0.0042655002 0.15361249 -0.228609
0.004402 0.153611 -0.228614
0.0019105 0.15384325 -0.22872925
0.002045 0.15387651 -0.22873449
0.0022585001 0.1538285 -0.2287295
0.0025210001 0.15381449 -0.228698
0.002696 0.15380549 -0.228688
0.0027955 0.15380067 -0.22869635
0.0029348 0.1538132 -0.22864802
0.0030263334 0.15382366 -0.22864801
0.0032919999 0.15381201 -0.228608
0.0037710001 0.153786 -0.22860099
0.001606 0.1540105 -0.22873899
0.0017046668 0.15401934 -0.22873968
0.0019004 0.15399799 -0.2287074
0.0020482501 0.15398601 -0.2287145
0.002262 0.153972 -0.228682
0.0025239999 0.15395799 -0.228652
0.0026980001 0.153914 -0.22865599
0.0027847143 0.15395042 -0.22864914
0.002901 0.1539 -0.228617
0.00303 0.15396801 -0.228615
0.001335 0.154137 -0.228747
0.0014150001 0.154099 -0.2287425
0.0015532 0.1541374 -0.2287118
0.0017458334 0.1541505 -0.22870834
0.0018948334 0.15413783 -0.22868519
0.0020524999 0.15413049 -0.22868475
0.002266 0.15411749 -0.22865251
0.0025284998 0.15410349 -0.22862101
0.0027630001 0.154084 -0.22861461
0.00088900002 0.154301 -0.22874799
0.001165 0.154292 -0.228742
0.001295 0.154246 -0.2287215
0.0014195 0.15424401 -0.228715
0.0015674999 0.154304 -0.22868127
0.0017235 0.15429875 -0.22867799
0.0018642858 0.15428114 -0.22866513
0.0020351999 0.1542832 -0.22864822
0.0022700001 0.1542635 -0.228618
0.00087733334 0.15442567 -0.22874133
0.00097474997 0.15440825 -0.22873551
0.001125 0.15440275 -0.22871426
0.0012993334 0.15442583 -0.22866833
0.0014233333 0.15442367 -0.22865634
0.00157175 0.154449 -0.22865051
0.0017275 0.15444276 -0.228646
0.0018546666 0.15443318 -0.22864418
0.0019864999 0.154422 -0.22861925
0.0021009999 0.154385 -0.228622
0.000137 0.154635 -0.22875001
0.00023600001 0.154631 -0.228747
0.00036800001 0.15462551 -0.228734
0.00052433339 0.15459366 -0.22873199
0.0006976666 0.15458533 -0.22872567
0.00084833335 0.15456118 -0.22871816
0.00097825006 0.15455225 -0.22868976
0.0011285001 0.15454724 -0.22866851
0.00130475 0.15460725 -0.2286315
0.0014289999 0.154606 -0.228627
0.0015593333 0.15458167 -0.22861099
0.0017305 0.15455151 -0.22861651
0.0018266666 0.15456866 -0.22862132
-0.00025300001 0.154733 -0.22874799
-9.0000003e-06 0.154789 -0.22872999
0.00013900001 0.15474451 -0.228708
0.00023899999 0.15474001 -0.22871199
0.0003705 0.15473375 -0.22869751
0.00054124999 0.15472451 -0.2286745
0.00067500002 0.1547185 -0.22866601
0.0008255 0.15470588 -0.22865227
0.00098000001 0.154659 -0.2286375
0.0011322499 0.15469176 -0.22862875
-0.001053 0.154879 -0.228735
-0.00099800003 0.154911 -0.228744
-0.00066349999 0.15486151 -0.22874551
-0.0004975 0.154854 -0.228742
-0.000355 0.15485901 -0.22873801
-0.00020533332 0.15487498 -0.22871655
-6.0000002e-06 0.1548965 -0.2286965
0.00014399999 0.154891 -0.228699
0.00024299999 0.1548855 -0.22868651
0.000375 0.15487924 -0.228672
0.00052966666 0.15485734 -0.22863734
0.00067849999 0.15486249 -0.22863099
0.00080500002 0.15485416 -0.2286225
-0.0010479999 0.154989 -0.228744
-0.0006876667 0.15502201 -0.22873934
-0.00051966665 0.15501466 -0.228732
-0.00036524999 0.15499401 -0.22872099
-0.00019950001 0.15505783 -0.22869165
-2e-06 0.15504199 -0.228669
0.00014800001 0.155 -0.22868501
0.000214 0.155044 -0.22864901
0.00037974998 0.15502575 -0.228651
0.00053566665 0.15502767 -0.22862267
0.00068399997 0.155009 -0.228614
0.00081050006 0.15500067 -0.22862117
-0.00083949999 0.15516749 -0.228742
-0.00069775002 0.15515751 -0.22873175
-0.00052875001 0.1551505 -0.2287235
-0.00035120003 0.15516141 -0.22869758
-0.000203 0.15519801 -0.22869059
-0.00014800001 0.15523601 -0.228678
3.0000001e-06 0.15518749 -0.228653
0.0002025 0.1551785 -0.22864676
0.00038450002 0.15517201 -0.22863275
0.00053999998 0.15515034 -0.22861433
0.0008254 0.15513881 -0.22860917
-0.0010095 0.15531901 -0.22873625
-0.00083450001 0.155314 -0.228726
-0.00069249998 0.15530349 -0.22872201
-0.00052374997 0.15529674 -0.22871
-0.00036280003 0.15533781 -0.22868422
-0.00021124999 0.15535274 -0.2286755
-0.000145 0.15534601 -0.22866699
8e-06 0.155334 -0.228644
0.00020775 0.15532526 -0.228632
0.00038925 0.15531701 -0.22861251
0.00051699998 0.155311 -0.22861299
-0.0014759999 0.155532 -0.228745
-0.00097283331 0.15546548 -0.22873668
-0.00082900003 0.15546 -0.228724
-0.00068775 0.15545025 -0.22870925
-0.00050999998 0.1554638 -0.228682
-0.00034825 0.15550599 -0.22866476
-0.00020549999 0.15549976 -0.22867125
-0.0001395 0.155494 -0.22866049
1.2500001e-05 0.15547949 -0.22861499
0.00021324999 0.15547299 -0.22863275
0.00038000001 0.15545334 -0.22860332
-0.0014426667 0.15565167 -0.22872333
-0.001296 0.155633 -0.228737
-0.001161 0.15562999 -0.22874101
-0.00096833333 0.15561117 -0.22871383
-0.000825 0.155606 -0.228697
-0.00068325002 0.15559575 -0.2286835
-0.00051350001 0.15562424 -0.22865601
-0.00035900003 0.15563934 -0.22863567
-0.00022120001 0.1556524 -0.22863102
-0.00013599999 0.15563799 -0.22861701
1.7499999e-05 0.155627 -0.228605
0.00021649999 0.1555815 -0.22861251
0.00035700001 0.155577 -0.228605
-0.001423 0.1557855 -0.22872825
-0.0012910001 0.15578 -0.2287235
-0.0011565 0.155775 -0.22871399
-0.00096383336 0.15575732 -0.22869217
-0.00081950001 0.155753 -0.22868651
-0.00066900003 0.15576321 -0.2286566
-0.00051640003 0.1557862 -0.2286416
-0.0003825 0.155799 -0.2286275
-0.0002295 0.15579267 -0.22862349
-0.0001305 0.15578601 -0.228615
-0.0016355 0.155946 -0.228744
-0.001417 0.1559345 -0.228737
-0.0012855 0.15592751 -0.22872099
-0.0011505 0.1559235 -0.2287235
-0.00098875002 0.15590625 -0.22869051
-0.00085524993 0.155902 -0.22868651
-0.00067149999 0.155926 -0.22866249
-0.00050174998 0.1559535 -0.22863549
-0.00037600001 0.15594751 -0.22863699
-0.00022366666 0.15594001 -0.22862433
-0.0001245 0.15593299 -0.228617
-0.001397 0.15606999 -0.22874467
-0.001279 0.156076 -0.228737
-0.0011445 0.15607151 -0.22872999
-0.00098300003 0.15605301 -0.22868951
-0.00084950001 0.156049 -0.22868775
-0.00066475 0.15607549 -0.2286775
-0.00049474998 0.15610474 -0.22866499
-0.00036950002 0.15609699 -0.22865599
-0.00021700001 0.15608984 -0.22864766
-0.000118 0.15608099 -0.22862799
-0.001273 0.156225 -0.22874099
-0.0011384999 0.15621901 -0.228726
-0.00097625004 0.1562025 -0.22870851
-0.00084375002 0.156197 -0.228692
-0.00065875001 0.15622425 -0.22868951
-0.00052850001 0.156259 -0.228707
-0.0004045 0.15624849 -0.228682
-0.00021033334 0.15623899 -0.22866385
-0.0001105 0.156233 -0.22866601
4.2e-05 0.15625399 -0.22860999
0.00019200001 0.156248 -0.228613
-0.001268 0.15633699 -0.22875001
-0.001134 0.156331 -0.228743
-0.00096900004 0.15635276 -0.2287375
-0.00083624996 0.15634826 -0.22873101
-0.00065175002 0.1563735 -0.228709
-0.00052250002 0.156407 -0.22871199
-0.00039825001 0.156397 -0.22869051
-0.00021560001 0.15638021 -0.22867338
-0.000119 0.15639333 -0.22866566
4.7499998e-05 0.1563665 -0.228634
0.00019749999 0.156361 -0.228636
0.00038799999 0.156389 -0.228605
-0.00097233336 0.15648967 -0.22874467
-0.00083100004 0.15646 -0.22874349
-0.00069299998 0.156451 -0.228734
-0.00054400001 0.156545 -0.22873433
-0.00039099998 0.1565485 -0.228723
-0.00022400002 0.1565395 -0.2287035
-0.00012125 0.15652999 -0.228673
5.45e-05 0.156516 -0.22865301
0.000204 0.156509 -0.228643
0.0003475 0.15650199 -0.228615
0.000478 0.156533 -0.22861101
-0.00098350004 0.15665101 -0.22874799
-0.00034249999 0.15669399 -0.22874001
-0.00021725001 0.15668775 -0.22872375
-0.0001145 0.1566795 -0.22869599
6.0999999e-05 0.156665 -0.228672
0.0002105 0.15665749 -0.22865799
0.00035474999 0.15665151 -0.22864076
0.00052624999 0.1566425 -0.228626
0.00070249999 0.15667 -0.2286105
0.000818 0.15673767 -0.22860932
0.00092700002 0.15673099 -0.22860301
-0.00033800001 0.15680601 -0.228745
-0.000174 0.15679801 -0.228738
-9.9999997e-05 0.156818 -0.22873133
6.8000001e-05 0.15681601 -0.228706
0.0002185 0.15681 -0.228699
0.00036224999 0.15680176 -0.2286735
0.00053274998 0.15679249 -0.2286455
0.0006655 0.156858 -0.228623
0.00082383334 0.15685101 -0.22863816
0.00094933336 0.15685333 -0.22862567
7.4000003e-05 0.156931 -0.228738
0.000223 0.156922 -0.228714
0.00036974999 0.1569535 -0.22871399
0.00054025004 0.1569435 -0.22868299
0.000673 0.156974 -0.22868501
0.00083266664 0.15700366 -0.22869252
0.00098866655 0.15698883 -0.2286545
0.0011405 0.156982 -0.22863325
0.0012620001 0.156975 -0.22860801
0.001396 0.157003 -0.22860849
0.00054799998 0.15705949 -0.22874549
0.00068 0.1570895 -0.228734
0.00084175001 0.15713674 -0.2287315
0.00098328572 0.15714744 -0.22870658
0.00114825 0.15713423 -0.22867551
0.00127 0.1571265 -0.228644
0.001402 0.15711725 -0.22863701
0.0015596667 0.15712465 -0.228624
0.0010265 0.157251 -0.22872201
0.001136 0.1572942 -0.22871999
0.001278 0.15727949 -0.22870049
0.0014099999 0.15726849 -0.22867548
0.001584 0.1572625 -0.22866049
0.001726 0.15724951 -0.22863001
0.0018623333 0.15728034 -0.22861701
0.001988 0.157308 -0.22860649
0.0021319999 0.157336 -0.22860999
0.001285 0.15739501 -0.22874901
0.0014320001 0.15740867 -0.22872932
0.0015924999 0.15741575 -0.22872525
0.0017349999 0.15740299 -0.22868851
0.0018698334 0.15739615 -0.22867201
0.0020208333 0.15743235 -0.22865267
0.0021790001 0.15744999 -0.22864799
0.0023940001 0.157472 -0.228605
0.001648 0.157524 -0.22875001
0.001742 0.157518 -0.228738
0.0018783334 0.15754999 -0.22873402
0.0020290001 0.15758599 -0.228707
0.0021879999 0.15760474 -0.22871125
0.0023970001 0.157548 -0.22861899
0.0024019999 0.157625 -0.22865701
0.002663 0.157574 -0.22861899
0.002838 0.157601 -0.22860201
0.0029383332 0.15759568 -0.22861099
0.001824 0.157663 -0.228737
0.0024079999 0.157704 -0.228719
0.0026715002 0.15772599 -0.22867501
0.0028444999 0.1577145 -0.22863701
0.0029443335 0.15771 -0.22864431
0.003088 0.157713 -0.22861767
0.003175 0.1576985 -0.22862899
0.0036685001 0.1577885 -0.228609
0.0026789999 0.15784501 -0.228743
0.0029043332 0.15786816 -0.22872001
0.0030584999 0.15785749 -0.228688
0.0031845002 0.1578525 -0.22869501
0.0034469999 0.1578 -0.22862899
0.003452 0.157877 -0.228661
0.0036754999 0.15790401 -0.2286635
0.0038439999 0.15789226 -0.22863525
0.0039690002 0.15789039 -0.2286298
0.0041399999 0.15790799 -0.22860999
0.003094 0.1579735 -0.22874451
0.0031910001 0.157969 -0.22874901
0.0034595001 0.15799451 -0.228728
0.0036825 0.158021 -0.22872099
0.003854 0.1580485 -0.2287145
0.0039886665 0.15803684 -0.22870266
0.0041479999 0.15802699 -0.22867501
0.0042944998 0.15801549 -0.228644
0.0044374997 0.1580115 -0.22864801
0.0045729997 0.1580085 -0.228636
0.0047014998 0.15803351 -0.22863799
0.0048659998 0.15802333 -0.22861235
0.0050130002 0.1580915 -0.22861901
0.0051580002 0.158078 -0.22861101
0.0043029999 0.158134 -0.228723
0.0044454997 0.1581295 -0.2287195
0.0045810002 0.15812699 -0.228714
0.0047092498 0.15815225 -0.22871301
0.0048741666 0.15814216 -0.22868998
0.0050289999 0.15819566 -0.22868334
0.0051659998 0.158198 -0.2286925
0.0054169996 0.1581865 -0.228654
0.0056539997 0.15821201 -0.22863999
0.0057859998 0.158204 -0.22862799
0.0059203333 0.15819633 -0.22860669
0.0056150001 0.158296 -0.228718
0.0057490002 0.158287 -0.228698
0.0059270002 0.15827601 -0.22867668
0.0060855001 0.1583045 -0.22866768
0.00624775 0.158298 -0.22866251
0.0063809999 0.158333 -0.22866
0.006511 0.15832651 -0.22864899
0.0066877501 0.15835226 -0.2286565
0.0068299999 0.158383 -0.228663
0.006943 0.158381 -0.22868399
0.0070930002 0.158365 -0.228616
0.006387 0.15841401 -0.228728
