# .PCD v0.7 - Point Cloud Data file format
VERSION 0.7
FIELDS x y z
SIZE 4 4 4
TYPE F F F
COUNT 1 1 1
WIDTH 1333
HEIGHT 1
VIEWPOINT 0 0 0 1 0 0 0
POINTS 1333
DATA ascii
-0.0080479998 0.087096006 -0.235406
-0.0078654997 0.087091997 -0.23539799
-0.0077094999 0.087083995 -0.235392
-0.0075513334 0.087073334 -0.23540783
-0.0074202502 0.087065496 -0.235416
-0.0069280001 0.087072998 -0.235484
-0.0067579998 0.087106496 -0.235468
-0.0066860002 0.087102994 -0.23547301
-0.0054359999 0.087146997 -0.23549999
-0.0051490003 0.087130502 -0.235495
-0.0048662499 0.087078251 -0.235461
-0.0047182501 0.087075248 -0.23545575
-0.0045751994 0.087072797 -0.2354798
-0.0043549999 0.087090001 -0.235485
-0.0039910004 0.087108001 -0.2354635
-0.0036728336 0.087097667 -0.23540032
-0.00352075 0.087087497 -0.2353785
-0.003266 0.087035999 -0.235351
-0.0119065 0.087236002 -0.23545501
-0.011779251 0.087233 -0.23539351
-0.01164075 0.087224498 -0.2353735
-0.0083895 0.087197006 -0.2353695
-0.0080430005 0.087248504 -0.23537999
-0.007859 0.087244004 -0.23539549
-0.0077034999 0.087235004 -0.235395
-0.0075710001 0.087228745 -0.2353905
-0.0074428334 0.087219156 -0.23538803
-0.0069239996 0.087188005 -0.23547101
-0.0067525003 0.087257996 -0.23546
-0.0066799996 0.087256998 -0.2354725
-0.0054330002 0.087223001 -0.23549201
-0.0051603336 0.087233663 -0.235484
-0.0050504999 0.0872785 -0.2354825
-0.0048607499 0.087230504 -0.235457
-0.00471375 0.087229252 -0.23542625
-0.0045711664 0.087219499 -0.23543899
-0.0043519996 0.087206498 -0.235459
-0.0039880001 0.087223999 -0.235438
-0.0036676668 0.087251671 -0.23538233
-0.0035610001 0.087245002 -0.235368
-0.0119445 0.087388247 -0.235476
-0.0117735 0.0873845 -0.2353885
-0.011627667 0.08736366 -0.23536067
-0.0080385003 0.087402999 -0.23535401
-0.007855 0.087398499 -0.235365
-0.0076985001 0.087388501 -0.235369
-0.0075652497 0.087381497 -0.23538475
-0.0074376664 0.087372161 -0.23537266
-0.0069185002 0.087342001 -0.23545501
-0.0067102499 0.08740975 -0.23547375
-0.0056699999 0.087387003 -0.23549899
-0.0054804999 0.087340251 -0.235479
-0.0051830001 0.087400004 -0.235498
-0.00504675 0.087393746 -0.235468
-0.0048559997 0.0873845 -0.23543049
-0.0047082501 0.08738175 -0.2354155
-0.0045666667 0.087372668 -0.23540901
-0.0043465002 0.087358996 -0.235448
-0.0039844997 0.087338001 -0.23541901
-0.0036297499 0.087402001 -0.2353625
-0.0035560001 0.087397002 -0.235356
-0.01193875 0.0875405 -0.23547325
-0.011768499 0.087536998 -0.23537624
-0.0080325007 0.087554 -0.23536
-0.0078494996 0.087549999 -0.235355
-0.0075592501 0.08753375 -0.23538549
-0.0074318331 0.087524332 -0.23536801
-0.0069134999 0.087493002 -0.23543799
-0.00667 0.087560996 -0.23547225
-0.0065117497 0.087568253 -0.235498
-0.0057840003 0.087547496 -0.2354975
-0.0056346669 0.087514341 -0.23548533
-0.0054747504 0.087491751 -0.2354735
-0.0051790001 0.087553501 -0.2354655
-0.0050415001 0.087547496 -0.23544499
-0.0048502502 0.087535992 -0.2354245
-0.0047017504 0.087533496 -0.235425
-0.0045601665 0.08752466 -0.23542134
-0.0043414999 0.087513 -0.2354285
-0.0039785001 0.087492004 -0.23541799
-0.0036515002 0.087557003 -0.235351
-0.0035965 0.087552994 -0.23536199
-0.011933 0.087693006 -0.23546325
-0.0118015 0.087692 -0.23538801
-0.0078424998 0.087701 -0.235369
-0.0075545004 0.087686002 -0.235366
-0.0073987502 0.087676004 -0.235365
-0.0069080004 0.087646998 -0.23543251
-0.0067143333 0.087652333 -0.23544067
-0.0065759998 0.087670505 -0.23549899
-0.0064110002 0.087730996 -0.235495
-0.0059079998 0.087706998 -0.23549899
-0.0057799998 0.087662749 -0.23548
-0.0056146667 0.087654501 -0.23546916
-0.0054697497 0.087644495 -0.2354605
-0.0051734997 0.087706998 -0.235441
-0.0050360002 0.087699503 -0.235439
-0.0048603336 0.087678336 -0.23540534
-0.0047176005 0.087694205 -0.23540202
-0.0045553329 0.087678164 -0.23539567
-0.004336 0.0876645 -0.23542801
-0.0039725001 0.087643504 -0.2354175
-0.0035900001 0.087705001 -0.23537201
-0.012055 0.087889001 -0.235497
-0.0119275 0.08784575 -0.23546001
-0.011798 0.087805003 -0.23537099
-0.0078369994 0.087853998 -0.235367
-0.0075487499 0.087839 -0.2353615
-0.0073819999 0.087840669 -0.23536533
-0.0069025001 0.087798998 -0.235424
-0.0066972501 0.087791495 -0.23542926
-0.0065163332 0.087842338 -0.23549533
-0.0063735 0.087843999 -0.235495
-0.0060740001 0.087866001 -0.23549201
-0.005905 0.087783001 -0.235497
-0.0057747499 0.087815002 -0.23547199
-0.0056093335 0.087806672 -0.23545964
-0.0054645003 0.087797754 -0.23544525
-0.0051680002 0.087860003 -0.23543799
-0.00503125 0.087853 -0.23541525
-0.0048834998 0.087848 -0.235383
-0.0047280001 0.087839842 -0.23536567
-0.0045757499 0.08783225 -0.2353985
-0.0044964999 0.087825999 -0.235397
-0.0043294998 0.087816499 -0.235432
-0.0039665001 0.087795004 -0.235415
-0.0037130001 0.087829001 -0.235351
-0.0035844999 0.087858006 -0.23536199
-0.0120505 0.088002995 -0.235493
-0.011922 0.087998003 -0.23545
-0.011789 0.088035002 -0.235365
-0.007675 0.087997004 -0.235368
-0.0075705 0.087995 -0.23537201
-0.0073544998 0.087980002 -0.235376
-0.0068965 0.087951005 -0.23542601
-0.0066907499 0.087943755 -0.23544575
-0.0065235994 0.087971002 -0.23548679
-0.0063797496 0.088016242 -0.235486
-0.0062469998 0.088026002 -0.23549899
-0.0061079999 0.087983005 -0.235488
-0.0059830002 0.088014998 -0.235489
-0.0057689999 0.087968752 -0.23546176
-0.0056028333 0.087958999 -0.23547067
-0.0054580001 0.087950505 -0.23545349
-0.0051640002 0.087973997 -0.23542701
-0.0050249998 0.088005006 -0.235423
-0.0048765 0.087998003 -0.23540601
-0.0047247503 0.087990999 -0.2353615
-0.0045690001 0.087984502 -0.235414
-0.0044910004 0.087978005 -0.235395
-0.0043245 0.087970003 -0.23542599
-0.0039614998 0.087949 -0.235405
-0.0036836667 0.087954007 -0.235357
-0.0035325 0.088007003 -0.235355
-0.0119155 0.088149503 -0.2354615
-0.0117855 0.088147998 -0.2353625
-0.007669 0.088149995 -0.23537549
-0.0075650001 0.088147998 -0.23536
-0.0073485002 0.088130996 -0.235369
-0.0068925 0.088104993 -0.23538399
-0.0066852504 0.088096499 -0.235438
-0.0065361997 0.088110402 -0.2354892
-0.006390166 0.088150501 -0.23547931
-0.0062434999 0.088141501 -0.2354845
-0.0061027501 0.088136256 -0.23547451
-0.0059500001 0.088142335 -0.23547132
-0.0057625002 0.088120997 -0.23546976
-0.0056071999 0.088104598 -0.2354614
-0.0054716007 0.088111199 -0.23545198
-0.0051595001 0.088087998 -0.2354275
-0.0050194999 0.088157497 -0.23541525
-0.0048704999 0.088149995 -0.235406
-0.0047859997 0.088142999 -0.23537099
-0.0045639998 0.088136502 -0.235402
-0.0044855 0.088129997 -0.235394
-0.0043184999 0.088121995 -0.23541799
-0.0039560003 0.088101 -0.235395
-0.0037024999 0.088094994 -0.23535299
-0.0119095 0.088301502 -0.23546749
-0.011753 0.088285662 -0.23537032
-0.011631751 0.08829125 -0.23535499
-0.0078189997 0.088349 -0.23535199
-0.0076649999 0.088265002 -0.235355
-0.0075594997 0.088300496 -0.235357
-0.0073449998 0.088246003 -0.235351
-0.0068864999 0.088257 -0.23539001
-0.0066800001 0.088249497 -0.2354255
-0.0065402002 0.088248998 -0.23548539
-0.0063844994 0.088303 -0.23547466
-0.006238 0.088293999 -0.235475
-0.0060970001 0.088288747 -0.23546575
-0.0059297499 0.088280998 -0.2354815
-0.0057575004 0.088273004 -0.23545799
-0.0056150001 0.088265747 -0.2354605
-0.0055212495 0.088258252 -0.23545802
-0.0053965002 0.088254005 -0.23542801
-0.0051535 0.088240996 -0.235425
-0.0049973335 0.088296331 -0.23542066
-0.004865 0.088303998 -0.2353985
-0.0047550001 0.088310331 -0.23536567
-0.0045754001 0.088298 -0.23538761
-0.0044785002 0.088282004 -0.23540801
-0.0043124999 0.088275 -0.235415
-0.003951 0.088254005 -0.235377
-0.0036964999 0.088247001 -0.235359
-0.011889 0.088440664 -0.23547
-0.011771999 0.088451996 -0.23539001
-0.011621 0.088405997 -0.235356
-0.0078149997 0.088425003 -0.235364
-0.0075535001 0.088451996 -0.2353535
-0.0074489997 0.088477664 -0.23535599
-0.0068804999 0.088410005 -0.23538801
-0.0066742501 0.088401511 -0.2354195
-0.0065254997 0.088393003 -0.23547934
-0.0063788327 0.08845567 -0.23547168
-0.0062325001 0.088447005 -0.23547
-0.0060912496 0.088440992 -0.23546149
-0.0059234998 0.088432997 -0.23548827
-0.00575175 0.088425502 -0.23545551
-0.00560875 0.088417999 -0.235467
-0.0055155 0.088409998 -0.2354525
-0.0053904997 0.088406995 -0.23541901
-0.0051475 0.088393003 -0.235429
-0.0050087501 0.088423997 -0.23542151
-0.0048604999 0.088457003 -0.23536301
-0.0047375001 0.088450998 -0.235358
-0.0045815003 0.088443331 -0.23538364
-0.0044724997 0.088434502 -0.23541801
-0.0043064998 0.088427 -0.235423
-0.003945 0.088405997 -0.235377
-0.0036919999 0.088361003 -0.23536199
-0.011853499 0.088605002 -0.23546001
-0.011765501 0.088601999 -0.235403
-0.011625499 0.08859475 -0.23536827
-0.0078105 0.088539004 -0.235367
-0.0075475001 0.088604495 -0.23536199
-0.0074225003 0.088553503 -0.23535749
-0.0073299999 0.088625997 -0.235356
-0.0068755001 0.088562503 -0.23537499
-0.0066690003 0.088554002 -0.2354095
-0.006520167 0.088545166 -0.23547567
-0.0063726665 0.088607498 -0.23547067
-0.0062259999 0.088598505 -0.235485
-0.0060847499 0.088591993 -0.23548299
-0.0059175002 0.088585503 -0.235484
-0.0057454999 0.088576496 -0.235462
-0.0056034997 0.088570498 -0.2354555
-0.0055092499 0.088562004 -0.23546
-0.0053845001 0.088559002 -0.23541901
-0.0051419996 0.088546 -0.23541999
-0.0050206664 0.088552333 -0.23541667
-0.0048540002 0.088608503 -0.23538101
-0.0047694999 0.088601001 -0.235357
-0.0045748334 0.088595331 -0.23539233
-0.0044670003 0.088587001 -0.23539999
-0.0043000001 0.088578001 -0.23543951
-0.0039384998 0.088558495 -0.23539299
-0.011934 0.088795997 -0.23548301
-0.011803001 0.088755757 -0.23544775
-0.0116155 0.088746995 -0.23537
-0.0078070001 0.088652998 -0.23535401
-0.0075415 0.088755995 -0.23536101
-0.0073270001 0.088702001 -0.235356
-0.0068690004 0.088714004 -0.2353825
-0.0066622496 0.088705003 -0.2354265
-0.0065137995 0.088688999 -0.23548499
-0.006367167 0.088759162 -0.23546934
-0.006079 0.088744752 -0.23547375
-0.0059120003 0.088737503 -0.23548451
-0.0057824999 0.088731997 -0.23546699
-0.0056303334 0.088723667 -0.23546149
-0.0055030002 0.088714004 -0.23546749
-0.0053785001 0.088711001 -0.23542601
-0.0051365001 0.088698 -0.235414
-0.0050156671 0.088678665 -0.23541699
-0.0048813336 0.088748671 -0.23540199
-0.0047373334 0.088766992 -0.23536734
-0.0045698332 0.088748001 -0.23538101
-0.004462 0.088739999 -0.2353875
-0.0042944998 0.08873 -0.23543599
-0.0039315 0.088708997 -0.2354205
-0.011931 0.088871002 -0.23548301
-0.0117965 0.088906504 -0.23545749
-0.011621 0.088890597 -0.2353868
-0.011549 0.088932998 -0.235378
-0.0075349999 0.088907003 -0.235378
-0.0074200002 0.088914499 -0.23535775
-0.0068635 0.088865995 -0.23537099
-0.0066567501 0.088858254 -0.23541425
-0.0065081664 0.088848837 -0.23548101
-0.0063623334 0.088874333 -0.23547833
-0.0062150001 0.088863999 -0.23549899
-0.0060729999 0.088896252 -0.23548099
-0.0059055001 0.088889502 -0.235493
-0.0057765003 0.088882998 -0.23547199
-0.0056246668 0.088876165 -0.23545732
-0.0054975003 0.088866495 -0.23545875
-0.0053719999 0.088862002 -0.235439
-0.0051299999 0.088849001 -0.235429
-0.0050415001 0.088845 -0.235421
-0.0049113333 0.088851996 -0.23539333
-0.0047570001 0.088904999 -0.235367
-0.0045629996 0.088899165 -0.23539865
-0.0044545 0.088890001 -0.235422
-0.0042880001 0.088881999 -0.235442
-0.0039255 0.088861004 -0.235423
-0.003546 0.088846505 -0.23536551
-0.011775666 0.089044996 -0.23546468
-0.011632 0.089051001 -0.23539799
-0.0115038 0.0890522 -0.23536798
-0.007975 0.089036003 -0.235358
-0.0077920002 0.089032002 -0.235351
-0.0075284997 0.089058995 -0.235385
-0.0074268333 0.08904767 -0.23536299
-0.007313 0.089044005 -0.23537099
-0.0068574999 0.089018002 -0.23537299
-0.0066505 0.089009002 -0.23542774
-0.0065024998 0.089000829 -0.23547482
-0.0064130002 0.088988997 -0.2354835
-0.0060796668 0.089035995 -0.23549466
-0.005884333 0.089053661 -0.23549898
-0.0057704998 0.089035004 -0.23547301
-0.0056186668 0.089027338 -0.23545933
-0.0054930001 0.0890195 -0.23543525
-0.0053655002 0.089013502 -0.23545301
-0.0051234998 0.089000002 -0.235451
-0.0050340001 0.088994995 -0.23545501
-0.004888 0.088989995 -0.23541899
-0.0047134999 0.089058995 -0.23536651
-0.0045682001 0.089043804 -0.23541018
-0.004466333 0.089057006 -0.23540634
-0.0042810002 0.089033 -0.235477
-0.0039194999 0.089012995 -0.23542
-0.0036665001 0.089007497 -0.2353625
-0.0035326001 0.089006007 -0.23536201
-0.01174 0.089209005 -0.235449
-0.011625499 0.089202002 -0.23541175
-0.0114978 0.089204207 -0.2353714
-0.0113625 0.089187503 -0.23535775
-0.0079705007 0.089149997 -0.23536099
-0.0077869999 0.089147002 -0.23537001
-0.0075225001 0.089211002 -0.23538899
-0.0074370001 0.089189 -0.235355
-0.0073064999 0.089195997 -0.235387
-0.0068505001 0.089169003 -0.23540199
-0.0066442499 0.089161001 -0.23543499
-0.0065263337 0.089143664 -0.235494
-0.0060740001 0.089188002 -0.235498
-0.0059374999 0.089195997 -0.23548001
-0.0057645002 0.089186996 -0.2354805
-0.0056118332 0.089179337 -0.23548001
-0.0054865 0.089171506 -0.23545051
-0.0053590001 0.089165494 -0.2354615
-0.0051175002 0.089152001 -0.2354525
-0.0050290003 0.089148 -0.235443
-0.0048812502 0.089141004 -0.23543552
-0.0047067497 0.089209996 -0.23538649
-0.0045782505 0.089204498 -0.2354255
-0.0044685001 0.089197502 -0.23541875
-0.0042745001 0.089184999 -0.23548099
-0.0039134999 0.089166999 -0.235415
-0.0036599999 0.089160003 -0.235375
-0.0035371669 0.089151002 -0.23536836
-0.011764999 0.089348674 -0.23543833
-0.0116195 0.089353755 -0.23541301
-0.011480999 0.089346327 -0.23539518
-0.011355999 0.089339003 -0.23536651
-0.01125 0.089372002 -0.23536301
-0.0079650003 0.089302003 -0.235359
-0.0077815 0.089299001 -0.235366
-0.0075893332 0.089302003 -0.23537533
-0.0074148341 0.089351833 -0.23536535
-0.0073004998 0.089348003 -0.235384
-0.006844 0.089321002 -0.235416
-0.0066513331 0.089301325 -0.23542301
-0.0065990002 0.08935 -0.23547
-0.0064460002 0.089263 -0.235489
-0.0059329998 0.089308999 -0.23549899
-0.0057575 0.089339495 -0.23549199
-0.0056174002 0.089323997 -0.23548779
-0.0054716668 0.089308999 -0.23548101
-0.005353 0.089318 -0.23547
-0.0051104999 0.089304 -0.235479
-0.0050235 0.089301005 -0.235434
-0.0048754998 0.089293495 -0.23543125
-0.0047130003 0.089347996 -0.23540099
-0.0045719999 0.089355998 -0.23543701
-0.0044617499 0.089349255 -0.2354385
-0.0042695003 0.089339003 -0.23546299
-0.003908 0.089319006 -0.235412
-0.0036535 0.089311004 -0.235394
-0.0035303331 0.089302666 -0.23538516
-0.00339 0.089290999 -0.235369
-0.003178 0.089321002 -0.235355
-0.011792 0.089452334 -0.235424
-0.011613999 0.089506745 -0.23539901
-0.011474334 0.089498669 -0.235406
-0.01134975 0.089490496 -0.2353835
-0.011245 0.089486003 -0.235367
-0.0083015002 0.089477003 -0.235366
-0.0079584997 0.089453995 -0.23536649
-0.0077755 0.089450501 -0.235367
-0.0075657498 0.089440003 -0.235394
-0.0074076666 0.089502834 -0.23539133
-0.0072955 0.089499995 -0.235375
-0.0068375003 0.089471996 -0.235422
-0.0066689998 0.089466497 -0.23542401
-0.0065939999 0.089461997 -0.235489
-0.0057529998 0.089454003 -0.235498
-0.00562775 0.089483999 -0.235488
-0.0054489998 0.089473002 -0.235484
-0.005347 0.089469001 -0.23548299
-0.0051035001 0.089455999 -0.235488
-0.0050169998 0.089451998 -0.235448
-0.0048690001 0.089445502 -0.23544425
-0.004683 0.089449666 -0.23542333
-0.00456475 0.089507997 -0.2354635
-0.0044550002 0.089500003 -0.235457
-0.0042634998 0.089490503 -0.23546299
-0.0039029999 0.089431003 -0.23543601
-0.0038999999 0.089506999 -0.235438
-0.0036475002 0.089462996 -0.235396
-0.0035236664 0.089454345 -0.23540366
-0.0033835 0.089442998 -0.23537701
-0.0031689999 0.089548998 -0.235358
-0.011725999 0.089588501 -0.23543799
-0.0116055 0.089656249 -0.2354635
-0.011467834 0.089649498 -0.23541982
-0.011343 0.089640997 -0.2354005
-0.011239 0.089637995 -0.23536851
-0.011046 0.089661002 -0.23535299
-0.0082965 0.08963 -0.235356
-0.0079525001 0.089606002 -0.235378
-0.007768 0.089602001 -0.23539101
-0.0075594997 0.089591496 -0.23540151
-0.0074011669 0.089653336 -0.23540783
-0.0072884997 0.089651003 -0.23539799
-0.0068314997 0.089624003 -0.235429
-0.0066625001 0.089618996 -0.235432
-0.0065673334 0.089628667 -0.23545633
-0.0057455003 0.089643002 -0.235496
-0.00562225 0.089636251 -0.2354805
-0.0054434999 0.089625001 -0.23548301
-0.0053404998 0.089621998 -0.23548999
-0.0050539998 0.089606002 -0.23547599
-0.0048624999 0.089597248 -0.23545599
-0.0047029997 0.089576334 -0.235434
-0.0045767999 0.089653 -0.23546639
-0.0044475002 0.089651249 -0.2354845
-0.0042570001 0.089642003 -0.23547649
-0.0038955002 0.089623004 -0.235424
-0.0036415001 0.089615002 -0.235393
-0.0035171667 0.089606166 -0.23541467
-0.0033775 0.089595005 -0.235386
-0.0031659999 0.089622997 -0.235368
-0.011585 0.089819007 -0.23549066
-0.011460667 0.089799993 -0.23545367
-0.011336501 0.089792252 -0.23541701
-0.011197333 0.089798331 -0.23537834
-0.010997999 0.089813001 -0.23535299
-0.0082919998 0.089744002 -0.235356
-0.0079449993 0.089756995 -0.23540799
-0.007762 0.089753002 -0.235397
-0.0075720004 0.089731663 -0.23539467
-0.0074354 0.089800999 -0.23540381
-0.0073150001 0.089802504 -0.235404
-0.006825 0.089776501 -0.23544049
-0.0066565 0.089771003 -0.23544
-0.0065355995 0.089758202 -0.23546341
-0.0056175003 0.089750007 -0.2354935
-0.005438 0.089739002 -0.235498
-0.0053360001 0.089736 -0.235495
-0.0050050002 0.089716002 -0.235488
-0.0048396667 0.089735329 -0.23547399
-0.0047204997 0.089737996 -0.235448
-0.0045995 0.089757502 -0.23546676
-0.0042519998 0.089754999 -0.235496
-0.0038895002 0.089774996 -0.2354285
-0.003635 0.089767002 -0.235405
-0.0035113331 0.089757837 -0.235421
-0.0033714999 0.089746997 -0.23538899
-0.0031605 0.089737996 -0.23538399
-0.0030690001 0.089809999 -0.235369
-0.0029800001 0.089845002 -0.23536199
-0.011605334 0.089947335 -0.23548765
-0.011453499 0.089951664 -0.23547733
-0.011329751 0.089944497 -0.23543549
-0.011173749 0.089935496 -0.23539498
-0.011007334 0.089914329 -0.23536468
-0.0109075 0.089963004 -0.23536099
-0.0084459996 0.089984 -0.23535299
-0.0079385005 0.089909002 -0.23541999
-0.0077559999 0.089905001 -0.2354005
-0.0076005002 0.089896999 -0.235386
-0.0074418001 0.089925207 -0.23540778
-0.0073082498 0.089955255 -0.23541649
-0.0068195001 0.089928001 -0.23543501
-0.0066494998 0.089920998 -0.235458
-0.006579 0.089882001 -0.235471
-0.004801 0.089860998 -0.23547401
-0.004743 0.089906335 -0.23544867
-0.0046102502 0.089892998 -0.23543224
-0.004408 0.089992002 -0.235497
-0.003882 0.089925498 -0.235459
-0.0036284998 0.089919001 -0.23542601
-0.0035053336 0.089910991 -0.23542099
-0.003365 0.089899004 -0.23539799
-0.0031544999 0.089889497 -0.23538151
-0.003062 0.089961 -0.235386
-0.0029780001 0.089920998 -0.235358
-0.0025154999 0.089936003 -0.23536099
-0.0023165001 0.089917004 -0.23535699
-0.002237 0.089956999 -0.23536199
-0.011474 0.09010575 -0.23546875
-0.011348167 0.090097331 -0.23544568
-0.0111675 0.090087496 -0.2354075
-0.0110285 0.090077996 -0.235377
-0.010903001 0.090077005 -0.23536651
-0.0084629999 0.090099499 -0.23535749
-0.0083329994 0.090127006 -0.23536301
-0.0079325 0.090061001 -0.23541799
-0.0077494998 0.0900575 -0.235422
-0.0075929998 0.090048499 -0.235424
-0.0074354992 0.090064339 -0.23540999
-0.0073017497 0.090107501 -0.23543075
-0.0068135001 0.09008 -0.23544
-0.0066450001 0.090034999 -0.235475
-0.004892 0.090094 -0.23549099
-0.0047512501 0.090046495 -0.2354645
-0.0045865998 0.0900506 -0.23543639
-0.0044300002 0.090108499 -0.2354885
-0.0038755001 0.090077996 -0.235479
-0.0036229999 0.090071 -0.2354155
-0.0035093999 0.090055205 -0.23543
-0.003388 0.090066671 -0.23542301
-0.0031183334 0.090053655 -0.23539066
-0.0029255 0.090146005 -0.235366
-0.0027920001 0.090139002 -0.235357
-0.0026092499 0.090111248 -0.235359
-0.0024600001 0.090121001 -0.23535199
-0.0023109999 0.090068996 -0.23535499
-0.0022026666 0.090080999 -0.23536266
-0.011443 0.090218 -0.235493
-0.011341001 0.090249002 -0.23547168
-0.01116075 0.090238497 -0.2354255
-0.0110215 0.090229496 -0.23540249
-0.010896499 0.0902275 -0.235384
-0.010448 0.090240002 -0.235351
-0.0084370002 0.090212002 -0.235357
-0.008309667 0.09022633 -0.23537566
-0.0079264995 0.090213001 -0.235425
-0.0077424999 0.090208001 -0.23543701
-0.0075864997 0.0902 -0.235441
-0.0074281669 0.090215333 -0.23544399
-0.00729525 0.090258501 -0.235448
-0.0068049999 0.090231501 -0.23548999
-0.0047296663 0.090209998 -0.23548
-0.0045674997 0.090194337 -0.23547302
-0.0044169999 0.090247996 -0.23546635
-0.0038695 0.090230003 -0.235486
-0.0036160001 0.090223506 -0.235431
-0.003516 0.090215497 -0.23546499
-0.0033972501 0.09020675 -0.23544651
-0.0030972499 0.090192251 -0.2354005
-0.0029056668 0.09024667 -0.23539199
-0.0027864999 0.090251997 -0.23537999
-0.0026195 0.090244673 -0.235375
-0.0024777499 0.090237752 -0.235386
-0.0023030001 0.090259001 -0.23536099
-0.0021822499 0.090219252 -0.23536925
-0.011301666 0.090385668 -0.23549032
-0.011154 0.090390004 -0.23544501
-0.011014501 0.090379998 -0.235425
-0.01088975 0.090379499 -0.23540451
-0.010731333 0.090383671 -0.23536901
-0.01056175 0.090362504 -0.235365
-0.0103525 0.090348005 -0.235355
-0.0084436657 0.090415336 -0.23535599
-0.00832175 0.090391748 -0.23537625
-0.0079200007 0.090364002 -0.235441
-0.0077360002 0.090360001 -0.23545301
-0.0075794999 0.090351999 -0.235456
-0.0074204993 0.09036684 -0.23548199
-0.0072875 0.090410501 -0.235479
-0.0068000001 0.090345003 -0.23549899
-0.0045620003 0.090309002 -0.235488
-0.0044209999 0.090336502 -0.23548999
-0.0038650001 0.090343997 -0.23549201
-0.003608 0.0903745 -0.235476
-0.0035095001 0.090367258 -0.2354815
-0.00339 0.09035825 -0.23547375
-0.0030902498 0.090343498 -0.2354275
-0.0029145 0.090373494 -0.23540601
-0.00278 0.090403005 -0.23538801
-0.0026467501 0.090399995 -0.23536649
-0.0024973333 0.090390831 -0.23538451
-0.0022975001 0.090372995 -0.235394
-0.0021754999 0.090371497 -0.23538201
-0.011276 0.090588003 -0.235495
-0.011198999 0.090547003 -0.235477
-0.011051251 0.090533756 -0.23544699
-0.010883001 0.090530507 -0.23542275
-0.0107545 0.090524003 -0.235383
-0.010585 0.090483002 -0.23535299
-0.010286 0.090496004 -0.23535299
-0.010108501 0.090489 -0.23536301
-0.0098435003 0.090551004 -0.23537
-0.0084594004 0.0905632 -0.235369
-0.0083154999 0.090543754 -0.23538551
-0.0079135001 0.090515494 -0.235456
-0.0077285003 0.090512 -0.23548201
-0.0075745001 0.090504006 -0.23545299
-0.0073963329 0.090503335 -0.23548234
-0.0073135002 0.090562001 -0.23549649
-0.0066260002 0.090492003 -0.235495
-0.0035305 0.0905215 -0.23548999
-0.0033830001 0.090510003 -0.235493
-0.0030835001 0.090495504 -0.2354465
-0.0029236665 0.090501331 -0.23541933
-0.0027724998 0.090555996 -0.235421
-0.00263975 0.09055075 -0.23538549
-0.0024911666 0.090542831 -0.23538935
-0.002291 0.090526 -0.235401
-0.0021697502 0.090522997 -0.23538749
-0.011273 0.090663999 -0.235493
-0.011193 0.090659998 -0.23549999
-0.0110445 0.090685003 -0.23547123
-0.0108765 0.090682 -0.23543476
-0.0107485 0.090675995 -0.23538551
-0.010430001 0.090694502 -0.235367
-0.010299 0.090662666 -0.23537099
-0.010102499 0.090640999 -0.23537099
-0.0098375008 0.090702996 -0.23537201
-0.0097484998 0.090699002 -0.23536
-0.0084631667 0.090707175 -0.23538433
-0.0083283335 0.090683341 -0.23540001
-0.00825 0.090729997 -0.23544601
-0.0079075005 0.090667501 -0.23545599
-0.0077224998 0.090663001 -0.235487
-0.0075674998 0.090655997 -0.23546401
-0.0073834998 0.090642005 -0.23548225
-0.0072765001 0.090676501 -0.23549899
-0.0066184998 0.090682 -0.235498
-0.0043850001 0.090600997 -0.235498
-0.0035260001 0.090636 -0.23549899
-0.0033626666 0.090649001 -0.23548567
-0.0030767499 0.090646997 -0.23546576
-0.0029027499 0.090638995 -0.23544274
-0.0027655 0.090706006 -0.235442
-0.00263275 0.090702496 -0.23541126
-0.0024859998 0.090687796 -0.23538041
-0.0022844998 0.090675995 -0.23541999
-0.0021635001 0.090675995 -0.23539424
-0.011039 0.090837501 -0.23546849
-0.010871001 0.090834498 -0.2354275
-0.01069925 0.090826496 -0.23538126
-0.010544499 0.090818495 -0.23536399
-0.010425 0.090808176 -0.23538502
-0.01030375 0.090802252 -0.23537099
-0.0100965 0.090792 -0.235374
-0.0098314993 0.090855002 -0.23537299
-0.0097123338 0.090861671 -0.23536032
-0.0094917491 0.090838 -0.23536451
-0.009416 0.09087 -0.235351
-0.0092550004 0.090861998 -0.23535401
-0.0087679997 0.090834498 -0.23536149
-0.00859675 0.090791002 -0.2353625
-0.0084570004 0.090860002 -0.23539019
-0.0083579998 0.090849996 -0.23542351
-0.0082444996 0.090844005 -0.2354535
-0.0079005007 0.09082 -0.235478
-0.0077165002 0.090815 -0.235497
-0.0075619998 0.090768002 -0.23548201
-0.0073785 0.090755999 -0.2354915
-0.0072405003 0.090790004 -0.235487
-0.0033255001 0.090810999 -0.235495
-0.0030704997 0.090799004 -0.2354715
-0.0028957501 0.090790495 -0.23546076
-0.0027600001 0.090859994 -0.2354385
-0.002627 0.090856001 -0.235405
-0.0024799998 0.090855598 -0.23537321
-0.0022775 0.090828501 -0.23544
-0.0021567501 0.090827502 -0.2354085
-0.0018275001 0.090809003 -0.23537099
-0.011032 0.090988994 -0.23548099
-0.01086475 0.090985253 -0.23544
-0.010707666 0.090966009 -0.23538868
-0.0105592 0.090979405 -0.23539281
-0.010418166 0.090959333 -0.23540251
-0.010297 0.090954006 -0.23538251
-0.0100905 0.090944007 -0.235378
-0.0098250005 0.091006994 -0.235387
-0.0096912505 0.090999998 -0.2353715
-0.0095116673 0.090990998 -0.23537649
-0.0093882503 0.090983003 -0.23537099
-0.0092495 0.090976 -0.235366
-0.0089750001 0.090999 -0.23536199
-0.0087627489 0.090948999 -0.23538326
-0.0085907495 0.090943009 -0.23536751
-0.0084392503 0.090991497 -0.235412
-0.008351 0.091001496 -0.23544399
-0.0082374997 0.090994 -0.23548299
-0.0078944992 0.090971999 -0.2354745
-0.0077089998 0.091004997 -0.23549899
-0.0072360002 0.090903997 -0.23549201
-0.0030496668 0.090938002 -0.23548599
-0.0029325001 0.090945005 -0.23548099
-0.002817 0.090952002 -0.23544832
-0.0026205 0.091007501 -0.235422
-0.0024714998 0.090999164 -0.23543052
-0.0022710001 0.090980999 -0.235452
-0.0021502499 0.090979502 -0.2354245
-0.0018205 0.090960994 -0.2353895
-0.011356 0.091124997 -0.235488
-0.011012 0.091127671 -0.23548967
-0.010859 0.091137506 -0.23543276
-0.010732001 0.091132 -0.2353625
-0.010568666 0.091124497 -0.23538268
-0.010412832 0.091111504 -0.23539233
-0.01029025 0.091104999 -0.2354105
-0.0100835 0.091095001 -0.235395
-0.0098180007 0.091159001 -0.235412
-0.0096850004 0.091151997 -0.23537849
-0.0095053343 0.091142833 -0.23538433
-0.0093893334 0.091148339 -0.23536833
-0.0092424992 0.091127001 -0.235387
-0.0089695007 0.091112003 -0.23539099
-0.0087564997 0.091101244 -0.23538999
-0.0086195003 0.091096997 -0.23539099
-0.008496833 0.091090001 -0.23539867
-0.0083705001 0.091157004 -0.23544651
-0.0082315002 0.091146 -0.235489
-0.00789 0.091086 -0.235496
-0.0030125 0.091101006 -0.235495
-0.0029269999 0.091097996 -0.23546299
-0.0027965 0.091091 -0.2354475
-0.0026016666 0.091146328 -0.235443
-0.0024646665 0.091150843 -0.23545301
-0.002265 0.091132499 -0.235457
-0.0021586667 0.091120005 -0.23544268
-0.0020989999 0.091165997 -0.23542
-0.001814 0.0911135 -0.23540801
-0.0015059999 0.091141999 -0.23536
-0.010976 0.091290995 -0.2354925
-0.010852 0.091289997 -0.23545499
-0.010723 0.091283001 -0.235416
-0.010594251 0.091279499 -0.235404
-0.010446168 0.091253996 -0.23537733
-0.0102845 0.091256998 -0.23540801
-0.010077 0.091247499 -0.235412
-0.0098120002 0.091310993 -0.235414
-0.0096784998 0.091304243 -0.235394
-0.0095247496 0.091295749 -0.235394
-0.0093998332 0.091288507 -0.23538418
-0.009238 0.091279998 -0.23536599
-0.0089640003 0.091263995 -0.235375
-0.0087494999 0.091253497 -0.23540275
-0.0086129997 0.091249004 -0.23539001
-0.0084908335 0.091241665 -0.235403
-0.0083569996 0.091295004 -0.23543434
-0.0082255006 0.091298498 -0.2354975
-0.0029210001 0.091250002 -0.23547599
-0.0027899998 0.091243006 -0.235457
-0.00260875 0.091274254 -0.23545201
-0.0024580001 0.091303498 -0.23547
-0.002258 0.091285005 -0.2354735
-0.0021805 0.091287002 -0.23546949
-0.0020940001 0.091279998 -0.235432
-0.0018075 0.091265999 -0.23541901
-0.001503 0.091215998 -0.23537201
-0.0014734999 0.091293499 -0.2353635
-0.010845 0.091441497 -0.2354745
-0.0107155 0.091434002 -0.23545399
-0.0105875 0.091431007 -0.235425
-0.010422625 0.091416746 -0.23542114
-0.01027675 0.091408499 -0.2354435
-0.01007 0.091398999 -0.235434
-0.0098080002 0.091424003 -0.235416
-0.0096715 0.091455497 -0.23541801
-0.0095182499 0.09144675 -0.23540451
-0.0093935002 0.091439664 -0.23539416
-0.0092315003 0.091431499 -0.2353785
-0.008959 0.091417 -0.2353605
-0.0087895002 0.091406003 -0.23542
-0.0086519998 0.091400504 -0.235412
-0.0084836669 0.091393672 -0.23542953
-0.0083602499 0.091423243 -0.23544924
-0.0027839998 0.091395259 -0.23546025
-0.0026032501 0.091426 -0.23544651
-0.0024523335 0.091455497 -0.23546682
-0.0022525 0.091436997 -0.235469
-0.0021744999 0.091439001 -0.235468
-0.0020870001 0.091431998 -0.235457
-0.001803 0.09138 -0.23542801
-0.0018 0.091456003 -0.23541801
-0.0014685 0.091405496 -0.23537526
-0.010753 0.091588497 -0.23547226
-0.01058125 0.091582999 -0.23543401
-0.010438167 0.09157034 -0.23544331
-0.010295667 0.091560841 -0.23545669
-0.010063 0.091550499 -0.2354555
-0.0098020006 0.091537997 -0.23543599
-0.0096655004 0.091607004 -0.23542149
-0.0095127504 0.091599993 -0.23540148
-0.0093883341 0.09159217 -0.2353835
-0.0092245005 0.091582999 -0.235396
-0.0089525003 0.091568001 -0.23537499
-0.0087835006 0.091558993 -0.235416
-0.0086474996 0.091553748 -0.23538226
-0.0084781656 0.0915455 -0.23542833
-0.0083540007 0.091574498 -0.235452
-0.0027636669 0.091533333 -0.23545599
-0.0026096667 0.091554008 -0.23546802
-0.0024704998 0.091609001 -0.2354835
-0.0023960001 0.091604002 -0.23548001
-0.0022074999 0.091590002 -0.23547551
-0.0020805001 0.091582999 -0.235469
-0.0017949999 0.091570005 -0.23542699
-0.00146225 0.091559 -0.23537475
-0.0107035 0.091738001 -0.23546
-0.010575499 0.091735005 -0.2354265
-0.010433334 0.091722496 -0.235424
-0.010290666 0.091712989 -0.23544784
-0.010058001 0.091702998 -0.235441
-0.0097955 0.091690004 -0.235452
-0.0096589997 0.091758996 -0.23543151
-0.0095064994 0.091751248 -0.2354075
-0.0093823336 0.09174367 -0.23538367
-0.0092185 0.091735005 -0.235405
-0.0089465007 0.091719002 -0.23537999
-0.0087784994 0.091711 -0.235393
-0.0086429995 0.091706 -0.23535499
-0.0084720002 0.091697335 -0.23542817
-0.0083470009 0.091726497 -0.2354755
-0.002727 0.091659002 -0.235486
-0.00259325 0.0916925 -0.23543924
-0.0024920001 0.091724999 -0.235489
-0.0023894999 0.091755003 -0.23549399
-0.0022014999 0.091743499 -0.2354745
-0.0020745001 0.091736004 -0.2354745
-0.00179 0.091721505 -0.23541999
-0.001456 0.091710508 -0.235387
-0.010697501 0.091889001 -0.235475
-0.0105705 0.091886751 -0.23541224
-0.0104275 0.091874331 -0.23542368
-0.010284333 0.091864668 -0.23544866
-0.010054 0.091816001 -0.23543601
-0.01005 0.091891997 -0.23545
-0.0097889993 0.091842003 -0.2354645
-0.0096389996 0.091897331 -0.23542733
-0.0094999997 0.091903001 -0.23542449
-0.0093753329 0.091895342 -0.23541234
-0.0092124995 0.091886997 -0.2353995
-0.0089404993 0.091871001 -0.235386
-0.0087710004 0.091862001 -0.23542801
-0.0086342506 0.091856748 -0.23541151
-0.0084648328 0.091848664 -0.23545633
-0.0083680004 0.091805004 -0.23549999
-0.002599 0.091832004 -0.235467
-0.0025076668 0.091852665 -0.23547833
-0.002385 0.091868997 -0.23549099
-0.002195 0.091894001 -0.235488
-0.0020685 0.091887996 -0.23548099
-0.001784 0.091873497 -0.23541799
-0.0014350001 0.091869198 -0.2353816
-0.001147 0.091881998 -0.235356
-0.010692 0.092041001 -0.23545799
-0.01056525 0.092038244 -0.235403
-0.010421666 0.092026174 -0.23541819
-0.010278666 0.092017002 -0.23544866
-0.0100455 0.092005998 -0.23546299
-0.0097829998 0.091993496 -0.235461
-0.0096485 0.092024498 -0.235431
-0.0094940001 0.092055 -0.23542225
-0.0093688332 0.092047334 -0.23542202
-0.0092075001 0.092038006 -0.23538899
-0.0089344997 0.092023 -0.235384
-0.0087649999 0.092014 -0.2354385
-0.0086270003 0.092008747 -0.23543701
-0.0084583331 0.092000835 -0.23546916
-0.0083456663 0.092006661 -0.23545766
-0.0025122501 0.091992497 -0.23548549
-0.0020619999 0.092040002 -0.23548999
-0.001776 0.092026502 -0.2354615
-0.0014188333 0.092013329 -0.23538966
-0.0012682 0.092008993 -0.23536499
-0.001113 0.092007004 -0.23535566
-0.0106855 0.092193 -0.2354745
-0.01056 0.092191003 -0.235383
-0.010417 0.092177503 -0.235397
-0.010273333 0.092169009 -0.23544101
-0.0100395 0.092158005 -0.235457
-0.0097780004 0.092145994 -0.235449
-0.0096880002 0.092142001 -0.23545301
-0.0095238341 0.092208326 -0.23543251
-0.0093628326 0.092198662 -0.23542766
-0.0092005003 0.092190996 -0.23540899
-0.008928 0.0921745 -0.235397
-0.0087585002 0.092165999 -0.23544699
-0.0086209998 0.092160754 -0.23544401
-0.0084640002 0.092145398 -0.23545679
-0.0083460007 0.092153594 -0.23544118
-0.0026110001 0.092113003 -0.235496
-0.0024937498 0.092125252 -0.235497
-0.0020570001 0.092155002 -0.235494
-0.001769 0.092177004 -0.23548999
-0.0014123333 0.092164002 -0.23541166
-0.0012623334 0.092153169 -0.23537366
-0.0011076668 0.092133999 -0.23536634
-0.0010479999 0.092180997 -0.235358
-0.010679 0.092344999 -0.23548701
-0.010553 0.09234225 -0.23540899
-0.010409833 0.092329673 -0.23542552
-0.010266833 0.09232033 -0.23544933
-0.010033499 0.092309996 -0.23546401
-0.0097719999 0.092297003 -0.235449
-0.0096829999 0.092293501 -0.235439
-0.0095044002 0.092352197 -0.23542079
-0.0093571665 0.09235134 -0.23542118
-0.0091939997 0.092341997 -0.23542899
-0.0089210002 0.092326 -0.23541799
-0.0087544993 0.092317 -0.23541099
-0.0086167501 0.092312999 -0.23541075
-0.0084732501 0.092304498 -0.2354615
-0.0083488328 0.0922985 -0.23546033
-0.001761 0.092367001 -0.235498
-0.0014063334 0.092317007 -0.23540835
-0.001256 0.092305161 -0.235379
-0.00113 0.092299998 -0.235366
-0.0010435 0.092294998 -0.235358
-0.0105465 0.092455499 -0.23546499
-0.010410333 0.092482172 -0.23548351
-0.010259832 0.092472665 -0.235475
-0.010027001 0.092461005 -0.235475
-0.0097669996 0.09245 -0.23543599
-0.0096764993 0.092445999 -0.23545051
-0.0095460005 0.09247525 -0.23542249
-0.0093754996 0.092504874 -0.23542349
-0.0091875 0.092492998 -0.235438
-0.0089149997 0.092478998 -0.2354295
-0.0087480005 0.092470005 -0.235424
-0.0086112507 0.092465252 -0.23540148
-0.0084675001 0.092457749 -0.23545551
-0.008343 0.092432253 -0.23549125
-0.00241 0.092483997 -0.23549999
-0.001758 0.0924825 -0.235475
-0.0014104 0.092462994 -0.2354188
-0.0012741667 0.092459671 -0.23540233
-0.0011486667 0.092466332 -0.23537834
-0.001039 0.092410997 -0.235356
-0.01058 0.092646003 -0.23549101
-0.010495501 0.092645004 -0.23548099
-0.01029325 0.0926065 -0.235486
-0.0101975 0.09262 -0.23548301
-0.0100205 0.092612997 -0.23548451
-0.0097599998 0.092600003 -0.23546
-0.0096709998 0.092597499 -0.235443
-0.0095387502 0.092626505 -0.23545049
-0.0093931668 0.092658341 -0.23543416
-0.009240251 0.092648 -0.23542799
-0.0089079998 0.092629999 -0.23544601
-0.0087414999 0.092621997 -0.235432
-0.0086054998 0.092615999 -0.2353985
-0.0084624998 0.092609003 -0.23543599
-0.0082860002 0.092635997 -0.235498
-0.0017525 0.092634 -0.235468
-0.00141925 0.092623003 -0.2354165
-0.0012938334 0.092613161 -0.23540269
-0.0011555001 0.092606999 -0.2353875
-0.0010310001 0.092638999 -0.23535199
-0.010573501 0.092798002 -0.23549399
-0.010471333 0.092806004 -0.23548101
-0.010267333 0.092788994 -0.23549066
-0.0101915 0.092772499 -0.2354995
-0.0100145 0.092765003 -0.235485
-0.0097534992 0.092751995 -0.235471
-0.0096659996 0.092749 -0.23542699
-0.0095476657 0.092753671 -0.235447
-0.0093770009 0.092800796 -0.23545161
-0.0092342496 0.092800245 -0.2354275
-0.0089030005 0.092782006 -0.23542899
-0.0087365005 0.092773005 -0.23541901
-0.0085997507 0.092768744 -0.23539451
-0.0084552495 0.092761502 -0.23546225
-0.0082976669 0.092764668 -0.235494
-0.0017465 0.092786998 -0.23546401
-0.0014124999 0.092775494 -0.23543102
-0.0012873333 0.092764996 -0.23540901
-0.00114975 0.092758998 -0.23538899
-0.00098324998 0.092750497 -0.235356
-0.010569001 0.092950501 -0.23547
-0.010433666 0.092941493 -0.23545836
-0.010293833 0.092930831 -0.23545502
-0.0101865 0.092925996 -0.23547
-0.010009499 0.092918001 -0.23547
-0.0097032506 0.092902496 -0.23546001
-0.0095297499 0.09289325 -0.23541975
-0.0093815001 0.092936002 -0.23545365
-0.0092287501 0.092951998 -0.2354245
-0.0088975001 0.092933998 -0.2354245
-0.0087299999 0.092925504 -0.23543
-0.0086375 0.092921004 -0.23543301
-0.0084811663 0.092914827 -0.23547232
-0.0083269998 0.092869997 -0.235494
-0.00174 0.092938498 -0.235486
-0.0014062499 0.092928253 -0.23544249
-0.0012815 0.092916995 -0.2354105
-0.00114425 0.092910998 -0.2353825
-0.00097725005 0.092902005 -0.23536375
-0.010592 0.093115665 -0.23546767
-0.010426833 0.093093835 -0.23547234
-0.010287333 0.093082331 -0.23547016
-0.0101795 0.093076006 -0.23549199
-0.0100035 0.093068004 -0.235478
-0.0096974997 0.093054503 -0.2354605
-0.0095237494 0.09304525 -0.2354205
-0.0093766004 0.093075804 -0.2354376
-0.0092227496 0.09310475 -0.23542599
-0.0088905003 0.093086004 -0.23544499
-0.0087234993 0.093078002 -0.2354475
-0.0086314995 0.093072996 -0.23544401
-0.0084751667 0.093066491 -0.23547633
-0.0017335 0.093091995 -0.2354915
-0.0014000001 0.093080252 -0.235447
-0.001275 0.093069337 -0.23541801
-0.0011380001 0.093063995 -0.23538524
-0.000971 0.093054503 -0.235366
-0.01060075 0.093255505 -0.23547325
-0.010420834 0.093245171 -0.23548333
-0.010280834 0.093234666 -0.23548101
-0.009997 0.093219995 -0.235487
-0.0096917506 0.093206756 -0.23545499
-0.0095172506 0.093196496 -0.2354355
-0.0093818009 0.093198404 -0.23543921
-0.0092162499 0.093255505 -0.23543251
-0.0088835005 0.093237996 -0.235461
-0.0087170005 0.093230002 -0.23545599
-0.0086259991 0.093225002 -0.235431
-0.008469834 0.093218833 -0.23546433
-0.0082649998 0.093167998 -0.23549899
-0.0017275 0.093245 -0.23549199
-0.00139425 0.093231998 -0.23544849
-0.0012694999 0.093222328 -0.235416
-0.0011312499 0.093216501 -0.2354015
-0.00096500001 0.093206495 -0.23536775
-0.000826 0.093199 -0.23536199
-0.010581333 0.093393661 -0.23546499
-0.010415833 0.093396835 -0.23545867
-0.0102848 0.093378797 -0.23547402
-0.010166 0.093418002 -0.235493
-0.0099919997 0.093333997 -0.23549099
-0.0096859997 0.093358003 -0.23545651
-0.0095114997 0.093347996 -0.2354365
-0.0093669994 0.093341671 -0.23542917
-0.00923 0.093395673 -0.23544234
-0.0091500003 0.093442999 -0.235449
-0.0088769998 0.093390003 -0.23547801
-0.0087094996 0.093381003 -0.23548999
-0.0086180009 0.093375996 -0.23547199
-0.0084633343 0.093370833 -0.23547333
-0.0013875 0.093384497 -0.23547
-0.0012635 0.093374491 -0.23541634
-0.001125 0.093367755 -0.23540901
-0.0010009999 0.093361497 -0.235388
-0.00082049996 0.093350999 -0.235365
-0.010546 0.093520001 -0.23548099
-0.01039825 0.093529493 -0.23546101
-0.010270334 0.09353783 -0.23545285
-0.010162 0.093531996 -0.23549399
-0.0096795 0.093509994 -0.23546049
-0.0095062498 0.093500495 -0.235423
-0.0093618333 0.093494169 -0.23541367
-0.0092625003 0.093561999 -0.23544
-0.0091465004 0.093557 -0.23544601
-0.0088710003 0.093541995 -0.235484
-0.0087035 0.093532994 -0.2354905
-0.0086115003 0.093528003 -0.23549101
-0.0084557505 0.093503498 -0.23549099
-0.0083980002 0.093557999 -0.235496
-0.0013814999 0.093537495 -0.23546749
-0.0012575 0.093526669 -0.23541868
-0.0011199999 0.093520246 -0.23539226
-0.00099550001 0.093514502 -0.23537901
-0.00081450003 0.093503997 -0.23536
-0.010356 0.093658999 -0.23547401
-0.010263667 0.09369 -0.235469
-0.0099794995 0.093676001 -0.235493
-0.0096739996 0.093662009 -0.23546399
-0.00949925 0.093652248 -0.23544499
-0.0093545001 0.093645833 -0.23544133
-0.0092580002 0.093676001 -0.235449
-0.0091395006 0.093708999 -0.23546201
-0.008866 0.093694001 -0.235466
-0.0086519998 0.093681999 -0.23548502
-0.00244775 0.093667753 -0.23548099
-0.001708 0.093737997 -0.235493
-0.0013863333 0.093677334 -0.235443
-0.0012693334 0.093680836 -0.23539366
-0.0011152499 0.093672752 -0.2353705
-0.00098999997 0.093666002 -0.23537301
-0.00081 0.093618996 -0.23535199
-0.00071400002 0.093688004 -0.235356
-0.0104195 0.093892999 -0.23549099
-0.010293 0.093851201 -0.2354904
-0.0099734999 0.093828 -0.235488
-0.0096677495 0.093813509 -0.23547152
-0.0095070004 0.093791664 -0.23546301
-0.0093878005 0.093806997 -0.23547021
-0.0092752501 0.093791753 -0.235461
-0.0091335 0.093860999 -0.235461
-0.0088605005 0.093846001 -0.235461
-0.0086470004 0.093835004 -0.23546726
-0.0084846662 0.093841337 -0.23549132
-0.0083870003 0.093860999 -0.235493
-0.002473 0.093782999 -0.235496
-0.0017045001 0.093853995 -0.235475
-0.0013985001 0.093842 -0.23544
-0.001296 0.093836002 -0.23542051
-0.0011375 0.093825169 -0.23538734
-0.00098400004 0.093819 -0.23537001
-0.0107055 0.093945995 -0.235486
-0.010619 0.093902998 -0.23549099
-0.0104165 0.093968503 -0.235495
-0.010296999 0.093997002 -0.23548685
-0.0099675003 0.093979999 -0.235486
-0.0096619995 0.093966 -0.23546825
-0.0095275007 0.093958005 -0.2354725
-0.0093926666 0.093951829 -0.23547435
-0.009269 0.093943998 -0.23547199
-0.0091300001 0.093975 -0.23544
-0.0088545 0.093998 -0.2354545
-0.0086397501 0.09398675 -0.23548751
-0.0084672505 0.093980506 -0.2354895
-0.0083839996 0.093937002 -0.235485
-0.0024669999 0.093934998 -0.235495
-0.001699 0.093967997 -0.235493
-0.0013925 0.093993999 -0.235443
-0.0012890002 0.093988501 -0.23543899
-0.0011308333 0.093978666 -0.235404
-0.0009785 0.093970999 -0.235366
-0.00089199998 0.094002999 -0.235356
-0.0106985 0.094098002 -0.235497
-0.010283667 0.094135337 -0.23549052
-0.010198 0.094181001 -0.235496
-0.0099615008 0.094131999 -0.23548749
-0.0096557494 0.094117999 -0.23546849
-0.0095224995 0.094109498 -0.235448
-0.0093874997 0.094103493 -0.23545749
-0.0092630005 0.094095752 -0.23546849
-0.0091249999 0.094089001 -0.235451
-0.0088480003 0.094149999 -0.23547199
-0.0086345002 0.094138756 -0.2354835
-0.0084969997 0.094135001 -0.23548749
-0.001981 0.094135001 -0.235498
-0.0016899999 0.094195999 -0.23549999
-0.001386 0.094146505 -0.235457
-0.0012833333 0.094140671 -0.23543632
-0.001125 0.094130665 -0.23540151
-0.00097250001 0.094122998 -0.23537499
-0.00088900002 0.094079003 -0.23536
-0.010284 0.094318755 -0.23549101
-0.0099560004 0.094283998 -0.23548299
-0.0096499994 0.094270006 -0.235468
-0.0095169991 0.094263002 -0.235439
-0.009380999 0.094256006 -0.23547219
-0.0092585003 0.094247252 -0.23544249
-0.009118 0.094241001 -0.235475
-0.0088424999 0.094301999 -0.235469
-0.0086297505 0.094291501 -0.23546001
-0.0084920004 0.0942875 -0.23547
-0.001379 0.094299495 -0.235468
-0.0012770001 0.094293989 -0.23544681
-0.0011198333 0.094282664 -0.23538999
-0.00096799998 0.094237 -0.23537099
-0.010408666 0.094401337 -0.23549666
-0.01025675 0.094451003 -0.235478
-0.010188 0.094448499 -0.235476
-0.0099505 0.094437003 -0.23547801
-0.0096586673 0.09441033 -0.235485
-0.0095393332 0.094428994 -0.235466
-0.0093748337 0.09440767 -0.23547451
-0.0092529999 0.094400495 -0.2354355
-0.0091120005 0.094393 -0.235478
-0.0088369995 0.094416 -0.23548
-0.0086230002 0.0944435 -0.23547299
-0.0084865 0.094439 -0.235459
-0.001682 0.094424002 -0.235496
-0.0013735 0.094452001 -0.23546401
-0.0012711667 0.09444534 -0.2354445
-0.0011462499 0.094436251 -0.235414
-0.0010176668 0.094442666 -0.23537798
-0.00087400002 0.094458997 -0.235358
-0.0105935 0.094547503 -0.235495
-0.010393251 0.0945765 -0.23549199
-0.0102644 0.0946116 -0.23547561
-0.010152 0.094598249 -0.23547626
-0.0099435002 0.094587997 -0.235494
-0.0096819997 0.094576001 -0.235493
-0.0095487498 0.094568752 -0.235468
-0.0093695 0.094559826 -0.23546599
-0.0092475004 0.094552003 -0.235433
-0.0091065001 0.094544999 -0.23546949
-0.0088299997 0.094605997 -0.235488
-0.0086172502 0.094595499 -0.23547475
-0.0084795002 0.094592005 -0.23548299
-0.0016775 0.09454 -0.235484
-0.0013675001 0.0946045 -0.23547101
-0.0012653334 0.094597667 -0.2354445
-0.00114025 0.09458825 -0.23542425
-0.00099700002 0.0945815 -0.23539475
-0.00086899998 0.094573997 -0.23537299
-0.010501 0.094659999 -0.23549899
-0.010397666 0.094705664 -0.23548101
-0.010267333 0.09475667 -0.23548765
-0.010156333 0.094738662 -0.23548432
-0.0099385008 0.094741002 -0.235488
-0.0096770003 0.0947285 -0.23547
-0.009543499 0.094721496 -0.23545799
-0.0093636671 0.094712339 -0.23546366
-0.0092414999 0.094704002 -0.23543675
-0.0091005005 0.094696999 -0.235471
-0.0088254996 0.094757497 -0.23545599
-0.0086112497 0.094747499 -0.235476
-0.0084380005 0.094742 -0.235494
-0.0016715 0.094691999 -0.23549351
-0.001362 0.094756 -0.235461
-0.0012599999 0.094749667 -0.235438
-0.0011339999 0.094740503 -0.2354375
-0.00099049998 0.094734497 -0.2354085
-0.00086299999 0.094727501 -0.235377
-0.0104048 0.094852403 -0.23548579
-0.010262 0.094908834 -0.235476
-0.010150666 0.094915003 -0.23546533
-0.0099324994 0.094891503 -0.23548201
-0.0096715 0.094879001 -0.235469
-0.0095372498 0.094872504 -0.23546
-0.0093578333 0.094863325 -0.23546368
-0.00923575 0.094855502 -0.23543
-0.0090950001 0.094849005 -0.23547101
-0.0088195 0.094908997 -0.235451
-0.0086057493 0.094899498 -0.23546875
-0.0084680002 0.094895497 -0.23547401
-0.0083799995 0.094902664 -0.23548234
-0.001666 0.094843499 -0.23548201
-0.0013565 0.094907999 -0.235456
-0.0012543333 0.094902508 -0.23542701
-0.00112825 0.094893247 -0.235423
-0.00098450005 0.094886497 -0.2354065
-0.00085999997 0.094841003 -0.23535299
-0.0105765 0.095002994 -0.23548099
-0.010429 0.094990194 -0.23545721
-0.010264332 0.095048495 -0.23547433
-0.01013475 0.095054001 -0.23546851
-0.0099264998 0.095044002 -0.23548301
-0.0096655004 0.095031999 -0.235469
-0.0095319999 0.095024996 -0.23544975
-0.0093526663 0.09501534 -0.23544799
-0.0092287501 0.095008001 -0.23544675
-0.0090894997 0.095000997 -0.2354645
-0.0088139996 0.095061004 -0.2354455
-0.0086000003 0.095050998 -0.23546751
-0.0084645003 0.095045999 -0.23543701
-0.0083667506 0.095041752 -0.23547751
-0.0024496668 0.095029674 -0.23549299
-0.0023650001 0.094999999 -0.235496
-0.001661 0.094997004 -0.235457
-0.0013520001 0.095022 -0.235461
-0.00127275 0.095058002 -0.23543951
-0.001148 0.095046997 -0.23541881
-0.00097974995 0.095039248 -0.23539099
-0.00066100003 0.095059 -0.235351
-0.010570999 0.0951555 -0.235469
-0.010443 0.095151506 -0.23544349
-0.010278 0.095165856 -0.23548244
-0.01012825 0.095206007 -0.23547401
-0.0099209994 0.095196001 -0.2354795
-0.00966 0.095184997 -0.235458
-0.0095257498 0.095177501 -0.235456
-0.0093722502 0.0951695 -0.23544575
-0.0092473328 0.095161997 -0.23544534
-0.0090839993 0.095152497 -0.235456
-0.0088099996 0.095174998 -0.235434
-0.0086404998 0.095205002 -0.235457
-0.0085027497 0.095199749 -0.23546299
-0.0083689997 0.095181666 -0.23548199
-0.0016555 0.095148996 -0.23545399
-0.0012946001 0.095173404 -0.235441
-0.0011433333 0.095198505 -0.23539782
-0.00097425003 0.095190749 -0.23537599
-0.0105645 0.095307 -0.2354885
-0.01043575 0.095304251 -0.2354645
-0.01028 0.09529601 -0.2354673
-0.0101374 0.0953658 -0.23548038
-0.0099149998 0.095348001 -0.23548099
-0.0096544996 0.095336005 -0.235458
-0.0095199998 0.095328748 -0.2354515
-0.0093670003 0.095321 -0.23543675
-0.0092418334 0.09531299 -0.23543601
-0.009079 0.095304996 -0.23543301
-0.0088065006 0.095290005 -0.23542601
-0.0086345002 0.095357001 -0.235466
-0.0084964996 0.095351994 -0.235468
-0.0083799995 0.095347002 -0.23547849
-0.001651 0.095262997 -0.23545399
-0.001649 0.095338002 -0.23543601
-0.0012899999 0.095312156 -0.23542316
-0.0011378333 0.095349997 -0.23538767
-0.00096850004 0.09534274 -0.23538275
-0.00074399996 0.09533 -0.235358
-0.010559 0.095459498 -0.23547199
-0.01043175 0.095455252 -0.2354245
-0.010288167 0.095443495 -0.23544984
-0.010129 0.0954905 -0.23548076
-0.0099090002 0.095500007 -0.23548299
-0.0096474998 0.095487997 -0.2354725
-0.0095145004 0.095480502 -0.23544626
-0.0093614999 0.095473252 -0.2354275
-0.0092358338 0.095465332 -0.23544167
-0.0090734996 0.095457003 -0.235431
-0.0088005001 0.095441505 -0.235424
-0.0086275004 0.095509499 -0.23548301
-0.0084899999 0.095504001 -0.2354845
-0.001645 0.095452994 -0.23543
-0.0012942 0.095447004 -0.23542981
-0.0011318333 0.095504165 -0.23538865
-0.0009776667 0.095484667 -0.23537
-0.00073999999 0.095445998 -0.23535299
-0.0105535 0.095610999 -0.235466
-0.010426 0.095606998 -0.23542351
-0.010283 0.095595002 -0.23543684
-0.010138667 0.095612504 -0.23546635
-0.0099034999 0.095651001 -0.2354835
-0.0096425004 0.095639005 -0.235458
