# .PCD v0.7 - Point Cloud Data file format
VERSION 0.7
FIELDS x y z
SIZE 4 4 4
TYPE F F F
COUNT 1 1 1
WIDTH 1549
HEIGHT 1
VIEWPOINT 0 0 0 1 0 0 0
POINTS 1549
DATA ascii
-0.011861 0.110308 -0.234118
-0.011856 0.110388 -0.23415001
-0.011852 0.110467 -0.234173
-0.011847 0.110548 -0.23422401
-0.01184 0.110631 -0.23429599
-0.011836 0.11071 -0.23431601
-0.011832 0.110788 -0.234337
-0.011826 0.110869 -0.234385
-0.011818 0.110956 -0.234492
-0.01277 0.085754 -0.236266
-0.012769 0.085832998 -0.236224
-0.012767 0.08591 -0.236192
-0.012767 0.085988998 -0.236146
-0.012765 0.086066 -0.236118
-0.012763 0.086144 -0.236102
-0.012761 0.086221002 -0.236085
-0.012759 0.086299002 -0.236063
-0.012757 0.086375996 -0.236039
-0.012755 0.086453997 -0.236021
-0.012753 0.086530998 -0.23599701
-0.012752 0.086609997 -0.235937
-0.01275 0.086686999 -0.23592301
-0.012747 0.086763002 -0.235921
-0.012745 0.086841002 -0.235912
-0.012742 0.086916998 -0.235902
-0.01274 0.086993001 -0.23589399
-0.012737 0.087070003 -0.23588599
-0.012735 0.087145999 -0.23587801
-0.012732 0.087223999 -0.235864
-0.012731 0.087301001 -0.23582999
-0.012728 0.087379001 -0.23582099
-0.012726 0.087454997 -0.235817
-0.012723 0.087531 -0.235815
-0.012719 0.087606996 -0.235825
-0.012716 0.087683 -0.235825
-0.012714 0.087759003 -0.23582099
-0.01271 0.087834999 -0.235827
-0.012707 0.087911002 -0.23582999
-0.012705 0.087986998 -0.235826
-0.012701 0.088063002 -0.23582999
-0.012698 0.088138998 -0.235836
-0.012695 0.088215001 -0.235836
-0.012692 0.088290997 -0.235844
-0.012688 0.088367 -0.235854
-0.012685 0.088443004 -0.23585699
-0.012682 0.088519 -0.23586699
-0.012679 0.088593997 -0.235879
-0.012676 0.088671997 -0.235879
-0.012672 0.088745996 -0.23588499
-0.012669 0.088822 -0.235899
-0.012665 0.088898003 -0.235921
-0.012661 0.088973001 -0.23594201
-0.012657 0.089048997 -0.235958
-0.012653 0.089124002 -0.235976
-0.01265 0.089199997 -0.23599
-0.012646 0.089273997 -0.23600601
-0.012642 0.089350998 -0.236026
-0.012639 0.089427002 -0.236026
-0.012637 0.089501999 -0.236011
-0.012635 0.089579999 -0.235999
-0.01263 0.089654997 -0.23604099
-0.012625 0.089730002 -0.236081
-0.012622 0.089805998 -0.236091
-0.012618 0.089882001 -0.236099
-0.012616 0.089957997 -0.236091
-0.012614 0.090034999 -0.236074
-0.012611 0.090111002 -0.236068
-0.012607 0.090186998 -0.236084
-0.012603 0.090262003 -0.236104
-0.012598 0.090338998 -0.23614401
-0.012594 0.090412997 -0.236178
-0.01259 0.090488002 -0.236194
-0.012587 0.090566002 -0.23619799
-0.012584 0.090641998 -0.236193
-0.012582 0.090718001 -0.236191
-0.012578 0.090793997 -0.23619699
-0.012575 0.09087 -0.236203
-0.012572 0.090945996 -0.236205
-0.012568 0.091022 -0.236223
-0.012564 0.091099001 -0.236251
-0.012561 0.091173001 -0.23626199
-0.012558 0.091251001 -0.23625401
-0.012555 0.091326997 -0.23626
-0.012551 0.091403 -0.23627
-0.012548 0.091479003 -0.23627
-0.012545 0.091554999 -0.23627
-0.012543 0.091632999 -0.236256
-0.012541 0.091707997 -0.236249
-0.012537 0.091784999 -0.236261
-0.012534 0.091861002 -0.236259
-0.012531 0.091936998 -0.236259
-0.012528 0.092013001 -0.23627099
-0.012525 0.092088997 -0.236275
-0.012522 0.092166997 -0.236269
-0.012519 0.092243001 -0.236274
-0.012515 0.092318997 -0.236284
-0.012513 0.092395 -0.236276
-0.012511 0.092472002 -0.236258
-0.012508 0.092547998 -0.23626
-0.012504 0.092625 -0.236274
-0.0125 0.092698999 -0.236286
-0.012497 0.092775002 -0.23629101
-0.012495 0.092853002 -0.236277
-0.012492 0.092928 -0.236269
-0.012489 0.093004003 -0.23627301
-0.012486 0.093079999 -0.23627301
-0.012483 0.093157001 -0.236287
-0.012479 0.093232997 -0.236307
-0.012476 0.093309 -0.236301
-0.012473 0.093387 -0.23630001
-0.012469 0.093463004 -0.236316
-0.012466 0.093539 -0.23632599
-0.012464 0.093615003 -0.236302
-0.012463 0.093691997 -0.23626199
-0.01246 0.093768001 -0.236266
-0.012456 0.093845002 -0.236292
-0.012452 0.093920998 -0.236303
-0.012449 0.093997002 -0.236307
-0.012446 0.094072998 -0.23631901
-0.012442 0.094149001 -0.23632701
-0.01244 0.094227001 -0.23630901
-0.012439 0.094301999 -0.236283
-0.012436 0.094379999 -0.236269
-0.012433 0.094456002 -0.23627
-0.01243 0.094531998 -0.23627201
-0.012427 0.094608001 -0.23627
-0.012424 0.094683997 -0.23627201
-0.012421 0.094761997 -0.23627
-0.012419 0.094837002 -0.23626
-0.012417 0.094912998 -0.236246
-0.012414 0.094989002 -0.23624299
-0.012411 0.095064998 -0.236241
-0.012408 0.095142998 -0.236249
-0.012404 0.095216997 -0.236269
-0.012401 0.095294997 -0.23627301
-0.012398 0.095371 -0.236267
-0.012396 0.095446996 -0.23624501
-0.012395 0.095523998 -0.23621599
-0.012391 0.095600002 -0.23621801
-0.012387 0.095677003 -0.236248
-0.012384 0.095752999 -0.23626
-0.012381 0.095829003 -0.236246
-0.012379 0.095904 -0.23623601
-0.012376 0.095980003 -0.23623601
-0.012373 0.096058004 -0.23624299
-0.012369 0.096134998 -0.236257
-0.012366 0.096211001 -0.236259
-0.012363 0.096286997 -0.236257
-0.01236 0.096362002 -0.236251
-0.012358 0.096440002 -0.236237
-0.012356 0.096515998 -0.236223
-0.012354 0.096591003 -0.23621
-0.012351 0.096666999 -0.23621
-0.012347 0.096744001 -0.236224
-0.012344 0.096822001 -0.236228
-0.012341 0.096897997 -0.236232
-0.012337 0.096974 -0.23625
-0.012333 0.097050004 -0.23626199
-0.012331 0.097126 -0.23625401
-0.012328 0.097204 -0.23624501
-0.012325 0.097280003 -0.23625501
-0.012321 0.097355999 -0.236267
-0.012318 0.097433001 -0.236275
-0.012315 0.097507998 -0.236275
-0.012313 0.097584002 -0.236265
-0.01231 0.097662002 -0.236249
-0.012309 0.097736999 -0.236224
-0.012308 0.097811997 -0.236176
-0.012305 0.097888 -0.236168
-0.012301 0.097964004 -0.23618799
-0.012297 0.098043002 -0.23621801
-0.012293 0.098119996 -0.23624399
-0.012289 0.098196 -0.23626
-0.012287 0.098270997 -0.236247
-0.012286 0.098346002 -0.236203
-0.012284 0.098421998 -0.236191
-0.01228 0.098499998 -0.23619901
-0.012277 0.098576002 -0.23619901
-0.012274 0.098651998 -0.236205
-0.012271 0.098728001 -0.23620699
-0.012268 0.098803997 -0.236212
-0.012265 0.098881997 -0.23621
-0.012262 0.098958001 -0.236206
-0.012259 0.099035002 -0.23621801
-0.012255 0.099113002 -0.236222
-0.012253 0.099188 -0.236206
-0.012251 0.099264003 -0.23619799
-0.012248 0.099339999 -0.236195
-0.012245 0.099416003 -0.236201
-0.012242 0.099491999 -0.236201
-0.01224 0.099567004 -0.23618101
-0.012238 0.099642999 -0.236167
-0.012234 0.099721 -0.236177
-0.01223 0.099798001 -0.23619901
-0.012227 0.099876001 -0.23620901
-0.012223 0.099951997 -0.236214
-0.012221 0.100028 -0.236212
-0.012218 0.100104 -0.23620801
-0.012215 0.10018 -0.236206
-0.012212 0.100258 -0.23620801
-0.012209 0.100334 -0.236204
-0.012206 0.100409 -0.23619799
-0.012204 0.100485 -0.236191
-0.012201 0.100561 -0.23618899
-0.012198 0.100639 -0.23619901
-0.012195 0.100715 -0.23619901
-0.012192 0.100791 -0.236183
-0.012191 0.100866 -0.236155
-0.012188 0.100942 -0.236147
-0.012185 0.101018 -0.236154
-0.012182 0.101096 -0.23615199
-0.012179 0.101172 -0.23616201
-0.012175 0.101249 -0.236176
-0.012172 0.101327 -0.236182
-0.01217 0.101402 -0.236158
-0.012168 0.101478 -0.236136
-0.012165 0.101554 -0.236147
-0.012161 0.10163 -0.236157
-0.012158 0.101706 -0.236159
-0.012155 0.101784 -0.236157
-0.012153 0.10186 -0.236145
-0.012151 0.101935 -0.236129
-0.012149 0.10201 -0.236099
-0.012147 0.102086 -0.23607799
-0.012143 0.102162 -0.23609599
-0.012138 0.102241 -0.236138
-0.012134 0.10232 -0.23617201
-0.012131 0.102396 -0.236168
-0.012129 0.102472 -0.236158
-0.012126 0.102547 -0.236148
-0.012124 0.102623 -0.236137
-0.012121 0.102699 -0.236129
-0.012118 0.102777 -0.23613501
-0.012114 0.102853 -0.236145
-0.012112 0.102929 -0.23612501
-0.012111 0.103004 -0.236091
-0.012109 0.10308 -0.236085
-0.012104 0.103158 -0.23611499
-0.012101 0.103234 -0.236122
-0.012098 0.10331 -0.236114
-0.012096 0.103386 -0.23609801
-0.012094 0.103461 -0.23607001
-0.012092 0.103537 -0.236058
-0.012089 0.103613 -0.236058
-0.012087 0.103688 -0.23604099
-0.012085 0.103764 -0.23601501
-0.012083 0.103839 -0.23599499
-0.012081 0.103915 -0.235989
-0.012078 0.103991 -0.23597901
-0.012076 0.104066 -0.235963
-0.012074 0.104142 -0.235946
-0.012072 0.104215 -0.23592199
-0.01207 0.104291 -0.23591
-0.012068 0.104367 -0.2359
-0.012066 0.104442 -0.235872
-0.012065 0.104515 -0.23583899
-0.012063 0.104591 -0.235809
-0.012061 0.104666 -0.23579299
-0.012059 0.104742 -0.235773
-0.012058 0.104815 -0.235741
-0.012056 0.104891 -0.23571999
-0.012054 0.104966 -0.23570199
-0.012052 0.10504 -0.235678
-0.01205 0.105115 -0.235654
-0.012049 0.105188 -0.23562001
-0.012048 0.105261 -0.235577
-0.012047 0.105337 -0.235551
-0.012045 0.105412 -0.23552901
-0.012043 0.105486 -0.23550899
-0.012041 0.105561 -0.235493
-0.012039 0.105635 -0.23547
-0.012038 0.105708 -0.235424
-0.012038 0.105781 -0.235378
-0.012037 0.105853 -0.235328
-0.012036 0.105926 -0.235287
-0.012034 0.106 -0.235265
-0.012034 0.106073 -0.23521499
-0.012034 0.106145 -0.23516101
-0.012033 0.106219 -0.235126
-0.012032 0.106291 -0.23507001
-0.012032 0.106364 -0.23503
-0.01203 0.106438 -0.235008
-0.012028 0.106513 -0.234991
-0.012026 0.106587 -0.234961
-0.012025 0.10666 -0.234925
-0.012024 0.106733 -0.234887
-0.012023 0.106804 -0.234842
-0.012023 0.106877 -0.2348
-0.012022 0.10695 -0.23476
-0.012021 0.107023 -0.234722
-0.012019 0.107096 -0.23469301
-0.012018 0.10717 -0.234653
-0.012017 0.107243 -0.234615
-0.012017 0.107314 -0.234567
-0.012016 0.107387 -0.234534
-0.012014 0.10746 -0.23449799
-0.012013 0.107533 -0.23446999
-0.012011 0.107607 -0.234442
-0.01201 0.10768 -0.234413
-0.012009 0.107753 -0.234377
-0.012008 0.107826 -0.234341
-0.012006 0.107899 -0.234309
-0.012005 0.107973 -0.23427001
-0.012004 0.108046 -0.234246
-0.012002 0.108119 -0.23422401
-0.012 0.108193 -0.23419601
-0.011999 0.108266 -0.23416901
-0.011997 0.10834 -0.234147
-0.011995 0.108413 -0.234125
-0.011994 0.108486 -0.23409501
-0.011992 0.10856 -0.234074
-0.011989 0.108636 -0.23406599
-0.011987 0.108709 -0.234054
-0.011985 0.108783 -0.23403201
-0.011982 0.108859 -0.23403201
-0.011979 0.108937 -0.234042
-0.011976 0.109011 -0.234037
-0.011974 0.109086 -0.234019
-0.011972 0.10916 -0.234009
-0.01197 0.109234 -0.233989
-0.011968 0.109307 -0.23396701
-0.011965 0.109383 -0.23397
-0.011961 0.109461 -0.23398399
-0.011958 0.109537 -0.23399
-0.011955 0.109614 -0.234
-0.011951 0.10969 -0.23401199
-0.011948 0.109766 -0.234014
-0.011945 0.109842 -0.234014
-0.011942 0.109918 -0.23402201
-0.011938 0.109996 -0.234037
-0.011934 0.110075 -0.234065
-0.011929 0.110154 -0.23409501
-0.011924 0.110235 -0.234143
-0.01192 0.110313 -0.23416901
-0.011916 0.110392 -0.234189
-0.011911 0.11047 -0.23421501
-0.011905 0.110553 -0.234275
-0.011899 0.110637 -0.23434301
-0.011895 0.110716 -0.23437101
-0.011891 0.110792 -0.23437899
-0.011888 0.11087 -0.23438901
-0.011877 0.110961 -0.234541
-0.012839 0.086066999 -0.23619699
-0.012838 0.086147003 -0.23615301
-0.012836 0.086222999 -0.23613299
-0.012834 0.086300999 -0.236113
-0.012831 0.086378001 -0.236102
-0.012829 0.086453997 -0.2361
-0.012826 0.08653 -0.23609599
-0.012823 0.086608 -0.23608799
-0.012823 0.086686999 -0.23603401
-0.01282 0.086762004 -0.236026
-0.012817 0.086839996 -0.23602401
-0.012814 0.086916 -0.23602299
-0.012813 0.086994 -0.235999
-0.012811 0.087071002 -0.235967
-0.012809 0.087149002 -0.235953
-0.012806 0.087223999 -0.23594099
-0.012804 0.087301999 -0.235917
-0.012802 0.087379001 -0.235901
-0.0128 0.087454997 -0.235893
-0.012797 0.087532997 -0.235892
-0.012793 0.087606996 -0.235902
-0.01279 0.087683 -0.23590399
-0.012787 0.087759003 -0.23590399
-0.012784 0.087834999 -0.235906
-0.012781 0.087912999 -0.23590399
-0.012778 0.087989002 -0.235906
-0.012776 0.088064998 -0.23590299
-0.012773 0.088141002 -0.235901
-0.01277 0.088216998 -0.235907
-0.012767 0.088293001 -0.235909
-0.012764 0.088368997 -0.235909
-0.012761 0.088446997 -0.235901
-0.012758 0.088523 -0.23589499
-0.012754 0.088597 -0.235916
-0.01275 0.088674001 -0.23594999
-0.012746 0.088748001 -0.235966
-0.012743 0.088823996 -0.23596799
-0.012739 0.088900998 -0.23598801
-0.012734 0.088973001 -0.23603199
-0.01273 0.089050002 -0.236056
-0.012727 0.089125998 -0.23606101
-0.012724 0.089202002 -0.236063
-0.012721 0.089277998 -0.23606899
-0.012717 0.089353003 -0.23608699
-0.012713 0.089428999 -0.23610701
-0.01271 0.089505002 -0.23611701
-0.012707 0.089580998 -0.236121
-0.012703 0.089657001 -0.236132
-0.012699 0.089731999 -0.236154
-0.012696 0.089808002 -0.236168
-0.012693 0.089883998 -0.23617201
-0.01269 0.089960001 -0.236164
-0.012688 0.090037003 -0.23614
-0.012686 0.090115003 -0.236118
-0.012683 0.090190999 -0.23612501
-0.012679 0.090265997 -0.236157
-0.012672 0.090340003 -0.236239
-0.012669 0.090415999 -0.23624501
-0.012665 0.090492003 -0.23625299
-0.012661 0.090567999 -0.23627099
-0.012658 0.090643004 -0.23629101
-0.012654 0.090721004 -0.236304
-0.012651 0.090797 -0.23630799
-0.012648 0.090873003 -0.23629799
-0.012646 0.090948001 -0.236288
-0.012643 0.091026001 -0.236288
-0.012639 0.091103002 -0.23629799
-0.012636 0.091177002 -0.236314
-0.012632 0.091252998 -0.236334
-0.012628 0.091329999 -0.236357
-0.012624 0.091406003 -0.236379
-0.012621 0.091481999 -0.23638099
-0.012619 0.091559999 -0.23635501
-0.012618 0.091635004 -0.236325
-0.012615 0.091712996 -0.236323
-0.012611 0.091787003 -0.236341
-0.012608 0.091865003 -0.236334
-0.012605 0.091940999 -0.236334
-0.012601 0.092017002 -0.236358
-0.012598 0.092093997 -0.236366
-0.012595 0.09217 -0.23636401
-0.012592 0.092244998 -0.236362
-0.01259 0.092321001 -0.23635601
-0.012586 0.092396997 -0.236367
-0.012583 0.092473999 -0.23638099
-0.01258 0.092550002 -0.236377
-0.012577 0.092628002 -0.236377
-0.012574 0.092703 -0.236367
-0.012573 0.092781 -0.236341
-0.01257 0.092857003 -0.23633701
-0.012566 0.092932999 -0.23634601
-0.012563 0.093009003 -0.23634601
-0.01256 0.093084998 -0.236348
-0.012557 0.093161002 -0.23636401
-0.012552 0.093238004 -0.23639201
-0.012549 0.093313999 -0.236394
-0.012547 0.093391001 -0.236376
-0.012544 0.093466997 -0.236376
-0.012541 0.093543999 -0.23639099
-0.012538 0.093618996 -0.236385
-0.012536 0.093696997 -0.236359
-0.012534 0.093773 -0.236353
-0.012531 0.093847997 -0.23634499
-0.012528 0.093924001 -0.236347
-0.012524 0.094002999 -0.236359
-0.012521 0.094079003 -0.236368
-0.012518 0.094154999 -0.236366
-0.012516 0.094230004 -0.236358
-0.012513 0.094306 -0.23635
-0.012511 0.094384 -0.23633599
-0.012509 0.094458997 -0.236314
-0.012506 0.094536997 -0.23630799
-0.012503 0.094613001 -0.236321
-0.012499 0.094690003 -0.23633499
-0.012496 0.094765998 -0.23633701
-0.012494 0.094841003 -0.236321
-0.012491 0.094919004 -0.23631901
-0.012488 0.094994999 -0.236321
-0.012485 0.095071003 -0.236315
-0.012483 0.095146999 -0.23630799
-0.012479 0.095223002 -0.236316
-0.012475 0.095299996 -0.236338
-0.012472 0.095376 -0.23634601
-0.01247 0.095450997 -0.236324
-0.012468 0.095527999 -0.236296
-0.012465 0.095605001 -0.236304
-0.012462 0.095680997 -0.236315
-0.012459 0.095758997 -0.236303
-0.012456 0.095835 -0.236303
-0.012453 0.095911004 -0.23631699
-0.012449 0.095987 -0.236321
-0.012446 0.096063003 -0.236323
-0.012444 0.096138999 -0.236315
-0.012441 0.096213996 -0.23630799
-0.012438 0.096291997 -0.23631001
-0.012434 0.096368998 -0.23632599
-0.012431 0.096445002 -0.23633599
-0.012428 0.096520998 -0.236332
-0.012427 0.096597999 -0.23628999
-0.012425 0.096672997 -0.23627201
-0.012422 0.096749999 -0.236288
-0.012417 0.096826002 -0.236313
-0.012414 0.096901998 -0.23631901
-0.012411 0.096978001 -0.236325
-0.012408 0.097057 -0.23632701
-0.012405 0.097131997 -0.23631901
-0.012403 0.097208001 -0.23630901
-0.0124 0.097283997 -0.236315
-0.012396 0.097360998 -0.23633599
-0.012392 0.097438999 -0.23634601
-0.012389 0.097515002 -0.23634601
-0.012388 0.097589999 -0.23631001
-0.012386 0.097667001 -0.236294
-0.012383 0.097742997 -0.236288
-0.012382 0.097819 -0.236256
-0.012379 0.097893998 -0.236247
-0.012375 0.097971 -0.236277
-0.01237 0.098049998 -0.23630901
-0.012366 0.098126002 -0.23632701
-0.012363 0.098201998 -0.236329
-0.012361 0.098278001 -0.236321
-0.012358 0.098356001 -0.23630901
-0.012356 0.098430999 -0.236293
-0.012354 0.098507002 -0.23628201
-0.012351 0.098582998 -0.236288
-0.012347 0.098659001 -0.236304
-0.012344 0.098737001 -0.23631001
-0.012341 0.098812997 -0.236296
-0.012339 0.098888002 -0.236274
-0.012336 0.098964997 -0.23628201
-0.012332 0.099041 -0.236305
-0.012329 0.099119 -0.236301
-0.012327 0.099195004 -0.236285
-0.012324 0.099270999 -0.236283
-0.012322 0.099345997 -0.236279
-0.012319 0.099422 -0.23626301
-0.012317 0.0995 -0.23625501
-0.012314 0.099575996 -0.236248
-0.012311 0.099651001 -0.23624399
-0.012308 0.099728003 -0.23625
-0.012305 0.099803999 -0.23626199
-0.012301 0.099881999 -0.23627
-0.012298 0.099958003 -0.236274
-0.012295 0.100034 -0.23627999
-0.012292 0.100112 -0.236283
-0.012289 0.100188 -0.236283
-0.012286 0.100264 -0.23628899
-0.012283 0.10034 -0.23628899
-0.012281 0.100416 -0.23627099
-0.012278 0.100493 -0.23625299
-0.012275 0.100569 -0.23625501
-0.012272 0.100646 -0.236268
-0.012269 0.100722 -0.23627
-0.012267 0.100797 -0.23625
-0.012266 0.100872 -0.23620801
-0.012263 0.100948 -0.236204
-0.012259 0.101026 -0.236222
-0.012256 0.101102 -0.23622601
-0.012254 0.101178 -0.236221
-0.012251 0.101256 -0.236211
-0.012247 0.101332 -0.23622499
-0.012243 0.101411 -0.23624299
-0.012241 0.101486 -0.236229
-0.012237 0.101563 -0.23624501
-0.012234 0.101639 -0.236247
-0.012232 0.101714 -0.236241
-0.012229 0.101792 -0.23623601
-0.012227 0.101868 -0.23622601
-0.012224 0.101944 -0.23621599
-0.012222 0.102019 -0.236202
-0.01222 0.102095 -0.23616999
-0.012218 0.10217 -0.23616201
-0.012214 0.102249 -0.23619001
-0.012209 0.102326 -0.236221
-0.012206 0.102404 -0.23622701
-0.012203 0.10248 -0.236231
-0.0122 0.102558 -0.236229
-0.012198 0.102631 -0.236213
-0.012195 0.102709 -0.236211
-0.012192 0.102785 -0.236213
-0.012189 0.102861 -0.2362
-0.012188 0.102936 -0.236178
-0.012186 0.103012 -0.236156
-0.012183 0.103088 -0.23614401
-0.012179 0.103166 -0.23616999
-0.012176 0.103242 -0.236178
-0.012174 0.103318 -0.23616
-0.012171 0.103394 -0.236157
-0.012168 0.10347 -0.23615301
-0.012165 0.103548 -0.236147
-0.012163 0.103621 -0.23613299
-0.012161 0.103697 -0.236109
-0.01216 0.103772 -0.236085
-0.012157 0.103848 -0.236074
-0.012155 0.103924 -0.236066
-0.012152 0.103999 -0.23606201
-0.01215 0.104075 -0.236036
-0.012149 0.10415 -0.23600601
-0.012146 0.104226 -0.235992
-0.012144 0.104302 -0.235985
-0.012143 0.104375 -0.23594899
-0.012142 0.10445 -0.235907
-0.01214 0.104523 -0.23588701
-0.012138 0.104599 -0.235873
-0.012136 0.104674 -0.235854
-0.012134 0.10475 -0.235838
-0.012131 0.104826 -0.235824
-0.012129 0.104901 -0.23580199
-0.012128 0.104974 -0.235774
-0.012127 0.10505 -0.23573899
-0.012125 0.105123 -0.23571099
-0.012124 0.105198 -0.23567501
-0.012123 0.105271 -0.23563901
-0.012121 0.105345 -0.235613
-0.012118 0.105423 -0.235616
-0.012116 0.105496 -0.235604
-0.012114 0.105572 -0.23558
-0.012113 0.105645 -0.23553599
-0.012113 0.105718 -0.23548301
-0.012112 0.105791 -0.23544499
-0.01211 0.105864 -0.23541699
-0.012109 0.105939 -0.235387
-0.012108 0.106012 -0.235349
-0.012107 0.106086 -0.235314
-0.012108 0.106156 -0.23523401
-0.012107 0.106229 -0.23519599
-0.012106 0.106302 -0.235153
-0.012106 0.106373 -0.23509701
-0.012104 0.106448 -0.235073
-0.012102 0.106522 -0.235061
-0.0121 0.106597 -0.235043
-0.012099 0.10667 -0.23501
-0.012098 0.106743 -0.23496801
-0.012097 0.106814 -0.234918
-0.012097 0.106887 -0.23486701
-0.012096 0.10696 -0.23482101
-0.012095 0.107033 -0.234797
-0.012094 0.107107 -0.234759
-0.012094 0.107177 -0.23470201
-0.012093 0.10725 -0.23465
-0.012092 0.107323 -0.234614
-0.01209 0.107397 -0.234588
-0.012089 0.10747 -0.23456299
-0.012088 0.107543 -0.234525
-0.012087 0.107616 -0.234483
-0.012085 0.10769 -0.234457
-0.012084 0.107763 -0.234428
-0.012083 0.107834 -0.23438799
-0.012082 0.107907 -0.234354
-0.01208 0.10798 -0.234326
-0.012079 0.108054 -0.234303
-0.012077 0.108129 -0.234277
-0.012075 0.108203 -0.234257
-0.012073 0.108276 -0.234235
-0.012072 0.10835 -0.234203
-0.01207 0.108423 -0.234182
-0.012069 0.108496 -0.234154
-0.012067 0.10857 -0.234124
-0.012065 0.108643 -0.23411
-0.012062 0.108719 -0.234109
-0.012059 0.108795 -0.234111
-0.012056 0.108871 -0.234109
-0.012053 0.108947 -0.234109
-0.01205 0.109023 -0.234111
-0.012048 0.109097 -0.234099
-0.012046 0.10917 -0.234078
-0.012044 0.109246 -0.234062
-0.012041 0.109322 -0.23406
-0.012038 0.109396 -0.234062
-0.012035 0.109474 -0.23406801
-0.012032 0.10955 -0.23407
-0.012029 0.109626 -0.23406599
-0.012026 0.1097 -0.234063
-0.012023 0.109776 -0.234069
-0.012019 0.109854 -0.234081
-0.012016 0.10993 -0.23409501
-0.012011 0.110011 -0.234125
-0.012006 0.11009 -0.23416901
-0.012002 0.110168 -0.234189
-0.011998 0.110247 -0.234217
-0.011993 0.110326 -0.23425101
-0.011989 0.110406 -0.234277
-0.011984 0.110485 -0.23430499
-0.011977 0.110569 -0.234387
-0.011971 0.110652 -0.23444501
-0.011967 0.11073 -0.234469
-0.011964 0.110806 -0.23447099
-0.011961 0.110883 -0.234475
-0.012926 0.086143002 -0.236278
-0.012923 0.086218998 -0.23627301
-0.012922 0.086377002 -0.236183
-0.012919 0.086452998 -0.23618101
-0.012916 0.086529002 -0.236185
-0.012912 0.086684003 -0.236145
-0.012909 0.086762004 -0.236131
-0.012906 0.086838 -0.23613
-0.012904 0.086914003 -0.23612601
-0.012901 0.086990997 -0.236112
-0.012899 0.087068997 -0.23608799
-0.012897 0.087144002 -0.236076
-0.012895 0.087222002 -0.23605999
-0.012893 0.087298997 -0.23603199
-0.01289 0.087376997 -0.236027
-0.012889 0.087453999 -0.235999
-0.012886 0.087530002 -0.235989
-0.012883 0.087605998 -0.236001
-0.012879 0.087683 -0.236013
-0.012876 0.087759003 -0.236017
-0.012873 0.087834999 -0.236013
-0.012871 0.087909997 -0.23600601
-0.012868 0.087987997 -0.235992
-0.012866 0.088065997 -0.23598
-0.012863 0.088142 -0.235974
-0.01286 0.088218004 -0.235972
-0.012857 0.088293999 -0.235976
-0.012854 0.088370003 -0.23599
-0.012851 0.088445999 -0.23599499
-0.012848 0.088522002 -0.23599701
-0.012844 0.088596001 -0.236011
-0.01284 0.088673003 -0.236035
-0.012837 0.088748999 -0.23604301
-0.012833 0.088825002 -0.236059
-0.012828 0.0889 -0.236093
-0.012824 0.088973999 -0.236118
-0.012821 0.089051001 -0.23613
-0.012818 0.089126997 -0.236136
-0.012815 0.089203 -0.23613
-0.012811 0.089279003 -0.23614199
-0.012807 0.089354001 -0.23617201
-0.012803 0.089429997 -0.23618799
-0.0128 0.089506 -0.23618899
-0.012797 0.089582004 -0.23619901
-0.012793 0.089657001 -0.23622499
-0.012789 0.089732997 -0.236237
-0.012786 0.089809 -0.236249
-0.012782 0.089884996 -0.236259
-0.012779 0.089961 -0.236259
-0.012778 0.090038002 -0.23622499
-0.012775 0.090113997 -0.23622
-0.012772 0.090190001 -0.236222
-0.012764 0.090263002 -0.236338
-0.01276 0.090338998 -0.23635399
-0.012757 0.090415001 -0.236358
-0.012753 0.090492003 -0.23637401
-0.01275 0.090567999 -0.236376
-0.012747 0.090644002 -0.23638099
-0.012744 0.090722002 -0.23639099
-0.012741 0.090796001 -0.23639899
-0.012737 0.090871997 -0.236407
-0.012734 0.090949997 -0.23641101
-0.012732 0.091026001 -0.236395
-0.012729 0.091104001 -0.236395
-0.012725 0.091178 -0.23642001
-0.012721 0.091255002 -0.23643801
-0.012718 0.091329999 -0.23642799
-0.012716 0.091407999 -0.236416
-0.012713 0.091484003 -0.236414
-0.01271 0.091559999 -0.236416
-0.012707 0.091636002 -0.236424
-0.012702 0.091712996 -0.23645601
-0.0127 0.091789998 -0.236435
-0.012699 0.091867998 -0.236405
-0.012696 0.091944002 -0.23640899
-0.012692 0.092018001 -0.236433
-0.012688 0.092095003 -0.236449
-0.012685 0.092170998 -0.236451
-0.012682 0.092248 -0.236449
-0.012679 0.092324004 -0.236452
-0.012676 0.092399999 -0.23645
-0.012673 0.092476003 -0.236444
-0.01267 0.092551999 -0.236444
-0.012667 0.092629999 -0.236454
-0.012664 0.092706002 -0.236458
-0.012662 0.092781998 -0.236444
-0.012659 0.092858002 -0.236441
-0.012655 0.092935003 -0.236469
-0.012651 0.093010999 -0.23647501
-0.012648 0.093087003 -0.236479
-0.012645 0.093162999 -0.236485
-0.012642 0.093240999 -0.23649099
-0.012639 0.093317002 -0.236481
-0.012637 0.093392 -0.236469
-0.012634 0.09347 -0.23646399
-0.012631 0.093546003 -0.236462
-0.012629 0.093621999 -0.236454
-0.012627 0.093699001 -0.236434
-0.012624 0.093774997 -0.23641799
-0.012622 0.093851 -0.236416
-0.012618 0.093927003 -0.23643801
-0.012613 0.094003998 -0.236471
-0.01261 0.094080001 -0.236477
-0.012607 0.094158001 -0.23648299
-0.012604 0.094233997 -0.23646501
-0.012603 0.094309002 -0.236441
-0.012601 0.094387002 -0.23641101
-0.012599 0.094462 -0.23638301
-0.012596 0.09454 -0.236386
-0.012593 0.094616003 -0.236402
-0.012589 0.094692998 -0.236422
-0.012586 0.094769001 -0.236426
-0.012584 0.094843999 -0.236404
-0.012581 0.094921999 -0.236404
-0.012578 0.094998002 -0.236398
-0.012576 0.095073998 -0.236385
-0.012573 0.095151 -0.236375
-0.01257 0.095228001 -0.23638099
-0.012565 0.095303997 -0.236417
-0.012561 0.095379002 -0.236443
-0.01256 0.095455997 -0.236407
-0.012559 0.095532998 -0.236371
-0.012555 0.095608003 -0.236398
-0.012551 0.095686004 -0.236408
-0.012548 0.095761999 -0.236402
-0.012545 0.095838003 -0.236408
-0.012542 0.095913999 -0.236404
-0.012539 0.095990002 -0.236404
-0.012536 0.096068002 -0.236416
-0.012533 0.096143998 -0.236414
-0.012531 0.096220002 -0.236405
-0.012528 0.096295998 -0.236403
-0.012525 0.096372001 -0.236407
-0.012521 0.096450001 -0.236425
-0.012517 0.096525997 -0.236439
-0.012515 0.096602 -0.236423
-0.012513 0.096679002 -0.236393
-0.01251 0.096754998 -0.236394
-0.012506 0.096832 -0.23642001
-0.012503 0.096908003 -0.23642799
-0.0125 0.096983999 -0.236422
-0.012497 0.097061999 -0.23642001
-0.012494 0.097138003 -0.23642001
-0.012492 0.097213 -0.236404
-0.012489 0.097289003 -0.236405
-0.012486 0.097364999 -0.236415
-0.012483 0.097442999 -0.23641901
-0.01248 0.097519003 -0.236417
-0.012478 0.097594999 -0.236393
-0.012476 0.097669996 -0.23638099
-0.012472 0.097749002 -0.23639899
-0.012468 0.097824998 -0.236403
-0.012467 0.097900003 -0.236384
-0.012463 0.097979002 -0.236394
-0.012459 0.098054998 -0.236406
-0.012456 0.098131001 -0.236422
-0.012453 0.098206997 -0.236426
-0.012451 0.098283 -0.236402
-0.012449 0.098360002 -0.236376
-0.012447 0.098435998 -0.236367
-0.012445 0.098511003 -0.23634499
-0.012443 0.098586999 -0.23632701
-0.012439 0.098663002 -0.23633499
-0.012434 0.098742001 -0.236375
-0.012431 0.098817997 -0.236393
-0.012429 0.098894 -0.236371
-0.012425 0.098972 -0.236388
-0.01242 0.099049002 -0.236422
-0.012419 0.099123999 -0.236398
-0.012417 0.099200003 -0.236376
-0.012414 0.099275999 -0.236378
-0.012411 0.099353999 -0.236378
-0.012408 0.099428996 -0.236368
-0.012406 0.099505 -0.236347
-0.012404 0.099579997 -0.236329
-0.012401 0.099656001 -0.236323
-0.012398 0.099734999 -0.23633499
-0.012394 0.099811003 -0.236357
-0.01239 0.099889003 -0.236369
-0.012387 0.099964999 -0.236367
-0.012384 0.100041 -0.23637301
-0.012381 0.100117 -0.236386
-0.012378 0.100195 -0.236386
-0.012375 0.100271 -0.23638
-0.012372 0.100347 -0.23637199
-0.012371 0.100422 -0.236342
-0.012369 0.100498 -0.23632801
-0.012364 0.100577 -0.23635399
-0.012361 0.100653 -0.236357
-0.012359 0.100728 -0.23633499
-0.012357 0.100804 -0.236321
-0.012355 0.100879 -0.236303
-0.012352 0.100955 -0.236301
-0.012349 0.101033 -0.236311
-0.012346 0.101109 -0.23630901
-0.012343 0.101185 -0.236314
-0.012339 0.101264 -0.23632599
-0.012336 0.10134 -0.236332
-0.012333 0.101418 -0.23633599
-0.01233 0.101494 -0.236334
-0.012326 0.10157 -0.23634399
-0.012324 0.101648 -0.236332
-0.012322 0.101721 -0.236321
-0.01232 0.101799 -0.236297
-0.012318 0.101874 -0.23628099
-0.012314 0.101951 -0.236293
-0.01231 0.102029 -0.236311
-0.012308 0.102105 -0.236297
-0.012306 0.10218 -0.236275
-0.012302 0.102257 -0.23629899
-0.012298 0.102335 -0.236324
-0.012295 0.102411 -0.236324
-0.012292 0.102489 -0.23632801
-0.012289 0.102565 -0.236332
-0.012286 0.102641 -0.236332
-0.012283 0.102717 -0.23633
-0.01228 0.102795 -0.23632599
-0.012278 0.102871 -0.236315
-0.012276 0.102946 -0.236297
-0.012273 0.103022 -0.236285
-0.01227 0.103098 -0.23628099
-0.012268 0.103174 -0.23627099
-0.012266 0.103249 -0.236249
-0.012264 0.103325 -0.23623499
-0.012261 0.103403 -0.23623601
-0.012258 0.103479 -0.23623399
-0.012255 0.103554 -0.23623
-0.012253 0.10363 -0.236224
-0.012251 0.103706 -0.2362
-0.01225 0.103781 -0.236158
-0.012248 0.103854 -0.23614299
-0.012244 0.103932 -0.236149
-0.012242 0.104008 -0.23613299
-0.012241 0.104081 -0.236093
-0.012239 0.104157 -0.236073
-0.012237 0.104232 -0.236068
-0.012234 0.10431 -0.23605999
-0.012233 0.104384 -0.23603
-0.012232 0.104459 -0.23599
-0.01223 0.104532 -0.23596799
-0.012228 0.104608 -0.235948
-0.012226 0.104683 -0.235935
-0.012223 0.104759 -0.235927
-0.012221 0.104834 -0.23590299
-0.01222 0.104907 -0.23585901
-0.012219 0.104983 -0.235835
-0.012216 0.105059 -0.23582201
-0.012214 0.105132 -0.235806
-0.012211 0.10521 -0.23580199
-0.012209 0.105286 -0.23579399
-0.012208 0.105359 -0.23575
-0.012207 0.105432 -0.235705
-0.012206 0.105505 -0.23567501
-0.012204 0.105581 -0.23565499
-0.012203 0.105654 -0.235623
-0.012203 0.105726 -0.235558
-0.012202 0.105799 -0.23552001
-0.012199 0.105875 -0.235512
-0.012199 0.105948 -0.23547199
-0.012197 0.106022 -0.23545
-0.012195 0.106097 -0.23541699
-0.012195 0.10617 -0.235375
-0.012193 0.106243 -0.235347
-0.012195 0.106313 -0.235257
-0.012194 0.106384 -0.23520599
-0.012192 0.10646 -0.235194
-0.012191 0.106533 -0.235158
-0.01219 0.106606 -0.235112
-0.012189 0.106679 -0.235083
-0.012188 0.106752 -0.23504101
-0.012187 0.106825 -0.23499499
-0.012187 0.106896 -0.23494799
-0.012187 0.106969 -0.234888
-0.012185 0.107042 -0.234862
-0.012183 0.107115 -0.23483799
-0.012183 0.107188 -0.234787
-0.012182 0.107261 -0.234745
-0.012181 0.107332 -0.23470899
-0.01218 0.107406 -0.234671
-0.012179 0.107479 -0.234642
-0.012177 0.107552 -0.23461001
-0.012177 0.107625 -0.234566
-0.012175 0.107698 -0.234542
-0.012173 0.107774 -0.23451699
-0.012172 0.107845 -0.234485
-0.01217 0.107918 -0.234457
-0.012169 0.107994 -0.23442499
-0.012168 0.108065 -0.23439001
-0.012167 0.108138 -0.23435
-0.012166 0.108211 -0.23431399
-0.012165 0.108282 -0.234282
-0.012163 0.108358 -0.234256
-0.012161 0.108431 -0.234235
-0.012159 0.108505 -0.234221
-0.012157 0.108578 -0.234201
-0.012155 0.108654 -0.234189
-0.012151 0.10873 -0.23419701
-0.012148 0.108806 -0.23421
-0.012145 0.108884 -0.23421
-0.012143 0.108958 -0.234194
-0.012141 0.109031 -0.23416799
-0.012138 0.109107 -0.234166
-0.012135 0.109183 -0.23417
-0.012133 0.109257 -0.234157
-0.012131 0.109333 -0.234143
-0.012128 0.109407 -0.234147
-0.012124 0.109485 -0.234153
-0.012121 0.109561 -0.234161
-0.012118 0.109637 -0.234165
-0.012115 0.109713 -0.234166
-0.012112 0.109789 -0.234172
-0.012108 0.109867 -0.23418599
-0.012104 0.109944 -0.2342
-0.012101 0.110022 -0.23421399
-0.012097 0.110098 -0.23423
-0.012093 0.110177 -0.234256
-0.012087 0.11026 -0.234304
-0.012082 0.110339 -0.23434199
-0.012078 0.110417 -0.23436201
-0.012073 0.110498 -0.23440599
-0.012064 0.110587 -0.23452599
-0.01206 0.110665 -0.23454399
-0.012057 0.110741 -0.234556
-0.012053 0.11082 -0.23457199
-0.012048 0.110901 -0.234614
-0.013005 0.086450003 -0.236307
-0.013002 0.086525999 -0.236315
-0.012996 0.086759001 -0.236247
-0.012993 0.086837001 -0.236247
-0.01299 0.086912997 -0.23624399
-0.012987 0.086989 -0.23624399
-0.012978 0.087375998 -0.236122
-0.012976 0.087453 -0.2361
-0.012966 0.087682001 -0.236129
-0.012963 0.087757997 -0.236129
-0.01296 0.087834001 -0.236131
-0.012957 0.087912001 -0.23612501
-0.012955 0.087986998 -0.236105
-0.012954 0.088065997 -0.236068
-0.012953 0.088142999 -0.23603199
-0.01295 0.088219002 -0.236022
-0.012946 0.088296004 -0.236046
-0.01294 0.088368997 -0.236114
-0.012937 0.088445 -0.23611
-0.012934 0.088521004 -0.23611601
-0.01293 0.088597 -0.236129
-0.012927 0.088673003 -0.236139
-0.012924 0.088748999 -0.236131
-0.012921 0.088825002 -0.23613299
-0.012917 0.088901997 -0.236155
-0.012913 0.088977002 -0.236195
-0.012909 0.089052998 -0.236203
-0.012907 0.089128003 -0.23618799
-0.012904 0.089206003 -0.236184
-0.012901 0.089281 -0.2362
-0.012896 0.089354999 -0.23624
-0.012893 0.089431003 -0.236242
-0.01289 0.089506999 -0.23623601
-0.012887 0.089584999 -0.23624399
-0.012882 0.089659996 -0.236284
-0.012877 0.089732997 -0.236331
-0.012873 0.089809999 -0.236347
-0.012869 0.089886002 -0.23636299
-0.012866 0.089961998 -0.236377
-0.012855 0.090189002 -0.23642901
-0.012852 0.090264998 -0.23642799
-0.012849 0.090342999 -0.23642799
-0.012845 0.090419002 -0.23643599
-0.012842 0.090493999 -0.23645601
-0.012838 0.090570003 -0.236468
-0.012836 0.090648003 -0.23645601
-0.012833 0.090724997 -0.23643801
-0.01283 0.090800002 -0.236449
-0.012826 0.090875998 -0.236479
-0.012822 0.090953 -0.236499
-0.01282 0.091027997 -0.23647501
-0.012817 0.091105998 -0.236481
-0.012812 0.091181003 -0.236509
-0.012809 0.091256998 -0.236517
-0.012807 0.091334999 -0.236507
-0.012804 0.091411002 -0.236506
-0.012801 0.091486 -0.236504
-0.012798 0.091564 -0.236504
-0.012794 0.091638997 -0.236518
-0.01279 0.091715001 -0.23654
-0.012788 0.091793001 -0.23653001
-0.012786 0.091870002 -0.23649999
-0.012783 0.091945998 -0.23650301
-0.012779 0.092021003 -0.236527
-0.012776 0.092099003 -0.23652899
-0.012773 0.092174999 -0.236533
-0.01277 0.092251003 -0.236535
-0.012768 0.092327997 -0.236517
-0.012765 0.092404 -0.236515
-0.012762 0.092479996 -0.236523
-0.012759 0.092556 -0.236524
-0.012755 0.092633002 -0.23653001
-0.012751 0.092708997 -0.236552
-0.012747 0.092785001 -0.236572
-0.012745 0.092863001 -0.236552
-0.012743 0.092938997 -0.236544
-0.01274 0.093015 -0.23655
-0.012736 0.093091004 -0.236573
-0.012733 0.093167 -0.23657501
-0.012729 0.093243003 -0.236579
-0.012726 0.093318999 -0.236581
-0.012724 0.093396999 -0.236577
-0.012721 0.093473002 -0.236573
-0.012718 0.093548998 -0.23656701
-0.012715 0.093626998 -0.23656
-0.012713 0.093703002 -0.23655801
-0.012711 0.093780003 -0.236526
-0.012709 0.093855999 -0.236516
-0.012705 0.093932003 -0.236522
-0.012701 0.094007999 -0.236544
-0.012697 0.094085 -0.236578
-0.012694 0.094160996 -0.236578
-0.012692 0.094237998 -0.236555
-0.012689 0.094314002 -0.236553
-0.012686 0.094389997 -0.236549
-0.012687 0.094466999 -0.236479
-0.012685 0.094544001 -0.23645499
-0.012681 0.094619997 -0.236469
-0.012677 0.094696999 -0.236489
-0.012675 0.094774 -0.236476
-0.012673 0.094850004 -0.236452
-0.012669 0.094926 -0.236476
-0.012665 0.095003001 -0.236496
-0.012664 0.095077999 -0.23646
-0.012661 0.095155999 -0.23646
-0.012656 0.095230997 -0.236504
-0.012653 0.095308997 -0.23651101
-0.01265 0.095385 -0.236507
-0.012647 0.095461003 -0.23650099
-0.012645 0.095537998 -0.23649301
-0.012643 0.095614001 -0.236471
-0.012641 0.095688999 -0.23645499
-0.012637 0.095766 -0.236463
-0.012633 0.095841996 -0.236496
-0.012631 0.095919997 -0.236478
-0.012628 0.095996 -0.236468
-0.012624 0.096072003 -0.236494
-0.01262 0.096148998 -0.236526
-0.012617 0.096225001 -0.236514
-0.012615 0.096302003 -0.236488
-0.012613 0.096377999 -0.236476
-0.01261 0.096455999 -0.236479
-0.012607 0.096532002 -0.236485
-0.012604 0.096607 -0.23647299
-0.012601 0.096684001 -0.236479
-0.012597 0.096759997 -0.23650099
-0.012593 0.096837997 -0.236523
-0.01259 0.096914999 -0.23652899
-0.012587 0.096989997 -0.23652001
-0.012585 0.097066 -0.236514
-0.012582 0.097142003 -0.23651201
-0.012579 0.097220004 -0.236504
-0.012577 0.097296 -0.23649
-0.012575 0.097370997 -0.236476
-0.012571 0.097448997 -0.23649
-0.012568 0.097525999 -0.23649999
-0.012565 0.097600996 -0.23649099
-0.012561 0.097677998 -0.236509
-0.012557 0.097754002 -0.236531
-0.012555 0.097832002 -0.236523
-0.012552 0.097907998 -0.236515
-0.01255 0.097985998 -0.236505
-0.012546 0.098062001 -0.236507
-0.012543 0.098137997 -0.23650999
-0.012541 0.098213002 -0.236506
-0.012538 0.098288998 -0.23649199
-0.012536 0.098366998 -0.236472
-0.012534 0.098442003 -0.236462
-0.012532 0.098517999 -0.23644
-0.012532 0.098592997 -0.236389
-0.012529 0.098669 -0.236387
-0.012524 0.098747998 -0.236431
-0.012518 0.098825 -0.236477
-0.012516 0.098899998 -0.236471
-0.012512 0.098978996 -0.236481
-0.012509 0.099055 -0.236497
-0.012505 0.099133 -0.236499
-0.012503 0.099209003 -0.23649301
-0.0125 0.099284999 -0.23649
-0.012497 0.099361002 -0.236488
-0.012495 0.099436 -0.23648199
-0.012493 0.099514 -0.23645601
-0.012491 0.099588998 -0.23643
-0.012489 0.099665001 -0.236406
-0.012487 0.099739999 -0.23640101
-0.012483 0.099817 -0.236421
-0.012479 0.099895 -0.236433
-0.012476 0.099970996 -0.236435
-0.012473 0.100047 -0.236431
-0.01247 0.100125 -0.23642699
-0.012467 0.100201 -0.236441
-0.012463 0.100279 -0.236459
-0.01246 0.100355 -0.236454
-0.012458 0.100431 -0.23643599
-0.012456 0.100507 -0.23642799
-0.012453 0.100583 -0.23642799
-0.01245 0.10066 -0.236414
-0.012448 0.100736 -0.236408
-0.012444 0.100812 -0.236416
-0.012441 0.10089 -0.23641901
-0.012437 0.100967 -0.23643699
-0.012434 0.101043 -0.236443
-0.012433 0.101118 -0.236407
-0.012431 0.101193 -0.236379
-0.012429 0.101271 -0.236377
-0.012425 0.101347 -0.236379
-0.012422 0.101423 -0.236394
-0.012418 0.101502 -0.23641799
-0.012415 0.101578 -0.236422
-0.012412 0.101656 -0.236414
-0.012409 0.101732 -0.236404
-0.012408 0.101807 -0.23638
-0.012406 0.101883 -0.236362
-0.012402 0.101959 -0.236376
-0.012399 0.102037 -0.236377
-0.012398 0.10211 -0.236339
-0.012395 0.102188 -0.236333
-0.012391 0.102265 -0.236367
-0.012386 0.102343 -0.23640899
-0.012382 0.102422 -0.236421
-0.012379 0.102498 -0.236425
-0.012376 0.102576 -0.236423
-0.012374 0.102651 -0.23641001
-0.012371 0.102725 -0.236398
-0.012369 0.102803 -0.23639201
-0.012366 0.102879 -0.23638999
-0.012364 0.102954 -0.23637401
-0.012361 0.10303 -0.236358
-0.012358 0.103106 -0.236361
-0.012355 0.103184 -0.23636501
-0.012354 0.103259 -0.23633701
-0.012352 0.103335 -0.236315
-0.012349 0.103411 -0.23630901
-0.012346 0.103487 -0.236315
-0.012343 0.103565 -0.236305
-0.012341 0.103638 -0.236284
-0.01234 0.103713 -0.236256
-0.012338 0.103789 -0.23623601
-0.012335 0.103865 -0.23622601
-0.012332 0.103943 -0.23624
-0.012331 0.104016 -0.236204
-0.01233 0.104091 -0.236157
-0.012327 0.104167 -0.23615301
-0.012324 0.104243 -0.236157
-0.012321 0.104321 -0.236167
-0.012319 0.104394 -0.236141
-0.012319 0.104469 -0.23607799
-0.012319 0.10454 -0.236018
-0.012317 0.104615 -0.235994
-0.012313 0.104693 -0.23601399
-0.01231 0.10477 -0.23603
-0.012308 0.104845 -0.236002
-0.012308 0.104918 -0.235945
-0.012307 0.104991 -0.23590501
-0.012305 0.105066 -0.23588701
-0.012302 0.105142 -0.235879
-0.0123 0.105218 -0.235875
-0.012298 0.105294 -0.235854
-0.012296 0.105367 -0.235824
-0.012295 0.105442 -0.23578399
-0.012294 0.105515 -0.23575599
-0.012292 0.105591 -0.23574001
-0.01229 0.105666 -0.23571301
-0.01229 0.105737 -0.23566499
-0.012289 0.10581 -0.235617
-0.012288 0.105885 -0.235581
-0.012286 0.105959 -0.23556
-0.012284 0.106034 -0.235532
-0.012285 0.106104 -0.23546
-0.012284 0.106178 -0.23542801
-0.012281 0.106253 -0.23542701
-0.01228 0.106327 -0.235387
-0.012279 0.1064 -0.23535299
-0.01228 0.10647 -0.235275
-0.012279 0.106543 -0.23523401
-0.012277 0.106616 -0.23520599
-0.012277 0.106689 -0.23515999
-0.012277 0.106762 -0.235102
-0.012276 0.106833 -0.235061
-0.012274 0.106908 -0.23504101
-0.012274 0.106979 -0.234979
-0.012273 0.107052 -0.234946
-0.01227 0.107128 -0.234944
-0.01227 0.107201 -0.234888
-0.012271 0.107271 -0.23481201
-0.01227 0.107342 -0.234771
-0.012269 0.107415 -0.234731
-0.012268 0.107489 -0.23470099
-0.012267 0.107562 -0.234657
-0.012265 0.107635 -0.234626
-0.012263 0.107708 -0.23460799
-0.012262 0.107784 -0.234584
-0.01226 0.107857 -0.234556
-0.012258 0.107931 -0.234534
-0.012257 0.108004 -0.234501
-0.012257 0.108075 -0.234455
-0.012255 0.10815 -0.234431
-0.012253 0.108224 -0.234411
-0.012251 0.108297 -0.23438799
-0.01225 0.10837 -0.23435
-0.012249 0.108442 -0.23432
-0.012247 0.108517 -0.23429
-0.012246 0.108588 -0.23425101
-0.012245 0.108661 -0.234231
-0.012241 0.108738 -0.234237
-0.012237 0.108816 -0.234257
-0.012234 0.108892 -0.234257
-0.012232 0.108968 -0.234253
-0.012229 0.109044 -0.234254
-0.012226 0.109118 -0.234244
-0.012224 0.109193 -0.23423
-0.012221 0.109269 -0.23422401
-0.012219 0.109343 -0.234216
-0.012216 0.109419 -0.234212
-0.012213 0.109495 -0.234225
-0.012209 0.109573 -0.234235
-0.012206 0.109649 -0.23424301
-0.012202 0.109725 -0.234255
-0.012199 0.109802 -0.23426101
-0.012196 0.10988 -0.234267
-0.012193 0.109956 -0.234271
-0.012188 0.110034 -0.234293
-0.012184 0.110113 -0.23431499
-0.01218 0.110191 -0.234345
-0.012175 0.110272 -0.234393
-0.01217 0.110351 -0.23443
-0.012165 0.110432 -0.234466
-0.01216 0.110513 -0.23451
-0.012152 0.110599 -0.23460899
-0.012147 0.11068 -0.234643
-0.012143 0.110756 -0.234659
-0.012139 0.110837 -0.23468301
-0.013081 0.086686 -0.236312
-0.013078 0.086762004 -0.236316
-0.013074 0.086836003 -0.236338
-0.013061 0.087300003 -0.236237
-0.013058 0.087378003 -0.236229
-0.013056 0.087453 -0.236219
-0.013053 0.087531 -0.23621701
-0.01305 0.087606996 -0.236215
-0.013048 0.087683 -0.23620901
-0.013044 0.087759003 -0.23621599
-0.013041 0.087834999 -0.23622601
-0.013038 0.087912999 -0.236214
-0.013036 0.087989002 -0.2362
-0.013034 0.088065997 -0.23619001
-0.013032 0.088143997 -0.23616
-0.013029 0.08822 -0.236164
-0.013024 0.088293999 -0.23619699
-0.013021 0.088371001 -0.236201
-0.013018 0.088446997 -0.236205
-0.013014 0.088523 -0.236229
-0.01301 0.088597 -0.23624501
-0.013008 0.088675 -0.236229
-0.013006 0.088753 -0.236219
-0.013002 0.088829003 -0.23622701
-0.012998 0.088904001 -0.236256
-0.012995 0.088979997 -0.236266
-0.012992 0.089055002 -0.236258
-0.012989 0.089130998 -0.236256
-0.012986 0.089207999 -0.236266
-0.012982 0.089284003 -0.236276
-0.012979 0.089359999 -0.23628201
-0.012976 0.089436002 -0.23629101
-0.012973 0.089511998 -0.236297
-0.012969 0.089588001 -0.236313
-0.012962 0.089662001 -0.236395
-0.012958 0.089736998 -0.23642699
-0.012954 0.089813001 -0.236443
-0.012951 0.089888997 -0.23644701
-0.012948 0.089965001 -0.236454
-0.012936 0.090193003 -0.236522
-0.012933 0.090268999 -0.236524
-0.01293 0.090345003 -0.236526
-0.012927 0.090420999 -0.236524
-0.012924 0.090498999 -0.236516
-0.012921 0.090575002 -0.236525
-0.012918 0.090650998 -0.236527
-0.012916 0.090728 -0.236495
-0.012914 0.090806 -0.236481
-0.012909 0.090880997 -0.236523
-0.012901 0.090954997 -0.236623
-0.012898 0.091031 -0.236625
-0.012895 0.091107003 -0.236632
-0.012892 0.091185004 -0.236632
-0.01289 0.091260001 -0.23661201
-0.012874 0.091642998 -0.236632
-0.012872 0.091720998 -0.236623
-0.012871 0.091798 -0.236587
-0.012869 0.091875002 -0.236561
-0.012865 0.091949999 -0.236589
-0.012858 0.092024997 -0.236665
-0.012848 0.092253998 -0.236682
-0.012848 0.092331998 -0.23662201
-0.012846 0.092408001 -0.236606
-0.012843 0.092483997 -0.23661
-0.01284 0.092561997 -0.236608
-0.012829 0.092712 -0.23672
-0.012826 0.092788003 -0.23672
-0.012826 0.092867002 -0.236663
-0.012824 0.092941999 -0.236635
-0.01282 0.09302 -0.236645
-0.012817 0.093094997 -0.23666701
-0.012814 0.093172997 -0.23666701
-0.012811 0.093249001 -0.236665
-0.012808 0.093324997 -0.23665699
-0.012805 0.093402997 -0.23666801
-0.012799 0.093555003 -0.236672
-0.012795 0.093630999 -0.23668399
-0.012792 0.093707003 -0.23668399
-0.01279 0.093785003 -0.236674
-0.012788 0.09386 -0.23663799
-0.012785 0.093938001 -0.23664699
-0.012781 0.094013996 -0.23665901
-0.012778 0.094090998 -0.23667499
-0.012775 0.094167002 -0.23667701
-0.012772 0.094244003 -0.23666701
-0.012771 0.094319001 -0.236619
-0.01277 0.094397001 -0.236591
-0.012767 0.094471999 -0.236582
-0.012766 0.094549999 -0.23655599
-0.012764 0.094627 -0.236522
-0.012761 0.094702996 -0.236524
-0.012757 0.094779 -0.23654
-0.012754 0.094855003 -0.23654801
-0.012748 0.094933003 -0.236618
-0.012744 0.095008999 -0.236634
-0.012742 0.095085002 -0.236625
-0.012736 0.095238999 -0.236615
-0.012735 0.095314004 -0.236581
-0.012733 0.095389999 -0.23656701
-0.012731 0.095467001 -0.23654699
-0.012729 0.095542997 -0.23652101
-0.012725 0.095619 -0.23653799
-0.012721 0.095697001 -0.23656601
-0.012717 0.095774002 -0.23657399
-0.012714 0.095849998 -0.23659
-0.012711 0.095926002 -0.236578
-0.012709 0.096000999 -0.23657399
-0.012705 0.096079998 -0.23659401
-0.012701 0.096156001 -0.236616
-0.012696 0.096233003 -0.236651
-0.012693 0.096386001 -0.236591
-0.01269 0.096461996 -0.236595
-0.012687 0.096538 -0.236587
-0.012685 0.096612997 -0.236577
-0.012681 0.096690997 -0.23658501
-0.012677 0.096767999 -0.236616
-0.012674 0.096844003 -0.236626
-0.012671 0.096919999 -0.236614
-0.012671 0.096997 -0.23656
-0.012668 0.097073004 -0.23655599
-0.012664 0.097149 -0.23657
-0.01266 0.097227998 -0.2366
-0.012657 0.097304001 -0.23660401
-0.012651 0.097457998 -0.236607
-0.012648 0.097533002 -0.236599
-0.012645 0.097608998 -0.23660301
-0.012641 0.097686 -0.23662101
-0.012637 0.097762004 -0.236637
-0.012634 0.097840004 -0.236643
-0.012632 0.097916 -0.236628
-0.012629 0.097994 -0.236628
-0.012626 0.098070003 -0.236632
-0.012623 0.098145999 -0.236624
-0.012621 0.098220997 -0.23661201
-0.012618 0.098298997 -0.23660199
-0.012618 0.098374002 -0.23655801
-0.012615 0.098449998 -0.236541
-0.012613 0.098525003 -0.236535
-0.012611 0.098603003 -0.23651101
-0.012606 0.098679997 -0.236545
-0.012602 0.098757997 -0.236577
-0.012599 0.098834001 -0.23658299
-0.012596 0.098909996 -0.236577
-0.012593 0.098986 -0.236577
-0.01259 0.099062003 -0.23658399
-0.012588 0.099140003 -0.236554
-0.012586 0.099215001 -0.236532
-0.012583 0.099290997 -0.23654801
-0.012579 0.099370003 -0.23656
-0.012576 0.099445 -0.236552
-0.012574 0.099521004 -0.236536
-0.012572 0.099597 -0.236517
-0.01257 0.099671997 -0.236497
-0.012568 0.099749997 -0.236479
-0.012565 0.099826001 -0.236479
-0.012561 0.099901997 -0.236495
-0.012557 0.099979997 -0.23651899
-0.012555 0.100056 -0.23650099
-0.012553 0.100132 -0.23648401
-0.012549 0.10021 -0.23650999
-0.012544 0.100287 -0.236554
-0.012541 0.100365 -0.23655801
-0.012538 0.100441 -0.23655
-0.012535 0.100517 -0.23654599
-0.012532 0.100593 -0.23654599
-0.012532 0.100668 -0.236497
-0.01253 0.100743 -0.23647299
-0.012527 0.100821 -0.236481
-0.012522 0.1009 -0.236523
-0.012516 0.101052 -0.23651101
-0.012515 0.101127 -0.236485
-0.012512 0.101203 -0.236472
-0.01251 0.101278 -0.23645601
-0.012507 0.101356 -0.23645
-0.012503 0.101433 -0.23647
-0.012499 0.101511 -0.236494
-0.012496 0.101587 -0.236506
-0.012494 0.101663 -0.236478
-0.012493 0.101738 -0.23644
-0.012492 0.101813 -0.236407
-0.01249 0.101888 -0.236379
-0.012487 0.101965 -0.236393
-0.012481 0.102044 -0.236443
-0.012479 0.102122 -0.236435
-0.012475 0.102198 -0.23644499
-0.01247 0.102277 -0.236489
-0.012467 0.102352 -0.236479
-0.012465 0.102428 -0.23646601
-0.012462 0.102506 -0.23647
-0.012459 0.102582 -0.23647401
-0.012456 0.10266 -0.236476
-0.012453 0.102736 -0.236478
-0.012447 0.10289 -0.23648199
-0.012444 0.102966 -0.23647501
-0.012442 0.103042 -0.236463
-0.012439 0.103118 -0.23645499
-0.012437 0.103193 -0.23644499
-0.012434 0.103271 -0.23643699
-0.012432 0.103347 -0.23642699
-0.012429 0.103423 -0.236421
-0.012426 0.103499 -0.236416
-0.012424 0.103574 -0.23639999
-0.012422 0.10365 -0.236378
-0.01242 0.103725 -0.23636401
-0.012414 0.103879 -0.236362
-0.012411 0.103955 -0.236362
-0.012409 0.104031 -0.236347
-0.012409 0.104103 -0.236275
-0.012407 0.104179 -0.236257
-0.012404 0.104255 -0.236265
-0.012404 0.10433 -0.236215
-0.012405 0.1044 -0.236136
-0.012401 0.104478 -0.23614
-0.012381 0.105157 -0.236011
-0.012379 0.105232 -0.235998
-0.012378 0.105308 -0.235966
-0.012376 0.105381 -0.23593201
-0.012374 0.105456 -0.235912
-0.012374 0.105529 -0.235863
-0.012374 0.105602 -0.235811
-0.012371 0.105678 -0.235805
-0.012369 0.105753 -0.235787
-0.012372 0.105818 -0.235658
-0.012371 0.105894 -0.23563001
-0.012367 0.10597 -0.23564
-0.012364 0.106048 -0.23564
-0.012364 0.106119 -0.235586
-0.012365 0.106191 -0.235517
-0.012362 0.106265 -0.235505
-0.012361 0.10634 -0.235471
-0.012359 0.106413 -0.235447
-0.012358 0.106487 -0.23542
-0.012361 0.106554 -0.235304
-0.012359 0.106627 -0.235278
-0.012359 0.1067 -0.23522501
-0.012359 0.106771 -0.23517101
-0.012358 0.106844 -0.235129
-0.012356 0.106919 -0.235107
-0.012355 0.106993 -0.23507001
-0.012354 0.107066 -0.23503
-0.012353 0.107139 -0.23499601
-0.012353 0.107209 -0.234936
