# .PCD v0.7 - Point Cloud Data file format
VERSION 0.7
FIELDS x y z
SIZE 4 4 4
TYPE F F F
COUNT 1 1 1
WIDTH 1399
HEIGHT 1
VIEWPOINT 0 0 0 1 0 0 0
POINTS 1399
DATA ascii
-0.064129002 0.093708999 -0.227521
-0.064126 0.093781002 -0.227523
-0.064122997 0.093852997 -0.227525
-0.064120002 0.093923002 -0.227522
-0.064117 0.093994997 -0.227522
-0.064113997 0.094067 -0.22752599
-0.064112 0.094136998 -0.22752599
-0.064108998 0.094209 -0.22752699
-0.064106002 0.094281003 -0.227523
-0.064103998 0.094351001 -0.227515
-0.064101003 0.094423003 -0.227514
-0.064098001 0.094493002 -0.227514
-0.064094998 0.094564997 -0.227512
-0.064093001 0.094636999 -0.22750901
-0.064089999 0.094709001 -0.22750901
-0.064087003 0.094779 -0.227511
-0.064084001 0.094850004 -0.22750901
-0.064081997 0.094920002 -0.227504
-0.064079002 0.094991997 -0.22749799
-0.064076997 0.095063999 -0.22749799
-0.064074002 0.095133997 -0.227501
-0.064071 0.095206 -0.22749899
-0.064067997 0.095278002 -0.227497
-0.064066 0.095348001 -0.227495
-0.064062998 0.095422 -0.22750001
-0.064060003 0.095491998 -0.227494
-0.064057998 0.095562004 -0.227486
-0.064055003 0.095633 -0.22748099
-0.064052001 0.095702998 -0.227479
-0.064049996 0.095776998 -0.227479
-0.064047001 0.095847003 -0.227479
-0.064044997 0.095917001 -0.227468
-0.064043 0.095987 -0.227452
-0.064039998 0.096059002 -0.227448
-0.064037003 0.096129999 -0.22744501
-0.064034998 0.096199997 -0.227439
-0.064032003 0.096271999 -0.227439
-0.064029999 0.096341997 -0.22743601
-0.064028002 0.096412003 -0.22742
-0.064025 0.096483998 -0.227412
-0.064021997 0.096556 -0.22741701
-0.064019002 0.096625999 -0.22741701
-0.064016998 0.096697003 -0.22740901
-0.064014003 0.096767001 -0.22740699
-0.064011998 0.096839003 -0.227402
-0.064009003 0.096910998 -0.2274
-0.064006001 0.096983001 -0.227402
-0.064002998 0.097052999 -0.22739901
-0.064001001 0.097125001 -0.227393
-0.063997999 0.097194999 -0.22738899
-0.063996002 0.097266003 -0.22738101
-0.063992999 0.097336002 -0.227376
-0.063991003 0.097407997 -0.22737201
-0.063988999 0.097478002 -0.22736201
-0.063987002 0.097548001 -0.227349
-0.063983999 0.097618997 -0.227345
-0.063980997 0.097689003 -0.227339
-0.063979 0.097759001 -0.22732601
-0.063977003 0.097831003 -0.22731601
-0.063974001 0.097901002 -0.227314
-0.063971996 0.097972997 -0.227309
-0.063969001 0.098041996 -0.227301
-0.063966997 0.098113999 -0.227301
-0.063964002 0.098186001 -0.2273
-0.063961998 0.098255999 -0.22728799
-0.063960001 0.098325998 -0.227276
-0.063956998 0.098397002 -0.22727001
-0.063955002 0.098467 -0.227265
-0.063952997 0.098536998 -0.227247
-0.063950002 0.098609 -0.22724099
-0.063947 0.098678999 -0.22724
-0.063945003 0.098751001 -0.227238
-0.063942 0.098820001 -0.22723199
-0.063940004 0.098892003 -0.227227
-0.063937001 0.098963998 -0.22722501
-0.063934997 0.099033996 -0.227217
-0.063932002 0.099104002 -0.22721
-0.063929997 0.099175997 -0.2272
-0.063927002 0.099244997 -0.227198
-0.063924998 0.099316999 -0.227194
-0.063923001 0.099386998 -0.227181
-0.063919999 0.099457003 -0.227173
-0.063917004 0.099528998 -0.227171
-0.063914999 0.099598996 -0.227164
-0.063911997 0.099670999 -0.227164
-0.063909002 0.099743001 -0.227166
-0.063906997 0.099812001 -0.227157
-0.063904002 0.099884003 -0.22715101
-0.063901998 0.099954002 -0.227153
-0.063899003 0.100026 -0.227153
-0.063896 0.100098 -0.227148
-0.063894004 0.10017 -0.227146
-0.063891001 0.10024 -0.22713999
-0.063890003 0.100307 -0.22711299
-0.063887998 0.100377 -0.227091
-0.063883997 0.100451 -0.22711501
-0.063881002 0.100523 -0.22712199
-0.063878 0.100595 -0.22712199
-0.063874997 0.100667 -0.22712
-0.063872002 0.100739 -0.22712
-0.063869998 0.100809 -0.227117
-0.063867003 0.100881 -0.22711299
-0.063864 0.100953 -0.227121
-0.063860998 0.101027 -0.22713099
-0.063856997 0.101099 -0.22713999
-0.063854001 0.101171 -0.227146
-0.063851997 0.101243 -0.227146
-0.063849002 0.101315 -0.227145
-0.063846 0.101387 -0.227147
-0.063841999 0.101461 -0.227157
-0.063839003 0.101534 -0.227167
-0.063836001 0.101608 -0.22718
-0.063832 0.101682 -0.227198
-0.063827999 0.101757 -0.22721399
-0.063824996 0.101831 -0.227228
-0.063821003 0.101905 -0.227244
-0.063817002 0.10198 -0.227265
-0.063813999 0.102054 -0.227273
-0.063809998 0.102126 -0.227285
-0.063805997 0.102205 -0.22731701
-0.063800998 0.102281 -0.227347
-0.063798003 0.102354 -0.227357
-0.063795 0.102428 -0.227368
-0.063790999 0.102502 -0.227382
-0.063786998 0.102578 -0.227404
-0.063782997 0.102653 -0.22742601
-0.063778996 0.102727 -0.22744399
-0.063775003 0.102804 -0.227477
-0.063770004 0.102883 -0.227513
-0.063764997 0.102961 -0.227551
-0.063761003 0.103036 -0.22757301
-0.063757002 0.103112 -0.227593
-0.063753001 0.103189 -0.22761901
-0.063748002 0.103268 -0.227659
-0.063744001 0.103344 -0.227685
-0.063738003 0.103423 -0.227731
-0.063731998 0.103509 -0.22780301
-0.063726 0.10359 -0.227865
-0.063717999 0.103676 -0.227943
-0.063712001 0.103761 -0.22801299
-0.063706003 0.103843 -0.228067
-0.063699 0.10393 -0.22815301
-0.063690998 0.104018 -0.22823501
-0.063685998 0.104097 -0.228283
-0.063680999 0.104178 -0.228323
-0.063670002 0.104275 -0.22846401
-0.064277001 0.086717002 -0.228856
-0.064282 0.086782001 -0.22869501
-0.064285003 0.086848997 -0.22858299
-0.064285003 0.086917996 -0.22851001
-0.064285003 0.086987004 -0.228468
-0.064283997 0.087054998 -0.22841699
-0.064285003 0.087123998 -0.228357
-0.064285003 0.087192997 -0.228295
-0.064282998 0.087261997 -0.228276
-0.064280003 0.087334 -0.22827201
-0.064277999 0.087403998 -0.228264
-0.064276002 0.087476 -0.228249
-0.064273998 0.087545 -0.228227
-0.064273 0.087615997 -0.228201
-0.064272001 0.087684996 -0.228154
-0.064272001 0.087754004 -0.22811
-0.064269997 0.087824002 -0.228082
-0.064269997 0.087893002 -0.22803301
-0.064268999 0.087962002 -0.227997
-0.064267002 0.088032998 -0.227981
-0.064266004 0.088102996 -0.227948
-0.064264998 0.088172004 -0.227908
-0.064263999 0.088241003 -0.227879
-0.064262003 0.088310003 -0.227851
-0.064260997 0.088380001 -0.227825
-0.064259 0.088449001 -0.22779401
-0.064258002 0.088518001 -0.22776
-0.064258002 0.088587001 -0.22772001
-0.064255998 0.088656999 -0.227689
-0.064254999 0.088725999 -0.227659
-0.064254001 0.088794999 -0.227633
-0.064251997 0.088867001 -0.227616
-0.06425 0.088936001 -0.22759999
-0.064248003 0.089005999 -0.22758199
-0.064245999 0.089078002 -0.22756501
-0.064244002 0.089147002 -0.227543
-0.064242996 0.089216001 -0.227505
-0.064241 0.089286 -0.227486
-0.064239003 0.089355998 -0.22748201
-0.064236 0.089428 -0.227476
-0.064234003 0.089497 -0.227467
-0.064231999 0.089566998 -0.22745501
-0.064230002 0.089639001 -0.227441
-0.064227 0.089708 -0.22743399
-0.064225003 0.089780003 -0.22743
-0.064222001 0.089850001 -0.22742601
-0.064219996 0.089922003 -0.227421
-0.064217001 0.089992002 -0.227419
-0.064213999 0.090063997 -0.227419
-0.064211003 0.090134002 -0.22741599
-0.064208999 0.090204 -0.227406
-0.064207003 0.090274997 -0.2274
-0.064204 0.090346999 -0.227404
-0.064200997 0.09042 -0.22740901
-0.064198002 0.090489998 -0.227411
-0.064195 0.090559997 -0.227411
-0.064193003 0.090631001 -0.227406
-0.06419 0.090700999 -0.227402
-0.064186998 0.090773001 -0.22740801
-0.064184003 0.090845004 -0.22741599
-0.064181 0.090917997 -0.227419
-0.064177997 0.090986997 -0.227419
-0.064175002 0.091058999 -0.227421
-0.064172 0.091132 -0.22743601
-0.064167999 0.091204002 -0.227448
-0.064165004 0.091274001 -0.22745
-0.064162999 0.091346003 -0.227442
-0.064161003 0.091416001 -0.227431
-0.064158 0.091486998 -0.22742701
-0.064154997 0.091559999 -0.227433
-0.064152002 0.091629997 -0.22744
-0.064149 0.091701999 -0.22744399
-0.064145997 0.091774002 -0.227448
-0.064143002 0.091845997 -0.227448
-0.064139999 0.091916002 -0.227451
-0.064136997 0.091987997 -0.227451
-0.064135 0.092056997 -0.227441
-0.064131998 0.092129 -0.22743601
-0.064129002 0.092201002 -0.227442
-0.064126 0.092274003 -0.22745401
-0.064122997 0.092344001 -0.22745
-0.064121 0.092413001 -0.227437
-0.064117998 0.092485003 -0.227439
-0.064115003 0.092556998 -0.227451
-0.064112 0.092629999 -0.227458
-0.064108998 0.092702001 -0.227466
-0.064104997 0.092773996 -0.227476
-0.064102001 0.092845999 -0.227484
-0.064098999 0.092918001 -0.227483
-0.064097002 0.092987999 -0.227479
-0.064094 0.093060002 -0.22748099
-0.064090997 0.093131997 -0.227492
-0.064087003 0.093203999 -0.22749799
-0.064084999 0.093273997 -0.22749799
-0.064081997 0.093346 -0.22750001
-0.064079002 0.093415998 -0.227495
-0.064075999 0.093488 -0.227497
-0.064072996 0.093560003 -0.22750901
-0.064070001 0.093631998 -0.227513
-0.064066999 0.093704 -0.227514
-0.064064004 0.093776003 -0.227522
-0.064061001 0.093847997 -0.22752
-0.064058997 0.093918003 -0.227513
-0.064056002 0.093989998 -0.22751901
-0.064052001 0.094062001 -0.227531
-0.064048998 0.094135001 -0.227533
-0.064047001 0.094204001 -0.22752599
-0.064043999 0.094276004 -0.227524
-0.064041004 0.094347998 -0.227524
-0.064038999 0.094417997 -0.227521
-0.064037003 0.094488002 -0.227513
-0.064034 0.094559997 -0.227515
-0.064029999 0.094632 -0.22752599
-0.064026996 0.094704002 -0.22752801
-0.064025 0.094775997 -0.22751801
-0.064023003 0.094846003 -0.227506
-0.06402 0.094916999 -0.227501
-0.064016998 0.094986998 -0.227503
-0.064014003 0.095059 -0.227507
-0.064011998 0.095131002 -0.22750799
-0.064009003 0.095201001 -0.22750001
-0.064006001 0.095273003 -0.22749799
-0.064002998 0.095344998 -0.227502
-0.064001001 0.095417 -0.227503
-0.063997999 0.095486999 -0.227493
-0.063996002 0.095559001 -0.22748899
-0.063992999 0.095631003 -0.22748999
-0.063991003 0.095701002 -0.22748201
-0.063988 0.095770001 -0.227474
-0.063986003 0.095841996 -0.227467
-0.063983999 0.095912002 -0.22745299
-0.063980997 0.095982 -0.227447
-0.063978001 0.096054003 -0.227449
-0.063975997 0.096125998 -0.227448
-0.063973002 0.096198 -0.227446
-0.06397 0.096267998 -0.227446
-0.063966997 0.096340001 -0.227447
-0.063965 0.096410997 -0.227441
-0.063961998 0.096481003 -0.227431
-0.063960001 0.096551001 -0.22742601
-0.063956998 0.096623003 -0.22742
-0.063955002 0.096693002 -0.227412
-0.063951999 0.096764997 -0.22741
-0.063950002 0.096836001 -0.22740901
-0.063947 0.096905999 -0.22739901
-0.063945003 0.096978001 -0.227395
-0.063942 0.097048 -0.227396
-0.063938998 0.097120002 -0.227396
-0.063937001 0.097191997 -0.22739001
-0.063933998 0.097262003 -0.22737899
-0.063932002 0.097331002 -0.22737101
-0.063928999 0.097402997 -0.22737101
-0.063927002 0.097473003 -0.227367
-0.063924 0.097544998 -0.227358
-0.063922003 0.097615004 -0.227356
-0.063919 0.097686999 -0.227354
-0.063915998 0.097759001 -0.227349
-0.063914001 0.097828001 -0.227337
-0.063911997 0.097897999 -0.227319
-0.06391 0.097967997 -0.227314
-0.063906997 0.09804 -0.22731
-0.063905001 0.098112002 -0.22730599
-0.063901998 0.098181002 -0.227299
-0.063900001 0.098251 -0.22728901
-0.063896999 0.098323002 -0.227285
-0.063895002 0.098393001 -0.227277
-0.063892998 0.098462999 -0.227266
-0.063890003 0.098534003 -0.227256
-0.063887998 0.098604001 -0.22724199
-0.063886002 0.098673999 -0.227235
-0.063882999 0.098746002 -0.227235
-0.063879997 0.098817997 -0.227235
-0.063878 0.098888002 -0.22723199
-0.063874997 0.098958999 -0.22722
-0.063873 0.099028997 -0.227212
-0.063869998 0.099101 -0.227209
-0.063868001 0.099170998 -0.227201
-0.063864999 0.099241003 -0.227199
-0.063862003 0.099315003 -0.227201
-0.063859999 0.099384002 -0.227192
-0.063858002 0.099454001 -0.227174
-0.063855998 0.099523999 -0.227166
-0.063853003 0.099596001 -0.22716901
-0.063850001 0.099668004 -0.227171
-0.063847996 0.099738002 -0.227165
-0.063846 0.099807002 -0.227152
-0.063842997 0.099877 -0.22713999
-0.063840002 0.099949002 -0.22714201
-0.063836999 0.100023 -0.227152
-0.063833997 0.100093 -0.22715101
-0.063832998 0.100163 -0.22713099
-0.063831002 0.10023 -0.2271
-0.063830003 0.100298 -0.227084
-0.063823998 0.100377 -0.227134
-0.063822001 0.100448 -0.22712199
-0.063818999 0.10052 -0.22712301
-0.063816004 0.100592 -0.227129
-0.063813001 0.100665 -0.227135
-0.063809998 0.100737 -0.227137
-0.063807003 0.100809 -0.227136
-0.063804001 0.10088 -0.227136
-0.063800998 0.100952 -0.227136
-0.063799001 0.101022 -0.227135
-0.063795999 0.101094 -0.22713301
-0.063793004 0.101169 -0.227145
-0.063789003 0.101243 -0.22715899
-0.063786 0.101315 -0.227165
-0.063782997 0.101387 -0.227166
-0.063780002 0.101459 -0.22716799
-0.063777 0.101531 -0.227182
-0.063772999 0.101608 -0.227202
-0.063768998 0.101682 -0.227227
-0.063764997 0.101756 -0.22724301
-0.063762002 0.101831 -0.227253
-0.063758001 0.101905 -0.227265
-0.063754998 0.101977 -0.227277
-0.063750997 0.102051 -0.227292
-0.063748002 0.102126 -0.22730599
-0.063743003 0.102202 -0.227328
-0.06374 0.102277 -0.22735
-0.063735999 0.102351 -0.22736201
-0.063731998 0.102425 -0.22737899
-0.063727997 0.102502 -0.22740699
-0.063722998 0.102578 -0.227439
-0.063718997 0.102655 -0.227461
-0.063715003 0.102731 -0.227487
-0.063711002 0.102808 -0.22751699
-0.063706003 0.102885 -0.227547
-0.063702002 0.102961 -0.227578
-0.063698001 0.103036 -0.22759201
-0.063694999 0.10311 -0.227606
-0.063689999 0.103189 -0.227642
-0.063684002 0.103268 -0.227694
-0.063679002 0.103351 -0.22774599
-0.063672997 0.10343 -0.227798
-0.063667998 0.103511 -0.227844
-0.063662 0.103592 -0.227898
-0.063653998 0.10368 -0.227984
-0.063648 0.103763 -0.228046
-0.063642003 0.103847 -0.228112
-0.063634001 0.103935 -0.228202
-0.063626997 0.10402 -0.228282
-0.063620001 0.104106 -0.22835501
-0.064198002 0.086860001 -0.228836
-0.064203002 0.086925 -0.22868
-0.064204998 0.086990997 -0.228589
-0.064204 0.087059997 -0.228545
-0.064203002 0.087131001 -0.22849999
-0.064204 0.087199003 -0.22843599
-0.064203002 0.087268002 -0.228392
-0.064200997 0.087338001 -0.228377
-0.064199999 0.087408997 -0.228349
-0.064199001 0.087477997 -0.22829901
-0.064199001 0.087546997 -0.228258
-0.064198002 0.087615997 -0.228218
-0.064198002 0.087684996 -0.228155
-0.064196996 0.087754004 -0.228119
-0.064195 0.087825 -0.228103
-0.064194001 0.087894998 -0.228072
-0.064193003 0.087963998 -0.22802401
-0.064191997 0.088032998 -0.22799601
-0.064190999 0.088101998 -0.227971
-0.064189002 0.088172004 -0.227937
-0.064188004 0.088241003 -0.22790501
-0.064186998 0.088312 -0.227878
-0.064185999 0.088381 -0.22783799
-0.064185999 0.088448003 -0.227789
-0.064185001 0.088517003 -0.22774699
-0.064184003 0.088586003 -0.22771101
-0.064182997 0.088656001 -0.22768401
-0.064180002 0.088726997 -0.227668
-0.064179003 0.088797003 -0.227644
-0.064176999 0.088866003 -0.227617
-0.064176001 0.088936001 -0.227589
-0.064175002 0.089005001 -0.227557
-0.064172998 0.089074001 -0.227532
-0.064171001 0.089143999 -0.227514
-0.064168997 0.089215003 -0.22750001
-0.064167 0.089285001 -0.22749101
-0.064165004 0.089357004 -0.227485
-0.064162001 0.089427002 -0.22747301
-0.064159997 0.089496002 -0.22746
-0.064158 0.089566 -0.227446
-0.064156003 0.089638002 -0.22743399
-0.064153001 0.089708 -0.227429
-0.064150997 0.089780003 -0.227431
-0.064148001 0.089850001 -0.227429
-0.064144999 0.089920998 -0.227423
-0.064143002 0.089991003 -0.22742
-0.064140998 0.090062998 -0.22740801
-0.064138003 0.090132996 -0.22739799
-0.064135 0.090204999 -0.22740699
-0.064131998 0.090277001 -0.227419
-0.064129002 0.090346999 -0.227419
-0.064126 0.090419002 -0.227414
-0.064124003 0.090489 -0.227414
-0.064121 0.090561002 -0.22740801
-0.064119004 0.090630002 -0.22739799
-0.064116001 0.090700001 -0.22739699
-0.064112999 0.090773001 -0.227403
-0.064110003 0.090845004 -0.22740699
-0.064107001 0.090916999 -0.227412
-0.064103998 0.090989001 -0.22742
-0.064101003 0.091058999 -0.227424
-0.064097002 0.091131002 -0.22743399
-0.064094 0.091202997 -0.227439
-0.064092003 0.091273002 -0.22743499
-0.064089999 0.091344997 -0.22742499
-0.064087003 0.091415003 -0.22741801
-0.064084001 0.091486998 -0.22742
-0.064080998 0.091559 -0.227428
-0.064078003 0.091628999 -0.227437
-0.064075001 0.091701001 -0.227437
-0.064071998 0.091773003 -0.22743499
-0.064070001 0.091843002 -0.227433
-0.064066999 0.091914997 -0.227432
-0.064064004 0.091985002 -0.227432
-0.064061001 0.092056997 -0.227438
-0.064057998 0.092129 -0.227437
-0.064056002 0.092201002 -0.22743499
-0.064052999 0.092271 -0.227437
-0.064049996 0.092343003 -0.227441
-0.064046003 0.092414998 -0.227452
-0.064043999 0.092487 -0.22745401
-0.064041004 0.092556998 -0.227446
-0.064038001 0.092629001 -0.22744501
-0.064034998 0.092698999 -0.227451
-0.064032003 0.092772998 -0.227459
-0.064029001 0.092843004 -0.22746301
-0.064025998 0.092914999 -0.22746199
-0.064024001 0.092987001 -0.22746
-0.064020999 0.093056999 -0.22746401
-0.064018004 0.093129002 -0.22747
-0.064015001 0.093200997 -0.227475
-0.064011998 0.093272999 -0.22747301
-0.064009003 0.093342997 -0.227475
-0.064006001 0.093415 -0.22748201
-0.064002 0.093487002 -0.227496
-0.063998997 0.093558997 -0.22749799
-0.063997 0.093630999 -0.227494
-0.063993998 0.093700998 -0.227495
-0.063991003 0.093773 -0.227493
-0.063988 0.093845002 -0.22749899
-0.063984998 0.093916997 -0.22750799
-0.063982002 0.093989 -0.227514
-0.063979 0.094061002 -0.227514
-0.063977003 0.094131 -0.22750799
-0.063974001 0.094200999 -0.22749899
-0.063971996 0.094273001 -0.227493
-0.063969001 0.094345003 -0.227501
-0.063965 0.094416998 -0.227512
-0.063961998 0.094489001 -0.227512
-0.063960001 0.094558999 -0.227502
-0.063957997 0.094628997 -0.227494
-0.063955002 0.094701 -0.22748899
-0.063952997 0.094772004 -0.227485
-0.063950002 0.094842002 -0.227485
-0.063947 0.094915003 -0.227492
-0.063943997 0.094985999 -0.22748999
-0.063941002 0.095058002 -0.22748999
-0.063937999 0.095129997 -0.22748999
-0.063936003 0.095200002 -0.22749101
-0.063933 0.095271997 -0.227493
-0.063929997 0.095344 -0.227493
-0.063927002 0.095416002 -0.22748999
-0.063924998 0.095486 -0.227486
-0.063922003 0.095555998 -0.227478
-0.063919999 0.095628001 -0.227469
-0.063917004 0.095697999 -0.227465
-0.063914999 0.095769003 -0.22746301
-0.063911997 0.095840998 -0.227461
-0.063909002 0.095911004 -0.22746
-0.063905999 0.095982999 -0.22746199
-0.063902996 0.096055001 -0.22746401
-0.063901 0.096127003 -0.227461
-0.063897997 0.096197002 -0.227451
-0.063896 0.096267 -0.227441
-0.063894004 0.096339002 -0.227437
-0.063891001 0.096409 -0.22743399
-0.063888997 0.096479997 -0.227424
-0.063886002 0.096550003 -0.22742
-0.063882999 0.096621998 -0.22741701
-0.063881002 0.096694 -0.22741701
-0.063878 0.096763998 -0.22741701
-0.063876003 0.096836001 -0.227402
-0.063873999 0.096902996 -0.227382
-0.063872002 0.096974999 -0.227374
-0.063868999 0.097047001 -0.227377
-0.063865997 0.097116999 -0.227375
-0.063863002 0.097189002 -0.22737101
-0.063860998 0.097258002 -0.22736
-0.063859001 0.097328 -0.227348
-0.063855998 0.097400002 -0.22735
-0.063853003 0.097471997 -0.22735199
-0.063850999 0.097544 -0.22735099
-0.063847996 0.097613998 -0.227347
-0.063846 0.097686 -0.22733501
-0.063842997 0.097755998 -0.227328
-0.063841 0.097824998 -0.22732601
-0.063837998 0.097897001 -0.227314
-0.063836001 0.097966999 -0.22730701
-0.063833997 0.098039001 -0.227301
-0.063831002 0.098108999 -0.227299
-0.063828997 0.098180003 -0.22728901
-0.063827001 0.098250002 -0.227274
-0.063823998 0.09832 -0.227266
-0.063822001 0.098392002 -0.22726201
-0.063818999 0.098461002 -0.22725099
-0.063817002 0.098531 -0.227245
-0.063813999 0.098603003 -0.22724099
-0.063812003 0.098673001 -0.22723401
-0.063809 0.098745003 -0.227226
-0.063807003 0.098815002 -0.22722
-0.063804999 0.098884001 -0.227213
-0.063803002 0.098955996 -0.227199
-0.0638 0.099026002 -0.227185
-0.063798003 0.099096 -0.227176
-0.063795 0.099168003 -0.22717801
-0.063791998 0.099239998 -0.227184
-0.063790001 0.099308997 -0.22717801
-0.063787997 0.099379003 -0.22715899
-0.063786 0.099449001 -0.227139
-0.063784003 0.099518001 -0.22713099
-0.063781001 0.099590003 -0.227128
-0.063777998 0.099660002 -0.227126
-0.063775003 0.099734001 -0.227134
-0.063772 0.099806003 -0.227139
-0.063768998 0.099876001 -0.227139
-0.063767001 0.099947996 -0.22713099
-0.063764997 0.100018 -0.22711401
-0.063763 0.100087 -0.22710399
-0.063759997 0.100157 -0.22709601
-0.063755997 0.100232 -0.22712199
-0.063753001 0.100306 -0.22713099
-0.063749999 0.100378 -0.22713099
-0.063747004 0.100448 -0.22713099
-0.063744001 0.100522 -0.22713301
-0.063741997 0.100592 -0.227128
-0.063739002 0.100664 -0.227126
-0.063735999 0.100736 -0.22712401
-0.063734002 0.100806 -0.227125
-0.063731 0.10088 -0.227129
-0.063727997 0.10095 -0.227129
-0.063725002 0.101021 -0.227125
-0.063722 0.101094 -0.22713199
-0.063717999 0.101168 -0.227146
-0.063715003 0.10124 -0.227152
-0.063712001 0.101314 -0.227162
-0.063708998 0.101386 -0.227173
-0.063704997 0.10146 -0.22717901
-0.063702002 0.101533 -0.227189
-0.063699 0.101607 -0.227203
-0.063694999 0.101681 -0.22721399
-0.063692003 0.101755 -0.227228
-0.063688003 0.10183 -0.22724199
-0.063685 0.101902 -0.227254
-0.063680999 0.101976 -0.227264
-0.063676998 0.102051 -0.227285
-0.063672997 0.102127 -0.227311
-0.063669004 0.102202 -0.22733299
-0.063666001 0.102276 -0.227347
-0.063662 0.10235 -0.22736301
-0.063657999 0.102427 -0.227385
-0.063653 0.102503 -0.22742
-0.063648999 0.102582 -0.22745401
-0.063643999 0.102657 -0.22748201
-0.063639998 0.102735 -0.22751001
-0.063635997 0.10281 -0.227538
-0.063631997 0.102886 -0.22756
-0.063626997 0.102963 -0.227588
-0.063623004 0.103039 -0.227615
-0.063619003 0.103116 -0.22764499
-0.063612998 0.103195 -0.227689
-0.063607998 0.103276 -0.227743
-0.063602 0.103357 -0.227787
-0.063597001 0.103436 -0.227835
-0.063591003 0.103519 -0.22788499
-0.063584998 0.1036 -0.22794899
-0.063578002 0.103686 -0.22802299
-0.063571997 0.103772 -0.228091
-0.063565001 0.103855 -0.228165
-0.063556001 0.103948 -0.228278
-0.063548997 0.104033 -0.228358
-0.063998997 0.086998999 -0.22881
-0.064000003 0.087067001 -0.228726
-0.064001001 0.087135002 -0.22864901
-0.064002 0.087204002 -0.228577
-0.064002 0.087272003 -0.228513
-0.064003997 0.087338001 -0.228432
-0.064003997 0.087407 -0.228376
-0.064002998 0.087477997 -0.228333
-0.064002998 0.087545 -0.228283
-0.064002 0.087615997 -0.22824299
-0.064001001 0.087684996 -0.228202
-0.064001001 0.087751999 -0.22814199
-0.064001001 0.087823004 -0.22809801
-0.064000003 0.087892003 -0.228057
-0.063998997 0.087961003 -0.22801501
-0.063997999 0.088030003 -0.227974
-0.063997999 0.088099003 -0.227934
-0.063997 0.088168003 -0.227888
-0.063996002 0.088237002 -0.227851
-0.063995004 0.088306002 -0.22782101
-0.063993998 0.088375002 -0.227778
-0.063992999 0.088445 -0.227744
-0.063992001 0.088514 -0.227708
-0.063991003 0.088583 -0.22768299
-0.063988999 0.088652998 -0.22765701
-0.063988 0.088721998 -0.22762699
-0.063987002 0.088790998 -0.227598
-0.063984998 0.088861004 -0.227576
-0.063983001 0.088930003 -0.227558
-0.063980997 0.089001998 -0.227533
-0.063979998 0.089069001 -0.227497
-0.063978001 0.089139998 -0.22748099
-0.063975997 0.089210004 -0.22748201
-0.063973002 0.089281999 -0.227478
-0.063970998 0.089351997 -0.22747201
-0.063968003 0.089423999 -0.227465
-0.063965 0.089493997 -0.22746301
-0.063963003 0.089566 -0.227461
-0.063960001 0.089635998 -0.227456
-0.063957997 0.089708 -0.227452
-0.063955002 0.089777 -0.227448
-0.063952997 0.089846998 -0.227437
-0.063950002 0.089919001 -0.227431
-0.063947998 0.089991003 -0.227429
-0.063946001 0.090060003 -0.22740901
-0.063943997 0.090130001 -0.22738799
-0.063941002 0.0902 -0.22738799
-0.063937999 0.090272002 -0.227392
-0.063934997 0.090343997 -0.22739901
-0.063932002 0.090415999 -0.22740699
-0.063928999 0.090485997 -0.22740699
-0.063927002 0.090556003 -0.227402
-0.063924 0.090627998 -0.227394
-0.063922003 0.090697996 -0.22738799
-0.063919 0.090769999 -0.22738799
-0.063915998 0.090842001 -0.22739699
-0.063913003 0.090911999 -0.227401
-0.06391 0.090984002 -0.227405
-0.063906997 0.091055997 -0.227412
-0.063904002 0.091127999 -0.227412
-0.063901 0.091197997 -0.227412
-0.063897997 0.09127 -0.22741599
-0.063895002 0.091342002 -0.227415
-0.063892998 0.091412 -0.227413
-0.063890003 0.091484003 -0.227419
-0.063887 0.091554001 -0.22741801
-0.063883997 0.091626003 -0.22741801
-0.063881002 0.091697998 -0.227424
-0.063878 0.091770001 -0.22743601
-0.063874997 0.091842003 -0.227439
-0.063872002 0.091912001 -0.22743499
-0.063869998 0.091982 -0.227431
-0.063867003 0.092054002 -0.22743
-0.063864 0.092125997 -0.22742601
-0.063862003 0.092196003 -0.22742
-0.063859001 0.092266999 -0.227414
-0.063855998 0.092338003 -0.227419
-0.063853003 0.092409998 -0.227423
-0.063850001 0.092482001 -0.227433
-0.063846998 0.092554003 -0.227442
-0.063844003 0.092625998 -0.227442
-0.063841999 0.092696004 -0.227432
-0.063840002 0.092765003 -0.227419
-0.063836999 0.092836998 -0.22741701
-0.063832998 0.092909999 -0.227437
-0.063828997 0.092982002 -0.22745299
-0.063826002 0.093053997 -0.22746199
-0.063823 0.093125999 -0.227468
-0.063819997 0.093198001 -0.22747201
-0.063817002 0.093269996 -0.227474
-0.063813999 0.093341999 -0.227477
-0.063810997 0.093411997 -0.227477
-0.063809 0.093483999 -0.227477
-0.063805997 0.093556002 -0.22748099
-0.063803002 0.093627997 -0.227484
-0.063800998 0.093698002 -0.22747201
-0.063798003 0.093768001 -0.22746199
-0.063795 0.093840003 -0.227469
-0.063791998 0.093911998 -0.227477
-0.063789003 0.093984 -0.227487
-0.063786 0.094056003 -0.22749101
-0.063782997 0.094126001 -0.227492
-0.063780002 0.094198003 -0.22748999
-0.063777998 0.094269998 -0.22748201
-0.063775003 0.094339997 -0.22748099
-0.063772 0.094411999 -0.227485
-0.063768998 0.094484001 -0.227483
-0.063767001 0.094554 -0.22747999
-0.063763998 0.094626002 -0.227474
-0.063762002 0.094695002 -0.22746199
-0.063759997 0.094766997 -0.22745401
-0.063757002 0.094837002 -0.22745299
-0.063754 0.094908997 -0.227451
-0.063750997 0.094981 -0.22745299
-0.063748002 0.095053002 -0.227458
-0.063744999 0.095123 -0.22746
-0.063743003 0.095195003 -0.227458
-0.06374 0.095266998 -0.22745
-0.063738003 0.095337003 -0.227441
-0.063735001 0.095408 -0.22743499
-0.063732997 0.095477998 -0.227437
-0.063730001 0.095550001 -0.22744
-0.063726999 0.095622003 -0.22744
-0.063723996 0.095692001 -0.22744
-0.063721001 0.095764004 -0.227437
-0.063718997 0.095835999 -0.227429
-0.063717 0.095905997 -0.227419
-0.063713998 0.095976003 -0.227413
-0.063712001 0.096046999 -0.227406
-0.063708998 0.096116997 -0.2274
-0.063706003 0.096189 -0.2274
-0.063703001 0.096261002 -0.227405
-0.063699998 0.096332997 -0.22740901
-0.063698001 0.096403003 -0.22740699
-0.063695997 0.096474998 -0.227392
-0.063694 0.096542001 -0.22737201
-0.063690998 0.096615002 -0.22737999
-0.063688003 0.096689001 -0.227386
-0.063685 0.096758999 -0.22737899
-0.063683003 0.096830003 -0.227377
-0.063680001 0.096900001 -0.227373
-0.063677996 0.096972004 -0.227366
-0.063675001 0.097042002 -0.22736
-0.063671999 0.097113997 -0.227358
-0.063670002 0.097184002 -0.22735301
-0.063667998 0.097253002 -0.22734299
-0.063665003 0.097324997 -0.227337
-0.063662 0.097397 -0.22733501
-0.063660003 0.097466998 -0.22733
-0.063657001 0.097539 -0.227322
-0.063654996 0.097608998 -0.22731
-0.063653 0.097677998 -0.227305
-0.063649997 0.097750001 -0.227303
-0.063647002 0.097822003 -0.227303
-0.063644998 0.097892001 -0.227294
-0.063643001 0.097961999 -0.22728001
-0.063640997 0.098030999 -0.22726201
-0.063639 0.098100998 -0.227247
-0.063637003 0.098171003 -0.227239
-0.063634001 0.098242998 -0.227239
-0.063630998 0.098312996 -0.22723199
-0.063629001 0.098384 -0.22722
-0.063626997 0.098453999 -0.22721601
-0.063624002 0.098526001 -0.227218
-0.063620999 0.098598003 -0.227217
-0.063619003 0.098668002 -0.22720701
-0.063616 0.098739997 -0.22719499
-0.063614003 0.098808996 -0.227192
-0.063611001 0.098879002 -0.22718801
-0.063607998 0.098950997 -0.22718801
-0.063606001 0.099021003 -0.22717901
-0.063603997 0.099092998 -0.22716101
-0.063602 0.099161997 -0.227155
-0.063598998 0.099232003 -0.227156
-0.063597001 0.099303998 -0.22714999
-0.063594997 0.099374004 -0.227134
-0.063593 0.099443004 -0.227111
-0.063589998 0.099513002 -0.227107
-0.063587002 0.099584997 -0.22711501
-0.063584 0.099656999 -0.227121
-0.063580997 0.099729002 -0.227126
-0.063578002 0.099800996 -0.22712199
-0.063575998 0.099871002 -0.22711401
-0.063573003 0.099942997 -0.227111
-0.06357 0.100015 -0.22711501
-0.063568003 0.100085 -0.227107
-0.063565999 0.100155 -0.227097
-0.063562997 0.100227 -0.22709601
-0.063560002 0.100299 -0.22709601
-0.063556999 0.100371 -0.2271
-0.063553996 0.100443 -0.227109
-0.063551001 0.100517 -0.22711299
-0.063547999 0.100587 -0.22711501
-0.063545004 0.100659 -0.227119
-0.063542001 0.100733 -0.22712401
-0.063538998 0.100805 -0.227126
-0.063536003 0.100877 -0.227126
-0.063533001 0.100949 -0.22713
-0.063529998 0.101021 -0.227137
-0.063527003 0.101093 -0.22714099
-0.063524 0.101165 -0.227147
-0.063520998 0.101239 -0.227155
-0.063516997 0.101312 -0.227166
-0.063514002 0.101386 -0.227172
-0.063510999 0.101458 -0.227182
-0.063506998 0.101532 -0.22719599
-0.063504003 0.101606 -0.227211
-0.063500002 0.101681 -0.227221
-0.063496999 0.101753 -0.227229
-0.063492998 0.101827 -0.22724301
-0.063490003 0.101902 -0.227263
-0.063486002 0.101978 -0.227282
-0.063482001 0.102052 -0.22730599
-0.063477002 0.102129 -0.227336
-0.063473001 0.102203 -0.227354
-0.063469999 0.102278 -0.227366
-0.063465998 0.102352 -0.227385
-0.063461997 0.102429 -0.227413
-0.063458003 0.102503 -0.227433
-0.063454002 0.10258 -0.227461
-0.063449003 0.102658 -0.227497
-0.063444003 0.102737 -0.22753701
-0.063438997 0.102816 -0.22758099
-0.063432999 0.102895 -0.227625
-0.063428 0.102974 -0.227669
-0.063423 0.103053 -0.227709
-0.063418001 0.103132 -0.227749
-0.063413002 0.10321 -0.227788
-0.063409001 0.103289 -0.227826
-0.063401997 0.103371 -0.22788601
-0.063395999 0.103454 -0.227948
-0.063391 0.103535 -0.228
-0.063383996 0.103618 -0.228062
-0.063377999 0.1037 -0.22812
-0.063371003 0.103787 -0.22819699
-0.063828997 0.087061003 -0.228815
-0.063828997 0.087128997 -0.22875001
-0.063830003 0.087196998 -0.22867
-0.063832 0.087265 -0.228576
-0.063832998 0.087332003 -0.228507
-0.063832998 0.087399997 -0.22844701
-0.063832998 0.087468997 -0.228386
-0.063832998 0.087537996 -0.228324
-0.063832998 0.087605998 -0.228269
-0.063832998 0.087674998 -0.228219
-0.063832 0.087743998 -0.228175
-0.063832 0.087812997 -0.22812399
-0.063832 0.087881997 -0.22807001
-0.063831002 0.087950997 -0.22803
-0.063830003 0.088019997 -0.227991
-0.063830003 0.088088997 -0.227943
-0.063828997 0.088157997 -0.22791
-0.063827999 0.088226996 -0.227864
-0.063827001 0.088296004 -0.22782201
-0.063826002 0.088365003 -0.227797
-0.063824996 0.088435002 -0.227763
-0.063823998 0.088504001 -0.22772101
-0.063823 0.088573001 -0.227696
-0.063821003 0.088644996 -0.22768
-0.063818999 0.088714004 -0.22766501
-0.063817002 0.088784002 -0.22763699
-0.063816004 0.088853002 -0.227607
-0.063813999 0.088923 -0.227586
-0.063812003 0.088993996 -0.22757
-0.063809998 0.089064002 -0.227548
-0.063809 0.089133002 -0.22751901
-0.063807003 0.089202002 -0.227497
-0.063804999 0.089272 -0.227485
-0.063801996 0.089344002 -0.227488
-0.0638 0.089414001 -0.227488
-0.063796997 0.089486003 -0.227484
-0.063794002 0.089557998 -0.22747999
-0.063791998 0.089628004 -0.22747099
-0.063790001 0.089697003 -0.22746301
-0.063786998 0.089768998 -0.22745501
-0.063785002 0.089838997 -0.227442
-0.063781999 0.089910999 -0.227438
-0.063780002 0.089980997 -0.227438
-0.063777 0.090053 -0.227437
-0.063773997 0.090122998 -0.227441
-0.063772 0.090195 -0.22743499
-0.063768998 0.090264 -0.227424
-0.063767001 0.090336002 -0.22742
-0.063763998 0.090406001 -0.22741801
-0.063761003 0.090478003 -0.227414
-0.063758999 0.090548001 -0.22741701
-0.063754998 0.090620004 -0.22742701
-0.063752003 0.090691999 -0.227431
-0.063749999 0.090761997 -0.227424
-0.063748002 0.090833999 -0.227414
-0.063744999 0.090903997 -0.227406
-0.063741997 0.090976 -0.22741
-0.063739002 0.091045998 -0.22741701
-0.063735999 0.091118 -0.227415
-0.063734002 0.091187 -0.22740699
-0.063731 0.091259003 -0.227402
-0.063729003 0.091330998 -0.227402
-0.063725002 0.091401003 -0.22741
-0.063722998 0.091472998 -0.22740901
-0.063720003 0.091542996 -0.227405
-0.063717 0.091614999 -0.227413
-0.063713998 0.091688 -0.22742499
-0.063711002 0.091760002 -0.227428
-0.063708 0.091831997 -0.22743
-0.063704997 0.091902003 -0.227432
-0.063702002 0.091973998 -0.227432
-0.063699 0.092046 -0.227439
-0.063695997 0.092115998 -0.227439
-0.063693002 0.092188001 -0.22743499
-0.063690998 0.092260003 -0.22743601
-0.063688003 0.092330001 -0.22744
-0.063685 0.092402004 -0.22744399
-0.063681997 0.092473999 -0.22744
-0.063680001 0.092542998 -0.227431
-0.063676998 0.092615001 -0.227429
-0.063674003 0.092684999 -0.22742499
-0.063671999 0.092757002 -0.22742601
-0.063667998 0.092828996 -0.22744
-0.063665003 0.092901997 -0.227446
-0.063662 0.092970997 -0.22744299
-0.063658997 0.093043998 -0.227451
-0.063656002 0.093116 -0.22745501
-0.063653 0.093188003 -0.227457
-0.063649997 0.093259998 -0.227458
-0.063648 0.093330003 -0.227456
-0.063644998 0.093401998 -0.227458
-0.063642003 0.093474001 -0.22746401
-0.063639 0.093546003 -0.22747301
-0.063635997 0.093617998 -0.227477
-0.063633002 0.093688004 -0.227477
-0.06363 0.093759999 -0.227476
-0.063626997 0.093832001 -0.227474
-0.063625 0.093901999 -0.227474
-0.063621998 0.093974002 -0.227474
-0.063619003 0.094045997 -0.227477
-0.063616 0.094117999 -0.22748099
-0.063612998 0.094190001 -0.22748899
-0.063610002 0.09426 -0.227492
-0.063607 0.094332002 -0.22747999
-0.063605003 0.094401002 -0.227466
-0.063602999 0.094471 -0.227461
-0.063600004 0.094543003 -0.22745501
-0.063598 0.094613001 -0.22745501
-0.063593999 0.094687 -0.227461
-0.063592002 0.094756998 -0.22746
-0.063588999 0.094829001 -0.227456
-0.063587002 0.094898999 -0.22745
-0.063584 0.094971001 -0.227449
-0.063580997 0.095041998 -0.22744501
-0.063579001 0.095112003 -0.22744299
-0.063575998 0.095184997 -0.227449
-0.063573003 0.095256001 -0.227448
-0.063570999 0.095325999 -0.227424
-0.063569002 0.095395997 -0.22741
-0.063565999 0.095468 -0.227423
-0.063562997 0.095540002 -0.227431
-0.063560002 0.095611997 -0.227431
-0.063556999 0.095683999 -0.227431
-0.063553996 0.095753998 -0.22742601
-0.063552 0.095826 -0.227422
-0.063548997 0.095895 -0.22741599
-0.063547 0.095967002 -0.22740699
-0.063543998 0.096037 -0.227411
-0.063541003 0.096111 -0.22741701
-0.063538998 0.096180998 -0.22740801
-0.063536003 0.096251003 -0.227394
-0.063533999 0.096322998 -0.22739001
-0.063530996 0.096392997 -0.22738899
-0.063528001 0.096464999 -0.227387
-0.063524999 0.096537001 -0.22738899
-0.063523002 0.096606001 -0.227383
-0.063520998 0.096675999 -0.22737201
-0.063519001 0.096745998 -0.22736
-0.063515998 0.096818 -0.227354
-0.063513003 0.096890002 -0.22735301
-0.063510999 0.096959002 -0.22734299
-0.063509002 0.097029001 -0.227329
-0.063506 0.097101003 -0.227336
-0.063502997 0.097172998 -0.22734
-0.063501 0.097243004 -0.22733
-0.063497998 0.097314999 -0.227322
-0.063495003 0.097387001 -0.227323
-0.063492998 0.097456999 -0.227323
-0.063490003 0.097528003 -0.227313
-0.063487999 0.097598001 -0.227304
-0.063484997 0.097669996 -0.2273
-0.063483 0.097740002 -0.227292
-0.063481003 0.097809002 -0.22727901
-0.063478999 0.097879 -0.227265
-0.063477002 0.097948998 -0.227255
-0.063474 0.098021001 -0.22724999
-0.063472003 0.098090999 -0.22724199
-0.063469 0.098162003 -0.227236
-0.063465998 0.098233998 -0.22723401
-0.063464001 0.098304003 -0.227231
-0.063461997 0.098374002 -0.227219
-0.063459001 0.098445997 -0.227209
-0.063456997 0.098516002 -0.227208
-0.063454002 0.098586999 -0.22720399
-0.063451998 0.098656997 -0.227198
-0.063449003 0.098728999 -0.22719499
-0.063446 0.098801002 -0.227191
-0.063444003 0.098871 -0.22717901
-0.063441999 0.098940998 -0.227172
-0.063438997 0.099009998 -0.227164
-0.063437 0.099082001 -0.227156
-0.063433997 0.099154003 -0.227158
-0.063431002 0.099224001 -0.22716101
-0.063428998 0.099296004 -0.22714899
-0.063427001 0.099362999 -0.22713099
-0.063423999 0.099435002 -0.22713
-0.063421004 0.099506997 -0.227134
-0.063418999 0.099577002 -0.227126
-0.063417003 0.099648997 -0.227117
-0.063414 0.099719003 -0.227109
-0.063412003 0.099788003 -0.227089
-0.063409999 0.099858001 -0.22708
-0.063406996 0.099930003 -0.22709601
-0.063403003 0.100005 -0.227102
-0.063400999 0.100074 -0.227102
-0.063398004 0.100149 -0.227107
-0.063395001 0.100221 -0.227111
-0.063391998 0.100291 -0.227109
-0.063389003 0.100363 -0.227111
-0.063386001 0.100435 -0.22711401
-0.063382998 0.100509 -0.22712
-0.063380003 0.100581 -0.22712401
-0.063377 0.100653 -0.227127
-0.063373998 0.100725 -0.227127
-0.063371003 0.100795 -0.227127
-0.063368 0.100869 -0.22713099
-0.063364998 0.100939 -0.22713199
-0.063362002 0.101013 -0.227138
-0.063359 0.101087 -0.227152
-0.063354999 0.101159 -0.227162
-0.063352004 0.101233 -0.227171
-0.063349001 0.101306 -0.22717901
-0.063345999 0.101378 -0.227185
-0.063343003 0.101452 -0.227191
-0.063339002 0.101524 -0.22720601
-0.063335001 0.1016 -0.227222
-0.063331999 0.101672 -0.227226
-0.063328996 0.101745 -0.22723199
-0.063325003 0.101821 -0.227256
-0.063321002 0.101896 -0.22727901
-0.063317001 0.101972 -0.227301
-0.063313 0.102046 -0.227321
-0.063308999 0.102121 -0.22734299
-0.063304998 0.102197 -0.227369
-0.063300997 0.102274 -0.22739699
-0.063297004 0.102348 -0.22742
-0.063291997 0.102425 -0.227446
-0.063288003 0.102502 -0.22747999
-0.063282996 0.10258 -0.227516
-0.063277997 0.102657 -0.22754601
-0.063272998 0.102736 -0.22758999
-0.063268997 0.102815 -0.227626
-0.063263997 0.102892 -0.22766399
-0.063258 0.102973 -0.22771201
-0.063253 0.103052 -0.227754
-0.063248001 0.10313 -0.227796
-0.063242003 0.103212 -0.22784799
-0.063235998 0.103293 -0.227906
-0.063230999 0.103374 -0.22795799
-0.063225001 0.103457 -0.22802
-0.063217998 0.103543 -0.22809599
-0.063211001 0.103628 -0.228172
-0.063203998 0.103714 -0.22825199
-0.063741997 0.087128997 -0.228772
-0.063743003 0.087195002 -0.22869299
-0.063744999 0.087263003 -0.228607
-0.063745998 0.087332003 -0.228534
-0.063745998 0.087399997 -0.228466
-0.063747004 0.087468997 -0.228396
-0.063747004 0.087535001 -0.228341
-0.063747004 0.087605998 -0.228285
-0.063747004 0.087673001 -0.22823
-0.063747004 0.087742001 -0.228176
-0.063745998 0.087810002 -0.228122
-0.063745998 0.087879002 -0.228071
-0.063745998 0.087948002 -0.22802299
-0.063744999 0.088017002 -0.227984
-0.063744001 0.088086002 -0.227948
-0.063743003 0.088155001 -0.227908
-0.063743003 0.088224001 -0.227863
-0.063741997 0.088293001 -0.227823
-0.06374 0.088362999 -0.227795
-0.063739002 0.088431999 -0.227768
-0.063738003 0.088500999 -0.227736
-0.063735999 0.088573001 -0.22771201
-0.063734002 0.088642001 -0.22769301
-0.063732997 0.088711999 -0.227669
-0.063731 0.088780999 -0.227644
-0.063730001 0.088850997 -0.22762001
-0.063727997 0.088919997 -0.227598
-0.063726 0.088992 -0.22757301
-0.063725002 0.089060999 -0.22754499
-0.063722998 0.089129999 -0.227521
-0.063721001 0.089199997 -0.227512
-0.063718997 0.089272 -0.227506
-0.063716002 0.089341998 -0.227494
-0.063713998 0.089410998 -0.227485
-0.063711002 0.089483999 -0.22749101
-0.063708 0.089555003 -0.227485
-0.063706003 0.089625001 -0.22747301
-0.063703001 0.089697003 -0.227474
-0.063700996 0.089767002 -0.22747
-0.063698001 0.089837 -0.227466
-0.063695997 0.089909002 -0.22746301
-0.063693002 0.089978002 -0.22745299
-0.063690998 0.090049997 -0.227439
-0.063689001 0.090120003 -0.227438
-0.063685 0.090191998 -0.227446
-0.063683003 0.090264 -0.22744399
-0.063680999 0.090333998 -0.22743
-0.063679002 0.090402998 -0.227413
-0.063676 0.090473004 -0.227403
-0.063674003 0.090544999 -0.227403
-0.063670002 0.090617001 -0.22741
-0.063667998 0.090686999 -0.227412
-0.063665003 0.090759002 -0.227404
-0.063662998 0.090829 -0.22739901
-0.063660003 0.090901002 -0.22739699
-0.063657001 0.090972997 -0.22739901
-0.063653998 0.091043003 -0.227403
-0.063651003 0.091114998 -0.227402
-0.063648 0.091185004 -0.227406
-0.063644998 0.091256998 -0.227414
-0.063643001 0.091329001 -0.227411
-0.063639998 0.091398999 -0.227405
-0.063637003 0.091471002 -0.227401
-0.063634001 0.091542996 -0.22740699
-0.063630998 0.091613002 -0.22741801
-0.063628003 0.091684997 -0.22741801
-0.063625 0.091756999 -0.22742
-0.063621998 0.091829002 -0.227433
-0.063619003 0.091899 -0.227433
-0.063616998 0.091971003 -0.22742499
-0.063614003 0.092041001 -0.227423
-0.063611001 0.092113003 -0.227422
-0.063608997 0.092184998 -0.227422
-0.063606001 0.092254996 -0.227422
-0.063602999 0.092326999 -0.22742499
-0.063598998 0.092399001 -0.227437
-0.063596003 0.092471004 -0.227451
-0.063593 0.092542998 -0.227449
-0.063591003 0.092612997 -0.227448
-0.063588001 0.092684999 -0.22744399
-0.063585997 0.092754997 -0.22743601
-0.063583001 0.092827 -0.227437
-0.063579999 0.092899002 -0.227441
-0.063576996 0.092969 -0.227437
-0.063574001 0.093041003 -0.227437
-0.063570999 0.093112998 -0.227438
-0.063569002 0.093183003 -0.22743601
-0.063565999 0.093254998 -0.22744399
-0.063561998 0.093327001 -0.22745501
-0.063560002 0.093399003 -0.22745299
-0.063556999 0.093470998 -0.227449
-0.063553996 0.093540996 -0.227459
-0.063550003 0.093615003 -0.227468
-0.063547999 0.093685001 -0.227468
-0.063545004 0.093757004 -0.227468
-0.063542999 0.093827002 -0.22745299
-0.063541003 0.093896002 -0.227439
-0.063537002 0.093969002 -0.227451
-0.063533999 0.094040997 -0.227459
-0.063532002 0.094113 -0.227456
-0.063529 0.094182 -0.227448
-0.063525997 0.094254002 -0.227448
-0.063523002 0.094325997 -0.227459
-0.063519999 0.094398998 -0.227461
-0.063516997 0.094467998 -0.227459
-0.063514002 0.094540998 -0.227467
-0.063511997 0.094612002 -0.22746199
-0.063509002 0.094682001 -0.22745
-0.063506998 0.094754003 -0.227448
-0.063504003 0.094824001 -0.227449
-0.063501 0.094896004 -0.227451
-0.063497998 0.094967999 -0.227447
-0.063496001 0.095040001 -0.22744399
-0.063492998 0.095112003 -0.22745
-0.063490003 0.095182002 -0.227446
-0.063487999 0.095253997 -0.22743399
-0.063486002 0.095322996 -0.227421
-0.063483 0.095393002 -0.227419
-0.063479997 0.095464997 -0.227429
-0.063477002 0.095536999 -0.22743399
-0.063474 0.095609002 -0.22743399
-0.063470997 0.095680997 -0.227432
-0.063469 0.095751002 -0.227422
-0.063467003 0.095821001 -0.227413
-0.063464001 0.095893003 -0.22740699
-0.063461997 0.095964 -0.227403
-0.063459001 0.096033998 -0.2274
-0.063456997 0.096106 -0.22739001
-0.063454002 0.096175998 -0.227384
-0.063451 0.096248001 -0.22738899
-0.063449003 0.096317999 -0.227383
-0.063446 0.096387997 -0.22737101
-0.063444003 0.09646 -0.227374
-0.063441001 0.096531004 -0.227368
-0.063437998 0.096601002 -0.227364
-0.063436002 0.096672997 -0.227358
-0.063433997 0.096743003 -0.227349
-0.063431002 0.096814997 -0.227345
-0.063428 0.096885003 -0.227341
-0.063424997 0.096959002 -0.22735
-0.063422002 0.097030997 -0.227356
-0.063419998 0.097101003 -0.227348
-0.063418001 0.097170003 -0.227336
-0.063414998 0.097240001 -0.227329
-0.063413002 0.097312003 -0.227313
-0.063410997 0.097382002 -0.227309
-0.063406996 0.097453997 -0.227314
-0.063405 0.097524002 -0.227304
-0.063404001 0.097593002 -0.22728001
-0.063400999 0.097663 -0.227273
-0.063398004 0.097735003 -0.227277
-0.063395999 0.097806998 -0.227275
-0.063392997 0.097877003 -0.227268
-0.063391 0.097948 -0.227254
-0.063389003 0.098017998 -0.22724
-0.063386999 0.098088004 -0.227229
-0.063383996 0.098159999 -0.22723299
-0.063381001 0.098232001 -0.22723299
-0.063378997 0.098298997 -0.22721399
-0.063377 0.098370999 -0.227202
-0.063373998 0.098440997 -0.227198
-0.063372001 0.098513 -0.227194
-0.063368998 0.098582 -0.227189
-0.063367002 0.098651998 -0.22717901
-0.063364998 0.098724 -0.22716901
-0.063362002 0.098796003 -0.227172
-0.063359 0.098866001 -0.227172
-0.063355997 0.098938003 -0.227172
-0.063353002 0.099009998 -0.227172
-0.063350998 0.099082001 -0.22716901
-0.063348003 0.099151999 -0.22715899
-0.063345999 0.099220999 -0.227155
-0.063343003 0.099293001 -0.22714999
-0.063340999 0.099362999 -0.22714201
-0.063339002 0.099435002 -0.22713199
-0.063336 0.099505 -0.22712301
-0.063334003 0.099574 -0.22711501
-0.063331001 0.099646002 -0.22711299
-0.063328996 0.099716 -0.227112
-0.063326001 0.099788003 -0.22711401
-0.063322999 0.099859998 -0.22711
-0.063321002 0.099930003 -0.227102
-0.063317999 0.100002 -0.22710299
-0.063314997 0.100074 -0.22710299
-0.063312002 0.100146 -0.227099
-0.063309997 0.100216 -0.227098
-0.063307002 0.100288 -0.227098
-0.063304 0.10036 -0.227102
-0.063300997 0.100432 -0.22710399
-0.063298002 0.100506 -0.22711501
-0.063294001 0.100578 -0.227125
-0.063290998 0.10065 -0.227129
-0.063288003 0.100722 -0.22713099
-0.063285001 0.100794 -0.227134
-0.063282996 0.100866 -0.22713
-0.063280001 0.100938 -0.22713
-0.063276 0.10101 -0.227145
-0.063272998 0.101085 -0.22715899
-0.063268997 0.101159 -0.227167
-0.063266002 0.101231 -0.22717699
-0.063262999 0.101303 -0.22717901
-0.063259996 0.101375 -0.22718599
-0.063257001 0.101449 -0.22719599
-0.063253 0.101524 -0.227208
-0.063248999 0.101598 -0.227228
-0.063245997 0.101672 -0.227247
-0.063242003 0.101744 -0.227253
-0.063239001 0.101818 -0.227257
-0.063235998 0.101893 -0.227275
-0.063231997 0.101969 -0.22729699
-0.063226998 0.102044 -0.227322
-0.063222997 0.10212 -0.227356
-0.063217998 0.102197 -0.227386
-0.063213997 0.102274 -0.22741
-0.063210003 0.10235 -0.22744399
-0.063204996 0.102427 -0.22747201
-0.063201003 0.102504 -0.227504
-0.063196003 0.102582 -0.22753599
-0.063190997 0.102659 -0.227579
-0.063185997 0.102738 -0.227615
-0.063181996 0.102815 -0.22764701
-0.063176997 0.102894 -0.227689
-0.063170999 0.102975 -0.22773901
-0.063166 0.103056 -0.227787
-0.063161001 0.103135 -0.22783101
-0.063155003 0.103216 -0.227883
-0.063148998 0.103297 -0.22793899
-0.063143998 0.103378 -0.22798701
-0.063137002 0.103461 -0.22806101
-0.063130997 0.103545 -0.22812299
-0.063123003 0.103633 -0.22820701
-0.063657001 0.087123998 -0.228828
-0.063658997 0.087191999 -0.228724
-0.063660003 0.08726 -0.228635
-0.063661002 0.087329 -0.22857501
-0.063661002 0.087394997 -0.228508
-0.063662998 0.087462999 -0.22841799
-0.063662998 0.087531999 -0.228347
-0.063663997 0.0876 -0.22828899
-0.063663997 0.087667003 -0.22823299
-0.063662998 0.087736003 -0.228186
-0.063662998 0.087807 -0.228138
-0.063662 0.087874003 -0.22808699
-0.063662 0.087941997 -0.228035
-0.063661002 0.088012002 -0.227993
-0.063661002 0.088081002 -0.227954
-0.063658997 0.088150002 -0.22792201
-0.063657999 0.088220999 -0.227896
-0.063657001 0.088290997 -0.227865
-0.063656002 0.088359997 -0.227827
-0.063654996 0.088428997 -0.227788
-0.063653 0.088497996 -0.227764
-0.063651003 0.088568002 -0.22774801
-0.063649997 0.088637002 -0.22771899
-0.063648999 0.088706002 -0.227689
-0.063647002 0.088777997 -0.22767501
-0.063644998 0.088846996 -0.22764599
-0.063643999 0.088917002 -0.227608
-0.063642003 0.088986002 -0.227598
-0.063639998 0.089057997 -0.227589
-0.063638002 0.089128003 -0.227569
-0.063635997 0.089197002 -0.227543
-0.063634999 0.089267001 -0.22752599
-0.063631997 0.089337997 -0.227524
-0.063629001 0.089408003 -0.22751801
-0.063626997 0.089478001 -0.227507
-0.063625 0.089550003 -0.227495
-0.063623004 0.089619003 -0.227483
-0.063620999 0.089690998 -0.227468
-0.063617997 0.089760996 -0.22746401
-0.063615002 0.089832999 -0.227476
-0.063611999 0.089905001 -0.227478
-0.063610002 0.089974999 -0.227467
-0.063607998 0.090044998 -0.22745299
-0.063605003 0.090113997 -0.227441
-0.063602999 0.090186 -0.22744
-0.063600004 0.090258002 -0.227446
-0.063597001 0.090328 -0.22744399
-0.063594997 0.090400003 -0.227431
-0.063592002 0.090470001 -0.22742701
-0.063589998 0.090539999 -0.22742499
-0.063587002 0.090611003 -0.227412
-0.063584998 0.090681002 -0.22739799
-0.063582003 0.090752997 -0.2274
-0.063579999 0.090823002 -0.22739799
-0.063576996 0.090894997 -0.22739699
-0.063574001 0.090967 -0.227403
-0.063570999 0.091036998 -0.227411
-0.063568003 0.091109 -0.227414
-0.063565001 0.091181003 -0.227412
-0.063561998 0.091251001 -0.22742
-0.063559003 0.091323003 -0.22742601
-0.063556001 0.091394998 -0.227419
-0.063553996 0.091464996 -0.22740699
-0.063551001 0.091536999 -0.22740901
-0.063547999 0.091606997 -0.22741599
-0.063545004 0.091678999 -0.22741801
-0.063542999 0.091751002 -0.227414
-0.063539997 0.091821 -0.227403
-0.063537002 0.091893002 -0.22740901
-0.063533999 0.091963001 -0.22741701
-0.063530996 0.092035003 -0.22741701
