-0.00397343 -0.0644467 0.997913 0
-0.00569828 -0.0645807 0.997896 0
-0.00624999 -0.0656397 0.997824 0
-0.00552423 -0.0664902 0.997772 0
-0.00729425 -0.0668738 0.997735 0
-0.008873 -0.0690181 0.997576 0
-0.00638115 -0.0741804 0.997224 0
-0.00253604 -0.0827995 0.996563 0
0.000771898 -0.0845297 0.996421 0
0.000128204 -0.0833137 0.996523 0
-0.00208823 -0.0782526 0.996931 0
-0.0047486 -0.0694324 0.997575 0
-0.011494 -0.0598016 0.998144 0
-0.0176692 -0.0502864 0.998578 0
-0.0203029 -0.0396924 0.999006 0
-0.0160453 -0.0373793 0.999172 0
-0.0207964 -0.0317388 0.99928 0
-0.0233361 -0.0269329 0.999365 0
-0.0208528 -0.0222866 0.999534 0
-0.0238053 -0.0167489 0.999576 0
-0.0261216 -0.01015 0.999607 0
-0.0298547 -0.00839384 0.999519 0
-0.031052 -0.00397604 0.99951 0
-0.0302138 0.000122803 0.999543 0.000117612
-0.0346405 0.0099615 0.99935 0.00110611
-0.0377542 0.018517 0.999115 0.00660236
-0.0446767 0.0265585 0.998648 0.0125615
-0.0466704 0.0298411 0.998465 0.0119028
-0.054351 0.0349588 0.99791 0.0164682
-0.0615367 0.0374653 0.997401 0.0170174
-0.0580253 0.036285 0.997655 0.0131674
-0.0605587 0.0352811 0.997541 0.0146361
-0.0675456 0.0430336 0.996788 0.0233205
-0.0719471 0.0482952 0.996239 0.0306932
-0.069284 0.0452121 0.996572 0.0352611
-0.0713115 0.0377306 0.99674 0.0342353
-0.0721363 0.0392393 0.996623 0.0377407
-0.0662227 0.0375019 0.9971 0.0318271
-0.0645666 0.0373812 0.997213 0.0276765
-0.0617238 0.0303904 0.99763 0.0186777
-0.0608749 0.0275504 0.997765 0.0126816
-0.0574876 0.021838 0.998107 0.00472876
-0.0502105 0.0139178 0.998642 0
-0.0505047 0.0143366 0.998621 0
-0.043184 0.00652339 0.999046 0
-0.0393234 0.00241367 0.999224 0
-0.035721 -0.000611966 0.999362 0
-0.0330518 -0.00939315 0.99941 0
-0.0336093 -0.00951203 0.99939 0
-0.0319481 -0.0102785 0.999437 0
-0.0295322 -0.0125941 0.999484 0
-0.027568 -0.013566 0.999528 0
-0.0342172 -0.00599321 0.999397 0
-0.0395689 0.000629106 0.999217 0
-0.0420264 0.00114341 0.999116 0
-0.0456855 0.0121378 0.998882 0
-0.0485245 0.0229017 0.998559 0
-0.0571257 0.0377155 0.997654 0
-0.0599146 0.0468808 0.997102 0
-0.0557766 0.0446754 0.997443 0
-0.05947 0.0495923 0.996997 0
-0.0568897 0.0517955 0.997036 0
-0.0638675 0.0689186 0.995576 0
-0.066971 0.0754264 0.9949 0.0018408
-0.0748817 0.0872056 0.993372 0.00981002
-0.0781335 0.0913253 0.992751 0.0133421
-0.0801524 0.0929747 0.992437 0.0159142
-0.0812342 0.097804 0.991885 0.0153136
-0.070414 0.0888784 0.99355 0
-0.0703238 0.0915734 0.993312 0
-0.0697249 0.0869584 0.993769 0
-0.0684451 0.0876041 0.993801 0
-0.0636413 0.0809145 0.994687 0
-0.0764145 0.0976133 0.992287 0
-0.0755099 0.0935649 0.992746 0
-0.141332 -0.196438 0.970277 0.032491
-0.146195 -0.192326 0.97038 0.0429409
-0.149121 -0.19541 0.969318 0.0481649
-0.154711 -0.191618 0.969199 0.0599846
-0.161601 -0.190148 0.968364 0.0676415
-0.158851 -0.189378 0.96897 0.0645513
-0.152441 -0.180472 0.971695 0.0609382
-0.138525 -0.172183 0.975276 0.0463549
-0.125829 -0.156609 0.979613 0.0368031
-0.116238 -0.148235 0.982097 0.0283805
-0.10698 -0.143103 0.983909 0.0165377
-0.09884 -0.134611 0.985957 0.00787541
-0.090583 -0.127574 0.987684 0
-0.0838685 -0.113793 0.989958 0.000146914
-0.0787066 -0.112036 0.990582 0
-0.0822853 -0.119621 0.989404 0
-0.082651 -0.121371 0.98916 0
-0.0827649 -0.124162 0.988804 0
-0.0795089 -0.118765 0.989734 0
-0.0769689 -0.108553 0.991106 0
-0.0738842 -0.105969 0.991621 0
-0.0741406 -0.107435 0.991444 0
-0.0726607 -0.107203 0.991578 0
-0.0731534 -0.09704 0.992588 0
-0.0723741 -0.0937255 0.992964 0
-0.0724395 -0.0873004 0.993545 0.00721207
-0.0763173 -0.0855307 0.993408 0.0120575
-0.0784834 -0.0875642 0.993062 0.0142942
-0.0796693 -0.0844206 0.99324 0.0217518
-0.0773264 -0.077005 0.994028 0.0260996
-0.0749882 -0.0722628 0.994563 0.0261148
-0.0721718 -0.0631557 0.995391 0.0251256
-0.0698842 -0.0626555 0.995586 0.02854
-0.0660191 -0.0593431 0.996052 0.0233734
-0.0643027 -0.0563408 0.996339 0.0207465
-0.0641835 -0.0538174 0.996486 0.023347
-0.0665232 -0.0473869 0.996659 0.0262443
-0.0655639 -0.0398889 0.997051 0.0295354
-0.0703327 -0.0447071 0.996521 0.0258501
-0.0756041 -0.0467213 0.996043 0.0307487
-0.077741 -0.0448859 0.995963 0.0235126
-0.0786905 -0.0461222 0.995832 0.0224334
-0.0785114 -0.0518554 0.995564 0.019839
-0.0773293 -0.0574753 0.995348 0.0148333
-0.076174 -0.0564644 0.995494 0.0144176
-0.0720489 -0.0560716 0.995824 0.0140319
-0.0738456 -0.055953 0.995699 0.0170727
-0.0769888 -0.0589174 0.99529 0.0225903
-0.0737074 -0.0613464 0.995391 0.024385
-0.0728507 -0.0603324 0.995516 0.0269198
-0.0697615 -0.0600259 0.995756 0.0253301
-0.0711662 -0.0648511 0.995354 0.0227229
-0.0681011 -0.0662665 0.995475 0.016491
-0.0669573 -0.0649943 0.995637 0.017984
-0.0633201 -0.0646232 0.995899 0.0164402
-0.060054 -0.0568667 0.996574 0.02106
-0.0542541 -0.0537247 0.997081 0.0138304
-0.0483228 -0.0562444 0.997247 0.0100219
-0.0468008 -0.0602264 0.997087 0
-0.048164 -0.0576552 0.997174 0
-0.0438173 -0.0536115 0.9976 0
-0.0417227 -0.050203 0.997867 0
-0.0417406 -0.0428929 0.998207 0
-0.043691 -0.0372401 0.998351 0
-0.0432153 -0.0384849 0.998324 0
-0.0443955 -0.0378728 0.998296 0
-0.04483 -0.033986 0.998416 0
-0.0385814 -0.0332763 0.998701 0
-0.0349327 -0.0326881 0.998855 0
-0.0259837 -0.0330293 0.999117 0
-0.0203042 -0.0330946 0.999246 0
-0.0156071 -0.0343794 0.999287 0
-0.0153846 -0.0333836 0.999324 0
-0.0156637 -0.032491 0.999349 0
-0.019036 -0.0330081 0.999274 0
-0.0210372 -0.0332384 0.999226 0
-0.0201968 -0.0370586 0.999109 0
-0.0174957 -0.0407123 0.999018 0
-0.0176035 -0.0428993 0.998924 0
-0.0198706 -0.0480349 0.998648 0
-0.017504 -0.0538096 0.998398 0
-0.013383 -0.0575506 0.998253 0
-0.0069165 -0.0615553 0.99808 0
-0.000557137 -0.0683659 0.99766 0
0.00457292 -0.0752491 0.997154 0
0.00879402 -0.0816868 0.996619 0
0.0105627 -0.0853626 0.996294 0
0.0106928 -0.0854457 0.996285 0
0.00905312 -0.0816574 0.996619 0
0.00899937 -0.0856289 0.996286 0
0.0113028 -0.0859237 0.996238 0
0.013109 -0.0881385 0.996022 0
0.0133546 -0.0897947 0.995871 0
0.0163772 -0.0908674 0.995728 0
0.0172918 -0.0877883 0.995989 0
0.0159457 -0.0874894 0.996038 0
0.014777 -0.08433 0.996328 0
0.00983715 -0.0837072 0.996442 0
0.00872405 -0.0821387 0.996583 0
0.00318829 -0.0737951 0.997268 0
-0.00155305 -0.0612091 0.998124 0
-0.00732112 -0.0526077 0.998588 0
-0.0119508 -0.0471214 0.998818 0
-0.0146972 -0.0444924 0.998902 0
-0.0171638 -0.043968 0.998886 0
-0.0191462 -0.0379302 0.999097 0.000450338
-0.0195313 -0.0334609 0.999249 0
-0.0174319 -0.0353651 0.999222 0
-0.0128277 -0.0398395 0.999124 0
-0.00991304 -0.0449634 0.998939 0
-0.00636323 -0.0502399 0.998717 0
-0.00408118 -0.0523131 0.998622 0
-0.000552126 -0.0488281 0.998807 0
0.00212672 -0.048503 0.998821 0
0.00361529 -0.0488839 0.998798 0
0.00343886 -0.0461085 0.998931 0
0.00291436 -0.0430608 0.999068 0
0.00434999 -0.0395673 0.999207 0
0.00409042 -0.03954 0.99921 0
0.00124965 -0.0369764 0.999315 0
0.00112585 -0.0419504 0.999119 0
0.00177432 -0.0435283 0.999051 0
0.00393678 -0.0472304 0.998876 0
0.00785805 -0.0525515 0.998587 0
0.0125331 -0.0514545 0.998597 0
0.0138049 -0.0490666 0.9987 0
0.0108768 -0.0442006 0.998963 0
0.0118244 -0.0435433 0.998982 0
0.00989866 -0.0396168 0.999166 0
0.00812176 -0.0405953 0.999143 0
0.00855529 -0.0366379 0.999292 0
0.00834302 -0.0327203 0.99943 0
0.00630528 -0.0301016 0.999527 0
0.00607834 -0.0277466 0.999597 0
0.00424343 -0.0235364 0.999714 0
0.00367493 -0.0201937 0.999789 0.00627246
-0.00505942 -0.0174063 0.999836 0.0255919
-0.014152 -0.0121425 0.999826 0.0342155
-0.020422 -0.00975357 0.999744 0.0417492
-0.0245277 -0.0115434 0.999632 0.0452212
-0.024628 -0.0173808 0.999546 0.0435398
-0.0271371 -0.0199351 0.999433 0.0418281
-0.0237255 -0.0257983 0.999386 0.0322641
-0.0232442 -0.0305849 0.999262 0.0228328
-0.0197478 -0.033636 0.999239 0.0145731
-0.0154484 -0.0392056 0.999112 0.0128065
-0.0150297 -0.0409773 0.999047 0.00485282
-0.0114054 -0.0445242 0.998943 0
-0.0113737 -0.0479961 0.998783 0
-0.0118182 -0.0486995 0.998744 0
-0.00984139 -0.051845 0.998607 0
-0.00700691 -0.0565874 0.998373 0
-0.00712915 -0.0585021 0.998262 0
-0.00574541 -0.0591678 0.998232 0
-0.00341051 -0.0637852 0.997958 0
-0.00468065 -0.0662826 0.99779 0
-0.0036896 -0.0666438 0.99777 0
-0.00623679 -0.063749 0.997947 0
-0.00837988 -0.061316 0.998083 0
-0.00781847 -0.059204 0.998215 0.00562055
-0.0112067 -0.0543035 0.998462 0.00798049
-0.0094826 -0.0552209 0.998429 0.000936983
-0.00899343 -0.0540573 0.998497 0.000996465
-0.00964619 -0.0535753 0.998517 0.00320471
-0.00886976 -0.0557616 0.998405 0
-0.00775236 -0.0577169 0.998303 0
-0.0111073 -0.056261 0.998354 0
-0.0121728 -0.0599273 0.998129 0
-0.0110294 -0.0651401 0.997815 0
-0.00945407 -0.064503 0.997873 0
-0.00824586 -0.0635389 0.997945 0
-0.00489212 -0.0656892 0.997828 0
0.00147274 -0.0730716 0.997326 0
0.00225038 -0.0756902 0.997129 0
-0.00171978 -0.0715806 0.997433 0
-0.00799447 -0.0636737 0.997939 0
-0.0117147 -0.0561569 0.998353 0
-0.0131094 -0.0515412 0.998585 0
-0.0142522 -0.0459982 0.99884 0
-0.01199 -0.0418112 0.999054 0
-0.0126606 -0.0393834 0.999144 0
-0.0195986 -0.0299304 0.99936 0
-0.0251978 -0.0206523 0.999469 0.00322984
-0.0229491 -0.0188035 0.99956 0
-0.028339 -0.0102743 0.999546 0.00672881
-0.0277659 -0.00837372 0.999579 0.00550656
-0.0296976 -0.00262945 0.999555 0.00566894
-0.0309047 0.00141253 0.999521 0.00718744
-0.0310426 0.00889807 0.999478 0.00807688
-0.0356944 0.0122718 0.999287 0.00849043
-0.0421573 0.0194158 0.998922 0.00828267
-0.0435281 0.0238248 0.998768 0.0104275
-0.0474685 0.027782 0.998486 0.0132283
-0.048686 0.0292351 0.998386 0.0142364
-0.0529542 0.0321067 0.998081 0.0173597
-0.0500888 0.029531 0.998308 0.0179996
-0.0514761 0.0338248 0.998101 0.0176301
-0.0498055 0.0324041 0.998233 0.0129617
-0.0560498 0.0370802 0.997739 0.0194648
-0.0598005 0.0413657 0.997353 0.0227778
-0.0561506 0.0363675 0.99776 0.0232819
-0.0587268 0.0313671 0.997781 0.0243834
-0.0602835 0.0315762 0.997682 0.0219303
-0.0603824 0.0303961 0.997712 0.0194753
-0.0544285 0.020588 0.998305 0.00947236
-0.0504105 0.0127458 0.998647 0.000925333
-0.0471197 0.00474339 0.998878 0
-0.0432716 0.000732875 0.999063 0
-0.040851 0.00230753 0.999163 0
-0.0396955 0.00311191 0.999207 0
-0.0413875 0.0042628 0.999134 0
-0.0351618 -0.00115908 0.999381 0
-0.0367944 -0.00135768 0.999322 0
-0.0297025 -0.00849292 0.999523 0
-0.0339256 -0.00306803 0.99942 0
-0.0325799 -0.00710414 0.999444 0
-0.0355889 -0.00287218 0.999362 0
-0.0325913 -0.00789925 0.999438 0
-0.0367175 -0.0014214 0.999325 0
-0.0413591 0.000264562 0.999144 0
-0.0465356 0.0110254 0.998856 0
-0.0483452 0.0192918 0.998644 0
-0.0532327 0.0296886 0.998141 0
-0.0554568 0.0392277 0.99769 0
-0.056313 0.0432333 0.997477 0
-0.0576006 0.0489514 0.997139 0
-0.0602293 0.062732 0.996211 0.00309505
-0.0612459 0.0636988 0.996088 0.0106973
-0.0629696 0.0676996 0.995717 0.0106336
-0.0693156 0.0789351 0.994467 0.016137
-0.0693774 0.0790851 0.994451 0.0101953
-0.066116 0.0739256 0.99507 0.00293284
-0.0724205 0.0796753 0.994187 0.00705328
-0.078048 0.0919602 0.992699 0.0045607
-0.0770225 0.094831 0.992509 0.000985706
-0.0721575 0.089121 0.993404 0
-0.0670642 0.0801299 0.994526 0
-0.0666274 0.0850741 0.994144 0
-0.0635109 0.0817395 0.994628 0
-0.0661428 0.0796243 0.994628 0
-0.070043 0.0836425 0.994031 0
-0.137944 -0.189283 0.972185 0.024127
-0.144007 -0.191404 0.970889 0.0372431
-0.144888 -0.188028 0.971418 0.0447888
-0.138725 -0.180788 0.973689 0.0415329
-0.144829 -0.180407 0.972871 0.0558778
-0.150638 -0.177904 0.97245 0.0644169
-0.149374 -0.177576 0.972704 0.0652415
-0.143715 -0.167231 0.975387 0.0594489
-0.130121 -0.153329 0.979571 0.0430131
-0.123576 -0.152218 0.980591 0.0334718
-0.111832 -0.144583 0.983153 0.0190882
-0.103053 -0.137607 0.985111 0.0120666
-0.0976227 -0.132528 0.98636 0.00445767
-0.0938272 -0.130116 0.987049 0
-0.0847635 -0.11958 0.989199 0
-0.080114 -0.115557 0.990065 0
-0.0757349 -0.116292 0.990323 0
-0.0764341 -0.122242 0.989553 0
-0.075181 -0.120874 0.989817 0
-0.0738629 -0.117475 0.990325 0
-0.0718796 -0.108924 0.991448 0
-0.0710611 -0.102845 0.992156 0
-0.0701578 -0.0970731 0.992801 0
-0.0701149 -0.0978962 0.992724 0
-0.0692412 -0.0947512 0.99309 0
-0.0716311 -0.087458 0.99359 0.00878826
-0.0738602 -0.0846267 0.993671 0.0147941
-0.0747336 -0.0843055 0.993634 0.0187376
-0.0782025 -0.0889704 0.992959 0.0220001
-0.0779925 -0.089353 0.992942 0.0281792
-0.0773172 -0.0797475 0.993812 0.0327202
-0.0782988 -0.0684255 0.994579 0.0357124
-0.0738408 -0.0602489 0.995448 0.033237
-0.0708115 -0.0563994 0.995894 0.0331833
-0.0712921 -0.0558985 0.995888 0.0354935
-0.0743025 -0.0551547 0.995709 0.0368448
-0.0727781 -0.0506114 0.996063 0.031212
-0.0678551 -0.0453655 0.996663 0.0275264
-0.0672319 -0.0395286 0.996954 0.0295611
-0.0649469 -0.0376896 0.997177 0.0275535
-0.0689247 -0.0414276 0.996761 0.0270989
-0.0772817 -0.0425117 0.996103 0.0318425
-0.083916 -0.0440606 0.995498 0.0287181
-0.0840678 -0.0451895 0.995435 0.024226
-0.0819951 -0.0461253 0.995565 0.0226191
-0.0777271 -0.0507987 0.99568 0.016797
-0.0767512 -0.0555212 0.995503 0.0146954
-0.0682201 -0.0525302 0.996286 0.0158545
-0.0646097 -0.0520708 0.996551 0.019305
-0.0650034 -0.0557936 0.996324 0.0223962
-0.0620658 -0.05572 0.996515 0.0298566
-0.0626725 -0.0553249 0.9965 0.0296438
-0.0624405 -0.0576826 0.99638 0.0303217
-0.0615569 -0.0616536 0.996198 0.0249615
-0.0610667 -0.0636709 0.996101 0.0222564
-0.0602372 -0.0632183 0.99618 0.0185847
-0.062259 -0.0619013 0.996139 0.0232171
-0.0576201 -0.0557928 0.996778 0.0227583
-0.0521186 -0.0526598 0.997252 0.0208371
-0.0476506 -0.0536954 0.99742 0.0134059
-0.044341 -0.0562198 0.997433 0
-0.0454688 -0.0529736 0.99756 0
-0.044512 -0.0493182 0.997791 0
-0.0399124 -0.0454842 0.998167 0
-0.0397387 -0.0396811 0.998422 0
-0.0422792 -0.0391101 0.99834 0
-0.0426741 -0.0420921 0.998202 0
-0.0409681 -0.0391134 0.998395 0
-0.0395639 -0.0373517 0.998519 0
-0.0362854 -0.0339547 0.998765 0
-0.0287599 -0.0328744 0.999046 0
-0.0238418 -0.0338137 0.999144 0
-0.0215874 -0.0358763 0.999123 0
-0.0183268 -0.0388112 0.999079 0
-0.0200836 -0.0348593 0.99919 0
-0.0153763 -0.0377862 0.999168 0
-0.014527 -0.0367057 0.99922 0
-0.0162774 -0.0406798 0.99904 0
-0.0167018 -0.0396415 0.999074 0
-0.0163374 -0.0394261 0.999089 0
-0.0148277 -0.0437031 0.998935 0
-0.0114799 -0.0527269 0.998543 0
-0.0094486 -0.0558549 0.998394 0
-0.00439333 -0.0610268 0.998127 0
0.001142 -0.0673744 0.997727 0
0.00972437 -0.0771447 0.996972 0
0.0139261 -0.0800454 0.996694 0
0.0190308 -0.0817388 0.996472 0
0.0213345 -0.0845694 0.996189 0
0.023348 -0.0881752 0.995831 0
0.0208413 -0.0882341 0.995882 0
0.0179795 -0.0875994 0.995994 0
0.0161429 -0.0888367 0.995915 0
0.0175189 -0.0911813 0.99568 0
0.0203977 -0.0923547 0.995517 0
0.021439 -0.0917577 0.995551 0
0.0169934 -0.0889392 0.995892 0
0.0116904 -0.0835609 0.996434 0
0.00838759 -0.0832486 0.996494 0
0.00233188 -0.076638 0.997056 0
0.00114876 -0.0656292 0.997843 0
-0.00422424 -0.0547446 0.998491 0
-0.00906267 -0.0498923 0.998713 0
-0.0139759 -0.0432621 0.998966 0
-0.0165634 -0.0413122 0.999009 0.00290854
-0.0190997 -0.0407479 0.998987 0.0141069
-0.0197077 -0.0372031 0.999113 0.0130239
-0.0154602 -0.034894 0.999271 0
-0.0126025 -0.033906 0.999346 0
-0.0102361 -0.0365877 0.999278 0
-0.00415813 -0.0431285 0.999061 0
0.000443937 -0.0495832 0.99877 0
0.00333147 -0.0528871 0.998595 0
0.00708011 -0.0509736 0.998675 0
0.00830125 -0.0484481 0.998791 0
0.00606932 -0.0458406 0.99893 0
0.00277145 -0.0450876 0.998979 0
0.00311042 -0.0415622 0.999131 0
0.00464421 -0.0414602 0.999129 0
0.00364858 -0.0407169 0.999164 0
0.00220565 -0.0386214 0.999251 0
8.18739e-05 -0.0402601 0.999189 0
0.0031212 -0.0439807 0.999027 0
0.00560917 -0.0463824 0.998908 0
0.00785671 -0.0498579 0.998725 0
0.0120154 -0.0496149 0.998696 0
0.0138135 -0.0463566 0.998829 0
0.013748 -0.0474355 0.99878 0
0.0151478 -0.0462328 0.998816 0
0.0164101 -0.0434159 0.998922 0
0.0189652 -0.0451386 0.998801 0
0.0172857 -0.0397172 0.999061 0
0.0133101 -0.0339959 0.999333 0
0.0112708 -0.0310524 0.999454 0
0.0079517 -0.0279646 0.999577 0
0.00467245 -0.025941 0.999653 0
9.3965e-05 -0.0230431 0.999735 0.01025
-0.00556995 -0.0167325 0.999844 0.0244644
-0.0134637 -0.0097508 0.999862 0.0400007
-0.0157004 -0.0107913 0.999819 0.037119
-0.0178921 -0.0115087 0.999774 0.0365119
-0.0169258 -0.0206362 0.999644 0.0308596
-0.0147585 -0.0267675 0.999533 0.0270072
-0.0144705 -0.0339827 0.999318 0.0187681
-0.0148633 -0.0370836 0.999202 0.0175746
-0.0143321 -0.037058 0.99921 0.015732
-0.015327 -0.0405075 0.999062 0.0195909
-0.0111217 -0.0449718 0.998926 0.0111776
-0.00577037 -0.0519876 0.998631 0
-0.00399535 -0.0536972 0.998549 0
-0.00173461 -0.0598498 0.998206 0
-0.00212225 -0.0626924 0.998031 0
-0.00252827 -0.0614977 0.998104 0
-0.00112117 -0.0607434 0.998153 0
-0.00378425 -0.0605968 0.998155 0
-0.00191514 -0.0633207 0.997991 0
-0.00362019 -0.0627674 0.998022 0
-0.00765304 -0.0629184 0.997989 0.00209576
-0.0101767 -0.0622553 0.998008 0.00417955
-0.00681746 -0.061519 0.998083 0.00527885
-0.0107322 -0.0596862 0.998159 0.017208
-0.0145065 -0.0558845 0.998332 0.0177345
-0.0159562 -0.0534941 0.998441 0.0180484
-0.0151214 -0.0506573 0.998602 0.0185228
-0.0128607 -0.0542678 0.998444 0.0137231
-0.0116927 -0.0557887 0.998374 0.00895523
-0.00802849 -0.0601919 0.998155 0
-0.00929305 -0.0575151 0.998301 0
-0.0109035 -0.0581022 0.998251 0
-0.0109299 -0.0603414 0.998118 0
-0.00932056 -0.0594966 0.998185 0
-0.00618224 -0.0608467 0.998128 0
-0.00392088 -0.0615018 0.998099 0
-0.0048995 -0.0621245 0.998056 0
-0.00630451 -0.0634946 0.997962 0
-0.00685314 -0.0616831 0.998072 0
-0.0138689 -0.0512787 0.998588 0
-0.0170911 -0.0486771 0.998668 0
-0.0163034 -0.0465931 0.998781 0
-0.014572 -0.0433825 0.998952 0
-0.0170769 -0.0351469 0.999236 0
-0.0155125 -0.0307691 0.999406 0
-0.0192707 -0.0213879 0.999586 0
-0.02096 -0.0182466 0.999614 0
-0.0229781 -0.0147871 0.999627 0
-0.0253888 -0.0102988 0.999625 0
-0.0264446 -0.00418738 0.999642 0.00270183
-0.026318 -0.00261592 0.99965 0.00711623
-0.0306609 0.0026492 0.999526 0.00928221
-0.0358928 0.0127389 0.999274 0.0123603
-0.0402584 0.0144152 0.999085 0.0120356
-0.0448704 0.0220094 0.99875 0.017262
-0.049925 0.0265552 0.9984 0.0197616
-0.053691 0.029509 0.998122 0.0192598
-0.0512027 0.0281298 0.998292 0.0179933
-0.055627 0.0307658 0.997978 0.0193308
-0.0564807 0.0300584 0.997951 0.0175164
-0.0585082 0.0356955 0.997649 0.0177061
-0.0558116 0.0330709 0.997893 0.012804
-0.0588115 0.0383566 0.997532 0.0172374
-0.0539321 0.0360545 0.997893 0.0170813
-0.0510815 0.0305687 0.998227 0.0147337
-0.0535271 0.0291349 0.998141 0.016366
-0.0519666 0.0230968 0.998382 0.0119606
-0.0490598 0.0226877 0.998538 0.00455367
-0.0510809 0.0216513 0.99846 0.00101968
-0.0501367 0.0161093 0.998612 0.00323334
-0.0435521 0.00726478 0.999025 0
-0.0427751 0.00483087 0.999073 0
-0.0375805 0.000880568 0.999293 0
-0.0353528 0.00060344 0.999375 0
-0.0326953 -2.40265e-05 0.999465 0
-0.0341411 -0.00385204 0.99941 0
-0.0326403 -0.009201 0.999425 0
-0.0310901 -0.0138995 0.99942 0
-0.0322256 -0.0103689 0.999427 0
-0.0300705 -0.01121 0.999485 0
-0.0290128 -0.0146033 0.999472 0
-0.0309479 -0.00997204 0.999471 0
-0.0346006 -0.00632141 0.999381 0
-0.0383173 -0.00461844 0.999255 0
-0.0423977 0.00415648 0.999092 0
-0.0473704 0.0184175 0.998708 0
-0.0556014 0.0354206 0.997825 0
-0.0566794 0.038922 0.997633 0.000538035
-0.0562746 0.043998 0.997445 0.000399499
-0.0591636 0.0534783 0.996815 0.00498568
-0.0600425 0.0549128 0.996684 0.012297
-0.0624138 0.0594511 0.996278 0.0152096
-0.0648575 0.0642715 0.995823 0.0184324
-0.0677254 0.0736489 0.994982 0.0180174
-0.0649933 0.0690971 0.995491 0.00772467
-0.0635109 0.065149 0.995852 0
-0.0656201 0.061796 0.995929 0
-0.0768478 0.0848329 0.993427 0.0102681
-0.073282 0.0833824 0.993819 0.00352383
-0.0705322 0.08391 0.993974 0
-0.065573 0.0750258 0.995023 0
-0.0683209 0.0780653 0.994604 0
-0.070949 0.0860189 0.993764 0
-0.0715709 0.0830336 0.993973 0
-0.072247 0.0854867 0.993716 0
-0.0687599 0.0784209 0.994546 0
-0.0696347 0.0816331 0.994227 0
-0.129693 -0.190479 0.973087 0.0187227
-0.127926 -0.179568 0.975393 0.0142005
-0.138304 -0.180611 0.973782 0.0327104
-0.141694 -0.18237 0.972967 0.0415117
-0.138459 -0.18073 0.973738 0.0515501
-0.144961 -0.182309 0.972497 0.056366
-0.143722 -0.172437 0.974479 0.0551829
-0.141155 -0.167689 0.975682 0.0531969
-0.135041 -0.162085 0.977493 0.0488992
-0.125406 -0.148766 0.980888 0.0379422
-0.117933 -0.147077 0.982069 0.0267929
-0.108338 -0.138399 0.984433 0.0124967
-0.102698 -0.134635 0.985559 0.00714178
-0.0954657 -0.133568 0.986431 0.000662519
-0.090556 -0.13643 0.986502 0
-0.0841717 -0.130855 0.987822 0
-0.0772357 -0.121156 0.989624 0
-0.0737002 -0.12231 0.989752 0
-0.0710032 -0.122886 0.989878 0
-0.0711083 -0.120582 0.990153 0
-0.0685773 -0.115812 0.990901 0
-0.0674795 -0.107658 0.991895 0
-0.0654086 -0.0953393 0.993294 0
-0.0685306 -0.0953571 0.993081 0
-0.0693762 -0.093342 0.993214 0
-0.0706497 -0.0906309 0.993375 0.000880751
-0.0704627 -0.0891835 0.99352 0.00995155
-0.071464 -0.0861471 0.993716 0.0140252
-0.075442 -0.0855084 0.993477 0.022829
-0.0761299 -0.0820864 0.993713 0.026368
-0.0783614 -0.0807228 0.993652 0.0312244
-0.0792523 -0.0800321 0.993637 0.0329637
-0.0770135 -0.0690335 0.994637 0.0356772
-0.0748198 -0.0596568 0.995411 0.0379606
-0.0719697 -0.0523471 0.996032 0.039421
-0.0674309 -0.0517494 0.996381 0.0405388
-0.0708026 -0.0541146 0.996021 0.0393688
-0.0734431 -0.05286 0.995897 0.0369508
-0.0724196 -0.0478184 0.996227 0.0339765
-0.0751394 -0.0434642 0.996225 0.0363374
-0.0686552 -0.0367488 0.996963 0.0323349
-0.0674159 -0.0334174 0.997165 0.0337347
-0.0671727 -0.0351482 0.997122 0.0347296
-0.0767223 -0.0380859 0.996325 0.0331238
-0.0807335 -0.0345686 0.996136 0.0353864
-0.0832212 -0.0404946 0.995708 0.028679
-0.0796277 -0.0395173 0.996041 0.0275226
-0.07685 -0.0476583 0.995903 0.0226691
-0.0716991 -0.049839 0.99618 0.0210911
-0.0704045 -0.0502713 0.996251 0.022237
-0.0637207 -0.0505161 0.996688 0.0252239
-0.0607199 -0.051591 0.996821 0.0263523
-0.061271 -0.0488533 0.996925 0.0316063
-0.0580651 -0.0503412 0.997043 0.030445
-0.0585651 -0.0564634 0.996686 0.0321208
-0.0573155 -0.0612736 0.996474 0.0287476
-0.0563384 -0.0606627 0.996567 0.0269705
-0.0524277 -0.0610004 0.99676 0.0197185
-0.0472409 -0.060421 0.997054 0.0125428
-0.0472319 -0.0537016 0.997439 0.0118088
-0.0456141 -0.0515998 0.997626 0.00963374
-0.04094 -0.0562979 0.997574 0
-0.0397359 -0.0543229 0.997732 0
-0.0400402 -0.051434 0.997873 0
-0.0365057 -0.0491828 0.998122 0
-0.0395289 -0.0457201 0.998172 0
-0.041968 -0.041163 0.998271 0
-0.0353661 -0.0436232 0.998422 0
-0.0344195 -0.0412876 0.998554 0
-0.0328544 -0.0396268 0.998674 0
-0.0316089 -0.0362507 0.998843 0
-0.0260306 -0.0363806 0.998999 0
-0.019054 -0.0356071 0.999184 0
-0.0142026 -0.0367199 0.999225 0
-0.0137825 -0.0371819 0.999213 0
-0.0150595 -0.0380634 0.999162 0
-0.013359 -0.0392315 0.999141 0
-0.0115864 -0.0397354 0.999143 0
-0.0135742 -0.0414483 0.999048 0
-0.0125777 -0.043313 0.998982 0
-0.014405 -0.0431452 0.998965 0
-0.0119041 -0.0490215 0.998727 0
-0.00835151 -0.0535438 0.998531 0
-0.00389437 -0.0553227 0.998461 0
0.000975358 -0.059984 0.998199 0
0.00987011 -0.0679163 0.997642 0
0.0142752 -0.0740678 0.997151 0
0.018755 -0.0818979 0.996464 0
0.0242452 -0.0869964 0.995914 0
0.0290563 -0.0922256 0.995314 0
0.0336508 -0.0966592 0.994749 0
0.032128 -0.0942031 0.995034 0
0.0269121 -0.0876663 0.995786 0
0.0249822 -0.0881287 0.995796 0
0.0240465 -0.0910187 0.995559 0
0.0269666 -0.0898916 0.995586 0
0.0266607 -0.089629 0.995618 0
0.0222352 -0.0902412 0.995672 0
0.0182288 -0.0857171 0.996153 0
0.0158016 -0.0811215 0.996579 0
0.0103276 -0.0774455 0.996943 0
0.00160641 -0.0652688 0.997866 0
-0.00433425 -0.0533301 0.998568 0
-0.0108566 -0.0447084 0.998941 0
-0.0169933 -0.0363343 0.999195 0.00232777
-0.0218084 -0.0349894 0.99915 0.0249628
-0.0234887 -0.035083 0.999108 0.0304635
-0.0214939 -0.0348793 0.99916 0.020095
-0.0183382 -0.0340026 0.999253 0.00498563
-0.0151621 -0.0303204 0.999425 0
-0.00853563 -0.0344698 0.999369 0
-0.00329347 -0.0381946 0.999265 0
0.00197972 -0.0431917 0.999065 0
0.00422332 -0.0459555 0.998935 0
0.00409547 -0.0429231 0.99907 0
0.00583149 -0.0391814 0.999215 0
0.00957863 -0.0382841 0.999221 0
0.00820902 -0.0399148 0.999169 0
0.00771552 -0.0419353 0.99909 0
0.00824494 -0.0444889 0.998976 0
0.00649304 -0.0434405 0.999035 0
0.00600901 -0.0395625 0.999199 0
0.00317589 -0.0397835 0.999203 0
0.0038478 -0.0421021 0.999106 0
0.00336856 -0.0425389 0.999089 0
0.00391577 -0.0449858 0.99898 0
0.00546515 -0.0443364 0.999002 0
0.00718336 -0.0407322 0.999144 0
0.00991349 -0.0405981 0.999126 0
0.0142108 -0.0420412 0.999015 0
0.0164318 -0.037908 0.999146 0
0.0191264 -0.0384254 0.999078 0
0.0162909 -0.0380133 0.999144 0
0.0131223 -0.0353649 0.999288 0
0.0129384 -0.0318094 0.99941 0
0.0117705 -0.0290783 0.999508 0
0.0104882 -0.0259757 0.999608 0
0.00434356 -0.0224079 0.999739 0.00773288
-0.00103717 -0.0203054 0.999793 0.0211299
-0.00379147 -0.0200771 0.999791 0.0279965
-0.00573077 -0.0193857 0.999796 0.0221274
-0.00770374 -0.0197642 0.999775 0.020668
-0.00876968 -0.023192 0.999692 0.0227187
-0.00905554 -0.0269404 0.999596 0.0267618
-0.00728 -0.0361016 0.999322 0.0184038
-0.00658853 -0.0410166 0.999137 0.0120165
-0.00659304 -0.0421557 0.999089 0.0113638
-0.00649228 -0.0439652 0.999012 0.0143312
-0.00732357 -0.0468905 0.998873 0.0063624
-0.00340057 -0.0514128 0.998672 0
-0.00264534 -0.055767 0.99844 0
-0.000763266 -0.0620899 0.99807 0
-0.00104445 -0.06274 0.998029 0
-0.00223999 -0.0604562 0.998168 0
-0.00299742 -0.0608195 0.998144 0
-0.00522872 -0.0592769 0.998228 0
-0.00385179 -0.0596377 0.998213 0
-0.00489551 -0.0607542 0.998141 0.00202303
-0.00744733 -0.0612346 0.998096 0.00434443
-0.00984368 -0.062499 0.997996 0.00821992
-0.0120094 -0.0603689 0.998104 0.0167792
-0.0167095 -0.0562067 0.998279 0.0254552
-0.0191685 -0.0528402 0.998419 0.0273628
-0.0208011 -0.0508493 0.99849 0.0231102
-0.0186426 -0.0504124 0.998555 0.0209531
-0.0144894 -0.0537096 0.998451 0.0168059
-0.013455 -0.0564345 0.998316 0.0113753
-0.0105823 -0.0589983 0.998202 0
-0.0123978 -0.0568076 0.998308 0.00279842
-0.0107943 -0.0554798 0.998402 0
-0.00686489 -0.0582576 0.998278 0
-0.00666654 -0.058702 0.998253 0
-0.00746651 -0.0570652 0.998343 0
-0.00793444 -0.0547242 0.99847 0
-0.00817569 -0.054608 0.998474 0
-0.0078382 -0.0561702 0.99839 0
-0.0120544 -0.052509 0.998548 0
-0.0166494 -0.0444122 0.998875 0
-0.0166838 -0.0437973 0.998901 0
-0.015493 -0.0398688 0.999085 0
-0.0128917 -0.0373229 0.99922 0
-0.015119 -0.032673 0.999352 0
-0.0131627 -0.0292224 0.999486 0
-0.0154185 -0.0224081 0.99963 0
-0.0182724 -0.0171324 0.999686 0
-0.0215041 -0.0147528 0.99966 0
-0.0235959 -0.00475113 0.99971 0.00291103
-0.0191481 -0.00200463 0.999815 0.00491478
-0.0227979 -0.000408597 0.99974 0.00790414
-0.0267908 0.00241389 0.999638 0.0133871
-0.0367465 0.0123143 0.999249 0.015081
-0.0396884 0.0130182 0.999127 0.017059
-0.0486355 0.0222913 0.998568 0.0188504
-0.051159 0.0280894 0.998295 0.019743
-0.0546151 0.0275769 0.998127 0.0227828
-0.0589997 0.026532 0.997905 0.0209957
-0.0578896 0.0261764 0.99798 0.0194315
-0.05995 0.0281279 0.997805 0.0178007
-0.0594814 0.0303877 0.997767 0.017303
-0.059914 0.0356627 0.997566 0.0179792
-0.0579791 0.0380809 0.997591 0.0201891
-0.0559762 0.0384839 0.99769 0.0216991
-0.0508781 0.0314834 0.998208 0.0186524
-0.0487188 0.0257987 0.998479 0.0134124
-0.0492434 0.0246784 0.998482 0.0122979
-0.0487268 0.0224308 0.99856 0.00317444
-0.0488443 0.0220144 0.998564 0.0062143
-0.0465194 0.015873 0.998791 0.00555097
-0.0452399 0.00835137 0.998941 0.00126264
-0.0413788 0.00160381 0.999142 0.000573649
-0.0309538 -0.00343046 0.999515 0
-0.0358199 0.00119061 0.999358 0
-0.0361444 0.00034713 0.999346 0
-0.0378999 0.0010109 0.999281 0
-0.0335191 -0.00975257 0.99939 0
-0.0331782 -0.0109164 0.99939 0
-0.0293768 -0.0150842 0.999455 0
-0.0260543 -0.0190427 0.999479 0
-0.0290311 -0.0144218 0.999474 0
-0.0314694 -0.00851773 0.999468 0
-0.0352318 -0.0055864 0.999364 0
-0.034818 -0.00710169 0.999368 0
-0.0407495 -0.000185281 0.999169 0
-0.0468055 0.0143466 0.998801 0
-0.0538305 0.0271652 0.99818 0
-0.0552887 0.0374563 0.997768 0
-0.05416 0.0381399 0.997804 0.000223314
-0.0555982 0.0450519 0.997436 0.0047415
-0.0534865 0.041296 0.997714 0.00898051
-0.0576992 0.0502869 0.997067 0.0139332
-0.0605467 0.0565275 0.996563 0.0137154
-0.0620884 0.0627659 0.996095 0.0100356
-0.0635177 0.0649955 0.995862 0.00763022
-0.06118 0.0581022 0.996434 0.0014723
-0.061656 0.0569096 0.996474 0.00286258
-0.0679835 0.0715904 0.995115 0.00693884
-0.0713609 0.082468 0.994036 0.00759614
-0.0743046 0.0855634 0.993558 0.00414712
-0.0733153 0.0842541 0.993743 0.00176668
-0.0762433 0.0872537 0.993264 0
-0.0770604 0.0919238 0.99278 0
-0.0696398 0.0823068 0.994171 0
-0.0691689 0.0779958 0.994551 0
-0.0662161 0.07281 0.995145 0
-0.0642589 0.0656659 0.99577 0
-0.126113 -0.19425 0.972812 0.0094524
-0.130955 -0.195131 0.971995 0.0199941
-0.129963 -0.187975 0.973537 0.0280636
-0.1333 -0.187995 0.973082 0.0315621
-0.129521 -0.177381 0.975582 0.0329959
-0.127566 -0.17736 0.975843 0.0312882
-0.133636 -0.176133 0.975253 0.0399413
-0.132104 -0.168455 0.976817 0.0422223
-0.129553 -0.166775 0.977447 0.0401048
-0.120092 -0.153711 0.980791 0.0334586
-0.121687 -0.154655 0.980446 0.0288557
-0.112006 -0.148335 0.982574 0.0129836
-0.106101 -0.140671 0.984355 0.0094683
-0.102651 -0.135592 0.985433 0.00472119
-0.0977409 -0.139477 0.98539 0
-0.0915869 -0.136429 0.986407 0
-0.0891537 -0.139434 0.98621 0
-0.0873657 -0.141837 0.986027 0
-0.0834423 -0.140639 0.986538 0
-0.0763371 -0.134124 0.98802 0
-0.0718322 -0.129475 0.988977 0
-0.0683481 -0.126668 0.989588 0
-0.0651636 -0.125567 0.989943 0
-0.0662204 -0.126321 0.989777 0
-0.0652719 -0.121589 0.990432 0
-0.0622213 -0.111289 0.991838 0
-0.0619197 -0.101228 0.992934 0
-0.0620929 -0.0958909 0.993453 0
-0.0640476 -0.0949403 0.99342 0
-0.0677283 -0.0949933 0.993171 0
-0.0677243 -0.0904271 0.993598 0
-0.068876 -0.0835277 0.994122 0.00762949
-0.0682011 -0.0774444 0.994661 0.0151851
-0.0737815 -0.0786734 0.994166 0.025665
-0.0761012 -0.0698021 0.994654 0.0351158
-0.0788615 -0.0691094 0.994487 0.0399308
-0.0742565 -0.0608898 0.995378 0.0392676
-0.068638 -0.0545766 0.996148 0.0368394
-0.0623331 -0.0451832 0.997032 0.0385671
-0.0649436 -0.0467495 0.996793 0.0421733
-0.0685209 -0.0445485 0.996655 0.0488834
-0.0715582 -0.0393519 0.99666 0.0518916
-0.0725674 -0.0360379 0.996712 0.0483533
-0.0745608 -0.0310187 0.996734 0.0523228
-0.0786265 -0.0316631 0.996401 0.0518633
-0.07912 -0.0308675 0.996387 0.0488198
-0.0786153 -0.0278308 0.996516 0.0458739
-0.0780802 -0.0275069 0.996568 0.0440844
-0.075227 -0.0257321 0.996834 0.0403692
-0.078073 -0.026348 0.996599 0.0410948
-0.0766071 -0.0273868 0.996685 0.0410795
-0.0718837 -0.0353767 0.996785 0.0327355
-0.0700592 -0.0392351 0.996771 0.0311154
-0.064489 -0.0386139 0.997171 0.0269604
-0.0616084 -0.0419054 0.99722 0.0277463
-0.0592905 -0.044919 0.99723 0.0294764
-0.0569467 -0.0417755 0.997503 0.0323745
-0.0529937 -0.0448921 0.997585 0.0300611
-0.05095 -0.0517361 0.99736 0.0316314
-0.0502268 -0.0552072 0.997211 0.0280172
-0.0442989 -0.0584909 0.997305 0.0220099
-0.0436928 -0.0621181 0.997112 0.0145143
-0.0456311 -0.0585472 0.997241 0.0155991
-0.0439996 -0.0537333 0.997585 0.0134386
-0.0431344 -0.0517862 0.997726 0.00611786
-0.0448075 -0.0508813 0.997699 0
-0.0401668 -0.0528751 0.997793 0
-0.0431505 -0.050018 0.997816 0
-0.0408014 -0.0489742 0.997966 0
-0.03775 -0.0476534 0.99815 0
-0.0270485 -0.0457479 0.998587 0
-0.0216733 -0.0438159 0.998805 0
-0.0192238 -0.0389302 0.999057 0
-0.0134627 -0.041023 0.999067 0
-0.0117819 -0.0402587 0.99912 0
-0.00973382 -0.0400709 0.999149 0
-0.00739889 -0.0386952 0.999224 0
-0.00605325 -0.0354765 0.999352 0
-0.00714586 -0.0379785 0.999253 0
-0.00460786 -0.0397746 0.999198 0
-0.00621321 -0.0395549 0.999198 0
-0.00508637 -0.0420213 0.999104 0
-0.00384011 -0.0440091 0.999024 0
0.00270519 -0.0506884 0.998711 0
0.00174224 -0.0553832 0.998464 0
0.00143118 -0.0591262 0.998249 0
0.00456337 -0.0625184 0.998033 0
0.0114167 -0.0691328 0.997542 0
0.0161269 -0.0773323 0.996875 0
0.0187493 -0.0802574 0.996598 0
0.0275227 -0.085572 0.995952 0
0.0364099 -0.0922066 0.995074 0
0.0410668 -0.09668 0.994468 0
0.0429656 -0.0965844 0.994397 0
0.0412618 -0.0910643 0.99499 0
0.0391508 -0.08742 0.995402 0
0.0368881 -0.084302 0.995757 0
0.037026 -0.0836466 0.995807 0
0.0400218 -0.0847143 0.995601 0
0.0397473 -0.0848859 0.995598 0
0.0371771 -0.0838361 0.995786 0
0.0369067 -0.0857209 0.995635 0
0.031061 -0.0806196 0.996261 0
0.0242362 -0.0764255 0.996781 0
0.0146035 -0.0703374 0.997416 0
0.00928634 -0.0622906 0.998015 0
-0.000319995 -0.0495872 0.99877 0
-0.00531115 -0.0428818 0.999066 0
-0.00984486 -0.0374559 0.99925 0
-0.0138147 -0.0362341 0.999248 0.00381844
-0.0160973 -0.0371717 0.999179 0.000960659
-0.0152601 -0.0377526 0.999171 0
-0.0112582 -0.0346829 0.999335 0
-0.00617251 -0.0348607 0.999373 0
0.00121365 -0.0353266 0.999375 0
0.0066351 -0.0359474 0.999332 0
0.00940114 -0.03494 0.999345 0
0.0156937 -0.037951 0.999156 0
0.0201248 -0.0387071 0.999048 0
0.0205097 -0.0363633 0.999128 0
0.0215262 -0.0384565 0.999028 0
0.0248067 -0.0439139 0.998727 0
0.0249994 -0.0482699 0.998521 0
0.0228665 -0.0500875 0.998483 0
0.0214887 -0.0475952 0.998636 0
0.0197496 -0.0437346 0.998848 0
0.0166672 -0.042736 0.998947 0
0.015402 -0.043784 0.998922 0
0.0172066 -0.0452991 0.998825 0
0.0172503 -0.0429604 0.998928 0
0.0153483 -0.0396663 0.999095 0
0.0139714 -0.035154 0.999284 0
0.00941843 -0.0308096 0.999481 0
0.00879577 -0.0311187 0.999477 0
0.0111412 -0.032758 0.999401 0
0.0120652 -0.0327117 0.999392 0
0.0137639 -0.0302658 0.999447 0
0.0146912 -0.0317845 0.999387 0
0.0186717 -0.0338455 0.999253 0
0.0192565 -0.0312144 0.999327 0
0.0177681 -0.030621 0.999373 0.00150648
0.0171297 -0.028584 0.999445 0.0112104
0.0165209 -0.0297642 0.99942 0.0143673
0.015029 -0.030875 0.99941 0.0133406
0.014179 -0.0307519 0.999426 0.00712874
0.0114925 -0.03102 0.999453 0.0082921
0.00538063 -0.0320072 0.999473 0.0126635
-0.00110897 -0.0316801 0.999497 0.0158878
-0.00347643 -0.0368885 0.999313 0.0109875
-0.00468676 -0.0411015 0.999144 0.00876584
-0.00645379 -0.0431368 0.999048 0.00862723
-0.00631541 -0.0479459 0.99883 0.00448818
-0.00607358 -0.053674 0.99854 0.00148422
-0.00814131 -0.0545123 0.99848 0
-0.00661698 -0.0601634 0.998167 0
-0.00375138 -0.0606181 0.998154 0
-0.00391032 -0.0601671 0.998181 0
-0.00365692 -0.0604291 0.998166 0.000347208
-0.00380541 -0.0585459 0.998277 0.00306822
-0.00228289 -0.0579574 0.998316 0.00765451
-0.00320363 -0.0579014 0.998317 0.0103539
-0.00509137 -0.0587496 0.99826 0.0120553
-0.00557271 -0.0582088 0.998289 0.0100351
-0.00567232 -0.0553367 0.998452 0.0141888
-0.0103535 -0.0570889 0.998315 0.0235477
-0.0152419 -0.0532709 0.998464 0.0277883
-0.0166335 -0.0525321 0.998481 0.0238886
-0.0158552 -0.052127 0.998515 0.0233467
-0.0124565 -0.0523032 0.998554 0.0226529
-0.00871397 -0.0559738 0.998394 0.0145471
-0.00636215 -0.0570423 0.998352 0.00326039
-0.00633947 -0.0554362 0.998442 0
-0.00803082 -0.0535639 0.998532 0
-0.00859429 -0.054262 0.99849 0
-0.00961072 -0.0521771 0.998592 0
-0.00873611 -0.0533888 0.998536 0
-0.0139317 -0.048684 0.998717 0
-0.0147002 -0.0455061 0.998856 0
-0.0134518 -0.0457755 0.998861 0
-0.0145528 -0.0411647 0.999046 0
-0.0114258 -0.0377205 0.999223 0
-0.00797229 -0.0356534 0.999332 0
-0.00832982 -0.0309657 0.999486 0
-0.00865781 -0.0246615 0.999658 0
-0.00591628 -0.0197621 0.999787 0
-0.00730344 -0.0173164 0.999823 0
-0.00714715 -0.0157104 0.999851 0
-0.0147179 -0.0114423 0.999826 0.000750404
-0.0176917 -0.00576658 0.999827 0.00966633
-0.0196135 -0.00153306 0.999806 0.0140458
-0.0239994 0.00521653 0.999698 0.0155218
-0.0271895 0.0108904 0.999571 0.0203538
-0.0323928 0.0137381 0.999381 0.023987
-0.0362504 0.0141496 0.999243 0.0224039
-0.0358123 0.0114971 0.999292 0.0190021
-0.0426742 0.0136096 0.998996 0.0191115
-0.0477999 0.0197731 0.998661 0.0203574
-0.0496709 0.020542 0.998554 0.0194151
-0.0489217 0.0151652 0.998687 0.0173822
-0.0494539 0.0169133 0.998633 0.0194025
-0.0518353 0.0176769 0.998499 0.0172619
-0.0512838 0.016316 0.998551 0.0150433
-0.0514401 0.0221319 0.998431 0.0164966
-0.0516332 0.0212426 0.99844 0.0145057
-0.0467587 0.0199125 0.998708 0.00954644
-0.0476358 0.0202459 0.99866 0.00822772
-0.0454139 0.0148788 0.998857 0.00823619
-0.045763 0.0129016 0.998869 0.0132271
-0.044651 0.0166395 0.998864 0.0119304
-0.0416219 0.0146236 0.999026 0.0154151
-0.0412357 0.0136699 0.999056 0.00903567
-0.0435361 0.00999524 0.999002 0.00988372
-0.03906 0.00159897 0.999236 0.00634281
-0.0372801 -0.00334136 0.999299 0.00418553
-0.0378983 0.00264131 0.999278 0
-0.0376817 0.00189926 0.999288 0
-0.0384415 0.00022895 0.999261 0
-0.0353093 -0.00579117 0.99936 0
-0.0306213 -0.018125 0.999367 0
-0.0316443 -0.0213723 0.999271 0
-0.0326859 -0.0166326 0.999327 0
-0.0313863 -0.0151688 0.999392 0
-0.0305052 -0.0157295 0.999411 0
-0.0334923 -0.00779884 0.999409 0
-0.035389 -0.0051891 0.99936 0
-0.0405697 0.00241691 0.999174 0
-0.042252 0.00937626 0.999063 0
-0.0453134 0.0243009 0.998677 0
-0.0518715 0.0356137 0.998019 0.00381563
-0.0554532 0.0358196 0.997819 0.00811223
-0.0533194 0.0322086 0.998058 0.00739744
-0.054114 0.0293836 0.998102 0.00961595
-0.0605385 0.0414133 0.997306 0.0226229
-0.0600878 0.0484866 0.997015 0.0199565
-0.062566 0.0593537 0.996274 0.0179298
-0.064261 0.0654371 0.995785 0.0112352
-0.0611744 0.0652609 0.995991 0.0056568
-0.0652533 0.0673888 0.995591 0.00867645
-0.0682821 0.0741647 0.994906 0.0112679
-0.0701733 0.0759954 0.994636 0.00638648
-0.0819467 0.0958769 0.992014 0.010168
-0.0841268 0.102432 0.991176 0.0101163
-0.0786643 0.0927054 0.992581 0
-0.0762393 0.0864497 0.993335 0
-0.0735334 0.0871747 0.993475 0
-0.0703236 0.0806322 0.99426 0
-0.0683766 0.0766229 0.994713 0
-0.0642194 0.0691573 0.995537 0
-0.0667549 0.0723522 0.995143 0
-0.0703672 0.0761617 0.994609 0
-0.128996 -0.197962 0.971685 0.0135996
-0.127935 -0.194109 0.972602 0.0238194
-0.125979 -0.188124 0.974032 0.0223513
-0.129584 -0.191117 0.972976 0.0350007
-0.122494 -0.177635 0.976443 0.034521
-0.126338 -0.173664 0.976667 0.0470341
-0.127233 -0.170147 0.97717 0.0466345
-0.126835 -0.161112 0.978752 0.0389749
-0.121997 -0.154398 0.980448 0.0339244
-0.114557 -0.149256 0.98214 0.0260126
-0.103556 -0.139075 0.984853 0.0112229
-0.100667 -0.140989 0.98488 0
-0.0987343 -0.143093 0.984772 0
-0.0948487 -0.145252 0.984838 0
-0.0926899 -0.144381 0.985171 0
-0.0891871 -0.147403 0.985047 0
-0.0874824 -0.153379 0.984287 0
-0.082436 -0.14956 0.98531 0
-0.078558 -0.146515 0.986084 0
-0.0745873 -0.141218 0.987165 0
-0.0676051 -0.130142 0.989188 0
-0.0675364 -0.131311 0.989038 0
-0.0618421 -0.129322 0.989672 0
-0.0627649 -0.124816 0.990193 0
-0.0624829 -0.121399 0.990635 0
-0.061174 -0.113817 0.991617 0
-0.058629 -0.104813 0.992762 0
-0.0585585 -0.100411 0.993221 0
-0.0585178 -0.0956408 0.993694 0
-0.058667 -0.0902096 0.994193 0
-0.0636136 -0.088702 0.994025 0
-0.0640875 -0.083743 0.994424 0.000446995
-0.0674851 -0.0770287 0.994742 0.0118768
-0.0717587 -0.0747057 0.99462 0.0220949
-0.0739028 -0.0793795 0.994101 0.0284525
-0.0711222 -0.0705293 0.994971 0.031832
-0.06556 -0.0605895 0.996007 0.0357791
-0.0620918 -0.0525868 0.996684 0.039159
-0.0589465 -0.0475808 0.997127 0.0365724
-0.0594944 -0.0444879 0.997237 0.0386991
-0.0612782 -0.0413514 0.997264 0.0419879
-0.0679317 -0.0361909 0.997033 0.0472362
-0.070193 -0.0352063 0.996912 0.0487591
-0.0742875 -0.0332234 0.996683 0.0452738
-0.0739985 -0.0324011 0.996732 0.0479187
-0.0791411 -0.0341894 0.996277 0.0468571
-0.0792987 -0.0334291 0.99629 0.0531252
-0.0793945 -0.026921 0.99648 0.0541227
-0.0773435 -0.0248545 0.996695 0.0518095
-0.0707559 -0.0211779 0.997269 0.0479584
-0.0712715 -0.021121 0.997233 0.0441922
-0.0693518 -0.0243257 0.997296 0.0390029
-0.0647519 -0.0297181 0.997459 0.0336435
-0.058919 -0.0316591 0.997761 0.0324487
-0.0541018 -0.03271 0.998 0.0338473
-0.0499239 -0.0405557 0.997929 0.0274139
-0.0491742 -0.041217 0.997939 0.0265424
-0.0520711 -0.0437281 0.997685 0.0307304
-0.0459642 -0.0483069 0.997774 0.026805
-0.0427099 -0.0506982 0.9978 0.023245
-0.0395459 -0.0535113 0.997784 0.0191996
-0.0386585 -0.0578502 0.997577 0.014361
-0.0407928 -0.0598637 0.997373 0.0108512
-0.0380522 -0.0559724 0.997707 0.00668729
-0.0372582 -0.054713 0.997807 0.000706429
-0.0395699 -0.0537751 0.997769 0
-0.0404157 -0.055955 0.997615 0
-0.0455388 -0.0515236 0.997633 0
-0.0440123 -0.0517386 0.99769 0
-0.0443577 -0.0430981 0.998086 0
-0.0389212 -0.0422448 0.998349 0
-0.0298269 -0.0402845 0.998743 0
-0.0219983 -0.0389933 0.998997 0
-0.0167488 -0.0365584 0.999191 0
-0.0114034 -0.0340204 0.999356 0
-0.00761496 -0.0322918 0.99945 0
-0.00385024 -0.0352565 0.999371 0
-0.00435984 -0.0354785 0.999361 0
-0.00113331 -0.0370952 0.999311 0
-3.6115e-05 -0.0373739 0.999301 0
0.00063653 -0.0398623 0.999205 0
0.000958132 -0.039352 0.999225 0
0.000546126 -0.044581 0.999006 0
0.00313601 -0.0505431 0.998717 0
0.00712705 -0.0563742 0.998384 0
0.0123571 -0.0605542 0.998088 0
0.0173303 -0.0621942 0.997914 0
0.0210776 -0.0645324 0.997693 0
0.0260759 -0.0693858 0.997249 0
0.0329151 -0.078779 0.996349 0
0.0377656 -0.0848768 0.995676 0
0.0472444 -0.092331 0.994607 0
0.0523091 -0.095272 0.994076 0
0.0525901 -0.0953242 0.994056 0
0.0548667 -0.093815 0.994077 0
0.0554711 -0.0940072 0.994025 0
0.0513725 -0.0906249 0.994559 0
0.0465523 -0.0848117 0.995309 0
0.0430746 -0.0828776 0.995628 0
0.0401844 -0.0827325 0.995761 0
0.0393246 -0.0819271 0.995862 0
0.0407154 -0.0841313 0.995623 0
0.0374644 -0.0826791 0.995872 0
0.0299235 -0.0781956 0.996489 0
0.0258544 -0.0718856 0.997078 0
0.0222196 -0.0636588 0.997724 0
0.0149959 -0.0567871 0.998274 0
0.0105735 -0.04931 0.998728 0
0.00682318 -0.0448465 0.998971 0
0.00178665 -0.0395667 0.999215 0
-0.00151008 -0.0396512 0.999212 0
-0.000913901 -0.040469 0.99918 0
-0.00044667 -0.0401452 0.999194 0
0.00492972 -0.039258 0.999217 0
0.0116274 -0.0411321 0.999086 0
0.0173621 -0.0403051 0.999037 0
0.0225153 -0.0427167 0.998834 0
0.0261945 -0.0441405 0.998682 0
0.0306484 -0.0424431 0.998629 0
0.0286402 -0.0414259 0.998731 0
0.0265 -0.0420067 0.998766 0
0.0293713 -0.0445588 0.998575 0
0.0292123 -0.0482048 0.99841 0
0.0324579 -0.0530487 0.998064 0
0.0344523 -0.0525458 0.998024 0
0.0308289 -0.0465253 0.998441 0
0.0303928 -0.0472236 0.998422 0
0.0293015 -0.0442686 0.99859 0
0.0297539 -0.0440617 0.998586 0
0.0285832 -0.0451248 0.998572 0
0.0266424 -0.040664 0.998818 0
0.0234414 -0.0375383 0.99902 0
0.0197991 -0.0316753 0.999302 0
0.0182681 -0.032369 0.999309 0
0.0197261 -0.0330466 0.999259 0
0.0215018 -0.0314211 0.999275 0
0.0220888 -0.0325054 0.999227 0
0.0227201 -0.0360367 0.999092 0
0.0240078 -0.0351135 0.999095 0
0.0257477 -0.0361894 0.999013 0
0.0270078 -0.0369682 0.998951 0
0.0271541 -0.035488 0.999001 0
0.0244824 -0.0360022 0.999052 0
0.0224208 -0.037405 0.999049 0
0.020422 -0.0346082 0.999192 0.00422006
0.0149464 -0.0290689 0.999466 0.00881739
0.00932474 -0.0260873 0.999616 0.0178209
-0.000650242 -0.0243174 0.999704 0.0312039
-0.00930035 -0.0216782 0.999722 0.0384852
-0.0125984 -0.0271925 0.999551 0.0415306
-0.0134758 -0.0305138 0.999443 0.0457455
-0.012094 -0.0336322 0.999361 0.0410114
-0.00987868 -0.0416035 0.999085 0.031445
-0.0078203 -0.0518133 0.998626 0.0231538
-0.00879704 -0.0554633 0.998422 0.0189969
-0.00648871 -0.0562897 0.998393 0.012971
-0.0042499 -0.0574519 0.998339 0.00908168
-0.00300273 -0.0587629 0.998267 0.0117845
0.0011317 -0.0642073 0.997936 0.0107019
0.0030801 -0.0649448 0.997884 0.00866487
0.00447862 -0.0644743 0.997909 0.00866405
0.00394518 -0.0628405 0.998016 0.0120456
0.00261831 -0.0599806 0.998196 0.00993396
-0.00111649 -0.0590918 0.998252 0.00945774
-0.00817752 -0.0557926 0.998409 0.0179342
-0.0143139 -0.0539413 0.998442 0.022836
-0.0153878 -0.0525608 0.998499 0.0283079
-0.0133303 -0.049336 0.998693 0.0259544
-0.0102272 -0.0498071 0.998707 0.028443
-0.00980124 -0.0537743 0.998505 0.0201122
-0.00684499 -0.0580093 0.998293 0.00817488
-0.00718113 -0.0547789 0.998473 0.0051644
-0.00975327 -0.0507821 0.998662 0.0079086
-0.0102935 -0.0490715 0.998742 0.000226377
-0.00938176 -0.0459948 0.998898 0
-0.0112065 -0.045287 0.998911 0
-0.0100958 -0.047976 0.998797 0
-0.0112875 -0.0447418 0.998935 0
-0.00983382 -0.0424751 0.999049 0
-0.0104423 -0.0384676 0.999205 0
-0.0100014 -0.0369604 0.999267 0
-0.00346595 -0.0355025 0.999364 0
-0.00449158 -0.0301067 0.999537 0
-0.00277881 -0.0252256 0.999678 0
-0.00293289 -0.0201358 0.999793 0
-0.0033005 -0.0198968 0.999797 0
-0.00633305 -0.0169365 0.999837 0
-0.0100544 -0.0129016 0.999866 0
-0.0171654 -0.00827289 0.999818 0.00669497
-0.0223091 1.04566e-06 0.999751 0.0166034
-0.0256429 0.00596436 0.999653 0.0231793
-0.0254456 0.00633414 0.999656 0.0217475
-0.0285512 0.00737721 0.999565 0.0231439
-0.0321409 0.00897422 0.999443 0.0242827
-0.0360722 0.00881095 0.99931 0.0254862
-0.0392884 0.012926 0.999144 0.0244708
-0.0461289 0.0194048 0.998747 0.0255102
-0.0458971 0.0193555 0.998759 0.0239815
-0.041652 0.0122665 0.999057 0.0151658
-0.0442529 0.0116593 0.998952 0.0153136
-0.0461282 0.0112765 0.998872 0.0172528
-0.0475618 0.0112646 0.998805 0.0173319
-0.0486753 0.0130693 0.998729 0.0158204
-0.0475823 0.0183044 0.9987 0.0121507
-0.0444799 0.0156375 0.998888 0.0125922
-0.0394163 0.0110551 0.999162 0.0130258
-0.0377251 0.00899047 0.999248 0.0089029
-0.0324256 0.00390185 0.999467 0.00871395
-0.0378886 0.00872993 0.999244 0.0134307
-0.0417029 0.0122981 0.999054 0.0132921
-0.0479463 0.0139249 0.998753 0.0159553
-0.0511192 0.0169828 0.998548 0.0176462
-0.0486442 0.00827316 0.998782 0.0148171
-0.0453987 0.00386002 0.998962 0.00398193
-0.0460744 0.00388028 0.99893 0.00246663
-0.0442462 0.005412 0.999006 0.00013286
-0.0383218 0.00332692 0.99926 0.0010099
-0.0362586 -0.00549522 0.999327 0
-0.0350864 -0.00833809 0.999349 0
-0.0347169 -0.0164059 0.999263 0
-0.0302852 -0.0242539 0.999247 0
-0.0301233 -0.020103 0.999344 0
-0.0337023 -0.0115447 0.999365 0
-0.0355479 -0.00673977 0.999345 0
-0.0375397 -0.00190879 0.999293 0
-0.0378883 0.00188414 0.99928 0
-0.0413084 0.0104577 0.999092 0
-0.0467374 0.021645 0.998673 0
-0.0519749 0.0285758 0.998239 0.00177254
-0.0556656 0.0307778 0.997975 0.00665666
-0.0520897 0.023463 0.998367 0.00921002
-0.0538687 0.0281247 0.998152 0.0175278
-0.0573574 0.0364461 0.997688 0.0254645
-0.0594674 0.0514832 0.996902 0.0250016
-0.0636127 0.064875 0.995864 0.0279966
-0.061528 0.0651 0.99598 0.0230793
-0.0590333 0.0629212 0.996271 0.0132402
-0.0572676 0.0571625 0.996721 0
-0.0616638 0.0615052 0.9962 0.00496456
-0.063244 0.0651913 0.995867 0
-0.0682735 0.0774737 0.994654 0
-0.0715868 0.0848692 0.993817 0
-0.0737108 0.0897248 0.993235 0
-0.0757592 0.0940736 0.992679 0.00109671
-0.0767506 0.0989144 0.992132 0
-0.0724236 0.0902846 0.993279 0
-0.0685575 0.0839687 0.994107 0
-0.0654251 0.0743443 0.995084 0
-0.0708392 0.0822141 0.994094 0
-0.0752153 0.0904606 0.993056 0
-0.0779771 0.0928719 0.99262 0
-0.128699 -0.19464 0.972395 0.0204966
-0.12472 -0.188273 0.974165 0.0229963
-0.126978 -0.188126 0.973902 0.0303052
-0.125313 -0.185066 0.974704 0.032162
-0.124114 -0.178545 0.976073 0.0368233
-0.124019 -0.171394 0.977365 0.0447729
-0.124458 -0.170276 0.977505 0.0440253
-0.12561 -0.167212 0.977887 0.0415048
-0.117503 -0.158439 0.980352 0.0266391
-0.110207 -0.150277 0.982482 0.0202085
-0.0994571 -0.140163 0.985121 0.00690862
-0.0949404 -0.142493 0.985232 0
-0.0948824 -0.149713 0.984166 0
-0.0914655 -0.148365 0.984694 0
-0.0914066 -0.154564 0.983745 0
-0.0891048 -0.152084 0.984343 0
-0.0840243 -0.157922 0.98387 0
-0.0821957 -0.157198 0.984141 0
-0.0785524 -0.151526 0.985327 0
-0.0738664 -0.147971 0.986229 0
-0.0659866 -0.140415 0.987891 0
-0.0648061 -0.136445 0.988526 0
-0.0600224 -0.127421 0.990031 0
-0.05964 -0.123249 0.990582 0
-0.0594883 -0.113621 0.991742 0
-0.0589718 -0.109391 0.992248 0
-0.0583472 -0.101073 0.993167 0
-0.0573059 -0.101791 0.993154 0
-0.058132 -0.094371 0.993838 0
-0.0597248 -0.0902634 0.994125 0
