-0.0332861 -0.0131334 0.99936 0.00482645
-0.0326706 -0.012405 0.999389 0.00456194
-0.0345851 -0.0124519 0.999324 0.00469716
-0.0323233 -0.0108145 0.999419 0.00286144
-0.0323773 -0.00863109 0.999438 0
-0.0333203 -0.00739537 0.999417 0.00339175
-0.0319423 -0.00611985 0.999471 0.00499903
-0.0311878 -0.00493793 0.999501 0.00457101
-0.0322565 -0.0046502 0.999469 0.00485945
-0.0316421 -0.0037485 0.999492 0.0042428
-0.0327482 -0.00350697 0.999457 0.00812708
-0.0339646 -0.00366588 0.999416 0.0100547
-0.0346626 -0.00328426 0.999394 0.0130218
-0.0344718 -0.00243263 0.999403 0.0123335
-0.0354593 -0.00199698 0.999369 0.0106163
-0.0374457 -0.00176754 0.999297 0.0130787
-0.0357677 -0.00111345 0.99936 0.0112263
-0.0336242 -0.000563752 0.999434 0.00646915
-0.0324124 -0.000122303 0.999475 0.00263197
-0.0340342 -0.000289803 0.999421 0.00603537
-0.0325013 8.1866e-06 0.999472 0.00113083
-0.032423 -4.49776e-05 0.999474 0.000561879
-0.032337 -0.000303681 0.999477 0
-0.0323221 -0.000930646 0.999477 0
-0.0317936 -0.00162853 0.999493 0
-0.0322817 -0.00178408 0.999477 0
-0.0307076 -0.00170054 0.999527 0
-0.0314888 -0.00240029 0.999501 0
-0.0346722 -0.00304289 0.999394 0
-0.0334018 -0.00348815 0.999436 0
-0.0338025 -0.00438955 0.999419 0
-0.036067 -0.00480748 0.999338 0
-0.0347306 -0.00532088 0.999382 0
-0.0350723 -0.00593868 0.999367 0
-0.0353624 -0.00686461 0.999351 0
-0.0370304 -0.00763174 0.999285 0
-0.0364047 -0.0085091 0.999301 0
-0.0375591 -0.00989352 0.999245 0.00281728
-0.0372735 -0.00998042 0.999255 0.00091321
-0.0380256 -0.0108224 0.999218 0.000658436
-0.0362456 -0.0111267 0.999281 0
-0.0365529 -0.0117651 0.999262 0
-0.0368972 -0.0123205 0.999243 0.000134307
-0.0359128 -0.0126397 0.999275 0.000633696
-0.035674 -0.0128286 0.999281 0
-0.0349522 -0.0134396 0.999299 0
-0.0355217 -0.014017 0.999271 0
-0.0357605 -0.0145564 0.999254 0
-0.0339274 -0.0147254 0.999316 0
-0.034267 -0.0159203 0.999286 0
-0.0334624 -0.0164546 0.999305 0
-0.034599 -0.0166452 0.999263 0
-0.0348747 -0.0172423 0.999243 0
-0.0332854 -0.0172141 0.999298 0
-0.0325291 -0.0178356 0.999312 0
-0.0318978 -0.0180448 0.999328 0
-0.0325556 -0.0184491 0.9993 0
-0.0310598 -0.0184164 0.999348 0
-0.0309618 -0.019259 0.999335 0
-0.0311249 -0.0196716 0.999322 0
-0.0316614 -0.0204767 0.999289 0
-0.0329508 -0.021035 0.999236 0
-0.0313754 -0.0206606 0.999294 0
-0.0301773 -0.0208766 0.999327 0
-0.0298946 -0.0208407 0.999336 0
-0.0295534 -0.0210412 0.999342 0
-0.0295457 -0.0209286 0.999344 0
-0.0302461 -0.0214067 0.999313 0
-0.0270123 -0.0214457 0.999405 0
-0.0281696 -0.0215197 0.999371 0
-0.026936 -0.0215753 0.999404 0
-0.0271247 -0.0216558 0.999397 0
-0.0285902 -0.0220484 0.999348 0
-0.0273526 -0.0219959 0.999384 0
-0.0284418 -0.021784 0.999358 0
-0.0279782 -0.0213151 0.999381 0
-0.031169 -0.0218584 0.999275 0
-0.0316926 -0.0221889 0.999251 0
-0.030652 -0.0217918 0.999293 0
-0.0321352 -0.0216613 0.999249 0
-0.0336057 -0.0211869 0.999211 0
-0.032859 -0.0208926 0.999242 0
-0.0319035 -0.0205103 0.999281 0
-0.0316951 -0.0201826 0.999294 0
-0.0339776 -0.0200465 0.999222 0
-0.0344783 -0.0200417 0.999204 0
-0.0342178 -0.0201563 0.999211 0
-0.0325179 -0.0198311 0.999274 0
-0.033978 -0.0198231 0.999226 0
-0.03685 -0.0197923 0.999125 0
-0.0375172 -0.0197178 0.999101 0
-0.036998 -0.0199193 0.999117 0
-0.0378635 -0.0197092 0.999088 0
-0.0377494 -0.0195896 0.999095 0
-0.0362636 -0.0193946 0.999154 0
-0.0382343 -0.0199063 0.999071 0
-0.0379368 -0.0198515 0.999083 0
-0.0382956 -0.0195411 0.999075 0
-0.0362431 -0.0194694 0.999153 0
-0.035463 -0.0190593 0.999189 0
-0.0344868 -0.0188327 0.999228 0
-0.0341708 -0.0186605 0.999242 0
-0.0334078 -0.0185884 0.999269 0
-0.0348024 -0.0181216 0.99923 0
-0.0360449 -0.0180072 0.999188 0
-0.0384811 -0.0180711 0.999096 0.00271903
-0.0378835 -0.0180997 0.999118 0.000368283
-0.0357384 -0.0180953 0.999197 0
-0.036647 -0.0179159 0.999168 0
-0.0361884 -0.0176247 0.99919 0
-0.0367413 -0.0177254 0.999168 0.00121243
-0.0359787 -0.017578 0.999198 7.85343e-05
-0.034029 -0.0174968 0.999268 0
-0.0345433 -0.0172973 0.999254 0
-0.0343148 -0.0173702 0.99926 0
-0.0328699 -0.0168841 0.999317 0
-0.0321673 -0.016605 0.999345 0
-0.0320455 -0.0167703 0.999346 0
-0.0312748 -0.0165225 0.999374 0
-0.0313656 -0.0160786 0.999379 0
-0.0285929 -0.0159549 0.999464 0
-0.0298001 -0.0160688 0.999427 0
-0.0294986 -0.0160056 0.999437 0
-0.0282029 -0.0160154 0.999474 0
-0.0291655 -0.0163574 0.999441 0
-0.0293248 -0.0159292 0.999443 0
-0.0303955 -0.0157653 0.999414 0
-0.0299299 -0.0158534 0.999426 0.000792478
-0.030314 -0.0160942 0.999411 0.00296665
-0.0302174 -0.0161053 0.999414 0.00581366
-0.0317495 -0.0165008 0.99936 0.0093916
-0.0322515 -0.0161995 0.999348 0.0108024
-0.0315936 -0.0159816 0.999373 0.00930185
-0.0326258 -0.0162557 0.999335 0.0127293
-0.0308828 -0.0156601 0.9994 0.00699427
-0.0310558 -0.0154865 0.999398 0.00612104
-0.0305974 -0.0150809 0.999418 0.00333323
-0.0294883 -0.015153 0.99945 0.00167237
-0.029489 -0.0150425 0.999452 0.00124898
-0.0296119 -0.0149739 0.999449 0.00202398
-0.0309788 -0.0148949 0.999409 0.00275931
-0.0310295 -0.0149057 0.999407 0.00233363
-0.0282323 -0.014626 0.999494 4.58417e-05
-0.0284459 -0.014703 0.999487 0
-0.0315537 -0.0149735 0.99939 0.0051011
-0.0329196 -0.0153489 0.99934 0.00656328
-0.0327927 -0.0152609 0.999346 0.00407115
-0.0329979 -0.01539 0.999337 0.00656447
-0.0348284 -0.0157302 0.999269 0.0109077
-0.0358812 -0.0159921 0.999228 0.0134827
-0.0366352 -0.0162499 0.999197 0.0156304
-0.0344819 -0.0162117 0.999274 0.0138412
-0.0332115 -0.0161452 0.999318 0.0116545
-0.0327906 -0.0161271 0.999332 0.0122327
-0.030135 -0.0161042 0.999416 0.00980193
-0.0303398 -0.0164178 0.999405 0.0103176
-0.0269901 -0.0164113 0.999501 0.00781979
-0.0260375 -0.0163484 0.999527 0.00530716
-0.0265238 -0.0165564 0.999511 0.0052231
-0.0261307 -0.0163197 0.999525 0.00361367
-0.0261611 -0.0165773 0.99952 0.00335996
-0.027049 -0.016722 0.999494 0.00578333
-0.02762 -0.016949 0.999475 0.00841571
-0.0270895 -0.016777 0.999492 0.00653801
-0.0253478 -0.0166214 0.999541 0.00426096
-0.0247774 -0.0166161 0.999555 0.00290146
-0.0240033 -0.0168501 0.99957 0.00568799
-0.0234228 -0.0167977 0.999584 0.00525264
-0.0219935 -0.0166091 0.99962 0.000610599
-0.0226949 -0.0168549 0.9996 0.00585209
-0.0224909 -0.0170591 0.999601 0.00487289
-0.0213571 -0.0168227 0.99963 0.00196819
-0.0213607 -0.0169541 0.999628 0
-0.0214934 -0.0170786 0.999623 0
-0.0202771 -0.0169376 0.999651 0
-0.0197091 -0.0171871 0.999658 0
-0.0206786 -0.0174567 0.999634 0.00056495
-0.0207794 -0.0174947 0.999631 0.00153183
-0.0209819 -0.0176292 0.999624 0.0055025
-0.0211273 -0.017727 0.99962 0.00825413
-0.0213467 -0.0180582 0.999609 0.0084265
-0.0213395 -0.0180419 0.999609 0.00759042
-0.0202756 -0.0180302 0.999632 0.00720462
-0.0202602 -0.018099 0.999631 0.00968504
-0.0187561 -0.018222 0.999658 0.00879077
-0.0191808 -0.0182873 0.999649 0.00799585
-0.0192074 -0.0184122 0.999646 0.0117337
-0.0174012 -0.0184568 0.999678 0.00910839
-0.0175517 -0.0183435 0.999678 0.00782619
-0.0142571 -0.0181135 0.999734 0.00195647
-0.0137229 -0.0184984 0.999735 0.0033728
-0.0123716 -0.0183979 0.999754 0.00130572
-0.0129881 -0.0185729 0.999743 0.000679772
-0.0132429 -0.0186668 0.999738 0.000624678
-0.0142145 -0.0189697 0.999719 0.00337467
-0.0139483 -0.0188606 0.999725 0.000413388
-0.015208 -0.0190393 0.999703 0.00131921
-0.0157751 -0.0188811 0.999697 1.81961e-05
-0.016145 -0.0190618 0.999688 0
-0.0151752 -0.0190128 0.999704 0.000520167
-0.0144303 -0.019464 0.999706 0.00472258
-0.0141721 -0.0193507 0.999712 0.00175661
-0.0135362 -0.0192272 0.999724 0
-0.0135669 -0.0192494 0.999723 0
-0.013138 -0.0192254 0.999729 0
-0.0126597 -0.0193774 0.999732 0
-0.0128973 -0.0194334 0.999728 0
-0.0108687 -0.0194403 0.999752 0
-0.0117919 -0.0196596 0.999737 0
-0.0130833 -0.0199549 0.999715 0
-0.0113107 -0.019949 0.999737 0
-0.0130396 -0.0198685 0.999718 0
-0.0136288 -0.0201007 0.999705 0
-0.0153063 -0.0199367 0.999684 0
-0.0136553 -0.0201338 0.999704 0.00148981
-0.0146409 -0.0201066 0.999691 0.00165747
-0.0147364 -0.0200505 0.99969 0.00129601
-0.0133012 -0.0201357 0.999709 0.0016345
-0.0133274 -0.0202092 0.999707 0.00180909
-0.0146861 -0.0202662 0.999687 0.00102776
-0.0143323 -0.0201614 0.999694 0
-0.0149996 -0.0201189 0.999685 0
-0.0131582 -0.0201029 0.999711 0
-0.0144123 -0.0199222 0.999698 0
-0.0151776 -0.0197225 0.99969 0
-0.0111839 -0.0195498 0.999746 0
-0.0118715 -0.0194242 0.999741 0
-0.0110537 -0.0190678 0.999757 0
-0.0116839 -0.0190705 0.99975 0
-0.0104397 -0.0189539 0.999766 0
-0.0114187 -0.0187543 0.999759 0
-0.0124859 -0.0185577 0.99975 0
-0.0113652 -0.0182746 0.999768 0
-0.0108257 -0.0182177 0.999775 0
-0.0123911 -0.0180679 0.99976 0
-0.0132745 -0.0180804 0.999748 0
-0.014706 -0.0178079 0.999733 0
-0.013918 -0.0176654 0.999747 0
-0.0156072 -0.017806 0.99972 6.03219e-07
-0.0176503 -0.0177623 0.999686 0.0023263
-0.0177719 -0.0177277 0.999685 0.000466909
-0.0186691 -0.0176374 0.99967 2.81668e-05
-0.0196627 -0.0177001 0.99965 0
-0.0193728 -0.0177033 0.999656 0
-0.0191371 -0.0177847 0.999659 0
-0.0192273 -0.0178672 0.999655 0
-0.0208503 -0.0179591 0.999621 0
-0.0209848 -0.0180723 0.999617 0
-0.0212441 -0.018221 0.999608 0.00194556
-0.0220331 -0.0184466 0.999587 0.00389918
-0.0204301 -0.0184335 0.999621 0.00133519
-0.0231862 -0.0185237 0.99956 0.00574462
-0.025052 -0.018903 0.999507 0.0126277
-0.025069 -0.0190243 0.999505 0.0114183
-0.0229819 -0.0188796 0.999558 0.00565642
-0.0227764 -0.0188622 0.999563 0.00624931
-0.0220856 -0.0185271 0.999584 0.00557948
-0.0207952 -0.0184951 0.999613 0.00731082
-0.0202758 -0.0183146 0.999627 0.00565789
-0.0178518 -0.0181114 0.999677 0.00169442
-0.0176271 -0.0181788 0.999679 0.00305614
-0.0168287 -0.0179914 0.999697 0
-0.0152755 -0.0180761 0.99972 0
-0.0148519 -0.0179641 0.999728 0
-0.0132824 -0.0178979 0.999752 0
-0.0111626 -0.017945 0.999777 0
-0.0105474 -0.0180282 0.999782 0
-0.0102448 -0.0180295 0.999785 0
-0.00839877 -0.0180941 0.999801 0
-0.00919825 -0.018 0.999796 0
-0.0111534 -0.018143 0.999773 0
-0.010581 -0.0182613 0.999777 0
-0.00878044 -0.0181883 0.999796 0
-0.00638744 -0.0181613 0.999815 0
-0.00617464 -0.0181444 0.999816 0
-0.00788856 -0.018057 0.999806 0
-0.00742747 -0.0178143 0.999814 0
-0.0035804 -0.0175654 0.999839 0
-0.00100563 -0.0171088 0.999853 0
-0.000256731 -0.0168273 0.999858 0
-0.0013245 -0.0167255 0.999859 0
-0.00211682 -0.0166072 0.99986 0
-0.00248064 -0.0163968 0.999862 0
-0.00401556 -0.0162027 0.999861 0
-0.00548687 -0.016009 0.999857 0.00293058
-0.00708115 -0.0158589 0.999849 0.00726593
-0.00754198 -0.0155886 0.99985 0.00686455
-0.0064681 -0.0152102 0.999863 0.00145618
-0.00489407 -0.0149765 0.999876 0
-0.00587315 -0.0146937 0.999875 0.000665706
-0.00535972 -0.0146173 0.999879 0
-0.00540956 -0.0143811 0.999882 0
-0.00317881 -0.0144191 0.999891 0.00156809
-0.00161391 -0.0145209 0.999893 0
-0.000485784 -0.0144763 0.999895 0
-0.000782617 -0.0144528 0.999895 0
6.94259e-05 -0.0145035 0.999895 0
0.000917709 -0.0145617 0.999894 0
0.00189626 -0.0146247 0.999891 0.000454644
0.00220043 -0.0145556 0.999892 0
0.0039797 -0.0144553 0.999888 0
0.00468744 -0.0144494 0.999885 0
0.00623676 -0.0145338 0.999875 0
0.00765081 -0.0145189 0.999865 0
0.0082878 -0.0144835 0.999861 0
0.00618489 -0.0143972 0.999877 0.00202739
0.00559059 -0.0143665 0.999881 0.00381556
0.00545976 -0.0142623 0.999883 0.00499358
0.00538303 -0.013924 0.999889 0.0071019
0.00493674 -0.013518 0.999896 0.0079228
0.00766105 -0.0129668 0.999887 0.00318541
0.00613745 -0.0125654 0.999902 0.00537076
0.00523726 -0.0119261 0.999915 0.00541666
0.00676552 -0.0112749 0.999914 0.0042878
0.00608435 -0.0107843 0.999923 0.00539473
0.00728374 -0.010234 0.999921 0.00132182
0.00565259 -0.00978207 0.999936 0.00243869
0.00481258 -0.0092646 0.999946 0.00490384
0.00442882 -0.0087266 0.999952 0.00559918
0.00829345 -0.0083606 0.999931 0.00920689
0.00896813 -0.00790821 0.999928 0.0022529
0.009089 -0.00737616 0.999931 0.00135785
0.00870227 -0.00681685 0.999939 0.00111435
0.00809328 -0.00632013 0.999947 0.00235103
0.00785268 -0.00553949 0.999954 0.00429107
0.00866395 -0.00505043 0.99995 0.00405062
0.0101061 -0.0044434 0.999939 0.00444711
0.0109305 -0.0040644 0.999932 0.00676329
0.0106602 -0.0035633 0.999937 0.0079611
0.00960605 -0.00304927 0.999949 0.0125154
0.0101365 -0.00264406 0.999945 0.0163208
0.00959621 -0.0020941 0.999952 0.0145969
0.00929772 -0.00159369 0.999956 0.0148817
0.0107613 -0.00136327 0.999941 0.0086431
0.0106763 -0.000639992 0.999943 0.0113222
0.0129954 -0.000435186 0.999915 0.0106498
0.0159224 -0.000152078 0.999873 0.00584334
0.0159083 0.000448538 0.999873 0.00407374
0.0146807 0.00114924 0.999892 0.00952365
0.013947 0.00179605 0.999901 0.0104365
0.0143788 0.00225456 0.999894 0.00771905
0.014665 0.00266056 0.999889 0.00686035
0.0145801 0.00325644 0.999888 0.00771841
0.0150188 0.00456549 0.999877 0.00703293
0.0131526 0.00607473 0.999895 0.00886043
0.0139375 0.00735553 0.999876 0.00958668
0.0138234 0.00862693 0.999867 0.0100026
0.0132226 0.00977272 0.999865 0.00817132
0.0139491 0.0104898 0.999848 0.00539275
0.0135797 0.011991 0.999836 0.00746452
0.0122312 0.0134788 0.999834 0.00851383
0.0129587 0.0141671 0.999816 0.00551248
0.0130391 0.0152629 0.999798 0.00645397
0.0151426 0.0158213 0.99976 0.00335537
0.0155371 0.0163033 0.999746 0.0017437
0.0129325 0.0187157 0.999741 0.0053827
0.0137983 0.0195899 0.999713 0.00482342
0.0136034 0.0207501 0.999692 0.00647978
0.0124875 0.0222874 0.999674 0.00574595
0.0123157 0.0232243 0.999654 0.00479202
0.0130327 0.023828 0.999631 0.00390005
0.012072 0.0249809 0.999615 0.00302085
0.0111024 0.0265188 0.999587 0.00474453
0.00874057 0.0288204 0.999546 0.00818689
0.0091911 0.0288808 0.999541 0.00512317
0.00844045 0.0294866 0.99953 0.00268549
0.00903939 0.0297433 0.999517 0.00328519
0.00925481 0.031086 0.999474 0.0047608
0.00798643 0.0313927 0.999475 0
0.00798819 0.0323007 0.999446 0
-0.000751906 -0.0760345 0.997105 0
-0.00149348 -0.072972 0.997333 0
-0.00258076 -0.0694572 0.997582 0
-0.00376195 -0.066893 0.997753 0.000301549
-0.00497761 -0.0646254 0.997897 0.00045208
-0.00647742 -0.0647529 0.99788 0.00528681
-0.00618444 -0.0618037 0.998069 0.00532934
-0.00596214 -0.060242 0.998166 0.00559387
-0.00565654 -0.0589137 0.998247 0.00665866
-0.00634486 -0.0577122 0.998313 0.00845296
-0.00561611 -0.0556942 0.998432 0.00564246
-0.00351825 -0.0541777 0.998525 0.00641022
-0.0036203 -0.0527252 0.998602 0.00797539
-0.00491889 -0.0504501 0.998715 0.00724434
-0.00455601 -0.0487667 0.9988 0.00766036
-0.00559864 -0.0464227 0.998906 0.00630772
-0.00549784 -0.0443432 0.999001 0.0023162
-0.00461463 -0.043013 0.999064 0.00143292
-0.00474842 -0.0422684 0.999095 0.00206314
-0.00449319 -0.0403249 0.999177 0
-0.00442377 -0.0392975 0.999218 0
-0.00623507 -0.0385226 0.999238 0.00358013
-0.00768937 -0.0377692 0.999257 0.0060392
-0.0075789 -0.0373743 0.999273 0.00732094
-0.0072647 -0.036435 0.99931 0.0092729
-0.00857236 -0.0356025 0.999329 0.0112497
-0.0075692 -0.0349773 0.999359 0.00998175
-0.00766713 -0.0343452 0.999381 0.0121766
-0.00695655 -0.03323 0.999424 0.0153919
-0.0076385 -0.0317904 0.999465 0.0112002
-0.00662406 -0.0312648 0.999489 0.0132946
-0.00702088 -0.0297703 0.999532 0.0105113
-0.00715857 -0.0286353 0.999564 0.0113574
-0.00838095 -0.0277061 0.999581 0.011202
-0.0101294 -0.0268543 0.999588 0.0108685
-0.00962804 -0.0262297 0.99961 0.00827546
-0.00963604 -0.0254012 0.999631 0.0082759
-0.00901364 -0.0248225 0.999651 0.00411111
-0.00833048 -0.0241871 0.999673 0.00278655
-0.00804569 -0.0244215 0.999669 0.00502077
-0.00677205 -0.0240478 0.999688 0.00292902
-0.00721221 -0.0237451 0.999692 0.00299241
-0.00575463 -0.0235045 0.999707 0.000930962
-0.0044806 -0.0232554 0.99972 0
-0.00337498 -0.0223446 0.999745 0
-0.00348702 -0.022305 0.999745 0
-0.00445297 -0.021855 0.999751 0
-0.00369029 -0.0214221 0.999764 0
-0.00247185 -0.0203139 0.999791 0
-0.00277415 -0.0193619 0.999809 0
-0.00197499 -0.0187041 0.999823 0
-0.00121721 -0.0180015 0.999837 0
-0.000633312 -0.0170911 0.999854 0
0.000825155 -0.0160716 0.99987 0
-0.00111211 -0.0158426 0.999874 0
-0.000295735 -0.0152432 0.999884 0
-0.00215681 -0.0146554 0.99989 0
-0.00397752 -0.0140864 0.999893 0
-0.00467658 -0.0128417 0.999907 0
-0.00860291 -0.0126641 0.999883 0.00388146
-0.00662234 -0.0116317 0.99991 0.00364975
-0.00765852 -0.0110653 0.999909 0.00257055
-0.00936632 -0.010287 0.999903 0.00548364
-0.0109837 -0.0100627 0.999889 0.00806776
-0.0110856 -0.00929778 0.999895 0.00641205
-0.00978527 -0.00843543 0.999917 0.00627341
-0.0108254 -0.0081001 0.999909 0.00625368
-0.0102021 -0.00802497 0.999916 0.00596623
-0.010268 -0.00752792 0.999919 0.00296068
-0.00943483 -0.00674389 0.999933 0
-0.0100824 -0.00628173 0.999929 0
-0.0103424 -0.00605233 0.999928 0
-0.00829555 -0.00611632 0.999947 0
-0.00747735 -0.00567989 0.999956 0
-0.00682915 -0.00541335 0.999962 0
-0.00576422 -0.00576222 0.999967 0
-0.00753278 -0.00578278 0.999955 0
-0.00807469 -0.00615626 0.999948 0
-0.00784195 -0.00656489 0.999948 0
-0.00808874 -0.00666595 0.999945 0
-0.00797146 -0.00703609 0.999943 0
-0.00865848 -0.00791585 0.999931 0
-0.00996728 -0.00927828 0.999907 0
-0.00978301 -0.00929442 0.999909 0
-0.00783998 -0.00947695 0.999924 0
-0.00820406 -0.0100027 0.999916 0
-0.00952665 -0.0108628 0.999896 0
-0.0103328 -0.0117469 0.999878 0
-0.0122134 -0.012531 0.999847 0
-0.011254 -0.0126655 0.999856 0
-0.011208 -0.0127167 0.999856 0
-0.0109115 -0.0130139 0.999856 0
-0.00908336 -0.0134283 0.999869 0
-0.0107812 -0.0138685 0.999846 0
-0.00839241 -0.0141135 0.999865 0
-0.008825 -0.0142874 0.999859 0
-0.00730082 -0.0150939 0.999859 0
-0.00747244 -0.0155298 0.999851 0
-0.00786571 -0.0157134 0.999846 0
-0.0100056 -0.0160351 0.999821 0
-0.010607 -0.0163254 0.999811 0
-0.0101945 -0.0166677 0.999809 0
-0.0119071 -0.0171347 0.999782 0
-0.0110475 -0.0174625 0.999786 0
-0.0126972 -0.0180361 0.999757 0
-0.013883 -0.0183359 0.999735 0
-0.0136079 -0.01896 0.999728 0
-0.0154953 -0.0198066 0.999684 0
-0.014517 -0.0199329 0.999696 0
-0.013003 -0.0199051 0.999717 0
-0.0134537 -0.0207458 0.999694 0
-0.0127322 -0.0212252 0.999694 0
-0.0133173 -0.0212047 0.999686 0
-0.0101414 -0.0215404 0.999717 0
-0.0115077 -0.0217677 0.999697 0
-0.0117216 -0.0220704 0.999688 0
-0.0101463 -0.0220799 0.999705 0
-0.0106957 -0.0222001 0.999696 0
-0.0104046 -0.0221454 0.999701 0
-0.0119406 -0.0226547 0.999672 0
-0.0145596 -0.0230487 0.999628 0
-0.0147913 -0.0231028 0.999624 0
-0.0151665 -0.0232578 0.999614 0
-0.0138279 -0.0233831 0.999631 0.000288436
-0.0151016 -0.0234005 0.999612 0
-0.0134843 -0.0231757 0.999641 0.000783535
-0.0166155 -0.023498 0.999586 0.00551771
-0.0153652 -0.0231643 0.999614 0.00307279
-0.0147243 -0.0237158 0.99961 0.00531642
-0.0156889 -0.0235039 0.999601 0.00699075
-0.0146939 -0.023471 0.999617 0.00742914
-0.0130546 -0.023407 0.999641 0.00606021
-0.0136106 -0.0237462 0.999625 0.00794382
-0.0148332 -0.0240523 0.999601 0.015091
-0.0141721 -0.0240753 0.99961 0.0146458
-0.0139337 -0.0236332 0.999624 0.0125942
-0.01417 -0.0235269 0.999623 0.0104321
-0.011651 -0.0234699 0.999657 0.00770838
-0.0119732 -0.0237477 0.999646 0.00836824
-0.0110098 -0.0236915 0.999659 0.00646551
-0.0115942 -0.0235475 0.999655 0.0020083
-0.0104325 -0.023611 0.999667 0.000160222
-0.0110511 -0.0237992 0.999656 0.00288493
-0.00991641 -0.0232141 0.999681 0
-0.00910262 -0.023138 0.999691 0
-0.00970806 -0.0226422 0.999696 0
-0.00977902 -0.0226419 0.999696 0
-0.0111908 -0.022251 0.99969 0
-0.0110187 -0.0217805 0.999702 0
-0.0102619 -0.021681 0.999712 0
-0.0115568 -0.0216767 0.999698 0
-0.0102029 -0.0215552 0.999716 0
-0.00863655 -0.0210574 0.999741 0
-0.00696923 -0.0208694 0.999758 0
-0.00616675 -0.0208086 0.999764 0
-0.00613146 -0.0205776 0.999769 0.000750799
-0.00767041 -0.0204175 0.999762 0.00222655
-0.00709549 -0.0196578 0.999782 0
-0.00562193 -0.0193844 0.999796 0
-0.00621514 -0.0189149 0.999802 0
-0.00516874 -0.0184763 0.999816 0
-0.00416798 -0.0180192 0.999829 0
-0.00449438 -0.0177201 0.999833 0
-0.00565082 -0.0174935 0.999831 0
-0.00364262 -0.0169075 0.99985 0
-0.00512329 -0.0164342 0.999852 0
-0.00444295 -0.0161655 0.999859 0
-0.00480129 -0.0159927 0.999861 0
-0.00378863 -0.0155843 0.999871 0
-0.00378 -0.0150719 0.999879 0
-0.00552295 -0.0149537 0.999873 0
-0.00626991 -0.0144035 0.999877 0
-0.00735241 -0.0141931 0.999872 0
-0.00712672 -0.0137928 0.99988 0
-0.0080945 -0.0135404 0.999876 0
-0.0105787 -0.0133995 0.999854 0.000607214
-0.00855522 -0.0132567 0.999875 0
-0.00792178 -0.0129426 0.999885 0
-0.0067803 -0.012984 0.999893 0
-0.00504726 -0.0127014 0.999907 0
-0.00707935 -0.012629 0.999895 0
-0.00621938 -0.0124505 0.999903 0
-0.00322968 -0.0122214 0.99992 0
-0.00321304 -0.0119813 0.999923 0
-0.0044391 -0.0118742 0.99992 0
-0.00440411 -0.0117633 0.999921 0
-0.00253407 -0.0113957 0.999932 0
-0.002324 -0.0112795 0.999934 0
-0.00206998 -0.0113068 0.999934 0
-0.00337172 -0.01133 0.99993 0
-0.00406764 -0.011575 0.999925 0.000159759
-0.00312512 -0.0114952 0.999929 0.00281341
-0.00210515 -0.0113485 0.999933 0.00462918
-0.00276896 -0.0113057 0.999932 0.00479109
-0.000596526 -0.0111408 0.999938 0.00424802
-0.000807749 -0.0112351 0.999937 0.00361375
0.000635705 -0.0113211 0.999936 0.000977855
0.00262864 -0.0110592 0.999935 0
0.00404842 -0.01096 0.999932 0
0.00300292 -0.0111974 0.999933 0.00221517
0.0035547 -0.0113715 0.999929 0.00401624
0.00332608 -0.0113356 0.99993 0.00334476
0.0034075 -0.0109669 0.999934 0.00411752
0.00268219 -0.0110414 0.999935 0.00415997
0.000904688 -0.0109386 0.99994 0.00689847
-0.0007208 -0.0113292 0.999936 0.0126132
1.44981e-05 -0.0112641 0.999937 0.0150152
0.00157116 -0.0108833 0.99994 0.00769278
0.00107004 -0.0105326 0.999944 0.00853331
0.0037571 -0.0104586 0.999938 0.00461037
0.00146024 -0.0105354 0.999943 0.00656419
0.00395461 -0.0106121 0.999936 0.00344125
0.00437714 -0.0104746 0.999936 0.00389914
0.00511304 -0.0104009 0.999933 0.00413033
0.00512379 -0.0103301 0.999934 0.00523025
0.00404749 -0.010521 0.999936 0.00466133
0.00228254 -0.0106841 0.99994 0.00360519
0.00161552 -0.0109256 0.999939 0.00261874
0.00298156 -0.0111997 0.999933 0.00588924
0.00178432 -0.011383 0.999934 0.00453336
0.00250897 -0.0118055 0.999927 0.00444831
0.00312321 -0.0117174 0.999926 0
0.00271375 -0.0118949 0.999926 0.00308723
0.00373538 -0.0121561 0.999919 0.00337874
0.00260504 -0.0126014 0.999917 0.00128503
0.00265535 -0.012921 0.999913 0.00271618
0.00376307 -0.0127119 0.999912 0.00101073
0.00275266 -0.0129423 0.999912 0.00261109
0.00277973 -0.013211 0.999909 0.00339428
0.00288766 -0.0136921 0.999902 0.00610218
0.00223562 -0.0138656 0.999901 0.00745072
0.00222944 -0.0146221 0.999891 0.0133835
0.00204734 -0.0151521 0.999883 0.0177996
0.00500434 -0.0155946 0.999866 0.015391
0.0030846 -0.0156353 0.999873 0.0171509
0.00287954 -0.0162 0.999865 0.0187394
0.00551136 -0.0163242 0.999852 0.0187947
0.00484966 -0.0165999 0.99985 0.0169721
0.00632503 -0.0167736 0.999839 0.0164012
0.00452841 -0.0168834 0.999847 0.0164719
0.00326487 -0.0173973 0.999843 0.0179314
0.00338742 -0.0175894 0.99984 0.0158965
0.00559559 -0.0176766 0.999828 0.0153961
0.00755951 -0.0178775 0.999812 0.0154483
0.00769625 -0.0181993 0.999805 0.0162101
0.00777265 -0.018767 0.999794 0.0184995
0.00632279 -0.0191996 0.999796 0.0211415
0.00707751 -0.0191239 0.999792 0.0218921
0.0106219 -0.0187983 0.999767 0.0191709
0.0101288 -0.0187512 0.999773 0.0173453
0.0114489 -0.0187 0.99976 0.0165607
0.0105144 -0.018801 0.999768 0.0159726
0.00999483 -0.0187516 0.999774 0.0155847
0.00994883 -0.0189935 0.99977 0.0174139
0.0100779 -0.0188346 0.999772 0.0134354
0.0105957 -0.0188337 0.999766 0.0112005
0.00961576 -0.019005 0.999773 0.013413
0.0110671 -0.018674 0.999764 0.0091284
0.00925558 -0.0186073 0.999784 0.007258
0.00912524 -0.0185491 0.999786 0.00792088
0.00906252 -0.0184224 0.999789 0.00701798
0.0120491 -0.0186519 0.999753 0.00741853
0.0113965 -0.0186197 0.999762 0.00216178
0.0117244 -0.0187237 0.999756 0
0.00899375 -0.019005 0.999779 0.000803521
0.0115926 -0.0192507 0.999747 0
0.0134025 -0.0193268 0.999723 0
0.0156107 -0.0193809 0.99969 0
0.0164529 -0.0194692 0.999675 0
0.0151541 -0.0196212 0.999693 0
0.0136659 -0.0199139 0.999708 0.000551464
0.0138023 -0.0199819 0.999705 0
0.0138032 -0.0201376 0.999702 0
0.0138823 -0.0201897 0.9997 0.00063079
0.0119953 -0.0205004 0.999718 0.00104837
0.0126086 -0.0206582 0.999707 0
0.0135333 -0.0207064 0.999694 0.00178043
0.0145802 -0.020734 0.999679 0.00167069
0.0146538 -0.0207321 0.999678 0
0.0144289 -0.0206058 0.999683 0.00317155
0.0131094 -0.0204001 0.999706 0.00219636
0.0144227 -0.0203042 0.99969 0.00570005
0.0154357 -0.020269 0.999675 0.00740944
0.0164503 -0.0198544 0.999668 0.00585304
0.0164037 -0.0198295 0.999669 0.0103383
0.0168654 -0.0196074 0.999665 0.00886669
0.0182081 -0.019534 0.999643 0.011556
0.0175278 -0.0195122 0.999656 0.0104811
0.0188345 -0.0193326 0.999636 0.011206
0.0190437 -0.0190546 0.999637 0.00871938
0.018523 -0.0187701 0.999652 0.00721285
0.0201466 -0.0186712 0.999623 0.011062
0.0189854 -0.0184555 0.999649 0.0102303
0.0159423 -0.0182046 0.999707 0.00927304
0.0180442 -0.0180606 0.999674 0.00361433
0.0155384 -0.017971 0.999718 0.00584263
0.0160173 -0.0176038 0.999717 0.00404442
0.0182299 -0.0173367 0.999683 0.00213978
0.0182082 -0.0170757 0.999688 0.000754556
0.0205702 -0.0167503 0.999648 0
0.0216128 -0.0168027 0.999625 0.00268307
0.0212938 -0.0166199 0.999635 0
0.0226635 -0.0160209 0.999615 0
0.0201847 -0.0160396 0.999668 0.00209209
0.0218773 -0.0155751 0.999639 0.000681335
0.0223409 -0.0150182 0.999638 0
0.0224553 -0.0146448 0.999641 0
0.021761 -0.01425 0.999662 0
0.0228629 -0.0139119 0.999642 0
0.0221647 -0.0138124 0.999659 0.000509481
0.0214884 -0.0135275 0.999678 0.00708265
0.0226529 -0.0130449 0.999658 0.00637343
0.0219491 -0.012812 0.999677 0.0137953
0.0190392 -0.0124647 0.999741 0.0189882
0.0231523 -0.0121163 0.999659 0.0133053
0.0250569 -0.0115864 0.999619 0.00651414
0.0241878 -0.0112126 0.999645 0.00650587
0.0255282 -0.0108718 0.999615 0.00415425
0.0266435 -0.0104837 0.99959 0
0.0297402 -0.010645 0.999501 0
0.0298272 -0.0107018 0.999498 0
0.0303666 -0.0107218 0.999481 0
0.0312578 -0.0107716 0.999453 0
0.0333497 -0.0108736 0.999385 0
0.0351098 -0.0110301 0.999323 0
0.0343852 -0.0111093 0.999347 0
0.0325804 -0.0108252 0.99941 0
0.0320873 -0.0108399 0.999426 0
0.0302908 -0.0107742 0.999483 0
0.0327065 -0.0108993 0.999406 0
0.0312308 -0.010569 0.999456 0
0.0336176 -0.010348 0.999381 0
0.0325406 -0.0102509 0.999418 0
0.0350271 -0.0103966 0.999332 0
0.0368907 -0.0103836 0.999265 0
0.0383377 -0.0104034 0.999211 0
0.0385178 -0.0103626 0.999204 0
0.0355335 -0.0102139 0.999316 0
0.0366243 -0.0101981 0.999277 0
0.0346038 -0.0101565 0.999349 0.00303069
0.0364368 -0.0101225 0.999285 0.00137322
0.0363039 -0.0100438 0.99929 0.000397196
0.0338338 -0.00996165 0.999378 0.0021627
0.0347314 -0.00995851 0.999347 0.00100955
0.0344032 -0.00993119 0.999359 0
0.0358996 -0.0100434 0.999305 0.0025368
0.0376265 -0.0100962 0.999241 0
0.0372745 -0.0101417 0.999254 0.00103871
0.040467 -0.0103337 0.999127 0.00455813
0.0384916 -0.0100837 0.999208 0.000595288
0.0409318 -0.00997389 0.999112 0.00158474
0.0409442 -0.00959789 0.999115 0.0015576
0.0425031 -0.00926083 0.999053 0.000107313
0.0427895 -0.00907421 0.999043 0.00404534
0.0418641 -0.00882978 0.999084 0.00844857
0.0408855 -0.00888609 0.999124 0.0100197
0.0408869 -0.00876646 0.999125 0.0120666
0.04147 -0.00887692 0.9991 0.0117904
0.0437434 -0.00854045 0.999006 0.0111271
0.0433714 -0.00815263 0.999026 0.0101685
0.0443065 -0.00750459 0.99899 0.0103348
0.0436749 -0.00704941 0.999021 0.00885368
0.0450205 -0.00647372 0.998965 0.00195242
0.0463098 -0.00578869 0.99891 0
0.0480238 -0.00513001 0.998833 0
0.0470988 -0.00482923 0.998879 0
0.0474322 -0.00480238 0.998863 0
0.048518 -0.00443103 0.998812 0
0.0489269 -0.00411077 0.998794 0
0.0481215 -0.00373119 0.998834 0
0.0472602 -0.00324319 0.998877 0
0.0455966 -0.00290946 0.998956 0
0.0469638 -0.00261208 0.998893 0
0.0462876 -0.00208139 0.998926 0
0.0458708 -0.00174662 0.998946 0
0.0454904 -0.00168132 0.998963 0
0.0464646 -0.00160987 0.998919 0
0.0469607 -0.00131744 0.998896 0
0.0465872 -0.00135628 0.998913 0.0010349
0.0488215 -0.00130522 0.998807 0
0.0485601 -0.0011436 0.99882 0
0.0475341 -0.000893588 0.998869 0
0.0487798 -0.000752818 0.998809 0
0.0480957 -0.000307172 0.998843 0
0.0477265 0.00015563 0.99886 0
0.0483412 0.000572728 0.998831 0
0.0503001 0.00104525 0.998734 0.00126084
0.0476536 0.00146382 0.998863 0.00105208
0.0488138 0.00198945 0.998806 0
0.0489234 0.00253047 0.998799 0.000343513
0.0493974 0.00305475 0.998775 0
0.0508786 0.00353729 0.998699 0
0.0498695 0.00397512 0.998748 0
0.0500116 0.00442357 0.998739 0
0.0517737 0.00485771 0.998647 0
0.0521473 0.00543548 0.998625 0
0.0508733 0.00597935 0.998687 0
0.0527321 0.00652967 0.998587 0
0.0536314 0.00714358 0.998535 0
0.0535274 0.0076916 0.998537 0
0.0542214 0.00835224 0.998494 0
0.0538119 0.00877073 0.998513 0
0.0525976 0.00949453 0.998571 0
0.0526329 0.00991323 0.998565 0
0.0535232 0.0107302 0.998509 0
0.0522212 0.0109914 0.998575 0
0.0526909 0.0113431 0.998546 0
0.0515642 0.0117861 0.9986 0
0.0528896 0.0120452 0.998528 0
0.0526344 0.0126343 0.998534 1.94826e-05
0.0521168 0.0131344 0.998555 0
0.0518911 0.0135886 0.99856 0
0.0519837 0.0141461 0.998548 0.00142268
0.0100325 -0.0890295 0.995978 0
0.00903997 -0.0845449 0.996379 0
0.00819026 -0.0813211 0.996654 0
0.00745826 -0.0770184 0.997002 0
0.00731479 -0.0730676 0.9973 0
0.006919 -0.0706319 0.997478 0
0.00621408 -0.0672354 0.997718 0
0.00568464 -0.0653242 0.997848 0
0.00482601 -0.0643123 0.997918 0
0.00481949 -0.0621384 0.998056 0
0.00459674 -0.0609109 0.998133 0
0.00422214 -0.0600213 0.998188 0.000545194
0.00492682 -0.0577434 0.998319 0
0.00411073 -0.056582 0.99839 0.0019893
0.00410432 -0.0552376 0.998465 0.00521554
0.0032586 -0.0524187 0.99862 0.00316227
0.00334633 -0.050346 0.998726 0.00111936
0.00243569 -0.0482361 0.998833 0.00104987
0.00356451 -0.0471723 0.99888 0.00308699
0.00292354 -0.0465933 0.99891 0.00411203
0.00173199 -0.0445693 0.999005 0.00109811
0.00212685 -0.0437535 0.99904 0.00028518
0.00218231 -0.0421544 0.999109 0
0.00273183 -0.0408763 0.99916 0.00213788
0.00223833 -0.0394384 0.99922 0.00216093
0.000432631 -0.0383402 0.999265 0.00573359
-0.000200342 -0.0378203 0.999285 0.010549
-0.000667948 -0.0371222 0.999311 0.00965987
0.000191505 -0.0362881 0.999341 0.0067638
-0.000966787 -0.0350822 0.999384 0.0117035
-0.00191759 -0.0344809 0.999404 0.0148231
0.00010923 -0.0332516 0.999447 0.00973331
-0.000377186 -0.0320575 0.999486 0.00957983
0.00129267 -0.0316302 0.999499 0.00912036
-0.000603909 -0.0309979 0.999519 0.0120248
-0.00112405 -0.0306293 0.99953 0.0144745
0.00114953 -0.0295547 0.999563 0.0143319
-0.00101172 -0.0290159 0.999578 0.0166096
0.000148305 -0.0283383 0.999598 0.011574
0.000188649 -0.0284483 0.999595 0.0107838
-0.00135746 -0.0278595 0.999611 0.011476
-0.00099124 -0.0270916 0.999632 0.010362
-0.00224975 -0.0270034 0.999633 0.0122859
0.000316613 -0.0266339 0.999645 0.00797096
-0.000371251 -0.0265197 0.999648 0.00922951
-0.000205041 -0.0258895 0.999665 0.00740915
-0.00156978 -0.0257781 0.999666 0.00799461
-0.00150619 -0.0250429 0.999685 0.00473648
-0.00279399 -0.0248401 0.999688 0.00525288
-0.00285269 -0.0242138 0.999703 0.00621312
-0.000604674 -0.023608 0.999721 0.00240729
-0.000602818 -0.0228825 0.999738 0.000885212
0.000832952 -0.0217927 0.999762 0
0.000805117 -0.0209742 0.99978 0
0.00183302 -0.0204378 0.999789 0
0.00198571 -0.0194935 0.999808 0
0.000982356 -0.0191209 0.999817 0
0.001299 -0.0181344 0.999835 0
0.00278182 -0.017284 0.999847 0
0.00301495 -0.0174606 0.999843 0
0.00334907 -0.0174564 0.999842 0
0.00547634 -0.0166201 0.999847 0
0.00638226 -0.0157482 0.999856 0
0.00602314 -0.0157081 0.999858 0
0.00685512 -0.0146624 0.999869 0
0.00519139 -0.0140637 0.999888 0
0.00456864 -0.0128855 0.999907 0
0.00311749 -0.0124661 0.999917 0
0.0020799 -0.0116563 0.99993 0
0.000322123 -0.0112394 0.999937 0
-0.000861009 -0.0104345 0.999945 0
0.0017148 -0.00957121 0.999953 0
0.00234839 -0.00874252 0.999959 0
0.000872743 -0.00846861 0.999964 0
0.000291726 -0.00807837 0.999967 0
0.00066506 -0.00755686 0.999971 0
0.00151713 -0.00719032 0.999973 0
0.00169445 -0.00690888 0.999975 0
0.000960399 -0.0075606 0.999971 0
0.000816224 -0.00769438 0.99997 0
0.00042857 -0.00767769 0.99997 0
0.00144729 -0.00765167 0.99997 0
0.00137948 -0.0078152 0.999968 0
0.00127927 -0.00831588 0.999965 0
0.00302044 -0.00861707 0.999958 0
0.00377412 -0.00872228 0.999955 0
0.00178017 -0.00912065 0.999957 0
0.00197288 -0.00938895 0.999954 0
0.00181518 -0.00984149 0.99995 0
-0.000537849 -0.0104048 0.999946 0
-0.00153176 -0.0109219 0.999939 0
-0.00495146 -0.0114283 0.999922 0
-0.00400815 -0.0117536 0.999923 0
-0.00567318 -0.0126104 0.999904 0
-0.00716994 -0.0131401 0.999888 0.00109362
-0.00535845 -0.0133788 0.999896 0
-0.00577966 -0.0138992 0.999887 0.0011569
-0.00511487 -0.0139991 0.999889 0
-0.00692503 -0.0146377 0.999869 0.000858516
-0.00547353 -0.0149992 0.999873 0
-0.00701616 -0.0155083 0.999855 0
-0.00502146 -0.0156774 0.999865 0
-0.00530998 -0.0159438 0.999859 0
-0.00228831 -0.0159664 0.99987 0
-0.00189811 -0.0160355 0.99987 0
-0.000404745 -0.0162204 0.999868 0
-0.00111859 -0.0164632 0.999864 0
-0.0031734 -0.0167142 0.999855 0
-0.00113283 -0.0171302 0.999853 0
-0.00235914 -0.017673 0.999841 0
-0.00131602 -0.0181512 0.999834 0
-0.00415464 -0.0185577 0.999819 0
-0.00616977 -0.0193477 0.999794 0
-0.00524991 -0.0200442 0.999785 0.00202712
-0.0035782 -0.0199712 0.999794 0
-0.00130153 -0.0202346 0.999794 0
-0.00271397 -0.0207028 0.999782 0
-0.00448055 -0.0212886 0.999763 0
-0.00642626 -0.0216708 0.999745 0
-0.00612784 -0.0219773 0.99974 0
-0.00489622 -0.0222596 0.99974 0
-0.00413912 -0.0226047 0.999736 0
-0.00642399 -0.023093 0.999713 0
-0.00731527 -0.0231514 0.999705 0.00224132
-0.0066503 -0.0236445 0.999698 0.00714824
-0.0073729 -0.0240397 0.999684 0.00881159
-0.00778571 -0.0246497 0.999666 0.0117689
-0.00824368 -0.0248617 0.999657 0.0113161
-0.009843 -0.0253261 0.999631 0.0157012
-0.00956375 -0.0249151 0.999644 0.0140547
-0.00562472 -0.0246804 0.99968 0.00915817
-0.00318271 -0.0240273 0.999706 0.00197629
-0.00306212 -0.0238215 0.999712 0.00160606
-0.00220744 -0.0236197 0.999719 0.000412447
-0.00188424 -0.0236071 0.99972 0.00121299
-0.000698555 -0.0240623 0.99971 0.00539715
-0.00205072 -0.0244463 0.999699 0.00904643
-0.00479225 -0.0249243 0.999678 0.010697
-0.00545129 -0.0251192 0.99967 0.0124366
-0.00799536 -0.0251947 0.999651 0.0163375
-0.00599973 -0.0252622 0.999663 0.016215
-0.00546608 -0.0251285 0.999669 0.0160806
-0.00831858 -0.0255301 0.999639 0.0200987
-0.0046847 -0.02484 0.99968 0.0181422
-0.00388818 -0.0241676 0.9997 0.0148515
-0.00417301 -0.024309 0.999696 0.0142048
-0.00284067 -0.023656 0.999716 0.0108074
-0.00173997 -0.0233721 0.999725 0.00694281
0.000811531 -0.0231173 0.999732 0.00163786
0.000915536 -0.0230724 0.999733 0.00137305
0.00516705 -0.0229905 0.999722 0
0.00464454 -0.0227099 0.999731 0
0.00288448 -0.022359 0.999746 0
0.000245227 -0.0220454 0.999757 0
-0.00280241 -0.0219419 0.999755 0
-0.00100244 -0.0217465 0.999763 0.000707578
-0.00010092 -0.0215318 0.999768 0.000525605
0.00197515 -0.0215436 0.999766 0.00139056
0.00202214 -0.0217049 0.999762 0.00127279
0.0030553 -0.0216447 0.999761 0.0019486
0.00453105 -0.0211668 0.999766 0.000244051
0.00772746 -0.0208022 0.999754 0
0.00926217 -0.020325 0.99975 0
0.00929382 -0.0201375 0.999754 0
0.00843902 -0.0198308 0.999768 0
0.00897309 -0.0199015 0.999762 0
0.00906405 -0.0197701 0.999763 0.000713449
0.00981904 -0.0193841 0.999764 0
0.00865556 -0.0189591 0.999783 0
0.00671687 -0.0187832 0.999801 0
0.00925979 -0.0182468 0.999791 0
0.00932574 -0.0175755 0.999802 0
0.0093749 -0.0173467 0.999806 0
0.00594653 -0.0170952 0.999836 0
0.00672226 -0.0167507 0.999837 0
0.00576398 -0.0163623 0.99985 0
0.0043556 -0.0161643 0.99986 0
0.00662865 -0.0156852 0.999855 0
0.00610244 -0.0151143 0.999867 0
0.0106515 -0.014637 0.999836 0
0.00713971 -0.0143255 0.999872 0
0.00598456 -0.0138329 0.999886 0
0.00597242 -0.0133951 0.999892 0
0.00563272 -0.0131235 0.999898 0
0.00768755 -0.012695 0.99989 0
0.00585752 -0.0123214 0.999907 0
0.00834639 -0.012247 0.99989 0
0.00582212 -0.0119894 0.999911 0
0.00815936 -0.0116094 0.999899 0
0.0105251 -0.0113247 0.99988 0
0.010456 -0.0112831 0.999882 0
0.0082535 -0.0111117 0.999904 0
0.0127077 -0.0108414 0.99986 0
0.012973 -0.0109534 0.999856 0
0.0142732 -0.0107686 0.99984 0
0.0150162 -0.0108711 0.999828 0
0.0166794 -0.0108144 0.999802 0
0.0126979 -0.0108421 0.999861 0
0.0102378 -0.0109343 0.999888 0
0.00998862 -0.0113535 0.999886 0.00279584
0.0117123 -0.0113831 0.999867 0.00188238
0.0141392 -0.0111174 0.999838 0
0.0164233 -0.0109927 0.999805 0
0.0176294 -0.0108641 0.999786 0
0.0174544 -0.0107824 0.999789 0
0.0195249 -0.0106343 0.999753 0
0.0205526 -0.0103243 0.999735 0
0.0186165 -0.0104094 0.999773 0.000856756
0.0174979 -0.0101329 0.999796 0.00308839
0.0178138 -0.0104943 0.999786 0.00837335
0.0138795 -0.0105584 0.999848 0.0117276
0.0163018 -0.0103493 0.999814 0.00816607
0.016791 -0.0102631 0.999806 0.00594697
0.0189191 -0.00998933 0.999771 0.00150466
0.0186718 -0.00970075 0.999779 0
0.0211181 -0.00941949 0.999733 0
0.0239975 -0.00917765 0.99967 0
0.0232247 -0.00954578 0.999685 0
0.0232321 -0.00952316 0.999685 0
0.0248744 -0.00958691 0.999645 0
0.0228516 -0.00978076 0.999691 0
0.0216565 -0.0101172 0.999714 0
0.0226057 -0.010302 0.999691 0
0.0225754 -0.0106548 0.999688 0
0.0235022 -0.0106464 0.999667 0
0.0230654 -0.0107646 0.999676 0
0.0199624 -0.0111974 0.999738 0
0.0163226 -0.0116007 0.999799 0
0.0162953 -0.011705 0.999799 0.00336773
0.0176913 -0.0116211 0.999776 0.00448777
0.0153806 -0.0120162 0.99981 0.00510424
0.0172451 -0.0123026 0.999776 0.00415326
0.0177126 -0.0123772 0.999766 0.000999217
0.0174208 -0.0126379 0.999768 0.00373363
0.0175139 -0.0130104 0.999762 0.00432139
0.0168792 -0.0132006 0.99977 0.00226047
0.0158057 -0.0137298 0.999781 0.00675214
0.0149225 -0.0141012 0.999789 0.0104551
0.0168072 -0.0141965 0.999758 0.0077127
0.0158356 -0.0149327 0.999763 0.0135046
0.0130143 -0.0156536 0.999793 0.0177603
0.0132449 -0.0156727 0.99979 0.0141655
0.0156368 -0.0156132 0.999756 0.00909258
0.0163176 -0.0157435 0.999743 0.00967044
0.0195805 -0.0158815 0.999682 0.00742019
0.0206313 -0.0160838 0.999658 0.00457462
0.0225524 -0.016114 0.999616 0.003925
0.0205391 -0.0168024 0.999648 0.0126504
0.0190443 -0.0174182 0.999667 0.0184817
0.016499 -0.0179166 0.999703 0.0228556
0.0152776 -0.0181903 0.999718 0.0277415
0.0190957 -0.0179911 0.999656 0.0244041
0.0196672 -0.0175749 0.999652 0.0162795
0.0198437 -0.0174451 0.999651 0.0135114
0.022272 -0.0173628 0.999601 0.0114048
0.0243254 -0.0174117 0.999552 0.00575207
0.0272958 -0.0176257 0.999472 0.00363365
0.0258416 -0.0176092 0.999511 0.00582705
0.0219945 -0.0178993 0.999598 0.0109403
0.0215355 -0.0179359 0.999607 0.00946742
0.022786 -0.0179709 0.999579 0.00998782
0.0226829 -0.017995 0.999581 0.00978096
0.0263695 -0.0178693 0.999493 0.00151871
0.0282946 -0.0176503 0.999444 0
0.0288004 -0.0179044 0.999425 0
0.0271604 -0.0182764 0.999464 0
0.025604 -0.0186443 0.999498 0.00159633
0.0280523 -0.0188901 0.999428 0.00123736
0.0276008 -0.0191475 0.999436 0
0.0275998 -0.019265 0.999433 0
0.0248584 -0.0195573 0.9995 0
0.0293065 -0.0195199 0.99938 0
0.029545 -0.019757 0.999368 0
0.0292554 -0.0198311 0.999375 0
0.0324874 -0.0198812 0.999274 0
0.0277995 -0.0201567 0.99941 0
0.0271016 -0.0202981 0.999427 0
0.0287731 -0.0203534 0.999379 0
0.0263495 -0.0206979 0.999439 0.0046491
0.0276247 -0.02086 0.999401 0.00703176
0.0255439 -0.0209184 0.999455 0.00576535
0.0253275 -0.0211302 0.999456 0.00785569
0.0246777 -0.021194 0.999471 0.0161461
0.0282143 -0.0206619 0.999388 0.00959403
0.0290545 -0.0205503 0.999366 0.0101684
0.0283115 -0.0204551 0.99939 0.012106
0.0298951 -0.0203641 0.999345 0.013914
0.0304959 -0.0203172 0.999328 0.0152961
0.0325696 -0.020117 0.999267 0.0145835
0.0344423 -0.0198263 0.99921 0.0132877
0.0315589 -0.0198028 0.999306 0.0169492
0.0323097 -0.0196229 0.999285 0.0164202
0.0345694 -0.0195658 0.999211 0.0159373
0.0321214 -0.0195197 0.999293 0.016517
0.0319232 -0.0194909 0.9993 0.0171957
0.0318053 -0.0193108 0.999307 0.0157527
0.029801 -0.0192148 0.999371 0.0172791
0.0305753 -0.0191069 0.99935 0.0189782
0.0309806 -0.0186525 0.999346 0.0191042
0.0285523 -0.0184851 0.999421 0.0206503
0.02702 -0.0182256 0.999469 0.0222286
0.0296352 -0.0178565 0.999401 0.0181827
0.0277164 -0.0177745 0.999458 0.0188596
0.0315532 -0.0170525 0.999357 0.0135458
0.0315273 -0.0166842 0.999364 0.0111147
0.029739 -0.0163857 0.999423 0.0118446
0.0362815 -0.0163294 0.999208 0.0027576
0.0370511 -0.0160387 0.999185 0.0037563
0.040705 -0.0153677 0.999053 0.000753087
0.0386583 -0.0151944 0.999137 0
0.0394858 -0.0151165 0.999106 0
0.0418381 -0.0147654 0.999015 0
0.0449916 -0.0146865 0.998879 0
0.0469977 -0.0140983 0.998796 0
0.0440625 -0.0136736 0.998935 0
0.0424259 -0.0133632 0.99901 0
0.0412027 -0.0132939 0.999062 0
0.0434124 -0.013066 0.998972 0
0.0426707 -0.0124875 0.999011 0.00439536
0.042061 -0.0121559 0.999041 0.00566466
0.041547 -0.0118653 0.999066 0.00990912
0.0408736 -0.0115224 0.999098 0.0127592
0.043354 -0.011852 0.998989 0.00934259
0.0469827 -0.011251 0.998832 0.000742527
0.0426283 -0.0111092 0.999029 0
0.0428828 -0.0105757 0.999024 0
0.0452431 -0.0104083 0.998922 0
0.0464688 -0.0101137 0.998869 0
0.0495181 -0.0100399 0.998723 0
0.0498581 -0.0103359 0.998703 0
0.0487203 -0.0103222 0.998759 0
0.0471611 -0.0104202 0.998833 0
0.0446991 -0.010124 0.998949 0
0.0439919 -0.0101385 0.998981 0
0.0436911 -0.0102368 0.998993 0.0040748
0.044431 -0.0100379 0.998962 0.00338666
0.0461716 -0.0101964 0.998881 0.00772803
0.0474208 -0.0102144 0.998823 0.00681315
0.0458373 -0.010003 0.998899 0
0.044807 -0.00956372 0.99895 0
0.0473151 -0.00934388 0.998836 0
0.0518748 -0.0095648 0.998608 0
0.0535908 -0.00963287 0.998516 0
0.0516449 -0.00954415 0.99862 0
0.0517398 -0.0095237 0.998615 0
0.0508629 -0.0094582 0.998661 0
0.0515223 -0.00946059 0.998627 0
0.05148 -0.00940841 0.99863 0
0.0522161 -0.00942184 0.998591 0
0.0516939 -0.00940438 0.998619 0
0.0534469 -0.00950949 0.998525 0
0.0536736 -0.00941916 0.998514 0.00367791
0.0556867 -0.00929424 0.998405 0.000819963
0.0590114 -0.00934949 0.998213 0
0.0581854 -0.00925195 0.998263 0.00302822
0.0585802 -0.00953706 0.998237 0.00616413
0.0570062 -0.00969922 0.998327 0.00870191
0.0569336 -0.00999854 0.998328 0.0136131
0.0584355 -0.0101824 0.998239 0.00639251
0.0598562 -0.0104394 0.998152 0.0120852
0.0608264 -0.0105615 0.998093 0.0112628
0.0591826 -0.00970254 0.9982 0.0105558
0.0605086 -0.00964726 0.998121 0.0118403
0.0604255 -0.00926705 0.99813 0.017067
0.061137 -0.00870585 0.998091 0.0202245
0.063294 -0.00868035 0.997957 0.0169042
0.0628536 -0.00840051 0.997987 0.016339
0.0638101 -0.00815849 0.997929 0.0139935
0.062957 -0.0076697 0.997987 0.0106424
0.0633398 -0.00725758 0.997966 0.00813657
0.0640965 -0.00695834 0.997919 0.00523067
0.0625433 -0.00639065 0.998022 0.00476221
0.0609652 -0.00582945 0.998123 0.00802698
0.0598852 -0.00534283 0.998191 0.00868798
0.0609733 -0.00492175 0.998127 0.00869368
0.0621891 -0.00475085 0.998053 0.00662455
0.0603552 -0.00447142 0.998167 0.00925049
0.0628281 -0.00459648 0.998014 0.00861276
0.0616009 -0.00440288 0.998091 0.00682557
0.0625379 -0.004428 0.998033 0.00292095
0.062496 -0.00431534 0.998036 0
0.0628804 -0.00429763 0.998012 0.00193209
0.0631557 -0.00423903 0.997995 0.0044668
0.0639237 -0.00424106 0.997946 0
0.0656769 -0.00436676 0.997831 0
0.0662525 -0.00444119 0.997793 0
0.0667642 -0.00441711 0.997759 0
0.0675939 -0.00430534 0.997704 0
0.0677375 -0.00404216 0.997695 0
0.0703056 -0.00405557 0.997517 0
0.0688113 -0.00389991 0.997622 0
0.0681876 -0.00379241 0.997665 0
0.0697944 -0.00363843 0.997555 4.1574e-05
0.0679622 -0.00314145 0.997683 0
0.0690881 -0.00251824 0.997607 0
0.0697924 -0.00177442 0.99756 0
0.0706866 -0.00128223 0.997498 0
0.0745114 -0.000647161 0.99722 0
0.0738171 0.000121344 0.997272 0
0.0740868 0.000463769 0.997252 0
0.073937 0.000793364 0.997263 0
0.0756883 0.00107814 0.997131 0
0.075219 0.00162712 0.997166 0
0.0757134 0.00204866 0.997128 0
0.0745004 0.00242709 0.997218 0
0.0748955 0.0028195 0.997187 0
0.0741767 0.00340611 0.997239 0
0.0725397 0.00376308 0.997358 0
0.0731801 0.00405972 0.99731 0
0.0729741 0.00447575 0.997324 0
0.0727788 0.0048569 0.997336 0
0.0719149 0.00506797 0.997398 0
0.0715116 0.00542648 0.997425 0
0.0734084 0.00577261 0.997285 0
0.0737598 0.00578354 0.997259 0
0.0734163 0.00596704 0.997284 0
0.0733006 0.00625319 0.99729 0
0.0736414 0.00643735 0.997264 0
0.0719141 0.00672222 0.997388 0
0.0731812 0.00683506 0.997295 0
0.074985 0.00691248 0.997161 0
0.07587 0.00712259 0.997092 0
0.0756457 0.00739192 0.997107 0
0.0189192 -0.0774494 0.996817 0
0.0174646 -0.0735433 0.997139 0
0.0173847 -0.071419 0.997295 0
0.0162701 -0.0690389 0.997481 0
0.0159937 -0.0666878 0.997646 0
0.0152661 -0.0647907 0.997782 0
0.014846 -0.0628692 0.997911 0
0.0127746 -0.0610242 0.998055 0
0.0138922 -0.0601711 0.998091 0
0.0127629 -0.0575702 0.99826 0
0.0115582 -0.05614 0.998356 0
0.0107281 -0.0540346 0.998481 0
0.00951253 -0.0524231 0.99858 0
0.00846794 -0.0508502 0.99867 0
0.00985288 -0.0495251 0.998724 0
0.00954024 -0.047886 0.998807 0.0015538
0.00933474 -0.0470219 0.99885 0.00331873
0.00562731 -0.0454206 0.998952 0.0041407
0.00565801 -0.0440721 0.999012 0.00283671
0.00633945 -0.0425681 0.999073 0.00478562
0.00597204 -0.0414472 0.999123 0.00553388
0.00520064 -0.0405179 0.999165 0.00714519
0.00578048 -0.0406206 0.999158 0.00965944
0.00422481 -0.0395142 0.99921 0.0110636
0.00304523 -0.038922 0.999238 0.0152718
0.00346725 -0.0374248 0.999293 0.0124754
0.00315686 -0.0363454 0.999334 0.0117002
0.0014497 -0.0353302 0.999375 0.010708
0.00255885 -0.0343436 0.999407 0.0103455
0.00175636 -0.0336294 0.999433 0.00895808
0.00153954 -0.0325207 0.99947 0.00771581
0.00267772 -0.0314017 0.999503 0.00739639
0.0035289 -0.0309299 0.999515 0.00508341
0.00135649 -0.029901 0.999552 0.00319635
0.00166593 -0.0300401 0.999547 0.00412985
-0.00128803 -0.029942 0.999551 0.00675293
-0.00157275 -0.0301452 0.999544 0.0100484
-0.000737776 -0.0290177 0.999579 0.00707947
-0.00105385 -0.0292596 0.999571 0.00948071
-0.00162769 -0.0288772 0.999582 0.00765505
-0.00138873 -0.0281818 0.999602 0.00414263
-0.00265153 -0.0276006 0.999616 0.00572389
-0.00216707 -0.0269225 0.999635 0.00527517
-0.000453528 -0.0258096 0.999667 0.00297379
-0.000772548 -0.0248779 0.99969 0.00572448
9.61781e-05 -0.0241205 0.999709 0.00483205
-0.000972355 -0.0233183 0.999728 0.00532094
-0.00322411 -0.0226719 0.999738 0.0100765
-0.0074879 -0.0225314 0.999718 0.0123785
-0.0030642 -0.0217742 0.999758 0.0105422
-0.00137718 -0.0208815 0.999781 0.00834296
-0.00272688 -0.0206144 0.999784 0.0124294
-0.00190618 -0.0197445 0.999803 0.00722723
4.30684e-05 -0.0193212 0.999813 0.00881743
0.00366816 -0.0183491 0.999825 0.00331503
0.00211338 -0.0176674 0.999842 0.00158849
0.000294873 -0.0177848 0.999842 0.00572747
0.00333635 -0.0176546 0.999839 0.00437952
0.00460864 -0.0170762 0.999844 0.00209528
0.00607253 -0.0171001 0.999835 0.00202839
0.00460827 -0.0170442 0.999844 0.00259229
0.00721659 -0.0160796 0.999845 0
0.0093773 -0.0151542 0.999841 0
0.0115492 -0.0140089 0.999835 0
0.0106897 -0.0130071 0.999858 0
0.0112962 -0.0123133 0.99986 0
0.00875497 -0.0114503 0.999896 0
0.00680616 -0.0106924 0.99992 0
0.00878068 -0.0103838 0.999907 0
0.00618516 -0.00980681 0.999933 0
0.00538647 -0.00914928 0.999944 0
0.00503935 -0.00875601 0.999949 0
0.00493786 -0.00843066 0.999952 0
0.00394027 -0.00852333 0.999956 0
0.000819087 -0.00898138 0.999959 0
-0.000371438 -0.00896181 0.99996 0
-0.00171105 -0.00920523 0.999956 0.00204232
-0.00184042 -0.00965162 0.999952 0.00278994
0.000271569 -0.0101361 0.999949 9.52206e-05
0.000508641 -0.0106156 0.999944 0.00108671
0.000393677 -0.0106691 0.999943 0.00140117
0.0014847 -0.0101776 0.999947 0
0.00084703 -0.010086 0.999949 0
-0.000114484 -0.0106599 0.999943 0
-0.0012203 -0.0110165 0.999939 0
-0.000754518 -0.0113666 0.999935 0
-0.000847484 -0.0117239 0.999931 0
-0.000628527 -0.01232 0.999924 0.00173754
