# .PCD v0.7 - Point Cloud Data file format
VERSION 0.7
FIELDS x y z
SIZE 4 4 4
TYPE F F F
COUNT 1 1 1
WIDTH 1594
HEIGHT 1
VIEWPOINT 0 0 0 1 0 0 0
POINTS 1594
DATA ascii
-0.054038 -0.079877 -0.244600
-0.054035 -0.079797 -0.244601
-0.054032 -0.079717 -0.244601
-0.054029 -0.079638 -0.244599
-0.054026 -0.079558 -0.244599
-0.054022 -0.079476 -0.244599
-0.054020 -0.079398 -0.244591
-0.054017 -0.079318 -0.244585
-0.054014 -0.079236 -0.244585
-0.054010 -0.079156 -0.244585
-0.054007 -0.079076 -0.244583
-0.054004 -0.078996 -0.244580
-0.054001 -0.078916 -0.244582
-0.053998 -0.078836 -0.244578
-0.053995 -0.078757 -0.244572
-0.053992 -0.078675 -0.244576
-0.053988 -0.078595 -0.244578
-0.053985 -0.078515 -0.244574
-0.053982 -0.078435 -0.244572
-0.053979 -0.078355 -0.244570
-0.053976 -0.078275 -0.244568
-0.053973 -0.078195 -0.244567
-0.053970 -0.078113 -0.244569
-0.053966 -0.078033 -0.244573
-0.053963 -0.077953 -0.244567
-0.053960 -0.077873 -0.244563
-0.053957 -0.077791 -0.244565
-0.053954 -0.077711 -0.244567
-0.053951 -0.077631 -0.244567
-0.053947 -0.077551 -0.244567
-0.053944 -0.077469 -0.244563
-0.053942 -0.077392 -0.244554
-0.053939 -0.077312 -0.244552
-0.053935 -0.077230 -0.244552
-0.053932 -0.077150 -0.244554
-0.053929 -0.077070 -0.244552
-0.053926 -0.076990 -0.244548
-0.053923 -0.076910 -0.244546
-0.053920 -0.076828 -0.244548
-0.053916 -0.076748 -0.244550
-0.053913 -0.076668 -0.244548
-0.053910 -0.076588 -0.244547
-0.053907 -0.076506 -0.244549
-0.053904 -0.076426 -0.244547
-0.053900 -0.076346 -0.244545
-0.053897 -0.076264 -0.244547
-0.053894 -0.076184 -0.244545
-0.053891 -0.076105 -0.244539
-0.053888 -0.076025 -0.244537
-0.053885 -0.075945 -0.244539
-0.053882 -0.075865 -0.244537
-0.053878 -0.075783 -0.244537
-0.053875 -0.075703 -0.244538
-0.053872 -0.075623 -0.244536
-0.053869 -0.075543 -0.244536
-0.053866 -0.075461 -0.244536
-0.053862 -0.075381 -0.244536
-0.053860 -0.075301 -0.244530
-0.053857 -0.075221 -0.244524
-0.053853 -0.075141 -0.244528
-0.053850 -0.075059 -0.244532
-0.053847 -0.074979 -0.244530
-0.053844 -0.074898 -0.244529
-0.053840 -0.074817 -0.244535
-0.053837 -0.074737 -0.244537
-0.053834 -0.074656 -0.244529
-0.053831 -0.074578 -0.244523
-0.053828 -0.074496 -0.244523
-0.053824 -0.074416 -0.244527
-0.053821 -0.074334 -0.244531
-0.053818 -0.074254 -0.244531
-0.053815 -0.074174 -0.244525
-0.053812 -0.074092 -0.244527
-0.053808 -0.074012 -0.244532
-0.053805 -0.073930 -0.244536
-0.053802 -0.073850 -0.244534
-0.053799 -0.073770 -0.244532
-0.053795 -0.073688 -0.244528
-0.053792 -0.073608 -0.244524
-0.053789 -0.073528 -0.244524
-0.053786 -0.073448 -0.244526
-0.053783 -0.073366 -0.244530
-0.053780 -0.073286 -0.244526
-0.053777 -0.073207 -0.244518
-0.053773 -0.073127 -0.244523
-0.053770 -0.073044 -0.244529
-0.053767 -0.072962 -0.244529
-0.053763 -0.072883 -0.244527
-0.053760 -0.072803 -0.244523
-0.053757 -0.072723 -0.244523
-0.053754 -0.072641 -0.244525
-0.053751 -0.072561 -0.244523
-0.053748 -0.072481 -0.244519
-0.053745 -0.072401 -0.244517
-0.053742 -0.072321 -0.244513
-0.053739 -0.072239 -0.244510
-0.053736 -0.072159 -0.244508
-0.053732 -0.072077 -0.244508
-0.053729 -0.071998 -0.244504
-0.053726 -0.071917 -0.244508
-0.053722 -0.071835 -0.244512
-0.053719 -0.071756 -0.244510
-0.053717 -0.071676 -0.244504
-0.053714 -0.071596 -0.244500
-0.053710 -0.071514 -0.244500
-0.053707 -0.071434 -0.244500
-0.053704 -0.071354 -0.244497
-0.053701 -0.071272 -0.244499
-0.053698 -0.071192 -0.244499
-0.053695 -0.071112 -0.244495
-0.053691 -0.071030 -0.244495
-0.053688 -0.070950 -0.244495
-0.053685 -0.070868 -0.244491
-0.053682 -0.070788 -0.244489
-0.053679 -0.070709 -0.244487
-0.053676 -0.070627 -0.244485
-0.053673 -0.070547 -0.244479
-0.053670 -0.070467 -0.244476
-0.053666 -0.070385 -0.244480
-0.053663 -0.070305 -0.244484
-0.053660 -0.070223 -0.244482
-0.053657 -0.070143 -0.244478
-0.053654 -0.070063 -0.244478
-0.053651 -0.069983 -0.244474
-0.053647 -0.069903 -0.244472
-0.053644 -0.069821 -0.244470
-0.053641 -0.069739 -0.244474
-0.053637 -0.069657 -0.244480
-0.053634 -0.069577 -0.244481
-0.053631 -0.069497 -0.244483
-0.053628 -0.069415 -0.244475
-0.053626 -0.069338 -0.244457
-0.053623 -0.069258 -0.244447
-0.053620 -0.069178 -0.244443
-0.053617 -0.069098 -0.244439
-0.053613 -0.069016 -0.244451
-0.053610 -0.068934 -0.244459
-0.053606 -0.068852 -0.244455
-0.053603 -0.068772 -0.244451
-0.053600 -0.068692 -0.244454
-0.053597 -0.068610 -0.244460
-0.053593 -0.068528 -0.244458
-0.053590 -0.068448 -0.244454
-0.053587 -0.068369 -0.244450
-0.053585 -0.068289 -0.244440
-0.053582 -0.068209 -0.244430
-0.053579 -0.068129 -0.244434
-0.053575 -0.068045 -0.244448
-0.053571 -0.067963 -0.244450
-0.053568 -0.067883 -0.244448
-0.053565 -0.067803 -0.244445
-0.053562 -0.067723 -0.244443
-0.053559 -0.067641 -0.244435
-0.053557 -0.067563 -0.244427
-0.053553 -0.067481 -0.244431
-0.053550 -0.067399 -0.244433
-0.053547 -0.067319 -0.244433
-0.053543 -0.067238 -0.244433
-0.053540 -0.067158 -0.244431
-0.053537 -0.067078 -0.244429
-0.053534 -0.066996 -0.244421
-0.053531 -0.066916 -0.244418
-0.053528 -0.066834 -0.244424
-0.053524 -0.066754 -0.244424
-0.053521 -0.066674 -0.244420
-0.053518 -0.066590 -0.244432
-0.053514 -0.066508 -0.244434
-0.053511 -0.066428 -0.244424
-0.053509 -0.066350 -0.244416
-0.053506 -0.066270 -0.244414
-0.053502 -0.066188 -0.244414
-0.053499 -0.066106 -0.244416
-0.053496 -0.066024 -0.244418
-0.053493 -0.065945 -0.244413
-0.054712 -0.103974 -0.245058
-0.054711 -0.103890 -0.245026
-0.054708 -0.103811 -0.245010
-0.054705 -0.103731 -0.245006
-0.054702 -0.103651 -0.245010
-0.054699 -0.103571 -0.245010
-0.054696 -0.103489 -0.245000
-0.054694 -0.103408 -0.244976
-0.054691 -0.103328 -0.244961
-0.054688 -0.103246 -0.244955
-0.054685 -0.103168 -0.244957
-0.054682 -0.103088 -0.244959
-0.054679 -0.103008 -0.244957
-0.054676 -0.102928 -0.244955
-0.054672 -0.102846 -0.244955
-0.054670 -0.102767 -0.244947
-0.054666 -0.102687 -0.244945
-0.054663 -0.102607 -0.244947
-0.054660 -0.102527 -0.244942
-0.054657 -0.102447 -0.244934
-0.054655 -0.102365 -0.244920
-0.054652 -0.102286 -0.244916
-0.054648 -0.102205 -0.244922
-0.054645 -0.102127 -0.244926
-0.054642 -0.102045 -0.244930
-0.054639 -0.101966 -0.244924
-0.054636 -0.101886 -0.244918
-0.054633 -0.101806 -0.244920
-0.054629 -0.101726 -0.244919
-0.054627 -0.101646 -0.244913
-0.054623 -0.101566 -0.244913
-0.054620 -0.101486 -0.244915
-0.054617 -0.101406 -0.244917
-0.054614 -0.101326 -0.244917
-0.054611 -0.101246 -0.244909
-0.054608 -0.101164 -0.244901
-0.054605 -0.101084 -0.244903
-0.054601 -0.101004 -0.244904
-0.054599 -0.100925 -0.244888
-0.054596 -0.100845 -0.244882
-0.054593 -0.100765 -0.244888
-0.054589 -0.100685 -0.244892
-0.054586 -0.100605 -0.244892
-0.054583 -0.100527 -0.244896
-0.054580 -0.100445 -0.244894
-0.054577 -0.100365 -0.244890
-0.054573 -0.100285 -0.244889
-0.054570 -0.100205 -0.244887
-0.054567 -0.100125 -0.244883
-0.054564 -0.100046 -0.244877
-0.054561 -0.099966 -0.244877
-0.054558 -0.099886 -0.244881
-0.054554 -0.099805 -0.244887
-0.054551 -0.099727 -0.244887
-0.054548 -0.099646 -0.244881
-0.054546 -0.099566 -0.244871
-0.054543 -0.099486 -0.244864
-0.054540 -0.099406 -0.244852
-0.054537 -0.099327 -0.244850
-0.054533 -0.099246 -0.244860
-0.054530 -0.099166 -0.244866
-0.054526 -0.099086 -0.244872
-0.054523 -0.099006 -0.244870
-0.054520 -0.098926 -0.244866
-0.054517 -0.098846 -0.244864
-0.054514 -0.098766 -0.244867
-0.054511 -0.098687 -0.244865
-0.054509 -0.098607 -0.244849
-0.054506 -0.098527 -0.244841
-0.054502 -0.098447 -0.244845
-0.054499 -0.098367 -0.244839
-0.054497 -0.098286 -0.244823
-0.054494 -0.098206 -0.244825
-0.054490 -0.098127 -0.244839
-0.054486 -0.098047 -0.244852
-0.054483 -0.097967 -0.244850
-0.054480 -0.097887 -0.244846
-0.054477 -0.097807 -0.244844
-0.054474 -0.097728 -0.244840
-0.054471 -0.097648 -0.244832
-0.054468 -0.097568 -0.244824
-0.054466 -0.097486 -0.244810
-0.054463 -0.097406 -0.244804
-0.054459 -0.097328 -0.244815
-0.054456 -0.097248 -0.244817
-0.054453 -0.097169 -0.244809
-0.054450 -0.097087 -0.244807
-0.054447 -0.097009 -0.244811
-0.054443 -0.096929 -0.244811
-0.054441 -0.096849 -0.244801
-0.054438 -0.096769 -0.244797
-0.054435 -0.096687 -0.244797
-0.054431 -0.096609 -0.244796
-0.054428 -0.096529 -0.244798
-0.054425 -0.096449 -0.244800
-0.054422 -0.096369 -0.244802
-0.054418 -0.096289 -0.244814
-0.054415 -0.096209 -0.244814
-0.054412 -0.096129 -0.244804
-0.054409 -0.096049 -0.244804
-0.054406 -0.095969 -0.244804
-0.054403 -0.095889 -0.244798
-0.054400 -0.095810 -0.244795
-0.054397 -0.095730 -0.244793
-0.054394 -0.095650 -0.244789
-0.054391 -0.095570 -0.244779
-0.054388 -0.095490 -0.244779
-0.054384 -0.095410 -0.244783
-0.054381 -0.095330 -0.244779
-0.054379 -0.095250 -0.244771
-0.054375 -0.095170 -0.244771
-0.054372 -0.095090 -0.244782
-0.054368 -0.095010 -0.244794
-0.054365 -0.094930 -0.244796
-0.054362 -0.094850 -0.244788
-0.054359 -0.094770 -0.244788
-0.054355 -0.094690 -0.244798
-0.054352 -0.094612 -0.244802
-0.054349 -0.094532 -0.244796
-0.054345 -0.094450 -0.244796
-0.054342 -0.094372 -0.244801
-0.054339 -0.094290 -0.244799
-0.054336 -0.094212 -0.244795
-0.054332 -0.094132 -0.244813
-0.054328 -0.094052 -0.244825
-0.054326 -0.093972 -0.244807
-0.054323 -0.093893 -0.244791
-0.054320 -0.093813 -0.244793
-0.054316 -0.093732 -0.244811
-0.054312 -0.093652 -0.244833
-0.054308 -0.093572 -0.244838
-0.054306 -0.093492 -0.244820
-0.054303 -0.093412 -0.244812
-0.054298 -0.093332 -0.244848
-0.054294 -0.093251 -0.244874
-0.054292 -0.093172 -0.244846
-0.054290 -0.093092 -0.244816
-0.054288 -0.093013 -0.244806
-0.054285 -0.092933 -0.244794
-0.054282 -0.092853 -0.244793
-0.054278 -0.092773 -0.244805
-0.054274 -0.092692 -0.244827
-0.054271 -0.092612 -0.244829
-0.054268 -0.092533 -0.244811
-0.054265 -0.092453 -0.244807
-0.054262 -0.092373 -0.244809
-0.054259 -0.092293 -0.244803
-0.054257 -0.092213 -0.244789
-0.054253 -0.092134 -0.244790
-0.054249 -0.092053 -0.244808
-0.054246 -0.091973 -0.244804
-0.054243 -0.091893 -0.244810
-0.054240 -0.091813 -0.244812
-0.054237 -0.091733 -0.244808
-0.054234 -0.091653 -0.244804
-0.054231 -0.091574 -0.244798
-0.054228 -0.091494 -0.244798
-0.054224 -0.091414 -0.244802
-0.054221 -0.091334 -0.244805
-0.054218 -0.091254 -0.244801
-0.054215 -0.091174 -0.244799
-0.054211 -0.091094 -0.244803
-0.054209 -0.091014 -0.244797
-0.054206 -0.090934 -0.244779
-0.054203 -0.090854 -0.244781
-0.054199 -0.090774 -0.244789
-0.054196 -0.090694 -0.244785
-0.054193 -0.090614 -0.244788
-0.054190 -0.090534 -0.244790
-0.054187 -0.090454 -0.244786
-0.054184 -0.090374 -0.244786
-0.054180 -0.090295 -0.244786
-0.054178 -0.090215 -0.244780
-0.054174 -0.090135 -0.244780
-0.054172 -0.090055 -0.244772
-0.054168 -0.089975 -0.244778
-0.054164 -0.089895 -0.244790
-0.054161 -0.089815 -0.244791
-0.054159 -0.089735 -0.244777
-0.054156 -0.089656 -0.244755
-0.054154 -0.089576 -0.244749
-0.054150 -0.089496 -0.244759
-0.054146 -0.089415 -0.244765
-0.054143 -0.089335 -0.244769
-0.054140 -0.089255 -0.244771
-0.054137 -0.089175 -0.244771
-0.054133 -0.089095 -0.244774
-0.054130 -0.089016 -0.244770
-0.054127 -0.088936 -0.244766
-0.054124 -0.088856 -0.244762
-0.054121 -0.088776 -0.244760
-0.054118 -0.088696 -0.244768
-0.054114 -0.088616 -0.244772
-0.054111 -0.088536 -0.244774
-0.054108 -0.088456 -0.244778
-0.054105 -0.088376 -0.244775
-0.054101 -0.088294 -0.244775
-0.054098 -0.088216 -0.244773
-0.054096 -0.088136 -0.244763
-0.054092 -0.088054 -0.244761
-0.054089 -0.087976 -0.244761
-0.054086 -0.087894 -0.244753
-0.054083 -0.087815 -0.244749
-0.054080 -0.087737 -0.244753
-0.054077 -0.087655 -0.244753
-0.054074 -0.087575 -0.244754
-0.054071 -0.087495 -0.244750
-0.054068 -0.087415 -0.244746
-0.054064 -0.087335 -0.244746
-0.054061 -0.087255 -0.244742
-0.054058 -0.087175 -0.244740
-0.054055 -0.087095 -0.244736
-0.054053 -0.087016 -0.244724
-0.054049 -0.086935 -0.244730
-0.054045 -0.086855 -0.244743
-0.054042 -0.086775 -0.244741
-0.054040 -0.086696 -0.244731
-0.054037 -0.086616 -0.244731
-0.054033 -0.086536 -0.244733
-0.054030 -0.086456 -0.244725
-0.054028 -0.086376 -0.244715
-0.054025 -0.086296 -0.244715
-0.054021 -0.086216 -0.244721
-0.054018 -0.086136 -0.244722
-0.054015 -0.086056 -0.244714
-0.054012 -0.085976 -0.244710
-0.054008 -0.085894 -0.244718
-0.054005 -0.085814 -0.244720
-0.054002 -0.085737 -0.244710
-0.054000 -0.085657 -0.244702
-0.053997 -0.085577 -0.244700
-0.053993 -0.085495 -0.244708
-0.053989 -0.085415 -0.244714
-0.053986 -0.085335 -0.244715
-0.053983 -0.085255 -0.244717
-0.053980 -0.085175 -0.244717
-0.053977 -0.085095 -0.244715
-0.053974 -0.085015 -0.244711
-0.053971 -0.084935 -0.244709
-0.053967 -0.084853 -0.244713
-0.053964 -0.084775 -0.244707
-0.053961 -0.084693 -0.244703
-0.053958 -0.084613 -0.244703
-0.053955 -0.084533 -0.244702
-0.053952 -0.084453 -0.244704
-0.053949 -0.084373 -0.244702
-0.053946 -0.084294 -0.244696
-0.053943 -0.084214 -0.244694
-0.053940 -0.084134 -0.244690
-0.053936 -0.084054 -0.244690
-0.053933 -0.083974 -0.244688
-0.053930 -0.083894 -0.244684
-0.053927 -0.083814 -0.244683
-0.053924 -0.083734 -0.244677
-0.053921 -0.083654 -0.244675
-0.053918 -0.083574 -0.244677
-0.053915 -0.083492 -0.244677
-0.053911 -0.083412 -0.244677
-0.053908 -0.083332 -0.244677
-0.053905 -0.083253 -0.244673
-0.053902 -0.083173 -0.244669
-0.053899 -0.083093 -0.244665
-0.053896 -0.083013 -0.244664
-0.053893 -0.082933 -0.244664
-0.053890 -0.082853 -0.244668
-0.053887 -0.082773 -0.244666
-0.053884 -0.082693 -0.244662
-0.053881 -0.082613 -0.244652
-0.053878 -0.082534 -0.244648
-0.053874 -0.082451 -0.244658
-0.053870 -0.082371 -0.244668
-0.053867 -0.082291 -0.244666
-0.053864 -0.082211 -0.244661
-0.053862 -0.082132 -0.244653
-0.053858 -0.082052 -0.244653
-0.053855 -0.081972 -0.244655
-0.053852 -0.081892 -0.244649
-0.053849 -0.081812 -0.244647
-0.053846 -0.081732 -0.244643
-0.053843 -0.081650 -0.244645
-0.053839 -0.081570 -0.244655
-0.053836 -0.081488 -0.244655
-0.053833 -0.081410 -0.244652
-0.053830 -0.081330 -0.244642
-0.053827 -0.081250 -0.244642
-0.053824 -0.081168 -0.244646
-0.053820 -0.081088 -0.244652
-0.053817 -0.081008 -0.244654
-0.053814 -0.080928 -0.244650
-0.053811 -0.080846 -0.244650
-0.053807 -0.080766 -0.244648
-0.053805 -0.080687 -0.244637
-0.053802 -0.080609 -0.244629
-0.053799 -0.080527 -0.244635
-0.053795 -0.080447 -0.244639
-0.053792 -0.080367 -0.244637
-0.053789 -0.080285 -0.244637
-0.053786 -0.080205 -0.244637
-0.053782 -0.080125 -0.244637
-0.053779 -0.080045 -0.244641
-0.053776 -0.079965 -0.244639
-0.053773 -0.079885 -0.244632
-0.053770 -0.079805 -0.244628
-0.053767 -0.079725 -0.244626
-0.053764 -0.079646 -0.244622
-0.053761 -0.079566 -0.244622
-0.053758 -0.079484 -0.244622
-0.053755 -0.079404 -0.244614
-0.053752 -0.079326 -0.244608
-0.053749 -0.079244 -0.244610
-0.053745 -0.079164 -0.244612
-0.053742 -0.079084 -0.244611
-0.053739 -0.079004 -0.244603
-0.053736 -0.078924 -0.244601
-0.053733 -0.078842 -0.244605
-0.053730 -0.078762 -0.244607
-0.053726 -0.078682 -0.244607
-0.053723 -0.078602 -0.244611
-0.053720 -0.078522 -0.244609
-0.053717 -0.078441 -0.244603
-0.053714 -0.078361 -0.244601
-0.053711 -0.078281 -0.244602
-0.053707 -0.078201 -0.244602
-0.053704 -0.078121 -0.244600
-0.053701 -0.078039 -0.244600
-0.053698 -0.077959 -0.244602
-0.053694 -0.077877 -0.244606
-0.053691 -0.077797 -0.244606
-0.053688 -0.077717 -0.244604
-0.053685 -0.077637 -0.244600
-0.053682 -0.077557 -0.244598
-0.053679 -0.077475 -0.244598
-0.053676 -0.077395 -0.244597
-0.053672 -0.077315 -0.244599
-0.053669 -0.077235 -0.244597
-0.053666 -0.077156 -0.244591
-0.053663 -0.077074 -0.244593
-0.053660 -0.076994 -0.244591
-0.053657 -0.076914 -0.244591
-0.053653 -0.076834 -0.244593
-0.053650 -0.076752 -0.244593
-0.053647 -0.076672 -0.244591
-0.053644 -0.076592 -0.244592
-0.053641 -0.076512 -0.244594
-0.053638 -0.076430 -0.244590
-0.053635 -0.076352 -0.244582
-0.053632 -0.076270 -0.244582
-0.053628 -0.076190 -0.244588
-0.053625 -0.076108 -0.244586
-0.053622 -0.076028 -0.244586
-0.053619 -0.075948 -0.244584
-0.053616 -0.075868 -0.244578
-0.053613 -0.075789 -0.244577
-0.053609 -0.075707 -0.244579
-0.053606 -0.075627 -0.244579
-0.053603 -0.075547 -0.244577
-0.053600 -0.075467 -0.244573
-0.053597 -0.075387 -0.244571
-0.053594 -0.075305 -0.244573
-0.053590 -0.075225 -0.244579
-0.053587 -0.075145 -0.244579
-0.053584 -0.075063 -0.244573
-0.053581 -0.074983 -0.244571
-0.053578 -0.074903 -0.244572
-0.053574 -0.074823 -0.244570
-0.053571 -0.074743 -0.244566
-0.053569 -0.074661 -0.244560
-0.053566 -0.074582 -0.244554
-0.053562 -0.074502 -0.244558
-0.053559 -0.074420 -0.244562
-0.053555 -0.074339 -0.244568
-0.053552 -0.074257 -0.244574
-0.053549 -0.074178 -0.244566
-0.053546 -0.074098 -0.244561
-0.053543 -0.074018 -0.244561
-0.053539 -0.073936 -0.244563
-0.053536 -0.073856 -0.244561
-0.053533 -0.073776 -0.244557
-0.053530 -0.073694 -0.244555
-0.053527 -0.073614 -0.244557
-0.053524 -0.073534 -0.244561
-0.053520 -0.073452 -0.244559
-0.053517 -0.073372 -0.244557
-0.053514 -0.073292 -0.244555
-0.053511 -0.073210 -0.244554
-0.053508 -0.073133 -0.244548
-0.053505 -0.073051 -0.244542
-0.053502 -0.072971 -0.244544
-0.053499 -0.072889 -0.244546
-0.053495 -0.072809 -0.244546
-0.053492 -0.072729 -0.244544
-0.053489 -0.072649 -0.244542
-0.053486 -0.072569 -0.244536
-0.053483 -0.072487 -0.244538
-0.053480 -0.072407 -0.244540
-0.053476 -0.072325 -0.244541
-0.053473 -0.072245 -0.244541
-0.053470 -0.072165 -0.244533
-0.053467 -0.072083 -0.244531
-0.053464 -0.072003 -0.244535
-0.053460 -0.071921 -0.244543
-0.053457 -0.071841 -0.244541
-0.053454 -0.071762 -0.244529
-0.053452 -0.071682 -0.244519
-0.053449 -0.071602 -0.244519
-0.053445 -0.071520 -0.244523
-0.053441 -0.071438 -0.244532
-0.053438 -0.071358 -0.244532
-0.053435 -0.071278 -0.244524
-0.053433 -0.071198 -0.244518
-0.053429 -0.071116 -0.244526
-0.053425 -0.071034 -0.244530
-0.053423 -0.070954 -0.244524
-0.053420 -0.070874 -0.244516
-0.053417 -0.070795 -0.244510
-0.053413 -0.070712 -0.244514
-0.053410 -0.070630 -0.244522
-0.053407 -0.070550 -0.244523
-0.053404 -0.070471 -0.244515
-0.053401 -0.070391 -0.244507
-0.053398 -0.070311 -0.244507
-0.053394 -0.070229 -0.244515
-0.053391 -0.070147 -0.244517
-0.053388 -0.070067 -0.244511
-0.053385 -0.069987 -0.244505
-0.053382 -0.069907 -0.244499
-0.053379 -0.069827 -0.244495
-0.053376 -0.069747 -0.244492
-0.053373 -0.069666 -0.244492
-0.053369 -0.069583 -0.244498
-0.053366 -0.069501 -0.244506
-0.053362 -0.069421 -0.244504
-0.053360 -0.069342 -0.244496
-0.053356 -0.069260 -0.244496
-0.053353 -0.069180 -0.244502
-0.053350 -0.069098 -0.244500
-0.053347 -0.069018 -0.244494
-0.053344 -0.068938 -0.244492
-0.053340 -0.068856 -0.244492
-0.053337 -0.068776 -0.244493
-0.053334 -0.068696 -0.244491
-0.053331 -0.068614 -0.244487
-0.053328 -0.068534 -0.244483
-0.053325 -0.068452 -0.244487
-0.053321 -0.068372 -0.244487
-0.053319 -0.068292 -0.244481
-0.053316 -0.068213 -0.244469
-0.053313 -0.068133 -0.244465
-0.053310 -0.068051 -0.244463
-0.053307 -0.067971 -0.244459
-0.053303 -0.067889 -0.244464
-0.053300 -0.067807 -0.244470
-0.053297 -0.067727 -0.244464
-0.053294 -0.067647 -0.244454
-0.053291 -0.067568 -0.244450
-0.053288 -0.067488 -0.244450
-0.053285 -0.067406 -0.244448
-0.053282 -0.067326 -0.244442
-0.053279 -0.067246 -0.244432
-0.053276 -0.067166 -0.244436
-0.053272 -0.067084 -0.244442
-0.053269 -0.067002 -0.244441
-0.053266 -0.066922 -0.244433
-0.053264 -0.066842 -0.244425
-0.053260 -0.066762 -0.244425
-0.053257 -0.066680 -0.244431
-0.053253 -0.066598 -0.244431
-0.053250 -0.066518 -0.244431
-0.053247 -0.066437 -0.244431
-0.053243 -0.066354 -0.244441
-0.053240 -0.066274 -0.244441
-0.053237 -0.066195 -0.244431
-0.053235 -0.066115 -0.244424
-0.053232 -0.066035 -0.244418
-0.053228 -0.065953 -0.244420
-0.054486 -0.104001 -0.244986
-0.054483 -0.103921 -0.244988
-0.054480 -0.103841 -0.244990
-0.054477 -0.103761 -0.244982
-0.054474 -0.103681 -0.244975
-0.054471 -0.103601 -0.244975
-0.054468 -0.103519 -0.244967
-0.054465 -0.103440 -0.244959
-0.054462 -0.103360 -0.244955
-0.054459 -0.103278 -0.244943
-0.054457 -0.103198 -0.244935
-0.054454 -0.103118 -0.244931
-0.054451 -0.103038 -0.244929
-0.054447 -0.102958 -0.244932
-0.054444 -0.102878 -0.244934
-0.054441 -0.102799 -0.244926
-0.054438 -0.102717 -0.244916
-0.054435 -0.102637 -0.244916
-0.054432 -0.102559 -0.244916
-0.054429 -0.102477 -0.244914
-0.054426 -0.102397 -0.244910
-0.054423 -0.102317 -0.244904
-0.054420 -0.102237 -0.244904
-0.054417 -0.102157 -0.244907
-0.054414 -0.102078 -0.244899
-0.054411 -0.101996 -0.244885
-0.054408 -0.101916 -0.244879
-0.054405 -0.101836 -0.244887
-0.054401 -0.101758 -0.244893
-0.054398 -0.101676 -0.244895
-0.054395 -0.101598 -0.244901
-0.054391 -0.101516 -0.244897
-0.054389 -0.101436 -0.244884
-0.054386 -0.101357 -0.244874
-0.054383 -0.101275 -0.244868
-0.054380 -0.101197 -0.244870
-0.054377 -0.101117 -0.244876
-0.054374 -0.101037 -0.244874
-0.054371 -0.100957 -0.244864
-0.054368 -0.100875 -0.244856
-0.054365 -0.100795 -0.244844
-0.054362 -0.100716 -0.244844
-0.054358 -0.100635 -0.244857
-0.054355 -0.100557 -0.244869
-0.054351 -0.100477 -0.244877
-0.054348 -0.100397 -0.244869
-0.054346 -0.100316 -0.244855
-0.054343 -0.100236 -0.244841
-0.054341 -0.100156 -0.244831
-0.054338 -0.100076 -0.244827
-0.054334 -0.099996 -0.244835
-0.054330 -0.099916 -0.244848
-0.054327 -0.099836 -0.244844
-0.054324 -0.099756 -0.244836
-0.054321 -0.099676 -0.244838
-0.054318 -0.099596 -0.244838
-0.054315 -0.099517 -0.244828
-0.054312 -0.099437 -0.244826
-0.054309 -0.099357 -0.244822
-0.054307 -0.099275 -0.244804
-0.054304 -0.099197 -0.244805
-0.054300 -0.099117 -0.244817
-0.054296 -0.099037 -0.244825
-0.054293 -0.098957 -0.244827
-0.054290 -0.098877 -0.244827
-0.054287 -0.098797 -0.244827
-0.054283 -0.098717 -0.244827
-0.054280 -0.098637 -0.244829
-0.054277 -0.098557 -0.244831
-0.054274 -0.098477 -0.244823
-0.054271 -0.098397 -0.244816
-0.054269 -0.098318 -0.244804
-0.054266 -0.098238 -0.244800
-0.054262 -0.098158 -0.244810
-0.054259 -0.098078 -0.244808
-0.054256 -0.097998 -0.244796
-0.054253 -0.097916 -0.244788
-0.054250 -0.097838 -0.244792
-0.054246 -0.097758 -0.244804
-0.054243 -0.097678 -0.244803
-0.054241 -0.097598 -0.244787
-0.054238 -0.097517 -0.244777
-0.054235 -0.097439 -0.244785
-0.054231 -0.097358 -0.244789
-0.054228 -0.097278 -0.244793
-0.054224 -0.097198 -0.244797
-0.054222 -0.097119 -0.244785
-0.054219 -0.097039 -0.244779
-0.054215 -0.096959 -0.244788
-0.054212 -0.096879 -0.244786
-0.054209 -0.096799 -0.244784
-0.054206 -0.096719 -0.244788
-0.054203 -0.096639 -0.244788
-0.054200 -0.096559 -0.244784
-0.054197 -0.096479 -0.244772
-0.054194 -0.096400 -0.244762
-0.054191 -0.096319 -0.244768
-0.054188 -0.096239 -0.244773
-0.054185 -0.096160 -0.244767
-0.054181 -0.096080 -0.244767
-0.054178 -0.096000 -0.244771
-0.054175 -0.095920 -0.244771
-0.054172 -0.095840 -0.244767
-0.054169 -0.095760 -0.244757
-0.054166 -0.095680 -0.244753
-0.054163 -0.095600 -0.244753
-0.054160 -0.095520 -0.244754
-0.054156 -0.095440 -0.244760
-0.054152 -0.095362 -0.244784
-0.054149 -0.095280 -0.244780
-0.054147 -0.095200 -0.244760
-0.054144 -0.095120 -0.244758
-0.054140 -0.095040 -0.244758
-0.054138 -0.094961 -0.244738
-0.054136 -0.094881 -0.244714
-0.054133 -0.094801 -0.244715
-0.054129 -0.094721 -0.244737
-0.054125 -0.094641 -0.244757
-0.054121 -0.094562 -0.244777
-0.054117 -0.094482 -0.244779
-0.054115 -0.094402 -0.244767
-0.054111 -0.094322 -0.244767
-0.054107 -0.094242 -0.244785
-0.054104 -0.094162 -0.244793
-0.054101 -0.094082 -0.244779
-0.054098 -0.094002 -0.244776
-0.054095 -0.093922 -0.244782
-0.054091 -0.093842 -0.244786
-0.054088 -0.093762 -0.244786
-0.054085 -0.093682 -0.244786
-0.054082 -0.093602 -0.244788
-0.054079 -0.093522 -0.244790
-0.054075 -0.093442 -0.244794
-0.054072 -0.093362 -0.244796
-0.054068 -0.093282 -0.244810
-0.054064 -0.093202 -0.244821
-0.054061 -0.093122 -0.244817
-0.054059 -0.093042 -0.244801
-0.054057 -0.092963 -0.244781
-0.054054 -0.092883 -0.244781
-0.054050 -0.092803 -0.244789
-0.054047 -0.092723 -0.244793
-0.054043 -0.092642 -0.244809
-0.054039 -0.092562 -0.244825
-0.054036 -0.092482 -0.244819
-0.054033 -0.092402 -0.244814
-0.054030 -0.092322 -0.244816
-0.054027 -0.092243 -0.244802
-0.054024 -0.092163 -0.244800
-0.054020 -0.092083 -0.244808
-0.054017 -0.092003 -0.244808
-0.054014 -0.091923 -0.244800
-0.054011 -0.091843 -0.244800
-0.054008 -0.091763 -0.244798
-0.054005 -0.091683 -0.244797
-0.054002 -0.091603 -0.244787
-0.053999 -0.091523 -0.244787
-0.053996 -0.091444 -0.244777
-0.053993 -0.091364 -0.244773
-0.053990 -0.091284 -0.244775
-0.053987 -0.091204 -0.244773
-0.053984 -0.091124 -0.244781
-0.053980 -0.091044 -0.244781
-0.053977 -0.090964 -0.244784
-0.053974 -0.090884 -0.244790
-0.053970 -0.090804 -0.244792
-0.053967 -0.090724 -0.244792
-0.053964 -0.090644 -0.244788
-0.053961 -0.090564 -0.244782
-0.053958 -0.090484 -0.244778
-0.053955 -0.090404 -0.244776
-0.053952 -0.090325 -0.244766
-0.053949 -0.090244 -0.244771
-0.053946 -0.090164 -0.244777
-0.053943 -0.090085 -0.244767
-0.053940 -0.090005 -0.244767
-0.053937 -0.089925 -0.244765
-0.053933 -0.089845 -0.244765
-0.053930 -0.089765 -0.244767
-0.053927 -0.089685 -0.244767
-0.053924 -0.089605 -0.244767
-0.053921 -0.089525 -0.244764
-0.053918 -0.089445 -0.244748
-0.053915 -0.089366 -0.244742
-0.053912 -0.089285 -0.244748
-0.053909 -0.089206 -0.244746
-0.053905 -0.089125 -0.244752
-0.053902 -0.089045 -0.244760
-0.053899 -0.088966 -0.244748
-0.053897 -0.088886 -0.244736
-0.053894 -0.088806 -0.244731
-0.053890 -0.088726 -0.244735
-0.053887 -0.088646 -0.244743
-0.053883 -0.088566 -0.244749
-0.053880 -0.088484 -0.244751
-0.053877 -0.088406 -0.244739
-0.053875 -0.088324 -0.244729
-0.053871 -0.088246 -0.244733
-0.053868 -0.088166 -0.244729
-0.053865 -0.088084 -0.244729
-0.053862 -0.088005 -0.244730
-0.053859 -0.087925 -0.244732
-0.053855 -0.087844 -0.244740
-0.053852 -0.087764 -0.244746
-0.053849 -0.087685 -0.244738
-0.053846 -0.087605 -0.244738
-0.053842 -0.087525 -0.244736
-0.053840 -0.087445 -0.244728
-0.053836 -0.087365 -0.244728
-0.053833 -0.087285 -0.244727
-0.053830 -0.087205 -0.244727
-0.053827 -0.087125 -0.244729
-0.053824 -0.087045 -0.244725
-0.053821 -0.086965 -0.244719
-0.053818 -0.086885 -0.244723
-0.053814 -0.086805 -0.244727
-0.053811 -0.086723 -0.244719
-0.053808 -0.086646 -0.244715
-0.053805 -0.086566 -0.244713
-0.053802 -0.086484 -0.244714
-0.053799 -0.086404 -0.244714
-0.053796 -0.086324 -0.244712
-0.053793 -0.086244 -0.244712
-0.053789 -0.086164 -0.244714
-0.053786 -0.086084 -0.244708
-0.053784 -0.086004 -0.244702
-0.053780 -0.085924 -0.244702
-0.053777 -0.085844 -0.244706
-0.053774 -0.085764 -0.244702
-0.053771 -0.085684 -0.244697
-0.053768 -0.085605 -0.244695
-0.053765 -0.085524 -0.244701
-0.053761 -0.085444 -0.244701
-0.053758 -0.085365 -0.244701
-0.053755 -0.085282 -0.244705
-0.053752 -0.085203 -0.244701
-0.053749 -0.085123 -0.244691
-0.053746 -0.085045 -0.244683
-0.053743 -0.084965 -0.244678
-0.053740 -0.084883 -0.244678
-0.053737 -0.084803 -0.244678
-0.053734 -0.084723 -0.244680
-0.053731 -0.084643 -0.244676
-0.053728 -0.084564 -0.244666
-0.053725 -0.084484 -0.244654
-0.053722 -0.084404 -0.244656
-0.053718 -0.084324 -0.244666
-0.053715 -0.084244 -0.244671
-0.053712 -0.084164 -0.244667
-0.053709 -0.084084 -0.244665
-0.053706 -0.084004 -0.244665
-0.053703 -0.083922 -0.244665
-0.053699 -0.083842 -0.244663
-0.053696 -0.083762 -0.244659
-0.053693 -0.083682 -0.244659
-0.053690 -0.083602 -0.244657
-0.053687 -0.083522 -0.244661
-0.053684 -0.083442 -0.244658
-0.053681 -0.083362 -0.244658
-0.053677 -0.083280 -0.244660
-0.053674 -0.083203 -0.244656
-0.053671 -0.083121 -0.244652
-0.053668 -0.083041 -0.244652
-0.053665 -0.082963 -0.244646
-0.053662 -0.082881 -0.244646
-0.053659 -0.082801 -0.244650
-0.053656 -0.082721 -0.244646
-0.053653 -0.082641 -0.244639
-0.053650 -0.082561 -0.244633
-0.053647 -0.082481 -0.244633
-0.053643 -0.082401 -0.244637
-0.053640 -0.082319 -0.244637
-0.053637 -0.082242 -0.244631
-0.053634 -0.082162 -0.244625
-0.053631 -0.082080 -0.244627
-0.053628 -0.082000 -0.244631
-0.053625 -0.081920 -0.244626
-0.053622 -0.081840 -0.244622
-0.053618 -0.081760 -0.244624
-0.053615 -0.081680 -0.244624
-0.053612 -0.081600 -0.244626
-0.053609 -0.081518 -0.244628
-0.053606 -0.081438 -0.244626
-0.053602 -0.081358 -0.244624
-0.053599 -0.081278 -0.244626
-0.053596 -0.081198 -0.244622
-0.053593 -0.081119 -0.244613
-0.053590 -0.081039 -0.244611
-0.053587 -0.080959 -0.244617
-0.053584 -0.080877 -0.244619
-0.053581 -0.080797 -0.244613
-0.053578 -0.080717 -0.244607
-0.053575 -0.080637 -0.244603
-0.053572 -0.080557 -0.244599
-0.053569 -0.080477 -0.244599
-0.053565 -0.080397 -0.244603
-0.053562 -0.080315 -0.244604
-0.053559 -0.080235 -0.244600
-0.053556 -0.080155 -0.244598
-0.053553 -0.080076 -0.244596
-0.053550 -0.079996 -0.244588
-0.053547 -0.079916 -0.244584
-0.053544 -0.079836 -0.244584
-0.053541 -0.079756 -0.244584
-0.053537 -0.079674 -0.244588
-0.053533 -0.079594 -0.244598
-0.053530 -0.079514 -0.244597
-0.053527 -0.079434 -0.244593
-0.053524 -0.079354 -0.244593
-0.053521 -0.079272 -0.244595
-0.053518 -0.079192 -0.244593
-0.053515 -0.079112 -0.244591
-0.053512 -0.079032 -0.244587
-0.053509 -0.078952 -0.244585
-0.053506 -0.078872 -0.244581
-0.053502 -0.078793 -0.244579
-0.053499 -0.078711 -0.244580
-0.053496 -0.078631 -0.244576
-0.053493 -0.078551 -0.244572
-0.053490 -0.078471 -0.244566
-0.053487 -0.078391 -0.244568
-0.053484 -0.078309 -0.244568
-0.053481 -0.078229 -0.244566
-0.053477 -0.078149 -0.244570
-0.053474 -0.078069 -0.244568
-0.053471 -0.077989 -0.244562
-0.053468 -0.077909 -0.244559
-0.053465 -0.077827 -0.244567
-0.053461 -0.077747 -0.244573
-0.053458 -0.077665 -0.244571
-0.053455 -0.077585 -0.244575
-0.053452 -0.077505 -0.244567
-0.053449 -0.077426 -0.244561
-0.053446 -0.077346 -0.244563
-0.053443 -0.077266 -0.244563
-0.053440 -0.077186 -0.244559
-0.053437 -0.077104 -0.244554
-0.053433 -0.077024 -0.244554
-0.053430 -0.076944 -0.244554
-0.053427 -0.076864 -0.244554
-0.053424 -0.076782 -0.244554
-0.053420 -0.076702 -0.244556
-0.053417 -0.076622 -0.244552
-0.053415 -0.076542 -0.244546
-0.053412 -0.076463 -0.244538
-0.053409 -0.076383 -0.244538
-0.053405 -0.076301 -0.244547
-0.053402 -0.076221 -0.244547
-0.053399 -0.076141 -0.244545
-0.053395 -0.076059 -0.244545
-0.053392 -0.075979 -0.244545
-0.053389 -0.075899 -0.244547
-0.053386 -0.075819 -0.244545
-0.053383 -0.075737 -0.244541
-0.053380 -0.075657 -0.244537
-0.053377 -0.075577 -0.244537
-0.053373 -0.075497 -0.244537
-0.053370 -0.075417 -0.244536
-0.053367 -0.075335 -0.244538
-0.053364 -0.075255 -0.244540
-0.053361 -0.075175 -0.244534
-0.053358 -0.075093 -0.244530
-0.053354 -0.075014 -0.244530
-0.053351 -0.074934 -0.244532
-0.053348 -0.074851 -0.244538
-0.053344 -0.074771 -0.244540
-0.053341 -0.074689 -0.244540
-0.053338 -0.074610 -0.244536
-0.053335 -0.074530 -0.244529
-0.053332 -0.074450 -0.244525
-0.053330 -0.074370 -0.244517
-0.053327 -0.074290 -0.244513
-0.053323 -0.074208 -0.244519
-0.053319 -0.074126 -0.244527
-0.053316 -0.074046 -0.244523
-0.053314 -0.073968 -0.244513
-0.053310 -0.073886 -0.244513
-0.053307 -0.073806 -0.244521
-0.053304 -0.073724 -0.244518
-0.053301 -0.073645 -0.244512
-0.053298 -0.073565 -0.244512
-0.053294 -0.073485 -0.244514
-0.053291 -0.073403 -0.244514
-0.053288 -0.073323 -0.244514
-0.053285 -0.073243 -0.244510
-0.053282 -0.073163 -0.244500
-0.053280 -0.073083 -0.244490
-0.053277 -0.073004 -0.244486
-0.053273 -0.072921 -0.244503
-0.053269 -0.072839 -0.244509
-0.053266 -0.072759 -0.244507
-0.053263 -0.072677 -0.244505
-0.053259 -0.072597 -0.244507
-0.053256 -0.072515 -0.244507
-0.053253 -0.072435 -0.244509
-0.053250 -0.072355 -0.244513
-0.053246 -0.072273 -0.244509
-0.053244 -0.072194 -0.244503
-0.053240 -0.072112 -0.244507
-0.053237 -0.072031 -0.244509
-0.053234 -0.071952 -0.244506
-0.053231 -0.071872 -0.244504
-0.053228 -0.071792 -0.244494
-0.053225 -0.071712 -0.244484
-0.053222 -0.071632 -0.244484
-0.053219 -0.071550 -0.244488
-0.053215 -0.071468 -0.244494
-0.053212 -0.071388 -0.244494
-0.053209 -0.071306 -0.244494
-0.053206 -0.071226 -0.244488
-0.053203 -0.071147 -0.244481
-0.053200 -0.071067 -0.244481
-0.053197 -0.070985 -0.244479
-0.053193 -0.070905 -0.244479
-0.053190 -0.070823 -0.244479
-0.053187 -0.070743 -0.244477
-0.053184 -0.070663 -0.244477
-0.053180 -0.070581 -0.244481
-0.053177 -0.070499 -0.244481
-0.053174 -0.070419 -0.244481
-0.053171 -0.070339 -0.244481
-0.053168 -0.070257 -0.244477
-0.053164 -0.070177 -0.244480
-0.053161 -0.070095 -0.244478
-0.053158 -0.070017 -0.244472
-0.053156 -0.069938 -0.244462
-0.053152 -0.069856 -0.244462
-0.053149 -0.069774 -0.244470
-0.053146 -0.069694 -0.244466
-0.053143 -0.069614 -0.244460
-0.053140 -0.069534 -0.244460
-0.053137 -0.069452 -0.244460
-0.053133 -0.069372 -0.244460
-0.053130 -0.069290 -0.244457
-0.053127 -0.069210 -0.244455
-0.053124 -0.069130 -0.244455
-0.053121 -0.069048 -0.244449
-0.053118 -0.068968 -0.244445
-0.053115 -0.068888 -0.244447
-0.053111 -0.068806 -0.244447
-0.053108 -0.068727 -0.244443
-0.053105 -0.068645 -0.244443
-0.053102 -0.068565 -0.244443
-0.053099 -0.068483 -0.244443
-0.053096 -0.068403 -0.244440
-0.053093 -0.068323 -0.244438
-0.053090 -0.068243 -0.244432
-0.053087 -0.068163 -0.244428
-0.053084 -0.068081 -0.244426
-0.053081 -0.068002 -0.244420
-0.053077 -0.067919 -0.244426
-0.053074 -0.067837 -0.244432
-0.053071 -0.067757 -0.244426
-0.053068 -0.067678 -0.244420
-0.053064 -0.067596 -0.244422
-0.053061 -0.067516 -0.244427
-0.053058 -0.067434 -0.244429
-0.053055 -0.067352 -0.244427
-0.053052 -0.067272 -0.244423
-0.053049 -0.067192 -0.244413
-0.053046 -0.067114 -0.244405
-0.053043 -0.067032 -0.244403
-0.053040 -0.066952 -0.244405
-0.053036 -0.066870 -0.244405
-0.053033 -0.066788 -0.244413
-0.053029 -0.066706 -0.244415
-0.053027 -0.066626 -0.244408
-0.053023 -0.066544 -0.244410
-0.053020 -0.066462 -0.244414
-0.053017 -0.066382 -0.244414
-0.053014 -0.066303 -0.244408
-0.053011 -0.066223 -0.244402
-0.053007 -0.066141 -0.244404
-0.053004 -0.066059 -0.244408
-0.053001 -0.065977 -0.244410
-0.053687 -0.104129 -0.244916
-0.053685 -0.104048 -0.244886
-0.053682 -0.103966 -0.244878
-0.053679 -0.103888 -0.244878
-0.053676 -0.103808 -0.244880
-0.053673 -0.103726 -0.244876
-0.053671 -0.103646 -0.244860
-0.053668 -0.103565 -0.244850
-0.053665 -0.103485 -0.244846
-0.053662 -0.103407 -0.244849
-0.053658 -0.103327 -0.244857
-0.053655 -0.103247 -0.244849
-0.053653 -0.103165 -0.244827
-0.053650 -0.103084 -0.244813
-0.053647 -0.103004 -0.244813
-0.053644 -0.102924 -0.244811
-0.053641 -0.102844 -0.244811
-0.053638 -0.102764 -0.244813
-0.053634 -0.102684 -0.244816
-0.053631 -0.102606 -0.244818
-0.053628 -0.102524 -0.244812
-0.053626 -0.102444 -0.244800
-0.053623 -0.102363 -0.244784
-0.053620 -0.102283 -0.244776
-0.053617 -0.102203 -0.244774
-0.053614 -0.102123 -0.244778
-0.053611 -0.102043 -0.244774
-0.053608 -0.101963 -0.244774
-0.053605 -0.101883 -0.244775
-0.053602 -0.101803 -0.244769
-0.053599 -0.101723 -0.244761
-0.053596 -0.101644 -0.244755
-0.053593 -0.101562 -0.244747
-0.053590 -0.101482 -0.244753
-0.053586 -0.101403 -0.244769
-0.053582 -0.101323 -0.244775
-0.053579 -0.101243 -0.244775
-0.053576 -0.101163 -0.244774
-0.053573 -0.101084 -0.244764
-0.053570 -0.101004 -0.244758
-0.053567 -0.100924 -0.244762
-0.053564 -0.100844 -0.244760
-0.053561 -0.100764 -0.244750
-0.053558 -0.100682 -0.244742
-0.053556 -0.100604 -0.244738
-0.053552 -0.100522 -0.244740
-0.053549 -0.100444 -0.244743
-0.053546 -0.100363 -0.244733
-0.053543 -0.100283 -0.244727
-0.053540 -0.100205 -0.244731
-0.053537 -0.100125 -0.244737
-0.053534 -0.100045 -0.244731
-0.053531 -0.099963 -0.244725
-0.053527 -0.099885 -0.244733
-0.053524 -0.099805 -0.244741
-0.053520 -0.099725 -0.244741
-0.053517 -0.099645 -0.244738
-0.053515 -0.099565 -0.244732
-0.053511 -0.099485 -0.244730
-0.053508 -0.099405 -0.244728
-0.053505 -0.099325 -0.244728
-0.053502 -0.099245 -0.244728
-0.053499 -0.099165 -0.244726
-0.053496 -0.099086 -0.244722
-0.053493 -0.099006 -0.244718
-0.053490 -0.098926 -0.244721
-0.053487 -0.098846 -0.244717
-0.053484 -0.098766 -0.244713
-0.053481 -0.098686 -0.244711
-0.053478 -0.098606 -0.244705
-0.053474 -0.098526 -0.244711
-0.053471 -0.098446 -0.244719
-0.053468 -0.098366 -0.244707
-0.053465 -0.098287 -0.244699
-0.053462 -0.098207 -0.244702
-0.053459 -0.098126 -0.244708
-0.053455 -0.098046 -0.244714
-0.053452 -0.097966 -0.244710
-0.053449 -0.097887 -0.244706
-0.053446 -0.097807 -0.244696
-0.053444 -0.097727 -0.244684
-0.053441 -0.097647 -0.244680
-0.053437 -0.097567 -0.244686
-0.053434 -0.097487 -0.244686
-0.053431 -0.097407 -0.244683
-0.053428 -0.097327 -0.244687
-0.053424 -0.097247 -0.244691
-0.053422 -0.097167 -0.244683
-0.053419 -0.097088 -0.244677
-0.053416 -0.097008 -0.244673
-0.053413 -0.096928 -0.244667
-0.053410 -0.096848 -0.244665
-0.053407 -0.096768 -0.244661
-0.053403 -0.096688 -0.244668
-0.053400 -0.096610 -0.244672
-0.053397 -0.096528 -0.244666
-0.053394 -0.096450 -0.244656
-0.053391 -0.096368 -0.244656
-0.053387 -0.096290 -0.244670
-0.053384 -0.096210 -0.244674
-0.053381 -0.096130 -0.244670
-0.053378 -0.096051 -0.244660
-0.053375 -0.095971 -0.244657
-0.053372 -0.095891 -0.244659
-0.053369 -0.095811 -0.244651
-0.053366 -0.095731 -0.244643
-0.053363 -0.095651 -0.244641
-0.053361 -0.095571 -0.244633
-0.053358 -0.095492 -0.244625
-0.053354 -0.095411 -0.244633
-0.053351 -0.095331 -0.244643
-0.053347 -0.095251 -0.244654
-0.053344 -0.095171 -0.244658
-0.053340 -0.095091 -0.244658
-0.053337 -0.095013 -0.244664
-0.053333 -0.094933 -0.244672
-0.053330 -0.094853 -0.244684
-0.053326 -0.094773 -0.244690
-0.053323 -0.094693 -0.244690
-0.053320 -0.094613 -0.244692
-0.053316 -0.094533 -0.244694
-0.053313 -0.094452 -0.244699
-0.053310 -0.094372 -0.244705
-0.053306 -0.094292 -0.244705
-0.053304 -0.094215 -0.244699
-0.053301 -0.094133 -0.244693
-0.053298 -0.094053 -0.244687
-0.053295 -0.093973 -0.244675
-0.053292 -0.093893 -0.244671
-0.053289 -0.093815 -0.244673
-0.053286 -0.093733 -0.244676
-0.053282 -0.093655 -0.244682
-0.053278 -0.093575 -0.244700
-0.053275 -0.093495 -0.244702
-0.053272 -0.093415 -0.244686
-0.053270 -0.093336 -0.244676
-0.053266 -0.093256 -0.244680
-0.053262 -0.093175 -0.244694
-0.053259 -0.093095 -0.244700
-0.053256 -0.093015 -0.244690
-0.053254 -0.092936 -0.244683
-0.053251 -0.092856 -0.244671
-0.053249 -0.092776 -0.244655
-0.053246 -0.092696 -0.244649
-0.053242 -0.092616 -0.244655
-0.053238 -0.092536 -0.244679
-0.053234 -0.092456 -0.244689
-0.053232 -0.092376 -0.244673
-0.053229 -0.092296 -0.244663
-0.053226 -0.092216 -0.244666
-0.053223 -0.092137 -0.244660
-0.053220 -0.092057 -0.244648
-0.053217 -0.091977 -0.244652
-0.053213 -0.091897 -0.244658
-0.053210 -0.091817 -0.244658
-0.053207 -0.091737 -0.244652
-0.053204 -0.091657 -0.244648
-0.053201 -0.091577 -0.244648
-0.053198 -0.091497 -0.244653
-0.053194 -0.091417 -0.244657
-0.053191 -0.091337 -0.244659
-0.053188 -0.091257 -0.244667
-0.053184 -0.091177 -0.244667
-0.053182 -0.091097 -0.244653
-0.053179 -0.091019 -0.244653
-0.053175 -0.090937 -0.244661
-0.053173 -0.090859 -0.244647
-0.053170 -0.090778 -0.244636
-0.053167 -0.090698 -0.244638
-0.053163 -0.090620 -0.244646
-0.053159 -0.090537 -0.244660
-0.053156 -0.090459 -0.244656
-0.053153 -0.090378 -0.244654
-0.053151 -0.090300 -0.244638
-0.053148 -0.090220 -0.244630
-0.053145 -0.090140 -0.244626
-0.053142 -0.090060 -0.244627
-0.053139 -0.089978 -0.244627
-0.053136 -0.089901 -0.244615
-0.053133 -0.089821 -0.244613
-0.053129 -0.089741 -0.244623
-0.053126 -0.089660 -0.244627
-0.053123 -0.089578 -0.244631
-0.053119 -0.089500 -0.244637
-0.053116 -0.089420 -0.244639
-0.053113 -0.089341 -0.244631
-0.053110 -0.089261 -0.244622
-0.053107 -0.089181 -0.244622
-0.053103 -0.089101 -0.244636
-0.053100 -0.089020 -0.244646
-0.053096 -0.088938 -0.244646
-0.053093 -0.088860 -0.244646
-0.053091 -0.088779 -0.244634
-0.053088 -0.088701 -0.244624
-0.053085 -0.088621 -0.244626
-0.053081 -0.088539 -0.244634
-0.053078 -0.088459 -0.244641
-0.053075 -0.088379 -0.244635
-0.053072 -0.088299 -0.244631
-0.053068 -0.088221 -0.244637
-0.053065 -0.088139 -0.244633
-0.053063 -0.088061 -0.244621
-0.053060 -0.087980 -0.244619
-0.053056 -0.087900 -0.244621
-0.053053 -0.087821 -0.244625
-0.053050 -0.087739 -0.244626
-0.053047 -0.087660 -0.244620
-0.053043 -0.087580 -0.244626
-0.053040 -0.087499 -0.244632
-0.053038 -0.087420 -0.244614
-0.053035 -0.087340 -0.244610
-0.053031 -0.087260 -0.244624
-0.053027 -0.087180 -0.244634
-0.053024 -0.087100 -0.244628
-0.053021 -0.087020 -0.244622
-0.053019 -0.086940 -0.244613
-0.053016 -0.086861 -0.244599
-0.053013 -0.086780 -0.244603
-0.053009 -0.086700 -0.244607
-0.053006 -0.086620 -0.244607
-0.053003 -0.086540 -0.244615
-0.052999 -0.086460 -0.244617
-0.052996 -0.086380 -0.244613
-0.052993 -0.086301 -0.244607
-0.052990 -0.086221 -0.244606
-0.052987 -0.086141 -0.244606
-0.052984 -0.086061 -0.244606
-0.052981 -0.085979 -0.244606
-0.052978 -0.085901 -0.244598
-0.052975 -0.085821 -0.244586
-0.052972 -0.085741 -0.244586
-0.052969 -0.085661 -0.244594
-0.052965 -0.085579 -0.244598
-0.052962 -0.085499 -0.244594
-0.052959 -0.085421 -0.244593
-0.052956 -0.085339 -0.244591
-0.052953 -0.085262 -0.244587
-0.052950 -0.085180 -0.244583
-0.052947 -0.085102 -0.244577
-0.052944 -0.085022 -0.244571
-0.052941 -0.084940 -0.244569
-0.052938 -0.084860 -0.244569
-0.052935 -0.084780 -0.244567
-0.052932 -0.084700 -0.244568
-0.052928 -0.084620 -0.244574
-0.052925 -0.084540 -0.244580
-0.052922 -0.084460 -0.244578
-0.052919 -0.084380 -0.244568
-0.052916 -0.084301 -0.244562
-0.052913 -0.084221 -0.244560
-0.052910 -0.084141 -0.244562
-0.052906 -0.084061 -0.244566
-0.052903 -0.083979 -0.244564
-0.052900 -0.083899 -0.244563
-0.052897 -0.083821 -0.244561
-0.052895 -0.083741 -0.244551
-0.052892 -0.083661 -0.244543
-0.052888 -0.083579 -0.244549
-0.052885 -0.083499 -0.244557
-0.052881 -0.083419 -0.244557
-0.052879 -0.083339 -0.244551
-0.052876 -0.083259 -0.244547
-0.052872 -0.083180 -0.244548
-0.052869 -0.083100 -0.244550
-0.052866 -0.083020 -0.244552
-0.052863 -0.082938 -0.244552
-0.052859 -0.082857 -0.244556
-0.052856 -0.082778 -0.244552
-0.052853 -0.082698 -0.244548
-0.052850 -0.082618 -0.244544
-0.052847 -0.082538 -0.244536
-0.052845 -0.082460 -0.244530
-0.052841 -0.082378 -0.244531
-0.052838 -0.082298 -0.244533
-0.052835 -0.082218 -0.244529
-0.052832 -0.082139 -0.244523
-0.052829 -0.082059 -0.244525
-0.052826 -0.081979 -0.244527
-0.052822 -0.081899 -0.244527
-0.052819 -0.081819 -0.244529
-0.052816 -0.081737 -0.244529
-0.052813 -0.081657 -0.244525
-0.052810 -0.081577 -0.244520
-0.052807 -0.081497 -0.244520
-0.052804 -0.081417 -0.244516
-0.052800 -0.081337 -0.244520
-0.052797 -0.081257 -0.244522
-0.052794 -0.081175 -0.244518
-0.052791 -0.081097 -0.244512
-0.052788 -0.081017 -0.244508
-0.052785 -0.080938 -0.244502
-0.052782 -0.080858 -0.244503
-0.052779 -0.080776 -0.244505
-0.052776 -0.080696 -0.244501
-0.052773 -0.080616 -0.244501
-0.052770 -0.080536 -0.244501
-0.052766 -0.080456 -0.244503
-0.052763 -0.080374 -0.244503
-0.052760 -0.080296 -0.244499
-0.052757 -0.080214 -0.244505
-0.052753 -0.080134 -0.244507
-0.052751 -0.080054 -0.244495
-0.052748 -0.079974 -0.244490
-0.052745 -0.079895 -0.244486
-0.052742 -0.079815 -0.244480
-0.052739 -0.079735 -0.244476
-0.052736 -0.079655 -0.244478
-0.052732 -0.079573 -0.244482
-0.052729 -0.079493 -0.244484
-0.052726 -0.079415 -0.244478
-0.052723 -0.079333 -0.244474
-0.052720 -0.079253 -0.244481
-0.052716 -0.079173 -0.244481
-0.052714 -0.079093 -0.244471
-0.052711 -0.079013 -0.244471
-0.052706 -0.078931 -0.244487
-0.052703 -0.078851 -0.244489
-0.052701 -0.078771 -0.244475
-0.052698 -0.078692 -0.244463
-0.052695 -0.078612 -0.244467
-0.052691 -0.078529 -0.244473
-0.052688 -0.078450 -0.244473
-0.052685 -0.078370 -0.244474
-0.052682 -0.078290 -0.244472
-0.052679 -0.078210 -0.244466
-0.052676 -0.078130 -0.244456
-0.052673 -0.078050 -0.244454
-0.052670 -0.077968 -0.244458
-0.052666 -0.077888 -0.244464
-0.052663 -0.077808 -0.244462
-0.052660 -0.077728 -0.244456
-0.052657 -0.077648 -0.244456
-0.052654 -0.077566 -0.244455
-0.052651 -0.077489 -0.244451
-0.052648 -0.077409 -0.244437
-0.052647 -0.077332 -0.244399
-0.052645 -0.077254 -0.244379
-0.052641 -0.077172 -0.244389
-0.052637 -0.077089 -0.244417
-0.052633 -0.077007 -0.244433
-0.052629 -0.076927 -0.244435
-0.052626 -0.076845 -0.244437
-0.052623 -0.076765 -0.244438
-0.052619 -0.076685 -0.244442
-0.052616 -0.076605 -0.244442
-0.052613 -0.076523 -0.244444
-0.052610 -0.076443 -0.244438
-0.052607 -0.076363 -0.244434
-0.052604 -0.076283 -0.244434
-0.052600 -0.076201 -0.244436
-0.052597 -0.076122 -0.244436
-0.052594 -0.076042 -0.244434
-0.052591 -0.075962 -0.244433
-0.052588 -0.075882 -0.244431
-0.052585 -0.075800 -0.244427
-0.052582 -0.075720 -0.244425
-0.052578 -0.075640 -0.244429
-0.052575 -0.075558 -0.244435
-0.052572 -0.075478 -0.244437
-0.052569 -0.075398 -0.244431
-0.052566 -0.075318 -0.244421
-0.052563 -0.075238 -0.244423
-0.052559 -0.075156 -0.244427
-0.052556 -0.075076 -0.244428
-0.052553 -0.074994 -0.244430
-0.052550 -0.074914 -0.244428
-0.052547 -0.074834 -0.244426
-0.052543 -0.074752 -0.244430
-0.052540 -0.074672 -0.244428
-0.052537 -0.074593 -0.244424
-0.052534 -0.074513 -0.244420
-0.052531 -0.074433 -0.244422
-0.052527 -0.074351 -0.244428
-0.052524 -0.074271 -0.244428
-0.052521 -0.074189 -0.244431
-0.052518 -0.074109 -0.244425
-0.052515 -0.074029 -0.244419
-0.052512 -0.073949 -0.244417
-0.052509 -0.073869 -0.244417
-0.052505 -0.073787 -0.244417
-0.052502 -0.073707 -0.244419
-0.052499 -0.073627 -0.244415
-0.052496 -0.073547 -0.244411
-0.052493 -0.073465 -0.244415
-0.052489 -0.073385 -0.244418
-0.052486 -0.073305 -0.244414
-0.052483 -0.073226 -0.244412
-0.052480 -0.073144 -0.244412
-0.052477 -0.073064 -0.244404
-0.052474 -0.072984 -0.244400
-0.052471 -0.072904 -0.244404
-0.052468 -0.072822 -0.244406
-0.052465 -0.072742 -0.244404
-0.052461 -0.072662 -0.244402
-0.052458 -0.072580 -0.244402
-0.052455 -0.072500 -0.244401
-0.052452 -0.072420 -0.244395
-0.052449 -0.072338 -0.244395
-0.052446 -0.072258 -0.244399
-0.052443 -0.072178 -0.244395
-0.052440 -0.072099 -0.244389
-0.052437 -0.072019 -0.244387
-0.052433 -0.071937 -0.244393
-0.052430 -0.071855 -0.244391
-0.052427 -0.071775 -0.244383
-0.052424 -0.071695 -0.244379
-0.052421 -0.071615 -0.244382
-0.052417 -0.071533 -0.244384
-0.052414 -0.071453 -0.244382
-0.052411 -0.071371 -0.244380
-0.052408 -0.071291 -0.244378
-0.052405 -0.071211 -0.244380
-0.052402 -0.071129 -0.244382
-0.052398 -0.071049 -0.244380
-0.052395 -0.070969 -0.244376
-0.052392 -0.070890 -0.244372
-0.052389 -0.070808 -0.244372
-0.052386 -0.070728 -0.244371
-0.052383 -0.070648 -0.244367
-0.052380 -0.070566 -0.244365
-0.052377 -0.070486 -0.244363
-0.052374 -0.070406 -0.244361
-0.052371 -0.070324 -0.244361
-0.052367 -0.070244 -0.244359
-0.052364 -0.070164 -0.244357
-0.052361 -0.070082 -0.244357
-0.052358 -0.070002 -0.244365
-0.052354 -0.069920 -0.244369
-0.052351 -0.069840 -0.244366
-0.052348 -0.069761 -0.244354
-0.052346 -0.069681 -0.244350
-0.052342 -0.069599 -0.244354
-0.052339 -0.069517 -0.244358
-0.052335 -0.069437 -0.244362
-0.052332 -0.069355 -0.244362
-0.052329 -0.069275 -0.244356
-0.052326 -0.069195 -0.244360
-0.052322 -0.069113 -0.244364
-0.052320 -0.069033 -0.244354
-0.052317 -0.068953 -0.244341
-0.052314 -0.068875 -0.244333
-0.052311 -0.068794 -0.244331
-0.052308 -0.068712 -0.244333
-0.052304 -0.068629 -0.244343
-0.052301 -0.068550 -0.244337
-0.052299 -0.068472 -0.244325
-0.052295 -0.068390 -0.244323
-0.052293 -0.068310 -0.244315
-0.052290 -0.068230 -0.244309
-0.052286 -0.068148 -0.244317
-0.052282 -0.068066 -0.244328
-0.052279 -0.067986 -0.244326
-0.052276 -0.067904 -0.244326
-0.052273 -0.067824 -0.244326
-0.052270 -0.067744 -0.244316
-0.052267 -0.067665 -0.244306
-0.052264 -0.067585 -0.244308
-0.052261 -0.067503 -0.244314
-0.052258 -0.067421 -0.244312
-0.052255 -0.067341 -0.244302
-0.052251 -0.067261 -0.244306
-0.052248 -0.067179 -0.244315
-0.052245 -0.067097 -0.244311
-0.052242 -0.067017 -0.244309
-0.052239 -0.066937 -0.244303
-0.052236 -0.066857 -0.244301
-0.052233 -0.066777 -0.244297
-0.052230 -0.066695 -0.244291
-0.052226 -0.066615 -0.244293
-0.052223 -0.066534 -0.244293
