# .PCD v0.7 - Point Cloud Data file format
VERSION 0.7
FIELDS x y z
SIZE 4 4 4
TYPE F F F
COUNT 1 1 1
WIDTH 1324
HEIGHT 1
VIEWPOINT 0 0 0 1 0 0 0
POINTS 1324
DATA ascii
-0.072083332 -0.25435534 -0.33521068
-0.071846507 -0.25428873 -0.33521625
-0.071734004 -0.25427735 -0.33522299
-0.071479 -0.2542893 -0.33522666
-0.071290992 -0.25430843 -0.33523485
-0.071060993 -0.25429967 -0.33524534
-0.070882328 -0.25431132 -0.33528432
-0.070712224 -0.25432011 -0.33528945
-0.070513494 -0.254316 -0.33531502
-0.070247002 -0.2542862 -0.33534139
-0.070096284 -0.25427014 -0.33532843
-0.069888674 -0.25428566 -0.33534333
-0.069697 -0.25430173 -0.33536044
-0.069506548 -0.25429717 -0.33537191
-0.069318995 -0.25428349 -0.33538902
-0.069187008 -0.25431934 -0.33538499
-0.068039998 -0.25423199 -0.33539301
-0.067955002 -0.25423601 -0.335399
-0.067024998 -0.25428599 -0.33539701
-0.066083498 -0.25430101 -0.33538699
-0.065728001 -0.25428301 -0.335343
-0.065502755 -0.25429276 -0.33538553
-0.065315776 -0.25431335 -0.33535013
-0.065187663 -0.25432 -0.33531436
-0.064827502 -0.254298 -0.33533201
-0.064504936 -0.25428432 -0.33529282
-0.064245 -0.25430152 -0.33525482
-0.064112 -0.25430468 -0.33524904
-0.063849002 -0.25431833 -0.33521566
-0.075827502 -0.254105 -0.33537501
-0.075662665 -0.25408468 -0.33530664
-0.075508833 -0.25409618 -0.33529326
-0.075321451 -0.2541081 -0.33526123
-0.075147331 -0.25412086 -0.33521533
-0.074872203 -0.25411701 -0.33521742
-0.074685007 -0.25410652 -0.33520848
-0.074558496 -0.2541475 -0.33520851
-0.071723998 -0.25413901 -0.33520299
-0.071456999 -0.25400999 -0.33521801
-0.071261331 -0.25409099 -0.33521637
-0.071045667 -0.25409231 -0.33522066
-0.070866667 -0.25410399 -0.33526099
-0.070696108 -0.25411156 -0.33527163
-0.070492558 -0.25411832 -0.33528525
-0.070262998 -0.25410002 -0.335311
-0.070095375 -0.25408113 -0.33530799
-0.069873333 -0.25407836 -0.33531532
-0.069696836 -0.25408265 -0.33534181
-0.069498077 -0.25409427 -0.33536175
-0.069305666 -0.25411034 -0.33537164
-0.069168992 -0.25410867 -0.33539566
-0.067332 -0.25406349 -0.33539402
-0.066063002 -0.25405601 -0.33539501
-0.0657105 -0.2541045 -0.33538249
-0.065486334 -0.2540836 -0.33537593
-0.065298446 -0.25410265 -0.33535254
-0.06516733 -0.25410667 -0.33535835
-0.064814329 -0.25412366 -0.33531666
-0.064501412 -0.254087 -0.3352704
-0.064321399 -0.25407618 -0.33523938
-0.064130664 -0.25414202 -0.33523464
-0.075811997 -0.25392935 -0.33539367
-0.075641334 -0.25387201 -0.33536267
-0.075489916 -0.253885 -0.33531883
-0.075301997 -0.25389612 -0.33529299
-0.075128995 -0.25391018 -0.33523151
-0.074870005 -0.25393701 -0.33522925
-0.074718997 -0.25399899 -0.335201
-0.071889997 -0.25398999 -0.33520201
-0.071447507 -0.253905 -0.33522499
-0.071243167 -0.2538805 -0.33522764
-0.071027331 -0.25388101 -0.33523598
-0.070849665 -0.25389501 -0.335255
-0.070702285 -0.25391144 -0.33527169
-0.070497364 -0.25390136 -0.33528647
-0.070248999 -0.2539247 -0.33530769
-0.070103288 -0.25391057 -0.33530942
-0.069858246 -0.253903 -0.335325
-0.069678836 -0.25387183 -0.3353498
-0.069498301 -0.2538895 -0.33536419
-0.06935966 -0.25389436 -0.33537364
-0.068589002 -0.25385201 -0.335394
-0.067291573 -0.25391558 -0.33538762
-0.067157999 -0.25386199 -0.33538699
-0.066478997 -0.25381801 -0.335394
-0.066309892 -0.25389245 -0.33538279
-0.066071995 -0.25389975 -0.33536601
-0.065693498 -0.253894 -0.33537799
-0.065498337 -0.25387421 -0.33534321
-0.065310337 -0.25389299 -0.33532345
-0.065153666 -0.253901 -0.33530697
-0.064804003 -0.25398499 -0.335298
-0.064796999 -0.2538825 -0.33527398
-0.064512871 -0.25391763 -0.33523402
-0.064392 -0.25395301 -0.33521
-0.075684004 -0.25372732 -0.33538234
-0.075491428 -0.25369057 -0.33534315
-0.075311162 -0.25368649 -0.33530319
-0.075110666 -0.25369918 -0.3352505
-0.074877501 -0.2537455 -0.335217
-0.074740492 -0.25371751 -0.33520886
-0.074501 -0.25372899 -0.33520401
-0.071434334 -0.253732 -0.33520666
-0.071262494 -0.25370502 -0.33521402
-0.071105495 -0.25370875 -0.33521774
-0.070841998 -0.25376001 -0.33520201
-0.070703 -0.25369334 -0.33524582
-0.070490412 -0.25369975 -0.33526728
-0.070234001 -0.25371733 -0.3352783
-0.070119672 -0.25372133 -0.33529249
-0.069921851 -0.25373843 -0.3353067
-0.069709338 -0.2536985 -0.33532166
-0.069493331 -0.25367367 -0.33534446
-0.06932684 -0.25368968 -0.33534148
-0.069135338 -0.25368997 -0.335381
-0.068712004 -0.25363898 -0.335379
-0.068544 -0.25371483 -0.33537832
-0.068356328 -0.253728 -0.335374
-0.068131194 -0.25365919 -0.3353768
-0.067855 -0.25361151 -0.33539501
-0.067718998 -0.25368765 -0.33539465
-0.067485005 -0.25366098 -0.33538198
-0.067296177 -0.25370872 -0.33536765
-0.067147337 -0.253723 -0.33538365
-0.066976503 -0.25369352 -0.33538598
-0.066782661 -0.25367233 -0.33537033
-0.066468999 -0.25368068 -0.33537269
-0.066303998 -0.25370678 -0.33535135
-0.06610775 -0.2536985 -0.33534226
-0.065683335 -0.25372499 -0.33532301
-0.065486118 -0.25367787 -0.33528525
-0.065298676 -0.25368977 -0.33524558
-0.065141 -0.25369665 -0.33523932
-0.064792 -0.25378099 -0.335228
-0.064516 -0.253793 -0.33520499
-0.077303998 -0.25343534 -0.33538899
-0.077131495 -0.25344348 -0.33538449
-0.076948002 -0.25345099 -0.3353765
-0.076623999 -0.25343448 -0.33537501
-0.076442003 -0.253405 -0.33535901
-0.076271668 -0.25342301 -0.33537635
-0.076141 -0.25342599 -0.335388
-0.075696997 -0.25351885 -0.33534932
-0.075484887 -0.25350788 -0.33533534
-0.075297415 -0.25348124 -0.33525667
-0.075104803 -0.2535066 -0.3352218
-0.074684002 -0.25358 -0.33520201
-0.070648506 -0.2535235 -0.3352145
-0.070502773 -0.25348955 -0.33523545
-0.070306338 -0.25350568 -0.3352398
-0.070106171 -0.25351599 -0.3352398
-0.0699265 -0.2535215 -0.33526918
-0.069697231 -0.25352621 -0.33528921
-0.069471858 -0.25348642 -0.33531842
-0.069312669 -0.25348333 -0.33529651
-0.069120325 -0.25348267 -0.33534667
-0.068703167 -0.25350168 -0.33534467
-0.068529002 -0.25350785 -0.33534732
-0.068341672 -0.25352064 -0.335338
-0.068111502 -0.25350049 -0.33535701
-0.067907505 -0.25349182 -0.33537567
-0.067740604 -0.253465 -0.3353568
-0.067471661 -0.25348666 -0.33536699
-0.067296356 -0.25351176 -0.3353529
-0.06714724 -0.25349674 -0.335365
-0.066965669 -0.25352165 -0.33533934
-0.066770002 -0.253499 -0.33534598
-0.066454336 -0.253474 -0.33533898
-0.066300213 -0.25349289 -0.3353188
-0.06610433 -0.25350112 -0.33529997
-0.065670997 -0.25352064 -0.33525801
-0.06547571 -0.25351354 -0.33523342
-0.077650994 -0.2532385 -0.33537799
-0.077480182 -0.25328255 -0.33535457
-0.077297777 -0.25330234 -0.33531201
-0.077124998 -0.25331053 -0.33531132
-0.076907001 -0.25332814 -0.33531037
-0.076663256 -0.25326726 -0.33525974
-0.076435663 -0.25327167 -0.33529136
-0.076267108 -0.25329012 -0.33528355
-0.076138496 -0.2533285 -0.335298
-0.075705007 -0.2533316 -0.33525339
-0.075498119 -0.25332013 -0.33524337
-0.075317994 -0.25334549 -0.33520901
-0.075199001 -0.25334799 -0.33522099
-0.070460498 -0.25335348 -0.33520699
-0.070266336 -0.25334832 -0.33520767
-0.070105717 -0.25329813 -0.33522028
-0.069911666 -0.25331533 -0.33523297
-0.06970828 -0.25332969 -0.33524603
-0.069497503 -0.25331199 -0.33529609
-0.069287196 -0.25329041 -0.33527961
-0.069106668 -0.25327668 -0.33530399
-0.068686165 -0.25329232 -0.33533919
-0.068512164 -0.253299 -0.33533785
-0.068324327 -0.25331137 -0.335336
-0.068098165 -0.25332701 -0.33533618
-0.067933403 -0.2533142 -0.33534402
-0.06773483 -0.25327066 -0.33534029
-0.067456 -0.25327864 -0.33534566
-0.067299992 -0.25329468 -0.33534044
-0.067150839 -0.25330552 -0.3353487
-0.066949666 -0.253315 -0.33531734
-0.06675633 -0.25332567 -0.3353343
-0.066441998 -0.25330201 -0.335309
-0.066285886 -0.25328699 -0.33527681
-0.06608811 -0.25329256 -0.33528444
-0.065654337 -0.25331199 -0.33524334
-0.065456122 -0.25333375 -0.33521801
-0.065351501 -0.25330198 -0.335206
-0.065185003 -0.25334901 -0.33520299
-0.077676803 -0.25307822 -0.33533856
-0.077504113 -0.2530812 -0.33529302
-0.077313587 -0.25309899 -0.3352432
-0.0771228 -0.25312144 -0.3352364
-0.076933503 -0.25315002 -0.33522075
-0.076791495 -0.25315851 -0.33523199
-0.07643 -0.25313899 -0.33521599
-0.076203004 -0.25315899 -0.33520699
-0.070088856 -0.25308886 -0.33521628
-0.069894999 -0.2531065 -0.33522582
-0.069707833 -0.25310799 -0.33525467
-0.069502309 -0.2531251 -0.33526647
-0.069310375 -0.25309739 -0.33528164
-0.069092005 -0.253102 -0.33530599
-0.068670496 -0.25308502 -0.33531597
-0.068495832 -0.25308952 -0.33533064
-0.068308003 -0.25310233 -0.33532265
-0.068081662 -0.25311881 -0.33533001
-0.067910835 -0.253122 -0.33532131
-0.067721747 -0.25309724 -0.3353245
-0.067439333 -0.25306967 -0.33533835
-0.06728366 -0.25308576 -0.33532891
-0.06713333 -0.25309551 -0.33534348
-0.066932335 -0.25310335 -0.33532465
-0.066741668 -0.25311902 -0.33529833
-0.066428997 -0.25312901 -0.33528838
-0.066268891 -0.25307691 -0.33527586
-0.066112824 -0.25308299 -0.33526
-0.065993004 -0.25308898 -0.33524665
-0.065645002 -0.25317499 -0.33521399
-0.065461248 -0.25316924 -0.33520499
-0.077838801 -0.25289878 -0.33536839
-0.077684008 -0.2529124 -0.33530498
-0.077490561 -0.25287592 -0.335244
-0.077369496 -0.25290927 -0.33521926
-0.070073336 -0.25293669 -0.33520937
-0.069866002 -0.25294432 -0.33521602
-0.069715247 -0.2529175 -0.33522952
-0.069478862 -0.25292072 -0.33524615
-0.069318496 -0.25291488 -0.33524802
-0.069079667 -0.25293002 -0.33527467
-0.068654999 -0.252877 -0.33529234
-0.068481997 -0.25288418 -0.33527899
-0.06829267 -0.25289533 -0.33529934
-0.0680665 -0.25291151 -0.3352972
-0.067896329 -0.25291517 -0.33528116
-0.067708664 -0.25292417 -0.3353025
-0.067426994 -0.25289801 -0.33530301
-0.067269661 -0.25288036 -0.3352809
-0.067119159 -0.25288966 -0.33530131
-0.066918336 -0.25289765 -0.3352783
-0.066727668 -0.25291333 -0.33525398
-0.066416003 -0.252924 -0.33522666
-0.066257663 -0.25290647 -0.33522883
-0.066100754 -0.25289625 -0.33520898
-0.065984003 -0.25295201 -0.33521199
-0.077912793 -0.2527144 -0.33536583
-0.077704668 -0.25271666 -0.33528841
-0.077468283 -0.25269058 -0.33521771
-0.077371001 -0.25275299 -0.335201
-0.069426 -0.25277501 -0.335228
-0.069261 -0.25276735 -0.33521935
-0.069065996 -0.25272501 -0.33522633
-0.068661332 -0.25271833 -0.33523402
-0.068497166 -0.2526913 -0.33521748
-0.068280332 -0.25269166 -0.33522832
-0.068062797 -0.25272042 -0.3352406
-0.067882158 -0.25270966 -0.33523765
-0.067696333 -0.25272101 -0.33523479
-0.067416996 -0.25272834 -0.33524737
-0.067260198 -0.25271761 -0.33522481
-0.067120284 -0.25267643 -0.33522302
-0.066908002 -0.252729 -0.335215
-0.066715494 -0.25274152 -0.335219
-0.066405997 -0.25278601 -0.33520201
-0.077892795 -0.25247723 -0.33537179
-0.077700242 -0.25251627 -0.33527514
-0.077546254 -0.252507 -0.33522072
-0.077370502 -0.25243449 -0.33521301
-0.076924004 -0.252417 -0.33520201
-0.068085 -0.25257 -0.33520401
-0.067872502 -0.252572 -0.335208
-0.067687497 -0.25258401 -0.33520299
-0.0671295 -0.25251099 -0.335215
-0.077841334 -0.252285 -0.33535632
-0.077712663 -0.25229135 -0.33532438
-0.077508226 -0.25231135 -0.33527312
-0.077329576 -0.25229874 -0.33524916
-0.077070795 -0.25229961 -0.3352198
-0.076892167 -0.25225568 -0.33521298
-0.076718502 -0.25225401 -0.33520901
-0.077826999 -0.25214201 -0.33538899
-0.077671751 -0.25209701 -0.33536601
-0.077486664 -0.25209665 -0.33533433
-0.077291816 -0.25212181 -0.3353031
-0.077121571 -0.25211287 -0.3352724
-0.076912597 -0.25210661 -0.33524522
-0.076738 -0.25206223 -0.33523178
-0.067964002 -0.25208199 -0.33520499
-0.067688003 -0.25202399 -0.335201
-0.067593999 -0.25202501 -0.33521399
-0.067267001 -0.25211301 -0.33520499
-0.067098998 -0.25212899 -0.33520299
-0.077636003 -0.251939 -0.33538201
-0.077479832 -0.25190535 -0.33538449
-0.077309996 -0.25189421 -0.33534038
-0.077121444 -0.25191066 -0.33530331
-0.076925665 -0.2519235 -0.33525264
-0.076733999 -0.25190124 -0.33523202
-0.076506324 -0.25187933 -0.33521733
-0.076320998 -0.25181499 -0.33521101
-0.067679003 -0.251917 -0.33520597
-0.067585498 -0.25192052 -0.33521098
-0.077479005 -0.25166079 -0.33534819
-0.077304505 -0.2516956 -0.33528242
-0.077126607 -0.25174901 -0.33522561
-0.076681003 -0.2518 -0.33521101
-0.076495998 -0.25174001 -0.33520401
-0.076315001 -0.251746 -0.335215
-0.077624001 -0.25150475 -0.33535376
-0.077485397 -0.251488 -0.33525681
-0.077350006 -0.2515575 -0.33521849
-0.077844001 -0.25123 -0.335399
-0.077720501 -0.251313 -0.33531252
-0.077597499 -0.25136051 -0.33524102
-0.077835672 -0.25109503 -0.33535036
-0.077718005 -0.2511242 -0.33524761
-0.077855602 -0.25087219 -0.3353276
-0.077737004 -0.25090399 -0.33521166
-0.077842198 -0.25069278 -0.33530799
-0.077881336 -0.25053069 -0.33536065
-0.077790335 -0.25047567 -0.33526134
-0.077861995 -0.25031868 -0.33538637
-0.077727996 -0.25026923 -0.33525699
-0.077591002 -0.25020501 -0.33522999
-0.077719398 -0.25010759 -0.33532438
-0.077582493 -0.25010049 -0.33522898
-0.077395 -0.25001001 -0.33522299
-0.077648997 -0.2499465 -0.33535099
-0.077518836 -0.24992049 -0.33530366
-0.077383332 -0.24987066 -0.33522168
-0.077498168 -0.24970667 -0.33534315
-0.077372998 -0.249733 -0.33520299
-0.0774756 -0.24950261 -0.33529702
-0.077638999 -0.24927899 -0.33536601
-0.077547595 -0.24928041 -0.33526242
-0.077669501 -0.249101 -0.33537799
-0.077564493 -0.24910301 -0.33524826
-0.077659003 -0.248932 -0.33532834
-0.077568337 -0.24887665 -0.33523798
-0.077642672 -0.248724 -0.33531234
-0.077554002 -0.248703 -0.335233
-0.077624328 -0.24851267 -0.33532798
-0.077539332 -0.24852733 -0.33524132
-0.077610999 -0.24837001 -0.33534801
-0.077478752 -0.24831849 -0.3352375
-0.077416331 -0.248107 -0.33526036
-0.077276498 -0.248044 -0.33526552
-0.077252008 -0.24791181 -0.33532959
-0.077076495 -0.24788152 -0.33528253
-0.076925747 -0.24788125 -0.33525103
-0.077089377 -0.24771076 -0.33536375
-0.076912813 -0.24770755 -0.33531463
-0.0767214 -0.24768761 -0.33524022
-0.076848999 -0.24753575 -0.33535951
-0.076688714 -0.24753244 -0.33530259
-0.076497495 -0.24750118 -0.33526015
-0.076139003 -0.247411 -0.33520299
-0.067408003 -0.247458 -0.335228
-0.067212999 -0.247401 -0.33520699
-0.066851497 -0.247419 -0.33521599
-0.066696197 -0.24745901 -0.33521539
-0.066472001 -0.247437 -0.335224
-0.066282004 -0.247484 -0.335226
-0.065908998 -0.24750917 -0.33524033
-0.065688498 -0.24748899 -0.33523181
-0.065527 -0.2474445 -0.33525249
-0.065098003 -0.2474295 -0.3352145
-0.076451495 -0.24737799 -0.33532298
-0.076339602 -0.24730119 -0.3353264
-0.076128498 -0.24730301 -0.33522999
-0.075886503 -0.247246 -0.335226
-0.075708993 -0.24722368 -0.33522233
-0.069103003 -0.24723868 -0.33520731
-0.068914659 -0.247247 -0.33522999
-0.068614997 -0.24726 -0.335242
-0.068246 -0.24730951 -0.33524549
-0.068102337 -0.24727817 -0.33526501
-0.067896798 -0.2473042 -0.33525121
-0.067646332 -0.24730499 -0.33527634
-0.067505144 -0.24731956 -0.33525816
-0.06731116 -0.24730401 -0.33527717
-0.067193002 -0.247245 -0.335318
-0.0668815 -0.24730067 -0.3352735
-0.066692665 -0.24731486 -0.33528617
-0.066451997 -0.24728167 -0.33533168
-0.0662615 -0.24732751 -0.33534402
-0.065886602 -0.2473232 -0.33533621
-0.065734223 -0.24732225 -0.33532435
-0.065548256 -0.24728751 -0.33535549
-0.065085001 -0.24731825 -0.33527151
-0.064903274 -0.24728675 -0.33526528
-0.06469357 -0.24726629 -0.335289
-0.064255998 -0.24729151 -0.33524799
-0.064018004 -0.24726699 -0.335255
-0.0638915 -0.24725582 -0.33524451
-0.06367667 -0.24723899 -0.33525634
-0.063527003 -0.247217 -0.335269
-0.063265003 -0.247234 -0.335219
-0.062242001 -0.24720401 -0.33522499
-0.062153999 -0.24721199 -0.335201
-0.061533 -0.24724001 -0.33520401
-0.060674999 -0.247201 -0.33525899
-0.060546 -0.247205 -0.33524701
-0.060357001 -0.247216 -0.33522701
-0.076288 -0.247168 -0.33538899
-0.076104999 -0.24711199 -0.33534732
-0.075882196 -0.24711499 -0.33530158
-0.075686567 -0.24709813 -0.33526042
-0.075255997 -0.247032 -0.335201
-0.070038997 -0.247051 -0.33521599
-0.069914006 -0.24705632 -0.33522901
-0.069649503 -0.247069 -0.33526951
-0.069494501 -0.247114 -0.33524823
-0.069302 -0.24711549 -0.33527499
-0.069086827 -0.24711984 -0.33530584
-0.068899669 -0.24713051 -0.33531451
-0.068693332 -0.24716067 -0.33529034
-0.068595 -0.247106 -0.33534601
-0.068226501 -0.2471545 -0.33535302
-0.068083495 -0.24712551 -0.335356
-0.067865998 -0.247136 -0.33535168
-0.06763 -0.247155 -0.33534601
-0.067501999 -0.247152 -0.3353765
-0.067373998 -0.24715801 -0.33537701
-0.067181997 -0.24716599 -0.33538601
-0.06691733 -0.24715699 -0.33534899
-0.066705495 -0.2471935 -0.33538628
-0.065495998 -0.247179 -0.335399
-0.065142997 -0.247196 -0.33535901
-0.064912751 -0.24713326 -0.33539152
-0.064723335 -0.24715035 -0.33538499
-0.064239003 -0.247172 -0.33535299
-0.064009003 -0.247191 -0.33529601
-0.063919708 -0.24713843 -0.33534685
-0.063648999 -0.247134 -0.335345
-0.063515998 -0.24713799 -0.33533299
-0.063010998 -0.247161 -0.335329
-0.062830336 -0.247153 -0.33532098
-0.062693797 -0.24715121 -0.33531743
-0.062496204 -0.24713799 -0.3353256
-0.062294666 -0.24714299 -0.33530831
-0.062097501 -0.24712351 -0.33533901
-0.061894428 -0.24711843 -0.33531055
-0.06174225 -0.24711049 -0.335334
-0.061517999 -0.247152 -0.33532801
-0.060874 -0.2471945 -0.33526349
-0.060701497 -0.2471585 -0.33530349
-0.060534 -0.247123 -0.335329
-0.060345002 -0.247135 -0.335298
-0.059245002 -0.24709399 -0.33523536
-0.059025001 -0.2470565 -0.33527052
-0.058907669 -0.247069 -0.335235
-0.058746502 -0.2470755 -0.33522749
-0.076090999 -0.246968 -0.33538201
-0.075855501 -0.2469825 -0.33536547
-0.075708166 -0.24694717 -0.33535984
-0.0752405 -0.24691451 -0.33529848
-0.075055502 -0.24691026 -0.3352645
-0.074926667 -0.24688765 -0.33525527
-0.074711248 -0.246865 -0.33523074
-0.070666499 -0.246885 -0.3352285
-0.070451498 -0.2469155 -0.33526149
-0.070272997 -0.24692699 -0.33529299
-0.070101 -0.24693 -0.33532402
-0.069885999 -0.24695526 -0.33533525
-0.069638506 -0.2469895 -0.33533502
-0.069525003 -0.246997 -0.33532
-0.062036 -0.246905 -0.335394
-0.075226001 -0.24679901 -0.335374
-0.075051002 -0.246704 -0.33536398
-0.074896999 -0.24671613 -0.33535114
-0.07470756 -0.24669558 -0.33531091
-0.074534334 -0.24671102 -0.33525619
-0.074249007 -0.24668749 -0.33524674
-0.073913001 -0.246602 -0.33522099
-0.072265506 -0.24667099 -0.3352305
-0.072085001 -0.246676 -0.33524001
-0.071913667 -0.24667101 -0.33532098
-0.071630999 -0.24664849 -0.33536202
-0.071490005 -0.246737 -0.33525848
-0.071286246 -0.24673849 -0.33529875
-0.071150497 -0.246742 -0.335334
-0.070857003 -0.246796 -0.33529299
-0.070681997 -0.24679632 -0.33535334
-0.07463 -0.24655201 -0.33536699
-0.074514002 -0.246556 -0.33537251
-0.074275002 -0.2465325 -0.33533901
-0.074087426 -0.24653313 -0.33529457
-0.073910199 -0.2465262 -0.33527082
-0.072820999 -0.24656799 -0.33529899
-0.072682999 -0.24657899 -0.33528751
-0.072475001 -0.246575 -0.33534199
-0.072293006 -0.24657767 -0.335379
-0.045692667 -0.26846364 -0.33516231
-0.045496333 -0.26844934 -0.33514699
-0.045293998 -0.26848498 -0.33515835
-0.045052994 -0.26842633 -0.33511165
-0.044874337 -0.268437 -0.33508751
-0.044701334 -0.26844367 -0.33503804
-0.046410002 -0.26826599 -0.335076
-0.046274997 -0.26827151 -0.33506149
-0.046102747 -0.26831424 -0.3351275
-0.045919128 -0.26832539 -0.33510363
-0.045717802 -0.26834059 -0.33506459
-0.045496333 -0.26837832 -0.335053
-0.045277998 -0.26839051 -0.33506602
-0.0451115 -0.268363 -0.33503899
-0.044746 -0.26834899 -0.33501801
-0.044321001 -0.268372 -0.33501399
-0.048016999 -0.26802999 -0.33515599
-0.047829501 -0.26805198 -0.335145
-0.047609001 -0.268062 -0.33507001
-0.047477998 -0.2681005 -0.33508974
-0.047298498 -0.26810652 -0.33507448
-0.047084 -0.26815099 -0.33508
-0.046952002 -0.268089 -0.33500701
-0.049632002 -0.26780501 -0.335181
-0.049489003 -0.26782966 -0.33514467
-0.04930767 -0.26783869 -0.33513403
-0.049141999 -0.26786149 -0.335134
-0.048893496 -0.26788139 -0.33510873
-0.048701331 -0.26789346 -0.33509633
-0.048271999 -0.267948 -0.335053
-0.048020002 -0.267959 -0.33502501
-0.047908667 -0.26796967 -0.33504701
-0.050693501 -0.26760548 -0.3351905
-0.050489001 -0.26761252 -0.33516601
-0.050313 -0.26761949 -0.3351545
-0.050096165 -0.267667 -0.33513084
-0.049882498 -0.26767999 -0.33511198
-0.049630001 -0.26770002 -0.33508199
-0.049501251 -0.26770025 -0.33503097
-0.049362503 -0.26770651 -0.33503699
-0.049141001 -0.26775652 -0.3350195
-0.048941001 -0.26777148 -0.33500749
-0.051833 -0.267405 -0.33517998
-0.051726498 -0.26741201 -0.33517098
-0.051510248 -0.26745576 -0.33516151
-0.051320001 -0.26742649 -0.33513251
-0.051113598 -0.26746619 -0.33515364
-0.0508698 -0.26750961 -0.33515042
-0.050692003 -0.26750067 -0.33510867
-0.050475203 -0.26748699 -0.33507341
-0.050317802 -0.26749241 -0.33504802
-0.050109603 -0.2675328 -0.33504099
-0.049947001 -0.26753151 -0.33502102
-0.049626999 -0.26759601 -0.33500299
-0.053084001 -0.26726601 -0.335186
-0.052913003 -0.2672365 -0.33517873
-0.052705102 -0.2672734 -0.33516091
-0.052491501 -0.26726425 -0.33515149
-0.052329671 -0.26726165 -0.33516565
-0.052091427 -0.26731831 -0.33515555
-0.051895998 -0.2673026 -0.33513689
-0.051688109 -0.26727366 -0.33509442
-0.05150133 -0.26728114 -0.33507583
-0.051313166 -0.267286 -0.33506167
-0.051100247 -0.26730764 -0.33505613
-0.050894726 -0.26731128 -0.33506504
-0.050674401 -0.2673682 -0.33503219
-0.050526999 -0.2674 -0.335033
-0.054072998 -0.267012 -0.335188
-0.053910594 -0.26707393 -0.33517033
-0.053741146 -0.26707798 -0.33514157
-0.053531665 -0.26710868 -0.33513901
-0.053261336 -0.26711532 -0.33514735
-0.053077001 -0.26712599 -0.33512399
-0.052916698 -0.26711661 -0.33512992
-0.052699413 -0.26707742 -0.33508411
-0.052481834 -0.26708916 -0.33507514
-0.052305833 -0.26709917 -0.33509418
-0.052122835 -0.2671065 -0.33507419
-0.051915333 -0.2671186 -0.33507815
-0.051715448 -0.26710856 -0.33504534
-0.051490501 -0.26710552 -0.33501577
-0.051298995 -0.26707667 -0.33501351
-0.051123999 -0.2671575 -0.33500451
-0.050938997 -0.26716864 -0.33500198
-0.054902602 -0.26688582 -0.33517462
-0.054743879 -0.26690283 -0.33515811
-0.054497499 -0.26692215 -0.33516815
-0.054064002 -0.266873 -0.33515131
-0.053897161 -0.26687792 -0.33514094
-0.053720109 -0.26688844 -0.33510813
-0.053516001 -0.26689801 -0.33511302
-0.053246334 -0.26690432 -0.33510366
-0.053061336 -0.26691666 -0.335096
-0.052893836 -0.26692116 -0.33507362
-0.052700285 -0.26690716 -0.33505028
-0.052499499 -0.26686889 -0.33503342
-0.052292332 -0.26688999 -0.33504131
-0.052108664 -0.26689667 -0.33502567
-0.051894818 -0.2669158 -0.33503029
-0.051691715 -0.26696259 -0.33501413
-0.051438998 -0.26699999 -0.335004
-0.055302002 -0.2666325 -0.3351905
-0.054874998 -0.26669085 -0.33517399
-0.05473233 -0.26670179 -0.33516535
-0.054525502 -0.26672876 -0.33513927
-0.054396499 -0.266682 -0.33512101
-0.054052502 -0.266698 -0.335105
-0.05388011 -0.26669189 -0.33511612
-0.053713102 -0.26667193 -0.33509642
-0.053502005 -0.26668966 -0.33506703
-0.053231999 -0.26669601 -0.33506298
-0.053047668 -0.26670668 -0.33503866
-0.052885819 -0.26671794 -0.33504674
-0.052719567 -0.26674584 -0.33502603
-0.052557331 -0.26671198 -0.33501199
-0.052237999 -0.26675299 -0.33501399
-0.055640001 -0.26644701 -0.33519399
-0.055484001 -0.266453 -0.33518401
-0.0553024 -0.26651436 -0.33515939
-0.055161498 -0.26650351 -0.33516401
-0.054873399 -0.26649562 -0.33513018
-0.0547271 -0.26648551 -0.33510718
-0.054551002 -0.26650101 -0.33510599
-0.054384332 -0.26650798 -0.33509135
-0.054039668 -0.26652431 -0.33508
-0.053906001 -0.26651788 -0.33506402
-0.053736333 -0.26651534 -0.33504066
-0.053493001 -0.26654899 -0.33502099
-0.053224001 -0.26655599 -0.33500299
-0.052839998 -0.26657501 -0.335015
-0.052793998 -0.26657999 -0.335006
-0.056104001 -0.26620701 -0.335195
-0.055840999 -0.26629135 -0.33516768
-0.05566613 -0.26629373 -0.33516502
-0.055475 -0.26631498 -0.33513665
-0.055282164 -0.2663193 -0.33510086
-0.055151667 -0.26632968 -0.33508733
-0.054908998 -0.26630402 -0.33505452
-0.054727256 -0.26628146 -0.33504632
-0.054538 -0.26629099 -0.335042
-0.054374002 -0.26633298 -0.3350285
-0.054031 -0.26638401 -0.33503401
-0.053891003 -0.26638699 -0.33501768
-0.053787 -0.266397 -0.33501899
-0.056830999 -0.26603201 -0.33519
-0.056685861 -0.26607016 -0.33518729
-0.0565085 -0.26608348 -0.33519101
-0.056366667 -0.26612735 -0.33516166
-0.056096502 -0.26610249 -0.33517301
-0.055826336 -0.26608169 -0.33512434
-0.055659004 -0.26609167 -0.33510253
-0.055461001 -0.26610467 -0.33508733
-0.055267829 -0.26611036 -0.33505449
-0.055137664 -0.26612064 -0.33504403
-0.054899499 -0.26616502 -0.33502197
-0.054753002 -0.26611599 -0.33501503
-0.054529 -0.26615199 -0.335004
-0.057905499 -0.2658225 -0.33518398
-0.057674501 -0.26583651 -0.33519751
-0.057513569 -0.26588473 -0.33517975
-0.057367001 -0.26592836 -0.33517134
-0.057085 -0.2658405 -0.33517399
-0.056820665 -0.26589265 -0.335168
-0.056676168 -0.26589993 -0.33517584
-0.056497663 -0.26590869 -0.3351377
-0.056351002 -0.26591834 -0.33513734
-0.056086663 -0.26592833 -0.335107
-0.055811662 -0.26587233 -0.33508834
-0.055649497 -0.26589075 -0.33507949
-0.05548425 -0.26587725 -0.335044
-0.055253331 -0.26590201 -0.33501449
-0.055124998 -0.26594651 -0.33502197
-0.057912998 -0.26569581 -0.33517858
-0.057683289 -0.26568627 -0.33518001
-0.057512749 -0.2657145 -0.3351469
-0.057351332 -0.26571903 -0.33514264
-0.057076 -0.265701 -0.33513898
-0.056808002 -0.265717 -0.33513701
-0.056696098 -0.2656796 -0.3351284
-0.056538504 -0.265699 -0.33511135
-0.05633533 -0.26570967 -0.33511201
-0.056071669 -0.26571897 -0.33506766
-0.055803001 -0.26573399 -0.33504999
-0.055671003 -0.26568183 -0.33504751
-0.055526603 -0.26569781 -0.335015
-0.05846867 -0.265448 -0.33519265
-0.05826075 -0.26550725 -0.33518773
-0.058114666 -0.26548433 -0.335181
-0.057968497 -0.265504 -0.335186
-0.057694554 -0.26548588 -0.33516467
-0.057496171 -0.26550582 -0.33513665
-0.057334002 -0.26550999 -0.33514968
-0.057062332 -0.26552767 -0.33512631
-0.056699168 -0.26547715 -0.33510467
-0.05652317 -0.26549032 -0.33508453
-0.056320999 -0.26550066 -0.33506799
-0.056056004 -0.26551032 -0.33504865
-0.055709857 -0.26552802 -0.33502027
-0.059472997 -0.26525602 -0.33519101
-0.059282999 -0.26528534 -0.33518136
-0.059133995 -0.26529002 -0.33518767
-0.058933336 -0.26527619 -0.33517516
-0.058661833 -0.26528916 -0.33517432
-0.058494903 -0.26531363 -0.33514798
-0.058291145 -0.26530543 -0.33514085
-0.058090497 -0.26532251 -0.33513054
-0.057956997 -0.26532933 -0.33514634
-0.057680335 -0.26527712 -0.33511969
-0.057498801 -0.26530302 -0.33510095
-0.0573496 -0.26528719 -0.33509982
-0.057048336 -0.26531866 -0.33507702
-0.056688122 -0.26530352 -0.3350575
-0.056522716 -0.26527131 -0.33502772
-0.056306999 -0.26529232 -0.33501768
-0.056043498 -0.26533651 -0.33501601
-0.060447499 -0.26509798 -0.33519298
-0.060351003 -0.26509339 -0.33518761
-0.060099375 -0.265066 -0.33517361
-0.0598992 -0.26507521 -0.33517963
-0.059661668 -0.26510069 -0.33518267
-0.059472878 -0.26512575 -0.33515674
-0.059301715 -0.26511231 -0.33514813
-0.059108663 -0.26512867 -0.335145
-0.058910601 -0.26508242 -0.33513319
-0.058657803 -0.2650938 -0.33513302
-0.058510404 -0.26508951 -0.33509782
-0.058301561 -0.26510632 -0.33510935
-0.058075 -0.26511386 -0.33510068
-0.05794267 -0.26512134 -0.33509767
-0.05767417 -0.26509166 -0.33508515
-0.057512358 -0.26507756 -0.3350763
-0.057343666 -0.26509264 -0.33506098
-0.057034001 -0.26511034 -0.33503631
-0.056703225 -0.2651279 -0.33502001
-0.056531668 -0.26514068 -0.33500734
-0.056297 -0.26515299 -0.33500499
-0.060929999 -0.26481801 -0.335199
-0.060681999 -0.264833 -0.335197
-0.060443997 -0.26490524 -0.33518147
-0.060326107 -0.26492733 -0.33516324
-0.060084283 -0.26488629 -0.33515471
-0.059892833 -0.26487997 -0.33515152
-0.059645668 -0.26489165 -0.33516634
-0.05948117 -0.26490784 -0.3351177
-0.05930911 -0.26491266 -0.33512056
-0.05909333 -0.26491967 -0.33511499
-0.058916997 -0.26491421 -0.33512098
-0.058681 -0.2649025 -0.33511198
-0.058510005 -0.26488557 -0.33508483
-0.058332164 -0.26489601 -0.33509851
-0.058103554 -0.26490337 -0.33507955
-0.057926666 -0.26491234 -0.33507967
-0.057700198 -0.26491278 -0.33506042
-0.057498001 -0.26488143 -0.33504945
-0.05732733 -0.26488349 -0.33505067
-0.05701733 -0.26490101 -0.33502832
-0.056693874 -0.26492739 -0.33501589
-0.056582 -0.26496202 -0.33500397
-0.060913 -0.26460901 -0.33519101
-0.060696281 -0.26470229 -0.33518544
-0.060486551 -0.26470116 -0.3351731
-0.060311113 -0.26471856 -0.3351309
-0.060106002 -0.26472384 -0.33515197
-0.059890669 -0.26468134 -0.33514285
-0.059631001 -0.26468334 -0.33513233
-0.059464335 -0.26469851 -0.33511296
-0.059291329 -0.26470336 -0.33512819
-0.059076671 -0.26471066 -0.3351067
-0.058891337 -0.26471901 -0.3351225
-0.058667 -0.26472801 -0.33511031
-0.058485638 -0.2646831 -0.33509338
-0.058314499 -0.26468682 -0.33510515
-0.058111709 -0.26470241 -0.33508283
-0.057945002 -0.26468721 -0.33506641
-0.05767167 -0.264718 -0.33506432
-0.057490397 -0.2646994 -0.33505309
-0.057309002 -0.26467502 -0.33506569
-0.057006001 -0.264761 -0.335031
-0.056995504 -0.26465699 -0.33505401
-0.056676142 -0.26468983 -0.33501929
-0.056554999 -0.26464799 -0.335015
-0.062289666 -0.26443768 -0.33518997
-0.060906999 -0.264539 -0.335195
-0.060695332 -0.2644825 -0.33517599
-0.060487721 -0.26450321 -0.335159
-0.0603032 -0.26450166 -0.33514547
-0.060105998 -0.26451349 -0.33515534
-0.059913501 -0.26451898 -0.33515275
-0.059613332 -0.264474 -0.33513632
-0.059446666 -0.264489 -0.33511817
-0.059314501 -0.26449332 -0.33513352
-0.059103113 -0.2644999 -0.33512524
-0.058874 -0.26451051 -0.3351225
-0.058649331 -0.26451933 -0.33511367
-0.058497377 -0.26451826 -0.33511013
-0.058321126 -0.26446927 -0.33511612
-0.058111668 -0.26448417 -0.33509767
-0.057935998 -0.26449266 -0.33509564
-0.057715666 -0.26450565 -0.33505264
-0.057514694 -0.26452294 -0.3350566
-0.057314999 -0.264494 -0.33505678
-0.056980666 -0.26448333 -0.33506
-0.056668572 -0.26451173 -0.33501628
-0.056564003 -0.2644932 -0.33501023
-0.056245331 -0.26452699 -0.33500233
-0.062261 -0.26434299 -0.335197
-0.061308999 -0.26424801 -0.33518299
-0.061131001 -0.264254 -0.33519301
-0.060885001 -0.26425999 -0.335181
-0.060677838 -0.26427415 -0.33517835
-0.060487885 -0.26428643 -0.33517808
-0.060302664 -0.26429957 -0.33514974
-0.060089335 -0.2643052 -0.33514616
-0.059887554 -0.26432011 -0.33514497
-0.059602 -0.26433399 -0.33513501
-0.059463169 -0.26428986 -0.335114
-0.059312005 -0.26427397 -0.33512416
-0.059112139 -0.26429984 -0.33512169
-0.058891624 -0.26429173 -0.33511862
-0.058632333 -0.26431063 -0.33511031
-0.058488891 -0.26432645 -0.33509818
-0.058306873 -0.26427773 -0.33509412
-0.058095831 -0.26427534 -0.33507404
-0.057919998 -0.26428369 -0.33507898
-0.057699334 -0.26429701 -0.33503899
-0.057507332 -0.26431313 -0.33505014
-0.05731611 -0.26432699 -0.3350381
-0.056965332 -0.26427469 -0.3350327
-0.056655332 -0.264339 -0.33500469
-0.056559794 -0.26431078 -0.33500499
-0.062280666 -0.26408902 -0.33518836
-0.062089004 -0.26404339 -0.33518079
-0.061937999 -0.26404148 -0.33517301
-0.061747499 -0.2640495 -0.335168
-0.061512399 -0.2640838 -0.33516842
-0.061335288 -0.26408613 -0.33516628
-0.061121002 -0.26411667 -0.33517298
-0.060876336 -0.26412266 -0.33515
-0.060665496 -0.26410025 -0.33514324
-0.060473006 -0.26407787 -0.33514243
-0.060317889 -0.26408979 -0.33511978
-0.060113668 -0.26409599 -0.33513778
-0.059912164 -0.26410899 -0.3351222
-0.059792001 -0.26411667 -0.33511832
-0.059513833 -0.26409921 -0.33510217
-0.05931811 -0.26407611 -0.33508238
-0.059115667 -0.26408133 -0.33508515
-0.058937997 -0.26408932 -0.33506915
-0.05870517 -0.26409981 -0.33508316
-0.058473449 -0.26411808 -0.33506954
-0.058312993 -0.26410931 -0.33506387
-0.05808375 -0.26410127 -0.335042
-0.057905331 -0.26407519 -0.33503798
-0.057684001 -0.26408866 -0.33501032
-0.057525139 -0.26412085 -0.33502188
-0.057291996 -0.26414165 -0.33501336
-0.063254327 -0.26382932 -0.33518699
-0.063130341 -0.26384786 -0.33517703
-0.062904 -0.26385552 -0.33517301
-0.062479999 -0.26391134 -0.33515665
-0.062310755 -0.26392442 -0.33515516
-0.062105291 -0.26391244 -0.33513761
-0.061928 -0.26386967 -0.33510366
-0.06173633 -0.26387766 -0.33512297
-0.061486334 -0.2638905 -0.33511734
-0.06132967 -0.26389802 -0.33511314
-0.061106998 -0.26390898 -0.33512166
-0.060862001 -0.26391497 -0.33510533
-0.060653668 -0.26392767 -0.33511052
-0.060461659 -0.26390484 -0.33510032
-0.060313202 -0.26387459 -0.33506545
-0.06010012 -0.26388869 -0.33508399
-0.059898 -0.2639015 -0.33507618
-0.059778001 -0.26390901 -0.33506632
-0.059514999 -0.26391059 -0.3350628
-0.059305836 -0.26390234 -0.33504999
-0.059101 -0.26387319 -0.3350445
-0.058921326 -0.26388001 -0.33506167
-0.058709197 -0.2639046 -0.33504659
-0.058489125 -0.26390624 -0.33503714
-0.058282502 -0.26393026 -0.33502626
-0.058070835 -0.26392752 -0.33501849
-0.057908665 -0.26391232 -0.33501101
-0.063902199 -0.26367381 -0.33518079
-0.063680008 -0.26366839 -0.33516559
-0.063475832 -0.26371899 -0.33517134
-0.063300408 -0.26369491 -0.33516049
-0.06311956 -0.26367477 -0.33511999
-0.062896006 -0.26368299 -0.33508399
-0.062465999 -0.26370367 -0.33510602
-0.062297661 -0.26371717 -0.3350915
-0.06208333 -0.26372546 -0.33507705
-0.061917 -0.26369601 -0.33504999
-0.061722334 -0.26366967 -0.335071
-0.061486997 -0.26369622 -0.33506438
-0.061324 -0.2636824 -0.3350665
-0.061094001 -0.26370135 -0.33505967
-0.060846668 -0.26370636 -0.33507535
-0.060662247 -0.26373577 -0.33505851
-0.060506627 -0.26371688 -0.33508286
-0.060314499 -0.2636798 -0.33503217
-0.060087714 -0.26369053 -0.33502728
-0.059900574 -0.26368144 -0.33502442
-0.059767 -0.2637355 -0.335015
-0.059488166 -0.26371765 -0.33501664
-0.059293225 -0.26372832 -0.33502567
-0.059088249 -0.26369876 -0.33502549
-0.058897 -0.26368561 -0.33504277
-0.058762666 -0.263679 -0.33503103
-0.058506887 -0.26369354 -0.33502376
-0.058281429 -0.26370212 -0.33500999
-0.0580865 -0.2637175 -0.33500683
-0.057926498 -0.26375949 -0.33500201
-0.064220995 -0.26344949 -0.335172
-0.064103216 -0.26348957 -0.33517909
-0.063914664 -0.263493 -0.33515349
-0.063737996 -0.2634995 -0.33512568
-0.06350711 -0.26351133 -0.33509612
-0.063297629 -0.26351565 -0.33508566
-0.06310042 -0.26348829 -0.33504325
-0.062882997 -0.26347601 -0.33501801
-0.062452663 -0.26349631 -0.33504966
-0.062296003 -0.2635231 -0.33503088
-0.062104627 -0.26351574 -0.33503664
-0.061965 -0.26352236 -0.33501235
-0.061710998 -0.26349652 -0.33502999
-0.061524663 -0.26347336 -0.3350327
-0.061322417 -0.26347959 -0.335042
-0.061078001 -0.26349199 -0.33503798
-0.060831666 -0.26349732 -0.335042
-0.060664337 -0.26350835 -0.33505002
-0.060502332 -0.26351655 -0.33505034
-0.060308006 -0.26350933 -0.33503971
-0.060117602 -0.26345664 -0.3350268
-0.059908751 -0.26348877 -0.33501312
-0.059744 -0.26345652 -0.335015
-0.059486002 -0.26352078 -0.33501521
-0.059278287 -0.26353902 -0.33501974
-0.059091426 -0.2635141 -0.33502412
-0.058902003 -0.2635172 -0.33503842
-0.058745999 -0.26347032 -0.33501565
-0.058489885 -0.26348436 -0.33502179
-0.058184668 -0.26350436 -0.33500633
-0.065165997 -0.26333398 -0.33519202
-0.064862996 -0.263376 -0.33519199
-0.064585999 -0.263248 -0.33518901
-0.064265803 -0.26328459 -0.33515522
-0.064088672 -0.26328123 -0.33513877
-0.063899495 -0.26328433 -0.33512318
-0.063722 -0.26329049 -0.33510733
-0.063491784 -0.26330256 -0.33506325
-0.063283995 -0.26331967 -0.33504835
-0.063115217 -0.26331258 -0.33502477
-0.062867001 -0.26330101 -0.33504701
-0.062436 -0.26328704 -0.33503833
-0.062300123 -0.26329061 -0.33502495
-0.062122889 -0.2633051 -0.33501923
-0.061933503 -0.26331314 -0.33500803
-0.061697666 -0.26332268 -0.33501163
-0.061515 -0.26333401 -0.335006
-0.061298501 -0.26328519 -0.33502755
-0.061061665 -0.26328334 -0.33502802
-0.060818002 -0.26332349 -0.335031
-0.060651999 -0.26333451 -0.33502501
-0.060506798 -0.26334819 -0.33503199
-0.060332224 -0.26333636 -0.33502179
-0.060112 -0.26330832 -0.33501032
-0.059813 -0.26331252 -0.335013
-0.059524331 -0.26329201 -0.33500996
-0.059014499 -0.26335198 -0.33500749
-0.058888204 -0.26333642 -0.33502039
-0.058512002 -0.26334101 -0.33501202
-0.064833999 -0.26302701 -0.335197
-0.064575337 -0.263109 -0.33517766
-0.064338326 -0.26312336 -0.33515167
-0.064095721 -0.26307836 -0.3351137
-0.063885003 -0.26307669 -0.3350817
-0.063707002 -0.2630823 -0.335078
-0.063517161 -0.26309302 -0.33504999
-0.063311495 -0.26310107 -0.33504292
-0.063092895 -0.26313519 -0.33501855
-0.062853999 -0.26312733 -0.33501935
-0.062422998 -0.26311451 -0.33501801
-0.062295169 -0.26311281 -0.33503187
-0.062109169 -0.26313201 -0.33500847
-0.061877001 -0.26317501 -0.335004
-0.061345499 -0.26319748 -0.33501601
-0.060392 -0.26317599 -0.33500499
-0.058913998 -0.263181 -0.33500499
-0.064859405 -0.26287422 -0.33518419
-0.064561002 -0.26290199 -0.33514032
-0.064323999 -0.26291633 -0.33511004
-0.064132579 -0.2629123 -0.33508113
-0.063913502 -0.2629025 -0.33506486
-0.063691668 -0.26287416 -0.33504686
-0.063501664 -0.26288465 -0.33502567
-0.063301913 -0.26289809 -0.33503154
-0.063006997 -0.26298299 -0.33500499
-0.062314998 -0.26294899 -0.335004
-0.065104999 -0.26260301 -0.33519599
-0.06488587 -0.26268736 -0.33517486
-0.064545333 -0.26269367 -0.33511832
-0.064308338 -0.26270834 -0.33508667
-0.06411045 -0.26272467 -0.33505467
-0.063900672 -0.26272932 -0.33504143
-0.063677996 -0.262701 -0.33503252
-0.063509002 -0.26269275 -0.33501723
-0.063303001 -0.26268154 -0.33501303
-0.063056998 -0.26277301 -0.33500099
-0.059473 -0.26266599 -0.33500099
-0.059046 -0.26261801 -0.33500299
-0.058954 -0.26262099 -0.335013
-0.058501001 -0.26264101 -0.33500901
-0.074843995 -0.26250967 -0.33518967
-0.065097004 -0.2624985 -0.33519399
-0.064924747 -0.26250249 -0.33518702
-0.064791001 -0.262472 -0.3351523
-0.064527996 -0.26248401 -0.33511934
-0.064291336 -0.26249966 -0.33508196
-0.064093776 -0.26251623 -0.33504498
-0.063909717 -0.26253098 -0.33502668
-0.063696876 -0.26251689 -0.33503324
-0.063515499 -0.262501 -0.33502001
-0.063285112 -0.26247287 -0.33502111
-0.063187495 -0.26244998 -0.33500898
-0.059689667 -0.26246831 -0.33501503
-0.059459999 -0.26252601 -0.33502498
-0.059284002 -0.26243648 -0.3350195
-0.059114441 -0.26247624 -0.3350271
-0.058897499 -0.26248282 -0.33504269
-0.058713499 -0.262492 -0.33503246
-0.058466502 -0.26252002 -0.33503151
-0.058316249 -0.26248324 -0.33502075
-0.058160752 -0.26251149 -0.33501476
-0.05788625 -0.26248449 -0.33501899
-0.057729665 -0.26247501 -0.33502102
-0.057467666 -0.262445 -0.33501664
-0.057374749 -0.26248074 -0.33501452
-0.075318597 -0.26224762 -0.33519658
-0.075097501 -0.26225752 -0.33519298
-0.074827008 -0.26230165 -0.33519003
-0.074495502 -0.262281 -0.33518726
-0.074334331 -0.26227602 -0.33518735
-0.074006997 -0.26220399 -0.33517799
-0.065087996 -0.26239401 -0.33519799
-0.064903602 -0.26234278 -0.33518559
-0.064777493 -0.26229849 -0.33514649
-0.064511664 -0.26227632 -0.33510533
-0.064274669 -0.262292 -0.33507404
-0.064075671 -0.26230747 -0.33506191
-0.063908339 -0.2623125 -0.33505452
-0.06372086 -0.26232585 -0.3350223
-0.063515335 -0.26230267 -0.33502796
-0.063269995 -0.26229918 -0.33503684
-0.063110501 -0.2622565 -0.33500966
-0.062949993 -0.26228899 -0.335008
-0.060407002 -0.26226401 -0.33500999
-0.060314 -0.262236 -0.33501202
-0.0600814 -0.26227239 -0.33501381
-0.059889778 -0.26229045 -0.33503655
-0.059688333 -0.26230487 -0.33503699
-0.059442002 -0.26231697 -0.33504102
-0.059272248 -0.26229727 -0.33502749
-0.059097499 -0.26230085 -0.33506265
-0.058879334 -0.26227298 -0.33505598
-0.058695 -0.26228216 -0.33505085
-0.058469336 -0.26229069 -0.33505699
-0.058299828 -0.26230809 -0.33505166
-0.058123332 -0.26231918 -0.33504581
-0.057893336 -0.26232564 -0.33504423
-0.0577145 -0.26230001 -0.33503401
-0.057472497 -0.26227999 -0.33504102
-0.057293672 -0.26229644 -0.33502507
-0.057155997 -0.262306 -0.335013
-0.075843997 -0.26204401 -0.33519399
-0.075762495 -0.26207951 -0.335197
-0.075514391 -0.26211122 -0.33519441
-0.075299278 -0.26208785 -0.33517617
-0.075137168 -0.2620782 -0.335179
-0.074810669 -0.26209435 -0.33517465
-0.074482329 -0.2621085 -0.33517149
-0.074309997 -0.26211485 -0.33516482
-0.074084498 -0.26213026 -0.33516625
-0.073958337 -0.26209199 -0.33516932
-0.073669001 -0.26204151 -0.33517998
-0.073534757 -0.26204902 -0.33519351
-0.064854994 -0.26215601 -0.33519149
-0.064761333 -0.26212367 -0.33517036
-0.064495504 -0.26210201 -0.33513498
-0.064255334 -0.26208198 -0.33510533
-0.064075708 -0.26210731 -0.33506784
-0.063915998 -0.26209313 -0.33507684
-0.0637215 -0.26210502 -0.33505169
-0.063529335 -0.26211432 -0.33504936
-0.063298278 -0.26213011 -0.33503339
-0.063118853 -0.26208916 -0.33501297
-0.062937997 -0.26214999 -0.33500999
-0.061232001 -0.262086 -0.33500201
-0.060435999 -0.2621575 -0.3350125
-0.060329001 -0.26208776 -0.33502078
-0.060036998 -0.26207867 -0.33502698
-0.059913665 -0.26207951 -0.33503035
-0.059710998 -0.26209366 -0.33503932
-0.059423998 -0.262108 -0.335049
-0.05925883 -0.26212415 -0.33501247
-0.0590945 -0.26213512 -0.33505836
-0.058890801 -0.26209059 -0.33505982
-0.058669001 -0.26208782 -0.33505601
-0.058452334 -0.26208165 -0.33505902
-0.058290362 -0.26210493 -0.33504674
-0.058118571 -0.262099 -0.33506158
-0.057919834 -0.26211432 -0.33504471
-0.057745334 -0.26212382 -0.33502531
-0.057517998 -0.26210099 -0.33504301
-0.05731231 -0.26209408 -0.33503327
-0.057153001 -0.262079 -0.33501375
-0.075832002 -0.26190466 -0.33519533
-0.07550817 -0.2619175 -0.33518198
-0.075304754 -0.26192027 -0.33516899
-0.07509575 -0.26189148 -0.33517003
-0.074794665 -0.26188731 -0.33515799
-0.074465163 -0.26189998 -0.33517015
-0.074293166 -0.2619065 -0.33515951
-0.07409633 -0.26192066 -0.33514133
-0.073955335 -0.26192865 -0.33516085
-0.073686667 -0.26188865 -0.3351787
-0.073573001 -0.261942 -0.33518901
-0.064743005 -0.26191464 -0.33518866
-0.064479336 -0.26192701 -0.33516201
-0.064237326 -0.26187202 -0.33511665
-0.064069666 -0.26188752 -0.335078
-0.063909002 -0.26189244 -0.3350682
-0.063704833 -0.26189649 -0.33504382
-0.063513838 -0.26190636 -0.33502349
-0.063290596 -0.26195621 -0.3350212
-0.063171998 -0.26193541 -0.33501098
-0.060538001 -0.26194298 -0.3350035
-0.0603 -0.26194981 -0.33500981
-0.060046002 -0.26189199 -0.33500633
-0.059889801 -0.26188439 -0.33502141
-0.059694111 -0.26188487 -0.33503354
-0.059406668 -0.26189968 -0.33504632
-0.059240997 -0.261915 -0.33502081
-0.059108332 -0.26191834 -0.33504382
-0.058896225 -0.26192442 -0.33504376
-0.058673602 -0.26191899 -0.33507019
-0.058435667 -0.26187265 -0.33505169
-0.058290668 -0.26188734 -0.3350547
-0.058122113 -0.26189879 -0.33505389
-0.057902332 -0.26190498 -0.33504835
-0.057726666 -0.26191351 -0.33504733
-0.057503331 -0.26192632 -0.33504799
-0.057314374 -0.26188099 -0.33503252
-0.075819999 -0.261767 -0.33519799
-0.075734004 -0.2617335 -0.33519202
-0.075446002 -0.26171133 -0.33518466
-0.075279109 -0.26172134 -0.33517542
-0.075106002 -0.26169699 -0.335177
-0.074777335 -0.26167834 -0.33516002
-0.074473247 -0.26170701 -0.3351765
-0.07431557 -0.26169828 -0.33517832
-0.074078999 -0.2617465 -0.335188
-0.073950998 -0.261767 -0.33518031
-0.064811997 -0.26163301 -0.33518901
-0.064726338 -0.26170531 -0.3351787
-0.064462997 -0.261718 -0.33514401
-0.064224005 -0.26169899 -0.335107
-0.064054333 -0.26168081 -0.33505201
-0.063893437 -0.26168552 -0.33504534
-0.063689835 -0.26168936 -0.33501366
-0.063544333 -0.26169536 -0.33501366
-0.060433 -0.26166701 -0.33500549
-0.060282432 -0.26169255 -0.33501574
-0.060072225 -0.26172632 -0.3350133
-0.059892405 -0.2617166 -0.33502159
-0.059691835 -0.26169801 -0.33503866
-0.059593 -0.26164502 -0.33504701
-0.059319664 -0.26169732 -0.33504549
-0.059124775 -0.2617079 -0.33505246
-0.058922667 -0.26171347 -0.33504817
-0.058724575 -0.26173142 -0.33505183
-0.058508746 -0.26169574 -0.33506447
-0.05827345 -0.26167902 -0.3350572
-0.058103997 -0.26168978 -0.3350611
-0.057884332 -0.26169547 -0.33505866
-0.057709668 -0.26170501 -0.335042
-0.057487 -0.261718 -0.33503532
-0.057295814 -0.26170763 -0.33503917
-0.057034001 -0.26175001 -0.33500201
-0.075434998 -0.261572 -0.335186
-0.075296253 -0.26151127 -0.33518901
-0.075038664 -0.26153034 -0.33517566
-0.074758671 -0.261471 -0.33518365
-0.074478336 -0.26147869 -0.33518365
-0.074327327 -0.26148835 -0.33518901
-0.074052997 -0.26143399 -0.335186
-0.073944002 -0.26144201 -0.335195
-0.073717996 -0.26155001 -0.33519301
-0.065023243 -0.26147074 -0.33519173
-0.064851403 -0.2615068 -0.3351818
-0.064732492 -0.26148027 -0.33515427
-0.064447999 -0.26151133 -0.33511066
-0.064211331 -0.26152566 -0.33507565
-0.06403733 -0.26147166 -0.33504882
-0.063903831 -0.26148835 -0.33501998
-0.063711502 -0.26144302 -0.33500999
-0.060449999 -0.26147839 -0.3350136
-0.060268443 -0.2615031 -0.33502591
-0.060085833 -0.26151451 -0.33502415
-0.059907779 -0.26152068 -0.33504248
-0.059711803 -0.26151842 -0.33504599
-0.059577662 -0.26147035 -0.33506098
-0.059300836 -0.26148716 -0.33506986
-0.059108224 -0.26149866 -0.33504656
-0.058904171 -0.26150349 -0.33506748
-0.058726002 -0.261511 -0.33506313
-0.058513802 -0.26153558 -0.33504957
-0.058275625 -0.2614851 -0.33505625
-0.058097601 -0.2614727 -0.3350707
-0.057867002 -0.2614865 -0.33506334
-0.057690665 -0.26149419 -0.33506835
-0.057469998 -0.26150966 -0.33503166
-0.057292394 -0.2615217 -0.33505008
-0.057137001 -0.26149577 -0.33501419
-0.075256251 -0.26128602 -0.33519298
-0.075018495 -0.2612865 -0.33518201
-0.074743494 -0.26129597 -0.33519101
-0.074461997 -0.26127097 -0.33517298
-0.074280992 -0.26128155 -0.33518261
-0.07408075 -0.26127398 -0.33518675
-0.07391575 -0.26128572 -0.33518898
-0.073697999 -0.26130801 -0.33520001
-0.065024503 -0.2613495 -0.3351965
-0.064916596 -0.26126844 -0.33519202
-0.064741172 -0.26128885 -0.33513451
-0.064431332 -0.26130199 -0.33510336
-0.064137399 -0.26130822 -0.33506179
-0.063932501 -0.26130065 -0.33503497
-0.063667998 -0.26126966 -0.33502832
-0.063414 -0.26124901 -0.33500299
-0.061122999 -0.26130131 -0.33500567
-0.060647 -0.26123601 -0.33501199
-0.060445502 -0.26131776 -0.33500898
-0.060280498 -0.261291 -0.33502552
-0.060118664 -0.26130441 -0.33503118
-0.059900749 -0.26131949 -0.33505416
-0.059702571 -0.26131156 -0.33506542
-0.059561998 -0.2612955 -0.33508003
-0.059284169 -0.26127818 -0.33505985
-0.059090443 -0.26128924 -0.33505166
-0.058888003 -0.26129469 -0.33505067
-0.058709335 -0.26130196 -0.33505583
-0.058565333 -0.26130998 -0.33506167
-0.058316 -0.26131377 -0.33507401
-0.058111876 -0.26129723 -0.33504838
-0.057899144 -0.26127717 -0.33504969
-0.057692997 -0.26127642 -0.33504558
-0.057454001 -0.26130101 -0.33502033
-0.057285443 -0.26131243 -0.33504725
-0.057135668 -0.26134017 -0.33501032
-0.075280428 -0.26108417 -0.33518013
-0.075100288 -0.26110473 -0.33517599
-0.075000003 -0.26104501 -0.335152
-0.074731663 -0.26112401 -0.33516231
-0.074449003 -0.261098 -0.33515501
-0.074305005 -0.26107365 -0.33516753
-0.074105166 -0.26108 -0.3351835
-0.073886506 -0.26109669 -0.33516517
-0.073674999 -0.261031 -0.33519399
-0.064985 -0.26114199 -0.335197
-0.064721167 -0.26107833 -0.33517316
-0.064412661 -0.26109204 -0.33512965
-0.064104833 -0.26111335 -0.33509484
-0.063915774 -0.26112565 -0.33506921
-0.063709572 -0.26113072 -0.33503485
-0.063497752 -0.26110452 -0.33501998
-0.063344002 -0.26106381 -0.33500701
-0.060639001 -0.26113099 -0.335006
-0.060280144 -0.26109031 -0.33503899
-0.060100999 -0.2610954 -0.33503854
-0.059913665 -0.26110181 -0.33504963
-0.059709888 -0.26111019 -0.33505657
-0.059548665 -0.26112166 -0.33506033
-0.059294 -0.26111266 -0.33506265
-0.059105497 -0.26107877 -0.33504748
-0.058889143 -0.26107484 -0.33504471
-0.058691997 -0.26109251 -0.33505833
-0.058549002 -0.26110068 -0.33504567
-0.058292449 -0.26111478 -0.33505535
-0.058130126 -0.26112136 -0.33503401
-0.057932004 -0.26110098 -0.33505702
-0.057701562 -0.26107487 -0.33504471
-0.057436664 -0.26109201 -0.33501768
-0.057276752 -0.26111197 -0.33502513
-0.075666502 -0.26090151 -0.33518299
-0.075466998 -0.2608743 -0.33518371
-0.075302131 -0.2608926 -0.33516189
-0.075130142 -0.26088342 -0.33515087
-0.074989334 -0.26090601 -0.33514869
-0.074714996 -0.26091567 -0.33515236
-0.074434668 -0.26092467 -0.33515599
-0.074290752 -0.26090026 -0.33516753
-0.074074008 -0.26088721 -0.33517179
-0.073885001 -0.26090425 -0.33517724
-0.073664002 -0.26089099 -0.33519399
-0.06470675 -0.26090401 -0.3351745
-0.064393997 -0.26088235 -0.33514431
-0.064088166 -0.26090518 -0.33508885
