# .PCD v0.7 - Point Cloud Data file format
VERSION 0.7
FIELDS x y z
SIZE 4 4 4
TYPE F F F
COUNT 1 1 1
WIDTH 1378
HEIGHT 1
VIEWPOINT 0 0 0 1 0 0 0
POINTS 1378
DATA ascii
0.071483999 -0.077822998 -0.232474
0.071487002 -0.077744998 -0.232482
0.071489997 -0.077665001 -0.23248599
0.071493 -0.077588998 -0.232482
0.071497001 -0.077510998 -0.232484
0.071500003 -0.077432998 -0.23248599
0.071502 -0.077357002 -0.23247699
0.071505003 -0.077279001 -0.23246901
0.071507998 -0.077201001 -0.232473
0.071512997 -0.077120997 -0.232499
0.071516 -0.077041 -0.232509
0.071519002 -0.076964997 -0.23249701
0.071520999 -0.076889001 -0.23247799
0.071523003 -0.076814003 -0.232462
0.071525998 -0.076738 -0.232458
0.071529001 -0.07666 -0.232456
0.071532004 -0.076582 -0.232458
0.071535997 -0.076504 -0.232464
0.071539 -0.076425999 -0.23246901
0.071542002 -0.076347999 -0.232467
0.071543999 -0.076269999 -0.232457
0.071547002 -0.076194003 -0.23245101
0.071549997 -0.076116003 -0.232453
0.071552999 -0.076038003 -0.232449
0.071556002 -0.075962998 -0.23243999
0.071558997 -0.075887002 -0.23243199
0.071561001 -0.075809002 -0.232428
0.071563996 -0.075732999 -0.23242401
0.071566999 -0.075654998 -0.23242401
0.071570002 -0.075576998 -0.23242299
0.071574003 -0.075498998 -0.232425
0.071576998 -0.075420998 -0.232425
0.07158 -0.075342998 -0.232421
0.071581997 -0.075268 -0.23241501
0.071585 -0.075191997 -0.23241299
0.071588002 -0.075113997 -0.23241
0.071590997 -0.075035997 -0.23241
0.071594998 -0.074956 -0.23241401
0.071598001 -0.074878 -0.23242199
0.071601003 -0.074801996 -0.23242
0.071603999 -0.074724004 -0.23241401
0.071607001 -0.074648 -0.232409
0.071608998 -0.07457 -0.232399
0.071612 -0.074495003 -0.23238499
0.071615003 -0.074418999 -0.23238701
0.071617998 -0.074340999 -0.23238499
0.071620002 -0.074265003 -0.232373
0.071622998 -0.074187003 -0.232374
0.071626998 -0.074106999 -0.23238
0.071629003 -0.074031003 -0.232372
0.071631998 -0.073954999 -0.23236001
0.071635 -0.073876999 -0.232366
0.071638003 -0.073798999 -0.23236801
0.071640998 -0.073720999 -0.23236699
0.071562 -0.086182997 -0.235047
0.071560003 -0.086113997 -0.23493899
0.071556002 -0.086048 -0.234816
0.071555004 -0.085978001 -0.23473001
0.071553998 -0.085908003 -0.234659
0.071552999 -0.085837997 -0.234565
0.071552001 -0.085767999 -0.234487
0.071552001 -0.085694999 -0.23443
0.071552001 -0.085624002 -0.234368
0.071552001 -0.085552 -0.234308
0.071552001 -0.085478999 -0.234245
0.071549997 -0.085409001 -0.23415899
0.071548998 -0.085340999 -0.23408
0.071548 -0.085270002 -0.23400199
0.071548 -0.085198 -0.23394001
0.071548998 -0.085127003 -0.233895
0.071548998 -0.085051998 -0.23384701
0.071551003 -0.084978998 -0.23380899
0.071552001 -0.084905997 -0.233776
0.071552999 -0.084830001 -0.233742
0.071555004 -0.084755003 -0.233712
0.071556002 -0.084682003 -0.233676
0.071557999 -0.084606998 -0.233647
0.071558997 -0.084532999 -0.23360901
0.071560003 -0.084459998 -0.233567
0.071561001 -0.084385 -0.233539
0.071562998 -0.084310003 -0.233512
0.071563996 -0.084237002 -0.233472
0.071565002 -0.084160998 -0.23344401
0.071566999 -0.084087998 -0.23341601
0.071566999 -0.084014997 -0.233363
0.071567997 -0.083942004 -0.233317
0.071571 -0.083866 -0.233307
0.071574003 -0.083788 -0.233307
0.071575001 -0.083714999 -0.233272
0.071576998 -0.083640002 -0.23325001
0.07158 -0.083562002 -0.233244
0.071581997 -0.083485998 -0.23322999
0.071584001 -0.083411001 -0.23321301
0.071585 -0.083337002 -0.23317701
0.071586996 -0.083264001 -0.23314101
0.071588002 -0.083189003 -0.23310301
0.071589999 -0.083116002 -0.23308399
0.071592003 -0.083038002 -0.233064
0.071593001 -0.082966998 -0.233026
0.071594 -0.082892001 -0.232995
0.071595997 -0.082815997 -0.23297299
0.071597002 -0.082745001 -0.232935
0.071598999 -0.082670003 -0.23290101
0.071599998 -0.082595997 -0.23287199
0.071602002 -0.082520999 -0.232848
0.071603999 -0.082445003 -0.232838
0.071607001 -0.082369998 -0.232824
0.071608998 -0.082294002 -0.23280101
0.071611002 -0.082218997 -0.232779
0.071612999 -0.082144998 -0.232761
0.071615003 -0.082066998 -0.232749
0.071617 -0.081992 -0.232733
0.071618997 -0.081915997 -0.232712
0.071621001 -0.081843004 -0.232692
0.071624003 -0.081765004 -0.23268799
0.071626998 -0.081689 -0.232682
0.071629003 -0.081612997 -0.232665
0.071630999 -0.081537999 -0.232647
0.071634002 -0.081459999 -0.232639
0.071636997 -0.081384003 -0.23263299
0.07164 -0.081306003 -0.232629
0.071641997 -0.081230998 -0.23261701
0.071644001 -0.081155002 -0.2326
0.071647003 -0.081078999 -0.232586
0.071649 -0.081004001 -0.232576
0.071650997 -0.080927998 -0.23255999
0.071653999 -0.080852002 -0.23255099
0.071657002 -0.080774002 -0.232549
0.071659997 -0.080696002 -0.232549
0.071663 -0.080620997 -0.232547
0.071666002 -0.080542997 -0.232547
0.071668997 -0.080464996 -0.23254099
0.071672 -0.080387004 -0.23254
0.071675003 -0.080311 -0.232536
0.071677998 -0.080233 -0.23253199
0.071681 -0.080155 -0.23253199
0.071684003 -0.080077 -0.23253199
0.071686998 -0.080000997 -0.232526
0.071690001 -0.079922996 -0.232527
0.071693003 -0.079844996 -0.232527
0.071695998 -0.079769 -0.23252299
0.071699001 -0.079691999 -0.23252299
0.071702003 -0.079611003 -0.232529
0.071704999 -0.079533003 -0.23253299
0.071709 -0.079455003 -0.232538
0.071712002 -0.079377003 -0.23254199
0.071716003 -0.079299003 -0.23255201
0.071718998 -0.079218999 -0.232554
0.071722001 -0.079143003 -0.23255
0.071723998 -0.079066999 -0.23254199
0.071727 -0.078989998 -0.23254
0.071731001 -0.078910999 -0.232545
0.071734004 -0.078831002 -0.23255099
0.071737997 -0.078753002 -0.232557
0.071741 -0.078675002 -0.232555
0.071742997 -0.078599997 -0.232545
0.071745999 -0.078521997 -0.23254099
0.071749002 -0.078443997 -0.23254199
0.071751997 -0.078368001 -0.232538
0.071754999 -0.078290001 -0.23253199
0.071757004 -0.078213997 -0.232526
0.071759999 -0.078135997 -0.23252
0.071763001 -0.078061 -0.23251399
0.071765997 -0.077982999 -0.23251501
0.071769997 -0.077904001 -0.23252299
0.071773 -0.077823997 -0.23253299
0.071776003 -0.077745996 -0.23253299
0.071778998 -0.077667996 -0.23253299
0.071782999 -0.077590004 -0.23253299
0.071786001 -0.077514 -0.23253199
0.071787998 -0.077436998 -0.23252399
0.071791001 -0.077361003 -0.23251
0.071792997 -0.077284999 -0.23249599
0.071795002 -0.077210002 -0.232484
0.071797997 -0.077133998 -0.23247699
0.071800999 -0.077055998 -0.23247699
0.071804002 -0.076977998 -0.232471
0.071806997 -0.076899998 -0.232471
0.07181 -0.076821998 -0.232475
0.071813002 -0.076743998 -0.232475
0.071815997 -0.076668002 -0.23246799
0.071819 -0.076591998 -0.232462
0.071822003 -0.076514997 -0.232458
0.071823999 -0.076439001 -0.232448
0.071827002 -0.076362997 -0.232436
0.071828999 -0.076287001 -0.232427
0.071832001 -0.076209001 -0.232427
0.071836002 -0.076128997 -0.232439
0.071838997 -0.076050997 -0.232437
0.071842 -0.075975001 -0.232429
0.071845002 -0.075897001 -0.232429
0.071847998 -0.075819001 -0.23243099
0.071851999 -0.075739004 -0.23244201
0.071855001 -0.075661004 -0.232448
0.071857996 -0.075585999 -0.232436
0.07186 -0.075510003 -0.23242
0.071861997 -0.075433999 -0.23241
0.071865 -0.075358003 -0.232399
0.071866997 -0.075282998 -0.23238499
0.071869999 -0.075207002 -0.232373
0.071872003 -0.075130999 -0.232363
0.071874999 -0.075055003 -0.232357
0.071878001 -0.074978001 -0.23235799
0.071881004 -0.074900001 -0.23235799
0.071883999 -0.074823998 -0.232352
0.071887001 -0.074745998 -0.232348
0.071889997 -0.074667998 -0.232354
0.071892999 -0.074588001 -0.232356
0.071896002 -0.074511997 -0.23235101
0.071897998 -0.074436001 -0.23233899
0.071901001 -0.074359998 -0.23233099
0.071904004 -0.074282996 -0.232325
0.071906999 -0.074207 -0.23232099
0.071910001 -0.074127004 -0.232327
0.071912996 -0.074051 -0.23232201
0.071915001 -0.073974997 -0.23231199
0.071918003 -0.073899001 -0.232306
0.071920998 -0.073821001 -0.232298
0.071924001 -0.073743001 -0.232298
0.071870998 -0.086127996 -0.23495901
0.071869001 -0.086057998 -0.234862
0.071869001 -0.085988 -0.23479
0.071866997 -0.085919999 -0.23469301
0.071864001 -0.085851997 -0.23459101
0.071865 -0.085777 -0.23453701
0.071865 -0.085707001 -0.234474
0.071864001 -0.085637003 -0.234396
0.071864001 -0.085564002 -0.23434
0.071864001 -0.085491002 -0.234277
0.071864001 -0.085418999 -0.23421501
0.071864001 -0.085348003 -0.23416001
0.071864001 -0.085275002 -0.234098
0.071863003 -0.085205004 -0.234028
0.071860999 -0.085137002 -0.233933
0.071860999 -0.085064001 -0.23387299
0.071863003 -0.084988996 -0.23385701
0.071865998 -0.084913 -0.23383801
0.071865998 -0.08484 -0.23378199
0.071865998 -0.084770001 -0.233722
0.071865998 -0.084697001 -0.23367099
0.071866997 -0.084624 -0.233629
0.071868002 -0.084550999 -0.233583
0.071868002 -0.084477998 -0.23353
0.071869001 -0.084404998 -0.233494
0.071869999 -0.084331997 -0.23345201
0.071869999 -0.084261 -0.23339801
0.071870998 -0.084187999 -0.233353
0.071873002 -0.084113002 -0.23332299
0.071874 -0.084036998 -0.233299
0.071875997 -0.083963998 -0.23326799
0.071878001 -0.083889 -0.23323999
0.071879998 -0.083812997 -0.23322199
0.071881004 -0.083740003 -0.233192
0.071883 -0.083664998 -0.233165
0.071884997 -0.083589002 -0.233147
0.071887001 -0.083512999 -0.23312899
0.071888998 -0.083438002 -0.233101
0.071889997 -0.083365001 -0.23307601
0.071892001 -0.083288997 -0.233052
0.071893997 -0.083214 -0.233026
0.071896002 -0.083140001 -0.23300201
0.071897998 -0.083065003 -0.232977
0.071900003 -0.082989 -0.23295499
0.071901001 -0.082915999 -0.23292901
0.071902998 -0.082841001 -0.232895
0.071904004 -0.082768001 -0.23286401
0.071906 -0.082691997 -0.23284
0.071907997 -0.082616001 -0.23283
0.071911 -0.082540996 -0.23282
0.071912996 -0.082465 -0.232802
0.071915001 -0.082390003 -0.232779
0.071916997 -0.082314 -0.23275501
0.071919002 -0.082240999 -0.232733
0.071920998 -0.082165003 -0.232715
0.071923003 -0.082088999 -0.232704
0.071925998 -0.082010999 -0.232704
0.071929 -0.081933998 -0.23269799
0.071930997 -0.081858002 -0.23267999
0.071934 -0.081784002 -0.232664
0.071935996 -0.081707001 -0.232655
0.071938999 -0.081630997 -0.232647
0.071941003 -0.081555001 -0.23263299
0.071943 -0.081479996 -0.23261701
0.071946003 -0.081401996 -0.23261701
0.071950004 -0.081324004 -0.23262
0.071952 -0.081246004 -0.232614
0.071955003 -0.08117 -0.2326
0.071957998 -0.081093997 -0.232594
0.071961001 -0.081015997 -0.232592
0.071962997 -0.080940999 -0.232585
0.071966 -0.080862999 -0.232575
0.071969002 -0.080787003 -0.23256899
0.071971998 -0.080709003 -0.23257101
0.071975 -0.080631003 -0.23257101
0.071978003 -0.080553003 -0.23256899
0.071980998 -0.080475003 -0.232576
0.071984001 -0.080397002 -0.232576
0.071987003 -0.080320999 -0.232568
0.071989998 -0.080242999 -0.232564
0.071993001 -0.080164999 -0.232564
0.071996003 -0.080089003 -0.23256201
0.071998999 -0.080012001 -0.23256101
0.072002001 -0.079934001 -0.232559
0.072005004 -0.079856001 -0.232559
0.072007999 -0.079778001 -0.232559
0.072011001 -0.079700001 -0.232559
0.072013997 -0.079622 -0.23256101
0.072017998 -0.079543002 -0.232573
0.072021 -0.079465002 -0.23257799
0.072024003 -0.079388 -0.232576
0.072028004 -0.07931 -0.232576
0.072030999 -0.079228997 -0.232582
0.072034001 -0.079150997 -0.23258799
0.072036996 -0.079075001 -0.232584
0.072039999 -0.078997999 -0.232581
0.072043002 -0.078919999 -0.232583
0.072047003 -0.078838997 -0.232595
0.072051004 -0.078760996 -0.232601
0.072053 -0.078685001 -0.232595
0.072056003 -0.078607999 -0.232581
0.072058998 -0.078532003 -0.232577
0.072062001 -0.078454003 -0.23258001
0.072065003 -0.078376003 -0.23257799
0.072067998 -0.078298002 -0.232584
0.072071999 -0.078217998 -0.232594
0.072075002 -0.078139998 -0.232592
0.072076999 -0.078064002 -0.232582
0.072081 -0.077986002 -0.23258699
0.072084002 -0.077908002 -0.23258901
0.072086997 -0.077830002 -0.23258699
0.07209 -0.077752002 -0.232583
0.072093002 -0.077674001 -0.232583
0.072095998 -0.077597998 -0.232577
0.072099 -0.077519998 -0.232576
0.072102003 -0.077443004 -0.232574
0.072104 -0.077367 -0.232566
0.072107002 -0.077289 -0.232558
0.072109997 -0.077212997 -0.23255999
0.072113998 -0.077133 -0.232566
0.072117001 -0.077055 -0.23256201
0.072118998 -0.076978996 -0.232555
0.072122 -0.076901004 -0.232549
0.072125003 -0.076825 -0.232545
0.072127998 -0.076750003 -0.23254099
0.072131 -0.076672003 -0.232537
0.072132997 -0.076594003 -0.23253401
0.072136 -0.076516002 -0.23253
0.072139002 -0.076439999 -0.232522
0.072141998 -0.076364003 -0.23251601
0.072145 -0.076287001 -0.23251
0.072146997 -0.076210998 -0.23250499
0.072150998 -0.076131001 -0.23250701
0.072154 -0.076053001 -0.232513
0.072157003 -0.075975001 -0.23251501
0.072159998 -0.075897001 -0.232519
0.072163999 -0.075818002 -0.23252299
0.072167002 -0.075741 -0.232519
0.072168998 -0.075664997 -0.23251399
0.072172999 -0.075586997 -0.232518
0.072176002 -0.075508997 -0.23251399
0.072177999 -0.075430997 -0.232508
0.072182 -0.075352997 -0.232508
0.072183996 -0.075277001 -0.23249801
0.072186001 -0.075202003 -0.23248699
0.072189003 -0.075126 -0.232473
0.072191 -0.075049996 -0.23246101
0.072194003 -0.074974 -0.23245101
0.072196998 -0.074896999 -0.232449
0.0722 -0.074818 -0.232454
0.072203003 -0.074743003 -0.232448
0.072205 -0.074666999 -0.232434
0.072208002 -0.074588999 -0.23243
0.072210997 -0.074510999 -0.23243199
0.072214 -0.074435003 -0.232427
0.072217003 -0.074357003 -0.232425
0.072219998 -0.074279003 -0.232421
0.072223 -0.074203998 -0.23241299
0.072224997 -0.074128002 -0.23240501
0.072228 -0.074051999 -0.23239499
0.072229996 -0.073976003 -0.232384
0.072232999 -0.073899001 -0.23237801
0.072237 -0.073820002 -0.23238599
0.072238997 -0.073743001 -0.232382
0.073064998 -0.083806999 -0.233089
0.073067002 -0.083731003 -0.233069
0.073068999 -0.083655998 -0.23304901
0.073071003 -0.083580002 -0.23303699
0.073073998 -0.083502002 -0.233034
0.073077001 -0.083425999 -0.233022
0.073078997 -0.083351001 -0.233006
0.073082 -0.083273001 -0.23300201
0.073085003 -0.083195001 -0.232998
0.073086999 -0.083118998 -0.232981
0.073089004 -0.083045997 -0.232959
0.073090002 -0.082970001 -0.232931
0.073091999 -0.082895003 -0.232905
0.073094003 -0.082822002 -0.232878
0.073095001 -0.082749002 -0.232842
0.073096 -0.082675003 -0.232812
0.073097996 -0.082599998 -0.232786
0.073100001 -0.082526997 -0.23275501
0.073100999 -0.082451001 -0.23272499
0.073103003 -0.082378 -0.232695
0.073104002 -0.082304999 -0.23266
0.073105 -0.082234003 -0.23262
0.073105998 -0.082157999 -0.232586
0.073108003 -0.082084998 -0.232566
0.073120996 -0.081634 -0.23245201
0.073123001 -0.081557997 -0.232434
0.073124997 -0.081482001 -0.23242199
0.073128 -0.081407003 -0.232411
0.073129997 -0.081331 -0.232399
0.073132999 -0.081253 -0.232389
0.073135003 -0.081177004 -0.232383
0.073138997 -0.081099004 -0.23238499
0.073142 -0.081021003 -0.232389
0.073145002 -0.080945 -0.232384
0.073146999 -0.080867998 -0.232372
0.073149003 -0.080792002 -0.23235799
0.073151998 -0.080718003 -0.23233999
0.073154002 -0.080641001 -0.23232999
0.073156998 -0.080563001 -0.232335
0.073160999 -0.080485001 -0.232335
0.073164001 -0.080408998 -0.232335
0.073167004 -0.080330998 -0.23234101
0.073169999 -0.080251001 -0.232345
0.073173001 -0.080174997 -0.232345
0.073175997 -0.080096997 -0.232336
0.073178001 -0.080021001 -0.232324
0.073182002 -0.079943001 -0.23233201
0.073186003 -0.079862997 -0.232354
0.073190004 -0.079782002 -0.23237
0.073192999 -0.079704002 -0.232372
0.073196001 -0.079626001 -0.23237
0.073198996 -0.079550996 -0.23236699
0.073201999 -0.079472996 -0.23236699
0.073206 -0.079395004 -0.23236901
0.073209003 -0.079317003 -0.23236901
0.073211998 -0.079239003 -0.232365
0.073214002 -0.079163 -0.232357
0.073216997 -0.079085 -0.232354
0.07322 -0.079007 -0.23235799
0.073224001 -0.078927003 -0.232372
0.073228002 -0.078849003 -0.23237599
0.073230997 -0.078771003 -0.232384
0.073233999 -0.078693002 -0.232384
0.073237002 -0.078615002 -0.23238599
0.073241003 -0.078537002 -0.232389
0.073243998 -0.078459002 -0.232391
0.073247001 -0.078380004 -0.23239499
0.073251002 -0.078299999 -0.232403
0.073253997 -0.078221999 -0.23241299
0.073256999 -0.078143999 -0.23241501
0.073260002 -0.078065999 -0.23241299
0.073262997 -0.077990003 -0.23241
0.073266 -0.077912003 -0.23241
0.073270001 -0.077834003 -0.232412
0.073273003 -0.077756003 -0.232412
0.073275998 -0.077678002 -0.23241401
0.073279999 -0.077597998 -0.23242199
0.073283002 -0.077519998 -0.232426
0.073285997 -0.077444002 -0.23242299
0.073288999 -0.077366002 -0.232419
0.073292002 -0.077288002 -0.23242299
0.073294997 -0.077210002 -0.232425
0.073298 -0.077133 -0.232421
0.073301002 -0.077055 -0.232417
0.073303998 -0.076977 -0.23242
0.073307998 -0.076899 -0.232428
0.073311001 -0.076820999 -0.232428
0.073312998 -0.076742999 -0.23242199
0.073316999 -0.076667003 -0.23242199
0.073320001 -0.076586999 -0.232426
0.073322996 -0.076508999 -0.232436
0.073326997 -0.076428004 -0.232447
0.073330998 -0.076350003 -0.232453
0.073334001 -0.076269999 -0.23246101
0.073338002 -0.076190002 -0.232471
0.073340997 -0.076113999 -0.232473
0.073344 -0.076035999 -0.232467
0.073345996 -0.075960003 -0.23246101
0.073348999 -0.075882003 -0.232454
0.073352002 -0.075806998 -0.23244999
0.073354997 -0.075728998 -0.23244999
0.073357999 -0.075653002 -0.23243999
0.073360004 -0.075575002 -0.23243199
0.073363997 -0.075497001 -0.232434
0.073367 -0.075416997 -0.232447
0.073371001 -0.075338997 -0.23245899
0.073375002 -0.075259 -0.232467
0.073376998 -0.075181 -0.23246101
0.073380001 -0.075107001 -0.232449
0.073383003 -0.075029001 -0.23244099
0.073385 -0.074952997 -0.232434
0.073388003 -0.074878 -0.23242199
0.073968999 -0.085800998 -0.23458999
0.073968999 -0.085731 -0.234512
0.073968001 -0.085660003 -0.23444299
0.073967002 -0.085589997 -0.234363
0.073965997 -0.085518003 -0.23428901
0.073965997 -0.085446998 -0.234226
0.073965997 -0.085376002 -0.234164
0.073964998 -0.085303999 -0.234092
0.073963001 -0.085238002 -0.23398501
0.073960997 -0.085167997 -0.233895
0.073962003 -0.085097 -0.233842
0.073962003 -0.085024998 -0.23379201
0.073963001 -0.084951997 -0.233742
0.073962003 -0.084881 -0.23368099
0.073963001 -0.084807999 -0.233623
0.073963001 -0.084734999 -0.233577
0.073964 -0.084661998 -0.233538
0.073964998 -0.084588997 -0.23349801
0.073967002 -0.084514 -0.23346201
0.073967002 -0.084440999 -0.233421
0.073968999 -0.084367998 -0.233391
0.073969997 -0.084292002 -0.23335899
0.073972002 -0.084219001 -0.233325
0.073973 -0.084146 -0.23328599
0.073973998 -0.084071003 -0.233246
0.073973998 -0.083999999 -0.23319601
0.073974997 -0.083926998 -0.23315699
0.073977001 -0.083852001 -0.233135
0.073978998 -0.083775997 -0.23311301
0.073981002 -0.083701 -0.23308501
0.073982 -0.083627 -0.233054
0.073983997 -0.083552003 -0.233036
0.073987 -0.083474003 -0.23303001
0.073990002 -0.083397999 -0.233022
0.073991999 -0.083323002 -0.233006
0.073994003 -0.083246998 -0.23299301
0.073996 -0.083171003 -0.232969
0.073997997 -0.083095998 -0.232939
0.073999003 -0.083022997 -0.23291101
0.074001998 -0.082947001 -0.232896
0.074004002 -0.082869001 -0.23288999
0.074006997 -0.082794003 -0.23288
0.074009001 -0.082718 -0.23285601
0.074010998 -0.082643002 -0.232834
0.074013002 -0.082566999 -0.23281699
0.074014999 -0.082491003 -0.23280101
0.074017003 -0.082415998 -0.232783
0.074019 -0.082341999 -0.232759
0.074020997 -0.082267001 -0.23274
0.074023001 -0.082190998 -0.232722
0.074024998 -0.082116 -0.232702
0.074027002 -0.082039997 -0.232682
0.074028999 -0.081964999 -0.23266099
0.074032001 -0.081889004 -0.232647
0.074033998 -0.081813999 -0.232631
0.074036002 -0.081738003 -0.23261701
0.074038997 -0.081661999 -0.23260701
0.074041001 -0.081587002 -0.23258799
0.074042998 -0.081513003 -0.232564
0.074045002 -0.081435002 -0.23255
0.074047998 -0.081359997 -0.232548
0.074051 -0.081281997 -0.232539
0.074054003 -0.081206001 -0.232535
0.074056998 -0.081128001 -0.232537
0.074059002 -0.081050001 -0.232529
0.074061997 -0.080973998 -0.232519
0.074064001 -0.080899 -0.23250701
0.074066997 -0.080822997 -0.23249599
0.074069999 -0.080744997 -0.232492
0.074073002 -0.080666997 -0.232494
0.074075997 -0.080591001 -0.23248801
0.074078001 -0.080513999 -0.23247799
0.074081004 -0.080438003 -0.23247699
0.074083999 -0.080360003 -0.23247699
0.074087001 -0.080282003 -0.232471
0.074089997 -0.080205999 -0.232465
0.074092999 -0.080127999 -0.232463
0.074096002 -0.080049999 -0.23246901
0.074100003 -0.079971999 -0.232472
0.074102998 -0.079893999 -0.232472
0.074105002 -0.079815999 -0.232466
0.074107997 -0.079740003 -0.232462
0.074111 -0.079662003 -0.23246001
0.074115001 -0.079584002 -0.23246799
0.074118003 -0.079503998 -0.232472
0.074120998 -0.079428002 -0.232471
0.074124001 -0.079350002 -0.232471
0.074127004 -0.079272002 -0.232471
0.074130997 -0.079194002 -0.232475
0.074134 -0.079116002 -0.232475
0.074137002 -0.079038002 -0.23247901
0.074141003 -0.078957997 -0.232491
0.074143998 -0.078879997 -0.2325
0.074147999 -0.0788 -0.23250601
0.074151002 -0.078722 -0.23251
0.074153997 -0.078644 -0.23251
0.074157 -0.078567997 -0.232504
0.074160002 -0.078489996 -0.232494
0.074161999 -0.078414001 -0.232489
0.074165002 -0.078336 -0.232491
0.074169002 -0.078258 -0.23249701
0.074171998 -0.078178003 -0.23249701
0.074175 -0.078102 -0.23249499
0.074178003 -0.078024 -0.23249499
0.074180998 -0.077946 -0.23249599
0.074184 -0.077868998 -0.232494
0.074187003 -0.077790998 -0.23249599
0.074189998 -0.077712998 -0.232494
0.074193001 -0.077637002 -0.232484
0.074196003 -0.077560998 -0.232474
0.074198 -0.077482998 -0.232471
0.074202001 -0.077404998 -0.23247699
0.074205004 -0.077325001 -0.232485
0.074207999 -0.077248998 -0.232485
0.074212 -0.077169001 -0.232483
0.074215002 -0.077092998 -0.232485
0.074217997 -0.077014998 -0.232481
0.074220002 -0.076936997 -0.23247799
0.074224003 -0.076858997 -0.23248
0.074226998 -0.076780997 -0.232482
0.07423 -0.076702997 -0.232482
0.074233003 -0.076624997 -0.232482
0.074235998 -0.076549999 -0.23247799
0.074239001 -0.076471999 -0.232475
0.074242003 -0.076393999 -0.232467
0.074244 -0.076318003 -0.232465
0.074247003 -0.076240003 -0.232463
0.074251004 -0.076162003 -0.232463
0.074253999 -0.076084003 -0.23246101
0.074257001 -0.076006003 -0.232462
0.074259996 -0.075929999 -0.232458
0.074262001 -0.075851999 -0.232454
0.074266002 -0.075773999 -0.232462
0.074268997 -0.075694002 -0.23246799
0.074271999 -0.075617999 -0.232462
0.074275002 -0.075540997 -0.232453
0.074277997 -0.075465001 -0.232449
0.074281 -0.075387001 -0.232453
0.074284002 -0.075309001 -0.232457
0.074286997 -0.075231001 -0.232453
0.07429 -0.075153001 -0.232445
0.074293002 -0.075075001 -0.23244999
0.074297003 -0.074997 -0.232458
0.074299999 -0.074919 -0.232454
0.074302003 -0.074841 -0.232448
0.074304998 -0.074764997 -0.23243999
0.074308001 -0.074686997 -0.232434
0.074312001 -0.074608997 -0.232446
0.074314997 -0.074529 -0.23246101
0.074317999 -0.074450999 -0.232455
0.074321002 -0.074375004 -0.232453
0.074323997 -0.074294999 -0.23245101
0.074326999 -0.074219003 -0.23245101
0.074330002 -0.074141003 -0.232445
0.074332997 -0.074064001 -0.23244201
0.074336 -0.073986001 -0.232448
0.074415997 -0.085892998 -0.234716
0.074414998 -0.085822999 -0.23463599
0.074414 -0.085754998 -0.23455299
0.074412003 -0.085685 -0.23446099
0.074409999 -0.085616998 -0.23435999
0.074409001 -0.085547 -0.234282
0.074409001 -0.085473999 -0.23422
0.074409001 -0.085404001 -0.23415899
0.074409001 -0.085331 -0.234093
0.074405998 -0.085265003 -0.23398399
0.074404001 -0.085198 -0.23389
0.074403003 -0.085127003 -0.233805
0.074401997 -0.085059002 -0.233733
0.074401997 -0.084986001 -0.23367301
0.074403003 -0.084913999 -0.23361801
0.074403003 -0.084843002 -0.23356
0.074404001 -0.084770001 -0.233522
0.074405 -0.084693998 -0.233493
0.074406996 -0.084619001 -0.23346099
0.074408002 -0.084546 -0.233419
0.074409001 -0.084472999 -0.233386
0.074410997 -0.084397003 -0.23336001
0.074412003 -0.084324002 -0.233328
0.074414 -0.084248997 -0.2333
0.074414998 -0.084174 -0.23326699
0.074415997 -0.084100001 -0.233233
0.074418001 -0.084025003 -0.233209
0.074421003 -0.083949 -0.233193
0.074422002 -0.083874002 -0.23316801
0.074423999 -0.083801001 -0.233138
0.074426003 -0.083724998 -0.233118
0.074428 -0.08365 -0.233098
0.074429996 -0.083573997 -0.233081
0.074432001 -0.083498001 -0.23306499
0.074433997 -0.083423004 -0.23304699
0.074436001 -0.083347 -0.23302101
0.074437998 -0.083272003 -0.232997
0.074440002 -0.083195999 -0.23298
0.074441999 -0.083121002 -0.232962
0.074445002 -0.083044998 -0.23294599
0.074446999 -0.082970001 -0.23292799
0.074449003 -0.082893997 -0.232907
0.074450999 -0.082819 -0.232885
0.074453004 -0.082742997 -0.232871
0.074455 -0.082667001 -0.232859
0.074458003 -0.082592003 -0.232841
0.07446 -0.082516 -0.232824
0.074461997 -0.082441002 -0.232802
0.074464001 -0.082364999 -0.23277999
0.074465998 -0.082289003 -0.23277
0.074469 -0.082212001 -0.232767
0.074470997 -0.082135998 -0.232751
0.074473999 -0.082060002 -0.232733
0.074476004 -0.081984997 -0.232721
0.074478 -0.081909001 -0.23270901
0.074479997 -0.081834003 -0.232684
0.074482001 -0.081759997 -0.23266201
0.074484996 -0.081681997 -0.232658
0.074487001 -0.081606001 -0.232646
0.074490003 -0.081531003 -0.232628
0.074492 -0.081455 -0.232613
0.074493997 -0.081380002 -0.232593
0.074496001 -0.081303999 -0.23257101
0.074499004 -0.081228003 -0.232565
0.074501999 -0.081150003 -0.232568
0.074505001 -0.081072003 -0.232568
0.074506998 -0.080996998 -0.232556
0.074510001 -0.080918998 -0.23254199
0.074511997 -0.080843002 -0.23253
0.074515 -0.080766998 -0.232529
0.074518003 -0.080689996 -0.23252501
0.074520998 -0.080611996 -0.23252501
0.074524 -0.080534004 -0.23252299
0.074527003 -0.080458 -0.23251501
0.074529 -0.080381997 -0.23250701
0.074532002 -0.080303997 -0.232502
0.074534997 -0.080228001 -0.232494
0.074538 -0.080150999 -0.232484
0.074539997 -0.080075003 -0.23247799
0.074542999 -0.079999 -0.23247001
0.074546002 -0.079921 -0.23246901
0.074548997 -0.079843 -0.232467
0.074552 -0.079764999 -0.232467
0.074555002 -0.079686999 -0.232465
0.074557997 -0.079612002 -0.23245899
0.074561 -0.079534002 -0.232453
0.074564002 -0.079456002 -0.232453
0.074566998 -0.079378001 -0.232456
0.07457 -0.079300001 -0.232464
0.074574001 -0.079218999 -0.232474
0.074577004 -0.079144001 -0.23247001
0.074579999 -0.079066001 -0.232462
0.074583001 -0.078988001 -0.23246001
0.074585997 -0.078910001 -0.232467
0.074589998 -0.078832 -0.23247699
0.074593 -0.078754 -0.23247699
0.074596003 -0.078676 -0.23247901
0.074598998 -0.078596003 -0.232481
0.074602 -0.07852 -0.232483
0.074605003 -0.078442 -0.232481
0.074607998 -0.078364 -0.232474
0.074611001 -0.078287996 -0.232474
0.074615002 -0.078207999 -0.232482
0.074617997 -0.078129999 -0.23248599
0.074620999 -0.078051999 -0.232484
0.074624002 -0.077973999 -0.232482
0.074626997 -0.077895999 -0.232489
0.074630998 -0.077816002 -0.23249701
0.074634001 -0.077739999 -0.232493
0.074635997 -0.077664003 -0.232483
0.074639 -0.077586003 -0.232483
0.074643001 -0.077508003 -0.232483
0.074644998 -0.077430002 -0.232473
0.074648 -0.077354997 -0.232464
0.074649997 -0.077279001 -0.232456
0.074653 -0.077201001 -0.232456
0.074657001 -0.077123001 -0.232462
0.074660003 -0.077042997 -0.232466
0.074663997 -0.076962002 -0.23247799
0.074667998 -0.076884001 -0.232493
0.074671 -0.076803997 -0.23249701
0.074674003 -0.076728001 -0.23249499
0.074676998 -0.076650001 -0.232493
0.074680001 -0.076575004 -0.232481
0.074681997 -0.076499 -0.23246901
0.074685 -0.076421 -0.232458
0.074686997 -0.076347999 -0.23243999
0.074689001 -0.076272003 -0.23242
0.074690998 -0.076196 -0.232416
0.074694999 -0.076118 -0.23242
0.074698001 -0.07604 -0.232421
0.074702002 -0.075960003 -0.23243301
0.074706003 -0.075879999 -0.23245101
0.074708998 -0.075801998 -0.232449
0.074712001 -0.075723998 -0.232445
0.074715003 -0.075645998 -0.232447
0.074717 -0.075570002 -0.23243301
0.074720003 -0.075493999 -0.23242199
0.074722998 -0.075415999 -0.232428
0.074726 -0.075337999 -0.23243
0.074729003 -0.075263001 -0.232416
0.074731 -0.075185001 -0.232412
0.074735001 -0.075107001 -0.23241299
0.074736997 -0.075030997 -0.232401
0.074739002 -0.074955001 -0.232389
0.074743003 -0.074877001 -0.232393
0.074745998 -0.074799001 -0.232397
0.074749999 -0.074718997 -0.232411
0.074753001 -0.074639 -0.23241501
0.074755996 -0.074562997 -0.232408
0.074758999 -0.074484996 -0.23241
0.074763 -0.074406996 -0.232418
0.074764997 -0.074329004 -0.232412
0.074767999 -0.074253 -0.23240399
0.074771002 -0.074175 -0.23240601
0.074773997 -0.074097998 -0.23240501
0.074777 -0.074019998 -0.232397
0.074780002 -0.073941998 -0.232393
0.074853003 -0.085918002 -0.234698
0.074853003 -0.085845001 -0.234624
0.074851997 -0.085775003 -0.23455
0.074850999 -0.085704997 -0.234475
0.07485 -0.085634999 -0.234395
0.074849002 -0.085564002 -0.234319
0.074848004 -0.085493997 -0.234246
0.074848004 -0.085421003 -0.23417801
0.074846998 -0.085350998 -0.23410299
0.074845001 -0.085282996 -0.23400301
0.074842997 -0.085215002 -0.233906
0.074841 -0.085147999 -0.23380999
0.074841 -0.085078999 -0.233741
0.074841 -0.085005999 -0.233687
0.074841999 -0.084932998 -0.233643
0.074842997 -0.084858 -0.233603
0.074844003 -0.084784999 -0.233556
0.074844003 -0.084714003 -0.23351
0.074845999 -0.084638998 -0.233476
0.074846998 -0.084564 -0.23344301
0.074848004 -0.084491 -0.233411
0.07485 -0.084415004 -0.23338699
0.074851997 -0.084339999 -0.233365
0.074854001 -0.084264003 -0.233344
0.074855998 -0.084188998 -0.233326
0.074858002 -0.084113002 -0.233308
0.074860997 -0.084035002 -0.233292
0.074863002 -0.083959997 -0.233282
0.074865997 -0.083881997 -0.23327699
0.074868999 -0.083806001 -0.23326901
0.074871004 -0.083731003 -0.233247
0.074872002 -0.083655 -0.23322099
0.074873999 -0.083580002 -0.233193
0.074876003 -0.083503999 -0.23317599
0.074878998 -0.083429001 -0.233162
0.074881002 -0.083351001 -0.233152
0.074882999 -0.083274998 -0.233136
0.074885003 -0.0832 -0.233115
0.074887 -0.083126001 -0.233091
0.074888997 -0.083051004 -0.23306499
0.074891001 -0.082975 -0.23304901
0.074892998 -0.082900003 -0.233032
0.074895002 -0.082823999 -0.233004
0.074896999 -0.082749002 -0.23298401
0.074899003 -0.082672998 -0.23296601
0.074901 -0.082598001 -0.23294599
0.074902996 -0.082524002 -0.232925
0.074905001 -0.082448997 -0.23289301
0.074905001 -0.082378 -0.232849
0.074906997 -0.082301997 -0.23282599
0.074909002 -0.082226999 -0.232806
0.074910998 -0.082151003 -0.232786
0.074913003 -0.082075998 -0.232768
0.074915998 -0.082000002 -0.232756
0.074918002 -0.081924997 -0.232741
0.074919999 -0.081849001 -0.232723
0.074923001 -0.081772998 -0.23270901
0.074924998 -0.081698 -0.232687
0.074925996 -0.081625 -0.23265199
0.074928001 -0.081551 -0.23263
0.074929997 -0.081476003 -0.23261
0.074932002 -0.0814 -0.232586
0.074933998 -0.081324004 -0.232573
0.074937001 -0.081248999 -0.232565
0.074938998 -0.081170999 -0.23256101
0.074942 -0.081092998 -0.232557
0.074945003 -0.081017002 -0.232547
0.074947998 -0.080940999 -0.23254
0.074950002 -0.080863997 -0.23253401
0.074952997 -0.080788001 -0.232526
0.074956 -0.080710001 -0.232522
0.074959002 -0.080632001 -0.232522
0.074961998 -0.080554001 -0.232518
0.074964002 -0.080480002 -0.232501
0.074965999 -0.080407001 -0.23247699
0.074968003 -0.080329001 -0.23246101
0.074970998 -0.080254003 -0.232455
0.074974 -0.080176003 -0.23245201
0.074977003 -0.0801 -0.232448
0.074979998 -0.080022 -0.232444
0.074982002 -0.079944 -0.232438
0.074984998 -0.079867996 -0.23243999
0.074988998 -0.079787999 -0.23244201
0.074992001 -0.079709999 -0.232444
0.074995004 -0.079634003 -0.232445
0.074997999 -0.079556003 -0.232443
0.075001001 -0.079478003 -0.232439
0.075003996 -0.079400003 -0.232435
0.075006001 -0.079327002 -0.23241501
0.075006999 -0.079254001 -0.232388
0.075011 -0.079172999 -0.2324
0.075015999 -0.079093002 -0.23242401
0.075019002 -0.079012997 -0.232434
0.075023003 -0.078934997 -0.23243999
0.075025998 -0.078856997 -0.232438
0.075028002 -0.078781001 -0.23243
0.075030997 -0.078703001 -0.232421
0.075034 -0.078626998 -0.23241501
0.075037003 -0.078548998 -0.23241299
0.075039998 -0.078470998 -0.232419
0.075043999 -0.078391001 -0.23243301
0.075047001 -0.078313001 -0.232443
0.075051002 -0.078233004 -0.232447
0.075053997 -0.078155003 -0.232448
0.075057 -0.078077003 -0.232448
0.075060003 -0.077999003 -0.23245201
0.075064003 -0.077921003 -0.232454
0.075066999 -0.077843003 -0.23245201
0.075069003 -0.077767 -0.232448
0.075071998 -0.077691004 -0.232439
0.075075001 -0.077613004 -0.23243099
0.075078003 -0.077536002 -0.232429
0.075080998 -0.077457003 -0.23243301
0.075084001 -0.077380002 -0.23243099
0.075087003 -0.077303998 -0.232427
0.075089999 -0.077224001 -0.23243199
0.075093001 -0.077147998 -0.23243
0.075096004 -0.077069998 -0.23243
0.075098999 -0.076991998 -0.23243199
0.075103 -0.076912001 -0.232438
0.075106002 -0.076834001 -0.23243999
0.075108998 -0.076756001 -0.23244201
0.075112998 -0.076678 -0.232447
0.075116001 -0.0766 -0.232443
0.075117998 -0.076526001 -0.232427
0.075121 -0.076448001 -0.23242299
0.075124003 -0.076370001 -0.232419
0.075126 -0.076295003 -0.232408
0.075127997 -0.076219 -0.232392
0.075131997 -0.076141 -0.23239601
0.075135 -0.076063 -0.232402
0.075138003 -0.075985 -0.232402
0.075140998 -0.075906999 -0.232402
0.075144 -0.075831003 -0.232393
0.075145997 -0.075755998 -0.232381
0.075149 -0.075677998 -0.232381
0.075152002 -0.075599998 -0.23237699
0.075153999 -0.075524002 -0.232363
0.075157002 -0.075447999 -0.232354
0.075159997 -0.075372003 -0.232348
0.075162999 -0.075294003 -0.232346
0.075166002 -0.075217001 -0.232344
0.075168997 -0.075139001 -0.232342
0.075172 -0.075062998 -0.232338
0.075173996 -0.074987002 -0.23233099
0.075176999 -0.074909002 -0.232325
0.075180002 -0.074832998 -0.232319
0.075182997 -0.074754998 -0.232315
0.075185999 -0.074676998 -0.232315
0.075189002 -0.074598998 -0.232324
0.075193003 -0.074516997 -0.23233999
0.075196996 -0.074438997 -0.232348
0.075199999 -0.074360996 -0.232342
0.075203001 -0.074282996 -0.232338
0.075205997 -0.074207 -0.232338
0.075208999 -0.074129 -0.232336
0.075211003 -0.074054003 -0.232329
0.075213999 -0.073976003 -0.232319
0.075217001 -0.073899999 -0.23231301
0.075248003 -0.085860997 -0.23462
0.075248003 -0.085790001 -0.23455399
0.075246997 -0.085717998 -0.234483
0.075245999 -0.085647002 -0.234413
0.075246997 -0.085574999 -0.234355
0.075245999 -0.085501999 -0.23429
0.075245999 -0.085431002 -0.23423
0.075245999 -0.085359 -0.234164
0.075245 -0.085289001 -0.23408701
0.075243004 -0.085221 -0.23399299
0.075241998 -0.085150003 -0.233916
0.075243004 -0.085079998 -0.23386399
0.075243004 -0.085005 -0.23381799
0.075245 -0.084931001 -0.23378301
0.075246997 -0.084856004 -0.23376299
0.075249001 -0.084778003 -0.23374701
0.075250998 -0.084705003 -0.23371901
0.075251997 -0.084629998 -0.233684
0.075253002 -0.084556997 -0.23364601
0.075254001 -0.084481001 -0.23361
0.075254999 -0.084411003 -0.233557
0.075255997 -0.084337004 -0.233521
0.075258002 -0.084260002 -0.23349699
0.075259 -0.084187001 -0.23346899
0.075260997 -0.084110998 -0.23344401
0.075263001 -0.084036 -0.233418
0.075263999 -0.083962999 -0.23339
0.075266004 -0.083887003 -0.233362
0.075268 -0.083811998 -0.233335
0.075268999 -0.083738998 -0.233301
0.075271003 -0.083663002 -0.233281
0.075273998 -0.083582997 -0.233281
0.075277001 -0.083507001 -0.233283
0.075280003 -0.083429001 -0.23327
0.075281002 -0.083356 -0.233236
0.075282 -0.083283 -0.2332
0.075285003 -0.083205 -0.23319
0.075287998 -0.083126999 -0.233188
0.075290002 -0.083053999 -0.23316699
0.075291999 -0.082978003 -0.23314101
0.075292997 -0.082902998 -0.233115
0.075295001 -0.082828 -0.233091
0.075296998 -0.082754001 -0.233064
0.075297996 -0.082681 -0.233032
0.075300001 -0.082603 -0.233016
0.075301997 -0.082529999 -0.232991
0.075304002 -0.082455002 -0.232961
0.075305 -0.082381003 -0.23293699
0.075306997 -0.082305998 -0.232913
0.075309001 -0.082231998 -0.23288199
0.075309999 -0.082158998 -0.232844
0.075312003 -0.082084 -0.23281799
0.075314 -0.082007997 -0.232802
0.075315997 -0.081932999 -0.232785
0.075318001 -0.081857003 -0.232765
0.075319998 -0.081781998 -0.232747
0.075322002 -0.081706002 -0.23272701
0.075323999 -0.081633002 -0.23270801
0.075326003 -0.081556998 -0.232692
0.075328 -0.081481002 -0.23266999
0.075329997 -0.081405997 -0.232648
0.075332999 -0.081330001 -0.23263
0.075335003 -0.081254996 -0.232619
0.075337999 -0.081179 -0.232609
0.075340003 -0.081101 -0.23259901
0.075342 -0.081028 -0.23257899
0.075343996 -0.080952004 -0.232556
0.075346 -0.080876999 -0.232538
0.075349003 -0.080801003 -0.23253
0.075351998 -0.080723003 -0.232538
0.075355001 -0.080645002 -0.232536
0.075358003 -0.080567002 -0.232526
0.07536 -0.080493003 -0.232511
0.075361997 -0.080417998 -0.232491
0.075364999 -0.080342002 -0.232481
0.075368002 -0.080264002 -0.23247699
0.075369999 -0.080188997 -0.232466
0.075372003 -0.080113001 -0.232454
0.075375997 -0.080035001 -0.232454
0.075378999 -0.079957001 -0.232458
0.075382002 -0.079879001 -0.23245201
0.075384997 -0.079801001 -0.23245201
0.075387999 -0.079723001 -0.23246001
0.075392 -0.079645 -0.232465
0.075395003 -0.079567 -0.232465
0.075397 -0.079490997 -0.23245101
0.075400002 -0.079412997 -0.232443
0.075404003 -0.079334997 -0.23245899
0.075406998 -0.079255 -0.23246901
0.075410001 -0.079177 -0.23247001
0.075413004 -0.079101004 -0.232464
0.075415999 -0.079023004 -0.23246001
0.075419001 -0.078945003 -0.232458
0.075421996 -0.078867003 -0.23246001
0.075425997 -0.078789003 -0.23246799
0.075429 -0.078711003 -0.23246901
0.075432003 -0.078633003 -0.23246901
0.075434998 -0.078555003 -0.232473
0.075438999 -0.078477003 -0.232475
0.075442001 -0.078396998 -0.23247901
0.075446002 -0.078317001 -0.232493
0.075450003 -0.078236997 -0.23250701
0.075452998 -0.078161001 -0.23250701
0.075455002 -0.078083001 -0.2325
0.075457998 -0.078005001 -0.23249801
0.075461 -0.077928998 -0.232492
0.075464003 -0.077850997 -0.232484
0.075466998 -0.077775002 -0.232484
0.075469002 -0.077699997 -0.232471
0.075471997 -0.077624001 -0.232455
0.075475 -0.077546 -0.232457
0.075478002 -0.077466004 -0.232463
0.075480998 -0.077388003 -0.23246101
0.075484 -0.077313997 -0.232449
0.075485997 -0.077237003 -0.232438
0.075488999 -0.077159002 -0.232438
0.075492002 -0.077081002 -0.23243999
0.075494997 -0.077004999 -0.232434
0.075498 -0.076926999 -0.232428
0.075499997 -0.076851003 -0.232418
0.075502999 -0.076775998 -0.232409
0.075506002 -0.076697998 -0.232401
0.075508997 -0.076622002 -0.232399
0.075511999 -0.076544002 -0.23239499
0.075514004 -0.076467998 -0.23238701
0.075516999 -0.076389998 -0.232384
0.075520001 -0.076311998 -0.23238599
0.075524002 -0.076233998 -0.23239
0.075526997 -0.076155998 -0.232388
0.075529002 -0.076081 -0.232372
0.075530998 -0.076007001 -0.232357
0.075534001 -0.075929001 -0.232345
0.075535998 -0.075854003 -0.232337
0.075539 -0.075778 -0.23233099
0.075542003 -0.0757 -0.232329
0.075544998 -0.075622 -0.232329
0.075548001 -0.075545996 -0.232324
0.075549997 -0.075470001 -0.23231199
0.075553 -0.075395003 -0.232302
0.075556003 -0.075314999 -0.232308
0.075560004 -0.075236 -0.23231401
0.075562999 -0.075158998 -0.23231199
0.075566001 -0.075080998 -0.232311
0.075567998 -0.075005002 -0.23230501
0.075571001 -0.074927002 -0.232299
0.075574003 -0.074850999 -0.23229299
0.075576998 -0.074772999 -0.23228499
0.075580001 -0.074697003 -0.23228399
0.075583003 -0.074616998 -0.23229
0.075585999 -0.074538998 -0.232292
0.07559 -0.074460998 -0.23229399
0.075593002 -0.074382998 -0.23229399
0.075595997 -0.074304998 -0.23229399
0.075599 -0.074226998 -0.232298
0.075602002 -0.074148998 -0.232301
0.075604998 -0.074074 -0.232289
0.075607002 -0.073997997 -0.23227701
0.076064996 -0.085817002 -0.234697
0.076063998 -0.085744999 -0.23462699
0.076063 -0.085675001 -0.23455
0.076063 -0.085603997 -0.23448201
0.076061003 -0.085533999 -0.234391
0.076061003 -0.085464001 -0.234317
0.076061003 -0.085391 -0.234263
0.076061003 -0.085320003 -0.23420399
0.076059997 -0.085248001 -0.234126
0.076058999 -0.085179999 -0.234044
0.076054998 -0.085116997 -0.233909
0.076052003 -0.085049003 -0.233794
0.076053001 -0.084977999 -0.233748
0.076053999 -0.084903002 -0.233712
0.076054998 -0.084827997 -0.23367999
0.076056004 -0.084757 -0.233629
0.076057002 -0.084682003 -0.233587
0.076057002 -0.084609002 -0.233541
0.076058 -0.084536001 -0.233494
0.076058999 -0.084463 -0.233456
0.076059997 -0.08439 -0.233422
0.076062001 -0.084315002 -0.233385
0.076063 -0.084242001 -0.233345
0.076063998 -0.084168002 -0.233311
0.076064996 -0.084095001 -0.233271
0.076066002 -0.084022 -0.233234
0.076067999 -0.083947003 -0.23321401
0.076070003 -0.083871 -0.233192
0.076071002 -0.083796002 -0.233156
0.076072998 -0.083723001 -0.233125
0.076075003 -0.083646998 -0.233101
0.076076999 -0.083572 -0.23308299
0.076079004 -0.083495997 -0.233059
0.076080002 -0.083423004 -0.23302799
0.076081999 -0.083347 -0.233
0.076084003 -0.083272003 -0.232986
0.076086 -0.083195999 -0.232976
0.076089002 -0.083120003 -0.232961
0.076090999 -0.083044998 -0.232939
0.076093003 -0.082969002 -0.232923
0.076095 -0.082892001 -0.232903
0.076096997 -0.082818002 -0.232878
0.076099001 -0.082742997 -0.23285601
0.076100998 -0.082667001 -0.232834
0.076102003 -0.082594 -0.23280799
0.076104999 -0.082516 -0.232792
0.076107003 -0.082442999 -0.23277099
0.076108001 -0.082369998 -0.232741
0.076109998 -0.082294002 -0.232721
0.076112002 -0.082218997 -0.232704
0.076114997 -0.082140997 -0.23269001
0.076117001 -0.082065001 -0.23267999
0.076119997 -0.081988998 -0.232668
0.076122001 -0.081914 -0.23265
0.076123998 -0.081840001 -0.23262499
0.076126002 -0.081762999 -0.232605
0.076127999 -0.081689 -0.23258901
0.076131001 -0.081611 -0.232583
0.076132998 -0.081533998 -0.232577
0.076136 -0.081458002 -0.232568
0.076139003 -0.081380002 -0.23256201
0.076141 -0.081303999 -0.23255201
0.076144002 -0.081229001 -0.23254199
0.076145999 -0.081152998 -0.232526
0.076148003 -0.081077002 -0.232511
0.076150998 -0.081 -0.232503
0.076154001 -0.080923997 -0.23249701
0.076157004 -0.080848001 -0.232493
0.076159999 -0.080770001 -0.232491
0.076163001 -0.080692001 -0.23248599
0.076164998 -0.080615997 -0.232474
0.076168001 -0.080537997 -0.23247001
0.076171003 -0.080459997 -0.232472
0.076173998 -0.080383003 -0.23247001
0.076177001 -0.080306999 -0.232464
0.076180004 -0.080228999 -0.232457
0.076182 -0.080153003 -0.23245101
0.076185003 -0.080077 -0.232445
0.076187998 -0.079999 -0.232439
0.076191001 -0.079921 -0.232443
0.076195002 -0.079841003 -0.232453
0.076197997 -0.079763003 -0.232456
0.076200999 -0.079686999 -0.232456
0.076204002 -0.079607002 -0.232458
0.076208003 -0.079529002 -0.23246001
0.076210998 -0.079451002 -0.232458
0.076214001 -0.079374999 -0.232458
0.076217003 -0.079295002 -0.232466
0.076220997 -0.079214998 -0.232483
0.076223999 -0.079136997 -0.23248699
0.076227002 -0.079058997 -0.232485
0.076229997 -0.078983001 -0.232481
0.076233 -0.078905001 -0.232475
0.076236002 -0.078827001 -0.232471
0.076238997 -0.078749001 -0.232474
0.076242 -0.078671001 -0.232476
0.076245002 -0.078593001 -0.232474
0.076247998 -0.078518003 -0.23247001
0.076251 -0.078440003 -0.232462
0.076254003 -0.078364 -0.232454
0.076256 -0.078286 -0.232445
0.076259002 -0.078210004 -0.232443
0.076263003 -0.078129999 -0.232457
0.076266997 -0.078050002 -0.232473
0.076270998 -0.077969998 -0.232483
0.076274 -0.077891998 -0.232481
0.076277003 -0.077816002 -0.23247699
0.076278999 -0.077738002 -0.232474
0.076283 -0.077660002 -0.232476
0.076286003 -0.077582002 -0.23247799
0.076288998 -0.077504002 -0.23247799
0.076292001 -0.077426001 -0.232484
0.076296002 -0.077345997 -0.232494
0.076298997 -0.077267997 -0.232494
0.076301999 -0.077192001 -0.232483
0.076304004 -0.077114001 -0.232473
0.076307997 -0.077036001 -0.23247901
0.076311 -0.076958001 -0.232483
0.076314002 -0.076880001 -0.232481
0.076316997 -0.076802 -0.232483
0.07632 -0.076724 -0.23248
0.076323003 -0.076647997 -0.232472
0.076324999 -0.076572999 -0.23246001
0.076328002 -0.076494999 -0.232454
0.076330997 -0.076416999 -0.232458
0.076334 -0.076341003 -0.232449
0.076335996 -0.076265 -0.232435
0.076338999 -0.076187 -0.232435
0.076342002 -0.076109 -0.232437
0.076346003 -0.076030999 -0.232439
0.076348998 -0.075953998 -0.232437
0.076352 -0.075875998 -0.23243301
0.076353997 -0.075800002 -0.232428
0.076357 -0.075723998 -0.232418
0.076358996 -0.075648002 -0.232402
0.076361001 -0.075572997 -0.232388
0.076364003 -0.075497001 -0.232381
0.076366998 -0.075419001 -0.23238499
0.076370999 -0.075338997 -0.232397
0.076374002 -0.075260997 -0.232397
0.076376997 -0.075182997 -0.232391
0.076379001 -0.075107001 -0.23237699
0.076382004 -0.075034 -0.232364
0.076384999 -0.074956 -0.23235799
0.076388001 -0.074878 -0.23235799
0.076390997 -0.0748 -0.232356
0.076393001 -0.074724004 -0.232352
0.076396003 -0.074648 -0.232343
0.076398998 -0.074570999 -0.23233099
0.076401003 -0.074495003 -0.232327
0.076403998 -0.074417002 -0.232319
0.076406002 -0.074343003 -0.23230299
0.076408997 -0.074265003 -0.232299
0.076412 -0.074187003 -0.2323
0.076415002 -0.074111998 -0.23229399
0.076417997 -0.074032001 -0.232298
0.076595001 -0.085993998 -0.234708
0.076592997 -0.085924 -0.23461799
0.076591998 -0.085855998 -0.234524
0.076590002 -0.085786 -0.234433
0.076590002 -0.085715003 -0.234373
0.076589003 -0.085643001 -0.23429801
0.076586999 -0.085577004 -0.234194
0.076585002 -0.085510001 -0.234091
0.076583996 -0.085437 -0.234017
0.076582998 -0.085368998 -0.233937
0.076580003 -0.085302003 -0.233826
0.076577999 -0.085235998 -0.233723
0.076575004 -0.085167997 -0.233619
0.076573998 -0.085100003 -0.23353299
0.076573998 -0.085028999 -0.233472
0.076573998 -0.084957004 -0.233408
0.076573998 -0.084886 -0.23335101
0.076573998 -0.084816001 -0.233291
0.076575004 -0.084739998 -0.23324899
0.076576002 -0.084666997 -0.233211
0.076577 -0.084593996 -0.23316801
0.076577999 -0.084521003 -0.233128
0.076578997 -0.084448002 -0.233088
0.076580003 -0.084375001 -0.233055
0.076581001 -0.084299996 -0.23301899
0.076582 -0.084225997 -0.232985
0.076583996 -0.084151 -0.232959
0.076586001 -0.084077999 -0.23294
0.076587997 -0.083999999 -0.23292001
0.076590002 -0.083926998 -0.232898
0.076591998 -0.083851002 -0.232868
0.076592997 -0.083778001 -0.23283701
0.076595001 -0.083702996 -0.232811
0.076596998 -0.083627 -0.232785
0.076599002 -0.083550997 -0.23277099
0.076600999 -0.083476 -0.23276199
0.076604001 -0.083400004 -0.23274399
0.076605998 -0.083324999 -0.232724
0.076608002 -0.083249003 -0.232704
0.076609999 -0.083172999 -0.23268899
0.076612003 -0.083098002 -0.232675
0.076614 -0.083021998 -0.23265301
0.076615997 -0.082947001 -0.23263501
0.076618999 -0.082870997 -0.232619
0.076621003 -0.082795002 -0.23260599
0.076623 -0.082719997 -0.23259
0.076624997 -0.082644001 -0.232574
0.076628 -0.082566999 -0.23256201
0.076629996 -0.082491003 -0.232549
0.076632001 -0.082416996 -0.23252501
0.076633997 -0.082341999 -0.232503
0.076636001 -0.082266003 -0.232489
0.076638997 -0.082190998 -0.232473
0.076641001 -0.082115002 -0.23246001
0.076644003 -0.082038999 -0.23245201
0.076646 -0.081961997 -0.232436
0.076647997 -0.081887998 -0.232416
0.076650001 -0.081809998 -0.23240501
0.076653004 -0.081735 -0.232391
0.076655 -0.081661001 -0.232373
0.076656997 -0.081586003 -0.232347
0.076659001 -0.08151 -0.23233099
0.076661997 -0.081433997 -0.232326
0.076664001 -0.081358999 -0.23231401
0.076665998 -0.081283003 -0.2323
0.076669 -0.081205003 -0.23228601
0.076670997 -0.081132002 -0.232273
0.076673999 -0.081054002 -0.23226701
0.076677002 -0.080976002 -0.232265
0.076679997 -0.080898002 -0.232269
0.076683 -0.080820002 -0.232271
0.076686002 -0.080743998 -0.23225699
0.076687999 -0.080669001 -0.23224001
0.076691002 -0.080591001 -0.232242
0.076693997 -0.080513999 -0.23224799
0.076696999 -0.080436997 -0.23224001
0.076700002 -0.080361001 -0.232234
0.076702997 -0.080283001 -0.232232
0.076706 -0.080205001 -0.23222899
0.076709002 -0.080127001 -0.23223101
0.076711997 -0.080049001 -0.232235
0.076715 -0.079971001 -0.232237
0.076718003 -0.079893 -0.232233
0.076720998 -0.079816997 -0.232225
0.076724 -0.079741001 -0.232224
0.076727003 -0.079660997 -0.232232
0.076730996 -0.079582997 -0.232236
0.076733999 -0.079504997 -0.23222999
0.076736003 -0.079429001 -0.232224
0.076738998 -0.079354003 -0.23221999
0.076742001 -0.079276003 -0.232217
0.076745003 -0.079198003 -0.232223
0.076748997 -0.079117 -0.232233
0.076752 -0.079039 -0.232235
0.076755002 -0.078961998 -0.232233
0.076759003 -0.078883 -0.232237
0.076761998 -0.078805 -0.232245
