# .PCD v0.7 - Point Cloud Data file format
VERSION 0.7
FIELDS x y z
SIZE 4 4 4
TYPE F F F
COUNT 1 1 1
WIDTH 1308
HEIGHT 1
VIEWPOINT 0 0 0 1 0 0 0
POINTS 1308
DATA ascii
-0.087772496 -0.27125236 -0.3359865
-0.095703997 -0.27114099 -0.33599401
-0.095492996 -0.27112839 -0.33599898
-0.095274173 -0.27110264 -0.33598149
-0.095106222 -0.27110156 -0.33593994
-0.094935954 -0.27111572 -0.33590972
-0.094730809 -0.27111995 -0.33587077
-0.094486549 -0.27108648 -0.33586603
-0.094293132 -0.27108756 -0.33581853
-0.094067 -0.27105999 -0.33580202
-0.089110903 -0.27107778 -0.33582097
-0.088900499 -0.27106798 -0.33580449
-0.088738091 -0.27108827 -0.33582228
-0.088498384 -0.27111024 -0.3358624
-0.088308334 -0.27111429 -0.33591104
-0.088082217 -0.27112129 -0.33595321
-0.087905005 -0.27109808 -0.33597538
-0.087749839 -0.27110299 -0.33598748
-0.095265865 -0.27088529 -0.33599064
-0.09509822 -0.27089772 -0.33594757
-0.094918609 -0.27090833 -0.33591542
-0.09471862 -0.27091998 -0.33585635
-0.094494633 -0.27092159 -0.33586556
-0.094287805 -0.27087045 -0.33582163
-0.094058998 -0.27095601 -0.33580101
-0.089088 -0.27089465 -0.33582264
-0.088865377 -0.27088702 -0.33580461
-0.088715099 -0.27087992 -0.33581951
-0.08849629 -0.27090192 -0.33587036
-0.088315316 -0.27090171 -0.33589211
-0.088091448 -0.27091476 -0.33594453
-0.087929338 -0.27092341 -0.33598199
-0.087755449 -0.27092138 -0.33598
-0.095252179 -0.27069223 -0.33598936
-0.095109671 -0.27068937 -0.33594644
-0.094914339 -0.27069867 -0.33592191
-0.094700903 -0.27071181 -0.33586341
-0.094482951 -0.27072296 -0.33586156
-0.094286174 -0.27069637 -0.33582017
-0.089380004 -0.270785 -0.33580101
-0.089085668 -0.27071565 -0.33582786
-0.088852376 -0.27067974 -0.33581111
-0.088720284 -0.27067295 -0.33583021
-0.088490866 -0.27068967 -0.33587602
-0.088309951 -0.27070013 -0.33589491
-0.088098951 -0.2707023 -0.33591694
-0.087926395 -0.27071565 -0.33596346
-0.087749861 -0.27074885 -0.33599043
-0.095215 -0.27054599 -0.33599699
-0.095109046 -0.27048385 -0.33596519
-0.094907805 -0.27049053 -0.33591574
-0.094687462 -0.27050045 -0.33588645
-0.094466098 -0.27051544 -0.33585948
-0.094286866 -0.2705282 -0.33582175
-0.094157338 -0.27046701 -0.33580837
-0.089068331 -0.27052012 -0.33582681
-0.088838205 -0.27049062 -0.33581582
-0.088699333 -0.27048743 -0.33583999
-0.088485464 -0.27048644 -0.33588585
-0.088310264 -0.27048501 -0.3358995
-0.088112861 -0.27049658 -0.33592245
-0.087921798 -0.27050722 -0.33595482
-0.087758668 -0.27050835 -0.33598998
-0.095097557 -0.27027696 -0.33597165
-0.094909661 -0.27028155 -0.33593202
-0.094680004 -0.27029613 -0.33588734
-0.094456553 -0.27031538 -0.33587849
-0.094290227 -0.27031204 -0.33583546
-0.094110332 -0.27030566 -0.33581281
-0.089058578 -0.27031532 -0.33581308
-0.088872768 -0.27032214 -0.33583844
-0.088716194 -0.27031592 -0.33584547
-0.088474333 -0.27027267 -0.335904
-0.088301316 -0.27028245 -0.33589876
-0.088108465 -0.27028781 -0.33593026
-0.087925218 -0.27029398 -0.33597398
-0.087735794 -0.27028912 -0.33598828
-0.095093764 -0.27011284 -0.33597988
-0.094891205 -0.27008134 -0.33594432
-0.094663031 -0.27008912 -0.3358852
-0.09445449 -0.27010506 -0.33586782
-0.094310619 -0.27010611 -0.33584949
-0.094131 -0.27011964 -0.33581597
-0.093987003 -0.27009201 -0.335805
-0.089050695 -0.27010706 -0.33582321
-0.088898093 -0.27010643 -0.33583674
-0.088708632 -0.27012575 -0.33584362
-0.088496886 -0.27010134 -0.33588636
-0.088295572 -0.27007422 -0.33589759
-0.088117264 -0.27007821 -0.33593008
-0.087914839 -0.27008846 -0.33597702
-0.087750673 -0.27011633 -0.33599102
-0.095073201 -0.26992723 -0.3359822
-0.094890356 -0.26989585 -0.33595273
-0.094656713 -0.26988441 -0.33587906
-0.094489127 -0.26989135 -0.33586353
-0.094317943 -0.26990062 -0.33585247
-0.094155818 -0.26990306 -0.33582637
-0.093973003 -0.26991937 -0.33580467
-0.089400999 -0.26988101 -0.335803
-0.089336663 -0.26984698 -0.33580366
-0.089047164 -0.2698926 -0.33582917
-0.08893875 -0.26990184 -0.33583513
-0.088714831 -0.26991206 -0.33584061
-0.088495076 -0.26992485 -0.33587506
-0.08830642 -0.26991048 -0.3359074
-0.088105917 -0.26989344 -0.33595243
-0.087897383 -0.2698811 -0.33598369
-0.087764658 -0.26988602 -0.33598933
-0.095057726 -0.26973256 -0.33598301
-0.094899818 -0.2697123 -0.33595699
-0.094659641 -0.2696754 -0.33588552
-0.094509773 -0.26967722 -0.33587635
-0.094314374 -0.26969174 -0.33585706
-0.094136089 -0.26969603 -0.33582756
-0.093961999 -0.26978001 -0.33580199
-0.089317374 -0.26963112 -0.33580786
-0.089041106 -0.26968369 -0.33585098
-0.088934593 -0.26969269 -0.3358534
-0.088697389 -0.26970452 -0.3358461
-0.088477589 -0.2697171 -0.33588073
-0.0882897 -0.26972252 -0.33590737
-0.088106699 -0.26972622 -0.33594632
-0.087879628 -0.26968941 -0.33599079
-0.087746806 -0.26967621 -0.3359974
-0.095040224 -0.26951233 -0.33598077
-0.094883949 -0.26951855 -0.335951
-0.094687633 -0.26950601 -0.33589482
-0.094524555 -0.26948062 -0.33588627
-0.09432666 -0.26948267 -0.3358537
-0.094117418 -0.26949427 -0.33582282
-0.093944669 -0.26943466 -0.335807
-0.089438006 -0.26949698 -0.33580399
-0.089334361 -0.26949963 -0.33582208
-0.089053005 -0.26948398 -0.33582813
-0.088955291 -0.26947817 -0.33585149
-0.088713616 -0.26949498 -0.3358438
-0.088487402 -0.26950794 -0.33586702
-0.088276356 -0.2695182 -0.3359091
-0.088098109 -0.26952252 -0.33594006
-0.087887317 -0.26949507 -0.335989
-0.087711744 -0.26948673 -0.33597749
-0.095031999 -0.26932102 -0.33599073
-0.094896659 -0.26931193 -0.33595851
-0.094700821 -0.26932234 -0.33590633
-0.094534561 -0.26931 -0.33588588
-0.094316006 -0.26927805 -0.33586073
-0.09411142 -0.26928258 -0.33582592
-0.093917996 -0.26928991 -0.33582699
-0.089304127 -0.2693356 -0.3358205
-0.089087717 -0.26931456 -0.3358236
-0.088944882 -0.26927015 -0.33584741
-0.088695735 -0.26928613 -0.33585328
-0.088490508 -0.26929936 -0.33585855
-0.088285901 -0.26930681 -0.3358849
-0.088102333 -0.26931319 -0.33594671
-0.08787936 -0.26932764 -0.33598298
-0.087735444 -0.26932967 -0.33597556
-0.095012747 -0.26907951 -0.33597949
-0.094898425 -0.26910362 -0.33595511
-0.094731353 -0.26910838 -0.33590788
-0.094542675 -0.26912215 -0.33588794
-0.094320565 -0.26909947 -0.33587375
-0.094102852 -0.26907834 -0.33583418
-0.093895756 -0.26908809 -0.33583733
-0.089274816 -0.26912609 -0.33581856
-0.089090846 -0.26912484 -0.33583298
-0.088933073 -0.26909232 -0.33585149
-0.088683359 -0.26908222 -0.33585232
-0.088497818 -0.26908898 -0.33587253
-0.088287242 -0.26909775 -0.33589187
-0.08810655 -0.26910388 -0.33594605
-0.087889038 -0.26911041 -0.33598742
-0.087748893 -0.26912102 -0.33599088
-0.0950175 -0.26888999 -0.33599901
-0.094907105 -0.26889816 -0.33597961
-0.094736643 -0.26890317 -0.33593032
-0.094531871 -0.2689116 -0.3358838
-0.094310954 -0.26892245 -0.33588102
-0.094087332 -0.26889315 -0.33585125
-0.093895279 -0.26887497 -0.3358317
-0.093721002 -0.26881701 -0.33580199
-0.089230999 -0.26898399 -0.335814
-0.089072831 -0.26891652 -0.33584598
-0.088924766 -0.2689226 -0.33585814
-0.088670149 -0.26888132 -0.33584788
-0.08850608 -0.26887885 -0.33588168
-0.088287689 -0.26889226 -0.33590007
-0.088109642 -0.26889127 -0.33594435
-0.087886572 -0.26890895 -0.33598185
-0.087732218 -0.26888201 -0.33598903
-0.095005997 -0.26875201 -0.33599901
-0.094908796 -0.26868212 -0.33598986
-0.094735168 -0.26869419 -0.3359319
-0.094521903 -0.26870927 -0.33590332
-0.094295457 -0.26871559 -0.33588198
-0.094093263 -0.26872194 -0.33586511
-0.093879424 -0.26867786 -0.33582622
-0.093716003 -0.26874799 -0.33580199
-0.089119501 -0.268709 -0.33580601
-0.088917717 -0.26871726 -0.33586159
-0.088677995 -0.26871681 -0.33585814
-0.088526219 -0.26867643 -0.33586633
-0.088295706 -0.26868314 -0.33590642
-0.088107191 -0.26868683 -0.33593211
-0.087877437 -0.26869646 -0.33597508
-0.08772891 -0.26872319 -0.33597517
-0.094881386 -0.26847461 -0.33598703
-0.094718382 -0.26848698 -0.33592641
-0.094516143 -0.2684983 -0.3359012
-0.094291002 -0.26851365 -0.33588597
-0.094081208 -0.26852325 -0.33587143
-0.0939091 -0.26850429 -0.33583871
-0.093756996 -0.26846835 -0.33582997
-0.0892395 -0.26842549 -0.33580202
-0.089104995 -0.26853502 -0.33581001
-0.088900998 -0.26850986 -0.33585459
-0.088663332 -0.26852211 -0.33585963
-0.088535696 -0.2685146 -0.33587828
-0.088299692 -0.26847506 -0.33591154
-0.088116743 -0.26847428 -0.33592853
-0.087925725 -0.26849183 -0.33595726
-0.087772995 -0.26854649 -0.33599153
-0.094875559 -0.2683059 -0.33598509
-0.094709501 -0.26828068 -0.33594787
-0.094499037 -0.26829016 -0.33590096
-0.094281428 -0.26830128 -0.33589351
-0.094086617 -0.26831445 -0.33587229
-0.093898132 -0.26832435 -0.3358368
-0.093753248 -0.26832899 -0.33584324
-0.089226745 -0.26826975 -0.33580589
-0.089079998 -0.268224 -0.33580601
-0.088882856 -0.26830083 -0.33587155
-0.088656798 -0.26832134 -0.33585602
-0.088524505 -0.26831621 -0.33585638
-0.088291205 -0.26829639 -0.3359156
-0.088098839 -0.26829255 -0.33593616
-0.087916583 -0.2682645 -0.33597282
-0.094864234 -0.26812285 -0.33599398
-0.094707243 -0.26809838 -0.33594692
-0.094491087 -0.26807827 -0.33591416
-0.09426342 -0.26809293 -0.33590591
-0.094078884 -0.26811087 -0.33587444
-0.093932413 -0.2681146 -0.33583835
-0.093760289 -0.26811141 -0.33582845
-0.089216501 -0.26814848 -0.33580101
-0.089111835 -0.26808369 -0.33581749
-0.088867098 -0.26809403 -0.33585128
-0.088643886 -0.26810411 -0.33587888
-0.088512465 -0.26811266 -0.33585849
-0.088289455 -0.26812854 -0.33591321
-0.088119425 -0.26811805 -0.33594674
-0.087941714 -0.268105 -0.33598217
-0.094855003 -0.26798999 -0.33599296
-0.094696723 -0.26792485 -0.33595189
-0.094474696 -0.26787686 -0.33591184
-0.094258994 -0.26788944 -0.33589965
-0.094098553 -0.26789665 -0.33588728
-0.093914188 -0.26790684 -0.33583626
-0.093722217 -0.26791489 -0.33582699
-0.089131773 -0.26785055 -0.33581221
-0.088859774 -0.26788521 -0.3358463
-0.088682301 -0.26790091 -0.33588782
-0.088505238 -0.26789907 -0.33588466
-0.08827883 -0.26791409 -0.33592233
-0.088103689 -0.26792285 -0.33594951
-0.087947004 -0.2679075 -0.33598787
-0.094683945 -0.26771313 -0.33596653
-0.094464421 -0.26769561 -0.33591452
-0.094256692 -0.2676819 -0.33590358
-0.09411259 -0.26768225 -0.33589333
-0.093927868 -0.26769751 -0.33584553
-0.093734004 -0.26769936 -0.33583555
-0.089101404 -0.26770741 -0.33582062
-0.088848427 -0.26768088 -0.33585554
-0.088702835 -0.26768428 -0.33589116
-0.088512331 -0.2676923 -0.33589497
-0.088300854 -0.26770929 -0.33592734
-0.088104695 -0.26770791 -0.33594587
-0.087962575 -0.26772571 -0.33598256
-0.094816506 -0.26754051 -0.335998
-0.094680272 -0.26752791 -0.3359834
-0.094460398 -0.26752341 -0.33590719
-0.094284564 -0.26750654 -0.33590356
-0.094112739 -0.2674849 -0.33589268
-0.09392006 -0.26748443 -0.3358545
-0.093708754 -0.26749858 -0.33582985
-0.089109838 -0.26750907 -0.33582124
-0.088853441 -0.26751065 -0.3358711
-0.088735253 -0.267474 -0.33588874
-0.088511176 -0.26748398 -0.3358981
-0.088291995 -0.2674959 -0.33592275
-0.088095263 -0.26750466 -0.33595309
-0.087957568 -0.267497 -0.33598644
-0.094626606 -0.26732129 -0.33598581
-0.094459333 -0.26731688 -0.33592394
-0.09430787 -0.26732281 -0.33591047
-0.094116479 -0.26730257 -0.33590502
-0.093911842 -0.26727605 -0.33586589
-0.093697138 -0.26728186 -0.33581558
-0.093592003 -0.26726002 -0.33581698
-0.089094996 -0.26731908 -0.33581755
-0.088861391 -0.26731849 -0.33585978
-0.088740908 -0.26730838 -0.33589074
-0.088494606 -0.26727551 -0.3358883
-0.088274501 -0.26728776 -0.33592722
-0.088087335 -0.26729348 -0.3359448
-0.087954246 -0.26728976 -0.33598024
-0.094615854 -0.26709872 -0.33598974
-0.094480343 -0.26710725 -0.33593494
-0.09432406 -0.26711774 -0.33591273
-0.09413211 -0.26711464 -0.33591574
-0.093901418 -0.26708853 -0.33586311
-0.093714103 -0.26707378 -0.33585829
-0.093577661 -0.267086 -0.33582166
-0.08912763 -0.26710919 -0.33580744
-0.088882901 -0.2671234 -0.33585078
-0.088759355 -0.26711923 -0.33587846
-0.088519923 -0.26710799 -0.33589154
-0.088289864 -0.26708272 -0.33592048
-0.0880844 -0.26708493 -0.33593577
-0.087974198 -0.267102 -0.33597881
-0.094610244 -0.26690775 -0.33598977
-0.094504334 -0.26689711 -0.33594644
-0.094332419 -0.26690826 -0.33591041
-0.094120577 -0.26691818 -0.33592182
-0.093921244 -0.26691318 -0.33588329
-0.093711756 -0.26687267 -0.33586267
-0.093534604 -0.2668668 -0.33582419
-0.093208998 -0.2668345 -0.33580449
-0.093194999 -0.266837 -0.33580199
-0.089112654 -0.26689684 -0.3358117
-0.088873446 -0.26690689 -0.33585846
-0.088745065 -0.26691586 -0.33587971
-0.088498056 -0.26692569 -0.33590648
-0.088274702 -0.26688302 -0.3359279
-0.088080995 -0.26687494 -0.33595732
-0.087971747 -0.26686025 -0.33598575
-0.094515219 -0.26668733 -0.33597136
-0.094340622 -0.26669767 -0.33592495
-0.094122104 -0.26670852 -0.33592778
-0.093905032 -0.26672253 -0.33589017
-0.093695618 -0.26669827 -0.33588901
-0.09347555 -0.2666457 -0.33582053
-0.093086496 -0.2666325 -0.33580351
-0.089089185 -0.26669717 -0.33581585
-0.088889159 -0.2666975 -0.33585951
-0.088737838 -0.26670611 -0.33588436
-0.088479951 -0.26671764 -0.33591807
-0.088307872 -0.26671961 -0.3359189
-0.08809413 -0.26669949 -0.33597216
-0.087972201 -0.26671061 -0.33598799
-0.094519503 -0.2664896 -0.33597979
-0.094329037 -0.26648614 -0.3359324
-0.09410429 -0.26650041 -0.33593714
-0.093897313 -0.26651773 -0.33589861
-0.093698151 -0.26651964 -0.3358779
-0.093444332 -0.26648533 -0.33582518
-0.093395002 -0.26640701 -0.33580801
-0.0930565 -0.26649264 -0.33580351
-0.092981003 -0.26656401 -0.33580199
-0.089085951 -0.2664836 -0.335821
-0.08887133 -0.26648799 -0.33587036
-0.088721104 -0.26649827 -0.33587798
-0.088477522 -0.26650825 -0.33591568
-0.088309325 -0.26651809 -0.33591715
-0.088087469 -0.26652873 -0.33598566
-0.087970667 -0.266507 -0.33599734
-0.094475605 -0.26628479 -0.33597618
-0.094325274 -0.26628363 -0.33593684
-0.094096825 -0.2662895 -0.33593425
-0.093884781 -0.26630521 -0.3359077
-0.093688995 -0.26631665 -0.33586535
-0.093453281 -0.26631638 -0.33583993
-0.093375802 -0.26626998 -0.33580843
-0.093079768 -0.26626253 -0.33580971
-0.092979752 -0.2662845 -0.33580676
-0.089068763 -0.26627579 -0.33582142
-0.088916332 -0.26627898 -0.33585897
-0.088717282 -0.26628929 -0.33586836
-0.088470921 -0.26630491 -0.33591592
-0.088337727 -0.26630038 -0.33591509
-0.088097252 -0.26632041 -0.33596498
-0.087981798 -0.26630622 -0.3359834
-0.094469495 -0.266132 -0.33598399
-0.09431348 -0.26608053 -0.3359271
-0.094088741 -0.26608735 -0.335924
-0.093883768 -0.26609719 -0.33590645
-0.093706071 -0.26610222 -0.33587697
-0.093473211 -0.26612431 -0.33584401
-0.09338516 -0.26612899 -0.33581117
-0.093102783 -0.26608217 -0.33581623
-0.092961498 -0.26605383 -0.33581018
-0.089077577 -0.26610103 -0.33582526
-0.088944167 -0.26607114 -0.33584633
-0.088699766 -0.26608032 -0.3358753
-0.088459335 -0.26609033 -0.33591685
-0.0883255 -0.26609775 -0.33592057
-0.088096648 -0.26611254 -0.33595395
-0.087973744 -0.26609439 -0.33597964
-0.094417661 -0.26592568 -0.33598268
-0.094302684 -0.26591066 -0.33594236
-0.094080329 -0.265876 -0.33591345
-0.093884282 -0.26588845 -0.33591068
-0.093695268 -0.26589835 -0.33588311
-0.0934809 -0.26591471 -0.33587044
-0.093349434 -0.26591367 -0.33582476
-0.093098812 -0.26591673 -0.33581278
-0.092931338 -0.26588544 -0.33581156
-0.089062616 -0.26592672 -0.33583531
-0.088929251 -0.2658965 -0.3358525
-0.088675946 -0.26588911 -0.33588421
-0.088457003 -0.26588044 -0.33593613
-0.088324875 -0.26588866 -0.33592573
-0.088091135 -0.26589912 -0.33595747
-0.087934047 -0.26590484 -0.33597454
-0.094400004 -0.265717 -0.33599401
-0.094288997 -0.26572075 -0.33595759
-0.09406133 -0.26569542 -0.33592311
-0.09388154 -0.26567942 -0.33591354
-0.093718201 -0.26568756 -0.33589852
-0.093522996 -0.26570311 -0.33587855
-0.093322933 -0.26570725 -0.33583638
-0.09309233 -0.26572672 -0.33581942
-0.09291967 -0.26570815 -0.33582166
-0.092794999 -0.26563701 -0.33580399
-0.089034624 -0.26571372 -0.33583024
-0.088939995 -0.2657218 -0.33586609
-0.088675335 -0.26572025 -0.33589774
-0.088435628 -0.26568061 -0.33595237
-0.088307336 -0.2656796 -0.33593312
-0.088093497 -0.26569048 -0.33595634
-0.087920599 -0.26568922 -0.3359811
-0.087759338 -0.26565635 -0.33599368
-0.094282322 -0.26551613 -0.33594748
-0.094060391 -0.26552877 -0.33591592
-0.093885623 -0.26547974 -0.33590516
-0.09371502 -0.26547927 -0.33589351
-0.093526199 -0.26547968 -0.33588669
-0.093321152 -0.26550409 -0.33584616
-0.093100332 -0.26551747 -0.33582023
-0.092902578 -0.26552749 -0.33581841
-0.092791669 -0.26550797 -0.33580565
-0.089040749 -0.26551107 -0.33581853
-0.088944308 -0.26550704 -0.33585784
-0.08865869 -0.26552689 -0.3358964
-0.088487148 -0.26551059 -0.33593559
-0.088297568 -0.26549014 -0.33593741
-0.088077754 -0.26548305 -0.33593383
-0.08790122 -0.26548991 -0.33598179
-0.087707996 -0.26556799 -0.335987
-0.094266005 -0.26530856 -0.33593678
-0.094056852 -0.26532409 -0.33592778
-0.093922399 -0.2653046 -0.33592001
-0.093720272 -0.26529634 -0.33588862
-0.093522578 -0.26527894 -0.33588436
-0.093303628 -0.26529554 -0.33584872
-0.093102001 -0.26530787 -0.33581975
-0.092917427 -0.26532206 -0.33580738
-0.092778996 -0.26533949 -0.33580574
-0.089044183 -0.26530817 -0.33582652
-0.088939562 -0.26529968 -0.33584905
-0.088651001 -0.26531821 -0.33590317
-0.088497192 -0.26531592 -0.33593252
-0.088319719 -0.26532477 -0.33593971
-0.088087 -0.26528519 -0.33592054
-0.087912507 -0.26527369 -0.33597201
-0.094469711 -0.26505601 -0.33599275
-0.094254039 -0.26510355 -0.33593664
-0.094075233 -0.26511163 -0.33591238
-0.093920305 -0.2651197 -0.33591145
-0.093727641 -0.2651208 -0.33590287
-0.093506165 -0.26507151 -0.3358742
-0.093286328 -0.26508769 -0.33585271
-0.093071118 -0.26512522 -0.33580744
-0.092908472 -0.26510301 -0.33581084
-0.09276671 -0.26509541 -0.335805
-0.089248665 -0.265062 -0.33580467
-0.089087076 -0.26508626 -0.33582172
-0.088933051 -0.26509166 -0.33585429
-0.088647075 -0.26510248 -0.33591616
-0.088538587 -0.26511177 -0.33592191
-0.08831355 -0.26512036 -0.3359423
-0.088103227 -0.26510966 -0.33594289
-0.087886661 -0.26509273 -0.33597505
-0.087774336 -0.26502833 -0.33598933
-0.094475083 -0.26487079 -0.33599088
-0.094259337 -0.26489115 -0.33592987
-0.094108626 -0.26489776 -0.33590376
-0.093917146 -0.26491141 -0.33591056
-0.093711115 -0.26492271 -0.33589062
-0.093525 -0.26489732 -0.33586335
-0.093281806 -0.26488364 -0.33585715
-0.093065299 -0.26489389 -0.33580598
-0.092886657 -0.26489866 -0.33582082
-0.092740834 -0.26489657 -0.33580542
-0.089219332 -0.26487735 -0.33580634
-0.089118794 -0.26488149 -0.33582264
-0.088935785 -0.26488969 -0.33585587
-0.088669732 -0.26488519 -0.33592024
-0.088534735 -0.26490074 -0.33593181
-0.088296995 -0.26491219 -0.33593524
-0.088079333 -0.26492491 -0.33593825
-0.087896898 -0.2649225 -0.33596075
-0.087760605 -0.26490739 -0.33598024
-0.094458506 -0.26466691 -0.3359915
-0.094280064 -0.26468053 -0.33594286
-0.094125837 -0.2646932 -0.33589137
-0.093925104 -0.26469755 -0.33591342
-0.093714103 -0.26471707 -0.33588633
-0.093519196 -0.26471689 -0.33587232
-0.093274474 -0.26468951 -0.33585209
-0.093075611 -0.26467913 -0.33581141
-0.09286321 -0.26470569 -0.33581406
-0.092745125 -0.26471549 -0.33580697
-0.089296505 -0.264696 -0.33580399
-0.08909943 -0.26466343 -0.33581731
-0.088935338 -0.26467705 -0.33585066
-0.088686332 -0.26468158 -0.33591965
-0.088558145 -0.26468959 -0.3359333
-0.08831244 -0.26470125 -0.33594185
-0.088087931 -0.26471493 -0.33593786
-0.08787825 -0.264725 -0.33595991
-0.087770998 -0.2647242 -0.33599383
-0.094458304 -0.2645171 -0.33598489
-0.094287075 -0.26448169 -0.33595008
-0.094136156 -0.26448524 -0.3359063
-0.093916632 -0.26449049 -0.33589891
-0.093709163 -0.26450488 -0.33588073
-0.093517907 -0.264516 -0.33585751
-0.093280561 -0.26451755 -0.33584353
-0.093083896 -0.26447386 -0.33581564
-0.092869356 -0.26446787 -0.33581185
-0.092726834 -0.26446608 -0.33580884
-0.089060329 -0.26451203 -0.33581933
-0.08891356 -0.26449043 -0.33586022
-0.088666856 -0.26449272 -0.33591887
-0.088545501 -0.26447761 -0.33591843
-0.088295124 -0.26449215 -0.33594245
-0.088090755 -0.26450533 -0.33593825
-0.08788567 -0.2645112 -0.33596817
-0.087774403 -0.26452881 -0.33599299
-0.094435498 -0.26432699 -0.33598557
-0.09433943 -0.26431307 -0.33597153
-0.094136558 -0.26428396 -0.33590996
-0.093924567 -0.2642839 -0.33589396
-0.093705758 -0.26429635 -0.33588347
-0.093501069 -0.26430827 -0.33585313
-0.093264163 -0.26432437 -0.33584988
-0.093108721 -0.26430175 -0.33582228
-0.092905439 -0.26427367 -0.33581159
-0.092722595 -0.2642732 -0.3358081
-0.089051001 -0.26431361 -0.33581218
-0.088910148 -0.26432139 -0.33586001
-0.088702001 -0.26431841 -0.3359136
-0.088530265 -0.26428682 -0.33592606
-0.088282824 -0.26428828 -0.33594158
-0.088098817 -0.26429525 -0.33593774
-0.087886997 -0.26430166 -0.33597174
-0.087783247 -0.264305 -0.33598998
-0.094441243 -0.26410013 -0.33598137
-0.094328113 -0.26412436 -0.33596632
-0.094132572 -0.26410741 -0.33590588
-0.093908705 -0.2640771 -0.33587474
-0.0936988 -0.26409206 -0.33587778
-0.09349978 -0.26409358 -0.33585951
-0.093253173 -0.26411557 -0.33585924
-0.093125872 -0.26412237 -0.33583403
-0.09291631 -0.26410306 -0.33581591
-0.092691407 -0.26408604 -0.33580944
-0.089101002 -0.26418599 -0.33580101
-0.088902138 -0.26412097 -0.33585212
-0.088674165 -0.26412448 -0.33590582
-0.088527136 -0.2641179 -0.3359338
-0.088267379 -0.26408365 -0.33596462
-0.088106997 -0.26408431 -0.33594486
-0.087892212 -0.26409185 -0.335976
-0.087769002 -0.26407748 -0.33599702
-0.094440423 -0.26390988 -0.33597916
-0.094336703 -0.26390699 -0.33594742
-0.094127551 -0.26392201 -0.33590108
-0.09388651 -0.26389027 -0.33588627
-0.093687668 -0.2638804 -0.33586985
-0.09348987 -0.26389053 -0.33585539
-0.093245566 -0.26390699 -0.33585516
-0.093139067 -0.26390818 -0.33584055
-0.092918195 -0.26392499 -0.33581963
-0.092699841 -0.26390928 -0.33581573
-0.089266248 -0.26386151 -0.33580375
-0.089112625 -0.26388913 -0.33580562
-0.088884912 -0.26391244 -0.3358539
-0.088719003 -0.26391503 -0.33589566
-0.088517569 -0.26392254 -0.33594048
-0.088282399 -0.26391739 -0.33598232
-0.088132903 -0.2638858 -0.33595258
-0.087896593 -0.26388681 -0.33596796
-0.087794997 -0.26381499 -0.335989
-0.094430335 -0.2636905 -0.33597866
-0.094323285 -0.26370305 -0.33594447
-0.094122708 -0.26371664 -0.33589554
-0.093898445 -0.26372194 -0.3358849
-0.093672536 -0.26368621 -0.33587179
-0.093493506 -0.26368195 -0.33585262
-0.093268596 -0.26369199 -0.33584866
-0.093135551 -0.26369897 -0.33584762
-0.092905656 -0.26372007 -0.33582503
-0.09270145 -0.26372275 -0.33582172
-0.092572995 -0.26368833 -0.33580467
-0.089240998 -0.26370549 -0.33580324
-0.08909744 -0.26366609 -0.33581734
-0.088878244 -0.26370302 -0.33585542
-0.088746667 -0.26370636 -0.33588636
-0.08850015 -0.26371366 -0.33594552
-0.088259839 -0.26372293 -0.3359845
-0.088135496 -0.26371759 -0.3359549
-0.087911144 -0.26368323 -0.33597213
-0.087788999 -0.26374501 -0.33599499
-0.094402 -0.26355001 -0.33599299
-0.094313748 -0.26348889 -0.33596593
-0.094104804 -0.2635071 -0.335906
-0.093889192 -0.26352069 -0.33586746
-0.093697399 -0.26351827 -0.33587134
-0.093487844 -0.26348418 -0.33585119
-0.093281999 -0.26348799 -0.33585399
-0.093127385 -0.2634902 -0.33585715
-0.092898048 -0.2635068 -0.33584249
-0.092689484 -0.26351768 -0.33582944
-0.092559248 -0.26350752 -0.33581749
-0.090612002 -0.26340699 -0.33580801
-0.090579003 -0.263412 -0.335807
-0.090302669 -0.26345003 -0.33580434
-0.089201003 -0.26354799 -0.33581701
-0.089100361 -0.263482 -0.33582506
-0.088859729 -0.26349291 -0.33587441
-0.088728338 -0.26349649 -0.33590201
-0.088483006 -0.26350486 -0.33594441
-0.088258773 -0.26351333 -0.33598655
-0.08812733 -0.26352158 -0.33596563
-0.087931834 -0.26349851 -0.33597231
-0.094306551 -0.26328728 -0.33595905
-0.094092228 -0.26329553 -0.33591193
-0.093872666 -0.26331314 -0.33586171
-0.093680583 -0.26332873 -0.33586749
-0.093523629 -0.26331273 -0.33585727
-0.093317896 -0.26328611 -0.33585322
-0.093118988 -0.26328051 -0.335868
-0.092891373 -0.26330197 -0.33584675
-0.092693575 -0.26330373 -0.33584502
-0.092563793 -0.26330799 -0.33581948
-0.090605997 -0.26333699 -0.33580801
-0.090548858 -0.26329526 -0.33580881
-0.090288095 -0.26330778 -0.33580658
-0.089819998 -0.26324201 -0.335807
-0.089354001 -0.26326701 -0.33580199
-0.089089841 -0.26327345 -0.33582675
-0.08885359 -0.26328745 -0.33588371
-0.088742897 -0.26327962 -0.33590421
-0.088465005 -0.26329514 -0.33595622
-0.088097684 -0.26330659 -0.33598787
-0.087897837 -0.26332483 -0.33596864
-0.087781996 -0.26329151 -0.33599699
-0.094298422 -0.26308039 -0.33594298
-0.094084121 -0.26308909 -0.33592078
-0.093857937 -0.26310748 -0.33586952
-0.093681127 -0.2631112 -0.33586556
-0.0935096 -0.26312372 -0.335859
-0.093332432 -0.26311001 -0.33585697
-0.093113914 -0.26308483 -0.3358691
-0.092903353 -0.26308969 -0.33585906
-0.092704952 -0.26309299 -0.33585447
-0.092540413 -0.26310155 -0.33582842
-0.092308 -0.26304549 -0.33580297
-0.090671003 -0.26305801 -0.33580399
-0.090508997 -0.26313999 -0.335803
-0.090331003 -0.263143 -0.33580801
-0.089811996 -0.26313698 -0.33580399
-0.089413501 -0.263134 -0.33580649
-0.089336574 -0.26310298 -0.33580998
-0.089078598 -0.26308465 -0.33582896
-0.088849619 -0.26307991 -0.33588362
-0.088743925 -0.26307106 -0.33591244
-0.088457495 -0.26308587 -0.33595455
-0.088390671 -0.26309398 -0.33595467
-0.088075005 -0.26310417 -0.33597806
-0.08787933 -0.26311508 -0.33598384
-0.087787002 -0.26318601 -0.33599401
-0.094403997 -0.26285899 -0.33599901
-0.094299681 -0.26290011 -0.33595625
-0.094067253 -0.26288101 -0.33591771
-0.09385401 -0.2628997 -0.33586314
-0.093706712 -0.26290146 -0.33585429
-0.093530923 -0.26291099 -0.33588696
-0.093329996 -0.26292109 -0.33586016
-0.093112782 -0.26291552 -0.33587655
-0.092893772 -0.26288205 -0.33586642
-0.092706993 -0.26288682 -0.33586457
-0.092529476 -0.26289204 -0.33584428
-0.092321113 -0.26289055 -0.33580524
-0.090653338 -0.262849 -0.33580366
-0.0905516 -0.26289678 -0.33580777
-0.090259336 -0.26284632 -0.33580518
-0.089417338 -0.26290631 -0.33580634
-0.089277253 -0.26290828 -0.33581212
-0.089108333 -0.26291499 -0.33582699
-0.088877335 -0.26290378 -0.33587402
-0.088738635 -0.26289728 -0.335924
-0.088450126 -0.26287574 -0.33595479
-0.08838167 -0.26288417 -0.33595917
-0.0880851 -0.2628867 -0.33598369
-0.087896079 -0.26291463 -0.33598655
-0.087741338 -0.26291677 -0.33599824
-0.094303124 -0.26272354 -0.33594781
-0.094051197 -0.26268357 -0.33590922
-0.093872927 -0.26268068 -0.33587012
-0.09371274 -0.26269716 -0.33587661
-0.093519188 -0.26269859 -0.33588201
-0.093311667 -0.26271141 -0.335875
-0.093090117 -0.26272622 -0.3358781
-0.092883997 -0.26269424 -0.33587652
-0.092699677 -0.26267332 -0.33588073
-0.09251833 -0.26268515 -0.33586764
-0.092279501 -0.26269943 -0.33581352
-0.092176497 -0.2626555 -0.33581075
-0.09063267 -0.26273367 -0.33580753
-0.090533003 -0.26270983 -0.33581871
-0.090260506 -0.26271275 -0.33581042
-0.0902 -0.26266399 -0.335805
-0.089662999 -0.26261899 -0.335803
-0.089447998 -0.26267949 -0.33580723
-0.08930631 -0.2626912 -0.33580819
-0.089097999 -0.26272109 -0.3358269
-0.088889934 -0.26272064 -0.33586559
-0.088728935 -0.26272553 -0.33593434
-0.088446006 -0.26269975 -0.33596125
-0.088370875 -0.26268211 -0.33596909
-0.088079251 -0.26268557 -0.33596751
-0.087939993 -0.26267403 -0.33598074
-0.087765247 -0.26271525 -0.33599824
-0.094257005 -0.26252642 -0.33596402
-0.094058372 -0.26251128 -0.33592436
-0.093897149 -0.26247874 -0.33589712
-0.09371987 -0.26248446 -0.33587193
-0.093511783 -0.26249418 -0.33588088
-0.093314491 -0.26250994 -0.33587581
-0.093081951 -0.26251358 -0.33588332
-0.092872843 -0.26251695 -0.33587593
-0.092685245 -0.2624999 -0.33588287
-0.092506565 -0.26248008 -0.33586544
-0.092285998 -0.2624827 -0.33582494
-0.092162885 -0.26249823 -0.33581612
-0.09063825 -0.262465 -0.33580801
-0.090525895 -0.26250666 -0.33581227
-0.090267286 -0.26252693 -0.33580896
-0.090190008 -0.26250675 -0.33580673
-0.089603998 -0.26248398 -0.33581066
-0.089552164 -0.26246569 -0.33581281
-0.089331001 -0.26249462 -0.33580807
-0.089111678 -0.26251042 -0.3358303
-0.088915572 -0.26251107 -0.33586231
-0.08873605 -0.26252088 -0.33592638
-0.088470541 -0.26251599 -0.33598259
-0.088369407 -0.26251522 -0.33599338
-0.088052571 -0.26250544 -0.33598813
-0.087890327 -0.26248541 -0.33598837
-0.087728202 -0.2625044 -0.33599439
-0.094246134 -0.26230907 -0.33597228
-0.094074592 -0.26232535 -0.3359299
-0.093932703 -0.26231271 -0.33589551
-0.093718648 -0.26227909 -0.33587018
-0.093508899 -0.26228362 -0.33589423
-0.093318 -0.26228577 -0.3358869
-0.093078665 -0.26230699 -0.33589101
-0.092874713 -0.26231876 -0.33588162
-0.092675246 -0.26232988 -0.33588398
-0.092502728 -0.26228586 -0.33586928
-0.092284404 -0.26227814 -0.33583495
-0.092119388 -0.26228094 -0.33581066
-0.090634428 -0.26228127 -0.33580944
-0.090507604 -0.262297 -0.33582458
-0.090262778 -0.26231956 -0.3358129
-0.090149641 -0.26230314 -0.33581901
-0.089639798 -0.2622568 -0.33581299
-0.089538418 -0.26227775 -0.33582792
-0.089306571 -0.26228562 -0.33582845
-0.089104056 -0.26229826 -0.33586276
-0.088936917 -0.26230025 -0.33585995
-0.088734388 -0.26230663 -0.33593637
-0.088485107 -0.26232657 -0.3359879
-0.088346578 -0.26229128 -0.33599687
-0.088037506 -0.262299 -0.33599699
-0.087910913 -0.26228112 -0.33598566
-0.087719284 -0.26224086 -0.3359983
-0.094229698 -0.26210743 -0.33597392
-0.094099127 -0.26211581 -0.33593047
-0.093931496 -0.26211798 -0.33590916
-0.093718618 -0.26209989 -0.33587968
-0.093506709 -0.26207754 -0.33590773
-0.093314998 -0.26208383 -0.33589634
-0.093070805 -0.26209646 -0.33589911
-0.092879996 -0.2621119 -0.33589572
-0.092675187 -0.26211283 -0.33588937
-0.092507742 -0.26211938 -0.33587402
-0.092270695 -0.26209712 -0.33583742
-0.092102304 -0.26207721 -0.33581951
-0.090622336 -0.262079 -0.33581969
-0.090504378 -0.26208806 -0.33582827
-0.090282999 -0.26211143 -0.33582428
-0.090128139 -0.26210579 -0.33581966
-0.089674748 -0.26212949 -0.33581951
-0.089526504 -0.26208508 -0.33583951
-0.089288116 -0.26208723 -0.33584377
-0.089105189 -0.2620793 -0.33586925
-0.088928141 -0.26209512 -0.33587199
-0.088716522 -0.262097 -0.33594576
-0.088564001 -0.26209864 -0.33598134
-0.088313252 -0.26213223 -0.33599478
-0.088028997 -0.26219401 -0.336
-0.087896749 -0.262117 -0.33599401
-0.087647498 -0.26214498 -0.33599699
-0.094218202 -0.26190537 -0.33597198
-0.094123587 -0.26190066 -0.33593994
-0.093944095 -0.26190791 -0.33591574
-0.093733646 -0.26191986 -0.33588964
-0.093511693 -0.2619105 -0.33592457
-0.093295835 -0.2618731 -0.33592415
-0.093062609 -0.26188487 -0.33591679
-0.092915565 -0.26189861 -0.33592457
-0.092712894 -0.26190063 -0.33591738
-0.092497863 -0.26191643 -0.33588597
-0.0922959 -0.26192588 -0.33585656
-0.092092954 -0.26187962 -0.33583868
-0.091455512 -0.26187816 -0.33580413
-0.091380604 -0.26189277 -0.33580762
-0.091041662 -0.26191601 -0.335807
-0.090985999 -0.26185799 -0.3358095
-0.090668879 -0.26186287 -0.33581725
-0.090490542 -0.26188079 -0.33584315
-0.09029486 -0.26187959 -0.33584258
-0.090119161 -0.26190203 -0.33583474
-0.089862496 -0.26188269 -0.33581772
-0.089713253 -0.26192638 -0.33582839
-0.089535005 -0.2619105 -0.33585459
-0.08929 -0.26190642 -0.33585352
-0.089096941 -0.26187888 -0.33587256
-0.088919215 -0.26189178 -0.33586544
-0.088704728 -0.26188585 -0.33593392
-0.088551 -0.26195899 -0.33599401
-0.087833002 -0.26199901 -0.33599001
-0.094292752 -0.2616592 -0.33598271
-0.094129398 -0.26169494 -0.33594632
-0.093932651 -0.2616986 -0.33591878
-0.093711153 -0.26171297 -0.33591914
-0.093500726 -0.26172677 -0.33592784
-0.093303606 -0.26169682 -0.33593801
-0.093044005 -0.26168829 -0.33595389
-0.092940442 -0.26167697 -0.33594489
-0.092720598 -0.26169559 -0.3359454
-0.092501067 -0.26170149 -0.33590886
-0.09230683 -0.26171625 -0.33586678
-0.092104159 -0.26171315 -0.33585358
-0.0919405 -0.26170021 -0.33580899
-0.091627993 -0.26168567 -0.33580232
-0.091408998 -0.26169348 -0.335803
-0.091375999 -0.26169643 -0.3358067
-0.091043003 -0.26173034 -0.33580765
-0.090944715 -0.26168099 -0.33580443
-0.090719201 -0.26169688 -0.33581898
-0.090500191 -0.26170054 -0.33585408
-0.090301782 -0.26167879 -0.33585179
-0.090113223 -0.26168776 -0.33585176
-0.089866005 -0.26170418 -0.33583909
-0.089747123 -0.2616984 -0.33583829
-0.089525357 -0.26171994 -0.33585715
-0.08928144 -0.26171535 -0.33586815
-0.089095257 -0.26171139 -0.33587322
-0.088925615 -0.26167521 -0.33587521
-0.088694662 -0.26167846 -0.33595058
-0.094438709 -0.26150399 -0.33599311
-0.094306715 -0.26148823 -0.33597323
-0.094138108 -0.26147744 -0.33597243
-0.093925312 -0.2614941 -0.3359378
-0.093697235 -0.26149938 -0.33593935
-0.093487501 -0.26151308 -0.33594841
-0.093287542 -0.26152012 -0.33596379
-0.093048111 -0.26152179 -0.33598158
-0.092932053 -0.26148006 -0.3359645
-0.092681713 -0.26150241 -0.33597183
-0.092487939 -0.26149467 -0.3359144
-0.092321336 -0.2615051 -0.33587936
-0.092098616 -0.26151934 -0.33585081
-0.091927998 -0.26152849 -0.3358084
-0.0916389 -0.2614598 -0.33580422
-0.091516003 -0.26146615 -0.33580658
-0.091342449 -0.26147446 -0.33580402
-0.091125511 -0.26147258 -0.33581141
-0.090899408 -0.26150715 -0.33582351
-0.090704672 -0.26152295 -0.33582103
-0.090492375 -0.26152441 -0.33587408
-0.090336673 -0.26147953 -0.33586732
-0.090107523 -0.26147559 -0.33588022
-0.089861758 -0.26149622 -0.33584312
-0.089745633 -0.26148942 -0.33584967
-0.089523405 -0.2615056 -0.33586466
-0.089276448 -0.26151714 -0.33587515
-0.089092195 -0.26151934 -0.33589071
-0.088926181 -0.26150763 -0.33589825
-0.088690184 -0.26149985 -0.33594927
-0.088600002 -0.261471 -0.33599001
-0.094400004 -0.26139799 -0.33599901
-0.094300151 -0.2613177 -0.33598801
-0.094115309 -0.26129514 -0.33598906
-0.09391728 -0.26127943 -0.33596709
-0.09369161 -0.26129431 -0.33596179
-0.093484595 -0.26130217 -0.33597124
-0.093321301 -0.26132208 -0.33598191
-0.093194 -0.261347 -0.33598799
-0.092918247 -0.26133722 -0.33598977
-0.092629395 -0.26131639 -0.33598679
-0.092489354 -0.26127902 -0.33594462
-0.092325568 -0.26129448 -0.33590639
-0.092094675 -0.26131099 -0.33584648
-0.09190812 -0.26130182 -0.33581886
-0.091675498 -0.26129749 -0.33580884
-0.091548726 -0.26128271 -0.33582121
-0.091335461 -0.26127872 -0.33581826
-0.091092326 -0.26129699 -0.33582139
-0.090901434 -0.26130033 -0.33583564
-0.09069369 -0.26130843 -0.33583137
-0.090480499 -0.26131546 -0.33586705
-0.090347998 -0.26131722 -0.33587125
-0.090083241 -0.26128817 -0.33589607
-0.089867219 -0.26127952 -0.3358669
-0.089743935 -0.26128438 -0.33586413
-0.089504927 -0.26129535 -0.3358818
-0.089266337 -0.2613028 -0.3358852
-0.089086778 -0.26131344 -0.33590522
-0.08890494 -0.26132441 -0.33590186
-0.088670857 -0.2613245 -0.33597109
-0.088593997 -0.261399 -0.335998
-0.094331332 -0.26116267 -0.33599535
-0.094114199 -0.261163 -0.33599001
-0.093901284 -0.26110321 -0.33599213
-0.093683206 -0.26111406 -0.33598942
-0.093490161 -0.26116198 -0.33598515
-0.093387 -0.26116401 -0.335998
-0.092458434 -0.26108691 -0.33596489
-0.092323929 -0.26108307 -0.33592877
-0.092085265 -0.26110458 -0.33586034
-0.091892704 -0.2611095 -0.33584058
-0.091699719 -0.26110974 -0.33582655
-0.091555312 -0.26111299 -0.33582085
-0.091310829 -0.26109201 -0.3358638
-0.091095276 -0.26108092 -0.33584979
-0.090909645 -0.2610921 -0.3358582
-0.090703301 -0.26109913 -0.33586663
-0.09048339 -0.26110342 -0.33589572
-0.090334915 -0.261107 -0.33591092
-0.090093344 -0.26111987 -0.33591056
-0.089904137 -0.26108655 -0.33589301
-0.089729935 -0.26108846 -0.33587897
-0.089487799 -0.26108634 -0.33588028
-0.089257531 -0.26109993 -0.33591413
-0.089102216 -0.26109406 -0.33591568
-0.088903822 -0.26111212 -0.33592629
-0.088675074 -0.26113361 -0.33598483
-0.092421003 -0.260932 -0.33599001
-0.092315629 -0.2608847 -0.33595356
-0.092073947 -0.26089197 -0.33590123
-0.091887422 -0.26089308 -0.33588159
-0.09169919 -0.26091692 -0.33586109
-0.091538765 -0.26091182 -0.33586931
-0.091307215 -0.26092097 -0.33587268
-0.091070309 -0.26088044 -0.33588165
-0.090898871 -0.26087803 -0.33588323
-0.090702005 -0.26088735 -0.33588326
-0.090486318 -0.26089644 -0.33591163
-0.090331651 -0.26089498 -0.33593971
-0.090071835 -0.26091367 -0.33592924
-0.089912005 -0.26091462 -0.33592463
-0.089722998 -0.26091132 -0.3358883
-0.089465424 -0.26087987 -0.33591464
-0.089256734 -0.26088536 -0.33593285
-0.08910805 -0.26088959 -0.33593363
-0.088891163 -0.26089728 -0.33594245
-0.088684618 -0.26091614 -0.33598289
-0.092294753 -0.26073113 -0.33597723
-0.092070393 -0.26068172 -0.33591709
-0.091901578 -0.26068726 -0.33590499
-0.091734 -0.26069289 -0.33588415
-0.091527142 -0.26070559 -0.33587885
-0.09128347 -0.26071498 -0.33590239
-0.091083199 -0.26071179 -0.33590159
-0.090902776 -0.26069954 -0.33588937
-0.090693198 -0.26069033 -0.33590448
-0.090493187 -0.26068106 -0.33593154
-0.090322807 -0.26068413 -0.33595687
-0.09005741 -0.26070738 -0.33593994
-0.089938857 -0.26070288 -0.33592328
-0.089722149 -0.26071712 -0.3359274
-0.089463599 -0.26071221 -0.33592629
-0.089273997 -0.26069885 -0.3359336
-0.089110099 -0.26067877 -0.33593479
-0.088888906 -0.26069427 -0.33594543
-0.0887025 -0.26069698 -0.33598301
-0.092254996 -0.26056835 -0.33598301
-0.092097081 -0.26051429 -0.33594283
-0.091912337 -0.26049572 -0.33592597
-0.091728345 -0.26048076 -0.33590847
-0.091507852 -0.26049423 -0.33590716
-0.091275536 -0.26050863 -0.33592385
-0.091080718 -0.26051119 -0.33591229
-0.090891741 -0.26052466 -0.33590552
-0.090712272 -0.26051718 -0.3359367
-0.090484835 -0.26048765 -0.33594882
-0.090316437 -0.26048619 -0.33597231
-0.090054877 -0.26048571 -0.33597201
-0.089933008 -0.26049981 -0.33596432
-0.089717388 -0.26050961 -0.33593735
-0.089477271 -0.2605204 -0.33594772
-0.089291796 -0.26053599 -0.33594212
-0.089115195 -0.26049441 -0.33595428
-0.088899851 -0.26048225 -0.33596188
-0.088768199 -0.26048404 -0.33598718
-0.092058405 -0.26033011 -0.3359527
-0.091917545 -0.26031807 -0.33596119
-0.091712855 -0.26029414 -0.3359277
-0.091502741 -0.26028132 -0.33594006
-0.091280989 -0.26028493 -0.33595678
-0.091072433 -0.2603063 -0.33597016
-0.090888284 -0.2603099 -0.33596307
-0.090709426 -0.26032302 -0.33596045
-0.090510719 -0.26031736 -0.33597216
-0.09033718 -0.26030871 -0.33598235
-0.090052135 -0.26030901 -0.33598229
-0.089918889 -0.26030377 -0.3359839
-0.089698114 -0.26029822 -0.33596691
-0.089462496 -0.26031417 -0.3359718
-0.089305215 -0.26031777 -0.33597133
-0.089125469 -0.26032257 -0.33597988
-0.088910714 -0.26032528 -0.33598787
-0.088781998 -0.26034299 -0.33599949
-0.092039667 -0.26013482 -0.335989
-0.091919817 -0.26011893 -0.33597919
-0.091738559 -0.26011825 -0.33597466
-0.09149462 -0.26009065 -0.33597007
-0.0912726 -0.26011309 -0.33598417
-0.091160998 -0.26012099 -0.335989
-0.090892002 -0.26017079 -0.33599156
-0.090710595 -0.26017481 -0.33599201
-0.090495557 -0.26015544 -0.33598867
-0.090311863 -0.2601454 -0.33599219
-0.090071 -0.26013601 -0.33599901
-0.089849003 -0.260151 -0.33599499
-0.089682885 -0.26009116 -0.33598658
-0.089463718 -0.26013631 -0.335991
-0.089392662 -0.26012531 -0.33599433
-0.091894999 -0.25997701 -0.33599699
-0.091712907 -0.25995648 -0.33598644
-0.091499731 -0.2599583 -0.33598784
-0.089603998 -0.25981101 -0.33599401
-0.091830507 -0.28006601 -0.33579099
-0.093111999 -0.27982715 -0.33579215
-0.092885211 -0.2798408 -0.33578619
-0.092798002 -0.279836 -0.33578101
-0.092219003 -0.27986899 -0.33579499
-0.092098199 -0.2798304 -0.33579177
-0.091896363 -0.27985963 -0.33577454
-0.091658548 -0.2798712 -0.33578762
-0.091572337 -0.27985999 -0.33579364
-0.093258329 -0.27965966 -0.33577764
-0.093096629 -0.27967724 -0.33577305
-0.092873 -0.27968773 -0.33575258
-0.09268523 -0.27969068 -0.33577222
-0.092489295 -0.27967957 -0.33578587
-0.092296377 -0.27970088 -0.33576486
-0.092103161 -0.27971393 -0.33574441
-0.091909133 -0.27969307 -0.3357327
-0.091653273 -0.27968791 -0.33575878
-0.091533884 -0.2796908 -0.3357732
-0.09130954 -0.27967054 -0.33579299
-0.093647197 -0.2794666 -0.33578518
-0.093511783 -0.27947798 -0.33579099
-0.093338653 -0.27951127 -0.33576953
-0.093106993 -0.27948904 -0.33574331
-0.092885397 -0.2794776 -0.33570996
-0.092668928 -0.27949709 -0.33572266
-0.09248323 -0.27950224 -0.33574247
-0.092305206 -0.27951583 -0.33572915
-0.092104271 -0.27952179 -0.33571169
-0.091937274 -0.27951601 -0.33569431
-0.091669939 -0.27948335 -0.33571646
-0.091536917 -0.27948177 -0.33572844
-0.091292098 -0.27950022 -0.33577475
-0.091074556 -0.27948877 -0.33578297
-0.090929799 -0.27948141 -0.33578801
-0.090773001 -0.27947274 -0.33578974
-0.093648709 -0.2792933 -0.33577627
-0.093514286 -0.27930883 -0.33576143
-0.09332861 -0.27931666 -0.33573833
-0.093103997 -0.27931973 -0.33571136
-0.092864834 -0.27928725 -0.33566344
-0.092665248 -0.27928299 -0.33568093
-0.092491001 -0.27929577 -0.33569914
-0.092315696 -0.27930561 -0.33569834
-0.092107803 -0.27930933 -0.33568579
-0.091919333 -0.27932286 -0.33568013
-0.091661431 -0.27929312 -0.33569247
-0.091534749 -0.27927396 -0.33570355
-0.091277003 -0.2792913 -0.3357397
-0.091061406 -0.27931029 -0.33575669
-0.090940908 -0.27930653 -0.33575979
-0.090716898 -0.27931836 -0.33577922
-0.093858592 -0.27902961 -0.33578721
-0.093679212 -0.27909443 -0.33576158
-0.093504012 -0.27909663 -0.33573943
-0.093313448 -0.27910864 -0.33570927
-0.093085662 -0.27911934 -0.33568007
-0.092873491 -0.27912417 -0.33564559
-0.092681803 -0.2790713 -0.33564228
-0.09249457 -0.27908975 -0.33566961
-0.092317626 -0.27908871 -0.33566427
-0.092108823 -0.27910966 -0.3356646
-0.091913991 -0.27911365 -0.33564281
-0.091684125 -0.27912012 -0.33565438
-0.091519192 -0.27908427 -0.3356767
-0.091262065 -0.27908346 -0.33570731
-0.091059998 -0.27910301 -0.33572036
-0.090936378 -0.279098 -0.33572084
-0.090698518 -0.27911329 -0.33573472
-0.090518303 -0.27909827 -0.33578381
-0.090359002 -0.27900001 -0.335789
-0.094038993 -0.27886149 -0.33579749
-0.093889706 -0.27887651 -0.33577386
-0.093683273 -0.27888638 -0.335729
-0.093503401 -0.27888787 -0.33570883
-0.093298227 -0.27890059 -0.33567962
-0.093070053 -0.27891129 -0.33565533
-0.0928692 -0.27893537 -0.33562467
-0.092700213 -0.27890876 -0.33562165
-0.092488065 -0.27887788 -0.33563471
-0.092310853 -0.27888399 -0.33563805
-0.092107669 -0.27889678 -0.33563647
-0.091909379 -0.27890152 -0.33562732
-0.091694176 -0.27892086 -0.33563718
-0.091536053 -0.27891773 -0.33565959
-0.091256738 -0.27887526 -0.33569011
-0.091106787 -0.27888298 -0.33568999
-0.090929337 -0.27889469 -0.33570775
-0.09069258 -0.2789076 -0.33570513
-0.090505414 -0.27891392 -0.3357451
-0.090334803 -0.27890351 -0.335776
-0.090099819 -0.27884147 -0.33578652
-0.094705008 -0.27865452 -0.33579084
-0.094201997 -0.278649 -0.33578601
-0.094087064 -0.27871066 -0.33577785
-0.093904756 -0.27871189 -0.3357527
-0.093703553 -0.27867854 -0.33570579
-0.093496501 -0.27868295 -0.33568609
-0.093286775 -0.27869695 -0.3356688
-0.093067341 -0.27870312 -0.33563849
-0.092959799 -0.27869678 -0.33562121
-0.092697494 -0.27875626 -0.33560574
-0.092491172 -0.27869415 -0.33561555
-0.092311665 -0.27867886 -0.33562425
-0.092108287 -0.278694 -0.33561656
-0.091907889 -0.27870056 -0.33561626
-0.091677994 -0.27871284 -0.33561817
-0.091517493 -0.27872592 -0.33564201
-0.091252916 -0.27868971 -0.33566412
-0.0911332 -0.27868682 -0.33566079
-0.090926439 -0.27868608 -0.33569491
-0.090681665 -0.27869567 -0.33568645
-0.09049511 -0.2787095 -0.33572093
-0.090313278 -0.27872837 -0.33575159
-0.090106755 -0.2787089 -0.33576494
-0.089896001 -0.27862567 -0.33579603
-0.089730553 -0.27868384 -0.33578798
-0.094721772 -0.2784799 -0.33578908
-0.094446391 -0.27845919 -0.33578157
-0.094329596 -0.27847591 -0.33578497
-0.094118454 -0.27851743 -0.33575523
-0.093898036 -0.27852061 -0.33572826
-0.093703702 -0.2785179 -0.3356874
-0.093489304 -0.27847922 -0.33567604
-0.093298659 -0.27848399 -0.33566412
-0.093067817 -0.27849466 -0.33562538
-0.092963338 -0.27852568 -0.33560601
-0.092510507 -0.27859801 -0.33560598
-0.092289701 -0.27849287 -0.33561346
-0.092161499 -0.27853173 -0.33560801
-0.09191367 -0.27849233 -0.33561432
-0.091667503 -0.27857351 -0.335601
-0.091513939 -0.27851379 -0.33562735
-0.091268934 -0.27852574 -0.33563736
-0.091152422 -0.27851358 -0.33564487
-0.090926565 -0.27848148 -0.33565503
-0.090677701 -0.27848488 -0.33568168
-0.090489119 -0.27850595 -0.33571261
-0.090328276 -0.27850822 -0.33570758
-0.090094425 -0.27852571 -0.33576164
-0.089865498 -0.27849999 -0.33579099
-0.089714386 -0.27847657 -0.3357749
-0.094820671 -0.27829036 -0.335794
-0.094690271 -0.27827311 -0.33576667
-0.094455071 -0.27827916 -0.33576578
-0.094335951 -0.27829552 -0.33576721
-0.094108328 -0.27830702 -0.33573231
-0.093886308 -0.27831599 -0.33571529
-0.093719333 -0.27832413 -0.33568704
-0.093506172 -0.27830872 -0.33567151
-0.093294047 -0.27827269 -0.33565193
-0.093065292 -0.2782912 -0.33562437
-0.092981339 -0.27827033 -0.335614
-0.092259288 -0.27833015 -0.33560672
-0.09191718 -0.27828577 -0.33560878
-0.091487922 -0.27831247 -0.33561167
-0.091261774 -0.27832383 -0.33562702
-0.09114626 -0.27831843 -0.33562449
-0.090914838 -0.27828667 -0.33563879
-0.090676785 -0.27828214 -0.33563522
-0.090492241 -0.27828947 -0.33570105
-0.090317458 -0.27830458 -0.33568731
-0.090081222 -0.27832061 -0.33575591
-0.089934498 -0.27830699 -0.33576876
-0.089710005 -0.27829033 -0.33576405
-0.094870538 -0.27812564 -0.33578882
-0.094713815 -0.27810764 -0.33575591
-0.094466545 -0.27808109 -0.33574751
-0.094329722 -0.27808717 -0.33575493
-0.094102472 -0.27810264 -0.33571711
-0.093891002 -0.27810392 -0.33569881
-0.093726091 -0.27811608 -0.33567795
-0.093493655 -0.27812409 -0.33565006
-0.093279064 -0.2780903 -0.335646
-0.093091592 -0.2780993 -0.33562082
-0.092973083 -0.27807909 -0.33561
-0.091926001 -0.27814099 -0.335601
-0.091270119 -0.27811089 -0.33561188
-0.091143005 -0.27812693 -0.33561796
-0.090911381 -0.27811924 -0.33564091
-0.090663381 -0.2780799 -0.33562976
-0.090482719 -0.2780858 -0.33567923
-0.090301603 -0.27809733 -0.33566701
-0.090072721 -0.27810946 -0.33573359
-0.08994218 -0.27811599 -0.3357515
-0.089705214 -0.27811635 -0.3357625
-0.094857998 -0.27793035 -0.33578876
-0.094694816 -0.27792588 -0.33574411
-0.094486997 -0.27790028 -0.33574927
-0.094322778 -0.27787918 -0.33574367
-0.094091795 -0.27789176 -0.33570501
-0.093891621 -0.27789837 -0.33568653
-0.093726791 -0.27790892 -0.33566967
-0.093485042 -0.2779243 -0.33563575
-0.093302108 -0.27791607 -0.33564427
-0.093169808 -0.27788538 -0.33563101
-0.092961498 -0.27791226 -0.33560789
-0.091158666 -0.27793756 -0.33560431
-0.090891667 -0.27792352 -0.33562189
-0.090660997 -0.27791426 -0.33563682
-0.090494469 -0.27788046 -0.33566976
-0.090302497 -0.27788824 -0.33566701
-0.090059496 -0.27790502 -0.33571643
-0.089935854 -0.27789786 -0.335742
-0.089682713 -0.27792087 -0.33575323
-0.089487493 -0.277897 -0.335796
-0.094845004 -0.2777108 -0.33578598
-0.094718933 -0.27771693 -0.33574247
-0.094537228 -0.27772367 -0.33572087
-0.094319634 -0.27768373 -0.33573401
-0.094104469 -0.27767882 -0.3356984
-0.093899138 -0.27769291 -0.33566943
-0.093720593 -0.27769673 -0.33565485
-0.093477122 -0.27771723 -0.33563554
-0.093289368 -0.27771726 -0.33563128
-0.093147203 -0.27771878 -0.3356154
-0.09087427 -0.27771667 -0.33562472
-0.090660624 -0.2777299 -0.33561236
-0.090513691 -0.27770942 -0.33565536
-0.090295956 -0.27767697 -0.33567673
-0.090051711 -0.27769762 -0.33570901
-0.08994171 -0.2776919 -0.33572191
-0.089665242 -0.27771381 -0.33575961
-0.089473665 -0.27772436 -0.33579066
-0.094861992 -0.27750307 -0.33578295
-0.094715521 -0.27750948 -0.3357442
-0.094528101 -0.27750927 -0.33571678
-0.094325118 -0.27751306 -0.33572426
-0.094100811 -0.27748391 -0.33569047
-0.093912542 -0.27747783 -0.33566451
-0.093727253 -0.27749574 -0.33564082
-0.09347707 -0.27750057 -0.33563581
-0.09331128 -0.27751076 -0.33562237
-0.093182996 -0.277522 -0.33560199
-0.090861283 -0.27751377 -0.3356238
-0.090685137 -0.27752686 -0.33561453
-0.09049838 -0.27753809 -0.3356384
-0.090278998 -0.27748546 -0.3356927
-0.090059355 -0.27748522 -0.33569565
-0.08994443 -0.27748579 -0.33571163
-0.089657828 -0.27750546 -0.33575761
-0.089499131 -0.27750748 -0.33577013
-0.089392997 -0.277522 -0.335798
-0.094871297 -0.27728969 -0.33577093
-0.094724931 -0.27730095 -0.33574915
-0.094524749 -0.27730867 -0.3357085
-0.09430287 -0.27732489 -0.33572018
-0.094097607 -0.27729362 -0.33570784
