-0.174009 0.104603 0.979173 0.0162538
-0.1795 0.0987381 0.97879 0.00675973
-0.176432 0.111194 0.978012 0.0118169
-0.174819 0.109054 0.978543 0.0166784
-0.177727 0.118865 0.976875 0.0141305
-0.176877 0.119669 0.976931 0.0136354
-0.170343 0.121986 0.977805 0.00016938
-0.167082 0.120601 0.978539 0.00149803
-0.166851 0.128044 0.977632 0
-0.064041 -0.267766 0.961353 0.0236607
-0.0652714 -0.261859 0.962897 0.0252169
-0.0627564 -0.262397 0.962917 0.0138466
-0.0623373 -0.252702 0.965534 0.0194932
-0.0803025 -0.261989 0.961724 0.0264772
-0.0790593 -0.266104 0.960697 0.0226324
-0.0739482 -0.268025 0.96057 0.0211466
-0.059836 -0.240631 0.968771 0.0222506
-0.0597367 -0.244932 0.967698 0.0252487
-0.0840502 -0.261112 0.961643 0.0342008
-0.0836688 -0.265036 0.960602 0.0410294
-0.083704 -0.261978 0.961437 0.0391586
-0.0896605 -0.265422 0.959954 0.0352014
-0.087906 -0.259238 0.961805 0.0336771
-0.087152 -0.257773 0.962267 0.0360521
-0.0838873 -0.252076 0.964065 0.0381137
-0.0861533 -0.254936 0.963112 0.0262861
-0.0905973 -0.260965 0.961088 0.0328979
-0.091429 -0.267047 0.959337 0.0344595
-0.0894982 -0.245873 0.965162 0.0349009
-0.0917944 -0.237328 0.967083 0.0207359
-0.0900445 -0.228513 0.969368 0.0191399
-0.101059 -0.248545 0.963334 0.0398807
-0.0994475 -0.244761 0.96447 0.0349538
-0.106044 -0.249709 0.962497 0.0364473
-0.104278 -0.249866 0.962649 0.03981
-0.103192 -0.247583 0.963356 0.038692
-0.102108 -0.242326 0.964807 0.0388808
-0.104284 -0.239865 0.965189 0.0155931
-0.101703 -0.249833 0.962933 0.0121775
-0.10267 -0.230128 0.967729 0.00873407
-0.101875 -0.240138 0.965378 0.00862667
-0.105131 -0.246691 0.963375 0.0140109
-0.110037 -0.218151 0.969692 0.0197046
-0.121861 -0.234788 0.964378 0.0306875
-0.121364 -0.232706 0.964945 0.0291506
-0.117728 -0.223782 0.967503 0.0323935
-0.115924 -0.229978 0.966267 0.00568507
-0.117571 -0.229689 0.966137 0.017338
-0.122612 -0.234037 0.964465 0
-0.114017 -0.224007 0.967895 0
-0.127651 -0.23358 0.963922 0
-0.123392 -0.228164 0.965772 0
-0.128842 -0.23205 0.964133 0
-0.13758 -0.219702 0.965817 0.00844043
-0.13929 -0.22298 0.96482 0.00607982
-0.139633 -0.221344 0.965147 0.0106745
-0.143066 -0.208247 0.967556 0.013965
-0.143152 -0.211594 0.966817 0.0174589
-0.146805 -0.218308 0.964774 0.0226266
-0.142924 -0.202456 0.968806 0.0151335
-0.163378 -0.187876 0.968509 0.0174698
-0.16301 -0.17891 0.970267 0.0163258
-0.160548 -0.177035 0.971022 0.0212002
-0.171696 -0.179204 0.968714 0.0203836
-0.155915 -0.170001 0.973031 0.00974825
-0.165674 -0.161653 0.972841 0.0163771
-0.164201 -0.170063 0.971657 0.0133195
-0.166104 -0.154229 0.973973 0.0178379
-0.157993 -0.147341 0.976386 0.00797112
-0.165013 -0.156821 0.973744 0.0115999
-0.159753 -0.151291 0.975495 0.00702551
-0.176312 -0.164253 0.970533 0.016243
-0.168284 -0.157582 0.973062 0.0160978
-0.177221 -0.16236 0.970686 0.0204437
-0.177857 -0.152013 0.972244 0.0165896
-0.173544 -0.14956 0.973404 0.00426156
-0.173134 -0.153964 0.97279 0
-0.178798 -0.156325 0.971388 0.00383437
-0.190253 -0.161103 0.968426 0.0160848
-0.202108 -0.162484 0.965791 0.0275817
-0.190641 -0.158004 0.968861 0.0179574
-0.169466 -0.112611 0.979081 0.0103358
-0.172627 -0.11552 0.97819 0.0113885
-0.168376 -0.110785 0.979478 0.00854296
-0.162465 -0.108977 0.980678 0
-0.174815 -0.118633 0.977428 0
-0.169132 -0.114251 0.978949 0
-0.178942 -0.122062 0.976258 0
-0.172911 -0.11773 0.977876 0
-0.168605 -0.115052 0.978946 0
-0.179826 -0.121354 0.976184 0.002115
-0.184926 -0.123277 0.97499 0
-0.20537 -0.129063 0.970137 0.0166091
-0.204525 -0.127987 0.970458 0.017017
-0.199225 -0.127149 0.97167 0.00915869
-0.197181 -0.125032 0.972361 0.00963124
-0.207256 -0.129394 0.969692 0.0116579
-0.20304 -0.127023 0.970896 0.0174353
-0.207947 -0.129067 0.969588 0.0140491
-0.199339 -0.1246 0.971977 0.00544289
-0.191095 -0.102234 0.976233 0.00898492
-0.182523 -0.0971197 0.978393 0
-0.187022 -0.0833071 0.978817 0.000338266
-0.196838 -0.0804419 0.97713 0.0114825
-0.207567 -0.0787552 0.975045 0.0231051
-0.271139 -0.0776376 0.959404 0.0481677
-0.261153 -0.0739081 0.962464 0.0446374
-0.243899 -0.0666739 0.967506 0.0355834
-0.219227 0.0664645 0.973407 0.0212557
-0.20288 0.0666361 0.976934 0.017175
-0.196803 0.072673 0.977746 0.023782
-0.18538 0.072033 0.980023 0.0247221
-0.182108 0.0736915 0.980513 0.025814
-0.177352 0.0762078 0.981192 0.0253433
-0.214558 0.0649479 0.97455 0.0159776
-0.179326 0.0810296 0.980447 0.0287104
-0.173875 0.0854616 0.981052 0.022751
-0.171939 0.0915534 0.980844 0.0248112
-0.172489 0.0999163 0.979931 0.0245514
-0.171461 0.103396 0.97975 0.0191279
-0.183247 0.108358 0.977077 0.026957
-0.170732 0.110753 0.979073 0.0189379
-0.168854 0.112225 0.979231 0.0193821
-0.177182 0.128174 0.975796 0.0294505
-0.17699 0.13988 0.974222 0.0244165
-0.168699 0.134333 0.976471 0.0154841
-0.161535 0.127257 0.978628 0.0024966
-0.0663069 -0.267972 0.961142 0.0196235
-0.0651229 -0.273879 0.959557 0.0215393
-0.074343 -0.264796 0.961434 0.0194205
-0.0693687 -0.262455 0.962448 0.012272
-0.067986 -0.270983 0.96018 0.012918
-0.0672009 -0.276434 0.958681 0.0203221
-0.0636511 -0.255286 0.964768 0.0221018
-0.062661 -0.245729 0.967311 0.026762
-0.0542223 -0.249494 0.966857 0.0177786
-0.0862906 -0.267763 0.959613 0.0531935
-0.0837883 -0.259184 0.962187 0.04316
-0.079614 -0.263571 0.961349 0.0327602
-0.0613098 -0.235534 0.96993 0.0285096
-0.0601692 -0.241252 0.968595 0.026994
-0.058088 -0.244004 0.968033 0.0253808
-0.0829816 -0.253788 0.963694 0.0394057
-0.0542162 -0.242274 0.968692 0.0289668
-0.0505578 -0.243988 0.968459 0.0213492
-0.0854931 -0.256603 0.962728 0.0331168
-0.0878826 -0.256129 0.962639 0.0364385
-0.0868734 -0.250019 0.964336 0.0414646
-0.0819029 -0.238214 0.967753 0.0394488
-0.0924024 -0.267143 0.959217 0.0400313
-0.0868426 -0.257675 0.962321 0.0318553
-0.083123 -0.253658 0.963716 0.0222434
-0.0914925 -0.257548 0.961924 0.0383819
-0.0881469 -0.242403 0.966163 0.035793
-0.0869797 -0.249974 0.964338 0.0314373
-0.0883093 -0.25353 0.963288 0.032735
-0.0902517 -0.256751 0.962254 0.0342444
-0.0866203 -0.22739 0.969944 0.0185458
-0.0855662 -0.22693 0.970145 0.018725
-0.0880326 -0.233699 0.968316 0.0296782
-0.0889615 -0.227008 0.969821 0.0198398
-0.0947193 -0.226649 0.96936 0.0343624
-0.0992585 -0.239137 0.965899 0.0325809
-0.0901392 -0.223958 0.970421 0.0199098
-0.101636 -0.238458 0.96582 0.0318704
-0.0998727 -0.237922 0.966136 0.0312343
-0.0986072 -0.23889 0.966027 0.0325284
-0.100238 -0.238861 0.965866 0.0349798
-0.0956613 -0.238614 0.966391 0.0330655
-0.0930882 -0.224334 0.970056 0.0312763
-0.102199 -0.233863 0.966883 0.0147807
-0.103018 -0.238816 0.965585 0.0206935
-0.10722 -0.256712 0.960522 0.0338405
-0.0996415 -0.230331 0.967997 0.00942231
-0.102104 -0.236907 0.966152 0.0134448
-0.10029 -0.231119 0.967743 0.00979573
-0.100219 -0.23059 0.967876 0.0214303
-0.10247 -0.22622 0.968672 0.0089265
-0.100718 -0.22278 0.969652 0.0138822
-0.101682 -0.225237 0.968984 0.0145992
-0.111143 -0.216634 0.969906 0.0244088
-0.108441 -0.219617 0.96954 0.0138038
-0.12207 -0.233908 0.964565 0.0330623
-0.118989 -0.227506 0.96648 0.031473
-0.114551 -0.215465 0.96977 0.0312244
-0.108065 -0.217993 0.969949 0.00208319
-0.114197 -0.226435 0.967309 0.00608352
-0.122618 -0.228862 0.965706 0
-0.120571 -0.229179 0.965888 0
-0.111878 -0.220272 0.969001 0
-0.127887 -0.233054 0.964018 0
-0.126242 -0.228423 0.965342 0
-0.127277 -0.221055 0.966921 0
-0.145961 -0.226749 0.962954 0.015483
-0.138614 -0.219558 0.965702 0.0116014
-0.133634 -0.221067 0.96606 0.00806593
-0.144908 -0.219866 0.964707 0.0176977
-0.139095 -0.219505 0.965645 0.0150541
-0.141633 -0.200678 0.969365 0.019831
-0.137333 -0.200175 0.970087 0.0160977
-0.140705 -0.208835 0.967776 0.0182572
-0.141367 -0.198597 0.969832 0.0213123
-0.159974 -0.184524 0.969721 0.0299287
-0.15604 -0.187732 0.969746 0.0270306
-0.16135 -0.183003 0.969782 0.0258464
-0.157002 -0.176994 0.971609 0.0231023
-0.159442 -0.174714 0.971624 0.0227289
-0.158911 -0.163275 0.973698 0.0129083
-0.157048 -0.164854 0.973735 0.0169761
-0.162315 -0.157076 0.974157 0.0140061
-0.164487 -0.156165 0.973939 0.0194834
-0.160798 -0.14731 0.975932 0.0127359
-0.158404 -0.143728 0.976857 0.0136945
-0.159672 -0.148983 0.975863 0.00937067
-0.158186 -0.148179 0.976228 0.00963854
-0.162645 -0.152756 0.974788 0.0109875
-0.162853 -0.150761 0.975064 0.016777
-0.176729 -0.158127 0.971474 0.0243425
-0.171519 -0.1478 0.974031 0.0126464
-0.176853 -0.15189 0.972447 0.00459167
-0.169965 -0.151862 0.973678 0
-0.17068 -0.14646 0.974381 0.00694276
-0.170669 -0.147635 0.974205 0.000179106
-0.171203 -0.150695 0.973643 0.000412118
-0.186387 -0.156489 0.969934 0.0177595
-0.173254 -0.149955 0.973394 0.00413231
-0.190747 -0.153184 0.969613 0.0228116
-0.1808 -0.150001 0.972014 0.0149318
-0.181393 -0.146629 0.972418 0.0176368
-0.177135 -0.14361 0.973652 0.0137391
-0.168199 -0.109493 0.979653 0.00886861
-0.151884 -0.107194 0.982568 0
-0.156754 -0.104447 0.982099 0
-0.148263 -0.103769 0.983489 0
-0.170439 -0.115364 0.978592 0.000209267
-0.172446 -0.117538 0.977981 0.00196608
-0.158281 -0.11088 0.981149 0
-0.182576 -0.121245 0.975687 0.00717278
-0.183853 -0.124128 0.975085 0.00792918
-0.180466 -0.123771 0.975763 0.00502937
-0.181776 -0.121529 0.975801 0.000919749
-0.178908 -0.121393 0.976348 0.00437446
-0.196024 -0.125531 0.972531 0.0151211
-0.199185 -0.124299 0.972047 0.0151538
-0.19401 -0.122626 0.973305 0.0184387
-0.192121 -0.120962 0.973888 0.0144424
-0.204602 -0.126423 0.970647 0.0189252
-0.207359 -0.125876 0.970133 0.0256261
-0.196722 -0.123969 0.97259 0.0109483
-0.19402 -0.122575 0.97331 0.00757023
-0.181915 -0.116354 0.976406 0
-0.177588 -0.115168 0.977343 0
-0.197901 -0.116193 0.973311 0.0143297
-0.199643 -0.115241 0.973069 0.0163102
-0.19311 -0.107012 0.975324 0.0150988
-0.190693 -0.104279 0.976095 0.0151763
-0.193538 -0.102648 0.975708 0.0149445
-0.187806 -0.101776 0.976919 0.00656624
-0.184204 -0.101077 0.977677 0.00572494
-0.189078 -0.100745 0.97678 0.00818417
-0.1815 -0.094252 0.978864 0.0012525
-0.187231 -0.0881008 0.978357 0
-0.186925 -0.087269 0.97849 0.00246397
-0.180339 -0.0839553 0.980015 0
-0.18612 -0.0868685 0.978679 0.00301292
-0.189651 -0.0813667 0.978474 0.00970709
-0.197795 -0.0772383 0.977196 0.0183578
-0.225617 -0.0730871 0.971471 0.0358169
-0.209018 -0.0748579 0.975042 0.0284649
-0.229247 -0.0688998 0.970927 0.0363583
-0.245263 -0.072304 0.966757 0.0413403
-0.243373 -0.0680885 0.96754 0.0443132
-0.234419 -0.0628955 0.970099 0.0325152
-0.228871 -0.0597687 0.97162 0.0231258
-0.230015 -0.0553311 0.971613 0.0214115
-0.234366 -0.0512588 0.970796 0.0309626
-0.217968 -0.0122824 0.975879 0.0110426
-0.221169 -0.00791787 0.975203 0.0102035
-0.228311 -0.0005939 0.973588 0.015583
-0.218203 -0.00031883 0.975903 0.0123708
-0.226663 0.00768065 0.973943 0.0155574
-0.224906 0.00473888 0.974369 0.0182427
-0.227244 0.0112996 0.973772 0.0181177
-0.240956 0.0195428 0.970339 0.0289064
-0.225693 0.0610043 0.972286 0.0212772
-0.221245 0.0687618 0.972791 0.0209702
-0.214623 0.0712855 0.974092 0.0285417
-0.197278 0.0698569 0.977855 0.0236719
-0.185008 0.0667387 0.980468 0.0195821
-0.178491 0.0718378 0.981316 0.0247675
-0.163924 0.13327 0.977429 0.0239933
-0.140654 0.173253 0.974782 0.0208092
-0.126542 0.174154 0.976554 0.0199037
-0.0682041 -0.268143 0.960962 0.0120723
-0.0686185 -0.26571 0.961608 0.0166545
-0.0670959 -0.26876 0.960867 0.0188795
-0.0647422 -0.263212 0.962563 0.0164917
-0.0647792 -0.266113 0.961763 0.0206307
-0.0661615 -0.268527 0.960997 0.026135
-0.0646738 -0.265002 0.962077 0.0196376
-0.0809981 -0.261199 0.961881 0.0386558
-0.0738659 -0.252911 0.964666 0.0217142
-0.0640211 -0.253809 0.965133 0.0252282
-0.0626786 -0.236262 0.969666 0.0242711
-0.0624783 -0.242817 0.968058 0.0277455
-0.0614844 -0.23821 0.969266 0.0312376
-0.0600469 -0.241145 0.96863 0.0313396
-0.0580179 -0.246874 0.967309 0.0282905
-0.0834677 -0.257378 0.962699 0.0488376
-0.0810774 -0.254657 0.963627 0.0378397
-0.0801485 -0.252494 0.964273 0.0360382
-0.0540174 -0.236683 0.970084 0.0296218
-0.0528406 -0.234008 0.970798 0.0301314
-0.0512039 -0.236679 0.970238 0.0166186
-0.0475172 -0.228843 0.972303 0.00403143
-0.0823158 -0.240967 0.967036 0.0392947
-0.08233 -0.243022 0.966521 0.0413818
-0.0829276 -0.248358 0.965112 0.0450519
-0.044934 -0.231278 0.971849 0.00237564
-0.0442246 -0.231291 0.971879 0.00608517
-0.0372355 -0.244877 0.968839 0.00888735
-0.0864856 -0.249506 0.964504 0.0360392
-0.085554 -0.254723 0.963222 0.0347234
-0.0890248 -0.255202 0.962781 0.0418814
-0.0872527 -0.248729 0.964635 0.0420327
-0.0825549 -0.245723 0.965818 0.0400683
-0.0300265 -0.247732 0.968363 0.000620856
-0.0276158 -0.255567 0.966397 0
-0.0877793 -0.248583 0.964625 0.0317259
-0.087429 -0.247668 0.964892 0.0341233
-0.0908995 -0.257758 0.961924 0.0371649
-0.0876896 -0.254522 0.963083 0.0315169
-0.0136351 -0.258916 0.965804 0.000736167
-0.0122675 -0.258596 0.965908 0.000531604
-0.0105807 -0.260668 0.965371 0.00371291
-0.00723356 -0.259067 0.965832 0
-0.0898842 -0.238985 0.966854 0.0324156
-0.0893889 -0.238531 0.967012 0.0432044
-0.0884297 -0.237769 0.967288 0.0380567
-0.0088881 -0.241675 0.970317 0.00878155
-0.00349951 -0.245423 0.96941 0.0100866
-0.0858629 -0.219841 0.97175 0.0182649
-0.087147 -0.224343 0.970606 0.0289505
-0.0851534 -0.22866 0.969775 0.0233182
-0.0917856 -0.22585 0.969828 0.0227763
-0.094682 -0.234304 0.967542 0.0296596
-0.0949266 -0.229153 0.968751 0.0314116
-0.105712 -0.249154 0.962677 0.0329403
-0.100448 -0.236051 0.966535 0.03
-0.0998255 -0.233714 0.967167 0.0311625
-0.0968351 -0.228552 0.968704 0.0302058
-0.0983719 -0.232199 0.967681 0.0348844
-0.0929993 -0.227546 0.969316 0.0318555
-0.091256 -0.223687 0.97038 0.0280963
-0.101547 -0.236465 0.966319 0.0152507
-0.100543 -0.228802 0.968267 0.0319405
-0.102281 -0.227224 0.968456 0.0199209
-0.0980729 -0.218738 0.970843 0.01969
-0.101922 -0.220877 0.969962 0.00971482
-0.100045 -0.219589 0.970449 0.0143325
-0.102527 -0.221291 0.969803 0.0191105
-0.121065 -0.232003 0.965152 0.0305016
-0.11002 -0.208742 0.971763 0.0254048
-0.106236 -0.21009 0.971893 0.0165334
-0.109791 -0.212977 0.970869 0.0108601
-0.115182 -0.221914 0.968239 0.017227
-0.116857 -0.22538 0.967237 0.0289148
-0.114996 -0.217585 0.969243 0.0303153
-0.111357 -0.211644 0.970982 0.0270238
-0.112477 -0.221867 0.968568 0
-0.104815 -0.202295 0.973699 0
-0.121801 -0.22566 0.966562 0
-0.115313 -0.217397 0.969248 0
-0.12317 -0.220913 0.967485 0
-0.12282 -0.225169 0.966547 0
-0.118778 -0.217516 0.968803 0
-0.125965 -0.215372 0.968374 0.00173458
-0.118874 -0.214493 0.969465 0
-0.133179 -0.219397 0.966503 0.0154023
-0.133116 -0.218744 0.96666 0.0178844
-0.137242 -0.199872 0.970163 0.0168497
-0.1406 -0.212745 0.966939 0.0215504
-0.139741 -0.217415 0.966024 0.0193193
-0.135694 -0.190462 0.972271 0.0174724
-0.135345 -0.194939 0.971432 0.017803
-0.136982 -0.187567 0.972653 0.0208677
-0.154204 -0.193221 0.968962 0.0344075
-0.153785 -0.1841 0.970802 0.0256208
-0.15522 -0.190571 0.969324 0.0367087
-0.152709 -0.177955 0.972117 0.0258067
-0.150585 -0.175374 0.972917 0.0260526
-0.151021 -0.174433 0.973019 0.025173
-0.15306 -0.16695 0.974013 0.0172138
-0.156104 -0.17361 0.972364 0.0199973
-0.151127 -0.160201 0.975447 0.0163528
-0.158058 -0.158254 0.974666 0.012813
-0.156045 -0.157546 0.975105 0.0152727
-0.166447 -0.155049 0.973784 0.0260718
-0.156161 -0.153115 0.975792 0.0135291
-0.157752 -0.145521 0.976698 0.0210013
-0.152136 -0.141545 0.978172 0.0115311
-0.151043 -0.140263 0.978526 0.011078
-0.16442 -0.148824 0.975099 0.0185505
-0.162191 -0.148871 0.975465 0.0194672
-0.171431 -0.14903 0.973859 0.024137
-0.160159 -0.141287 0.976927 0.0187234
-0.15997 -0.142455 0.976789 0.0194853
-0.17218 -0.145632 0.974241 0.0296541
-0.164403 -0.142417 0.976058 0.00118551
-0.16894 -0.145822 0.97478 0.0123144
-0.16706 -0.146327 0.975028 0
-0.166116 -0.141905 0.975842 0.00552799
-0.166231 -0.143548 0.975582 0.00335939
-0.163196 -0.139056 0.976745 0.0041041
-0.173942 -0.150148 0.973242 0.00777127
-0.172781 -0.14856 0.973692 0.00662407
-0.173706 -0.142176 0.97448 0.0131955
-0.170651 -0.143063 0.97489 0.00932803
-0.166579 -0.133835 0.976903 0.00745417
-0.167767 -0.135782 0.976431 0.00873954
-0.168411 -0.135085 0.976417 0.00932455
-0.147996 -0.103731 0.983533 0
-0.157134 -0.106634 0.981803 0
-0.148638 -0.103848 0.983424 0
-0.178379 -0.119645 0.976661 0.0065879
-0.168286 -0.116367 0.978846 0
-0.155971 -0.10555 0.982106 0
-0.17764 -0.12173 0.976538 0.00486643
-0.173869 -0.121375 0.97726 0.00118547
-0.169655 -0.117401 0.978486 0.000761684
-0.175719 -0.118125 0.977328 0.00313586
-0.188306 -0.124405 0.974199 0.010038
-0.181989 -0.117187 0.976293 0.0124288
-0.182136 -0.118833 0.976066 0.0106043
-0.189705 -0.119205 0.974578 0.0161799
-0.189607 -0.116818 0.974886 0.0198221
-0.189503 -0.120755 0.974426 0.0112979
-0.190494 -0.117422 0.97464 0.0200324
-0.198967 -0.122458 0.972325 0.0201065
-0.182444 -0.117658 0.976151 0.00595841
-0.177402 -0.11571 0.977312 0
-0.170878 -0.112966 0.978795 0
-0.175995 -0.112825 0.977904 0
-0.176836 -0.111286 0.977929 0.000497204
-0.196409 -0.11076 0.974246 0.0214789
-0.188922 -0.104537 0.976412 0.0207575
-0.187484 -0.102421 0.976913 0.0148777
-0.186271 -0.101182 0.977274 0.0108432
-0.188458 -0.103048 0.97666 0.009703
-0.190296 -0.0955253 0.977068 0.0147262
-0.188212 -0.0954283 0.977481 0.00720298
-0.187257 -0.0944499 0.97776 0.00812863
-0.184115 -0.0891487 0.978854 0.00393544
-0.178776 -0.0813266 0.980523 0.00241515
-0.184141 -0.0822374 0.979453 0.00941406
-0.190795 -0.0780773 0.97852 0.0170533
-0.205366 -0.0744267 0.975851 0.0279348
-0.200303 -0.0746567 0.976885 0.0275394
-0.220702 -0.0676518 0.972992 0.0384752
-0.20122 -0.0662472 0.977303 0.0287838
-0.227057 -0.0690178 0.971433 0.0352838
-0.218007 -0.0628966 0.973918 0.0375128
-0.228737 -0.0639736 0.971384 0.0393669
-0.220146 -0.0620165 0.973494 0.0352322
-0.235395 -0.0629296 0.96986 0.0398036
-0.227666 -0.0592194 0.971937 0.0384288
-0.225069 -0.0563539 0.972712 0.0372321
-0.218793 -0.0544319 0.974252 0.0370403
-0.220056 -0.0545639 0.97396 0.0347766
-0.226393 -0.0540557 0.972535 0.0418588
-0.210665 -0.0518877 0.97618 0.0228801
-0.204966 -0.0460908 0.977683 0.0292212
-0.219542 -0.047451 0.974449 0.0257172
-0.229877 -0.0460415 0.97213 0.0287648
-0.233125 -0.0478677 0.971268 0.0297943
-0.22361 -0.0438485 0.973692 0.0265772
-0.222581 -0.0107188 0.974855 0.0171631
-0.216663 -0.00705426 0.976221 0.0132213
-0.204374 -0.00888378 0.978853 0.00506361
-0.212863 -0.00399119 0.977074 0.0114825
-0.214534 0.00247874 0.976713 0.0161306
-0.217867 0.00802254 0.975946 0.014739
-0.212166 0.0124583 0.977154 0.0139303
-0.227076 0.0164488 0.973738 0.023821
-0.214748 0.0175141 0.976512 0.0199345
-0.229598 0.0233004 0.973007 0.0262485
-0.23666 0.0233294 0.971312 0.0255533
-0.2347 0.0263122 0.971712 0.0230145
-0.227635 0.0548174 0.972202 0.0196808
-0.228906 0.0567113 0.971795 0.0216965
-0.228201 0.0580284 0.971883 0.0230302
-0.21476 0.0597767 0.974836 0.019378
-0.216409 0.0657396 0.974087 0.0283713
-0.201629 0.065571 0.977265 0.0238603
-0.189214 0.0652671 0.979764 0.0202711
-0.183091 0.0705141 0.980564 0.0257881
-0.17919 0.0716922 0.981199 0.0216119
-0.167643 0.0845422 0.982216 0.0227937
-0.164378 0.0932536 0.981979 0.0232854
-0.165554 0.097683 0.981351 0.0239187
-0.141766 0.151067 0.978305 0.0115353
-0.140342 0.175688 0.974391 0.0250415
-0.136798 0.180307 0.974051 0.0256427
-0.130004 0.171962 0.976488 0.0210961
-0.122674 0.169606 0.977847 0.0226627
-0.0700721 -0.267693 0.960953 0.0196763
-0.067849 -0.269404 0.960634 0.0174081
-0.0671546 -0.263911 0.962206 0.017385
-0.0658472 -0.260122 0.963328 0.0241863
-0.0660145 -0.262843 0.962578 0.026176
-0.0675596 -0.263197 0.962374 0.0315883
-0.0659739 -0.263855 0.962304 0.0297543
-0.0655171 -0.236861 0.969332 0.0271586
-0.064147 -0.241066 0.968386 0.0210266
-0.0755366 -0.255275 0.963913 0.0293068
-0.0732353 -0.265505 0.961324 0.0282306
-0.0694044 -0.259808 0.963163 0.0238302
-0.0634876 -0.236752 0.969494 0.028049
-0.0628767 -0.236464 0.969604 0.0287417
-0.0599578 -0.244867 0.967701 0.0307224
-0.0602461 -0.247458 0.967024 0.0325183
-0.0543889 -0.240949 0.969013 0.0286528
-0.0519007 -0.234181 0.970807 0.0261651
-0.0521557 -0.237549 0.969974 0.0224563
-0.081741 -0.241726 0.966896 0.0403264
-0.0791722 -0.237465 0.968164 0.0399921
-0.0804688 -0.242395 0.966835 0.0363956
-0.0544495 -0.234391 0.970616 0.0284129
-0.05333 -0.232151 0.971217 0.0221041
-0.0531612 -0.224765 0.972962 0.0245733
-0.0479866 -0.227085 0.972692 0.0125215
-0.0441432 -0.220812 0.974317 0.00357539
-0.044823 -0.228503 0.972511 0.0107475
-0.0407511 -0.236183 0.970854 0.00796383
-0.0879897 -0.253138 0.963421 0.0442802
-0.0879649 -0.247511 0.964884 0.0477389
-0.0808457 -0.237325 0.96806 0.0376544
-0.0813793 -0.223381 0.971328 0.0449665
-0.0485037 -0.217845 0.974777 0.0134473
-0.0393513 -0.23403 0.971433 0.0139999
-0.0338852 -0.239057 0.970414 0
-0.0332388 -0.245384 0.968856 0.00437298
-0.0280675 -0.250888 0.967609 0
-0.0246452 -0.263706 0.964288 0
-0.0236332 -0.269609 0.96268 0
-0.0904899 -0.256705 0.962244 0.0389521
-0.0866366 -0.251535 0.963963 0.0344325
-0.087144 -0.25501 0.963003 0.0406582
-0.0866844 -0.244836 0.965682 0.0458221
-0.0854335 -0.237743 0.967564 0.0516443
-0.0317716 -0.236641 0.971077 0.00611163
-0.0262774 -0.255343 0.966493 0
-0.0246706 -0.266129 0.963622 0
-0.0155898 -0.253042 0.96733 0.00231766
-0.0160253 -0.249307 0.968292 0.000851325
-0.0891531 -0.247317 0.964824 0.034814
-0.0903079 -0.250101 0.963999 0.0411772
-0.0893491 -0.253118 0.963301 0.0367527
-0.0138936 -0.249577 0.968255 0
-0.0123267 -0.251681 0.967732 0
-0.00917685 -0.248076 0.968697 0
-0.0109839 -0.235619 0.971783 0.00250836
-0.0108282 -0.225329 0.974223 0.00876876
-0.00723817 -0.237518 0.971356 0.0105962
-0.0874616 -0.234979 0.968057 0.0319695
-0.0914493 -0.235052 0.967671 0.0487148
-0.089162 -0.230629 0.968948 0.0435704
-0.00494027 -0.235008 0.971981 0.00755113
-0.00201293 -0.243762 0.969833 0.0155934
0.00101018 -0.246011 0.969266 0.0140436
-0.0854624 -0.22202 0.97129 0.0307153
-0.0869092 -0.217853 0.972104 0.0186762
-0.0868235 -0.229721 0.969376 0.0312423
-0.0856322 -0.223989 0.970822 0.034535
-0.0922583 -0.221055 0.970888 0.0247566
-0.0896991 -0.219 0.971593 0.0303823
-0.0916919 -0.224343 0.970187 0.0270513
-0.0936686 -0.225144 0.969813 0.0320571
-0.0934028 -0.225909 0.96966 0.0299569
-0.0928979 -0.224803 0.969966 0.0301173
-0.0955012 -0.222706 0.970197 0.0275646
-0.097385 -0.217625 0.971162 0.0343322
-0.0970328 -0.222379 0.97012 0.0330538
-0.0980071 -0.222647 0.96996 0.0374486
-0.0920202 -0.225236 0.969949 0.0271713
-0.100253 -0.2203 0.970266 0.0231969
-0.0973551 -0.212545 0.972289 0.0280264
-0.0951798 -0.219497 0.970959 0.0310597
-0.105307 -0.225393 0.96856 0.0217452
-0.102507 -0.221205 0.969825 0.0224417
-0.103358 -0.220153 0.969974 0.0282647
-0.102283 -0.21502 0.971239 0.0174679
-0.101272 -0.213236 0.971738 0.0193678
-0.100305 -0.214237 0.971618 0.0224517
-0.103486 -0.218104 0.970423 0.0193454
-0.104919 -0.201096 0.973937 0.0207882
-0.113271 -0.214067 0.970229 0.0285247
-0.11104 -0.213662 0.970576 0.025652
-0.108009 -0.204014 0.972991 0.0259307
-0.100185 -0.191776 0.976312 0.0174078
-0.107672 -0.204429 0.972942 0.00577362
-0.11011 -0.207335 0.972054 0.0163262
-0.109573 -0.208402 0.971886 0.0263264
-0.107317 -0.204895 0.972883 0.0237272
-0.110628 -0.21355 0.970648 0
-0.108781 -0.210204 0.971587 0
-0.119129 -0.217198 0.968831 0
-0.113903 -0.206474 0.9718 0
-0.118967 -0.216036 0.969111 0
-0.120074 -0.220669 0.967929 0
-0.122739 -0.208479 0.970295 0
-0.119261 -0.204569 0.97156 0
-0.141354 -0.212505 0.966882 0.0253207
-0.141312 -0.217154 0.965854 0.0259054
-0.130967 -0.21333 0.968162 0.0189795
-0.138919 -0.200923 0.969707 0.0244509
-0.137691 -0.204377 0.96916 0.0267028
-0.140116 -0.209502 0.967717 0.0323252
-0.139202 -0.191476 0.971576 0.0242707
-0.137581 -0.193012 0.971503 0.023798
-0.138646 -0.198301 0.970286 0.0250843
-0.138618 -0.186421 0.972642 0.0264524
-0.139013 -0.190209 0.971852 0.0279144
-0.150467 -0.182231 0.971675 0.0352406
-0.144379 -0.174538 0.974008 0.0297661
-0.150407 -0.171081 0.973709 0.0219901
-0.141998 -0.165776 0.975887 0.0219872
-0.15147 -0.166956 0.97426 0.022552
-0.148761 -0.159916 0.975857 0.0198849
-0.148005 -0.153784 0.976957 0.0129636
-0.145937 -0.155695 0.976966 0.0153414
-0.153545 -0.145979 0.977299 0.0165577
-0.152263 -0.150874 0.976756 0.0161205
-0.149856 -0.141873 0.978476 0.0173506
-0.145663 -0.134909 0.980093 0.0140675
-0.14488 -0.136863 0.979938 0.0137957
-0.149103 -0.138736 0.979041 0.00790902
-0.150099 -0.136707 0.979174 0.0134433
-0.150431 -0.135655 0.979269 0.0135589
-0.159404 -0.137987 0.977522 0.0228913
-0.150811 -0.132642 0.979623 0.0153013
-0.165811 -0.138208 0.976425 0.0231083
-0.166521 -0.143435 0.97555 0.0110513
-0.160269 -0.136156 0.977638 0.00373792
-0.157449 -0.132963 0.978535 0.00713257
-0.159348 -0.138277 0.97749 0.00120749
-0.155804 -0.133455 0.978731 0.00147931
-0.158466 -0.137448 0.977751 0.000675298
-0.159098 -0.135395 0.977935 0.005732
-0.164226 -0.138412 0.976664 0.00254349
-0.160777 -0.13755 0.977359 0.00219301
-0.164554 -0.136429 0.976888 0.00629792
-0.162415 -0.136292 0.977265 0.00276596
-0.160444 -0.131426 0.978256 0.00365263
-0.162254 -0.1303 0.978108 0.00578268
-0.156293 -0.123042 0.980017 0.00410749
-0.156511 -0.123433 0.979933 0.00801654
-0.153585 -0.105518 0.982486 0.00152014
-0.153352 -0.104207 0.982662 0.00460227
-0.167713 -0.118521 0.978685 0
-0.158245 -0.10951 0.981308 0.00760215
-0.175219 -0.121696 0.976979 0
-0.170263 -0.120469 0.978007 0
-0.167092 -0.11898 0.978736 0.00164867
-0.169447 -0.114525 0.978863 0.00514209
-0.168562 -0.117451 0.978669 0.00129692
-0.184496 -0.117421 0.975794 0.0181726
-0.180542 -0.11529 0.976787 0.0151047
-0.181071 -0.11498 0.976726 0.0135517
-0.181193 -0.11558 0.976632 0.00989492
-0.176597 -0.112383 0.977846 0.0094018
-0.185244 -0.118987 0.975462 0.0150504
-0.17741 -0.117211 0.977132 0.006278
-0.172487 -0.11596 0.978162 0
-0.165431 -0.110861 0.979971 0
-0.165933 -0.110243 0.979955 0
-0.173619 -0.110272 0.97862 0.000716361
-0.175549 -0.109027 0.978415 0.00211281
-0.17165 -0.10786 0.979236 0.000918404
-0.185907 -0.108717 0.976534 0.0142484
-0.187768 -0.112914 0.975702 0.012358
-0.182812 -0.104956 0.97753 0.0187468
-0.180299 -0.101871 0.978322 0.00873235
-0.18518 -0.0990279 0.977702 0.0138275
-0.186376 -0.0955247 0.977824 0.00955082
-0.185327 -0.0993519 0.977642 0.0104334
-0.184507 -0.0945665 0.978271 0.01016
-0.1837 -0.0919283 0.978674 0.00516248
-0.184946 -0.0917012 0.978461 0.00872003
-0.181329 -0.082733 0.979936 0.00547139
-0.179982 -0.0820776 0.98024 0.00837335
-0.181669 -0.0814217 0.979983 0.00946923
-0.181012 -0.078034 0.98038 0.010953
-0.176877 -0.0750627 0.981366 0.0100658
-0.186509 -0.0723141 0.979788 0.0218604
-0.189506 -0.0754927 0.978973 0.0228902
-0.177488 -0.0700371 0.981628 0.0185391
-0.190741 -0.0690116 0.979212 0.0254748
-0.187732 -0.067514 0.979897 0.0230965
-0.196714 -0.0679289 0.978105 0.0284037
-0.199662 -0.0628638 0.977846 0.028286
-0.212612 -0.0612302 0.975216 0.0392126
-0.2168 -0.0593272 0.974412 0.0379165
-0.219318 -0.0562092 0.974033 0.0387084
-0.220859 -0.0525393 0.97389 0.0415937
-0.216535 -0.0515144 0.974915 0.0386066
-0.218568 -0.0482186 0.97463 0.0417414
-0.219562 -0.0488376 0.974375 0.0420265
-0.210029 -0.0466563 0.976581 0.0334133
-0.208679 -0.0440011 0.976994 0.0333321
-0.211932 -0.045042 0.976246 0.0267586
-0.206665 -0.0442628 0.97741 0.0264258
-0.219235 -0.0425446 0.974744 0.0288429
-0.212004 -0.0397372 0.976461 0.0282277
-0.222576 -0.045458 0.973855 0.0322656
-0.210682 -0.039843 0.976742 0.029812
-0.211182 -0.039893 0.976632 0.0292144
-0.204039 -0.0402747 0.978134 0.0255852
-0.21781 -0.040516 0.97515 0.0262811
-0.210441 -0.0117645 0.977536 0.0117707
-0.214475 -0.00531248 0.976715 0.0208582
-0.207683 -0.0038386 0.978189 0.00955917
-0.211417 0.00558627 0.97738 0.0179471
-0.211458 0.00555425 0.977371 0.0146685
-0.200842 0.00545776 0.979608 0.0107765
-0.209901 0.0138161 0.977625 0.0167367
-0.215781 0.0221305 0.976191 0.0225095
-0.221698 0.0215537 0.974877 0.0237906
-0.216499 0.0227272 0.976018 0.0223613
-0.223612 0.0272699 0.974297 0.0239237
-0.221084 0.0299661 0.974794 0.0218739
-0.220449 0.0320446 0.974872 0.0209938
-0.230618 0.0400009 0.972222 0.0233661
-0.225364 0.0564199 0.97264 0.0281292
-0.211872 0.0560445 0.975689 0.0238611
-0.202422 0.0607424 0.977413 0.0216686
-0.185811 0.0608679 0.980698 0.0255045
-0.219538 0.0544249 0.974085 0.0247386
-0.208397 0.0612186 0.976127 0.0211399
-0.198932 0.0609905 0.978113 0.0188777
-0.190625 0.0648105 0.979521 0.0226791
-0.18325 0.0639819 0.980982 0.0237173
-0.142391 0.135545 0.980486 0.0256383
-0.0286044 0.176279 0.983925 0.00913574
-0.0320613 0.176848 0.983716 0.0119378
-0.145431 0.14946 0.978014 0.0216474
-0.0171409 0.163199 0.986444 0.00860515
-0.0140155 0.165172 0.986165 0.0057592
-0.0070143 0.146232 0.989226 0.00962259
-0.027961 0.179601 0.983342 0.0148217
-0.0286062 0.174375 0.984264 0.0118261
-0.0307552 0.172727 0.98449 0.0058105
-0.0318173 0.170004 0.98493 0.00770961
-0.0332931 0.170105 0.984863 0.00505653
-0.0337192 0.174201 0.984133 0.00719066
-0.143342 0.153488 0.977699 0.0140621
-0.141504 0.156849 0.977433 0.0296416
-0.00628406 0.174794 0.984585 0.0134728
-0.00567206 0.164578 0.986348 0.0112678
-0.00441626 0.168327 0.985721 0.0129446
-0.1411 0.167178 0.975778 0.0276663
-0.138286 0.169258 0.975822 0.0323979
-0.125725 0.159824 0.979107 0.0243195
-0.11105 0.151032 0.982272 0.0163721
-0.0656056 -0.259778 0.963437 0.0234776
-0.066776 -0.259087 0.963543 0.0283392
-0.0680116 -0.25924 0.963415 0.0364371
-0.0667337 -0.255275 0.964563 0.0332684
-0.0745204 -0.24848 0.965766 0.0288946
-0.0706599 -0.255154 0.964315 0.0231172
-0.0700994 -0.262248 0.962451 0.0244458
-0.0656092 -0.256934 0.964199 0.0182322
-0.0660684 -0.258268 0.963812 0.0270178
-0.0683539 -0.262434 0.962526 0.0331607
-0.0677615 -0.265786 0.961648 0.0358176
-0.0660497 -0.261078 0.963055 0.0345481
-0.0666647 -0.242034 0.967975 0.0327058
-0.0656323 -0.239431 0.968693 0.0261337
-0.0796219 -0.239863 0.967536 0.040186
-0.0814994 -0.248653 0.965158 0.0389023
-0.0734766 -0.243663 0.967073 0.0252469
-0.0666716 -0.229521 0.971018 0.029615
-0.0657131 -0.242264 0.967982 0.0327785
-0.0642981 -0.235679 0.969702 0.0350368
-0.0611114 -0.237923 0.96936 0.0299318
-0.058556 -0.239395 0.969155 0.0317717
-0.0527704 -0.227501 0.972347 0.0265162
-0.0800408 -0.235963 0.96846 0.0374571
-0.0778679 -0.234963 0.96888 0.0359049
-0.0771962 -0.225881 0.971091 0.0334049
-0.0558589 -0.225158 0.97272 0.0270662
-0.0541805 -0.229119 0.971889 0.0256319
-0.0523292 -0.224841 0.972989 0.0239337
-0.0541308 -0.214336 0.975259 0.0313632
-0.0480288 -0.205501 0.977478 0.00995765
-0.0454307 -0.209513 0.97675 0.00938765
-0.0444188 -0.212859 0.976073 0.00639728
-0.0425593 -0.222596 0.973981 0.0088966
-0.0809042 -0.230768 0.969639 0.0378315
-0.0806277 -0.225397 0.970925 0.0411235
-0.0773754 -0.226216 0.970999 0.0357943
-0.0386965 -0.217183 0.975364 0.0081572
-0.0362896 -0.222318 0.974299 0.00512243
-0.0336298 -0.231251 0.972313 0
-0.033479 -0.233251 0.97184 0.0100797
-0.0293283 -0.245462 0.968962 0
-0.0243679 -0.262504 0.964623 0
-0.0869125 -0.244741 0.965685 0.0439573
-0.0846645 -0.234994 0.968303 0.0457644
-0.0853411 -0.237176 0.967711 0.0476987
-0.0819365 -0.23878 0.967611 0.0409883
-0.0810546 -0.232079 0.969314 0.0345564
-0.0290732 -0.246374 0.968739 0
-0.0284074 -0.249195 0.968037 0
-0.0246545 -0.254806 0.966678 0
-0.0178881 -0.243779 0.969666 0.00630176
-0.0155498 -0.251939 0.967618 0
-0.0154715 -0.247629 0.968731 0
-0.0110353 -0.240577 0.970567 0
-0.0116932 -0.233852 0.972202 0.00602635
-0.0110671 -0.232713 0.972483 0.00949217
-0.0876459 -0.223592 0.970734 0.0393264
-0.0876252 -0.220147 0.971523 0.0434256
-0.0858186 -0.22379 0.970852 0.0373163
-0.0876241 -0.229764 0.969294 0.0466151
-0.0884475 -0.241411 0.966384 0.04654
-0.00664678 -0.235446 0.971865 0.00734922
-0.0054945 -0.236677 0.971573 0.00896934
-0.0861464 -0.221751 0.971291 0.0319347
-0.0844888 -0.209791 0.974089 0.0391755
-0.0029181 -0.237284 0.971436 0.0103973
0.000557015 -0.242971 0.970034 0.018224
0.0116847 -0.234818 0.971969 0.00843731
0.0149038 -0.229682 0.973152 0.015176
0.0147398 -0.228649 0.973397 0.0184227
0.0133539 -0.218574 0.975729 0.0135606
-0.0838525 -0.217911 0.97236 0.0284041
0.0137578 -0.214185 0.976696 0.000143592
-0.0872714 -0.218246 0.971984 0.0387085
-0.0872097 -0.219806 0.971638 0.0407658
0.0154717 -0.212275 0.977088 0.000270237
0.0196961 -0.218577 0.975621 0
-0.0935383 -0.222657 0.970399 0.0346134
-0.0899158 -0.221915 0.970911 0.032828
0.0231611 -0.224303 0.974244 0
-0.0950623 -0.226937 0.969259 0.0314789
-0.0925951 -0.221149 0.970834 0.0280326
-0.093418 -0.221896 0.970585 0.0337765
-0.0926748 -0.219312 0.971243 0.0369762
-0.0930613 -0.210962 0.973054 0.0298509
-0.0935425 -0.217647 0.971535 0.0299539
-0.0937889 -0.214265 0.972262 0.0340002
-0.0940945 -0.211731 0.972788 0.0360018
-0.0937672 -0.215334 0.972028 0.0346364
-0.0920418 -0.214906 0.972288 0.0328173
-0.0915094 -0.21246 0.972875 0.0317693
-0.0897753 -0.209067 0.973772 0.0337734
-0.100263 -0.211144 0.972299 0.0296665
-0.0893799 -0.198076 0.976103 0.0277385
-0.0912125 -0.214344 0.97249 0.0311553
-0.0902335 -0.208129 0.97393 0.0328843
0.0332075 -0.236793 0.970992 0
0.0322147 -0.226738 0.973423 0
-0.102363 -0.218334 0.970491 0.0227743
-0.100286 -0.210365 0.972466 0.0265083
-0.0995787 -0.20614 0.973443 0.0332941
0.0328176 -0.220476 0.97484 0
0.039689 -0.234387 0.971333 0
-0.102229 -0.212883 0.971715 0.0226584
-0.0992447 -0.207788 0.973126 0.0202442
-0.0988049 -0.203892 0.973995 0.0220728
-0.106903 -0.20182 0.973571 0.0251749
-0.106886 -0.201564 0.973626 0.020108
-0.101909 -0.189294 0.976618 0.0234137
0.059673 -0.217561 0.974221 0.00159959
-0.105253 -0.197296 0.974677 0.00318247
-0.106107 -0.200373 0.973957 0.0122564
-0.106351 -0.195506 0.974919 0.0245587
-0.104789 -0.193983 0.975392 0.0242117
-0.10337 -0.194569 0.975427 0.019145
-0.112016 -0.200829 0.973201 0
-0.105693 -0.200855 0.973903 0
-0.107559 -0.202532 0.973351 0.00177294
-0.116776 -0.211362 0.970407 0
-0.110363 -0.198961 0.973773 0
-0.116883 -0.207953 0.97113 0
-0.117173 -0.207941 0.971098 0
-0.11563 -0.209081 0.971038 0
-0.11668 -0.198072 0.973218 0
-0.117078 -0.202178 0.972325 0
-0.116595 -0.205388 0.97171 0
-0.1142 -0.190653 0.974992 0
-0.129329 -0.207183 0.969716 0.0226799
-0.128128 -0.202606 0.970842 0.0241315
-0.134262 -0.202713 0.96999 0.024581
-0.133239 -0.201094 0.970468 0.0287184
-0.135959 -0.188956 0.972528 0.0228924
-0.133535 -0.185106 0.973604 0.0262563
-0.132362 -0.187931 0.973223 0.0263583
-0.136502 -0.180875 0.973987 0.0272718
-0.134106 -0.184325 0.973673 0.0282539
-0.13581 -0.174136 0.975311 0.0261728
-0.141468 -0.166783 0.975792 0.0243658
-0.141232 -0.161947 0.976641 0.0174597
-0.14422 -0.159421 0.976619 0.0158121
-0.137706 -0.158204 0.977757 0.0135508
-0.14297 -0.149472 0.978375 0.0134791
-0.137926 -0.150356 0.978963 0.0107709
-0.140928 -0.139851 0.980092 0.0124212
-0.138165 -0.142873 0.98005 0.00937072
-0.144586 -0.140207 0.979508 0.0132284
-0.13694 -0.134363 0.981424 0.00538318
-0.141502 -0.130211 0.981337 0.0157877
-0.139908 -0.136334 0.980734 0.00767334
-0.141081 -0.128778 0.981587 0.00796376
-0.134616 -0.125156 0.982962 0.00306756
-0.13671 -0.126826 0.982459 0.00961923
-0.143058 -0.131348 0.98096 0.00505467
-0.149815 -0.13113 0.97998 0.0151644
-0.149516 -0.127511 0.980503 0.0180697
-0.144702 -0.123566 0.98173 0.0188248
-0.161248 -0.130015 0.978312 0.0273382
-0.153782 -0.130964 0.979387 0.0221178
-0.16423 -0.135345 0.977093 0.0240451
-0.161913 -0.128091 0.978456 0.0295531
-0.158163 -0.127482 0.979149 0.0297726
-0.157742 -0.135599 0.978126 0.00783109
-0.163949 -0.132932 0.977471 0.027453
-0.150212 -0.128054 0.980326 0.00409769
-0.154663 -0.129999 0.979377 0.0101372
-0.154812 -0.130219 0.979325 0.0135637
-0.15621 -0.137178 0.978152 0
-0.152766 -0.129552 0.979734 0.00476389
-0.149607 -0.125258 0.980779 0.00827447
-0.152572 -0.132448 0.979377 0
-0.153338 -0.131774 0.979348 0.00148139
-0.156444 -0.133687 0.978597 0
-0.150889 -0.132452 0.979637 0
-0.15134 -0.126722 0.980325 0
-0.148366 -0.126331 0.98083 0
-0.148762 -0.121959 0.981323 0.000285015
-0.147176 -0.124269 0.981273 0
-0.150234 -0.118318 0.981545 0.00506437
-0.144879 -0.120086 0.982135 0
-0.155317 -0.121956 0.980308 0.00725303
-0.15833 -0.123988 0.979571 0.0121418
-0.151457 -0.119038 0.98127 0.00970525
-0.153136 -0.104487 0.982666 0.0119828
-0.152382 -0.107144 0.982497 0.00345097
-0.146877 -0.100931 0.983992 0.00931282
-0.164876 -0.111602 0.97998 0.00844134
-0.163199 -0.115426 0.979818 0.00151342
-0.177184 -0.112901 0.977681 0.0212626
-0.171244 -0.111455 0.978904 0.0176262
-0.183725 -0.120816 0.975525 0.0203804
-0.174607 -0.113033 0.978129 0.0206142
-0.177774 -0.116225 0.977184 0.0132715
-0.17084 -0.112575 0.978847 0.0133681
-0.165153 -0.111174 0.979982 0.00596784
-0.172766 -0.113172 0.97844 0.00855495
-0.170896 -0.112099 0.978891 0.0059027
-0.164268 -0.109869 0.980278 0
-0.163416 -0.110686 0.980328 0.000735224
-0.16391 -0.111302 0.980176 0
-0.166239 -0.110689 0.979853 0
-0.169157 -0.110536 0.979371 0
-0.16159 -0.107873 0.980945 0
-0.180087 -0.107252 0.977786 0.00825964
-0.182091 -0.1065 0.977497 0.0157796
-0.178457 -0.103874 0.978449 0.0134236
-0.17086 -0.101457 0.980058 0.0110832
-0.171813 -0.099042 0.980138 0.0123095
-0.165012 -0.0937067 0.98183 0.00790212
-0.189695 -0.0968355 0.977056 0.0178577
-0.181719 -0.0924642 0.978994 0.0116212
-0.181597 -0.0913794 0.979118 0.00757849
-0.175208 -0.0808347 0.981207 0.00776013
-0.171928 -0.0669158 0.982834 0.0133303
-0.170678 -0.0672165 0.983032 0.0166751
-0.181138 -0.067259 0.981155 0.0198661
-0.171505 -0.0642212 0.983088 0.0156319
-0.189619 -0.0650691 0.979699 0.0259558
-0.185113 -0.0652735 0.980547 0.0231465
-0.200744 -0.0614267 0.977716 0.0329421
-0.190297 -0.0623306 0.979746 0.0260677
-0.209463 -0.0580847 0.97609 0.0370426
-0.199031 -0.0594707 0.978187 0.0268837
-0.207034 -0.0578823 0.97662 0.0320391
-0.195857 -0.0538897 0.979151 0.0282638
-0.211056 -0.0517128 0.976105 0.0386072
-0.207057 -0.0491577 0.977093 0.0340671
-0.205561 -0.0462828 0.977549 0.0306688
-0.201863 -0.0455952 0.978352 0.0333754
-0.198029 -0.042797 0.979261 0.0248404
-0.191137 -0.039338 0.980775 0.0218505
-0.205463 -0.0411876 0.977798 0.0248123
-0.197468 -0.0409855 0.979452 0.022419
-0.192989 -0.0388429 0.980432 0.0261909
-0.20462 -0.0391355 0.978059 0.0278964
-0.194438 -0.0390485 0.980137 0.0246407
-0.189426 -0.0397137 0.981092 0.0236264
-0.200239 -0.0408306 0.978896 0.0268508
-0.193554 -0.0391482 0.980308 0.0243741
-0.20082 -0.0380133 0.97889 0.0237929
-0.196829 -0.037549 0.979719 0.0262513
-0.210509 -0.038626 0.976829 0.0205102
-0.193305 -0.0350391 0.980513 0.0204725
-0.192552 -0.0338473 0.980703 0.0242337
-0.203401 -0.000659 0.979095 0.0166617
-0.20856 0.00739209 0.977982 0.0274134
-0.202093 0.00871095 0.979327 0.0199692
-0.203666 0.0123403 0.978963 0.0168507
-0.204221 0.0198189 0.978724 0.0166159
-0.197588 0.017446 0.98013 0.0127283
-0.206859 0.0221225 0.978121 0.0192653
-0.213072 0.025731 0.976698 0.0199823
-0.214248 0.0291458 0.976344 0.0194493
-0.209858 0.0280458 0.97733 0.0204757
-0.214982 0.0356561 0.975967 0.0212626
-0.208422 0.0293344 0.977599 0.019457
-0.220721 0.0398856 0.974521 0.0230674
-0.227939 0.0430498 0.972723 0.0253159
-0.219494 0.0399959 0.974794 0.0229823
-0.227507 0.0468907 0.972647 0.0247528
-0.225489 0.0506391 0.972929 0.0242423
-0.224383 0.053008 0.973058 0.0304021
-0.227628 0.0536572 0.972269 0.0277649
-0.222784 0.0533239 0.973408 0.0288898
-0.221942 0.0517202 0.973687 0.0249048
-0.219313 0.0535217 0.974185 0.0284129
-0.209539 0.05032 0.976505 0.0236805
-0.199242 0.0526927 0.978533 0.0216106
-0.190417 0.0576428 0.980009 0.0283593
-0.180667 0.0643622 0.981436 0.029753
-0.21786 0.05851 0.974225 0.0270155
-0.209912 0.0585346 0.975967 0.0249269
-0.195636 0.0604659 0.978811 0.0247593
-0.184042 0.059125 0.981139 0.0255272
-0.155245 0.0792973 0.984688 0.0264219
-0.151942 0.0838604 0.984825 0.0248292
-0.152682 0.0889964 0.98426 0.0243373
-0.147436 0.0878992 0.985158 0.0195662
-0.141257 0.116459 0.983099 0.0258163
-0.140298 0.123886 0.982328 0.0232415
-0.00488556 0.124161 0.99225 0
-0.0327807 0.163597 0.985982 0.0116833
-0.014177 0.151334 0.988381 0.000909093
-0.00534351 0.128347 0.991715 0
-0.00576141 0.13283 0.991122 0.0103844
-0.00775949 0.141093 0.989966 0.0115774
-0.00875161 0.12928 0.99157 0.007695
-0.0108789 0.13135 0.991276 0.0121112
-0.0269198 0.174099 0.98436 0.0157169
-0.0278242 0.168284 0.985346 0.0152635
-0.0306801 0.168714 0.985188 0.017511
-0.0332844 0.164751 0.985773 0.0105671
-0.0337129 0.164839 0.985744 0.00434728
-0.0357618 0.174806 0.983953 0.009193
-0.139441 0.151669 0.978546 0.0289964
-0.135691 0.146243 0.979898 0.0261855
-0.0241284 0.150043 0.988385 0.00298013
-0.0175888 0.156978 0.987445 0.00811972
-0.00661043 0.150903 0.988526 0.00706906
-0.00624788 0.147617 0.989025 0.0091822
-0.00464088 0.149205 0.988795 0.0079137
-0.00452878 0.156812 0.987618 0.009533
-0.00518104 0.154344 0.988004 0.00864229
-0.0043317 0.15365 0.988116 0.00657109
-0.0252077 0.167 0.985635 0.0158244
-0.0359548 0.16882 0.984991 0.00894117
-0.0380746 0.179909 0.982946 0.0141698
-0.0474486 0.149315 0.987651 0
-0.0371275 0.141771 0.989203 0
-0.0391042 0.149411 0.988002 0
-0.14151 0.158256 0.977205 0.0333745
-0.13481 0.155109 0.978656 0.0310365
-0.133551 0.156657 0.978582 0.0324603
-0.127328 0.150949 0.980307 0.0280692
-0.109435 0.13984 0.984108 0.019985
-0.0420765 0.176334 0.983431 0.00682365
-0.0413363 0.185767 0.981724 0.0137885
-0.038406 0.169132 0.984845 0.00390131
-0.0485635 0.155789 0.986596 0
-0.0486414 0.158291 0.986194 0
-0.0483776 0.148178 0.987777 0
-0.0478622 0.146105 0.988111 0
-0.0480137 0.141755 0.988737 0
-0.0466568 0.139659 0.9891 0.000809207
-0.0389643 0.156318 0.986938 0
-0.0404491 0.164788 0.985499 0.00332894
-0.0380585 0.172229 0.984321 0.00951509
-0.0363257 0.162019 0.986119 0
-0.129735 0.160432 0.978484 0.0277238
-0.122469 0.149746 0.98111 0.0197996
-0.0346048 0.15643 0.987083 0
-0.0698474 -0.251684 0.965286 0.0203697
-0.0691801 -0.251476 0.965388 0.0202738
-0.0666867 -0.257858 0.963879 0.0276617
-0.0661925 -0.254115 0.964906 0.0322626
-0.0681245 -0.253998 0.964803 0.0349894
-0.0670165 -0.261303 0.962928 0.0410569
-0.066629 -0.233422 0.97009 0.0361807
-0.0669461 -0.235675 0.969523 0.0298448
-0.0658768 -0.246027 0.967022 0.0326157
-0.0637758 -0.242821 0.967973 0.0314861
-0.0719791 -0.233243 0.969751 0.0281339
-0.0695944 -0.248526 0.966122 0.0263029
-0.0703422 -0.255114 0.964349 0.0253028
-0.0656823 -0.240625 0.968393 0.0341943
-0.0661637 -0.23881 0.96881 0.0348634
-0.0629644 -0.235318 0.969877 0.0372933
-0.0597974 -0.234196 0.970349 0.034154
-0.0563538 -0.221852 0.973451 0.0305022
-0.0560583 -0.213718 0.975286 0.031698
-0.0542549 -0.222183 0.973494 0.027541
-0.0537126 -0.216189 0.974873 0.024731
-0.0768688 -0.221445 0.972139 0.0340915
-0.0782096 -0.224017 0.971442 0.0369019
-0.0749979 -0.22287 0.971959 0.0337275
-0.0626672 -0.225125 0.972313 0.030814
-0.0472718 -0.208905 0.976793 0.0115221
-0.046009 -0.207513 0.97715 0.00932291
-0.0442937 -0.206906 0.977358 0.00390816
-0.0420641 -0.215786 0.975534 0.00776462
-0.0397623 -0.203167 0.978337 0.00848745
-0.0361032 -0.217102 0.975481 0.00398597
-0.0872436 -0.235181 0.968028 0.0481842
-0.0814444 -0.230521 0.969653 0.0408187
-0.0823536 -0.222003 0.971562 0.044348
-0.0765736 -0.21507 0.973592 0.0390566
-0.0774807 -0.213994 0.973757 0.0348193
-0.0345905 -0.220862 0.974692 0.00232663
-0.0327272 -0.230742 0.972465 0.00745791
-0.0305713 -0.241542 0.969909 0
-0.0293344 -0.244243 0.96927 0
-0.027505 -0.257072 0.966001 0
-0.0262577 -0.246471 0.968794 0
-0.0873866 -0.234973 0.968066 0.0440017
-0.0886562 -0.23306 0.968413 0.0506565
-0.086698 -0.22622 0.97021 0.053391
-0.0839678 -0.223445 0.971093 0.0494459
-0.0805957 -0.222213 0.971661 0.0424357
-0.0817285 -0.222684 0.971459 0.0433988
-0.0778284 -0.214148 0.973696 0.0412338
-0.0290635 -0.239047 0.970573 0
-0.0263869 -0.244784 0.969218 0
-0.0223871 -0.233668 0.972059 0.0029289
-0.0211198 -0.22929 0.973129 0.00448241
-0.0166032 -0.24558 0.969234 0.00106906
-0.0155 -0.241152 0.970364 0
-0.0141455 -0.238627 0.971008 0
-0.0146005 -0.221726 0.975 0
-0.0124141 -0.223008 0.974738 0
-0.0125112 -0.222361 0.974884 0.00705495
-0.0114294 -0.221971 0.974986 0.00585899
-0.0861004 -0.212421 0.973378 0.0453958
-0.0837673 -0.212549 0.973553 0.0401267
-0.0823513 -0.21479 0.973182 0.0399968
-0.0854912 -0.225471 0.970492 0.0485134
-0.086921 -0.220016 0.971616 0.052466
-0.0831103 -0.219487 0.972069 0.049705
-0.0805517 -0.21018 0.974339 0.0477036
-0.0802742 -0.222312 0.971665 0.0455895
-0.00631301 -0.234443 0.972109 0.000353994
-0.00668959 -0.22959 0.973264 0.00360233
-0.00548363 -0.23151 0.972817 0.00450107
-0.000286799 -0.243196 0.969977 0.0103249
1.52021e-05 -0.245784 0.969325 0.0209569
0.00639319 -0.244065 0.969738 0.027133
0.0144355 -0.230981 0.972851 0.0205843
-0.0838699 -0.209559 0.974192 0.0338856
-0.0810002 -0.200292 0.976382 0.0382409
-0.0815537 -0.201613 0.976064 0.0384796
-0.0802024 -0.198996 0.976713 0.0413477
-0.0814896 -0.200285 0.976343 0.0483708
0.00600237 -0.240294 0.970682 0.0252884
0.00674311 -0.237675 0.971321 0.0216306
0.0083259 -0.235215 0.971908 0.01645
0.00868618 -0.224107 0.974526 0.0175081
0.0130741 -0.224708 0.974338 0.0215198
0.0132398 -0.216569 0.976177 0.0126752
-0.0848104 -0.215664 0.972778 0.0298109
-0.0803464 -0.199774 0.976542 0.0314171
0.0127849 -0.212297 0.977122 0.00240365
-0.0904669 -0.22029 0.97123 0.0373452
-0.0892528 -0.224986 0.970266 0.0397811
-0.0859863 -0.216961 0.972386 0.0383927
-0.0925861 -0.216732 0.971831 0.0395305
-0.0911113 -0.219268 0.971401 0.0396591
-0.0889419 -0.22004 0.971428 0.0379461
0.0245405 -0.225624 0.973905 0
-0.0910425 -0.208819 0.973707 0.0327424
-0.0881448 -0.203617 0.975075 0.0305251
-0.0883211 -0.209649 0.97378 0.0350264
-0.0896055 -0.212402 0.973065 0.0357151
-0.0908766 -0.206236 0.974273 0.0346531
-0.0892522 -0.202803 0.975143 0.0330021
-0.0906306 -0.205508 0.97445 0.0362197
-0.0896178 -0.208356 0.973939 0.0351149
-0.0877616 -0.196248 0.976619 0.0315427
-0.0915758 -0.207045 0.974036 0.0336871
-0.0904697 -0.203143 0.974961 0.0318282
0.0303634 -0.233813 0.971807 0
0.0259574 -0.213329 0.976636 0
-0.0979903 -0.201731 0.974527 0.0328938
-0.0896035 -0.19046 0.977597 0.0347695
-0.0887617 -0.194984 0.976782 0.0364282
-0.0854341 -0.18954 0.978149 0.0360687
-0.0847119 -0.189516 0.978217 0.0373741
-0.0850617 -0.192464 0.97761 0.0350474
-0.0857989 -0.186711 0.978661 0.0326628
-0.0884715 -0.192606 0.97728 0.0317813
0.0280691 -0.214134 0.976401 0
-0.098344 -0.198177 0.97522 0.0284728
-0.0995927 -0.202909 0.97412 0.0349329
0.0284402 -0.208702 0.977566 0
0.0347792 -0.222911 0.974218 0
0.0332337 -0.208194 0.977523 0
-0.0997273 -0.20491 0.973687 0.0229105
-0.0967391 -0.200627 0.97488 0.0233353
-0.0944854 -0.197632 0.975712 0.0207972
-0.0983876 -0.198585 0.975133 0.027734
-0.0938887 -0.193036 0.976689 0.0330218
-0.0990168 -0.205428 0.97365 0.0226488
-0.0966096 -0.2019 0.97463 0.0212746
-0.094263 -0.198769 0.975503 0.0199246
-0.0966489 -0.181642 0.978604 0.0194208
0.0569606 -0.214656 0.975027 0
0.0599736 -0.21371 0.975054 0.0033903
0.0673601 -0.227425 0.971463 0
-0.10519 -0.196061 0.974934 0.00894621
-0.102009 -0.188326 0.976795 0.016114
-0.105011 -0.195472 0.975071 0.0191133
-0.100015 -0.183739 0.977874 0.0158444
-0.0977528 -0.17763 0.97923 0.0189261
-0.096667 -0.181784 0.978576 0.0200002
0.066344 -0.220414 0.973148 0
-0.105164 -0.195288 0.975091 0.0018978
-0.103072 -0.193482 0.975675 0
-0.102079 -0.190841 0.976299 0.00434898
-0.101097 -0.187843 0.976982 0.0124406
-0.0995322 -0.185038 0.977678 0.0164012
-0.0967087 -0.175473 0.979723 0.0142651
-0.0955609 -0.173101 0.980257 0.0191731
-0.105232 -0.196937 0.974752 0
-0.0993871 -0.186694 0.977378 0
-0.0999698 -0.186311 0.977392 0
-0.0987839 -0.185342 0.977696 0.00105881
-0.112734 -0.199789 0.973332 0
-0.108665 -0.192432 0.975275 0
-0.105392 -0.194026 0.975318 0
-0.114955 -0.195503 0.973942 0
-0.114075 -0.197774 0.973587 0
-0.112044 -0.199195 0.973534 0
