# .PCD v0.7 - Point Cloud Data file format
VERSION 0.7
FIELDS x y z
SIZE 4 4 4
TYPE F F F
COUNT 1 1 1
WIDTH 1379
HEIGHT 1
VIEWPOINT 0 0 0 1 0 0 0
POINTS 1379
DATA ascii
-0.0361345 0.090740994 -0.22415349
-0.036051501 0.090740494 -0.22416849
-0.035978999 0.090769 -0.224161
-0.035659 0.090749003 -0.22411899
-0.035564002 0.090745002 -0.22411799
-0.035463002 0.090741999 -0.224135
-0.029033501 0.090746 -0.22410899
-0.028937999 0.090734497 -0.22411251
-0.028831501 0.090733498 -0.2241575
-0.037110999 0.090899996 -0.224181
-0.037035003 0.090827003 -0.22419649
-0.036966503 0.090856001 -0.224171
-0.0368095 0.090845004 -0.224159
-0.036651 0.090844005 -0.2241675
-0.036564499 0.090838 -0.2241665
-0.036474001 0.090866998 -0.224181
-0.036375001 0.090865001 -0.224197
-0.036247499 0.090854503 -0.2241745
-0.036130998 0.090846002 -0.22415
-0.036046997 0.090846002 -0.22416899
-0.035976 0.090841003 -0.22416499
-0.035652999 0.090857498 -0.22414699
-0.035558499 0.090852499 -0.22415
-0.035458997 0.090847999 -0.22413951
-0.028829001 0.090837002 -0.22413
-0.037108999 0.090970002 -0.224177
-0.036961999 0.090962999 -0.22418
-0.036805 0.090949997 -0.22416
-0.036646999 0.090947002 -0.22416399
-0.036561001 0.090943001 -0.224163
-0.036471002 0.090937003 -0.224187
-0.036257997 0.090948999 -0.22417633
-0.036150668 0.090964675 -0.22415967
-0.036043748 0.090949997 -0.2241585
-0.0359715 0.090946004 -0.22416949
-0.035647999 0.090963997 -0.22417
-0.035553999 0.090957999 -0.224159
-0.035455 0.090953 -0.22413599
-0.028827 0.090903997 -0.224108
-0.037105002 0.091041997 -0.224195
-0.036958002 0.091032997 -0.224197
-0.036802001 0.091020003 -0.224163
-0.036798999 0.091091998 -0.224171
-0.036642499 0.091054 -0.224176
-0.036556497 0.091048002 -0.22416249
-0.036466502 0.091042995 -0.224186
-0.036369003 0.091038495 -0.22418299
-0.036283001 0.091066003 -0.22415499
-0.036158502 0.091059998 -0.2241755
-0.036038503 0.091055498 -0.22417399
-0.035967 0.091050997 -0.224176
-0.035645999 0.091034003 -0.22416
-0.035550997 0.091060996 -0.22413799
-0.035452001 0.091056004 -0.2241205
-0.035278998 0.091012999 -0.224104
-0.037101999 0.091112003 -0.224196
-0.0370715 0.091179997 -0.224199
-0.036796 0.091162004 -0.224185
-0.036639001 0.091159001 -0.224167
-0.036552001 0.091153003 -0.22416601
-0.036463 0.091146998 -0.22418199
-0.036366001 0.091141999 -0.224171
-0.036279999 0.091136001 -0.22416499
-0.036142334 0.091152668 -0.22417666
-0.036034502 0.091161996 -0.22418225
-0.035962999 0.091156006 -0.2241765
-0.035641499 0.091140002 -0.22416401
-0.035548002 0.091164999 -0.224126
-0.035448 0.091160998 -0.224121
-0.036793001 0.091232002 -0.22419
-0.036634497 0.091263995 -0.224176
-0.036547497 0.091259003 -0.22418499
-0.0364585 0.091253996 -0.2241915
-0.036361001 0.091249496 -0.224186
-0.036276001 0.091209002 -0.22419301
-0.036163334 0.091247328 -0.22419034
-0.035958 0.091261998 -0.224187
-0.035636999 0.091246001 -0.224185
-0.035544999 0.091234997 -0.224135
-0.035443999 0.091233 -0.22413699
-0.035268001 0.091294996 -0.22411899
-0.036788501 0.091338001 -0.224197
-0.036630001 0.091371 -0.22419
-0.036543 0.091365002 -0.224199
-0.036454 0.091358997 -0.224191
-0.036355998 0.091355003 -0.224196
-0.036146499 0.091342494 -0.22419849
-0.035632998 0.091350004 -0.22417
-0.035539001 0.0913435 -0.22416499
-0.035439 0.091339998 -0.22416049
-0.035264 0.091365002 -0.224139
-0.036784999 0.091441996 -0.22419
-0.036626998 0.091439001 -0.224186
-0.036450498 0.0914625 -0.2241815
-0.036354002 0.091425002 -0.22419401
-0.036106002 0.091410004 -0.2242
-0.035629001 0.091456003 -0.224178
-0.035533998 0.091449998 -0.224181
-0.035434 0.091445997 -0.22417
-0.035261001 0.091435 -0.22413699
-0.035087001 0.091427997 -0.22410201
-0.036782 0.091512002 -0.224187
-0.036622502 0.091545999 -0.2241935
-0.0356245 0.091561005 -0.224187
-0.035530001 0.091554999 -0.22417799
-0.035430498 0.091551006 -0.22416851
-0.0352575 0.091540501 -0.224143
-0.036619 0.091651 -0.224197
-0.036169998 0.091693997 -0.2242
-0.036095999 0.091689996 -0.224197
-0.03562 0.091665998 -0.224186
-0.035526998 0.091659002 -0.22416399
-0.035425998 0.091655999 -0.22417299
-0.035253 0.091646999 -0.224142
-0.035047501 0.091638498 -0.224107
-0.034970999 0.091636002 -0.22411101
-0.036093 0.091760002 -0.224196
-0.035617001 0.091738001 -0.224197
-0.035523001 0.091729999 -0.224176
-0.035421498 0.091763005 -0.224187
-0.035248503 0.091753006 -0.22415599
-0.035054334 0.091732331 -0.22411166
-0.034968998 0.091704004 -0.224105
-0.036061499 0.091829002 -0.2241925
-0.035611998 0.091877997 -0.22419301
-0.035417002 0.091867998 -0.224186
-0.035243999 0.091858 -0.224159
-0.035069998 0.091849998 -0.224114
-0.0360865 0.091934994 -0.22419101
-0.035930999 0.091963999 -0.2242
-0.035608999 0.091948003 -0.22419
-0.035514001 0.091941997 -0.22419301
-0.035413999 0.091937996 -0.22419199
-0.035240501 0.091962501 -0.224154
-0.035034746 0.091954499 -0.22412077
-0.0349585 0.091950998 -0.224121
-0.028271999 0.091943003 -0.224196
-0.036022998 0.092040002 -0.2242
-0.035928 0.092032999 -0.22419401
-0.035604499 0.092052996 -0.224195
-0.035510998 0.092012003 -0.2242
-0.035411 0.092008002 -0.224196
-0.035236001 0.092068002 -0.22415601
-0.035062 0.09206 -0.22411899
-0.034977499 0.092057496 -0.224116
-0.0282695 0.092046 -0.22416151
-0.035924003 0.092138 -0.22419649
-0.035599999 0.092157997 -0.2242
-0.035406001 0.092147999 -0.224199
-0.035232998 0.092137001 -0.224154
-0.035059001 0.092129998 -0.224117
-0.034973003 0.092161998 -0.22411326
-0.034662001 0.092175998 -0.224107
-0.028267 0.092147 -0.224125
-0.028162001 0.092150003 -0.224196
-0.027688 0.092196003 -0.224199
-0.036753498 0.092249006 -0.224196
-0.035402998 0.092220001 -0.224199
-0.0352295 0.092242002 -0.22414699
-0.035056002 0.092234507 -0.22410551
-0.034946665 0.092265993 -0.22412269
-0.03466 0.092243999 -0.224103
-0.028161 0.092249006 -0.224139
-0.028073 0.092285998 -0.224181
-0.027806999 0.092269003 -0.224181
-0.027687 0.092262998 -0.224161
-0.027555499 0.092259496 -0.22417951
-0.035592001 0.092370003 -0.224199
-0.035498001 0.092362002 -0.22419301
-0.035225 0.092347004 -0.224149
-0.035050999 0.09234 -0.224122
-0.0349655 0.092339501 -0.22413701
-0.034899 0.092363998 -0.22410899
-0.028158 0.092352003 -0.224113
-0.0280385 0.092351004 -0.224149
-0.027806001 0.092335999 -0.224144
-0.027686 0.092330001 -0.224131
-0.027554251 0.092359252 -0.22412725
-0.027409501 0.092360497 -0.22415751
-0.03559 0.092437997 -0.22419401
-0.035496 0.092431001 -0.224179
-0.035395 0.092430003 -0.224198
-0.035221502 0.092452005 -0.22414699
-0.035046503 0.092446998 -0.22413501
-0.034961749 0.092444003 -0.22412625
-0.034872502 0.092466995 -0.224107
-0.034729 0.092456996 -0.224105
-0.034651998 0.092455998 -0.224106
-0.027407 0.092462003 -0.224121
-0.035587002 0.092508003 -0.22419401
-0.035491999 0.092536002 -0.224179
-0.035391003 0.092535004 -0.22419551
-0.035216998 0.092559002 -0.224152
-0.035041999 0.092551999 -0.224143
-0.034957498 0.092549503 -0.22413
-0.034869999 0.092537999 -0.22411001
-0.0347245 0.092564002 -0.224112
-0.034649 0.092524998 -0.224103
-0.027221501 0.092565499 -0.22418
-0.036001999 0.092602 -0.224199
-0.035999 0.092670999 -0.224197
-0.035487 0.092643999 -0.22419401
-0.035386998 0.092639998 -0.224197
-0.035212502 0.092664003 -0.2241655
-0.035038501 0.092657 -0.224135
-0.034952998 0.092655003 -0.22413826
-0.0348875 0.092646003 -0.22411799
-0.034762334 0.092651002 -0.22410667
-0.027218999 0.092666999 -0.22414
-0.035383999 0.092710003 -0.224197
-0.035208002 0.092772 -0.22417501
-0.035034001 0.092762001 -0.224144
-0.034948498 0.092761502 -0.2241455
-0.034883 0.092750996 -0.22412699
-0.034717999 0.092739001 -0.224104
-0.034641001 0.092735 -0.224105
-0.027217999 0.092734002 -0.224112
-0.035379 0.09285 -0.2242
-0.035204999 0.092841998 -0.224185
-0.035030998 0.092831999 -0.224144
-0.034937333 0.092853002 -0.22414066
-0.034879997 0.092855498 -0.22411701
-0.034636497 0.092840001 -0.22410899
-0.034551501 0.092839003 -0.224105
-0.0270335 0.092837498 -0.22418299
-0.0353745 0.092955001 -0.22419401
-0.035200998 0.092912003 -0.22419401
-0.0352 0.092981003 -0.224172
-0.035026997 0.092938006 -0.224142
-0.034949668 0.092946671 -0.22413234
-0.034876 0.09296 -0.224112
-0.034632999 0.092945002 -0.224106
-0.034180999 0.092929997 -0.224106
-0.027031001 0.092938997 -0.224153
-0.036564 0.093052998 -0.224197
-0.035371002 0.093060002 -0.224197
-0.035197999 0.093048997 -0.22415601
-0.035023998 0.093042001 -0.22412699
-0.034938999 0.093039997 -0.224125
-0.034873001 0.093030997 -0.22411899
-0.034736499 0.093058005 -0.22410151
-0.034457002 0.093082003 -0.224106
-0.034178 0.093000002 -0.224103
-0.027028501 0.0930425 -0.224121
-0.026815001 0.093069002 -0.22419
-0.036560498 0.093157001 -0.22419101
-0.035468001 0.093133003 -0.224198
-0.035367999 0.09313 -0.224195
-0.035193503 0.093154997 -0.22416399
-0.0350205 0.093144998 -0.22410801
-0.034934752 0.093144 -0.22412275
-0.034868501 0.093135506 -0.22411901
-0.034453999 0.093153998 -0.22411001
-0.026814001 0.093135998 -0.22416399
-0.035879001 0.093296997 -0.224197
-0.035558999 0.093244493 -0.22419199
-0.035464 0.093237996 -0.224195
-0.035364501 0.093235001 -0.22418749
-0.035188999 0.093261003 -0.22416499
-0.035016 0.093250997 -0.22411001
-0.034930497 0.093251497 -0.22413251
-0.034864999 0.093243003 -0.224121
-0.034451 0.093223996 -0.224104
-0.034362502 0.093256995 -0.22410651
-0.026811499 0.093237504 -0.2241265
-0.026704 0.093269996 -0.224176
-0.035555001 0.093349002 -0.22419199
-0.035459999 0.093342997 -0.22419301
-0.035360001 0.093341999 -0.22419199
-0.035186 0.093331002 -0.224167
-0.035011999 0.093355998 -0.224116
-0.034925997 0.093356498 -0.22413599
-0.03486 0.093347505 -0.22412199
-0.034357999 0.093362004 -0.224112
-0.026703 0.093337998 -0.224152
-0.036708001 0.093405001 -0.224197
-0.035550497 0.093456 -0.224197
-0.035455503 0.093449995 -0.2241935
-0.035356499 0.093445003 -0.2241765
-0.035182498 0.093436003 -0.224169
-0.035007 0.093463004 -0.22412699
-0.034945 0.093461998 -0.22412901
-0.034899998 0.093456998 -0.22411799
-0.034355 0.093432002 -0.224106
-0.034162 0.093419999 -0.22410201
-0.026674332 0.093455672 -0.22416167
-0.035868 0.093576998 -0.22419301
-0.035546001 0.093558997 -0.22419401
-0.035452001 0.093555003 -0.22419199
-0.035354 0.093547001 -0.22415701
-0.035177998 0.093540996 -0.22416399
-0.035004999 0.093533002 -0.22412699
-0.034942001 0.093532003 -0.224131
-0.034880999 0.093572669 -0.22411834
-0.034437999 0.093574002 -0.224104
-0.034351498 0.093537003 -0.22410201
-0.0266595 0.093548 -0.224144
-0.036364999 0.093672 -0.224189
-0.036267001 0.093670003 -0.224199
-0.03602 0.093650997 -0.22419
-0.035865001 0.093647003 -0.224199
-0.035543002 0.093665004 -0.224186
-0.035448499 0.093658 -0.2241815
-0.035348497 0.093653999 -0.22417399
-0.0351745 0.093646005 -0.224161
-0.035002999 0.093601003 -0.224115
-0.034958333 0.093648337 -0.224124
-0.034869999 0.093665004 -0.22411999
-0.034683 0.093649998 -0.224106
-0.034347001 0.093641996 -0.224105
-0.0266205 0.093653001 -0.224145
-0.036695 0.093757004 -0.224196
-0.036362 0.093739003 -0.22418299
-0.036016501 0.093756005 -0.224181
-0.03554 0.093768001 -0.224159
-0.035443999 0.093764998 -0.224181
-0.035344999 0.093759 -0.224172
-0.03517 0.093753003 -0.224167
-0.034965001 0.093743503 -0.22412699
-0.034867503 0.0937365 -0.22411901
-0.034680001 0.093719997 -0.224106
-0.026618 0.093755998 -0.224122
-0.026521999 0.093759999 -0.22419301
-0.0366905 0.093861997 -0.2241955
-0.036532998 0.093859002 -0.22419101
-0.036444999 0.093888 -0.224191
-0.036049001 0.093865 -0.2241945
-0.035858002 0.093856998 -0.22419199
-0.035537001 0.093837999 -0.224162
-0.035441998 0.093832001 -0.224169
-0.035341002 0.093863994 -0.224162
-0.035167001 0.0938555 -0.22415251
-0.034951668 0.093834333 -0.22411366
-0.034863751 0.093840502 -0.2241125
-0.026616 0.093824998 -0.224107
-0.026518501 0.093861997 -0.224177
-0.036936998 0.093911 -0.224199
-0.036860663 0.093953669 -0.22419266
-0.036685999 0.093966998 -0.224197
-0.036529999 0.093961999 -0.224181
-0.036442 0.093957998 -0.22419199
-0.036169998 0.093943 -0.224191
-0.036083002 0.093937002 -0.224198
-0.03593367 0.09395466 -0.22418499
-0.035855003 0.093960002 -0.22417
-0.035533 0.093943506 -0.224161
-0.035439 0.093936995 -0.224154
-0.035337001 0.093969002 -0.22415701
-0.035163 0.093960002 -0.22414
-0.034882002 0.093947001 -0.22410101
-0.026516 0.093964003 -0.22415
-0.036842 0.094045997 -0.224181
-0.036683999 0.094036996 -0.224191
-0.036527 0.094034001 -0.224179
-0.036439002 0.09403 -0.2242
-0.036249999 0.094089001 -0.224195
-0.036167003 0.094045997 -0.22417501
-0.0360425 0.094039001 -0.22418749
-0.035923999 0.094035506 -0.22416851
-0.035875499 0.094064504 -0.2241545
-0.035530001 0.094045997 -0.22414701
-0.035434999 0.094039999 -0.22414599
-0.035335001 0.094038002 -0.22414701
-0.035159998 0.094062999 -0.22412449
-0.026513999 0.094034001 -0.22412901
-0.026425 0.094039999 -0.22419199
-0.0368375 0.094152004 -0.22419399
-0.036679499 0.094143003 -0.224198
-0.036523998 0.094136 -0.2241655
-0.036247998 0.094159 -0.224195
-0.036162 0.094153002 -0.224188
-0.036039501 0.094143502 -0.22416849
-0.035944 0.094140001 -0.224163
-0.0358725 0.094135493 -0.224151
-0.035526 0.094151005 -0.224141
-0.035432003 0.094143003 -0.224126
-0.035331503 0.094141006 -0.2241345
-0.035156 0.094168 -0.224117
-0.026422 0.094141006 -0.22416601
-0.036832999 0.094258003 -0.22419401
-0.036674999 0.094246998 -0.2242
-0.036520001 0.094241001 -0.22416399
-0.036432002 0.094237998 -0.224179
-0.036243498 0.094264001 -0.224198
-0.036159001 0.094256997 -0.224179
-0.0360725 0.094250999 -0.224177
-0.035968501 0.094245255 -0.22416675
-0.035867997 0.094241999 -0.22416474
-0.035521999 0.094255999 -0.22413599
-0.035427999 0.094249003 -0.224125
-0.035328001 0.094246 -0.22412001
-0.035154 0.094237998 -0.224117
-0.026419999 0.094244003 -0.22412699
-0.036920998 0.094329998 -0.22419301
-0.036852747 0.094362244 -0.22418401
-0.036672499 0.094350502 -0.22417501
-0.0365155 0.094346002 -0.22416499
-0.036429502 0.094339997 -0.22415701
-0.036336999 0.094373003 -0.22419199
-0.03624 0.094369002 -0.22419
-0.036155999 0.094361 -0.22415701
-0.036068998 0.094354004 -0.224168
-0.035965003 0.094351001 -0.22416049
-0.035864502 0.094346501 -0.22415799
-0.035519 0.094358996 -0.224121
-0.035424002 0.094354004 -0.224125
-0.035326 0.094313003 -0.224106
-0.035149999 0.094342001 -0.22410601
-0.026332 0.094354004 -0.224186
-0.037137002 0.094485998 -0.224197
-0.037051 0.094448 -0.224196
-0.036917001 0.094436005 -0.224187
-0.0368485 0.094469503 -0.2241905
-0.036669999 0.094452001 -0.224151
-0.036511999 0.094451003 -0.224153
-0.036424998 0.094444998 -0.22415601
-0.036334999 0.094440997 -0.224178
-0.036238 0.094439 -0.224179
-0.036153 0.09443 -0.22415701
-0.036064997 0.094458997 -0.22415301
-0.035962 0.094453499 -0.22414126
-0.035861 0.094449759 -0.22413926
-0.035516001 0.094462998 -0.224106
-0.035420999 0.094458997 -0.22411001
-0.026329 0.094457 -0.22417
-0.037135001 0.094555996 -0.22419301
-0.037046999 0.094553001 -0.22419
-0.036913 0.094541997 -0.224188
-0.036846001 0.094539002 -0.22418749
-0.036665499 0.094558999 -0.22415599
-0.036508501 0.094556004 -0.224153
-0.0364215 0.094549999 -0.22414699
-0.036332 0.0945445 -0.2241635
-0.036233999 0.094542995 -0.22417
-0.036149003 0.0945355 -0.22415701
-0.036061998 0.094563998 -0.224145
-0.035958998 0.094556004 -0.22412351
-0.035857998 0.094552994 -0.22411899
-0.035512999 0.094532996 -0.224103
-0.035416998 0.094561994 -0.22410449
-0.035317998 0.094525002 -0.224107
-0.026326001 0.094560996 -0.224151
-0.037671998 0.094645999 -0.224197
-0.037043497 0.094655998 -0.22418401
-0.036937498 0.094647996 -0.22418424
-0.036842749 0.094641499 -0.22416951
-0.036662001 0.094662003 -0.22414599
-0.036504999 0.094658002 -0.22414
-0.036417998 0.094653003 -0.22413699
-0.036329001 0.094648004 -0.224145
-0.036231 0.094644003 -0.22414801
-0.036145002 0.094640002 -0.22414599
-0.036059 0.094632 -0.224143
-0.035954252 0.094662495 -0.22413224
-0.035854001 0.094658248 -0.22412424
-0.035508499 0.094639003 -0.224106
-0.026323 0.094663002 -0.224121
-0.03878 0.094764002 -0.224181
-0.037914 0.094763994 -0.2241825
-0.037841998 0.094760001 -0.22418624
-0.037669003 0.094749004 -0.224178
-0.037126999 0.094765998 -0.22419
-0.037039001 0.094763003 -0.22419301
-0.036935002 0.094750501 -0.22415599
-0.036839999 0.094743505 -0.22414251
-0.036658999 0.094733998 -0.22414599
-0.036502 0.094761997 -0.224116
-0.036413997 0.094758496 -0.224134
-0.036324501 0.094753996 -0.2241535
-0.036228001 0.094749004 -0.22412899
-0.036141999 0.094743997 -0.224135
-0.036054999 0.0947375 -0.2241375
-0.035950501 0.094766997 -0.22412699
-0.03585 0.094762504 -0.2241185
-0.035505001 0.094742998 -0.224108
-0.038821999 0.094841003 -0.22419199
-0.038778 0.094834 -0.224162
-0.038512997 0.094861001 -0.2241945
-0.038334001 0.094890997 -0.224189
-0.038059998 0.094873004 -0.224188
-0.037975997 0.094835997 -0.22419751
-0.037815001 0.094862998 -0.22419301
-0.037664 0.094853997 -0.224188
-0.037124999 0.094834 -0.224179
-0.037037 0.094832003 -0.22418299
-0.036931001 0.094855256 -0.22415376
-0.036835499 0.094849505 -0.22415051
-0.036656499 0.094834998 -0.224116
-0.036454499 0.094864994 -0.22412351
-0.036320999 0.094860002 -0.22414801
-0.036224 0.094853997 -0.224131
-0.036139 0.094847001 -0.22411899
-0.036052 0.094841003 -0.224122
-0.035948001 0.094837002 -0.2241195
-0.035870999 0.094834998 -0.224122
-0.026225001 0.094840497 -0.22417
-0.038979001 0.094993003 -0.22419401
-0.038818002 0.094945505 -0.224185
-0.038773 0.094941005 -0.224181
-0.038667999 0.094967999 -0.224189
-0.038509998 0.094963998 -0.224176
-0.038332 0.094961002 -0.224176
-0.038058002 0.094940998 -0.224178
-0.037971999 0.094940998 -0.224198
-0.037811998 0.094935 -0.224197
-0.037660502 0.094960004 -0.224181
-0.037310999 0.094985999 -0.224199
-0.037120499 0.0949395 -0.224176
-0.037033997 0.094933495 -0.2241585
-0.036956001 0.094961002 -0.224144
-0.03685433 0.094954669 -0.22414298
-0.036653001 0.094939001 -0.224108
-0.0364515 0.094935 -0.22411349
-0.036318999 0.094925001 -0.22411799
-0.036220998 0.094956994 -0.224115
-0.036137 0.094915003 -0.224103
-0.036049001 0.094911002 -0.224116
-0.035946 0.094905496 -0.224107
-0.035868999 0.094903 -0.22410201
-0.026223 0.094940998 -0.224135
-0.039719999 0.095022 -0.224198
-0.039506 0.095081002 -0.224199
-0.039420001 0.095076002 -0.224181
-0.038977001 0.095059998 -0.22418
-0.038842 0.095051497 -0.22417951
-0.038770001 0.095044002 -0.224153
-0.038667001 0.095035002 -0.22416601
-0.038507 0.095034003 -0.22418
-0.038329002 0.095031001 -0.224178
-0.038053997 0.095045999 -0.224176
-0.037946001 0.095057003 -0.22418833
-0.037808999 0.095037997 -0.22418451
-0.037657 0.095063999 -0.224177
-0.037308 0.095054999 -0.22419301
-0.037117001 0.095043004 -0.224167
-0.037030999 0.095036998 -0.224142
-0.036953002 0.095063001 -0.2241185
-0.036851335 0.095058002 -0.22412051
-0.026221 0.095008001 -0.224107
-0.02613 0.095086001 -0.224191
-0.039503999 0.095147997 -0.224188
-0.039418001 0.095142998 -0.224163
-0.039331999 0.095147997 -0.224198
-0.038974002 0.095164001 -0.2241635
-0.038838748 0.095154993 -0.22416624
-0.0387665 0.095146 -0.224145
-0.038663 0.095139995 -0.22415501
-0.038503498 0.095138997 -0.224177
-0.038324997 0.095136002 -0.2241835
-0.038233001 0.095169999 -0.224199
-0.038148001 0.095161997 -0.224199
-0.03805 0.095152996 -0.22418299
-0.037965 0.095147997 -0.22417299
-0.037851002 0.095147669 -0.22418666
-0.037654001 0.095133997 -0.22417501
-0.0373055 0.095156506 -0.2241645
-0.037114002 0.0951465 -0.224144
-0.037027001 0.095140994 -0.22413251
-0.036949001 0.095168002 -0.224105
-0.036871001 0.095160998 -0.22410101
-0.036311999 0.095135003 -0.224107
-0.036125001 0.095197 -0.22411799
-0.036038999 0.095191002 -0.22411101
-0.026129 0.095151 -0.22415701
-0.039710999 0.095265001 -0.22418749
-0.039501 0.09522 -0.224188
-0.039441664 0.095262669 -0.22417666
-0.039329 0.095218003 -0.224197
-0.039226502 0.095244005 -0.224198
-0.038970001 0.095268004 -0.22415701
-0.038834501 0.095260501 -0.224162
-0.038763002 0.095251001 -0.22413801
-0.038658999 0.095245004 -0.22415499
-0.0385 0.095243998 -0.224163
-0.038321 0.095241003 -0.22418299
-0.038231 0.095239997 -0.224196
-0.038146 0.095232002 -0.22419199
-0.038046002 0.095256001 -0.22417301
-0.037961498 0.095253006 -0.224161
-0.037856996 0.0952456 -0.22417979
-0.037799999 0.095283002 -0.22417299
-0.037650499 0.095238507 -0.2241655
-0.037303999 0.095257998 -0.224124
-0.037110999 0.095247999 -0.224123
-0.037023999 0.095245004 -0.224115
-0.036947001 0.095238 -0.22410101
-0.036307499 0.095240995 -0.224114
-0.036210001 0.095237002 -0.224106
-0.036122002 0.095266998 -0.22412001
-0.036036 0.095261 -0.22411001
-0.026126999 0.095254004 -0.224125
-0.039969999 0.095386997 -0.2242
-0.039803497 0.095340997 -0.2241905
-0.039708 0.095369004 -0.22417399
-0.039453 0.095356494 -0.22416949
-0.039324 0.095360003 -0.224195
-0.039221998 0.095348999 -0.2242
-0.038966998 0.095339999 -0.224163
-0.038821667 0.095353007 -0.22416234
-0.038759001 0.095356002 -0.22413801
-0.038654499 0.095349997 -0.22416
-0.038496003 0.095347501 -0.2241555
-0.038318001 0.095344 -0.2241675
-0.038226999 0.0953435 -0.224181
-0.038142003 0.095337003 -0.22418499
-0.038042001 0.095360003 -0.22416399
-0.037958 0.095357999 -0.224152
-0.037867002 0.095356494 -0.22416699
-0.037797999 0.095349997 -0.224159
-0.037647001 0.095340997 -0.22414801
-0.037301 0.095328003 -0.22412001
-0.037298001 0.095398001 -0.22412699
-0.037107497 0.095353 -0.224117
-0.037019998 0.095349506 -0.22411251
-0.036120001 0.095337003 -0.224107
-0.026124001 0.095357999 -0.224106
-0.040417001 0.095472999 -0.22418199
-0.039967 0.095457003 -0.224195
-0.039751999 0.095442504 -0.22418299
-0.039449751 0.095460251 -0.22415601
-0.039322 0.095459998 -0.224161
-0.039218999 0.095454 -0.22419199
-0.038962997 0.095445 -0.2241625
-0.038855501 0.095437497 -0.22416151
-0.038777001 0.095464498 -0.22414601
-0.038651001 0.095454998 -0.22415
-0.038493 0.095450997 -0.22413801
-0.038314998 0.095448002 -0.224144
-0.038224999 0.095445 -0.22415499
-0.038139001 0.09544 -0.224167
-0.038040001 0.095430002 -0.224167
-0.037954003 0.095463 -0.22414801
-0.0378635 0.095461503 -0.22415476
-0.037795 0.095455006 -0.2241455
-0.037644498 0.0954445 -0.22412449
-0.037294999 0.095468 -0.22412699
-0.037103001 0.095458001 -0.224113
-0.040656999 0.095553003 -0.224199
-0.040502999 0.095550001 -0.224197
-0.040415 0.095542997 -0.224176
-0.039963499 0.095561996 -0.22419101
-0.039893001 0.095595002 -0.224185
-0.039732665 0.095557332 -0.22416735
-0.039446499 0.095562503 -0.22414249
-0.039317999 0.095564999 -0.224162
-0.039216001 0.095554002 -0.224161
-0.038959999 0.095546998 -0.224144
-0.038851999 0.095540002 -0.224152
-0.038766999 0.095555335 -0.224131
-0.038647503 0.095559999 -0.22414401
-0.038489997 0.095553994 -0.224121
-0.038310498 0.095551997 -0.224143
-0.038221501 0.095548004 -0.22413599
-0.038135 0.095542997 -0.22415301
-0.038036 0.095534995 -0.22415999
-0.037950002 0.095565997 -0.224145
-0.037859999 0.095563501 -0.22413799
-0.037792001 0.095556997 -0.22412799
-0.037292998 0.095537998 -0.22411899
-0.037101001 0.095527999 -0.224106
-0.0260245 0.095536999 -0.2241665
-0.040758997 0.095663995 -0.22417751
-0.040653497 0.095656 -0.22419199
-0.040500998 0.095616996 -0.22418299
-0.040439334 0.095662333 -0.22418301
-0.040328 0.09561 -0.2242
-0.0402225 0.095643997 -0.224196
-0.040129997 0.095639005 -0.224196
-0.039960001 0.095666997 -0.224186
-0.039891001 0.095663004 -0.22417
-0.039790999 0.095656 -0.224189
-0.039698001 0.095647 -0.22414701
-0.039487001 0.095634997 -0.22414
-0.039357498 0.095633499 -0.22415251
-0.039213002 0.095659003 -0.224144
-0.038957 0.095649004 -0.22411749
-0.038847499 0.095646001 -0.2241495
-0.038778335 0.095649339 -0.22412701
-0.038644001 0.095661998 -0.22412699
-0.038486 0.095659003 -0.224123
-0.038307 0.095655002 -0.224135
-0.038217999 0.095651999 -0.22412799
-0.038132999 0.095645003 -0.224126
-0.038033001 0.095637999 -0.224142
-0.037948001 0.095634997 -0.22413699
-0.037858002 0.095633499 -0.2241285
-0.03779 0.095624998 -0.224108
-0.026023 0.095637999 -0.22413
-0.040866997 0.095755003 -0.224195
-0.040755 0.095770001 -0.224176
-0.040649999 0.095761001 -0.22418401
-0.040450998 0.095756002 -0.22418299
-0.040219001 0.095749997 -0.224195
-0.040126 0.095743999 -0.224195
-0.040038001 0.095739 -0.224198
-0.039958 0.095734999 -0.224176
-0.039887998 0.095733002 -0.22416399
-0.039788 0.095761001 -0.224177
-0.039694503 0.095750004 -0.224142
-0.039484002 0.095737994 -0.22412249
-0.039354499 0.095736749 -0.22413249
-0.039209001 0.095764004 -0.22413699
-0.038952999 0.095752999 -0.22410899
-0.038842998 0.095752001 -0.22415499
-0.038767003 0.095741495 -0.224123
-0.038642 0.095732003 -0.224115
-0.038482502 0.095762998 -0.2241105
-0.038304999 0.095725 -0.22411899
-0.038213998 0.095757 -0.22411799
-0.038129501 0.095749006 -0.224116
-0.038029499 0.095742494 -0.22412801
-0.037945002 0.095739 -0.22411349
-0.037864 0.095725 -0.22410966
-0.026021 0.095706001 -0.22410899
-0.025916999 0.095784999 -0.224198
-0.040959999 0.095853999 -0.224195
-0.040872 0.095846504 -0.2241815
-0.040752001 0.09584 -0.224186
-0.040647 0.095830999 -0.22418
-0.040446751 0.095862001 -0.22418399
-0.040318001 0.095889002 -0.224196
-0.040214501 0.095854998 -0.2241995
-0.040122502 0.095847994 -0.224191
-0.040035002 0.095844001 -0.2241815
-0.0399535 0.095838994 -0.22416949
-0.0398845 0.095836997 -0.22415751
-0.039783999 0.095864996 -0.22416399
-0.039689999 0.095853999 -0.22413801
-0.039480999 0.095841996 -0.224113
-0.039350502 0.095840998 -0.2241255
-0.039207 0.095830999 -0.22412799
-0.038948998 0.095860004 -0.22411549
-0.038840503 0.095854498 -0.22413251
-0.038763251 0.095847003 -0.2241195
-0.038638502 0.095835999 -0.22410649
-0.038123999 0.095857002 -0.224133
-0.038024999 0.095847003 -0.22413
-0.025916001 0.095849998 -0.224167
-0.040955998 0.095959 -0.22419649
-0.040868498 0.095950499 -0.22417149
-0.040748499 0.095943496 -0.2241675
-0.040643997 0.095934495 -0.224169
-0.040488001 0.095967002 -0.224178
-0.040357001 0.095960498 -0.224179
-0.040211 0.095959999 -0.22419
-0.040118001 0.095954001 -0.224198
-0.040031999 0.095945999 -0.224171
-0.039949998 0.095944002 -0.22416499
-0.03988 0.095942996 -0.22416499
-0.039781999 0.095932998 -0.22416399
-0.039687 0.095959 -0.2241265
-0.039478 0.095912002 -0.22410899
-0.039346002 0.095946997 -0.22413599
-0.039203502 0.095936 -0.22411799
-0.038945001 0.095962003 -0.224108
-0.038782999 0.095951997 -0.224103
-0.038121998 0.095927 -0.22412699
-0.038022999 0.095917001 -0.224121
-0.025915001 0.095917001 -0.224131
-0.041396499 0.096051499 -0.2241925
-0.040952999 0.096061997 -0.22418199
-0.040864997 0.096053496 -0.22415949
-0.040745001 0.096045002 -0.224151
-0.04064 0.096037999 -0.224159
-0.040484998 0.096037 -0.224167
-0.040354252 0.096062496 -0.22415623
-0.040207498 0.096062005 -0.22417951
-0.040114999 0.096056998 -0.2241765
-0.040028997 0.096049994 -0.22415149
-0.039947003 0.096046999 -0.2241465
-0.039876997 0.096046001 -0.2241465
-0.039779 0.096037 -0.22414449
-0.039682999 0.096064001 -0.224117
-0.0393425 0.096051 -0.224121
-0.039198998 0.096041001 -0.224123
-0.038295001 0.096003003 -0.22410201
-0.025849 0.096055001 -0.224163
-0.041683 0.096166 -0.22419
-0.041475002 0.096161 -0.22418401
-0.041391999 0.096159004 -0.224199
-0.04095 0.096130997 -0.224172
-0.040861502 0.096157998 -0.22414801
-0.040742502 0.0961475 -0.22412351
-0.040636502 0.096143 -0.224154
-0.040482998 0.096138 -0.22413801
-0.040351499 0.096164495 -0.22412601
-0.040203001 0.096170001 -0.224185
-0.040111002 0.096161 -0.224163
-0.040025 0.096152999 -0.22413599
-0.039942998 0.096151002 -0.224134
-0.039873999 0.096147999 -0.22413
-0.039776001 0.096139997 -0.224123
-0.039680999 0.096130997 -0.224107
-0.039383002 0.096119002 -0.224106
-0.039299 0.096119002 -0.224103
-0.0391955 0.096146002 -0.22411701
-0.025847999 0.096121997 -0.224122
-0.025767334 0.096168995 -0.22414899
-0.042497002 0.096239001 -0.224195
-0.041680001 0.096235 -0.224186
-0.041558001 0.096233003 -0.224191
-0.041473001 0.096229002 -0.22417399
-0.041389003 0.096260995 -0.2241855
-0.041297 0.096294999 -0.224197
-0.041127 0.096279003 -0.224187
-0.040946998 0.096235 -0.22416
-0.040857501 0.096262999 -0.22414351
-0.040739998 0.096249998 -0.22410201
-0.040631998 0.096248001 -0.22414801
-0.040479001 0.096242003 -0.22412799
-0.040348999 0.096233502 -0.224117
-0.040138666 0.096255004 -0.22415668
-0.040022001 0.096255004 -0.22411549
-0.039942 0.096219003 -0.224112
-0.039870001 0.096252501 -0.2241175
-0.039772503 0.096242994 -0.2241075
-0.025704 0.096256003 -0.22411899
-0.042690001 0.096354 -0.224197
-0.041761 0.096382998 -0.224196
-0.041650999 0.096338995 -0.22417849
-0.041553497 0.096338004 -0.22418499
-0.041468501 0.096334502 -0.224177
-0.041386001 0.096363999 -0.22416399
-0.041294999 0.096362002 -0.224186
-0.041125 0.096346997 -0.224172
-0.040943999 0.096339002 -0.224149
-0.040854499 0.096332997 -0.2241405
-0.040735498 0.096356004 -0.22410649
-0.040628999 0.096350506 -0.224134
-0.040474501 0.096349001 -0.22413701
-0.040345002 0.096338503 -0.22411825
-0.040166665 0.096349992 -0.22415133
-0.040019002 0.096359 -0.224105
-0.039937001 0.096357003 -0.224103
-0.039866999 0.096354999 -0.224105
-0.039769001 0.096348003 -0.224104
-0.0426865 0.096459001 -0.22419101
-0.042401999 0.096410997 -0.2242
-0.042399999 0.096478999 -0.22418401
-0.041841 0.09646 -0.2241955
-0.041758999 0.096450001 -0.224191
-0.041648 0.096440502 -0.224151
-0.041549999 0.096442997 -0.224188
-0.041464999 0.096437998 -0.224163
-0.041382998 0.096432 -0.22415601
-0.041292999 0.096430004 -0.22417399
-0.041121997 0.096449494 -0.22415
-0.040939502 0.096445002 -0.2241555
-0.0408515 0.096435502 -0.22412875
-0.040732 0.09646 -0.22410101
-0.040626999 0.096453004 -0.224105
-0.040472001 0.096451998 -0.224117
-0.040383 0.096446998 -0.224108
-0.040298998 0.096441999 -0.224132
-0.0401485 0.096440002 -0.224133
-0.040014997 0.096464001 -0.22410351
-0.039933998 0.096427001 -0.22410101
-0.039864 0.096427001 -0.224105
-0.025502499 0.0964325 -0.224176
-0.042683002 0.096561998 -0.224178
-0.042484999 0.096555002 -0.224196
-0.042397998 0.096548997 -0.22417399
-0.041837998 0.09656325 -0.224177
-0.041755497 0.096554995 -0.22418201
-0.041644 0.096545503 -0.2241545
-0.041547 0.096544996 -0.22417
-0.041461498 0.096542001 -0.22415799
-0.0413795 0.096535996 -0.22415
-0.04129 0.0965335 -0.224151
-0.041118 0.096555002 -0.22415701
-0.040934999 0.096548997 -0.22415
-0.040847503 0.096539997 -0.22412351
-0.0402955 0.096547 -0.22412899
-0.040191002 0.096547 -0.224123
-0.040069666 0.096549667 -0.22410865
-0.0255 0.096534997 -0.224142
-0.042681001 0.096631996 -0.22417
-0.042558499 0.096662 -0.22418851
-0.042481497 0.096657999 -0.22418749
-0.042395003 0.096651003 -0.224154
-0.042282999 0.096685998 -0.224189
-0.042137001 0.096661337 -0.22419631
-0.042018998 0.096678004 -0.22419
-0.041933998 0.096638501 -0.2241825
-0.041835003 0.0966665 -0.2241575
-0.041751999 0.096660003 -0.224176
-0.041639999 0.096651003 -0.2241555
-0.041542999 0.096649997 -0.224159
-0.041459002 0.096644998 -0.224134
-0.041375998 0.096640997 -0.224143
-0.041285999 0.096637003 -0.22413699
-0.041112997 0.096662 -0.224162
-0.040932 0.096653 -0.2241355
-0.040844001 0.096644998 -0.22412226
-0.040463999 0.096658997 -0.224104
-0.040291999 0.096648999 -0.22410899
-0.040188 0.096648999 -0.22410101
-0.040095001 0.096643001 -0.224107
-0.025496 0.096640006 -0.224144
-0.025316 0.096672997 -0.224187
-0.042676501 0.096736997 -0.2241715
-0.042553999 0.096766002 -0.224188
-0.042477001 0.096763998 -0.224189
-0.04239 0.096755996 -0.22415701
-0.042282 0.096754 -0.224172
-0.042148001 0.096754998 -0.2241935
-0.042017002 0.096744999 -0.224176
-0.041930001 0.096740998 -0.224177
-0.041832 0.096736506 -0.22416151
-0.041748002 0.096763 -0.22416601
-0.04163675 0.096754 -0.2241365
-0.041539498 0.096753001 -0.224154
-0.0414555 0.096745998 -0.224112
-0.041373998 0.096742496 -0.22411001
-0.041282497 0.096742004 -0.22413599
-0.041110002 0.096763998 -0.224141
-0.040927999 0.096755996 -0.22412699
-0.040840499 0.096749 -0.22411451
-0.040615998 0.096732996 -0.224105
-0.040461998 0.096729003 -0.224104
-0.040062666 0.096736006 -0.22410966
-0.025493 0.096741997 -0.224123
-0.025315 0.096740998 -0.22416499
-0.0436805 0.096856996 -0.22419351
-0.042672999 0.096841998 -0.224171
-0.042552002 0.096836001 -0.224178
-0.042475 0.096832 -0.22417501
-0.042386502 0.096862003 -0.22416049
-0.0422775 0.096858501 -0.224169
-0.042159002 0.096848667 -0.22419365
-0.042041663 0.096864671 -0.22417633
-0.041926499 0.096845999 -0.22417051
-0.041837003 0.096831001 -0.22416501
-0.041771501 0.096872501 -0.22416601
-0.041633502 0.096858002 -0.2241255
-0.041535001 0.096859999 -0.224163
-0.041451 0.096853003 -0.22411899
-0.041368999 0.096848004 -0.224116
-0.041278001 0.096846998 -0.224134
-0.041108001 0.096832 -0.22412799
-0.040925 0.096860006 -0.2241085
-0.040828999 0.096841998 -0.22410567
-0.040612999 0.096803002 -0.224103
-0.025490999 0.096812002 -0.224104
-0.025311999 0.096843004 -0.22414
-0.025223 0.096876003 -0.224169
-0.0436485 0.0969605 -0.22419399
-0.043478001 0.096952997 -0.22419
-0.042938001 0.096956998 -0.22419301
-0.042668998 0.096945003 -0.2241555
-0.042547502 0.096940994 -0.224181
-0.0424705 0.096937001 -0.224177
-0.042381998 0.096968003 -0.22416399
-0.042273 0.096964002 -0.22417299
-0.042183999 0.096964002 -0.224178
-0.0420525 0.096960001 -0.224185
-0.041923001 0.096951 -0.224168
-0.041850999 0.096947998 -0.22415
-0.041769501 0.096941501 -0.22416401
-0.041638333 0.096951663 -0.22412433
-0.041531999 0.096929997 -0.224162
-0.0414465 0.096959002 -0.22412899
-0.041364998 0.096953496 -0.2241215
-0.041275002 0.096952006 -0.22412449
-0.041105002 0.096935496 -0.22411001
-0.040920999 0.096965998 -0.224112
-0.02531 0.096945003 -0.22411001
-0.025222 0.096943997 -0.22414701
-0.043636668 0.097052 -0.22418833
-0.043554999 0.097025 -0.224199
-0.043474 0.097057998 -0.22419301
-0.043301001 0.097006001 -0.22418299
-0.043244671 0.09705466 -0.22417898
-0.043115001 0.097078003 -0.224199
-0.042665999 0.097048998 -0.224144
-0.042543001 0.097048 -0.224189
-0.042467002 0.097042002 -0.22417
-0.042378999 0.097038001 -0.22416399
-0.042270999 0.097035997 -0.22417299
-0.042181998 0.097033001 -0.224169
-0.042034 0.097052336 -0.22418733
-0.041918501 0.097057 -0.22416851
-0.041846499 0.097055003 -0.22415501
-0.04176525 0.097045504 -0.22415826
-0.041626498 0.097033501 -0.22412151
-0.041552335 0.097044669 -0.22414233
-0.041441999 0.097065002 -0.224134
-0.041361 0.097057998 -0.22410899
-0.041271001 0.097055003 -0.224121
-0.041101001 0.097038999 -0.22410899
-0.040918 0.097035997 -0.224116
-0.040805999 0.097028002 -0.22410101
-0.025219001 0.097047001 -0.224123
-0.043651 0.097146332 -0.224187
-0.043471001 0.097161002 -0.22418299
-0.043254502 0.097147003 -0.22418
-0.043113001 0.097144999 -0.224181
-0.042661503 0.097154006 -0.22414601
-0.042540498 0.097149499 -0.22416401
-0.042462997 0.097147003 -0.22416601
-0.042375498 0.097142994 -0.224159
-0.042266503 0.097140998 -0.224178
-0.042177998 0.097138003 -0.22417299
-0.042090498 0.097137004 -0.224172
-0.041956998 0.097164005 -0.2241755
-0.041843001 0.097158 -0.22415499
-0.041761499 0.097150505 -0.224152
-0.041561499 0.097135998 -0.22412351
-0.041441001 0.097133003 -0.224117
-0.041267 0.097159997 -0.2241185
-0.041096501 0.097148001 -0.22412601
-0.040914498 0.097139001 -0.224105
-0.025216 0.097149998 -0.22410201
-0.025124 0.097153001 -0.22417501
-0.043638501 0.097239494 -0.224188
-0.043469001 0.097227998 -0.224169
-0.043250252 0.097252503 -0.22418
-0.043109499 0.097249001 -0.22417399
-0.043012001 0.097242996 -0.224195
-0.042925 0.097273998 -0.2242
-0.042656999 0.097260997 -0.224167
-0.042537998 0.097250998 -0.22413801
-0.042459998 0.097249001 -0.224143
-0.042371001 0.097248003 -0.22416499
-0.042263001 0.097245 -0.224172
-0.042174 0.097243004 -0.224177
-0.042087 0.097240999 -0.224162
-0.04194 0.097254664 -0.22415967
-0.041839 0.097262993 -0.22414801
-0.041757751 0.0972545 -0.22414525
-0.041644 0.097277001 -0.224107
-0.041557997 0.097239494 -0.22411151
-0.041436501 0.097238004 -0.22411299
-0.041264001 0.097263999 -0.224106
-0.041092001 0.097254001 -0.22413
-0.0251205 0.097257003 -0.2241585
-0.043634247 0.097344495 -0.22418901
-0.0434645 0.097334996 -0.2241745
-0.0432465 0.097358003 -0.2241815
-0.043104999 0.097355001 -0.224188
-0.043009002 0.097346 -0.224185
-0.042923 0.097341999 -0.224198
-0.042654 0.097332999 -0.224171
-0.0425325 0.097359002 -0.2241635
-0.042456001 0.0973555 -0.224154
-0.042367 0.097352996 -0.2241655
-0.042258501 0.097350001 -0.22417
-0.042168498 0.097351998 -0.22419401
-0.042083003 0.097345501 -0.224159
-0.041966334 0.097347997 -0.22414
-0.041834 0.097369999 -0.22415601
-0.041753501 0.097359501 -0.22414601
-0.041553497 0.097345002 -0.22411551
-0.041432001 0.097345002 -0.224123
-0.041087501 0.09736 -0.224139
-0.0409065 0.097350001 -0.2241025
-0.040839002 0.097378999 -0.22411001
-0.040792 0.097379997 -0.224115
-0.025117001 0.09736 -0.224142
-0.025022 0.097365998 -0.2242
-0.043657999 0.097451001 -0.224178
-0.04346 0.097439997 -0.22418
-0.043242998 0.097430006 -0.2241935
-0.043004498 0.097451501 -0.224188
-0.042919002 0.097447 -0.22418949
-0.042649999 0.097435996 -0.2241565
-0.042528 0.097465999 -0.22417299
-0.04245 0.097464003 -0.224176
-0.042364001 0.097457998 -0.22415
-0.042254999 0.097455002 -0.22416499
-0.042165 0.097456001 -0.224186
-0.042079002 0.097451001 -0.22415701
-0.041947998 0.097441003 -0.224144
-0.041832 0.097439997 -0.22415601
-0.041741665 0.097450338 -0.224135
-0.04154925 0.097451001 -0.22411999
-0.041428 0.097449005 -0.22411701
-0.041347999 0.097407997 -0.22410101
-0.041255001 0.097475998 -0.224117
-0.041083001 0.097464003 -0.224134
-0.040835999 0.097448997 -0.224114
-0.040789001 0.097452 -0.224123
-0.025116 0.097427003 -0.22412001
-0.025021 0.097433001 -0.22417399
-0.043653503 0.097555995 -0.22417951
-0.043597002 0.097586997 -0.224189
-0.043457001 0.097512998 -0.22418401
-0.043279 0.097567998 -0.224191
-0.043197498 0.097536996 -0.224197
-0.043095998 0.097566999 -0.224195
-0.042915002 0.097552001 -0.224191
-0.042647 0.097539 -0.224144
-0.042523999 0.097538002 -0.224187
-0.042447999 0.097531997 -0.224172
-0.04236 0.097561002 -0.22414249
-0.042251498 0.097557999 -0.22415599
-0.042161502 0.097560003 -0.224177
-0.042074502 0.097557001 -0.22417301
-0.041958999 0.097534664 -0.22414465
-0.041852336 0.097553998 -0.22413433
-0.041757002 0.097545326 -0.22412734
-0.041632999 0.097557001 -0.22411001
-0.041545 0.097556993 -0.224124
-0.041425001 0.097552001 -0.22410201
-0.041251 0.097548999 -0.224131
-0.041081 0.097533002 -0.224123
-0.040854 0.097546004 -0.22411935
-0.040784501 0.097557001 -0.224125
-0.025017001 0.097536996 -0.22416601
-0.043648999 0.097661003 -0.22418299
-0.0435635 0.097655997 -0.2241855
-0.043276001 0.097638004 -0.224189
-0.043194 0.097641997 -0.22419401
-0.043093 0.097636998 -0.22419301
-0.042642001 0.097646996 -0.22415599
-0.042520501 0.097643003 -0.22418201
-0.042443998 0.097637504 -0.22416401
-0.042355999 0.097668 -0.22414701
-0.042245999 0.097664997 -0.22417
-0.042157002 0.097664997 -0.22417501
-0.042070001 0.097663 -0.224172
-0.041981999 0.097654 -0.22416
-0.041860498 0.097648501 -0.22413999
-0.041743498 0.097639501 -0.22413999
-0.041628003 0.097663999 -0.22411901
-0.0415405 0.097662508 -0.22413149
-0.041420497 0.097658001 -0.22410801
-0.0413385 0.097653002 -0.22410649
-0.0412465 0.097654 -0.22414151
-0.041076999 0.097639501 -0.22413
-0.040871333 0.097645335 -0.224142
-0.04078 0.097663999 -0.224134
-0.025015 0.097638004 -0.22413699
-0.024921 0.097644001 -0.224185
-0.043646 0.097731002 -0.224189
-0.043559499 0.097727001 -0.22419849
-0.0431895 0.097746 -0.224189
-0.043090001 0.097707003 -0.2242
-0.042637002 0.097753003 -0.22417299
-0.042516999 0.097747996 -0.224176
-0.042440001 0.097741 -0.224159
-0.042353999 0.097735003 -0.22413699
-0.042243998 0.097735003 -0.22417
-0.042153999 0.097735003 -0.22418
-0.042068001 0.097730003 -0.224161
-0.041978002 0.097759999 -0.22415799
-0.041855499 0.097756498 -0.224158
-0.041738499 0.097746499 -0.22415376
-0.041623998 0.097769 -0.224113
-0.041536 0.097769 -0.2241405
-0.041414998 0.097764999 -0.224131
-0.041333999 0.097759999 -0.224114
-0.041243002 0.097759001 -0.22413801
-0.041071001 0.097747996 -0.224154
-0.040856 0.097740501 -0.22415799
-0.040777002 0.097736001 -0.22414801
-0.040679999 0.097792998 -0.224103
-0.040576 0.0977505 -0.224115
-0.025010999 0.097742006 -0.22411901
-0.0249185 0.097743496 -0.22414801
-0.024828 0.097783998 -0.224198
-0.043443002 0.097865 -0.224197
-0.043267999 0.097850002 -0.224198
-0.042632498 0.097858995 -0.224177
-0.042512499 0.097852498 -0.2241815
-0.042435497 0.097848997 -0.2241755
-0.042349 0.097842999 -0.224153
-0.042239502 0.097839996 -0.22416499
-0.042149998 0.097842 -0.224188
-0.042064 0.097835004 -0.224159
-0.041974001 0.097864002 -0.22415701
-0.041851498 0.0978605 -0.224158
-0.041734502 0.097850502 -0.224151
-0.041622002 0.097838998 -0.224116
-0.041568998 0.097838998 -0.224134
-0.041455001 0.097837999 -0.22414351
-0.041329999 0.097832002 -0.22413
-0.041239999 0.097828999 -0.22413599
-0.041066498 0.097854003 -0.22416699
-0.040850751 0.097847246 -0.224176
-0.040771 0.097843997 -0.22417399
-0.040676001 0.097865999 -0.22412699
-0.040571 0.097859003 -0.224135
-0.038872 0.097860001 -0.224116
-0.038764 0.097850002 -0.224106
-0.037012 0.097843997 -0.22410101
-0.024915 0.097847 -0.22413
-0.024826 0.097851999 -0.224176
-0.042628001 0.097967997 -0.224197
-0.042431001 0.097956002 -0.224178
-0.042344 0.097949997 -0.22417
-0.042234998 0.097947001 -0.224185
-0.042146999 0.097944997 -0.22417399
-0.042059001 0.097943 -0.224169
-0.041971002 0.097935997 -0.224168
-0.041848499 0.097932503 -0.22416399
-0.041729752 0.097958498 -0.2241655
-0.041617498 0.097944006 -0.224116
-0.041564502 0.097945005 -0.22413999
-0.04145075 0.0979435 -0.2241445
-0.041325502 0.097939998 -0.2241495
-0.041235499 0.097936004 -0.2241455
-0.041062001 0.097962998 -0.224188
-0.040879 0.097957 -0.22419
-0.040670998 0.097940996 -0.224161
-0.040568002 0.097929001 -0.224139
-0.040412501 0.097961001 -0.22412801
-0.040240999 0.09798 -0.224105
-0.040135998 0.097983003 -0.22410899
-0.039839499 0.097968996 -0.22410201
-0.038867 0.097934 -0.224144
-0.038730752 0.097959504 -0.224142
-0.038658001 0.097984999 -0.224113
-0.038555 0.097976997 -0.224114
-0.037007499 0.097949505 -0.224107
-0.036918998 0.097947001 -0.224113
-0.036841001 0.097942002 -0.2241205
-0.036762003 0.097939506 -0.22413099
-0.036692999 0.097971 -0.224122
-0.024913 0.097915001 -0.224115
-0.024823502 0.097953007 -0.2241465
-0.042428002 0.098026 -0.224188
-0.042341001 0.098020002 -0.22417
-0.042142998 0.098017 -0.224187
-0.042054001 0.098050997 -0.22419301
-0.0419655 0.098044999 -0.22418499
-0.041844502 0.098037004 -0.22416225
-0.041753002 0.098070003 -0.22418401
-0.041655 0.098057002 -0.224153
-0.041560002 0.098050997 -0.224143
-0.041446999 0.098048002 -0.2241395
-0.041320998 0.098044999 -0.224149
-0.041230999 0.098043002 -0.22415499
-0.041058 0.098035 -0.2242
-0.040666498 0.098049998 -0.224178
-0.040563002 0.098037004 -0.224154
-0.040406998 0.098070003 -0.224149
-0.040320002 0.098059997 -0.224113
-0.040236998 0.098053001 -0.22411899
-0.040132999 0.098053001 -0.224117
-0.040041 0.098045997 -0.22410101
-0.039953999 0.098041996 -0.224104
-0.039836504 0.09804 -0.224105
-0.039703 0.098030999 -0.224103
-0.0391225 0.098039001 -0.224106
-0.038862001 0.098041996 -0.2241655
-0.0386745 0.098064497 -0.22417501
-0.038550999 0.098049 -0.224132
-0.037002001 0.098057002 -0.22412001
-0.036913 0.098058 -0.224143
-0.036835 0.098053999 -0.22415499
-0.036756001 0.098049 -0.2241645
-0.036688998 0.098043002 -0.224144
-0.036532 0.098031998 -0.22412799
-0.02482 0.098057002 -0.22412901
-0.04205 0.098157004 -0.22419401
-0.041962001 0.098150998 -0.224186
-0.041840002 0.098144501 -0.22417501
-0.041749999 0.098140001 -0.22418401
-0.041636664 0.098150007 -0.22415267
-0.0415565 0.098156005 -0.224143
-0.041457333 0.098143004 -0.22414567
-0.041344669 0.098161668 -0.22413866
-0.041227497 0.098146006 -0.22414851
-0.041054502 0.098139003 -0.224196
-0.040555999 0.098148003 -0.2242
-0.040403999 0.098141998 -0.224167
-0.040316001 0.098132998 -0.224139
-0.040233999 0.098125003 -0.224139
-0.040130001 0.098125003 -0.22412699
-0.040035501 0.098154999 -0.224132
-0.039949499 0.098149002 -0.2241095
-0.039867498 0.098147005 -0.224108
-0.039764669 0.098131664 -0.22411366
-0.039698001 0.098171003 -0.224106
-0.039117999 0.098145999 -0.22411799
-0.038857002 0.098149002 -0.22418299
-0.038649 0.098135002 -0.224189
-0.038544498 0.098161504 -0.224179
-0.038389001 0.098151498 -0.2241285
-0.038121 0.098177001 -0.224114
-0.0369545 0.098129496 -0.2241475
-0.036832001 0.098126002 -0.22417501
-0.036752 0.098123997 -0.22419399
-0.036683999 0.098119996 -0.22419
-0.036527 0.098107003 -0.22416601
-0.036369 0.098171003 -0.22413599
-0.034740001 0.098165497 -0.224121
-0.034674 0.098158002 -0.224114
-0.024817001 0.098160997 -0.2241175
-0.042047001 0.098227002 -0.2242
-0.041957498 0.098256998 -0.224195
-0.041871998 0.098217003 -0.224199
-0.041781332 0.098237999 -0.22419433
-0.041660998 0.098247997 -0.22417299
-0.041551001 0.098263003 -0.22416
-0.041480999 0.098260999 -0.22415701
-0.041354001 0.098256499 -0.2241445
-0.041223001 0.098252997 -0.224162
-0.041049998 0.098245002 -0.22419301
-0.040401001 0.098212004 -0.22417
-0.040339667 0.098255999 -0.22416735
-0.040227503 0.098236002 -0.22417551
-0.040123999 0.098234996 -0.22415501
-0.040031001 0.098260999 -0.22413801
-0.039944999 0.098254003 -0.224113
-0.039863002 0.098251998 -0.22410899
-0.039793 0.098252997 -0.224123
-0.039694998 0.098241001 -0.224104
-0.039387502 0.098260999 -0.22410899
-0.039214 0.098295003 -0.22411001
-0.039112501 0.098255001 -0.22414699
-0.038853999 0.098220997 -0.224197
-0.038383 0.098263003 -0.224168
-0.038208 0.098250002 -0.224112
-0.038116999 0.098251 -0.22413
-0.038033001 0.098238997 -0.22410101
-0.037845999 0.098298997 -0.22410201
-0.037748668 0.098274 -0.224105
-0.037186999 0.098275997 -0.224123
-0.036948752 0.098238751 -0.22417399
-0.036364999 0.098242998 -0.224154
-0.036189001 0.098297998 -0.224122
-0.036091998 0.098291002 -0.22410101
-0.034823 0.098237 -0.224116
-0.034736 0.098240502 -0.2241555
-0.034648001 0.098229006 -0.2241375
-0.034523997 0.098246001 -0.224132
-0.034426 0.098284997 -0.224108
-0.024813 0.098265998 -0.224104
-0.041574001 0.098336004 -0.22416249
-0.041476998 0.098334 -0.22417399
-0.041336 0.098352335 -0.22416766
-0.041217498 0.0983615 -0.22418201
-0.041046999 0.098315001 -0.2242
-0.040305 0.098352 -0.224198
-0.040222999 0.098343998 -0.224196
-0.040119 0.098342001 -0.22416601
-0.040027998 0.098333001 -0.224144
-0.039940499 0.098361 -0.22412449
-0.039858498 0.098359004 -0.22411901
-0.039788499 0.098359004 -0.224124
-0.0396895 0.098350495 -0.224132
-0.039383002 0.098366998 -0.224117
-0.039252497 0.098366998 -0.2241255
-0.039108001 0.098361 -0.22415
-0.038378999 0.098337002 -0.22419199
-0.038203999 0.098324001 -0.224134
-0.038141001 0.098372005 -0.22415932
-0.038028002 0.098347001 -0.224121
-0.037929498 0.098338 -0.22411099
-0.037843999 0.098369002 -0.224103
-0.037753001 0.098369002 -0.22411299
-0.037684001 0.098364003 -0.224106
-0.037183002 0.098348998 -0.224141
-0.036988001 0.098347999 -0.22419301
-0.036361001 0.098318003 -0.224177
-0.036275998 0.098339498 -0.22412899
-0.036184002 0.098373003 -0.224151
-0.036088001 0.098366 -0.224131
-0.034818999 0.098343 -0.22411299
-0.034730747 0.098348498 -0.22417074
-0.034642249 0.098339252 -0.2241675
-0.034559999 0.098337501 -0.224159
-0.034459002 0.098362997 -0.22416
-0.034336999 0.098353997 -0.224117
-0.024645999 0.098341003 -0.224191
-0.041569501 0.098443493 -0.22418
-0.041473001 0.098407999 -0.224196
-0.041345499 0.098438501 -0.22418499
-0.041212998 0.098467998 -0.224189
-0.040114999 0.0984485 -0.22418049
-0.040022999 0.098442003 -0.22417
-0.039935 0.098468997 -0.22414599
-0.039852999 0.098468997 -0.22414701
-0.039783001 0.098467 -0.22414801
-0.039684001 0.098459996 -0.224161
-0.039592002 0.098445997 -0.224103
-0.039379001 0.098439999 -0.22413599
