0.00522576 0.0052753 0.999972 0.00388162
0.000254168 0.00180741 0.999998 0.00104569
-0.011925 0.00485534 0.999917 0.00339422
-0.0214983 0.00617232 0.99975 0.00133954
-0.0504661 0.00299798 0.998721 0
-0.0580089 0.00611879 0.998297 0
0.242314 0.000109961 0.970198 0.00639983
0.255311 -0.000947493 0.966859 0.00858406
0.264797 0.000214933 0.964304 0.0150816
-0.0634577 -0.0195549 0.997793 0.0149635
0.0372947 -0.00201589 0.999302 0.00423559
0.031531 0.000786089 0.999502 0.00535138
0.00486318 -0.00161842 0.999987 0.00494155
-0.0012983 -0.000720563 0.999999 0.00556614
-0.0147474 -0.000998212 0.999891 0.00280923
-0.0246954 -0.000273109 0.999695 9.36864e-05
-0.0515198 -0.0025037 0.998669 0.000967803
-0.0609605 0.00149666 0.998139 0.00442429
0.242504 -0.00807329 0.970117 0.0110217
0.252272 -0.00690419 0.967632 0.00867762
0.260937 -0.00541208 0.965341 0.0107478
-0.0514236 -0.0292117 0.99825 0.0118258
0.0388149 -0.00303253 0.999242 0.00532918
0.0356493 -0.0034337 0.999358 0.00310562
0.00738893 -0.00831516 0.999938 0.00581975
-0.00521001 -0.00471623 0.999975 0.00806867
-0.0177458 -0.00399725 0.999835 0.00661212
-0.0238916 -0.00591779 0.999697 0.00425216
-0.0547553 -0.00301606 0.998495 0.00991391
-0.0607555 -0.00230285 0.99815 0.00148003
0.24182 -0.011853 0.970249 0.00562928
0.25361 -0.0152207 0.967187 0.0104474
0.259732 -0.0165336 0.965539 0.00378401
-0.0513155 -0.0380386 0.997958 0.0108791
0.0404833 -0.017342 0.99903 0.00347898
0.00781841 -0.00873932 0.999931 0.00100051
-0.00103296 -0.00805721 0.999967 0.00508893
-0.0157043 -0.00937204 0.999833 0.00441485
-0.0231713 -0.00833974 0.999697 0.00324973
-0.0285589 -0.0133749 0.999503 0.00310358
-0.0500558 -0.0126205 0.998667 0.00870678
-0.0593099 -0.0102636 0.998187 0.00696102
0.233499 -0.0235914 0.972071 0.00227744
0.247961 -0.0249169 0.96845 0.00461014
0.259739 -0.0237949 0.965386 0.0101512
0.0137766 -0.0199114 0.999707 0.00374439
-0.00200605 -0.0144816 0.999893 0.00707513
-0.0160913 -0.0159047 0.999744 0.0058868
-0.0220809 -0.0198439 0.999559 0.00287405
-0.0279284 -0.018938 0.999431 0.00539206
-0.0500481 -0.0127686 0.998665 0.00935344
-0.0579945 -0.0168607 0.998174 0.00468047
0.239034 -0.0261824 0.970658 0.00340186
0.248908 -0.0246199 0.968214 0.00580517
0.258516 -0.028599 0.965584 0.00795645
0.0399477 -0.029002 0.998781 0.00818807
0.0293652 -0.0266233 0.999214 0.0060647
0.0126672 -0.0229636 0.999656 0.00409696
0.00444844 -0.0255219 0.999664 0.0048416
-0.0106499 -0.0229747 0.999679 0.00677208
-0.0170135 -0.0222183 0.999608 0.00673951
-0.0231368 -0.0264238 0.999383 0.00477593
-0.047795 -0.017865 0.998697 0.00698779
-0.0539381 -0.0215796 0.998311 0.00630932
0.253457 -0.0384096 0.966584 0.00448047
0.256878 -0.0389556 0.965659 0.00545903
0.0400415 -0.0340503 0.998618 0.0041817
0.00552342 -0.0280333 0.999592 0.00757091
-0.00663996 -0.0300665 0.999526 0.00904313
-0.0163517 -0.0288277 0.999451 0.00624607
-0.022235 -0.0289033 0.999335 0.00702179
-0.0449492 -0.0288063 0.998574 0.00834193
-0.0536235 -0.0274089 0.998185 0.0060049
0.25949 -0.0427418 0.9648 0.0105754
0.264304 -0.0415468 0.963544 0.0114081
0.00563733 -0.0293242 0.999554 0.00755795
-0.00540211 -0.0292738 0.999557 0.00643755
-0.01192 -0.0322087 0.99941 0.0063754
-0.0207501 -0.0278427 0.999397 0.00791123
-0.0437568 -0.030524 0.998576 0.0101253
0.257379 -0.0457599 0.965226 0.0132352
0.265583 -0.0481852 0.962883 0.0138114
-0.00519211 -0.0347011 0.999384 0.00783824
-0.0147121 -0.033813 0.99932 0.0079578
0.263207 -0.0520204 0.963336 0.0133414
0.270339 -0.0538955 0.961255 0.0123426
-0.000309006 -0.0421703 0.99911 0.00715241
-0.0118318 -0.0372424 0.999236 0.00906506
0.260878 -0.0543279 0.963842 0.0130974
0.265642 -0.0541543 0.96255 0.0178202
0.276811 -0.0608563 0.958995 0.0137993
-0.00253455 -0.0420838 0.999111 0.00949078
0.26944 -0.0629118 0.96096 0.0156435
0.278959 -0.0636453 0.958192 0.01766
0.278668 -0.0673227 0.958025 0.0187679
0.285617 -0.0687098 0.955877 0.0198509
0.273067 -0.0702699 0.959425 0.0215871
0.278972 -0.071408 0.957641 0.0230689
0.282268 -0.074586 0.956432 0.0260162
0.281955 -0.0762786 0.956391 0.0170953
0.278596 -0.0766563 0.957344 0.0200081
0.285754 -0.0781371 0.955112 0.0195635
0.278985 -0.0786313 0.957071 0.0230784
0.281887 -0.0825902 0.955886 0.0188593
0.286932 -0.0900919 0.953705 0.0146102
0.293473 -0.089586 0.95176 0.0181175
0.300704 -0.0894497 0.949513 0.0146112
0.29061 -0.0882429 0.952764 0.0204404
0.293833 -0.0898024 0.951629 0.0148744
0.303275 -0.0936246 0.948292 0.01886
0.300144 -0.0922986 0.949418 0.0169775
0.299279 -0.0920429 0.949716 0.0128587
0.312784 -0.0918017 0.945377 0.013692
0.301145 -0.0913083 0.949197 0.00892478
0.314844 -0.0894024 0.944924 0.0121016
0.299418 -0.0901849 0.94985 0.0122204
0.311406 -0.0902117 0.945985 0.0137277
0.294061 -0.0894589 0.951591 0.00746826
0.30946 -0.0905754 0.946589 0.0105463
0.299953 -0.0862489 0.950047 0.016941
0.314902 -0.085192 0.945293 0.0197893
0.311754 -0.0862501 0.94624 0.0228335
0.309703 -0.0858342 0.946951 0.0166129
0.311635 -0.0891823 0.946007 0.0123593
0.327604 -0.0917205 0.940353 0.00658766
0.307444 -0.0966937 0.946641 0
0.322081 -0.0942076 0.942013 0
0.310077 -0.0953223 0.945921 0
0.322721 -0.0945715 0.941758 0
0.307084 -0.0953566 0.946893 0.00168692
0.324687 -0.0962356 0.940913 0.00191079
0.306666 -0.0954176 0.947022 0.00297672
0.316154 -0.0948137 0.943958 0.000634792
0.309216 -0.0949984 0.946235 0.00231495
0.319304 -0.0972232 0.942652 0
0.311244 -0.0923113 0.945836 0.00140699
0.326253 -0.0949524 0.940501 0
0.320805 -0.0926003 0.942608 0.00236937
0.317915 -0.0931331 0.943534 0
0.317963 -0.0861453 0.944181 0.00490768
0.313575 -0.0898481 0.945303 9.38499e-05
0.317526 -0.0848165 0.944449 0.00605922
0.31423 -0.0822363 0.945778 0.010494
0.31254 -0.0803913 0.946497 0.0073175
0.310727 -0.0841546 0.946767 0.00354155
0.313634 -0.081521 0.946038 5.38842e-05
0.313644 -0.0787753 0.946267 0
0.319472 -0.0742018 0.944686 0.00338429
0.329274 -0.0689654 0.941713 0.0119524
0.328847 -0.0692935 0.941838 0.00757354
0.326297 -0.0689018 0.942753 0.00426453
0.338644 -0.0699393 0.938312 0.000683478
0.3222 -0.0657522 0.944385 0.00443914
0.335251 -0.0670942 0.939737 0.00317578
0.321396 -0.064391 0.944753 0.00258653
0.331235 -0.0644358 0.941345 0.00361417
0.321416 -0.062457 0.944876 0.00777668
0.328409 -0.0639065 0.942371 0
0.324931 -0.0604158 0.943806 0.00824301
0.333466 -0.0588317 0.940925 0.00235403
0.323871 -0.0565522 0.94441 0
0.330195 -0.0566606 0.942211 0
0.329669 -0.0579975 0.942313 0
0.339496 -0.0551687 0.938988 0.00101724
0.328056 -0.0562248 0.942984 0
0.339382 -0.0578942 0.938865 0
0.323266 -0.0564567 0.944622 0
0.341428 -0.0591999 0.938042 0
0.328788 -0.0511332 0.943018 0.00703051
0.338001 -0.0526231 0.939673 0.00788455
0.333368 -0.0499564 0.941472 0.00770018
0.336719 -0.0506079 0.940244 0.00456697
0.319535 -0.0440355 0.946551 0.00729619
0.334682 -0.0418905 0.9414 0.00860414
0.330567 -0.0443618 0.942739 0.0095766
0.33415 -0.0457069 0.941411 0.0112047
0.334663 -0.0445487 0.941284 0.0146719
0.337226 -0.0441537 0.940388 0.00934881
0.340024 -0.0445263 0.939362 0.00576657
0.342183 -0.0443797 0.938585 0.00858582
0.339253 -0.045962 0.939571 0.0107002
0.338935 -0.0496654 0.939498 0.00681292
0.344408 -0.0428247 0.937843 0.00822049
0.355263 -0.0404528 0.933891 0.00978654
0.34392 -0.0435714 0.937987 0.0124014
0.332478 -0.0458708 0.941995 0.00126358
0.325877 -0.0499636 0.944091 0.00545702
0.335384 -0.0568267 0.940366 0
0.321202 -0.0527556 0.94554 0.000632091
0.324125 -0.0563247 0.944336 0
0.327231 -0.0558509 0.943292 0
0.33808 -0.0585827 0.939292 0
0.3308 -0.0609595 0.94173 0
0.337256 -0.0588807 0.93957 0
0.338048 -0.0618253 0.939096 0
0.348685 -0.0594953 0.93535 0
0.349723 -0.0617774 0.934814 0
0.354682 -0.0639445 0.932798 0
0.342565 -0.0643559 0.937287 0.0100325
0.339993 -0.0806441 0.936964 0.0109487
0.336239 -0.0874078 0.937712 0.00539739
-0.0717638 -0.225772 0.971533 0.00631802
-0.0645917 -0.237007 0.969358 0.0180405
-0.0539339 -0.241919 0.968796 0.0147891
0.00234865 -0.248322 0.968675 0.0139412
0.0289151 -0.239789 0.970394 0.00681864
0.0830285 -0.224597 0.970908 0.00164477
0.0923686 -0.215066 0.972221 0.00642996
0.109384 -0.197283 0.974225 0.0129804
-0.120115 -0.181257 0.976073 0.000426614
-0.114549 -0.197292 0.97363 0.00257983
-0.0812793 -0.221126 0.971852 0.00576656
-0.072552 -0.208097 0.975414 0.0126442
-0.0659215 -0.219811 0.973313 0.019237
-0.0552797 -0.227614 0.972181 0.0180826
0.0784868 -0.218467 0.972683 0.00266808
0.0945662 -0.204208 0.974349 0.00484081
0.109682 -0.185054 0.976588 0.00629605
0.122622 -0.17633 0.976664 0.011406
0.137641 -0.168245 0.976088 0.0156508
0.0092103 -0.233937 0.972208 0.0128347
-0.127028 -0.159837 0.978936 0.00887629
-0.13024 -0.156729 0.979017 0.0147548
-0.123236 -0.173653 0.977066 0.00568069
-0.115835 -0.191278 0.974677 0.00713208
0.138654 -0.163977 0.976671 0.0178412
0.146216 -0.160912 0.976078 0.014726
-0.0209555 -0.223762 0.974418 0.0136691
-0.0157789 -0.224252 0.974404 0.013633
0.00771368 -0.216615 0.976226 0.0201429
0.00741901 -0.228031 0.973626 0.0135775
0.00889864 -0.229348 0.973304 0.0111258
0.0105417 -0.232569 0.972523 0.0210262
0.0181715 -0.238969 0.970857 0.0184043
0.0228741 -0.242981 0.969761 0.0182059
0.0293828 -0.238361 0.970732 0.0143704
0.0323814 -0.239334 0.970397 0.0122226
-0.120944 -0.143872 0.982178 0.0101607
-0.122474 -0.151904 0.980778 0.00655876
-0.124797 -0.152114 0.980452 0.00677193
-0.121357 -0.157385 0.980052 0
-0.123853 -0.151635 0.980646 0.00644601
-0.126851 -0.14825 0.980781 0.0135515
0.200616 -0.149991 0.96812 0.0173447
0.204213 -0.145516 0.968051 0.0200536
-0.0306922 -0.202602 0.97878 0.00511654
-0.0193943 -0.215012 0.976419 0.00567789
-0.0192498 -0.212648 0.976939 0.0127666
-0.00963884 -0.213501 0.976895 0.0121998
-0.0039363 -0.208212 0.978076 0.0179332
0.00340662 -0.207736 0.978179 0.00525618
0.00886466 -0.207212 0.978256 0.013689
0.0100245 -0.215922 0.976359 0.0143281
0.0106472 -0.219086 0.975647 0.0133142
0.012464 -0.22815 0.973546 0.016181
0.0128919 -0.228343 0.973495 0.0216169
0.020046 -0.235393 0.971694 0.0240883
0.0266238 -0.230937 0.972604 0.0162681
0.0321204 -0.225142 0.973796 0.0106709
0.0360886 -0.226304 0.973388 0.00981025
-0.118851 -0.137438 0.983354 0.00713181
-0.120489 -0.139556 0.982856 0.00668633
-0.122491 -0.146157 0.981649 0.008533
-0.121654 -0.145942 0.981785 0.00245834
-0.121715 -0.143617 0.98212 0.000361404
0.195751 -0.137391 0.970982 0.0207094
0.20748 -0.139872 0.968188 0.0228529
-0.0415044 -0.197834 0.979356 0.00632339
-0.0284955 -0.197246 0.97994 0.00536109
-0.0190726 -0.19944 0.979724 0.00980977
-0.016534 -0.197716 0.98012 0.0100268
-0.0098844 -0.201069 0.979527 0.010357
-0.00576415 -0.204345 0.978882 0.0238488
0.00406607 -0.199171 0.979956 0.00998714
0.0085912 -0.198939 0.979974 0.0121929
0.0111001 -0.193254 0.981086 0.0176757
0.0142667 -0.212087 0.977147 0.0185985
0.0221457 -0.214803 0.976406 0.0182721
0.0275436 -0.209097 0.977507 0.0205064
0.034885 -0.209658 0.977152 0.00493015
0.0366221 -0.208758 0.977282 0.00165047
0.0357131 -0.21694 0.975531 0.00142188
0.0382859 -0.215292 0.975799 0.00323551
0.0345293 -0.213931 0.976238 0.00462148
-0.107313 -0.122164 0.986691 0.00162933
-0.110364 -0.122601 0.9863 0.00209834
-0.118976 -0.12147 0.985439 0.00944293
-0.121704 -0.124669 0.984706 0.0120954
-0.12091 -0.13683 0.983188 0.00810971
-0.119327 -0.141586 0.982708 0.00190627
0.214584 -0.126793 0.968441 0.029345
0.226319 -0.12115 0.96649 0.0268412
0.232383 -0.1238 0.964713 0.0245003
-0.0518935 -0.178355 0.982597 0.0110793
-0.0394441 -0.182799 0.982359 0.00549059
-0.0269024 -0.181131 0.983091 0.00810435
-0.0174857 -0.184958 0.982591 0.00698034
-0.0166988 -0.188989 0.981837 0.00486082
-0.00774597 -0.191367 0.981488 0.0121998
-0.000449839 -0.187772 0.982213 0.0152842
-0.00232317 -0.191374 0.981514 0.0194982
0.000927762 -0.19113 0.981564 0.0237369
0.0254148 -0.199656 0.979537 0.0144139
0.0293786 -0.200978 0.979155 0.0129645
0.0364133 -0.204031 0.978287 0.00530709
0.0336315 -0.203729 0.97845 0.00535341
0.0361772 -0.201411 0.978839 0.0097854
0.0329076 -0.203442 0.978534 0.0125291
0.0365879 -0.201136 0.97888 0.00738819
0.0399271 -0.200461 0.978888 0.00612181
-0.0952663 -0.114777 0.988813 0
-0.104519 -0.106871 0.988764 0.00290974
-0.110385 -0.116061 0.987089 0.00254788
-0.117373 -0.110546 0.986916 0.0118762
-0.121348 -0.113819 0.986063 0.0128193
-0.118961 -0.128973 0.984487 0.00745237
0.227986 -0.109417 0.967497 0.0279755
0.236596 -0.109223 0.965449 0.027632
0.242114 -0.103575 0.964703 0.0303262
-0.0598829 -0.171345 0.983389 0.00975679
-0.0571222 -0.172985 0.983266 0.0103271
-0.0365735 -0.171895 0.984436 0.0044252
-0.0308289 -0.177659 0.983609 0.0109501
-0.00220477 -0.180151 0.983636 0.0126845
0.0284132 -0.193539 0.980681 0.0118936
0.0330573 -0.194663 0.980313 0.00542906
0.0352413 -0.195797 0.980011 0.00507552
0.0343582 -0.197157 0.97977 0.00828635
0.0357242 -0.195988 0.979955 0.0118458
0.037071 -0.188428 0.981387 0.00727667
0.0409841 -0.190773 0.980778 0.00182323
0.0421254 -0.175966 0.983494 0.00393505
-0.0489239 -0.106013 0.99316 0
-0.0637608 -0.106136 0.992305 0
-0.0684936 -0.11166 0.991383 0
-0.0813851 -0.114323 0.990104 0
-0.0904281 -0.108268 0.99 0
-0.100664 -0.10374 0.989497 0.00296847
-0.111072 -0.0969007 0.989077 0.0056349
-0.116139 -0.0988559 0.988301 0.00886782
-0.11551 -0.106576 0.987572 0.00905662
0.239231 -0.0976678 0.966038 0.029701
0.245427 -0.0962062 0.964629 0.0291125
0.250055 -0.0886692 0.964163 0.0305874
-0.0863077 -0.172489 0.981223 0.0121897
-0.073516 -0.169025 0.982866 0.00993156
-0.0537609 -0.166639 0.984551 0.00762435
-0.038861 -0.168245 0.984979 0.00542179
0.0311686 -0.177533 0.983621 0.00635828
0.035816 -0.175886 0.983759 0.0106693
0.0378726 -0.176077 0.983648 0.00506917
0.0413475 -0.165166 0.985399 0.00592151
0.0460537 -0.15519 0.986811 0.00570942
0.0378182 -0.160137 0.98637 0.00506599
0.0317672 -0.152935 0.987725 0.00961092
0.0199473 -0.148353 0.988733 0.00637374
0.0137095 -0.143081 0.989616 0.00731462
0.00535692 -0.130805 0.991394 0.0106439
0.00228946 -0.127139 0.991882 0.00710703
-0.00431224 -0.119787 0.99279 0.00156448
-0.0428098 -0.097933 0.994272 0.0053451
-0.0500664 -0.0989533 0.993832 0.00396456
-0.0571269 -0.101757 0.993168 0
-0.0656115 -0.106085 0.99219 0
-0.08322 -0.109759 0.990468 0
-0.0892265 -0.0991048 0.991069 0
-0.101197 -0.0933556 0.990477 0.0060812
-0.107604 -0.0878878 0.990301 0.00118959
-0.114397 -0.0910981 0.989249 0.00765278
0.240707 -0.0798281 0.96731 0.0340086
0.251181 -0.0792755 0.964688 0.0336902
-0.0916905 -0.168335 0.981456 0.0136935
-0.0757818 -0.168678 0.982754 0.015564
-0.0670368 -0.166303 0.983793 0.0155658
0.032605 -0.172973 0.984387 0.00454971
0.0374091 -0.160918 0.986259 0.0101463
0.0396521 -0.15169 0.987632 0.0107767
0.0440563 -0.145898 0.988318 0.0100789
0.0424625 -0.142319 0.98891 0.0051786
0.0408736 -0.148017 0.98814 0.00490128
0.0375902 -0.148445 0.988206 0.00108117
0.0314524 -0.145866 0.988804 0.00549366
0.021996 -0.140885 0.989782 0.0105918
0.0136313 -0.140216 0.990027 0.00533182
0.00844628 -0.127845 0.991758 0.0107312
0.00198215 -0.119563 0.992825 0.00670071
-0.00376083 -0.111378 0.993771 0.00320695
-0.0121782 -0.106742 0.994212 0.00226999
-0.0172212 -0.0979864 0.995039 0.00466693
-0.0300725 -0.0976607 0.994765 0.0104688
-0.0412086 -0.0900281 0.995086 0.00681714
-0.045833 -0.0974806 0.994182 0.00250015
-0.0556079 -0.099525 0.99348 0
-0.0635355 -0.100793 0.992877 0
-0.0830236 -0.0981198 0.991705 0
-0.0914501 -0.0933491 0.991425 0
-0.0963338 -0.094813 0.990823 0.00177111
-0.102285 -0.0883284 0.990826 0.00273784
0.246668 -0.0722592 0.966402 0.0313159
0.261074 -0.0714304 0.962672 0.0331199
0.275701 -0.0665217 0.958939 0.0354255
-0.106627 -0.160219 0.981306 0.00639244
-0.0885984 -0.15682 0.983645 0.0112772
-0.0817595 -0.159697 0.983774 0.0158744
0.0423496 -0.143104 0.988801 0.00994067
0.0446384 -0.136742 0.9896 0.0112881
0.0411858 -0.136366 0.989802 0.00961906
0.0407337 -0.142394 0.988972 0.00368357
0.0383753 -0.142627 0.989032 0.000587912
0.0292917 -0.134179 0.990524 0.00522982
0.0193321 -0.127475 0.991653 0.00652919
0.0145829 -0.126992 0.991797 0.00478583
0.00877024 -0.118139 0.992958 0.00640975
0.00768278 -0.112018 0.993676 0.00589438
0.00270036 -0.104665 0.994504 0.000747059
-0.00820484 -0.0976906 0.995183 0.00312993
-0.016414 -0.0952293 0.99532 0.00435443
-0.0312332 -0.0940461 0.995078 0.0100535
-0.0384981 -0.0835935 0.995756 0.0050049
-0.0443246 -0.0915125 0.994817 0.00163873
-0.0541447 -0.0934526 0.99415 0.00282086
-0.064599 -0.0916668 0.993692 0.00122671
0.262592 -0.0532033 0.963439 0.0326578
0.283328 -0.0508503 0.957674 0.0344518
-0.110208 -0.151411 0.982308 0.00690993
-0.0892107 -0.149179 0.984778 0.012766
0.0193696 -0.120472 0.992528 0.00896375
0.0159393 -0.117087 0.992994 0.00399425
0.01144 -0.116542 0.99312 0.00116508
0.00906723 -0.10375 0.994562 0.00555357
0.00708806 -0.0976134 0.995199 0.00196904
-0.00363372 -0.0918793 0.995763 0.00436165
-0.0147873 -0.0837981 0.996373 0.00754155
-0.0381765 -0.0800783 0.996057 0.00609093
-0.0474886 -0.0848959 0.995257 0.00324346
-0.0501746 -0.0905143 0.99463 0.00661438
0.288166 -0.0395933 0.956762 0.0368274
0.30484 -0.0344596 0.95178 0.0276853
-0.113257 -0.141263 0.983472 0.0141937
0.0246119 -0.113152 0.993273 0.00863981
0.013216 -0.106462 0.994229 0.00309935
0.0103379 -0.0905927 0.995834 0.00708118
-0.00295255 -0.0806827 0.996736 0.00893396
-0.0362839 -0.0709708 0.996818 0.0114917
0.289134 -0.0257843 0.956941 0.0309665
0.310803 -0.0292224 0.950025 0.0269625
-0.12023 -0.130501 0.984131 0.0166582
0.292833 -0.018842 0.955978 0.0296692
0.309414 -0.026723 0.950552 0.0194932
0.300522 -0.0203474 0.953558 0.0157955
0.320783 -0.0231675 0.946869 0.0230696
0.301497 -0.0113372 0.9534 0.0230664
0.314951 -0.00675835 0.949084 0.0252501
0.299644 -0.00189985 0.954049 0.0160816
0.320623 -0.00428971 0.947197 0.0192658
0.332568 0.00323297 0.943074 0.0204389
0.297694 0.00207851 0.954659 0.00359952
0.31809 0.00336736 0.948054 0.00977997
0.330294 0.00600776 0.943859 0.0125872
0.300359 0.0101382 0.953772 0.00844734
0.312716 0.00800704 0.949813 0.00750341
0.296567 0.0139692 0.95491 0
0.3047 0.0127348 0.952363 0
0.30057 0.0203593 0.953542 0
0.313308 0.0222094 0.949392 0.00376453
0.279856 0.029088 0.959601 0.00204965
0.296623 0.0276074 0.954596 0.00495183
0.31623 0.0268843 0.948301 0.0110662
0.28643 0.0365626 0.957403 0.00498654
0.301336 0.0325972 0.952961 0.0023855
0.286426 0.0367088 0.957399 0
0.303231 0.0351894 0.952267 0
0.282491 0.0418202 0.958358 0
0.289212 0.0434574 0.956278 0.00294886
0.304012 0.0411924 0.951777 0.00401781
0.277759 0.0429478 0.95969 0
0.285812 0.0452787 0.957215 0
-0.150385 -0.000122889 0.988628 0.0220698
-0.0313754 0.00927456 0.999465 0.0106695
-0.0377962 0.0104676 0.999231 0.0120558
0.281776 0.0491662 0.95822 3.63477e-05
0.289095 0.0495543 0.956017 0
-0.141342 0.00451749 0.98995 0.0222649
-0.0194653 0.0183539 0.999642 0.00955465
-0.0254034 0.018299 0.99951 0.0068417
-0.0362567 0.0177375 0.999185 0.0130845
0.279981 0.0538568 0.958494 0.00840795
0.288554 0.0531295 0.955988 0.004512
-0.12784 0.013267 0.991706 0.0135163
-0.0198099 0.0235894 0.999525 0.0079023
-0.026796 0.0255668 0.999314 0.00813887
-0.0332917 0.0279928 0.999054 0.00874385
-0.041849 0.0379202 0.998404 0.0125483
-0.0607793 0.0442332 0.997171 0.0138175
0.285186 0.0601538 0.956583 0.0111236
0.29254 0.0596098 0.954394 0.00747729
-0.123067 0.0153096 0.99228 0.0150256
0.0190338 0.0266876 0.999463 0
-0.0176575 0.0310099 0.999363 0.0101549
-0.0253731 0.0334151 0.999119 0.0120216
-0.0326956 0.0352394 0.998844 0.0145954
-0.0405389 0.0400244 0.998376 0.0134739
-0.0587282 0.0483629 0.997102 0.0124121
0.269351 0.0670046 0.960708 0.0151175
0.292001 0.0637489 0.954291 0.0137845
-0.122226 0.0154124 0.992383 0.0138385
0.036994 0.032855 0.998775 0.00155493
0.0320612 0.0285063 0.999079 0.00408183
0.0236223 0.0339723 0.999144 0.00375061
0.0162078 0.0313998 0.999376 0.0033074
0.0112591 0.0341743 0.999352 0.00065118
-0.00981024 0.0338383 0.999379 0.00673962
-0.0209971 0.0424318 0.998879 0.0124752
-0.0308204 0.0435004 0.998578 0.0137712
-0.0395037 0.0453625 0.998189 0.0161118
-0.0551773 0.0508102 0.997183 0.0105655
0.273844 0.0679837 0.959368 0.014721
0.280986 0.0673343 0.957347 0.0154889
-0.115392 0.0191008 0.993136 0.0131659
0.0409371 0.0306709 0.998691 0
0.0347837 0.0390964 0.99863 0.0076006
0.0316525 0.033979 0.998921 0.00190766
0.0226678 0.0337928 0.999172 0
0.0134623 0.0306826 0.999439 0.000383707
0.00186232 0.0330597 0.999452 0.00201371
-0.00892426 0.0400414 0.999158 0.0035244
-0.0190627 0.0442598 0.998838 0.00691034
-0.0306616 0.046912 0.998428 0.0101593
-0.0389018 0.0506788 0.997957 0.0104859
-0.0577537 0.0533521 0.996904 0.00900993
-0.0672418 0.0567524 0.996121 0.00773166
-0.0695742 0.0590675 0.995826 0.00507947
0.250894 0.067181 0.965681 0.0156665
0.259569 0.0668321 0.963409 0.0167761
0.276991 0.0688781 0.958401 0.0208672
-0.118337 0.0247187 0.992666 0.0142195
-0.0976511 0.0252259 0.994901 0.0117725
0.052392 0.0323167 0.998104 0.00686128
0.0434977 0.0364461 0.998389 0.00416639
0.0368445 0.0371238 0.998631 0.00299405
0.0349868 0.0337052 0.998819 0
0.0263607 0.0380669 0.998927 0
0.0196815 0.0365841 0.999137 0
0.00328853 0.0346858 0.999393 0
-0.00377678 0.0405762 0.999169 0.00132232
-0.0144648 0.0463502 0.998821 0.00382102
-0.0250238 0.0470499 0.998579 0.00457712
-0.0334762 0.0490146 0.998237 0.00389528
-0.053566 0.0562673 0.996978 0.00520182
-0.0647737 0.0622976 0.995954 0.00540908
-0.0667383 0.0620973 0.995836 0.00152721
0.266415 0.0677185 0.961477 0.0182573
0.271224 0.0686284 0.960067 0.0208515
-0.110129 0.027066 0.993549 0.00400062
-0.0965948 0.0257519 0.994991 0.0104675
0.0609465 0.035924 0.997494 0.00607949
0.0540669 0.0382836 0.997803 0.00688336
0.049764 0.035319 0.998136 0.00428766
0.0424774 0.0371982 0.998405 0.00306637
0.0325576 0.03541 0.998842 0.00310201
0.0263833 0.0354653 0.999023 0
0.016372 0.0380603 0.999141 0
0.0051736 0.0396339 0.999201 0
-0.00467438 0.045185 0.998968 0.0032438
-0.0107871 0.0468122 0.998845 0
-0.0205025 0.049449 0.998566 0
-0.0285483 0.0554411 0.998054 0
-0.0530336 0.0569399 0.996968 0.0025391
-0.0617661 0.0612915 0.996207 0
-0.0653893 0.0640856 0.9958 0.000687339
0.247233 0.0656111 0.966732 0.0230858
0.261485 0.0660531 0.962945 0.0214053
0.271832 0.0678025 0.959953 0.024851
-0.114182 0.0255465 0.993131 0.0112672
-0.105077 0.0294513 0.994028 0.0154239
0.0634071 0.0369649 0.997303 0.00784424
0.0571947 0.0362663 0.997704 0.00462061
0.0510553 0.0405877 0.997871 0.00762792
0.0457987 0.0393923 0.998174 0.00182026
0.0372179 0.0341141 0.998725 0.00103812
0.0274861 0.032464 0.999095 0
0.0190744 0.0385153 0.999076 0.00262314
0.00711677 0.045514 0.998938 0.0023803
-0.00116485 0.0432844 0.999062 0
-0.00946626 0.0455412 0.998918 0
-0.0190907 0.0483273 0.998649 0
-0.0277501 0.0534055 0.998187 0
-0.0514761 0.0597345 0.996886 0.00174445
-0.0579495 0.0637923 0.996279 0.000340132
-0.0669476 0.060785 0.995903 0
0.244996 0.0664421 0.967245 0.0254108
0.262561 0.0633084 0.962836 0.0195102
0.271658 0.0627128 0.960348 0.0193678
-0.115319 0.028574 0.992917 0.00986261
-0.100572 0.0293878 0.994496 0.0131394
-0.0952071 0.0351771 0.994836 0.0140089
0.0647332 0.0430865 0.996972 0.00949801
0.0545208 0.0399296 0.997714 0.00872188
0.0466901 0.043205 0.997975 0.0122047
0.0446583 0.0349637 0.99839 0.00293534
0.0361562 0.0358841 0.998702 0.00505789
0.0274322 0.0359933 0.998975 0.00325024
0.0222763 0.041017 0.99891 0.00130517
0.0104282 0.0434279 0.999002 0
0.0057252 0.0446594 0.998986 0
-0.00483544 0.0483706 0.998818 0
-0.0208222 0.0535618 0.998347 0
-0.0278348 0.0537111 0.998169 0
-0.0494861 0.0593412 0.99701 0.00108758
-0.0620224 0.0642852 0.996002 0.00362207
-0.0658329 0.0644667 0.995746 0.000683229
0.236898 0.0620292 0.969552 0.0262031
0.253367 0.0592173 0.965556 0.0205894
0.264039 0.0574384 0.9628 0.0238265
-0.118533 0.0306672 0.992476 0.00782396
-0.0986795 0.0316662 0.994615 0.0142664
-0.0895888 0.0302962 0.995518 0.0145108
0.0646072 0.0385107 0.997167 0.0108233
0.0595095 0.0420331 0.997342 0.00683964
0.0518271 0.040789 0.997823 0.00815917
0.0456597 0.0394711 0.998177 0.00630476
0.0428952 0.0384506 0.998339 0.0045044
0.0319236 0.0395523 0.998707 0.00633627
0.0228475 0.0392253 0.998969 0.00489533
0.0147483 0.0435702 0.998942 0
0.00731881 0.0459302 0.998918 0
0.00063846 0.0450492 0.998985 0
-0.0160989 0.0504535 0.998597 0
-0.026981 0.0503928 0.998365 0
-0.0519741 0.0588888 0.996911 0.00474347
-0.0642302 0.0609157 0.996074 0.00736175
-0.0668107 0.062641 0.995797 0.00485936
-0.0674 0.0613736 0.995837 0.00122999
0.235981 0.0562907 0.970126 0.0233201
0.254989 0.0544341 0.965411 0.0193005
0.262803 0.0502552 0.96354 0.0184141
-0.0985868 0.02831 0.994726 0.0186518
-0.0868606 0.0250779 0.995905 0.0178783
0.0773879 0.0335646 0.996436 0.00417873
0.069002 0.0369158 0.996933 0.004565
0.0634693 0.0358033 0.997341 0.00689458
0.050349 0.0405748 0.997907 0.00922778
0.04707 0.0375976 0.998184 0.00663085
0.0429738 0.0385313 0.998333 0.00550716
0.0320789 0.0385803 0.99874 0.00499805
0.023795 0.0401922 0.998909 0.00359675
0.0195168 0.03981 0.999017 0.00101929
0.0118464 0.042659 0.999019 0
-0.0163828 0.0480402 0.998711 0.000216698
-0.0230444 0.0493332 0.998516 0.00118093
-0.0528993 0.0546275 0.997105 0.00491524
-0.0621125 0.0576024 0.996406 0.00673046
-0.06524 0.0590152 0.996123 0.00631299
-0.0675964 0.0589636 0.995969 0.00289948
-0.0830918 0.0619734 0.994613 0.00419116
-0.0841087 0.0591017 0.994702 0.00293184
0.240296 0.0520229 0.969305 0.0238131
0.251262 0.0485927 0.966699 0.0177413
0.262181 0.0492866 0.963759 0.0172254
-0.101884 0.0256059 0.994467 0.0198996
-0.0950574 0.0219994 0.995229 0.02017
0.0772558 0.0330978 0.996462 0.00450456
0.0702469 0.0340048 0.99695 0.00582452
0.0643826 0.0296706 0.997484 0.00515418
0.0552611 0.0314924 0.997975 0.00527039
0.0478568 0.0354767 0.998224 0.00406899
0.0417377 0.038699 0.998379 0.00838185
0.0356287 0.0367446 0.998689 0.000171683
0.0310716 0.0394124 0.99874 0.000604726
0.0226496 0.0406659 0.998916 0.000925089
-0.0159537 0.0447945 0.998869 0
-0.0249712 0.0469773 0.998584 0.000971791
-0.0530876 0.0492218 0.997376 0.00836191
-0.0609606 0.0521574 0.996777 0.00882904
-0.0631031 0.050791 0.996714 0.00318732
-0.0669119 0.0535718 0.99632 0
-0.0734985 0.0516203 0.995959 0.00291384
-0.0809934 0.0563251 0.995122 0.00240851
-0.0831763 0.0533631 0.995105 0
0.235358 0.0475516 0.970745 0.0235977
0.251389 0.0462352 0.966781 0.0214441
-0.1085 0.0209611 0.993875 0.0232986
-0.0856558 0.0156621 0.996202 0.0143362
0.0772648 0.0318585 0.996501 0.00403015
0.070484 0.0306764 0.997041 0.00835605
0.0642866 0.0318493 0.997423 0.00543088
0.0527409 0.0363132 0.997948 0.00530371
0.0456909 0.0406803 0.998127 0.00940739
0.0424475 0.0348557 0.998491 0.00917912
0.036835 0.0381633 0.998592 0.0028433
0.0299098 0.0359755 0.998905 0.00128364
0.0200151 0.0371522 0.999109 0
-0.0226947 0.0448688 0.998735 0.0045173
-0.0497122 0.0469774 0.997658 0.0102851
-0.0585008 0.046267 0.997215 0.00710414
-0.0628407 0.0469125 0.99692 0.00496311
-0.0672865 0.044081 0.996759 0.0025899
-0.0740739 0.0472632 0.996132 0.006163
-0.0813012 0.0518505 0.99534 0.00502187
-0.0831222 0.0479346 0.995386 0
-0.0856811 0.0508098 0.995026 0
0.232919 0.0432755 0.971533 0.0212494
0.249107 0.040805 0.967616 0.0187813
-0.0865199 0.0149053 0.996139 0.00872307
-0.0763325 0.0108344 0.997024 0.0122692
0.080294 0.0248629 0.996461 0.0032307
0.0808297 0.0201424 0.996524 0.00177135
0.0703977 0.0328804 0.996977 0.00927769
0.0661803 0.0316664 0.997305 0.00746445
0.0542514 0.0362102 0.997871 0.00638008
0.0473827 0.0331991 0.998325 0.00669861
0.0421973 0.0318515 0.998601 0.00697424
0.0343308 0.0353584 0.998785 0.00143625
0.0297268 0.0373347 0.998861 0.00308272
0.0204157 0.0327897 0.999254 0.00210384
-0.0525492 0.0412371 0.997767 0.00793818
-0.0562905 0.0399717 0.997614 0.00130712
-0.0593478 0.0377855 0.997522 0.00105659
-0.0652473 0.0344116 0.997276 0.00528337
-0.072869 0.0420255 0.996456 0.00489591
-0.0774256 0.0419345 0.996116 0.000951177
-0.0797594 0.0426796 0.9959 0
-0.0858571 0.0501155 0.995046 0.00271076
0.230353 0.0384387 0.972348 0.0215936
0.252622 0.0397334 0.966749 0.0252285
0.258 0.0402109 0.965308 0.024555
-0.0776629 0.00609014 0.996961 0.00189768
-0.0621473 0.00555733 0.998052 0.00341651
0.0800607 0.0225709 0.996534 0.00353059
0.0713675 0.0247057 0.997144 0.00526353
0.0667986 0.0278 0.997379 0.0064866
0.0565421 0.0239545 0.998113 0.00535852
0.0462619 0.0314887 0.998433 0.00721529
0.0427933 0.0282942 0.998683 0.00488723
0.0329384 0.0278215 0.99907 0.000752103
0.0281959 0.0318029 0.999096 0.000173461
0.0182839 0.0295349 0.999397 0.00567292
0.0112997 0.0291898 0.99951 0.00480852
-0.051867 0.0327639 0.998116 0.00507453
-0.0557491 0.029601 0.998006 0.00248044
-0.0599275 0.030631 0.997733 0.000855567
-0.0642092 0.0303662 0.997474 0.000619112
-0.072264 0.0337081 0.996816 0.0060189
-0.0755677 0.0339212 0.996564 0.00165364
-0.0777829 0.0351515 0.99635 0
-0.0832705 0.0375552 0.995819 0.00132764
0.232404 0.0330777 0.972057 0.0279355
0.252998 0.0331501 0.966899 0.0246977
-0.0752981 -0.000901375 0.997161 0.00635062
-0.0559997 -0.00546722 0.998416 0.00517835
-0.053434 -0.00484728 0.99856 0.00934053
0.079767 0.0167315 0.996673 0.0053536
0.0731664 0.0169103 0.997176 0.0071229
0.0663774 0.0207779 0.997578 0.00336428
0.0612571 0.0219613 0.99788 0.000534474
0.0502576 0.0266614 0.99838 0.00353314
0.0415076 0.0232081 0.998869 0.00385658
0.0319955 0.0274865 0.99911 0.000388666
0.0290313 0.0268297 0.999218 0
0.0187697 0.027417 0.999448 0.00320131
0.00964027 0.0284957 0.999547 0.00159101
-0.051442 0.0216973 0.99844 0.00157239
-0.0553679 0.0199357 0.998267 0.00315993
-0.0620403 0.0229503 0.99781 0.00213721
-0.0650862 0.0239474 0.997592 0.00514991
-0.0685849 0.0247932 0.997337 0.00195454
-0.0703693 0.0272894 0.997148 0
-0.0730046 0.0295097 0.996895 0
-0.0828558 0.0305761 0.996092 0.000588086
0.230413 0.0233868 0.972812 0.0192958
0.245781 0.025364 0.968993 0.0220876
-0.0706485 -0.00962636 0.997455 0.00912194
-0.0564773 -0.015823 0.998278 0.0092296
-0.0432706 -0.0167776 0.998923 0.00511748
0.077752 0.00817639 0.996939 0.00602238
0.0701113 0.0140523 0.99744 0.0048658
0.0663978 0.0165023 0.997657 0.00801194
0.0619897 0.0150257 0.997964 0.000553392
0.0521167 0.0174733 0.998488 0.00243931
0.0440051 0.0180291 0.998869 0
0.0325676 0.0232123 0.9992 0.00226222
0.0315148 0.0224352 0.999251 0
0.0168521 0.022824 0.999597 0.00204529
-0.0567786 0.014019 0.998288 0
-0.0635842 0.0156936 0.997853 0.00311806
-0.0636725 0.0199442 0.997772 0.00266936
-0.0645404 0.0184166 0.997745 0
-0.0701312 0.0232428 0.997267 0
-0.072973 0.0246657 0.997029 0
-0.0796753 0.0232377 0.99655 0.00197898
-0.084186 0.0266946 0.996092 0
0.229344 0.0190792 0.973158 0.0160832
0.244764 0.0188209 0.9694 0.0122165
-0.06435 -0.01306 0.997842 0.0108577
-0.0556007 -0.0146837 0.998345 0.0124481
-0.0416486 -0.0195909 0.99894 0.00444892
0.0763599 0.00404636 0.997072 0.00834118
0.0692867 0.00681274 0.997574 0.0031761
0.0646827 0.00746276 0.997878 0.0058319
0.0599401 0.00615308 0.998183 0.00482915
0.0531185 0.00843093 0.998553 0.00129385
0.0437175 0.0204035 0.998836 0.00246046
0.0312308 0.0188523 0.999334 0
0.0159172 0.0123615 0.999797 0.00115363
-0.0565934 0.0134664 0.998306 0.00415932
-0.0626833 0.0142391 0.997932 0.00321892
-0.0627704 0.012155 0.997954 0.00363942
-0.0643165 0.0162392 0.997797 0
-0.0669048 0.0171532 0.997612 0
-0.0719904 0.0192106 0.99722 0.000125652
-0.0785724 0.0214173 0.996678 0
-0.0802202 0.0207133 0.996562 0.00322701
0.233359 0.0135559 0.972296 0.0156152
0.247493 0.0141019 0.968787 0.0139728
-0.047041 -0.017344 0.998742 0.000917019
-0.039375 -0.0184366 0.999054 0.000234114
0.0780175 -0.00502085 0.996939 0.00807074
0.0769967 -0.00513215 0.997018 0.00431834
0.0711989 0.00121616 0.997461 0.00155495
0.0653993 0.00169222 0.997858 0.00260271
0.0599269 0.00521824 0.998189 0.00196691
0.0536272 0.00408247 0.998553 0.00367965
0.0474048 0.00719513 0.99885 0.00220446
0.0305122 0.00750132 0.999506 0.00177302
0.0152188 0.0110094 0.999824 0.00059961
-0.0590537 0.00950857 0.99821 0.000323129
-0.0619135 0.00904465 0.998041 0.00207547
-0.0646 0.00697294 0.997887 0
-0.0643491 0.00727025 0.997901 0
-0.0693695 0.0122331 0.997516 0
-0.0771328 0.0149022 0.996909 0.00102869
-0.0789487 0.014593 0.996772 0.00119193
0.224606 0.00809474 0.974416 0.0122765
0.238068 0.0116612 0.971179 0.0169699
-0.0438382 -0.0177425 0.998881 0.00381497
-0.041339 -0.0199929 0.998945 0.0039822
0.0823579 -0.00775306 0.996573 0.0102205
0.0768577 -0.00234296 0.997039 0.0140746
0.068566 -0.00581024 0.99763 0.00962987
0.0644163 -0.00370692 0.997916 0.0105391
0.0610932 0.00189471 0.99813 0.00628327
0.0529543 0.0011998 0.998596 0.00549341
0.045537 0.000882957 0.998962 0.00194485
0.0136691 0.00961849 0.99986 0.00324064
-0.0610349 0.00474246 0.998124 0
-0.0654024 0.00252594 0.997856 0.00117876
-0.0660972 0.00137863 0.997812 0
-0.0662969 0.00312735 0.997795 0
-0.0717701 0.00711875 0.997396 0
-0.0729381 0.0105841 0.99728 0
-0.0747529 0.00883896 0.997163 0.00165471
0.225198 0.000601225 0.974313 0.0102321
0.234568 0.000629723 0.972099 0.0102344
0.250288 -0.0002452 0.968171 0.0103259
-0.0428549 -0.0236294 0.998802 0.00186262
-0.0401548 -0.0227806 0.998934 0.0084052
0.0790935 -0.00865336 0.99683 0.011414
0.0675112 -0.00895564 0.997678 0.00978657
0.0647409 -0.00531932 0.997888 0.00606888
0.0596729 -0.00584824 0.998201 0.00559291
0.0530731 0.00138101 0.99859 0.00487314
0.0443658 -9.3961e-05 0.999015 0.00681899
0.0274748 0.00136536 0.999622 0.0040567
0.0146553 -0.000792895 0.999892 0.00159385
-0.0650965 0.0027797 0.997875 0.00290159
-0.0669532 0.00501639 0.997743 0.00253741
-0.0672702 -0.00194363 0.997733 0.00145969
-0.0693874 0.00434399 0.99758 0.00101584
-0.0703855 0.00457753 0.997509 0
-0.0751143 0.006498 0.997154 0
-0.0739251 0.00572372 0.997247 0
0.215578 -0.00770489 0.976456 0.00483691
0.233822 -0.00743024 0.972251 0.00895508
0.246026 -0.00399683 0.969255 0.00841111
-0.0355163 -0.0299492 0.99892 0.00866777
-0.0360785 -0.0258341 0.999015 0.0110736
-0.0398805 -0.027086 0.998837 0.0222078
0.0813459 -0.0212315 0.99646 0.00723142
0.0807956 -0.0171821 0.996583 0.00773357
0.072759 -0.0104114 0.997295 0.00809586
0.0644784 -0.0129296 0.997835 0.00886831
0.061573 -0.00970689 0.998055 0.00934408
0.0536739 -0.0108618 0.998499 0.00414068
0.0501053 -0.00534005 0.99873 0.00440463
0.0468723 -0.0102172 0.998849 0.00496174
0.0362669 -0.00596904 0.999324 0
0.0171509 -0.00639559 0.999832 0
0.0162658 -0.00764766 0.999838 0.00295711
-0.0273506 -0.00718193 0.9996 0.00410537
-0.0628719 -0.0050947 0.998009 0.000880654
-0.0658529 -0.00855009 0.997793 0.000958154
-0.0674162 -0.0048768 0.997713 0.000925551
-0.0682371 0.00117471 0.997668 0.00228734
-0.0677574 -0.00284581 0.997698 0
-0.0722072 0.00270445 0.997386 0
-0.073853 0.00180521 0.997268 0
0.214609 -0.0152326 0.976581 0.00151282
0.23432 -0.015815 0.972031 0.00383904
-0.0571125 -0.0381554 0.997638 0.0143454
-0.0363331 -0.0394047 0.998563 0.0107881
-0.0314468 -0.0359854 0.998857 0.0116631
-0.0336591 -0.0320109 0.998921 0.0186348
0.0798672 -0.0309211 0.996326 0.00736608
0.0728045 -0.0231002 0.997079 0.00231979
0.0639314 -0.0202613 0.997749 0.00858109
0.0588338 -0.0197913 0.998072 0.0068989
0.0538984 -0.0190082 0.998365 0.00450928
0.0513876 -0.0194621 0.998489 0.00487539
0.0443591 -0.0220888 0.998771 0
0.0356421 -0.0162484 0.999233 0.000385697
0.0155861 -0.0162524 0.999746 0
-0.0274671 -0.00828728 0.999588 0.00478477
-0.0618 -0.00938721 0.998044 0.00288799
-0.0620476 -0.0120873 0.998 0
-0.0642215 -0.00736912 0.997908 0
-0.0684654 -0.00708506 0.997628 0
-0.0689348 -0.00516868 0.997608 0
-0.0767432 -0.00389518 0.997043 0.000870002
-0.0754715 -0.00490583 0.997136 0
0.217208 -0.0213772 0.975891 0.000197884
0.224812 -0.0205272 0.974186 0.00244752
-0.0513033 -0.0423102 0.997786 0.00980424
-0.0350781 -0.0476633 0.998247 0.00919941
-0.0311939 -0.0447665 0.99851 0.0143668
-0.0226457 -0.0475875 0.99861 0.0118995
0.0814533 -0.0327533 0.996139 0.00159846
0.0759104 -0.0292643 0.996685 0.00303851
0.066449 -0.0236237 0.99751 0.00822326
0.0618408 -0.0238212 0.997802 0.00605136
0.0547316 -0.0199959 0.998301 0.00769743
0.0500291 -0.0251114 0.998432 0.00633554
0.0449007 -0.0232345 0.998721 0.00440732
0.0333685 -0.0233937 0.999169 0.000811604
-0.0588949 -0.0158325 0.998139 0.00136106
-0.0604549 -0.0163276 0.998037 0.00153136
-0.063833 -0.0147547 0.997852 0.00177076
-0.067617 -0.0143354 0.997608 0.000832843
-0.0712571 -0.0123475 0.997382 0.000195352
-0.0764017 -0.0100668 0.997026 0
-0.0781499 -0.00934581 0.996898 0
0.232009 -0.0296944 0.97226 2.42713e-05
0.246003 -0.0309022 0.968776 0.00519384
-0.0491916 -0.0508027 0.997496 0.0129383
-0.027841 -0.0547258 0.998113 0.00487995
-0.0284488 -0.0518652 0.998249 0.0125066
-0.0228342 -0.0500425 0.998486 0.0108255
0.0822356 -0.0301923 0.996155 0.00255479
0.0739956 -0.0346109 0.996658 0.00619364
0.0675772 -0.0307241 0.997241 0.00614717
0.0606499 -0.0267524 0.997801 0.00846384
0.057477 -0.0263669 0.997999 0.00406094
0.0522546 -0.0277862 0.998247 0.0065231
0.0459284 -0.0258885 0.998609 0.00529061
0.0342968 -0.0291721 0.998986 0.00653667
0.0161328 -0.0306666 0.999399 0.00169409
-0.0580737 -0.02162 0.998078 0.00443391
-0.0617488 -0.0207633 0.997876 0.00524029
-0.0626865 -0.0202116 0.997829 0.000723159
-0.0691185 -0.0178809 0.997448 0.00111088
-0.0722649 -0.0159326 0.997258 0
-0.0774792 -0.0144166 0.99689 0
-0.0807182 -0.0140567 0.996638 0
0.235791 -0.0355616 0.971153 0.00224418
0.24539 -0.0371442 0.968713 0.00206375
-0.0478635 -0.0573312 0.997207 0.00950225
-0.033414 -0.0560414 0.997869 0.0117098
-0.0250518 -0.0578098 0.998013 0.00563225
0.071361 -0.0361879 0.996794 0.00773197
0.0690779 -0.0375463 0.996904 0.00661043
0.0630704 -0.0327157 0.997473 0.006299
0.0554099 -0.0274073 0.998087 0.00658646
0.0507887 -0.0269926 0.998345 0.0100461
0.0448916 -0.0281923 0.998594 0.00531118
0.0326008 -0.0328679 0.998928 0.00621009
0.0158756 -0.0290591 0.999452 0.00388064
-0.0591815 -0.0281218 0.997851 0.00856803
-0.0614683 -0.0261069 0.997768 0.0044445
-0.0628652 -0.0229251 0.997759 0.00350545
-0.0710187 -0.0201093 0.997272 0.00287555
-0.0726546 -0.021597 0.997123 0
-0.076674 -0.0235042 0.996779 0
-0.079733 -0.0232685 0.996545 0
0.235894 -0.0415757 0.970889 0.00712297
0.245461 -0.0426496 0.968468 0.00491498
-0.056578 -0.0558946 0.996832 0.0156469
-0.0456578 -0.0570106 0.997329 0.0147886
-0.043357 -0.0563052 0.997472 0.0153424
0.0737147 -0.0384298 0.996539 0.00515855
0.0710402 -0.0381288 0.996744 0.00389205
0.062737 -0.0442928 0.997047 0.0066383
0.0531509 -0.0427497 0.997671 0.00722722
0.0474301 -0.0378288 0.998158 0.00695218
0.0393516 -0.0335295 0.998663 0.00829416
0.0328911 -0.0348203 0.998852 0.00556507
0.017839 -0.0364862 0.999175 0.00612632
0.0101145 -0.0340272 0.99937 0.0096447
-0.0429545 -0.0303824 0.998615 0.00834704
-0.0556337 -0.0328586 0.99791 0.00825337
-0.0625382 -0.0314135 0.997548 0.00752568
-0.0639191 -0.0280959 0.997559 0.00680112
-0.0701915 -0.0281494 0.997136 0.00527753
-0.0766589 -0.0254502 0.996733 0.000593752
-0.0769115 -0.0279613 0.996646 0
-0.0785304 -0.0244745 0.996611 0
0.242537 -0.0450583 0.969095 0.00658442
0.253577 -0.0465672 0.966194 0.00960888
-0.0591414 -0.0597777 0.996458 0.011857
-0.0415016 -0.0609249 0.997279 0.0066499
0.0718753 -0.0430766 0.996483 0.00615408
0.0629584 -0.0442352 0.997035 0.00725981
0.0534579 -0.0438943 0.997605 0.0119118
0.0469269 -0.043823 0.997937 0.00882292
0.038425 -0.0380525 0.998537 0.00583785
0.0317517 -0.0402135 0.998686 0.00438148
0.0194889 -0.0410061 0.998969 0.00414952
0.00841212 -0.0373901 0.999265 0.0077313
-0.0163542 -0.0315634 0.999368 0.0097111
-0.0206675 -0.0321147 0.99927 0.0109568
-0.0427765 -0.0318422 0.998577 0.0099948
-0.0532015 -0.0336264 0.998017 0.00847389
-0.0578774 -0.0358722 0.997679 0.00284551
-0.0603623 -0.0331243 0.997627 0.00284591
-0.0651438 -0.0325473 0.997345 0.00445742
-0.0725498 -0.0342426 0.996777 0.00322101
-0.0749304 -0.0284136 0.996784 0
0.243591 -0.0508321 0.968545 0.0127239
0.255905 -0.0502627 0.965394 0.0139498
-0.042028 -0.0689021 0.996738 0.000488486
-0.0321252 -0.0745113 0.996703 0
0.0694536 -0.0491533 0.996374 0.0103315
0.0642241 -0.0493954 0.996712 0.00715246
0.0538816 -0.0407104 0.997717 0.0114764
0.0489941 -0.047053 0.99769 0.00832749
0.0425737 -0.044354 0.998108 0.00784725
0.0341359 -0.0461303 0.998352 0.00798771
0.0312517 -0.0446339 0.998514 0.00651112
0.0209047 -0.0446422 0.998784 0.00513
0.0100391 -0.0421807 0.99906 0.0073448
-0.014879 -0.0375753 0.999183 0.0103939
-0.0214419 -0.0357384 0.999131 0.011156
-0.0414839 -0.0357544 0.998499 0.0102127
-0.0504976 -0.0398214 0.99793 0.00422328
-0.0579432 -0.0433056 0.99738 0.00133333
-0.0604261 -0.037805 0.997456 0
-0.069436 -0.0346695 0.996984 0.00588357
-0.074795 -0.0335855 0.996633 0.00748436
-0.0740312 -0.0354803 0.996625 0.00224223
0.246898 -0.0561693 0.967412 0.012597
0.259888 -0.0565448 0.963982 0.0118486
0.255947 -0.0568205 0.96502 0.011505
-0.047066 -0.0792154 0.995746 0.00295956
0.0677345 -0.0493162 0.996484 0.0129072
0.0644154 -0.0509352 0.996622 0.0102015
0.0567926 -0.0490775 0.997179 0.0110683
0.0522941 -0.0469619 0.997527 0.00996703
0.0443987 -0.0459572 0.997956 0.00599817
0.0383382 -0.0486394 0.99808 0.00674437
0.0317357 -0.0506317 0.998213 0.00694118
0.020101 -0.049011 0.998596 0.00690056
0.0107612 -0.0523946 0.998568 0.00830694
0.00156357 -0.045857 0.998947 0.00574464
-0.014838 -0.0480116 0.998737 0.0102247
-0.0231315 -0.0418222 0.998857 0.012882
-0.0421776 -0.0464254 0.998031 0.00735842
-0.0510859 -0.0426128 0.997785 0.00576714
-0.0571468 -0.0413412 0.997509 0.00605
-0.0624828 -0.0469009 0.996943 0.00543598
-0.0707804 -0.0390503 0.996727 0.00402463
-0.0746926 -0.0362819 0.996546 0.00459399
0.241792 -0.0603342 0.96845 0.0143856
0.255088 -0.0645327 0.964762 0.0149307
0.255961 -0.0658933 0.964439 0.016484
-0.0530451 -0.0828459 0.99515 0.00448101
0.0719524 -0.0510924 0.996099 0.0159719
0.0626999 -0.0518257 0.996686 0.00949271
0.0588781 -0.0560468 0.996691 0.00823094
0.0532436 -0.0516669 0.997244 0.00838901
0.0492957 -0.0517769 0.997441 0.00685352
0.0424555 -0.0556785 0.997546 0.00493057
0.0340903 -0.0571539 0.997783 0.00779222
0.0251461 -0.0566052 0.99808 0.00685498
0.012754 -0.0542791 0.998444 0.00620153
0.000852872 -0.0498654 0.998756 0.00851923
-0.0133477 -0.0518497 0.998566 0.0118252
-0.0244977 -0.0479609 0.998549 0.0117835
-0.038489 -0.0521815 0.997896 0.00796725
-0.0481432 -0.0490645 0.997635 0.00488313
-0.0563389 -0.048224 0.997246 0.00541084
-0.0604202 -0.0491679 0.996961 0.00347773
-0.0753789 -0.0440665 0.996181 0.00533848
0.237614 -0.0655214 0.969147 0.0122291
0.250834 -0.0655313 0.965809 0.0167378
0.264291 -0.0684222 0.962013 0.0150582
-0.0354597 -0.0910538 0.995215 0
0.0734243 -0.0533986 0.99587 0.0143099
0.0649355 -0.0546246 0.996393 0.0133156
0.0599161 -0.0570359 0.996573 0.00859955
0.0549393 -0.0636274 0.99646 0.00686013
0.0509034 -0.0637099 0.996669 0.00409522
0.0429475 -0.0582924 0.997375 0.0063082
0.0359 -0.0570788 0.997724 0.00876178
0.022972 -0.0572352 0.998096 0.00684895
0.00801894 -0.0558871 0.998405 0.00815913
-0.00328396 -0.0512238 0.998682 0.00979462
-0.0123068 -0.0556836 0.998373 0.0101752
-0.0225701 -0.0596951 0.997961 0.00607267
-0.0432636 -0.0544387 0.997579 0.00856735
-0.0509387 -0.0578963 0.997022 0.00546407
-0.0556544 -0.0507377 0.99716 0.00601226
-0.0661582 -0.0488185 0.996614 0.00662579
-0.0775231 -0.0514183 0.995664 0.00729113
0.239622 -0.0660392 0.968617 0.0153579
0.253643 -0.0696421 0.964788 0.0150283
0.264549 -0.0694909 0.961865 0.0188271
-0.049094 -0.0978832 0.993986 0.0037223
0.0649229 -0.0617649 0.995977 0.0103098
0.0563671 -0.0614108 0.99652 0.00732743
0.0533835 -0.0649449 0.99646 0.00332335
0.0486231 -0.0653632 0.996676 0.00609175
0.0415697 -0.0624341 0.997183 0.00743183
0.0364622 -0.0637783 0.997298 0.00507641
0.0216085 -0.0601644 0.997955 0.00610993
0.0088467 -0.0587053 0.998236 0.00382271
-0.000308194 -0.0583298 0.998297 0.00693433
-0.0114045 -0.0573317 0.99829 0.00784284
-0.0235531 -0.0602494 0.997905 0.00728408
-0.0436319 -0.0553117 0.997515 0.00985684
-0.0484682 -0.0588878 0.997087 0.0027374
-0.0573923 -0.0595866 0.996572 0.0061954
-0.0627038 -0.0583609 0.996324 0.00305827
0.258827 -0.0727051 0.963183 0.0204999
0.267961 -0.0765831 0.960381 0.0225261
-0.0452367 -0.0988894 0.99407 0.00127142
0.0590104 -0.0636042 0.996229 0.00835672
0.0522536 -0.0666029 0.99641 0.00701236
0.0462726 -0.06524 0.996796 0.00746242
0.0430303 -0.0676731 0.996779 0.00438867
0.0344132 -0.0686433 0.997048 0
0.0239705 -0.0631391 0.997717 0.00227346
0.0135784 -0.0697508 0.997472 0.0032654
0.00217794 -0.0683457 0.997659 0.00397354
-0.0110286 -0.0609793 0.998078 0.00818837
-0.0213349 -0.0633495 0.997763 0.00528897
-0.039528 -0.066406 0.997009 0.0058437
-0.0486335 -0.067312 0.996546 0
-0.0533723 -0.0653414 0.996435 0.00145782
0.267001 -0.0738977 0.960859 0.0273518
0.269308 -0.0759445 0.960055 0.0201864
-0.0406633 -0.104935 0.993647 0
0.0580827 -0.0694574 0.995893 0.00452785
0.0512025 -0.0686456 0.996326 0.00879956
0.0490195 -0.0717856 0.996215 0.00430594
0.042943 -0.0686608 0.996715 0.00096549
0.0365076 -0.0748411 0.996527 0
0.0232882 -0.0693995 0.997317 0.00121097
0.0111838 -0.0694988 0.997519 0.00382788
0.00274859 -0.0681475 0.997671 0.00178303
-0.0104225 -0.0709744 0.997424 0.00484777
-0.0198942 -0.0705385 0.997311 0.00390229
-0.0392374 -0.0712026 0.99669 0.00391834
-0.0487712 -0.0726971 0.996161 0
-0.0520149 -0.0691494 0.996249 0
0.258046 -0.0792854 0.962874 0.0181748
0.270676 -0.0781842 0.95949 0.0202291
0.279228 -0.0825603 0.956669 0.0194759
0.0490836 -0.0737207 0.99607 0.00312098
0.0439339 -0.0711018 0.996501 0.00861489
0.0423835 -0.0737588 0.996375 0.00114558
0.0228815 -0.0745642 0.996954 0.00292123
0.011212 -0.0726352 0.997295 0.00437223
0.00302281 -0.076646 0.997054 0.00348319
-0.00391326 -0.0741361 0.99724 0.0012771
-0.013132 -0.0737499 0.99719 0.00168878
-0.0385891 -0.0700375 0.996798 0.000612172
-0.0501344 -0.0733562 0.996045 0
-0.0507288 -0.0758759 0.995826 0
0.279186 -0.0860389 0.956375 0.0235544
0.283861 -0.0878665 0.954831 0.0201272
0.0440508 -0.0725143 0.996394 0.00654904
0.0398202 -0.0697267 0.996771 0.00465541
0.0366377 -0.0777702 0.996298 0.00154538
0.0239644 -0.078096 0.996658 0.000973685
0.0140036 -0.0790956 0.996769 0.000493485
0.00284517 -0.0786213 0.996901 0.00586745
-0.00553711 -0.0764913 0.997055 0.00282175
-0.0145371 -0.0760248 0.997 0.00110416
-0.0354781 -0.0720066 0.996773 0
-0.0468047 -0.071757 0.996323 0
-0.0547786 -0.0741031 0.995745 0
0.272458 -0.0866657 0.958257 0.0218405
0.28498 -0.0875157 0.95453 0.0202401
0.0402212 -0.0811528 0.99589 0.00703586
0.0208835 -0.0788452 0.996668 0.00129223
0.0138906 -0.0802965 0.996674 0.00294326
0.00447684 -0.0770894 0.997014 0.00392673
-0.00784849 -0.0725396 0.997335 0.00538525
-0.0163761 -0.0755872 0.997005 0.00589478
-0.0377024 -0.0726179 0.996647 0.00132232
-0.0462657 -0.0760756 0.996028 0
0.280726 -0.0853745 0.955983 0.0227215
0.291975 -0.0906215 0.952123 0.0190687
0.0391373 -0.0802506 0.996006 0.00585768
0.0181046 -0.0785899 0.996743 0.00567438
0.0108416 -0.0772951 0.996949 0.00239083
0.00437738 -0.0776783 0.996969 0.00174407
-0.00657166 -0.0768646 0.99702 0.00312865
-0.013435 -0.0789536 0.996788 0.00292247
-0.0361919 -0.0765922 0.996405 0
0.272617 -0.0888178 0.958014 0.0204256
0.287304 -0.090511 0.953553 0.0225118
0.0103332 -0.080669 0.996687 0.00701177
0.00298331 -0.0793708 0.996841 0.00121028
-0.00545833 -0.0779733 0.99694 0.00424512
-0.016713 -0.0742385 0.9971 0.00595485
0.273092 -0.0889228 0.957869 0.0196866
0.282279 -0.0912976 0.954978 0.0191249
0.0101132 -0.0761487 0.997045 0.0114773
0.0035568 -0.0766107 0.997055 0.00543755
-0.00596068 -0.0794733 0.996819 0.000755428
-0.0113623 -0.0728984 0.997275 0.00390839
0.269795 -0.0916407 0.958547 0.0152084
0.281933 -0.0912772 0.955082 0.014653
0.292796 -0.0907957 0.951854 0.00928333
0.00445373 -0.0756526 0.997124 0.0073502
-0.000180464 -0.0806656 0.996741 0.00148411
0.286365 -0.0906923 0.953819 0.0126935
0.293561 -0.0915185 0.951549 0.0127585
0.00882564 -0.0790498 0.996832 0.00383774
0.00300438 -0.0831256 0.996535 0.00265873
