# .PCD v0.7 - Point Cloud Data file format
VERSION 0.7
FIELDS x y z
SIZE 4 4 4
TYPE F F F
COUNT 1 1 1
WIDTH 1379
HEIGHT 1
VIEWPOINT 0 0 0 1 0 0 0
POINTS 1379
DATA ascii
-0.084887832 0.14190732 -0.23614348
-0.084710672 0.14189945 -0.23614979
-0.084507167 0.14188834 -0.23617749
-0.08431083 0.1418785 -0.23618533
-0.084174 0.141872 -0.2362
-0.098497495 0.14210699 -0.23615301
-0.098305501 0.14210001 -0.236121
-0.098052002 0.14212365 -0.23607534
-0.097871661 0.14210667 -0.23602967
-0.097796999 0.14210133 -0.23602267
-0.097308002 0.14215501 -0.236007
-0.097080499 0.14210775 -0.23600975
-0.09694317 0.14209834 -0.23602898
-0.096732244 0.14210325 -0.23601425
-0.096493669 0.14211284 -0.23604099
-0.096314006 0.142105 -0.23604883
-0.096089832 0.14209516 -0.23605382
-0.095904335 0.14208645 -0.23607267
-0.095742323 0.142079 -0.236095
-0.095501669 0.142106 -0.23614185
-0.095221996 0.142094 -0.236187
-0.0951325 0.142094 -0.23619601
-0.086833335 0.14207833 -0.23618466
-0.086718284 0.14209513 -0.23617713
-0.0865485 0.142104 -0.236158
-0.086268499 0.14209101 -0.2361345
-0.08605516 0.1421185 -0.23611252
-0.085913002 0.14209799 -0.23611
-0.085723206 0.1421098 -0.2360826
-0.085503548 0.14208354 -0.23607856
-0.085280597 0.1420894 -0.23610739
-0.0850605 0.142106 -0.2361
-0.084881 0.14209451 -0.23613624
-0.084702104 0.14212434 -0.23614444
-0.084499173 0.14211334 -0.2361645
-0.084302507 0.14210317 -0.2361815
-0.098490663 0.142294 -0.23615301
-0.098298006 0.142287 -0.23612534
-0.098044999 0.14230999 -0.23607101
-0.097863995 0.1422935 -0.2360355
-0.097718 0.1423205 -0.23601425
-0.097305 0.14222901 -0.236009
-0.097037002 0.142222 -0.236008
-0.096936889 0.14228456 -0.23601311
-0.096708499 0.142307 -0.23600799
-0.096486509 0.1422995 -0.236039
-0.096306503 0.14229225 -0.23604849
-0.096066192 0.14230302 -0.23605618
-0.095895991 0.14231034 -0.2360708
-0.095734335 0.14230233 -0.23607467
-0.095494114 0.14229301 -0.23614155
-0.095214002 0.14228134 -0.23619567
-0.086825669 0.14230366 -0.23616533
-0.086700544 0.14229855 -0.23618068
-0.086540997 0.14229266 -0.23615967
-0.086261995 0.14227967 -0.23613267
-0.086048 0.142307 -0.236114
-0.085924499 0.142299 -0.2361085
-0.085727669 0.14232068 -0.23608418
-0.085522428 0.14229956 -0.23608387
-0.085297376 0.14231011 -0.23609437
-0.085052334 0.142294 -0.23612201
-0.084874004 0.14228199 -0.2361355
-0.08469516 0.14231218 -0.23613934
-0.084492251 0.14230099 -0.23615849
-0.084311329 0.14227967 -0.23619033
-0.098482668 0.14251767 -0.23614132
-0.098289996 0.14251167 -0.23611867
-0.098038338 0.14249633 -0.23606335
-0.097857334 0.14248034 -0.23603134
-0.097725399 0.14248559 -0.23601899
-0.097465001 0.142456 -0.236001
-0.097235672 0.14247499 -0.23600267
-0.097025998 0.142519 -0.23600535
-0.096927784 0.14250956 -0.23602121
-0.096726 0.14251161 -0.2360168
-0.096480168 0.14248583 -0.23601699
-0.096299827 0.14247882 -0.23604167
-0.096150331 0.14247465 -0.23606266
-0.095915623 0.14249849 -0.23607576
-0.095726505 0.14249 -0.23609
-0.095510997 0.14250757 -0.23613684
-0.095282003 0.14252441 -0.23617581
-0.086817503 0.142491 -0.23618101
-0.086684622 0.14251299 -0.23616438
-0.086532675 0.14251667 -0.23614633
-0.086253338 0.14250399 -0.23613034
-0.086040832 0.14249367 -0.23611249
-0.085916668 0.14248617 -0.236121
-0.085720256 0.14250851 -0.236085
-0.085536003 0.14249749 -0.23607351
-0.085288152 0.14250501 -0.2361007
-0.085044675 0.14251834 -0.23609966
-0.084865995 0.1425065 -0.23611717
-0.084687777 0.14249967 -0.23614179
-0.084484838 0.14248933 -0.23615934
-0.084334999 0.14248067 -0.23619433
-0.084149003 0.142547 -0.236182
-0.098474503 0.1427055 -0.236156
-0.098283499 0.14269701 -0.23610851
-0.098028995 0.14272167 -0.23607834
-0.09784817 0.14270483 -0.23604232
-0.097739249 0.14267801 -0.23602101
-0.097043999 0.14271767 -0.23600666
-0.096929595 0.1426892 -0.23602259
-0.096718602 0.14270541 -0.23601921
-0.096470833 0.14271051 -0.23603082
-0.096291162 0.14270265 -0.23603849
-0.09614367 0.14269733 -0.23603034
-0.095907919 0.14268667 -0.23608583
-0.095719665 0.14267634 -0.23608267
-0.095523499 0.1427055 -0.23611149
-0.095390499 0.142701 -0.23615301
-0.095199004 0.14269251 -0.2361795
-0.086878695 0.1427004 -0.23618269
-0.086696148 0.14269529 -0.23615482
-0.086527005 0.142704 -0.23612201
-0.086247504 0.14269 -0.236103
-0.086070992 0.14272 -0.23608999
-0.085938103 0.14271244 -0.23609135
-0.085714497 0.14269499 -0.23605849
-0.085529506 0.14268467 -0.23606034
-0.08530499 0.14268662 -0.23608863
-0.0850375 0.14270701 -0.23610401
-0.084858499 0.14269501 -0.23612301
-0.084680006 0.14271463 -0.23612088
-0.084476501 0.14271399 -0.23614784
-0.084279664 0.14270367 -0.23616917
-0.084143668 0.14269833 -0.23617101
-0.083984002 0.14261401 -0.236185
-0.083760999 0.14267799 -0.2362
-0.098467 0.14289267 -0.23616934
-0.098275334 0.14288567 -0.23611967
-0.098020494 0.14290901 -0.23609349
-0.097840756 0.14289124 -0.23603776
-0.097708002 0.14293399 -0.2360208
-0.097359002 0.142978 -0.23600499
-0.097011 0.142893 -0.23601334
-0.096918866 0.14289251 -0.23601663
-0.096706331 0.14291933 -0.23601668
-0.096462995 0.14289825 -0.23603925
-0.09628325 0.1428905 -0.23605475
-0.096134335 0.14292265 -0.23603666
-0.095899664 0.14291067 -0.23607643
-0.095711671 0.14289968 -0.23606832
-0.095516004 0.14289267 -0.23611332
-0.095384002 0.14288799 -0.23613632
-0.095137998 0.1429088 -0.2361908
-0.087204501 0.142894 -0.2361975
-0.087024331 0.14292033 -0.23619334
-0.086886398 0.14290361 -0.2361788
-0.086691298 0.1429054 -0.23614462
-0.086519994 0.14289166 -0.236118
-0.086240001 0.14287867 -0.23610868
-0.086062506 0.14290901 -0.23611501
-0.085931502 0.14289984 -0.236077
-0.085705839 0.14292 -0.23605616
-0.085520834 0.1429105 -0.23606001
-0.085312136 0.14289142 -0.23606528
-0.085096799 0.14291039 -0.23609979
-0.084904999 0.14288734 -0.23613434
-0.084710896 0.14289019 -0.2361161
-0.084470749 0.1429005 -0.23612025
-0.084273249 0.1428905 -0.236145
-0.08413434 0.14292467 -0.23618431
-0.098458 0.14311732 -0.23617166
-0.098267667 0.14310867 -0.23610532
-0.098014332 0.143095 -0.23608132
-0.097833835 0.14307833 -0.23603702
-0.097689494 0.1430665 -0.23600349
-0.097313002 0.143089 -0.2360055
-0.09706267 0.143094 -0.23600601
-0.096926667 0.14310999 -0.236026
-0.096710503 0.14309449 -0.23601516
-0.096455999 0.1430845 -0.23604049
-0.096276335 0.14307751 -0.23604615
-0.096127495 0.14310899 -0.236031
-0.095893122 0.14309676 -0.23606187
-0.095704496 0.143087 -0.23605949
-0.095507167 0.14311714 -0.23611599
-0.095375992 0.143112 -0.23612399
-0.095096439 0.14310122 -0.236177
-0.087125398 0.1430922 -0.23618761
-0.086901166 0.1431005 -0.23616515
-0.086714886 0.143107 -0.23613511
-0.086546801 0.143132 -0.236113
-0.086231671 0.143103 -0.23609799
-0.086057 0.143095 -0.23607634
-0.085923888 0.14308733 -0.23608311
-0.085699506 0.143107 -0.236036
-0.085514247 0.1430975 -0.2360445
-0.085323997 0.14309025 -0.2360485
-0.085105665 0.14312099 -0.23609567
-0.084897004 0.14311235 -0.23612432
-0.084730111 0.14310044 -0.23609978
-0.084507883 0.14309189 -0.23612267
-0.084266163 0.14307867 -0.236147
-0.084084496 0.14311001 -0.23617798
-0.083745003 0.14309201 -0.23618799
-0.098451495 0.14330301 -0.236158
-0.0982605 0.143296 -0.23609701
-0.098007001 0.143318 -0.23605533
-0.0978304 0.14328881 -0.23604099
-0.097702995 0.1433384 -0.23601258
-0.097305506 0.1432755 -0.2360025
-0.097073004 0.14330199 -0.23600799
-0.096897997 0.14329366 -0.23601133
-0.096701659 0.14331834 -0.23601133
-0.096447669 0.143309 -0.23603415
-0.096267499 0.14330216 -0.23604582
-0.096121006 0.143295 -0.23601668
-0.095886327 0.1432835 -0.2360514
-0.095697999 0.14327367 -0.23604201
-0.095500998 0.14330301 -0.23609376
-0.095367506 0.1433 -0.23614901
-0.0951325 0.14329049 -0.23616126
-0.087761998 0.14332999 -0.23618899
-0.087100334 0.14330018 -0.23616634
-0.086895004 0.143287 -0.23614489
-0.086737856 0.14329728 -0.23612872
-0.086549751 0.14330375 -0.23609999
-0.086225003 0.14329 -0.23607999
-0.086049668 0.14331834 -0.23604934
-0.085915998 0.14331189 -0.23606934
-0.08569283 0.1432935 -0.23602283
-0.085506998 0.14328499 -0.23604149
-0.085316665 0.1432775 -0.23604818
-0.085098997 0.143308 -0.236081
-0.084889501 0.143301 -0.23613
-0.084723331 0.143288 -0.23609
-0.084487751 0.14330812 -0.23613825
-0.084257841 0.14330383 -0.23614317
-0.084077336 0.14329751 -0.23617101
-0.083910398 0.14330561 -0.2361968
-0.083741002 0.143206 -0.236195
-0.098444007 0.14349033 -0.23616533
-0.098252334 0.14348267 -0.23611933
-0.098001003 0.14346801 -0.23606101
-0.097894333 0.14350867 -0.23604566
-0.097745746 0.14350151 -0.23601376
-0.097101331 0.14344199 -0.23600499
-0.096917748 0.14340875 -0.236008
-0.096663997 0.14346699 -0.23600601
-0.096484497 0.143498 -0.23603201
-0.096292429 0.14350529 -0.23603186
-0.096111335 0.143521 -0.23603566
-0.095885992 0.14350037 -0.2360311
-0.095716499 0.14351749 -0.23604101
-0.095493324 0.143491 -0.23610167
-0.095362671 0.14348532 -0.23610167
-0.095133603 0.1434782 -0.23616321
-0.094968997 0.14350751 -0.2361965
-0.087755002 0.143518 -0.236192
-0.087540999 0.14351299 -0.23618999
-0.087075204 0.1435086 -0.236149
-0.08688578 0.14351279 -0.23615278
-0.086722665 0.14349945 -0.23610622
-0.086542509 0.143492 -0.23609632
-0.086217999 0.14347766 -0.23607565
-0.086042002 0.143507 -0.236057
-0.08590883 0.14349984 -0.23606102
-0.085683666 0.14351933 -0.23603217
-0.085497998 0.14351018 -0.23604701
-0.085306846 0.14350417 -0.23606835
-0.085092165 0.14349549 -0.23607717
-0.084882669 0.14348768 -0.23611732
-0.084715568 0.14347601 -0.23609765
-0.084504858 0.14349058 -0.23613642
-0.084250256 0.143492 -0.236149
-0.084061399 0.14350659 -0.2361526
-0.083872326 0.14349 -0.23619866
-0.098435342 0.14371499 -0.23615669
-0.098243333 0.14370733 -0.236121
-0.09791366 0.14368565 -0.23605049
-0.097786002 0.14371049 -0.236009
-0.096880004 0.1437615 -0.23600975
-0.096478671 0.143685 -0.23600601
-0.09631075 0.143686 -0.23602311
-0.096104503 0.14370701 -0.23602399
-0.095896505 0.14369567 -0.236046
-0.095725797 0.14370961 -0.2360408
-0.095485501 0.14371483 -0.23608635
-0.095353335 0.14371067 -0.23611899
-0.095116667 0.14370202 -0.23615067
-0.094988666 0.14369567 -0.23619066
-0.087747999 0.14370599 -0.23618166
-0.087534666 0.14369933 -0.23616433
-0.087176003 0.14367999 -0.23614366
-0.086908497 0.14370136 -0.2361345
-0.086708128 0.14371388 -0.23608363
-0.086533666 0.14371684 -0.2360975
-0.086209334 0.14370233 -0.236076
-0.086035669 0.143694 -0.236039
-0.085903674 0.14368533 -0.23602244
-0.085656323 0.14369299 -0.23602165
-0.085491002 0.14369726 -0.23603851
-0.085300505 0.14369124 -0.23605502
-0.085125998 0.14370374 -0.23608449
-0.084923603 0.1437306 -0.23609778
-0.084708005 0.14370021 -0.23607598
-0.084528506 0.14369766 -0.2361265
-0.084344171 0.14368317 -0.23612499
-0.084117875 0.14368476 -0.23615512
-0.083864331 0.14371566 -0.23618834
-0.09843 0.14390001 -0.236119
-0.098236002 0.143895 -0.236123
-0.097905003 0.14391001 -0.23604667
-0.097776003 0.143971 -0.236002
-0.097584002 0.143959 -0.236003
-0.096876003 0.14385401 -0.236001
-0.096317865 0.14389129 -0.23602016
-0.096123248 0.14389449 -0.23601151
-0.095889777 0.143883 -0.2360398
-0.095741794 0.14388981 -0.23602581
-0.095479004 0.14390126 -0.23606899
-0.095345497 0.143898 -0.23612401
-0.095109247 0.1438905 -0.23615751
-0.094980001 0.14392035 -0.236187
-0.087740496 0.143894 -0.236192
-0.087526001 0.14392532 -0.236165
-0.087167658 0.14390565 -0.23613633
-0.086902238 0.14388834 -0.23611666
-0.086716712 0.14389572 -0.23608872
-0.086526752 0.14390449 -0.2360895
-0.086203501 0.143889 -0.23605299
-0.086027332 0.14391799 -0.23602898
-0.085894443 0.1439109 -0.23603222
-0.08560767 0.14389166 -0.23602001
-0.085501999 0.14383532 -0.23600666
-0.085294507 0.14387767 -0.23603101
-0.085161999 0.1439085 -0.23604599
-0.084930241 0.143903 -0.236081
-0.084699854 0.1439047 -0.2360857
-0.084521167 0.14392151 -0.23610234
-0.084335171 0.14390866 -0.23613332
-0.084098332 0.14390022 -0.23615643
-0.083904997 0.14391026 -0.23618425
-0.083711997 0.143957 -0.236193
-0.098422326 0.14408733 -0.23613365
-0.098229669 0.14408134 -0.23610933
-0.097898006 0.144097 -0.23604651
-0.097750597 0.14410581 -0.23601039
-0.096330747 0.14408851 -0.23600975
-0.096150398 0.14410521 -0.23600781
-0.095881447 0.14410734 -0.23603334
-0.095722832 0.14409865 -0.23602419
-0.095472835 0.14408733 -0.23604482
-0.095339991 0.14408366 -0.23609133
-0.095102169 0.144077 -0.23615085
-0.094920248 0.14412375 -0.23618799
-0.094763003 0.144132 -0.2362
-0.087733664 0.14408134 -0.23617966
-0.087519005 0.144113 -0.23616099
-0.087162003 0.14409199 -0.23611051
-0.086894177 0.14411283 -0.2361024
-0.086701781 0.14409743 -0.23606388
-0.0865205 0.14409067 -0.2360725
-0.086126193 0.14408842 -0.2360324
-0.085888505 0.14409684 -0.23601015
-0.085601002 0.144079 -0.2360125
-0.085523002 0.144036 -0.23600399
-0.085240662 0.14409967 -0.23602234
-0.085154332 0.14409699 -0.236045
-0.084924668 0.14408883 -0.23604383
-0.084693879 0.14408487 -0.2360585
-0.084514752 0.14410825 -0.23608126
-0.084328748 0.144096 -0.23611724
-0.084091336 0.14408834 -0.2361535
-0.083886564 0.14412785 -0.23618443
-0.083705999 0.14410633 -0.236185
-0.098413326 0.14431266 -0.23613466
-0.098220669 0.144306 -0.23611067
-0.097890832 0.14428367 -0.23603933
-0.097762495 0.14430851 -0.23601401
-0.096368998 0.14424001 -0.23600501
-0.096180998 0.144346 -0.236001
-0.095874511 0.14429383 -0.23602849
-0.095735334 0.14427334 -0.23600535
-0.095464341 0.14431167 -0.23604167
-0.095330991 0.14430833 -0.23609366
-0.095094502 0.14430083 -0.23613633
-0.094903111 0.14427455 -0.23618589
-0.094757996 0.14428067 -0.236194
-0.08783 0.14431535 -0.23619501
-0.087725997 0.14430533 -0.23615833
-0.087513663 0.14429833 -0.23612468
-0.087155342 0.14427868 -0.23609932
-0.086887993 0.14429975 -0.23608361
-0.086693898 0.1443221 -0.236047
-0.086512677 0.14431584 -0.236054
-0.086145744 0.14427999 -0.23602274
-0.085825004 0.144206 -0.236001
-0.085255496 0.14432526 -0.236009
-0.085150003 0.144245 -0.236022
-0.084915668 0.14431483 -0.23604949
-0.084686667 0.14429945 -0.23603879
-0.084509164 0.14429449 -0.23605017
-0.08432249 0.14428318 -0.23609732
-0.084128827 0.1442765 -0.23612969
-0.08390633 0.144306 -0.23616648
-0.083700001 0.14429349 -0.236159
-0.098407 0.144499 -0.2361175
-0.098213501 0.144493 -0.236109
-0.097899199 0.1444944 -0.2360336
-0.096274003 0.14442299 -0.236002
-0.096179001 0.14442 -0.236001
-0.095852003 0.14446914 -0.23602042
-0.095652506 0.14450601 -0.236008
-0.095457748 0.1444975 -0.23603125
-0.095325001 0.1444945 -0.23606899
-0.095095798 0.14450981 -0.23611979
-0.094880909 0.1445145 -0.23617166
-0.094751 0.14450365 -0.23615366
-0.0877195 0.144493 -0.2361365
-0.087505333 0.14452301 -0.23610966
-0.087146997 0.144503 -0.23609167
-0.08688882 0.14448008 -0.2360732
-0.086703002 0.14451601 -0.23603915
-0.086506501 0.144502 -0.23603199
-0.086182997 0.14445101 -0.236011
-0.085226998 0.144475 -0.23600601
-0.084909245 0.14450201 -0.23603401
-0.084679142 0.14450301 -0.23603371
-0.084491596 0.14450459 -0.23606019
-0.084313996 0.14450784 -0.23608567
-0.084120996 0.14450167 -0.23610699
-0.083951674 0.14449365 -0.23612916
-0.083744168 0.1444865 -0.23617716
-0.098402001 0.144612 -0.236129
-0.098283194 0.14469698 -0.23611021
-0.097954005 0.144701 -0.23604301
-0.097796999 0.144724 -0.236002
-0.095826797 0.1446888 -0.23601338
-0.095758997 0.14462499 -0.23600499
-0.095441796 0.1446698 -0.23603101
-0.095318668 0.14468066 -0.23605199
-0.095070995 0.1446896 -0.236123
-0.094898999 0.14470465 -0.23618115
-0.0947695 0.14469475 -0.2361715
-0.087863497 0.14476401 -0.23619449
-0.087713338 0.14467932 -0.236122
-0.087499499 0.14471 -0.23608899
-0.087140001 0.14469101 -0.23607999
-0.086899772 0.14471355 -0.23606655
-0.086716726 0.14469855 -0.23603119
-0.086509392 0.14467399 -0.23601921
-0.085924 0.144664 -0.236002
-0.084902324 0.14468883 -0.23602615
-0.084651671 0.14469917 -0.23602599
-0.084503002 0.14468639 -0.23605379
-0.084308751 0.144694 -0.23605001
-0.084105 0.14471 -0.23608661
-0.083944 0.14471833 -0.23610918
-0.083736837 0.1447105 -0.23615134
-0.083562002 0.144779 -0.23618799
-0.098568499 0.144889 -0.236195
-0.098344997 0.14488925 -0.23608826
-0.098197505 0.14494 -0.236082
-0.097947337 0.144887 -0.23602967
-0.097787999 0.14494801 -0.236003
-0.096255496 0.14491001 -0.236001
-0.095799997 0.144852 -0.23600499
-0.095486499 0.14494599 -0.236003
-0.095354162 0.14490665 -0.23602717
-0.095073335 0.14489783 -0.23609681
-0.094892554 0.14489046 -0.23616256
-0.094762661 0.14488083 -0.23616482
-0.087891877 0.144907 -0.23617323
-0.087706 0.14490268 -0.23608899
-0.087491997 0.14489733 -0.23609334
-0.087132998 0.14487833 -0.23608333
-0.086893328 0.14490034 -0.23604916
-0.086698219 0.144906 -0.236018
-0.084645666 0.14487316 -0.23601435
-0.084486835 0.14489433 -0.2360335
-0.084301673 0.14488116 -0.236045
-0.084117003 0.1448898 -0.23606081
-0.083936997 0.144906 -0.2361055
-0.083730742 0.14489675 -0.23612198
-0.0835585 0.14489 -0.236169
-0.098561324 0.14507633 -0.236187
-0.098384 0.14509749 -0.236111
-0.0981915 0.14509 -0.236085
-0.097940005 0.14511067 -0.236009
-0.095333993 0.14507933 -0.23600598
-0.095064826 0.14512251 -0.23608966
-0.094884887 0.14511469 -0.23614478
-0.094754167 0.1451055 -0.23615332
-0.088074505 0.145046 -0.23619199
-0.087908708 0.14508986 -0.23616171
-0.087699503 0.14509 -0.236076
-0.087484658 0.14512099 -0.236064
-0.087125666 0.14510199 -0.23605268
-0.086886667 0.14508767 -0.2360379
-0.086752251 0.1450775 -0.23601851
-0.084824003 0.145134 -0.236002
-0.084478162 0.14511901 -0.23602784
-0.08429417 0.14510533 -0.23602368
-0.084099501 0.14510067 -0.23606999
-0.083930172 0.14509267 -0.23609801
-0.083723836 0.14508434 -0.23611651
-0.083550662 0.14507835 -0.236175
-0.098552667 0.145301 -0.236185
-0.098377667 0.14528365 -0.23610234
-0.098185003 0.14527699 -0.236076
-0.097934 0.14526001 -0.236003
-0.0954725 0.14532 -0.2360055
-0.095298499 0.14524099 -0.2360225
-0.095059246 0.14530775 -0.23606075
-0.094878338 0.145301 -0.23613016
-0.094741404 0.1453146 -0.23614219
-0.088063501 0.1453445 -0.2361805
-0.087937005 0.14529216 -0.23613517
-0.087744832 0.14528117 -0.23608799
-0.087477505 0.145309 -0.23606201
-0.087119505 0.14528801 -0.2360265
-0.086878665 0.14531177 -0.23602179
-0.086771332 0.14530367 -0.236018
-0.084486999 0.14529534 -0.23601599
-0.084233999 0.145292 -0.23603249
-0.084084198 0.145309 -0.23603821
-0.083921999 0.14531784 -0.2360815
-0.083715998 0.14530966 -0.23609783
-0.083541997 0.14530432 -0.236176
-0.098545499 0.14548799 -0.23618899
-0.098367997 0.14550968 -0.23611768
-0.098176003 0.14550233 -0.23608434
-0.097921997 0.14556 -0.23601
-0.095285997 0.145576 -0.23600601
-0.095051669 0.14549534 -0.236063
-0.094871894 0.14548734 -0.23611477
-0.094747201 0.1454924 -0.23610179
-0.094435498 0.14550801 -0.23618251
-0.088087671 0.14550833 -0.23616733
-0.087929159 0.14551668 -0.23611701
-0.087736003 0.14550684 -0.23608701
-0.087470673 0.14549632 -0.23605268
-0.08711233 0.14547567 -0.23602499
-0.086934999 0.145464 -0.23600399
-0.084509999 0.14549732 -0.23600434
-0.084227331 0.14547934 -0.236022
-0.084095202 0.14548981 -0.23603182
-0.083915502 0.145505 -0.2360695
-0.083709002 0.1454975 -0.23609799
-0.0835355 0.145492 -0.236154
-0.083256997 0.145595 -0.236196
-0.098536499 0.145712 -0.23618901
-0.098360501 0.145696 -0.236121
-0.0981685 0.14568999 -0.236084
-0.097918004 0.14567199 -0.23601
-0.095282003 0.145689 -0.2360055
-0.095067248 0.1456995 -0.236038
-0.094888732 0.14571883 -0.23607902
-0.09473417 0.14570133 -0.23609251
-0.094428003 0.14569567 -0.23618267
-0.09424267 0.14568667 -0.23619133
-0.094143003 0.14576 -0.23619799
-0.088226326 0.14569099 -0.23618066
-0.088096328 0.14568233 -0.236156
-0.087921247 0.14570549 -0.23612323
-0.087729499 0.14569449 -0.23607075
-0.087462328 0.145721 -0.23604333
-0.087106004 0.14566401 -0.236011
-0.084078826 0.14569916 -0.23601866
-0.083908834 0.14569284 -0.23605633
-0.083702497 0.14568417 -0.2360775
-0.083529674 0.14567867 -0.23613267
-0.083252996 0.145706 -0.23619199
-0.098529994 0.145899 -0.236175
-0.098354004 0.14588366 -0.23610668
-0.098161995 0.14587533 -0.23607068
-0.095081501 0.145906 -0.23603901
-0.094892249 0.14589851 -0.23605175
-0.094721198 0.14591061 -0.23608419
-0.094421662 0.14591867 -0.23613733
-0.094233997 0.14591266 -0.236185
-0.094115496 0.14592576 -0.236186
-0.0936675 0.145918 -0.2361995
-0.088252597 0.145933 -0.23616381
-0.088088997 0.145907 -0.23613201
-0.087915502 0.14589134 -0.23609932
-0.087723166 0.14588051 -0.23604999
-0.087456495 0.14590651 -0.23600951
-0.087095998 0.145924 -0.236002
-0.084048249 0.1459235 -0.23602051
-0.083901495 0.14591666 -0.23603065
-0.083694167 0.14590985 -0.23607151
-0.083521336 0.14590301 -0.23612301
-0.083246 0.145895 -0.23618431
-0.098521329 0.14612333 -0.23617566
-0.098346002 0.14610733 -0.23609366
-0.098154329 0.14609833 -0.23604934
-0.095074333 0.14609367 -0.23603334
-0.09489236 0.14607979 -0.23605536
-0.0947375 0.14610218 -0.23607583
-0.094413504 0.146106 -0.236148
-0.094227999 0.146098 -0.23616299
-0.094088495 0.14609174 -0.23616025
-0.093948998 0.14619701 -0.236186
-0.093652859 0.14612685 -0.23618586
-0.093545496 0.146066 -0.236191
-0.088255003 0.14610624 -0.23616451
-0.088082001 0.14609399 -0.23612475
-0.087908328 0.14611501 -0.2360705
-0.087767661 0.14611067 -0.23605166
-0.084064506 0.146075 -0.23601124
-0.083934002 0.14606901 -0.236013
-0.083688252 0.14609601 -0.2360405
-0.083514497 0.14609051 -0.236113
-0.083238006 0.14611965 -0.23617367
-0.098559596 0.14628939 -0.23617642
-0.098340005 0.146293 -0.236077
-0.098145999 0.14632232 -0.23603833
-0.095069997 0.14624199 -0.23601399
-0.094904564 0.1463111 -0.2360301
-0.094740339 0.14630067 -0.2360471
-0.094407327 0.14629267 -0.23613065
-0.09422233 0.14628267 -0.23612933
-0.094081335 0.14627884 -0.23615749
-0.093901001 0.14631967 -0.23617333
-0.093666196 0.14628521 -0.2361764
-0.093598001 0.146328 -0.236182
-0.088549003 0.146385 -0.23619799
-0.088247836 0.14629367 -0.23615551
-0.088075005 0.146282 -0.23611701
-0.087901749 0.146302 -0.2360535
-0.087761 0.14629599 -0.23603401
-0.083924502 0.146331 -0.23600501
-0.083681166 0.146284 -0.23603816
-0.083507329 0.14627899 -0.23610568
-0.083232 0.14630601 -0.23614499
-0.098640673 0.14649767 -0.23619133
-0.098544836 0.14649767 -0.23615332
-0.098333992 0.14647765 -0.23604865
-0.098140001 0.14650899 -0.23601699
-0.0948838 0.14648961 -0.2360204
-0.094725996 0.14651461 -0.23603287
-0.094401501 0.146479 -0.236101
-0.094259754 0.14652926 -0.23611826
-0.094073676 0.14650284 -0.23613517
-0.093873002 0.14649449 -0.2361725
-0.093675666 0.14648017 -0.23616965
-0.093575746 0.146497 -0.23617727
-0.088544503 0.14649901 -0.236193
-0.088284336 0.146521 -0.23613399
-0.088110775 0.14650901 -0.2361021
-0.087894671 0.14648952 -0.23604684
-0.087754667 0.14648333 -0.23601365
-0.083684601 0.14649381 -0.23601583
-0.083500333 0.14650233 -0.23607266
-0.083225667 0.14649367 -0.23612733
-0.098645002 0.14672226 -0.23616749
-0.098536827 0.146722 -0.23614067
-0.098325334 0.146703 -0.23604798
-0.098134503 0.14665851 -0.23601401
-0.094828002 0.14668034 -0.23602001
-0.094733715 0.1466963 -0.23602642
-0.094301753 0.146697 -0.23607476
-0.094066747 0.14669025 -0.23612751
-0.093899503 0.14669825 -0.23613098
-0.093700998 0.14671651 -0.23614524
-0.093517222 0.14670178 -0.23616801
-0.093349002 0.146771 -0.236194
-0.088537998 0.14668533 -0.23617132
-0.088278502 0.146706 -0.23610449
-0.088104665 0.146695 -0.236082
-0.087886997 0.14671282 -0.23602766
-0.087747999 0.146669 -0.236002
-0.083719 0.14669999 -0.23600501
-0.083494999 0.14668849 -0.23604
-0.083218671 0.146717 -0.23608768
-0.083036333 0.14672133 -0.23618667
-0.098655395 0.14688979 -0.236173
-0.098530747 0.14690749 -0.236114
-0.098318502 0.14689 -0.23604199
-0.094314598 0.146869 -0.23605259
-0.094081573 0.14688572 -0.236081
-0.093925998 0.14690299 -0.236092
-0.093705676 0.14689501 -0.23612885
-0.093500145 0.14690414 -0.23614685
-0.093309402 0.1469042 -0.23618779
-0.088698998 0.146953 -0.2361815
-0.08853066 0.14690934 -0.236147
-0.088272005 0.14689267 -0.23608367
-0.088098556 0.14688145 -0.23605344
-0.083489001 0.14687467 -0.23601098
-0.083212495 0.14690399 -0.2360695
-0.083030999 0.146907 -0.236147
-0.098643504 0.14709717 -0.23614717
-0.09852466 0.147093 -0.23609532
-0.098313496 0.1470395 -0.236021
-0.094380997 0.14710933 -0.23601234
-0.094101109 0.14709979 -0.23606022
-0.093918674 0.14708935 -0.23609066
-0.093699448 0.14708178 -0.23611209
-0.09351325 0.14708388 -0.23612688
-0.093293503 0.14710626 -0.23617899
-0.088954002 0.147157 -0.236194
-0.088755801 0.14708921 -0.23617157
-0.088525996 0.147094 -0.2360985
-0.088265665 0.14711566 -0.23604368
-0.088116422 0.14709584 -0.23603843
-0.08320567 0.14709066 -0.23605733
-0.083025001 0.14709334 -0.23611766
-0.082924999 0.14712951 -0.23617899
-0.098819003 0.147342 -0.236196
-0.098676994 0.14731111 -0.23615071
-0.098517172 0.14731617 -0.23607099
-0.094375998 0.14726 -0.236008
-0.094094247 0.14731388 -0.23603512
-0.09391167 0.147313 -0.23605299
-0.093691774 0.14730556 -0.23609143
-0.093498439 0.14729667 -0.23608388
-0.093286999 0.14729251 -0.23615633
-0.09311875 0.14730725 -0.2361885
-0.089251503 0.14734125 -0.2361915
-0.08905267 0.14731167 -0.23619233
-0.08894933 0.14730734 -0.23617566
-0.088739336 0.14729616 -0.23613501
-0.088520326 0.14727934 -0.23606665
-0.088258505 0.147303 -0.23603499
-0.088128 0.14729474 -0.23603299
-0.083200999 0.147239 -0.23604199
-0.08309 0.14733081 -0.2360584
-0.082918994 0.14731599 -0.236166
-0.098813333 0.14749134 -0.23618633
-0.0986908 0.1474935 -0.2361486
-0.09851025 0.1475035 -0.23606551
-0.094122998 0.14748959 -0.2360222
-0.093951501 0.14750101 -0.23601925
-0.093673877 0.14751799 -0.23606038
-0.093489103 0.14752278 -0.23609111
-0.093280666 0.14751466 -0.23611249
-0.093087666 0.14751184 -0.23616266
-0.092946999 0.147579 -0.236191
-0.089629658 0.14753601 -0.23617633
-0.089521497 0.147559 -0.236191
-0.089267001 0.14750901 -0.23618048
-0.089093998 0.14750001 -0.236167
-0.088943496 0.147493 -0.23614401
-0.088721797 0.14750341 -0.23611481
-0.088512994 0.14750233 -0.23603165
-0.088255003 0.147414 -0.236012
-0.088125005 0.1474065 -0.23601049
-0.083012 0.147504 -0.236059
-0.082885668 0.14751266 -0.23613966
-0.098823756 0.14773451 -0.23616625
-0.098681733 0.1476931 -0.23610765
-0.098517574 0.14769971 -0.23604199
-0.094127998 0.147624 -0.2360045
-0.093899667 0.14768468 -0.23601
-0.093691997 0.14769815 -0.23602758
-0.093483835 0.14770716 -0.23605366
-0.093274251 0.14770049 -0.23609975
-0.093082249 0.1476965 -0.23612751
-0.092943996 0.14769 -0.23618001
-0.092679501 0.14779049 -0.236185
-0.092557669 0.14775766 -0.23617999
-0.089819998 0.14769199 -0.236192
-0.089684337 0.14771517 -0.23615974
-0.089517504 0.14770733 -0.23615433
-0.089305222 0.1476979 -0.23615067
-0.089087836 0.14768684 -0.23614649
-0.088937998 0.14767735 -0.23610668
-0.088736996 0.14768481 -0.23608279
-0.088506505 0.147689 -0.23601601
-0.083006665 0.14768867 -0.236027
-0.082867503 0.14768432 -0.23610401
-0.082758501 0.147725 -0.23619249
-0.098876253 0.14790475 -0.2361735
-0.098698743 0.14790814 -0.23610888
-0.098563336 0.14791133 -0.23602851
-0.093893997 0.147834 -0.236002
-0.093761995 0.147871 -0.2360165
-0.093443334 0.14789383 -0.23604566
-0.093268834 0.14788516 -0.23605251
-0.093075506 0.14788249 -0.23611499
-0.092939667 0.14787467 -0.23612267
-0.0926755 0.14790174 -0.2361775
-0.092544004 0.14789325 -0.23616099
-0.090067998 0.147962 -0.236183
-0.089847401 0.14789478 -0.23616421
-0.089678377 0.14790076 -0.23613538
-0.089512751 0.147891 -0.23610476
-0.089298658 0.14791965 -0.23610756
-0.089080997 0.14790933 -0.23611169
-0.08893133 0.14790066 -0.23606934
-0.088719837 0.147892 -0.23606183
-0.088500999 0.14783949 -0.2360145
-0.083001003 0.14783999 -0.236011
-0.082860671 0.14790717 -0.23606516
-0.082711577 0.14793015 -0.236166
-0.082598999 0.147975 -0.236173
-0.098910175 0.14809166 -0.2361535
-0.098720722 0.14808428 -0.23608199
-0.098557994 0.1480605 -0.2360145
-0.093456253 0.14809826 -0.23601325
-0.093280435 0.14811014 -0.23603685
-0.093069494 0.1481045 -0.23606217
-0.09293133 0.14809968 -0.23611267
-0.092670165 0.14808717 -0.23614417
-0.092509381 0.14808974 -0.23615324
-0.092290506 0.14811251 -0.23618899
-0.092161 0.148141 -0.236187
-0.091885999 0.148131 -0.23619901
-0.09167733 0.14816867 -0.23618533
-0.0915315 0.148146 -0.236168
-0.091285005 0.148138 -0.23618999
-0.09076 0.148147 -0.236183
-0.090495005 0.14809549 -0.236185
-0.090063006 0.14811067 -0.23616634
-0.08984933 0.14810316 -0.23612934
-0.089698337 0.14809033 -0.23611712
-0.089536443 0.14807689 -0.23607534
-0.08929316 0.1481055 -0.23607601
-0.089074999 0.14809525 -0.23608175
-0.088924669 0.14812233 -0.23602735
-0.088712834 0.14811416 -0.23602332
-0.082841665 0.14808066 -0.236044
-0.082700498 0.14809333 -0.23612653
-0.082596004 0.1480875 -0.23615
-0.098903 0.14831467 -0.23612367
-0.098733991 0.14830066 -0.23603964
-0.093282595 0.1482888 -0.23601219
-0.093052603 0.14831319 -0.23604099
-0.092924334 0.14832167 -0.23607402
-0.092663497 0.1483095 -0.236099
-0.092493892 0.14830299 -0.23611143
-0.092284165 0.14829932 -0.23617215
-0.092114992 0.14828683 -0.23616397
-0.091921799 0.148298 -0.23617741
-0.091690496 0.148305 -0.2361635
-0.091525495 0.148297 -0.236165
-0.091279663 0.148324 -0.236148
-0.091032505 0.14833574 -0.23618177
-0.090845004 0.14832474 -0.23618451
-0.090684548 0.14828819 -0.2361701
-0.090517998 0.14830101 -0.23614174
-0.090056002 0.1482985 -0.23615301
-0.089857996 0.14827733 -0.23610498
-0.089710094 0.14832282 -0.23609963
-0.089529552 0.14829955 -0.23603988
-0.089298122 0.14828199 -0.23605138
-0.089088149 0.14829202 -0.23604228
-0.0889185 0.1483085 -0.236013
-0.0887575 0.14830801 -0.23601
-0.082808338 0.14827734 -0.23602666
-0.082695104 0.14827855 -0.23608655
-0.082561672 0.148274 -0.23614849
-0.099118002 0.148554 -0.236194
-0.098897249 0.1485 -0.23609476
-0.0987195 0.14851488 -0.23602501
-0.093057498 0.14847624 -0.23601525
-0.092918999 0.14850649 -0.236036
-0.092657499 0.1484955 -0.23607674
-0.092496499 0.14851549 -0.23607451
-0.092278667 0.14852034 -0.236112
-0.092107832 0.14850967 -0.23613517
-0.091926493 0.14850551 -0.23613816
-0.091684163 0.14849134 -0.236147
-0.091520004 0.14848232 -0.23613667
-0.091274001 0.148508 -0.23611501
-0.091050506 0.1485045 -0.23615499
-0.090861246 0.14849199 -0.23614949
-0.090695001 0.14851978 -0.23615271
-0.090539165 0.1485085 -0.23611166
-0.090050995 0.14848299 -0.23611133
-0.089878343 0.148479 -0.23609601
-0.089712121 0.14850199 -0.23606637
-0.089493997 0.1484855 -0.23601651
-0.089333199 0.14850099 -0.23601821
-0.089117244 0.14849776 -0.23602374
-0.082688004 0.14850266 -0.23605578
-0.082540572 0.14850871 -0.2361187
-0.099114336 0.14870133 -0.23616032
-0.098892175 0.14868416 -0.23605566
-0.098776504 0.14864101 -0.2360235
-0.093004003 0.148624 -0.236002
-0.092912994 0.14869167 -0.23600499
-0.0926622 0.1486672 -0.23605499
-0.092487499 0.1487011 -0.23603612
-0.09227325 0.14870475 -0.23606925
-0.092102751 0.14869475 -0.23609075
-0.091920748 0.14869025 -0.2361
-0.091677673 0.14871351 -0.23610432
-0.091513336 0.14870434 -0.23609699
-0.091266334 0.14869632 -0.23611568
-0.09109167 0.14869133 -0.23611633
-0.090903118 0.14868067 -0.23611768
-0.090689331 0.14870517 -0.23611999
-0.090533257 0.14869401 -0.236084
-0.090043999 0.14870566 -0.23607634
-0.089872003 0.148701 -0.23604834
-0.089713819 0.14868164 -0.23604172
-0.089103997 0.148655 -0.23600601
-0.082672603 0.1486804 -0.23603161
-0.082515001 0.14872155 -0.23609789
-0.099106997 0.14892466 -0.23613201
-0.098893806 0.14889181 -0.23603101
-0.092908002 0.14884099 -0.236001
-0.092696503 0.14886999 -0.236026
-0.092403002 0.148858 -0.236017
-0.092260197 0.148874 -0.23602822
-0.092097826 0.14887817 -0.23604532
-0.091914989 0.1488755 -0.23607235
-0.091672003 0.14889824 -0.23606876
-0.091508001 0.14888951 -0.236064
-0.091260999 0.14891733 -0.23605199
-0.091086 0.14891267 -0.23606099
-0.09089677 0.14890301 -0.23607455
-0.090684339 0.14888999 -0.2360768
-0.090527833 0.1488795 -0.23605067
-0.090039 0.1488905 -0.23603851
-0.089868002 0.14884999 -0.23601501
-0.089744501 0.14888982 -0.23601365
-0.082478255 0.14890875 -0.236101
-0.082355998 0.14891049 -0.236191
-0.099101998 0.1491065 -0.236077
-0.098922998 0.149055 -0.23600399
-0.092069998 0.14908275 -0.2360235
-0.091899 0.14908199 -0.23602259
-0.091693498 0.14906575 -0.23603225
-0.091502003 0.14907567 -0.23603266
-0.091256 0.149101 -0.236007
-0.091079503 0.14910001 -0.23605099
-0.090909198 0.1490818 -0.23604479
-0.090699457 0.14912111 -0.23603702
-0.090522505 0.14906375 -0.236011
-0.090035997 0.149002 -0.236012
-0.082473002 0.14909416 -0.23606168
-0.082313597 0.149113 -0.23616882
-0.099097334 0.14929032 -0.23603065
-0.092042997 0.14925 -0.23600601
-0.091852002 0.14924499 -0.236002
-0.091712505 0.14927149 -0.2360075
-0.091496997 0.149225 -0.23601399
-0.091251999 0.149214 -0.236001
-0.091073006 0.14928567 -0.23602332
-0.090979666 0.14928132 -0.23602833
-0.090721406 0.14927879 -0.23601039
-0.082449496 0.14929876 -0.236029
-0.082299165 0.14932001 -0.23611833
-0.099092998 0.14943799 -0.236001
-0.082427002 0.14946499 -0.236012
-0.082294501 0.1495035 -0.23606449
-0.082155004 0.14951 -0.23617199
-0.082267255 0.14967026 -0.23603499
-0.082114398 0.14970879 -0.2361432
-0.08224 0.149837 -0.23601
-0.082100831 0.14991401 -0.23608632
-0.081961498 0.149955 -0.236186
-0.099583 0.15015399 -0.236185
-0.082081668 0.15008633 -0.23605335
-0.081956998 0.150104 -0.236156
-0.099579006 0.15029933 -0.23613866
-0.082046993 0.15028167 -0.236021
-0.081905 0.15028749 -0.23613532
-0.099749997 0.150502 -0.23618099
-0.099574 0.15051867 -0.23606999
-0.081899494 0.15050767 -0.23607017
-0.081761003 0.15051132 -0.236183
-0.099818498 0.15073049 -0.236185
-0.099745333 0.15068434 -0.23612766
-0.099570997 0.150664 -0.23601501
-0.081846997 0.150691 -0.23605299
-0.081756502 0.15069351 -0.23613
-0.099830747 0.15093325 -0.23614524
-0.099740662 0.150901 -0.23604099
-0.081844002 0.150802 -0.236022
-0.081713997 0.15087999 -0.23610532
-0.099843994 0.1511005 -0.23612174
-0.081666373 0.15109426 -0.23610251
-0.081524 0.15118399 -0.236182
-0.099865168 0.15128617 -0.23608367
-0.081634745 0.151289 -0.2360795
-0.081504598 0.1513004 -0.2361556
-0.0999192 0.15149979 -0.236074
-0.081631005 0.15140149 -0.2360625
-0.081508912 0.15148437 -0.23611216
-0.100063 0.15169825 -0.23615849
-0.099946998 0.15170449 -0.23606201
-0.081489667 0.15168333 -0.23607367
-0.081330493 0.15178001 -0.23619449
-0.10008033 0.15190117 -0.23611617
-0.099944003 0.151814 -0.236028
-0.081422664 0.15192033 -0.23604368
-0.081329495 0.15188551 -0.23612599
-0.100097 0.15210475 -0.23607901
-0.081418 0.152068 -0.23601501
-0.081321664 0.1520765 -0.2361365
-0.10016401 0.1522976 -0.2361306
-0.081315503 0.1522975 -0.23608284
-0.081193998 0.152229 -0.236194
-0.1001596 0.15248679 -0.2360684
-0.0813016 0.1525072 -0.23606639
-0.081186995 0.1524885 -0.23613399
-0.100187 0.15269201 -0.23607999
-0.081268504 0.15270451 -0.236019
-0.0811795 0.15264401 -0.236168
-0.100258 0.1529355 -0.236183
-0.10018 0.15288033 -0.23607801
-0.081258997 0.152969 -0.236009
-0.10017234 0.15310432 -0.23605567
-0.081252001 0.15312201 -0.23602568
-0.1001655 0.15329 -0.23604199
-0.081244498 0.153312 -0.236022
-0.081151001 0.153364 -0.236178
-0.100158 0.15347834 -0.23604067
-0.081236996 0.153502 -0.23602867
-0.081148997 0.15350801 -0.23610699
-0.100152 0.153631 -0.236056
-0.081231996 0.153651 -0.23602
-0.0811425 0.15369549 -0.236091
-0.081220001 0.153955 -0.23601501
-0.081133001 0.15381999 -0.23618101
-0.081211329 0.15411401 -0.23607832
-0.081123672 0.15411933 -0.23614733
-0.0812025 0.15430599 -0.236105
-0.081116997 0.154273 -0.23616
-0.081266336 0.15449534 -0.236067
-0.081191994 0.15450433 -0.23616366
-0.081473999 0.154799 -0.236007
-0.081314251 0.15468974 -0.236067
-0.081448503 0.15490933 -0.23605549
-0.081331335 0.1548885 -0.23612016
-0.081503145 0.15509857 -0.23609844
-0.081364326 0.15510167 -0.23618035
-0.081666999 0.155351 -0.236058
-0.081542 0.15527999 -0.23614
-0.081839003 0.155589 -0.23607001
-0.081704997 0.1554755 -0.2361185
-0.089772999 0.155793 -0.23601399
-0.081890665 0.155698 -0.23609601
-0.081743002 0.15560099 -0.23618101
-0.092419997 0.155999 -0.236049
-0.092263669 0.15599 -0.23604333
-0.09206567 0.155964 -0.23607735
-0.091906756 0.1559415 -0.23608425
-0.091735005 0.15593925 -0.23612525
-0.091519997 0.15592575 -0.23609225
-0.091352999 0.15586799 -0.236021
-0.090875 0.15587999 -0.23604633
-0.090671748 0.15588549 -0.23607001
-0.090472497 0.15587465 -0.23607485
-0.090309501 0.15589283 -0.23606999
-0.089499868 0.15590072 -0.23607643
-0.089325994 0.15593134 -0.236067
-0.089172997 0.15592299 -0.236038
-0.08890266 0.15598801 -0.23605567
-0.088726997 0.155973 -0.23600601
-0.082402997 0.155992 -0.236038
-0.082279995 0.15597224 -0.23608825
-0.082089998 0.15586925 -0.23609675
-0.081910998 0.155835 -0.236159
-0.098488003 0.15612601 -0.23601
-0.098325998 0.156111 -0.236001
-0.093507499 0.15612251 -0.236027
-0.093281329 0.15611033 -0.23603933
-0.093125001 0.15611 -0.2360585
-0.092950001 0.156103 -0.23607451
-0.092281997 0.15607899 -0.2361525
-0.092198998 0.156083 -0.236185
-0.090661503 0.156014 -0.2361825
-0.090508506 0.15605901 -0.23615424
-0.090351 0.156002 -0.2362
-0.08931075 0.1560155 -0.2361405
-0.0891205 0.1560045 -0.23610401
-0.088894002 0.15607767 -0.23615833
-0.088715002 0.15606999 -0.23616301
-0.087655999 0.15608101 -0.23601501
-0.087566003 0.156077 -0.236018
-0.082437001 0.156085 -0.23614401
-0.082338497 0.15608449 -0.23619449
-0.093242496 0.15620449 -0.23618999
-0.093153998 0.156203 -0.23618799
-0.096456006 0.1564265 -0.236122
-0.096309751 0.15641099 -0.2360985
-0.096159004 0.15640301 -0.236101
-0.098094001 0.135759 -0.23599599
-0.098087572 0.13593072 -0.23598829
-0.097895995 0.135933 -0.235982
-0.097460002 0.13591801 -0.235994
-0.099096999 0.136186 -0.236
-0.098540999 0.136163 -0.23599701
-0.098290332 0.13607533 -0.23598833
-0.098081499 0.13609584 -0.23597766
-0.097888671 0.13612068 -0.23598234
-0.09768033 0.13616167 -0.23598999
-0.097510673 0.13615699 -0.23599333
-0.097352661 0.13609733 -0.235994
-0.099044502 0.136292 -0.2359955
-0.098535992 0.13631266 -0.23598434
-0.098282002 0.1363 -0.23597699
-0.098075002 0.13628277 -0.23596089
-0.097881496 0.136307 -0.235971
-0.097661249 0.136298 -0.23596901
-0.097491004 0.13629375 -0.23597451
-0.097342998 0.1363585 -0.2359795
-0.0990576 0.13649601 -0.2359668
-0.098952331 0.13648033 -0.23599799
-0.098721996 0.13650601 -0.235992
-0.098530002 0.136499 -0.23595351
-0.098273665 0.13652433 -0.23597266
-0.098067664 0.13650644 -0.23593587
-0.097876005 0.136494 -0.23594733
-0.097654998 0.13648467 -0.23595484
-0.097484671 0.13647999 -0.23595701
-0.097339496 0.13650751 -0.23594201
-0.099240005 0.136722 -0.23598166
-0.09909144 0.13672511 -0.23596579
-0.098931335 0.13670483 -0.23599283
-0.098715 0.13669266 -0.23599333
-0.098523341 0.13668533 -0.23594332
-0.098267496 0.13671 -0.23595899
-0.098061331 0.13669282 -0.23591782
-0.097868674 0.13671701 -0.23591501
-0.097656392 0.13669381 -0.2359376
-0.097494289 0.13671458 -0.23594628
-0.097298004 0.13670981 -0.23598199
-0.097072996 0.13672768 -0.23597668
-0.096991003 0.136712 -0.2359845
-0.099294595 0.13691859 -0.2359864
-0.099099122 0.13689676 -0.23596425
-0.098924756 0.13689075 -0.235984
-0.098706998 0.136916 -0.23598035
-0.098513998 0.13691001 -0.23595534
-0.098260336 0.136897 -0.23594968
-0.098053776 0.13687988 -0.23591812
-0.097861499 0.136903 -0.235917
-0.097685002 0.136896 -0.23589599
-0.09749914 0.13690643 -0.23593357
-0.097283162 0.13691901 -0.23596348
-0.097074658 0.1369025 -0.23598434
-0.096984334 0.13689865 -0.23596768
-0.099567004 0.137183 -0.23599701
-0.099304773 0.137098 -0.23596767
-0.099091761 0.13708343 -0.23596619
-0.098919004 0.1370775 -0.23595051
-0.098700501 0.13710301 -0.23596299
-0.098507501 0.13709649 -0.235947
-0.098252662 0.13711999 -0.23592366
-0.098070502 0.13710484 -0.23591666
-0.097925007 0.13709484 -0.23590899
-0.09767767 0.137082 -0.23589967
-0.097516 0.13708712 -0.23592637
-0.097276494 0.13710549 -0.23594451
-0.097081333 0.13711499 -0.23598434
-0.096958004 0.13713926 -0.235992
-0.099563494 0.13729399 -0.23599499
-0.099297225 0.13732132 -0.23594724
-0.099084079 0.13730657 -0.23594402
-0.098910995 0.13730067 -0.23593967
-0.098693669 0.137288 -0.235955
-0.098500997 0.13728233 -0.23593199
-0.098245502 0.137306 -0.23593
-0.098058596 0.1373124 -0.23589161
-0.097916834 0.13731818 -0.23590301
-0.097668327 0.13730533 -0.23590799
-0.09749689 0.13730133 -0.23592523
-0.097270332 0.13729183 -0.23593248
-0.097113915 0.13728701 -0.23597842
-0.096967503 0.13730851 -0.23598599
-0.099556334 0.137481 -0.23598599
-0.099290669 0.13750701 -0.23593564
-0.099076867 0.13749275 -0.23594427
-0.09892533 0.13752367 -0.23592651
-0.098686002 0.13751167 -0.23593999
-0.098491997 0.13750567 -0.23593734
-0.098239005 0.13749233 -0.23590867
-0.098061204 0.1374926 -0.23590282
-0.097909749 0.13750501 -0.23589699
-0.097661495 0.137492 -0.23590299
-0.097490333 0.13748783 -0.23591334
-0.097281419 0.13752685 -0.23592386
-0.097099088 0.137503 -0.23596732
-0.096944004 0.137512 -0.23598075
-0.099548005 0.137704 -0.23597634
-0.099283114 0.13769357 -0.2359391
-0.099094778 0.13768233 -0.23594812
-0.098917998 0.13769415 -0.23594156
-0.098678 0.13769799 -0.235946
-0.098485999 0.13769251 -0.2359165
-0.098230667 0.13771634 -0.235911
-0.098048665 0.13770151 -0.23589034
-0.097902834 0.13769133 -0.23589383
-0.097654007 0.13767867 -0.23590167
-0.097527504 0.13767551 -0.23589784
-0.097301833 0.13770349 -0.23590969
-0.0970826 0.1377115 -0.23595011
-0.09692017 0.13771667 -0.23597349
-0.099541999 0.13785499 -0.23599499
-0.099312998 0.13791849 -0.23596168
-0.099113345 0.137908 -0.23595208
-0.098920114 0.13789667 -0.23594192
-0.098671675 0.13788433 -0.23592834
-0.098477997 0.13787866 -0.23592834
-0.0982235 0.1379025 -0.235912
-0.098036803 0.13790901 -0.2358726
-0.097895332 0.13791433 -0.23587032
-0.097645998 0.13790168 -0.23589568
-0.097519338 0.13789816 -0.2358795
-0.097294666 0.13788989 -0.23591134
-0.097094595 0.1378922 -0.23595008
-0.096913502 0.1379035 -0.23596875
-0.099305503 0.13810501 -0.23596625
-0.099096783 0.13810568 -0.235955
-0.098911442 0.1381201 -0.23594533
-0.098661996 0.13810833 -0.23595534
-0.098468661 0.13810234 -0.235946
-0.098215997 0.13808866 -0.23591466
-0.098038398 0.13808921 -0.23589721
-0.097888 0.1381005 -0.23587425
-0.097638004 0.138125 -0.23587532
-0.097510993 0.13812217 -0.23588
-0.09729737 0.13810487 -0.23590775
-0.097093664 0.13810159 -0.23594166
-0.096927166 0.13809049 -0.23597215
-0.099298 0.13829167 -0.23597465
-0.099088781 0.13828045 -0.23597357
-0.0989035 0.13830666 -0.2359575
-0.098655 0.13829499 -0.23595101
-0.098461494 0.138289 -0.235945
-0.098206997 0.13831334 -0.23592466
-0.098030604 0.13828281 -0.2359018
-0.097897001 0.13829914 -0.23588957
-0.097630501 0.138312 -0.235881
-0.097503752 0.13830926 -0.23587699
-0.097321749 0.13830125 -0.235909
-0.097111665 0.13830277 -0.23592488
-0.096937627 0.13832413 -0.23595914
-0.096687339 0.13830566 -0.23599166
-0.099245667 0.138514 -0.23598468
-0.099086553 0.13848755 -0.23598269
-0.098895557 0.138493 -0.23597622
-0.098646671 0.13848133 -0.23597133
-0.098453671 0.138475 -0.23595832
-0.098200999 0.13846099 -0.235917
-0.098080009 0.13852699 -0.23591851
-0.097926125 0.138505 -0.23588462
-0.097667493 0.13851899 -0.23587975
-0.097496666 0.13849567 -0.23588133
-0.097315669 0.138487 -0.23588133
-0.097118184 0.13848463 -0.23593311
-0.096922159 0.138501 -0.23597164
-0.096678004 0.138529 -0.236
-0.099090002 0.1386925 -0.23599134
-0.098910443 0.13871723 -0.23598899
-0.098635495 0.138743 -0.23599401
-0.098444998 0.138699 -0.23596369
-0.098128803 0.138695 -0.235918
-0.097959742 0.13870251 -0.23589098
-0.097685799 0.13870999 -0.23589739
-0.097486667 0.13871917 -0.23589851
-0.097306669 0.13871101 -0.23589401
-0.097102821 0.13870184 -0.2359492
-0.096915886 0.13868779 -0.23595156
-0.096674502 0.138642 -0.23599151
-0.099048004 0.13880099 -0.23599701
-0.098935999 0.13891241 -0.23599282
-0.098630503 0.13889199 -0.23598599
-0.098435007 0.13892333 -0.23598467
-0.098104 0.1389035 -0.23593999
-0.097951673 0.13889033 -0.23590899
-0.097713992 0.13889119 -0.23591039
-0.0974795 0.1389055 -0.23589924
-0.097299002 0.13889726 -0.23589799
-0.097084507 0.1389101 -0.23596731
-0.096906886 0.13891132 -0.23595712
-0.098828673 0.13904066 -0.23599632
-0.098623499 0.139042 -0.2359955
-0.098427504 0.13910949 -0.23599499
-0.098080404 0.13911119 -0.2359322
-0.097942673 0.13911434 -0.2359155
-0.097732998 0.13908249 -0.23590875
-0.097503625 0.13910237 -0.23590636
-0.097291328 0.13908434 -0.23590833
-0.097096398 0.1390913 -0.2359663
-0.096912205 0.1391066 -0.2359598
-0.098610997 0.139377 -0.23599599
-0.098420657 0.13929565 -0.23598166
-0.098104194 0.13929239 -0.23595381
-0.097934999 0.139301 -0.235926
-0.097769 0.1392895 -0.23592651
-0.097505555 0.1393169 -0.23591444
-0.097281836 0.13930784 -0.23592751
-0.097079337 0.13929884 -0.23595844
-0.096892104 0.13928443 -0.23596665
-0.098606497 0.139488 -0.235991
-0.098096199 0.1394864 -0.23596179
-0.097937994 0.13949886 -0.23592758
-0.097761996 0.139476 -0.23592333
-0.097498327 0.13950349 -0.23591666
-0.097275004 0.139494 -0.23591699
-0.097070299 0.13950801 -0.2359691
-0.096914239 0.13951012 -0.23596613
-0.098150499 0.13969301 -0.23598599
-0.097943105 0.13971333 -0.23595065
-0.097753666 0.13969965 -0.23590933
-0.09749078 0.13969022 -0.2359191
-0.097267002 0.13968118 -0.23593368
-0.097093284 0.13969687 -0.23597398
-0.096905246 0.13969702 -0.23597126
-0.098143004 0.13988067 -0.235991
-0.09793517 0.13989967 -0.23596168
-0.097745501 0.13988601 -0.23593301
-0.097523175 0.1399155 -0.23594415
-0.097303778 0.13990878 -0.23595399
-0.097101666 0.13990234 -0.23598485
-0.096906729 0.13987802 -0.23597665
-0.098136 0.140067 -0.235989
-0.097921751 0.14007726 -0.23597026
-0.097736992 0.140074 -0.23595534
-0.097515754 0.14010176 -0.235945
-0.097316004 0.1400882 -0.23595659
-0.097113803 0.14012541 -0.23598361
-0.096920662 0.14010933 -0.23597281
-0.097904287 0.14031 -0.23597844
-0.09772867 0.14029767 -0.23595266
-0.097508669 0.14028834 -0.23593533
-0.097337507 0.14028451 -0.235954
-0.097130001 0.14028437 -0.23596963
-0.096912839 0.14029567 -0.23598401
-0.097887501 0.140495 -0.235958
-0.097719669 0.140521 -0.23595934
-0.097499169 0.1405125 -0.23595583
-0.097328998 0.1405085 -0.23595767
-0.097113445 0.14049901 -0.23597908
-0.096906111 0.14048266 -0.23597834
-0.0967815 0.140439 -0.235998
-0.097874202 0.14066721 -0.2359852
-0.097710505 0.140709 -0.23599401
-0.09749075 0.1407 -0.235976
-0.097321495 0.14069524 -0.2359615
-0.097148664 0.14069967 -0.23598866
-0.096890375 0.140697 -0.23598349
-0.097864404 0.140921 -0.23598579
-0.097704329 0.14089535 -0.23597467
-0.097483665 0.1408865 -0.23597915
-0.097314 0.14088167 -0.23596716
-0.097142003 0.14087366 -0.23598833
-0.09686175 0.140892 -0.23597901
-0.097888999 0.141059 -0.23599701
-0.097696498 0.141083 -0.235994
-0.097475499 0.14111033 -0.23596732
-0.097305834 0.14110567 -0.23595466
-0.097141251 0.14107925 -0.23597676
-0.096883997 0.14108041 -0.235985
-0.097467497 0.141298 -0.23598425
-0.09729825 0.14129299 -0.23596652
-0.097098999 0.14130521 -0.23598841
-0.096914999 0.14125733 -0.23599333
-0.0978195 0.1415405 -0.23599701
-0.097677 0.14156801 -0.23599701
-0.097460337 0.14148434 -0.23598517
-0.097291 0.141479 -0.23596299
-0.097672999 0.14168 -0.23599401
-0.097459398 0.1417236 -0.23598599
-0.097281508 0.1417035 -0.23597884
-0.097134501 0.14173201 -0.2359965
-0.097663 0.14194199 -0.235998
-0.097459666 0.14188166 -0.23597266
-0.097298801 0.14189939 -0.23599538
-0.096791998 0.141826 -0.23599701
-0.097657673 0.14209066 -0.23598735
-0.097479999 0.14208268 -0.23598534
-0.097309127 0.14206874 -0.23599061
-0.096845664 0.14212599 -0.23599134
-0.096779495 0.142162 -0.235994
-0.097650997 0.14224 -0.235999
-0.097470999 0.14230733 -0.23599601
-0.097299747 0.14231138 -0.23599026
-0.097081199 0.14230821 -0.2359966
-0.096837506 0.142313 -0.2359955
-0.096773505 0.1423105 -0.235993
-0.097461998 0.14253201 -0.23599499
-0.097313501 0.142527 -0.23598376
-0.097104333 0.14251633 -0.23599066
-0.096831001 0.14249933 -0.23599167
-0.096768998 0.142424 -0.236
