# .PCD v0.7 - Point Cloud Data file format
VERSION 0.7
FIELDS x y z
SIZE 4 4 4
TYPE F F F
COUNT 1 1 1
WIDTH 1440
HEIGHT 1
VIEWPOINT 0 0 0 1 0 0 0
POINTS 1440
DATA ascii
-0.117826 -0.048154 -0.26398599
-0.117824 -0.048078001 -0.26396599
-0.117822 -0.048005 -0.263946
-0.11782 -0.047929 -0.26392499
-0.117818 -0.047853999 -0.26390699
-0.117816 -0.04778 -0.26388499
-0.117814 -0.047704 -0.26386699
-0.117812 -0.047628999 -0.263852
-0.11781 -0.047552999 -0.263832
-0.117807 -0.047478002 -0.26382399
-0.117805 -0.047403999 -0.263818
-0.117803 -0.047327999 -0.26379699
-0.1178 -0.047253001 -0.26378301
-0.117798 -0.047177002 -0.26377299
-0.117795 -0.047100998 -0.26375899
-0.117793 -0.047026999 -0.26374501
-0.117791 -0.046952002 -0.26372799
-0.117789 -0.046875998 -0.26371399
-0.117786 -0.046801001 -0.26369801
-0.117784 -0.046727002 -0.263684
-0.117782 -0.046650998 -0.26367101
-0.117779 -0.046576001 -0.263661
-0.117777 -0.046500001 -0.26364499
-0.117775 -0.046427 -0.26361701
-0.117774 -0.046351001 -0.26359001
-0.117771 -0.046278 -0.263576
-0.117769 -0.046202 -0.26356199
-0.117767 -0.046126001 -0.26354399
-0.117765 -0.046053 -0.263529
-0.117763 -0.045977 -0.26350701
-0.117761 -0.045903999 -0.263473
-0.117759 -0.045828 -0.263455
-0.117756 -0.045752 -0.26346001
-0.117753 -0.045676 -0.26346201
-0.11775 -0.045602001 -0.26345599
-0.117747 -0.045527 -0.263448
-0.117745 -0.045451 -0.26344001
-0.117742 -0.045375001 -0.26343301
-0.117739 -0.045299001 -0.26342899
-0.117737 -0.045224998 -0.26342499
-0.117734 -0.045150001 -0.263419
-0.117731 -0.045074001 -0.263414
-0.117728 -0.044998001 -0.26341
-0.117726 -0.044922002 -0.26340401
-0.117723 -0.044845998 -0.26340199
-0.117719 -0.044769999 -0.26340601
-0.117716 -0.044693999 -0.26340699
-0.117713 -0.044617999 -0.26341099
-0.11771 -0.044542 -0.263419
-0.117707 -0.044466 -0.26341301
-0.117705 -0.044392001 -0.263401
-0.117701 -0.044316001 -0.26340401
-0.117698 -0.044240002 -0.26340601
-0.117695 -0.044163998 -0.26339999
-0.117693 -0.044089001 -0.26339799
-0.117689 -0.044013001 -0.26339999
-0.117686 -0.043937001 -0.263401
-0.117683 -0.04386 -0.26340699
-0.11768 -0.043784 -0.26341099
-0.117677 -0.043708 -0.26341301
-0.117674 -0.043632001 -0.26341301
-0.117671 -0.043556999 -0.263412
-0.117668 -0.043481 -0.263412
-0.117665 -0.043405 -0.26340801
-0.117662 -0.043329 -0.26340801
-0.117659 -0.043253001 -0.263412
-0.117656 -0.043177001 -0.26340899
-0.117653 -0.043101002 -0.26340699
-0.11765 -0.043024998 -0.26341099
-0.117646 -0.042948999 -0.263419
-0.117643 -0.042872999 -0.26342699
-0.11764 -0.042796999 -0.26343
-0.117636 -0.042721 -0.26343
-0.117634 -0.042645 -0.26342601
-0.117631 -0.042569 -0.26342601
-0.117627 -0.042493001 -0.263432
-0.117624 -0.042417001 -0.26343101
-0.117621 -0.042341001 -0.26342699
-0.117619 -0.042265002 -0.263423
-0.117616 -0.042188998 -0.263419
-0.117613 -0.042112999 -0.263419
-0.11761 -0.042036999 -0.26341999
-0.117607 -0.041960999 -0.26341999
-0.117604 -0.041885 -0.263414
-0.117601 -0.041809998 -0.26340401
-0.117599 -0.041735999 -0.263403
-0.117595 -0.041657999 -0.26340899
-0.117592 -0.041582 -0.263403
-0.11759 -0.041506 -0.26339501
-0.117587 -0.041432001 -0.26338699
-0.117585 -0.041356001 -0.26337799
-0.117582 -0.041281 -0.26337001
-0.117579 -0.041207001 -0.26335999
-0.117577 -0.041131001 -0.26335001
-0.117574 -0.041055001 -0.26334599
-0.117571 -0.040979002 -0.263349
-0.117568 -0.040902998 -0.26335299
-0.117565 -0.040826999 -0.26335499
-0.117561 -0.040748999 -0.26335901
-0.117558 -0.040672999 -0.263365
-0.117555 -0.040596999 -0.26336399
-0.117552 -0.040521 -0.263356
-0.11755 -0.040447 -0.263354
-0.117546 -0.040369 -0.26335201
-0.117543 -0.040293001 -0.26336199
-0.117539 -0.040217001 -0.26337299
-0.117536 -0.040141001 -0.26337099
-0.117534 -0.040065002 -0.263363
-0.117531 -0.039988998 -0.263365
-0.117528 -0.039912999 -0.263365
-0.117525 -0.039836999 -0.26336399
-0.117521 -0.039758999 -0.263374
-0.117518 -0.039682999 -0.26337999
-0.117515 -0.039607 -0.263372
-0.117512 -0.039533999 -0.26336801
-0.117509 -0.039455 -0.26337501
-0.117506 -0.039379001 -0.263381
-0.117503 -0.039303001 -0.263381
-0.117499 -0.039225001 -0.26338699
-0.117495 -0.039149001 -0.263401
-0.117492 -0.039073002 -0.263405
-0.117489 -0.038995001 -0.26340801
-0.117486 -0.038919002 -0.263414
-0.117483 -0.038842998 -0.26341599
-0.11748 -0.038766999 -0.263414
-0.117477 -0.038690999 -0.263414
-0.117474 -0.038612999 -0.26341099
-0.117471 -0.038539 -0.26340699
-0.117468 -0.038461 -0.26340699
-0.117465 -0.038385 -0.26340699
-0.117462 -0.038309 -0.263403
-0.117459 -0.038233001 -0.26341
-0.117456 -0.038157001 -0.26341
-0.117453 -0.038081001 -0.26340401
-0.11745 -0.038005002 -0.26340601
-0.117446 -0.037927002 -0.263412
-0.117443 -0.037852 -0.26340699
-0.117441 -0.037778001 -0.263399
-0.117438 -0.037700001 -0.26339701
-0.117435 -0.037624002 -0.26339701
-0.117432 -0.037548002 -0.26339501
-0.117428 -0.037471998 -0.26340601
-0.117425 -0.037395999 -0.26340601
-0.117423 -0.037319999 -0.26339799
-0.11742 -0.037244 -0.263394
-0.117417 -0.037168 -0.263394
-0.117414 -0.03709 -0.26339301
-0.117411 -0.037016001 -0.26338699
-0.117408 -0.036938 -0.263385
-0.117405 -0.036862999 -0.263385
-0.117402 -0.036787 -0.26337901
-0.1174 -0.036713 -0.263374
-0.117397 -0.036637001 -0.263374
-0.117393 -0.036559001 -0.263376
-0.117391 -0.036483001 -0.263372
-0.117388 -0.036407001 -0.26337001
-0.117385 -0.036331002 -0.26337299
-0.117381 -0.036254998 -0.26337501
-0.117379 -0.036178999 -0.263367
-0.117377 -0.036106002 -0.26335099
-0.117374 -0.036029998 -0.26334101
-0.11737 -0.035952002 -0.26335201
-0.117367 -0.035873 -0.26336601
-0.117364 -0.035797998 -0.263358
-0.117362 -0.035723999 -0.26334
-0.117359 -0.035647999 -0.26333001
-0.117356 -0.035572 -0.263327
-0.117354 -0.035496999 -0.26332301
-0.117351 -0.035420999 -0.26331899
-0.117348 -0.035344999 -0.26331699
-0.117345 -0.035269 -0.26331899
-0.117342 -0.035193 -0.26332
-0.117339 -0.035117 -0.263322
-0.117336 -0.035039 -0.263318
-0.117333 -0.034963001 -0.26331401
-0.11733 -0.034887001 -0.26331201
-0.117327 -0.034811001 -0.263313
-0.117323 -0.034735002 -0.26332101
-0.11732 -0.034657001 -0.26332301
-0.117317 -0.034581002 -0.26332501
-0.117314 -0.034503002 -0.263327
-0.117311 -0.034426998 -0.26332599
-0.117308 -0.034350999 -0.26332599
-0.117305 -0.034274999 -0.263322
-0.117302 -0.034198999 -0.263318
-0.117299 -0.034123 -0.26331401
-0.117296 -0.034047 -0.26331699
-0.117293 -0.033969 -0.26331899
-0.11729 -0.033893 -0.26331899
-0.117287 -0.033817001 -0.26332301
-0.117283 -0.033739001 -0.263329
-0.11728 -0.033663001 -0.263327
-0.117277 -0.033587001 -0.26332799
-0.117274 -0.033509001 -0.26333201
-0.117271 -0.033433001 -0.263336
-0.117268 -0.033355001 -0.263338
-0.117264 -0.033279002 -0.26334
-0.117261 -0.033202998 -0.263345
-0.117258 -0.033124998 -0.263347
-0.117255 -0.033048999 -0.26334301
-0.117252 -0.032972999 -0.263345
-0.117249 -0.032894999 -0.263347
-0.117246 -0.032818999 -0.26334599
-0.117243 -0.032744002 -0.26334199
-0.11724 -0.032667998 -0.26334199
-0.117237 -0.032590002 -0.26334399
-0.117234 -0.032513998 -0.26334199
-0.117231 -0.032437999 -0.26334199
-0.117228 -0.032361999 -0.26334101
-0.117224 -0.032283999 -0.263345
-0.117221 -0.032207999 -0.263349
-0.117218 -0.032132 -0.263349
-0.117215 -0.032056 -0.263345
-0.117212 -0.031978 -0.26334599
-0.117209 -0.031902 -0.26334801
-0.117206 -0.031824 -0.26334599
-0.117203 -0.031748001 -0.26334599
-0.1172 -0.031672001 -0.26335201
-0.117197 -0.031594001 -0.26335201
-0.117194 -0.031518001 -0.26335099
-0.117191 -0.031442001 -0.26335099
-0.117188 -0.031366002 -0.26335099
-0.117184 -0.031288002 -0.26335299
-0.117181 -0.031212 -0.26335499
-0.117178 -0.031134 -0.26335999
-0.117174 -0.031056 -0.263372
-0.117171 -0.030978 -0.26337799
-0.117168 -0.030902 -0.26337999
-0.117165 -0.030826 -0.26337799
-0.117162 -0.030748 -0.26337799
-0.117158 -0.030672001 -0.263385
-0.117154 -0.030591 -0.263401
-0.117151 -0.030515 -0.263403
-0.117148 -0.030439001 -0.263401
-0.117145 -0.030361 -0.263403
-0.117142 -0.030285001 -0.26340699
-0.117138 -0.030207001 -0.263414
-0.117135 -0.030130999 -0.26341799
-0.117131 -0.030051 -0.263428
-0.117127 -0.029971 -0.26345199
-0.117123 -0.029891999 -0.263468
-0.117119 -0.029813999 -0.263482
-0.117116 -0.029735999 -0.26349199
-0.117112 -0.029655 -0.26351401
-0.117107 -0.029575 -0.26353699
-0.117103 -0.029495001 -0.26355499
-0.117099 -0.029416 -0.26357701
-0.117095 -0.029336 -0.26359701
-0.11709 -0.029255001 -0.263621
-0.117085 -0.029173 -0.263657
-0.117081 -0.029092001 -0.263675
-0.117077 -0.029012 -0.263695
-0.117072 -0.028929001 -0.263733
-0.117067 -0.028844001 -0.26377699
-0.117062 -0.028760999 -0.26381099
-0.117056 -0.028677 -0.26384899
-0.117052 -0.028596001 -0.26387301
-0.117046 -0.028511001 -0.26392099
-0.11704 -0.028424 -0.26398101
-0.117035 -0.028339 -0.264025
-0.117031 -0.028261 -0.26403701
-0.117539 -0.048898999 -0.264658
-0.117542 -0.048826002 -0.26453599
-0.117542 -0.048753001 -0.26447201
-0.117542 -0.048678 -0.26441899
-0.117542 -0.048606001 -0.264359
-0.117541 -0.048531 -0.26430899
-0.11754 -0.048457999 -0.26426899
-0.117539 -0.048383001 -0.26423201
-0.117537 -0.048307002 -0.264202
-0.117536 -0.048232 -0.26416799
-0.117535 -0.048159 -0.26412699
-0.117534 -0.048083998 -0.26409301
-0.117532 -0.048007999 -0.26407501
-0.117529 -0.047931999 -0.264065
-0.117527 -0.047858998 -0.26405299
-0.117525 -0.047782999 -0.26402801
-0.117523 -0.047708001 -0.264
-0.117521 -0.047632001 -0.26398
-0.117519 -0.047557 -0.26396799
-0.117516 -0.047483001 -0.26395899
-0.117514 -0.047407001 -0.26394099
-0.117513 -0.047332 -0.26390901
-0.117511 -0.047258999 -0.26388699
-0.117508 -0.047183 -0.263872
-0.117507 -0.047107998 -0.26384199
-0.117505 -0.047033999 -0.263814
-0.117503 -0.046959002 -0.26378801
-0.117501 -0.046882998 -0.263769
-0.1175 -0.046810001 -0.26373899
-0.117498 -0.046735 -0.263713
-0.117496 -0.046661001 -0.26368701
-0.117495 -0.046585999 -0.26366201
-0.117492 -0.046512 -0.26364601
-0.11749 -0.046436999 -0.26362601
-0.117488 -0.046360999 -0.26360399
-0.117487 -0.046287999 -0.26357701
-0.117485 -0.046211999 -0.26355699
-0.117483 -0.046139002 -0.26353899
-0.117481 -0.046062998 -0.26352099
-0.117478 -0.045988001 -0.26350799
-0.117476 -0.045914002 -0.26348799
-0.117474 -0.045839 -0.263464
-0.117472 -0.045765001 -0.26345101
-0.117469 -0.045689002 -0.263441
-0.117467 -0.045612998 -0.26343501
-0.117464 -0.045536999 -0.263437
-0.117461 -0.045460999 -0.26343501
-0.117458 -0.045387998 -0.26342601
-0.117455 -0.045311999 -0.26341799
-0.117452 -0.045235999 -0.26341799
-0.117449 -0.045159999 -0.26342601
-0.117446 -0.045084 -0.263428
-0.117443 -0.045008 -0.26341701
-0.117441 -0.044932999 -0.26339701
-0.117439 -0.044859 -0.26337901
-0.117437 -0.044783 -0.26337299
-0.117433 -0.044707 -0.26337799
-0.11743 -0.044631001 -0.26338601
-0.117427 -0.044555001 -0.26337999
-0.117424 -0.044479001 -0.263374
-0.117422 -0.044404998 -0.26337001
-0.117419 -0.044330001 -0.263365
-0.117416 -0.044254001 -0.26336899
-0.117412 -0.044174999 -0.26337501
-0.117409 -0.044101 -0.26337901
-0.117406 -0.044025 -0.263383
-0.117403 -0.043947 -0.26338601
-0.1174 -0.043873001 -0.26338601
-0.117397 -0.043797001 -0.26338199
-0.117394 -0.043722 -0.26336801
-0.117392 -0.043648001 -0.26335001
-0.11739 -0.043573 -0.26333901
-0.117387 -0.043497 -0.26333499
-0.117384 -0.043421 -0.26333699
-0.11738 -0.043343998 -0.26335299
-0.117376 -0.043265998 -0.26337299
-0.117372 -0.043189999 -0.26339
-0.117369 -0.043113001 -0.26340199
-0.117366 -0.043037001 -0.26339999
-0.117363 -0.042962 -0.26339599
-0.11736 -0.042886 -0.26339799
-0.117356 -0.042808998 -0.26340699
-0.117353 -0.042732999 -0.26341099
-0.11735 -0.042654999 -0.26340899
-0.117347 -0.042580999 -0.26341099
-0.117344 -0.042505 -0.26341099
-0.117341 -0.042429999 -0.26340801
-0.117338 -0.042353999 -0.26340401
-0.117335 -0.042277999 -0.26339999
-0.117332 -0.042202 -0.26340401
-0.117329 -0.042126 -0.26340801
-0.117326 -0.04205 -0.263403
-0.117324 -0.041974001 -0.26338699
-0.117321 -0.041898999 -0.26337501
-0.117319 -0.041825 -0.26336899
-0.117316 -0.041749001 -0.26337001
-0.117312 -0.041671 -0.263376
-0.11731 -0.041597001 -0.26337001
-0.117307 -0.041521002 -0.263354
-0.117305 -0.041444998 -0.26334399
-0.117302 -0.041372001 -0.26333699
-0.1173 -0.041296002 -0.26331699
-0.117298 -0.041223001 -0.26330101
-0.117295 -0.041147001 -0.26329899
-0.117292 -0.041071001 -0.26329201
-0.117289 -0.040995002 -0.26328799
-0.117286 -0.040918998 -0.263302
-0.117282 -0.04084 -0.263318
-0.117279 -0.040764 -0.26331401
-0.117277 -0.040690999 -0.26329899
-0.117274 -0.040615 -0.263289
-0.117271 -0.040539 -0.263293
-0.117268 -0.040463001 -0.263293
-0.117265 -0.040387001 -0.26328701
-0.117261 -0.040311001 -0.263302
-0.117258 -0.040233001 -0.26330999
-0.117255 -0.040157001 -0.26331201
-0.117252 -0.040081002 -0.26330999
-0.11725 -0.040006999 -0.263298
-0.117247 -0.039932001 -0.26328501
-0.117244 -0.039856002 -0.26327899
-0.117241 -0.039779998 -0.26328099
-0.117237 -0.039701 -0.263309
-0.117232 -0.039623 -0.26333901
-0.117229 -0.039546002 -0.263345
-0.117226 -0.039469998 -0.26335001
-0.117222 -0.039391998 -0.26335999
-0.117218 -0.039315999 -0.263372
-0.117215 -0.039237998 -0.26338199
-0.117212 -0.039161999 -0.26338401
-0.117208 -0.039085999 -0.26338801
-0.117205 -0.039007999 -0.26339099
-0.117202 -0.038931999 -0.26339501
-0.117199 -0.038853999 -0.263401
-0.117195 -0.038778 -0.26340699
-0.117192 -0.038702 -0.263405
-0.117189 -0.038626 -0.26340401
-0.117186 -0.038550001 -0.26340401
-0.117183 -0.038474001 -0.26339999
-0.11718 -0.038398001 -0.26339799
-0.117178 -0.038322002 -0.26339599
-0.117175 -0.038245998 -0.26339501
-0.117172 -0.038169999 -0.26338699
-0.11717 -0.038097002 -0.26337099
-0.117167 -0.038020998 -0.26335901
-0.117164 -0.037944999 -0.26336601
-0.11716 -0.037866998 -0.263374
-0.117157 -0.037790999 -0.263374
-0.117155 -0.037714999 -0.26335999
-0.117153 -0.037641 -0.26335001
-0.117149 -0.037563 -0.263358
-0.117146 -0.037487 -0.263367
-0.117143 -0.037411001 -0.263367
-0.11714 -0.037335001 -0.26335901
-0.117137 -0.037259001 -0.26335299
-0.117134 -0.037183002 -0.26335499
-0.117131 -0.037105002 -0.26335999
-0.117128 -0.037029002 -0.26336199
-0.117125 -0.036952998 -0.26336199
-0.117122 -0.036878001 -0.263358
-0.117119 -0.036802001 -0.263356
-0.117116 -0.036726002 -0.26335299
-0.117113 -0.036649998 -0.263347
-0.11711 -0.036573999 -0.263345
-0.117107 -0.036497999 -0.263347
-0.117104 -0.036419999 -0.26335499
-0.1171 -0.036343999 -0.263358
-0.117098 -0.036268 -0.263354
-0.117095 -0.036192 -0.26335201
-0.117092 -0.036116 -0.263354
-0.117088 -0.036038 -0.26336199
-0.117085 -0.035962 -0.263363
-0.117083 -0.035888001 -0.263347
-0.117081 -0.035813 -0.263331
-0.117078 -0.035737 -0.26332301
-0.117075 -0.035661001 -0.263318
-0.117073 -0.035587002 -0.26330999
-0.11707 -0.035512 -0.2633
-0.117067 -0.035436001 -0.26328999
-0.117065 -0.035362002 -0.26328
-0.117062 -0.035286002 -0.263271
-0.11706 -0.035211001 -0.26326099
-0.117058 -0.035138998 -0.26323301
-0.117056 -0.035064001 -0.26321101
-0.117053 -0.034988001 -0.26321399
-0.117049 -0.034908999 -0.26323399
-0.117045 -0.034830999 -0.263246
-0.117042 -0.034754999 -0.26324999
-0.117039 -0.034676999 -0.26325199
-0.117036 -0.034603 -0.26324499
-0.117034 -0.034527 -0.26323301
-0.117031 -0.034451999 -0.26322699
-0.117028 -0.034375999 -0.26323101
-0.117024 -0.034297001 -0.26324099
-0.117021 -0.034219 -0.263253
-0.117017 -0.034141 -0.263266
-0.117014 -0.034065001 -0.26326999
-0.117011 -0.033989001 -0.263266
-0.117008 -0.033913001 -0.263264
-0.117005 -0.033837002 -0.263264
-0.117001 -0.033759002 -0.263273
-0.116998 -0.033681002 -0.26328501
-0.116994 -0.033603001 -0.26329699
-0.116991 -0.033525001 -0.26330101
-0.116988 -0.033450998 -0.263293
-0.116986 -0.033374999 -0.26327699
-0.116984 -0.033302002 -0.26326001
-0.11698 -0.033225 -0.263266
-0.116977 -0.033144999 -0.26328
-0.116973 -0.033069 -0.263282
-0.11697 -0.032993 -0.263282
-0.116967 -0.032915 -0.263291
-0.116964 -0.032839 -0.26329499
-0.11696 -0.032761 -0.26330301
-0.116957 -0.032685 -0.26330501
-0.116954 -0.032607 -0.26330501
-0.11695 -0.032531001 -0.263311
-0.116947 -0.032453001 -0.26332
-0.116944 -0.032375 -0.263322
-0.116941 -0.032301001 -0.26331601
-0.116938 -0.032223001 -0.26331201
-0.116935 -0.032147001 -0.26331201
-0.116932 -0.032071002 -0.26331499
-0.116929 -0.031993002 -0.26332101
-0.116926 -0.031916998 -0.26331899
-0.116923 -0.031840999 -0.263309
-0.116921 -0.031767 -0.26329899
-0.116918 -0.031691998 -0.26329601
-0.116915 -0.031614002 -0.26329601
-0.116912 -0.031537998 -0.26329601
-0.116908 -0.031461999 -0.263298
-0.116906 -0.031385999 -0.26329201
-0.116903 -0.03131 -0.26328501
-0.1169 -0.031231999 -0.263289
-0.116897 -0.031156 -0.263293
-0.116893 -0.03108 -0.263293
-0.11689 -0.031002 -0.26329699
-0.116887 -0.030926 -0.26329899
-0.116884 -0.030848 -0.263304
-0.11688 -0.030772001 -0.26330799
-0.116877 -0.030694 -0.26331601
-0.116874 -0.030616 -0.263322
-0.11687 -0.030537 -0.26333001
-0.116867 -0.030461 -0.26333401
-0.116864 -0.030383 -0.26333699
-0.11686 -0.030305 -0.26335099
-0.116856 -0.030224999 -0.26336899
-0.116852 -0.030149 -0.26337901
-0.116849 -0.030071 -0.26337701
-0.116846 -0.029995 -0.263381
-0.116842 -0.029913999 -0.263403
-0.116837 -0.029834 -0.26342499
-0.116834 -0.029756 -0.26343399
-0.116831 -0.029680001 -0.26343599
-0.116827 -0.029601 -0.26344401
-0.116823 -0.029521 -0.26345801
-0.116819 -0.029443 -0.26347801
-0.116814 -0.029362001 -0.26350999
-0.11681 -0.029279999 -0.26353601
-0.116806 -0.029201001 -0.26355201
-0.116801 -0.029119 -0.26357999
-0.116797 -0.029038001 -0.26361501
-0.116792 -0.028958 -0.26363501
-0.116786 -0.02887 -0.263688
-0.116782 -0.028791999 -0.26370499
-0.116779 -0.028712001 -0.263713
-0.116774 -0.028632 -0.26373699
-0.11677 -0.028550999 -0.26376501
-0.116765 -0.028468 -0.26379099
-0.11676 -0.028386001 -0.26383501
-0.116754 -0.028295999 -0.26389301
-0.116747 -0.028210999 -0.263951
-0.117089 -0.048935 -0.264617
-0.117092 -0.048861001 -0.264507
-0.117092 -0.048788998 -0.26444301
-0.117092 -0.048714999 -0.264368
-0.117092 -0.048641998 -0.26431799
-0.11709 -0.048565999 -0.264292
-0.117088 -0.048491001 -0.26426899
-0.117087 -0.048418 -0.264231
-0.117085 -0.048342001 -0.26420501
-0.117084 -0.048266999 -0.264171
-0.117083 -0.048193999 -0.26414001
-0.117081 -0.048117999 -0.26411399
-0.117079 -0.048043001 -0.26408401
-0.117077 -0.047968 -0.26405799
-0.117076 -0.047894001 -0.26402301
-0.117075 -0.047819 -0.26398501
-0.117073 -0.047743998 -0.26395699
-0.117072 -0.047671001 -0.263933
-0.11707 -0.047595002 -0.263908
-0.117068 -0.04752 -0.263886
-0.117066 -0.047446001 -0.26386601
-0.117064 -0.047371 -0.26383999
-0.117062 -0.047295 -0.26381499
-0.11706 -0.047219999 -0.26379099
-0.117059 -0.047146998 -0.26375899
-0.117058 -0.047072999 -0.26372701
-0.117056 -0.046998002 -0.26370001
-0.117054 -0.046921998 -0.263684
-0.117051 -0.046847001 -0.26367
-0.11705 -0.046773002 -0.26363999
-0.117049 -0.046700001 -0.263605
-0.117047 -0.046624999 -0.26357701
-0.117045 -0.046549 -0.26356101
-0.117042 -0.046473 -0.26355499
-0.117039 -0.046399999 -0.26355001
-0.117037 -0.046324 -0.26353401
-0.117035 -0.046248 -0.26351801
-0.117032 -0.046174999 -0.263506
-0.11703 -0.046099 -0.263495
-0.117027 -0.046023 -0.26348701
-0.117025 -0.045947 -0.263475
-0.117023 -0.045874 -0.26346299
-0.11702 -0.045798 -0.26346201
-0.117017 -0.045722 -0.26345599
-0.117014 -0.045646001 -0.26344401
-0.117012 -0.045572001 -0.26343599
-0.117008 -0.045494001 -0.26344001
-0.117006 -0.045419998 -0.263441
-0.117003 -0.045345001 -0.26343301
-0.117 -0.045269001 -0.26342499
-0.116998 -0.045193002 -0.26341099
-0.116996 -0.045120001 -0.26339599
-0.116993 -0.045044001 -0.26338801
-0.11699 -0.044968002 -0.26339
-0.116987 -0.044891998 -0.263394
-0.116983 -0.044815999 -0.26339799
-0.11698 -0.044739999 -0.263401
-0.116977 -0.044663999 -0.26339701
-0.116974 -0.044588 -0.26339701
-0.116972 -0.044512 -0.26339301
-0.116969 -0.044438001 -0.263385
-0.116966 -0.044360001 -0.26338601
-0.116963 -0.044286001 -0.26338801
-0.11696 -0.044208001 -0.26338199
-0.116957 -0.044133998 -0.26338199
-0.116954 -0.044057999 -0.26338199
-0.116951 -0.043981999 -0.26337901
-0.116948 -0.043907002 -0.26337701
-0.116945 -0.043830998 -0.26337501
-0.116942 -0.043754999 -0.26337099
-0.116939 -0.043678999 -0.26337001
-0.116937 -0.043602999 -0.26336601
-0.116934 -0.043527 -0.26336801
-0.11693 -0.043451 -0.26336801
-0.116928 -0.043375 -0.26336601
-0.116924 -0.043301001 -0.26337099
-0.116921 -0.043223001 -0.263381
-0.116918 -0.043147001 -0.263385
-0.116914 -0.043071002 -0.26338699
-0.116911 -0.042994998 -0.26339501
-0.116908 -0.042918999 -0.263403
-0.116905 -0.042842999 -0.26339799
-0.116902 -0.042766999 -0.263392
-0.116899 -0.042691 -0.26339
-0.116896 -0.042615 -0.26339
-0.116893 -0.042539001 -0.26338801
-0.11689 -0.042463001 -0.26338899
-0.116887 -0.042387001 -0.26339301
-0.116884 -0.042311002 -0.26339301
-0.116881 -0.042234998 -0.26339501
-0.116877 -0.042158999 -0.263401
-0.116875 -0.042082999 -0.263392
-0.116873 -0.042010002 -0.263376
-0.11687 -0.041933998 -0.26336199
-0.116867 -0.041857999 -0.263358
-0.116865 -0.041781999 -0.26335499
-0.116862 -0.041706 -0.26335099
-0.116859 -0.041632 -0.26334301
-0.116856 -0.041554999 -0.26333699
-0.116853 -0.041478999 -0.26333901
-0.11685 -0.041405 -0.263338
-0.116847 -0.041327 -0.263338
-0.116845 -0.041253 -0.26333001
-0.116842 -0.041177001 -0.26331401
-0.116839 -0.041101001 -0.26331899
-0.116836 -0.041025002 -0.263329
-0.116833 -0.040948998 -0.263327
-0.11683 -0.040872999 -0.263327
-0.116827 -0.040794998 -0.263327
-0.116824 -0.040720999 -0.26332399
-0.116821 -0.040645 -0.263322
-0.116818 -0.040569 -0.26332599
-0.116815 -0.040493 -0.26332599
-0.116812 -0.040417999 -0.26332
-0.116809 -0.040341999 -0.26332101
-0.116806 -0.040266 -0.26332301
-0.116803 -0.04019 -0.26331499
-0.1168 -0.040114 -0.26330701
-0.116797 -0.040038001 -0.263309
-0.116794 -0.039962001 -0.26331401
-0.116791 -0.039886001 -0.26331601
-0.116788 -0.039808001 -0.26332
-0.116784 -0.039732002 -0.26333401
-0.11678 -0.039654002 -0.26334
-0.116777 -0.039577998 -0.26334199
-0.116774 -0.039501999 -0.263347
-0.116771 -0.039425001 -0.26335499
-0.116767 -0.039347 -0.263365
-0.116763 -0.039271001 -0.26337701
-0.11676 -0.039195001 -0.26337701
-0.116757 -0.039119001 -0.26337799
-0.116754 -0.039041001 -0.26338401
-0.116751 -0.038965002 -0.26338601
-0.116747 -0.038887002 -0.26339799
-0.116744 -0.038810998 -0.26340601
-0.11674 -0.038734999 -0.26340801
-0.116737 -0.038656998 -0.26341099
-0.116734 -0.038580999 -0.26341099
-0.116732 -0.038504999 -0.263403
-0.116729 -0.038431 -0.26339099
-0.116727 -0.038355 -0.26337901
-0.116724 -0.038279999 -0.263372
-0.116722 -0.038206 -0.26336399
-0.116719 -0.03813 -0.263354
-0.116716 -0.038054001 -0.26334399
-0.116714 -0.037981 -0.263331
-0.116711 -0.037903 -0.26333699
-0.116707 -0.037826002 -0.263349
-0.116704 -0.037748002 -0.26335099
-0.116701 -0.037671998 -0.26335299
-0.116698 -0.037595998 -0.263356
-0.116695 -0.037519999 -0.263354
-0.116692 -0.037443999 -0.26335001
-0.116689 -0.037365999 -0.26335201
-0.116686 -0.037292998 -0.26335001
-0.116684 -0.037216999 -0.26333499
-0.116681 -0.037142999 -0.26332301
-0.116678 -0.037067 -0.26332101
-0.116675 -0.036989 -0.26332101
-0.116672 -0.036913 -0.26331699
-0.11667 -0.036837999 -0.26330999
-0.116667 -0.036764 -0.263302
-0.116664 -0.036688 -0.2633
-0.11666 -0.03661 -0.26330999
-0.116657 -0.036532 -0.26332399
-0.116653 -0.036453001 -0.263336
-0.116649 -0.036377002 -0.263347
-0.116646 -0.036300998 -0.26335299
-0.116643 -0.036223002 -0.26335701
-0.11664 -0.036146998 -0.26335901
-0.116637 -0.036070999 -0.26335499
-0.116634 -0.035994999 -0.26334801
-0.116632 -0.035920002 -0.263336
-0.116629 -0.035845999 -0.26332399
-0.116627 -0.035769999 -0.26331601
-0.116624 -0.035693999 -0.263311
-0.116621 -0.035618 -0.26330101
-0.116619 -0.035544999 -0.26328501
-0.116617 -0.035471 -0.26326501
-0.116615 -0.035395999 -0.26325601
-0.116612 -0.035319999 -0.26324999
-0.116609 -0.035243999 -0.26324201
-0.116607 -0.03517 -0.26323
-0.116604 -0.035094 -0.263226
-0.116601 -0.035016 -0.26323101
-0.116597 -0.034938 -0.26324299
-0.116593 -0.034862 -0.263255
-0.116591 -0.034786001 -0.263253
-0.116588 -0.034710001 -0.26324701
-0.116585 -0.034634002 -0.26324299
-0.116582 -0.034557998 -0.26323801
-0.11658 -0.034483001 -0.26323
-0.116576 -0.034407001 -0.26323199
-0.116573 -0.034327999 -0.26324001
-0.11657 -0.034253001 -0.26323801
-0.116567 -0.034177002 -0.26323101
-0.116565 -0.034100998 -0.26322499
-0.116562 -0.034024999 -0.26322299
-0.116558 -0.033946998 -0.26323101
-0.116555 -0.033870999 -0.263235
-0.116552 -0.033794999 -0.26323199
-0.116549 -0.033718999 -0.26323
-0.116546 -0.033643 -0.26323599
-0.116543 -0.033565 -0.26323399
-0.11654 -0.033491001 -0.26322401
-0.116538 -0.033415999 -0.26321501
-0.116535 -0.03334 -0.26321101
-0.116532 -0.033264 -0.26321301
-0.116529 -0.033186 -0.26321301
-0.116526 -0.03311 -0.26321101
-0.116523 -0.033034001 -0.263208
-0.11652 -0.032958001 -0.263212
-0.116515 -0.032876998 -0.26323399
-0.116511 -0.032797001 -0.263262
-0.116507 -0.032719001 -0.26327199
-0.116504 -0.032643002 -0.263266
-0.116501 -0.032566998 -0.26326501
-0.116498 -0.032490999 -0.26326701
-0.116495 -0.032414999 -0.26326901
-0.116492 -0.032338999 -0.26326501
-0.116489 -0.032260999 -0.26326701
-0.116486 -0.032184999 -0.263273
-0.116483 -0.032109 -0.26327199
-0.11648 -0.032031 -0.26326999
-0.116476 -0.031955 -0.26327801
-0.116474 -0.031879 -0.26326799
-0.116472 -0.031806 -0.26324701
-0.116469 -0.03173 -0.263239
-0.116466 -0.031654 -0.26324099
-0.116463 -0.031578001 -0.26324099
-0.11646 -0.031500001 -0.263237
-0.116458 -0.031426001 -0.26322401
-0.116456 -0.031353001 -0.263208
-0.116453 -0.031277001 -0.26320001
-0.11645 -0.031200999 -0.26319799
-0.116447 -0.031125 -0.26319599
-0.116444 -0.031047 -0.263201
-0.116441 -0.030971 -0.26320699
-0.116437 -0.030893 -0.26321101
-0.116434 -0.030815 -0.26321501
-0.11643 -0.030737 -0.26322499
-0.116427 -0.030661 -0.26323301
-0.116424 -0.030583 -0.26323599
-0.116421 -0.030506 -0.26324001
-0.116417 -0.030428 -0.26324201
-0.116414 -0.03035 -0.263246
-0.11641 -0.030274 -0.26325601
-0.116406 -0.030193999 -0.26327401
-0.116403 -0.030115999 -0.26328999
-0.116399 -0.030037001 -0.26330101
-0.116395 -0.029959001 -0.26330701
-0.116392 -0.029881001 -0.26331499
-0.116388 -0.029805001 -0.26332501
-0.116385 -0.029725 -0.26333499
-0.116381 -0.029646 -0.26335099
-0.116377 -0.029568 -0.263363
-0.116373 -0.029487999 -0.26337999
-0.116369 -0.029410001 -0.26339599
-0.116365 -0.029329 -0.26341599
-0.116361 -0.029251 -0.26343399
-0.116357 -0.029170001 -0.26345399
-0.116353 -0.02909 -0.26347399
-0.116348 -0.02901 -0.26350001
-0.116344 -0.028927 -0.26353201
-0.116339 -0.028845999 -0.263556
-0.116334 -0.028766001 -0.26358601
-0.116329 -0.028681001 -0.26363
-0.116324 -0.028597999 -0.263666
-0.116319 -0.028516 -0.26369601
-0.116314 -0.028433001 -0.26373199
-0.116308 -0.028346 -0.26379201
-0.116302 -0.028259 -0.26383999
-0.116297 -0.028176 -0.26388201
-0.116598 -0.048987001 -0.264364
-0.116599 -0.048912998 -0.26426899
-0.1166 -0.048840001 -0.26419699
-0.116601 -0.048765998 -0.264119
-0.116601 -0.048694 -0.264052
-0.116601 -0.048620999 -0.264002
-0.1166 -0.048546001 -0.26395801
-0.116599 -0.048473001 -0.26391101
-0.116598 -0.048397999 -0.263879
-0.116597 -0.048323002 -0.26383701
-0.116595 -0.048248999 -0.26381099
-0.116593 -0.048174001 -0.26379201
-0.116591 -0.048098002 -0.26376399
-0.116589 -0.048023 -0.26374999
-0.116587 -0.047949001 -0.26373401
-0.116584 -0.047873002 -0.263717
-0.116582 -0.047798 -0.26370299
-0.11658 -0.047722001 -0.26368701
-0.116578 -0.047646999 -0.26366699
-0.116576 -0.047573 -0.26364499
-0.116574 -0.047497999 -0.26362199
-0.116573 -0.047424 -0.263592
-0.116571 -0.047348998 -0.26357201
-0.116568 -0.047272999 -0.263558
-0.116566 -0.047200002 -0.26354301
-0.116564 -0.047123998 -0.26352701
-0.116562 -0.047047999 -0.263511
-0.116559 -0.046975002 -0.263495
-0.116557 -0.046898998 -0.263482
-0.116554 -0.046822999 -0.26347399
-0.116551 -0.046746999 -0.26347399
-0.116549 -0.046670999 -0.263466
-0.116546 -0.046597999 -0.26345301
-0.116544 -0.046521999 -0.26344299
-0.116542 -0.046445999 -0.26342499
-0.116539 -0.046372999 -0.26341099
-0.116537 -0.046296999 -0.26340899
-0.116534 -0.046220999 -0.26339599
-0.116532 -0.046146002 -0.26337799
-0.116529 -0.046069998 -0.263376
-0.116526 -0.045995999 -0.263372
-0.116524 -0.045919999 -0.263367
-0.116521 -0.045844 -0.26335701
-0.116518 -0.045768 -0.26335099
-0.116516 -0.045694999 -0.263347
-0.116513 -0.045619 -0.26334101
-0.11651 -0.045543 -0.26333401
-0.116508 -0.045467 -0.26332599
-0.116505 -0.045391001 -0.26332
-0.116502 -0.045317002 -0.26331601
-0.116499 -0.045242 -0.263311
-0.116497 -0.045166001 -0.26330501
-0.116494 -0.045090001 -0.26330101
-0.116491 -0.045014001 -0.26330101
-0.116488 -0.044938002 -0.26330101
-0.116485 -0.044863999 -0.26329401
-0.116482 -0.044787999 -0.26329201
-0.116479 -0.044712 -0.26329601
-0.116476 -0.044633999 -0.263298
-0.116473 -0.04456 -0.2633
-0.116469 -0.044484001 -0.26330501
-0.116467 -0.044408001 -0.26329899
-0.116464 -0.044332001 -0.26329499
-0.116461 -0.044256002 -0.26329899
-0.116457 -0.044179998 -0.26330501
-0.116454 -0.044103999 -0.263304
-0.116451 -0.044027999 -0.26330599
-0.116448 -0.043951999 -0.26331201
-0.116445 -0.043876 -0.26330999
-0.116442 -0.0438 -0.26330599
-0.116439 -0.043724 -0.26330501
-0.116436 -0.043648999 -0.26330501
-0.116433 -0.043573 -0.26330701
-0.11643 -0.043497 -0.26330301
-0.116427 -0.043421 -0.26330101
-0.116424 -0.043345001 -0.26330799
-0.116421 -0.043269001 -0.26331401
-0.116418 -0.043193001 -0.26331401
-0.116415 -0.043117002 -0.26331201
-0.116411 -0.043040998 -0.26331601
-0.116408 -0.042964 -0.26332301
-0.116405 -0.042888999 -0.26332301
-0.116402 -0.042812999 -0.26331499
-0.116399 -0.042737 -0.263313
-0.116396 -0.042661 -0.26331699
-0.116394 -0.042587001 -0.26330999
-0.116391 -0.042511001 -0.263298
-0.116388 -0.042435002 -0.26329601
-0.116385 -0.042358998 -0.26330599
-0.116381 -0.042282999 -0.263311
-0.116379 -0.042206999 -0.263309
-0.116376 -0.042130999 -0.26329899
-0.116374 -0.042056002 -0.26328701
-0.116371 -0.041979998 -0.26328701
-0.116367 -0.041903999 -0.26329201
-0.116364 -0.041827999 -0.26329201
-0.116361 -0.041751999 -0.26329601
-0.116358 -0.041676 -0.26329601
-0.116356 -0.0416 -0.263284
-0.116353 -0.041526001 -0.26327699
-0.11635 -0.041450001 -0.263273
-0.116348 -0.041375 -0.26326299
-0.116345 -0.041299 -0.26326299
-0.116341 -0.041221999 -0.263271
-0.116338 -0.041147001 -0.26327199
-0.116335 -0.041071001 -0.26326999
-0.116332 -0.040995002 -0.26327199
-0.116329 -0.040918998 -0.26327401
-0.116326 -0.040840998 -0.26327601
-0.116322 -0.040764 -0.26328501
-0.116319 -0.040688001 -0.263289
-0.116316 -0.040612001 -0.26328701
-0.116313 -0.040537 -0.26328701
-0.11631 -0.040460002 -0.263289
-0.116307 -0.040383998 -0.26329201
-0.116304 -0.040309001 -0.26328799
-0.116301 -0.040233001 -0.26328599
-0.116298 -0.040157001 -0.263284
-0.116295 -0.040081002 -0.263284
-0.116292 -0.040004998 -0.263291
-0.116289 -0.039928999 -0.263291
-0.116286 -0.039852999 -0.26328701
-0.116283 -0.039777 -0.263289
-0.11628 -0.039698999 -0.263291
-0.116277 -0.039623 -0.26329201
-0.116273 -0.039547 -0.26329401
-0.11627 -0.039471 -0.26329401
-0.116267 -0.039395001 -0.263298
-0.116264 -0.039317001 -0.263304
-0.116261 -0.039243001 -0.26330101
-0.116258 -0.039167002 -0.26329899
-0.116255 -0.039089002 -0.26330301
-0.116251 -0.039012998 -0.263311
-0.116248 -0.038934998 -0.263313
-0.116245 -0.038860999 -0.26330999
-0.116243 -0.038784999 -0.263304
-0.116239 -0.038706999 -0.26330799
-0.116236 -0.038631 -0.26331401
-0.116233 -0.038555 -0.26330999
-0.116231 -0.038479 -0.2633
-0.116228 -0.038406 -0.263291
-0.116225 -0.03833 -0.26328301
-0.116223 -0.038254 -0.26327899
-0.11622 -0.038178001 -0.263275
-0.116217 -0.038102001 -0.26328
-0.116213 -0.038024001 -0.26328599
-0.11621 -0.037948001 -0.26329401
-0.116206 -0.037870001 -0.2633
-0.116203 -0.037794001 -0.263304
-0.1162 -0.037717 -0.26330799
-0.116197 -0.037641 -0.263311
-0.116194 -0.037565999 -0.26330101
-0.116192 -0.037492 -0.26328099
-0.11619 -0.037416 -0.26326901
-0.116187 -0.037340999 -0.26326999
-0.116184 -0.037264999 -0.26326999
-0.116181 -0.037188999 -0.26326999
-0.116177 -0.037110999 -0.26327401
-0.116174 -0.037035 -0.26327199
-0.116171 -0.036959 -0.26326999
-0.116168 -0.036883 -0.263273
-0.116165 -0.036807001 -0.263271
-0.116162 -0.036731001 -0.263275
-0.116159 -0.036653001 -0.26328099
-0.116156 -0.036577001 -0.26327899
-0.116153 -0.036501002 -0.26326799
-0.116151 -0.036426999 -0.26325801
-0.116148 -0.036350999 -0.26326001
-0.116145 -0.036272999 -0.26325801
-0.116142 -0.036196999 -0.26325601
-0.116139 -0.036122002 -0.26325101
-0.116136 -0.036047999 -0.26324499
-0.116134 -0.035971999 -0.26324299
-0.11613 -0.035893999 -0.26324499
-0.116127 -0.035817999 -0.26324299
-0.116124 -0.035742 -0.263244
-0.116121 -0.035664 -0.263248
-0.116118 -0.035588 -0.26324999
-0.116115 -0.035512 -0.263246
-0.116113 -0.035438001 -0.26323301
-0.11611 -0.035363 -0.26322499
-0.116107 -0.035287 -0.26322699
-0.116104 -0.035211001 -0.26322499
-0.116101 -0.035135001 -0.263217
-0.116098 -0.035057001 -0.26322201
-0.116095 -0.034981001 -0.263226
-0.116092 -0.034905002 -0.26322201
-0.116089 -0.034828998 -0.26321799
-0.116086 -0.034751002 -0.263226
-0.116083 -0.034674998 -0.263228
-0.11608 -0.034598999 -0.263221
-0.116077 -0.034522999 -0.263217
-0.116074 -0.034446999 -0.26321501
-0.116071 -0.034371 -0.263217
-0.116068 -0.034293 -0.263221
-0.116065 -0.034217 -0.26322201
-0.116062 -0.034141 -0.26321799
-0.116059 -0.034065001 -0.26321599
-0.116056 -0.033989999 -0.26321
-0.116053 -0.033914 -0.263208
-0.11605 -0.033838 -0.26321101
-0.116047 -0.033762001 -0.26320499
-0.116045 -0.033686001 -0.263199
-0.116041 -0.033608001 -0.263203
-0.116038 -0.033532001 -0.263203
-0.116035 -0.033456001 -0.263208
-0.116032 -0.033380002 -0.263208
-0.116029 -0.033303998 -0.26320001
-0.116027 -0.033227999 -0.26319399
-0.116024 -0.033151999 -0.263192
-0.116021 -0.033073999 -0.26319101
-0.116017 -0.032997999 -0.26319501
-0.116015 -0.032922 -0.26319301
-0.116011 -0.032844 -0.263197
-0.116008 -0.032768 -0.263203
-0.116005 -0.03269 -0.26320499
-0.116002 -0.032614 -0.263208
-0.115998 -0.032538 -0.26321399
-0.115995 -0.03246 -0.26322201
-0.115992 -0.032384001 -0.26322001
-0.115989 -0.032306001 -0.26321799
-0.115986 -0.032230001 -0.263219
-0.115983 -0.032154001 -0.263219
-0.11598 -0.032076001 -0.263221
-0.115977 -0.032000002 -0.263219
-0.115974 -0.031923998 -0.263219
-0.11597 -0.031847998 -0.26322201
-0.115968 -0.031773001 -0.26321799
-0.115965 -0.031697001 -0.263212
-0.115962 -0.031621002 -0.263208
-0.115959 -0.031544998 -0.26320001
-0.115957 -0.031468999 -0.26318899
-0.115955 -0.031396002 -0.26317501
-0.115952 -0.031319998 -0.26316699
-0.115949 -0.031244 -0.263165
-0.115946 -0.031166 -0.26316899
-0.115942 -0.031090001 -0.26317599
-0.115939 -0.031013999 -0.26317999
-0.115936 -0.030936001 -0.26318601
-0.115932 -0.030858001 -0.263192
-0.115929 -0.030779 -0.26319799
-0.115925 -0.030701 -0.263208
-0.115922 -0.030625001 -0.263217
-0.115919 -0.030547 -0.263221
-0.115916 -0.030471001 -0.263219
-0.115913 -0.030394999 -0.26321501
-0.11591 -0.030316999 -0.263219
-0.115906 -0.030239001 -0.26322901
-0.115903 -0.030162999 -0.263226
-0.1159 -0.030087 -0.26323
-0.115895 -0.030006999 -0.26325601
-0.115891 -0.029926 -0.263284
-0.115887 -0.029848 -0.26329601
-0.115884 -0.029767999 -0.263302
-0.11588 -0.029692 -0.26331201
-0.115876 -0.029611001 -0.26333001
-0.115873 -0.029533001 -0.26333699
-0.11587 -0.029456999 -0.26333901
-0.115866 -0.029379001 -0.263349
-0.115862 -0.029299 -0.263367
-0.115858 -0.029217999 -0.26338699
-0.115855 -0.029142 -0.26339099
-0.115851 -0.029064 -0.263405
-0.115846 -0.028981 -0.263441
-0.115841 -0.028898001 -0.26347101
-0.115837 -0.028818 -0.26349601
-0.115832 -0.028737999 -0.26351801
-0.115827 -0.028655 -0.26355401
-0.115822 -0.028572001 -0.263592
-0.115817 -0.028487001 -0.263634
-0.115811 -0.028402001 -0.26367801
-0.115805 -0.028315 -0.26374501
-0.115798 -0.028224999 -0.26381499
-0.116323 -0.048920002 -0.264292
-0.116322 -0.048847001 -0.26423499
-0.116322 -0.048772 -0.264175
-0.116322 -0.048696999 -0.264121
-0.116321 -0.048624001 -0.26408201
-0.11632 -0.048549 -0.264034
-0.11632 -0.048477001 -0.263982
-0.116319 -0.048401002 -0.263946
-0.116318 -0.048328001 -0.263901
-0.116316 -0.048253 -0.26386699
-0.116315 -0.048177999 -0.263845
-0.116313 -0.048101999 -0.26381901
-0.116312 -0.048029002 -0.26378399
-0.11631 -0.047954001 -0.26376
-0.116307 -0.047878001 -0.263744
-0.116305 -0.047805 -0.26372501
-0.116303 -0.047729 -0.26370499
-0.116301 -0.047653001 -0.26368701
-0.116299 -0.047578 -0.26367301
-0.116297 -0.047504 -0.26365501
-0.116295 -0.047428999 -0.26363799
-0.116292 -0.047352999 -0.26362199
-0.11629 -0.047277998 -0.26360199
-0.116288 -0.047203999 -0.26358199
-0.116286 -0.047127999 -0.263567
-0.116283 -0.047053002 -0.26355901
-0.116281 -0.046978999 -0.26355499
-0.116278 -0.046902999 -0.26354301
-0.116276 -0.046827 -0.26352599
-0.116274 -0.046751998 -0.26351601
-0.116271 -0.046675999 -0.26350799
-0.116269 -0.046602 -0.26349601
-0.116266 -0.046526 -0.26349199
-0.116263 -0.04645 -0.26348501
-0.116261 -0.046376999 -0.26347101
-0.116258 -0.046301 -0.26346099
-0.116255 -0.046225 -0.263455
-0.116253 -0.046149999 -0.26344201
-0.116251 -0.046073999 -0.263428
-0.116248 -0.046 -0.26342401
-0.116245 -0.045924 -0.26342201
-0.116243 -0.045848001 -0.26340801
-0.11624 -0.045773 -0.263399
-0.116237 -0.045697 -0.26339701
-0.116234 -0.045623001 -0.26339301
-0.116232 -0.045547001 -0.26338699
-0.116229 -0.045471001 -0.26337799
-0.116227 -0.045396 -0.26337001
-0.116224 -0.04532 -0.26336601
-0.116221 -0.045246001 -0.26336601
-0.116218 -0.045170002 -0.26336199
-0.116215 -0.045093998 -0.26335299
-0.116213 -0.045017999 -0.263349
-0.11621 -0.044941999 -0.263349
-0.116207 -0.044865999 -0.263345
-0.116204 -0.04479 -0.26334101
-0.116201 -0.044714 -0.26334199
-0.116198 -0.044638 -0.26334399
-0.116195 -0.044565 -0.26334
-0.116192 -0.044489 -0.26334
-0.116189 -0.044411 -0.26334399
-0.116185 -0.044337001 -0.263349
-0.116182 -0.044257998 -0.26335299
-0.116179 -0.044183001 -0.26335299
-0.116176 -0.044109002 -0.263345
-0.116174 -0.044032998 -0.26334199
-0.116171 -0.043956999 -0.26334399
-0.116167 -0.043878999 -0.263354
-0.116163 -0.043802001 -0.26336801
-0.11616 -0.043726001 -0.263374
-0.116157 -0.043651 -0.26336601
-0.116155 -0.043577 -0.26336101
-0.116151 -0.043499 -0.26336101
-0.116148 -0.043425001 -0.26336101
-0.116145 -0.043349002 -0.26336101
-0.116142 -0.043272998 -0.26336399
-0.116139 -0.043196999 -0.26336199
-0.116137 -0.043120999 -0.263358
-0.116134 -0.043044999 -0.263358
-0.11613 -0.042969 -0.26336601
-0.116127 -0.042890999 -0.263374
-0.116124 -0.042817 -0.26337099
-0.116121 -0.042739 -0.26337501
-0.116117 -0.042663001 -0.26337701
-0.116115 -0.042589001 -0.26337099
-0.116112 -0.042513002 -0.26336199
-0.11611 -0.042436998 -0.263354
-0.116106 -0.042360999 -0.26335999
-0.116103 -0.042284999 -0.26335999
-0.1161 -0.042208999 -0.263358
-0.116097 -0.042133 -0.26335701
-0.116095 -0.042057998 -0.263349
-0.116092 -0.041981999 -0.263349
-0.116089 -0.041905999 -0.263349
-0.116086 -0.04183 -0.263345
-0.116083 -0.041754 -0.26334801
-0.11608 -0.041678 -0.26334399
-0.116077 -0.041602001 -0.26334
-0.116074 -0.041526001 -0.26334
-0.116071 -0.041450001 -0.263338
-0.116068 -0.041374002 -0.26333901
-0.116065 -0.041297998 -0.26333499
-0.116063 -0.041223001 -0.26332501
-0.11606 -0.041149002 -0.263311
-0.116057 -0.041072998 -0.26331499
-0.116053 -0.040995002 -0.26332799
-0.11605 -0.040918998 -0.26333001
-0.116047 -0.040842999 -0.26333201
-0.116044 -0.040766999 -0.26333401
-0.116041 -0.040690999 -0.263338
-0.116038 -0.040615 -0.26333901
-0.116035 -0.040539 -0.26333299
-0.116032 -0.040463001 -0.263329
-0.116029 -0.040387001 -0.26333299
-0.116026 -0.040311001 -0.26333699
-0.116022 -0.040233001 -0.26334399
-0.116019 -0.040157001 -0.26334801
-0.116016 -0.040081002 -0.26335001
-0.116013 -0.040004998 -0.26334801
-0.11601 -0.039928999 -0.26334801
-0.116007 -0.039852999 -0.263349
-0.116004 -0.039777 -0.26335299
-0.116 -0.039698999 -0.26335499
-0.115997 -0.039623 -0.26335701
-0.115994 -0.039547 -0.263363
-0.115991 -0.039471 -0.263365
-0.115988 -0.039395001 -0.26336199
-0.115985 -0.039319001 -0.263358
-0.115982 -0.039243001 -0.26335201
-0.115979 -0.039167002 -0.26335001
-0.115976 -0.039090998 -0.26335701
-0.115973 -0.039014999 -0.26335701
-0.11597 -0.038936999 -0.26335299
-0.115968 -0.038863 -0.263345
-0.115965 -0.038787 -0.263345
-0.115961 -0.038709 -0.26335099
-0.115958 -0.038633 -0.26335999
-0.115955 -0.038557 -0.263354
-0.115953 -0.038481999 -0.26334199
-0.11595 -0.038406 -0.263338
-0.115947 -0.03833 -0.26333299
-0.115945 -0.038256001 -0.26332101
-0.115942 -0.038180001 -0.26332101
-0.115938 -0.038102001 -0.26333699
-0.115934 -0.038024001 -0.263345
-0.115931 -0.037948001 -0.26333901
-0.115928 -0.037872002 -0.26334
-0.115925 -0.037795998 -0.26334599
-0.115922 -0.037719999 -0.26334399
-0.115919 -0.037643999 -0.26334199
-0.115916 -0.037565999 -0.26334399
-0.115913 -0.037492 -0.26334301
-0.115911 -0.037416998 -0.26332301
-0.115909 -0.037342999 -0.26329499
-0.115907 -0.037269998 -0.26328099
-0.115904 -0.037191998 -0.26328799
-0.1159 -0.037113 -0.26330999
-0.115896 -0.037035 -0.26332799
-0.115892 -0.036959 -0.26334
-0.115889 -0.036881 -0.26333401
-0.115887 -0.036807001 -0.26332399
-0.115883 -0.036731001 -0.263329
-0.11588 -0.036653001 -0.26333699
-0.115877 -0.036577001 -0.26334101
-0.115874 -0.036501002 -0.26333499
-0.115871 -0.036424998 -0.263327
-0.115868 -0.036348999 -0.26332399
-0.115865 -0.036272999 -0.26332599
-0.115862 -0.036196999 -0.26332599
-0.115859 -0.036118999 -0.263322
-0.115857 -0.036042999 -0.263318
-0.115854 -0.035969999 -0.263313
-0.115851 -0.035891999 -0.263309
-0.115848 -0.035815999 -0.26330701
-0.115845 -0.035739999 -0.26330701
-0.115842 -0.035664 -0.26330701
-0.115839 -0.035588 -0.26330599
-0.115836 -0.03551 -0.26330799
-0.115833 -0.035434 -0.26330999
-0.11583 -0.035358001 -0.26330599
-0.115827 -0.035282001 -0.263304
-0.115824 -0.035206001 -0.26330101
-0.115821 -0.035130002 -0.263293
-0.115818 -0.035053998 -0.26329499
-0.115815 -0.034976002 -0.26329899
-0.115812 -0.034899998 -0.26330301
-0.115809 -0.034823999 -0.2633
-0.115806 -0.034749001 -0.263298
-0.115803 -0.034673002 -0.263298
-0.1158 -0.034596998 -0.26329201
-0.115797 -0.034520999 -0.26328999
-0.115794 -0.034444999 -0.26328701
-0.115792 -0.034368999 -0.26328301
-0.115788 -0.034290999 -0.26328701
-0.115785 -0.034215 -0.263291
-0.115782 -0.034139 -0.263289
-0.115779 -0.034063 -0.26328799
-0.115776 -0.033985 -0.263284
-0.115773 -0.033909 -0.26328799
-0.11577 -0.033831 -0.26328999
-0.115767 -0.033755001 -0.26329401
-0.115763 -0.033679001 -0.2633
-0.11576 -0.033601001 -0.26330701
-0.115757 -0.033525001 -0.26330101
-0.115754 -0.033449002 -0.263293
-0.115751 -0.033372998 -0.26329699
-0.115748 -0.033296999 -0.26329899
-0.115745 -0.033218998 -0.26329401
-0.115742 -0.033144001 -0.26328999
-0.115739 -0.033068001 -0.26328999
-0.115736 -0.032988999 -0.263298
-0.115733 -0.032912999 -0.2633
-0.11573 -0.032837 -0.2633
-0.115727 -0.032761998 -0.26330101
-0.115724 -0.032683998 -0.26329699
-0.115721 -0.032607999 -0.26329499
-0.115718 -0.032531999 -0.26329899
-0.115714 -0.032453999 -0.26330101
-0.115711 -0.032377999 -0.263304
-0.115708 -0.032299999 -0.263304
-0.115705 -0.032224 -0.263304
-0.115702 -0.032148 -0.263302
-0.115699 -0.03207 -0.26330599
-0.115696 -0.031994 -0.26331201
-0.115693 -0.031918 -0.263309
-0.11569 -0.031842001 -0.26329899
-0.115687 -0.031766001 -0.263293
-0.115684 -0.031690001 -0.26329699
-0.115681 -0.031612001 -0.26330501
-0.115677 -0.031534001 -0.26330999
-0.115674 -0.031458002 -0.26330799
-0.115671 -0.031381998 -0.26330799
-0.115668 -0.031305999 -0.26330799
-0.115665 -0.031228 -0.26330799
-0.115662 -0.031152001 -0.263311
-0.115659 -0.031074001 -0.263313
-0.115656 -0.030998001 -0.26331499
-0.115653 -0.030920001 -0.26331699
-0.11565 -0.030843999 -0.26331699
-0.115646 -0.030765999 -0.26332301
-0.115643 -0.030688001 -0.26333401
-0.115639 -0.030611999 -0.26334399
-0.115636 -0.030533999 -0.26335001
-0.115632 -0.030455001 -0.263356
-0.115629 -0.030377001 -0.26336399
-0.115625 -0.030299 -0.263372
-0.115622 -0.030223001 -0.26337999
-0.115618 -0.030143 -0.26338899
-0.115614 -0.030065 -0.26340699
-0.11561 -0.029983999 -0.26342699
-0.115607 -0.029908 -0.26343501
-0.115603 -0.029829999 -0.263441
-0.1156 -0.029751999 -0.26344901
-0.115596 -0.029673999 -0.26345301
-0.115593 -0.029596001 -0.263464
-0.115589 -0.029517001 -0.26347801
-0.115585 -0.029439 -0.26349199
-0.115581 -0.029359 -0.263504
-0.115578 -0.029281 -0.26351401
-0.115574 -0.029201999 -0.263524
-0.115571 -0.029126 -0.26352999
-0.115567 -0.029048 -0.26353899
-0.115563 -0.028968001 -0.26355499
-0.11556 -0.028890001 -0.263569
-0.115555 -0.028806999 -0.26359901
-0.115549 -0.028721999 -0.26364499
-0.115545 -0.028642001 -0.26366901
-0.115541 -0.028561 -0.263679
-0.115537 -0.028480999 -0.26370701
-0.11553 -0.028391 -0.26378101
-0.115523 -0.028302001 -0.263845
-0.115517 -0.028217001 -0.263895
-0.115972 -0.048714999 -0.26417801
-0.115973 -0.048641 -0.264108
-0.115972 -0.048567999 -0.264054
-0.115971 -0.048493002 -0.26401699
-0.11597 -0.048418 -0.26397699
-0.115969 -0.048345 -0.26393101
-0.115968 -0.048269998 -0.263895
-0.115966 -0.048195999 -0.263868
-0.115964 -0.048121002 -0.26385
-0.115962 -0.048044998 -0.26383001
-0.115961 -0.047970001 -0.2638
-0.115959 -0.047897 -0.26377299
-0.115957 -0.047821 -0.26375699
-0.115954 -0.047745001 -0.26374099
-0.115952 -0.047669999 -0.263731
-0.115949 -0.047594 -0.26372001
-0.115947 -0.04752 -0.263706
-0.115945 -0.047444999 -0.263686
-0.115943 -0.047369 -0.26367199
-0.11594 -0.047293 -0.26366901
-0.115937 -0.047217 -0.263661
-0.115935 -0.047143999 -0.26364699
-0.115932 -0.047068 -0.263639
-0.11593 -0.046992 -0.26363099
-0.115928 -0.046916999 -0.263612
-0.115925 -0.046843 -0.26359999
-0.115923 -0.046767 -0.263592
-0.11592 -0.046691999 -0.263576
-0.115918 -0.046615999 -0.263565
-0.115915 -0.04654 -0.26355901
-0.115912 -0.046466 -0.26355299
-0.11591 -0.046390001 -0.26354101
-0.115908 -0.046314999 -0.26352501
-0.115905 -0.046239 -0.26351199
-0.115903 -0.046163999 -0.26350001
-0.1159 -0.046089999 -0.26349601
-0.115897 -0.046014 -0.26349401
-0.115894 -0.045938 -0.263491
-0.115892 -0.045862 -0.26347899
-0.11589 -0.045786001 -0.26346499
-0.115887 -0.045713 -0.263455
-0.115884 -0.045637 -0.26345199
-0.115882 -0.045561001 -0.263446
-0.115879 -0.045485001 -0.26344001
-0.115876 -0.045409001 -0.263428
-0.115874 -0.045336001 -0.26341799
-0.115871 -0.045260001 -0.26341301
-0.115868 -0.045184001 -0.26340899
-0.115865 -0.045108002 -0.263405
-0.115863 -0.045031998 -0.263399
-0.11586 -0.044957999 -0.263392
-0.115858 -0.044883002 -0.26338401
-0.115855 -0.044806998 -0.26338401
-0.115851 -0.044730999 -0.26338601
-0.115848 -0.044654999 -0.26339
-0.115845 -0.044578999 -0.26339099
-0.115842 -0.044503 -0.26338699
-0.115839 -0.044427 -0.263383
-0.115837 -0.044351 -0.26337901
-0.115834 -0.044275001 -0.26337901
-0.11583 -0.044199001 -0.26338801
-0.115827 -0.044123001 -0.263394
-0.115824 -0.044047002 -0.26339799
-0.11582 -0.043970998 -0.26340199
-0.115817 -0.043892998 -0.263412
-0.115813 -0.043816999 -0.26341599
-0.115811 -0.043742999 -0.26341501
-0.115808 -0.043667 -0.26341099
-0.115805 -0.043591 -0.263403
-0.115802 -0.043515 -0.26339701
-0.115799 -0.043439001 -0.26340401
-0.115796 -0.043363001 -0.263414
-0.115792 -0.043285001 -0.26341799
-0.115789 -0.043210998 -0.263414
-0.115786 -0.043133002 -0.26341799
-0.115783 -0.043056998 -0.26342401
-0.11578 -0.042982999 -0.263421
-0.115777 -0.042907 -0.26341501
-0.115774 -0.042831 -0.26341301
-0.115772 -0.042755 -0.26340899
-0.115768 -0.042679001 -0.263414
-0.115765 -0.042603001 -0.26342401
-0.115762 -0.042525001 -0.26342401
-0.115759 -0.042451002 -0.26341799
-0.115756 -0.042373002 -0.263414
-0.115753 -0.042298999 -0.26341301
-0.11575 -0.042224001 -0.26340899
-0.115748 -0.042148001 -0.26339701
-0.115745 -0.042072002 -0.26339099
