# .PCD v0.7 - Point Cloud Data file format
VERSION 0.7
FIELDS x y z
SIZE 4 4 4
TYPE F F F
COUNT 1 1 1
WIDTH 1341
HEIGHT 1
VIEWPOINT 0 0 0 1 0 0 0
POINTS 1341
DATA ascii
-0.088904999 -0.24369182 -0.33685133
-0.0586145 -0.2436755 -0.33683801
-0.088909745 -0.2434985 -0.336851
-0.089077003 -0.243258 -0.33697301
-0.088916004 -0.2433065 -0.33682901
-0.058644 -0.243394 -0.336817
-0.089069501 -0.24315199 -0.33696401
-0.089050002 -0.24284001 -0.33686
-0.089036666 -0.24269867 -0.33688733
-0.089017667 -0.242487 -0.33691669
-0.089004003 -0.24234501 -0.33694199
-0.088993996 -0.24224 -0.33696198
-0.088881798 -0.2420862 -0.33688504
-0.088740252 -0.24186724 -0.33685973
-0.088694163 -0.24172585 -0.33689103
-0.088569336 -0.24168865 -0.33684301
-0.088642992 -0.24155934 -0.33697101
-0.088500857 -0.24152626 -0.33690128
-0.088399 -0.24139 -0.33690199
-0.061462998 -0.24135099 -0.33681199
-0.087692671 -0.24103002 -0.33681536
-0.087566003 -0.24101301 -0.33680299
-0.087735333 -0.24095066 -0.33692464
-0.087505341 -0.24091899 -0.33689916
-0.087307394 -0.240852 -0.33694038
-0.087141499 -0.24085675 -0.33688974
-0.086918592 -0.2408634 -0.33686739
-0.086673804 -0.2408874 -0.336882
-0.086496577 -0.24089 -0.33688071
-0.086302996 -0.24086767 -0.33692202
-0.086106002 -0.240841 -0.33687699
-0.085917503 -0.24081799 -0.336851
-0.084922001 -0.240806 -0.336804
-0.084743001 -0.240812 -0.33684999
-0.070816003 -0.240807 -0.33683601
-0.070727997 -0.240806 -0.33682799
-0.086930498 -0.24075851 -0.336959
-0.086139001 -0.24079999 -0.336992
-0.085859001 -0.24074499 -0.33693299
-0.084668003 -0.24071234 -0.33695698
-0.084487006 -0.24070287 -0.33690387
-0.0843191 -0.2406791 -0.33690852
-0.084125005 -0.24068399 -0.33687201
-0.083921 -0.2407155 -0.33683002
-0.083699502 -0.24065399 -0.33683997
-0.083437003 -0.240667 -0.336844
-0.083209001 -0.24068099 -0.33685899
-0.083085001 -0.240724 -0.33682352
-0.073109001 -0.240615 -0.33681399
-0.072844997 -0.240632 -0.336824
-0.0714752 -0.24067001 -0.33687401
-0.071310624 -0.24067412 -0.33685511
-0.071120501 -0.24067998 -0.33687827
-0.070915803 -0.24072161 -0.33686879
-0.070677504 -0.24073699 -0.33683601
-0.070551999 -0.24074 -0.336813
-0.073408 -0.24059901 -0.33682501
-0.085596003 -0.25203899 -0.33660701
-0.085702993 -0.25189599 -0.33663866
-0.087282248 -0.24967237 -0.33670714
-0.087171495 -0.24974251 -0.33662897
-0.087439001 -0.24944049 -0.33678198
-0.087325379 -0.24949962 -0.33665222
-0.087431997 -0.2492985 -0.33670998
-0.087369002 -0.249337 -0.33664399
-0.087480135 -0.24911115 -0.33668828
-0.087542199 -0.2489218 -0.3366822
-0.087700747 -0.24868926 -0.33670998
-0.087568998 -0.24876601 -0.336622
-0.087738335 -0.24847533 -0.33668435
-0.087812334 -0.24832767 -0.33676633
-0.0877285 -0.24830049 -0.33661401
-0.087854601 -0.2481008 -0.33672383
-0.087798998 -0.24804699 -0.33662099
-0.087918006 -0.24794765 -0.33673301
-0.088118002 -0.247536 -0.33660299
-0.088211998 -0.24725001 -0.336651
-0.088151 -0.24739499 -0.336606
-0.088261329 -0.24710733 -0.33665869
-0.088278994 -0.24693149 -0.336631
-0.088707998 -0.24504299 -0.33678201
-0.088698335 -0.24490301 -0.33675501
-0.088684656 -0.24469434 -0.33670166
-0.088668339 -0.24448466 -0.33668634
-0.0588165 -0.244499 -0.33660799
-0.088693395 -0.24428621 -0.33669478
-0.058807999 -0.24439301 -0.336606
-0.058725499 -0.24428549 -0.33669549
-0.088713996 -0.24410617 -0.33672366
-0.058695253 -0.24408901 -0.33671325
-0.088831335 -0.24390532 -0.33678234
-0.088708103 -0.24391845 -0.33671856
-0.058690622 -0.24390288 -0.33670989
-0.088815331 -0.24369633 -0.336761
-0.088703245 -0.24371664 -0.33670464
-0.0587085 -0.24368234 -0.33670652
-0.08883366 -0.24348502 -0.33676633
-0.088738129 -0.24348548 -0.33670613
-0.058696248 -0.243506 -0.33667302
-0.08885625 -0.24325775 -0.33672526
-0.088732772 -0.24328524 -0.33664232
-0.058709335 -0.243325 -0.33676198
-0.088864252 -0.24310026 -0.33672351
-0.08875867 -0.24311833 -0.33660969
-0.089064501 -0.242948 -0.33677301
-0.08885283 -0.24292584 -0.33668116
-0.088767998 -0.243 -0.336606
-0.088856004 -0.24273226 -0.33670798
-0.088793501 -0.2426835 -0.336642
-0.088856332 -0.24250333 -0.3367323
-0.088757008 -0.24249479 -0.3366338
-0.088836998 -0.24229133 -0.33675703
-0.08872129 -0.24228828 -0.33665499
-0.08868511 -0.24208644 -0.33670965
-0.088578336 -0.24209966 -0.33665299
-0.088647999 -0.24189834 -0.33675849
-0.088516004 -0.24187541 -0.33668339
-0.059411 -0.241952 -0.33662999
-0.088460252 -0.241695 -0.33674499
-0.059916001 -0.241714 -0.33662251
-0.059771001 -0.241716 -0.33672801
-0.088101 -0.241493 -0.33664098
-0.062151 -0.241465 -0.336604
-0.061958 -0.241402 -0.336658
-0.061686002 -0.24143475 -0.33665526
-0.061508 -0.24143049 -0.336604
-0.061269332 -0.24144101 -0.336629
-0.061136 -0.24145199 -0.33661199
-0.088082999 -0.241348 -0.336739
-0.087812334 -0.24129067 -0.33664298
-0.087716997 -0.241227 -0.33660999
-0.064677998 -0.24133301 -0.336656
-0.064467996 -0.2413415 -0.33665201
-0.064332999 -0.24132633 -0.33667251
-0.064109504 -0.2413635 -0.336642
-0.063910007 -0.24134433 -0.33664832
-0.063693501 -0.2413075 -0.33669701
-0.063418001 -0.24131399 -0.33672699
-0.063271001 -0.241331 -0.336694
-0.061872002 -0.241395 -0.33673999
-0.061423998 -0.241346 -0.336779
-0.061284751 -0.24136376 -0.33671448
-0.087690398 -0.2411246 -0.33670941
-0.087499343 -0.24108768 -0.33669975
-0.087306 -0.24105325 -0.33666578
-0.087073505 -0.2410505 -0.33665049
-0.086887501 -0.2410595 -0.33663052
-0.086692497 -0.241034 -0.3366465
-0.086501002 -0.24101168 -0.33668998
-0.086331666 -0.24102001 -0.33667636
-0.086136505 -0.24102899 -0.33664501
-0.087303996 -0.240959 -0.33677775
-0.087061003 -0.2409755 -0.3367525
-0.086856663 -0.24096133 -0.33675098
-0.086712494 -0.2409935 -0.33669299
-0.086317994 -0.24094467 -0.33678469
-0.086107671 -0.24093001 -0.33674034
-0.085937999 -0.24093176 -0.33668548
-0.085031003 -0.240879 -0.33664599
-0.08487767 -0.24086066 -0.33668336
-0.08469075 -0.24088949 -0.33671772
-0.084522404 -0.24084182 -0.33669838
-0.084318995 -0.24084766 -0.33668831
-0.084140494 -0.240861 -0.336642
-0.083901338 -0.24084501 -0.33662868
-0.083679006 -0.24080551 -0.33663249
-0.083518326 -0.24081433 -0.33663765
-0.072204001 -0.240821 -0.336604
-0.071481712 -0.24088398 -0.33665541
-0.071312666 -0.240862 -0.33667031
-0.071092002 -0.2408952 -0.33666897
-0.070877247 -0.24091625 -0.33668098
-0.070689201 -0.2408988 -0.336725
-0.070511438 -0.24089013 -0.33671269
-0.070319399 -0.2408834 -0.33667597
-0.084244996 -0.240776 -0.33678299
-0.084126994 -0.24078399 -0.336748
-0.083934002 -0.24079201 -0.33671901
-0.083708338 -0.24072833 -0.33676496
-0.083480246 -0.24074276 -0.33672577
-0.08331725 -0.24073951 -0.33671373
-0.083049998 -0.240768 -0.33671701
-0.082906745 -0.24073726 -0.3366985
-0.082745507 -0.24070901 -0.33671272
-0.082503431 -0.24068773 -0.33671787
-0.082377002 -0.24069801 -0.33665001
-0.082101665 -0.24071966 -0.33665898
-0.081855334 -0.24073035 -0.33667099
-0.081686497 -0.2406905 -0.336714
-0.0814576 -0.2407506 -0.33665919
-0.081303664 -0.24071901 -0.33665499
-0.081076004 -0.24072701 -0.33665699
-0.080856502 -0.24073499 -0.33662701
-0.080724999 -0.24073701 -0.336606
-0.074051999 -0.240716 -0.33660701
-0.073959999 -0.240725 -0.33661899
-0.073502749 -0.24070439 -0.3366906
-0.073302276 -0.24069318 -0.33669838
-0.073102005 -0.24067941 -0.33671123
-0.072860003 -0.24071001 -0.33669201
-0.072685331 -0.24071734 -0.33668831
-0.07247328 -0.24070957 -0.33669028
-0.072383001 -0.240749 -0.33661601
-0.071478494 -0.24077725 -0.33675504
-0.071301997 -0.24078865 -0.33673897
-0.071093 -0.24079132 -0.33677635
-0.070464998 -0.24074599 -0.336779
-0.073544502 -0.2405905 -0.33674699
-0.079635002 -0.25601301 -0.33643001
-0.079478994 -0.25609699 -0.3364785
-0.079369999 -0.25612849 -0.33643451
-0.081662998 -0.25506601 -0.336429
-0.081499003 -0.255144 -0.336404
-0.083434999 -0.254062 -0.336463
-0.083378002 -0.25406101 -0.33641201
-0.083635665 -0.25389835 -0.33646634
-0.083548993 -0.25394803 -0.33646679
-0.083855495 -0.2536445 -0.33642799
-0.083773002 -0.25375399 -0.336409
-0.085472167 -0.25207701 -0.33651033
-0.085350752 -0.25212628 -0.33643949
-0.085674003 -0.25182599 -0.336532
-0.085528292 -0.25192732 -0.3364653
-0.085834503 -0.251643 -0.33653498
-0.085735753 -0.25169802 -0.33646551
-0.085856669 -0.25148734 -0.33646902
-0.085867494 -0.25139201 -0.33641699
-0.087111004 -0.2496825 -0.3364948
-0.087234251 -0.2494555 -0.33655852
-0.087142006 -0.24950962 -0.33645678
-0.087295502 -0.24928485 -0.33652818
-0.087177597 -0.24929841 -0.33644801
-0.087323003 -0.24912915 -0.33648729
-0.087187998 -0.249143 -0.33640599
-0.087432005 -0.24889499 -0.33653027
-0.087348334 -0.24891567 -0.33643499
-0.087649003 -0.248623 -0.33659199
-0.087498508 -0.24869865 -0.33648863
-0.087639667 -0.24848233 -0.33656064
-0.087535247 -0.24850376 -0.33646476
-0.087626673 -0.248272 -0.33649167
-0.087543502 -0.24831 -0.336431
-0.087677598 -0.24811399 -0.33650118
-0.087752499 -0.24792901 -0.33647925
-0.088018 -0.2476525 -0.33656999
-0.08791472 -0.24769212 -0.33646315
-0.088048004 -0.24747472 -0.33652642
-0.087958999 -0.24755099 -0.336445
-0.088091128 -0.24731225 -0.3364909
-0.088203505 -0.2470755 -0.336564
-0.088097751 -0.24712738 -0.33645514
-0.088271998 -0.24682599 -0.336597
-0.088157333 -0.24690367 -0.33646849
-0.088263333 -0.24668734 -0.33655897
-0.088180006 -0.24669266 -0.33643469
-0.088250339 -0.24647766 -0.336494
-0.088167503 -0.246519 -0.33640748
-0.088239998 -0.2463045 -0.33643502
-0.059149999 -0.245059 -0.33643597
-0.059039 -0.24488999 -0.33648932
-0.058933001 -0.244817 -0.336577
-0.088380337 -0.24472065 -0.33644
-0.059024334 -0.24467967 -0.33644602
-0.058886401 -0.24466321 -0.33655959
-0.088367999 -0.24454701 -0.336413
-0.059012 -0.244504 -0.33641499
-0.058913 -0.24450201 -0.33648801
-0.088342004 -0.244233 -0.33640799
-0.059004001 -0.244399 -0.336402
-0.05887375 -0.24432451 -0.33652624
-0.058798 -0.244252 -0.33657601
-0.058881 -0.24411333 -0.33648899
-0.058786672 -0.24411166 -0.33657202
-0.058868997 -0.243938 -0.33645099
-0.058763001 -0.243828 -0.33656999
-0.088605002 -0.243646 -0.33659199
-0.088601001 -0.243578 -0.33657801
-0.088594496 -0.2434735 -0.33654001
-0.088585339 -0.24330099 -0.33646497
-0.088686399 -0.24306719 -0.33656541
-0.088569336 -0.243091 -0.33643666
-0.058798 -0.243056 -0.33641601
-0.088698708 -0.242889 -0.33654788
-0.088554658 -0.24288301 -0.33640566
-0.058875501 -0.24287701 -0.33644801
-0.058781002 -0.24297699 -0.336586
-0.088699132 -0.24271801 -0.33655226
-0.088536672 -0.24267299 -0.33641168
-0.08865957 -0.24252912 -0.33656126
-0.088519499 -0.242496 -0.336456
-0.088632002 -0.24234448 -0.3365685
-0.088524744 -0.24230075 -0.3365255
-0.088481002 -0.24210733 -0.33655569
-0.088163003 -0.242063 -0.336418
-0.088466004 -0.241965 -0.336597
-0.088147998 -0.24192101 -0.33645764
-0.059709597 -0.24186258 -0.33647722
-0.059518997 -0.24195732 -0.33646265
-0.088124 -0.24170665 -0.33655167
-0.087857999 -0.24168649 -0.33643699
-0.061161999 -0.241604 -0.33640701
-0.060975999 -0.241607 -0.33640099
-0.0601115 -0.24171749 -0.33645248
-0.059889 -0.241799 -0.33642
-0.087840669 -0.24150801 -0.33648363
-0.087704837 -0.24149416 -0.33644137
-0.087577 -0.24146 -0.33640599
-0.064836003 -0.241402 -0.33646601
-0.064696997 -0.24141401 -0.336465
-0.064493999 -0.24142423 -0.33645651
-0.064307667 -0.24143332 -0.33650133
-0.064125001 -0.241441 -0.336501
-0.063878752 -0.24146925 -0.33647901
-0.063692003 -0.24148767 -0.336449
-0.063478246 -0.24147099 -0.33643273
-0.063289165 -0.24144532 -0.3365165
-0.063103199 -0.2414768 -0.33651361
-0.062988997 -0.241495 -0.33646199
-0.062408999 -0.24154 -0.33641201
-0.062243 -0.24154299 -0.336436
-0.062102001 -0.241522 -0.33647934
-0.061889663 -0.241506 -0.33649066
-0.06168225 -0.24153049 -0.336514
-0.061486576 -0.241528 -0.33648643
-0.06132371 -0.24152586 -0.33650714
-0.06107533 -0.24150334 -0.33653867
-0.060961001 -0.241529 -0.33651799
-0.08766371 -0.24132429 -0.33652839
-0.087511897 -0.24131081 -0.33647782
-0.087338008 -0.2412848 -0.3364386
-0.087045997 -0.24120399 -0.33645001
-0.086956002 -0.241207 -0.336445
-0.086688504 -0.2412235 -0.33640897
-0.086594999 -0.24123199 -0.336409
-0.067460001 -0.2412045 -0.336429
-0.067327499 -0.241211 -0.33646452
-0.067113504 -0.2412535 -0.3364515
-0.066935003 -0.241255 -0.33647999
-0.066679999 -0.24130134 -0.336449
-0.066479996 -0.24131368 -0.33645833
-0.066384003 -0.241319 -0.336458
-0.064929001 -0.241395 -0.33647999
-0.064567998 -0.24134199 -0.33658901
-0.063706331 -0.24138467 -0.33657166
-0.063488334 -0.24139233 -0.33655965
-0.063391 -0.24139901 -0.336555
-0.087453499 -0.24117601 -0.33658201
-0.087292202 -0.2411546 -0.33655259
-0.087107994 -0.24115033 -0.33652601
-0.086904004 -0.24113801 -0.33647752
-0.086691804 -0.241117 -0.3365216
-0.086495504 -0.24112612 -0.33650839
-0.086297803 -0.24114561 -0.33649001
-0.086088203 -0.24111 -0.33648938
-0.0858685 -0.24105 -0.336494
-0.072235003 -0.241043 -0.33640999
-0.071889997 -0.241054 -0.33644801
-0.071610004 -0.24107 -0.33644199
-0.071468286 -0.24108987 -0.33645073
-0.071296856 -0.24104628 -0.33647844
-0.071092248 -0.24105351 -0.33648348
-0.0709005 -0.2410665 -0.33651051
-0.070705004 -0.24108259 -0.33646122
-0.070527196 -0.24107 -0.33651263
-0.070338406 -0.2410938 -0.33645159
-0.070133999 -0.241074 -0.33645099
-0.069957003 -0.241079 -0.33644199
-0.069476664 -0.24102934 -0.33646068
-0.069329329 -0.24104567 -0.33644
-0.069117501 -0.24108401 -0.3364585
-0.068943001 -0.24112 -0.33643401
-0.068767004 -0.24113201 -0.33643299
-0.068497598 -0.24112959 -0.3364566
-0.068286248 -0.24113825 -0.33647674
-0.068081498 -0.2411665 -0.33642602
-0.067892 -0.241175 -0.33644801
-0.067719996 -0.2411855 -0.33643401
-0.067560002 -0.24119151 -0.33644
-0.067330003 -0.2412 -0.33651799
-0.085812002 -0.24097601 -0.336586
-0.085040003 -0.240951 -0.33659899
-0.084911503 -0.240963 -0.33650899
-0.084695503 -0.240971 -0.33650851
-0.08449883 -0.2409475 -0.33650669
-0.08433833 -0.24092765 -0.33649933
-0.084103666 -0.24093835 -0.336519
-0.083862334 -0.24092734 -0.33645335
-0.083700001 -0.240888 -0.33642548
-0.083423004 -0.24087 -0.33653998
-0.08331383 -0.24087332 -0.33650684
-0.083114497 -0.24084499 -0.33653349
-0.082927503 -0.24085149 -0.3365255
-0.082707338 -0.24086434 -0.336483
-0.082477793 -0.24086158 -0.33646759
-0.082294859 -0.24084857 -0.33648914
-0.082076997 -0.240822 -0.33650601
-0.081888005 -0.24083149 -0.336514
-0.081716999 -0.24084499 -0.33644998
-0.081094675 -0.24080567 -0.33646798
-0.080872998 -0.240813 -0.33647102
-0.080713667 -0.24084234 -0.33645436
-0.080536336 -0.24083667 -0.33641466
-0.080282494 -0.24085151 -0.3364225
-0.080122001 -0.2408575 -0.33645749
-0.079887502 -0.24089625 -0.336458
-0.079720996 -0.240944 -0.33641201
-0.078521498 -0.2409265 -0.33642
-0.078390002 -0.240936 -0.33643499
-0.078155994 -0.2409465 -0.33642697
-0.077498749 -0.24090475 -0.33648676
-0.077339999 -0.240915 -0.33646449
-0.077115498 -0.2409265 -0.33644301
-0.076981001 -0.240933 -0.336409
-0.076312751 -0.24089649 -0.336427
-0.076036997 -0.240915 -0.336413
-0.075902998 -0.2408815 -0.3364225
-0.075675003 -0.240858 -0.33643299
-0.074726 -0.240832 -0.33640799
-0.074166 -0.24086399 -0.336422
-0.073918998 -0.24085332 -0.33646902
-0.073615 -0.240851 -0.3364895
-0.073484287 -0.24086429 -0.33650956
-0.073310852 -0.24087043 -0.33649486
-0.073108502 -0.2408835 -0.33648127
-0.072890997 -0.240899 -0.33646297
-0.0727145 -0.240905 -0.33647799
-0.072469994 -0.24089989 -0.33650878
-0.072278328 -0.24089634 -0.33651233
-0.071874499 -0.2409445 -0.336546
-0.071601003 -0.240998 -0.336492
-0.07153333 -0.24097367 -0.33655334
-0.071293749 -0.24093899 -0.33658549
-0.070321999 -0.24098866 -0.3365837
-0.070120998 -0.240998 -0.33655
-0.082649998 -0.24079201 -0.33658499
-0.082522497 -0.240795 -0.33655751
-0.082295254 -0.24070899 -0.33656773
-0.082016997 -0.240749 -0.336593
-0.081703 -0.24076849 -0.33657151
-0.081600003 -0.24077301 -0.33654201
-0.081316002 -0.240795 -0.33656332
-0.080994003 -0.240729 -0.33656901
-0.080637001 -0.24074399 -0.336586
-0.080493003 -0.24076174 -0.33655024
-0.080265 -0.24077201 -0.336586
-0.080109507 -0.2407815 -0.33655101
-0.074488997 -0.24077868 -0.33640698
-0.074281201 -0.24075881 -0.3364808
-0.074122995 -0.240768 -0.33649966
-0.073920503 -0.2407655 -0.3365725
-0.073048003 -0.24077301 -0.33658901
-0.072872996 -0.240787 -0.33658299
-0.079480499 -0.25602102 -0.33636498
-0.079308748 -0.25607225 -0.33632675
-0.079095006 -0.25606501 -0.33621299
-0.079672001 -0.25588402 -0.33625865
-0.079476498 -0.25591174 -0.336285
-0.079365 -0.25594401 -0.336265
-0.068682 -0.25562701 -0.33632669
-0.06859 -0.25563401 -0.336294
-0.068874002 -0.25554001 -0.33621499
-0.068707749 -0.25555027 -0.33624351
-0.068514004 -0.25553641 -0.3362686
-0.068315603 -0.2554628 -0.33629319
-0.081275001 -0.25521699 -0.33627701
-0.081177004 -0.25521001 -0.33620799
-0.068205997 -0.255364 -0.336243
-0.068078332 -0.25532466 -0.33629099
-0.081601501 -0.25503802 -0.336326
-0.081447497 -0.25507575 -0.33629924
-0.081315503 -0.25514901 -0.3362515
-0.082004003 -0.254895 -0.33629099
-0.081853993 -0.25492665 -0.336339
-0.081700861 -0.25493616 -0.33631068
-0.081549503 -0.254962 -0.33621699
-0.083273247 -0.25409523 -0.336326
-0.065646 -0.254098 -0.336225
-0.065529004 -0.25412026 -0.33620802
-0.065370001 -0.254044 -0.33624801
-0.083484866 -0.25387928 -0.33632687
-0.083346397 -0.25392944 -0.33627719
-0.065290749 -0.25392628 -0.33623677
-0.083688371 -0.25367299 -0.33629328
-0.083544396 -0.2537306 -0.33626118
-0.084028997 -0.253454 -0.336317
-0.083908327 -0.25350931 -0.33634034
-0.083695002 -0.253539 -0.336216
-0.085216001 -0.25220501 -0.336362
-0.08526317 -0.25210616 -0.33632967
-0.085454211 -0.25185639 -0.33633
-0.085336663 -0.25193599 -0.33627519
-0.085670501 -0.25164652 -0.336355
-0.085516378 -0.25170875 -0.33623976
-0.085705251 -0.25150299 -0.33633548
-0.08591 -0.25131699 -0.33637699
-0.085702002 -0.25139701 -0.33625349
-0.087068997 -0.249479 -0.33636051
-0.086989 -0.24943499 -0.33622101
-0.087088004 -0.2492992 -0.33632579
-0.087246001 -0.249066 -0.336357
-0.087156802 -0.2490602 -0.33630538
-0.087270342 -0.24892335 -0.33632115
-0.087152749 -0.248899 -0.33624828
-0.087403998 -0.24870101 -0.33638901
-0.087296501 -0.24870238 -0.33627704
-0.0871685 -0.2487575 -0.336216
-0.060665999 -0.24878401 -0.33620301
-0.0874715 -0.248455 -0.33636498
-0.087359332 -0.24849384 -0.33626914
-0.060548998 -0.248504 -0.33623901
-0.087478749 -0.24826126 -0.33634475
-0.087379001 -0.248282 -0.33624399
-0.087488994 -0.24810301 -0.33632526
-0.087370001 -0.248143 -0.336202
-0.087635495 -0.24790373 -0.33630374
-0.087498337 -0.24797332 -0.33624831
-0.087857001 -0.24762399 -0.336373
-0.087745994 -0.24770182 -0.33628604
-0.087897249 -0.24747463 -0.33634314
-0.087780997 -0.2475245 -0.33623099
-0.087903097 -0.24727328 -0.33628169
-0.088040002 -0.24705601 -0.33639801
-0.087942719 -0.24711201 -0.33629531
-0.088052407 -0.24692699 -0.33636001
-0.087915502 -0.24693236 -0.3362495
-0.088067994 -0.24669175 -0.33635616
-0.087948747 -0.24673 -0.33624101
-0.088067546 -0.24649055 -0.33631259
-0.087965667 -0.24650167 -0.33622432
-0.088089436 -0.24627835 -0.33629358
-0.087988667 -0.246289 -0.33621433
-0.088227995 -0.24612899 -0.33639669
-0.088066511 -0.24607863 -0.33626461
-0.087974995 -0.246116 -0.336207
-0.059586 -0.24600101 -0.33633101
-0.088212006 -0.24591999 -0.33637199
-0.088096 -0.24591438 -0.33627421
-0.059578501 -0.245896 -0.33631399
-0.088202 -0.245781 -0.336355
-0.088115431 -0.24571729 -0.33626318
-0.088 -0.245794 -0.336202
-0.059571497 -0.245757 -0.336243
-0.088139169 -0.2455055 -0.33626246
-0.0881235 -0.24529631 -0.33624053
-0.059257001 -0.245235 -0.33635399
-0.088116392 -0.24509959 -0.3362388
-0.059249997 -0.24509501 -0.33629265
-0.088134341 -0.244874 -0.3362453
-0.059234668 -0.24488501 -0.33626667
-0.05914 -0.24488366 -0.33637032
-0.088120505 -0.2447 -0.33623001
-0.059217665 -0.24467367 -0.33625498
-0.059126332 -0.24467432 -0.33630967
-0.088361003 -0.244443 -0.33639199
-0.088106334 -0.24452533 -0.33622932
-0.059202999 -0.24449649 -0.336252
-0.059110001 -0.244497 -0.33634099
-0.088352501 -0.24433801 -0.33638099
-0.088096 -0.244386 -0.33621001
-0.059134334 -0.24436933 -0.33624968
-0.058995999 -0.244293 -0.3363905
-0.088331997 -0.24409367 -0.33638731
-0.088075995 -0.244142 -0.33621201
-0.059087001 -0.244113 -0.336202
-0.058985997 -0.24411799 -0.33632433
-0.088317335 -0.243885 -0.33635235
-0.058946751 -0.24389075 -0.33627778
-0.08830601 -0.24367799 -0.33626166
-0.058908999 -0.24369831 -0.33625785
-0.088293999 -0.243504 -0.33622101
-0.058888167 -0.24348466 -0.33629751
-0.088285998 -0.24339999 -0.336211
-0.058872502 -0.24327368 -0.33627486
-0.059006501 -0.2431595 -0.33623201
-0.058904249 -0.24309376 -0.33627975
-0.059073333 -0.24290967 -0.33623067
-0.058959 -0.2429285 -0.33630875
-0.08822801 -0.24270065 -0.33621669
-0.059052501 -0.2427295 -0.33631802
-0.088207997 -0.24248934 -0.33626068
-0.059300665 -0.24247567 -0.33624232
-0.088185005 -0.242276 -0.33634534
-0.087918498 -0.24225551 -0.33623201
-0.059608001 -0.24225099 -0.33622101
-0.0595016 -0.24228179 -0.33624598
-0.059280001 -0.24229449 -0.33633399
-0.088170998 -0.242134 -0.336384
-0.087855496 -0.24208017 -0.33627465
-0.087709405 -0.24207599 -0.336225
-0.0596884 -0.2420876 -0.3362712
-0.059516668 -0.24210751 -0.3363173
-0.059269499 -0.24215451 -0.33631301
-0.087882504 -0.2419005 -0.33634099
-0.087692998 -0.24188566 -0.3362712
-0.087517753 -0.24183975 -0.33622873
-0.06005 -0.24190751 -0.3362405
-0.059887804 -0.24190441 -0.33630258
-0.059634 -0.241956 -0.3364
-0.087870002 -0.24179401 -0.33639601
-0.087693997 -0.24171247 -0.33632299
-0.087505549 -0.24166523 -0.3362709
-0.087374002 -0.241652 -0.33621699
-0.06487 -0.24162599 -0.336238
-0.064731501 -0.24163949 -0.336218
-0.064474501 -0.241652 -0.33620548
-0.063701004 -0.241616 -0.33625451
-0.063501254 -0.24162149 -0.33627427
-0.063320331 -0.24163432 -0.33628201
-0.0630842 -0.24167462 -0.33627921
-0.062830999 -0.241659 -0.33622599
-0.062506005 -0.2416795 -0.33627498
-0.0622872 -0.241679 -0.33629459
-0.062114596 -0.2416704 -0.336285
-0.061912667 -0.24163467 -0.33630565
-0.061682001 -0.24165049 -0.33631349
-0.061490715 -0.24169086 -0.33629373
-0.0612996 -0.24169879 -0.33631903
-0.061111599 -0.24169359 -0.33633119
-0.060931999 -0.24171035 -0.33629236
-0.0602815 -0.24175574 -0.33628225
-0.060129501 -0.241797 -0.33627999
-0.059989002 -0.241798 -0.336335
-0.087655336 -0.24157 -0.33636668
-0.087484851 -0.24150743 -0.33634901
-0.087308995 -0.24149041 -0.33629861
-0.087133996 -0.24145649 -0.3362425
-0.086961992 -0.24145401 -0.33621368
-0.070859507 -0.241402 -0.33623749
-0.066875003 -0.241451 -0.33621499
-0.066630997 -0.241456 -0.336234
-0.066492505 -0.24149066 -0.33625033
-0.066041 -0.241497 -0.33620799
-0.065717332 -0.24152565 -0.33623767
-0.065132 -0.241538 -0.33627799
-0.064900003 -0.24151075 -0.33635351
-0.064695194 -0.24153738 -0.33629981
-0.064500146 -0.24153359 -0.33629999
-0.064329334 -0.241549 -0.33631369
-0.064100675 -0.241558 -0.33631802
-0.063911997 -0.24152599 -0.33639401
-0.063642003 -0.241539 -0.33639899
-0.063488998 -0.24154626 -0.336366
-0.063310333 -0.24156134 -0.33634165
-0.063083999 -0.241569 -0.33638698
-0.062569 -0.241596 -0.336371
-0.062305 -0.241547 -0.33638999
-0.061949 -0.24155751 -0.33637899
-0.061468001 -0.24157999 -0.3364
-0.061239999 -0.24159899 -0.33638999
-0.087402999 -0.24139901 -0.336373
-0.087301999 -0.2413675 -0.33637452
-0.087115251 -0.24131151 -0.33634299
-0.086899824 -0.24131115 -0.33631501
-0.086706251 -0.24131724 -0.33626601
-0.086503007 -0.24129441 -0.33628702
-0.086322799 -0.24128199 -0.33627999
-0.086088002 -0.24126199 -0.33626848
-0.085901499 -0.2412385 -0.33622402
-0.072757997 -0.241237 -0.33623001
-0.072518252 -0.24125351 -0.33622777
-0.072263002 -0.241263 -0.336261
-0.071916498 -0.2412405 -0.33628452
-0.071637005 -0.241257 -0.3362585
-0.071492821 -0.24129434 -0.33628523
-0.07131166 -0.24127282 -0.33628967
-0.071126841 -0.24131131 -0.33627832
-0.070920326 -0.24131282 -0.33629417
-0.070699401 -0.2412916 -0.3362816
-0.070501827 -0.24128352 -0.33628464
-0.070335001 -0.24125424 -0.33629853
-0.070159003 -0.241258 -0.33630198
-0.069977999 -0.241228 -0.33629599
-0.069666497 -0.241246 -0.33623701
-0.069560997 -0.241249 -0.33621001
-0.069293998 -0.2412345 -0.336234
-0.068871997 -0.24120501 -0.33628899
-0.068695329 -0.24121433 -0.33628467
-0.068491995 -0.24122368 -0.33631468
-0.068318494 -0.241236 -0.33629024
-0.068102002 -0.241283 -0.33626151
-0.06791275 -0.24128975 -0.3362745
-0.0676964 -0.24129319 -0.33627722
-0.067478754 -0.24131662 -0.33628389
-0.067286491 -0.24132665 -0.33629617
-0.067102335 -0.24134333 -0.33631501
-0.066890337 -0.24134867 -0.33633134
-0.066695996 -0.24137966 -0.336303
-0.066493005 -0.24139033 -0.33635435
-0.066398002 -0.241395 -0.336344
-0.086029999 -0.241193 -0.336328
-0.085902669 -0.24115133 -0.33633101
-0.085693002 -0.24114799 -0.33623701
-0.085268997 -0.2411 -0.33625501
-0.085122257 -0.24106899 -0.33629322
-0.084909402 -0.2410882 -0.33628923
-0.084715664 -0.24105267 -0.33627138
-0.084496997 -0.24106576 -0.33629799
-0.084296428 -0.24106172 -0.33630759
-0.084095605 -0.24107841 -0.33626521
-0.083897002 -0.24103001 -0.336272
-0.083764002 -0.241035 -0.33623901
-0.083563998 -0.241046 -0.33621699
-0.083050996 -0.2410025 -0.3362675
-0.082883663 -0.241033 -0.33625498
-0.082677327 -0.24104233 -0.33627298
-0.08251188 -0.24106099 -0.33626539
-0.082342997 -0.24104151 -0.33625951
-0.080488503 -0.24106699 -0.33620548
-0.080273002 -0.241006 -0.336225
-0.080196001 -0.241016 -0.33621201
-0.079821996 -0.241016 -0.33629
-0.079691499 -0.2410225 -0.33629048
-0.079579003 -0.241028 -0.336254
-0.078711331 -0.24106699 -0.3362467
-0.078496337 -0.24104267 -0.33627653
-0.078261666 -0.24104799 -0.33627534
-0.0780885 -0.241023 -0.336294
-0.077849999 -0.241041 -0.33627
-0.077085666 -0.24102867 -0.33632031
-0.076873332 -0.24103801 -0.33628902
-0.076639503 -0.24106151 -0.33624101
-0.076476671 -0.241036 -0.33621934
-0.076371998 -0.241044 -0.33621299
-0.074331008 -0.24101199 -0.33621335
-0.074098669 -0.24102001 -0.336265
-0.073913999 -0.241028 -0.33628899
-0.073649503 -0.2410745 -0.336245
-0.073508255 -0.24108601 -0.33625686
-0.073332496 -0.24110202 -0.33623233
-0.073139995 -0.24110524 -0.33627549
-0.072914667 -0.24108267 -0.33632335
-0.072739333 -0.24108966 -0.33633199
-0.072499 -0.24110626 -0.33633542
-0.072250001 -0.24115449 -0.3363235
-0.071901001 -0.24112999 -0.33637401
-0.071620002 -0.241145 -0.336386
-0.071482003 -0.24115551 -0.33638901
-0.071296997 -0.24116333 -0.33637235
-0.071108997 -0.24116549 -0.3363705
-0.0709185 -0.24117899 -0.33638099
-0.070703007 -0.24118666 -0.33636269
-0.070527494 -0.241191 -0.33638102
-0.070350997 -0.241142 -0.3364
-0.070142999 -0.241147 -0.33639699
-0.069966003 -0.241153 -0.336384
-0.069650002 -0.241134 -0.33635151
-0.069482572 -0.24115045 -0.33630782
-0.069294833 -0.24114418 -0.3363103
-0.069075003 -0.24117367 -0.33630201
-0.068908006 -0.241163 -0.33634999
-0.068681002 -0.24113899 -0.336395
-0.068382002 -0.241156 -0.33639801
-0.084408998 -0.241 -0.33639601
-0.083676003 -0.240963 -0.33634165
-0.083504856 -0.24094643 -0.33630639
-0.083342999 -0.240989 -0.336279
-0.083149664 -0.24094801 -0.33634797
-0.082901001 -0.240934 -0.336344
-0.082675003 -0.240942 -0.33638799
-0.082496248 -0.24095026 -0.33636874
-0.082298674 -0.24096934 -0.33631501
-0.082099497 -0.24093801 -0.33631
-0.081908002 -0.2409125 -0.33630902
-0.08168 -0.24090751 -0.33628801
-0.081504673 -0.24086867 -0.33627
-0.081276998 -0.24088401 -0.3362155
-0.081058003 -0.24091034 -0.33626899
-0.080896243 -0.24093002 -0.33626425
-0.080677502 -0.240953 -0.33629626
-0.080503128 -0.24093574 -0.33630612
-0.080311663 -0.24095066 -0.33628264
-0.080136999 -0.24093449 -0.33632249
-0.079985999 -0.240925 -0.33637801
-0.0786575 -0.240996 -0.33632401
-0.078268997 -0.24094699 -0.336395
-0.078033999 -0.240949 -0.336393
-0.077835999 -0.24096499 -0.336386
-0.077664003 -0.240973 -0.336357
-0.077511996 -0.24098074 -0.33638373
-0.07732033 -0.24099332 -0.33636966
-0.076710999 -0.2409455 -0.33634949
-0.076463997 -0.24096 -0.33631864
-0.076299667 -0.24097599 -0.33629468
-0.07610967 -0.24096334 -0.33632168
-0.075903326 -0.24096934 -0.33631432
-0.075716749 -0.24095 -0.33630574
-0.07550367 -0.24095233 -0.33629501
-0.075334504 -0.2409645 -0.3362785
-0.075010002 -0.24090201 -0.33626601
-0.074830994 -0.2408675 -0.33628649
-0.074649498 -0.24088201 -0.33626699
-0.074497752 -0.24089313 -0.3362655
-0.074316166 -0.24090201 -0.33630201
-0.074114673 -0.24091767 -0.33635533
-0.073948503 -0.240951 -0.3363705
-0.073634997 -0.24096499 -0.33632901
-0.073492005 -0.24097399 -0.33636427
-0.07331533 -0.24098967 -0.33635464
-0.073124498 -0.24099451 -0.33637601
-0.074633002 -0.240771 -0.33638299
-0.074453004 -0.240787 -0.33636299
-0.077249996 -0.25640601 -0.336079
-0.077166997 -0.25640601 -0.33604801
-0.072700001 -0.2564742 -0.33610779
-0.07254333 -0.25648901 -0.33603731
-0.077704996 -0.256372 -0.336014
-0.077592 -0.256385 -0.33604899
-0.078865752 -0.25608677 -0.33608925
-0.078700751 -0.25615424 -0.33610475
-0.078567497 -0.25619149 -0.33602649
-0.079795003 -0.25584701 -0.33615199
-0.079438999 -0.25580201 -0.33618101
-0.079311006 -0.25589535 -0.33617735
-0.079088502 -0.25592101 -0.336126
-0.079850003 -0.25577199 -0.33613801
-0.079743601 -0.25574538 -0.33604297
-0.079512 -0.25579801 -0.33613899
-0.079322502 -0.25579649 -0.33609501
-0.068690829 -0.25545284 -0.33611965
-0.068540752 -0.25543427 -0.33612901
-0.081047505 -0.25522351 -0.336133
-0.068727002 -0.25539699 -0.33607
-0.068458997 -0.25535199 -0.336106
-0.068316199 -0.25531358 -0.33609822
-0.068070501 -0.25522149 -0.3360385
-0.067925997 -0.25523299 -0.33616599
-0.081329666 -0.255052 -0.33614632
-0.081146665 -0.25511536 -0.33607697
-0.067850001 -0.255155 -0.336041
-0.067777 -0.25515899 -0.33600801
-0.082048997 -0.2548185 -0.33617401
-0.081873499 -0.25482351 -0.33614248
-0.081758 -0.25483099 -0.33612001
-0.081509002 -0.25490201 -0.33613467
-0.081314996 -0.25496298 -0.33603448
-0.082108796 -0.25471339 -0.33608001
-0.081919998 -0.25474399 -0.336023
-0.066706501 -0.2545495 -0.33602101
-0.065922 -0.25421199 -0.336045
-0.083099 -0.25409275 -0.336146
-0.082974002 -0.25413501 -0.33605999
-0.065820001 -0.25415301 -0.33605
-0.065682001 -0.25406098 -0.3361595
-0.065501831 -0.25406918 -0.33618531
-0.083249502 -0.25389501 -0.33613127
-0.083109997 -0.25395998 -0.33605766
-0.065485708 -0.2539323 -0.33610258
-0.065339334 -0.25385532 -0.33613071
-0.083479568 -0.25366199 -0.33613703
-0.083321832 -0.25372168 -0.33607683
-0.065235339 -0.25374335 -0.33609602
-0.065118 -0.253627 -0.336068
-0.083857998 -0.25345901 -0.33614799
-0.08371833 -0.25348663 -0.336068
-0.083528005 -0.25354433 -0.33610868
-0.084076501 -0.253308 -0.33612251
-0.083914332 -0.25335968 -0.33606133
-0.064820997 -0.25336 -0.33604899
-0.064658999 -0.25327703 -0.33611
-0.064493001 -0.2532545 -0.33616075
-0.084249005 -0.2531215 -0.3360315
-0.064626999 -0.25315899 -0.33600101
-0.064453334 -0.25314066 -0.33607969
-0.064322755 -0.25309712 -0.33606213
-0.064212002 -0.252969 -0.33602199
-0.064090401 -0.25289577 -0.33608121
-0.064034998 -0.25277001 -0.33602601
-0.063947998 -0.25277001 -0.336043
-0.085143499 -0.2520985 -0.33616298
-0.085246168 -0.25189319 -0.33615401
-0.085134998 -0.25195748 -0.33610499
-0.085443497 -0.25163224 -0.33617151
-0.085305005 -0.25171602 -0.33609834
-0.085197002 -0.251706 -0.336023
-0.085502572 -0.25149056 -0.33612686
-0.085377 -0.25149459 -0.33607218
-0.085874498 -0.25124502 -0.33612099
-0.085717343 -0.25130069 -0.33612868
-0.085551672 -0.25137267 -0.33605567
-0.06244 -0.251237 -0.33618701
-0.062371999 -0.251243 -0.33615801
-0.085885666 -0.25114998 -0.33606866
-0.085745998 -0.25117901 -0.33600301
-0.062437002 -0.25116801 -0.336153
-0.062296454 -0.25109789 -0.3361229
-0.062151 -0.25104401 -0.336128
-0.062284999 -0.250963 -0.33607048
-0.062110111 -0.25091112 -0.33610332
-0.062028501 -0.25071377 -0.33607
-0.061931331 -0.25070402 -0.33613634
-0.061855197 -0.250507 -0.33608761
-0.061804999 -0.25035501 -0.336016
-0.061713997 -0.25028431 -0.33606169
-0.086843506 -0.24967751 -0.33608401
-0.086759001 -0.24979 -0.33602601
-0.086881399 -0.2495178 -0.3361052
-0.086942747 -0.24932975 -0.3361305
-0.087061249 -0.24903974 -0.33615601
-0.086971007 -0.24908566 -0.33605334
-0.060934 -0.24909 -0.33604699
-0.087052502 -0.2489 -0.33611149
-0.086961001 -0.248946 -0.336032
-0.060856 -0.24891967 -0.33605698
-0.060771 -0.24888751 -0.33611298
-0.087077305 -0.24871811 -0.33608991
-0.060710251 -0.24871174 -0.33612478
-0.087247163 -0.24850367 -0.3361505
-0.087121136 -0.24852429 -0.33607987
-0.060652003 -0.2485365 -0.336099
-0.060548 -0.24843401 -0.336162
-0.087278724 -0.24829957 -0.33611497
-0.087136745 -0.24829438 -0.33605251
-0.060495 -0.2482955 -0.3360765
-0.087305002 -0.24807657 -0.33611628
-0.087158754 -0.248126 -0.3360315
-0.060439002 -0.24815799 -0.336034
-0.060333997 -0.24805701 -0.33613151
-0.087466992 -0.24788268 -0.33615366
-0.087337665 -0.24791165 -0.33604467
-0.060224999 -0.247852 -0.33614099
-0.087604001 -0.24774751 -0.33617151
-0.087502666 -0.24771734 -0.33608416
-0.087353997 -0.247794 -0.33601299
-0.060217995 -0.24767667 -0.33602598
-0.060125999 -0.24764499 -0.33606499
-0.087714493 -0.24747775 -0.33613598
-0.087571494 -0.2475225 -0.33603948
-0.060072195 -0.24748459 -0.33611423
-0.087724335 -0.24728449 -0.3360897
-0.087583996 -0.247366 -0.33600199
-0.060072202 -0.24731481 -0.3360908
-0.059942197 -0.2472918 -0.3361302
-0.087825507 -0.24710199 -0.33619702
-0.087732002 -0.24709125 -0.33607751
-0.060036 -0.24713698 -0.33608425
-0.059916776 -0.247123 -0.33615601
-0.087812997 -0.24692701 -0.33616933
-0.087740004 -0.2468985 -0.33606899
-0.060006499 -0.24694499 -0.33605498
-0.059910994 -0.24690501 -0.33612201
-0.087854005 -0.24671641 -0.33615813
-0.087745503 -0.24670525 -0.33603674
-0.059905175 -0.24670719 -0.33608282
-0.087877147 -0.24649586 -0.33614329
-0.087768003 -0.24652824 -0.33605576
-0.059865624 -0.24649112 -0.33604687
-0.087878108 -0.24629577 -0.33612755
-0.087737605 -0.24628921 -0.336041
-0.059858374 -0.24628749 -0.33608711
-0.059795 -0.246209 -0.33613801
-0.087871902 -0.24607912 -0.33612642
-0.087719604 -0.2460794 -0.33605057
-0.059861749 -0.24610224 -0.33607149
-0.059788 -0.24610451 -0.33611
-0.088009 -0.24589801 -0.33619499
-0.087893508 -0.24588375 -0.33613223
-0.087763004 -0.24588084 -0.33606884
-0.059848662 -0.24592699 -0.33605084
-0.059775997 -0.24592935 -0.33607468
-0.088035002 -0.24565201 -0.33617499
-0.087918341 -0.24570924 -0.33612731
-0.087747999 -0.24567235 -0.33603016
-0.059850249 -0.24572362 -0.33605376
-0.059759002 -0.24571835 -0.33607069
-0.059567001 -0.245654 -0.33618301
-0.088023998 -0.24551266 -0.336169
-0.087900996 -0.2455235 -0.33609715
-0.087745331 -0.24550934 -0.33602199
-0.059840668 -0.24550499 -0.33601403
-0.059767663 -0.24550666 -0.33603033
-0.059556004 -0.24551232 -0.33617297
-0.088007331 -0.24530399 -0.33616498
-0.087891273 -0.24532019 -0.33611137
-0.087761506 -0.24530524 -0.336025
-0.059832998 -0.24527501 -0.33602804
-0.059748832 -0.24529482 -0.33605048
-0.059541333 -0.24530201 -0.33613166
-0.088056996 -0.245021 -0.3362
-0.087918758 -0.24510075 -0.33611873
-0.087759338 -0.245113 -0.33601665
-0.059834998 -0.24509481 -0.33603802
-0.059739284 -0.24507286 -0.33607182
-0.059524998 -0.24509101 -0.33611333
-0.088047661 -0.24488001 -0.33617601
-0.087901503 -0.24489115 -0.33611724
-0.087756753 -0.24492075 -0.33601123
-0.059839003 -0.244903 -0.33603698
-0.059731144 -0.24489115 -0.33606958
-0.059507336 -0.24488033 -0.33611736
-0.088030003 -0.24467067 -0.33617368
-0.087885499 -0.24468285 -0.33609962
-0.087746002 -0.244624 -0.33600801
-0.059827499 -0.244762 -0.33603349
-0.059730124 -0.24472088 -0.3360686
-0.059493501 -0.24470401 -0.33610898
-0.088016003 -0.244496 -0.33616701
-0.087890007 -0.24449171 -0.3360987
-0.087750711 -0.24448414 -0.33602598
-0.059715003 -0.24457251 -0.33601823
-0.05948 -0.244528 -0.336092
-0.088046499 -0.2443195 -0.33618101
-0.087900668 -0.24431433 -0.33611265
-0.087734334 -0.24425185 -0.33602735
-0.0594685 -0.2443535 -0.33604699
-0.059160668 -0.244277 -0.33617866
-0.088068001 -0.244038 -0.33619601
-0.087896824 -0.24412008 -0.33610371
-0.087761 -0.2440985 -0.336014
-0.059142202 -0.24411359 -0.3361674
-0.088061996 -0.24390066 -0.33611703
-0.087895691 -0.24392669 -0.33604479
-0.059117664 -0.24390316 -0.33613718
-0.088049002 -0.24369299 -0.336059
-0.087960497 -0.24369951 -0.336009
-0.059101332 -0.24369234 -0.3361223
-0.088033669 -0.24348533 -0.33602598
-0.05908433 -0.2434805 -0.33611965
-0.088278994 -0.24329549 -0.33619601
-0.088017337 -0.243276 -0.33601201
-0.059070002 -0.243305 -0.336115
-0.088265665 -0.24312134 -0.33617601
-0.088005997 -0.243136 -0.336016
-0.087951005 -0.2430335 -0.33601803
-0.059096668 -0.24312466 -0.33614933
-0.088248335 -0.24291201 -0.33617935
-0.087948397 -0.24291401 -0.33604601
-0.059347 -0.24287349 -0.33603501
-0.087904863 -0.24271885 -0.33606157
-0.087742403 -0.24268739 -0.3360402
-0.059637997 -0.242661 -0.33603033
-0.059545398 -0.24264601 -0.3360334
-0.059324335 -0.24269199 -0.33615768
-0.087900005 -0.2425058 -0.33612934
-0.087709509 -0.24252044 -0.33605888
-0.087567002 -0.24246299 -0.33600801
-0.059695195 -0.24249721 -0.33603421
-0.059540164 -0.24250849 -0.33608666
-0.087858252 -0.242312 -0.336178
-0.087694272 -0.24231291 -0.33614653
-0.087514885 -0.24230579 -0.33606079
-0.059887752 -0.2422995 -0.33602375
-0.059702624 -0.24233225 -0.33609059
-0.059537001 -0.2423805 -0.33615902
-0.087669253 -0.24211425 -0.33619475
-0.0875035 -0.24210817 -0.3361274
-0.087348007 -0.24212001 -0.33602896
-0.060504999 -0.242007 -0.33600199
-0.060249001 -0.24202 -0.33602852
-0.060065597 -0.24207921 -0.33607361
-0.059887666 -0.24209917 -0.33612549
-0.059756 -0.24217699 -0.33614299
-0.087487005 -0.24194334 -0.33617631
-0.087311 -0.2419005 -0.33608034
-0.087127998 -0.241854 -0.33601299
-0.063047998 -0.241871 -0.33603999
-0.062609494 -0.2418585 -0.33608848
-0.062454998 -0.24183799 -0.33609101
-0.062290329 -0.24184968 -0.33601832
-0.062128998 -0.241855 -0.33601099
-0.06167575 -0.24182549 -0.33603674
-0.061503995 -0.24181567 -0.33603334
-0.061296668 -0.241832 -0.336007
-0.061055001 -0.24183449 -0.33610302
-0.060841002 -0.24185 -0.33604801
-0.060667668 -0.24192333 -0.33603898
-0.060493499 -0.241899 -0.33603799
-0.060304251 -0.24190551 -0.33612376
-0.060162332 -0.24192132 -0.33616567
-0.087444 -0.241758 -0.33619899
-0.087278143 -0.24170785 -0.3361403
-0.087068327 -0.24171434 -0.3360585
-0.086913243 -0.24170426 -0.33603773
-0.0867505 -0.24166101 -0.33601499
-0.086589999 -0.241606 -0.33602899
-0.066810504 -0.24163949 -0.33605701
-0.066707999 -0.24162768 -0.33603632
-0.066504255 -0.24161625 -0.33610123
-0.065474004 -0.241611 -0.33602801
-0.065145001 -0.241614 -0.33617401
-0.064909004 -0.24170275 -0.33608401
-0.064691603 -0.2417192 -0.33610123
-0.064500749 -0.24172738 -0.33609313
-0.064301804 -0.2416956 -0.33612701
-0.064076997 -0.24167299 -0.33614951
-0.063895255 -0.24164875 -0.33611327
-0.063607998 -0.241703 -0.336007
-0.063449003 -0.241707 -0.336054
-0.063373499 -0.2417185 -0.33603349
-0.063116997 -0.241759 -0.336119
-0.06284 -0.241731 -0.33618701
-0.062442999 -0.24176399 -0.33617601
-0.062270999 -0.24177149 -0.336178
-0.062073998 -0.24178499 -0.33606699
-0.061889999 -0.24175175 -0.33612978
-0.061701499 -0.2417305 -0.33611602
-0.061592001 -0.241739 -0.33608401
-0.061377998 -0.241744 -0.336193
-0.060828 -0.241772 -0.336151
-0.060653001 -0.241778 -0.33608499
-0.060477 -0.241787 -0.33615699
-0.087099999 -0.24156766 -0.33616468
-0.086861804 -0.24152319 -0.33613962
-0.086701781 -0.24152011 -0.33610299
-0.086498871 -0.24150075 -0.33606449
-0.086304598 -0.2414628 -0.33608899
-0.086118504 -0.241449 -0.33603352
-0.085973002 -0.241421 -0.336043
-0.072881997 -0.2415235 -0.33603948
-0.072704747 -0.24149273 -0.336088
-0.072515503 -0.24148363 -0.33609629
-0.072287999 -0.2414465 -0.33611101
-0.0716355 -0.24148101 -0.3360565
-0.071509562 -0.24148144 -0.33608899
-0.071309008 -0.24149518 -0.33609033
-0.071106747 -0.24149999 -0.33608902
-0.070901796 -0.24150559 -0.33611998
-0.070699662 -0.24148382 -0.33612084
-0.070509277 -0.24146427 -0.33610773
-0.070353001 -0.24146332 -0.33611766
-0.070192501 -0.24148151 -0.336061
-0.069082998 -0.24142399 -0.33603901
-0.068904668 -0.241428 -0.336054
-0.068687007 -0.24144299 -0.33602548
-0.06852933 -0.24145098 -0.33602968
-0.068076 -0.241405 -0.336009
-0.067892335 -0.24140768 -0.33608136
-0.0676715 -0.2414175 -0.33612299
-0.067501836 -0.2414545 -0.33610401
-0.067310832 -0.24147801 -0.33611301
-0.067115165 -0.24151802 -0.33611533
-0.066943198 -0.24153641 -0.3361342
-0.0667312 -0.24150002 -0.33614683
-0.066467002 -0.24154249 -0.33619601
-0.066056997 -0.241576 -0.33605999
-0.065921754 -0.2415355 -0.33612451
-0.06566 -0.24153575 -0.3361125
-0.065559998 -0.241557 -0.336061
-0.08645767 -0.24139301 -0.33614933
-0.086236998 -0.24133299 -0.33616
-0.086103499 -0.241339 -0.33612698
-0.085900329 -0.24132501 -0.33612299
-0.085715659 -0.24129565 -0.33607435
-0.085432 -0.24124099 -0.33608201
-0.085250497 -0.2412515 -0.33605403
-0.085052997 -0.24126199 -0.33607101
-0.084880993 -0.2413045 -0.33605999
-0.08468163 -0.24128462 -0.3360559
-0.084502749 -0.24125575 -0.33604902
-0.084328756 -0.24125201 -0.33605897
-0.084112495 -0.241243 -0.33604848
-0.083976001 -0.241253 -0.33600199
-0.082688332 -0.24124168 -0.33603501
-0.082570001 -0.241245 -0.336023
-0.080536 -0.24121232 -0.33607367
-0.080301665 -0.24122734 -0.33602402
-0.078821003 -0.241212 -0.336059
-0.078661002 -0.24125624 -0.33606648
-0.078532748 -0.24124627 -0.33605003
-0.078318998 -0.241249 -0.33601201
-0.077705003 -0.241202 -0.336016
-0.076844998 -0.24123999 -0.33602899
-0.076669 -0.241248 -0.336034
-0.07650733 -0.24125533 -0.33603033
-0.076269001 -0.24120601 -0.33604601
-0.076182 -0.24121299 -0.33601499
-0.074620999 -0.241216 -0.33601201
-0.074493371 -0.24126124 -0.33601847
-0.074297331 -0.24126917 -0.33604684
-0.074087001 -0.241246 -0.33603698
-0.073950998 -0.241254 -0.33600199
-0.073645502 -0.241263 -0.336043
-0.073466174 -0.241253 -0.33610401
-0.073287167 -0.24127614 -0.33611116
-0.07313925 -0.24127124 -0.33615848
-0.072944 -0.24130332 -0.33615199
-0.072688498 -0.24134874 -0.33615702
-0.072515503 -0.241345 -0.33617502
-0.072273999 -0.241337 -0.336193
-0.071653001 -0.241368 -0.33615899
-0.071585 -0.241372 -0.33617401
-0.071327001 -0.24138235 -0.33618966
-0.070432 -0.241355 -0.33619899
-0.070351496 -0.241367 -0.33618551
-0.070089996 -0.24137601 -0.33614302
-0.069991 -0.241304 -0.3362
-0.069682002 -0.2413235 -0.33610001
-0.069497503 -0.24129868 -0.33610186
-0.069327399 -0.2413168 -0.3361074
-0.069111504 -0.241311 -0.336151
-0.068909004 -0.24132399 -0.33613259
-0.068695202 -0.24132219 -0.33614439
-0.068489246 -0.24134152 -0.33612964
-0.068313166 -0.24135201 -0.33612368
-0.068177998 -0.24139699 -0.33604899
-0.067703001 -0.241344 -0.33619601
-0.085422002 -0.24116801 -0.336146
-0.085282996 -0.24117599 -0.33613801
-0.085140005 -0.241181 -0.33616298
-0.084907331 -0.24119234 -0.33617666
-0.084684499 -0.24112749 -0.33618599
-0.084514499 -0.24114399 -0.33612975
-0.084309995 -0.24115899 -0.336178
-0.084045 -0.24116699 -0.336164
-0.083917499 -0.24114451 -0.33609951
-0.083703168 -0.24110448 -0.33610401
-0.08349783 -0.241098 -0.33608067
-0.083270751 -0.2410925 -0.33606601
-0.083064497 -0.241079 -0.33615798
-0.082870334 -0.24113534 -0.33613598
-0.082692251 -0.24114725 -0.33614224
-0.082506664 -0.24117666 -0.33610299
-0.082316279 -0.24114041 -0.33610854
-0.082125753 -0.24108925 -0.33610252
-0.081915997 -0.24108401 -0.33606073
-0.08169166 -0.24103133 -0.33609569
-0.081505254 -0.24102275 -0.3360545
-0.081268996 -0.241036 -0.33602601
-0.081082664 -0.24106033 -0.33607864
-0.0808952 -0.24110141 -0.33608836
-0.080692373 -0.24111213 -0.33612487
-0.080536753 -0.24111876 -0.33614874
-0.080286331 -0.24111767 -0.33611584
-0.080077007 -0.24106738 -0.3361026
-0.079896666 -0.24107134 -0.33607671
-0.079677664 -0.24110766 -0.33602062
-0.078808002 -0.241138 -0.33616501
-0.078681007 -0.241145 -0.33615452
-0.078514673 -0.24115534 -0.33613732
-0.07825467 -0.24114834 -0.33614135
-0.078110501 -0.24113876 -0.33610949
-0.077872999 -0.241157 -0.33605999
-0.077656746 -0.24109352 -0.33609575
-0.077508159 -0.24109451 -0.33603445
-0.077280998 -0.24108465 -0.33602032
-0.077079333 -0.24113469 -0.33608434
-0.076834001 -0.24116699 -0.336097
-0.076656997 -0.241174 -0.33611801
-0.076492332 -0.24114585 -0.33611986
-0.076323859 -0.24112572 -0.33612284
-0.076119497 -0.24110399 -0.33611152
-0.075899504 -0.24111116 -0.33609417
-0.075680003 -0.24107361 -0.3361164
-0.075498126 -0.24106988 -0.33610174
-0.075286001 -0.241042 -0.336184
-0.075039499 -0.24108851 -0.33605248
-0.074863002 -0.24105699 -0.33603099
-0.074689001 -0.24110551 -0.33603016
-0.074481279 -0.24108811 -0.33608681
-0.074279502 -0.24112467 -0.33613932
-0.074070498 -0.24113373 -0.336151
-0.073932499 -0.24114101 -0.336155
-0.073662996 -0.241184 -0.336173
-0.073546335 -0.24119198 -0.33619201
-0.083278999 -0.240995 -0.33619699
-0.081926003 -0.24099201 -0.33613151
-0.08179 -0.240997 -0.336182
-0.081493251 -0.2409475 -0.33614475
-0.081290498 -0.24094149 -0.33613551
-0.081129 -0.240964 -0.33614299
-0.075023003 -0.240978 -0.33616599
-0.074854001 -0.24098399 -0.33608699
-0.074725665 -0.24096833 -0.33612737
-0.074594997 -0.241 -0.33613399
-0.075910002 -0.25660565 -0.33582368
-0.075720504 -0.25662601 -0.33589399
-0.07549867 -0.25663635 -0.33589533
-0.074835494 -0.25663751 -0.33594799
-0.074719369 -0.25665027 -0.33589199
-0.074514508 -0.25664124 -0.3358455
-0.077083997 -0.25640601 -0.33596501
-0.076881424 -0.25645015 -0.33590558
-0.076733001 -0.25646651 -0.3358205
-0.075580001 -0.25655901 -0.33581799
-0.075227 -0.25658101 -0.33585599
-0.074888498 -0.25656101 -0.3359035
-0.074763 -0.25653851 -0.3358345
-0.072446004 -0.25646099 -0.33592799
-0.078093 -0.25627699 -0.33592999
-0.077865005 -0.256284 -0.33588898
-0.077708252 -0.25631323 -0.335877
-0.077505603 -0.256345 -0.33591881
-0.077346504 -0.25635898 -0.33589101
-0.077082999 -0.25633201 -0.335886
-0.072723255 -0.25637752 -0.33586448
-0.072558001 -0.25638652 -0.33585399
-0.072356999 -0.256385 -0.33582699
-0.078810997 -0.25602999 -0.33597901
-0.078692004 -0.25605801 -0.33593225
-0.078544199 -0.25608781 -0.33589238
-0.078364 -0.25615701 -0.33587551
-0.079090998 -0.255806 -0.335942
-0.078824006 -0.25593367 -0.33593667
-0.078713998 -0.25594753 -0.33585799
-0.070666499 -0.2559315 -0.33594549
-0.070533663 -0.255934 -0.33590797
-0.070381999 -0.25590003 -0.33583599
-0.070153996 -0.25587201 -0.33587152
-0.079894498 -0.25565499 -0.33592775
-0.079707004 -0.25564623 -0.33587649
-0.079482242 -0.25568253 -0.33590776
-0.079328999 -0.2557165 -0.33588701
-0.079092003 -0.25573099 -0.33582601
-0.069724001 -0.25575301 -0.33580601
-0.069453999 -0.25570601 -0.33585599
-0.069334336 -0.25566068 -0.33584431
-0.069168001 -0.25564599 -0.335841
-0.069077998 -0.25558099 -0.335875
-0.080886498 -0.25522199 -0.335944
-0.080776997 -0.25522199 -0.33586901
-0.068670742 -0.25531101 -0.33591425
-0.068526663 -0.25531667 -0.33597168
-0.06830167 -0.25520834 -0.33591533
-0.081046999 -0.25507426 -0.33595175
-0.080899 -0.25512433 -0.33585167
-0.080774002 -0.25514999 -0.335814
-0.068258502 -0.25513452 -0.33582848
-0.068055667 -0.2551223 -0.33590135
-0.067891501 -0.25508076 -0.33590999
-0.067746334 -0.25504199 -0.335951
-0.081471995 -0.25484499 -0.33590502
-0.081300996 -0.25487599 -0.33590803
-0.081109248 -0.25495777 -0.33588976
-0.067667 -0.2549535 -0.33589298
-0.067597002 -0.25495899 -0.33590001
-0.082005002 -0.25467101 -0.33598399
-0.08186233 -0.254697 -0.33592233
-0.081700332 -0.25473517 -0.33587551
-0.081470996 -0.25477099 -0.33582598
-0.082424 -0.25444201 -0.33588701
-0.08231701 -0.25453201 -0.33591503
-0.082093664 -0.25459367 -0.33589068
-0.066926494 -0.25456548 -0.33584303
-0.066702753 -0.25447977 -0.33593374
-0.066537999 -0.25446501 -0.33599001
-0.082512006 -0.2543335 -0.3358435
-0.066627003 -0.25437501 -0.335935
-0.066473402 -0.2543374 -0.33588099
-0.066021003 -0.25420401 -0.33595401
-0.082929999 -0.2540625 -0.33594048
-0.066201001 -0.25411999 -0.33581701
-0.066019505 -0.254094 -0.335839
