# .PCD v0.7 - Point Cloud Data file format
VERSION 0.7
FIELDS x y z
SIZE 4 4 4
TYPE F F F
COUNT 1 1 1
WIDTH 1462
HEIGHT 1
VIEWPOINT 0 0 0 1 0 0 0
POINTS 1462
DATA ascii
-0.065016001 0.17005301 -0.233211
-0.065012999 0.170127 -0.233216
-0.065008998 0.170201 -0.233224
-0.065006003 0.170277 -0.233234
-0.065002002 0.170351 -0.233248
-0.064998999 0.170426 -0.233266
-0.064994998 0.17050201 -0.233282
-0.064990997 0.170577 -0.233303
-0.064986996 0.170651 -0.233325
-0.064983003 0.170725 -0.23334301
-0.06498 0.170802 -0.233355
-0.064975999 0.170876 -0.233381
-0.064971 0.17095099 -0.23342501
-0.064966001 0.171028 -0.233463
-0.064962 0.171103 -0.233494
-0.064957 0.17117999 -0.233532
-0.064952001 0.171257 -0.23357999
-0.064947002 0.171332 -0.233622
-0.064942002 0.171409 -0.23367
-0.064935997 0.17148601 -0.23372
-0.064929001 0.171564 -0.233806
-0.064920001 0.17164201 -0.233932
-0.064914003 0.17172 -0.23400401
-0.065559998 0.151311 -0.23411401
-0.065559998 0.151391 -0.23404799
-0.065559998 0.151473 -0.233972
-0.065559998 0.151554 -0.233906
-0.065559998 0.15163501 -0.23384801
-0.065559 0.151715 -0.23379201
-0.065558001 0.151794 -0.23374601
-0.065557003 0.151871 -0.233711
-0.065554999 0.151949 -0.23368099
-0.065554 0.152026 -0.233657
-0.065552004 0.15210301 -0.233633
-0.065549999 0.152181 -0.23359901
-0.065548003 0.15225799 -0.233575
-0.065546997 0.152334 -0.23355301
-0.065544002 0.152409 -0.233538
-0.065541998 0.152485 -0.23352
-0.065540001 0.15256201 -0.233504
-0.065536998 0.15263601 -0.23349801
-0.065535001 0.152712 -0.233496
-0.065531999 0.152788 -0.233484
-0.065530002 0.152863 -0.23346201
-0.065527998 0.15293901 -0.23344301
-0.065526001 0.153014 -0.233427
-0.065523997 0.15309 -0.233413
-0.065522 0.153166 -0.233401
-0.065518998 0.15324201 -0.23339701
-0.065517001 0.153317 -0.233383
-0.065513998 0.153393 -0.23336799
-0.065512002 0.153467 -0.233358
-0.065509997 0.153542 -0.233348
-0.065507002 0.15361799 -0.23334201
-0.065504 0.15369201 -0.233344
-0.065500997 0.15376601 -0.233344
-0.065498002 0.15384001 -0.233345
-0.065494999 0.153916 -0.23334099
-0.065493003 0.15399 -0.233335
-0.06549 0.154066 -0.233329
-0.065488003 0.154139 -0.233321
-0.065485001 0.15421499 -0.23331399
-0.065482996 0.154291 -0.23330601
-0.065479003 0.15436301 -0.233316
-0.065476 0.15443601 -0.23333199
-0.065472998 0.154511 -0.23333
-0.065470003 0.154585 -0.23332199
-0.065467 0.154661 -0.233325
-0.065465003 0.154735 -0.233325
-0.065462001 0.154809 -0.23332299
-0.065458998 0.154883 -0.233321
-0.065456003 0.154957 -0.233319
-0.065453 0.15503301 -0.23332
-0.065449998 0.15510701 -0.23332199
-0.065447003 0.15517899 -0.23333199
-0.065444 0.15525299 -0.23334
-0.065440997 0.15532701 -0.233346
-0.065436997 0.155402 -0.23335201
-0.065434001 0.155476 -0.23336101
-0.065430999 0.15555 -0.233371
-0.065428004 0.155624 -0.233367
-0.065425999 0.1557 -0.23335899
-0.065422997 0.155774 -0.233363
-0.065420002 0.155848 -0.233366
-0.065416999 0.155922 -0.23337001
-0.065412998 0.155994 -0.233384
-0.065408997 0.156068 -0.2334
-0.065406002 0.156142 -0.233404
-0.065403998 0.156216 -0.2334
-0.065401003 0.15629201 -0.233393
-0.065398 0.15636601 -0.233395
-0.065394998 0.15644 -0.233403
-0.065390997 0.156515 -0.23341499
-0.065388002 0.156587 -0.233439
-0.065384001 0.15665901 -0.233456
-0.065380998 0.156735 -0.23345999
-0.065378003 0.156809 -0.23345999
-0.065375 0.156883 -0.23345999
-0.065371998 0.156957 -0.23345999
-0.065369003 0.157031 -0.233458
-0.065366998 0.157107 -0.233455
-0.065364003 0.15718099 -0.233459
-0.065361001 0.15725499 -0.233459
-0.065357998 0.15732899 -0.233457
-0.065355003 0.15740301 -0.233459
-0.065351002 0.15747701 -0.23347799
-0.065347999 0.157552 -0.233492
-0.065344997 0.157626 -0.233496
-0.065342002 0.1577 -0.233494
-0.065338999 0.157774 -0.233492
-0.065335996 0.15785 -0.233494
-0.065333001 0.157922 -0.233505
-0.065329999 0.157996 -0.233511
-0.065327004 0.15807199 -0.233509
-0.065324001 0.15814599 -0.23350701
-0.065320998 0.15821999 -0.233509
-0.065318003 0.15829401 -0.233518
-0.065315001 0.15836801 -0.23352399
-0.065311998 0.15844201 -0.233518
-0.065309003 0.158518 -0.233512
-0.065306 0.158592 -0.23352
-0.065302998 0.158664 -0.233532
-0.065300003 0.15874 -0.23353501
-0.065297 0.158814 -0.23352499
-0.065295003 0.15888999 -0.233509
-0.065292999 0.15896501 -0.233503
-0.065289997 0.15903901 -0.233505
-0.065286003 0.159114 -0.233513
-0.065283 0.159188 -0.233522
-0.065279998 0.159262 -0.233522
-0.065278001 0.159337 -0.233512
-0.065274999 0.159412 -0.23351599
-0.065270998 0.159484 -0.233538
-0.065266997 0.159558 -0.233555
-0.065264001 0.159632 -0.233559
-0.065261997 0.15970799 -0.23354501
-0.065260001 0.15978201 -0.233529
-0.065256998 0.159857 -0.233523
-0.065254003 0.159932 -0.23353501
-0.065250002 0.160004 -0.23355199
-0.065246999 0.16008 -0.23355199
-0.065245003 0.160154 -0.23354401
-0.065242 0.16023 -0.233546
-0.065238997 0.160304 -0.23354
-0.065237001 0.160377 -0.23353299
-0.065233998 0.16045199 -0.233537
-0.065229997 0.16052601 -0.233547
-0.065227002 0.160602 -0.233547
-0.065224998 0.160676 -0.233541
-0.065222003 0.160749 -0.23353299
-0.065219998 0.160825 -0.233528
-0.065217003 0.160899 -0.23352399
-0.065214001 0.160973 -0.233522
-0.065210998 0.161047 -0.23353
-0.065208003 0.161121 -0.23352601
-0.065205999 0.16119701 -0.23351701
-0.065203004 0.16127101 -0.23351499
-0.065200001 0.161347 -0.23351499
-0.065196998 0.16142 -0.233509
-0.065194003 0.161495 -0.23351499
-0.065191001 0.161569 -0.233519
-0.065188996 0.161642 -0.233512
-0.065187 0.161718 -0.233494
-0.065183997 0.16179401 -0.23348001
-0.065182 0.16186801 -0.23347799
-0.065178998 0.16194101 -0.233476
-0.065176003 0.16201501 -0.233475
-0.065173 0.162092 -0.233485
-0.065168999 0.162164 -0.23349699
-0.065165997 0.16224 -0.233495
-0.065164 0.162314 -0.23348901
-0.065160997 0.162388 -0.233495
-0.065158002 0.162462 -0.233496
-0.065154999 0.16253801 -0.23349001
-0.065151997 0.16261201 -0.233492
-0.065149002 0.16268601 -0.2335
-0.065145999 0.16276 -0.233504
-0.065142997 0.162836 -0.23349801
-0.065141 0.162909 -0.233493
-0.065137997 0.162983 -0.23348901
-0.065135002 0.163057 -0.233485
-0.065132 0.163131 -0.233491
-0.065128997 0.16320799 -0.233505
-0.065126002 0.16328 -0.23351
-0.065122999 0.16335499 -0.233502
-0.065119997 0.16342901 -0.233496
-0.065118 0.16350301 -0.23349001
-0.065114997 0.163579 -0.23347799
-0.065113001 0.163653 -0.23348001
-0.065109 0.163727 -0.233485
-0.065107003 0.163801 -0.233485
-0.065103002 0.163875 -0.233491
-0.065099999 0.16395099 -0.233493
-0.065098003 0.16402499 -0.23347899
-0.065095998 0.16409799 -0.233458
-0.065094002 0.16417401 -0.23344
-0.065090999 0.164248 -0.23344199
-0.065087996 0.164322 -0.23345
-0.065085001 0.164396 -0.233446
-0.065082997 0.164471 -0.233436
-0.065080002 0.164545 -0.23343299
-0.065076999 0.164619 -0.23343299
-0.065075003 0.16469499 -0.23342299
-0.065072 0.16476899 -0.233417
-0.065068997 0.16484299 -0.233419
-0.065067001 0.16491701 -0.23341601
-0.065063998 0.16499101 -0.233412
-0.065061003 0.165067 -0.233412
-0.065058 0.165141 -0.233408
-0.065056004 0.165214 -0.23339801
-0.065053001 0.16529 -0.233394
-0.065050997 0.165364 -0.23338901
-0.065048002 0.165438 -0.233383
-0.065044999 0.165512 -0.233381
-0.065043002 0.16558599 -0.233373
-0.06504 0.16566101 -0.233363
-0.065038003 0.16573501 -0.23336001
-0.065035 0.16580901 -0.23334999
-0.065033004 0.165884 -0.23333199
-0.065030999 0.165958 -0.23332
-0.065029003 0.166032 -0.23331
-0.065026 0.166106 -0.23330501
-0.065022998 0.166182 -0.233301
-0.065021001 0.166255 -0.23329701
-0.065017998 0.166329 -0.23328701
-0.065016001 0.166403 -0.233281
-0.065012001 0.16647699 -0.23329
-0.065008998 0.16655301 -0.23329
-0.065007001 0.166627 -0.23327801
-0.065004997 0.166701 -0.233266
-0.065002002 0.166774 -0.23326001
-0.064999998 0.166848 -0.233252
-0.064997002 0.166924 -0.23324101
-0.064994998 0.166998 -0.233239
-0.064992003 0.167072 -0.23324101
-0.064989001 0.167146 -0.233229
-0.064988002 0.167219 -0.23320501
-0.064985 0.16729499 -0.23320401
-0.064981997 0.16736899 -0.23321
-0.064979002 0.16744301 -0.233208
-0.064975999 0.16751701 -0.233202
-0.064974003 0.16759101 -0.23319601
-0.064971 0.16766401 -0.233191
-0.064967997 0.16773801 -0.233189
-0.064965002 0.167813 -0.233197
-0.064962 0.167889 -0.233201
-0.064960003 0.167962 -0.233187
-0.064957 0.168036 -0.233181
-0.064955004 0.16811 -0.233178
-0.064952999 0.168183 -0.233156
-0.064951003 0.16825899 -0.233134
-0.064948998 0.16833299 -0.23312201
-0.064944997 0.16840699 -0.23312999
-0.064942002 0.16848101 -0.23314101
-0.064939 0.16855501 -0.23313899
-0.064937003 0.16862901 -0.233127
-0.064934999 0.16870201 -0.233107
-0.064933002 0.168778 -0.233097
-0.064929999 0.168852 -0.23310199
-0.064925998 0.168926 -0.23311201
-0.064923003 0.169 -0.233116
-0.064920001 0.169074 -0.23312201
-0.064916998 0.169148 -0.233118
-0.064915001 0.169222 -0.233105
-0.064911999 0.169296 -0.233109
-0.064909004 0.16937201 -0.233119
-0.064906001 0.16944601 -0.233115
-0.064902999 0.16952001 -0.233119
-0.064898998 0.169594 -0.233133
-0.064896002 0.169668 -0.233144
-0.064893 0.169743 -0.23314799
-0.064888999 0.169817 -0.23316
-0.064885996 0.169893 -0.233172
-0.064883001 0.169967 -0.23318
-0.064879 0.17004099 -0.233192
-0.064875998 0.17011601 -0.23320501
-0.064871997 0.17019001 -0.233215
-0.064869002 0.170266 -0.233229
-0.064865001 0.17034 -0.233243
-0.064861998 0.170415 -0.233261
-0.064856999 0.170491 -0.233291
-0.064852998 0.17056599 -0.23331501
-0.064850003 0.17064001 -0.23333
-0.064846002 0.170715 -0.23334201
-0.064842999 0.170791 -0.233356
-0.064838998 0.170865 -0.23338
-0.064833999 0.17094 -0.23340601
-0.064829998 0.17101701 -0.233446
-0.064824998 0.171092 -0.23348799
-0.064819999 0.171168 -0.23352601
-0.064815 0.17124601 -0.233573
-0.064809002 0.171321 -0.23362701
-0.064804003 0.171398 -0.233679
-0.064799003 0.17147499 -0.23372699
-0.064792 0.171553 -0.23380899
-0.064785004 0.17163099 -0.233891
-0.064778998 0.171708 -0.23395699
-0.065463997 0.151301 -0.234109
-0.065463997 0.151384 -0.23404101
-0.065465003 0.151466 -0.233963
-0.065465003 0.151546 -0.23389301
-0.065465003 0.151629 -0.233831
-0.065463997 0.15170699 -0.233776
-0.065462999 0.151786 -0.233734
-0.065462001 0.15186401 -0.233702
-0.065459996 0.151941 -0.233666
-0.065458998 0.152018 -0.233638
-0.065457001 0.152096 -0.233614
-0.065454997 0.152173 -0.23359001
-0.065453 0.152248 -0.233567
-0.065451004 0.152326 -0.233539
-0.065448999 0.152403 -0.23351701
-0.065447003 0.15247899 -0.233501
-0.065444998 0.152555 -0.233491
-0.065442003 0.152628 -0.233481
-0.065439999 0.152704 -0.23346899
-0.065438002 0.15278199 -0.233454
-0.065435998 0.15285701 -0.23343
-0.065434001 0.152933 -0.23341601
-0.065430999 0.153009 -0.23341399
-0.065428004 0.153083 -0.23341
-0.065425999 0.15315799 -0.2334
-0.065422997 0.15323199 -0.233391
-0.065421 0.153308 -0.233383
-0.065417998 0.153384 -0.233373
-0.065416001 0.153457 -0.233363
-0.065413997 0.15353499 -0.23335101
-0.065411001 0.15360899 -0.233337
-0.065408997 0.15368401 -0.233326
-0.065406002 0.15376 -0.23332
-0.065403 0.153834 -0.23332199
-0.065399997 0.153908 -0.233326
-0.065397002 0.153982 -0.233328
-0.065394998 0.154056 -0.233327
-0.065392002 0.15413199 -0.233317
-0.065389 0.15420599 -0.23331501
-0.065385997 0.154282 -0.23331501
-0.065384001 0.154356 -0.233311
-0.065380998 0.15443 -0.233303
-0.065379001 0.154505 -0.2333
-0.065375999 0.154579 -0.2333
-0.065373003 0.154653 -0.233302
-0.065370001 0.154727 -0.233302
-0.065366998 0.154801 -0.233308
-0.065364003 0.154875 -0.23331
-0.065361001 0.15494899 -0.233307
-0.065358996 0.15502501 -0.233299
-0.065356001 0.155099 -0.233301
-0.065352 0.155173 -0.23331501
-0.065348998 0.155246 -0.233327
-0.065344997 0.15532 -0.23334
-0.065342002 0.155394 -0.23334999
-0.065338999 0.155468 -0.233354
-0.065335996 0.155542 -0.233358
-0.065333001 0.155616 -0.23336001
-0.065329999 0.15569 -0.23336799
-0.065325998 0.155764 -0.233373
-0.065324001 0.155838 -0.23336101
-0.065321997 0.15591399 -0.233355
-0.065318003 0.15598799 -0.23336101
-0.065315001 0.15606 -0.233375
-0.065311 0.15613499 -0.23339801
-0.065307997 0.156207 -0.233408
-0.065305002 0.15628301 -0.233404
-0.065301999 0.15635701 -0.233408
-0.065298997 0.156431 -0.233412
-0.065296002 0.156505 -0.233411
-0.065292999 0.156579 -0.233413
-0.065289997 0.156653 -0.23342501
-0.065286003 0.156728 -0.233441
-0.065283 0.1568 -0.233449
-0.065279998 0.156876 -0.233447
-0.065277003 0.15695 -0.233448
-0.065274 0.157024 -0.233454
-0.065269999 0.157098 -0.233468
-0.065266997 0.15717199 -0.233474
-0.065264001 0.15724599 -0.233476
-0.065261997 0.15731999 -0.233473
-0.065259002 0.15739401 -0.233475
-0.065255001 0.15746801 -0.23348901
-0.065251999 0.15754201 -0.233491
-0.065250002 0.157618 -0.233483
-0.065246999 0.157692 -0.233477
-0.065243997 0.157766 -0.233486
-0.065240003 0.15784 -0.2335
-0.065237001 0.157915 -0.23350599
-0.065233998 0.157989 -0.23351
-0.065231003 0.15806299 -0.23350801
-0.065228999 0.15813801 -0.2335
-0.065226004 0.15821201 -0.233491
-0.065223001 0.15828601 -0.233493
-0.065219998 0.15836 -0.233503
-0.065217003 0.158434 -0.233513
-0.065214001 0.158509 -0.23351499
-0.065210998 0.158584 -0.233514
-0.065208003 0.158658 -0.233504
-0.065205999 0.15873399 -0.233496
-0.065203004 0.15880799 -0.233502
-0.065200001 0.15888201 -0.23350599
-0.065196998 0.15895601 -0.23350599
-0.065194003 0.15903001 -0.233511
-0.065191001 0.159104 -0.23351701
-0.065187998 0.159178 -0.233519
-0.065185003 0.159254 -0.233511
-0.065182 0.159328 -0.233513
-0.065178998 0.159402 -0.23352399
-0.065174997 0.159476 -0.23353399
-0.065173 0.15955 -0.23353
-0.065169998 0.159624 -0.23352601
-0.065167002 0.15970001 -0.23353399
-0.065164 0.159775 -0.23354
-0.065160997 0.159849 -0.23354299
-0.065158002 0.159922 -0.233541
-0.065154999 0.159996 -0.233541
-0.065151997 0.160072 -0.233537
-0.06515 0.160146 -0.233531
-0.065146998 0.16022199 -0.233531
-0.065144002 0.16029599 -0.23353601
-0.065141 0.16037001 -0.23353399
-0.065137997 0.16044401 -0.23352601
-0.065136001 0.16051801 -0.23352601
-0.065132 0.160594 -0.23353
-0.065130003 0.160668 -0.233527
-0.065127 0.160742 -0.233529
-0.065123998 0.160816 -0.233527
-0.065121002 0.16089199 -0.233521
-0.065118 0.16096599 -0.233527
-0.065114997 0.16103999 -0.233531
-0.065113001 0.16111401 -0.23352399
-0.065109998 0.161189 -0.23350801
-0.065108001 0.161263 -0.233504
-0.065104 0.161337 -0.23351599
-0.065100998 0.161411 -0.233528
-0.065098003 0.161485 -0.23352499
-0.065095998 0.161561 -0.23351701
-0.065093003 0.161635 -0.233511
-0.065090999 0.16171101 -0.233503
-0.065087996 0.16178501 -0.233501
-0.065085001 0.16185901 -0.233495
-0.065082997 0.161934 -0.233486
-0.065080002 0.162008 -0.233482
-0.065076999 0.162082 -0.233486
-0.065073997 0.162156 -0.23349001
-0.065071002 0.16223 -0.233484
-0.065068997 0.162306 -0.23346899
-0.065067001 0.16238099 -0.233459
-0.065063998 0.16245501 -0.233447
-0.065062001 0.16252901 -0.233447
-0.065058 0.16260301 -0.233463
-0.065053999 0.162678 -0.233477
-0.065050997 0.162752 -0.23348001
-0.065049 0.162828 -0.233472
-0.065045998 0.162901 -0.233466
-0.065044001 0.162975 -0.23346201
-0.065040998 0.16305099 -0.233458
-0.065038003 0.16312499 -0.233458
-0.065035 0.16319899 -0.233465
-0.065031998 0.16327301 -0.233463
-0.065029003 0.16334701 -0.23346099
-0.065026 0.163423 -0.233467
-0.065022998 0.163497 -0.233467
-0.065021001 0.163571 -0.233464
-0.065017998 0.163645 -0.233456
-0.065015003 0.163719 -0.23345999
-0.065012001 0.16379499 -0.233456
-0.065009996 0.16386899 -0.23345201
-0.065006003 0.16394299 -0.23345999
-0.065003 0.16401701 -0.233463
-0.065001003 0.16408999 -0.233447
-0.064998999 0.164166 -0.233435
-0.064995997 0.16424 -0.233431
-0.064993002 0.164316 -0.233427
-0.064990997 0.16439 -0.233426
-0.064988002 0.164464 -0.23342399
-0.064985 0.164538 -0.23342399
-0.064981997 0.164612 -0.233418
-0.06498 0.16468699 -0.233404
-0.064978004 0.16476101 -0.2334
-0.064974003 0.16483501 -0.23340701
-0.064971 0.16490901 -0.233413
-0.064969003 0.164983 -0.23340701
-0.064966001 0.165059 -0.233393
-0.064963996 0.165133 -0.233381
-0.064962 0.165206 -0.23336799
-0.064960003 0.165282 -0.23335201
-0.064957 0.165356 -0.23334201
-0.064953998 0.165429 -0.23334201
-0.064951003 0.16550399 -0.23334999
-0.064948 0.16557799 -0.233355
-0.064946003 0.165654 -0.233349
-0.064943999 0.165727 -0.23333099
-0.064942002 0.165802 -0.23330501
-0.064939 0.165876 -0.233299
-0.064935997 0.16595 -0.233301
-0.064934 0.166024 -0.23329601
-0.064930998 0.166098 -0.233292
-0.064928003 0.16617399 -0.233288
-0.064925998 0.16624799 -0.233282
-0.064924002 0.16632099 -0.233266
-0.064920999 0.16639499 -0.233261
-0.064917997 0.16646899 -0.23326699
-0.064915001 0.166545 -0.233271
-0.064911999 0.166619 -0.233265
-0.064910002 0.166693 -0.23325901
-0.064906999 0.166767 -0.233254
-0.064903997 0.166841 -0.233252
-0.064901002 0.166917 -0.233252
-0.064898998 0.166991 -0.233244
-0.064897001 0.167064 -0.233224
-0.064894997 0.167138 -0.233202
-0.064893 0.167211 -0.233187
-0.064891003 0.16728701 -0.23317701
-0.064888 0.16736101 -0.233169
-0.064884998 0.16743501 -0.23316699
-0.064882003 0.167509 -0.233171
-0.064879 0.167583 -0.233174
-0.064875998 0.167657 -0.23317599
-0.064873002 0.167731 -0.23318
-0.06487 0.167805 -0.233178
-0.064868003 0.16788 -0.23316801
-0.064865999 0.167954 -0.23314901
-0.064864002 0.168028 -0.233143
-0.064860001 0.168102 -0.23314901
-0.064857997 0.168176 -0.23313899
-0.064856 0.16825099 -0.233123
-0.064852998 0.16832501 -0.23311301
-0.064850003 0.16839901 -0.233118
-0.064847 0.16847301 -0.233126
-0.064845003 0.168547 -0.23311999
-0.064842001 0.168621 -0.233118
-0.064838998 0.168695 -0.23312201
-0.064836003 0.168771 -0.23311301
-0.064833999 0.168844 -0.233101
-0.064831004 0.168918 -0.233099
-0.064828999 0.168992 -0.23309501
-0.064825997 0.169066 -0.23309299
-0.064823002 0.16914 -0.233088
-0.064820997 0.169214 -0.23308
-0.064818002 0.16928799 -0.233082
-0.064815 0.16936401 -0.233082
-0.064811997 0.169438 -0.233088
-0.064808004 0.169512 -0.233108
-0.064804003 0.169587 -0.23312099
-0.064801 0.169661 -0.233123
-0.064797997 0.169735 -0.23312899
-0.064795002 0.169809 -0.233143
-0.064791001 0.16988499 -0.23315901
-0.064787999 0.16995899 -0.233163
-0.064785004 0.17003299 -0.233162
-0.064782001 0.17010701 -0.23316599
-0.064778998 0.170182 -0.233174
-0.064774998 0.170258 -0.23319399
-0.064770997 0.170333 -0.23322199
-0.064767003 0.170407 -0.233244
-0.064763002 0.17048299 -0.233265
-0.064759001 0.17055801 -0.23328701
-0.064755 0.170632 -0.233307
-0.064750999 0.170707 -0.233325
-0.064747997 0.170781 -0.233337
-0.064744003 0.170857 -0.23336101
-0.064738996 0.17093199 -0.233401
-0.064733997 0.171009 -0.23344199
-0.064730003 0.171084 -0.23346999
-0.064724997 0.171161 -0.233504
-0.064721003 0.17123701 -0.23354401
-0.064714998 0.171313 -0.233596
-0.064709999 0.17139 -0.233648
-0.064704001 0.17146701 -0.23371001
-0.064696997 0.171543 -0.23378401
-0.064691 0.17162199 -0.233854
-0.065297998 0.15137801 -0.23401
-0.065297998 0.15146101 -0.23394901
-0.065297998 0.15154099 -0.23388299
-0.065297 0.151622 -0.23382901
-0.065296002 0.15169901 -0.23378301
-0.065296002 0.151778 -0.233739
-0.065293998 0.151857 -0.233703
-0.065292999 0.151934 -0.23367301
-0.065291002 0.15201201 -0.23364501
-0.065288998 0.152087 -0.233621
-0.065287001 0.152164 -0.23359799
-0.065284997 0.15223999 -0.23357999
-0.065283 0.152316 -0.23356999
-0.065281004 0.152393 -0.23355199
-0.065279 0.15246899 -0.23353
-0.065277003 0.15254401 -0.233512
-0.065274 0.15262 -0.233503
-0.065272003 0.152696 -0.233493
-0.065269999 0.15277299 -0.23346899
-0.065268002 0.152849 -0.23345099
-0.065265 0.152923 -0.23344301
-0.065263003 0.152998 -0.23343299
-0.065260001 0.153074 -0.233422
-0.065257996 0.15315001 -0.23341399
-0.065255001 0.15322401 -0.23340601
-0.065252997 0.153299 -0.23339801
-0.065250002 0.153375 -0.23338801
-0.065247998 0.153451 -0.233374
-0.065246001 0.15352599 -0.233356
-0.065243997 0.153602 -0.23334301
-0.065241002 0.153676 -0.233337
-0.065238997 0.153752 -0.23333099
-0.065236002 0.153826 -0.23333099
-0.065233 0.1539 -0.233337
-0.065229997 0.15397599 -0.23333199
-0.065227002 0.15404899 -0.23332401
-0.065224998 0.15412501 -0.23332
-0.065222003 0.154199 -0.23332401
-0.065219 0.154273 -0.233326
-0.065215997 0.154347 -0.23332401
-0.065213002 0.154421 -0.23332299
-0.06521 0.154497 -0.233319
-0.065208003 0.154571 -0.233307
-0.065205 0.15464699 -0.233303
-0.065201998 0.15472101 -0.23331299
-0.065199003 0.15479299 -0.23332401
-0.065196 0.15486699 -0.23333
-0.065192997 0.15494099 -0.233326
-0.065190002 0.155017 -0.233316
-0.065187998 0.155091 -0.233316
-0.065183997 0.155165 -0.233326
-0.065181002 0.155239 -0.233339
-0.065177999 0.155311 -0.233345
-0.065174997 0.155387 -0.233347
-0.065172002 0.155461 -0.233347
-0.065168999 0.155535 -0.233355
-0.065164998 0.15561 -0.23336001
-0.065162003 0.15568399 -0.233362
-0.065159 0.15575799 -0.233374
-0.065155998 0.15583 -0.233386
-0.065153003 0.155904 -0.233386
-0.06515 0.15598001 -0.23338801
-0.065146998 0.15605199 -0.233393
-0.065144002 0.156128 -0.23339701
-0.065141 0.15620001 -0.233403
-0.065136999 0.15627401 -0.233411
-0.065133996 0.156349 -0.233419
-0.065131001 0.156423 -0.233422
-0.065127999 0.156499 -0.233422
-0.065125003 0.156571 -0.23343
-0.065121002 0.156645 -0.233448
-0.065118 0.156719 -0.23345999
-0.065114997 0.156793 -0.233458
-0.065113001 0.15686899 -0.233449
-0.065109998 0.15694299 -0.23345099
-0.065105997 0.15701699 -0.233459
-0.065103002 0.15709101 -0.23347101
-0.065099001 0.15716401 -0.233485
-0.065095998 0.15723801 -0.233496
-0.065093003 0.15731201 -0.2335
-0.065090001 0.157386 -0.233502
-0.065086998 0.15746 -0.233504
-0.065084003 0.157534 -0.23351
-0.065081 0.157608 -0.23351599
-0.065077998 0.157682 -0.233521
-0.065075003 0.157756 -0.233523
-0.065072 0.157832 -0.233523
-0.065068997 0.157906 -0.233519
-0.065066002 0.15798 -0.233523
-0.065063 0.15805601 -0.233521
-0.065059997 0.15812799 -0.233528
-0.065057002 0.15820201 -0.23353601
-0.065053999 0.158278 -0.23353
-0.065052003 0.158354 -0.23352399
-0.065049 0.158426 -0.23353
-0.065044999 0.1585 -0.233541
-0.065041997 0.158574 -0.233547
-0.065039001 0.15865 -0.23354501
-0.065036997 0.158724 -0.233537
-0.065034002 0.15879799 -0.23353501
-0.065030999 0.15887401 -0.23353299
-0.065027997 0.158948 -0.23353601
-0.065025002 0.159022 -0.23354
-0.065021999 0.159096 -0.23354401
-0.065018997 0.15917 -0.233546
-0.065016001 0.159246 -0.23354
-0.065013997 0.15932 -0.233531
-0.065011002 0.15939599 -0.23352499
-0.065008998 0.15946899 -0.233521
-0.065006003 0.15954299 -0.233521
-0.065002002 0.15961801 -0.23353299
-0.064998999 0.159694 -0.23353299
-0.064997002 0.159768 -0.23353
-0.064994 0.159842 -0.23353399
-0.064990997 0.159915 -0.233532
-0.064988002 0.159991 -0.23352399
-0.064985 0.160065 -0.233532
-0.064981997 0.16013999 -0.23353601
-0.064979002 0.16021501 -0.233531
-0.064976998 0.160289 -0.233531
-0.064972997 0.16036201 -0.23354299
-0.064970002 0.160438 -0.233547
-0.064966999 0.160511 -0.233541
-0.064965002 0.160585 -0.233538
-0.064962 0.160661 -0.23353601
-0.064958997 0.160735 -0.23353399
-0.064957 0.160809 -0.233528
-0.064953998 0.16088299 -0.233532
-0.064949997 0.16095901 -0.23353399
-0.064948 0.161033 -0.233523
-0.064946003 0.16110601 -0.233511
-0.064942002 0.161183 -0.233521
-0.064939 0.161255 -0.233531
-0.064935997 0.161331 -0.233531
-0.064933002 0.161405 -0.233532
-0.064930998 0.161479 -0.233528
-0.064929001 0.16155399 -0.233512
-0.064925998 0.16162799 -0.233496
-0.064923003 0.161704 -0.233502
-0.064920001 0.16177601 -0.233518
-0.064916998 0.16185001 -0.233523
-0.064914003 0.161926 -0.233519
-0.064911 0.162 -0.233519
-0.064907998 0.162074 -0.23351701
-0.064906001 0.16215 -0.233509
-0.064902999 0.16222399 -0.233496
-0.064901002 0.16229901 -0.233484
-0.064897999 0.16237301 -0.233482
-0.064896002 0.162449 -0.233476
-0.064893 0.162523 -0.233474
-0.064889997 0.162597 -0.233482
-0.064887002 0.162671 -0.23348901
-0.064883001 0.162745 -0.233493
-0.064880997 0.162819 -0.233491
-0.064878002 0.16289499 -0.23347899
-0.064875998 0.16296899 -0.233465
-0.064873002 0.163045 -0.233463
-0.06487 0.163119 -0.233468
-0.064866997 0.163193 -0.23346999
-0.064864002 0.163267 -0.23347799
-0.064861 0.163341 -0.23348001
-0.064857997 0.163415 -0.233474
-0.064856 0.163489 -0.233473
-0.064852998 0.163564 -0.23347101
-0.064850003 0.163638 -0.233465
-0.064847998 0.16371199 -0.233463
-0.064845003 0.16378801 -0.233459
-0.064842999 0.163862 -0.23344301
-0.064839996 0.163937 -0.23343
-0.064837001 0.164009 -0.233436
-0.064833999 0.164084 -0.23344401
-0.064832002 0.164159 -0.23343401
-0.064829998 0.164233 -0.23341601
-0.064827003 0.164309 -0.23341499
-0.064824 0.16438299 -0.233421
-0.064819999 0.16445699 -0.233427
-0.064818002 0.16453101 -0.233421
-0.064815998 0.16460501 -0.23340701
-0.064813003 0.16468 -0.233399
-0.06481 0.164754 -0.233402
-0.064808004 0.164828 -0.23339599
-0.064805001 0.164902 -0.23339
-0.064801998 0.164976 -0.23339
-0.064800002 0.165052 -0.23338
-0.064796999 0.165125 -0.23336899
-0.064795002 0.165199 -0.233363
-0.064792 0.16527499 -0.23336101
-0.064788997 0.16534901 -0.233363
-0.064786002 0.16542301 -0.23335899
-0.064783998 0.165497 -0.23335201
-0.064781003 0.165571 -0.233346
-0.064778998 0.165647 -0.233338
-0.064777002 0.16572 -0.233316
-0.064774998 0.165796 -0.233298
-0.064772002 0.16587 -0.233298
-0.064769 0.165944 -0.233301
-0.064765997 0.166017 -0.23329701
-0.064764 0.166091 -0.233291
-0.064760998 0.16616701 -0.233283
-0.064759001 0.16624101 -0.23327699
-0.064755999 0.166315 -0.233266
-0.064754002 0.16638801 -0.233252
-0.064750999 0.166462 -0.23325001
-0.064747997 0.166538 -0.23325799
-0.064745001 0.166612 -0.233254
-0.064742997 0.166686 -0.233243
-0.064740002 0.16676 -0.233243
-0.064737 0.166834 -0.23324899
-0.064735003 0.16690999 -0.23323099
-0.064732999 0.16698299 -0.233211
-0.064730003 0.16705699 -0.233207
-0.064727999 0.16713101 -0.2332
-0.064724997 0.16720501 -0.23319399
-0.064723 0.16728 -0.23319
-0.064719997 0.167354 -0.233188
-0.064717002 0.167428 -0.233182
-0.064714998 0.167502 -0.23317701
-0.064712003 0.167576 -0.233171
-0.064709999 0.16765 -0.233161
-0.064707004 0.167724 -0.23315699
-0.064704001 0.167797 -0.233155
-0.064701997 0.167873 -0.23315001
-0.064699002 0.16794699 -0.233142
-0.064696997 0.16802099 -0.233132
-0.064694002 0.16809499 -0.233124
-0.064691 0.16816901 -0.233124
-0.064689003 0.168244 -0.23311999
-0.064686999 0.168318 -0.23310301
-0.064685002 0.168391 -0.233081
-0.064681999 0.168465 -0.233079
-0.064678997 0.16854 -0.233091
-0.064676002 0.168613 -0.23308299
-0.064673997 0.168687 -0.233068
-0.064671002 0.168763 -0.233064
-0.064668 0.168837 -0.233068
-0.064664997 0.168911 -0.23308
-0.064661004 0.16898599 -0.23309401
-0.064658001 0.16906001 -0.233101
-0.064654998 0.16913401 -0.233097
-0.064653002 0.16920701 -0.23309501
-0.064649999 0.16928101 -0.23309501
-0.064646997 0.169357 -0.23309299
-0.064644001 0.169431 -0.23309299
-0.064640999 0.169506 -0.233106
-0.064636998 0.16958 -0.23311999
-0.064634003 0.169654 -0.23311999
-0.064631 0.169728 -0.233124
-0.064627998 0.169802 -0.23314001
-0.064623997 0.16987801 -0.233154
-0.064620003 0.169953 -0.233169
-0.064617001 0.170027 -0.233179
-0.064613998 0.170101 -0.233183
-0.064609997 0.170175 -0.233199
-0.064607002 0.170252 -0.233211
-0.064603999 0.17032599 -0.233217
-0.064599998 0.17039999 -0.23323201
-0.064597003 0.17047399 -0.233244
-0.064593002 0.170551 -0.233264
-0.064589001 0.170625 -0.233288
-0.064585 0.1707 -0.23330601
-0.064580999 0.170774 -0.233326
-0.064576998 0.17084999 -0.233345
-0.064572997 0.17092501 -0.233373
-0.064567998 0.171002 -0.233413
-0.064562999 0.171077 -0.23345301
-0.064558998 0.17115401 -0.23348901
-0.064553998 0.17122801 -0.233531
-0.064548999 0.171306 -0.23358101
-0.064543001 0.17138299 -0.233633
-0.064537004 0.17146 -0.23369899
-0.064530998 0.171536 -0.233771
-0.064958997 0.151363 -0.234001
-0.064958997 0.151444 -0.233935
-0.064957999 0.15152401 -0.23388401
-0.064957 0.151603 -0.23383801
-0.064956002 0.151682 -0.233794
-0.064955004 0.151761 -0.233748
-0.064953998 0.151838 -0.23370799
-0.064952001 0.151916 -0.23368201
-0.064949997 0.15199301 -0.233658
-0.064948 0.152069 -0.233638
-0.064946003 0.152146 -0.23361699
-0.064944997 0.152224 -0.233593
-0.064942002 0.15229701 -0.233587
-0.064939 0.152373 -0.23358899
-0.064935997 0.152447 -0.233585
-0.064934 0.152523 -0.233575
-0.064932004 0.15259901 -0.233558
-0.064929999 0.152674 -0.23354
-0.064926997 0.15275 -0.233528
-0.064925 0.152826 -0.23352601
-0.064921997 0.152899 -0.233512
-0.064920001 0.152977 -0.23349001
-0.064917997 0.153053 -0.233477
-0.064915001 0.153128 -0.23347101
-0.064912997 0.15320399 -0.233459
-0.064911 0.15328 -0.23344301
-0.064909004 0.153355 -0.23342299
-0.064906999 0.153431 -0.23340701
-0.064903997 0.15350699 -0.23339701
-0.064902 0.15358201 -0.233384
-0.064900003 0.153658 -0.23336799
-0.064897001 0.153734 -0.233358
-0.064894997 0.153807 -0.233354
-0.064892001 0.153883 -0.23334201
-0.064889997 0.15395901 -0.23333
-0.064887002 0.15403301 -0.23333099
-0.064884 0.154107 -0.233329
-0.064882003 0.154183 -0.233319
-0.064879 0.154258 -0.233317
-0.064875998 0.154332 -0.233317
-0.064874001 0.154406 -0.23330601
-0.064870998 0.15448 -0.23331
-0.064866997 0.15455399 -0.23332
-0.064865001 0.15462799 -0.23332199
-0.064861998 0.15470199 -0.23332
-0.064859003 0.154778 -0.233318
-0.064856 0.154852 -0.233319
-0.064852998 0.154926 -0.23332299
-0.064850003 0.155 -0.233319
-0.064847998 0.155076 -0.23331299
-0.064845003 0.15515 -0.23331501
-0.064841002 0.155224 -0.23332401
-0.064838 0.155296 -0.23333199
-0.064834997 0.15537 -0.233338
-0.064832002 0.155444 -0.23334
-0.064828999 0.15552001 -0.233338
-0.064827003 0.15559401 -0.233336
-0.064823002 0.15566801 -0.23334301
-0.064819999 0.155742 -0.233347
-0.064816996 0.155817 -0.233355
-0.064813003 0.155889 -0.233373
-0.06481 0.155963 -0.233385
-0.064806998 0.156037 -0.23338801
-0.064804003 0.156111 -0.23338801
-0.064801 0.156185 -0.23339
-0.064797997 0.156259 -0.233394
-0.064795002 0.156335 -0.23339599
-0.064792 0.156409 -0.2334
-0.064788997 0.15648399 -0.233411
-0.064785004 0.156556 -0.23342299
-0.064782001 0.15662999 -0.23342501
-0.064778998 0.15670399 -0.233429
-0.064776003 0.15677799 -0.233437
-0.064773001 0.15685201 -0.23344199
-0.064769998 0.15692601 -0.233446
-0.064767003 0.15700001 -0.23345
-0.064764 0.157076 -0.233454
-0.064760998 0.157148 -0.23345999
-0.064756997 0.157223 -0.233474
-0.064753003 0.157295 -0.23349699
-0.064750001 0.157369 -0.233501
-0.064747997 0.157445 -0.23348901
-0.064745001 0.15752099 -0.233487
-0.064741999 0.15759499 -0.233491
-0.064738996 0.15766899 -0.23349801
-0.064736001 0.15774301 -0.2335
-0.064732999 0.15781701 -0.23349801
-0.064730003 0.15789101 -0.233496
-0.064727001 0.157967 -0.233494
-0.064723998 0.158041 -0.233496
-0.064721003 0.158115 -0.233501
-0.064718001 0.158189 -0.233501
-0.064714998 0.158263 -0.233505
-0.064712003 0.158337 -0.23351701
-0.064709 0.158411 -0.233527
-0.064705998 0.158485 -0.233532
-0.064703003 0.15855899 -0.23353399
-0.0647 0.15863299 -0.23353
-0.064696997 0.158709 -0.23352399
-0.064694002 0.158783 -0.233522
-0.064691 0.158857 -0.23352601
-0.064687997 0.158933 -0.233529
-0.064686 0.159007 -0.233527
-0.064682998 0.159081 -0.233529
-0.064680003 0.159155 -0.233527
-0.064677 0.159229 -0.23353299
-0.064673997 0.15930501 -0.23353501
-0.064671002 0.15937901 -0.233538
-0.064668 0.159453 -0.23354
-0.064664997 0.159527 -0.23353399
-0.064663 0.159603 -0.233528
-0.064659998 0.159677 -0.233522
-0.064658001 0.159752 -0.233513
-0.064654998 0.159826 -0.233513
-0.064652003 0.15989999 -0.23351701
-0.064649001 0.15997399 -0.233519
-0.064645 0.160051 -0.233527
-0.064641997 0.16012301 -0.233537
-0.064639002 0.160199 -0.23353399
-0.064636 0.160273 -0.233532
-0.064632997 0.160347 -0.233538
-0.064630002 0.160421 -0.23354401
-0.064626999 0.160495 -0.233542
-0.064625002 0.16057099 -0.23353601
-0.064622 0.16064399 -0.233529
-0.064618997 0.16071799 -0.233527
-0.064617001 0.160794 -0.233521
-0.064613998 0.160868 -0.233511
-0.064612001 0.160944 -0.233511
-0.064608 0.161018 -0.233518
-0.064606003 0.161092 -0.23351599
-0.064603001 0.161166 -0.233514
-0.064599998 0.16124 -0.23351599
-0.064597003 0.16131601 -0.233512
-0.064594999 0.16138899 -0.23349699
-0.064591996 0.161465 -0.23348901
-0.064589001 0.161539 -0.233501
-0.064585999 0.161614 -0.233511
-0.064583004 0.161688 -0.233511
-0.064580001 0.161761 -0.233505
-0.064577997 0.161837 -0.23349001
-0.064576 0.161911 -0.233482
-0.064571999 0.161985 -0.233492
-0.064568996 0.16205899 -0.233502
-0.064566001 0.16213299 -0.23350599
-0.064562999 0.16220701 -0.23351
-0.064560004 0.162283 -0.233509
-0.064557001 0.162357 -0.233505
-0.064553998 0.162433 -0.233505
-0.064552002 0.162507 -0.233503
-0.064548999 0.162581 -0.23349699
-0.064545996 0.162655 -0.233492
-0.064544 0.16273101 -0.23348799
-0.064540997 0.16280501 -0.233492
-0.064537004 0.16287901 -0.233502
-0.064534001 0.162953 -0.233504
-0.064531997 0.163029 -0.23349801
-0.064529002 0.163102 -0.233495
-0.064525999 0.163176 -0.23348901
-0.064522997 0.16325 -0.233491
-0.064520001 0.163325 -0.233501
-0.064516999 0.163399 -0.23350701
-0.064514004 0.16347501 -0.233503
-0.064511999 0.16354799 -0.233486
-0.064510003 0.16362201 -0.233476
-0.064507 0.16369601 -0.23347799
-0.064503998 0.163772 -0.23346999
-0.064502001 0.163845 -0.233458
-0.064498998 0.163921 -0.233455
-0.064496003 0.163995 -0.233459
-0.064493001 0.164069 -0.233457
-0.064490996 0.164143 -0.23345099
-0.064488001 0.164217 -0.233449
-0.064484999 0.16429301 -0.233445
-0.064483002 0.16436701 -0.233436
-0.064479999 0.16444001 -0.233428
-0.064476997 0.164516 -0.233428
-0.064475 0.16459 -0.233426
-0.064471997 0.164664 -0.233422
-0.064469002 0.164738 -0.233419
-0.064466998 0.164812 -0.233413
-0.064464003 0.16488799 -0.233403
-0.064461999 0.164961 -0.23339701
-0.064459004 0.16503701 -0.23338699
-0.064456999 0.16511101 -0.233376
-0.064453997 0.165185 -0.233374
-0.064451002 0.165259 -0.23337799
-0.064448997 0.165333 -0.233372
-0.064446002 0.165408 -0.233354
-0.064443998 0.165482 -0.233346
-0.064441003 0.165556 -0.23334301
-0.064438999 0.16563199 -0.233337
-0.064436004 0.16570599 -0.233329
-0.064433001 0.16577899 -0.233325
-0.064430997 0.16585299 -0.233319
-0.064429 0.165929 -0.23330601
-0.064425997 0.166003 -0.233292
-0.064424001 0.166077 -0.233292
-0.064420998 0.166153 -0.233294
-0.064418003 0.166226 -0.23329
-0.064415 0.1663 -0.233288
-0.064411998 0.166374 -0.233289
-0.064410001 0.166448 -0.23327699
-0.064407997 0.16652399 -0.233257
-0.064406 0.16659699 -0.233247
-0.064402997 0.16667099 -0.23325101
-0.064400002 0.16674501 -0.233248
-0.064397 0.16681901 -0.23323999
-0.064395003 0.166895 -0.23323201
-0.064392 0.166969 -0.233226
-0.064390004 0.167042 -0.233218
-0.064387001 0.167116 -0.233211
-0.064384997 0.16719 -0.23320501
-0.064382002 0.167266 -0.233197
-0.064379998 0.16734 -0.233183
-0.064378001 0.167413 -0.233161
-0.064375997 0.167487 -0.233144
-0.064373001 0.16756099 -0.233146
-0.064369999 0.16763499 -0.23315001
-0.064366996 0.16770899 -0.23314799
-0.064365 0.16778199 -0.233142
-0.064361997 0.167858 -0.23313101
-0.06436 0.167932 -0.233123
-0.064356998 0.168006 -0.233123
-0.064354002 0.16808 -0.233123
-0.064351 0.168154 -0.23312099
-0.064349003 0.16823 -0.23311301
-0.064346001 0.168303 -0.23310401
-0.064343996 0.168377 -0.23309401
-0.064342 0.168451 -0.233086
-0.064338997 0.168525 -0.233078
-0.064337 0.168598 -0.23306599
-0.064333998 0.168672 -0.23306499
-0.064331003 0.16874801 -0.23306701
-0.064328 0.16882201 -0.23306499
-0.064324997 0.168896 -0.23306499
-0.064322002 0.16897 -0.233073
-0.064319 0.169044 -0.23308
-0.064317003 0.169118 -0.23307
-0.064314 0.169192 -0.23305599
-0.064310998 0.169266 -0.23306599
-0.064306997 0.16934299 -0.233088
-0.064303003 0.16941699 -0.23310401
-0.064300999 0.16949099 -0.233105
-0.064297996 0.16956501 -0.233107
-0.064294003 0.16963901 -0.23312099
-0.064291 0.16971301 -0.23312899
-0.064286999 0.169788 -0.233143
-0.064283997 0.169864 -0.233155
-0.064281002 0.169938 -0.233162
-0.064277001 0.170012 -0.23317
-0.064273998 0.170086 -0.233182
-0.064269997 0.17016099 -0.233198
-0.064267002 0.170237 -0.233208
-0.064263999 0.170311 -0.23321401
-0.064259999 0.170385 -0.23322099
-0.064257003 0.170459 -0.233229
-0.064253002 0.170536 -0.233247
-0.064249001 0.17061 -0.23327699
-0.064245 0.17068499 -0.23329701
-0.064241998 0.17075901 -0.23331501
-0.064237997 0.170835 -0.233337
-0.064234003 0.17091 -0.233358
-0.064228997 0.170987 -0.233386
-0.064225003 0.17106099 -0.233428
-0.064219996 0.171138 -0.233468
-0.064214997 0.171213 -0.233502
-0.064209998 0.17129 -0.233546
-0.064204998 0.171367 -0.233596
-0.064199001 0.171442 -0.23365401
-0.064777002 0.15134899 -0.23403899
-0.064778 0.15143301 -0.233955
-0.064778 0.151513 -0.233891
-0.064777002 0.151592 -0.23384701
-0.064776003 0.15167101 -0.233797
-0.064774998 0.15175 -0.23375501
-0.064773001 0.15182801 -0.23372699
-0.064772002 0.151905 -0.23370101
-0.064769998 0.15198199 -0.233669
-0.064768001 0.15206 -0.233641
-0.064765997 0.152133 -0.23363601
-0.064763002 0.152209 -0.23363601
-0.06476 0.152283 -0.23363601
-0.064756997 0.152357 -0.23363601
-0.064754002 0.15243299 -0.23363601
-0.064750999 0.15250701 -0.23363701
-0.064747997 0.15258101 -0.23363701
-0.064746 0.152657 -0.23362701
-0.064742997 0.152733 -0.233619
-0.064741001 0.152808 -0.23360699
-0.064738996 0.15288401 -0.233587
-0.064737 0.152961 -0.23356099
-0.064735003 0.153037 -0.233546
-0.064732999 0.15311299 -0.233532
-0.064731002 0.15319 -0.23350801
-0.064730003 0.153265 -0.233476
-0.064727999 0.15334301 -0.233448
-0.064726003 0.153418 -0.23343
-0.064723998 0.153496 -0.233413
-0.064722002 0.15357099 -0.233391
-0.064719997 0.15364701 -0.233371
-0.064718001 0.153724 -0.23335101
-0.064714998 0.1538 -0.233339
-0.064713001 0.15387399 -0.23333099
-0.064709999 0.15394799 -0.233334
-0.064707004 0.154024 -0.23333
-0.064704999 0.15409701 -0.23332199
-0.064701997 0.154173 -0.23331399
-0.0647 0.154249 -0.23330601
-0.064696997 0.154323 -0.2333
-0.064694002 0.154397 -0.233303
-0.064691 0.154471 -0.233311
-0.064687997 0.15454499 -0.233317
-0.064685002 0.15461899 -0.233311
-0.064682998 0.154695 -0.23329499
-0.064680003 0.15477 -0.233289
-0.064677 0.154844 -0.23329601
-0.064673997 0.154917 -0.233302
-0.064671002 0.154993 -0.23330399
-0.064668 0.155067 -0.23330399
-0.064664997 0.155141 -0.233308
-0.064662002 0.155215 -0.23331501
-0.064658999 0.155287 -0.233321
-0.064655997 0.15536299 -0.233325
-0.064653002 0.15543699 -0.233329
-0.064649999 0.155509 -0.23333301
-0.064646997 0.15558501 -0.23333301
-0.064644001 0.15565901 -0.233326
-0.064641997 0.155735 -0.233318
-0.064639002 0.155808 -0.23331399
-0.064635001 0.155881 -0.233336
-0.064631 0.155954 -0.233366
-0.064627998 0.156028 -0.23337699
-0.064625002 0.156104 -0.23336899
-0.064622 0.156178 -0.233371
-0.064618997 0.15625 -0.23338699
-0.064614996 0.156324 -0.233401
-0.064612001 0.156398 -0.23340499
-0.064608999 0.156472 -0.233412
-0.064606003 0.156546 -0.233418
-0.064603001 0.15662 -0.23342
-0.064599998 0.15669499 -0.233426
-0.064595997 0.15676901 -0.233438
-0.064593002 0.15684301 -0.23345301
-0.064589001 0.15691499 -0.233465
-0.064585999 0.15698899 -0.23346899
-0.064583004 0.157065 -0.23347101
-0.064580001 0.157139 -0.233473
-0.064576998 0.157214 -0.233477
-0.064574003 0.157287 -0.233476
-0.064571999 0.157361 -0.233472
-0.064567998 0.157436 -0.233484
-0.064565003 0.15751 -0.233494
-0.064562 0.15758599 -0.23349001
-0.064558998 0.15765999 -0.233487
-0.064556003 0.15773401 -0.233491
-0.064553 0.15780801 -0.233491
-0.064551003 0.15788101 -0.23348901
-0.064547002 0.157956 -0.233501
-0.064544 0.15803 -0.233511
-0.064540997 0.158104 -0.23351
-0.064539 0.15818 -0.233504
-0.064534999 0.158254 -0.23351
-0.064531997 0.158328 -0.23352
-0.064529002 0.158402 -0.23352601
-0.064525999 0.158476 -0.233529
-0.064522997 0.15854999 -0.233527
-0.064520001 0.15862399 -0.23352499
-0.064516999 0.1587 -0.233529
-0.064514004 0.158774 -0.233529
-0.064511001 0.158848 -0.233529
-0.064508997 0.158924 -0.233522
-0.064506002 0.158998 -0.233518
-0.064502999 0.159072 -0.233522
-0.064499997 0.159146 -0.23352399
-0.064498 0.15922201 -0.23351599
-0.064494997 0.15929499 -0.23351599
-0.064492002 0.15937001 -0.233523
-0.064489 0.159446 -0.233523
-0.064485997 0.159519 -0.233519
-0.064483002 0.159593 -0.233521
-0.064479999 0.159667 -0.233519
-0.064478002 0.159743 -0.233514
-0.064475 0.159817 -0.23351
-0.064471997 0.15989301 -0.233504
-0.064470001 0.15996701 -0.23349801
-0.064466998 0.160041 -0.2335
-0.064464003 0.160115 -0.23350599
-0.064461 0.160189 -0.233511
-0.064457998 0.160265 -0.233511
-0.064455003 0.160339 -0.233503
-0.064452998 0.160413 -0.233495
-0.064450003 0.16048799 -0.233495
-0.064447001 0.16056301 -0.233501
-0.064443 0.16063701 -0.23350801
-0.064439997 0.16071101 -0.23351599
-0.064437002 0.160785 -0.233522
-0.064433999 0.160859 -0.23351599
-0.064432003 0.160935 -0.23350599
-0.064429 0.161008 -0.233505
-0.064427003 0.161082 -0.23349901
-0.064424001 0.161158 -0.233495
-0.064420998 0.16123199 -0.233501
-0.064418003 0.16130599 -0.233503
-0.064415 0.16137999 -0.233503
-0.064411998 0.16145401 -0.23351
-0.064409003 0.16152801 -0.233514
-0.064406 0.161604 -0.23350599
-0.064402997 0.161678 -0.233502
-0.064401001 0.161752 -0.2335
-0.064397998 0.161828 -0.233493
-0.064396001 0.161902 -0.233487
-0.064392 0.16197599 -0.233495
-0.064390004 0.16204999 -0.233493
-0.064387001 0.162126 -0.23348901
-0.064383999 0.1622 -0.233487
-0.064381003 0.162273 -0.233484
-0.064378001 0.162347 -0.23348799
-0.064375997 0.162423 -0.233484
-0.064373001 0.162497 -0.233476
-0.064369999 0.162571 -0.23348799
-0.064365998 0.162645 -0.233495
-0.064364001 0.162719 -0.233491
-0.064360999 0.16279501 -0.233493
-0.064358003 0.16286901 -0.23349699
-0.064355001 0.16294301 -0.233495
-0.064352997 0.163019 -0.23347899
-0.064351 0.163093 -0.233464
-0.064346999 0.163167 -0.233474
-0.064343996 0.163241 -0.23348799
-0.064341001 0.163315 -0.233486
-0.064337999 0.16339099 -0.233482
-0.064336002 0.16346499 -0.233476
-0.064332999 0.16353901 -0.233475
-0.064329997 0.16361199 -0.23346899
-0.064328 0.163688 -0.233457
-0.064324997 0.163762 -0.233459
-0.064322002 0.163836 -0.233455
-0.064319998 0.163912 -0.23344401
-0.064317003 0.163986 -0.233446
-0.064314 0.16406 -0.233454
-0.064310998 0.164134 -0.23344401
-0.064309001 0.16420899 -0.233428
-0.064305998 0.16428301 -0.23342399
-0.064303003 0.16435701 -0.233429
-0.064300001 0.16443101 -0.233437
-0.064296998 0.164505 -0.233437
-0.064295001 0.164581 -0.233427
-0.064291999 0.164655 -0.233417
-0.064290002 0.164729 -0.233412
-0.064286999 0.164804 -0.233402
-0.064285003 0.164878 -0.23339
-0.064282998 0.164952 -0.23338
-0.064280003 0.16502801 -0.23336799
-0.064277999 0.16510201 -0.23336899
-0.064274997 0.16517501 -0.233367
-0.064272001 0.165251 -0.233353
-0.064269997 0.165325 -0.233349
-0.064267002 0.165399 -0.233349
-0.064264998 0.165473 -0.23333099
-0.064262003 0.165546 -0.233328
-0.064259 0.165622 -0.233328
-0.064258002 0.165696 -0.23330601
-0.064255998 0.16577099 -0.233282
-0.064253002 0.16584501 -0.233282
-0.064249001 0.16592 -0.23329701
-0.064245999 0.165994 -0.233303
-0.064242996 0.166068 -0.233301
-0.064241 0.166142 -0.233301
-0.064237997 0.166215 -0.23329701
-0.064236 0.166291 -0.233281
-0.064234003 0.166365 -0.233266
-0.064231001 0.166438 -0.23325799
-0.064227998 0.16651399 -0.23325799
-0.064225003 0.16658799 -0.23325799
-0.064222999 0.16666199 -0.233252
-0.064219996 0.16673601 -0.233243
-0.064218 0.16681001 -0.233225
-0.064216003 0.166885 -0.233219
-0.064212002 0.16696 -0.233227
-0.064209998 0.167033 -0.23322301
-0.064208001 0.167107 -0.233208
-0.064204998 0.167181 -0.23319399
-0.064203002 0.167256 -0.23318601
-0.064200997 0.16733 -0.23317
-0.064199001 0.167404 -0.233156
-0.064195998 0.167478 -0.233155
-0.064193003 0.16755199 -0.233153
-0.064190999 0.167625 -0.233145
-0.064188004 0.16769899 -0.233135
-0.064185999 0.16777299 -0.233127
-0.064182997 0.167849 -0.233125
-0.064181 0.167923 -0.233114
-0.064177997 0.167996 -0.233106
-0.064175002 0.16807 -0.233106
-0.064172 0.168144 -0.233106
-0.064168997 0.16822 -0.233106
-0.064167 0.168294 -0.233105
-0.064163998 0.168368 -0.233099
-0.064162001 0.168442 -0.233091
-0.064158998 0.168515 -0.233079
-0.064157002 0.168589 -0.233073
-0.064153999 0.168663 -0.233072
-0.064150997 0.16873901 -0.23307
-0.064148001 0.16881301 -0.23307399
-0.064144999 0.168887 -0.23308
-0.064142004 0.168961 -0.23308
-0.064139001 0.169035 -0.233081
-0.064135998 0.169109 -0.23308299
-0.064133003 0.169183 -0.233089
-0.064130001 0.169257 -0.23309299
-0.064126998 0.169333 -0.233089
-0.064125001 0.169407 -0.23308501
-0.064121 0.16948099 -0.233096
-0.064117998 0.16955601 -0.23311201
-0.064113997 0.16963001 -0.233124
-0.064111002 0.16970401 -0.23312999
-0.064107999 0.169778 -0.23314001
-0.064103998 0.169855 -0.23316
-0.064099997 0.169929 -0.23318499
-0.064095996 0.170004 -0.233209
-0.064092003 0.17008001 -0.233225
-0.064089 0.17015401 -0.233235
-0.064084999 0.170228 -0.233243
-0.064081997 0.170303 -0.23324899
-0.064079002 0.170377 -0.233252
-0.064075999 0.170453 -0.23326001
-0.064072996 0.170527 -0.233272
-0.064069003 0.170601 -0.233282
-0.064066 0.17067499 -0.233298
-0.064061999 0.170752 -0.233318
-0.064057998 0.170826 -0.23334
-0.064053997 0.170901 -0.233363
-0.064049996 0.170977 -0.23338901
-0.064044997 0.17105199 -0.233419
-0.064039998 0.171129 -0.23346099
-0.064034998 0.171204 -0.233509
-0.064029001 0.171281 -0.233565
-0.064024001 0.171358 -0.233615
-0.064018004 0.171436 -0.233675
-0.064011998 0.17151099 -0.233739
-0.064681001 0.151343 -0.23404799
-0.064681001 0.151425 -0.23398
-0.064680003 0.15150601 -0.23391999
-0.064680003 0.15158699 -0.233861
-0.064678997 0.151664 -0.233821
-0.064677998 0.15174399 -0.233771
-0.064677 0.151823 -0.23372699
-0.064675003 0.151899 -0.233707
-0.064672999 0.15197501 -0.233697
-0.064669997 0.15205 -0.233685
-0.064668 0.152126 -0.233676
-0.064664997 0.1522 -0.233674
-0.064662002 0.152274 -0.23367999
-0.064658999 0.152348 -0.233686
-0.064655997 0.15242399 -0.23367999
-0.064654 0.15249801 -0.233676
-0.064649999 0.15257201 -0.23368099
-0.064646997 0.15264601 -0.233687
-0.064644001 0.152722 -0.233687
-0.064643003 0.152797 -0.233659
-0.064641997 0.152877 -0.233619
-0.06464 0.152954 -0.233595
-0.064638004 0.15302899 -0.233576
-0.064636 0.153107 -0.233556
-0.064634003 0.153182 -0.233528
-0.064631999 0.15325999 -0.233502
-0.064630002 0.15333501 -0.23348001
-0.064629003 0.153412 -0.233446
-0.064627998 0.15349001 -0.23341399
-0.064626001 0.153567 -0.233393
-0.064623997 0.153642 -0.233365
-0.064622 0.15372001 -0.233349
-0.064618997 0.15379401 -0.233339
-0.064617001 0.15387 -0.233329
-0.064613998 0.153945 -0.233321
-0.064612001 0.154019 -0.233316
-0.064608999 0.15409499 -0.23331399
-0.064606003 0.15416899 -0.233318
-0.064603001 0.15424301 -0.23331399
-0.064600997 0.154319 -0.23330601
-0.064598002 0.154393 -0.23330601
-0.064594999 0.154467 -0.233309
-0.064591996 0.154541 -0.233311
-0.064589001 0.154615 -0.233309
-0.064586997 0.154691 -0.233301
-0.064584002 0.154764 -0.233299
-0.064580999 0.154838 -0.233299
-0.064577997 0.15491199 -0.2333
-0.064575002 0.15498599 -0.23330399
-0.064571999 0.15506101 -0.233312
-0.064568996 0.15513501 -0.233312
-0.064566001 0.155211 -0.233312
-0.064562999 0.155284 -0.23331299
-0.064560004 0.155358 -0.23331299
-0.064557001 0.155433 -0.233321
-0.064553998 0.155505 -0.23333099
-0.064549997 0.155579 -0.23334099
-0.064547002 0.155653 -0.233345
-0.064544 0.155727 -0.23335201
-0.064540997 0.155801 -0.23336001
-0.064538002 0.155875 -0.233366
-0.064534999 0.155949 -0.233366
-0.064531997 0.15602501 -0.23336001
-0.064529002 0.15609901 -0.23335899
-0.064525999 0.156174 -0.233375
-0.064522997 0.15624601 -0.233383
-0.064520001 0.156322 -0.233385
-0.064516999 0.156396 -0.23338699
-0.064512998 0.15647 -0.233393
-0.064510003 0.156544 -0.23339801
-0.064507 0.156618 -0.2334
-0.064503998 0.156692 -0.23340601
-0.064501002 0.156766 -0.233408
-0.064498 0.15684 -0.233418
-0.064493999 0.156913 -0.233439
-0.064490996 0.156987 -0.23345301
-0.064487003 0.157061 -0.23346099
-0.064484 0.15713499 -0.233473
-0.064480998 0.15720899 -0.233473
-0.064479001 0.15728299 -0.233463
