-0.0667513 0.125029 0.989905 0
-0.0664507 0.12682 0.989697 0
-0.0646139 0.129559 0.989464 0
-0.0667621 0.132101 0.988985 0
-0.0666273 0.135955 0.988472 0
-0.0616984 -0.0353131 0.99747 0.00824201
-0.0611672 -0.0339748 0.997549 0.006577
-0.0603106 -0.0334082 0.99762 0.00454378
-0.0610342 -0.0322652 0.997614 0
-0.0624062 -0.0314928 0.997554 0.003596
-0.0616675 -0.031383 0.997603 0.00494147
-0.06498 -0.030214 0.997429 0.0109539
-0.0630803 -0.0301643 0.997553 0.00510471
-0.0618078 -0.0299612 0.997638 0
-0.0621907 -0.0299293 0.997615 0
-0.0609234 -0.0297636 0.997699 0
-0.0641501 -0.0284259 0.997535 0.00442017
-0.0656301 -0.0275466 0.997464 0.00817883
-0.0635598 -0.0272648 0.997606 0.00102906
-0.0609374 -0.0273745 0.997766 0
-0.0623897 -0.0265605 0.997698 0
-0.0600387 -0.0265319 0.997843 0
-0.0622902 -0.0255342 0.997731 0
-0.062351 -0.0247491 0.997747 0
-0.0629021 -0.0240956 0.997729 0
-0.0646781 -0.0231173 0.997638 0
-0.0640217 -0.0225506 0.997694 0
-0.0627493 -0.0218172 0.997791 0
-0.064651 -0.0205689 0.997696 0
-0.0628379 -0.0201031 0.997821 0
-0.0608913 -0.0193807 0.997956 0
-0.0591081 -0.018409 0.998082 0
-0.0594216 -0.0170567 0.998087 0
-0.0603057 -0.0156159 0.998058 0
-0.060381 -0.0147056 0.998067 0
-0.0569519 -0.0142841 0.998275 0
-0.0561396 -0.0135018 0.998332 0
-0.0553304 -0.0127938 0.998386 0
-0.0538289 -0.0123105 0.998474 0
-0.0563268 -0.0111335 0.99835 0
-0.0559516 -0.010308 0.99838 0
-0.0550344 -0.00970719 0.998437 0
-0.0553891 -0.00867904 0.998427 0
-0.0571378 -0.0075966 0.998337 0
-0.0547398 -0.00701323 0.998476 0
-0.0541589 -0.00652536 0.998511 0
-0.056613 -0.00551919 0.998381 0
-0.0580253 -0.00453901 0.998305 0
-0.0605068 -0.00445216 0.998158 0
-0.0626466 -0.00352509 0.99803 0
-0.0629979 -0.00293074 0.998009 0
-0.0625464 -0.00211159 0.99804 0
-0.0636611 -0.00130316 0.997971 8.91034e-05
-0.0655295 -0.000281033 0.997851 0.00643962
-0.0659359 -0.000513764 0.997824 0.00467858
-0.0668109 -0.000411845 0.997766 0
-0.0715143 -0.000296633 0.99744 0
-0.0721062 -0.00010715 0.997397 0.000377623
-0.0702382 0.000539563 0.99753 0.00140407
-0.0706755 0.00130205 0.997499 0
-0.0713703 0.00222725 0.997447 0.003315
-0.073516 0.00294742 0.99729 0.00510335
-0.071212 0.00335636 0.997456 0.00420483
-0.0720649 0.00414712 0.997391 0.00413508
-0.0707631 0.00473134 0.997482 0.00597087
-0.0732599 0.0054653 0.997298 0.00499059
-0.0698051 0.00570587 0.997544 0.00164595
-0.0679154 0.0060608 0.997673 0
-0.0686962 0.00682316 0.997614 0.00376092
-0.0642914 0.0074721 0.997903 0.000119124
-0.0638089 0.0085364 0.997926 0.000193129
-0.064436 0.00999088 0.997872 0
-0.0628593 0.0111762 0.99796 0
-0.0613431 0.0124219 0.998039 0
-0.0630123 0.0137111 0.997919 0
-0.0618817 0.0147435 0.997975 0
-0.061467 0.0157727 0.997984 0.000945296
-0.0582181 0.01638 0.99817 0
-0.0626201 0.0175876 0.997882 0
-0.0607369 0.0182668 0.997987 0
-0.0605584 0.0189269 0.997985 0
-0.0574089 0.0192828 0.998164 0
-0.0545323 0.0195476 0.998321 0
-0.0579754 0.0203614 0.99811 0
-0.0544541 0.0205752 0.998304 0
-0.0565173 0.0212373 0.998176 0
-0.055949 0.0217382 0.998197 0
-0.0568154 0.0223886 0.998134 0
-0.058899 0.0232257 0.997994 0.00349194
-0.0558516 0.0233841 0.998165 0
-0.0571404 0.0237215 0.998084 0
-0.0573421 0.0242118 0.998061 0
-0.0584497 0.0247771 0.997983 0
-0.056772 0.0250816 0.998072 0
-0.0611478 0.0259166 0.997792 0.00104181
-0.0592051 0.0260908 0.997905 0
-0.0607651 0.0264985 0.9978 0.000193278
-0.065198 0.0274611 0.997494 0.00633603
-0.0642623 0.0276276 0.997551 0.00400469
-0.0633233 0.0275866 0.997612 0.00108734
-0.0648167 0.0277954 0.99751 0
-0.0662654 0.0281915 0.997404 0.00222826
-0.0697049 0.028366 0.997164 0.00464552
-0.0730727 0.0286788 0.996914 0.00707896
-0.0682679 0.0281785 0.997269 0.00455509
-0.0703269 0.028529 0.997116 0.00925392
-0.0757972 0.0285899 0.996713 0.0139205
-0.0703952 0.0276148 0.997137 0.00412444
-0.0727583 0.0276838 0.996965 0.00721955
-0.0773499 0.0278646 0.996615 0.0118228
-0.067913 0.0268965 0.997329 0.00583966
-0.0621798 0.0265385 0.997712 0.00225405
-0.0592399 0.0261137 0.997902 0.00030297
-0.0551386 0.0261246 0.998137 0
-0.0498507 0.0263001 0.99841 0
-0.0503124 0.0266186 0.998379 0
-0.0481837 0.0261266 0.998497 0
-0.0435001 0.0261709 0.998711 0
-0.0438885 0.026038 0.998697 0
-0.0358625 0.0257283 0.999025 0
-0.0354227 0.0257839 0.99904 0
-0.0300742 0.0264768 0.999197 0.00308404
-0.0290665 0.0258454 0.999243 0.000176712
-0.026295 0.0252085 0.999336 0
-0.0270067 0.0249579 0.999324 0.000113534
-0.0275939 0.0244325 0.999321 0
-0.0288596 0.0240991 0.999293 0
-0.0270221 0.0232559 0.999364 0
-0.0263729 0.0223973 0.999401 0
-0.0274715 0.0219332 0.999382 0
-0.028497 0.0214576 0.999364 0
-0.0294312 0.0210456 0.999345 0
-0.0287234 0.0202884 0.999382 0
-0.0255857 0.0193361 0.999486 0
-0.0263034 0.0186855 0.999479 0
-0.0276663 0.0183349 0.999449 0
-0.0282314 0.0178019 0.999443 0
-0.0283958 0.0169993 0.999452 0
-0.0284232 0.0167134 0.999456 0
-0.0246456 0.0159366 0.999569 0
-0.0251576 0.0150273 0.999571 0
-0.0255161 0.0142674 0.999573 0
-0.0268252 0.0130304 0.999555 0.000123926
-0.0199131 0.0115663 0.999735 0
-0.0194192 0.0104795 0.999757 0
-0.0194751 0.00942333 0.999766 0
-0.0188961 0.00820512 0.999788 0.00371664
-0.0167216 0.00687938 0.999837 0
-0.0158565 0.00546915 0.999859 0.00230972
-0.0165883 0.00460234 0.999852 0.00356587
-0.0153681 0.00307901 0.999877 0
-0.0150584 0.00188512 0.999885 0.00372514
-0.0156128 0.000557759 0.999878 0.00383966
-0.0159277 -0.000443046 0.999873 0.00477975
-0.0141612 -0.00219821 0.999897 0
-0.0110599 -0.0044733 0.999929 0
-0.00837579 -0.00669476 0.999942 0
-0.00537274 -0.00949244 0.999941 0.00424317
-0.00336387 -0.0107688 0.999936 0
-0.00490231 -0.0116458 0.99992 0.00165513
-0.00559937 -0.0130092 0.9999 0
-0.00574706 -0.0138309 0.999888 0.00166178
-0.00558256 -0.014804 0.999875 0
-0.00537177 -0.0160591 0.999857 0.00033587
-0.00702395 -0.0170401 0.99983 0.00447692
-0.00653508 -0.0180468 0.999816 0.000184551
-0.00637298 -0.0193243 0.999793 0.00257858
-0.00824587 -0.0202371 0.999761 0.00616535
-0.00854895 -0.0213803 0.999735 0.000949473
-0.0110312 -0.022482 0.999686 0.00934351
-0.0114341 -0.0236204 0.999656 0.0136496
-0.0128683 -0.0249852 0.999605 0.0134821
-0.0117825 -0.0261385 0.999589 0.00953998
-0.0127504 -0.0268678 0.999558 0.00942457
-0.0112694 -0.0279571 0.999546 0.00624141
-0.0118342 -0.0289292 0.999511 0.00690344
-0.0106627 -0.0297404 0.999501 0.00456442
-0.00946509 -0.0304586 0.999491 0.00272719
-0.010144 -0.0311769 0.999462 0.00462942
-0.0134783 -0.0317134 0.999406 0.00628668
-0.0149655 -0.0317708 0.999383 0.00477762
-0.018815 -0.0315435 0.999325 0.00368581
-0.0195001 -0.0322058 0.999291 0.00172045
-0.0197669 -0.0323571 0.999281 0.00133926
-0.0211144 -0.0328018 0.999239 0.000995452
-0.0209335 -0.0336912 0.999213 0
-0.0248877 -0.0338745 0.999116 0
-0.0255129 -0.0341216 0.999092 0
-0.0239153 -0.034671 0.999113 0
-0.0246085 -0.034821 0.999091 0
-0.0310252 -0.0340549 0.998938 0
-0.0376506 -0.0335517 0.998728 0
-0.0391885 -0.0333704 0.998674 0
-0.0416202 -0.0334842 0.998572 0
-0.0394846 -0.0338998 0.998645 0
-0.0389934 -0.0340127 0.99866 0
-0.037944 -0.0345459 0.998683 0
-0.040172 -0.0346145 0.998593 0
-0.0431892 -0.0345191 0.99847 0
-0.0436105 -0.0347326 0.998445 0
-0.0428941 -0.0346821 0.998477 0
-0.0436738 -0.0346357 0.998445 0
-0.046284 -0.0342181 0.998342 0
-0.047222 -0.0339943 0.998306 0
-0.0501625 -0.03352 0.998178 0
-0.0480808 -0.0334417 0.998284 0
-0.0473972 -0.0332368 0.998323 0
-0.0493616 -0.0327485 0.998244 0
-0.0538221 -0.0318142 0.998044 0
-0.053025 -0.0310748 0.99811 0
-0.054938 -0.0298494 0.998044 0
-0.0514985 -0.0295089 0.998237 0
-0.057161 -0.0280831 0.99797 0
-0.0578855 -0.0271713 0.997953 0.00306602
-0.0566104 -0.0262251 0.998052 0.00144478
-0.0549089 -0.0252975 0.998171 0
-0.0555427 -0.0242485 0.998162 0
-0.0567942 -0.0226931 0.998128 0
-0.0578253 -0.0217877 0.998089 0
-0.0593489 -0.0210828 0.998015 0.00283394
-0.0584487 -0.0206177 0.998077 0
-0.0567309 -0.0202237 0.998185 0
-0.0565993 -0.0194958 0.998207 0
-0.0564963 -0.0187797 0.998226 0
-0.0571011 -0.0180727 0.998205 0.000880469
-0.0585202 -0.0173332 0.998136 0.00270997
-0.05294 -0.0170248 0.998453 0
-0.0537989 -0.0157703 0.998427 0
-0.055871 -0.0143687 0.998335 0.00635569
-0.0555883 -0.0134612 0.998363 0.00389695
-0.0585328 -0.0122553 0.99821 0.00456235
-0.0556114 -0.0113295 0.998388 0.000321095
-0.0550906 -0.00999598 0.998431 0.00275579
-0.06072 -0.0082491 0.998121 0.00962299
-0.0594134 -0.00665897 0.998211 0.00978096
-0.0527975 -0.0056668 0.998589 0.000981182
-0.053311 -0.00404778 0.99857 0.0034569
-0.0517279 -0.00301158 0.998657 0
-0.0536424 -0.000965663 0.99856 0.00288001
-0.0529064 0.000609614 0.998599 0.00408856
-0.0497966 0.0024944 0.998756 0.00307909
-0.0487618 0.0045347 0.9988 0.000365959
-0.0477335 0.00712971 0.998835 0.000494118
-0.043035 0.0087931 0.999035 0
-0.0432697 0.0115812 0.998996 0
-0.0451717 0.0144987 0.998874 0.00015718
-0.0509937 0.0179042 0.998538 0.00822146
-0.0495626 0.0198377 0.998574 0.00863472
-0.0459627 0.0218672 0.998704 0.00469362
-0.0426787 0.0229121 0.998826 0.000173953
-0.0421793 0.0242146 0.998817 0
-0.0451054 0.0263941 0.998634 0.00391557
-0.0429249 0.0268477 0.998717 0.00182155
-0.042237 0.0281543 0.998711 0.00114666
-0.0428057 0.0289953 0.998663 0
-0.0424297 0.0299232 0.998651 0
-0.0436268 0.0311513 0.998562 0
-0.042725 0.0322856 0.998565 0
-0.0438055 0.0337381 0.99847 0
-0.0422215 0.0344292 0.998515 0
-0.0402546 0.0356734 0.998552 0
-0.0420071 0.0370086 0.998432 0
-0.0447311 0.038601 0.998253 0
-0.0457381 0.0404261 0.998135 0
-0.0432029 0.041637 0.998198 0
-0.0429974 0.0430512 0.998147 0
-0.0453564 0.0448732 0.997963 0
-0.0486818 0.0468024 0.997717 0.00130245
-0.0505794 0.0489625 0.997519 0.00251664
-0.052994 0.050532 0.997315 0.00372917
-0.0555393 0.0529295 0.997053 0.00691914
-0.0569146 0.0543829 0.996897 0.00787033
-0.0607915 0.0568838 0.996528 0.0116932
-0.0654942 0.0590324 0.996105 0.0164373
-0.0629724 0.0599577 0.996213 0.00905712
-0.0647146 0.0616223 0.995999 0.0064875
-0.0630062 0.0632164 0.996009 0.00649101
-0.0648748 0.0651885 0.995762 0.00843686
-0.0676453 0.0678438 0.9954 0.013556
-0.0661571 0.0702659 0.995332 0.0152856
-0.0619474 0.0708959 0.995558 0.00890875
-0.0624277 0.0732532 0.995358 0.00975474
-0.0634042 0.0751944 0.995151 0.0108107
-0.0620189 0.0758864 0.995186 0.00434017
-0.0614152 0.0775904 0.995092 0.00281388
-0.063095 0.0793927 0.994845 0.00330447
-0.0646436 0.0807459 0.994636 0.00487567
-0.0656407 0.0840995 0.994293 0.00730446
-0.0693502 0.086673 0.99382 0.0104229
-0.0690571 0.0881682 0.993709 0.00986044
-0.0695828 0.0909513 0.993421 0.0143899
-0.0673563 0.0922922 0.993451 0.0095331
-0.0663689 0.0938677 0.99337 0.00716769
-0.0660859 0.0952864 0.993254 0.00475609
-0.0659842 0.0946703 0.99332 0
-0.0670134 0.0970721 0.993019 0
-0.0685568 0.0989508 0.992728 0
-0.0666962 0.100281 0.992721 0
-0.0663207 0.103589 0.992407 0
-0.067761 0.105184 0.992141 0
-0.0662788 0.106626 0.992088 0
-0.0678616 0.109535 0.991664 0
-0.0684642 0.112254 0.991318 0
-0.0676313 0.114365 0.991134 0
-0.0672616 0.115928 0.990978 0
-0.0686679 0.119488 0.990458 0.00348926
-0.0648987 0.12166 0.990448 0
-0.0637932 0.1241 0.990217 0
-0.0620309 0.125818 0.990112 0
-0.0636221 0.12843 0.989676 0
-0.0633669 0.131682 0.989265 0
-0.063666 0.135306 0.988756 0
-0.0660479 0.138949 0.988095 0
-0.0675305 0.141839 0.987584 0
-0.0402243 0.0432239 0.998255 0
-0.044961 0.0460192 0.997928 0.00557136
-0.046034 0.0478914 0.997791 0.00886558
-0.046646 0.0487667 0.99772 0.00916808
-0.0563931 0.0515282 0.997078 0.014765
-0.0605031 0.053704 0.996722 0.0181578
-0.0655535 0.0556545 0.996296 0.0214662
-0.0682653 0.0577922 0.995992 0.0227458
-0.0699399 0.0596608 0.995766 0.0213235
-0.075903 0.0620768 0.995181 0.025423
-0.076259 0.0697644 0.994644 0.0166694
-0.0749433 0.0717616 0.994602 0.0198466
-0.0757954 0.073513 0.99441 0.0228735
-0.0672468 0.0786388 0.994632 0.01455
-0.0697293 0.0806691 0.994299 0.0136415
-0.0664563 0.0878088 0.993918 0.00979858
-0.0672079 0.0891429 0.993749 0.00432452
-0.0657038 0.0909265 0.993688 0.00357101
-0.063707 0.0922892 0.993692 0.000989142
-0.0622577 0.0942337 0.993602 0
-0.059541 0.0958395 0.993614 0
-0.0595681 0.0970253 0.993498 0
-0.0613913 0.0993841 0.993154 0
-0.0620498 0.101009 0.992949 0
-0.0663577 0.103958 0.992366 0
-0.0656935 0.105411 0.992256 0
-0.0658482 0.107538 0.992018 0
-0.0685949 0.110053 0.991556 0
-0.0671854 0.111391 0.991503 0
-0.0675649 0.11393 0.991189 0
-0.0668819 0.115778 0.991021 0
-0.0667062 0.118109 0.990757 0
-0.0647359 0.123633 0.990214 0
-0.0643957 0.126927 0.98982 0
-0.0661795 0.129847 0.989323 0
-0.0665595 0.132958 0.988884 0
0.0244681 0.0636912 0.99767 0.00973122
0.0219697 0.0623477 0.997813 0.00578967
0.0240617 0.0623472 0.997764 0.00728863
0.0232565 0.0621915 0.997793 0.00363226
0.00227086 0.0633229 0.997991 0.00754895
0.00595835 0.0362535 0.999325 0.012565
0.0050699 0.0401447 0.999181 0.0129552
0.0060915 0.0397801 0.99919 0.0130763
0.00894943 0.0347157 0.999357 0.0089976
0.00885488 0.0362642 0.999303 0.0110541
0.00863929 0.0391309 0.999197 0.0145998
0.0144326 0.0227239 0.999638 0.0124786
0.0137979 0.0262637 0.99956 0.0132255
0.0151887 0.0248364 0.999576 0.0122069
-0.00812142 0.0715597 0.997403 0.0156677
-0.00729267 0.0755347 0.997117 0.0176475
-0.00650091 0.0762125 0.99707 0.0165727
-0.00383355 0.0743884 0.997222 0.0144591
0.0217609 -0.100921 0.994656 0.00367958
0.0183943 -0.0889038 0.99587 0.00319197
0.00325405 0.0917898 0.995773 0.0204179
0.00520619 0.0914007 0.995801 0.0209409
0.00521427 0.0476816 0.998849 0.0187174
0.0093268 -0.0126784 0.999876 0.0140559
0.0312855 -0.144476 0.989014 0.00441025
0.0298428 -0.138596 0.989899 0.00453007
0.0298728 -0.135562 0.990318 0.00383417
0.0294092 -0.142226 0.989397 0.00556485
0.0257526 -0.122771 0.992101 0.00486702
0.0243881 -0.119723 0.992508 0.00336576
0.0227527 -0.117873 0.992768 0.00472674
0.0221445 -0.115427 0.993069 0.00619101
0.0212441 -0.112394 0.993437 0.00701101
0.0202668 -0.108289 0.993913 0.0048991
0.0201021 -0.110318 0.993693 0.00664578
0.0175999 -0.110299 0.993743 0.00596892
0.0144147 -0.115592 0.993192 0.00570576
0.00481362 -0.132113 0.991223 0.00722571
0.001882 -0.135723 0.990745 0.00837024
-0.899413 0.37371 0.226708 0.0144651
-0.872823 0.320616 0.367947 0.0133093
-0.858985 0.308709 0.408466 0.0116428
-0.848025 0.299511 0.437204 0.0101603
-0.865955 0.31463 0.388754 0.0100109
-0.877069 0.323153 0.355417 0.00960457
-0.863453 0.310172 0.397796 0.00861781
-0.854888 0.302209 0.421707 0.00799688
-0.872164 0.31486 0.374423 0.0078857
-0.858547 0.303258 0.413439 0.00721736
-0.867823 0.307879 0.389993 0.00659383
-0.84782 0.287773 0.445407 0.0054424
-0.874023 0.304275 0.378815 0.00573242
-0.856183 0.286875 0.429713 0.00516242
-0.869941 0.296571 0.394015 0.00521483
-0.885646 0.309234 0.346419 0.00533752
-0.879456 0.302133 0.367793 0.00488071
-0.877091 0.299384 0.375607 0.00465386
-0.877373 0.299618 0.374761 0.00466254
-0.882828 0.304567 0.357566 0.00480096
-0.883174 0.304887 0.356438 0.00479972
-0.850776 0.28466 0.441756 0.00495464
-0.864526 0.291061 0.40973 0.00480121
-0.874646 0.298614 0.38187 0.00490958
-0.877392 0.300292 0.374175 0.00482257
-0.877091 0.299384 0.375607 0.00465386
-0.876887 0.299234 0.376202 0.00463851
-0.813053 0.27068 0.515438 0.00463893
-0.813053 0.27068 0.515438 0.00463893
-0.810634 0.26927 0.519968 0.00446653
-0.812503 0.270427 0.516438 0.00460108
-0.81267 0.271801 0.515453 0.00457744
-0.814519 0.272948 0.511917 0.00471206
-0.827726 0.281026 0.485689 0.00502602
-0.790143 0.258497 0.555746 0.00388951
-0.844608 0.29398 0.447451 0.00503336
-0.796727 0.268358 0.541488 0.00406783
-0.796403 0.268402 0.541944 0.00433359
-0.764543 0.251521 0.593473 0.00399779
-0.758615 0.247468 0.602713 0.00391023
-0.796595 0.269285 0.541223 0.00455974
-0.814464 0.278357 0.509083 0.00470076
-0.795923 0.266831 0.543423 0.00426627
-0.828143 0.283645 0.48345 0.00500616
-0.835324 0.284588 0.470366 0.00552272
-0.846398 0.290208 0.446531 0.00598592
-0.866003 0.300634 0.399572 0.00672723
-0.87785 0.314345 0.36134 0.00691334
-0.844589 0.289758 0.450233 0.00560957
-0.873089 0.304865 0.380491 0.0065472
-0.874139 0.305564 0.377508 0.00683789
-0.874145 0.306035 0.37711 0.00709469
-0.86984 0.309707 0.384005 0.00704711
-0.885704 0.3113 0.344414 0.00716604
-0.914343 0.322947 0.244301 0.00720035
-0.91339 0.330783 0.23728 0.00733475
-0.915445 0.337264 0.219575 0.00818346
-0.0731119 -0.0344864 0.996727 0
-0.0757359 -0.0338503 0.996553 0
-0.0748648 -0.0329444 0.996649 0
-0.0720488 -0.0316547 0.996899 0
-0.0736048 -0.0306684 0.996816 0
-0.0667757 -0.0294667 0.997333 0
-0.0690373 -0.0287583 0.997199 0
-0.0742795 -0.0280607 0.996843 0.000611454
-0.0771223 -0.0269884 0.996656 0.00793731
-0.0799951 -0.0258713 0.996459 0.00264896
-0.0782781 -0.0247688 0.996624 0
-0.0783141 -0.0236306 0.996649 0
-0.0851214 -0.0230606 0.996104 0.00513056
-0.0858027 -0.0221309 0.996066 0.00398988
-0.094291 -0.0216081 0.99531 0.00958347
-0.0933792 -0.0204802 0.99542 0.00980009
-0.0969803 -0.0196281 0.995093 0.0150222
-0.0976301 -0.0189693 0.995042 0.0154426
-0.0969244 -0.018048 0.995128 0.0170323
-0.103179 -0.0173796 0.994511 0.021663
-0.0965861 -0.0163197 0.995191 0.0151549
-0.0860703 -0.0151263 0.996174 0.007248
-0.0830688 -0.0142509 0.996442 0.00396315
-0.0858419 -0.013161 0.996222 0.00304694
-0.0926358 -0.0128458 0.995617 0.00907017
-0.0916228 -0.011803 0.995724 0.0108627
-0.0878696 -0.0109108 0.996072 0.00702149
-0.0836066 -0.0100008 0.996449 0.00782366
-0.0873362 -0.00920747 0.996136 0.0111251
-0.0867678 -0.00834308 0.996194 0.0100894
-0.0863338 -0.00749835 0.996238 0.0117768
-0.0869203 -0.00679517 0.996192 0.0107102
-0.0793042 -0.00600147 0.996832 0.00584163
-0.077702 -0.00526409 0.996963 0.0073913
-0.0799362 -0.00458613 0.996789 0.0116077
-0.0762962 -0.00406304 0.997077 0.00521822
-0.0858529 -0.00363336 0.996301 0.00520414
-0.087296 -0.00293497 0.996178 0.0049489
-0.0891683 -0.00215435 0.996014 0.00869355
-0.0923106 -0.00171683 0.995729 0.00941372
-0.0835565 -0.00109623 0.996502 0.00546999
-0.0868308 -0.0005144 0.996223 0.00885293
-0.0819042 4.01086e-05 0.99664 0.00392253
-0.0825051 0.000724293 0.99659 0.00360376
-0.0812234 0.00119529 0.996695 0.00222173
-0.0786934 0.00179379 0.996897 0.00216258
-0.0767754 0.00234561 0.997046 0
-0.0738534 0.00287899 0.997265 0.00101557
-0.0776743 0.00326404 0.996973 0
-0.0733562 0.00379012 0.997299 0
-0.0725856 0.00444731 0.997352 0.00254999
-0.079594 0.00480293 0.996816 0.00540973
-0.0734304 0.00500629 0.997288 0.00209548
-0.0750192 0.00558864 0.997166 0.00468016
-0.0671078 0.00616363 0.997727 0.00334059
-0.0612825 0.00679539 0.998097 0.00305568
-0.0642344 0.00754009 0.997906 0.00572629
-0.0577147 0.00800453 0.998301 0.000655501
-0.063309 0.00875834 0.997956 0.00397968
-0.0627939 0.00884868 0.997987 0.000870756
-0.060856 0.00958434 0.998101 0.00140839
-0.0598523 0.0101063 0.998156 0.00320062
-0.0542284 0.0104616 0.998474 0.000112458
-0.0569459 0.0113608 0.998313 0
-0.0568506 0.0119326 0.998311 0
-0.0579289 0.0133545 0.998231 0.00210242
-0.0621985 0.0149057 0.997953 0.00337262
-0.0560097 0.016041 0.998301 0
-0.0576303 0.0174218 0.998186 0.000907144
-0.0614043 0.0184782 0.997942 0
-0.0678328 0.0196422 0.997503 0.00425171
-0.069931 0.0202561 0.997346 0.00406417
-0.0718528 0.0211186 0.997192 0.00422886
-0.0745133 0.0218217 0.996981 0.00356507
-0.0750914 0.0224759 0.996923 0.00485707
-0.0779831 0.0231889 0.996685 0.00742258
-0.0908897 0.0239646 0.995573 0.00763022
-0.0823101 0.0240259 0.996317 0.00641221
-0.0809237 0.0243349 0.996423 0.00606148
-0.0813582 0.0246696 0.996379 0.00618852
-0.0758891 0.0248723 0.996806 0.00751511
-0.0739062 0.0249533 0.996953 0.00489133
-0.0711277 0.0252217 0.997148 0.00739064
-0.069611 0.025293 0.997254 0.00524953
-0.0719163 0.0257971 0.997077 0.0045111
-0.0746633 0.0261853 0.996865 0.0052986
-0.0718944 0.0264715 0.997061 0.00528037
-0.0780585 0.0271245 0.99658 0.00685305
-0.0762153 0.027458 0.996713 0.00741746
-0.0697355 0.0274264 0.997188 0.00385102
-0.0742055 0.0280301 0.996849 0.00372801
-0.0681916 0.0282181 0.997273 0.00680294
-0.0606571 0.0281565 0.997761 0.00417
-0.0628168 0.0283085 0.997624 0.00195121
-0.0653616 0.0286248 0.997451 0.00312542
-0.0633585 0.0286577 0.997579 0.00160904
-0.0570771 0.0285365 0.997962 0.00187308
-0.0552111 0.0284616 0.998069 0
-0.0710712 0.0292781 0.997042 0.00457082
-0.0806991 0.0296503 0.996297 0.00449366
-0.0800543 0.0298481 0.996344 0.00695061
-0.0743102 0.0296675 0.996794 0.00545305
-0.0746341 0.0295558 0.996773 0.00256764
-0.0671151 0.0289775 0.997324 0
-0.0609584 0.0286518 0.997729 0
-0.0583491 0.0286009 0.997886 0.00302131
-0.0539735 0.0282886 0.998142 0.0018647
-0.0460029 0.0275502 0.998561 0
-0.0451634 0.0272084 0.998609 0
-0.0484361 0.0272169 0.998455 0
-0.0467402 0.026939 0.998544 0
-0.0452104 0.026586 0.998624 0
-0.0478388 0.0264149 0.998506 0
-0.0488189 0.0261079 0.998466 0
-0.0442812 0.0256641 0.998689 0
-0.0441613 0.0253431 0.998703 0
-0.0444929 0.0249145 0.998699 0
-0.0472387 0.0248566 0.998574 0
-0.0401579 0.024128 0.998902 0
-0.0409215 0.0238192 0.998878 0.00141789
-0.046246 0.0236065 0.998651 0.00320096
-0.0423835 0.0230296 0.998836 0.00165489
-0.0433308 0.0227916 0.998801 0.0028686
-0.0376601 0.0220838 0.999047 0.0041182
-0.0431614 0.0217586 0.998831 0.00358439
-0.0453492 0.0213484 0.998743 0.00390886
-0.0432223 0.0207657 0.99885 0.00259683
-0.034214 0.0198598 0.999217 0.0040864
-0.0400772 0.0191067 0.999014 0.00114236
-0.0338524 0.018267 0.99926 0
-0.034 0.0176725 0.999266 0
-0.037474 0.0170948 0.999151 0
-0.035665 0.0164481 0.999228 0.00305962
-0.029075 0.0156506 0.999455 0.00125401
-0.0359243 0.0153462 0.999237 0.0037444
-0.0347556 0.0145837 0.999289 0.000135932
-0.0395259 0.0141146 0.999119 0.00356864
-0.034613 0.0134109 0.999311 0.00554977
-0.0352526 0.0127743 0.999297 0.0102059
-0.0323319 0.0118948 0.999406 0.00807632
-0.0307847 0.0110501 0.999465 0.00602374
-0.0512798 0.0107073 0.998627 0.00824792
-0.0529035 0.0100286 0.998549 0.00737483
-0.0469945 0.00923756 0.998852 0.00829057
-0.049456 0.00844577 0.998741 0.00842473
-0.0521002 0.00780081 0.998611 0.00952091
-0.0501931 0.00696702 0.998715 0.00732276
-0.0472878 0.00627598 0.998862 0.00960606
-0.0416963 0.00518367 0.999117 0.00423732
-0.0520273 0.00500857 0.998633 0.00919722
-0.0490878 0.00421269 0.998786 0.00658937
-0.0453187 0.0028965 0.998968 0.00399225
-0.0477545 0.00246524 0.998856 0.0048866
-0.0376167 0.000966378 0.999292 0.00270322
-0.0414161 0.000473563 0.999142 0.00563164
-0.0399926 -0.000571575 0.9992 0.00436267
-0.0311352 -0.00188861 0.999513 0
-0.0298029 -0.00263946 0.999552 0
-0.0292986 -0.00356632 0.999564 0
-0.0301123 -0.00456903 0.999536 0
-0.035869 -0.00546601 0.999342 0
-0.0364662 -0.00629823 0.999315 0
-0.0388861 -0.00659622 0.999222 0
-0.0455481 -0.00711382 0.998937 0
-0.0469798 -0.0077938 0.998865 0
-0.0435604 -0.00864603 0.999013 0
-0.0446855 -0.00973362 0.998954 0
-0.0479067 -0.0107517 0.998794 0
-0.0463055 -0.0119361 0.998856 0
-0.0413102 -0.012876 0.999063 0
-0.034854 -0.0142678 0.999291 0
-0.0398927 -0.0147366 0.999095 0
-0.039308 -0.0155635 0.999106 4.71834e-06
-0.0311102 -0.0171157 0.999369 0
-0.0372253 -0.0172254 0.999158 0
-0.0345735 -0.0177803 0.999244 0
-0.0391117 -0.018337 0.999067 0
-0.0429104 -0.0186245 0.998905 0
-0.0435967 -0.0195506 0.998858 0.00171366
-0.0380468 -0.0201053 0.999074 0.0022523
-0.0359122 -0.0211568 0.999131 0.00277327
-0.0372273 -0.0218392 0.999068 0.00146452
-0.0320817 -0.0224581 0.999233 0.000178801
-0.0341276 -0.0230837 0.999151 0.00236903
-0.0408525 -0.0236777 0.998885 0.00279059
-0.0418054 -0.0244294 0.998827 0.00425392
-0.0392692 -0.0247312 0.998923 0.000480745
-0.0455714 -0.0250058 0.998648 0.0011143
-0.0420872 -0.0254597 0.998789 0
-0.0458621 -0.0259125 0.998612 0.00258801
-0.0423156 -0.0265096 0.998753 0.00154563
-0.0381082 -0.0269612 0.99891 0
-0.0422958 -0.0269614 0.998741 0.00118813
-0.0412543 -0.0271616 0.998779 0.00459718
-0.0416574 -0.0268905 0.99877 0
-0.0410084 -0.0270114 0.998794 0.000196247
-0.0448615 -0.0266921 0.998637 0.00314078
-0.0536483 -0.0265979 0.998206 0.00568242
-0.0371838 -0.0273103 0.998935 0.00231102
-0.0371953 -0.0273672 0.998933 0.00328078
-0.0471036 -0.0268669 0.998529 0.00399926
-0.0344287 -0.0272621 0.999035 0.00220971
-0.03612 -0.0271534 0.998978 0
-0.0330045 -0.0271318 0.999087 0
-0.0323999 -0.0270642 0.999108 0
-0.0395132 -0.0265783 0.998866 0.00258874
-0.0376079 -0.026007 0.998954 0.00183416
-0.0437134 -0.02544 0.99872 0.000917103
-0.0470672 -0.0245922 0.998589 0.0026234
-0.0510505 -0.0236991 0.998415 0.0050841
-0.0501702 -0.0232567 0.99847 0.00298191
-0.052446 -0.0223488 0.998374 0.00352048
-0.0584099 -0.0215366 0.99806 0.003929
-0.0573143 -0.0209808 0.998136 0.00158286
-0.0495947 -0.020429 0.99856 0
-0.0583729 -0.019573 0.998103 2.6156e-05
-0.057181 -0.018915 0.998185 0.00083247
-0.0616479 -0.0178702 0.997938 0
-0.0605048 -0.0168222 0.998026 0
-0.0649527 -0.0155979 0.997766 0
-0.0610654 -0.014497 0.998028 0
-0.0621142 -0.0137118 0.997975 0
-0.0567984 -0.0127288 0.998305 0
-0.0566596 -0.0118055 0.998324 0
-0.0630198 -0.0105166 0.997957 0
-0.0625592 -0.00906036 0.998 0
-0.067918 -0.00719296 0.997665 0.000902778
-0.0626477 -0.00590847 0.998018 0.00162353
-0.0662939 -0.00434361 0.997791 0
-0.0614241 -0.00321289 0.998107 0
-0.0710261 -0.0012968 0.997474 0
-0.0678731 0.000429738 0.997694 0
-0.0719563 0.00202443 0.997406 0
-0.070448 0.00346805 0.997509 0
-0.0750105 0.00591524 0.997165 0
-0.067105 0.00762896 0.997717 0
-0.0569387 0.00935981 0.998334 0
-0.0634917 0.0115037 0.997916 0
-0.0563822 0.0130284 0.998324 0
-0.0550404 0.0156558 0.998361 0
-0.0567803 0.0182761 0.998219 0
-0.0489991 0.0195659 0.998607 0
-0.0525217 0.0216245 0.998386 0
-0.0605648 0.0243427 0.997867 0
-0.0667316 0.0264132 0.997421 0
-0.0608284 0.0275931 0.997767 0
-0.0575702 0.0287672 0.997927 0
-0.0579065 0.0305479 0.997855 0
-0.0635088 0.0322519 0.99746 0
-0.0570077 0.0330263 0.997827 0
-0.061816 0.0349189 0.997477 0
-0.0562694 0.0362442 0.997758 0
-0.0596824 0.0375173 0.997512 0
-0.0624581 0.0396852 0.997258 0
-0.0669876 0.0410897 0.996907 0
-0.0710403 0.0429834 0.996547 0
-0.0679896 0.0440232 0.996714 0
-0.0640242 0.0445254 0.996955 0
-0.0616715 0.0458158 0.997044 0
-0.0543618 0.0469266 0.997418 0
-0.0604272 0.0489565 0.996971 0
-0.0638797 0.0505013 0.996679 0
-0.0671635 0.0528735 0.99634 0.000738012
-0.068167 0.0543511 0.996192 0.00191967
-0.0582592 0.0550814 0.996781 0
-0.0625772 0.0574471 0.996385 0.00433532
-0.066211 0.0594118 0.996035 0.00406375
-0.0686261 0.0614941 0.995745 0.00613208
-0.0702527 0.0634212 0.995511 0.00821213
-0.0682912 0.0645459 0.995575 0.00522295
-0.0613919 0.0655394 0.99596 0.00336456
-0.0610307 0.0665073 0.995918 0.00107214
-0.062654 0.0683241 0.995694 0.00241999
-0.0634979 0.0702721 0.995505 0.00579422
-0.0578453 0.0711309 0.995788 0.00293549
-0.0653635 0.0739149 0.99512 0.00480637
-0.0551382 0.0742338 0.995715 0.00297112
-0.0492321 0.0753652 0.99594 0
-0.0511695 0.0774678 0.995681 0
-0.0539904 0.0806409 0.99528 0.00597509
-0.0581966 0.0833293 0.994821 0.0104107
-0.0657798 0.0867307 0.994058 0.014622
-0.0558226 0.0874405 0.994604 0.0117034
-0.0551829 0.089372 0.994469 0.00985226
-0.0507164 0.0891577 0.994726 0
-0.0547075 0.0925878 0.9942 0.00355578
-0.0519015 0.0936399 0.994252 0.00044448
-0.056061 0.0972904 0.993676 0.00502757
-0.0608054 0.0991084 0.993217 0.00288891
-0.0624955 0.102024 0.992817 0.00578861
-0.0604328 0.103624 0.992779 0.00171972
-0.0667457 0.107859 0.991923 0.00349289
-0.0664243 0.110013 0.991708 0.00600562
-0.0710573 0.113187 0.99103 0.00818562
-0.0721815 0.116451 0.99057 0.0119838
-0.0731192 0.118516 0.990256 0.00919148
-0.0695211 0.12096 0.99022 0.0105356
-0.071545 0.123967 0.989704 0.0117971
-0.0728194 0.127019 0.989224 0.0107235
-0.0684585 0.127381 0.989488 0.00441881
-0.070879 0.130302 0.988938 0.0075984
-0.0744211 0.134498 0.988115 0.0104669
-0.067956 0.135032 0.988508 0.00904804
-0.0726614 0.139552 0.987545 0.012824
-0.0726485 0.141535 0.987264 0.0119526
-0.073042 0.143226 0.986991 0.00969458
-0.070822 -0.0372445 0.996793 0.00438861
-0.0634799 -0.0346026 0.997383 0
-0.0631246 -0.0330736 0.997458 0
-0.0672829 -0.0326172 0.997201 0
-0.0698212 -0.0316808 0.997056 0
-0.071207 -0.0305914 0.996992 0
-0.0697551 -0.0293909 0.997131 0
-0.0726453 -0.0289017 0.996939 0
-0.0736488 -0.0279476 0.996893 0
-0.0681568 -0.0263637 0.997326 0.00123771
-0.0706012 -0.0256565 0.997175 0.00278108
-0.0717861 -0.0250585 0.997105 0.0025116
-0.0723655 -0.0243846 0.99708 0.00368709
-0.0771999 -0.0240506 0.996726 0.00943506
-0.077204 -0.0231977 0.996745 0.00705013
-0.0790995 -0.0224328 0.996614 0.0109974
-0.0812092 -0.0216305 0.996462 0.00983614
-0.082797 -0.0209647 0.996346 0.0103761
-0.0878335 -0.020686 0.99592 0.0167441
-0.0835882 -0.019313 0.996313 0.0111611
-0.0801898 -0.0180093 0.996617 0.0100549
-0.07829 -0.0167662 0.99679 0.00608613
-0.07674 -0.0158397 0.996925 0.00505038
-0.0745471 -0.0147448 0.997108 0.000935579
-0.076304 -0.0141116 0.996985 0.00230181
-0.075379 -0.0132672 0.997067 0.00352099
-0.0777954 -0.0124303 0.996892 0.00590549
-0.0829457 -0.0118805 0.996483 0.00799705
-0.0824893 -0.010674 0.996535 0.00879253
-0.0806836 -0.00980997 0.996691 0.0093973
-0.0793216 -0.00872112 0.996811 0.00863239
-0.0783 -0.00824606 0.996896 0.00497148
-0.0781606 -0.00724223 0.996914 0.00898835
-0.0756864 -0.00631663 0.997112 0.00924696
-0.0755326 -0.00564805 0.997127 0.00810002
-0.0755061 -0.00507097 0.997132 0.00375669
-0.0803394 -0.00463541 0.996757 0.00544946
-0.0794907 -0.00400375 0.996828 0.00230842
-0.0770579 -0.00314976 0.997022 0.00643021
-0.0795195 -0.00260634 0.99683 0.00842032
-0.0805655 -0.00202403 0.996747 0.00911217
-0.0789863 -0.00119241 0.996875 0.00982048
-0.0776945 -0.000438364 0.996977 0.00617829
-0.0721468 0.000121604 0.997394 0.00100651
-0.0723995 0.000585327 0.997376 0
-0.0718105 0.00136595 0.997417 0.000324842
-0.0698142 0.00178998 0.997558 0.00141733
-0.068714 0.00247638 0.997633 0.000421736
-0.0666148 0.00310011 0.997774 0.000456343
-0.0722583 0.00355921 0.99738 0.00213274
-0.0756615 0.00394079 0.997126 0.00377654
-0.0693677 0.00460763 0.997581 0
-0.0688127 0.00486337 0.997618 0
-0.0702477 0.00542328 0.997515 0.000237146
-0.0640123 0.00581766 0.997932 0.000119743
-0.0670237 0.00636443 0.997731 0.000982718
-0.0655519 0.00696218 0.997825 0.00307714
-0.0596512 0.00755981 0.998191 0.000918927
-0.0629143 0.00794928 0.997987 0.00313387
-0.0612378 0.00833321 0.998088 0.0049295
-0.0567377 0.00859266 0.998352 0
-0.0564195 0.0091184 0.998366 0
-0.0596254 0.00966555 0.998174 0
-0.0697046 0.0108283 0.997509 0.00511358
-0.0562236 0.0108897 0.998359 0
-0.050017 0.011321 0.998684 0
-0.0573613 0.0129898 0.998269 0
-0.0666187 0.0148233 0.997668 0.00581203
-0.0635069 0.0162926 0.997848 0.00764701
-0.0629955 0.017279 0.997864 0.00504371
-0.0641302 0.0181225 0.997777 0.00340196
-0.0628011 0.0191365 0.997843 0.00185994
-0.067085 0.0200145 0.997546 0.00253193
-0.0681856 0.0206424 0.997459 0.000550395
-0.0746318 0.0214162 0.996981 0.00243898
-0.0788167 0.0225341 0.996634 0.00840282
-0.0724438 0.0226603 0.997115 0.00352214
-0.0784735 0.0231602 0.996647 0.00493333
-0.0847232 0.0239074 0.996118 0.00710126
-0.0756738 0.0239143 0.996846 0.00413259
-0.0775823 0.0245468 0.996684 0.00933043
-0.0936238 0.025948 0.995269 0.0198788
-0.0907952 0.0259003 0.995533 0.0169427
-0.0860235 0.0258331 0.995958 0.0119135
-0.0757775 0.0253705 0.996802 0.00395635
-0.0736878 0.0256126 0.996952 0.00541952
-0.0754992 0.0258597 0.99681 0.00344517
-0.0705818 0.0260716 0.997165 0
-0.0733471 0.0263149 0.996959 0
-0.0786287 0.0272056 0.996533 0.00515862
-0.0729527 0.0273131 0.996961 0.00247746
-0.0749923 0.0279413 0.996793 0.00629128
-0.0744987 0.0285943 0.996811 0.00850999
-0.0700358 0.0285028 0.997137 0.00401399
-0.0609819 0.0280155 0.997746 0
-0.0639547 0.0283811 0.997549 1.98345e-05
-0.0622907 0.0282815 0.997657 0
-0.0585063 0.0283007 0.997886 0
-0.058672 0.028412 0.997873 0
-0.0663946 0.0291028 0.997369 0.00345052
-0.0686269 0.0292308 0.997214 0.00436581
-0.0738171 0.0298228 0.996826 0.00833491
-0.0750063 0.0299766 0.996732 0.00943611
-0.0674236 0.029359 0.997292 0.00303587
-0.0636642 0.0288557 0.997554 0
-0.0593555 0.028652 0.997826 0
-0.0519307 0.0282163 0.998252 0
-0.0479657 0.0278283 0.998461 0
-0.0483251 0.0279249 0.998441 0
-0.0498514 0.0277172 0.998372 0
-0.0526405 0.0277326 0.998228 0
-0.0495781 0.0273182 0.998397 0
-0.0448109 0.0267258 0.998638 0
-0.0509997 0.0267118 0.998341 0
-0.0549226 0.0267136 0.998133 0
-0.045709 0.0260062 0.998616 0
-0.0481158 0.0257926 0.998509 0
-0.054447 0.0257536 0.998185 0.0025229
-0.0545714 0.025365 0.998188 0.00266427
-0.0504636 0.0247897 0.998418 6.84005e-05
-0.0432752 0.0241192 0.998772 0.00139703
-0.0565935 0.0246813 0.998092 0.00966491
-0.051703 0.0238083 0.998379 0.00488991
-0.0439723 0.022736 0.998774 0
-0.049505 0.022637 0.998517 0.00427617
-0.0530267 0.0225179 0.998339 0.0112234
-0.0587313 0.0225217 0.99802 0.0156407
-0.0511551 0.0215152 0.998459 0.0120634
-0.0456487 0.0204172 0.998749 0.00613356
-0.0406963 0.0194338 0.998983 0.00413202
-0.0321595 0.0182056 0.999317 0
-0.0346354 0.0176837 0.999244 0
-0.0403093 0.0174657 0.999035 0
-0.0409569 0.0169582 0.999017 0.000683999
-0.041875 0.0160251 0.998994 0.0013545
-0.0314613 0.0151434 0.99939 0
-0.0313298 0.0144934 0.999404 0
-0.0339959 0.0142762 0.99932 0.00206022
-0.0371768 0.0138061 0.999213 0.00335747
-0.0372196 0.0132421 0.999219 0.00440702
-0.0340023 0.0124865 0.999344 0.00306937
-0.0450127 0.011973 0.998915 0.00625384
-0.0514122 0.0117288 0.998609 0.0133761
-0.0506371 0.0108489 0.998658 0.0109218
-0.0473216 0.0097126 0.998833 0.0121423
-0.0506296 0.00904816 0.998676 0.0125526
-0.0496117 0.00821124 0.998735 0.0115978
-0.0526217 0.00723886 0.998588 0.00815087
-0.0533818 0.00659813 0.998552 0.00958187
-0.0491898 0.00612985 0.998771 0.00480011
-0.0440802 0.00513648 0.999015 0
-0.0377292 0.00404383 0.99928 0
-0.043766 0.00392972 0.999034 0.00120486
-0.0458355 0.00285806 0.998945 0.00375753
-0.0413783 0.00152657 0.999142 0.00144671
-0.0385659 -1.57611e-05 0.999256 0
-0.0381147 -0.000681743 0.999273 0
-0.0437851 -0.00107561 0.99904 0.0012959
-0.0393826 -0.001826 0.999223 0.00130577
-0.03577 -0.00270842 0.999356 0
-0.0462186 -0.00302874 0.998927 0.0101903
-0.0411034 -0.00443239 0.999145 0.00450122
-0.0402383 -0.00515004 0.999177 0.00332044
-0.0463948 -0.00570917 0.998907 0.00698284
-0.042295 -0.0069112 0.999081 0
-0.039706 -0.00769208 0.999182 0
-0.0430421 -0.0085518 0.999037 0
-0.0436868 -0.00947902 0.999 0
-0.0405608 -0.0103371 0.999124 0
-0.038859 -0.0113847 0.99918 0
-0.0375413 -0.0127935 0.999213 0
-0.0390361 -0.0139822 0.99914 0
-0.0368788 -0.0146623 0.999212 0
-0.0334118 -0.0157314 0.999318 0
-0.030748 -0.0165862 0.99939 0
-0.0329158 -0.0173659 0.999307 0
-0.0306328 -0.0180437 0.999368 0
-0.0375908 -0.0176841 0.999137 0
-0.0378565 -0.0187452 0.999107 0
-0.0411856 -0.0190884 0.998969 0.000377337
-0.0437405 -0.0197601 0.998847 0.0059341
-0.0476202 -0.0201196 0.998663 0.00940514
-0.0479796 -0.0208876 0.99863 0.0106441
-0.0471253 -0.0215966 0.998655 0.0103518
-0.0422794 -0.0222773 0.998857 0.00739341
-0.0417243 -0.0231562 0.998861 0.00588843
-0.0453475 -0.0238358 0.998687 0.00803786
-0.0453088 -0.0242629 0.998678 0.00760667
-0.0458414 -0.0246786 0.998644 0.00994835
-0.048231 -0.0247432 0.99853 0.00939284
-0.0405271 -0.026028 0.998839 0.00152717
-0.0337647 -0.0268107 0.99907 0
-0.0401076 -0.0265907 0.998841 0
-0.044261 -0.0262784 0.998674 0.00431233
-0.0403049 -0.0266211 0.998833 0.00252215
-0.0440928 -0.0269243 0.998665 0.00667708
-0.0470606 -0.0270502 0.998526 0.0098604
-0.0498014 -0.0268169 0.998399 0.0112681
-0.0410702 -0.027 0.998791 0.00383392
-0.034387 -0.0273032 0.999036 0.00143658
-0.0336808 -0.0270157 0.999067 0.00239051
-0.0324072 -0.0268498 0.999114 0.000608641
-0.0415193 -0.0265923 0.998784 0.00380151
-0.0346845 -0.0265148 0.999047 0
-0.036849 -0.0265643 0.998968 0
-0.0411261 -0.0262364 0.998809 0.00357024
-0.0427728 -0.0256672 0.998755 0.00469614
-0.0382753 -0.0257455 0.998936 0.00712117
-0.0421911 -0.0250591 0.998795 0.00286703
-0.0458346 -0.024422 0.99865 0.00528002
-0.0435581 -0.023812 0.998767 0.00337212
-0.0437876 -0.0231733 0.998772 0.00307183
-0.0442191 -0.0225236 0.998768 0.00212903
-0.0430854 -0.0220703 0.998828 0
-0.054706 -0.0208735 0.998284 0.00524149
-0.0616893 -0.0196459 0.997902 0.00886499
-0.0630138 -0.0190053 0.997832 0.0120569
-0.0608086 -0.0182518 0.997983 0.0027352
-0.0517937 -0.0181635 0.998493 0
-0.0555787 -0.016911 0.998311 0
-0.0532666 -0.0156115 0.998458 0
-0.0592882 -0.014645 0.998133 0.000274017
-0.0610631 -0.0132536 0.998046 0.00349426
-0.0625621 -0.0121697 0.997967 0.00504589
-0.0625558 -0.0110652 0.99798 0.00638318
-0.062396 -0.00982121 0.998003 0.00428506
-0.0723561 -0.00789305 0.997348 0.0101189
-0.069865 -0.00658359 0.997535 0.00624722
-0.0627134 -0.00549985 0.998016 9.57822e-05
-0.0610915 -0.00415579 0.998124 0
-0.0581231 -0.00312694 0.998304 0
-0.0571458 -0.00113351 0.998365 0
-0.0570541 0.000155759 0.998371 0
-0.0655108 0.00222149 0.997849 0
-0.0671464 0.00445855 0.997733 0.00212878
-0.068681 0.00621954 0.997619 0
-0.0673889 0.00761818 0.997698 0
-0.0632491 0.00987449 0.997949 0
-0.0578197 0.0117281 0.998258 0
-0.0501843 0.0135519 0.998648 0
-0.0504047 0.0159169 0.998602 0
-0.0559961 0.0183712 0.998262 0
-0.0546264 0.0210873 0.998284 0
-0.0631247 0.0233076 0.997733 0
-0.067016 0.0261228 0.99741 0
-0.069061 0.0274392 0.997235 0
-0.0679155 0.028726 0.997277 0
-0.0661366 0.0303887 0.997348 0
-0.0719008 0.0323089 0.996888 0.00273385
-0.0661354 0.0330537 0.997263 0
-0.0670299 0.0346106 0.99715 0
-0.0660907 0.0360332 0.997163 0
-0.0694812 0.0370325 0.996896 0
-0.0679677 0.0378044 0.996971 0
-0.0712327 0.0394463 0.996679 0
-0.0715855 0.0405172 0.996611 0
-0.073319 0.0417362 0.996435 0
-0.0693791 0.0424213 0.996688 0
-0.0734357 0.0436371 0.996345 0
-0.0725655 0.044846 0.996355 0
-0.070862 0.0464079 0.996406 0
-0.0730378 0.0481775 0.996165 0
-0.0714016 0.0496252 0.996212 0
-0.070704 0.0507579 0.996205 0
-0.0709289 0.0530091 0.996072 2.04153e-05
-0.0694594 0.0542051 0.996111 0.000755341
-0.065523 0.0553165 0.996317 0.00284412
-0.0695805 0.0580554 0.995886 0.00600619
-0.071184 0.0598549 0.995666 0.00667216
-0.0752775 0.0621096 0.995226 0.00821497
-0.0771073 0.0629668 0.995032 0.00623934
-0.0670326 0.0633151 0.99574 0.00193518
-0.0678919 0.0648368 0.995584 0
-0.0698302 0.0670539 0.995303 0.00392192
-0.063101 0.0674138 0.995728 0.0014065
-0.0673881 0.0698551 0.995278 0.00181955
-0.0633164 0.0713581 0.995439 0.00231205
-0.0561996 0.0721708 0.995808 0
-0.0575694 0.0741291 0.995586 0
-0.0591551 0.0760247 0.99535 0
-0.0550327 0.0780152 0.995432 0.000179018
-0.0507184 0.0802119 0.995487 0.00223641
-0.0500761 0.082111 0.995364 0.00388732
-0.0484641 0.0830217 0.995369 0
-0.0553324 0.0863621 0.994726 0
-0.0552674 0.0887263 0.994522 0
-0.0546236 0.0910967 0.994343 0
-0.0573671 0.09418 0.993901 0.00163786
-0.0514495 0.0949003 0.994156 0
-0.0502865 0.0965609 0.994056 0
-0.0538673 0.0998297 0.993545 0
-0.0542751 0.101542 0.99335 0
-0.0531912 0.10356 0.9932 0
-0.0567146 0.107179 0.992621 7.0414e-05
-0.0585135 0.109964 0.992212 0.00312328
-0.0578399 0.112485 0.991969 0.00240074
-0.058622 0.114186 0.991728 0
-0.0615794 0.116972 0.991224 0
-0.0612239 0.119893 0.990897 0.00204579
-0.0664089 0.125411 0.98988 0.00855309
-0.0617674 0.124119 0.990343 0
-0.0586696 0.125771 0.990323 0
-0.0577904 0.12846 0.990029 0
-0.057077 0.130066 0.989861 0
-0.0608196 0.133949 0.98912 0
-0.0572305 0.135686 0.989098 0
-0.0566336 0.136646 0.989 0
-0.0631088 0.146324 0.987222 0.0127177
-0.0635874 0.149217 0.986758 0.0110251
-0.0676212 -0.0358541 0.997067 0
-0.0698834 -0.0344744 0.996959 0.00412281
-0.0690707 -0.032994 0.997066 0.00526617
-0.0749333 -0.032684 0.996653 0.00891788
-0.073535 -0.0316016 0.996792 0.00942458
-0.0709601 -0.0297598 0.997035 0.00264987
-0.0660409 -0.0279811 0.997425 0
-0.067515 -0.0273976 0.997342 0
-0.071946 -0.0269149 0.997045 0.00360785
-0.0777606 -0.0264436 0.996621 0.00735353
-0.0755749 -0.0254307 0.996816 0.0069534
-0.0750671 -0.0247026 0.996872 0.00626479
-0.0762558 -0.0237835 0.996805 0.00728785
-0.0784901 -0.0231339 0.996646 0.0095939
-0.079193 -0.0221718 0.996613 0.010194
-0.0833896 -0.021787 0.996279 0.0164942
-0.0812706 -0.0204666 0.996482 0.0122655
-0.0804477 -0.0193357 0.996571 0.0109927
-0.0804469 -0.0186071 0.996585 0.00970881
-0.0797297 -0.0177422 0.996659 0.00841688
-0.0823891 -0.0169923 0.996455 0.00828787
-0.0775512 -0.0157561 0.996864 0.00294647
-0.0760807 -0.0146762 0.996994 0.0010559
-0.0779489 -0.0140483 0.996858 0.00427156
-0.0790742 -0.0133042 0.99678 0.00674143
-0.079121 -0.0125461 0.996786 0.00918942
-0.0807954 -0.0119545 0.996659 0.00743775
-0.0783395 -0.0109093 0.996867 0.00851995
-0.0769147 -0.0100605 0.996987 0.00804016
-0.077282 -0.00923816 0.996966 0.00733835
-0.07172 -0.00816812 0.997391 0.00307099
-0.0733935 -0.00746034 0.997275 0.00352754
-0.0738383 -0.00678814 0.997247 0.00528539
-0.0742957 -0.00620109 0.997217 0.0033428
-0.0762141 -0.00534229 0.997077 0.0037852
-0.0768491 -0.0046118 0.997032 0.00528704
-0.0770194 -0.00388683 0.997022 0.00545049
-0.0721589 -0.00308472 0.997388 0.00453047
-0.073301 -0.00257323 0.997307 0.00420505
-0.0706874 -0.00186984 0.997497 0
-0.0718849 -0.00111773 0.997412 0.00234393
-0.0695547 -5.20277e-05 0.997578 0.00170593
-0.0699262 0.000489354 0.997552 0
-0.0719422 0.00089867 0.997408 0.00232255
-0.0683259 0.00169394 0.997662 0.00211055
-0.064508 0.002039 0.997915 0
-0.0672806 0.00246575 0.997731 0
-0.064154 0.00303555 0.997935 0
-0.0667425 0.00355149 0.997764 0.000536387
-0.0674512 0.00384402 0.997715 0
-0.0676835 0.0042411 0.997698 0
-0.0722655 0.00481332 0.997374 0.00238065
-0.0721732 0.00538414 0.997378 0.00205573
-0.0681891 0.00556937 0.997657 0
-0.0622975 0.00629204 0.998038 0
-0.0630298 0.00670787 0.997989 0
-0.0566251 0.00705864 0.998371 0
-0.0568736 0.00753758 0.998353 0
-0.0580098 0.0079828 0.998284 0
-0.0594719 0.00840143 0.998195 0
-0.061335 0.00882526 0.998078 0.00115581
-0.0550296 0.00908144 0.998443 0
-0.0565878 0.00989634 0.998349 0.00140425
-0.0532356 0.010238 0.998529 0
-0.055455 0.0111052 0.998399 0
-0.0580519 0.0124306 0.998236 0.00392517
-0.0642792 0.0140812 0.997833 0.00823023
-0.068661 0.0156863 0.997517 0.00753672
-0.0638099 0.0170489 0.997816 0.00535663
-0.0616169 0.0180764 0.997936 0.00249325
-0.0649482 0.0189961 0.997708 0.00272414
-0.0612548 0.0194948 0.997932 0
-0.0654292 0.0203588 0.997649 0
-0.0681353 0.0211148 0.997453 0
-0.0725771 0.0217896 0.997125 0.000286666
-0.0807914 0.022723 0.996472 0.00582872
-0.0819718 0.0232487 0.996363 0.00638425
-0.0802759 0.0235173 0.996495 0.00539394
-0.0813343 0.0241786 0.996394 0.00920281
-0.0862503 0.0249073 0.995962 0.0150707
-0.0786076 0.0247793 0.996598 0.0117365
-0.0852882 0.0256329 0.996027 0.0152707
-0.0823552 0.0256506 0.996273 0.0102272
-0.082688 0.0259911 0.996237 0.0107174
-0.0852923 0.0263953 0.996006 0.0120182
-0.0735018 0.0258908 0.996959 0.00418898
-0.0698566 0.0259211 0.99722 0.0025774
-0.0761129 0.0268261 0.996738 0.00717799
-0.0696651 0.0268256 0.99721 0.00314691
-0.0742437 0.0274863 0.996861 0.00530298
-0.0712101 0.0279453 0.99707 0.00758701
-0.0710233 0.028189 0.997076 0.00484212
-0.0672752 0.0283481 0.997332 0.00455686
-0.0660814 0.0285437 0.997406 0.00415395
-0.0650016 0.0286885 0.997473 0.00208681
-0.0570719 0.0281519 0.997973 0
-0.0584023 0.0283944 0.997889 0
-0.0589619 0.028654 0.997849 0
-0.0644633 0.0292411 0.997492 0.00563024
-0.0686257 0.0297891 0.997198 0.00809723
-0.0680593 0.0294939 0.997245 0.00481979
-0.0659326 0.0294313 0.99739 0.00482536
-0.0618269 0.0292469 0.997658 0.00319278
-0.0583645 0.0289284 0.997876 0
-0.0506822 0.0283692 0.998312 0
-0.0492136 0.0280695 0.998394 0
-0.0420406 0.0276865 0.998732 0
-0.0429727 0.0276367 0.998694 0
-0.0419385 0.0275711 0.99874 0
-0.0482293 0.0276673 0.998453 0
-0.0440929 0.0271628 0.998658 0
-0.0444238 0.0271283 0.998644 0
-0.0509182 0.0271122 0.998335 0
-0.0540354 0.0272749 0.998166 0
-0.050765 0.0265486 0.998358 0
-0.0498283 0.0262703 0.998412 0
-0.0554422 0.0262459 0.998117 0.00321258
-0.0602817 0.0265074 0.997829 0.0102012
-0.0603128 0.0259331 0.997843 0.0091843
-0.0563226 0.0253484 0.998091 0.00999965
-0.0563345 0.0247932 0.998104 0.00907257
-0.0514943 0.023846 0.998389 0.00193227
-0.0514735 0.0231008 0.998407 0.000147602
-0.0455825 0.0224311 0.998709 0.00222117
-0.0494124 0.0224635 0.998526 0.00698866
-0.0469559 0.021644 0.998662 0.00309061
-0.0476446 0.0214405 0.998634 0.00711877
-0.049629 0.0211045 0.998545 0.00754522
-0.0447387 0.0199707 0.998799 0.00298333
-0.0401898 0.0190649 0.99901 1.34822e-05
-0.0372124 0.0182681 0.99914 0
-0.0381769 0.0176107 0.999116 0
-0.0431767 0.0173215 0.998917 0
-0.0489421 0.0169603 0.998658 0.00160197
-0.0453517 0.0160947 0.998841 0.00309373
-0.0422907 0.015699 0.998982 0.00639336
-0.0423184 0.0150817 0.99899 0.00472648
-0.0405675 0.0140357 0.999078 0.00270606
-0.0460464 0.0137897 0.998844 0.00523613
-0.0480762 0.0135901 0.998751 0.0108208
-0.0439751 0.0123517 0.998956 0.00838808
-0.0514331 0.0120793 0.998603 0.0113464
-0.0497517 0.0113376 0.998697 0.0113943
-0.05347 0.010541 0.998514 0.0145446
-0.050779 0.00967727 0.998663 0.0146228
-0.056939 0.00923523 0.998335 0.0209445
-0.055093 0.00822042 0.998447 0.0136087
-0.0558875 0.00780847 0.998407 0.0109234
-0.0505635 0.00666608 0.998699 0.00620049
-0.0443937 0.00545013 0.998999 0
-0.0455246 0.00489284 0.998951 0
-0.046063 0.00419572 0.99893 0.00299664
-0.0377995 0.00245304 0.999282 0
-0.0415149 0.00162999 0.999137 0
-0.0418053 0.000682716 0.999126 0
-0.0384802 -0.000467882 0.999259 0
-0.0377418 -0.001072 0.999287 0
-0.0444102 -0.00184197 0.999012 0
-0.0500943 -0.00206325 0.998742 0.00676016
-0.0463107 -0.00302157 0.998922 0.00921577
-0.0469575 -0.00356792 0.998891 0.00918419
-0.0420841 -0.00474895 0.999103 0.00620359
-0.0419799 -0.00568152 0.999102 0.00240018
-0.0443769 -0.00669461 0.998992 0
-0.0443302 -0.00759192 0.998988 0
-0.044652 -0.0084465 0.998967 0
-0.0423069 -0.00925571 0.999062 9.27576e-05
-0.0419058 -0.0103209 0.999068 0
-0.0404131 -0.0115224 0.999117 0
-0.0394631 -0.0124024 0.999144 0
-0.0457381 -0.0130419 0.998868 0
-0.0386996 -0.0142595 0.999149 0
-0.0405678 -0.0148697 0.999066 0
-0.0376405 -0.0158264 0.999166 0
-0.0407288 -0.0163862 0.999036 0
-0.0408447 -0.0169452 0.999022 0
-0.0414928 -0.0177299 0.998982 0
-0.0377089 -0.0184213 0.999119 0
-0.0402698 -0.0192258 0.999004 0
-0.0394407 -0.0197132 0.999027 0.000126765
-0.0424829 -0.0200978 0.998895 0.00377945
-0.0466627 -0.0207418 0.998695 0.00981495
-0.0549804 -0.0210571 0.998265 0.0108496
-0.0400397 -0.0219992 0.998956 0.00323783
-0.0392346 -0.0227064 0.998972 0.00271809
-0.035693 -0.0236105 0.999084 0
-0.0335649 -0.0243184 0.999141 0.00159844
-0.038605 -0.0245009 0.998954 0.00601656
-0.0340925 -0.0252707 0.999099 0.00238615
-0.0375596 -0.025342 0.998973 0.0037557
-0.0389332 -0.0258756 0.998907 0.00325313
-0.0392625 -0.0259465 0.998892 0.00382544
-0.0409044 -0.0261233 0.998821 0.00104149
-0.0485997 -0.0262166 0.998474 0.00732952
-0.0447438 -0.0262996 0.998652 0.0080674
-0.0442979 -0.0265684 0.998665 0.0078835
-0.0445904 -0.0266296 0.99865 0.0141866
-0.0417289 -0.0264263 0.998779 0.0110403
-0.0342085 -0.026956 0.999051 0.00290852
-0.0401021 -0.0265549 0.998843 0.00604768
-0.0347973 -0.0266608 0.999039 0
-0.0320366 -0.0265896 0.999133 0
-0.0327792 -0.0265979 0.999109 0
-0.0362535 -0.0261065 0.999002 0
-0.0430164 -0.0253331 0.998753 0.00781797
-0.0449631 -0.0253423 0.998667 0.00876941
-0.0429881 -0.0250723 0.998761 0.00892769
-0.046872 -0.0245609 0.998599 0.0106162
-0.0517118 -0.023955 0.998375 0.0129226
-0.0489679 -0.0234376 0.998525 0.00961958
-0.0537982 -0.0229347 0.998288 0.00752793
-0.0490019 -0.0221967 0.998552 0.00311093
-0.0503014 -0.0217746 0.998497 0.00425811
-0.0588051 -0.0205995 0.998057 0.00761398
-0.0604031 -0.0198555 0.997977 0.00922112
-0.0627216 -0.0191243 0.997848 0.00902732
-0.0592775 -0.0185001 0.99807 0.00470141
-0.0568507 -0.0176632 0.998226 0.00520497
-0.051508 -0.0168845 0.99853 0
