# .PCD v0.7 - Point Cloud Data file format
VERSION 0.7
FIELDS x y z
SIZE 4 4 4
TYPE F F F
COUNT 1 1 1
WIDTH 1445
HEIGHT 1
VIEWPOINT 0 0 0 1 0 0 0
POINTS 1445
DATA ascii
-0.1038305 0.146705 -0.2376785
-0.10368175 0.14670199 -0.2376785
-0.103551 0.146697 -0.237674
-0.10338899 0.14669 -0.23769251
-0.10312933 0.146713 -0.23766433
-0.10290822 0.14670135 -0.2376551
-0.10267449 0.146686 -0.23764883
-0.10250399 0.146679 -0.23763366
-0.10233749 0.14671099 -0.23763999
-0.10215867 0.146706 -0.23760767
-0.105639 0.14691767 -0.23777634
-0.105469 0.146878 -0.237795
-0.10528389 0.14690022 -0.23774344
-0.1051325 0.14688934 -0.23774517
-0.10486949 0.14687733 -0.23774481
-0.104739 0.14691 -0.23774749
-0.1045635 0.14690299 -0.23772851
-0.10428862 0.14689687 -0.23771799
-0.10412157 0.14691429 -0.2376987
-0.1038665 0.146917 -0.23769549
-0.10367399 0.146891 -0.23768251
-0.10354333 0.14688568 -0.237679
-0.10338366 0.14687733 -0.23765235
-0.10312176 0.14690226 -0.23766975
-0.10288757 0.14690515 -0.23765202
-0.10266583 0.14691232 -0.23764534
-0.10249583 0.14690483 -0.23762532
-0.10233033 0.1469 -0.23764367
-0.102078 0.14687766 -0.23762302
-0.10589126 0.14710274 -0.2377875
-0.10563099 0.14710599 -0.237776
-0.10546049 0.147104 -0.237791
-0.105276 0.14709033 -0.23775364
-0.10512333 0.14711668 -0.2377495
-0.104861 0.14710367 -0.23773716
-0.10473266 0.147099 -0.23773032
-0.104557 0.147091 -0.23771767
-0.10431188 0.14708811 -0.23772113
-0.10416725 0.14710601 -0.23768625
-0.1038864 0.147112 -0.23768461
-0.10366517 0.147118 -0.237682
-0.10353401 0.14711367 -0.23768501
-0.10337333 0.14710534 -0.23767532
-0.10311517 0.147091 -0.23765565
-0.10290475 0.14708924 -0.23764588
-0.102658 0.147102 -0.23765075
-0.10248825 0.14709474 -0.23762301
-0.102326 0.14705101 -0.237617
-0.102069 0.14710499 -0.23762767
-0.10588058 0.1473 -0.23778243
-0.105624 0.14729534 -0.23777665
-0.10545367 0.14729334 -0.23777467
-0.10526933 0.14727966 -0.23774499
-0.1051165 0.14730625 -0.2377415
-0.104854 0.14729349 -0.2377335
-0.104725 0.14728901 -0.23773599
-0.104548 0.14731835 -0.23771799
-0.10429556 0.1473051 -0.23771392
-0.10415983 0.14729549 -0.237689
-0.10391541 0.1472958 -0.2376862
-0.1036585 0.14730676 -0.23766899
-0.1035275 0.147302 -0.237674
-0.103366 0.147295 -0.237682
-0.1031065 0.14731734 -0.23765115
-0.10292966 0.14730817 -0.23764451
-0.10269956 0.14729357 -0.23763824
-0.10248116 0.14728318 -0.2376235
-0.10231634 0.147278 -0.23762299
-0.102062 0.147295 -0.23762301
-0.1066335 0.14754 -0.23779801
-0.10584 0.147484 -0.23777699
-0.1056165 0.147485 -0.237783
-0.105445 0.14752068 -0.23777634
-0.10526078 0.14750545 -0.23773567
-0.105109 0.14749418 -0.23774217
-0.10484733 0.1474815 -0.23772268
-0.10471866 0.14747567 -0.23771
-0.1045415 0.147507 -0.2377
-0.104289 0.14749333 -0.2376945
-0.10415149 0.14752199 -0.23767918
-0.1039086 0.14749201 -0.23767039
-0.10367272 0.14750671 -0.23765056
-0.10352132 0.14748998 -0.23764634
-0.103358 0.147485 -0.23768467
-0.1031 0.147506 -0.23763099
-0.10292351 0.14749674 -0.23761925
-0.102707 0.14749649 -0.23762615
-0.102515 0.14751114 -0.23761629
-0.102307 0.14750634 -0.23763199
-0.10205501 0.14748234 -0.23760867
-0.10614441 0.14771639 -0.23779199
-0.105804 0.14764601 -0.23778801
-0.10560866 0.14767534 -0.23778933
-0.1054395 0.147708 -0.23773599
-0.10525266 0.14769618 -0.23775016
-0.10509 0.1477064 -0.2377446
-0.10488266 0.14771201 -0.23774032
-0.10475267 0.14770299 -0.23769419
-0.10453367 0.147697 -0.23770666
-0.10428134 0.14768299 -0.23769814
-0.1041445 0.14771099 -0.23767699
-0.10397249 0.147701 -0.237673
-0.1037132 0.14767781 -0.2376496
-0.103597 0.14775801 -0.23765999
-0.10335001 0.14771099 -0.23766567
-0.10309216 0.14769532 -0.23763515
-0.1029155 0.14768682 -0.23762868
-0.1027412 0.1476914 -0.23762159
-0.1025495 0.14770049 -0.237609
-0.10230049 0.14769399 -0.23761299
-0.10204601 0.14771067 -0.23761767
-0.107165 0.147909 -0.23779367
-0.1068585 0.14785349 -0.23779851
-0.10614133 0.14787866 -0.23778833
-0.105878 0.14799599 -0.23779801
-0.10574576 0.14788975 -0.23778674
-0.10549819 0.14791441 -0.23776039
-0.10525928 0.147875 -0.23775487
-0.10513128 0.14789785 -0.23772702
-0.1048755 0.147901 -0.23774
-0.10474475 0.14789376 -0.2377055
-0.10452601 0.14792301 -0.237691
-0.10427245 0.14791012 -0.23770088
-0.104137 0.14789949 -0.23766935
-0.10396566 0.14789 -0.23766701
-0.10373267 0.1478765 -0.23766215
-0.103562 0.14792266 -0.23765467
-0.1033435 0.14789951 -0.237653
-0.1030726 0.14790781 -0.237643
-0.10290667 0.14791366 -0.23763134
-0.1027755 0.147866 -0.237609
-0.1025512 0.1478752 -0.23761562
-0.10229301 0.147884 -0.23762167
-0.10613675 0.14809951 -0.23779275
-0.10592 0.14807351 -0.23778924
-0.10550825 0.14809 -0.2377705
-0.10525999 0.14811367 -0.23776267
-0.10511988 0.14810421 -0.23774131
-0.10486901 0.14808901 -0.23772199
-0.10473666 0.14808385 -0.23771667
-0.10451899 0.148111 -0.23767701
-0.1042788 0.14809279 -0.23770121
-0.1041432 0.14809799 -0.23767599
-0.10395533 0.14811833 -0.237693
-0.10372368 0.14810432 -0.23766367
-0.10354149 0.14809668 -0.23763984
-0.103336 0.14808834 -0.23765333
-0.1030882 0.1480898 -0.23763199
-0.1028995 0.14810249 -0.237625
-0.102664 0.14812601 -0.23761199
-0.10255475 0.14811826 -0.23761
-0.10228501 0.14811 -0.23760633
-0.106346 0.148398 -0.23779801
-0.10610529 0.14831743 -0.23778471
-0.10577933 0.14828832 -0.23777433
-0.10550133 0.148278 -0.23776416
-0.10525376 0.14830148 -0.23773925
-0.10510015 0.14830743 -0.23772384
-0.10486066 0.14831598 -0.23771067
-0.10472834 0.14831033 -0.23770218
-0.10451034 0.148302 -0.23769933
-0.10429117 0.14829133 -0.23769552
-0.10414556 0.14828032 -0.23767465
-0.103949 0.148307 -0.237666
-0.10371751 0.14829201 -0.237643
-0.10352419 0.1483088 -0.237643
-0.103328 0.14831434 -0.23763366
-0.10305899 0.14828441 -0.23762079
-0.10289233 0.14829199 -0.23762582
-0.10271921 0.1482656 -0.237606
-0.102403 0.148267 -0.237602
-0.102279 0.14826199 -0.237606
-0.1063415 0.14851201 -0.237793
-0.10608383 0.148496 -0.23777999
-0.105902 0.14852801 -0.2377965
-0.10577166 0.14851467 -0.23774834
-0.10549384 0.1485035 -0.23773533
-0.10524566 0.14849183 -0.23775233
-0.10511613 0.14849237 -0.23772687
-0.1048535 0.148504 -0.23770401
-0.10472075 0.14849949 -0.23770849
-0.1045035 0.14849 -0.23769501
-0.104283 0.14851667 -0.23768501
-0.104137 0.148507 -0.23766845
-0.10394233 0.14849566 -0.237662
-0.10370984 0.14848201 -0.23764467
-0.1035346 0.1484914 -0.23764639
-0.10332049 0.148504 -0.237636
-0.1030065 0.148486 -0.237616
-0.10288399 0.148518 -0.23761167
-0.10269967 0.148507 -0.23760982
-0.10256051 0.148535 -0.237608
-0.107134 0.14870501 -0.2377905
-0.106334 0.1487 -0.23779768
-0.10607722 0.14868377 -0.23776801
-0.10589666 0.14867918 -0.23778552
-0.105764 0.14870399 -0.237753
-0.10551433 0.148682 -0.23775466
-0.10526014 0.14872058 -0.23775101
-0.10509623 0.14871012 -0.23773789
-0.104846 0.14869499 -0.23771633
-0.10471383 0.1486885 -0.237702
-0.10449699 0.14868 -0.23768067
-0.10427575 0.1487065 -0.23767951
-0.10412999 0.14869633 -0.23765899
-0.10393333 0.14872299 -0.23766132
-0.10370184 0.14870851 -0.23763432
-0.10351833 0.14870267 -0.23763502
-0.103313 0.14869367 -0.23763633
-0.10307366 0.14867999 -0.23761201
-0.10291721 0.14870259 -0.23761299
-0.10271033 0.14868534 -0.237602
-0.1022595 0.148754 -0.23760501
-0.1071035 0.14888966 -0.23776333
-0.1067725 0.148912 -0.23779801
-0.106581 0.148903 -0.237791
-0.106327 0.14889 -0.23778799
-0.10606855 0.14891134 -0.23776378
-0.10588849 0.1489055 -0.23777516
-0.10575601 0.148894 -0.23776467
-0.10556266 0.14888567 -0.23775999
-0.10529958 0.14889714 -0.23774828
-0.1051074 0.14889261 -0.23772402
-0.10487775 0.14892399 -0.23771924
-0.10470584 0.14891466 -0.23768102
-0.10448801 0.14890735 -0.23768432
-0.10426883 0.14889517 -0.23767333
-0.10412367 0.148884 -0.23764221
-0.103927 0.148911 -0.237638
-0.10369425 0.14889699 -0.2376295
-0.10351049 0.148892 -0.2376375
-0.103304 0.148921 -0.23763533
-0.10310134 0.14890933 -0.23761399
-0.102892 0.14891401 -0.23761161
-0.102737 0.14885199 -0.2376055
-0.10709483 0.14911699 -0.23775882
-0.10669125 0.1491155 -0.23778525
-0.106574 0.14909233 -0.23778833
-0.10632 0.14907899 -0.23777567
-0.10606217 0.14909934 -0.23774867
-0.105881 0.14909525 -0.2377705
-0.105748 0.14912033 -0.23774634
-0.10555467 0.14911233 -0.23774402
-0.10529958 0.14909257 -0.23774472
-0.10514413 0.14910188 -0.23771301
-0.10493059 0.1490906 -0.23769
-0.10469875 0.14910375 -0.23767176
-0.1044805 0.14909551 -0.2376775
-0.10425 0.14910659 -0.2376698
-0.10411412 0.149112 -0.23764879
-0.103919 0.149101 -0.23765534
-0.103687 0.149087 -0.23763484
-0.10350334 0.14908133 -0.23763482
-0.103298 0.14910901 -0.237618
-0.10292375 0.14907075 -0.23761
-0.107658 0.14937501 -0.237794
-0.107087 0.1493075 -0.23777275
-0.1066988 0.1493094 -0.23778081
-0.10656466 0.14932032 -0.23779368
-0.10631134 0.149305 -0.23777199
-0.10605456 0.1492891 -0.23774645
-0.10587516 0.14928284 -0.23774618
-0.105743 0.14930651 -0.2377
-0.105549 0.14929849 -0.2377125
-0.10530899 0.14929324 -0.237737
-0.10514211 0.14931889 -0.23770611
-0.10490582 0.14930183 -0.23768784
-0.10469201 0.14929216 -0.23766233
-0.10447466 0.14928366 -0.23765266
-0.10428125 0.1492755 -0.23765975
-0.10411985 0.14930829 -0.23765399
-0.103912 0.14929101 -0.237643
-0.10367832 0.14931466 -0.23762734
-0.10347325 0.1492895 -0.23763649
-0.1032925 0.149261 -0.23760951
-0.10289425 0.14927749 -0.2376105
-0.102718 0.149344 -0.23760299
-0.107655 0.14944901 -0.23779801
-0.107569 0.149445 -0.237793
-0.10707867 0.14949749 -0.237782
-0.10683966 0.14948399 -0.23778801
-0.10670251 0.14947575 -0.23777525
-0.1065575 0.14950851 -0.237784
-0.1063035 0.14949501 -0.23778149
-0.10607166 0.14951716 -0.2377388
-0.10590855 0.14951277 -0.23775546
-0.10573434 0.149498 -0.23771699
-0.105541 0.14948966 -0.23772234
-0.10530117 0.14948399 -0.23774116
-0.10513683 0.14950633 -0.23766448
-0.10489925 0.14949101 -0.23767748
-0.10468334 0.14951949 -0.23766135
-0.104466 0.14951099 -0.23764801
-0.104299 0.14950299 -0.237647
-0.10412308 0.14949267 -0.23765118
-0.103906 0.149478 -0.237619
-0.103723 0.14950451 -0.237624
-0.1034885 0.149497 -0.2376115
-0.1029655 0.14954799 -0.23761401
-0.10749834 0.14972067 -0.23779066
-0.107287 0.149737 -0.237794
-0.10706661 0.14970781 -0.2377654
-0.10685125 0.14973199 -0.23779401
-0.1066828 0.1497184 -0.23777762
-0.10655034 0.149698 -0.23777866
-0.10629633 0.149685 -0.23777235
-0.1060645 0.1497055 -0.237737
-0.10590167 0.149702 -0.23774801
-0.105728 0.1496865 -0.237709
-0.10553133 0.149718 -0.23773366
-0.10529333 0.14970966 -0.23771684
-0.10512844 0.14969642 -0.23768242
-0.1048905 0.14968149 -0.23769867
-0.10467499 0.14971 -0.23767801
-0.104459 0.14970049 -0.237638
-0.10429201 0.149693 -0.237645
-0.10410881 0.14971136 -0.23763438
-0.10389534 0.14970799 -0.23764433
-0.1035255 0.1496495 -0.2376155
-0.103274 0.149717 -0.2376215
-0.1029595 0.1497 -0.23762101
-0.10764 0.149829 -0.237799
-0.107464 0.149821 -0.237793
-0.10725959 0.14990321 -0.23778041
-0.1070694 0.149891 -0.23776421
-0.1068902 0.14989761 -0.23778939
-0.10668575 0.149894 -0.23778576
-0.1065435 0.149886 -0.23776901
-0.10628799 0.149911 -0.23775899
-0.106058 0.14989467 -0.23771749
-0.10589489 0.14989035 -0.23773146
-0.105721 0.149876 -0.23769867
-0.105526 0.149905 -0.23769799
-0.1052865 0.14989901 -0.23771049
-0.10511386 0.149902 -0.23767428
-0.10492325 0.14989224 -0.23770323
-0.10470038 0.14991036 -0.23767576
-0.10445133 0.14988966 -0.23764332
-0.104285 0.149883 -0.23764133
-0.10411556 0.14989644 -0.23763578
-0.103889 0.1498965 -0.237634
-0.1036662 0.14990501 -0.23761639
-0.10348666 0.14991499 -0.23761
-0.103268 0.149868 -0.237625
-0.102954 0.14985 -0.237607
-0.10724749 0.15007749 -0.23777924
-0.10708401 0.15009513 -0.23777238
-0.10687529 0.15010442 -0.23778428
-0.1066795 0.15008201 -0.237763
-0.106536 0.15007667 -0.23777367
-0.106282 0.15009899 -0.237738
-0.10604966 0.15012001 -0.23770534
-0.10591186 0.15010786 -0.23772416
-0.1057464 0.15012179 -0.23770399
-0.10552 0.15009201 -0.237673
-0.105279 0.15008767 -0.23771334
-0.10512012 0.1500845 -0.23766837
-0.104956 0.1501025 -0.23771301
-0.10470566 0.15008967 -0.23765433
-0.104442 0.15011801 -0.23765402
-0.104276 0.15010934 -0.23763867
-0.10410041 0.15009727 -0.23762684
-0.10388166 0.15008533 -0.23762865
-0.1037005 0.15011001 -0.23761049
-0.10353734 0.15011899 -0.23760633
-0.107621 0.15032101 -0.2377905
-0.10744667 0.15027666 -0.23779468
-0.10732433 0.15032199 -0.23779766
-0.1070485 0.1502925 -0.2377705
-0.106878 0.15031157 -0.23778829
-0.10667133 0.15030836 -0.23774517
-0.10652833 0.15030266 -0.237749
-0.106275 0.15028866 -0.23773366
-0.1060415 0.1503115 -0.23772225
-0.10592225 0.15030999 -0.23772925
-0.10574925 0.15029575 -0.2376875
-0.10550933 0.15032233 -0.23770034
-0.10528461 0.15030119 -0.23770981
-0.1051149 0.15031049 -0.23766792
-0.10494933 0.15029101 -0.23769732
-0.104698 0.15028012 -0.2376581
-0.104435 0.150306 -0.237643
-0.1042685 0.150298 -0.237637
-0.10408251 0.15030989 -0.2376332
-0.10387333 0.15031201 -0.23762201
-0.103693 0.150299 -0.23760633
-0.10350075 0.1503045 -0.237611
-0.108019 0.15053201 -0.237799
-0.10761434 0.15051 -0.237781
-0.10724799 0.15048529 -0.23778741
-0.10704083 0.15048216 -0.23776616
-0.106899 0.15050599 -0.23778601
-0.106691 0.15050641 -0.2377522
-0.106521 0.15049249 -0.23775199
-0.106266 0.150516 -0.237725
-0.10603417 0.15050067 -0.23772216
-0.10591517 0.15049817 -0.23772401
-0.105741 0.15048599 -0.23770517
-0.1055025 0.150511 -0.237691
-0.105331 0.150511 -0.237727
-0.10511377 0.15050544 -0.23767155
-0.104941 0.150518 -0.23768334
-0.10468923 0.15050678 -0.23765789
-0.10442734 0.15049601 -0.23764968
-0.104261 0.150488 -0.23764133
-0.1040941 0.1504925 -0.23763089
-0.103865 0.15050299 -0.237638
-0.103687 0.150451 -0.237607
-0.103406 0.15048149 -0.23761201
-0.10324501 0.150474 -0.237607
-0.10801449 0.150646 -0.237795
-0.107607 0.150662 -0.237799
-0.107429 0.15073 -0.23778901
-0.1072475 0.1507615 -0.237792
-0.10707362 0.15070251 -0.23776111
-0.106916 0.15070499 -0.23778401
-0.10670211 0.15069 -0.23775356
-0.106514 0.150681 -0.23774034
-0.1062595 0.15070599 -0.237721
-0.10602699 0.15069 -0.237717
-0.10590775 0.1506885 -0.237726
-0.105731 0.15071566 -0.23772515
-0.10549434 0.15070234 -0.23771566
-0.105324 0.15069968 -0.23771234
-0.10512164 0.15069027 -0.23767348
-0.1049335 0.150709 -0.237688
-0.10472525 0.15069701 -0.23764601
-0.10449 0.15071079 -0.237636
-0.10425267 0.15071534 -0.23763065
-0.10407936 0.15069646 -0.23761529
-0.10386 0.15065351 -0.23761499
-0.103677 0.15071701 -0.237607
-0.108616 0.150901 -0.23778549
-0.107661 0.15087301 -0.23778825
-0.10749567 0.15091066 -0.237794
-0.1072978 0.15089002 -0.23776241
-0.10704839 0.15089159 -0.2377516
-0.10690875 0.15089375 -0.23777875
-0.10672071 0.15090857 -0.23775999
-0.1065414 0.15092561 -0.23775141
-0.106251 0.150896 -0.23772867
-0.10604433 0.15088101 -0.23771334
-0.10593212 0.15087721 -0.23771435
-0.10572375 0.15090451 -0.237725
-0.1054865 0.150893 -0.237721
-0.1053175 0.150888 -0.23769501
-0.10510508 0.15091175 -0.23769289
-0.10492667 0.150896 -0.23767366
-0.10471833 0.15088618 -0.23763734
-0.10451939 0.15089241 -0.23761439
-0.104246 0.150904 -0.2376155
-0.10414 0.150897 -0.2376225
-0.10394767 0.15092367 -0.23760867
-0.103667 0.15098201 -0.237602
-0.103477 0.150901 -0.23760934
-0.107675 0.15104499 -0.23779
-0.10750371 0.15110171 -0.23777227
-0.10727975 0.151085 -0.23778951
-0.10710614 0.1511157 -0.23775971
-0.10693233 0.15108356 -0.23776333
-0.1067335 0.15111025 -0.2377525
-0.10654425 0.15110025 -0.23774502
-0.106244 0.15108499 -0.237727
-0.106036 0.15110667 -0.237707
-0.10592323 0.15110546 -0.23771466
-0.105717 0.15109384 -0.23771282
-0.10547934 0.151081 -0.237709
-0.10531033 0.151077 -0.23769067
-0.10509837 0.15110089 -0.237682
-0.104918 0.15112333 -0.23767066
-0.10471016 0.15111284 -0.23762549
-0.10449317 0.15110484 -0.23762065
-0.10423899 0.15109335 -0.23761368
-0.10409956 0.15108456 -0.23761331
-0.1039312 0.151089 -0.23760641
-0.103664 0.15105601 -0.237601
-0.103469 0.151126 -0.237602
-0.107583 0.15130651 -0.237784
-0.10727175 0.15129399 -0.2377895
-0.107069 0.1513042 -0.23775999
-0.10692311 0.15131146 -0.2377739
-0.10672567 0.1513 -0.2377605
-0.10653699 0.15128951 -0.2377405
-0.10623667 0.15127432 -0.23772867
-0.1060285 0.151296 -0.23770401
-0.10591616 0.15129434 -0.23771167
-0.1057016 0.1513032 -0.2376816
-0.10547167 0.15130667 -0.23768835
-0.10530167 0.15130433 -0.23768866
-0.10509116 0.15128982 -0.23767801
-0.1049105 0.15131301 -0.237665
-0.10470225 0.1513025 -0.23763351
-0.1045735 0.151299 -0.23762301
-0.104297 0.151309 -0.23761681
-0.10411125 0.15133277 -0.23761801
-0.1038942 0.1512854 -0.23761261
-0.103465 0.151204 -0.23760401
-0.108416 0.15146101 -0.237799
-0.1079795 0.151555 -0.23778501
-0.107691 0.15151539 -0.2377874
-0.10748699 0.15151934 -0.237794
-0.107294 0.15150884 -0.23777916
-0.10708125 0.15153074 -0.2377675
-0.10691617 0.15150133 -0.23776852
-0.10671825 0.1514895 -0.23775899
-0.10652933 0.1515155 -0.23772001
-0.10622799 0.151501 -0.23772566
-0.10602099 0.15148599 -0.23770666
-0.105909 0.151484 -0.23770677
-0.10571121 0.15148759 -0.23769441
-0.1054635 0.151498 -0.237701
-0.105295 0.151493 -0.237672
-0.10508216 0.15151766 -0.2376781
-0.10490467 0.15150033 -0.237646
-0.10470339 0.15150841 -0.2376374
-0.104566 0.151489 -0.23762834
-0.10439066 0.15147968 -0.23761167
-0.10410167 0.15148968 -0.23761
-0.103828 0.15148699 -0.23761201
-0.103208 0.151421 -0.237601
-0.108942 0.151793 -0.237794
-0.108405 0.15176301 -0.237794
-0.10823566 0.15168533 -0.23779134
-0.1079735 0.15170699 -0.237786
-0.1076505 0.15168799 -0.2377755
-0.107524 0.15172133 -0.2377795
-0.10730178 0.15171044 -0.23775953
-0.10709411 0.15170124 -0.23775911
-0.10690889 0.15169021 -0.23776524
-0.10671166 0.15167783 -0.23774399
-0.10652175 0.15170525 -0.2377225
-0.10622101 0.15169001 -0.237712
-0.106013 0.151712 -0.23768599
-0.1059009 0.15170956 -0.23769055
-0.10569467 0.1516985 -0.23768283
-0.10545767 0.151685 -0.23767267
-0.10528699 0.151683 -0.23767567
-0.10507537 0.15170613 -0.23766688
-0.1048965 0.151691 -0.237656
-0.10468549 0.151721 -0.23764084
-0.104558 0.151714 -0.23761366
-0.1042175 0.15166101 -0.23760401
-0.1041085 0.15173 -0.2376065
-0.1038225 0.151639 -0.23760599
-0.1089375 0.151908 -0.23779599
-0.108491 0.1518445 -0.237786
-0.1082956 0.1519272 -0.2377774
-0.108055 0.151939 -0.23778349
-0.1079152 0.15187861 -0.23778601
-0.1076635 0.15189876 -0.23778175
-0.1075165 0.15191126 -0.23778026
-0.10729416 0.15190066 -0.237767
-0.10707499 0.15190642 -0.23775972
-0.10690045 0.15191711 -0.23775142
-0.10670384 0.15190451 -0.23772649
-0.10651451 0.15189449 -0.23771816
-0.10621401 0.15187967 -0.23770332
-0.1060065 0.15190101 -0.237681
-0.10589366 0.151899 -0.23768234
-0.1056782 0.1519092 -0.23767059
-0.105449 0.151912 -0.237665
-0.10527966 0.15190901 -0.23765068
-0.10509267 0.15189822 -0.23766878
-0.1049425 0.15188502 -0.23764384
-0.104679 0.15190899 -0.2376305
-0.10455 0.151904 -0.23762101
-0.104098 0.151996 -0.237609
-0.1089315 0.152059 -0.23779601
-0.10830575 0.15210325 -0.23778825
-0.1080495 0.152091 -0.23777699
-0.10788099 0.15210259 -0.23777559
-0.10767701 0.15210734 -0.23778065
-0.10751066 0.152099 -0.23775299
-0.10733183 0.15209183 -0.23776466
-0.10711827 0.15208955 -0.23775691
-0.10689351 0.15210651 -0.23774235
-0.10669625 0.1520945 -0.2377315
-0.1064962 0.1521076 -0.2377276
-0.106206 0.152106 -0.237688
-0.106002 0.152015 -0.237675
-0.10590682 0.15209638 -0.23767771
-0.1056888 0.15209261 -0.23766641
-0.1054415 0.15210351 -0.23767799
-0.105272 0.152098 -0.237654
-0.10508549 0.15208735 -0.23766367
-0.10493467 0.15211166 -0.23762266
-0.10467199 0.15209834 -0.2376135
-0.104543 0.15209401 -0.23761433
-0.104364 0.152162 -0.237607
-0.104093 0.15211 -0.23761001
-0.121315 0.152244 -0.2378
-0.108558 0.152382 -0.23778901
-0.10825575 0.15227376 -0.23778926
-0.10804134 0.15228166 -0.23778333
-0.10789939 0.1522876 -0.23778041
-0.10766976 0.15229675 -0.237776
-0.10750325 0.15228975 -0.23775899
-0.10732334 0.15231933 -0.23775668
-0.10713445 0.15231267 -0.23776942
-0.1069135 0.15229791 -0.23774219
-0.10668916 0.15228434 -0.23772617
-0.1065084 0.15229061 -0.2377228
-0.1061985 0.15229601 -0.237684
-0.105906 0.15231673 -0.23767465
-0.10567167 0.15230483 -0.23767567
-0.10543434 0.15229167 -0.23766567
-0.105265 0.152288 -0.23765068
-0.10507867 0.15227611 -0.23765367
-0.1049275 0.1523 -0.2376115
-0.1046645 0.152289 -0.23762175
-0.10453551 0.152284 -0.23762101
-0.1043595 0.1522765 -0.237609
-0.120842 0.15252267 -0.237795
-0.10891533 0.152477 -0.23778899
-0.108744 0.152536 -0.237799
-0.10851 0.15249225 -0.23778874
-0.10828933 0.15252116 -0.2377855
-0.108032 0.152509 -0.23779233
-0.1078785 0.15249801 -0.23777433
-0.107663 0.15248515 -0.23776083
-0.10749567 0.15247883 -0.23775633
-0.107316 0.1525085 -0.237754
-0.10712701 0.15250184 -0.23776467
-0.1068994 0.15250941 -0.23773411
-0.10668033 0.15251051 -0.23771949
-0.10649099 0.15250216 -0.237718
-0.106191 0.152486 -0.23768866
-0.10593283 0.15250799 -0.23767115
-0.1057085 0.15249833 -0.23767383
-0.10542667 0.15251701 -0.237638
-0.10525767 0.15251333 -0.237619
-0.10507033 0.15250343 -0.23764102
-0.10492 0.15249033 -0.23762067
-0.10465699 0.15247883 -0.23762216
-0.10452767 0.15247466 -0.23762433
-0.108908 0.152667 -0.23778999
-0.108635 0.152723 -0.23779249
-0.10852525 0.152665 -0.23779251
-0.10837 0.1527085 -0.23775101
-0.108111 0.15270425 -0.23777501
-0.1078578 0.1527096 -0.23776321
-0.10765418 0.15271384 -0.23776384
-0.10748734 0.15270583 -0.23774652
-0.10730901 0.15269816 -0.237745
-0.10712101 0.15269046 -0.23774055
-0.106906 0.1526908 -0.2377115
-0.106673 0.152702 -0.23772751
-0.10648376 0.1526915 -0.237709
-0.10618234 0.152714 -0.23768599
-0.10592567 0.15269633 -0.23766047
-0.10570189 0.15268667 -0.23765834
-0.1054205 0.152706 -0.237626
-0.105251 0.152702 -0.237608
-0.10506383 0.15269133 -0.23762268
-0.10485733 0.15271465 -0.237637
-0.104635 0.15265501 -0.23761934
-0.120824 0.152978 -0.237799
-0.109458 0.152808 -0.2378
-0.108897 0.152933 -0.237799
-0.10862767 0.15291299 -0.237794
-0.10849366 0.15291066 -0.23779017
-0.10836166 0.15290067 -0.23776601
-0.108104 0.15289284 -0.23776932
-0.107928 0.15288199 -0.23777334
-0.10769733 0.15290533 -0.23775782
-0.1074805 0.15289475 -0.2377295
-0.107292 0.1529094 -0.23773798
-0.10711267 0.15291712 -0.23773323
-0.10692456 0.1529029 -0.23768766
-0.10670911 0.15289235 -0.23771535
-0.10647717 0.15287949 -0.23769784
-0.106176 0.15290251 -0.23767251
-0.10591815 0.15290186 -0.23765472
-0.10569333 0.15291423 -0.2376518
-0.105413 0.152896 -0.23761301
-0.10524333 0.15289301 -0.23760898
-0.10508051 0.1528825 -0.23762698
-0.121279 0.15315001 -0.23779701
-0.12082 0.15309 -0.237792
-0.108892 0.15308467 -0.23778434
-0.10862049 0.1531025 -0.23778799
-0.108486 0.15310124 -0.23779149
-0.1083535 0.153092 -0.237786
-0.10807841 0.15310439 -0.2377688
-0.10792 0.15311 -0.23776366
-0.10771699 0.15308614 -0.237764
-0.1075035 0.1530955 -0.23773827
-0.1073038 0.153092 -0.23772299
-0.10710499 0.15310784 -0.23773515
-0.106917 0.1530935 -0.23769166
-0.10669038 0.15310925 -0.23770499
-0.10646866 0.153107 -0.23768683
-0.10616899 0.15309034 -0.23765899
-0.10591099 0.15308425 -0.237647
-0.10573 0.15310825 -0.23765801
-0.10550125 0.15309149 -0.23763876
-0.10523351 0.153157 -0.23760301
-0.10506129 0.15309986 -0.23762898
-0.105 0.153107 -0.23761199
-0.10468 0.15308601 -0.23760501
-0.121032 0.15336899 -0.237794
-0.120984 0.153364 -0.23779599
-0.109266 0.153329 -0.237794
-0.108883 0.153313 -0.23779066
-0.108614 0.15329166 -0.23777501
-0.10847916 0.15328982 -0.23778631
-0.10834634 0.15328033 -0.237773
-0.1081058 0.1532886 -0.23776741
-0.1079125 0.1533 -0.237764
-0.10771839 0.15330839 -0.23774619
-0.10750577 0.15331344 -0.23772945
-0.10728683 0.15330318 -0.23771733
-0.10709866 0.15329556 -0.23771565
-0.10690977 0.15328278 -0.23768656
-0.10670614 0.15329327 -0.23770441
-0.10646199 0.15329599 -0.23767425
-0.10616034 0.15331767 -0.23765333
-0.10590243 0.15330356 -0.23764923
-0.105723 0.15329666 -0.23764549
-0.105593 0.153246 -0.237625
-0.1053545 0.15329476 -0.23763025
-0.10506424 0.153299 -0.237618
-0.120862 0.15350868 -0.23779534
-0.1207135 0.15354 -0.237785
-0.1199415 0.153541 -0.23779351
-0.109429 0.153565 -0.23778801
-0.109256 0.153559 -0.2378
-0.108875 0.153503 -0.23779699
-0.1086458 0.15350579 -0.23777899
-0.10847101 0.15351652 -0.23777217
-0.10833833 0.15350734 -0.23776035
-0.108166 0.153505 -0.237758
-0.10794999 0.15349233 -0.23776633
-0.1077328 0.1534926 -0.23774862
-0.10749933 0.15350235 -0.23771548
-0.10728 0.153492 -0.23770049
-0.10709062 0.1535129 -0.23770323
-0.10690133 0.15351002 -0.237679
-0.10671157 0.15348886 -0.23769772
-0.10649087 0.15349612 -0.23766837
-0.106153 0.15350801 -0.23765001
-0.10589567 0.15349235 -0.237643
-0.10571525 0.15348801 -0.23765749
-0.10558 0.153586 -0.237607
-0.10528781 0.1534864 -0.23761618
-0.105034 0.153449 -0.237607
-0.1049865 0.153449 -0.237606
-0.12087 0.15373699 -0.237799
-0.12067667 0.15370333 -0.237794
-0.120433 0.153758 -0.237792
-0.120052 0.1537168 -0.23779321
-0.11993387 0.15370925 -0.23778111
-0.119783 0.153758 -0.237794
-0.1195538 0.15368821 -0.2377888
-0.1094714 0.15371959 -0.2377928
-0.10925066 0.15370899 -0.23779567
-0.1090035 0.15366 -0.237793
-0.10890099 0.15371275 -0.2377845
-0.1087 0.153676 -0.237792
-0.1085085 0.15370698 -0.23776732
-0.10833099 0.153697 -0.23776299
-0.108159 0.153695 -0.237753
-0.10794184 0.15371901 -0.23775315
-0.107714 0.15370433 -0.23774283
-0.10749189 0.15369222 -0.23771334
-0.1072725 0.15368201 -0.23770635
-0.10708372 0.15369602 -0.23769744
-0.10689399 0.15369885 -0.23767616
-0.1067142 0.1537112 -0.23767638
-0.10652766 0.15369099 -0.23766302
-0.1063985 0.1537475 -0.23765251
-0.106146 0.15369667 -0.23764867
-0.10588856 0.15368077 -0.23763098
-0.10570816 0.15367685 -0.23764451
-0.1055755 0.15369999 -0.23761201
-0.10526866 0.15370201 -0.23760299
-0.10507333 0.15371934 -0.23761666
-0.12088875 0.15390673 -0.23779225
-0.12067386 0.15387985 -0.23779072
-0.1204275 0.153909 -0.237786
-0.12007099 0.15389125 -0.23778075
-0.11992525 0.15391608 -0.23775934
-0.11977867 0.15390867 -0.23777068
-0.11953733 0.15389884 -0.23777349
-0.119323 0.1539305 -0.23778701
-0.10945575 0.153909 -0.23779601
-0.1092455 0.15389651 -0.237757
-0.1089142 0.153906 -0.2377772
-0.108691 0.15390366 -0.23779066
-0.10850123 0.15389678 -0.2377643
-0.10832467 0.15388466 -0.23773599
-0.10815267 0.153883 -0.23773766
-0.107935 0.15390801 -0.2377395
-0.10770699 0.1538935 -0.2377325
-0.10749733 0.153897 -0.23773415
-0.10729825 0.15391876 -0.23768513
-0.10707656 0.15390001 -0.23768078
-0.10688733 0.15388811 -0.23766211
-0.1067252 0.153892 -0.23765159
-0.10655167 0.15391798 -0.23763834
-0.1063935 0.153898 -0.237635
-0.10613833 0.15392268 -0.237625
-0.10588033 0.15390798 -0.23762067
-0.10569983 0.15390299 -0.23763484
-0.10556833 0.15389 -0.23761
-0.10537466 0.153883 -0.23761366
-0.10503333 0.15389366 -0.23761301
-0.12103667 0.15407833 -0.23779799
-0.12090545 0.15411466 -0.237782
-0.12069171 0.15410657 -0.23777357
-0.12046576 0.15411624 -0.23776449
-0.120065 0.15407799 -0.23775315
-0.11991826 0.15410426 -0.23775037
-0.1197715 0.15409699 -0.23776549
-0.1195216 0.15410879 -0.23775658
-0.11931767 0.15411668 -0.23775268
-0.1189305 0.15412684 -0.23778218
-0.118678 0.15407567 -0.23777099
-0.109408 0.15409701 -0.237785
-0.109238 0.15408568 -0.23775633
-0.10893379 0.1540892 -0.2377762
-0.1086845 0.154093 -0.23777699
-0.10849386 0.15411274 -0.23774551
-0.10831633 0.15411134 -0.23772834
-0.10814401 0.15411 -0.23772466
-0.10792851 0.15409584 -0.23772566
-0.10769967 0.15408249 -0.2377295
-0.10752641 0.1540896 -0.23771819
-0.10730233 0.15409984 -0.2376845
-0.10706186 0.15410428 -0.23766646
-0.10687833 0.15411645 -0.23766501
-0.1067085 0.1541045 -0.23765166
-0.10652799 0.15409552 -0.23765051
-0.106387 0.15408701 -0.23762299
-0.1061305 0.15411299 -0.237626
-0.10587367 0.15409666 -0.237606
-0.105693 0.15409249 -0.23762301
-0.10555933 0.154118 -0.23761266
-0.1050282 0.1541118 -0.23761141
-0.12091228 0.15431 -0.23777784
-0.12073 0.15429576 -0.2377605
-0.1204862 0.15430799 -0.237748
-0.12005734 0.15430318 -0.23773034
-0.11991233 0.15429117 -0.2377255
-0.11976501 0.15428434 -0.23774301
-0.1195332 0.15428801 -0.23772821
-0.1193095 0.1543075 -0.237763
-0.119023 0.15429851 -0.237774
-0.11893272 0.15430529 -0.23775259
-0.11867134 0.15429933 -0.23772533
-0.10948676 0.15428975 -0.2377775
-0.109271 0.1543355 -0.237763
-0.10891249 0.15430084 -0.23776536
-0.108677 0.15428233 -0.237773
-0.10850183 0.15428734 -0.23773515
-0.10833899 0.15431467 -0.23771365
-0.1081375 0.1542975 -0.2377075
-0.10791121 0.15430759 -0.23771939
-0.1076915 0.15430984 -0.23771949
-0.10751083 0.154301 -0.2377075
-0.10729545 0.15428911 -0.23767754
-0.107069 0.15428826 -0.237662
-0.10687117 0.15430534 -0.23765868
-0.10670075 0.15429451 -0.237661
-0.106511 0.15430541 -0.23762839
-0.106378 0.15431534 -0.23761833
-0.10612366 0.15430234 -0.23762
-0.10586 0.15428625 -0.23760726
-0.10568617 0.15428133 -0.23761301
-0.105554 0.15426999 -0.23760401
-0.105003 0.154247 -0.237615
-0.1049985 0.15436 -0.23760301
-0.12115368 0.15451001 -0.23779066
-0.12090954 0.15448691 -0.23776847
-0.12072301 0.15448384 -0.23775135
-0.12051561 0.15449001 -0.23774199
-0.120051 0.15449077 -0.23770949
-0.11990434 0.15451625 -0.23770849
-0.119757 0.15450934 -0.23772834
-0.11951617 0.15449983 -0.23772633
-0.11901633 0.154487 -0.23775966
-0.11893839 0.15448712 -0.23773274
-0.11866599 0.15452068 -0.23766701
-0.118296 0.15456501 -0.23777801
-0.10989233 0.154553 -0.23779733
-0.109754 0.15449433 -0.237794
-0.1095112 0.154466 -0.23778561
-0.109308 0.154506 -0.23774698
-0.1089055 0.15448949 -0.23776151
-0.10866967 0.15450765 -0.23775066
-0.10852317 0.15450217 -0.23773368
-0.10834751 0.15449199 -0.23770382
-0.10813067 0.154487 -0.23769565
-0.10792319 0.1544898 -0.2377032
-0.10768475 0.15449825 -0.2377055
-0.107504 0.15448976 -0.23769349
-0.10733249 0.15451799 -0.23766233
-0.10709772 0.15450138 -0.23766384
-0.10687779 0.15450279 -0.23764738
-0.10669301 0.15448584 -0.23766817
-0.10652341 0.15448999 -0.2376364
-0.1063705 0.154505 -0.237628
-0.1061165 0.1544915 -0.237616
-0.10585 0.15448917 -0.23760651
-0.1056335 0.154506 -0.237602
-0.104991 0.15455 -0.23760401
-0.121217 0.15473901 -0.23779599
-0.12105675 0.15469626 -0.23779276
-0.12089261 0.15471891 -0.23776591
-0.120715 0.15471034 -0.2377405
-0.12050821 0.1546862 -0.23772959
-0.120399 0.15476801 -0.23768499
-0.120044 0.15467884 -0.23770118
-0.11989763 0.15470448 -0.23769587
-0.1197505 0.154698 -0.23771399
-0.1195002 0.15470961 -0.23770718
-0.11929667 0.15471733 -0.23770534
-0.119041 0.15474661 -0.23777799
-0.11892533 0.15470278 -0.23771678
-0.1186595 0.154707 -0.237647
-0.1182025 0.15471101 -0.237758
-0.11812299 0.154713 -0.237791
-0.117911 0.154735 -0.23779599
-0.10988051 0.1546915 -0.237791
-0.109748 0.15464699 -0.237795
-0.10950141 0.1547236 -0.23777521
-0.1093 0.15469816 -0.23775685
-0.1088985 0.15467851 -0.23774816
-0.108663 0.154696 -0.237737
-0.1085165 0.1546915 -0.2377225
-0.10832939 0.15470621 -0.23772061
-0.10812167 0.154715 -0.23770267
-0.10790601 0.15470152 -0.23770034
-0.107678 0.154687 -0.23769617
-0.10749749 0.154678 -0.23767518
-0.1073245 0.154708 -0.2376695
-0.10711249 0.15469749 -0.23764433
-0.10687821 0.15470859 -0.23765381
-0.1066845 0.154713 -0.23766033
-0.10653049 0.15468299 -0.2376305
-0.106363 0.15469567 -0.23762934
-0.106111 0.154642 -0.23760751
-0.10565566 0.15468466 -0.23761065
-0.105038 0.15463001 -0.237606
-0.104988 0.154626 -0.23761
-0.12121201 0.154891 -0.23779151
-0.12108079 0.15488344 -0.23775946
-0.12090933 0.15489656 -0.2377491
-0.120708 0.154898 -0.237721
-0.120574 0.15489 -0.23769701
-0.12039367 0.15491867 -0.23767202
-0.12003732 0.15490167 -0.23765965
-0.119891 0.154892 -0.23768084
-0.11974367 0.15488566 -0.2377
-0.11951181 0.15489002 -0.23768739
-0.119292 0.154901 -0.23765001
-0.11907361 0.15489361 -0.2377274
-0.11892475 0.15490699 -0.23767474
-0.11865201 0.15489666 -0.237648
-0.11832425 0.154944 -0.23777525
-0.11811733 0.1548989 -0.23777921
-0.11794537 0.15489861 -0.23778887
-0.110372 0.154984 -0.2378
-0.10987325 0.15489963 -0.23778749
-0.1096935 0.1549105 -0.237799
-0.109503 0.15489975 -0.23778251
-0.1092746 0.15490881 -0.2377542
-0.10888966 0.1549065 -0.23774932
-0.108655 0.15488733 -0.23774533
-0.1085085 0.15488267 -0.23773201
-0.1083398 0.15489061 -0.23772499
-0.108114 0.15490499 -0.23770401
-0.107899 0.15489049 -0.23768725
-0.10766833 0.15491617 -0.23770799
-0.10748899 0.15490501 -0.237666
-0.10731799 0.154897 -0.23765384
-0.107106 0.15489726 -0.2376485
-0.10691912 0.15488888 -0.23766348
-0.106717 0.15490466 -0.237648
-0.10649824 0.154891 -0.237627
-0.106354 0.15492232 -0.23762266
-0.1061 0.154909 -0.23761167
-0.10562 0.15484801 -0.237608
-0.12120367 0.15511566 -0.23777501
-0.12107289 0.15510845 -0.23773879
-0.12089517 0.15509416 -0.23771651
-0.12070201 0.15508433 -0.23770083
-0.12056667 0.15507901 -0.23770167
-0.120387 0.1551075 -0.237663
-0.12003966 0.15507935 -0.23766668
-0.11988699 0.155112 -0.23766661
-0.11973666 0.15510966 -0.23766966
-0.119496 0.15509899 -0.23766266
-0.119284 0.155092 -0.23765968
-0.11908633 0.15508549 -0.23768033
-0.11893854 0.1550879 -0.23768763
-0.118643 0.1550895 -0.23767599
-0.118319 0.155094 -0.23776124
-0.11809914 0.15510228 -0.23776415
-0.11791901 0.15511525 -0.23778516
-0.117787 0.155187 -0.237795
-0.110803 0.155157 -0.237795
-0.110732 0.155077 -0.2378
-0.11049899 0.1551055 -0.237799
-0.11037 0.155057 -0.23779599
-0.10987191 0.1551031 -0.23778853
-0.109748 0.15512025 -0.237784
-0.10949566 0.15509033 -0.23778833
-0.10937133 0.155082 -0.23775534
-0.1091965 0.155114 -0.23778149
-0.10888175 0.15509799 -0.23775825
-0.10864533 0.15511768 -0.23776533
-0.1084995 0.155111 -0.23773165
-0.10832283 0.15510233 -0.23772366
-0.10810599 0.15509699 -0.23771334
-0.10789133 0.15508084 -0.237692
-0.10766175 0.15510499 -0.23769926
-0.107481 0.15509626 -0.237681
-0.10730975 0.1550885 -0.237674
-0.107095 0.15511788 -0.23766367
-0.10690289 0.15510722 -0.23766412
-0.10670978 0.15509489 -0.23764811
-0.106491 0.15508001 -0.23762183
-0.1063465 0.155112 -0.23762
-0.1060925 0.1551 -0.23761651
-0.105786 0.155046 -0.23760299
-0.12109862 0.15529899 -0.23774038
-0.12088099 0.15531163 -0.23768882
-0.120694 0.155311 -0.23768483
-0.12055867 0.15530433 -0.23768668
-0.12038133 0.15529267 -0.23762433
-0.120051 0.15528101 -0.237657
-0.11992171 0.15528609 -0.23765744
-0.119753 0.155312 -0.23766066
-0.11948875 0.155288 -0.23765999
-0.11927601 0.15531801 -0.23765033
-0.11907917 0.15530901 -0.2376415
-0.11892531 0.15530534 -0.23766594
-0.11863401 0.15528101 -0.23770499
-0.11831266 0.15528117 -0.23774116
-0.11811363 0.15528375 -0.23774099
-0.117913 0.15530261 -0.23776564
-0.117783 0.1552985 -0.23777899
-0.117593 0.15533 -0.23778699
-0.117162 0.1553475 -0.23777899
-0.11661 0.155358 -0.23779
-0.116425 0.15535 -0.23779701
-0.110361 0.155287 -0.237799
-0.11018199 0.15528335 -0.23778933
-0.10988033 0.15529983 -0.23777999
-0.1097585 0.15529326 -0.23778474
-0.10948784 0.155316 -0.23776567
-0.10936133 0.15531133 -0.23777334
-0.10918999 0.15530267 -0.23776601
-0.1088745 0.15528734 -0.23775582
-0.1086385 0.155306 -0.237754
-0.1084935 0.15529874 -0.2377075
-0.108316 0.1552915 -0.2377115
-0.1080985 0.155287 -0.23771501
-0.10788199 0.15531017 -0.23770083
-0.10768225 0.15527824 -0.23769476
-0.1075045 0.15529776 -0.23768425
-0.10730284 0.15527783 -0.23766284
-0.10708833 0.15530683 -0.23765002
-0.10689583 0.155297 -0.237655
-0.10669163 0.15531224 -0.23764277
-0.10648217 0.15530801 -0.23761766
-0.10634 0.155302 -0.23761235
-0.106089 0.155213 -0.23761
-0.121277 0.15549967 -0.23778866
-0.12110036 0.15547946 -0.23772718
-0.12089939 0.1555028 -0.23769751
-0.1206875 0.15549776 -0.23766649
-0.1205515 0.15549201 -0.23767801
-0.12037133 0.15552233 -0.23764668
-0.120042 0.15550767 -0.23765101
-0.119917 0.15549833 -0.23764722
-0.11975799 0.15548883 -0.23765802
-0.11948133 0.15547717 -0.23765551
-0.119269 0.15550649 -0.2376405
-0.11907225 0.15549749 -0.23762725
-0.11892228 0.15549657 -0.23763286
-0.11862733 0.15550466 -0.23766899
-0.11830517 0.15550567 -0.2377165
-0.11809667 0.15549867 -0.23771866
-0.11790692 0.15548925 -0.23773666
-0.11777633 0.155486 -0.23776267
-0.117587 0.15547965 -0.23777366
-0.1171555 0.15550101 -0.23779401
-0.1166404 0.15552419 -0.237771
-0.116447 0.15547533 -0.23778634
-0.110436 0.15552199 -0.23779699
-0.11017299 0.15551101 -0.23778701
-0.10987311 0.15549032 -0.23777553
-0.10971033 0.15548199 -0.23778756
-0.10947975 0.15550774 -0.23777451
-0.109355 0.1555005 -0.23775201
-0.10918351 0.15549099 -0.2377485
-0.1088995 0.1554995 -0.237765
-0.1086972 0.1555192 -0.23776022
-0.1084855 0.15548949 -0.237716
-0.10830801 0.1554825 -0.23772216
-0.10809133 0.155477 -0.23771232
-0.10787475 0.15549974 -0.2376985
-0.10770001 0.15549099 -0.23771299
-0.10750722 0.15551546 -0.23767355
-0.10729417 0.15550567 -0.23765884
-0.10708144 0.15549611 -0.23764557
-0.10689224 0.1554735 -0.23762125
-0.10670628 0.15549643 -0.23763028
-0.10647525 0.15549801 -0.23760875
-0.1063325 0.15549201 -0.2376045
-0.12129634 0.15570167 -0.23778033
-0.121114 0.15571244 -0.23770656
-0.1209127 0.15569384 -0.23768193
-0.12070987 0.15569724 -0.23766436
-0.120545 0.15568033 -0.23766233
-0.120364 0.155711 -0.23764101
-0.1200355 0.155697 -0.237645
-0.11990051 0.15570781 -0.23763248
-0.11975017 0.15571433 -0.23763901
-0.11947266 0.15570433 -0.23765467
-0.11925966 0.15569933 -0.23767598
-0.11906417 0.15568851 -0.23764817
-0.11891159 0.15568183 -0.23764773
-0.1186225 0.155689 -0.23762
-0.1182985 0.15569425 -0.23770274
-0.11807857 0.15570244 -0.23770599
-0.11789925 0.15571366 -0.23771183
-0.11776867 0.155711 -0.23773633
-0.117581 0.15570232 -0.23772834
-0.117236 0.15568967 -0.23775268
-0.11708675 0.15569425 -0.23776937
-0.11671134 0.15571468 -0.23778367
-0.1165985 0.155697 -0.237748
-0.11088 0.15569299 -0.237795
-0.110709 0.15568334 -0.23777933
-0.110429 0.155711 -0.23778999
-0.110166 0.155701 -0.237783
-0.10986444 0.15571755 -0.23776878
-0.10970178 0.15570889 -0.23777911
-0.10947251 0.15569733 -0.23777449
-0.10934734 0.15569134 -0.23775834
-0.109175 0.155683 -0.23776567
-0.108924 0.15570951 -0.2377705
-0.108707 0.15569624 -0.23776099
-0.10847617 0.15571967 -0.23772334
-0.10829883 0.15571083 -0.2377215
-0.10808267 0.155705 -0.23770969
-0.1078675 0.15569049 -0.23769633
-0.10769299 0.155681 -0.23770601
-0.10750017 0.15570582 -0.23766734
-0.1072865 0.155696 -0.23765875
-0.10707243 0.15570101 -0.23762915
-0.1068825 0.15572174 -0.23762549
-0.10668677 0.15570278 -0.23763333
-0.10651699 0.155691 -0.23761
-0.121304 0.1558775 -0.23776233
-0.12110666 0.155902 -0.23771001
-0.1209038 0.15591152 -0.23768501
-0.12071157 0.15591544 -0.23766224
-0.12053701 0.15590566 -0.23764433
-0.12035667 0.15590067 -0.23764001
-0.12002867 0.155884 -0.237628
-0.11991201 0.15589039 -0.23762099
-0.119743 0.155904 -0.23762949
-0.11946475 0.15589449 -0.23766124
-0.1192525 0.155889 -0.237671
-0.11905 0.15591499 -0.23763521
-0.11890208 0.15591098 -0.23765899
-0.11861499 0.15587901 -0.23761733
-0.11829216 0.15588199 -0.237683
-0.11809287 0.15588525 -0.237683
-0.11789276 0.155902 -0.23769225
-0.117762 0.1559 -0.237727
-0.1175745 0.15589 -0.237701
-0.11722866 0.155913 -0.23772101
-0.1170375 0.155836 -0.23778349
-0.11686433 0.15592366 -0.23777699
-0.11671799 0.15588968 -0.23776133
-0.116549 0.15589599 -0.23773281
-0.112262 0.155991 -0.23779599
-0.111096 0.15593401 -0.237795
-0.1108595 0.155939 -0.23779051
-0.11072467 0.15591334 -0.23777632
-0.11046834 0.155903 -0.237783
-0.11033767 0.15589333 -0.23777801
-0.11015967 0.15588966 -0.23776567
-0.1098575 0.15590717 -0.23776484
-0.10969418 0.15589951 -0.23777469
-0.1094558 0.1559086 -0.2377594
-0.109339 0.15591733 -0.23774068
-0.10916666 0.15591 -0.23775201
-0.10891733 0.15589933 -0.23775899
-0.10869933 0.15588683 -0.23776518
-0.10846925 0.15590775 -0.23771451
-0.10829125 0.15590149 -0.2377245
-0.108075 0.15589499 -0.23770899
-0.10784999 0.15590341 -0.23770139
-0.10768434 0.15590833 -0.23769701
-0.10749301 0.15589567 -0.23767111
-0.10727966 0.1558855 -0.23764865
-0.1070876 0.1558616 -0.23763981
-0.10689072 0.15591 -0.237638
-0.106721 0.15589425 -0.2376225
-0.1065436 0.1559062 -0.23761877
-0.12129483 0.1561055 -0.23776652
-0.12109856 0.15609322 -0.23771943
-0.1209164 0.15609509 -0.23768321
-0.12070384 0.156105 -0.23766632
-0.1205295 0.156095 -0.237647
-0.1203495 0.15608799 -0.237635
-0.12001999 0.15611066 -0.23762433
-0.11992721 0.15610321 -0.23761241
-0.11973567 0.15609251 -0.23763166
-0.11945616 0.15608682 -0.237692
-0.11924366 0.15608068 -0.23770267
-0.1190485 0.156104 -0.23763649
-0.11889387 0.15610163 -0.23767714
-0.11828399 0.15610783 -0.23767133
-0.11809843 0.15608957 -0.23765387
-0.1179025 0.15609536 -0.23767199
-0.11775634 0.15608533 -0.23769134
-0.11756799 0.15607733 -0.23769234
-0.117221 0.15610451 -0.237726
-0.117134 0.156138 -0.23771501
-0.11685713 0.15610763 -0.23776288
-0.11671084 0.15611416 -0.23773016
-0.11653167 0.156105 -0.237707
-0.116322 0.1561498 -0.23778841
-0.11600634 0.15609066 -0.23778768
-0.11586601 0.156128 -0.23778081
-0.111091 0.15608233 -0.23777533
-0.11084151 0.15610951 -0.23778951
-0.110767 0.156069 -0.23778699
-0.1104605 0.15609375 -0.237791
-0.11032899 0.15612133 -0.237776
-0.11015067 0.15611799 -0.23776601
-0.10985056 0.15609591 -0.23775035
-0.10968789 0.156087 -0.23775846
-0.1094662 0.15609339 -0.23777261
-0.1093325 0.156105 -0.23772401
-0.1091605 0.15609801 -0.23773301
-0.10891 0.15608999 -0.23776099
-0.108691 0.15611416 -0.23775233
-0.1084615 0.15609901 -0.23771869
-0.10828433 0.15609133 -0.23771566
-0.108068 0.156084 -0.23769967
-0.1078608 0.15608679 -0.2376986
-0.107677 0.15609899 -0.2377
-0.10748444 0.15610228 -0.23766856
-0.10728928 0.15612486 -0.23764457
-0.1070994 0.1561202 -0.23763759
-0.10689726 0.15609567 -0.23763533
-0.106752 0.156087 -0.23761433
-0.106503 0.15606999 -0.23760299
-0.12128775 0.15629551 -0.23776899
-0.12109021 0.15631944 -0.2377101
-0.12089809 0.15630667 -0.23768394
-0.12069677 0.15629478 -0.23766311
-0.120522 0.156285 -0.23764934
-0.12034234 0.156278 -0.23763166
-0.120015 0.156259 -0.237602
-0.11989533 0.15629099 -0.23761268
-0.11972699 0.15631916 -0.23762567
-0.1194548 0.156304 -0.23772439
-0.11927575 0.15632924 -0.23770726
-0.11903933 0.15629716 -0.23766552
-0.11889036 0.15628117 -0.23763976
-0.118598 0.156332 -0.237609
-0.11827775 0.156295 -0.23764275
-0.11810825 0.15628874 -0.23762749
-0.11790168 0.15631486 -0.23764354
-0.11774967 0.15630899 -0.23764932
-0.11755966 0.15630366 -0.237674
-0.11721567 0.156289 -0.23768599
-0.117126 0.156363 -0.237698
-0.11688955 0.15628882 -0.23776926
-0.11672461 0.1563094 -0.2376992
-0.11652499 0.15629226 -0.23768875
-0.11628586 0.156305 -0.23776172
-0.11612266 0.15631866 -0.23777068
-0.11586531 0.1563161 -0.2377636
-0.115567 0.156333 -0.23778
-0.114623 0.156398 -0.237795
-0.1110065 0.15635 -0.237795
-0.11085 0.15631115 -0.23778784
-0.110758 0.156333 -0.237772
-0.11046884 0.15630899 -0.23778482
-0.11032251 0.15630999 -0.237765
-0.11014549 0.156304 -0.23773
-0.1098505 0.15629816 -0.23773815
-0.10974012 0.15632625 -0.23773599
-0.10949911 0.15630557 -0.2377492
-0.10932567 0.15629534 -0.23772268
-0.109153 0.156288 -0.23772933
-0.10890333 0.156278 -0.23774533
-0.10868526 0.15630075 -0.23772125
-0.1084545 0.156289 -0.2377125
-0.108276 0.15631799 -0.23770534
-0.10805967 0.15631199 -0.237693
-0.107867 0.15628201 -0.2376985
-0.10772159 0.15630479 -0.2376802
-0.1075276 0.1562928 -0.23766658
-0.10730683 0.15630651 -0.23765318
-0.10708375 0.15629524 -0.237638
-0.10692134 0.156287 -0.23762584
-0.10674933 0.15628849 -0.23761167
-0.10658351 0.15626499 -0.237608
-0.1212815 0.15648232 -0.237746
-0.12108365 0.15650667 -0.23769633
-0.12089076 0.15649575 -0.23768376
-0.12067825 0.15651189 -0.23766287
-0.12051367 0.15651166 -0.23763466
-0.120336 0.15646701 -0.2376225
-0.120003 0.156563 -0.237602
-0.1198887 0.1564955 -0.23761301
-0.1197185 0.15651101 -0.23764725
-0.1194795 0.156514 -0.2377615
-0.11931 0.15650375 -0.23772976
-0.11904649 0.15650275 -0.23765124
-0.11890125 0.15654562 -0.23764099
-0.11859134 0.15648466 -0.23761666
-0.1182715 0.15648268 -0.23762433
-0.11810133 0.15647668 -0.23761515
-0.11790122 0.15649734 -0.23760989
-0.1177435 0.1564965 -0.2376335
-0.117554 0.15649 -0.237646
-0.117208 0.156515 -0.23766534
-0.11708183 0.15651283 -0.23769735
-0.11690674 0.15650883 -0.23774458
-0.116731 0.15649167 -0.23768823
-0.11651916 0.156479 -0.23765732
-0.11632 0.15647785 -0.23772785
-0.11614367 0.15651967 -0.237749
-0.11590733 0.15650232 -0.23776866
-0.11572934 0.15649249 -0.23778701
-0.11550733 0.15652083 -0.23778467
-0.11527934 0.15651399 -0.23779301
-0.11514924 0.1565235 -0.23777451
-0.114822 0.15656801 -0.237784
-0.114619 0.15651 -0.2377775
-0.114263 0.15653799 -0.237791
-0.1140945 0.15649399 -0.237793
-0.113826 0.15659501 -0.23779701
-0.112002 0.156587 -0.23779801
-0.111807 0.156535 -0.2377965
-0.111416 0.156555 -0.23779599
-0.111335 0.1565145 -0.2377865
-0.111002 0.156463 -0.237791
-0.11087618 0.15651454 -0.23776589
-0.1107125 0.15652326 -0.2377855
-0.11050916 0.15651184 -0.23777349
-0.1103486 0.1565176 -0.23775201
-0.11013734 0.15649533 -0.23773766
-0.1098628 0.1564918 -0.23773579
-0.10973967 0.15650684 -0.23773234
-0.1095395 0.156497 -0.23773749
-0.10935825 0.15648825 -0.23772949
-0.10914467 0.15651567 -0.23772234
-0.108895 0.156506 -0.23773432
-0.10876233 0.15649967 -0.23771267
-0.10850888 0.15646951 -0.2377
-0.1082952 0.156517 -0.23769478
-0.1080525 0.15650201 -0.23768499
-0.107882 0.1564905 -0.23767999
-0.10772651 0.15651833 -0.237671
-0.1075115 0.156505 -0.23765467
-0.10731187 0.15648499 -0.23762986
-0.107077 0.15648367 -0.23762114
-0.1069474 0.15646259 -0.23761579
-0.106573 0.156533 -0.237616
-0.1212745 0.15663549 -0.2377615
-0.12107421 0.1567011 -0.23773521
-0.12088284 0.15668632 -0.23769374
-0.1207304 0.15669182 -0.2376724
-0.12055176 0.15670401 -0.237636
-0.1203275 0.1566925 -0.237611
-0.11990228 0.15670608 -0.23763239
-0.11972271 0.15671429 -0.23766573
-0.119474 0.15662999 -0.237783
-0.119301 0.15669717 -0.23776017
-0.119052 0.1567135 -0.23767799
-0.11890545 0.15669808 -0.23765245
-0.118583 0.156712 -0.23760867
-0.118312 0.156634 -0.237602
-0.11809599 0.156628 -0.237608
-0.11795399 0.156679 -0.23760939
-0.11773667 0.15668467 -0.23761433
-0.11754766 0.15667701 -0.23762698
-0.11720251 0.156701 -0.2376295
-0.11707625 0.15669775 -0.2376575
-0.11689433 0.15670435 -0.23768888
-0.116724 0.15671523 -0.23765701
-0.11645466 0.156708 -0.23770332
-0.11633117 0.15670599 -0.23771816
-0.11615201 0.1566955 -0.23772551
-0.11590099 0.15668999 -0.23774809
-0.1157231 0.15668 -0.23776722
-0.11550025 0.15670975 -0.23777699
-0.11531901 0.1567035 -0.23778099
-0.1151006 0.15669981 -0.23777039
-0.1148525 0.15672225 -0.23777851
-0.1146925 0.15671726 -0.23777977
-0.1144345 0.156734 -0.237773
-0.114258 0.15668833 -0.237773
-0.114086 0.15672049 -0.237783
-0.1138765 0.156703 -0.23778176
-0.1137715 0.15671 -0.237793
-0.113256 0.15679701 -0.23778699
-0.11308434 0.15671366 -0.23778732
-0.11260667 0.15668701 -0.23777501
-0.112064 0.1567035 -0.237782
-0.1119156 0.1567024 -0.23778459
-0.11176034 0.15677367 -0.23778665
-0.11146601 0.1567404 -0.23779079
-0.1112922 0.1567174 -0.2377812
-0.111063 0.15677001 -0.23779701
-0.11092155 0.15669246 -0.23777489
-0.11073786 0.15669599 -0.23776372
-0.1105335 0.15670401 -0.237774
-0.11035025 0.15669274 -0.23774801
-0.110129 0.15672134 -0.23772232
-0.10985 0.1567035 -0.2377295
-0.10973255 0.15669601 -0.23772666
-0.10953283 0.15668632 -0.23772216
-0.10935149 0.15667634 -0.23771299
-0.1091385 0.156703 -0.237694
-0.10888951 0.156693 -0.23770499
-0.1087555 0.15668699 -0.23769701
-0.1085355 0.15670715 -0.23769499
-0.10830711 0.15669709 -0.23766957
-0.10804667 0.15668833 -0.23765667
-0.107876 0.15667801 -0.23766465
-0.10771975 0.15670824 -0.23766524
-0.10750425 0.1566935 -0.237646
-0.10732167 0.15672217 -0.23762034
-0.10709175 0.156692 -0.23760924
-0.10674566 0.15672068 -0.23760499
-0.106566 0.15668635 -0.23762633
-0.121041 0.15688133 -0.23777433
-0.12089288 0.15689433 -0.23772901
-0.12073525 0.15691474 -0.23768924
-0.12054334 0.15689483 -0.23765683
-0.12032 0.15688133 -0.237608
