# .PCD v0.7 - Point Cloud Data file format
VERSION 0.7
FIELDS x y z
SIZE 4 4 4
TYPE F F F
COUNT 1 1 1
WIDTH 1428
HEIGHT 1
VIEWPOINT 0 0 0 1 0 0 0
POINTS 1428
DATA ascii
-0.10058 0.1467945 -0.235851
-0.098856002 0.14673799 -0.235817
-0.089112498 0.1468055 -0.235902
-0.088985659 0.146807 -0.23595868
-0.10391725 0.14699724 -0.23594999
-0.1037715 0.1469695 -0.23593301
-0.103666 0.146964 -0.235888
-0.10340099 0.14695351 -0.2358945
-0.10320979 0.146963 -0.235918
-0.102992 0.14696099 -0.235956
-0.10267024 0.146998 -0.23595975
-0.102485 0.14697799 -0.23586899
-0.100991 0.14693899 -0.23580299
-0.10088025 0.14696275 -0.23584601
-0.10072628 0.14694728 -0.23585285
-0.100577 0.14691 -0.23582099
-0.089110002 0.14696351 -0.23582301
-0.088969253 0.14694874 -0.2359
-0.088853002 0.14701399 -0.235948
-0.104094 0.14716899 -0.235972
-0.1039454 0.1471256 -0.23592159
-0.10378925 0.14716175 -0.23590176
-0.10366001 0.14715433 -0.23585933
-0.10339584 0.147145 -0.23585516
-0.1032228 0.14714921 -0.23586139
-0.102988 0.14715549 -0.235879
-0.10268184 0.14713617 -0.23589717
-0.10248 0.14713049 -0.235845
-0.100766 0.14707351 -0.23580751
-0.088965997 0.1471045 -0.235846
-0.088840999 0.14718625 -0.23591448
-0.10427549 0.14737 -0.2359685
-0.10414333 0.147328 -0.23593085
-0.10396051 0.14732517 -0.23588735
-0.1038176 0.147332 -0.23586801
-0.1036545 0.1473445 -0.23582301
-0.103392 0.1473 -0.235808
-0.103211 0.14728901 -0.2358135
-0.102985 0.14731151 -0.23582199
-0.10267934 0.14729367 -0.23582333
-0.088819399 0.14731219 -0.23588181
-0.088574998 0.14733468 -0.23593301
-0.1042715 0.14752451 -0.235919
-0.10413775 0.14751875 -0.23589551
-0.10395449 0.147515 -0.23585349
-0.10380299 0.1475075 -0.2358295
-0.088775672 0.14745902 -0.23583567
-0.088571504 0.1475305 -0.23585001
-0.104431 0.147714 -0.23596799
-0.1042675 0.147678 -0.23588699
-0.1041335 0.14767225 -0.23586001
-0.10395025 0.1476685 -0.23582101
-0.10381401 0.14764701 -0.23581733
-0.088569 0.14764801 -0.235806
-0.104643 0.14790851 -0.23596799
-0.10442734 0.14786933 -0.23592032
-0.104261 0.14786567 -0.23586567
-0.10412765 0.14786217 -0.23582749
-0.088127002 0.14786899 -0.23596701
-0.1048368 0.14808461 -0.23596799
-0.104639 0.14806449 -0.235919
-0.104422 0.14806199 -0.23586899
-0.104256 0.148057 -0.235824
-0.104176 0.148018 -0.235811
-0.088120997 0.14806099 -0.23593099
-0.10500149 0.148237 -0.23597249
-0.10484666 0.14823017 -0.23593898
-0.104637 0.14822051 -0.235843
-0.1044175 0.14821351 -0.235844
-0.104253 0.14817099 -0.235801
-0.088115498 0.14825299 -0.23589399
-0.10504074 0.14839 -0.23596025
-0.10484078 0.14841966 -0.23590943
-0.10463033 0.14840966 -0.23582333
-0.1044125 0.14836499 -0.23582101
-0.088110499 0.148403 -0.235882
-0.088013001 0.1483905 -0.235964
-0.105177 0.1486205 -0.235962
-0.10503433 0.14857817 -0.23593752
-0.1048345 0.14860885 -0.23588566
-0.1046235 0.1485965 -0.23581299
-0.088104002 0.14859301 -0.23586367
-0.088007003 0.14858134 -0.23594034
-0.105219 0.14877351 -0.235964
-0.105028 0.14876676 -0.23592325
-0.1048295 0.14876001 -0.23587167
-0.088097498 0.1487835 -0.235836
-0.088000998 0.148772 -0.23590699
-0.10521267 0.14896134 -0.23594368
-0.10502134 0.14895551 -0.23590533
-0.1048555 0.14894851 -0.23586632
-0.1046978 0.14895502 -0.23583579
-0.088092998 0.14893501 -0.23581299
-0.087995 0.14896233 -0.23587833
-0.10520574 0.14914925 -0.23593649
-0.1050145 0.14914249 -0.23589325
-0.1048485 0.1491355 -0.2358575
-0.1047495 0.149132 -0.235846
-0.088088997 0.149049 -0.23580199
-0.087956667 0.14916067 -0.23589633
-0.1052005 0.1492995 -0.235921
-0.10500875 0.14929199 -0.23589525
-0.104835 0.14930841 -0.2358478
-0.10474367 0.149321 -0.23582767
-0.087935999 0.14929801 -0.23590401
-0.1054175 0.149455 -0.235975
-0.10519317 0.14948601 -0.23592432
-0.10500216 0.14948067 -0.23588081
-0.1048434 0.149489 -0.23583901
-0.1047365 0.149509 -0.23582099
-0.087929837 0.149488 -0.23587267
-0.1051865 0.149673 -0.235919
-0.104995 0.1496665 -0.23588049
-0.1048295 0.1496605 -0.23583549
-0.104731 0.14965749 -0.235819
-0.087923497 0.14967701 -0.235862
-0.10517899 0.14986032 -0.23591882
-0.1049875 0.14985301 -0.23588818
-0.104822 0.14984633 -0.23583966
-0.10472333 0.14984466 -0.23582299
-0.087906606 0.14984781 -0.2358778
-0.105394 0.15005299 -0.235973
-0.105172 0.150047 -0.2359145
-0.1050235 0.150039 -0.235908
-0.10485516 0.150034 -0.23586284
-0.104716 0.15003 -0.23582999
-0.087919198 0.15003081 -0.23584779
-0.087774999 0.150077 -0.23597901
-0.1053885 0.150203 -0.235973
-0.1052135 0.150198 -0.23593
-0.105068 0.15019275 -0.23590675
-0.10483763 0.15021111 -0.23586476
-0.10470867 0.150217 -0.23583435
-0.0879035 0.15020326 -0.235852
-0.087771505 0.15019101 -0.23596901
-0.10520599 0.150383 -0.23594333
-0.10506084 0.15037917 -0.235911
-0.10485243 0.15039143 -0.23587227
-0.10470051 0.150401 -0.235855
-0.087896504 0.15039216 -0.23584001
-0.087764002 0.150379 -0.23596734
-0.1051985 0.15056899 -0.235952
-0.1050535 0.150565 -0.23592001
-0.104873 0.1505565 -0.23589499
-0.1047255 0.150552 -0.23585999
-0.10454733 0.15057634 -0.23580301
-0.087843001 0.15057799 -0.2358685
-0.087757498 0.150567 -0.23596001
-0.10519066 0.15075535 -0.23595865
-0.10504583 0.15075116 -0.2359255
-0.10486501 0.15074216 -0.23589884
-0.10471749 0.15073749 -0.23587167
-0.1045405 0.15076201 -0.235806
-0.087785199 0.1507452 -0.23591843
-0.10518301 0.150942 -0.235971
-0.1050385 0.15093699 -0.23593299
-0.10485775 0.15092951 -0.23590399
-0.1047095 0.15092374 -0.2358875
-0.1045335 0.150911 -0.235826
-0.10431249 0.15098 -0.23580751
-0.0877968 0.15092841 -0.2358712
-0.1050305 0.15112384 -0.23594366
-0.10485017 0.15111567 -0.23591284
-0.104702 0.151109 -0.23589651
-0.10452601 0.151096 -0.23584001
-0.1043065 0.1511285 -0.235818
-0.087759398 0.15109019 -0.2358996
-0.10502225 0.151309 -0.23596351
-0.1048425 0.15130201 -0.23592351
-0.104694 0.1512955 -0.23590875
-0.1045175 0.151281 -0.23585451
-0.1042995 0.151278 -0.235825
-0.087746374 0.15129475 -0.23589663
-0.105016 0.151458 -0.23596875
-0.10483675 0.151452 -0.2359235
-0.10468701 0.151482 -0.23591281
-0.104511 0.15146933 -0.23585099
-0.10429267 0.15146334 -0.23582666
-0.104126 0.151457 -0.235801
-0.087768003 0.15147725 -0.23586074
-0.087656498 0.151464 -0.23596251
-0.10498475 0.15162474 -0.235967
-0.10482883 0.15163682 -0.23593818
-0.104679 0.15166751 -0.23592074
-0.10450301 0.151655 -0.23586351
-0.1042845 0.151649 -0.235844
-0.104117 0.15168101 -0.235805
-0.104035 0.151676 -0.235811
-0.087752998 0.15165 -0.2358588
-0.087650001 0.15165232 -0.235945
-0.104821 0.15182301 -0.235952
-0.104673 0.15181699 -0.235929
-0.104495 0.15183999 -0.23588067
-0.10427699 0.15183599 -0.23584934
-0.10411034 0.151829 -0.23581566
-0.1040305 0.15178999 -0.235807
-0.087741338 0.151815 -0.23585398
-0.087642506 0.15184 -0.235945
-0.10481334 0.152009 -0.23595817
-0.10466517 0.15200166 -0.23594399
-0.1044875 0.152026 -0.235888
-0.1042695 0.152022 -0.235854
-0.10410351 0.152016 -0.235818
-0.104022 0.152013 -0.235809
-0.087706499 0.15200099 -0.23585999
-0.087637 0.15199 -0.2359475
-0.10479167 0.15218167 -0.23597634
-0.10465675 0.152187 -0.235967
-0.1044815 0.15217599 -0.23589799
-0.1042645 0.152172 -0.235852
-0.104095 0.152202 -0.23583066
-0.104014 0.152198 -0.23582333
-0.087700002 0.15219033 -0.23584168
-0.08763101 0.15218 -0.23591934
-0.10467575 0.15238413 -0.23596926
-0.10447333 0.15236033 -0.23591034
-0.10425533 0.15235533 -0.235889
-0.1040875 0.15238801 -0.23584399
-0.10395325 0.152381 -0.2358235
-0.087692499 0.15237799 -0.235847
-0.087597497 0.15236551 -0.2359485
-0.10467783 0.15256234 -0.2359675
-0.1044665 0.152548 -0.23590951
-0.1042475 0.152542 -0.235901
-0.1040815 0.152537 -0.235851
-0.10393541 0.15255101 -0.23583281
-0.087686494 0.152529 -0.235844
-0.087590165 0.15255266 -0.23594768
-0.1046854 0.15270419 -0.23597522
-0.104458 0.152733 -0.23592602
-0.10424099 0.15272933 -0.23588566
-0.104074 0.15272333 -0.23585467
-0.10394959 0.15273198 -0.23583159
-0.087679334 0.15271567 -0.23584966
-0.087555833 0.15274 -0.23594135
-0.10466488 0.15289812 -0.23597673
-0.104451 0.15291899 -0.2359305
-0.1042335 0.15291551 -0.235898
-0.10406651 0.15290999 -0.235861
-0.1039325 0.15290326 -0.23583326
-0.103788 0.152937 -0.235806
-0.0876735 0.152906 -0.23582
-0.087550335 0.15289034 -0.23593201
-0.10465249 0.15308399 -0.23597699
-0.1044445 0.15306851 -0.23594001
-0.104226 0.153102 -0.23590232
-0.104059 0.15309535 -0.23587067
-0.103925 0.15308933 -0.23584016
-0.10378233 0.15308666 -0.23580833
-0.087668501 0.153056 -0.235807
-0.087543778 0.15307933 -0.23592098
-0.10443767 0.15325634 -0.23593499
-0.10413525 0.15328576 -0.2358835
-0.10391775 0.153276 -0.23583749
-0.1037755 0.15327349 -0.235808
-0.087537326 0.15326817 -0.23590334
-0.1044295 0.1534425 -0.235948
-0.104129 0.1534345 -0.2358945
-0.1039645 0.15342849 -0.23585951
-0.10379414 0.15346929 -0.23582156
-0.087558158 0.15345883 -0.23587953
-0.087474339 0.15345134 -0.23592167
-0.10442267 0.15362833 -0.23594733
-0.1041635 0.15360375 -0.2359155
-0.1039888 0.15363179 -0.23587
-0.10380475 0.1536455 -0.235833
-0.10364676 0.15364026 -0.2358055
-0.087551758 0.15364726 -0.23586901
-0.087433673 0.15364867 -0.23592734
-0.1044145 0.15381449 -0.235962
-0.1041965 0.153808 -0.23594901
-0.10399 0.15380251 -0.23588449
-0.10379875 0.1537945 -0.23583625
-0.103586 0.15383449 -0.23581468
-0.087545998 0.15379749 -0.23586124
-0.087400995 0.153807 -0.2359184
-0.10440701 0.15400134 -0.23596901
-0.104189 0.15399566 -0.235952
-0.10398283 0.15398984 -0.23588167
-0.10379151 0.15398067 -0.23584516
-0.10360114 0.15399528 -0.23581202
-0.087539829 0.15398668 -0.23584133
-0.087415002 0.1539904 -0.23589762
-0.104401 0.15414999 -0.23597901
-0.104182 0.154183 -0.23594299
-0.1039755 0.1541765 -0.235883
-0.1037835 0.154167 -0.23585775
-0.10360061 0.15415241 -0.23582342
-0.103498 0.154191 -0.235817
-0.087507501 0.154173 -0.23584899
-0.087397501 0.15416101 -0.23590849
-0.1041765 0.154333 -0.23594299
-0.10396817 0.15436234 -0.23589051
-0.10377649 0.15435366 -0.23585583
-0.10361817 0.15434782 -0.23583116
-0.103492 0.15433967 -0.23582333
-0.087500334 0.15436101 -0.23584335
-0.087390997 0.15434949 -0.23589568
-0.104169 0.15451901 -0.23594867
-0.10396101 0.15454951 -0.2358875
-0.103769 0.15454 -0.23585649
-0.103611 0.1545345 -0.23583099
-0.1034845 0.154525 -0.235833
-0.0874945 0.15455049 -0.235811
-0.087384753 0.15453824 -0.235873
-0.10416099 0.154705 -0.23596001
-0.103955 0.15469851 -0.23589274
-0.10376325 0.15469 -0.23585425
-0.10360383 0.15472116 -0.23582934
-0.10347766 0.15471233 -0.23582
-0.087489501 0.1547 -0.235806
-0.0873686 0.1547102 -0.235866
-0.10415334 0.15489167 -0.23596966
-0.10394767 0.1548855 -0.23589899
-0.10375566 0.15487616 -0.23586218
-0.10359675 0.154908 -0.2358285
-0.103471 0.1549 -0.235809
-0.087485 0.154814 -0.23580199
-0.087320998 0.1549105 -0.23587051
-0.1041465 0.15507901 -0.23596501
-0.10393975 0.1550715 -0.235907
-0.1037485 0.15506199 -0.23586324
-0.10359076 0.15505749 -0.23583449
-0.087315999 0.155062 -0.23583999
-0.10413933 0.155265 -0.23596035
-0.10393267 0.15525851 -0.23590732
-0.1037415 0.15524916 -0.23586185
-0.10358349 0.15524366 -0.23583116
-0.103457 0.15523399 -0.235824
-0.087309666 0.15525101 -0.23581834
-0.087165996 0.155275 -0.23595601
-0.104133 0.155413 -0.23598
-0.103925 0.155444 -0.23591949
-0.10373425 0.15543601 -0.23586124
-0.10357675 0.155431 -0.23582651
-0.10345 0.155422 -0.23582
-0.087303504 0.155439 -0.235808
-0.0871595 0.155424 -0.235962
-0.087066002 0.15545601 -0.23597801
-0.104124 0.155637 -0.23597801
-0.1039195 0.15559375 -0.23591425
-0.1037366 0.15560742 -0.23586321
-0.10358529 0.15562858 -0.23583058
-0.103443 0.155608 -0.235817
-0.087225497 0.1555815 -0.235891
-0.104119 0.15578766 -0.23597367
-0.10391217 0.15578051 -0.23591435
-0.103764 0.155808 -0.235883
-0.10359934 0.15580516 -0.23584767
-0.1034355 0.15579499 -0.23582199
-0.087232001 0.1557854 -0.23587322
-0.1041115 0.155974 -0.23597801
-0.10390501 0.15596725 -0.23591775
-0.1037575 0.155957 -0.235892
-0.10359333 0.15595417 -0.23585601
-0.10342767 0.15598066 -0.23583633
-0.087140501 0.15594999 -0.23594499
-0.10393801 0.15615468 -0.235934
-0.10380351 0.15614817 -0.23590283
-0.103586 0.15614122 -0.23585524
-0.1034205 0.156168 -0.235836
-0.087134004 0.15613966 -0.23592132
-0.087039001 0.1561695 -0.235971
-0.1039295 0.156341 -0.235948
-0.10379624 0.15633476 -0.23590675
-0.10357851 0.15632732 -0.23586117
-0.10341451 0.156317 -0.23584101
-0.1033085 0.156307 -0.23581201
-0.087128997 0.15632901 -0.235881
-0.087034002 0.156321 -0.235946
-0.086939998 0.15635499 -0.23597801
-0.1039235 0.15649 -0.235954
-0.1037784 0.1565052 -0.2359232
-0.10358038 0.15650538 -0.23586474
-0.10343 0.15652324 -0.23584974
-0.087123498 0.15647951 -0.23587501
-0.087051004 0.15652999 -0.23590375
-0.086934 0.15650533 -0.235972
-0.103917 0.15667735 -0.23594368
-0.10379241 0.1566864 -0.23592761
-0.10359874 0.15670325 -0.235874
-0.10344725 0.15669301 -0.23584899
-0.087067753 0.15670049 -0.23589575
-0.086927995 0.156693 -0.23594901
-0.10391 0.156865 -0.2359385
-0.1037755 0.156858 -0.23591825
-0.10359301 0.15685225 -0.23587476
-0.10344032 0.1568805 -0.23583966
-0.103284 0.15694401 -0.235807
-0.0870625 0.15685099 -0.235884
-0.0868975 0.15689826 -0.23596001
-0.10390267 0.157052 -0.23594268
-0.10376834 0.15704466 -0.23591681
-0.10358584 0.157039 -0.23586899
-0.10343325 0.157067 -0.23583999
-0.10328 0.15705501 -0.23580399
-0.087056339 0.15703918 -0.23586233
-0.086913496 0.157069 -0.23594651
-0.1038945 0.15723801 -0.235954
-0.103761 0.15723126 -0.2359205
-0.10357825 0.1572255 -0.23587374
-0.10342725 0.157217 -0.2358385
-0.10327449 0.157205 -0.23580199
-0.087033994 0.157214 -0.235865
-0.086907998 0.15721899 -0.23594001
-0.1038895 0.157387 -0.235947
-0.10375399 0.15741833 -0.23591448
-0.10357168 0.15741284 -0.23586367
-0.10342 0.15740333 -0.23584168
-0.087033793 0.1573998 -0.23584358
-0.086901002 0.15740633 -0.23593934
-0.10388201 0.157574 -0.23595034
-0.103747 0.15760525 -0.23591375
-0.103565 0.1576 -0.235853
-0.10341325 0.15759 -0.2358325
-0.087035 0.15760201 -0.23584726
-0.086893499 0.157594 -0.235938
-0.103875 0.15776101 -0.23594549
-0.10374125 0.15775399 -0.235907
-0.10355 0.15777139 -0.2358536
-0.10340568 0.157776 -0.23584068
-0.087029248 0.1577525 -0.23585151
-0.086885996 0.15778168 -0.23593967
-0.10386801 0.15794735 -0.23594666
-0.1037456 0.15792641 -0.2359076
-0.10357884 0.15796034 -0.23586899
-0.10339825 0.1579625 -0.2358495
-0.086975001 0.15793699 -0.23587799
-0.086879 0.15797 -0.23593649
-0.103862 0.158098 -0.235954
-0.103806 0.15814467 -0.23594201
-0.10358734 0.15812249 -0.23587616
-0.10338221 0.158133 -0.2358416
-0.086968005 0.15812451 -0.235874
-0.086872995 0.15811899 -0.23594201
-0.10381217 0.158319 -0.23595034
-0.10362151 0.15830983 -0.23589283
-0.1034325 0.15831076 -0.23584414
-0.086984001 0.15833199 -0.23585175
-0.086865999 0.15830833 -0.23593068
-0.10380525 0.15850601 -0.23594451
-0.10361426 0.15849626 -0.23589624
-0.10341533 0.15848817 -0.23584569
-0.087000757 0.1585025 -0.23584375
-0.086858496 0.15849501 -0.23594701
-0.10379925 0.158655 -0.23595101
-0.1036075 0.15868233 -0.2358885
-0.10340789 0.15867411 -0.23584779
-0.086979665 0.15864001 -0.23584999
-0.086850338 0.15868233 -0.23595834
-0.1037915 0.15884134 -0.23596466
-0.1036 0.15886974 -0.23589225
-0.10344251 0.15886399 -0.2358565
-0.1033155 0.1588545 -0.23585901
-0.086988002 0.158841 -0.23582999
-0.08689025 0.15887275 -0.23592825
-0.1037445 0.159027 -0.23594901
-0.103594 0.1590185 -0.23590501
-0.1034365 0.15901275 -0.23586026
-0.10328175 0.15905726 -0.23584075
-0.087026998 0.159031 -0.235826
-0.086931497 0.159025 -0.235906
-0.10373634 0.15921332 -0.23595633
-0.10358632 0.15920484 -0.23590684
-0.10342917 0.15919967 -0.23586315
-0.10324901 0.15922399 -0.23582524
-0.087018333 0.15921833 -0.23585367
-0.086923331 0.15921167 -0.23592202
-0.1037295 0.1594 -0.23595449
-0.103579 0.159392 -0.23592
-0.1034225 0.15938601 -0.235861
-0.103243 0.15937249 -0.235834
-0.087010503 0.159407 -0.235863
-0.086915001 0.15939951 -0.23594999
-0.103723 0.159549 -0.23596799
-0.10357166 0.15957883 -0.23591582
-0.10341433 0.15957266 -0.23587483
-0.10323516 0.15955967 -0.23583901
-0.087004006 0.15955651 -0.23588499
-0.086909004 0.159512 -0.235975
-0.10371599 0.15973532 -0.23596799
-0.103564 0.15976501 -0.23592626
-0.103407 0.159759 -0.23587751
-0.103228 0.1597455 -0.235847
-0.087135002 0.15978999 -0.23581
-0.086995006 0.15974267 -0.23591934
-0.1035575 0.15991449 -0.2359345
-0.103393 0.15993001 -0.2358928
-0.10321966 0.15993233 -0.23586051
-0.087127499 0.1599385 -0.2358395
-0.086986005 0.15993001 -0.23596051
-0.10354966 0.16010049 -0.23595066
-0.1033982 0.16010961 -0.2359122
-0.103212 0.16011851 -0.23587275
-0.10289726 0.160106 -0.23580526
-0.087122999 0.160052 -0.235856
-0.087118998 0.160126 -0.23586001
-0.10358649 0.16028699 -0.23597699
-0.10342184 0.16028316 -0.23594101
-0.1031948 0.16029 -0.2358686
-0.10288933 0.16029267 -0.235816
-0.102709 0.160284 -0.23580599
-0.087241501 0.16036099 -0.23580851
-0.087113 0.160276 -0.23586799
-0.103582 0.160399 -0.23597699
-0.103405 0.16045962 -0.23595189
-0.1032088 0.1604704 -0.2358882
-0.1028815 0.1604785 -0.23582774
-0.10270125 0.16046999 -0.23581424
-0.087314993 0.16047651 -0.235817
-0.087235503 0.16047324 -0.23584349
-0.087104499 0.16046351 -0.23589501
-0.103369 0.1606535 -0.23595074
-0.1032435 0.16064499 -0.235918
-0.103138 0.16063601 -0.235881
-0.10286441 0.16064981 -0.23584299
-0.10269316 0.16065551 -0.23583464
-0.087306343 0.16066401 -0.23584466
-0.087226667 0.16066033 -0.23587249
-0.087095 0.16064967 -0.23594566
-0.103352 0.16078965 -0.23597033
-0.10323433 0.160831 -0.23595667
-0.10312966 0.16082233 -0.23590468
-0.10287599 0.1608296 -0.23586699
-0.10268525 0.160842 -0.235855
-0.1024635 0.16082999 -0.23580301
-0.087350748 0.1608185 -0.23582526
-0.087233201 0.1608554 -0.23590401
-0.087085001 0.16087399 -0.23597801
-0.10312051 0.161009 -0.235938
-0.10285874 0.16100051 -0.23588775
-0.102678 0.160991 -0.23588224
-0.102455 0.16101633 -0.23582733
-0.10221133 0.16100533 -0.23582034
-0.087386332 0.16102099 -0.23583199
-0.087237 0.16099916 -0.23593433
-0.10311333 0.161195 -0.23594566
-0.10285 0.16118634 -0.23591965
-0.10266934 0.16117699 -0.23591232
-0.102446 0.161202 -0.23586699
-0.1021715 0.161189 -0.23582725
-0.087522 0.161273 -0.23581
-0.087391831 0.1611955 -0.23586617
-0.087269753 0.1611695 -0.23594275
-0.10284124 0.16137299 -0.23595224
-0.10266125 0.16136399 -0.23593475
-0.1024395 0.161351 -0.235883
-0.10213456 0.16137269 -0.23583743
-0.10193133 0.16136266 -0.23582101
-0.087547995 0.16139932 -0.23583268
-0.087382004 0.16138324 -0.23591524
-0.087274 0.161339 -0.235974
-0.1027855 0.16151901 -0.235966
-0.10265499 0.16151226 -0.23594651
-0.10242933 0.16153733 -0.23593999
-0.102126 0.16155884 -0.2358675
-0.1019235 0.16154951 -0.23582301
-0.087556496 0.16153699 -0.23587099
-0.087389 0.161521 -0.23594667
-0.102422 0.161685 -0.235974
-0.10213081 0.16170201 -0.23589361
-0.10197201 0.1617524 -0.23587659
-0.1015585 0.161759 -0.235805
-0.087546833 0.16172449 -0.23591383
-0.087409005 0.16168401 -0.235967
-0.102132 0.1618816 -0.2359484
-0.10197825 0.16192451 -0.2359155
-0.1015515 0.161908 -0.235826
-0.101368 0.161934 -0.23581
-0.10123826 0.16196099 -0.23581225
-0.088436 0.16192301 -0.235815
-0.088303663 0.16196932 -0.235826
-0.0881835 0.1619495 -0.23582099
-0.088015005 0.16193751 -0.23583901
-0.087586001 0.16187599 -0.235956
-0.10197075 0.16207375 -0.23595375
-0.101543 0.16209467 -0.23585367
-0.101361 0.162083 -0.235842
-0.10123985 0.16209413 -0.23583914
-0.1010734 0.16210839 -0.23580961
-0.10090125 0.162094 -0.235815
-0.100769 0.16212399 -0.23581199
-0.10033 0.16210158 -0.23583342
-0.1001894 0.16210899 -0.23582759
-0.088476501 0.16207634 -0.23584799
-0.088307999 0.16210726 -0.235875
-0.088174507 0.16209951 -0.235882
-0.088006496 0.16208801 -0.23589799
-0.101893 0.162183 -0.235966
-0.101533 0.16228101 -0.23591101
-0.101353 0.162269 -0.23585999
-0.10122433 0.16225901 -0.23586768
-0.10106799 0.16225067 -0.23584099
-0.10089249 0.16228083 -0.235851
-0.10076167 0.16227233 -0.23585398
-0.1003455 0.16226433 -0.23587716
-0.10017583 0.16229217 -0.235856
-0.100044 0.16230799 -0.23581
-0.088466503 0.1622635 -0.235909
-0.088299498 0.16225675 -0.23593201
-0.088165507 0.162249 -0.23594999
-0.087998003 0.16223851 -0.23595801
-0.101526 0.16242951 -0.235944
-0.101345 0.16241901 -0.235899
-0.10123488 0.16244702 -0.23591934
-0.10106909 0.16244531 -0.23588729
-0.10088349 0.16246726 -0.23588851
-0.1007535 0.16246 -0.2358695
-0.10034525 0.1624385 -0.23593023
-0.1001567 0.1624503 -0.23590021
-0.1000108 0.16247101 -0.23585181
-0.099848665 0.16249734 -0.23581468
-0.088468 0.16243699 -0.23594299
-0.088327996 0.16237301 -0.23597801
-0.10152 0.162543 -0.235971
-0.101252 0.1626282 -0.23595901
-0.10107563 0.16262488 -0.235938
-0.1008755 0.16261625 -0.23593801
-0.1007455 0.1626085 -0.23592401
-0.100339 0.16255 -0.235963
-0.10018629 0.16261771 -0.23595773
-0.10002267 0.16264383 -0.23590733
-0.099825993 0.16263449 -0.23584899
-0.098332003 0.162672 -0.235816
-0.098215505 0.16266499 -0.2358095
-0.08877299 0.16261567 -0.23582767
-0.088497996 0.16260301 -0.235973
-0.10107034 0.16276217 -0.23596482
-0.10085467 0.162753 -0.23596667
-0.100738 0.16272099 -0.23597699
-0.10001466 0.1627945 -0.235956
-0.099815995 0.1628215 -0.23590267
-0.099427 0.1628415 -0.23581851
-0.099218503 0.16283026 -0.23580849
-0.099141002 0.162861 -0.23581401
-0.098897003 0.16285001 -0.235806
-0.098723002 0.16284101 -0.235805
-0.098501332 0.16280265 -0.23582368
-0.09833239 0.16280679 -0.23587041
-0.098207623 0.16283314 -0.23585136
-0.098053001 0.16287249 -0.23581201
-0.088929996 0.162811 -0.235817
-0.088762999 0.16280401 -0.23589
-0.099791668 0.16299534 -0.23595066
-0.099418998 0.162992 -0.235856
-0.099211 0.16298126 -0.23584926
-0.09907715 0.16298614 -0.23583572
-0.098889999 0.16300133 -0.23583667
-0.098715 0.16299033 -0.23585133
-0.098558754 0.162972 -0.2358675
-0.098390333 0.16302334 -0.23589866
-0.09819974 0.16300113 -0.23587826
-0.09804675 0.16298525 -0.23585451
-0.097857997 0.163019 -0.23582201
-0.089172162 0.16297799 -0.235824
-0.089007169 0.16299067 -0.23584919
-0.088819005 0.16300921 -0.23592639
-0.099409334 0.16317832 -0.23591299
-0.099226661 0.16316932 -0.23591067
-0.099106811 0.16316664 -0.23589273
-0.09888 0.1631875 -0.2359
-0.098704502 0.163178 -0.23591399
-0.098580256 0.1631705 -0.23590925
-0.098401502 0.16316175 -0.235921
-0.098182343 0.16316234 -0.23593889
-0.09803617 0.1631725 -0.23592317
-0.097849332 0.16316867 -0.23588634
-0.096515998 0.16325 -0.23581
-0.096334003 0.163241 -0.235806
-0.096254997 0.16323499 -0.23581401
-0.090237655 0.163197 -0.23582834
-0.090110004 0.16318667 -0.23582618
-0.089870997 0.16319899 -0.23582201
-0.089699 0.163192 -0.23581401
-0.089533336 0.16320966 -0.235833
-0.08936733 0.16317634 -0.23585033
-0.08918789 0.16316754 -0.23589322
-0.089043126 0.16316599 -0.23590738
-0.088909999 0.163149 -0.235953
-0.099402003 0.16332699 -0.235955
-0.099216998 0.16335601 -0.23595899
-0.099090874 0.16334638 -0.2359345
-0.098872006 0.1633365 -0.23594001
-0.098697498 0.16332699 -0.23594449
-0.0985796 0.16334239 -0.235954
-0.098412335 0.16329901 -0.23595166
-0.098210335 0.16326568 -0.23597001
-0.098026745 0.16335975 -0.2359685
-0.097839504 0.16335601 -0.235944
-0.097229004 0.163395 -0.23583701
-0.097046003 0.163426 -0.235807
-0.096918501 0.1634185 -0.23581749
-0.096736997 0.163412 -0.23581201
-0.096556753 0.16336301 -0.23583126
-0.096373498 0.16335525 -0.23583052
-0.096249506 0.16334599 -0.23583499
-0.096089005 0.16333801 -0.23582999
-0.095913328 0.16336399 -0.23585166
-0.090239994 0.1633355 -0.23588051
-0.090082407 0.16334601 -0.23588797
-0.089894995 0.16337001 -0.2359055
-0.089689665 0.16334166 -0.23589666
-0.089548603 0.16335019 -0.23590119
-0.089355998 0.1633645 -0.23593399
-0.089178659 0.16331933 -0.23595966
-0.089055501 0.16330999 -0.23596549
-0.099026002 0.16347902 -0.23595834
-0.098866001 0.16345 -0.235975
-0.098692 0.16344 -0.235973
-0.097833999 0.163468 -0.23597699
-0.097221002 0.16354451 -0.23587701
-0.097064495 0.16354051 -0.23585901
-0.096946001 0.16353215 -0.23585333
-0.0967305 0.163524 -0.2358595
-0.096549004 0.163513 -0.23586901
-0.096355997 0.163527 -0.2358716
-0.096241675 0.16353266 -0.23585565
-0.096079327 0.16352566 -0.23588701
-0.095902503 0.1635505 -0.235935
-0.095703997 0.16355668 -0.23584999
-0.095550999 0.163571 -0.23581199
-0.090586491 0.16357525 -0.2358285
-0.090440005 0.16356599 -0.23583099
-0.090269327 0.16352399 -0.23590878
-0.090107143 0.16353442 -0.23593999
-0.089922503 0.163504 -0.2359575
-0.089680001 0.16349301 -0.235972
-0.089531004 0.1634855 -0.235966
-0.089394003 0.16348 -0.235975
-0.097212493 0.16369501 -0.235935
-0.097056001 0.16369051 -0.23592001
-0.096935555 0.16372001 -0.23592669
-0.096719831 0.16371116 -0.23593117
-0.096538492 0.16370033 -0.23593831
-0.096356004 0.16369249 -0.23592751
-0.096229494 0.16372049 -0.235948
-0.096068993 0.1637125 -0.235955
-0.095679 0.16369399 -0.23590875
-0.095498331 0.16372032 -0.23587883
-0.095365494 0.1637495 -0.23584801
-0.095151998 0.16374932 -0.23582566
-0.094926998 0.163761 -0.235809
-0.0948065 0.16375899 -0.23581201
-0.094586998 0.163748 -0.235806
-0.094061501 0.16379499 -0.23581451
-0.093881004 0.16374816 -0.23582266
-0.092198007 0.16374899 -0.23582666
-0.091905206 0.163728 -0.2358404
-0.091715999 0.163745 -0.235816
-0.09115734 0.16379334 -0.23582067
-0.091066003 0.163789 -0.235819
-0.090879001 0.16377699 -0.235844
-0.090636805 0.16372021 -0.23586778
-0.090466 0.16373233 -0.23591167
-0.090308666 0.163701 -0.23595233
-0.097048998 0.16380399 -0.235973
-0.096995004 0.163874 -0.23597901
-0.095654003 0.16383034 -0.23595865
-0.095473327 0.16389365 -0.23595333
-0.095355496 0.16389951 -0.23593301
-0.095144331 0.16387567 -0.23588534
-0.094959669 0.16388966 -0.23587
-0.09479975 0.163873 -0.23586649
-0.094621666 0.16390084 -0.23587316
-0.094433665 0.16389151 -0.23587
-0.094054751 0.16390699 -0.23586999
-0.093871497 0.16389884 -0.235902
-0.093290329 0.16392966 -0.235815
-0.093176 0.1639715 -0.23581901
-0.092869997 0.163954 -0.23582
-0.092628002 0.16394649 -0.2358115
-0.092472672 0.16391166 -0.23583199
-0.092239827 0.16389082 -0.23587584
-0.0918964 0.16386381 -0.23591539
-0.091708288 0.16389827 -0.23590243
-0.091491245 0.16390625 -0.23586425
-0.09127301 0.16387667 -0.23585401
-0.091149509 0.16390567 -0.23588735
-0.0910585 0.16390151 -0.23587751
-0.0908705 0.163891 -0.2359245
-0.090665668 0.16386665 -0.23593934
-0.090477496 0.1638345 -0.23596549
-0.095187999 0.164004 -0.235966
-0.094971754 0.16402826 -0.2359415
-0.094775654 0.16400899 -0.23594667
-0.094611496 0.16405049 -0.23595151
-0.094423503 0.1640415 -0.2359615
-0.094027996 0.16404299 -0.23594235
-0.093860999 0.16401249 -0.235964
-0.093302406 0.16407299 -0.23589
-0.09316799 0.16408449 -0.23589775
-0.0930425 0.16407749 -0.235897
-0.092862993 0.164068 -0.2358875
-0.092620254 0.16405976 -0.23588699
-0.092449248 0.16404951 -0.23591399
-0.092281006 0.16403167 -0.23593999
-0.092159003 0.16399901 -0.23596901
-0.091613002 0.16404501 -0.235974
-0.091349497 0.164031 -0.235963
-0.091141663 0.16401835 -0.23596101
-0.091050997 0.164014 -0.235956
-0.093188003 0.16419899 -0.23597901
-0.093036003 0.16418999 -0.23595899
-0.092855997 0.16418 -0.23595101
-0.092611998 0.16417301 -0.235973
-0.092485003 0.16416401 -0.235962
-0.093790002 0.144869 -0.23579299
-0.093154997 0.144834 -0.23579501
-0.094036996 0.1450005 -0.23578075
-0.093870997 0.14498983 -0.23575933
-0.0936075 0.1449735 -0.235753
-0.093364999 0.14496699 -0.23574349
-0.093193829 0.14499183 -0.23574536
-0.092986718 0.14500313 -0.23575057
-0.092657998 0.14499751 -0.2357565
-0.092180997 0.14500199 -0.235797
-0.092004001 0.145073 -0.23576599
-0.091883667 0.145063 -0.23577566
-0.0917935 0.1450195 -0.235771
-0.095766999 0.145211 -0.23577499
-0.095481001 0.14519501 -0.235782
-0.095348507 0.145188 -0.23578849
-0.095159993 0.14521626 -0.235778
-0.094763339 0.14520268 -0.23578633
-0.094616249 0.145202 -0.2357855
-0.094033748 0.1451585 -0.23571651
-0.093868166 0.14514734 -0.23569266
-0.093603998 0.14517166 -0.23566334
-0.093361668 0.14516433 -0.235654
-0.093190253 0.14518926 -0.23566049
-0.092972837 0.14517684 -0.23567599
-0.092600994 0.14516543 -0.23570773
-0.092396326 0.14517216 -0.23572735
-0.092178665 0.14516133 -0.235717
-0.092002496 0.1451935 -0.23569
-0.091882668 0.14518367 -0.23569266
-0.091792002 0.1451795 -0.235677
-0.091602504 0.1451595 -0.23576149
-0.091381997 0.14518251 -0.23577026
-0.091204502 0.14524701 -0.2357855
-0.096081004 0.1453445 -0.23576149
-0.09584225 0.14533275 -0.2357385
-0.095642664 0.14535867 -0.23572533
-0.095522501 0.14535651 -0.23571849
-0.095345668 0.14534566 -0.23572548
-0.095156506 0.145372 -0.2357275
-0.0947785 0.145345 -0.23575124
-0.094595663 0.14533499 -0.23575866
-0.094030499 0.14531375 -0.235658
-0.093907498 0.14526549 -0.23566049
-0.093144998 0.145303 -0.235624
-0.092969798 0.1453236 -0.23563719
-0.092609286 0.14534371 -0.23565413
-0.092406996 0.14535566 -0.23564434
-0.092174999 0.14535749 -0.235636
-0.092000999 0.145312 -0.235626
-0.091879748 0.145322 -0.23563001
-0.091789998 0.145299 -0.23562101
-0.091599323 0.14535634 -0.235671
-0.091387004 0.14535621 -0.23570099
-0.091201752 0.14536425 -0.235743
-0.091054 0.14535099 -0.235773
-0.097425997 0.1456085 -0.23579201
-0.097291 0.14559899 -0.235787
-0.096370004 0.14552434 -0.23578066
-0.096185006 0.14554051 -0.235746
-0.096075334 0.14553633 -0.23571765
-0.0958542 0.14551321 -0.23567021
-0.095678329 0.14556801 -0.23565932
-0.095517501 0.14554951 -0.23566526
-0.095340997 0.14554025 -0.23566225
-0.095152497 0.14552748 -0.23568049
-0.094772667 0.1455365 -0.23571317
-0.094591223 0.14552878 -0.23570132
-0.092610002 0.14549901 -0.23562001
-0.091360331 0.14552067 -0.23564333
-0.091198251 0.14551899 -0.23569649
-0.090971574 0.14551757 -0.23575558
-0.090807498 0.14555188 -0.23577875
-0.097820602 0.1457216 -0.2357686
-0.097663336 0.1457095 -0.23577316
-0.097498335 0.14574167 -0.23574801
-0.097333498 0.14571899 -0.2357595
-0.097149998 0.14570776 -0.23576775
-0.096986331 0.14570934 -0.23578535
-0.096598998 0.14574701 -0.23576799
-0.096382171 0.145705 -0.23573636
-0.096211597 0.1457126 -0.2356962
-0.096071005 0.14572951 -0.235663
-0.095911004 0.145687 -0.235636
-0.095634997 0.145669 -0.23562901
-0.095514998 0.14566651 -0.2356265
-0.095338002 0.1456555 -0.235633
-0.095147006 0.14571799 -0.23564233
-0.094766252 0.1457265 -0.23568898
-0.094600998 0.1457154 -0.2356414
-0.091182403 0.14569479 -0.23565659
-0.091010399 0.1457108 -0.23570201
-0.09082225 0.14571649 -0.23574939
-0.090687498 0.145703 -0.2357955
-0.090268999 0.145795 -0.235772
-0.090059005 0.14575966 -0.23577201
-0.097832002 0.14589949 -0.23572001
-0.097673751 0.14589025 -0.23571999
-0.097510003 0.145882 -0.23571651
-0.097329497 0.14587149 -0.23572201
-0.097144663 0.1458995 -0.23572667
-0.096967839 0.14588483 -0.2357585
-0.096593998 0.145898 -0.235743
-0.096377254 0.14589825 -0.235679
-0.096213996 0.14587867 -0.23563801
-0.096068002 0.14584599 -0.235627
-0.095090501 0.145904 -0.23562801
-0.094761744 0.14587925 -0.23566225
-0.094648004 0.14583699 -0.23563901
-0.091133997 0.145858 -0.23562901
-0.090997003 0.14588699 -0.2356655
-0.090808369 0.14589526 -0.2357567
-0.090613 0.14589083 -0.23575433
-0.090371668 0.14587833 -0.23575234
-0.090265498 0.14590949 -0.235752
-0.090130493 0.14590475 -0.23574926
-0.089937598 0.1459008 -0.23573601
-0.099739 0.14611401 -0.235781
-0.099691004 0.146075 -0.23577201
-0.099370003 0.14609601 -0.235797
-0.099285997 0.146089 -0.2358
-0.097827747 0.14605349 -0.23568
-0.097669497 0.14604525 -0.23567601
-0.097504504 0.1460745 -0.23567034
-0.097323664 0.14606333 -0.23568399
-0.097138748 0.14608975 -0.235695
-0.096960753 0.146073 -0.235751
-0.096759498 0.146055 -0.23579499
-0.096588999 0.14605001 -0.23572201
-0.096390665 0.14603932 -0.23564632
-0.095086999 0.146017 -0.235622
-0.094809674 0.14606966 -0.23565368
-0.090989672 0.14607333 -0.23567601
-0.090817556 0.1460821 -0.23572567
-0.090677001 0.14608699 -0.235709
-0.090452753 0.14607599 -0.23569849
-0.090262502 0.14606601 -0.235688
-0.090126745 0.14605951 -0.23569624
-0.089908995 0.146072 -0.23572224
-0.089761876 0.1460765 -0.23576599
-0.100068 0.14628699 -0.23578601
-0.099811621 0.14623649 -0.23576126
-0.099638335 0.14621267 -0.23575433
-0.099435195 0.146268 -0.235761
-0.099260494 0.1462575 -0.23578376
-0.098507002 0.146268 -0.23579399
-0.097824998 0.14616999 -0.23564249
-0.097667001 0.146163 -0.235632
-0.097500995 0.146229 -0.23563001
-0.0973185 0.14625499 -0.2356395
-0.097133994 0.14624201 -0.23567276
-0.096946806 0.14624479 -0.2357434
-0.096753664 0.14624667 -0.23575866
-0.096584 0.14624299 -0.23567533
-0.096421003 0.146167 -0.23562101
-0.094802998 0.146258 -0.235645
-0.090968996 0.14624834 -0.23567499
-0.090815425 0.14624014 -0.23571645
-0.090688668 0.14625268 -0.23568201
-0.090449005 0.14623076 -0.23564699
-0.090259001 0.146221 -0.23564351
-0.0901132 0.1462376 -0.23564379
-0.089923434 0.14625886 -0.2356724
-0.08972425 0.14625624 -0.23572287
-0.10006467 0.14644165 -0.23574333
-0.099814646 0.14642547 -0.23568608
-0.099682994 0.14642434 -0.235659
-0.099477671 0.14643401 -0.23572133
-0.0992596 0.146437 -0.23575298
-0.099105999 0.146451 -0.2358
-0.098658003 0.146496 -0.235791
-0.098503672 0.14642365 -0.23574734
-0.097268999 0.146365 -0.23562799
-0.097119398 0.14641681 -0.2356414
-0.096966006 0.14639667 -0.23565233
-0.096749 0.14644051 -0.23569199
-0.096579999 0.14639699 -0.23563001
-0.090934999 0.1464085 -0.235688
-0.090819374 0.14642788 -0.23569262
-0.090691507 0.14643066 -0.23564868
-0.090530999 0.146349 -0.235634
-0.089861661 0.14641367 -0.23564367
-0.089747161 0.146414 -0.23567633
-0.089602329 0.14643501 -0.23572333
-0.089397997 0.14648999 -0.235799
-0.10190967 0.14664333 -0.235783
-0.10175979 0.1466368 -0.23577759
-0.1016365 0.14662516 -0.23577882
-0.101412 0.14666301 -0.2357925
-0.100399 0.14668 -0.23577701
-0.1000595 0.1466345 -0.235686
-0.09982717 0.14662418 -0.23565465
-0.099676996 0.146613 -0.23563001
-0.099531502 0.14660549 -0.235669
-0.099260285 0.14660057 -0.23571129
-0.099101998 0.14660634 -0.23576133
-0.098993003 0.146676 -0.23578499
-0.098673336 0.14662467 -0.23577267
-0.098498002 0.14661551 -0.2357
-0.096745998 0.14659551 -0.23563999
-0.090931997 0.146525 -0.23564
-0.090853669 0.146571 -0.235651
-0.089834496 0.146578 -0.235624
-0.089755751 0.14655025 -0.23563726
-0.089597493 0.14662725 -0.2356745
-0.089395501 0.14660749 -0.235762
-0.1021365 0.14682099 -0.235788
-0.1019385 0.1467745 -0.23574451
-0.10179099 0.1468067 -0.23573402
-0.10160882 0.14679167 -0.235736
-0.1014095 0.14678025 -0.235753
-0.100488 0.1467935 -0.23578599
-0.1003965 0.14679751 -0.235732
-0.100056 0.14678949 -0.235633
-0.099872999 0.14677951 -0.23564
-0.099527001 0.14675801 -0.23564
-0.099277377 0.14678673 -0.23566274
-0.099096999 0.146799 -0.2357025
-0.098931 0.146796 -0.23574121
-0.098731004 0.14677213 -0.23574474
-0.098494001 0.14676949 -0.235653
-0.089558005 0.14678 -0.235644
-0.089390002 0.14679967 -0.23572135
-0.102132 0.14697251 -0.23576801
-0.101952 0.1469675 -0.23570201
-0.10179825 0.14695562 -0.23569375
-0.10159457 0.14696027 -0.23569156
-0.10140383 0.14697032 -0.23571648
-0.100989 0.14701401 -0.235787
-0.100636 0.146988 -0.235796
-0.10051534 0.146962 -0.23574567
-0.10039251 0.146951 -0.235695
-0.099233665 0.146952 -0.23563801
-0.099121667 0.14696901 -0.23564732
-0.098906711 0.14695899 -0.23568499
-0.098725654 0.14696366 -0.23569894
-0.089386001 0.14699399 -0.23565599
-0.102128 0.1471265 -0.23572901
-0.101946 0.14715767 -0.23567168
-0.10179192 0.14714451 -0.23567641
-0.1016075 0.14714563 -0.23565838
-0.10139875 0.147163 -0.23566374
-0.100987 0.14713049 -0.235745
-0.1008718 0.14714339 -0.2357666
-0.1007007 0.1471633 -0.23575211
-0.10052649 0.14714366 -0.23569418
-0.1003885 0.1471035 -0.235663
-0.098912664 0.14708634 -0.235633
-0.098738827 0.14714649 -0.23564082
-0.089382 0.147108 -0.23563001
-0.089105003 0.14715666 -0.23576166
-0.089005999 0.147227 -0.23577
-0.10339 0.147375 -0.23579401
-0.103209 0.147365 -0.235791
-0.10267667 0.14740966 -0.23578633
-0.10247699 0.14732699 -0.235753
-0.10212266 0.14731866 -0.23567367
-0.10194 0.14734599 -0.23564599
-0.10179534 0.14732182 -0.23564367
-0.1015765 0.14730449 -0.23563676
-0.10139425 0.1473145 -0.235635
-0.100983 0.14732666 -0.23565733
-0.100879 0.1473318 -0.23568138
-0.10070738 0.14734301 -0.23568787
-0.10053733 0.14732401 -0.23564899
-0.089101002 0.14735049 -0.235704
-0.089003995 0.14734301 -0.235734
-0.088916004 0.14737099 -0.235797
-0.10365 0.147498 -0.23579
-0.10338575 0.14748925 -0.2357775
-0.10320417 0.14751767 -0.23576565
-0.102981 0.14750467 -0.23575599
-0.10267434 0.14752617 -0.23573917
-0.102472 0.14752001 -0.23569199
-0.102117 0.1475095 -0.235635
-0.10152 0.147434 -0.23562001
-0.100843 0.147508 -0.235634
-0.100745 0.14748199 -0.23564199
-0.089048751 0.14750224 -0.23565975
-0.088877499 0.14752325 -0.23575599
-0.088739999 0.147585 -0.235797
-0.10378 0.147747 -0.23578699
-0.103645 0.14768867 -0.23574765
-0.1033805 0.14768 -0.23573816
-0.10319901 0.14770851 -0.23572475
-0.102975 0.1476965 -0.235709
-0.10267066 0.14768016 -0.235695
-0.1024675 0.147671 -0.235668
-0.088996001 0.147652 -0.235641
-0.088880606 0.14769439 -0.235697
-0.088680334 0.14770967 -0.23576868
-0.10394467 0.14785866 -0.23578532
-0.10379149 0.14788724 -0.23576351
-0.103639 0.14787799 -0.235717
-0.103376 0.147873 -0.235678
-0.1031945 0.147861 -0.23569226
-0.102971 0.14784849 -0.23567501
-0.10267514 0.14785099 -0.23564972
-0.10246199 0.14786135 -0.23563933
-0.088858001 0.14785801 -0.23565267
-0.088630795 0.1478692 -0.23573861
-0.10410333 0.14806333 -0.23579033
-0.10393825 0.14804749 -0.235763
-0.1037865 0.148039 -0.23574324
-0.103634 0.14802951 -0.23570001
-0.10337959 0.1480474 -0.23566139
-0.10320713 0.14806271 -0.235661
-0.10296568 0.14804067 -0.235635
-0.102722 0.148029 -0.235624
-0.088831 0.147985 -0.23562001
-0.088730499 0.14801249 -0.23564699
-0.088558003 0.14807251 -0.23568501
-0.104251 0.148248 -0.235779
-0.10410599 0.1482262 -0.23576021
-0.10393266 0.148238 -0.23572733
-0.10378116 0.14822984 -0.23570351
-0.103628 0.14822 -0.23566432
-0.1034115 0.148251 -0.23565951
-0.103249 0.14822425 -0.23563674
-0.1030495 0.1482335 -0.235624
-0.088553995 0.1482245 -0.235654
-0.104409 0.14848 -0.2358
-0.10424566 0.14839967 -0.23576166
-0.10412119 0.14840959 -0.2357426
-0.10392649 0.14842676 -0.23570275
-0.10377375 0.1484165 -0.23570375
-0.1036205 0.148406 -0.23567301
-0.103407 0.148404 -0.23563001
-0.088547327 0.14841335 -0.23563968
-0.1044055 0.14859299 -0.23578501
-0.1042395 0.148588 -0.235745
-0.10410425 0.14858051 -0.23573349
-0.103921 0.1485765 -0.23569401
-0.1037578 0.1485872 -0.2357004
-0.103614 0.14859366 -0.23565765
-0.1034015 0.148554 -0.23562101
-0.088541999 0.14856599 -0.23562101
-0.1046185 0.148748 -0.2357955
-0.104401 0.14870401 -0.235792
-0.104298 0.14879179 -0.23576021
-0.10409766 0.14876866 -0.23571934
-0.10391416 0.14876349 -0.235689
-0.1037706 0.1487686 -0.23569281
-0.103608 0.148783 -0.23563099
-0.104614 0.14885999 -0.235799
-0.1043085 0.14896449 -0.23575249
-0.1041445 0.148959 -0.235716
-0.1039505 0.1489505 -0.23569435
-0.10375475 0.14893974 -0.23568377
-0.103602 0.148932 -0.235635
-0.104604 0.149122 -0.235791
-0.10433134 0.149103 -0.23574901
-0.10416534 0.14912334 -0.23571499
-0.10396829 0.1491283 -0.23568258
-0.10377575 0.14914 -0.23566587
-0.1035965 0.1490815 -0.235632
-0.088084996 0.1491625 -0.23579401
-0.10459733 0.14930899 -0.23578
-0.10438 0.14930566 -0.23574667
-0.10417234 0.1492985 -0.23570867
-0.1039785 0.149326 -0.23569199
-0.10377833 0.14931817 -0.23565917
-0.088079497 0.149312 -0.23579
-0.10459051 0.149496 -0.235778
-0.1043735 0.14949299 -0.23572701
-0.104165 0.14948499 -0.2357105
-0.103973 0.14947599 -0.2356835
-0.10376 0.14948241 -0.2356603
-0.103578 0.14956699 -0.235622
-0.088073336 0.14950199 -0.23577
-0.1045845 0.14964449 -0.23578399
-0.10458 0.149757 -0.23577499
-0.104365 0.14967833 -0.23575599
-0.10415799 0.14967117 -0.23570752
-0.1039655 0.14966184 -0.23568632
-0.10378943 0.14965527 -0.23566529
-0.10360834 0.149693 -0.23563467
-0.088066503 0.149691 -0.23575699
-0.1045765 0.14986899 -0.23577601
-0.1043575 0.149864 -0.23575899
-0.1041505 0.14985751 -0.235715
-0.10395826 0.149848 -0.23569049
-0.1038 0.14984301 -0.235673
-0.1036092 0.14985339 -0.2356354
-0.1033525 0.149821 -0.23562101
-0.088060498 0.14984 -0.23576
-0.1045705 0.150019 -0.2357745
-0.10435151 0.150012 -0.23576701
-0.10414249 0.15004283 -0.23572934
-0.1039505 0.15003383 -0.23570268
-0.10379267 0.150029 -0.23567669
-0.1036232 0.1500314 -0.23565778
-0.088054001 0.15002967 -0.23574434
-0.104563 0.15020435 -0.23578601
-0.104344 0.150199 -0.23577499
-0.10413526 0.15022801 -0.23573899
-0.1039435 0.1502205 -0.235706
-0.10378525 0.150215 -0.23568051
-0.10362434 0.15019234 -0.23565333
-0.103336 0.150231 -0.23563001
-0.088046998 0.150218 -0.235737
-0.1045555 0.15039 -0.23578849
-0.1043365 0.15038601 -0.23577601
-0.1041295 0.15037751 -0.23574001
-0.10393775 0.1503695 -0.23570226
-0.10377816 0.15040199 -0.23567617
-0.10365167 0.15039299 -0.23567335
-0.1033315 0.15034151 -0.23563901
-0.088041998 0.15037 -0.235717
-0.104329 0.150571 -0.23578633
-0.10412133 0.15056351 -0.23575182
-0.10393017 0.15055634 -0.23570816
-0.1037705 0.15058775 -0.23569
-0.103591 0.15057451 -0.23566675
-0.103322 0.15060499 -0.23562101
-0.103224 0.150599 -0.235627
-0.088034667 0.150556 -0.23571832
-0.087937504 0.15058601 -0.23576701
-0.10432149 0.150758 -0.235791
-0.10411374 0.150749 -0.23576149
-0.1039225 0.15074125 -0.235723
-0.1037645 0.150736 -0.235695
-0.1035736 0.15074661 -0.235661
-0.10326633 0.15074867 -0.23564367
-0.088027 0.15074301 -0.23572901
-0.087932006 0.15073651 -0.23575699
-0.104317 0.150869 -0.235797
-0.10410649 0.15093583 -0.23576534
-0.10391466 0.15092717 -0.23573335
-0.10375667 0.15092167 -0.23570716
-0.1035874 0.15092599 -0.2356822
-0.10325925 0.1509365 -0.23563901
-0.103078 0.15096501 -0.235626
-0.088022001 0.150895 -0.2357125
-0.087946996 0.15094349 -0.23576699
-0.104099 0.151123 -0.2357665
-0.103922 0.15110068 -0.23574601
-0.10377119 0.15111621 -0.23572561
-0.10356975 0.15109599 -0.2356855
-0.103252 0.15112168 -0.23564684
-0.1030802 0.1511132 -0.23563418
-0.087965503 0.15111575 -0.2357325
-0.104093 0.151271 -0.23577751
-0.103944 0.15129834 -0.23576333
-0.10377889 0.15129524 -0.23573631
-0.103562 0.15128234 -0.23569882
-0.10324425 0.15130775 -0.235659
-0.103064 0.151299 -0.23564349
-0.087950006 0.15128841 -0.2357264
-0.1040774 0.15145639 -0.23578861
-0.1039365 0.151484 -0.235769
-0.1037715 0.15148133 -0.23573934
-0.10357267 0.15145667 -0.23571233
-0.1035 0.151502 -0.23568401
-0.10323825 0.15145651 -0.235662
-0.1030488 0.1514698 -0.23564319
-0.10283367 0.151474 -0.23562168
-0.087962605 0.15147099 -0.23570558
-0.10412 0.15160701 -0.235799
-0.10396633 0.15162332 -0.23578133
-0.10375486 0.15164571 -0.23574628
-0.10359933 0.15165667 -0.23573966
-0.103494 0.15165067 -0.23569334
-0.10323051 0.15164267 -0.23567151
-0.1030586 0.1516494 -0.23565099
-0.1028255 0.151659 -0.23563701
-0.08794675 0.15164325 -0.23570199
-0.103949 0.15184051 -0.23578125
-0.10376649 0.15182662 -0.23575112
-0.1035925 0.15184499 -0.235727
-0.1034865 0.15183499 -0.23570499
-0.10322276 0.15182799 -0.23568201
-0.1030425 0.15181926 -0.235663
-0.102818 0.15184399 -0.23565066
-0.10254399 0.15184951 -0.235632
-0.10230967 0.15181799 -0.23562266
-0.087938838 0.15183015 -0.23570932
-0.087797001 0.15185851 -0.23579201
-0.1039155 0.152006 -0.235789
-0.10376479 0.151996 -0.2357554
-0.10361767 0.15200734 -0.23574167
-0.103479 0.152022 -0.235716
-0.10321466 0.1520135 -0.23570184
-0.10303482 0.15200484 -0.23568033
-0.1028105 0.1520305 -0.235659
-0.1025064 0.15202281 -0.23563221
-0.1023015 0.152004 -0.235632
-0.087932497 0.15201926 -0.235695
-0.087791502 0.152009 -0.23578399
-0.103908 0.152191 -0.23579599
-0.10377765 0.15218998 -0.23577784
-0.10362583 0.15218116 -0.23575999
-0.1034715 0.152207 -0.23572201
-0.10320725 0.152198 -0.23571201
-0.103027 0.15219051 -0.2356955
-0.1028045 0.15217951 -0.23566401
-0.10249087 0.15219074 -0.23564526
-0.10229401 0.15218967 -0.23564701
-0.087916404 0.1521906 -0.2356948
-0.087784 0.15219735 -0.23578733
-0.10377 0.1523765 -0.23578951
-0.10361776 0.15236601 -0.23578
-0.103465 0.152355 -0.235734
-0.1031904 0.15237001 -0.2357192
-0.10301966 0.15237616 -0.23569883
-0.102796 0.152365 -0.23568065
-0.10250015 0.15237129 -0.23565198
-0.1022865 0.152376 -0.23564899
-0.087928995 0.15237239 -0.2356832
-0.087777004 0.152385 -0.2357855
-0.103755 0.152547 -0.23579261
-0.10361017 0.15255266 -0.23578566
-0.10345767 0.15254232 -0.23574035
-0.1032026 0.15254921 -0.23572941
-0.103012 0.15256199 -0.23571101
-0.1027885 0.15255 -0.23568501
-0.10248467 0.15253501 -0.23565899
-0.102279 0.15256166 -0.23566167
-0.0879125 0.1525435 -0.23568951
-0.087771997 0.152536 -0.23577499
-0.10376459 0.1527274 -0.23578361
-0.103603 0.15273875 -0.23578525
-0.1034495 0.15272801 -0.235754
-0.10323501 0.152724 -0.235734
-0.10304933 0.15271251 -0.23572399
-0.1027825 0.15270001 -0.23569301
-0.102778 0.15281101 -0.235699
-0.10249384 0.152712 -0.23566957
-0.102345 0.15275151 -0.23565949
-0.101914 0.15277401 -0.235622
-0.087905496 0.15273251 -0.23568666
-0.087765336 0.15272433 -0.23575766
-0.10373633 0.152885 -0.23578934
-0.10358721 0.1529104 -0.235782
-0.10344201 0.15291433 -0.23576234
-0.10322732 0.15290967 -0.23574267
-0.10308567 0.1529015 -0.23572983
-0.10295501 0.15289468 -0.23572266
-0.102774 0.152923 -0.235697
-0.10249849 0.15290949 -0.2356745
-0.1023395 0.15290126 -0.23565376
-0.10190866 0.152922 -0.235624
-0.087898254 0.1529195 -0.235677
-0.087757498 0.15291101 -0.235763
-0.10370133 0.15308265 -0.23579133
-0.10359859 0.15309039 -0.2357904
-0.10343499 0.15310049 -0.23575899
-0.1032205 0.15309601 -0.23573799
-0.10307825 0.15308775 -0.23573101
-0.1029475 0.153081 -0.23573101
-0.1027685 0.153072 -0.2356995
-0.10249084 0.15309633 -0.23568217
-0.1023315 0.1530865 -0.23567151
-0.1019005 0.153108 -0.23563251
-0.087893501 0.15307149 -0.23566049
-0.087729 0.15311649 -0.23577274
-0.103694 0.15326899 -0.235797
-0.10358249 0.1532615 -0.235788
-0.10343 0.15325099 -0.235743
-0.103214 0.15328334 -0.23571867
-0.10307133 0.15327434 -0.23572582
-0.102941 0.15326799 -0.23572366
-0.10275999 0.153257 -0.235714
-0.10248375 0.153283 -0.23567975
-0.1023235 0.153272 -0.23568702
-0.101895 0.153257 -0.235635
-0.087911002 0.15324226 -0.23564425
-0.087764993 0.15328179 -0.23572919
-0.087659001 0.153319 -0.235796
-0.1036885 0.153418 -0.2357945
-0.10357533 0.15344749 -0.2357925
-0.10342234 0.15343733 -0.23574834
-0.1032065 0.153469 -0.23572901
-0.10306326 0.1534605 -0.23574001
-0.102933 0.153455 -0.235736
-0.1027525 0.15344399 -0.2357205
-0.10247751 0.15343201 -0.23568749
-0.10231584 0.153458 -0.23569334
-0.10188734 0.15344267 -0.235645
-0.087785497 0.153442 -0.23569751
-0.087654002 0.153433 -0.23579699
-0.1035205 0.153631 -0.235791
-0.10341451 0.15362349 -0.235765
-0.1032005 0.15361901 -0.235735
-0.10304759 0.15363219 -0.23574522
-0.102925 0.15364 -0.23575433
-0.102745 0.15363033 -0.23572566
-0.10247017 0.15361734 -0.23569417
-0.102382 0.15364701 -0.2357
-0.102236 0.153642 -0.235686
-0.101882 0.15359201 -0.23563799
-0.101879 0.153668 -0.23563799
-0.101515 0.153716 -0.235622
-0.087917 0.153712 -0.23562001
-0.087778501 0.153629 -0.23568933
-0.087647669 0.153621 -0.23577867
-0.1035955 0.1537475 -0.235798
-0.103407 0.153809 -0.23578067
-0.103192 0.15380366 -0.23576401
-0.103058 0.1538116 -0.23575301
-0.10291851 0.153828 -0.23573801
-0.1027375 0.153816 -0.23573101
-0.1024625 0.15380299 -0.235707
-0.10237651 0.153797 -0.23569
-0.10223 0.15379199 -0.2356905
-0.101873 0.153816 -0.23564732
-0.10159425 0.15379725 -0.23562425
-0.101512 0.15379 -0.235624
-0.08777225 0.15381825 -0.23566625
-0.087641001 0.153809 -0.235764
-0.1033995 0.15399601 -0.235783
-0.1031845 0.153991 -0.235762
-0.103043 0.15398374 -0.2357385
-0.1029125 0.15397701 -0.235733
-0.10273 0.15400299 -0.235736
-0.1024616 0.1539754 -0.2357184
-0.10238125 0.15400274 -0.23570751
-0.10222233 0.15397768 -0.23570168
-0.101865 0.154001 -0.235662
-0.101582 0.153983 -0.23562424
-0.087756597 0.1539894 -0.23567359
-0.08763466 0.153998 -0.23574699
