# .PCD v0.7 - Point Cloud Data file format
VERSION 0.7
FIELDS x y z
SIZE 4 4 4
TYPE F F F
COUNT 1 1 1
WIDTH 1502
HEIGHT 1
VIEWPOINT 0 0 0 1 0 0 0
POINTS 1502
DATA ascii
-0.106976 0.0031330001 -0.262413
-0.106974 0.003213 -0.262389
-0.106972 0.0032899999 -0.26236901
-0.10697 0.00337 -0.26234499
-0.106968 0.003449 -0.262317
-0.106966 0.0035270001 -0.262299
-0.106963 0.003605 -0.26228899
-0.10696 0.0036800001 -0.26228401
-0.106958 0.003758 -0.26226601
-0.106956 0.0038360001 -0.262252
-0.106953 0.003912 -0.262252
-0.10695 0.0039869999 -0.26224601
-0.106947 0.004065 -0.26223299
-0.106945 0.0041430001 -0.26221099
-0.106943 0.004222 -0.26219299
-0.10694 0.0042980001 -0.26218301
-0.106938 0.004375 -0.26216701
-0.106936 0.0044530001 -0.26215601
-0.106933 0.0045289998 -0.262146
-0.106931 0.0046089999 -0.26212999
-0.106928 0.0046839998 -0.262124
-0.106925 0.0047599999 -0.26212201
-0.106922 0.0048380001 -0.26211199
-0.10692 0.0049140002 -0.26210099
-0.106917 0.0049919998 -0.262097
-0.106914 0.0050679999 -0.262097
-0.106911 0.0051429998 -0.26209101
-0.106908 0.0052189999 -0.26209199
-0.106905 0.005295 -0.26209399
-0.106902 0.0053730002 -0.26208401
-0.1069 0.0054489998 -0.26207599
-0.106897 0.0055269999 -0.26207399
-0.106894 0.0056030001 -0.26206601
-0.106891 0.0056779999 -0.262063
-0.106888 0.0057549998 -0.26206499
-0.106885 0.0058309999 -0.26207101
-0.106881 0.005907 -0.26207501
-0.106878 0.0059830002 -0.26207101
-0.106876 0.00606 -0.26205599
-0.106874 0.0061380002 -0.26204401
-0.106871 0.0062139998 -0.26203799
-0.106868 0.0062899999 -0.262036
-0.106865 0.006366 -0.262036
-0.106862 0.0064409999 -0.26203501
-0.106859 0.006519 -0.262027
-0.106857 0.0065950002 -0.26201901
-0.106853 0.0066709998 -0.26201901
-0.10685 0.0067469999 -0.262025
-0.106847 0.006823 -0.26202801
-0.106844 0.0068990001 -0.26201999
-0.106842 0.0069749998 -0.262014
-0.106838 0.0070509999 -0.26202399
-0.106835 0.007127 -0.26203001
-0.106832 0.0072030001 -0.262023
-0.106829 0.0072809998 -0.26201901
-0.106826 0.0073549999 -0.26201901
-0.106823 0.007433 -0.26202101
-0.10682 0.0075070001 -0.26202601
-0.106817 0.0075830002 -0.26202199
-0.106814 0.0076600001 -0.26201001
-0.106812 0.0077360002 -0.26199999
-0.106809 0.0078140004 -0.261994
-0.106806 0.00789 -0.26199001
-0.106803 0.0079659997 -0.26199299
-0.1068 0.0080420002 -0.261989
-0.106798 0.0081190001 -0.26197699
-0.106795 0.0081949998 -0.261967
-0.106792 0.0082729999 -0.26195699
-0.10679 0.0083489995 -0.26194799
-0.106787 0.0084260004 -0.26194
-0.106784 0.008502 -0.26193401
-0.106782 0.0085779997 -0.26192999
-0.106779 0.0086540002 -0.26192001
-0.106776 0.0087320004 -0.26190901
-0.106774 0.0088069998 -0.26190501
-0.106771 0.0088830004 -0.26190299
-0.106768 0.0089609995 -0.26189899
-0.106765 0.0090370001 -0.261895
-0.106762 0.0091129998 -0.26188999
-0.10676 0.0091909999 -0.26187801
-0.106757 0.0092669996 -0.26187399
-0.106754 0.0093430001 -0.26187599
-0.106751 0.0094179995 -0.26187199
-0.106749 0.0094940001 -0.26185501
-0.106746 0.0095720002 -0.261843
-0.106743 0.0096479999 -0.261839
-0.10674 0.0097230002 -0.26183501
-0.106738 0.0097989999 -0.26182401
-0.106735 0.009877 -0.261812
-0.106733 0.0099529997 -0.26179999
-0.10673 0.010028 -0.261794
-0.106728 0.010106 -0.26178199
-0.106725 0.010182 -0.26177299
-0.106722 0.010258 -0.26177299
-0.106719 0.010334 -0.26177299
-0.106716 0.01041 -0.261765
-0.106714 0.010487 -0.26174501
-0.106712 0.010565 -0.26172
-0.10671 0.01064 -0.261704
-0.106707 0.010716 -0.26169601
-0.106705 0.010794 -0.26168001
-0.106703 0.010871 -0.26166201
-0.1067 0.010947 -0.26165301
-0.106698 0.011023 -0.26164299
-0.106696 0.0111 -0.261621
-0.106694 0.011176 -0.261601
-0.106691 0.011253 -0.26159099
-0.106688 0.011329 -0.26158601
-0.106686 0.011405 -0.261576
-0.106683 0.011481 -0.26155999
-0.106681 0.011556 -0.26155001
-0.106678 0.011634 -0.26154399
-0.106676 0.01171 -0.261529
-0.106674 0.011785 -0.26150301
-0.106672 0.011863 -0.26148701
-0.106669 0.011938 -0.261473
-0.106667 0.012016 -0.26145899
-0.106664 0.012092 -0.261448
-0.106662 0.012168 -0.26143801
-0.106659 0.012245 -0.26142401
-0.106657 0.012321 -0.261408
-0.106655 0.012397 -0.26139599
-0.106652 0.012472 -0.261383
-0.10665 0.012548 -0.261365
-0.106648 0.012625 -0.26135099
-0.106645 0.012701 -0.261347
-0.106642 0.012777 -0.26134399
-0.10664 0.012853 -0.26132801
-0.106637 0.012928 -0.26131001
-0.106635 0.013004 -0.261298
-0.106632 0.01308 -0.26129201
-0.10663 0.013157 -0.261271
-0.106629 0.013233 -0.26124099
-0.106626 0.013309 -0.261233
-0.106623 0.013384 -0.26122901
-0.106621 0.01346 -0.26121801
-0.106619 0.013538 -0.26119599
-0.106616 0.013613 -0.26118001
-0.106613 0.013689 -0.26117599
-0.106611 0.013765 -0.26116201
-0.106609 0.01384 -0.26113501
-0.106607 0.013918 -0.26111501
-0.106604 0.013992 -0.26111501
-0.106601 0.014067 -0.26111099
-0.106599 0.014143 -0.26109299
-0.106597 0.014221 -0.26107401
-0.106595 0.014296 -0.26106399
-0.106592 0.014372 -0.26105401
-0.10659 0.014448 -0.26103601
-0.106588 0.014523 -0.261015
-0.106585 0.014599 -0.26100501
-0.106583 0.014675 -0.260997
-0.10658 0.01475 -0.26098299
-0.106578 0.014826 -0.26096901
-0.106575 0.014902 -0.26096001
-0.106573 0.014977 -0.26095
-0.10657 0.015053 -0.26093799
-0.106568 0.015129 -0.260928
-0.106565 0.015205 -0.260921
-0.106562 0.015281 -0.260919
-0.106559 0.015355 -0.26091501
-0.106557 0.015432 -0.260905
-0.106554 0.015506 -0.26089299
-0.106552 0.015582 -0.26089001
-0.106549 0.015658 -0.26088399
-0.106546 0.015733 -0.260874
-0.106544 0.015809 -0.26086399
-0.106541 0.015883001 -0.26085499
-0.106539 0.015959 -0.26083899
-0.106536 0.016034 -0.260833
-0.106533 0.016109999 -0.260833
-0.10653 0.016186001 -0.260827
-0.106528 0.016262 -0.260818
-0.106525 0.016336 -0.260818
-0.106522 0.016411999 -0.260822
-0.106519 0.016486 -0.26082
-0.106516 0.016562 -0.26081499
-0.106513 0.016638 -0.260813
-0.10651 0.016713999 -0.26081499
-0.106507 0.016789 -0.26080701
-0.106505 0.016863 -0.26079899
-0.106502 0.016938999 -0.2608
-0.106499 0.017015001 -0.26079801
-0.106496 0.017089 -0.26079401
-0.106493 0.017165 -0.26079601
-0.10649 0.017240999 -0.26079899
-0.106487 0.017317001 -0.26079899
-0.106484 0.017391 -0.260795
-0.106481 0.017467 -0.26079699
-0.106477 0.017541001 -0.26080501
-0.106474 0.017617 -0.260804
-0.106471 0.017693 -0.260802
-0.106468 0.017766999 -0.26080999
-0.106464 0.017843001 -0.260822
-0.106461 0.017919 -0.26082799
-0.106458 0.017992999 -0.260827
-0.106455 0.018069001 -0.26083499
-0.106451 0.018146001 -0.260851
-0.106447 0.01822 -0.26086301
-0.106444 0.018296 -0.26087999
-0.10644 0.018371001 -0.26089799
-0.106436 0.018447001 -0.26091
-0.106432 0.018521 -0.260928
-0.106428 0.018598 -0.260948
-0.106424 0.018672001 -0.26097101
-0.10642 0.018749001 -0.26100099
-0.106416 0.018825 -0.26102099
-0.106412 0.0189 -0.26104501
-0.106406 0.018974001 -0.261089
-0.106401 0.019051 -0.26112899
-0.106397 0.019126 -0.26116201
-0.106392 0.019203 -0.26120201
-0.106387 0.019277999 -0.26125199
-0.106381 0.019355001 -0.26130399
-0.106375 0.01943 -0.26136401
-0.106369 0.019507 -0.26142401
-0.106362 0.019583 -0.26150501
-0.106355 0.019659 -0.26159301
-0.10656 0.000757 -0.26361701
-0.106559 0.00083999999 -0.26355901
-0.106558 0.00092199998 -0.26350501
-0.106557 0.001005 -0.263455
-0.106557 0.001088 -0.263403
-0.106555 0.001171 -0.26335901
-0.106554 0.001252 -0.263311
-0.106553 0.001333 -0.26327899
-0.106551 0.001413 -0.263255
-0.10655 0.001496 -0.26320001
-0.106549 0.001578 -0.26315001
-0.106547 0.0016580001 -0.263118
-0.106546 0.001737 -0.26308399
-0.106544 0.001818 -0.26305199
-0.106543 0.001899 -0.26301199
-0.106542 0.0019799999 -0.26296401
-0.10654 0.0020610001 -0.26292801
-0.106538 0.002141 -0.262903
-0.106536 0.0022199999 -0.26287901
-0.106534 0.002298 -0.26286501
-0.106532 0.0023769999 -0.26284301
-0.10653 0.0024570001 -0.262813
-0.106528 0.002534 -0.26278701
-0.106526 0.0026140001 -0.26277301
-0.106524 0.002691 -0.262752
-0.106522 0.0027709999 -0.26273
-0.106519 0.002848 -0.26271001
-0.106517 0.0029259999 -0.262694
-0.106515 0.0030050001 -0.262674
-0.106513 0.003085 -0.26265001
-0.10651 0.0031620001 -0.26263699
-0.106508 0.00324 -0.26262501
-0.106506 0.0033160001 -0.262611
-0.106503 0.003395 -0.26259699
-0.106501 0.0034729999 -0.26258099
-0.106498 0.003551 -0.26256901
-0.106496 0.0036279999 -0.26255801
-0.106493 0.003704 -0.262546
-0.106491 0.0037839999 -0.262528
-0.106488 0.0038610001 -0.262514
-0.106486 0.003939 -0.26250401
-0.106483 0.0040150001 -0.26249701
-0.106481 0.0040930002 -0.262483
-0.106478 0.0041700001 -0.26247501
-0.106475 0.0042460002 -0.262467
-0.106473 0.0043239999 -0.26245901
-0.10647 0.0044 -0.26245201
-0.106467 0.0044780001 -0.26245001
-0.106464 0.0045540002 -0.26244599
-0.106461 0.0046299999 -0.26244801
-0.106458 0.004706 -0.26244801
-0.106455 0.0047829999 -0.26244399
-0.106453 0.004859 -0.262431
-0.10645 0.0049370001 -0.26241899
-0.106447 0.0050149998 -0.262411
-0.106444 0.0050920001 -0.262407
-0.106441 0.0051660002 -0.262409
-0.106438 0.0052419999 -0.26240799
-0.106435 0.00532 -0.26240399
-0.106432 0.0053960001 -0.262402
-0.106429 0.0054720002 -0.26240599
-0.106426 0.0055479999 -0.26240399
-0.106423 0.005626 -0.26239899
-0.106421 0.0057040001 -0.262391
-0.106418 0.0057799998 -0.262393
-0.106414 0.0058559999 -0.26239899
-0.106411 0.005932 -0.262393
-0.106409 0.0060080001 -0.26238599
-0.106406 0.006085 -0.26238
-0.106403 0.0061610001 -0.26237199
-0.106401 0.0062389998 -0.262362
-0.106398 0.0063149999 -0.262362
-0.106394 0.006391 -0.26236501
-0.106391 0.0064690001 -0.26236299
-0.106388 0.0065430002 -0.26236501
-0.106385 0.0066209999 -0.26236099
-0.106383 0.0066979998 -0.26234499
-0.106381 0.0067739999 -0.26233199
-0.106378 0.006852 -0.26231799
-0.106376 0.0069289999 -0.26230401
-0.106373 0.007005 -0.26229799
-0.10637 0.0070810001 -0.26230001
-0.106367 0.0071569998 -0.262306
-0.106363 0.0072329999 -0.26232299
-0.106359 0.0073079998 -0.262339
-0.106356 0.0073839999 -0.26234299
-0.106353 0.00746 -0.262339
-0.10635 0.0075380001 -0.26233101
-0.106348 0.007613 -0.26232401
-0.106345 0.0076890001 -0.26232001
-0.106342 0.0077669998 -0.26231599
-0.106339 0.0078429999 -0.26231599
-0.106336 0.0079190005 -0.26231599
-0.106333 0.0079950001 -0.26231101
-0.106331 0.0080730002 -0.262297
-0.106328 0.0081500001 -0.26229301
-0.106325 0.0082259998 -0.26229301
-0.106322 0.0083020004 -0.26228499
-0.10632 0.0083799995 -0.26226801
-0.106317 0.0084549999 -0.26225999
-0.106314 0.0085319998 -0.26226401
-0.106311 0.0086089997 -0.262254
-0.106309 0.0086850002 -0.26224199
-0.106305 0.0087630004 -0.262245
-0.106302 0.008839 -0.262243
-0.1063 0.0089149997 -0.26223099
-0.106298 0.0089919996 -0.26221499
-0.106295 0.0090680001 -0.262207
-0.106292 0.0091460003 -0.26220399
-0.106289 0.0092219999 -0.2622
-0.106287 0.0093 -0.26219201
-0.106284 0.0093750004 -0.262178
-0.106281 0.009451 -0.26217201
-0.106279 0.0095269997 -0.262169
-0.106276 0.0096049998 -0.26216301
-0.106273 0.0096810004 -0.262153
-0.106271 0.0097559998 -0.26214501
-0.106268 0.0098339999 -0.262137
-0.106266 0.0099099996 -0.26212201
-0.106263 0.0099870004 -0.26211199
-0.10626 0.010063 -0.26210001
-0.106258 0.010141 -0.262088
-0.106255 0.010217 -0.26207599
-0.106253 0.010294 -0.26206699
-0.10625 0.01037 -0.262061
-0.106247 0.010446 -0.262061
-0.106245 0.010522 -0.26204699
-0.106243 0.010599 -0.262027
-0.10624 0.010677 -0.262018
-0.106237 0.010753 -0.26201001
-0.106235 0.010829 -0.26199999
-0.106232 0.010906 -0.26198801
-0.10623 0.010982 -0.26196599
-0.106228 0.011059 -0.26193699
-0.106226 0.011137 -0.26192501
-0.106223 0.011213 -0.26192099
-0.106221 0.011288 -0.261911
-0.106218 0.011366 -0.26189101
-0.106216 0.011443 -0.261868
-0.106214 0.011519 -0.26185399
-0.106211 0.011595 -0.26184601
-0.106209 0.011671 -0.26183999
-0.106206 0.011749 -0.261832
-0.106204 0.011824 -0.26181099
-0.106202 0.011901 -0.261785
-0.1062 0.011979 -0.261769
-0.106197 0.012055 -0.26175699
-0.106195 0.01213 -0.261747
-0.106192 0.012208 -0.26173601
-0.10619 0.012284 -0.26172799
-0.106187 0.01236 -0.26172
-0.106184 0.012435 -0.26170999
-0.106182 0.012511 -0.26169199
-0.10618 0.012589 -0.261675
-0.106177 0.012664 -0.26166499
-0.106174 0.01274 -0.26166299
-0.106172 0.012816 -0.26164901
-0.10617 0.012894 -0.26163399
-0.106167 0.012969 -0.26161799
-0.106165 0.013045 -0.26160201
-0.106163 0.013123 -0.26159
-0.106161 0.013198 -0.26156801
-0.106159 0.013274 -0.261547
-0.106156 0.013351 -0.26153499
-0.106154 0.013427 -0.26152101
-0.106151 0.013503 -0.26151299
-0.106149 0.013578 -0.26149899
-0.106147 0.013654 -0.26147801
-0.106145 0.013731 -0.26145801
-0.106143 0.013807 -0.26144001
-0.10614 0.013883 -0.26143
-0.106137 0.013958 -0.261419
-0.106135 0.014036 -0.261401
-0.106133 0.014112 -0.261383
-0.106131 0.014187 -0.26136699
-0.106128 0.014265 -0.26135501
-0.106126 0.01434 -0.26133999
-0.106124 0.014416 -0.261316
-0.106122 0.014491 -0.261296
-0.10612 0.014567 -0.261282
-0.106117 0.014645 -0.26126999
-0.106115 0.01472 -0.26125899
-0.106113 0.014796 -0.26123899
-0.106111 0.014871 -0.261215
-0.106109 0.014947 -0.261195
-0.106106 0.015025 -0.261188
-0.106103 0.015099 -0.26118001
-0.106101 0.015174 -0.26115799
-0.1061 0.015251 -0.261132
-0.106097 0.015327 -0.26112401
-0.106094 0.015403 -0.261125
-0.106091 0.015479 -0.26111701
-0.106089 0.015553 -0.261103
-0.106087 0.015629999 -0.261085
-0.106085 0.015706001 -0.26106399
-0.106082 0.015781 -0.26104799
-0.10608 0.015857 -0.26103801
-0.106077 0.015930999 -0.26103199
-0.106074 0.016007001 -0.26103199
-0.106071 0.016083 -0.26102901
-0.106069 0.016159 -0.26102301
-0.106065 0.016235 -0.26102501
-0.106062 0.016309001 -0.26102501
-0.10606 0.016384 -0.26101199
-0.106057 0.01646 -0.261006
-0.106054 0.016535999 -0.26101801
-0.10605 0.016611001 -0.26102799
-0.106047 0.016687 -0.26103801
-0.106043 0.016763 -0.26104501
-0.10604 0.016837001 -0.26104701
-0.106037 0.016913 -0.26104501
-0.106035 0.016989 -0.26103899
-0.106032 0.017064 -0.261033
-0.106029 0.017139999 -0.26102999
-0.106026 0.017214 -0.26104
-0.106022 0.017291 -0.26105601
-0.106019 0.017364999 -0.26106
-0.106016 0.017441001 -0.261053
-0.106013 0.017516 -0.261049
-0.10601 0.017593 -0.261053
-0.106007 0.017669 -0.26105699
-0.106004 0.017742001 -0.261051
-0.106002 0.017818 -0.26103401
-0.105999 0.017894 -0.261024
-0.105995 0.017969999 -0.261042
-0.105991 0.018045001 -0.26106399
-0.105988 0.018121 -0.261076
-0.105984 0.018195 -0.261085
-0.105981 0.018270999 -0.261087
-0.105978 0.018347001 -0.26109499
-0.105974 0.018423 -0.261105
-0.105971 0.018497 -0.26111799
-0.105967 0.018573999 -0.261134
-0.105963 0.018650001 -0.26113999
-0.10596 0.018724 -0.261152
-0.105955 0.018801 -0.26119199
-0.10595 0.018875999 -0.26122999
-0.105946 0.018952001 -0.261253
-0.105942 0.019029001 -0.261273
-0.105938 0.019103 -0.26130101
-0.105933 0.01918 -0.26134101
-0.105927 0.019254999 -0.261397
-0.105921 0.019330001 -0.261448
-0.105916 0.019407 -0.26149401
-0.105911 0.019484 -0.26154399
-0.105905 0.019559 -0.26159999
-0.105899 0.019637 -0.26166999
-0.106102 0.000971 -0.26354101
-0.106101 0.001053 -0.26348299
-0.1061 0.001136 -0.263437
-0.106099 0.001217 -0.26339701
-0.106097 0.001299 -0.26335701
-0.106097 0.001381 -0.26330301
-0.106095 0.001462 -0.26326501
-0.106094 0.001543 -0.26322201
-0.106092 0.001625 -0.263188
-0.106091 0.0017040001 -0.263154
-0.106089 0.001785 -0.263118
-0.106088 0.001866 -0.26308399
-0.106086 0.001944 -0.263062
-0.106083 0.002023 -0.263044
-0.106081 0.0021009999 -0.26302499
-0.106079 0.0021820001 -0.262997
-0.106077 0.002262 -0.26296899
-0.106075 0.0023409999 -0.26294699
-0.106073 0.002419 -0.262927
-0.106071 0.0024959999 -0.262909
-0.106069 0.0025760001 -0.262887
-0.106067 0.002655 -0.26286399
-0.106065 0.0027340001 -0.26283801
-0.106063 0.002812 -0.26281801
-0.10606 0.0028899999 -0.26280001
-0.106058 0.002969 -0.26277801
-0.106056 0.0030489999 -0.26275399
-0.106054 0.0031260001 -0.26273501
-0.106052 0.0032039999 -0.26271901
-0.106049 0.0032810001 -0.262707
-0.106047 0.003361 -0.262687
-0.106045 0.0034380001 -0.262667
-0.106042 0.003516 -0.26265499
-0.10604 0.0035939999 -0.26264799
-0.106037 0.003672 -0.26263201
-0.106035 0.0037509999 -0.26260999
-0.106033 0.003827 -0.26259801
-0.10603 0.0039039999 -0.26258999
-0.106027 0.0039820001 -0.26257801
-0.106025 0.0040600002 -0.26256901
-0.106022 0.0041359998 -0.26256299
-0.106019 0.004214 -0.26255301
-0.106017 0.0042909998 -0.26253301
-0.106015 0.004369 -0.26251701
-0.106012 0.0044470001 -0.26251599
-0.106009 0.004522 -0.262512
-0.106006 0.0045980001 -0.26251
-0.106003 0.0046760002 -0.262508
-0.106 0.0047519999 -0.26249999
-0.105998 0.00483 -0.26248401
-0.105995 0.0049069999 -0.26247501
-0.105992 0.004983 -0.26247501
-0.10599 0.0050610001 -0.26246899
-0.105986 0.0051369998 -0.26247099
-0.105983 0.0052129999 -0.26247299
-0.105981 0.005291 -0.26246801
-0.105978 0.0053670001 -0.26245999
-0.105975 0.0054449998 -0.262456
-0.105972 0.0055209999 -0.26245001
-0.105969 0.005597 -0.26244801
-0.105966 0.0056730001 -0.262449
-0.105963 0.00575 -0.26244101
-0.105961 0.0058280001 -0.26243299
-0.105958 0.0059039998 -0.26243299
-0.105955 0.0059799999 -0.262429
-0.105952 0.006056 -0.26243001
-0.105949 0.0061340001 -0.26242399
-0.105946 0.006211 -0.26241401
-0.105943 0.0062870001 -0.26241001
-0.10594 0.0063629998 -0.26241201
-0.105937 0.0064389999 -0.262411
-0.105935 0.006517 -0.26239899
-0.105932 0.0065950002 -0.262389
-0.105929 0.0066709998 -0.26238301
-0.105926 0.0067449999 -0.262389
-0.105923 0.006823 -0.262393
-0.10592 0.0068990001 -0.26239601
-0.105916 0.0069749998 -0.262402
-0.105914 0.0070509999 -0.262398
-0.105911 0.007127 -0.26239201
-0.105908 0.0072019999 -0.26239201
-0.105905 0.007278 -0.26239499
-0.105902 0.0073560001 -0.26238701
-0.105899 0.0074339998 -0.26237699
-0.105896 0.0075099999 -0.262375
-0.105893 0.007586 -0.262373
-0.105891 0.0076620001 -0.262364
-0.105888 0.007739 -0.26235601
-0.105885 0.0078149997 -0.26235399
-0.105882 0.0078910002 -0.26235199
-0.105879 0.0079690004 -0.262344
-0.105877 0.0080469996 -0.26232901
-0.105874 0.0081240004 -0.262319
-0.105871 0.0081989998 -0.26232499
-0.105868 0.0082750004 -0.26233301
-0.105865 0.008351 -0.26232901
-0.105862 0.0084279999 -0.26232201
-0.105859 0.0085039996 -0.26231599
-0.105857 0.0085819997 -0.262308
-0.105854 0.0086580003 -0.26229799
-0.105851 0.0087360004 -0.26229599
-0.105848 0.008812 -0.26229501
-0.105846 0.0088870004 -0.262283
-0.105843 0.0089649996 -0.26227701
-0.10584 0.0090389997 -0.262281
-0.105837 0.0091169998 -0.262279
-0.105834 0.0091949999 -0.26226401
-0.105832 0.0092700003 -0.262256
-0.105829 0.0093459999 -0.262256
-0.105826 0.0094219996 -0.26225001
-0.105824 0.0094999997 -0.262234
-0.105821 0.0095779998 -0.26222101
-0.105819 0.0096530002 -0.262209
-0.105816 0.0097310003 -0.26220101
-0.105813 0.0098069999 -0.26219699
-0.10581 0.0098829996 -0.262189
-0.105808 0.0099600004 -0.26217601
-0.105805 0.010036 -0.26216799
-0.105803 0.010114 -0.26215601
-0.1058 0.010189 -0.262142
-0.105798 0.010265 -0.26213601
-0.105795 0.010343 -0.26212701
-0.105793 0.010419 -0.26211101
-0.10579 0.010496 -0.262095
-0.105788 0.010572 -0.26208901
-0.105785 0.01065 -0.26208299
-0.105782 0.010726 -0.26207
-0.10578 0.010803 -0.26205
-0.105778 0.010879 -0.262034
-0.105776 0.010956 -0.26202199
-0.105773 0.011032 -0.26200801
-0.105771 0.01111 -0.26199499
-0.105768 0.011185 -0.26198101
-0.105766 0.011263 -0.26196501
-0.105764 0.011339 -0.26194701
-0.105761 0.011416 -0.261935
-0.105759 0.011492 -0.26192999
-0.105756 0.011568 -0.26192001
-0.105754 0.011646 -0.261904
-0.105751 0.011721 -0.261886
-0.105749 0.011799 -0.261868
-0.105747 0.011874 -0.26185501
-0.105744 0.011952 -0.261843
-0.105742 0.012028 -0.26183099
-0.105739 0.012103 -0.26181901
-0.105737 0.012181 -0.26181099
-0.105734 0.012257 -0.26179999
-0.105732 0.012334 -0.261778
-0.10573 0.01241 -0.26177001
-0.105727 0.012486 -0.26176599
-0.105724 0.012562 -0.261758
-0.105722 0.012638 -0.261747
-0.105719 0.012715 -0.26173699
-0.105717 0.012791 -0.26172301
-0.105715 0.012867 -0.26170099
-0.105712 0.012944 -0.26168901
-0.105709 0.01302 -0.261682
-0.105707 0.013096 -0.261666
-0.105705 0.013171 -0.261648
-0.105703 0.013247 -0.26163599
-0.1057 0.013325 -0.261628
-0.105697 0.0134 -0.261621
-0.105695 0.013476 -0.26161101
-0.105692 0.013552 -0.26159301
-0.10569 0.013627 -0.26157901
-0.105687 0.013705 -0.261572
-0.105685 0.013781 -0.261558
-0.105683 0.013856 -0.261538
-0.105681 0.013934 -0.261516
-0.105678 0.01401 -0.26150599
-0.105676 0.014085 -0.26149899
-0.105674 0.014161 -0.26147699
-0.105672 0.014238 -0.261453
-0.105669 0.014314 -0.26144099
-0.105667 0.01439 -0.26142499
-0.105665 0.014465 -0.261408
-0.105663 0.014543 -0.261388
-0.105661 0.014618 -0.26136801
-0.105658 0.014694 -0.261352
-0.105656 0.01477 -0.26133499
-0.105654 0.014847 -0.26131701
-0.105652 0.014923 -0.26129299
-0.10565 0.014998 -0.261273
-0.105648 0.015074 -0.261255
-0.105646 0.015149 -0.26124001
-0.105643 0.015227 -0.26123199
-0.10564 0.015301 -0.261224
-0.105638 0.015378 -0.26120001
-0.105636 0.015454 -0.26118699
-0.105633 0.015528 -0.26118299
-0.10563 0.015606 -0.261177
-0.105628 0.015679 -0.26116699
-0.105625 0.015757 -0.261159
-0.105623 0.015830999 -0.26114801
-0.10562 0.015907001 -0.261132
-0.105618 0.015984001 -0.261114
-0.105616 0.016058 -0.26110199
-0.105613 0.016133999 -0.26110101
-0.10561 0.016209999 -0.26109701
-0.105608 0.016285 -0.26107901
-0.105606 0.016361 -0.26106301
-0.105603 0.016437 -0.26106101
-0.1056 0.016512999 -0.261058
-0.105597 0.016587 -0.26106
-0.105593 0.016663 -0.26106599
-0.105591 0.016739 -0.261062
-0.105588 0.016814999 -0.26105899
-0.105585 0.016890001 -0.26105699
-0.105582 0.016964 -0.26105899
-0.105578 0.017041 -0.261067
-0.105575 0.017116999 -0.26107699
-0.105572 0.017191 -0.261076
-0.105569 0.017267 -0.26107001
-0.105566 0.017343 -0.26107201
-0.105563 0.017418001 -0.26107201
-0.10556 0.017493 -0.261078
-0.105556 0.017569 -0.26109099
-0.105553 0.017645 -0.26109499
-0.10555 0.017720999 -0.26109701
-0.105546 0.017795 -0.261107
-0.105542 0.017871 -0.261121
-0.105539 0.017945001 -0.26112801
-0.105536 0.018022001 -0.261136
-0.105532 0.018098 -0.26114801
-0.105529 0.018172 -0.26115799
-0.105525 0.018247999 -0.26116899
-0.105521 0.018324001 -0.26118299
-0.105518 0.018401001 -0.26120099
-0.105513 0.018475 -0.26122299
-0.10551 0.018552 -0.26123899
-0.105506 0.018627999 -0.261255
-0.105501 0.018702 -0.26128399
-0.105497 0.018779 -0.26131201
-0.105493 0.018854 -0.261338
-0.105489 0.018929999 -0.26135999
-0.105485 0.019006001 -0.26137799
-0.10548 0.019081 -0.26141101
-0.105475 0.019158 -0.261453
-0.10547 0.019233 -0.261507
-0.105465 0.019309999 -0.26154301
-0.10546 0.019386001 -0.26157901
-0.105454 0.019462001 -0.26163301
-0.105449 0.019539 -0.26168001
-0.105658 0.00109 -0.26367301
-0.105658 0.001175 -0.26360899
-0.105658 0.001259 -0.26353899
-0.105657 0.001342 -0.26348701
-0.105656 0.001421 -0.26345101
-0.105655 0.001504 -0.26340899
-0.105654 0.001587 -0.26335701
-0.105652 0.001666 -0.26331899
-0.105651 0.001748 -0.263289
-0.105648 0.0018269999 -0.26326799
-0.105647 0.001908 -0.26323199
-0.105645 0.001987 -0.26319799
-0.105643 0.0020669999 -0.26317599
-0.105641 0.002144 -0.263156
-0.105639 0.0022239999 -0.263136
-0.105637 0.0023040001 -0.26311699
-0.105634 0.002381 -0.26310101
-0.105632 0.0024590001 -0.26308301
-0.10563 0.00254 -0.26304901
-0.105629 0.0026189999 -0.263019
-0.105626 0.002697 -0.26300499
-0.105624 0.002776 -0.26298699
-0.105622 0.0028540001 -0.262972
-0.105619 0.002932 -0.26295599
-0.105617 0.0030110001 -0.262934
-0.105615 0.003091 -0.26291001
-0.105613 0.0031679999 -0.26288599
-0.105611 0.0032480001 -0.26286599
-0.105609 0.003327 -0.26283899
-0.105607 0.0034060001 -0.26281101
-0.105605 0.003484 -0.26280099
-0.105602 0.0035600001 -0.262793
-0.1056 0.003639 -0.26277101
-0.105598 0.0037189999 -0.262743
-0.105596 0.003796 -0.26272801
-0.105593 0.0038739999 -0.262716
-0.105591 0.0039519998 -0.26270401
-0.105588 0.0040290002 -0.262692
-0.105585 0.0041069998 -0.26268199
-0.105583 0.004183 -0.26267001
-0.10558 0.0042610001 -0.262665
-0.105577 0.0043370002 -0.26266301
-0.105574 0.0044140001 -0.26265299
-0.105572 0.0044920002 -0.26264301
-0.105569 0.0045679999 -0.26264301
-0.105566 0.004646 -0.262638
-0.105563 0.0047240001 -0.26262599
-0.105561 0.004799 -0.26261601
-0.105558 0.0048770001 -0.26261199
-0.105555 0.0049530002 -0.262604
-0.105552 0.0050309999 -0.2626
-0.105549 0.005107 -0.26260501
-0.105546 0.0051830001 -0.262609
-0.105543 0.0052609998 -0.26260099
-0.10554 0.0053369999 -0.262595
-0.105537 0.0054139998 -0.262591
-0.105535 0.0054899999 -0.262586
-0.105532 0.005566 -0.26258001
-0.105529 0.0056440001 -0.26257399
-0.105526 0.0057219998 -0.262568
-0.105524 0.0057979999 -0.26256201
-0.105521 0.005876 -0.262557
-0.105518 0.0059509999 -0.262557
-0.105515 0.006027 -0.26255101
-0.105512 0.0061050002 -0.26254699
-0.105509 0.0061809998 -0.26254901
-0.105506 0.0062569999 -0.262548
-0.105503 0.006333 -0.26254201
-0.1055 0.0064110002 -0.26253599
-0.105497 0.0064869998 -0.26253399
-0.105494 0.0065649999 -0.26253399
-0.105491 0.006641 -0.26253101
-0.105489 0.0067159999 -0.26252499
-0.105486 0.006794 -0.262519
-0.105483 0.0068700002 -0.26251501
-0.10548 0.0069459998 -0.26251501
-0.105477 0.0070239999 -0.26251301
-0.105474 0.0071 -0.26250401
-0.105472 0.0071780002 -0.26249799
-0.105468 0.0072539998 -0.26249999
-0.105465 0.0073299999 -0.26250401
-0.105462 0.007406 -0.26250601
-0.105459 0.0074820002 -0.26250699
-0.105456 0.0075579998 -0.26250699
-0.105453 0.0076339999 -0.26251301
-0.10545 0.0077109998 -0.26250699
-0.105448 0.0077889999 -0.262485
-0.105445 0.0078649996 -0.26247001
-0.105443 0.0079420004 -0.26246399
-0.10544 0.0080180001 -0.26246199
-0.105437 0.0080960002 -0.262458
-0.105434 0.0081719998 -0.26245201
-0.105431 0.0082480004 -0.262447
-0.105429 0.0083259996 -0.26243299
-0.105426 0.0084030004 -0.26242101
-0.105423 0.0084790001 -0.262427
-0.105419 0.0085549997 -0.26243499
-0.105417 0.0086310003 -0.26243201
-0.105414 0.0087090004 -0.262422
-0.105411 0.0087850001 -0.26241601
-0.105408 0.0088630002 -0.26240799
-0.105406 0.0089379996 -0.26239401
-0.105403 0.0090159997 -0.26238599
-0.1054 0.0090920003 -0.262389
-0.105397 0.009168 -0.26238701
-0.105395 0.0092460001 -0.26237899
-0.105392 0.0093219997 -0.26237699
-0.105389 0.0093980003 -0.262373
-0.105386 0.0094750002 -0.262364
-0.105384 0.0095509999 -0.26234999
-0.105381 0.009629 -0.26234001
-0.105378 0.0097049996 -0.26234001
-0.105375 0.0097810002 -0.26233399
-0.105373 0.0098580001 -0.262321
-0.105371 0.0099339997 -0.26230699
-0.105368 0.010012 -0.26229501
-0.105366 0.010089 -0.262279
-0.105363 0.010165 -0.262265
-0.105361 0.010243 -0.262256
-0.105358 0.010318 -0.26224399
-0.105356 0.010396 -0.262234
-0.105353 0.010472 -0.26222599
-0.10535 0.010548 -0.262216
-0.105348 0.010625 -0.262209
-0.105345 0.010701 -0.26219499
-0.105343 0.010779 -0.26217899
-0.105341 0.010854 -0.26216501
-0.105338 0.010932 -0.26214701
-0.105336 0.01101 -0.262128
-0.105334 0.011085 -0.26211599
-0.105332 0.011163 -0.26209399
-0.10533 0.01124 -0.262072
-0.105327 0.011316 -0.26205599
-0.105325 0.011393 -0.26203099
-0.105324 0.01147 -0.26199901
-0.105322 0.011548 -0.26198101
-0.105319 0.011624 -0.26197299
-0.105317 0.0117 -0.26196101
-0.105314 0.011777 -0.26194999
-0.105311 0.011853 -0.261944
-0.105308 0.011931 -0.26193801
-0.105305 0.012007 -0.26193601
-0.105303 0.012081 -0.26193601
-0.1053 0.012158 -0.26192299
-0.105298 0.012234 -0.26190701
-0.105295 0.012312 -0.26190299
-0.105292 0.012388 -0.261893
-0.10529 0.012463 -0.26188299
-0.105287 0.012539 -0.26188201
-0.105285 0.012615 -0.261866
-0.105283 0.012692 -0.26183999
-0.10528 0.01277 -0.26182601
-0.105278 0.012846 -0.261814
-0.105276 0.012921 -0.26179299
-0.105273 0.012999 -0.26177701
-0.105271 0.013075 -0.26177299
-0.105268 0.013151 -0.261769
-0.105265 0.013227 -0.26176801
-0.105262 0.013302 -0.26176399
-0.105259 0.013378 -0.26176
-0.105257 0.013454 -0.26174599
-0.105255 0.013532 -0.26172799
-0.105252 0.013607 -0.261713
-0.10525 0.013683 -0.26170501
-0.105247 0.013759 -0.26170099
-0.105244 0.013835 -0.26169699
-0.105241 0.013911 -0.261693
-0.105239 0.013986 -0.26167601
-0.105237 0.014064 -0.26165399
-0.105235 0.014139 -0.261632
-0.105233 0.014217 -0.26161599
-0.10523 0.014292 -0.26160601
-0.105228 0.014368 -0.26159301
-0.105225 0.014444 -0.261581
-0.105223 0.01452 -0.26156899
-0.105221 0.014597 -0.261547
-0.105219 0.014672 -0.26152399
-0.105217 0.014748 -0.26150799
-0.105214 0.014826 -0.2615
-0.105211 0.014902 -0.26148799
-0.105209 0.014977 -0.26148
-0.105206 0.015053 -0.26146501
-0.105204 0.015129 -0.26144499
-0.105202 0.015204 -0.26143301
-0.105199 0.01528 -0.261419
-0.105198 0.015357 -0.26139301
-0.105195 0.015433 -0.26137599
-0.105193 0.015509 -0.26137
-0.10519 0.015584 -0.26135999
-0.105188 0.015659999 -0.26134199
-0.105186 0.015736001 -0.261325
-0.105184 0.015811 -0.261307
-0.105181 0.015887 -0.26129699
-0.105178 0.015962999 -0.26130101
-0.105175 0.016039001 -0.26130301
-0.105172 0.016115 -0.261296
-0.105169 0.016191 -0.26129001
-0.105166 0.016264999 -0.26129001
-0.105164 0.016340001 -0.26128399
-0.105161 0.016416 -0.26127499
-0.105159 0.016494 -0.261255
-0.105157 0.016566999 -0.26124099
-0.105154 0.016643001 -0.261237
-0.105151 0.016719 -0.26123101
-0.105148 0.016795 -0.261222
-0.105146 0.016871 -0.26121399
-0.105143 0.016945999 -0.261206
-0.105141 0.017022001 -0.26119599
-0.105138 0.017098 -0.26118901
-0.105135 0.017174 -0.261181
-0.105133 0.017248999 -0.26116899
-0.10513 0.017325001 -0.26115501
-0.105127 0.017399 -0.26115701
-0.105124 0.017475 -0.26116601
-0.105121 0.017550999 -0.26115999
-0.105119 0.017627001 -0.26115
-0.105115 0.017703 -0.261152
-0.105113 0.017777 -0.261152
-0.105109 0.017852999 -0.26115301
-0.105106 0.017929001 -0.26116899
-0.105102 0.018005 -0.26118499
-0.105098 0.01808 -0.261197
-0.105095 0.018155999 -0.26120099
-0.105091 0.018231999 -0.26121199
-0.105088 0.018306 -0.26122001
-0.105085 0.018382 -0.26122999
-0.105081 0.018459 -0.26124799
-0.105076 0.018533001 -0.26127401
-0.105072 0.018610001 -0.26129699
-0.105069 0.018686 -0.261309
-0.105065 0.018762 -0.261323
-0.105061 0.018835999 -0.261343
-0.105057 0.018913001 -0.261361
-0.105053 0.018987 -0.26138201
-0.105048 0.019064 -0.26142001
-0.105043 0.019141 -0.261466
-0.105039 0.019215001 -0.26149201
-0.105034 0.019292001 -0.26152599
-0.105029 0.019367 -0.26157501
-0.105023 0.019444 -0.26163301
-0.105085 0.001172 -0.264052
-0.105084 0.001253 -0.26402
-0.105083 0.001336 -0.26396999
-0.105083 0.001422 -0.26389599
-0.105083 0.001508 -0.26381001
-0.105085 0.001594 -0.26371601
-0.105083 0.001677 -0.26367
-0.105082 0.001758 -0.26363
-0.10508 0.001838 -0.26360199
-0.105078 0.001915 -0.263594
-0.105074 0.001993 -0.26359299
-0.105072 0.0020709999 -0.263585
-0.10507 0.0021510001 -0.26355699
-0.105068 0.002232 -0.26351899
-0.105067 0.0023129999 -0.263477
-0.105066 0.0023920001 -0.26344699
-0.105064 0.002473 -0.263419
-0.105061 0.0025510001 -0.26340401
-0.105058 0.002629 -0.26340401
-0.105055 0.0027050001 -0.26339599
-0.105054 0.002784 -0.26336801
-0.105052 0.0028659999 -0.26334399
-0.10505 0.0029450001 -0.26330999
-0.105049 0.003026 -0.26326999
-0.105047 0.0031069999 -0.26322699
-0.105046 0.003186 -0.26319101
-0.105045 0.003267 -0.263147
-0.105043 0.0033460001 -0.26311901
-0.105041 0.003426 -0.26309699
-0.105039 0.0035049999 -0.26306701
-0.105037 0.0035850001 -0.26304501
-0.105034 0.0036619999 -0.26303801
-0.105032 0.0037380001 -0.263028
-0.105029 0.003816 -0.26302001
-0.105027 0.0038960001 -0.263004
-0.105024 0.0039730002 -0.262986
-0.105022 0.0040509999 -0.26297599
-0.105019 0.004127 -0.26296899
-0.105017 0.0042059999 -0.26295099
-0.105015 0.004284 -0.26292899
-0.105012 0.0043609999 -0.26291499
-0.105009 0.004439 -0.262909
-0.105006 0.0045170002 -0.26290599
-0.105004 0.0045929998 -0.26290399
-0.105001 0.0046709999 -0.262898
-0.104998 0.0047470001 -0.262894
-0.104995 0.0048250002 -0.26288599
-0.104992 0.0049000001 -0.26288199
-0.104989 0.0049780002 -0.26287499
-0.104987 0.0050559998 -0.26286301
-0.104984 0.005134 -0.26285899
-0.104981 0.0052100001 -0.262853
-0.104978 0.005287 -0.26284701
-0.104975 0.0053630001 -0.26284799
-0.104973 0.0054410002 -0.262842
-0.10497 0.0055189999 -0.26282999
-0.104967 0.005595 -0.26282799
-0.104964 0.0056710001 -0.262824
-0.104961 0.0057509998 -0.26281399
-0.104959 0.0058260001 -0.26280099
-0.104957 0.0059039998 -0.26278499
-0.104954 0.0059819999 -0.262777
-0.104951 0.0060589998 -0.26277301
-0.104948 0.0061349999 -0.26276901
-0.104945 0.006213 -0.262766
-0.104942 0.0062890002 -0.26276401
-0.104939 0.0063649998 -0.26276401
-0.104936 0.0064409999 -0.26276001
-0.104934 0.006519 -0.26275599
-0.104931 0.0065950002 -0.26275101
-0.104928 0.0066729998 -0.26274499
-0.104925 0.0067480002 -0.262741
-0.104922 0.0068259998 -0.26273701
-0.104919 0.0069019999 -0.262743
-0.104916 0.006978 -0.26274499
-0.104913 0.0070540002 -0.26274601
-0.10491 0.0071299998 -0.26274601
-0.104907 0.0072079999 -0.26274201
-0.104904 0.0072840001 -0.26273999
-0.104901 0.0073620002 -0.262734
-0.104898 0.0074379998 -0.262723
-0.104895 0.007516 -0.26271901
-0.104893 0.0075909998 -0.26271299
-0.10489 0.007669 -0.262703
-0.104887 0.0077450001 -0.26269901
-0.104884 0.0078229997 -0.26269799
-0.104881 0.0078990003 -0.26269799
-0.104878 0.007975 -0.262692
-0.104875 0.0080530001 -0.26268801
-0.104873 0.0081289997 -0.26268601
-0.10487 0.0082059996 -0.26267901
-0.104867 0.0082839997 -0.262667
-0.104865 0.0083600003 -0.26265901
-0.104862 0.008436 -0.26265901
-0.104858 0.0085140001 -0.26265901
-0.104855 0.0085899998 -0.26265699
-0.104852 0.0086660003 -0.262658
-0.10485 0.0087430002 -0.26264799
-0.104847 0.0088210003 -0.26263201
-0.104844 0.008897 -0.26263201
-0.104841 0.0089729996 -0.262638
-0.104838 0.0090509998 -0.262631
-0.104836 0.0091260001 -0.262615
-0.104833 0.0092040002 -0.262609
-0.10483 0.0092799999 -0.26260701
-0.104827 0.0093560005 -0.26260099
-0.104825 0.0094339997 -0.26259601
-0.104822 0.0095100002 -0.262582
-0.10482 0.0095889997 -0.26256001
-0.104818 0.0096650003 -0.26254401
-0.104815 0.0097409999 -0.26254401
-0.104812 0.009819 -0.26254299
-0.104809 0.0098940004 -0.26253101
-0.104807 0.0099719996 -0.26250899
-0.104805 0.010049 -0.262485
-0.104802 0.010125 -0.262481
-0.104799 0.010203 -0.26248401
-0.104796 0.010279 -0.26247799
-0.104794 0.010357 -0.26247001
-0.104791 0.010432 -0.26246399
-0.104788 0.010508 -0.262456
-0.104786 0.010586 -0.26244101
-0.104783 0.010664 -0.262429
-0.104781 0.010739 -0.26241499
-0.104779 0.010817 -0.26239699
-0.104777 0.010892 -0.26238099
-0.104774 0.01097 -0.262371
-0.104771 0.011048 -0.26236001
-0.104769 0.011124 -0.262348
-0.104767 0.011201 -0.26233
-0.104764 0.011277 -0.26232001
-0.104761 0.011355 -0.26231599
-0.104759 0.011431 -0.26230901
-0.104756 0.011508 -0.262297
-0.104754 0.011584 -0.26228499
-0.104751 0.01166 -0.26227501
-0.104749 0.011737 -0.26225501
-0.104747 0.011815 -0.262236
-0.104745 0.011892 -0.262216
-0.104742 0.011968 -0.26220599
-0.104739 0.012044 -0.26220399
-0.104737 0.012122 -0.26219001
-0.104735 0.012197 -0.262169
-0.104732 0.012275 -0.262151
-0.10473 0.012352 -0.262137
-0.104727 0.012428 -0.26212701
-0.104725 0.012504 -0.26212099
-0.104722 0.01258 -0.262108
-0.10472 0.012657 -0.26209199
-0.104717 0.012733 -0.26208201
-0.104715 0.012809 -0.262068
-0.104713 0.012886 -0.26204801
-0.10471 0.012962 -0.26203501
-0.104708 0.01304 -0.262027
-0.104705 0.013115 -0.26201099
-0.104703 0.013193 -0.261989
-0.104701 0.013268 -0.26197201
-0.104699 0.013344 -0.26196399
-0.104696 0.013422 -0.26195401
-0.104693 0.013498 -0.261942
-0.104691 0.013573 -0.26192799
-0.104689 0.013651 -0.26190701
-0.104686 0.013727 -0.26190299
-0.104683 0.013803 -0.26190901
-0.10468 0.013878 -0.261897
-0.104679 0.013954 -0.26187101
-0.104677 0.014031 -0.26184601
-0.104674 0.014107 -0.26183999
-0.104671 0.014183 -0.26183599
-0.104669 0.01426 -0.26181599
-0.104667 0.014336 -0.26179999
-0.104664 0.014412 -0.26179501
-0.104661 0.014488 -0.261783
-0.104659 0.014565 -0.26177299
-0.104656 0.014641 -0.261767
-0.104653 0.014717 -0.26175699
-0.104651 0.014793 -0.26175201
-0.104648 0.014869 -0.26175001
-0.104645 0.014944 -0.26173601
-0.104643 0.01502 -0.261722
-0.104641 0.015098 -0.26170501
-0.104639 0.015173 -0.26168901
-0.104636 0.015249 -0.26168099
-0.104633 0.015325 -0.261677
-0.10463 0.015401 -0.26166701
-0.104628 0.015476 -0.26165199
-0.104626 0.015554 -0.26163599
-0.104623 0.015628001 -0.26163
-0.10462 0.015705001 -0.26162201
-0.104618 0.015781 -0.26160201
-0.104616 0.015857 -0.261585
-0.104614 0.015931999 -0.261567
-0.104611 0.016008001 -0.261565
-0.104608 0.016084 -0.26156899
-0.104605 0.01616 -0.26156399
-0.104603 0.016236 -0.26154801
-0.104601 0.016310999 -0.26152399
-0.104599 0.016387001 -0.26151001
-0.104595 0.016463 -0.26151201
-0.104592 0.016539 -0.26151499
-0.10459 0.016613999 -0.26149499
-0.104588 0.016692 -0.26146701
-0.104586 0.016767001 -0.26145101
-0.104584 0.016843 -0.26144001
-0.104581 0.016919 -0.261428
-0.104579 0.016993999 -0.26141801
-0.104576 0.017069999 -0.26140201
-0.104573 0.017146001 -0.26140201
-0.10457 0.017222 -0.26140901
-0.104567 0.017295999 -0.26140299
-0.104565 0.017371999 -0.26139301
-0.104562 0.017448001 -0.26139301
-0.104559 0.017523 -0.26139101
-0.104556 0.017599 -0.26138201
-0.104553 0.017674999 -0.26137799
-0.104551 0.017751001 -0.261372
-0.104548 0.017827 -0.26135799
-0.104546 0.017902 -0.26134101
-0.104543 0.017978 -0.26133299
-0.10454 0.018053999 -0.261345
-0.104536 0.018128 -0.26135701
-0.104532 0.018205 -0.26137701
-0.104528 0.018278999 -0.26141
-0.104524 0.018355999 -0.261426
-0.10452 0.018432001 -0.26144001
-0.104516 0.018507 -0.261462
-0.104512 0.018583 -0.26147801
-0.104508 0.018658999 -0.26149499
-0.104505 0.018735001 -0.261511
-0.104501 0.01881 -0.261531
-0.104496 0.018886 -0.26156101
-0.104491 0.018963 -0.26159501
-0.104487 0.019037999 -0.26163101
-0.104482 0.019114999 -0.261668
-0.104477 0.019191001 -0.26170599
-0.104854 0.001385 -0.26399699
-0.104854 0.001469 -0.263924
-0.104852 0.0015510001 -0.26389
-0.104854 0.00164 -0.26378
-0.104853 0.001723 -0.263726
-0.104851 0.001802 -0.263704
-0.104849 0.001882 -0.26368001
-0.104847 0.001961 -0.26364401
-0.104845 0.0020419999 -0.26361799
-0.104843 0.0021200001 -0.263598
-0.104841 0.002201 -0.26357701
-0.10484 0.0022809999 -0.26353899
-0.104838 0.0023620001 -0.26350501
-0.104836 0.0024389999 -0.263491
-0.104833 0.0025170001 -0.26348099
-0.10483 0.002597 -0.26346901
-0.104828 0.0026730001 -0.26346299
-0.104825 0.002752 -0.26345
-0.104823 0.0028319999 -0.26342401
-0.104821 0.002911 -0.26339999
-0.104819 0.002991 -0.263376
-0.104818 0.0030700001 -0.26334
-0.104818 0.003154 -0.263262
-0.104819 0.00324 -0.263174
-0.104817 0.0033189999 -0.26314399
-0.104814 0.003397 -0.26313901
-0.104812 0.0034749999 -0.26313099
-0.104809 0.003553 -0.26311299
-0.104808 0.0036319999 -0.26308301
-0.104806 0.0037110001 -0.26305899
-0.104803 0.003791 -0.263037
-0.104801 0.0038680001 -0.26301399
-0.104799 0.0039459998 -0.26299599
-0.104797 0.0040259999 -0.26298201
-0.104794 0.0041029998 -0.26297399
-0.104791 0.0041789999 -0.26297
-0.104788 0.0042570001 -0.26296899
-0.104786 0.0043350002 -0.26295501
-0.104783 0.0044120001 -0.262943
-0.10478 0.0044880002 -0.26293901
-0.104778 0.0045659998 -0.262927
-0.104775 0.004644 -0.26291901
-0.104772 0.0047200001 -0.262918
-0.104769 0.0047980002 -0.262918
-0.104766 0.0048739999 -0.26291201
-0.104763 0.0049510002 -0.26290599
-0.10476 0.0050269999 -0.26290801
-0.104757 0.005103 -0.262907
-0.104755 0.0051830001 -0.26289299
-0.104752 0.0052590002 -0.26288101
-0.10475 0.0053380001 -0.26286301
-0.104747 0.0054159998 -0.262851
-0.104745 0.0054919999 -0.26284701
-0.104742 0.00557 -0.26283601
-0.10474 0.0056469999 -0.262822
-0.104737 0.0057250001 -0.26281399
-0.104734 0.0058010002 -0.26280999
-0.104731 0.0058789998 -0.262806
-0.104728 0.005957 -0.26280001
-0.104726 0.0060319998 -0.26279101
-0.104723 0.00611 -0.26278299
-0.10472 0.0061860001 -0.262777
-0.104717 0.0062620002 -0.262779
-0.104714 0.0063399998 -0.26278299
-0.104711 0.006416 -0.26278001
-0.104708 0.0064940001 -0.262766
-0.104706 0.006571 -0.26275799
-0.104703 0.0066470001 -0.26275
-0.104701 0.0067250002 -0.26273599
-0.104698 0.0068009999 -0.26273501
-0.104694 0.006877 -0.26274699
-0.104691 0.0069530001 -0.26274899
-0.104688 0.0070310002 -0.262743
-0.104685 0.0071069999 -0.262741
-0.104682 0.007183 -0.26274601
-0.104679 0.0072610001 -0.26274601
-0.104676 0.0073370002 -0.26274201
-0.104673 0.0074120001 -0.26273799
-0.10467 0.0074900002 -0.26273599
-0.104667 0.0075659999 -0.26272601
-0.104665 0.007644 -0.26271099
-0.104662 0.0077209999 -0.262701
-0.104659 0.007797 -0.262703
-0.104656 0.0078739999 -0.26270899
-0.104653 0.0079509998 -0.262703
-0.104651 0.0080289999 -0.262692
-0.104648 0.0081049995 -0.26268601
-0.104645 0.0081810001 -0.26268801
-0.104642 0.0082590003 -0.26268199
-0.104639 0.0083349999 -0.26267201
-0.104636 0.0084119998 -0.262669
-0.104634 0.0084880004 -0.26266301
-0.104631 0.008564 -0.26266301
-0.104628 0.0086420001 -0.26265499
-0.104625 0.0087200003 -0.26264301
-0.104622 0.0087959999 -0.26264399
-0.104619 0.0088719996 -0.262642
-0.104617 0.0089490004 -0.26262999
-0.104614 0.0090269996 -0.262622
-0.104611 0.0091030002 -0.26262
-0.104608 0.0091789998 -0.26261601
-0.104605 0.0092569999 -0.262613
-0.104603 0.0093329996 -0.26260501
-0.1046 0.0094079999 -0.26260301
-0.104597 0.0094839996 -0.26260301
-0.104594 0.0095640002 -0.26258501
-0.104592 0.0096399998 -0.26257199
-0.104589 0.0097150002 -0.262564
-0.104587 0.0097930003 -0.262546
-0.104585 0.0098710004 -0.262528
-0.104582 0.0099480003 -0.26251999
-0.10458 0.010024 -0.26251099
-0.104577 0.010102 -0.26249701
-0.104574 0.010178 -0.262499
-0.104571 0.010254 -0.26249501
-0.104569 0.010331 -0.262483
-0.104566 0.010409 -0.26246801
-0.104564 0.010485 -0.262458
-0.104561 0.010561 -0.262456
-0.104558 0.010639 -0.26245201
-0.104556 0.010716 -0.26243201
-0.104553 0.010792 -0.26241499
-0.104551 0.010869 -0.26240101
-0.104549 0.010947 -0.26238301
-0.104547 0.011023 -0.26236701
-0.104544 0.0111 -0.262357
-0.104541 0.011176 -0.262346
-0.104539 0.011254 -0.26233599
-0.104536 0.01133 -0.26233
-0.104534 0.011407 -0.26231599
-0.104531 0.011485 -0.26230001
-0.104529 0.011561 -0.262292
-0.104526 0.011636 -0.262279
-0.104524 0.011714 -0.26225901
-0.104522 0.011791 -0.262245
-0.104519 0.011869 -0.262225
-0.104517 0.011944 -0.26220301
-0.104515 0.01202 -0.262198
-0.104512 0.012098 -0.262198
-0.104509 0.012174 -0.26219401
-0.104506 0.01225 -0.26218599
-0.104504 0.012328 -0.26216999
-0.104502 0.012403 -0.26214901
-0.104499 0.012481 -0.26213899
-0.104496 0.012557 -0.26213101
-0.104494 0.012632 -0.26212499
-0.104492 0.01271 -0.26210299
-0.10449 0.012785 -0.26207799
-0.104487 0.012863 -0.262068
-0.104484 0.012939 -0.26206601
-0.104482 0.013015 -0.262052
-0.10448 0.013092 -0.262025
-0.104478 0.013169 -0.26199901
-0.104476 0.013245 -0.261985
-0.104473 0.013321 -0.26198101
-0.10447 0.013399 -0.26197499
-0.104468 0.013474 -0.26196399
-0.104466 0.01355 -0.261944
-0.104464 0.013628 -0.261926
-0.104461 0.013703 -0.26192001
-0.104458 0.013779 -0.26191601
-0.104456 0.013855 -0.26190099
-0.104453 0.013931 -0.26188901
-0.10445 0.014008 -0.26188299
-0.104448 0.014084 -0.26186699
-0.104446 0.014162 -0.26184699
-0.104444 0.014237 -0.261834
-0.104441 0.014313 -0.26182199
-0.104438 0.014389 -0.26181599
-0.104436 0.014465 -0.26180601
-0.104434 0.014542 -0.26178399
-0.104432 0.014618 -0.261765
-0.104429 0.014693 -0.26175901
-0.104426 0.014769 -0.261751
-0.104424 0.014845 -0.26174101
-0.104421 0.014923 -0.26173899
-0.104418 0.014997 -0.26174
-0.104415 0.015073 -0.26173601
-0.104412 0.015151 -0.26172999
-0.10441 0.015226 -0.26171601
-0.104408 0.015302 -0.26169699
-0.104405 0.015377 -0.26168501
-0.104402 0.015453 -0.26168099
-0.1044 0.015529 -0.261673
-0.104397 0.015607 -0.26165301
-0.104396 0.015682001 -0.26163
-0.104393 0.015758 -0.26161999
-0.10439 0.015834 -0.261612
-0.104388 0.015908999 -0.26159599
-0.104386 0.015985001 -0.261583
-0.104383 0.016061001 -0.26157501
-0.10438 0.016137 -0.26157099
-0.104377 0.016212 -0.261567
-0.104375 0.016287999 -0.26155299
-0.104373 0.016364001 -0.26154
-0.10437 0.016441001 -0.26152399
-0.104368 0.016517 -0.26150799
-0.104365 0.016593 -0.2615
-0.104363 0.016669 -0.26149201
-0.10436 0.016744001 -0.26147899
-0.104359 0.01682 -0.261455
-0.104356 0.016895 -0.26144299
-0.104353 0.016971 -0.26144499
-0.10435 0.017046999 -0.26143801
-0.104348 0.017123001 -0.26142001
-0.104346 0.017198 -0.26140001
-0.104343 0.017274 -0.26139399
-0.10434 0.017349999 -0.26140401
-0.104337 0.017426001 -0.261399
-0.104335 0.017502001 -0.26137701
-0.104332 0.017578 -0.26137301
-0.104328 0.017651999 -0.26138699
-0.104325 0.017728001 -0.261401
-0.104321 0.017804001 -0.26141399
-0.104318 0.01788 -0.26141199
-0.104315 0.017956 -0.26141399
-0.104312 0.018030001 -0.26142201
-0.104309 0.018106 -0.26142299
-0.104306 0.018182 -0.261415
-0.104303 0.018258 -0.261419
-0.104299 0.018335 -0.26144099
-0.104295 0.018409001 -0.261457
-0.104291 0.018485 -0.26147199
-0.104287 0.018561 -0.26148799
-0.104283 0.018638 -0.26150599
-0.104279 0.018712001 -0.26152599
-0.104275 0.018789001 -0.26155201
-0.104271 0.018865 -0.26158401
-0.104266 0.01894 -0.261617
-0.104262 0.019017 -0.26164499
-0.104257 0.019092999 -0.26168099
-0.104603 0.0016749999 -0.26394501
-0.104602 0.001758 -0.26390499
-0.1046 0.001836 -0.26389399
-0.104597 0.001915 -0.263872
-0.104596 0.0019950001 -0.26384401
-0.104593 0.002074 -0.26382399
-0.104591 0.0021540001 -0.26380399
-0.104589 0.002231 -0.26378599
-0.104587 0.0023129999 -0.26375899
-0.104585 0.0023940001 -0.26372299
-0.104584 0.002473 -0.263695
-0.104582 0.0025520001 -0.26366299
-0.104582 0.0026370001 -0.26360101
-0.104581 0.00272 -0.26353899
-0.104581 0.0028019999 -0.26348299
-0.104581 0.0028870001 -0.26341301
-0.10458 0.002969 -0.263349
-0.10458 0.003052 -0.263289
-0.104578 0.0031310001 -0.26326001
-0.104574 0.003208 -0.26327801
-0.10457 0.0032820001 -0.263298
-0.104568 0.003358 -0.26329401
-0.104565 0.0034380001 -0.26328
-0.104563 0.003515 -0.26326299
-0.104561 0.0035939999 -0.26323301
-0.104559 0.003674 -0.263203
-0.104557 0.0037529999 -0.26318499
-0.104555 0.0038310001 -0.263165
-0.104553 0.00391 -0.26313099
-0.104552 0.0039909999 -0.26309299
-0.10455 0.004071 -0.26307201
-0.104548 0.0041499999 -0.26305199
-0.104545 0.0042280001 -0.26303601
-0.104543 0.0043040002 -0.263028
-0.10454 0.0043810001 -0.26301801
-0.104537 0.0044590002 -0.26301199
-0.104534 0.0045369999 -0.26300699
-0.104532 0.004613 -0.262999
-0.104529 0.0046910001 -0.26298699
-0.104527 0.00477 -0.26297101
-0.104524 0.0048480001 -0.26295501
-0.104522 0.004925 -0.262941
-0.104519 0.0050030001 -0.262932
-0.104517 0.0050809998 -0.26292199
-0.104514 0.0051589999 -0.26290599
-0.104512 0.0052359998 -0.26289201
-0.104509 0.005314 -0.26288801
-0.104506 0.0053900001 -0.26289099
-0.104503 0.0054660002 -0.26288301
-0.1045 0.0055439998 -0.26288101
-0.104497 0.00562 -0.26287299
-0.104495 0.0056989999 -0.26286101
-0.104492 0.005775 -0.26285899
-0.104489 0.0058530001 -0.26284599
-0.104487 0.0059290002 -0.262842
-0.104483 0.0060049999 -0.26284799
-0.10448 0.006083 -0.262844
-0.104478 0.0061599999 -0.26283199
-0.104475 0.006236 -0.26282299
-0.104472 0.0063140001 -0.262815
-0.10447 0.0063919998 -0.26280901
-0.104467 0.0064679999 -0.26280901
-0.104464 0.006544 -0.26280901
-0.104461 0.0066220001 -0.26280299
-0.104458 0.006699 -0.26279199
-0.104455 0.0067750001 -0.262788
-0.104452 0.0068529998 -0.262784
-0.104449 0.0069289999 -0.26278201
-0.104446 0.007005 -0.26278201
-0.104444 0.0070830001 -0.262777
-0.104441 0.0071589998 -0.26277101
-0.104438 0.0072349999 -0.26277301
-0.104435 0.007311 -0.262775
-0.104431 0.0073890002 -0.262775
-0.104429 0.007464 -0.26277199
-0.104425 0.0075400001 -0.26277599
-0.104422 0.0076179998 -0.26277199
-0.10442 0.0076939999 -0.26276001
-0.104417 0.007772 -0.262752
-0.104414 0.0078499997 -0.26275101
-0.104411 0.0079260003 -0.26274699
-0.104408 0.0080019999 -0.26274899
-0.104405 0.0080800001 -0.26274499
-0.104403 0.0081550004 -0.26273099
-0.1044 0.0082329996 -0.26272699
-0.104397 0.0083090002 -0.26272401
-0.104394 0.0083870003 -0.262716
-0.104392 0.0084619997 -0.26270601
