# .PCD v0.7 - Point Cloud Data file format
VERSION 0.7
FIELDS x y z
SIZE 4 4 4
TYPE F F F
COUNT 1 1 1
WIDTH 1401
HEIGHT 1
VIEWPOINT 0 0 0 1 0 0 0
POINTS 1401
DATA ascii
-0.034125 0.138687 -0.226289
-0.033903502 0.13875151 -0.2262595
-0.028496001 0.138777 -0.2264
-0.028387999 0.13877501 -0.22637799
-0.036476001 0.138965 -0.226302
-0.036259335 0.13883366 -0.22630833
-0.031702336 0.13893498 -0.22625367
-0.031505749 0.13892874 -0.22629601
-0.031276502 0.1389115 -0.2263065
-0.031095 0.138899 -0.22634
-0.030931501 0.138907 -0.22636126
-0.030693751 0.1389495 -0.22633749
-0.030520001 0.138944 -0.22632928
-0.0302945 0.13892549 -0.22630799
-0.030133335 0.13893166 -0.22631334
-0.029985499 0.13890651 -0.2263235
-0.029523665 0.13896817 -0.22631101
-0.029365001 0.13895799 -0.226309
-0.029155999 0.138972 -0.22629499
-0.028984999 0.13895901 -0.226308
-0.028693 0.13892734 -0.22623765
-0.028498 0.13890533 -0.226327
-0.028316999 0.1388988 -0.2262748
-0.0281012 0.13889579 -0.226301
-0.027946001 0.13892975 -0.22622424
-0.027707573 0.13890813 -0.226283
-0.0275282 0.1389218 -0.2262896
-0.027298 0.13893899 -0.22628501
-0.027095001 0.13888749 -0.226307
-0.026892001 0.13894366 -0.22626536
-0.026672667 0.13893133 -0.226267
-0.026431 0.138886 -0.226284
-0.026314 0.138879 -0.226253
-0.026145 0.13887601 -0.226244
-0.025913499 0.1389375 -0.2262345
-0.037140001 0.139146 -0.22633199
-0.036474999 0.139042 -0.226256
-0.031277001 0.13903201 -0.22620399
-0.031096 0.13902199 -0.226216
-0.0308905 0.13902625 -0.22625251
-0.030693499 0.13906899 -0.226245
-0.030547334 0.139061 -0.22622567
-0.030071 0.139029 -0.22625799
-0.029703001 0.139009 -0.226276
-0.029538667 0.13907601 -0.22622566
-0.0293555 0.139064 -0.226218
-0.029157 0.139052 -0.226218
-0.028986 0.139043 -0.22621401
-0.0285665 0.13901949 -0.226219
-0.026957 0.139 -0.22621401
-0.037427999 0.139375 -0.226327
-0.037333 0.13933599 -0.22633125
-0.037140001 0.139227 -0.22626799
-0.037643999 0.13954 -0.22630499
-0.037483335 0.13949166 -0.22630684
-0.037333503 0.1394555 -0.226227
-0.037645001 0.139622 -0.22621299
-0.037510999 0.1396085 -0.226245
-0.035645999 0.13875699 -0.226193
-0.035485499 0.13878301 -0.22613901
-0.035349667 0.13874935 -0.226153
-0.035066999 0.138761 -0.226155
-0.034742501 0.13874099 -0.2261705
-0.034508999 0.1387935 -0.22618151
-0.034322664 0.13876 -0.22615699
-0.034084998 0.13877299 -0.226156
-0.023374001 0.138794 -0.226162
-0.036232665 0.138947 -0.22614932
-0.036074836 0.13889684 -0.22609501
-0.035890333 0.13888934 -0.22608733
-0.035694998 0.13884941 -0.22609679
-0.035512999 0.13886733 -0.22606099
-0.035362497 0.138859 -0.226041
-0.035068002 0.138844 -0.22605699
-0.034694999 0.13887358 -0.22607885
-0.034552403 0.13887921 -0.22610661
-0.0342975 0.1388665 -0.22606051
-0.034044001 0.138855 -0.22604699
-0.033907 0.13888125 -0.22606951
-0.033773001 0.13887399 -0.2260505
-0.033119 0.138935 -0.226136
-0.032937001 0.138999 -0.226127
-0.031654999 0.138988 -0.226173
-0.030338001 0.13898 -0.22618701
-0.028155001 0.138999 -0.22619601
-0.027140001 0.138942 -0.2262
-0.026777999 0.13899501 -0.226197
-0.026433 0.13897 -0.226174
-0.026273001 0.13896 -0.22618049
-0.0261035 0.13895699 -0.22616601
-0.025742751 0.13890626 -0.226127
-0.025338501 0.13898849 -0.22610399
-0.024681 0.13895333 -0.22610833
-0.024513001 0.13893899 -0.226119
-0.024292752 0.13889575 -0.22607276
-0.024061667 0.13889267 -0.22609033
-0.023919335 0.13887934 -0.22609098
-0.023711 0.13887301 -0.226126
-0.023491601 0.1389114 -0.22609921
-0.0232886 0.13890201 -0.2260576
-0.023078667 0.13890566 -0.22609299
-0.022888999 0.138925 -0.22606149
-0.036260668 0.13907734 -0.22607534
-0.033119 0.139054 -0.226046
-0.032871004 0.13909967 -0.22604567
-0.032701001 0.13910668 -0.22609667
-0.032460999 0.139128 -0.226032
-0.032090999 0.139102 -0.22603901
-0.031860799 0.1390686 -0.22610638
-0.031692751 0.1391135 -0.22605199
-0.03150925 0.1390975 -0.22608301
-0.031278498 0.139155 -0.22607
-0.031097502 0.13914701 -0.22607949
-0.030928601 0.13913921 -0.22614022
-0.030693499 0.1391495 -0.226174
-0.030511001 0.13912539 -0.2261436
-0.030297 0.139094 -0.2261115
-0.030137667 0.13910334 -0.22607601
-0.029987333 0.139111 -0.22612266
-0.029705498 0.13913599 -0.22612101
-0.029503997 0.1391408 -0.22613461
-0.029355999 0.13914651 -0.226138
-0.029158 0.139134 -0.226134
-0.028986 0.13912299 -0.226144
-0.028679332 0.13910984 -0.22611851
-0.028507899 0.1391183 -0.22608531
-0.028320333 0.13909711 -0.22606744
-0.028127333 0.139108 -0.22607034
-0.027937999 0.13909733 -0.22608232
-0.027680799 0.139081 -0.22610259
-0.027513376 0.13910738 -0.22609374
-0.027286198 0.1390918 -0.2260848
-0.027097166 0.13909483 -0.22609399
-0.026909498 0.13912199 -0.226087
-0.0267005 0.13911226 -0.2260755
-0.026435001 0.139057 -0.226054
-0.0262745 0.139045 -0.22608149
-0.026105501 0.139043 -0.22604999
-0.025917001 0.1390285 -0.2260765
-0.025740501 0.13902 -0.22608149
-0.025451001 0.139 -0.22607151
-0.024945 0.13905001 -0.22600999
-0.024680667 0.13903201 -0.22604935
-0.024512 0.139016 -0.226069
-0.037140999 0.139346 -0.22616199
-0.0369615 0.139348 -0.22608501
-0.032612 0.139208 -0.22600199
-0.031559002 0.13922 -0.22600199
-0.030912668 0.13925067 -0.22603302
-0.030680666 0.13925733 -0.22605968
-0.030529801 0.13923921 -0.226046
-0.030296 0.13920951 -0.22603899
-0.029496498 0.1392415 -0.22601399
-0.029356999 0.139229 -0.22604501
-0.029158 0.139219 -0.22604799
-0.028986 0.1392415 -0.22606
-0.028677501 0.139265 -0.22602201
-0.028588001 0.13925999 -0.22600999
-0.027571 0.139201 -0.226025
-0.037332501 0.1395345 -0.22617301
-0.037140999 0.13946401 -0.22606701
-0.036961 0.13946301 -0.226004
-0.0094670001 0.139597 -0.226016
-0.0376435 0.139737 -0.226153
-0.037496604 0.1397102 -0.22610001
-0.037334502 0.13961801 -0.2260675
-0.0093350001 0.1397635 -0.22605699
-0.037640501 0.1398885 -0.226082
-0.037520666 0.13987367 -0.22602534
-0.037639 0.140002 -0.22603001
-0.0092169996 0.140016 -0.226015
-0.033601001 0.138768 -0.22597501
-0.0335305 0.1387735 -0.225877
-0.035683334 0.138963 -0.22597599
-0.035513666 0.13894834 -0.22598267
-0.035362497 0.1389405 -0.2259665
-0.035069 0.138926 -0.225969
-0.034741998 0.13897899 -0.22598299
-0.034512497 0.13896149 -0.22597051
-0.034298502 0.1389485 -0.22597151
-0.034103334 0.13891767 -0.22594933
-0.033682834 0.13894133 -0.22593249
-0.033549558 0.1389171 -0.22588712
-0.023906 0.13899051 -0.2259635
-0.023694335 0.13898234 -0.22596534
-0.023476999 0.13896599 -0.225996
-0.023291999 0.138952 -0.225997
-0.022665 0.13899601 -0.22597601
-0.020842999 0.138973 -0.225861
-0.020669501 0.13894449 -0.22584726
-0.020506667 0.13894266 -0.225931
-0.020345001 0.138937 -0.225898
-0.019456999 0.13895966 -0.22587766
-0.019348999 0.138946 -0.22591799
-0.019197 0.138945 -0.22589099
-0.036205001 0.139139 -0.225936
-0.036074251 0.13909376 -0.22594501
-0.035891499 0.13909149 -0.22589001
-0.035684001 0.13908301 -0.22586767
-0.035514664 0.13906999 -0.22586435
-0.035362497 0.13905826 -0.22586951
-0.035069 0.13904449 -0.22588
-0.034705166 0.139094 -0.22590333
-0.034535859 0.13909957 -0.22587372
-0.034298752 0.13906901 -0.2258635
-0.034088001 0.13905975 -0.22585399
-0.033908751 0.13904525 -0.22589925
-0.033701833 0.13910599 -0.22586615
-0.033542499 0.13909699 -0.22588082
-0.033119999 0.139176 -0.22592001
-0.032937001 0.139158 -0.22599301
-0.032092001 0.13918599 -0.225935
-0.031916998 0.13917001 -0.225996
-0.028069999 0.13916001 -0.225999
-0.027873 0.13915201 -0.22599199
-0.027784999 0.139145 -0.22598299
-0.027378 0.139194 -0.22596601
-0.026435001 0.139136 -0.226
-0.026276 0.13912749 -0.22598651
-0.026106998 0.139128 -0.22594699
-0.02592 0.139157 -0.2259015
-0.025743749 0.1391485 -0.22590275
-0.025452498 0.1391235 -0.2259365
-0.025340751 0.13911501 -0.22595051
-0.024946 0.13913099 -0.225936
-0.024663601 0.13914239 -0.2259604
-0.0245125 0.13913551 -0.2259665
-0.024292165 0.1390935 -0.22592032
-0.024087001 0.1390702 -0.22590539
-0.023907 0.13911301 -0.22584349
-0.023694167 0.13910116 -0.2258725
-0.023492666 0.13909 -0.22586966
-0.02329067 0.13907416 -0.22587599
-0.0230582 0.1390824 -0.22588821
-0.022890167 0.13908717 -0.2259085
-0.022664499 0.1391155 -0.225885
-0.022546999 0.13914201 -0.225923
-0.021643002 0.139025 -0.2258195
-0.021568 0.139017 -0.22585
-0.020577 0.1390315 -0.22584149
-0.020344 0.139016 -0.225842
-0.01928 0.139026 -0.225843
-0.03648467 0.13930701 -0.22584333
-0.036249001 0.13921601 -0.22590201
-0.036118999 0.139222 -0.225802
-0.034664497 0.1392085 -0.22582349
-0.034581002 0.139201 -0.22583599
-0.033636998 0.139218 -0.22580899
-0.033541001 0.13921167 -0.22582267
-0.033119999 0.139256 -0.225842
-0.032877199 0.13929442 -0.22589321
-0.0326932 0.13930999 -0.22590399
-0.032461334 0.13928799 -0.22588067
-0.032094002 0.13926999 -0.225833
-0.031870998 0.13928649 -0.2259025
-0.031693 0.13931365 -0.22587466
-0.0314992 0.13931181 -0.22590581
-0.031279501 0.13931701 -0.225913
-0.0310985 0.1393075 -0.22592899
-0.030913332 0.13933234 -0.22594766
-0.030709999 0.139368 -0.225949
-0.030522142 0.13934843 -0.22594987
-0.030298 0.13933399 -0.2259005
-0.030121999 0.13928734 -0.22592668
-0.029988501 0.139314 -0.22592899
-0.029707499 0.1392995 -0.225944
-0.029516714 0.1393123 -0.22594343
-0.02935775 0.13934875 -0.22593474
-0.029158 0.1393365 -0.22594899
-0.028986 0.13936099 -0.22595
-0.028676499 0.139341 -0.22598299
-0.028506858 0.13930401 -0.22595486
-0.028319836 0.13929416 -0.22591434
-0.0281145 0.13928375 -0.2258895
-0.027922668 0.13931233 -0.22587033
-0.027698889 0.13929288 -0.2258949
-0.027521001 0.13931966 -0.22589433
-0.027302001 0.13930826 -0.22589226
-0.027097501 0.13929574 -0.2259125
-0.026910499 0.13928376 -0.22593451
-0.026699664 0.13930799 -0.22594135
-0.026433667 0.13929166 -0.22589631
-0.026284199 0.1392718 -0.2258614
-0.026108 0.13920799 -0.22586501
-0.025478 0.139248 -0.22580101
-0.025341999 0.13923901 -0.22581801
-0.024946 0.139211 -0.22586399
-0.024706999 0.13928632 -0.22584383
-0.024514001 0.13926101 -0.225832
-0.022662999 0.13923 -0.22582699
-0.022546999 0.13922299 -0.225851
-0.037140999 0.13954601 -0.225991
-0.036961 0.139544 -0.225932
-0.032745998 0.13945299 -0.22580101
-0.031558 0.13945501 -0.225822
-0.03128 0.139437 -0.225804
-0.031097 0.1394625 -0.22582901
-0.030900287 0.13946386 -0.22586787
-0.030709667 0.13949834 -0.225851
-0.030535145 0.13949513 -0.22583985
-0.030258 0.139449 -0.225806
-0.030121502 0.1394445 -0.225815
-0.029989 0.139433 -0.225816
-0.029705999 0.1394555 -0.2258395
-0.029528717 0.139447 -0.22585486
-0.029356999 0.139467 -0.2258535
-0.029158 0.13945401 -0.22585601
-0.028985001 0.13951766 -0.22584467
-0.028674999 0.13949566 -0.22589117
-0.028534111 0.13947299 -0.22587766
-0.028336 0.139431 -0.225826
-0.027055001 0.13940901 -0.225831
-0.02691 0.139402 -0.225844
-0.0266985 0.13946401 -0.22583249
-0.037430502 0.1397405 -0.22597599
-0.0373355 0.13974075 -0.2259395
-0.037140667 0.13970266 -0.22586699
-0.036960497 0.13966051 -0.225849
-0.0094794277 0.13968086 -0.22591472
-0.037462335 0.13994683 -0.22596835
-0.037331752 0.13988751 -0.22590651
-0.0093379999 0.13989051 -0.22588724
-0.0376365 0.1401145 -0.22597501
-0.037478831 0.14011349 -0.22588666
-0.037341002 0.14002667 -0.22583933
-0.0092195002 0.14014199 -0.22585601
-0.037633669 0.14030434 -0.22588867
-0.037509002 0.1402846 -0.22584939
-0.037631001 0.14045499 -0.225825
-0.0091169998 0.14046399 -0.225842
-0.019655 0.13898399 -0.22578201
-0.01843 0.13896567 -0.22571166
-0.01830925 0.13895075 -0.22570574
-0.018151334 0.13894866 -0.22573799
-0.017944001 0.138955 -0.22578999
-0.016894501 0.13898149 -0.22564951
-0.016685 0.138972 -0.225628
-0.016590999 0.13896599 -0.22564401
-0.03562 0.139194 -0.225787
-0.035514668 0.13918866 -0.22576433
-0.035361998 0.13917699 -0.225777
-0.035068002 0.13916101 -0.225798
-0.034298003 0.13918701 -0.22577551
-0.034088001 0.13917801 -0.22576001
-0.033909 0.139166 -0.22578999
-0.024034999 0.139165 -0.22579101
-0.023248501 0.139192 -0.22577
-0.023111001 0.139182 -0.225797
-0.022023 0.139135 -0.225684
-0.0218485 0.13915551 -0.225722
-0.021682166 0.13914566 -0.22572033
-0.021506334 0.13913234 -0.22574967
-0.021019001 0.13910401 -0.225743
-0.020843999 0.13909701 -0.22573
-0.020706249 0.13908125 -0.2257615
-0.020522702 0.1391252 -0.22574261
-0.020346999 0.13914299 -0.22567701
-0.020097001 0.13916899 -0.22564401
-0.01962875 0.139102 -0.22568426
-0.019485999 0.13909462 -0.22567226
-0.019278001 0.13903899 -0.2257295
-0.019051 0.13906574 -0.22569899
-0.018919334 0.13909666 -0.225684
-0.018480001 0.13907166 -0.22565635
-0.018293001 0.13908766 -0.22566032
-0.018137001 0.13905349 -0.225647
-0.017899001 0.13903801 -0.22568433
-0.0176755 0.13902551 -0.22566549
-0.017587001 0.139102 -0.225604
-0.010454667 0.13904166 -0.22563465
-0.010263 0.139174 -0.225641
-0.03625175 0.1393435 -0.2257365
-0.036067799 0.13931319 -0.22571981
-0.035891499 0.13929017 -0.22572534
-0.035691749 0.13929226 -0.22569551
-0.035514165 0.1393065 -0.22568066
-0.035361998 0.13929625 -0.225684
-0.035067335 0.13931733 -0.22568701
-0.034715425 0.13931271 -0.22574686
-0.03452757 0.13929929 -0.22573556
-0.034299001 0.13930725 -0.22566473
-0.034074336 0.13928467 -0.22566067
-0.033899199 0.1393078 -0.22567001
-0.03370925 0.13931412 -0.22569661
-0.033542003 0.1393335 -0.22569901
-0.033121001 0.139337 -0.225771
-0.032938 0.139397 -0.22579201
-0.032094002 0.139348 -0.225771
-0.028069999 0.13939901 -0.225794
-0.026236 0.139367 -0.22576199
-0.026109001 0.13932875 -0.22574824
-0.025921 0.1393185 -0.22574699
-0.0257445 0.13930875 -0.22575775
-0.025445668 0.13930066 -0.22575666
-0.025330333 0.13934232 -0.22573733
-0.024945501 0.13933051 -0.2257725
-0.024608999 0.139349 -0.22577
-0.024514999 0.13934299 -0.22574601
-0.024294749 0.13929825 -0.22570148
-0.02408025 0.13928899 -0.22567849
-0.023908 0.139274 -0.22569075
-0.023696 0.13926484 -0.22570068
-0.023501251 0.13928051 -0.22569838
-0.023304 0.13929901 -0.22566946
-0.02306775 0.13929999 -0.22568901
-0.022890251 0.1392875 -0.2257355
-0.022662001 0.13934651 -0.225756
-0.0225465 0.13933951 -0.22577101
-0.022021499 0.13924849 -0.2256235
-0.021848001 0.139274 -0.225623
-0.021507999 0.13925533 -0.225612
-0.021020001 0.13922399 -0.22563601
-0.020846 0.139219 -0.225601
-0.020671999 0.13922767 -0.22563134
-0.020508334 0.13926534 -0.22563334
-0.0364815 0.139496 -0.225752
-0.036250003 0.139497 -0.22564299
-0.036076002 0.13945499 -0.22561249
-0.035842001 0.139443 -0.225612
-0.035682332 0.13943467 -0.22561233
-0.035567001 0.13942701 -0.225611
-0.035361499 0.139411 -0.2256065
-0.03470267 0.13944367 -0.22566633
-0.034534331 0.13943601 -0.22561967
-0.033638 0.139456 -0.22560599
-0.033567 0.1394525 -0.22561499
-0.033120498 0.1394545 -0.225678
-0.032886501 0.1395075 -0.22573149
-0.032658331 0.13950634 -0.22572233
-0.0324625 0.139489 -0.225687
-0.032092333 0.13950266 -0.22567832
-0.03187133 0.13948533 -0.22573002
-0.031692248 0.13950899 -0.22573249
-0.031491667 0.13950466 -0.22575967
-0.031279501 0.1395545 -0.225722
-0.031096 0.139579 -0.22575299
-0.0309535 0.139568 -0.225784
-0.030653 0.13955 -0.225787
-0.030455999 0.139539 -0.225761
-0.030310668 0.13950466 -0.22577466
-0.030106001 0.139548 -0.225733
-0.029988 0.13955051 -0.22574049
-0.029705999 0.13957299 -0.22575501
-0.02951875 0.13955826 -0.22576374
-0.029356498 0.1395455 -0.225788
-0.029158 0.139533 -0.225794
-0.028455667 0.13954301 -0.22577266
-0.028304001 0.13953421 -0.22575621
-0.028122798 0.1394968 -0.22572219
-0.02792225 0.13951001 -0.225712
-0.027698167 0.13948967 -0.22574665
-0.027520778 0.13951746 -0.22573699
-0.027302332 0.13950767 -0.22571982
-0.027106002 0.1395116 -0.22572999
-0.02690975 0.13951924 -0.22575749
-0.026699999 0.1395475 -0.2257255
-0.026436001 0.13949651 -0.22567201
-0.026268 0.1395082 -0.22566161
-0.026094332 0.13947301 -0.22564034
-0.025936665 0.13946234 -0.22564267
-0.025729666 0.13945232 -0.22565199
-0.025452498 0.1394425 -0.22566774
-0.025353665 0.13945 -0.22564733
-0.024944 0.139485 -0.225674
-0.024690125 0.13950112 -0.22565225
-0.024514999 0.1394605 -0.22564301
-0.024374999 0.139419 -0.22563501
-0.022890501 0.1394065 -0.2256345
-0.022661 0.139465 -0.22567099
-0.022547999 0.13946401 -0.22563399
-0.036959 0.13977601 -0.225775
-0.036697667 0.13970333 -0.22566433
-0.036483001 0.13961799 -0.225628
-0.036292002 0.13961101 -0.225612
-0.032886501 0.1396265 -0.22562701
-0.032680001 0.13961101 -0.22565199
-0.031870499 0.13964149 -0.22562599
-0.031679001 0.13965 -0.22563899
-0.0315172 0.139671 -0.22565702
-0.0312775 0.13970649 -0.22564101
-0.031096 0.13969651 -0.22566101
-0.030900875 0.13971189 -0.22568174
-0.030694334 0.13970618 -0.22569966
-0.030536124 0.13966724 -0.22571176
-0.03029575 0.1396455 -0.22568251
-0.030120499 0.13967851 -0.22564475
-0.029986501 0.13970649 -0.225638
-0.029704999 0.13968951 -0.22567201
-0.029524362 0.13970818 -0.22565474
-0.029356332 0.1397025 -0.22566368
-0.029156333 0.13968767 -0.22570099
-0.028984001 0.13971201 -0.22571501
-0.028673749 0.13969074 -0.22574826
-0.028504666 0.13969833 -0.22569868
-0.028326426 0.139698 -0.22565529
-0.028113499 0.1396375 -0.22561151
-0.0279215 0.13962701 -0.2256325
-0.027681202 0.1396378 -0.225632
-0.02751925 0.1396915 -0.22562625
-0.0273015 0.1396635 -0.2256095
-0.027097501 0.13965151 -0.22562349
-0.02690975 0.13967749 -0.22563002
-0.026727 0.13965632 -0.22562467
-0.026317 0.13960201 -0.225603
-0.0096225003 0.139679 -0.22568899
-0.0095453328 0.13975267 -0.22574501
-0.037137002 0.13989151 -0.2257815
-0.036958501 0.139893 -0.22569099
-0.030995 0.139806 -0.225602
-0.028983001 0.13982999 -0.225623
-0.028685333 0.13983434 -0.22564566
-0.028547799 0.13983279 -0.2256324
-0.0094698574 0.13989115 -0.22567999
-0.0093679996 0.139981 -0.225731
-0.037316665 0.14012766 -0.22578366
-0.037134334 0.140081 -0.22568333
-0.036956999 0.140009 -0.22563
-0.0093299998 0.14007632 -0.22571367
-0.037432 0.1403185 -0.22577649
-0.037323836 0.14030135 -0.22572298
-0.0092503335 0.14026867 -0.22569333
-0.037629001 0.14052901 -0.225797
-0.037469886 0.14052302 -0.22574043
-0.037318502 0.14052317 -0.22565816
-0.0092179999 0.1404545 -0.2256255
-0.0091169998 0.140541 -0.225794
-0.037625 0.14067566 -0.22576468
-0.037464999 0.14070834 -0.22568667
-0.037314501 0.14067149 -0.22561049
-0.0091150003 0.14069633 -0.22569834
-0.037618998 0.14089668 -0.225706
-0.037476569 0.14088143 -0.22565329
-0.0091129998 0.140848 -0.225629
-0.037612002 0.14111567 -0.22566466
-0.037496753 0.141094 -0.225621
-0.037607498 0.14129899 -0.225612
-0.0089809997 0.146484 -0.22561
-0.037393 0.146769 -0.22560599
-0.0089619998 0.14695051 -0.22563601
-0.0089579998 0.14706001 -0.225624
-0.0089039998 0.148431 -0.225621
-0.0088919997 0.148756 -0.2256165
-0.037831001 0.15639099 -0.225722
-0.037787665 0.15631533 -0.22562833
-0.037827 0.156499 -0.2257145
-0.037781499 0.156495 -0.225609
-0.037820999 0.15667801 -0.225688
-0.037814666 0.156893 -0.22564232
-0.037808999 0.15703499 -0.225647
-0.037801001 0.157249 -0.225632
-0.037796997 0.15735701 -0.225633
-0.037794001 0.157464 -0.22560699
-0.037784334 0.15767866 -0.22563201
-0.037780501 0.15914801 -0.22564299
-0.037826002 0.1592945 -0.225675
-0.037773669 0.15932666 -0.22563632
-0.037822001 0.1594 -0.225664
-0.037767999 0.15947001 -0.225646
-0.037811998 0.15968533 -0.22563334
-0.037763 0.159613 -0.22561499
-0.037797999 0.160043 -0.225631
-0.037819002 0.160762 -0.225629
-0.037814498 0.160869 -0.225619
-0.037864499 0.161304 -0.225633
-0.012542 0.138688 -0.22540399
-0.016409 0.138973 -0.225492
-0.01608 0.138952 -0.225503
-0.01068 0.138989 -0.225585
-0.019284332 0.13913032 -0.225568
-0.0190525 0.1391875 -0.225573
-0.018479334 0.13915066 -0.22559266
-0.018347001 0.139148 -0.225585
-0.018093333 0.13913865 -0.22551465
-0.017852999 0.139121 -0.22555849
-0.017691335 0.13914134 -0.22549534
-0.017560333 0.13915734 -0.225501
-0.017261334 0.13909267 -0.2255
-0.017137598 0.13910159 -0.225494
-0.0168765 0.1390885 -0.225494
-0.016674666 0.13908601 -0.225464
-0.016532334 0.13907902 -0.22545801
-0.016168 0.139037 -0.225437
-0.015951 0.139027 -0.225428
-0.015716 0.13901199 -0.22545134
-0.015567 0.13900149 -0.225445
-0.010856 0.139015 -0.22545099
-0.01066525 0.13907 -0.22550499
-0.010494401 0.13911359 -0.22553921
-0.034132 0.139341 -0.22559801
-0.023908 0.13939449 -0.2255865
-0.023696667 0.13938433 -0.22559166
-0.023430999 0.139369 -0.22559801
-0.022020999 0.139368 -0.225531
-0.021849999 0.139356 -0.225529
-0.021683834 0.13930784 -0.22555268
-0.021508999 0.13933733 -0.22552268
-0.0210205 0.13934401 -0.22552399
-0.020846 0.13933849 -0.22549799
-0.020686802 0.13933019 -0.2255294
-0.020510001 0.13934834 -0.225532
-0.020347999 0.1393045 -0.22552299
-0.0201005 0.13929501 -0.225475
-0.019625599 0.1392874 -0.2254988
-0.019486582 0.13929366 -0.22549857
-0.019282557 0.13928378 -0.22547811
-0.01905225 0.13930625 -0.22548024
-0.018920001 0.1392965 -0.225508
-0.018490715 0.13928656 -0.22549529
-0.018321665 0.13925433 -0.22547233
-0.018093999 0.13921967 -0.22543734
-0.017854501 0.13920501 -0.2254585
-0.010607 0.139221 -0.22541501
-0.010464001 0.1392325 -0.22544916
-0.0102665 0.139302 -0.22547001
-0.036074497 0.13953149 -0.2255775
-0.035890501 0.13952374 -0.22555926
-0.035680998 0.13955049 -0.22554266
-0.035505626 0.13950825 -0.22555
-0.035360247 0.1395275 -0.22553402
-0.035066001 0.139512 -0.22555199
-0.034684502 0.13954225 -0.225584
-0.034534004 0.13955317 -0.22553349
-0.034298331 0.13950351 -0.22551584
-0.034087334 0.13949284 -0.22551715
-0.033917602 0.13949481 -0.22554879
-0.033712797 0.1395074 -0.22556159
-0.033520401 0.13952601 -0.22556141
-0.033119999 0.139571 -0.22559699
-0.026149999 0.13952699 -0.22559699
-0.025904333 0.13956635 -0.22555535
-0.025757998 0.139558 -0.22556566
-0.025451999 0.139559 -0.2255825
-0.0253415 0.1395525 -0.2255795
-0.024608999 0.139584 -0.22558001
-0.024514999 0.13958 -0.22554401
-0.024279 0.139513 -0.22550699
-0.024080167 0.13948701 -0.22551566
-0.023908 0.139512 -0.22549
-0.023695668 0.13950101 -0.22551799
-0.023493834 0.13948983 -0.22551233
-0.02329189 0.13951389 -0.22548679
-0.023068501 0.1394995 -0.22551133
-0.02289075 0.13952674 -0.22552425
-0.022662999 0.139548 -0.22555301
-0.022462999 0.13951634 -0.22548334
-0.022022 0.139448 -0.22545899
-0.021850999 0.13944 -0.225437
-0.02166725 0.13944526 -0.2254425
-0.021508167 0.13945401 -0.22544016
-0.021018501 0.1394985 -0.225427
-0.020842999 0.1394895 -0.22543901
-0.020678002 0.13950112 -0.22546226
-0.020535572 0.1394957 -0.22543044
-0.018920001 0.139415 -0.22541
-0.036480501 0.1397315 -0.22557899
-0.036239397 0.13970561 -0.22550699
-0.036072168 0.13968267 -0.22550149
-0.035897601 0.1396908 -0.22548401
-0.035678502 0.13970201 -0.22546601
-0.035509337 0.13968934 -0.22545934
-0.035350598 0.13970201 -0.22544019
-0.0350645 0.13966751 -0.22544801
-0.034711752 0.13969137 -0.22546211
-0.034542602 0.13970061 -0.22543781
-0.034297001 0.139658 -0.2254145
-0.034085501 0.1396455 -0.22543201
-0.033905499 0.13967 -0.22544751
-0.033698004 0.13968913 -0.2254639
-0.033545002 0.13969013 -0.22548075
-0.033119 0.139687 -0.225521
-0.032886501 0.139745 -0.22553425
-0.032679752 0.1397285 -0.22555774
-0.032460999 0.13968299 -0.22556134
-0.032090999 0.13969651 -0.225541
-0.031869251 0.13975599 -0.22555599
-0.031702332 0.13975534 -0.22557633
-0.031456999 0.139761 -0.225578
-0.030502999 0.13975951 -0.22558451
-0.030295499 0.139763 -0.22558799
-0.030165 0.13975701 -0.22559901
-0.029448999 0.139788 -0.225585
-0.028281 0.139798 -0.225575
-0.028112501 0.13975275 -0.22554027
-0.02792025 0.13974151 -0.2255605
-0.027718002 0.139745 -0.22556749
-0.0275195 0.1397505 -0.225577
-0.027300499 0.1397405 -0.22556651
-0.027097501 0.13973001 -0.2255635
-0.0269095 0.13979501 -0.2255355
-0.026674667 0.13975833 -0.225537
-0.026434666 0.13969034 -0.225541
-0.026275001 0.13971975 -0.22551
-0.026107499 0.13968167 -0.22548352
-0.025918748 0.139707 -0.22547951
-0.025742 0.13969849 -0.225483
-0.025451167 0.139715 -0.22547282
-0.025339833 0.13970651 -0.22548099
-0.024943667 0.13967967 -0.225531
-0.024679167 0.13970317 -0.22553001
-0.024514999 0.139658 -0.225474
-0.023907499 0.13962901 -0.22541049
-0.023695668 0.13961901 -0.22542034
-0.023492999 0.139607 -0.22543333
-0.022891 0.1396455 -0.2254235
-0.022667 0.13963699 -0.225407
-0.036695 0.139893 -0.225568
-0.036478002 0.13992099 -0.22547467
-0.036260996 0.13986866 -0.22542234
-0.0360705 0.13983551 -0.22541051
-0.035884999 0.139826 -0.225416
-0.035676666 0.13981533 -0.22541468
-0.035560999 0.139806 -0.225419
-0.033631999 0.139835 -0.225407
-0.033561498 0.13983351 -0.22541299
-0.033117998 0.139805 -0.22543401
-0.032901999 0.13988833 -0.225437
-0.032664999 0.1399062 -0.22544101
-0.032458998 0.1398745 -0.225449
-0.032087997 0.13988566 -0.22544968
-0.031867251 0.13990876 -0.22547001
-0.031687751 0.139893 -0.22550525
-0.031504501 0.13991599 -0.22551203
-0.031275 0.13989834 -0.22552769
-0.031094333 0.13989033 -0.22553466
-0.030910166 0.13991667 -0.22553433
-0.030693751 0.13990125 -0.22555199
-0.030523874 0.13989225 -0.22553436
-0.030293502 0.13991433 -0.22551365
-0.030116834 0.13990667 -0.22552717
-0.029984333 0.13989566 -0.22553734
-0.029703001 0.13988234 -0.22555435
-0.029514875 0.13990387 -0.22556125
-0.029353749 0.13989376 -0.22556426
-0.029154666 0.13992034 -0.22554334
-0.028982501 0.13994551 -0.22555399
-0.028661666 0.13993901 -0.22555368
-0.028496169 0.1399335 -0.22551733
-0.028315334 0.13991582 -0.22549351
-0.028110251 0.13990524 -0.225462
-0.027918249 0.13989426 -0.22547951
-0.027694223 0.13991398 -0.22547933
-0.027516998 0.13990267 -0.2254969
-0.027298832 0.13989349 -0.22547649
-0.027095167 0.13988267 -0.22547549
-0.026908748 0.1399115 -0.22545326
-0.026727 0.13989401 -0.22543001
-0.026434001 0.139847 -0.225425
-0.026275001 0.1398375 -0.22541401
-0.026063001 0.139832 -0.22540601
-0.025917001 0.13982201 -0.2254205
-0.025740501 0.139814 -0.22541951
-0.024941999 0.139835 -0.225426
-0.024766 0.139827 -0.225411
-0.0096230004 0.13987966 -0.22551067
-0.0095380004 0.1399395 -0.2255775
-0.036954999 0.14012051 -0.22558099
-0.036690999 0.14007933 -0.22550035
-0.036474999 0.140071 -0.225412
-0.031849001 0.14004534 -0.22541767
-0.031685501 0.14004299 -0.2254355
-0.031518336 0.14009333 -0.22542699
-0.031273 0.14005101 -0.225438
-0.0310915 0.1400815 -0.225429
-0.030907858 0.14008556 -0.2254447
-0.030691167 0.14009283 -0.22544317
-0.030531 0.1400685 -0.22543649
-0.030277334 0.14008966 -0.22543067
-0.030114001 0.14009599 -0.22543375
-0.029981501 0.14008549 -0.22544199
-0.029699333 0.14010833 -0.22544666
-0.029511586 0.14009275 -0.22547306
-0.029350834 0.14008199 -0.22547249
-0.029152 0.14010951 -0.225445
-0.028981 0.1400985 -0.22545299
-0.028679799 0.14010581 -0.225439
-0.028530888 0.1400952 -0.2254359
-0.028314 0.14002967 -0.22542866
-0.028108001 0.140017 -0.22542399
-0.027932333 0.14003332 -0.22542132
-0.027649499 0.1400615 -0.2254155
-0.027514666 0.14005466 -0.22541833
-0.0272965 0.140045 -0.2254025
-0.026954999 0.140025 -0.22540399
-0.0094932001 0.14008941 -0.22548731
-0.0093700001 0.140145 -0.22555301
-0.037131 0.14030868 -0.22557533
-0.036951002 0.14030699 -0.22550867
-0.036687501 0.14026749 -0.225416
-0.029532 0.140246 -0.22540601
-0.029317999 0.140231 -0.225407
-0.029149 0.140222 -0.225408
-0.0094224997 0.1402685 -0.225425
-0.0093454001 0.14030841 -0.2254924
-0.037125997 0.1404925 -0.22552299
-0.036945999 0.14049199 -0.22545999
-0.0092855003 0.14052625 -0.22548276
-0.037312999 0.140746 -0.2255805
-0.037121665 0.140678 -0.22545934
-0.036941998 0.14063799 -0.225427
-0.0092139998 0.14072199 -0.22548334
-0.037401997 0.14092749 -0.225587
-0.037309166 0.14089251 -0.22554885
-0.037116997 0.140863 -0.2254065
-0.0092110001 0.140873 -0.225421
-0.0091110002 0.14092299 -0.22559901
-0.037453502 0.14114651 -0.22558349
-0.037333891 0.14111069 -0.22552313
-0.0091080004 0.141074 -0.22553301
-0.037477251 0.14129451 -0.225563
-0.037328668 0.14129333 -0.22548418
-0.0091030002 0.14129767 -0.22545798
-0.037602499 0.141445 -0.22559249
-0.037489433 0.14148714 -0.22554629
-0.037322447 0.14147513 -0.22545868
-0.0090966662 0.14151765 -0.225411
-0.037507668 0.14169534 -0.22552466
-0.037324376 0.14168388 -0.22542538
-0.037499998 0.14191134 -0.2255049
-0.037356749 0.1418905 -0.22542325
-0.037483003 0.14210728 -0.22548087
-0.037365999 0.14205401 -0.225408
-0.037495624 0.14228088 -0.2254815
-0.0373565 0.142305 -0.225402
-0.037478335 0.14248544 -0.22548646
-0.037491284 0.142691 -0.22548057
-0.037398502 0.1427345 -0.22542951
-0.037497167 0.1429155 -0.22549599
-0.037391003 0.14291167 -0.22544466
-0.037490502 0.14309449 -0.22549075
-0.037382666 0.14312601 -0.22544199
-0.03748383 0.14327316 -0.22548701
-0.037376001 0.143305 -0.22543401
-0.0090235006 0.143355 -0.225427
-0.037475001 0.14348783 -0.22548999
-0.037344798 0.14349601 -0.22542819
-0.0090180002 0.143498 -0.22542951
-0.0374665 0.14370117 -0.22549717
-0.037345752 0.14367852 -0.22544277
-0.0090100011 0.143677 -0.22544099
-0.0374575 0.14391418 -0.22550701
-0.037351001 0.14390968 -0.22545733
-0.037501499 0.14409399 -0.225531
-0.037347998 0.14413275 -0.22546539
-0.037494 0.14427167 -0.22554167
-0.037345201 0.14431021 -0.225473
-0.037485 0.144485 -0.22554934
-0.037327558 0.14448121 -0.22545634
-0.037475999 0.14469866 -0.22556834
-0.037306499 0.1446936 -0.22547281
-0.037197001 0.14476199 -0.22542299
-0.0090579996 0.144765 -0.22541501
-0.037467334 0.14491367 -0.22556901
-0.037309002 0.14490767 -0.22549023
-0.037192333 0.144905 -0.22541267
-0.0090509998 0.144906 -0.22545266
-0.03745833 0.14512666 -0.225582
-0.037300222 0.14512089 -0.22550313
-0.037148837 0.14511867 -0.22542302
-0.0090426663 0.14512266 -0.22545068
-0.0374505 0.14530399 -0.22559801
-0.037292335 0.14529735 -0.22552283
-0.037141249 0.14529599 -0.22543675
-0.0090350006 0.1453025 -0.22546449
-0.037443668 0.14548333 -0.22559799
-0.037285555 0.1454771 -0.22551411
-0.037134666 0.14547549 -0.225429
-0.0090290001 0.14548399 -0.22544134
-0.037435334 0.14569734 -0.22559701
-0.037277333 0.14569168 -0.22551213
-0.037126001 0.14568917 -0.225428
-0.0090166666 0.14569567 -0.22551833
-0.037426997 0.14591266 -0.225595
-0.037269335 0.14590667 -0.22549979
-0.037117999 0.145904 -0.22542065
-0.0090083331 0.14591168 -0.225519
-0.037418667 0.14612733 -0.22558333
-0.037261333 0.14612179 -0.22549123
-0.037127748 0.14610125 -0.22541749
-0.0090030003 0.14605799 -0.225504
-0.037412502 0.14630699 -0.22557399
-0.037282251 0.1463 -0.2255225
-0.037167501 0.14629799 -0.225429
-0.0090833334 0.14628233 -0.22541766
-0.0089905001 0.14630601 -0.22556099
-0.037407 0.14648767 -0.22553867
-0.037275832 0.14647999 -0.22551049
-0.0371674 0.1464624 -0.2254276
-0.0090739997 0.14649767 -0.22542934
-0.0089870002 0.146415 -0.22556201
-0.037400998 0.14662801 -0.22555301
-0.037285857 0.14669487 -0.22551557
-0.037152335 0.14669116 -0.22542435
-0.0090650003 0.146713 -0.22543867
-0.037301887 0.14691013 -0.225536
-0.037143502 0.14690433 -0.22543435
-0.0090574995 0.14689299 -0.22544399
-0.037284624 0.14711738 -0.22549462
-0.037166666 0.14712165 -0.22541666
-0.0090499995 0.14707267 -0.22546034
-0.037301 0.14729042 -0.22550771
-0.03713933 0.14728734 -0.22541833
-0.0090410002 0.14728801 -0.22547567
-0.037281226 0.14748423 -0.22549589
-0.037153997 0.147443 -0.22541201
-0.0090316655 0.14750333 -0.22549033
-0.03727378 0.14769989 -0.22547467
-0.0090213334 0.14771734 -0.22552867
-0.037301168 0.14791684 -0.22548568
-0.037194669 0.14791133 -0.22543268
-0.009017 0.147901 -0.22546551
-0.0372945 0.1480955 -0.22547174
-0.0371885 0.14809 -0.225419
-0.0090113329 0.14808233 -0.22543667
-0.037288334 0.14827584 -0.22545284
-0.0090039996 0.14822499 -0.225482
-0.0089974999 0.148331 -0.22552401
-0.037280332 0.14849032 -0.22544567
-0.0089555997 0.14852402 -0.22553501
-0.037299749 0.14868949 -0.22542349
-0.008954999 0.14867833 -0.22553599
-0.037315 0.148996 -0.225407
-0.0089421999 0.1488858 -0.22551779
-0.037310001 0.149102 -0.22541299
-0.0089255003 0.14908718 -0.22552334
-0.037303001 0.14928 -0.22541468
-0.0089353332 0.149259 -0.22546865
-0.0089480001 0.14970651 -0.2254315
-0.0089039998 0.14989679 -0.225486
-0.0088449996 0.150171 -0.225436
-0.008839 0.15031467 -0.22544234
-0.0088305008 0.15049401 -0.22545999
-0.0088250004 0.15067551 -0.22542849
-0.0088169994 0.15089135 -0.225425
-0.008812 0.15103599 -0.225409
-0.037652001 0.156168 -0.225522
-0.037648004 0.15631168 -0.22549766
-0.037640002 0.15652567 -0.22548334
-0.037719 0.1566858 -0.22553881
-0.037698667 0.15688534 -0.22549534
-0.037690002 0.15710001 -0.22549665
-0.037682164 0.157314 -0.22548467
-0.037682835 0.15751651 -0.22548182
-0.037738997 0.15767233 -0.22553067
-0.037597001 0.1577045 -0.225418
-0.037733 0.15781599 -0.22554301
-0.037590001 0.15788233 -0.225419
-0.037719503 0.1581375 -0.2255535
-0.037581664 0.15809667 -0.22541833
-0.037715003 0.15828 -0.22552299
-0.037698999 0.15870851 -0.22551599
-0.037711002 0.1589032 -0.2255244
-0.037709165 0.15910383 -0.22549967
-0.037712999 0.15930149 -0.22552425
-0.037672497 0.159492 -0.225416
-0.037713144 0.15967715 -0.22549999
-0.037805665 0.15989934 -0.22558968
-0.037730336 0.15989368 -0.22550666
-0.037696667 0.16010566 -0.22546934
-0.037689332 0.16031902 -0.22545034
-0.037722401 0.1605092 -0.2254992
-0.037718572 0.16068058 -0.22550215
-0.037744835 0.16089667 -0.22549599
-0.037808001 0.16118699 -0.22550499
-0.037729334 0.16113333 -0.22544533
-0.037803501 0.161295 -0.22551
-0.0377445 0.16132376 -0.22542626
-0.037766997 0.16146867 -0.22544734
-0.03779 0.161685 -0.225457
-0.037836999 0.16226099 -0.225416
-0.037909001 0.162553 -0.225454
-0.037906997 0.1626575 -0.2254135
-0.0127055 0.1387845 -0.22527701
-0.012515 0.13873272 -0.22534041
-0.012314999 0.13872859 -0.2252824
-0.012106 0.13870925 -0.2253115
-0.0119325 0.1387305 -0.2253345
-0.011713001 0.13877399 -0.22529334
-0.0149405 0.13898051 -0.225301
-0.014796 0.138971 -0.225307
-0.0136825 0.13883901 -0.2252965
-0.0135426 0.1388444 -0.225283
-0.013321667 0.138817 -0.22528566
-0.012544 0.13885234 -0.22521466
-0.012238 0.13882899 -0.225263
-0.0121045 0.138823 -0.22525451
-0.011916667 0.13883667 -0.22523968
-0.011712332 0.13885167 -0.22523832
-0.011547999 0.1388585 -0.2252835
-0.011391 0.13892099 -0.225262
-0.016941 0.139157 -0.22538599
-0.016729999 0.139146 -0.225399
-0.016409 0.13913199 -0.225354
-0.016103499 0.13911724 -0.22532825
-0.015902834 0.139149 -0.22527999
-0.01567775 0.13913651 -0.2252835
-0.015519715 0.13910672 -0.22529614
-0.015114 0.13907349 -0.225243
-0.0149395 0.1390585 -0.225252
-0.014796 0.139052 -0.225237
-0.014532 0.139038 -0.22522101
-0.011131 0.13906001 -0.225225
-0.010858 0.139137 -0.225319
-0.010739666 0.13913868 -0.225357
-0.019657999 0.13938899 -0.22537699
-0.018438999 0.1393885 -0.22537649
-0.018296333 0.13936032 -0.22536235
-0.018096 0.13934383 -0.225291
-0.017856751 0.13932951 -0.2253045
-0.0176744 0.13929559 -0.22531059
-0.017570751 0.139312 -0.22530901
-0.017261 0.1392905 -0.225348
-0.017117999 0.13930801 -0.2253094
-0.016898334 0.13931012 -0.22528622
-0.016687 0.13929532 -0.22531651
-0.016520001 0.1392746 -0.22529021
-0.016171001 0.139203 -0.225244
-0.0106706 0.1392988 -0.225269
-0.010496333 0.13934417 -0.22533001
-0.022022 0.13952599 -0.22538701
-0.0218505 0.13955751 -0.22534001
-0.021697398 0.13955399 -0.22534558
-0.021507666 0.13957034 -0.22536266
-0.020480001 0.13955866 -0.22534734
-0.020349333 0.139506 -0.225325
-0.020100333 0.13949233 -0.22531767
-0.019630751 0.13950101 -0.2253235
-0.019487126 0.13949338 -0.22531675
-0.019272376 0.13950838 -0.22531201
-0.019052833 0.13950534 -0.22530448
-0.018920001 0.139533 -0.22531101
-0.018493999 0.13949999 -0.22530022
-0.018309999 0.13946849 -0.22526
-0.018141001 0.1394605 -0.225226
-0.017857 0.139448 -0.22520399
-0.017680999 0.1394355 -0.22521949
-0.017569501 0.1394265 -0.225238
-0.017262001 0.13941 -0.225228
-0.017178001 0.13940699 -0.22523101
-0.01698 0.139465 -0.22520401
-0.016685 0.139447 -0.225238
-0.016592 0.13944399 -0.225225
-0.010607 0.139459 -0.225218
-0.010479876 0.13948537 -0.225235
-0.010267333 0.13950367 -0.22528033
-0.035454001 0.139799 -0.22538
-0.035393 0.139798 -0.225374
-0.035062999 0.139781 -0.225383
-0.034487002 0.13974801 -0.22535001
-0.034295999 0.139734 -0.2253755
-0.034070332 0.13974632 -0.22536866
-0.0339045 0.1397865 -0.2253695
-0.024515999 0.13974001 -0.225384
-0.024295248 0.139695 -0.22536325
-0.024071198 0.1397064 -0.22533882
-0.02390625 0.13974375 -0.22533876
-0.023695501 0.13973783 -0.22531916
-0.023492334 0.139723 -0.22535019
-0.023290334 0.13970716 -0.225362
-0.0230675 0.13969499 -0.2253665
-0.022892 0.13972551 -0.2253415
-0.022666499 0.1397545 -0.22531649
-0.022486666 0.13970618 -0.22530366
-0.022021333 0.13968199 -0.22527732
-0.0218485 0.139709 -0.2252585
-0.021681836 0.13969816 -0.22526951
-0.021506334 0.13968582 -0.22528999
-0.021018 0.13969333 -0.22528733
-0.020839998 0.13967834 -0.22534467
-0.020668669 0.13970535 -0.22531033
-0.0205178 0.13969299 -0.22527799
-0.020349 0.139661 -0.225205
-0.019630499 0.13961899 -0.225229
-0.019487001 0.13961075 -0.22522175
-0.019357 0.13960101 -0.225227
-0.018920001 0.139653 -0.225207
-0.018561 0.13963 -0.225224
-0.036244001 0.139956 -0.2253865
-0.036094002 0.13995579 -0.22537181
-0.035882749 0.139938 -0.22537476
-0.035674836 0.13992918 -0.22536033
-0.035506718 0.139901 -0.22534715
-0.035354748 0.13990775 -0.22533299
-0.035062499 0.1398955 -0.225316
-0.034701109 0.13991387 -0.22530974
-0.034530777 0.13989933 -0.22531611
-0.03429367 0.13988566 -0.22529717
-0.034090199 0.13988841 -0.22530779
-0.033902999 0.1399 -0.22531375
-0.033693284 0.139917 -0.22534643
-0.033527713 0.13992943 -0.22535229
-0.033116501 0.13991949 -0.225371
-0.032836001 0.139937 -0.225399
-0.032458 0.139989 -0.22538
-0.026622999 0.13993999 -0.225376
-0.026433 0.13996249 -0.22535399
-0.0262735 0.13995101 -0.22535324
-0.0261128 0.13992621 -0.2253488
-0.0259155 0.13993551 -0.22535975
-0.025739502 0.13992751 -0.22534999
-0.02544925 0.13990775 -0.225353
-0.025337752 0.13989851 -0.22536351
-0.024941999 0.13995099 -0.225337
-0.024670124 0.13991338 -0.22531974
-0.024515001 0.13989466 -0.225289
-0.024293998 0.13984975 -0.2252575
-0.02407825 0.1398755 -0.22523901
-0.023890333 0.13988434 -0.22524934
-0.023692831 0.13988934 -0.22524367
-0.0234915 0.1398775 -0.22524333
-0.023289666 0.139863 -0.225245
-0.023066752 0.13984925 -0.22526199
-0.0228814 0.1398638 -0.22525139
-0.022664499 0.1399055 -0.225234
-0.022550501 0.1399025 -0.2252225
-0.021615 0.139808 -0.22521
-0.021545 0.139805 -0.22522101
-0.020838 0.13983101 -0.225263
-0.0207015 0.1398205 -0.225247
-0.020599 0.13982099 -0.225226
-0.036472999 0.140145 -0.225394
-0.036284998 0.14010499 -0.22534999
-0.036108501 0.14009766 -0.22532433
-0.035869401 0.14010879 -0.2253112
-0.035671335 0.14011689 -0.2252762
-0.03551 0.14009675 -0.22525787
-0.035345603 0.14008239 -0.22523701
-0.035060003 0.14004749 -0.225237
-0.034697667 0.14010084 -0.22522967
-0.034536801 0.1400792 -0.22524261
-0.034265667 0.14006034 -0.22521301
-0.034069002 0.14008102 -0.22523561
-0.033898331 0.14008501 -0.22525418
-0.033701714 0.14009 -0.22526644
-0.033532005 0.14009552 -0.22528218
-0.033113334 0.14010666 -0.22529067
-0.032882664 0.14008899 -0.22533016
-0.032688402 0.1400878 -0.22535542
-0.0324555 0.14010149 -0.225337
-0.032083999 0.14011167 -0.22534502
-0.031877331 0.14014734 -0.22537267
-0.031683501 0.1401585 -0.225382
-0.031451002 0.140141 -0.225381
-0.031273 0.140128 -0.22538801
-0.031091001 0.140195 -0.225361
-0.0309065 0.1401825 -0.22539701
-0.030474 0.14015549 -0.225383
-0.03033 0.140145 -0.22539
-0.029979 0.14019801 -0.22538801
-0.028635001 0.140195 -0.225384
-0.028449999 0.14016034 -0.22537632
-0.028312 0.14014266 -0.22537851
-0.028106 0.14013 -0.22536525
-0.027897665 0.14013235 -0.22536467
-0.027711999 0.1401235 -0.22537601
-0.027513335 0.14012967 -0.22538733
-0.027294498 0.140158 -0.22534776
-0.027092 0.14011067 -0.22535683
-0.026896 0.14011601 -0.22535281
-0.026697166 0.14009167 -0.22534233
-0.026431 0.1401145 -0.22526899
-0.02627125 0.14010325 -0.225272
-0.02610225 0.14010151 -0.22525024
-0.025903201 0.14010879 -0.225269
-0.025736501 0.14011832 -0.22525549
-0.025446167 0.14009732 -0.2252555
-0.0253355 0.14008966 -0.22525533
-0.0249405 0.1401055 -0.22524101
-0.024677999 0.14009418 -0.22522502
-0.024511 0.1400815 -0.2252115
-0.0096256668 0.14012234 -0.22525866
-0.0095619997 0.14018001 -0.225354
-0.036685001 0.140378 -0.22539
-0.036469001 0.14029032 -0.22535866
-0.036280666 0.14029133 -0.22527967
-0.036103778 0.14028156 -0.22527379
-0.035884798 0.1402878 -0.22524901
-0.035666835 0.14030117 -0.22522067
-0.035525251 0.14029101 -0.22521651
-0.034572002 0.140203 -0.22520401
-0.033845 0.14023 -0.225206
-0.033673596 0.14024401 -0.2252194
-0.033534855 0.14026058 -0.22523056
-0.033109501 0.140293 -0.225214
-0.032878503 0.140314 -0.22523467
-0.032670833 0.14029582 -0.22527568
-0.032451667 0.140288 -0.225263
-0.032079 0.140296 -0.225291
-0.031858999 0.14032032 -0.22529949
-0.031680334 0.1403065 -0.22532366
-0.031498 0.14029317 -0.22533368
-0.031270001 0.14027832 -0.22532266
-0.0310895 0.1403095 -0.225292
-0.030904166 0.14029516 -0.22534834
-0.030686667 0.14031701 -0.22535501
-0.030516667 0.14030616 -0.2253447
-0.0302865 0.14029066 -0.22534466
-0.030110499 0.14028382 -0.22535032
-0.029976999 0.1403105 -0.225348
-0.029695999 0.14029649 -0.225366
-0.02950573 0.14032601 -0.22535919
-0.0293524 0.140323 -0.22536159
-0.029147498 0.1403355 -0.22534749
-0.028977668 0.14028765 -0.22536401
-0.02866875 0.14030775 -0.22535376
-0.028506998 0.14029975 -0.22534525
-0.028309001 0.14029284 -0.22531752
-0.028102333 0.14031766 -0.22528969
-0.027910834 0.1403085 -0.22529483
-0.027688 0.14029099 -0.22530167
-0.027510779 0.14028001 -0.22531822
-0.02729225 0.1403095 -0.22527425
-0.027089501 0.1403005 -0.22525999
-0.026902501 0.14028952 -0.22527625
-0.026693335 0.14031817 -0.22523634
-0.026428999 0.140228 -0.225215
-0.026281999 0.14024134 -0.22522335
-0.026141999 0.14021499 -0.225209
-0.025959 0.140203 -0.225233
-0.025691001 0.140266 -0.225201
-0.0096220002 0.140273 -0.22520401
-0.0094971247 0.140313 -0.22533938
-0.036679998 0.140522 -0.22536968
-0.036463998 0.14051333 -0.22528465
-0.036274001 0.14050899 -0.22524934
-0.036116201 0.14045881 -0.225229
-0.035919003 0.140458 -0.2252095
-0.032735001 0.14045 -0.225205
-0.032560498 0.1404935 -0.22522475
-0.032076001 0.1404455 -0.22523099
-0.031855252 0.1405075 -0.22522949
-0.031676248 0.1404925 -0.22525249
-0.031493001 0.14051633 -0.22525401
-0.031263996 0.14049999 -0.22525601
-0.031084999 0.14049566 -0.22523332
-0.030900666 0.14048301 -0.22526556
-0.03068275 0.14050373 -0.22528125
-0.030512122 0.14049213 -0.22528426
-0.030281 0.14051233 -0.22527766
-0.030105332 0.14050584 -0.22527815
-0.029972335 0.14049533 -0.22528933
-0.029692 0.14048399 -0.22528799
-0.02950375 0.140505 -0.2253
-0.029343 0.140495 -0.22529826
-0.029144334 0.14052333 -0.22526498
-0.028973 0.14051099 -0.22527801
-0.028664835 0.14049417 -0.22527766
-0.028502831 0.14048582 -0.22527599
-0.028304888 0.14047833 -0.22525112
-0.028097998 0.14050275 -0.22522901
-0.027906749 0.14049424 -0.22522449
-0.027684124 0.14050463 -0.22522825
-0.027506109 0.140504 -0.22523043
-0.027289001 0.14045826 -0.22521576
-0.027086999 0.140412 -0.22521651
-0.026900999 0.1404025 -0.2252145
-0.0094915554 0.14048289 -0.22524711
-0.0093644997 0.14048851 -0.2253695
-0.036938999 0.14074899 -0.22539
-0.036675997 0.14070851 -0.225297
-0.036459498 0.140699 -0.225225
-0.03627 0.140655 -0.22521301
-0.031807002 0.140613 -0.22520199
-0.031661 0.14062667 -0.22520934
-0.031489 0.140663 -0.2252135
-0.031259999 0.140646 -0.225218
-0.0308755 0.1406475 -0.22521649
-0.030670602 0.14067361 -0.22522239
-0.030521501 0.14066911 -0.2252402
-0.0302765 0.14069724 -0.22522199
-0.030086001 0.140678 -0.22521766
-0.02997 0.140646 -0.225224
-0.029685998 0.14070468 -0.22522734
-0.029506093 0.14068483 -0.22523427
-0.029338166 0.14068049 -0.225237
-0.029141 0.140671 -0.22521199
-0.028969999 0.14066 -0.22521999
-0.028625 0.140678 -0.22521099
-0.0285348 0.1406652 -0.2252228
-0.028371001 0.14062899 -0.22521301
-0.027953999 0.140607 -0.22520299
-0.0094169993 0.14065149 -0.225218
-0.0093385996 0.1406862 -0.22532621
-0.037113 0.14097001 -0.22539499
-0.036935668 0.14089599 -0.225348
-0.036670331 0.14089067 -0.22526701
-0.036454 0.1408425 -0.22521751
-0.030526999 0.140825 -0.225205
-0.029681999 0.14084899 -0.225207
-0.0295252 0.1408674 -0.22521
-0.029304 0.140826 -0.22520299
-0.0092937993 0.14088741 -0.22530839
-0.037108 0.14111467 -0.22538567
-0.036928002 0.14111334 -0.22531867
-0.036664002 0.14110868 -0.22522433
-0.0092511671 0.141104 -0.225282
-0.037102498 0.141297 -0.22534701
-0.036922999 0.141296 -0.22527599
-0.0092019998 0.14124399 -0.22531401
-0.009199 0.1413545 -0.22528701
-0.037097 0.14147834 -0.22531767
-0.036917001 0.14147733 -0.22525734
-0.0091955001 0.1415025 -0.225236
-0.037248001 0.141766 -0.225392
-0.037090667 0.14169735 -0.22527033
-0.03690967 0.14169367 -0.22522967
-0.0091407495 0.14167526 -0.2252945
-0.037269402 0.14192382 -0.2253838
-0.037083 0.141913 -0.22525267
-0.036905002 0.141838 -0.225208
-0.0090849996 0.14188467 -0.22534566
-0.037292503 0.14213413 -0.22537677
-0.037075002 0.14212933 -0.22523333
-0.0090783332 0.14210467 -0.22530366
-0.037262749 0.14230449 -0.225356
-0.037068501 0.142307 -0.225238
-0.0090706674 0.14232133 -0.22529
-0.037287552 0.14248422 -0.22535767
-0.037060998 0.14248334 -0.22524698
-0.0090644993 0.14250401 -0.2252665
-0.037279222 0.14269845 -0.22535644
-0.037052333 0.142698 -0.22524302
-0.0090566659 0.14268167 -0.22528632
-0.037269995 0.14291121 -0.22537047
-0.037044 0.14291333 -0.22523667
-0.0090466663 0.14289567 -0.22531401
-0.037294667 0.14312465 -0.2253805
-0.037132598 0.14311199 -0.22530141
-0.0090366667 0.14310767 -0.225357
-0.037287749 0.1433035 -0.225382
-0.037093598 0.14328361 -0.22528359
-0.0090765003 0.143295 -0.225299
-0.037265748 0.14346349 -0.2253775
-0.037102003 0.14348233 -0.22529668
-0.0091179991 0.14348434 -0.225218
-0.0372658 0.14370959 -0.22538021
-0.037093502 0.14369668 -0.22529483
-0.0091086663 0.14369799 -0.22524101
-0.037263501 0.14390968 -0.22538716
-0.037085 0.14390932 -0.22530399
-0.0090983333 0.14391135 -0.22528
-0.037240751 0.14410649 -0.22537625
-0.037156332 0.144122 -0.22536834
-0.036950253 0.14414024 -0.22524226
-0.0090889996 0.14412566 -0.22529532
-0.037238333 0.14429033 -0.22538567
-0.0371495 0.14430299 -0.225355
-0.036898501 0.14429951 -0.22523201
-0.0090800002 0.14430249 -0.2253495
-0.037209999 0.14447899 -0.22538768
-0.037141334 0.14447866 -0.22537966
-0.036909603 0.14446321 -0.22524861
-0.036798 0.144547 -0.225215
-0.0090719992 0.14448 -0.225372
-0.037204001 0.144621 -0.2254
-0.037132997 0.14469233 -0.22538601
-0.036972001 0.14469133 -0.22528334
-0.036791999 0.14468767 -0.22523434
-0.009093333 0.14470033 -0.22532432
-0.037124667 0.14490633 -0.22538634
-0.036962997 0.14490467 -0.22529466
-0.036782999 0.14490134 -0.22523999
-0.0091460003 0.144927 -0.22521032
-0.036954332 0.145118 -0.22530366
-0.036773998 0.14511468 -0.22524901
-0.0091375001 0.145105 -0.225247
-0.0369475 0.14529601 -0.2253045
-0.036765996 0.145328 -0.22525501
-0.0091296667 0.14528267 -0.22527067
-0.036941003 0.145476 -0.22528833
-0.036758497 0.14550599 -0.225264
-0.0091190003 0.14549567 -0.22531332
-0.036932003 0.14568932 -0.22529535
-0.036751669 0.14568533 -0.22524865
-0.0091311997 0.14572901 -0.2252942
-0.036924001 0.14590468 -0.22528966
-0.036743999 0.14589967 -0.22523467
-0.0091223996 0.14591421 -0.22532579
-0.037074499 0.146156 -0.22539601
-0.036915999 0.14611834 -0.22528701
-0.036736 0.14611366 -0.22523566
-0.0091265999 0.14608839 -0.22531541
-0.037069499 0.14629801 -0.2253885
-0.036908999 0.14629549 -0.22528949
-0.036727 0.146327 -0.22523899
-0.0091399997 0.146292 -0.225289
-0.037079252 0.146495 -0.22537974
-0.036902335 0.146475 -0.22527699
-0.036720499 0.14650649 -0.225227
-0.0091310004 0.14650834 -0.22530167
-0.037053999 0.14669067 -0.22538532
-0.036893997 0.14668967 -0.22527333
-0.036713 0.14668466 -0.22523266
-0.0091453996 0.14671341 -0.22526661
-0.037045334 0.14690568 -0.22539501
-0.036885664 0.14690433 -0.22527499
-0.036704998 0.14689834 -0.22522934
-0.009149 0.1468868 -0.22526661
-0.037071999 0.14712 -0.22538285
-0.036877003 0.147117 -0.22527833
-0.036697 0.14711334 -0.22522233
-0.0091350004 0.1470865 -0.225289
