# .PCD v0.7 - Point Cloud Data file format
VERSION 0.7
FIELDS x y z
SIZE 4 4 4
TYPE F F F
COUNT 1 1 1
WIDTH 1383
HEIGHT 1
VIEWPOINT 0 0 0 1 0 0 0
POINTS 1383
DATA ascii
-0.058655001 0.16005 -0.23579299
-0.058107 0.16001201 -0.2357305
-0.057901997 0.16009283 -0.23570468
-0.057684001 0.16011767 -0.235653
-0.057530999 0.160135 -0.23562101
-0.057301 0.1601975 -0.23563701
-0.057806 0.160236 -0.23578601
-0.057642668 0.16025233 -0.23575099
-0.057478249 0.16025551 -0.235717
-0.057299331 0.16030689 -0.23571944
-0.057140332 0.16031635 -0.23566334
-0.056949001 0.160335 -0.235615
-0.056687001 0.160399 -0.23563901
-0.056456499 0.16038349 -0.2356115
-0.056334 0.16037801 -0.2356185
-0.057209998 0.160432 -0.235796
-0.057121001 0.1604265 -0.23577049
-0.056939498 0.16045851 -0.23572201
-0.056678999 0.160483 -0.235727
-0.056448501 0.1604705 -0.23571
-0.056285713 0.16050471 -0.235726
-0.056079332 0.16052033 -0.23566334
-0.055914499 0.1605725 -0.23567751
-0.055689998 0.160578 -0.235641
-0.055499002 0.16057 -0.235624
-0.054313 0.16058999 -0.235642
-0.052432999 0.160427 -0.235635
-0.052285001 0.1604155 -0.235642
-0.056107998 0.160606 -0.23575151
-0.055861 0.16067499 -0.23576051
-0.055682499 0.160662 -0.23572999
-0.055474997 0.16068134 -0.23573101
-0.055219501 0.16067649 -0.23572201
-0.055032998 0.16071001 -0.235742
-0.054896336 0.16072732 -0.23570466
-0.054715663 0.16066067 -0.235659
-0.054502502 0.1606445 -0.23570099
-0.054306999 0.16067301 -0.235714
-0.054118499 0.16068785 -0.23569135
-0.053887751 0.16068749 -0.23569801
-0.053713247 0.16068025 -0.23571375
-0.053555999 0.16065967 -0.23571034
-0.054288 0.13252001 -0.235585
-0.056315001 0.132788 -0.235585
-0.0560905 0.1327765 -0.2355855
-0.055919498 0.13276801 -0.2355925
-0.055774 0.132759 -0.235594
-0.055270001 0.132734 -0.23557699
-0.055101596 0.132752 -0.23556519
-0.054887801 0.1327268 -0.2355582
-0.054719202 0.1327178 -0.23552918
-0.054550331 0.13269566 -0.23551132
-0.054339498 0.13268334 -0.23551117
-0.053891502 0.13269651 -0.235535
-0.053653598 0.1327012 -0.23552601
-0.053485002 0.132715 -0.23553616
-0.053314999 0.13272478 -0.23554856
-0.052879997 0.13271025 -0.235543
-0.052710999 0.13270301 -0.23554851
-0.052282751 0.13270751 -0.2355094
-0.052110203 0.13271999 -0.235533
-0.051943999 0.132746 -0.23555233
-0.056657333 0.13293967 -0.23556633
-0.056538001 0.1329205 -0.23555601
-0.056313001 0.1329065 -0.235535
-0.0560885 0.13289399 -0.23554051
-0.055908002 0.1329072 -0.235534
-0.055771336 0.132917 -0.23552966
-0.055516999 0.1328872 -0.2355344
-0.055286717 0.13290486 -0.23548713
-0.05512343 0.13290186 -0.23551656
-0.054893501 0.13291 -0.23547399
-0.054724999 0.1329 -0.2354455
-0.054531336 0.13288 -0.23542134
-0.054354001 0.13286933 -0.23542301
-0.053887997 0.13289501 -0.23544167
-0.053661998 0.13287699 -0.235433
-0.053483501 0.13287401 -0.2354365
-0.053333666 0.13288583 -0.23545749
-0.052875999 0.13290684 -0.23546802
-0.052708998 0.13286249 -0.235459
-0.052381501 0.13284549 -0.23542699
-0.0521015 0.132866 -0.23543599
-0.051927499 0.132893 -0.23545051
-0.051513001 0.1329385 -0.235506
-0.051290203 0.132936 -0.23554778
-0.050542001 0.132999 -0.235577
-0.056814998 0.13308251 -0.23558199
-0.056669164 0.13312133 -0.235521
-0.056534003 0.13311733 -0.23548265
-0.056309 0.13310333 -0.23545533
-0.056084335 0.13309033 -0.23546784
-0.055921994 0.1330986 -0.23546159
-0.055767 0.13311249 -0.23545501
-0.055590499 0.1331065 -0.23543499
-0.055344667 0.13308032 -0.23542766
-0.055097003 0.13309042 -0.23544259
-0.054933 0.133029 -0.23545
-0.054765999 0.133019 -0.235406
-0.052914999 0.133065 -0.235414
-0.051510498 0.1330985 -0.235423
-0.051289599 0.1330822 -0.23544201
-0.051079664 0.13310467 -0.23552601
-0.050818667 0.13309766 -0.23546632
-0.050646666 0.13308333 -0.23550333
-0.050471004 0.13311417 -0.23550032
-0.050305665 0.13309483 -0.23554601
-0.050117999 0.13312 -0.235599
-0.057461001 0.1333335 -0.23556925
-0.057281874 0.13332787 -0.23557161
-0.057103001 0.13330379 -0.23556539
-0.056896999 0.13328278 -0.23553512
-0.056664001 0.13331525 -0.2354665
-0.056529 0.133312 -0.235425
-0.056304999 0.133259 -0.235406
-0.056080997 0.1332465 -0.23541349
-0.055909999 0.1332375 -0.23541451
-0.055764999 0.133231 -0.235415
-0.055394001 0.133211 -0.235401
-0.050435498 0.13323301 -0.235415
-0.050306004 0.13321733 -0.23543833
-0.050117999 0.1332435 -0.23548299
-0.049858 0.13329899 -0.235562
-0.049761999 0.133331 -0.235586
-0.058412001 0.133595 -0.23559099
-0.058274668 0.1335575 -0.23557448
-0.058073997 0.133497 -0.235589
-0.057997502 0.1335355 -0.235569
-0.057738997 0.1335185 -0.23558101
-0.057475999 0.13350733 -0.23553734
-0.057290122 0.13349338 -0.235525
-0.057097405 0.1335056 -0.2355196
-0.056890555 0.13351521 -0.2354787
-0.056684002 0.13349001 -0.23542574
-0.049858 0.133423 -0.235456
-0.049714997 0.13344926 -0.23548299
-0.049522001 0.133526 -0.23550566
-0.058653001 0.13375799 -0.235594
-0.058483168 0.133715 -0.23557501
-0.058288127 0.13370074 -0.23554
-0.058144502 0.133691 -0.23554499
-0.057993002 0.133689 -0.23553699
-0.057733666 0.13371199 -0.23553102
-0.05747056 0.13370033 -0.23549546
-0.057284918 0.13368709 -0.23547541
-0.057107605 0.13369282 -0.23546919
-0.056928746 0.13371076 -0.2354425
-0.056752 0.13366449 -0.235411
-0.049417999 0.13362899 -0.235429
-0.049198501 0.133724 -0.235505
-0.048955999 0.133746 -0.235552
-0.048783001 0.133735 -0.235581
-0.048587002 0.13379499 -0.23559
-0.058839999 0.13399801 -0.23559099
-0.058695335 0.1339165 -0.23556167
-0.058477893 0.13390811 -0.23553222
-0.058289364 0.13388619 -0.23551492
-0.058153752 0.13390426 -0.23550075
-0.057987332 0.13388234 -0.23550002
-0.057727501 0.13390449 -0.23549899
-0.057498001 0.13389501 -0.235452
-0.057311725 0.13390027 -0.23543662
-0.057087202 0.1338926 -0.2354202
-0.056946501 0.13388525 -0.2354185
-0.049198002 0.133845 -0.235411
-0.048899997 0.133855 -0.23545267
-0.04873525 0.133855 -0.235479
-0.048543245 0.13391601 -0.23547751
-0.0592735 0.134137 -0.235553
-0.059085336 0.13415967 -0.23558001
-0.058878496 0.1341145 -0.23557401
-0.058689497 0.13410774 -0.235531
-0.058510002 0.13410275 -0.2354905
-0.058318224 0.13410155 -0.23547567
-0.058163002 0.13411801 -0.23545016
-0.057980999 0.13411367 -0.23544668
-0.057721663 0.13409634 -0.23546402
-0.05749375 0.13404875 -0.23541449
-0.057359252 0.13406076 -0.23540875
-0.048285503 0.13405526 -0.23546976
-0.048168998 0.134087 -0.23549999
-0.059415001 0.134332 -0.23559999
-0.059269 0.13429099 -0.235522
-0.059081335 0.13431498 -0.23553777
-0.058872495 0.13430767 -0.23553999
-0.058683332 0.13429968 -0.23550284
-0.058504164 0.134296 -0.23545384
-0.058327269 0.13428909 -0.23544656
-0.058157001 0.1343095 -0.2354195
-0.057975501 0.134307 -0.23540699
-0.057715997 0.134289 -0.23542699
-0.047899663 0.13430034 -0.23548032
-0.047713999 0.134359 -0.23554599
-0.060210999 0.13452899 -0.23559099
-0.060152002 0.134599 -0.23559
-0.059659 0.13457599 -0.235597
-0.059411 0.134486 -0.23555966
-0.059261333 0.13448034 -0.23552598
-0.0591125 0.13450626 -0.23552698
-0.058910001 0.13449983 -0.2355205
-0.058677003 0.1344915 -0.235478
-0.058497749 0.13448675 -0.23542801
-0.058346335 0.13448866 -0.23541434
-0.058123 0.134423 -0.235406
-0.057710499 0.13444051 -0.23541901
-0.047651332 0.134461 -0.23549433
-0.047499333 0.134553 -0.23552132
-0.060463503 0.134773 -0.23559451
-0.0602252 0.13469741 -0.23557799
-0.060079664 0.134712 -0.23557502
-0.059830002 0.134698 -0.235585
-0.059655502 0.13469151 -0.2355755
-0.0594045 0.13467601 -0.235549
-0.0592895 0.13472925 -0.235522
-0.059105832 0.13469699 -0.23551184
-0.058903668 0.134691 -0.23549898
-0.058670834 0.13468333 -0.23544998
-0.058513999 0.13466001 -0.2354105
-0.047440998 0.13469401 -0.23543799
-0.047265746 0.13471575 -0.235526
-0.047157999 0.13474399 -0.235544
-0.06047383 0.134914 -0.23557615
-0.060290702 0.1349082 -0.2355634
-0.060105599 0.13490561 -0.2355452
-0.059868254 0.13491225 -0.23554599
-0.059649337 0.134883 -0.23555069
-0.059322 0.13490325 -0.23550124
-0.059099749 0.1348885 -0.23548399
-0.058885749 0.13491149 -0.2354615
-0.058662664 0.13491102 -0.23543833
-0.058525998 0.13490734 -0.235406
-0.047320999 0.134804 -0.235442
-0.047085334 0.134884 -0.23549999
-0.060506377 0.13509163 -0.23556203
-0.060294166 0.13510767 -0.23554485
-0.060132328 0.13509834 -0.23552233
-0.059888203 0.13510799 -0.23552617
-0.059641998 0.135112 -0.23551966
-0.059315503 0.135095 -0.23547198
-0.059093665 0.13508034 -0.23545317
-0.058903284 0.13509642 -0.23543787
-0.058655754 0.13510101 -0.23542225
-0.047005001 0.135013 -0.235406
-0.061159998 0.135342 -0.235595
-0.06048866 0.13530988 -0.23553623
-0.060287554 0.13529845 -0.2355251
-0.060126111 0.13528955 -0.23549956
-0.059916995 0.1352926 -0.2355102
-0.059634998 0.1353025 -0.235503
-0.059292801 0.13530701 -0.2354604
-0.059085336 0.1353085 -0.23543984
-0.058926497 0.13530384 -0.23542385
-0.05871062 0.13528538 -0.23541813
-0.061452001 0.13558801 -0.235597
-0.061245203 0.13553019 -0.23557858
-0.061102401 0.13550821 -0.23556098
-0.060523249 0.13550325 -0.23552749
-0.060310371 0.13549075 -0.23550788
-0.060118444 0.13551822 -0.23547345
-0.059891835 0.13550517 -0.23548834
-0.059627999 0.135493 -0.23549032
-0.059316795 0.13549161 -0.23544021
-0.059078749 0.13549951 -0.23542224
-0.058919497 0.13549399 -0.23541775
-0.058739249 0.13548699 -0.23540726
-0.046274498 0.135435 -0.23545751
-0.046195999 0.13546401 -0.23545101
-0.045993999 0.135562 -0.235517
-0.061896 0.13575999 -0.23559099
-0.061680332 0.13572501 -0.23559533
-0.0614485 0.135702 -0.23559301
-0.061289746 0.13569249 -0.23557925
-0.061069399 0.13570561 -0.2355428
-0.06051667 0.135693 -0.23551166
-0.060303833 0.13568082 -0.23549199
-0.060111504 0.135708 -0.23546416
-0.059973501 0.1357 -0.2354805
-0.059690602 0.13570862 -0.2354794
-0.059293997 0.13570383 -0.23542382
-0.059071168 0.13568817 -0.23542218
-0.0589155 0.135607 -0.2354055
-0.058732003 0.13567699 -0.23540151
-0.045879334 0.13570833 -0.23549835
-0.045729998 0.13576999 -0.235597
-0.062229 0.135932 -0.235587
-0.061891001 0.13591234 -0.23557533
-0.061658334 0.1359005 -0.23558651
-0.061483998 0.13589467 -0.23557399
-0.061300796 0.13587628 -0.23556271
-0.061119713 0.13589714 -0.23553228
-0.060500197 0.135905 -0.2355026
-0.060295746 0.13590959 -0.23547243
-0.060104556 0.13589777 -0.23545378
-0.059967328 0.13588966 -0.23545833
-0.059718996 0.13589281 -0.23547021
-0.059312001 0.13588099 -0.23543198
-0.059056599 0.13591561 -0.23540659
-0.058859002 0.13590901 -0.235401
-0.045698002 0.13590467 -0.235487
-0.045534 0.13599201 -0.235577
-0.062291004 0.136104 -0.2355818
-0.061883502 0.136103 -0.235567
-0.061651252 0.1360905 -0.235577
-0.061475832 0.13612284 -0.23555732
-0.061303224 0.1361119 -0.23555554
-0.061123125 0.13609563 -0.23550399
-0.061000001 0.13617399 -0.23551001
-0.060510598 0.136088 -0.23549581
-0.060288876 0.13609862 -0.23546687
-0.060088284 0.13610357 -0.2354393
-0.059958998 0.13611901 -0.23544133
-0.059693996 0.13610499 -0.23545134
-0.059355002 0.13608533 -0.23542534
-0.045632001 0.136005 -0.23545501
-0.045489747 0.136108 -0.23549099
-0.062284201 0.1363028 -0.2355592
-0.061877329 0.13629267 -0.23555267
-0.0616685 0.13626249 -0.23556775
-0.061511334 0.13631316 -0.23555584
-0.061296668 0.13630299 -0.23553884
-0.061155498 0.136297 -0.2355025
-0.060995501 0.136287 -0.23551551
-0.060494836 0.13630165 -0.23547302
-0.060298305 0.13628209 -0.23545952
-0.0601184 0.13629511 -0.23543271
-0.059951499 0.136309 -0.23544
-0.059774503 0.1363 -0.23543601
-0.059598498 0.13629 -0.235462
-0.059346333 0.13631301 -0.23542635
-0.045444999 0.136225 -0.23541699
-0.045310497 0.13631433 -0.23551567
-0.063094996 0.13655999 -0.23558266
-0.062633 0.136564 -0.235599
-0.062544994 0.13648267 -0.23559166
-0.062311601 0.1364882 -0.23555019
-0.061869666 0.13652267 -0.23551834
-0.061682999 0.13651133 -0.23554868
-0.061504226 0.13650279 -0.23555279
-0.061288998 0.13649167 -0.23554356
-0.061147999 0.13648616 -0.23550434
-0.060986996 0.13647532 -0.23552901
-0.060487751 0.13649151 -0.235461
-0.060300443 0.13651767 -0.23545188
-0.060109671 0.13650708 -0.23542668
-0.059944332 0.13649701 -0.23543334
-0.059767336 0.13648801 -0.23543866
-0.059591666 0.13648 -0.23545265
-0.059338503 0.136501 -0.23543599
-0.0591885 0.1364955 -0.235405
-0.045251667 0.136466 -0.23544998
-0.045141831 0.1365305 -0.23548067
-0.063081749 0.136701 -0.23555198
-0.062913001 0.1367006 -0.2355876
-0.06264925 0.136718 -0.23558801
-0.062537335 0.13671066 -0.23556833
-0.062304199 0.1366854 -0.23554102
-0.062199 0.136768 -0.23553801
-0.061862499 0.136711 -0.235525
-0.061676003 0.136702 -0.23554
-0.061497334 0.13669266 -0.23554116
-0.061281111 0.13671923 -0.23552179
-0.061140332 0.1367145 -0.23547482
-0.060980003 0.13670467 -0.235494
-0.060481161 0.1366815 -0.23544633
-0.060293499 0.13670734 -0.23544365
-0.0601025 0.13669662 -0.23542276
-0.059937999 0.13668799 -0.23541701
-0.059759002 0.13671601 -0.23543501
-0.059583664 0.13670801 -0.235434
-0.059330668 0.136691 -0.23543935
-0.058997001 0.136747 -0.235413
-0.045065001 0.13665301 -0.23543601
-0.044957001 0.1367195 -0.23552875
-0.063202001 0.13697401 -0.23559999
-0.063094005 0.13690025 -0.23555599
-0.062915139 0.13687386 -0.23556457
-0.062709145 0.13689701 -0.23556885
-0.062530503 0.13690099 -0.235552
-0.0623645 0.136896 -0.235543
-0.062193003 0.13691866 -0.23553367
-0.061855335 0.13690133 -0.23551166
-0.061669331 0.13689134 -0.23552199
-0.061490443 0.13688244 -0.2355299
-0.061274335 0.13690884 -0.23551683
-0.061134499 0.13690549 -0.23543951
-0.060973 0.136895 -0.23548201
-0.060471669 0.13690734 -0.23546131
-0.060285669 0.13689588 -0.23545077
-0.060095001 0.13688575 -0.23542225
-0.05993 0.13687533 -0.23543167
-0.059751499 0.136905 -0.23542601
-0.059575498 0.136897 -0.2354445
-0.059322331 0.13691866 -0.23542733
-0.05914275 0.1369275 -0.23540826
-0.058939803 0.13692698 -0.235413
-0.044855665 0.136896 -0.235488
-0.063392997 0.137136 -0.23559
-0.063112088 0.13711274 -0.23555554
-0.062925503 0.13711333 -0.23555116
-0.062701672 0.13710222 -0.23555946
-0.062523335 0.13709067 -0.23554735
-0.062356997 0.13708466 -0.23553734
-0.062186502 0.13710949 -0.23551601
-0.061848499 0.137091 -0.235495
-0.061661001 0.137119 -0.23551534
-0.061524332 0.13711134 -0.2355215
-0.061299589 0.13710125 -0.23551168
-0.061126664 0.13709466 -0.23545301
-0.060966998 0.13708599 -0.23545134
-0.060464252 0.137097 -0.23545876
-0.060269754 0.13711363 -0.23544814
-0.060116 0.13711399 -0.23542458
-0.059958328 0.13710468 -0.23543668
-0.059744 0.13709299 -0.23543532
-0.059568331 0.13708566 -0.23544832
-0.059315503 0.137108 -0.235422
-0.059050001 0.137089 -0.235416
-0.058934402 0.13710919 -0.23541
-0.044824 0.137027 -0.235406
-0.044694401 0.13710441 -0.235526
-0.063826501 0.137352 -0.23559201
-0.063740999 0.137345 -0.23559099
-0.063387334 0.137288 -0.235587
-0.06312111 0.13729811 -0.23555242
-0.062918253 0.13730274 -0.2355465
-0.062694661 0.13729301 -0.23555069
-0.062514998 0.13731867 -0.235533
-0.062349666 0.13731332 -0.23551132
-0.062180001 0.13729967 -0.23549433
-0.061841335 0.137281 -0.23549499
-0.061653502 0.137307 -0.2355195
-0.061517499 0.137301 -0.23551449
-0.061305285 0.13728616 -0.23551229
-0.061137374 0.13733025 -0.23547712
-0.06095767 0.13731232 -0.23546833
-0.060457002 0.13728583 -0.23545833
-0.060279284 0.13729715 -0.23544486
-0.060108501 0.13730316 -0.23543149
-0.059951 0.13729399 -0.23543552
-0.059735 0.13731967 -0.23544067
-0.059559669 0.13731234 -0.23544268
-0.059307333 0.13729601 -0.23543434
-0.059088003 0.13729881 -0.2354054
-0.058943599 0.13729081 -0.235412
-0.044642001 0.137242 -0.23548201
-0.044544499 0.13735101 -0.235495
-0.063874751 0.137504 -0.2355915
-0.063735999 0.1374965 -0.23557499
-0.063378997 0.13751601 -0.23557167
-0.063105084 0.13749982 -0.23553665
-0.062911667 0.13749267 -0.23553269
-0.062699378 0.13747375 -0.23553461
-0.062537663 0.13752267 -0.23553433
-0.062342502 0.137503 -0.23550899
-0.062173501 0.13749 -0.235484
-0.061832335 0.13750768 -0.235497
-0.061646 0.13749766 -0.23551302
-0.06151 0.13749099 -0.23551534
-0.061315 0.13748223 -0.23550878
-0.061137497 0.13751033 -0.23547417
-0.060949497 0.137501 -0.23549099
-0.060448334 0.13751318 -0.23545401
-0.060262665 0.13750154 -0.23544213
-0.060100999 0.13749245 -0.23542625
-0.059943836 0.13748284 -0.23543267
-0.059726998 0.1375095 -0.235449
-0.0595515 0.137502 -0.235459
-0.059297666 0.137523 -0.23545165
-0.059061751 0.13752851 -0.23541451
-0.058926836 0.13750267 -0.23541749
-0.058793999 0.137573 -0.235403
-0.044443 0.137463 -0.235461
-0.044351999 0.137539 -0.235415
-0.064260997 0.137787 -0.235599
-0.063909329 0.13769624 -0.23558657
-0.063729003 0.137686 -0.23556601
-0.063372001 0.137706 -0.23556601
-0.063088119 0.13770188 -0.23553413
-0.062902331 0.13771883 -0.23554684
-0.062723167 0.13771351 -0.23552567
-0.062546499 0.13770133 -0.23552267
-0.062334999 0.13769233 -0.23550399
-0.062165335 0.13767833 -0.23549001
-0.061825 0.1376965 -0.2354925
-0.061638501 0.137687 -0.235516
-0.061501171 0.13771801 -0.23551182
-0.061306555 0.13770989 -0.23550402
-0.061131224 0.13770066 -0.23545344
-0.060941998 0.13768899 -0.23549134
-0.060484499 0.137704 -0.23546201
-0.060302712 0.13768756 -0.2354597
-0.060102802 0.1377196 -0.23543501
-0.059934333 0.13771015 -0.23544033
-0.059719998 0.13769799 -0.235447
-0.059543997 0.13769101 -0.23545867
-0.059289999 0.137712 -0.235457
-0.059083 0.137701 -0.23542674
-0.058919251 0.13769099 -0.23542351
-0.058759 0.13772433 -0.23541732
-0.058504999 0.137786 -0.235413
-0.064257503 0.13790199 -0.23558649
-0.064156003 0.137934 -0.235594
-0.063888431 0.13790171 -0.23556642
-0.063720331 0.137914 -0.23555833
-0.063365668 0.13789634 -0.23554534
-0.063097365 0.13788608 -0.23553376
-0.062895499 0.13790925 -0.23552699
-0.062715746 0.13790199 -0.235533
-0.062539756 0.1378915 -0.2355115
-0.062326331 0.13792066 -0.235496
-0.062156666 0.13790567 -0.23548834
-0.061818331 0.13788666 -0.23548467
-0.061630998 0.13787633 -0.235514
-0.061493747 0.137907 -0.235513
-0.061298668 0.13789834 -0.23551601
-0.061122999 0.13788816 -0.23547532
-0.060932998 0.137917 -0.23549132
-0.060476001 0.13789333 -0.23548435
-0.060311452 0.13788311 -0.23546979
-0.060120557 0.13789701 -0.23545344
-0.059926502 0.1378985 -0.2354525
-0.059712 0.13788751 -0.2354535
-0.059533998 0.13791667 -0.23547633
-0.059282001 0.13790034 -0.23547034
-0.059075166 0.13788883 -0.23543285
-0.058911499 0.13787983 -0.23543383
-0.058746796 0.1378898 -0.2354244
-0.058518998 0.13790879 -0.23541501
-0.064410001 0.138024 -0.235597
-0.064250328 0.13809133 -0.23558266
-0.064150997 0.13808668 -0.23557967
-0.06394317 0.138078 -0.23556334
-0.06375625 0.13810724 -0.23554724
-0.063356332 0.13812301 -0.23554902
-0.063089274 0.13809963 -0.23552947
-0.062904142 0.13810985 -0.2355233
-0.062708497 0.13809167 -0.23552799
-0.062532499 0.13808033 -0.23550616
-0.062320501 0.13811 -0.23546949
-0.062150002 0.138096 -0.2354735
-0.061809003 0.13811199 -0.23549633
-0.061621998 0.13810299 -0.23551466
-0.061486002 0.138096 -0.23551933
-0.06129045 0.13808711 -0.23552959
-0.061113998 0.13807613 -0.23550767
-0.060925499 0.138106 -0.23548999
-0.060467001 0.13812 -0.235488
-0.060302224 0.13810933 -0.23548055
-0.060103666 0.13809842 -0.23545502
-0.059919164 0.13808767 -0.235451
-0.059704665 0.13807666 -0.23545867
-0.059527501 0.13810751 -0.23546201
-0.059274502 0.13809 -0.23546499
-0.059067 0.138117 -0.23542249
-0.058902007 0.13810717 -0.23544516
-0.058729663 0.13810132 -0.23543131
-0.058505248 0.13808049 -0.23542063
-0.058398001 0.138161 -0.235423
-0.058196001 0.138147 -0.235403
-0.043825999 0.138033 -0.235447
-0.043729998 0.13814101 -0.23549399
-0.064241998 0.138318 -0.235577
-0.064143002 0.13831468 -0.23556633
-0.063935332 0.13830483 -0.23554651
-0.063749336 0.13829701 -0.23554166
-0.063349001 0.138313 -0.23554799
-0.063101836 0.13829783 -0.23551416
-0.062919334 0.1382895 -0.23550902
-0.06270083 0.13831967 -0.23550583
-0.062523663 0.13830733 -0.23550384
-0.062312666 0.13829933 -0.23547368
-0.062142 0.138284 -0.23548734
-0.061802998 0.138264 -0.23549899
-0.061676998 0.13830866 -0.23550767
-0.061476994 0.13832267 -0.23552752
-0.061281666 0.13831399 -0.23552935
-0.061104663 0.13830298 -0.23551634
-0.060917333 0.13829434 -0.23550767
-0.060461 0.13831 -0.23546401
-0.060294833 0.13829868 -0.23547931
-0.060084302 0.1383093 -0.2354583
-0.059909333 0.13831349 -0.23547317
-0.059694666 0.13830167 -0.23547333
-0.059520002 0.13829534 -0.23547299
-0.059266999 0.13827835 -0.23547733
-0.059059002 0.13830499 -0.2354385
-0.058894999 0.13829601 -0.2354385
-0.058721751 0.13828951 -0.235443
-0.058529664 0.13831751 -0.23543465
-0.058301751 0.13829926 -0.23541363
-0.0581716 0.13828139 -0.23541601
-0.043636002 0.13828701 -0.23550799
-0.043527 0.138395 -0.23556
-0.064286999 0.13849799 -0.23558401
-0.064135499 0.138503 -0.2355635
-0.0639285 0.1384955 -0.23553249
-0.063732997 0.1385082 -0.23553059
-0.063342996 0.138502 -0.23552501
-0.063094229 0.13848589 -0.23552257
-0.062911667 0.13847834 -0.23551668
-0.062693506 0.13850851 -0.23550549
-0.062516257 0.138495 -0.235515
-0.062302332 0.13852467 -0.23550467
-0.062132999 0.13850999 -0.23549502
-0.061700497 0.13848567 -0.23551001
-0.061469499 0.138511 -0.23553301
-0.061274167 0.13850233 -0.23553032
-0.061097831 0.138492 -0.23550652
-0.060908664 0.138521 -0.23550899
-0.060452331 0.13849699 -0.23549168
-0.060287111 0.13848755 -0.23548256
-0.060098194 0.13849111 -0.23547339
-0.059902251 0.138503 -0.235468
-0.059687503 0.138491 -0.23548001
-0.059509333 0.13852 -0.23550467
-0.059257999 0.138505 -0.23547868
-0.059108336 0.13849933 -0.23544334
-0.058922887 0.13848633 -0.23544332
-0.058714334 0.13847899 -0.23544116
-0.058522251 0.13850701 -0.23543601
-0.058302999 0.13849926 -0.23540801
-0.058180332 0.138523 -0.23541266
-0.057552665 0.13849233 -0.23540933
-0.043492336 0.13852434 -0.23548967
-0.064305842 0.13870184 -0.23556949
-0.064128667 0.138693 -0.235548
-0.063921005 0.138684 -0.23553383
-0.063742995 0.13869041 -0.23552939
-0.063334495 0.13868999 -0.235552
-0.063084781 0.13871235 -0.23553143
-0.062902436 0.13870423 -0.23552367
-0.062686332 0.13869834 -0.2354995
-0.062507667 0.13868351 -0.235533
-0.062294498 0.138713 -0.235521
-0.0621255 0.138698 -0.235498
-0.061739251 0.13869625 -0.23550449
-0.061495874 0.13871226 -0.23552626
-0.061266556 0.13869154 -0.235533
-0.061089773 0.13868043 -0.23552486
-0.060901001 0.13870999 -0.235517
-0.060442999 0.13872467 -0.23550366
-0.060277998 0.1387139 -0.23549509
-0.0600954 0.13869591 -0.23547861
-0.059920128 0.13870201 -0.23547298
-0.05968 0.13868 -0.23548602
-0.059501998 0.13870999 -0.235505
-0.059250999 0.138694 -0.23547401
-0.059101 0.1386885 -0.23544601
-0.058913775 0.13871288 -0.23545223
-0.058705661 0.138706 -0.23543634
-0.058514338 0.13869549 -0.23544686
-0.058307566 0.13868673 -0.23542799
-0.058171999 0.138751 -0.23540901
-0.057348497 0.13874599 -0.235406
-0.0434235 0.13866049 -0.23545749
-0.043330498 0.138726 -0.23555201
-0.064826995 0.13892201 -0.23556501
-0.064734995 0.138918 -0.23559749
-0.064552002 0.138942 -0.235599
-0.064282402 0.13891301 -0.23555918
-0.064120002 0.13892032 -0.23554432
-0.063912168 0.13891034 -0.23553665
-0.063726507 0.13890183 -0.2355275
-0.063325994 0.13887833 -0.23556733
-0.063077167 0.13890034 -0.23553866
-0.062895827 0.13889416 -0.23550217
-0.062668003 0.13890859 -0.2355206
-0.06249867 0.13891034 -0.2355385
-0.062286999 0.13890234 -0.23551667
-0.062117998 0.138888 -0.23548932
-0.061777502 0.138906 -0.23550701
-0.06150033 0.13889183 -0.23552717
-0.061274998 0.13890757 -0.23553085
-0.061102275 0.13891591 -0.23552357
-0.060892999 0.13889767 -0.235521
-0.060434498 0.13891301 -0.23551799
-0.060307249 0.1389055 -0.235494
-0.060122747 0.13889363 -0.235489
-0.059919663 0.13892001 -0.23548044
-0.059670668 0.13890667 -0.23549001
-0.059494331 0.138898 -0.23550968
-0.059242997 0.13888299 -0.23548166
-0.059092999 0.13887633 -0.23545735
-0.058906332 0.13890152 -0.23545168
-0.058697999 0.13889399 -0.23544624
-0.058496602 0.138907 -0.23544618
-0.058286667 0.13891277 -0.23544022
-0.058146603 0.138917 -0.23541541
-0.057946499 0.13892651 -0.235411
-0.0577945 0.138924 -0.235405
-0.057536498 0.138909 -0.23540801
-0.057291668 0.13890766 -0.23541234
-0.043279201 0.13890201 -0.23548381
-0.065016001 0.139195 -0.235597
-0.064819001 0.13911067 -0.235579
-0.064692006 0.139118 -0.23559201
-0.064546667 0.13909467 -0.235588
-0.064306803 0.1390962 -0.23556039
-0.064112999 0.13911051 -0.23553601
-0.0639055 0.13910049 -0.235524
-0.06371925 0.13909151 -0.2355215
-0.063317001 0.13910501 -0.235572
-0.063069671 0.13908933 -0.23554257
-0.062888779 0.1390831 -0.235502
-0.062678598 0.1390896 -0.2355216
-0.062491 0.139099 -0.23553874
-0.062279001 0.13909 -0.235533
-0.062108334 0.13911401 -0.23551066
-0.061769996 0.13909535 -0.23550166
-0.061492443 0.13908079 -0.23553133
-0.061279248 0.139108 -0.23554049
-0.061102878 0.13909888 -0.23552862
-0.060886502 0.139088 -0.235512
-0.060427334 0.139101 -0.23552334
-0.060299832 0.13909483 -0.23549183
-0.060115997 0.13908316 -0.23548208
-0.059911832 0.13910934 -0.23548432
-0.059662499 0.13909499 -0.235497
-0.059487499 0.139088 -0.2355015
-0.059233334 0.13910933 -0.235502
-0.059084665 0.13910501 -0.23544101
-0.058899224 0.13909078 -0.23544458
-0.058690831 0.13908334 -0.23544383
-0.0585078 0.13908841 -0.2354558
-0.05827884 0.139101 -0.23545168
-0.058109503 0.13911301 -0.23542617
-0.057939004 0.13911499 -0.23542301
-0.057787329 0.13911267 -0.23541166
-0.057528336 0.13909733 -0.23542868
-0.057289999 0.1390688 -0.23541479
-0.057176001 0.13907799 -0.23540151
-0.043244001 0.139071 -0.235411
-0.043149665 0.13911168 -0.23554401
-0.065012999 0.13931051 -0.235563
-0.064850256 0.13930276 -0.23558326
-0.064676493 0.1392915 -0.23558301
-0.064537995 0.13932265 -0.23558466
-0.064284168 0.13930815 -0.23552918
-0.064106338 0.13929933 -0.23552066
-0.063898332 0.13928916 -0.23551281
-0.063712001 0.13928001 -0.23551966
-0.063309506 0.139293 -0.235572
-0.063060112 0.13931587 -0.23555787
-0.062918998 0.13930883 -0.23555066
-0.062705994 0.13930289 -0.23552789
-0.062483501 0.13928734 -0.23554634
-0.062272668 0.13927966 -0.23550832
-0.062101498 0.139304 -0.23549899
-0.061761003 0.139322 -0.235503
-0.061527506 0.1393085 -0.235542
-0.061312888 0.13929921 -0.23553699
-0.061095417 0.13928732 -0.23553234
-0.060877666 0.139275 -0.23553668
-0.0604195 0.13929 -0.23553249
-0.060281597 0.1393038 -0.2355336
-0.060106244 0.13930933 -0.23549949
-0.059904329 0.13929778 -0.23549098
-0.059655 0.139284 -0.235503
-0.059479337 0.13927667 -0.23552133
-0.0592255 0.1392975 -0.23551199
-0.059076 0.13929251 -0.2354735
-0.05888911 0.13931666 -0.235475
-0.058680668 0.13930966 -0.2354665
-0.058490496 0.13930033 -0.23545533
-0.058308665 0.139292 -0.23545815
-0.058132086 0.13928637 -0.2354431
-0.057951331 0.13931833 -0.23542202
-0.057779498 0.139303 -0.23541901
-0.057519 0.13932367 -0.23543201
-0.057279997 0.13932601 -0.2354188
-0.043131664 0.13924034 -0.235476
-0.065005004 0.13949834 -0.23558234
-0.064836398 0.13947619 -0.23557022
-0.064670004 0.1394815 -0.23556517
-0.064530499 0.139511 -0.23558401
-0.064354494 0.13950151 -0.2355545
-0.064148754 0.1394905 -0.23552099
-0.06388884 0.13951501 -0.235524
-0.063702829 0.13950667 -0.23552634
-0.063302338 0.13948233 -0.23557366
-0.063063003 0.1394982 -0.2355632
-0.062928401 0.13950481 -0.2355676
-0.062698163 0.13949166 -0.23553766
-0.0624745 0.13951416 -0.23554964
-0.062263001 0.13950633 -0.23552734
-0.062093999 0.13949199 -0.23550101
-0.061753001 0.13951001 -0.23551901
-0.06151925 0.1394975 -0.23555475
-0.061293282 0.13950314 -0.23555
-0.0611035 0.1395072 -0.23554561
-0.060920201 0.13951981 -0.23554261
-0.060410995 0.13947767 -0.23555434
-0.060290802 0.1394868 -0.2355324
-0.060098626 0.13949776 -0.23550777
-0.059886876 0.13951387 -0.23550613
-0.059645999 0.13951068 -0.23551233
-0.059469998 0.13950334 -0.235524
-0.059218001 0.139487 -0.23550467
-0.059067998 0.13947999 -0.23548667
-0.058880668 0.13950451 -0.235496
-0.058672249 0.1394975 -0.23549148
-0.058473401 0.139512 -0.235442
-0.0583 0.1395195 -0.23545416
-0.058116585 0.13950567 -0.23545106
-0.057949197 0.1394794 -0.2354192
-0.057771999 0.13949032 -0.23541735
-0.057511501 0.139513 -0.235443
-0.057318002 0.13950101 -0.23541999
-0.042940751 0.13952525 -0.235515
-0.064913996 0.13972233 -0.23559301
-0.064691335 0.13968417 -0.23558332
-0.064522997 0.13969932 -0.23559433
-0.064346999 0.13969 -0.23555566
-0.064140506 0.13967882 -0.23553784
-0.063881002 0.13970399 -0.23553324
-0.063695252 0.1396955 -0.23552774
-0.063293003 0.139709 -0.23558468
-0.063071005 0.13969535 -0.23557369
-0.062933892 0.13968767 -0.23554796
-0.062716432 0.13967015 -0.23554771
-0.062510826 0.139707 -0.23555668
-0.0622545 0.139695 -0.235544
-0.062084332 0.139718 -0.23551966
-0.06174567 0.13969932 -0.23551667
-0.061511502 0.13968582 -0.23556365
-0.061306499 0.13968638 -0.23556113
-0.061106998 0.13970417 -0.23555382
-0.060926501 0.13969424 -0.2355475
-0.0604035 0.1396665 -0.2355645
-0.060292285 0.139709 -0.23553915
-0.060090419 0.13968633 -0.23552452
-0.059897568 0.13969758 -0.235514
-0.0596385 0.1397 -0.23551801
-0.059462503 0.13969201 -0.235532
-0.059208665 0.13971333 -0.23552299
-0.059058335 0.13970667 -0.23550133
-0.058912497 0.13969633 -0.23547383
-0.058709223 0.13968833 -0.23548277
-0.058483202 0.13969341 -0.2354838
-0.058292251 0.13970825 -0.2354635
-0.058109 0.13969487 -0.23545538
-0.057946 0.139722 -0.23541798
-0.057762999 0.13971765 -0.23543034
-0.057503998 0.13970166 -0.235443
-0.057273503 0.13969016 -0.23541318
-0.042883746 0.13969475 -0.235495
-0.064988494 0.13991401 -0.235589
-0.064715199 0.139908 -0.2355874
-0.064515501 0.139889 -0.23559199
-0.064336993 0.13991635 -0.23557334
-0.064131334 0.1399045 -0.23554851
-0.063873835 0.13989283 -0.23553467
-0.063687496 0.13988432 -0.23553349
-0.063286498 0.139899 -0.23556751
-0.063036002 0.139919 -0.23557366
-0.06292478 0.13991478 -0.23555057
-0.062726833 0.13990833 -0.23554216
-0.062503435 0.13989611 -0.23555821
-0.062249001 0.13988467 -0.23550999
-0.062076502 0.13990751 -0.23552901
-0.061736502 0.13988701 -0.2355535
-0.061502833 0.1399125 -0.23556399
-0.061288111 0.13990299 -0.23556334
-0.061099999 0.13989344 -0.23554809
-0.060919166 0.13988332 -0.23554398
-0.060296569 0.13990413 -0.23554899
-0.060081001 0.1399131 -0.2355336
-0.059878886 0.13990122 -0.23552813
-0.059629995 0.13988799 -0.23553334
-0.059454996 0.13988067 -0.23553868
-0.059202 0.139864 -0.235541
-0.059100669 0.13991067 -0.23551567
-0.0589035 0.13992266 -0.23547582
-0.058700886 0.13991611 -0.23547322
-0.058465671 0.13990466 -0.23548181
-0.058284998 0.13989751 -0.23546149
-0.058101583 0.13988359 -0.23545776
-0.057938501 0.139911 -0.235421
-0.0577555 0.1399065 -0.23542801
-0.057496503 0.139891 -0.23544601
-0.057283752 0.13989826 -0.23542251
-0.05714 0.13998601 -0.23541099
-0.042808335 0.13988467 -0.23547165
-0.042716999 0.139952 -0.23559301
-0.064981006 0.14010233 -0.23559034
-0.064702123 0.14007914 -0.23558013
-0.064530753 0.14009699 -0.23558176
-0.064330503 0.1401045 -0.23556501
-0.064124003 0.14009449 -0.23554425
-0.063865006 0.140119 -0.2355345
-0.063678496 0.14011034 -0.2355355
-0.063278995 0.14008801 -0.23556764
-0.063028999 0.1401085 -0.235567
-0.062917501 0.14010316 -0.23554949
-0.06271825 0.14009601 -0.23556802
-0.062483877 0.14011237 -0.23555639
-0.062238336 0.14010935 -0.23554833
-0.062067669 0.14009432 -0.23555534
-0.061730001 0.14007665 -0.23554234
-0.061495252 0.14010149 -0.23557
-0.061296798 0.1400862 -0.23556662
-0.061089285 0.14009728 -0.23557343
-0.060910333 0.14011049 -0.23554949
-0.060311504 0.14008814 -0.23556113
-0.060099334 0.14010434 -0.23553748
-0.05991843 0.14008787 -0.235521
-0.059691399 0.14013401 -0.235535
-0.059445333 0.14010733 -0.23555
-0.059118167 0.14008801 -0.23552483
-0.05889475 0.140111 -0.235507
-0.058692664 0.14010467 -0.235488
-0.058458749 0.14009425 -0.23547201
-0.058267403 0.1401086 -0.23547658
-0.058093 0.14011125 -0.23544484
-0.057930168 0.14009967 -0.23543517
-0.057748001 0.14009567 -0.23543634
-0.057488997 0.14007968 -0.23545568
-0.057256248 0.1401055 -0.235433
-0.0571355 0.1400985 -0.235413
-0.042693499 0.1401255 -0.23549725
-0.065185003 0.14034399 -0.235594
-0.064913251 0.14029075 -0.23556775
-0.06472683 0.14031866 -0.23557268
-0.064545996 0.14030567 -0.23558301
-0.064323999 0.140296 -0.23553999
-0.064116828 0.140283 -0.23554002
-0.063857749 0.14030801 -0.23553202
-0.063671246 0.14029975 -0.23553351
-0.063269667 0.140314 -0.23557667
-0.063033998 0.14031801 -0.2355675
-0.062910557 0.14029323 -0.235542
-0.062710673 0.14028583 -0.23556717
-0.062540799 0.14029339 -0.235576
-0.062314503 0.140303 -0.23554976
-0.062058002 0.140321 -0.23557366
-0.061720666 0.140303 -0.23555434
-0.061487164 0.14029017 -0.23557849
-0.061312169 0.14028367 -0.23558533
-0.061127666 0.14029767 -0.23558533
-0.060902748 0.14029926 -0.23554799
-0.060292557 0.14030445 -0.23555988
-0.060091998 0.14029288 -0.23553845
-0.059930444 0.140284 -0.23551123
-0.059701998 0.1403085 -0.235542
-0.059437498 0.140296 -0.23555401
-0.059108999 0.14031483 -0.23552966
-0.058887001 0.14030017 -0.23550864
-0.058709569 0.14028314 -0.23550543
-0.058498859 0.14028458 -0.23550442
-0.0582975 0.140301 -0.23549248
-0.05808625 0.14030063 -0.23543474
-0.05792325 0.1402895 -0.235431
-0.057739001 0.14032267 -0.23543467
-0.057479333 0.14030699 -0.23546134
-0.057249334 0.14029516 -0.235431
-0.057128165 0.140288 -0.23541534
-0.042626999 0.14029551 -0.235425
-0.042523999 0.14039899 -0.235532
-0.065180495 0.140458 -0.23558801
-0.064906001 0.14047967 -0.23556952
-0.064718999 0.14050674 -0.235579
-0.064538248 0.14049424 -0.235588
-0.064314 0.14052068 -0.23556566
-0.064107165 0.14050883 -0.23555951
-0.063850336 0.14049749 -0.23553352
-0.063663498 0.14048834 -0.2355455
-0.0632625 0.14050299 -0.23557299
-0.063040748 0.14049 -0.2355645
-0.06290938 0.14050962 -0.23555985
-0.062702164 0.14051235 -0.23556332
-0.062524334 0.14050417 -0.23556165
-0.062306497 0.1404905 -0.23556268
-0.062050499 0.14050999 -0.23557501
-0.0617125 0.14049199 -0.235563
-0.061478168 0.14051683 -0.23558582
-0.061303001 0.14051101 -0.23558766
-0.061099458 0.14049155 -0.23558046
-0.060894668 0.140488 -0.23556149
-0.06028467 0.14049368 -0.23556501
-0.060082 0.14051934 -0.23556034
-0.059921 0.14051023 -0.23552755
-0.05969483 0.14049816 -0.23553832
-0.059429664 0.14048634 -0.23556834
-0.0591015 0.140504 -0.23553826
-0.058870602 0.1405108 -0.2355468
-0.058718499 0.14052117 -0.23551351
-0.058537498 0.14051433 -0.23552449
-0.058304667 0.14050345 -0.23549978
-0.058076996 0.14048865 -0.23547499
-0.05791533 0.14047833 -0.23543282
-0.057732001 0.140512 -0.23542351
-0.057472497 0.14049649 -0.23545501
-0.057240501 0.14052168 -0.23542851
-0.057119001 0.14051467 -0.23542298
-0.042486999 0.140525 -0.23550235
-0.064897165 0.140707 -0.23556851
-0.064711832 0.140696 -0.23557599
-0.06453117 0.14068367 -0.23558831
-0.064306498 0.1407105 -0.23557499
-0.064099997 0.14069851 -0.2355555
-0.063834593 0.1407084 -0.2355438
-0.063654333 0.14071484 -0.23555183
-0.063255005 0.140692 -0.23557967
-0.0630325 0.140678 -0.23557901
-0.062924996 0.140709 -0.23556
-0.062694505 0.140701 -0.235569
-0.062516749 0.14069325 -0.23557225
-0.062297005 0.14071734 -0.23557098
-0.062043667 0.140699 -0.235569
-0.061705668 0.14068167 -0.23555766
-0.061486334 0.14069434 -0.23559134
-0.061281998 0.14068668 -0.23558967
-0.061056286 0.14071229 -0.23557544
-0.060885999 0.140715 -0.23556067
-0.060318172 0.14068499 -0.23558666
-0.060115337 0.14069888 -0.23554434
-0.059913334 0.14069901 -0.23553266
-0.059717339 0.14067601 -0.23554467
-0.059490997 0.14073101 -0.23555338
-0.059093501 0.14069234 -0.23554933
-0.058877997 0.14069301 -0.23552239
-0.05871075 0.14071 -0.23551925
-0.0585315 0.14070448 -0.2354985
-0.058297332 0.14069267 -0.235498
-0.05808625 0.14070749 -0.235493
-0.057935886 0.14070576 -0.23545521
-0.057723999 0.140701 -0.23544033
-0.057464998 0.14068466 -0.23545499
-0.057269499 0.14071301 -0.23544499
-0.057140004 0.14070649 -0.23541868
-0.0424564 0.1406868 -0.235461
-0.065700002 0.140901 -0.23559999
-0.064889997 0.14089526 -0.23556548
-0.064694598 0.140908 -0.23556919
-0.064522497 0.14091034 -0.23558418
-0.064298995 0.14089799 -0.23557132
-0.064092502 0.14088716 -0.23555534
-0.063870333 0.14087801 -0.23553634
-0.063697338 0.14090583 -0.23555066
-0.063246004 0.140919 -0.23557901
-0.063037999 0.14088826 -0.23556776
-0.062913902 0.14091359 -0.235571
-0.062687837 0.14089082 -0.2355545
-0.062509328 0.14088251 -0.23556651
-0.062290501 0.14090699 -0.23556301
-0.062036 0.140889 -0.23557401
-0.061696004 0.14090766 -0.23556633
-0.061463337 0.1408955 -0.23559152
-0.06131025 0.1408705 -0.23559099
-0.061078832 0.14089049 -0.23558767
-0.060902797 0.1409134 -0.23556399
-0.06031033 0.14091283 -0.2355635
-0.060096752 0.14089984 -0.23556101
-0.059905332 0.1408879 -0.2355469
-0.059768002 0.140881 -0.235542
-0.059501499 0.1409065 -0.23556075
-0.059083831 0.14091933 -0.23556149
-0.058862001 0.14090432 -0.23554051
-0.058703002 0.14089949 -0.2355295
-0.058523338 0.14089318 -0.2355125
-0.058300626 0.14087251 -0.23550975
-0.058105376 0.14089987 -0.23548038
-0.05792883 0.14089516 -0.23544852
-0.0577165 0.14089 -0.235442
-0.057455335 0.14091267 -0.23546965
-0.057262331 0.14090133 -0.23544067
-0.057117201 0.14089429 -0.2354219
-0.042412002 0.140852 -0.23541901
-0.042312998 0.140995 -0.23553801
-0.065512501 0.141155 -0.23559651
-0.06526766 0.14115334 -0.23559368
-0.065153494 0.141138 -0.23559201
-0.064882167 0.14108433 -0.23557401
-0.064706191 0.14109039 -0.235562
-0.064515248 0.14109999 -0.23557825
-0.0642915 0.14108801 -0.23557
-0.064084329 0.14111452 -0.23554067
-0.063861668 0.14110465 -0.23553868
-0.063736662 0.14109851 -0.23554683
-0.063596666 0.14108966 -0.23555632
-0.063237995 0.1411075 -0.23559099
-0.063042998 0.141058 -0.235597
-0.062893108 0.14110911 -0.2355853
-0.06267833 0.14111768 -0.23557083
-0.0625 0.14110917 -0.23557936
-0.062324502 0.1410785 -0.2355755
-0.062095404 0.1410982 -0.23558399
-0.061688498 0.14109701 -0.235569
-0.061471667 0.14107266 -0.23559467
-0.061281502 0.141041 -0.235599
-0.061051 0.14102399 -0.235599
-0.060888428 0.14108329 -0.23557571
-0.060318332 0.14108999 -0.23556566
-0.06007944 0.14110088 -0.23557077
-0.059896216 0.14111511 -0.23555221
-0.059759665 0.14110833 -0.23554301
-0.059493165 0.14109467 -0.23557281
-0.059101332 0.14109732 -0.23557466
-0.0588836 0.141103 -0.23555419
-0.058695249 0.14108925 -0.23553175
-0.058503997 0.14110379 -0.23553061
-0.058324337 0.14110984 -0.23552018
-0.058105249 0.14109825 -0.23550594
-0.057921223 0.14108422 -0.23545568
-0.057708334 0.14107932 -0.23545933
-0.057448 0.14110151 -0.23546901
-0.057256497 0.141092 -0.2354085
-0.057087749 0.14109063 -0.23541538
-0.042279664 0.14112233 -0.23549099
-0.065973662 0.141289 -0.23559467
-0.065684497 0.141317 -0.235594
-0.065506503 0.141306 -0.235597
-0.065279499 0.141293 -0.2355855
-0.065148503 0.141289 -0.235588
-0.064873502 0.14131199 -0.23556416
-0.064689502 0.1413025 -0.23554917
-0.06450817 0.14128867 -0.23557281
-0.064285666 0.14127801 -0.23553933
-0.064077251 0.141304 -0.23553425
-0.063854001 0.14129299 -0.235542
-0.063717797 0.14130899 -0.23554759
-0.063588664 0.14131667 -0.23554166
-0.063230336 0.14129667 -0.23559467
-0.062920995 0.14129433 -0.23557289
-0.062670499 0.14130725 -0.23557073
-0.062492248 0.14129825 -0.235585
-0.062359497 0.141289 -0.23555249
-0.062103998 0.14131133 -0.23559582
-0.06168133 0.14128633 -0.23557401
-0.0614965 0.141239 -0.235594
-0.061314002 0.141306 -0.23559651
-0.06092767 0.14132333 -0.23556466
-0.060795669 0.14131701 -0.23558067
-0.060295168 0.1412915 -0.23557568
-0.060108442 0.141279 -0.23558156
-0.05991675 0.1413065 -0.23554438
-0.059751499 0.141297 -0.23555949
-0.0595745 0.141288 -0.2355545
-0.059396997 0.14131732 -0.23557602
-0.059143666 0.14130066 -0.23558299
-0.058896556 0.14128743 -0.23553745
-0.058688331 0.14127751 -0.23552583
-0.058517404 0.1412874 -0.23553121
-0.058316998 0.14129901 -0.23551649
-0.058086999 0.14130941 -0.2354999
-0.057911891 0.14131056 -0.23546669
-0.057699997 0.14130633 -0.23545234
-0.057441 0.14128999 -0.23546433
-0.057247996 0.14128 -0.235433
-0.057100222 0.14129722 -0.23542111
-0.04223625 0.14127874 -0.235471
-0.065965667 0.14151667 -0.23556934
-0.065678 0.14150535 -0.23558567
-0.065477759 0.14151275 -0.23559099
-0.065272495 0.14148183 -0.23558666
-0.065140665 0.14147834 -0.23559034
-0.064866997 0.1415015 -0.2355455
-0.064682499 0.1414915 -0.23553775
-0.064499997 0.14151649 -0.2355593
-0.064276338 0.14150466 -0.23554833
-0.064069174 0.14149301 -0.23555048
-0.063846 0.141482 -0.23554833
-0.063731797 0.1414918 -0.23555259
-0.063580498 0.141505 -0.2355535
-0.063221999 0.14152335 -0.23558867
-0.062908299 0.14149621 -0.23557708
-0.062694862 0.141507 -0.23557958
-0.062485993 0.14148735 -0.23556566
-0.062352002 0.14147834 -0.23555066
-0.062096499 0.1415 -0.23559651
-0.061671335 0.14151166 -0.23559433
-0.061486002 0.14150301 -0.23559399
-0.061308503 0.141458 -0.235589
-0.061144501 0.141523 -0.235578
-0.060948249 0.14151375 -0.235567
-0.060787998 0.141505 -0.23559049
-0.060286332 0.14151852 -0.23557235
-0.060100332 0.14150578 -0.23556879
-0.059909243 0.14149508 -0.23554294
-0.059743661 0.14148568 -0.23556466
-0.059567332 0.14147733 -0.23555
-0.059389502 0.141507 -0.235577
-0.059137501 0.141491 -0.23556601
-0.058888331 0.14151455 -0.23552267
-0.058679331 0.14150517 -0.23552935
-0.058499005 0.14149798 -0.23552765
-0.058309335 0.14148815 -0.23552133
-0.058100592 0.1414928 -0.23550048
-0.057904333 0.14149965 -0.23546566
-0.057691999 0.1414945 -0.23546201
-0.057432 0.14151733 -0.23546298
-0.057238996 0.141506 -0.23543866
-0.057083249 0.14149816 -0.23542625
-0.056905001 0.141488 -0.23540699
-0.042207502 0.14148751 -0.235434
-0.042123999 0.1415545 -0.235522
-0.065959498 0.141706 -0.235557
-0.065670997 0.14169401 -0.235576
-0.065449499 0.14171951 -0.23558168
-0.06526383 0.14170884 -0.23557849
-0.065133996 0.141629 -0.235599
-0.064891502 0.141672 -0.23554175
-0.064705007 0.14169087 -0.23555262
-0.064492002 0.14170501 -0.2355665
-0.0642685 0.141692 -0.2355715
-0.064059503 0.141718 -0.23556833
-0.063836999 0.141708 -0.23555566
-0.063712828 0.14170249 -0.23555066
-0.063573003 0.14169401 -0.235552
-0.063214496 0.14171299 -0.23558
-0.062912829 0.141693 -0.23557466
-0.062686995 0.1417007 -0.2355853
-0.062477335 0.14171499 -0.23555799
-0.062343001 0.14170501 -0.23555733
-0.062004331 0.14168233 -0.235588
-0.061664999 0.14170149 -0.235577
-0.061478503 0.141693 -0.235594
-0.061298002 0.14172201 -0.235587
-0.061090168 0.14173467 -0.235595
-0.060940832 0.1417035 -0.23557435
-0.0602795 0.141707 -0.2355655
-0.060092669 0.14169501 -0.23557484
-0.059892908 0.14171436 -0.23554873
-0.059734669 0.14171232 -0.23557101
-0.059558999 0.14170399 -0.23554699
-0.059381336 0.14169599 -0.23558833
-0.059129 0.14167933 -0.23557901
-0.058921248 0.14170475 -0.2355445
-0.058714669 0.14169468 -0.23552333
-0.058480401 0.1417084 -0.23553161
-0.058300838 0.14171484 -0.23551416
-0.058082085 0.14170325 -0.23549449
-0.057896886 0.14168911 -0.23546754
-0.057684999 0.14168434 -0.23545568
-0.057425 0.141706 -0.23545849
-0.057231501 0.14169601 -0.235439
-0.057082374 0.141697 -0.23541948
-0.0569975 0.141756 -0.2354195
-0.042100329 0.14172034 -0.23550634
-0.065951668 0.14189465 -0.23555934
-0.065664001 0.141884 -0.23556201
-0.065456331 0.14189667 -0.235581
-0.065285005 0.14190641 -0.23557639
-0.065124497 0.141894 -0.235588
-0.064911999 0.14191699 -0.23555233
-0.064706661 0.14190923 -0.23555332
-0.064485662 0.141894 -0.2355525
-0.064260997 0.14188133 -0.23556666
-0.0640525 0.1419075 -0.23556024
-0.063830495 0.14189801 -0.23554799
-0.063705251 0.141892 -0.235549
-0.063564338 0.14192 -0.23555501
-0.063208997 0.141864 -0.23558199
-0.063009001 0.141928 -0.235594
-0.062911503 0.14189112 -0.23558325
-0.062692396 0.14189 -0.23558339
-0.062468998 0.14190276 -0.235576
-0.062335499 0.141893 -0.23556
-0.061993502 0.141947 -0.23559749
-0.061657999 0.14188999 -0.23557366
-0.061471 0.14188099 -0.235595
-0.061291501 0.141911 -0.235581
-0.061129503 0.141901 -0.235594
-0.060933247 0.14189225 -0.235581
-0.060271829 0.14189599 -0.23556764
-0.060085222 0.14188379 -0.2355749
-0.059902329 0.14189889 -0.23555391
-0.059727497 0.141901 -0.23556599
-0.0595515 0.141893 -0.235551
-0.0593745 0.141885 -0.23558
-0.059121002 0.14190701 -0.23556268
-0.05891433 0.1418945 -0.23553117
-0.058707222 0.14188445 -0.23552281
-0.0584938 0.14189181 -0.2355288
-0.058293998 0.1419045 -0.23550449
-0.058085423 0.14188786 -0.235496
-0.057899795 0.14191711 -0.23545411
-0.057676669 0.14191133 -0.23544133
-0.057417665 0.14189601 -0.23545401
-0.057224002 0.141884 -0.23544466
-0.057099503 0.14188837 -0.235431
-0.056991503 0.14190701 -0.235424
-0.042067666 0.1418965 -0.23550881
-0.065942995 0.142122 -0.23555668
-0.065655328 0.14211033 -0.23555833
-0.065476 0.14209999 -0.23557265
-0.065326139 0.14207901 -0.23557656
-0.065149397 0.14209761 -0.23557162
-0.064905494 0.14210699 -0.23553699
-0.064699665 0.14209767 -0.23554467
-0.06447684 0.14212035 -0.2355565
-0.064251333 0.14210801 -0.23557867
-0.064094335 0.14209734 -0.23557167
-0.063909508 0.14208983 -0.23554568
-0.0636985 0.14208119 -0.23554249
-0.0635565 0.14210799 -0.235569
-0.063005 0.142042 -0.235597
-0.062881142 0.14211856 -0.2355703
-0.062708497 0.14208375 -0.2355635
-0.062486194 0.14213799 -0.2355886
-0.062328 0.14208299 -0.23556399
-0.062158003 0.142113 -0.23559201
-0.061988503 0.14209899 -0.23558399
-0.061648998 0.14211667 -0.23557334
-0.061462332 0.14210866 -0.23559166
-0.061304249 0.14211975 -0.23558751
-0.061089501 0.14207667 -0.23559232
-0.060926665 0.14208099 -0.23556866
-0.060764499 0.142111 -0.23559001
-0.060263999 0.14208549 -0.23557851
-0.060075779 0.14211065 -0.23558456
-0.05991533 0.14210123 -0.23555289
-0.059757832 0.1420925 -0.23555632
-0.059543997 0.14208199 -0.23554902
-0.059367668 0.14207466 -0.23557234
-0.059113503 0.142095 -0.235571
-0.058894597 0.14210539 -0.23553137
-0.058698773 0.14211221 -0.23551266
-0.058475167 0.14210284 -0.235532
-0.058285668 0.14209282 -0.23551781
-0.058092337 0.14208335 -0.23549499
-0.057918668 0.14209566 -0.23546301
-0.0576685 0.14210001 -0.235452
-0.057409 0.14212267 -0.23545901
-0.057215001 0.14211033 -0.23545234
-0.057085231 0.14210565 -0.23541689
-0.042035997 0.14207368 -0.23547466
-0.041951165 0.14214133 -0.23554234
-0.066250995 0.142332 -0.235588
-0.066091336 0.142288 -0.23559068
-0.065935999 0.14230999 -0.235549
-0.065648496 0.142299 -0.23554149
-0.065469503 0.14229 -0.23556
-0.065338664 0.14231767 -0.23557149
-0.065149501 0.1423105 -0.23556368
-0.06489867 0.14229567 -0.23552532
-0.064692557 0.14228722 -0.23553878
-0.064469501 0.14230999 -0.23554975
-0.064244494 0.142297 -0.23557499
-0.064087003 0.142286 -0.23557299
-0.063900836 0.142317 -0.23553883
-0.063689835 0.14230751 -0.23554035
-0.063549668 0.14229767 -0.23554866
-0.063189 0.142354 -0.235588
-0.062889747 0.142278 -0.23558401
-0.062721744 0.14229225 -0.23558325
-0.06249667 0.14232011 -0.2355849
-0.062319335 0.142308 -0.23555601
-0.062151667 0.14230233 -0.235572
-0.061981667 0.14228667 -0.23557098
-0.061641999 0.142307 -0.235553
-0.061455503 0.142298 -0.235576
-0.061319251 0.14229025 -0.23558651
-0.061189 0.142324 -0.235598
-0.060917001 0.142308 -0.23557733
-0.060758501 0.142261 -0.23559499
-0.060300004 0.14227633 -0.23559
-0.060070802 0.14229199 -0.23558259
-0.059907664 0.14229034 -0.23554967
-0.059748668 0.14231899 -0.23556566
-0.059534997 0.14230934 -0.23554732
-0.059358001 0.14230134 -0.23558034
-0.059105333 0.14228433 -0.23558266
-0.058909595 0.142288 -0.23554739
-0.058691163 0.1423005 -0.23551799
-0.058468252 0.14229225 -0.2355215
-0.05827783 0.1423205 -0.23550366
-0.058083005 0.14230977 -0.23550534
-0.057900663 0.14229618 -0.23547973
-0.057661336 0.14229 -0.23544867
-0.057402998 0.14227401 -0.235459
-0.057272002 0.14231665 -0.23544633
-0.05707683 0.14229383 -0.23544668
-0.056909163 0.14234585 -0.23541801
-0.041937169 0.14230666 -0.23549867
-0.066243336 0.14252067 -0.235588
-0.06608367 0.14251535 -0.235568
-0.065929674 0.1425 -0.235521
-0.065641008 0.14248766 -0.23554333
-0.065462001 0.142478 -0.23555601
-0.065331504 0.14250726 -0.23556176
-0.065142244 0.14249875 -0.23556051
-0.064888671 0.14252134 -0.23554432
