-0.0537648 -0.0854206 0.994893 0.000381546
-0.0543629 -0.0855793 0.994847 0.00194223
-0.054967 -0.0861268 0.994767 0.00407066
-0.0543348 -0.0840647 0.994978 0.00297988
-0.05418 -0.0819917 0.995159 0.00382009
-0.0535583 -0.0809836 0.995275 0.0041309
-0.0534126 -0.0770761 0.995593 0.00354793
-0.0524439 -0.0720771 0.996019 0
-0.0527755 -0.0708657 0.996089 0
-0.0525108 -0.0703271 0.996141 0
-0.0515345 -0.0682185 0.996339 0
-0.0516548 -0.0635008 0.996644 0
-0.051679 -0.0643707 0.996587 0
-0.0526495 -0.0618494 0.996696 0.000586819
-0.0523801 -0.0588277 0.996893 0
-0.052036 -0.0572482 0.997003 0
-0.0521638 -0.0540649 0.997174 0
-0.0519235 -0.0526779 0.997261 0
-0.0515568 -0.0530316 0.997261 0
-0.0517814 -0.0551033 0.997137 0
-0.0519747 -0.0545637 0.997157 0
-0.0508777 -0.0542329 0.997231 0
-0.0521862 -0.0546315 0.997142 0.00227591
-0.0534947 -0.0586332 0.996845 0.00573635
-0.053644 -0.0587746 0.996829 0.00822986
-0.0532291 -0.0565857 0.996978 0.00575761
-0.0521756 -0.0538837 0.997183 0.00580562
-0.0528361 -0.0546816 0.997105 0.0055937
-0.0526729 -0.0572791 0.996968 0.00965544
-0.0540892 -0.0591727 0.996781 0.0126052
-0.0539238 -0.0581827 0.996849 0.0138923
-0.0531035 -0.05751 0.996932 0.00973271
-0.0525285 -0.0571573 0.996982 0.00958758
-0.0521297 -0.0598874 0.996843 0.00985938
-0.0520804 -0.0622455 0.996701 0.0122659
-0.0515571 -0.0635208 0.996648 0.00914602
-0.0508843 -0.0622969 0.99676 0.00675328
-0.0516701 -0.0650965 0.99654 0.00855921
-0.0514165 -0.067846 0.99637 0.00956294
-0.0510213 -0.0703414 0.996217 0.0136805
-0.0506373 -0.0701865 0.996248 0.0133454
-0.0494125 -0.0698 0.996337 0.00926207
-0.0510206 -0.074611 0.995907 0.0119127
-0.0509845 -0.0780447 0.995645 0.0131151
-0.0495608 -0.0797315 0.995584 0.0144484
-0.0475715 -0.0791408 0.995728 0.0133554
-0.0481757 -0.0764567 0.995908 0.0111301
-0.0479034 -0.0773145 0.995855 0.0115999
-0.0471397 -0.0777225 0.99586 0.00910753
-0.0468368 -0.0803553 0.995665 0.00873546
-0.0469497 -0.0827284 0.995466 0.011967
-0.0470481 -0.0821031 0.995513 0.0105806
-0.0456058 -0.0825032 0.995547 0.010633
-0.0460215 -0.0810041 0.995651 0.00957216
-0.0444199 -0.0785182 0.995923 0.00442618
-0.0449756 -0.0823748 0.995586 0.00627235
-0.0435126 -0.0848272 0.995445 0.00485836
-0.0438483 -0.0864648 0.99529 0.00404759
-0.0441147 -0.0879288 0.995149 0.00780788
-0.0433907 -0.0865369 0.995303 0.0076669
-0.0438547 -0.0869702 0.995245 0.00662924
-0.0432108 -0.0863142 0.99533 0.00524342
-0.0431248 -0.084021 0.99553 0.00411422
-0.0435519 -0.0860542 0.995338 0.00548692
-0.043762 -0.0877222 0.995183 0.00670437
-0.042631 -0.0892935 0.995093 0.00549135
-0.0430278 -0.0896805 0.995041 0.0068732
-0.0432883 -0.09085 0.994923 0.00711227
-0.0435544 -0.0927338 0.994738 0.00968813
-0.0438738 -0.0924836 0.994747 0.00937855
-0.0442088 -0.0933256 0.994654 0.0102957
-0.0438133 -0.0933826 0.994666 0.0104955
-0.0442122 -0.0926617 0.994716 0.0137702
-0.044742 -0.0905138 0.99489 0.0146515
-0.0457345 -0.0914983 0.994754 0.0171696
-0.0455193 -0.0897692 0.994922 0.0160591
-0.045911 -0.0865479 0.995189 0.0135617
-0.0462981 -0.0828922 0.995483 0.0116009
-0.0461055 -0.0803179 0.995702 0.00988175
-0.0461074 -0.079774 0.995746 0.00974253
-0.0466964 -0.0807753 0.995638 0.00917041
-0.0463722 -0.0806228 0.995665 0.00672236
-0.0463466 -0.0817946 0.995571 0.0102249
-0.0462065 -0.0785758 0.995837 0.00683036
-0.0460253 -0.0785719 0.995845 0.00611242
-0.0459029 -0.0763818 0.996021 0.00433045
-0.0450646 -0.0734541 0.99628 0
-0.044749 -0.0724794 0.996366 0
-0.0449896 -0.0730904 0.99631 0
-0.0448558 -0.0721839 0.996382 0
-0.0456594 -0.0703096 0.99648 0
-0.0458471 -0.0693491 0.996538 0
-0.0453482 -0.0672079 0.996708 0
-0.0456756 -0.0676811 0.996661 0
-0.0460982 -0.0679513 0.996623 0
-0.0470308 -0.0681939 0.996563 0.0012788
-0.0464731 -0.0689347 0.996538 0
-0.0464359 -0.0685531 0.996566 0.00154033
-0.046724 -0.0674966 0.996625 0.0016262
-0.0472003 -0.0672864 0.996617 0.00415374
-0.0462267 -0.0667136 0.996701 0.00430921
-0.0467578 -0.066698 0.996677 0.00607776
-0.0460637 -0.061688 0.997032 0.00198829
-0.0459847 -0.0621664 0.997006 0.00326805
-0.0464947 -0.0613653 0.997032 0.00582883
-0.0465696 -0.0645306 0.996828 0.00830916
-0.0476472 -0.0661984 0.996668 0.00958982
-0.0474226 -0.0652937 0.996739 0.00969122
-0.0479977 -0.0655894 0.996692 0.0108056
-0.0476369 -0.061753 0.996954 0.00781519
-0.0474426 -0.0588927 0.997136 0.0052513
-0.0473622 -0.0542339 0.997404 0.00189755
-0.0480007 -0.0514886 0.997519 0.000438819
-0.0484301 -0.0495024 0.997599 0
-0.0485153 -0.0495801 0.997591 0
-0.0500275 -0.0518675 0.9974 0.00163419
-0.0510266 -0.0501497 0.997437 0.00450415
-0.0512764 -0.0498598 0.997439 0.00605893
-0.0510729 -0.0478969 0.997546 0.00527707
-0.050596 -0.0427738 0.997803 0.00249286
-0.0508989 -0.0393088 0.99793 0.0031836
-0.051503 -0.035146 0.998054 0.00359307
-0.0519676 -0.0351776 0.998029 0.00463205
-0.0519659 -0.0314458 0.998154 0.00262197
-0.0518237 -0.0293388 0.998225 0
-0.0524388 -0.0277952 0.998237 0
-0.0529705 -0.0201712 0.998392 0
-0.0533973 -0.0218505 0.998334 0.00106633
-0.0533645 -0.0147394 0.998466 0.00171235
-0.0537766 -0.0123452 0.998477 0.0012491
-0.0534556 -0.00856126 0.998534 0
-0.053319 -0.00217755 0.998575 0
-0.053381 0.000814887 0.998574 0
-0.0541494 0.00719782 0.998507 0
-0.0548911 0.0104092 0.998438 0
-0.0549827 0.0161805 0.998356 0
-0.0551925 0.0225541 0.998221 0
-0.0559205 0.0344548 0.997841 0
-0.0567426 0.0464318 0.997309 0
-0.0307696 -0.388785 0.920815 0.00673302
-0.0303107 -0.371651 0.927878 0.00440141
-0.0302656 -0.358719 0.932955 0.00104635
-0.0304972 -0.355112 0.934326 0.0018225
-0.0308441 -0.354611 0.934505 0.00299747
-0.030891 -0.346248 0.937634 0.00280746
-0.0314376 -0.338608 0.940402 0
-0.0317957 -0.334086 0.942006 0.000901804
-0.0327445 -0.326723 0.944553 0.00125102
-0.0328741 -0.319871 0.946891 0.00127447
-0.0339918 -0.314979 0.94849 0.00186316
-0.0339143 -0.310435 0.94999 0.00301108
-0.034226 -0.305295 0.951642 0.00285313
-0.0344682 -0.301401 0.952874 0.0023812
-0.0343377 -0.296366 0.954457 0.000820272
-0.0344193 -0.294385 0.955067 0.000631879
-0.0343559 -0.292636 0.955606 0.00158578
-0.0350257 -0.28995 0.956401 0.00269165
-0.0354698 -0.287005 0.957272 0.00400994
-0.0356401 -0.281688 0.958844 0.00277912
-0.0355589 -0.276028 0.960492 0.00162178
-0.0361786 -0.27212 0.961583 0.00133423
-0.0358533 -0.265294 0.963501 0
-0.0359973 -0.26256 0.964244 0
-0.0358906 -0.259458 0.965087 0
-0.0362373 -0.256426 0.965884 0
-0.036202 -0.252367 0.966954 0
-0.0356798 -0.244334 0.969035 0
-0.0359788 -0.242196 0.96956 0
-0.0366947 -0.238324 0.970492 0
-0.0374241 -0.236598 0.970887 0
-0.0376971 -0.234127 0.971475 0.000562163
-0.0378738 -0.230222 0.972401 0.00134133
-0.0377838 -0.229305 0.972621 0.00249542
-0.0377546 -0.225152 0.973592 0.000304346
-0.0388001 -0.225339 0.973508 0.00310307
-0.0399187 -0.224263 0.973711 0.00516975
-0.0393435 -0.217303 0.975311 0.00133126
-0.0395955 -0.215482 0.975705 0.00184955
-0.0403771 -0.2157 0.975625 0.00359245
-0.0414043 -0.214756 0.97579 0.00449595
-0.0419944 -0.214079 0.975913 0.00406668
-0.0420084 -0.207589 0.977314 0.000251066
-0.042931 -0.205132 0.977792 0.00204359
-0.0445273 -0.203423 0.978078 0.00426512
-0.0449708 -0.201437 0.978469 0.00385111
-0.0459318 -0.201109 0.978491 0.00503854
-0.0462291 -0.195859 0.979542 0.00326863
-0.0464651 -0.189773 0.980728 0.000358943
-0.0469702 -0.186426 0.981346 0
-0.0481537 -0.182783 0.981973 0
-0.0478861 -0.176511 0.983133 0
-0.0474032 -0.175438 0.983349 0
-0.0483166 -0.171833 0.98394 0
-0.0486104 -0.167193 0.984725 0
-0.0486376 -0.164672 0.985148 0
-0.0490725 -0.162317 0.985518 0
-0.0502891 -0.158064 0.986147 0.00119278
-0.0498108 -0.152939 0.98698 0.000444865
-0.0493454 -0.146761 0.98794 0
-0.049709 -0.141136 0.988741 0
-0.0497544 -0.135351 0.989548 0
-0.0508898 -0.133482 0.989744 0.00285231
-0.0513067 -0.129596 0.990239 0.00516181
-0.051188 -0.125432 0.990781 0.00281206
-0.0523389 -0.123575 0.990954 0.00393519
-0.0514772 -0.117966 0.991682 0.00136241
-0.0514731 -0.1119 0.992385 0.000907599
-0.0513017 -0.108775 0.992742 0.0037399
-0.0516834 -0.105706 0.993053 0.00311279
-0.0525386 -0.10647 0.992927 0.00547825
-0.0524838 -0.104666 0.993122 0.00499003
-0.0525933 -0.102046 0.993388 0.00433367
-0.0520189 -0.100417 0.993585 0.00388624
-0.0520664 -0.0974852 0.993874 0.00307942
-0.0512218 -0.093734 0.994279 0
-0.0507552 -0.0899281 0.994654 0
-0.0514179 -0.0863358 0.994938 0
-0.0516898 -0.0832046 0.995191 0
-0.0522117 -0.0816799 0.99529 0
-0.0519228 -0.0773293 0.995653 0
-0.0522493 -0.0743366 0.995863 0
-0.0523796 -0.0737257 0.995902 0
-0.0525387 -0.0723515 0.995994 0
-0.0522303 -0.0685253 0.996281 0
-0.0519259 -0.0685741 0.996294 0
-0.0519632 -0.0659634 0.996468 0
-0.0521267 -0.0635883 0.996614 0
-0.0518543 -0.0636084 0.996627 0
-0.0516939 -0.062268 0.99672 0
-0.0527432 -0.0612465 0.996728 0
-0.0529367 -0.0637066 0.996564 0.00286673
-0.0529696 -0.0604419 0.996765 0
-0.0531262 -0.0611936 0.996711 0.000175369
-0.0526668 -0.0579811 0.996927 0
-0.0535534 -0.055869 0.997001 0.00294231
-0.052085 -0.0535543 0.997206 0.00137962
-0.0525657 -0.0544422 0.997132 0.00227592
-0.0525456 -0.0527054 0.997227 0.00172549
-0.0521059 -0.0516501 0.997305 0.00259778
-0.0528614 -0.0527828 0.997206 0.0066858
-0.0526159 -0.0521689 0.997251 0.00645179
-0.052778 -0.0523325 0.997234 0.0081195
-0.0526077 -0.0523726 0.997241 0.00789572
-0.0532263 -0.052938 0.997178 0.00732552
-0.0529498 -0.0540631 0.997133 0.00751168
-0.0534194 -0.0517397 0.997231 0.00766374
-0.0521017 -0.0525101 0.99726 0.00480608
-0.051389 -0.0547072 0.997179 0.0066883
-0.0518093 -0.0560818 0.997081 0.00869236
-0.0518456 -0.0564463 0.997059 0.00903087
-0.0522534 -0.0586196 0.996912 0.0107913
-0.0517205 -0.0632532 0.996656 0.0129598
-0.0514509 -0.064304 0.996603 0.013412
-0.0506618 -0.0652095 0.996585 0.0129645
-0.0501863 -0.0659726 0.996559 0.0142779
-0.0505165 -0.0657697 0.996555 0.0130689
-0.049556 -0.0673418 0.996499 0.0141263
-0.049479 -0.0696018 0.996347 0.0153708
-0.049873 -0.0737072 0.996032 0.0147169
-0.0501812 -0.0767815 0.995784 0.016788
-0.0484962 -0.0774249 0.995818 0.0138975
-0.0490444 -0.0765297 0.99586 0.0133544
-0.0483464 -0.0747176 0.996032 0.0145124
-0.0482065 -0.0760018 0.995942 0.0156336
-0.0483 -0.07812 0.995773 0.0181865
-0.0463994 -0.074306 0.996156 0.0144106
-0.0457483 -0.0721647 0.996343 0.00976341
-0.0443155 -0.0738283 0.996286 0.00797493
-0.044354 -0.0765773 0.996077 0.00848708
-0.0443378 -0.0786975 0.995912 0.0059457
-0.0443858 -0.0818835 0.995653 0.00772931
-0.0446827 -0.0850772 0.995372 0.00757165
-0.0437467 -0.0864105 0.995299 0.00580405
-0.0435799 -0.084344 0.995483 0.00434787
-0.04401 -0.0827023 0.995602 0.00277845
-0.0432696 -0.085527 0.995396 0.00701235
-0.0423508 -0.0847389 0.995503 0.00441997
-0.0432845 -0.0855502 0.995393 0.0042493
-0.0422692 -0.0864917 0.995355 0.00306779
-0.0424897 -0.0883504 0.995183 0.00378129
-0.0439975 -0.0911612 0.994864 0.00698089
-0.0441307 -0.0916529 0.994813 0.0090959
-0.0450803 -0.0924092 0.9947 0.00748559
-0.0442325 -0.0923382 0.994745 0.00692461
-0.0449567 -0.0920893 0.994735 0.00728796
-0.0447024 -0.0919027 0.994764 0.00706563
-0.0455019 -0.0913959 0.994775 0.00987112
-0.046744 -0.0921416 0.994648 0.011227
-0.047007 -0.0924181 0.99461 0.0142993
-0.047722 -0.0920562 0.99461 0.0164559
-0.048164 -0.0916508 0.994626 0.0186161
-0.0486938 -0.0894001 0.994805 0.01751
-0.0487629 -0.0871582 0.995 0.0171037
-0.0494651 -0.089443 0.994763 0.0201885
-0.0487482 -0.0841043 0.995264 0.0147032
-0.0489777 -0.0834965 0.995304 0.0148501
-0.0487696 -0.0822995 0.995414 0.0141119
-0.0485149 -0.0836736 0.995311 0.0150245
-0.0478128 -0.0809973 0.995567 0.0125636
-0.0469992 -0.0779393 0.99585 0.00893648
-0.0462447 -0.0752583 0.996091 0.00641924
-0.0456498 -0.074695 0.996161 0.00434801
-0.0459202 -0.0738245 0.996213 0.00563622
-0.044739 -0.0718043 0.996415 0.00450952
-0.0438992 -0.0681572 0.996708 0.00195383
-0.0437585 -0.0671021 0.996786 0.000370559
-0.0434611 -0.066284 0.996854 0
-0.042776 -0.0632356 0.997082 0
-0.0423996 -0.0626442 0.997135 0
-0.0422052 -0.0636481 0.997079 0
-0.0419978 -0.0630265 0.997128 0
-0.042116 -0.0619272 0.997192 0
-0.0421118 -0.0605248 0.997278 0
-0.0429064 -0.0613559 0.997193 0.00232461
-0.0424777 -0.0603222 0.997275 0.00118717
-0.0428453 -0.0598816 0.997286 0.00115292
-0.042392 -0.0575638 0.997441 0
-0.0426865 -0.0580105 0.997403 0
-0.0429748 -0.0593575 0.997311 0.00172966
-0.043131 -0.0588615 0.997334 0.000451654
-0.042629 -0.0565729 0.997488 0
-0.042487 -0.0572689 0.997454 0
-0.0428692 -0.0570816 0.997449 0
-0.0433651 -0.0572446 0.997418 0
-0.0440271 -0.0557658 0.997473 0
-0.0440358 -0.0540531 0.997567 0
-0.044333 -0.0523379 0.997645 0
-0.0452935 -0.0502463 0.997709 0
-0.0457943 -0.0494843 0.997724 0
-0.0468309 -0.0505858 0.997621 0
-0.0475384 -0.0522281 0.997503 0.00052973
-0.0479449 -0.0503944 0.997578 0.000638515
-0.0483715 -0.0491616 0.997619 0.00175477
-0.0488362 -0.0468473 0.997708 0.00204639
-0.0488944 -0.04431 0.997821 0.00404507
-0.0484477 -0.0432396 0.997889 0.00405675
-0.0480294 -0.0356115 0.998211 0
-0.048088 -0.0311585 0.998357 0
-0.0485081 -0.0299695 0.998373 0
-0.0490269 -0.0285417 0.99839 0
-0.0495265 -0.0225928 0.998517 0
-0.0499506 -0.0237566 0.998469 0
-0.050564 -0.0192489 0.998535 0
-0.0502742 -0.0146695 0.998628 0
-0.050471 -0.00997572 0.998676 0
-0.0510403 -0.00620879 0.998677 0
-0.0517661 -0.0031157 0.998654 0
-0.0518507 -0.00141728 0.998654 0
-0.052376 0.00836594 0.998592 0
-0.0534818 0.0153089 0.998451 0
-0.0535728 0.0202645 0.998358 0
-0.0537788 0.0248557 0.998243 0
-0.0539846 0.0299753 0.998092 0
-0.0548059 0.0390469 0.997733 0
-0.0553365 0.0483961 0.997294 0
-0.0334869 -0.377138 0.925552 0
-0.0338333 -0.367391 0.929451 0.000171785
-0.033812 -0.361677 0.93169 0
-0.0341824 -0.352793 0.935077 0
-0.0350448 -0.349785 0.936174 0.00206937
-0.0344027 -0.340015 0.939791 0
-0.0346507 -0.334233 0.941853 0
-0.0350388 -0.327621 0.944159 0
-0.0353652 -0.318798 0.947163 0
-0.0352899 -0.314039 0.948754 0
-0.0357778 -0.313379 0.948954 0
-0.0359132 -0.309965 0.950069 0.00103035
-0.0368382 -0.307112 0.95096 0.000532681
-0.0368341 -0.299889 0.953263 0.000241428
-0.0373155 -0.299357 0.953411 0.000903268
-0.0381761 -0.297117 0.954078 0.00126643
-0.0387784 -0.295443 0.954573 0.00242187
-0.0393218 -0.293586 0.955123 0.00322723
-0.0392388 -0.286807 0.957184 0.00131057
-0.0395234 -0.286929 0.957136 0.00518955
-0.0395412 -0.281127 0.958856 0.0041171
-0.0400194 -0.277921 0.95977 0.00338005
-0.0400494 -0.276125 0.960287 0.00400561
-0.0395906 -0.268921 0.962348 0.00131159
-0.0402103 -0.26273 0.964031 0.00102399
-0.0398793 -0.259657 0.964877 0
-0.0398575 -0.256595 0.965697 0.000672556
-0.0410327 -0.25477 0.966131 0.00304354
-0.0408224 -0.248305 0.967821 0
-0.0417323 -0.246596 0.968219 0.00132024
-0.0419961 -0.246306 0.968282 0.00454459
-0.0435448 -0.246459 0.968174 0.00572107
-0.0439128 -0.242869 0.969065 0.0058373
-0.0437016 -0.236816 0.970571 0.00424508
-0.0437825 -0.233525 0.971365 0.00408987
-0.0443085 -0.232998 0.971467 0.00464799
-0.0442625 -0.22979 0.972233 0.00517431
-0.0442769 -0.224142 0.97355 0.00418026
-0.0436764 -0.219003 0.974746 0.00221328
-0.0445556 -0.222599 0.973891 0.00763447
-0.0462627 -0.220051 0.974391 0.00977314
-0.0468358 -0.218341 0.974748 0.0120889
-0.046569 -0.216607 0.975147 0.0123114
-0.0471524 -0.215029 0.975469 0.0126735
-0.0470713 -0.210312 0.9765 0.0105813
-0.0474577 -0.206055 0.977389 0.0104782
-0.047389 -0.200899 0.978465 0.00770934
-0.0470834 -0.196809 0.979311 0.00789863
-0.0472788 -0.189683 0.980706 0.00508665
-0.0471979 -0.184115 0.981771 0.00337877
-0.047165 -0.180783 0.982391 0.00540337
-0.0477103 -0.176629 0.983121 0.00608062
-0.0486218 -0.172554 0.983799 0.00712749
-0.0481702 -0.166617 0.984844 0.00473032
-0.0484341 -0.16285 0.985461 0.00313388
-0.0492005 -0.157162 0.986347 0.00468797
-0.049794 -0.151665 0.987177 0.00590839
-0.0511273 -0.149728 0.987404 0.00873192
-0.0505122 -0.146342 0.987944 0.00832107
-0.0498463 -0.139723 0.988935 0.00739436
-0.0499366 -0.138872 0.98905 0.00851415
-0.0503173 -0.139502 0.988943 0.00920217
-0.0510947 -0.136168 0.989367 0.0121311
-0.0504934 -0.129058 0.990351 0.00848754
-0.0502941 -0.12169 0.991293 0.00662557
-0.050035 -0.118712 0.991667 0.0074964
-0.0497893 -0.114473 0.992178 0.00721197
-0.0500372 -0.110974 0.992563 0.00854883
-0.0497062 -0.103228 0.993415 0.0066671
-0.0499913 -0.0985414 0.993876 0.00591365
-0.0500414 -0.0939367 0.99432 0.00468788
-0.0500003 -0.0929777 0.994412 0.00299814
-0.0495563 -0.0929668 0.994435 0.0032164
-0.0489285 -0.0907826 0.994668 0.00144151
-0.0492655 -0.0886034 0.994848 0
-0.050106 -0.0880291 0.994857 0.00290488
-0.050336 -0.0835049 0.995235 0.00218224
-0.0489106 -0.0782328 0.995735 0
-0.0499711 -0.0751453 0.99592 0.00339333
-0.0501766 -0.0743567 0.995969 0.00427152
-0.0501291 -0.0741335 0.995988 0.00352654
-0.04943 -0.0694384 0.996361 0
-0.0496013 -0.067395 0.996493 0
-0.0496503 -0.0657447 0.996601 0
-0.049603 -0.0648283 0.996663 0
-0.0501209 -0.0648203 0.996637 0
-0.0502725 -0.0635169 0.996714 0
-0.0507209 -0.0623814 0.996763 0.000800338
-0.0510306 -0.0636682 0.996666 0.00244061
-0.0497968 -0.058825 0.997026 0
-0.0496899 -0.0587027 0.997038 0.000959441
-0.0493058 -0.0553836 0.997247 0
-0.0496628 -0.0531026 0.997353 0.00149884
-0.049192 -0.050269 0.997524 0.0012771
-0.0494825 -0.0488262 0.997581 0
-0.048444 -0.0474696 0.997697 0
-0.0490534 -0.0492668 0.99758 0
-0.0491009 -0.0486625 0.997608 0.00150151
-0.049022 -0.0504378 0.997523 0.0044113
-0.0497092 -0.049906 0.997516 0.00440922
-0.0494647 -0.0487969 0.997583 0.00493009
-0.0495101 -0.04969 0.997537 0.0057216
-0.0496883 -0.0514875 0.997437 0.00779362
-0.0481033 -0.0511337 0.997533 0.00543225
-0.0499367 -0.0515595 0.997421 0.00853399
-0.049076 -0.0524369 0.997418 0.00663595
-0.0491018 -0.0544679 0.997307 0.00760151
-0.0485621 -0.054253 0.997346 0.00650077
-0.0485951 -0.0535341 0.997383 0.007261
-0.0481445 -0.0559893 0.99727 0.0072096
-0.0482149 -0.0561673 0.997257 0.009192
-0.0479857 -0.0579388 0.997166 0.00870791
-0.0476608 -0.061676 0.996958 0.0102081
-0.0473079 -0.0607347 0.997032 0.00995742
-0.0469164 -0.0603086 0.997077 0.00933233
-0.0464508 -0.0602847 0.9971 0.0118911
-0.0475038 -0.0627563 0.996898 0.0142935
-0.0464274 -0.0645184 0.996836 0.0136033
-0.0463674 -0.0678057 0.996621 0.0152115
-0.0455883 -0.068729 0.996593 0.0150346
-0.0434587 -0.0658382 0.996883 0.0104988
-0.0436747 -0.0667804 0.996811 0.0119415
-0.0430285 -0.0685443 0.99672 0.00880716
-0.0425861 -0.0714102 0.996538 0.0101029
-0.0415558 -0.0719533 0.996542 0.00591354
-0.0407276 -0.0737008 0.996448 0.0035375
-0.0404294 -0.0760791 0.996282 0.00448182
-0.0400013 -0.0770057 0.996228 3.71061e-05
-0.0398527 -0.0785473 0.996113 0.00202985
-0.0402825 -0.078007 0.996139 0.00272435
-0.0396272 -0.0772892 0.996221 0
-0.039169 -0.0784057 0.996152 0
-0.0385711 -0.0808045 0.995983 0
-0.0381537 -0.0820734 0.995896 0
-0.0383341 -0.0833613 0.995782 0
-0.0380442 -0.0840351 0.995736 0
-0.0379191 -0.0855864 0.995609 0
-0.0386391 -0.0850424 0.995628 0
-0.0389018 -0.0857435 0.995557 0
-0.0389465 -0.0861711 0.995519 0.000353815
-0.0394333 -0.0875882 0.995376 0
-0.0398919 -0.0899613 0.995146 0.00138358
-0.040411 -0.0918089 0.994956 0.00404931
-0.0401729 -0.0933526 0.994822 0.00288133
-0.039974 -0.0927774 0.994884 0.0028644
-0.0406053 -0.09249 0.994885 0.00630967
-0.0412819 -0.0910081 0.994994 0.00764171
-0.0415391 -0.0923406 0.994861 0.00796601
-0.0416832 -0.091399 0.994942 0.00842883
-0.0423233 -0.091164 0.994936 0.0109823
-0.0422786 -0.0881605 0.995209 0.00909183
-0.0431693 -0.0892113 0.995077 0.0123238
-0.0435437 -0.089599 0.995026 0.014655
-0.0443355 -0.0876281 0.995166 0.0151958
-0.0443098 -0.0880967 0.995126 0.0156207
-0.0442938 -0.0862773 0.995286 0.0157734
-0.0444942 -0.0825163 0.995596 0.0140621
-0.0452382 -0.0814207 0.995653 0.0144429
-0.0445258 -0.0798926 0.995809 0.0129598
-0.0443624 -0.0779065 0.995973 0.0122258
-0.0432615 -0.0758847 0.996178 0.0100696
-0.0432626 -0.0736688 0.996344 0.00746451
-0.0430141 -0.0721992 0.996462 0.00842803
-0.0428906 -0.0719979 0.996482 0.00811916
-0.0426432 -0.0694536 0.996673 0.00721051
-0.0417253 -0.0662315 0.996931 0.00420662
-0.0416206 -0.0656349 0.996975 0.00667918
-0.0411586 -0.0650727 0.997031 0.0016214
-0.0410568 -0.0648611 0.997049 0.00105838
-0.0403933 -0.0642929 0.997113 0
-0.0394189 -0.0619242 0.997302 0
-0.0389939 -0.059822 0.997447 0
-0.0389566 -0.0591125 0.997491 0
-0.0391946 -0.0593061 0.99747 0
-0.03926 -0.0596023 0.99745 0
-0.0392668 -0.0594153 0.997461 0
-0.03949 -0.0569773 0.997594 0
-0.0403493 -0.0571263 0.997551 0
-0.0402579 -0.0560917 0.997614 0
-0.0408788 -0.0566379 0.997558 0
-0.0412951 -0.0585343 0.997431 0
-0.0416703 -0.0602719 0.997312 0.000896293
-0.0420879 -0.062203 0.997176 0.00165549
-0.0425623 -0.0595002 0.99732 0.00127839
-0.0432423 -0.0584216 0.997355 0.00265138
-0.0432969 -0.0594952 0.997289 0.001121
-0.0435822 -0.0587425 0.997321 0.00155963
-0.044033 -0.055693 0.997477 0
-0.0449653 -0.0523998 0.997613 0
-0.0448229 -0.0522898 0.997626 0
-0.0453482 -0.0497592 0.997731 0
-0.0457124 -0.0469634 0.99785 0
-0.045852 -0.0463594 0.997872 0
-0.0458796 -0.0452252 0.997923 0
-0.045855 -0.0403622 0.998132 0
-0.0457417 -0.0363347 0.998292 0
-0.0458404 -0.0332121 0.998397 0
-0.0467601 -0.0308445 0.99843 0
-0.0465921 -0.0260778 0.998574 0
-0.0466376 -0.0248253 0.998603 0
-0.0472743 -0.0245123 0.998581 0
-0.0480602 -0.0203041 0.998638 0
-0.0479651 -0.0174913 0.998696 0
-0.0487623 -0.0171137 0.998664 0
-0.0489538 -0.0129195 0.998717 0
-0.0488862 -0.00794773 0.998773 0
-0.0488241 8.98979e-05 0.998807 0
-0.0490482 0.00499892 0.998784 0
-0.0493356 0.0123299 0.998706 0
-0.0491703 0.0176914 0.998634 0
-0.0499822 0.0231324 0.998482 0
-0.050394 0.029355 0.998298 0
-0.0513654 0.0349229 0.998069 0
-0.0513919 0.0425787 0.99777 0
-0.0355445 -0.250078 0.967573 0.00287717
-0.0352436 -0.244483 0.969013 0.00169307
-0.0359441 -0.241269 0.969792 0.00177442
-0.0357807 -0.235553 0.971203 0
-0.0358151 -0.230036 0.972523 0
-0.0357938 -0.227894 0.973028 0
-0.0353318 -0.224981 0.973722 5.88752e-05
-0.0354588 -0.224263 0.973883 0.00399526
-0.0354732 -0.220534 0.974734 0.00501288
-0.0345805 -0.216585 0.975651 0.00392987
-0.0343304 -0.21052 0.976987 0.00368546
-0.0343347 -0.206987 0.977741 0.00272019
-0.0340967 -0.20161 0.978872 0.00115741
-0.0338191 -0.197729 0.979673 0.000625678
-0.0339858 -0.193067 0.980597 0
-0.0335738 -0.188525 0.981494 0
-0.0327526 -0.184065 0.982368 0
-0.032965 -0.182257 0.982698 0
-0.0328302 -0.178545 0.983384 0
-0.0322648 -0.175075 0.984026 0
-0.031193 -0.170527 0.984859 0
-0.0315823 -0.167985 0.985284 0
-0.0312381 -0.164442 0.985892 0
-0.0320631 -0.160093 0.986581 0
-0.0331287 -0.158812 0.986753 0
-0.0333351 -0.153938 0.987518 0
-0.0334843 -0.149636 0.988174 0
-0.0333832 -0.148001 0.988424 0
-0.0336575 -0.141841 0.989317 0
-0.0343271 -0.136581 0.990034 0
-0.0345644 -0.133185 0.990488 0
-0.0353295 -0.127449 0.991216 0
-0.0356778 -0.12184 0.991908 0
-0.0358989 -0.118462 0.992309 0
-0.0363151 -0.117523 0.992406 0
-0.0367365 -0.112941 0.992922 0
-0.0372062 -0.110582 0.99317 0
-0.0381542 -0.107238 0.993501 0
-0.0386491 -0.102345 0.993998 0.00153887
-0.0381834 -0.0975488 0.994498 0
-0.0384521 -0.0944906 0.994783 0
-0.038912 -0.0924922 0.994953 0
-0.0398711 -0.0909975 0.995053 0
-0.0400657 -0.0858809 0.995499 1.06195e-05
-0.0412481 -0.0839843 0.995613 0.0016073
-0.0416785 -0.0814913 0.995802 0.000744398
-0.0415567 -0.07854 0.996044 0.000399759
-0.0431524 -0.0773917 0.996066 0.00430963
-0.044165 -0.075293 0.996183 0.00593664
-0.0441956 -0.071375 0.99647 0.00556705
-0.0436817 -0.0670013 0.996796 0.00187756
-0.0434802 -0.0637964 0.997015 0
-0.0431956 -0.062757 0.997094 5.11465e-06
-0.0431033 -0.0620604 0.997141 0
-0.0432019 -0.0587922 0.997335 0
-0.043788 -0.0592232 0.997284 0.00203191
-0.0445432 -0.0589243 0.997268 0.00500571
-0.0445164 -0.057596 0.997347 0.00530374
-0.0432895 -0.0534277 0.997633 0.00237147
-0.0430349 -0.0498503 0.997829 0.00206738
-0.0433575 -0.0494873 0.997833 0.00358246
-0.0430968 -0.0476334 0.997935 0.00143103
-0.0439399 -0.0472298 0.997917 0.00471399
-0.044142 -0.0464734 0.997944 0.00393613
-0.0440157 -0.0478823 0.997883 0.00322072
-0.0442662 -0.0460403 0.997958 0.00421601
-0.0436316 -0.0456441 0.998004 0.000708924
-0.0443622 -0.0477413 0.997874 0.00416466
-0.0444289 -0.0493324 0.997794 0.00369419
-0.0450265 -0.0503685 0.997715 0.00557552
-0.0449894 -0.0506909 0.997701 0.00669413
-0.0442924 -0.047315 0.997898 0.00327527
-0.0434695 -0.0452325 0.99803 0.000890582
-0.0436584 -0.0460779 0.997983 0.000558924
-0.043118 -0.0472701 0.997951 0
-0.0432795 -0.0500316 0.997809 0
-0.0442008 -0.0527118 0.997631 0.00298413
-0.0439191 -0.0540198 0.997573 0.00164082
-0.0440589 -0.0548402 0.997523 0.00350655
-0.044094 -0.0575198 0.99737 0.00505634
-0.0440297 -0.0592357 0.997273 0.00335208
-0.0438713 -0.0593843 0.997271 0.00528538
-0.0428685 -0.0588809 0.997344 0.00406631
-0.0421629 -0.0609901 0.997247 0.00416871
-0.0416825 -0.0618548 0.997214 0.00209774
-0.040257 -0.0581893 0.997494 0
-0.0403937 -0.058681 0.997459 0
-0.0404286 -0.0607356 0.997335 0.00026589
-0.0409122 -0.0640446 0.997108 0.00205095
-0.0408286 -0.0655908 0.997011 0.000530601
-0.0404082 -0.0667217 0.996953 0.00179655
-0.0394728 -0.0678443 0.996915 0
-0.0391123 -0.0689817 0.996851 0
-0.0384161 -0.0692022 0.996863 0
-0.037959 -0.0687653 0.996911 0
-0.0377955 -0.0708664 0.99677 0
-0.037596 -0.0718977 0.996703 0
-0.037612 -0.0740316 0.996546 0.00120384
-0.0376557 -0.07555 0.996431 0.00149086
-0.037972 -0.0795442 0.996108 0.00349956
-0.0379941 -0.0818149 0.995923 0.00539345
-0.0368065 -0.0793897 0.996164 0
-0.0358639 -0.0806532 0.996097 0.00141376
-0.0361003 -0.0830899 0.995888 0.0029824
-0.0359693 -0.0832777 0.995877 0.00310003
-0.0353436 -0.0840612 0.995834 0.00183263
-0.034734 -0.0832018 0.995927 0.000767134
-0.0346037 -0.0832285 0.995929 0
-0.0341846 -0.0856803 0.995736 0
-0.0334099 -0.08689 0.995658 0
-0.0339635 -0.0876138 0.995575 0
-0.0338022 -0.088252 0.995524 0.00160025
-0.0343261 -0.0918585 0.99518 0.00304766
-0.034933 -0.0955702 0.99481 0.009219
-0.0348175 -0.0951857 0.99485 0.00887736
-0.0346347 -0.0921644 0.995141 0.00892501
-0.0341256 -0.0900988 0.995348 0.0046307
-0.0338508 -0.08806 0.99554 0.00268576
-0.0335096 -0.0856372 0.995763 0.00333166
-0.0330956 -0.0834389 0.995963 0.00056021
-0.0337493 -0.0842025 0.995877 0.00344167
-0.0338298 -0.0837274 0.995914 0.00440014
-0.0336124 -0.081501 0.996106 0.00197825
-0.0335462 -0.0811987 0.996133 0.00419136
-0.0339181 -0.0810083 0.996136 0.00682724
-0.0333236 -0.0782081 0.99638 0.00485743
-0.033432 -0.0763528 0.99652 0.00386488
-0.0328777 -0.0731675 0.996778 0.00371139
-0.0325334 -0.0705625 0.996977 0.00230266
-0.0326006 -0.0692828 0.997064 0.000860486
-0.0330877 -0.0694228 0.997038 0.000724073
-0.0334978 -0.0671549 0.99718 0.00019238
-0.0334093 -0.0663891 0.997234 0
-0.0347026 -0.0671937 0.997136 0.00257779
-0.0353381 -0.0674724 0.997095 0.00286845
-0.0356909 -0.0672032 0.997101 0.00212658
-0.035407 -0.0666188 0.99715 0
-0.0350197 -0.06528 0.997252 0
-0.0354017 -0.0645957 0.997283 0
-0.0358321 -0.0619877 0.997433 0
-0.036346 -0.0619595 0.997417 0
-0.0371863 -0.0644477 0.997228 0
-0.0376584 -0.0640362 0.997237 0
-0.0377136 -0.0631723 0.99729 0
-0.0378674 -0.0620815 0.997352 0
-0.0377071 -0.0629763 0.997302 0
-0.0381417 -0.0654678 0.997126 0
-0.0382819 -0.0645466 0.99718 0
-0.0384406 -0.0631719 0.997262 0
-0.0383021 -0.0624425 0.997313 0
-0.0383646 -0.061013 0.997399 0
-0.0384361 -0.0589598 0.99752 0
-0.0381105 -0.0571042 0.997641 0
-0.037407 -0.0541602 0.997831 0
-0.0374855 -0.0546622 0.997801 0
-0.0371244 -0.0539298 0.997854 0
-0.0370332 -0.0525506 0.997931 0
-0.0369289 -0.0512333 0.998004 0
-0.0368169 -0.0483115 0.998154 0
-0.0368027 -0.0446764 0.998323 0
-0.0369441 -0.0471806 0.998203 0
-0.0175792 -0.403795 0.914681 0
-0.0182773 -0.399897 0.916378 0
-0.0190639 -0.395414 0.918305 0
-0.019414 -0.391476 0.919984 0
-0.0200013 -0.387522 0.921643 0
-0.0203 -0.384031 0.923097 0
-0.0208268 -0.377268 0.92587 0
-0.021463 -0.37217 0.927917 0
-0.0221529 -0.364574 0.930911 0
-0.022277 -0.358101 0.933417 0.000106563
-0.0229543 -0.351388 0.935949 0.00111433
-0.0233538 -0.349114 0.936789 0.00117261
-0.0234519 -0.344763 0.938397 0.00139971
-0.0235254 -0.339114 0.940451 0.00260998
-0.0237217 -0.332514 0.9428 0.0011612
-0.0241172 -0.32933 0.943907 0.00160738
-0.0240656 -0.33116 0.943268 0.00436718
-0.0241168 -0.327041 0.944702 0.00365969
-0.0240415 -0.321936 0.946456 0.00345209
-0.023977 -0.315857 0.948504 0.00350944
-0.0236167 -0.308721 0.950859 0.00173569
-0.023358 -0.300907 0.953368 0.00175446
-0.0230052 -0.293842 0.955577 0
-0.0235513 -0.293122 0.955785 0
-0.0235298 -0.288093 0.957313 0
-0.0238864 -0.288785 0.957096 0.00430917
-0.0239463 -0.286105 0.957899 0.00780436
-0.0239147 -0.280535 0.959546 0.00807441
-0.0242491 -0.282756 0.958885 0.0124903
-0.0248386 -0.280378 0.959568 0.0147019
-0.0243154 -0.274227 0.961358 0.0128003
-0.024439 -0.266818 0.963437 0.0105403
-0.0247183 -0.263081 0.964457 0.0115045
-0.0244915 -0.255444 0.966514 0.00718611
-0.0236331 -0.249071 0.968197 0.005989
-0.0240527 -0.243088 0.969706 0.00450692
-0.0240042 -0.238537 0.970837 0.00366881
-0.0243029 -0.231612 0.972505 0.00164512
-0.0249331 -0.226924 0.973593 0.000297146
-0.0251378 -0.22188 0.97475 0.000570658
-0.0257896 -0.220208 0.975112 0.00217476
-0.0257046 -0.217809 0.975653 0.00367973
-0.0267234 -0.215493 0.97614 0.00520933
-0.0272241 -0.213815 0.976495 0.00664207
-0.0271823 -0.211512 0.976997 0.00856192
-0.0276752 -0.206831 0.977985 0.00841613
-0.0280807 -0.204509 0.978462 0.00797618
-0.0285152 -0.20301 0.978761 0.00996879
-0.0278969 -0.198378 0.979729 0.00962925
-0.0283144 -0.195948 0.980205 0.0105148
-0.0283104 -0.188479 0.981669 0.00805045
-0.0288174 -0.185785 0.982168 0.0088459
-0.0286574 -0.179637 0.983315 0.00687123
-0.0285717 -0.176938 0.983807 0.00540987
-0.028269 -0.169705 0.985089 0.00130789
-0.0295727 -0.171059 0.984817 0.00587219
-0.0300737 -0.169449 0.98508 0.00674327
-0.0298403 -0.165202 0.985808 0.00528267
-0.029257 -0.161888 0.986375 0.00382685
-0.029784 -0.158514 0.986907 0.00235604
-0.0299972 -0.154543 0.987531 0.00121145
-0.0301486 -0.148747 0.988416 0
-0.0303555 -0.141524 0.989469 0
-0.0311889 -0.137355 0.990031 0
-0.0315847 -0.131703 0.990786 0
-0.032286 -0.129365 0.991071 0
-0.0326003 -0.124675 0.991662 0
-0.0329799 -0.121242 0.992075 0
-0.0322773 -0.119613 0.992296 0
-0.0322263 -0.115608 0.992772 0
-0.0332997 -0.114687 0.992843 0
-0.0333469 -0.109613 0.993415 0
-0.0336848 -0.107118 0.993676 0.000395268
-0.0341716 -0.105449 0.993837 0.00276158
-0.0342073 -0.102877 0.994106 0.00325736
-0.0347399 -0.0984268 0.994538 0.00434144
-0.0349613 -0.0946342 0.994898 0.0050894
-0.0352035 -0.0926545 0.995076 0.00560422
-0.0355566 -0.0930333 0.995028 0.00805258
-0.0356057 -0.0897926 0.995324 0.00795608
-0.0361265 -0.0873598 0.995522 0.0101731
-0.0354439 -0.0844194 0.9958 0.00864478
-0.0358697 -0.0809574 0.996072 0.00800834
-0.0357929 -0.0762985 0.996442 0.00447979
-0.0364913 -0.0718261 0.996749 0.004683
-0.0359455 -0.0683368 0.997015 0.00284367
-0.0363653 -0.0663909 0.997131 0.00316607
-0.0364711 -0.0642866 0.997265 0.00306078
-0.0372953 -0.0638989 0.997259 0.00526355
-0.0369009 -0.0611117 0.997449 0.00489339
-0.0365024 -0.0580966 0.997643 0.00435685
-0.0356613 -0.0548988 0.997855 0.00200213
-0.0365989 -0.0531083 0.997918 0.0041799
-0.0361644 -0.0515369 0.998016 0.00271988
-0.0364445 -0.051873 0.997988 0.00394803
-0.0364326 -0.050238 0.998073 0.00503212
-0.0353383 -0.0482357 0.998211 0.0024197
-0.0347819 -0.0451657 0.998374 0.000545528
-0.0351511 -0.0444958 0.998391 0.00351222
-0.03533 -0.0440441 0.998405 0.00430243
-0.0359343 -0.0448371 0.998348 0.00476879
-0.0351505 -0.0441173 0.998408 0.00322017
-0.0346591 -0.0441349 0.998424 0.00237377
-0.0348133 -0.046291 0.998321 0.0039397
-0.0350301 -0.0467706 0.998291 0.0058552
-0.0349092 -0.0478224 0.998246 0.00496206
-0.0348004 -0.0474716 0.998266 0.00574696
-0.0346927 -0.0473123 0.998278 0.00234347
-0.03534 -0.0491714 0.998165 0.00602617
-0.0349011 -0.0497968 0.998149 0.00652832
-0.0348474 -0.0499869 0.998142 0.00676417
-0.0342027 -0.0512068 0.998102 0.00562362
-0.0335777 -0.0514761 0.99811 0.00287042
-0.0326657 -0.0497416 0.998228 0
-0.0332847 -0.0513621 0.998125 0.000168354
-0.0328781 -0.0526807 0.99807 0.000413637
-0.032981 -0.0532086 0.998039 0.00181137
-0.0327325 -0.0556049 0.997916 0.00384135
-0.0329599 -0.0590756 0.997709 0.00627185
-0.0318304 -0.0565675 0.997891 0.00336502
-0.0315535 -0.0575454 0.997844 0.0018226
-0.0312918 -0.0583863 0.997804 0.00189287
-0.0310422 -0.0606612 0.997676 0.00178061
-0.0310925 -0.0624393 0.997564 0.00416666
-0.0301626 -0.0611422 0.997673 0.00111425
-0.0303463 -0.0630862 0.997547 0.00387763
-0.0300597 -0.0645145 0.997464 0.00432203
-0.029992 -0.0650107 0.997434 0.00347221
-0.0295968 -0.067123 0.997306 0.0047512
-0.0289205 -0.0673034 0.997313 0.000565218
-0.0286257 -0.0691052 0.997199 0
-0.0280365 -0.0702627 0.997134 0
-0.0283144 -0.0720109 0.997002 5.70607e-05
-0.0283261 -0.0749848 0.996782 0.00326385
-0.0278523 -0.0764734 0.996683 0.00265134
-0.0285786 -0.07871 0.996488 0.00349581
-0.0276248 -0.0797455 0.996432 0.000620992
-0.0271994 -0.0824215 0.996226 0.00144962
-0.0270008 -0.0848373 0.996029 0.002878
-0.0263325 -0.0841835 0.996102 0.000103016
-0.0262265 -0.0846252 0.996068 0
-0.0259347 -0.084659 0.996072 0
-0.0263706 -0.0847443 0.996054 0
-0.0258595 -0.0848419 0.996059 0
-0.0260848 -0.0856702 0.995982 0.000919419
-0.0258216 -0.0861507 0.995947 0.00166045
-0.0250729 -0.0855047 0.996022 0
-0.0245701 -0.0844095 0.996128 0
-0.0243895 -0.0836788 0.996194 0
-0.0248702 -0.0854156 0.996035 0
-0.0250174 -0.084281 0.996128 0
-0.0247206 -0.0828678 0.996254 0.000637711
-0.0241115 -0.0810729 0.996416 0
-0.0240309 -0.0786381 0.996614 0
-0.0244191 -0.0781981 0.996639 0
-0.0244238 -0.0774746 0.996695 0
-0.02396 -0.0759314 0.996825 0
-0.0240999 -0.0758797 0.996826 0
-0.024768 -0.0763099 0.996777 0
-0.0249373 -0.076396 0.996766 0
-0.025265 -0.0758933 0.996796 0
-0.0255202 -0.0761394 0.996771 0
-0.0254872 -0.0782593 0.996607 0
-0.0261832 -0.0806485 0.996399 0.00153559
-0.0265199 -0.0823841 0.996248 0.00484505
-0.0268634 -0.082833 0.996201 0.00307399
-0.0268188 -0.0820554 0.996267 0.00213904
-0.0266376 -0.0818752 0.996287 0.00100663
-0.0267101 -0.080221 0.996419 0
-0.0265663 -0.0804672 0.996403 0
-0.0269442 -0.0826368 0.996215 0.00196355
-0.0273401 -0.0823972 0.996225 0.00241162
-0.0281772 -0.0827516 0.996172 0.00687367
-0.0278692 -0.0826072 0.996192 0.00859477
-0.0277541 -0.0825792 0.996198 0.00784747
-0.0281585 -0.0836522 0.996097 0.00951441
-0.0278003 -0.0823878 0.996213 0.00656208
-0.0277883 -0.0800745 0.996401 0.00332535
-0.028096 -0.08137 0.996288 0.00659387
-0.0279513 -0.082017 0.996239 0.00900044
-0.02787 -0.0811222 0.996314 0.00790158
-0.0280279 -0.0797441 0.996421 0.00774477
-0.0280389 -0.0791738 0.996466 0.00999224
-0.0276302 -0.0768052 0.996663 0.00644122
-0.0272385 -0.0738167 0.9969 0.00415082
-0.0270836 -0.0692572 0.997231 0.000145904
-0.0276102 -0.0672207 0.997356 0.00148415
-0.028434 -0.0661754 0.997403 0.00181553
-0.0295479 -0.0652159 0.997434 0.00173159
-0.0301984 -0.0626349 0.99758 0
-0.0305331 -0.0631957 0.997534 0.000629128
-0.0312689 -0.0619998 0.997586 0
-0.0322304 -0.0645087 0.997397 0.00473149
-0.0325524 -0.0620434 0.997542 0.00458224
-0.0318598 -0.0543554 0.998013 0.000809388
-0.0313733 -0.0501232 0.99825 0
-0.0317384 -0.0486732 0.99831 0
-0.0323516 -0.0473232 0.998356 0
-0.0333234 -0.0446387 0.998447 0
-0.0336526 -0.0470558 0.998325 0.00203532
-0.0337001 -0.0391674 0.998664 0
-0.0345226 -0.0370066 0.998719 0
-0.0352199 -0.0318206 0.998873 0
-0.0359698 -0.0286083 0.998943 0
-0.0366423 -0.0250734 0.999014 0
-0.0370908 -0.0240031 0.999024 0.000605174
-0.0375807 -0.0199091 0.999095 0.000816926
-0.0383447 -0.0163413 0.999131 0.00287089
-0.0385443 -0.0139606 0.999159 0.00228689
-0.0386589 -0.00758573 0.999224 0.00252472
-0.0391321 -0.00224186 0.999232 0.00158124
-0.0393394 0.00478177 0.999215 0
-0.0393512 0.00968796 0.999178 0
-0.0392659 0.0188056 0.999052 0
-0.0389998 0.0276767 0.998856 0
-0.00710176 -0.395106 0.918608 0
-0.00788319 -0.389174 0.921131 0
-0.0090198 -0.389721 0.920889 0
-0.00927454 -0.384077 0.923254 0
-0.0094936 -0.379355 0.925202 0
-0.0100951 -0.375921 0.926597 0
-0.0103616 -0.371458 0.928392 0
-0.0109399 -0.367503 0.929958 0
-0.011203 -0.363597 0.931489 0
-0.0117179 -0.35965 0.933014 0
-0.0122408 -0.357982 0.933648 0
-0.0134502 -0.354576 0.93493 0
-0.0142841 -0.350748 0.936361 0.00055013
-0.014487 -0.346747 0.937847 0.000990102
-0.0150639 -0.34006 0.940283 0
-0.0149714 -0.33489 0.942138 0
-0.0152619 -0.328781 0.944283 0
-0.0165057 -0.32675 0.944967 0.00138257
-0.0174144 -0.324726 0.945648 0.00192998
-0.017877 -0.31965 0.947367 0.00129871
-0.0178749 -0.311913 0.949943 0.000344753
-0.0183276 -0.308304 0.951111 0.00212714
-0.0186607 -0.300514 0.953595 0.000699935
-0.0190108 -0.294979 0.955315 0
-0.0199542 -0.296298 0.954887 0.00447519
-0.0211529 -0.29465 0.955371 0.00619748
-0.0217344 -0.289756 0.956854 0.00652098
-0.021686 -0.286181 0.95793 0.00697392
-0.0221849 -0.281426 0.959327 0.00654071
-0.0221632 -0.276873 0.960651 0.00571022
-0.0235802 -0.277705 0.960377 0.00812879
-0.0239842 -0.272689 0.961803 0.00810607
-0.0244108 -0.267788 0.963169 0.00852356
-0.0241148 -0.259702 0.965388 0.00754719
-0.023648 -0.253754 0.96698 0.00731058
-0.0244439 -0.254792 0.966687 0.0119368
-0.0242692 -0.248401 0.968353 0.00953418
-0.0240578 -0.244397 0.969377 0.00869789
-0.0242539 -0.240607 0.970319 0.00836711
-0.0235109 -0.234551 0.97182 0.00695453
-0.0242671 -0.232346 0.97233 0.00762057
-0.0239894 -0.228474 0.973255 0.00656684
-0.0237821 -0.222109 0.974732 0.00487432
-0.0239921 -0.219111 0.975405 0.00556812
-0.025313 -0.219842 0.975207 0.00969476
-0.0253336 -0.214449 0.976407 0.00924424
-0.0252249 -0.207558 0.977897 0.00806901
-0.0252991 -0.202714 0.978911 0.0050078
-0.0266177 -0.201048 0.97922 0.00654461
-0.0270967 -0.199737 0.979475 0.00832145
-0.0282608 -0.198645 0.979664 0.00983089
-0.0284426 -0.193497 0.980688 0.0103896
-0.029321 -0.191946 0.980967 0.0120205
-0.0298638 -0.191691 0.981001 0.01507
-0.0298757 -0.187591 0.981793 0.0143399
-0.0300835 -0.182183 0.982804 0.0107319
-0.0307729 -0.178688 0.983424 0.0117108
-0.0303773 -0.173419 0.984379 0.00902445
-0.0303321 -0.168516 0.985232 0.00626317
-0.0305339 -0.16436 0.985928 0.00446378
-0.0306502 -0.160705 0.986526 0.00475346
-0.030358 -0.155739 0.987332 0.0036556
-0.030362 -0.150445 0.988152 0.00183249
-0.0306855 -0.14562 0.988865 0.00180673
-0.0307065 -0.140337 0.989627 0
-0.031255 -0.13686 0.990097 0.00104804
-0.0321335 -0.134877 0.990341 0.0040593
-0.0328293 -0.131814 0.990731 0.00635292
-0.0322918 -0.128049 0.991242 0.00521683
-0.0317008 -0.123826 0.991797 0.00390607
-0.0319325 -0.121001 0.992139 0.00513881
-0.0321155 -0.116606 0.992659 0.00529888
-0.0320581 -0.113576 0.993012 0.00598074
-0.0328244 -0.112371 0.993124 0.0105502
-0.0334996 -0.110772 0.993281 0.0118021
-0.0334053 -0.107247 0.993671 0.0109915
-0.0338976 -0.104865 0.993909 0.0131955
-0.0331971 -0.100365 0.994397 0.0120438
-0.0335158 -0.0986831 0.994554 0.0147491
-0.0326871 -0.0947109 0.994968 0.0115624
-0.0330796 -0.092165 0.995194 0.0133569
-0.0333426 -0.08945 0.995433 0.0122075
-0.0338409 -0.0884001 0.99551 0.0141341
-0.0332044 -0.0843901 0.995879 0.0114746
-0.0332579 -0.082196 0.996061 0.0103361
-0.0334759 -0.0794411 0.996277 0.00931788
-0.0337551 -0.0765376 0.996495 0.0105792
-0.0333671 -0.0739969 0.9967 0.0111174
-0.0333353 -0.071604 0.996876 0.010189
-0.0335878 -0.0705658 0.996941 0.0143406
-0.0327582 -0.0662897 0.997263 0.012037
-0.0330004 -0.0643134 0.997384 0.0126585
-0.0321743 -0.0609593 0.997622 0.0103349
-0.0322969 -0.0598249 0.997686 0.00949861
-0.0323978 -0.0567521 0.997862 0.00937633
-0.0328968 -0.05397 0.998001 0.00758052
-0.0322719 -0.0508048 0.998187 0.00300888
-0.0326212 -0.0498981 0.998221 0.0053533
-0.0322958 -0.0481666 0.998317 0.00359685
-0.0316646 -0.0464842 0.998417 0.00316079
-0.032724 -0.0482982 0.998297 0.0077415
-0.0322036 -0.0478259 0.998336 0.00602379
-0.0313668 -0.0450124 0.998494 0.00376321
-0.0316118 -0.0447853 0.998496 0.00449163
-0.03153 -0.0451307 0.998483 0.00773418
-0.031548 -0.0446194 0.998506 0.00694848
-0.031435 -0.0449779 0.998493 0.00641915
-0.0312783 -0.0456377 0.998468 0.0056816
-0.0309159 -0.0459208 0.998467 0.00598574
-0.0315665 -0.0478064 0.998358 0.00818652
-0.0304294 -0.0479787 0.998385 0.00408038
-0.0313011 -0.0491693 0.9983 0.0063851
-0.0298495 -0.0488459 0.99836 0.00213155
-0.0293248 -0.0476858 0.998432 0.000305457
-0.0291208 -0.0489326 0.998378 0.0010255
-0.0283825 -0.0484048 0.998424 0
-0.0282417 -0.0477508 0.99846 0
-0.0284901 -0.0495822 0.998364 0
-0.0283104 -0.0502576 0.998335 0
-0.027735 -0.0513483 0.998296 0
-0.0270802 -0.0512573 0.998318 0
-0.0268413 -0.0529508 0.998236 0
-0.0270054 -0.0536647 0.998194 0
-0.0274786 -0.0544437 0.998139 0
-0.0272602 -0.0566596 0.998021 0
-0.026856 -0.0580904 0.99795 0
-0.0265686 -0.0595261 0.997873 0.000316755
-0.0271261 -0.0623759 0.997684 0.00314013
-0.0270096 -0.0642077 0.997571 0.00400004
-0.0265445 -0.0654292 0.997504 0.00337095
-0.0263916 -0.0683012 0.997316 0.00433432
-0.0257534 -0.0702794 0.997195 0.00433057
-0.0258036 -0.0718995 0.997078 0.00573389
-0.025859 -0.072453 0.997037 0.00399129
-0.0252755 -0.0741277 0.996928 0.00293124
-0.0250005 -0.0766811 0.996742 0.00381347
-0.0245569 -0.0784597 0.996615 0.00348277
-0.0239785 -0.0793452 0.996559 0.0033199
-0.0237087 -0.0813385 0.996405 0.00398345
-0.0228813 -0.0810976 0.996443 0.000587149
-0.0217128 -0.0814624 0.99644 0
-0.0218073 -0.0830337 0.996308 0
-0.0213989 -0.0820465 0.996399 0
-0.0211905 -0.0830834 0.996317 0
-0.0202626 -0.0818581 0.996438 0
-0.019936 -0.0827077 0.996374 0
-0.0201859 -0.08266 0.996373 0.00101647
-0.0199597 -0.0818695 0.996443 0
-0.0199346 -0.0834374 0.996314 0.00110352
-0.0201305 -0.0829198 0.996353 0
-0.019606 -0.0808582 0.996533 0
-0.0197808 -0.0807258 0.99654 0
-0.0197843 -0.0793852 0.996648 0
-0.0203556 -0.0792951 0.996643 0
-0.020805 -0.0793605 0.996629 0
-0.0207852 -0.0791563 0.996646 0
-0.0214427 -0.079473 0.996606 0
-0.0214769 -0.0796689 0.99659 0
-0.0205764 -0.0789083 0.996669 0
-0.0212477 -0.0789046 0.996656 0
-0.0220477 -0.079 0.996631 0
-0.0225603 -0.0793905 0.996588 0
-0.023295 -0.0781115 0.996672 0
-0.0241206 -0.0782015 0.996646 0
-0.0245178 -0.0793144 0.996548 0
-0.0245569 -0.0779477 0.996655 0
-0.0250577 -0.0781833 0.996624 0
-0.0251853 -0.0758434 0.996802 0
-0.0249675 -0.0763583 0.996768 0
-0.0251863 -0.0783826 0.996605 0.000346686
-0.0250422 -0.0785423 0.996596 0
-0.0251331 -0.0766454 0.996742 0
-0.0254175 -0.0771737 0.996694 0
-0.0260983 -0.0779413 0.996616 0
-0.0261574 -0.0784915 0.996572 0.00116748
-0.0267325 -0.0791793 0.996502 0.00264562
-0.0272135 -0.0780937 0.996574 0.00476204
-0.0271915 -0.0777326 0.996603 0.00426253
-0.0276976 -0.0771529 0.996634 0.00683082
-0.0277076 -0.0784132 0.996536 0.0072433
-0.0275754 -0.077148 0.996638 0.00312138
-0.027491 -0.0760226 0.996727 0.00335388
-0.0278522 -0.0777833 0.996581 0.00783973
-0.0272324 -0.0752538 0.996792 0.00543278
-0.0272522 -0.0742905 0.996864 0.00203192
-0.0268067 -0.0719936 0.997045 0
-0.0267076 -0.0730257 0.996972 0
-0.0270237 -0.0715722 0.997069 0
-0.0270986 -0.0715062 0.997072 0
-0.0272014 -0.0710768 0.9971 0
-0.0273728 -0.0701135 0.997163 0
-0.0277976 -0.0692028 0.997215 0
-0.0278778 -0.0691766 0.997215 0
-0.0271596 -0.0656255 0.997475 0
-0.027589 -0.0632994 0.997613 0
-0.0281091 -0.0618024 0.997692 0
-0.0284487 -0.0617658 0.997685 0
-0.0283465 -0.0598604 0.997804 3.76933e-05
-0.0286363 -0.0599825 0.997789 0.000531842
-0.0285909 -0.0575677 0.997932 5.50133e-06
-0.0289995 -0.0559938 0.99801 0.00134746
-0.0295287 -0.0546793 0.998067 0
-0.0293903 -0.0533276 0.998144 0
-0.0296538 -0.0519519 0.998209 0
-0.030068 -0.0477038 0.998409 0
-0.0305755 -0.0449853 0.99852 0
-0.0310195 -0.0418874 0.998641 0
-0.0315311 -0.0325276 0.998973 0
-0.0322017 -0.0288847 0.999064 0.000920496
-0.0325142 -0.025535 0.999145 0
-0.0334137 -0.0194763 0.999252 0
-0.0340908 -0.0132288 0.999331 0
-0.0342699 -0.00802085 0.99938 0.000178164
-0.0345441 -0.00184243 0.999402 0
-0.0347546 0.00358196 0.999389 0
-0.0350435 0.00554646 0.99937 0.00231539
-0.0345393 0.0156369 0.999281 0
-0.0336937 0.0181677 0.999267 0.00291973
-0.00592453 -0.404692 0.914434 0.000620753
-0.00637796 -0.399121 0.916876 0
-0.00721153 -0.392764 0.919611 0.00184463
-0.00756285 -0.391128 0.920305 0.00284071
-0.00761101 -0.379574 0.92513 0
-0.00815342 -0.370847 0.928658 0
-0.0089852 -0.366939 0.930201 0.00134761
-0.00919266 -0.36379 0.931436 0.000480519
-0.00992832 -0.366364 0.930419 0.00247256
-0.0107234 -0.361304 0.932386 0.00255021
-0.0110004 -0.362052 0.932093 0.00370508
-0.0116099 -0.353952 0.935191 0.00275285
-0.0122965 -0.350697 0.936408 0.00346067
-0.0128686 -0.345313 0.938399 0.00418355
-0.0133124 -0.341086 0.939938 0.00439662
-0.013848 -0.332971 0.942835 0.00271765
-0.0145022 -0.331221 0.943442 0.00360914
-0.0146962 -0.330499 0.943692 0.00266599
-0.015558 -0.32688 0.944938 0.00455998
-0.0159919 -0.320805 0.94701 0.00315082
-0.0163985 -0.315136 0.948905 0.00204551
-0.0174262 -0.312003 0.949921 0.00436307
-0.0174243 -0.302505 0.952988 0.000783053
-0.0180981 -0.301103 0.95342 0.00293845
-0.0188835 -0.301392 0.953313 0.00835641
-0.0192957 -0.297937 0.954391 0.00784078
-0.0191324 -0.292982 0.955926 0.00886846
-0.019438 -0.290457 0.956691 0.0109714
-0.0195945 -0.28425 0.95855 0.00931143
-0.0200421 -0.281421 0.959375 0.0104383
-0.0204724 -0.274462 0.96138 0.0103368
-0.0209535 -0.270289 0.962551 0.0104573
-0.0220453 -0.268043 0.963155 0.0123943
-0.0218448 -0.263215 0.96449 0.0128255
-0.0219324 -0.25923 0.965567 0.0122072
-0.0223002 -0.25842 0.965775 0.0148671
-0.0221727 -0.254521 0.966813 0.013522
-0.0216698 -0.248021 0.968512 0.0106761
-0.021852 -0.243116 0.969751 0.00909643
-0.0216849 -0.235693 0.971586 0.00693251
-0.021891 -0.230355 0.97286 0.00650206
-0.021835 -0.229215 0.973131 0.00666112
-0.0208339 -0.220915 0.975071 0.00230357
-0.0207261 -0.217198 0.975907 0.00384534
-0.0209055 -0.215507 0.976279 0.00459288
-0.0216822 -0.214365 0.976513 0.0077719
-0.0218702 -0.212965 0.976815 0.00858757
-0.0224833 -0.208429 0.977779 0.0101288
-0.0236974 -0.206473 0.978165 0.011188
-0.0248303 -0.205248 0.978395 0.0144125
-0.0253812 -0.201437 0.979173 0.0144562
-0.0256934 -0.195887 0.98029 0.0111591
-0.0252261 -0.189972 0.981465 0.00873904
-0.0251101 -0.187981 0.981852 0.00964395
-0.0261219 -0.184827 0.982424 0.0103161
-0.0269534 -0.181719 0.982981 0.0112696
-0.0271924 -0.17972 0.983342 0.012451
-0.027545 -0.177911 0.983661 0.0135102
-0.0290665 -0.176259 0.983915 0.0155483
-0.0291564 -0.173183 0.984458 0.0151685
-0.0288915 -0.169246 0.98515 0.013243
-0.0292121 -0.163052 0.986185 0.0104984
-0.0292246 -0.155106 0.987465 0.00751213
-0.0291168 -0.149351 0.988355 0.00432934
-0.0293326 -0.142879 0.989305 0.00533411
-0.0299526 -0.138664 0.989886 0.00766216
-0.0298924 -0.134849 0.990415 0.00668865
-0.0312914 -0.133578 0.990544 0.0126785
-0.0308795 -0.131116 0.990886 0.0123493
-0.031305 -0.128156 0.99126 0.0125363
-0.0314303 -0.124945 0.991666 0.0133506
-0.0317973 -0.120882 0.992158 0.0129033
-0.0318501 -0.116866 0.992637 0.0116814
-0.0320914 -0.114557 0.992898 0.012847
-0.0330256 -0.113346 0.993007 0.0161514
-0.0322049 -0.107024 0.993735 0.013538
-0.0329315 -0.105325 0.993892 0.0135637
-0.0327527 -0.102051 0.99424 0.0153692
-0.0328075 -0.102591 0.994182 0.0167498
-0.0332001 -0.0998029 0.994453 0.0171614
-0.0333489 -0.096449 0.994779 0.0176537
-0.0331528 -0.0930971 0.995105 0.0155613
-0.0330876 -0.088921 0.995489 0.0137897
-0.0330835 -0.0870825 0.995652 0.0129475
-0.0322418 -0.0831877 0.996012 0.0122673
-0.0327594 -0.0808517 0.996188 0.0132896
-0.0322691 -0.0784469 0.996396 0.0116911
-0.0319622 -0.0761619 0.996583 0.0125003
-0.0326883 -0.0731314 0.996786 0.0145273
-0.0326665 -0.0737322 0.996743 0.0129771
-0.032385 -0.0695306 0.997054 0.0137885
-0.0323248 -0.0651704 0.99735 0.0132128
