-0.0293248 -0.0476858 0.998432 0.000305457
-0.0291208 -0.0489326 0.998378 0.0010255
-0.0283825 -0.0484048 0.998424 0
-0.0282417 -0.0477508 0.99846 0
-0.0284901 -0.0495822 0.998364 0
-0.0283104 -0.0502576 0.998335 0
-0.027735 -0.0513483 0.998296 0
-0.0270802 -0.0512573 0.998318 0
-0.0268413 -0.0529508 0.998236 0
-0.0270054 -0.0536647 0.998194 0
-0.0274786 -0.0544437 0.998139 0
-0.0272602 -0.0566596 0.998021 0
-0.026856 -0.0580904 0.99795 0
-0.0265686 -0.0595261 0.997873 0.000316755
-0.0271261 -0.0623759 0.997684 0.00314013
-0.0270096 -0.0642077 0.997571 0.00400004
-0.0265445 -0.0654292 0.997504 0.00337095
-0.0263916 -0.0683012 0.997316 0.00433432
-0.0257534 -0.0702794 0.997195 0.00433057
-0.0258036 -0.0718995 0.997078 0.00573389
-0.025859 -0.072453 0.997037 0.00399129
-0.0252755 -0.0741277 0.996928 0.00293124
-0.0250005 -0.0766811 0.996742 0.00381347
-0.0245569 -0.0784597 0.996615 0.00348277
-0.0239785 -0.0793452 0.996559 0.0033199
-0.0237087 -0.0813385 0.996405 0.00398345
-0.0228813 -0.0810976 0.996443 0.000587149
-0.0217128 -0.0814624 0.99644 0
-0.0218073 -0.0830337 0.996308 0
-0.0213989 -0.0820465 0.996399 0
-0.0211905 -0.0830834 0.996317 0
-0.0202626 -0.0818581 0.996438 0
-0.019936 -0.0827077 0.996374 0
-0.0201859 -0.08266 0.996373 0.00101647
-0.0199597 -0.0818695 0.996443 0
-0.0199346 -0.0834374 0.996314 0.00110352
-0.0201305 -0.0829198 0.996353 0
-0.019606 -0.0808582 0.996533 0
-0.0197808 -0.0807258 0.99654 0
-0.0197843 -0.0793852 0.996648 0
-0.0203556 -0.0792951 0.996643 0
-0.0207975 -0.0792439 0.996638 0
-0.0208347 -0.0776035 0.996767 0
-0.0214398 -0.0768475 0.996812 0
-0.0216299 -0.0759755 0.996875 0
-0.0206415 -0.0731153 0.99711 0
-0.0212204 -0.0716648 0.997203 0
-0.0218366 -0.0693008 0.997357 0
-0.0223943 -0.0675587 0.997464 0
-0.0231065 -0.0634577 0.997717 0
-0.0241424 -0.0614696 0.997817 0
-0.024924 -0.0601737 0.997877 0
-0.0252932 -0.0570791 0.998049 0
-0.0258141 -0.0554422 0.998128 0.000868834
-0.0259076 -0.0496835 0.998429 0.00202682
-0.0259658 -0.0470563 0.998555 0.000384923
-0.0259943 -0.0441222 0.998688 0.000788632
-0.0260583 -0.0426478 0.99875 0.000668957
-0.0272135 -0.0407437 0.998799 0.0034981
-0.0274717 -0.0391242 0.998857 0.00215903
-0.029215 -0.0388851 0.998817 0.0056306
-0.0300071 -0.0367852 0.998873 0.0075422
-0.0303785 -0.0366812 0.998865 0.00860269
-0.0317857 -0.0319677 0.998983 0.0104612
-0.03181 -0.0295839 0.999056 0.0100784
-0.0326933 -0.0269076 0.999103 0.0125564
-0.0318333 -0.0236028 0.999214 0.00720077
-0.0316446 -0.0199191 0.999301 0.0050837
-0.0327029 -0.0190923 0.999283 0.00798327
-0.0346477 -0.0165348 0.999263 0.0106166
-0.0337153 -0.0123622 0.999355 0.00705933
-0.0347911 -0.00956166 0.999349 0.00722631
-0.0349119 -0.00338265 0.999385 0.00519921
-0.0355186 -0.00131977 0.999368 0.00356647
-0.0363442 0.0030488 0.999335 0.00429702
-0.0361281 0.00313763 0.999342 0.00144459
-0.0370787 0.00746867 0.999284 0.00578216
-0.0370265 0.0102948 0.999261 0.00682511
-0.037958 0.0133273 0.999191 0.00706806
-0.037779 0.0163334 0.999153 0.00794397
-0.0372915 0.0217165 0.999068 0.00799913
-0.0378809 0.0260336 0.998943 0.0103526
-0.0384193 0.028356 0.998859 0.0109115
-0.0394206 0.0322762 0.998701 0.0142956
-0.0395171 0.0367054 0.998544 0.0130748
-0.0388836 0.0400451 0.998441 0.00870538
-0.0383209 0.043105 0.998335 0.0081733
-0.0385864 0.0478134 0.998111 0.0058913
-0.0390215 0.0510434 0.997934 0.0044788
-0.0399201 0.0560649 0.997629 0.0030949
-0.0405216 0.0623581 0.997231 0.00454777
-0.0406549 0.06617 0.99698 0.00349767
-0.0406351 0.0712287 0.996632 0.00235727
-0.0409099 0.0761437 0.996257 0
-0.0418063 0.0831154 0.995663 0.00194102
-0.041884 0.0870055 0.995327 0.00247353
-0.042105 0.0926517 0.994808 0.0032155
-0.0422548 0.0992276 0.994167 0.00167547
-0.0427697 0.107248 0.993312 0.00262273
-0.042529 0.11173 0.992828 0.00129577
-0.0424619 0.125571 0.991175 0
-0.0430782 0.13522 0.989879 0.00126233
-0.0435987 0.144346 0.988566 0.0037101
-0.0449742 0.15164 0.987412 0.00509068
-0.0452152 0.159684 0.986132 0.00548083
-0.0448707 0.16934 0.984536 0.00352725
-0.0455322 0.179578 0.982689 0.00169861
-0.0466709 0.19012 0.980651 0.00154394
-0.0467645 0.202248 0.978217 0.00167729
-0.0479556 0.216482 0.975108 0.00260936
-0.0478771 0.223978 0.973417 0.00548331
-0.0468847 0.237081 0.970358 0.00223477
-0.0471971 0.253255 0.966247 0.00526919
-0.0484154 0.263665 0.963398 0.00655401
-0.0488747 0.277474 0.959489 0.00225255
-0.0030345 -0.423703 0.905796 0.000712981
-0.00273696 -0.419189 0.907895 0.00184415
-0.00344263 -0.412356 0.911016 0.00044225
-0.00396533 -0.413017 0.910715 0.00255362
-0.0044554 -0.404518 0.914519 0.00310324
-0.0050215 -0.398188 0.91729 0.00209013
-0.00529958 -0.388158 0.921578 0.00063604
-0.00578527 -0.385071 0.922869 0
-0.00644949 -0.377565 0.925961 0.00115467
-0.00684224 -0.374378 0.927251 0.000261619
-0.00781602 -0.376895 0.926223 0.00301691
-0.00838759 -0.372195 0.928117 0.0022461
-0.0086787 -0.365307 0.930847 0.00101343
-0.00896476 -0.362254 0.932036 0.00130139
-0.00951485 -0.356807 0.93413 0.00152239
-0.0100614 -0.351544 0.936117 0.00275827
-0.0105202 -0.351727 0.936043 0.00479411
-0.0109815 -0.343127 0.939225 0.00319053
-0.0116203 -0.340586 0.940142 0.00412056
-0.0119251 -0.336808 0.941498 0.00294673
-0.0130428 -0.336581 0.941564 0.00626598
-0.0131885 -0.330223 0.943811 0.00447653
-0.0138996 -0.325603 0.945404 0.00513574
-0.0137304 -0.316569 0.94847 0.00190414
-0.0145221 -0.30995 0.950642 0.000893948
-0.0148749 -0.305851 0.951963 0.00125692
-0.016055 -0.308233 0.951175 0.00677749
-0.0167477 -0.305117 0.952168 0.00756975
-0.0169271 -0.29924 0.954028 0.00750312
-0.0171091 -0.298061 0.954394 0.0108591
-0.0180803 -0.296208 0.954952 0.0117996
-0.018323 -0.290044 0.956838 0.0114081
-0.0190925 -0.283589 0.958756 0.0106318
-0.0193992 -0.277731 0.960463 0.0106289
-0.0203757 -0.27508 0.961205 0.0131645
-0.0199628 -0.269885 0.962686 0.012099
-0.0200405 -0.267107 0.963459 0.0127636
-0.0206788 -0.265748 0.963821 0.0150136
-0.0204748 -0.264116 0.964274 0.015394
-0.0202 -0.257913 0.965957 0.0133576
-0.0201202 -0.251315 0.967696 0.0112663
-0.0198096 -0.242914 0.969846 0.00757035
-0.0204908 -0.237855 0.971084 0.00727975
-0.0206998 -0.236339 0.97145 0.00801101
-0.0198368 -0.227749 0.973518 0.00350878
-0.0197095 -0.223981 0.974394 0.00497084
-0.0203528 -0.222522 0.974715 0.00720201
-0.0208775 -0.220109 0.975252 0.00853785
-0.0216219 -0.217758 0.975763 0.00850094
-0.0221687 -0.213789 0.976628 0.00990789
-0.0235323 -0.212835 0.976805 0.0129812
-0.0246943 -0.209487 0.977499 0.0143008
-0.0253067 -0.206405 0.978139 0.0148129
-0.0258651 -0.199992 0.979456 0.0110985
-0.0254328 -0.194915 0.98049 0.00918248
-0.0251318 -0.191655 0.981141 0.00937893
-0.0261803 -0.188581 0.981709 0.0103465
-0.0270607 -0.186458 0.98209 0.0117123
-0.0274456 -0.183958 0.982551 0.0123574
-0.0277627 -0.182144 0.98288 0.0134692
-0.029351 -0.179584 0.983305 0.0164339
-0.0291256 -0.174788 0.984175 0.0155614
-0.0288291 -0.169668 0.985079 0.0132807
-0.0292121 -0.163052 0.986185 0.0104984
-0.0292246 -0.155106 0.987465 0.00751213
-0.0291168 -0.149351 0.988355 0.00432934
-0.0293326 -0.142879 0.989305 0.00533411
-0.0299526 -0.138664 0.989886 0.00766216
-0.0298924 -0.134849 0.990415 0.00668865
-0.0312914 -0.133578 0.990544 0.0126785
-0.0308795 -0.131116 0.990886 0.0123493
-0.031305 -0.128156 0.99126 0.0125363
-0.0314303 -0.124945 0.991666 0.0133506
-0.0317973 -0.120882 0.992158 0.0129033
-0.0318501 -0.116866 0.992637 0.0116814
-0.0320914 -0.114557 0.992898 0.012847
-0.0330256 -0.113346 0.993007 0.0161514
-0.0322049 -0.107024 0.993735 0.013538
-0.0329315 -0.105325 0.993892 0.0135637
-0.0327527 -0.102051 0.99424 0.0153692
-0.0328075 -0.102591 0.994182 0.0167498
-0.0332001 -0.0998029 0.994453 0.0171614
-0.0333489 -0.096449 0.994779 0.0176537
-0.0331528 -0.0930971 0.995105 0.0155613
-0.0330876 -0.088921 0.995489 0.0137897
-0.0330835 -0.0870825 0.995652 0.0129475
-0.0322418 -0.0831877 0.996012 0.0122673
-0.0327594 -0.0808517 0.996188 0.0132896
-0.0322691 -0.0784469 0.996396 0.0116911
-0.0319622 -0.0761619 0.996583 0.0125003
-0.0326883 -0.0731314 0.996786 0.0145273
-0.0326665 -0.0737322 0.996743 0.0129771
-0.032385 -0.0695306 0.997054 0.0137885
-0.0323248 -0.0651704 0.99735 0.0132128
-0.0316682 -0.0619026 0.99758 0.0116506
-0.0309967 -0.0573517 0.997873 0.00740148
-0.0308373 -0.0561267 0.997947 0.00779204
-0.0308205 -0.0523614 0.998152 0.00753138
-0.0303736 -0.0510127 0.998236 0.00424763
-0.0308699 -0.0498672 0.998279 0.00587163
-0.0312341 -0.0488493 0.998318 0.0066144
-0.0313349 -0.0470075 0.998403 0.00643077
-0.0319011 -0.0472164 0.998375 0.00832471
-0.031584 -0.0463954 0.998424 0.00634105
-0.0302877 -0.0448481 0.998535 0.00282984
-0.0308517 -0.0448212 0.998519 0.00106348
-0.0313998 -0.0452998 0.99848 0.00484989
-0.0313704 -0.0439146 0.998543 0.00547596
-0.0313559 -0.0441699 0.998532 0.0046442
-0.0316562 -0.0443532 0.998514 0.00576834
-0.030879 -0.044834 0.998517 0.00486366
-0.0311409 -0.0457234 0.998469 0.00763161
-0.0307347 -0.0463784 0.998451 0.00621858
-0.029678 -0.0455707 0.99852 0.0047452
-0.0281139 -0.0453062 0.998577 0.000794156
-0.0277368 -0.0453506 0.998586 0
-0.0279828 -0.0478174 0.998464 1.85429e-05
-0.0276762 -0.0468999 0.998516 0
-0.0276522 -0.047309 0.998497 0
-0.0276458 -0.0480093 0.998464 0
-0.0279438 -0.0486807 0.998423 0
-0.0282248 -0.0511342 0.998293 0.000898002
-0.0275214 -0.0524974 0.998242 0
-0.027164 -0.0525995 0.998246 0
-0.0266134 -0.0533886 0.998219 0
-0.0273788 -0.056048 0.998053 0.00164149
-0.0274476 -0.0576066 0.997962 0.00161745
-0.0272246 -0.0600313 0.997825 0.00187377
-0.0274011 -0.0627816 0.997651 0.00560341
-0.0274148 -0.0631677 0.997626 0.00365918
-0.0271634 -0.0641337 0.997572 0.00395119
-0.0274496 -0.0674169 0.997347 0.00453169
-0.0271993 -0.0686326 0.997271 0.004986
-0.0266066 -0.0685262 0.997294 0.00323005
-0.0268203 -0.0718714 0.997053 0.0052105
-0.0264291 -0.0732027 0.996967 0.00512363
-0.0263538 -0.0750622 0.996831 0.00735944
-0.0260897 -0.0764726 0.99673 0.00867529
-0.0257489 -0.0782003 0.996605 0.00907823
-0.0244893 -0.0777001 0.996676 0.00330217
-0.0240479 -0.0789059 0.996592 0.00135386
-0.0239753 -0.0820633 0.996339 0.0044487
-0.0231527 -0.0819635 0.996366 0.00208731
-0.0223044 -0.0814578 0.996427 0.000189598
-0.0217049 -0.0809502 0.996482 0
-0.0211329 -0.0798144 0.996586 0
-0.0213718 -0.0803648 0.996536 0
-0.0209095 -0.0813652 0.996465 0
-0.0207312 -0.0820386 0.996414 0
-0.0208924 -0.0836445 0.996277 0
-0.0207295 -0.0845157 0.996207 0
-0.0213042 -0.0840166 0.996237 0.000466235
-0.0212994 -0.0830844 0.996315 0
-0.0216317 -0.0831676 0.996301 0
-0.0209074 -0.079019 0.996654 0
-0.0206734 -0.0781639 0.996726 0
-0.0208031 -0.0795623 0.996613 0
-0.0211585 -0.0780722 0.996723 0
-0.0223039 -0.0768332 0.996794 0
-0.022586 -0.0771702 0.996762 0
-0.02196 -0.0761861 0.996852 0
-0.0217112 -0.0754382 0.996914 0
-0.0220344 -0.0727075 0.99711 0
-0.0225435 -0.0694889 0.997328 0
-0.0225169 -0.0680368 0.997429 0
-0.0232812 -0.0653046 0.997594 0
-0.0236257 -0.0630839 0.997729 0
-0.0236246 -0.0606826 0.997877 0.000918957
-0.0241888 -0.05751 0.998052 0.00230286
-0.0246526 -0.0535809 0.998259 0.00376762
-0.0249554 -0.0497588 0.998449 0.00260608
-0.0251116 -0.0482582 0.998519 0.00530169
-0.025587 -0.0457625 0.998625 0.00576237
-0.0257918 -0.0442767 0.998686 0.00792426
-0.0263429 -0.0451233 0.998634 0.0100366
-0.0275707 -0.044705 0.99862 0.0129438
-0.0271259 -0.0427906 0.998716 0.0116835
-0.0273039 -0.0398134 0.998834 0.0139607
-0.0278401 -0.0371851 0.998921 0.0112833
-0.0274513 -0.0331997 0.999072 0.009564
-0.0269256 -0.0287057 0.999225 0.0049283
-0.0285656 -0.0288522 0.999175 0.00864824
-0.0289364 -0.0250862 0.999266 0.00811325
-0.028956 -0.0210987 0.999358 0.00597645
-0.0292943 -0.0180192 0.999408 0.0074976
-0.0288323 -0.0159614 0.999457 0.00669413
-0.0287504 -0.0140753 0.999488 0.00461004
-0.029231 -0.00880961 0.999534 0.00469536
-0.0299099 -0.00546373 0.999538 0.00528543
-0.0301194 -0.00170716 0.999545 0.00168738
-0.0314488 0.000757798 0.999505 0.00170515
-0.0304105 0.0047201 0.999526 0.000457994
-0.0308564 0.00979387 0.999476 0
-0.0328225 0.00891664 0.999421 0.00260841
-0.0323037 0.0120874 0.999405 0.00268531
-0.0330246 0.0168883 0.999312 0.00239273
-0.0344605 0.0195765 0.999214 0.00788672
-0.0339798 0.0254206 0.999099 0.00642525
-0.0342593 0.0307001 0.998941 0.00660896
-0.036032 0.0346631 0.998749 0.00908615
-0.03649 0.0382055 0.998603 0.00870965
-0.0372414 0.0420226 0.998422 0.00704807
-0.0375983 0.0464323 0.998214 0.00471713
-0.0375772 0.0519103 0.997944 0.00223827
-0.0380302 0.0578599 0.9976 0.000219587
-0.0384716 0.0617183 0.997352 0.00161516
-0.039867 0.0655806 0.997051 0.00816124
-0.0402539 0.0694938 0.99677 0.0121321
-0.0398506 0.0767196 0.996256 0.00994325
-0.0390729 0.0824999 0.995825 0.00569997
-0.0386115 0.088828 0.995298 0.00162989
-0.0394222 0.0933309 0.994854 0.00281453
-0.0398282 0.101302 0.994058 0.00481743
-0.0404451 0.10587 0.993557 0.00525499
-0.0414425 0.116825 0.992287 0.0056318
-0.0417275 0.122574 0.991582 0.00399992
-0.0426218 0.130974 0.990469 0.00370951
-0.0434318 0.138401 0.989423 0.00238859
-0.0438533 0.147231 0.988129 0.00210535
-0.0446741 0.155033 0.986899 0.00457069
-0.0455706 0.164904 0.985256 0.00712168
-0.0458173 0.171971 0.984036 0.00676976
-0.0464805 0.183368 0.981945 0.00710605
-0.0468736 0.194316 0.979818 0.00408524
-0.0471603 0.205633 0.977492 0.00314711
-0.0487291 0.223103 0.973576 0.00866143
-0.0489686 0.228049 0.972418 0.00549578
-0.0503949 0.241858 0.969002 0.00691714
-0.0505484 0.25846 0.964698 0.00247088
-0.0510681 0.266363 0.962519 0.00109046
-0.00667691 -0.416164 0.909265 0
-0.0069867 -0.413607 0.910428 0.00129504
-0.00740985 -0.409895 0.912103 0.00122669
-0.00736495 -0.402856 0.915234 0.000766698
-0.00814606 -0.403393 0.914991 0.00296295
-0.00798843 -0.399747 0.916591 0.00243281
-0.00821348 -0.391182 0.920277 0.00247628
-0.00832994 -0.394294 0.918947 0.00517885
-0.00869047 -0.383381 0.92355 0.00476076
-0.00888688 -0.375086 0.926948 0.00396398
-0.00962303 -0.370397 0.928824 0.00533169
-0.0101053 -0.365353 0.930814 0.0039882
-0.0105273 -0.363453 0.931553 0.00464276
-0.0109409 -0.360313 0.932767 0.004397
-0.0113805 -0.353913 0.935209 0.00455583
-0.0122836 -0.350669 0.936419 0.00564383
-0.0131591 -0.346297 0.938033 0.00616726
-0.0132401 -0.34374 0.938971 0.00605564
-0.0136272 -0.339524 0.940499 0.00521328
-0.0142379 -0.337809 0.941107 0.00679945
-0.0144587 -0.335979 0.941759 0.00957571
-0.0152728 -0.332775 0.942883 0.00964434
-0.0146495 -0.323796 0.946013 0.00599331
-0.0149229 -0.312248 0.949883 0.00335564
-0.0151526 -0.310626 0.950411 0.00522342
-0.0157097 -0.306589 0.951712 0.0056496
-0.0158956 -0.30379 0.952607 0.00723723
-0.0160336 -0.299528 0.953953 0.0100321
-0.0165487 -0.290526 0.956724 0.00683083
-0.0171878 -0.286245 0.958002 0.00770646
-0.0178458 -0.283307 0.958863 0.00818753
-0.0183753 -0.282685 0.959037 0.0120368
-0.0189566 -0.281875 0.959264 0.0138182
-0.0196341 -0.278083 0.960356 0.0146859
-0.0194117 -0.269455 0.962817 0.011441
-0.0204764 -0.264345 0.964211 0.00948435
-0.0216517 -0.263079 0.964531 0.0116889
-0.0226732 -0.262053 0.964787 0.0140449
-0.0229107 -0.259455 0.965484 0.0144922
-0.0224117 -0.253929 0.966963 0.0119422
-0.0227231 -0.252044 0.967449 0.0128896
-0.022487 -0.246035 0.969 0.0108422
-0.02304 -0.243185 0.969706 0.0113502
-0.0233832 -0.238178 0.97094 0.0105011
-0.0233765 -0.23573 0.971537 0.0119691
-0.0236786 -0.228195 0.973327 0.00909877
-0.0248447 -0.227555 0.973448 0.0112302
-0.0255057 -0.224351 0.974175 0.0127134
-0.0257342 -0.220161 0.975124 0.0116433
-0.0266769 -0.217298 0.975741 0.0136953
-0.0272489 -0.215797 0.976058 0.0174948
-0.0271644 -0.210422 0.977233 0.016109
-0.0279767 -0.207782 0.977775 0.0162677
-0.0273284 -0.199954 0.979424 0.013597
-0.0284519 -0.196004 0.98019 0.0118859
-0.0282975 -0.191021 0.981178 0.010631
-0.0285035 -0.188663 0.981628 0.0112881
-0.0298156 -0.188569 0.981607 0.0131665
-0.0308307 -0.184479 0.982353 0.0141125
-0.0314583 -0.181385 0.982909 0.0169907
-0.0317238 -0.177438 0.983621 0.0168581
-0.0304964 -0.169515 0.985056 0.0120884
-0.0307537 -0.164038 0.985974 0.0119436
-0.0306757 -0.159077 0.98679 0.0106375
-0.0310514 -0.155251 0.987387 0.0118131
-0.0312132 -0.150979 0.988044 0.0114274
-0.032197 -0.147154 0.988589 0.0134874
-0.0320024 -0.139189 0.989749 0.0109172
-0.0327938 -0.135448 0.990242 0.0120412
-0.033569 -0.132905 0.99056 0.0135625
-0.0337607 -0.132015 0.990673 0.0134426
-0.0337263 -0.126139 0.991439 0.0113399
-0.0332866 -0.120627 0.99214 0.00922324
-0.0328366 -0.115278 0.99279 0.00978979
-0.0337951 -0.112734 0.99305 0.0123363
-0.0343894 -0.109133 0.993432 0.0157442
-0.0343423 -0.107588 0.993602 0.0166096
-0.0342397 -0.103992 0.993989 0.0141186
-0.0342861 -0.100715 0.994324 0.0125219
-0.0350225 -0.100388 0.994332 0.0162252
-0.0360625 -0.0986925 0.994464 0.0176508
-0.035935 -0.0974482 0.994592 0.0169901
-0.0353308 -0.0927641 0.995061 0.0148779
-0.0353243 -0.0890024 0.995405 0.0123906
-0.0348828 -0.0863018 0.995658 0.0127561
-0.0343469 -0.0822305 0.996021 0.0118234
-0.0345667 -0.0800039 0.996195 0.0117428
-0.0342162 -0.0758347 0.996533 0.00968381
-0.0335336 -0.072048 0.996837 0.00788896
-0.0348651 -0.0696812 0.99696 0.0115795
-0.0353182 -0.0691957 0.996978 0.0141481
-0.0343889 -0.0654504 0.997263 0.00980926
-0.0341006 -0.061354 0.997533 0.00927961
-0.0341612 -0.0611787 0.997542 0.00944926
-0.0337933 -0.0586843 0.997704 0.00838471
-0.0332887 -0.0567883 0.997831 0.00909751
-0.033643 -0.0559429 0.997867 0.00907454
-0.0332359 -0.0535487 0.998012 0.00769108
-0.0328149 -0.0509438 0.998162 0.00654125
-0.0326662 -0.0510344 0.998163 0.00748883
-0.0325612 -0.0486496 0.998285 0.00638282
-0.0326002 -0.0481834 0.998306 0.00760276
-0.03169 -0.0450844 0.99848 0.0029378
-0.031664 -0.0415698 0.998634 0
-0.0318438 -0.0411749 0.998644 0.000916079
-0.0319423 -0.0421164 0.998602 0.000427661
-0.0316324 -0.0422673 0.998605 0.00133932
-0.0313451 -0.0396078 0.998724 0
-0.030743 -0.0397207 0.998738 0
-0.0310835 -0.0399752 0.998717 0
-0.031288 -0.0397016 0.998722 0
-0.0311866 -0.0410544 0.99867 0
-0.0312671 -0.0426586 0.9986 0.000220917
-0.0305157 -0.0434515 0.998589 0
-0.0303782 -0.0453986 0.998507 0.000350376
-0.0300236 -0.0445075 0.998558 0
-0.0296623 -0.0458935 0.998506 0
-0.0296183 -0.046254 0.998491 0
-0.0293648 -0.0483935 0.998397 0
-0.0289229 -0.0481005 0.998424 0
-0.0283499 -0.0479523 0.998447 0
-0.0284605 -0.0508119 0.998303 0
-0.0287261 -0.0525946 0.998203 0
-0.0282979 -0.0551331 0.998078 0
-0.028385 -0.0569557 0.997973 0
-0.0285458 -0.0582908 0.997891 0.002027
-0.0281725 -0.0582001 0.997907 0
-0.0280063 -0.059675 0.997825 0
-0.0291331 -0.0622211 0.997637 0.00350665
-0.0289692 -0.0642293 0.997515 0.00299656
-0.0285448 -0.0681152 0.997269 0.00514122
-0.0286548 -0.0682903 0.997254 0.00582647
-0.0287129 -0.0711333 0.997054 0.00890285
-0.0296852 -0.0730005 0.99689 0.00886477
-0.0292157 -0.0743435 0.996805 0.00752362
-0.0290305 -0.0762542 0.996666 0.00931222
-0.0285478 -0.0769897 0.996623 0.00765512
-0.0286236 -0.07895 0.996468 0.00761056
-0.0270013 -0.0773359 0.996639 0.00325494
-0.0258474 -0.0785334 0.996576 0
-0.0258872 -0.0794729 0.996501 0.000409802
-0.0252817 -0.0802159 0.996457 0
-0.0252913 -0.0822426 0.996291 0.00118057
-0.0246199 -0.083145 0.996233 0.00054491
-0.0245822 -0.0827869 0.996264 0
-0.0247178 -0.0822559 0.996305 0
-0.0243275 -0.0827252 0.996275 0
-0.0241733 -0.0839238 0.996179 0
-0.0239599 -0.0846299 0.996124 0
-0.0240994 -0.0836261 0.996206 0
-0.0243226 -0.0847611 0.996104 0.000620381
-0.0244369 -0.083077 0.996243 0
-0.0240345 -0.0831074 0.996251 0
-0.0241154 -0.082503 0.996299 0.000641206
-0.0246827 -0.0826605 0.996272 0.00248753
-0.0246427 -0.0811108 0.9964 0.000600625
-0.0245106 -0.0814445 0.996376 0
-0.0244756 -0.0788901 0.996583 0
-0.0244674 -0.0766961 0.996754 0
-0.0242755 -0.0754873 0.996851 0
-0.0245226 -0.0742922 0.996935 0
-0.0245143 -0.0734664 0.996996 0
-0.0239362 -0.0687505 0.997347 0
-0.0241548 -0.0653609 0.997569 0
-0.0249652 -0.0645338 0.997603 0
-0.0249098 -0.0608217 0.997838 0
-0.023708 -0.0563629 0.998129 0
-0.0242398 -0.0554892 0.998165 0.000543524
-0.0240402 -0.0536552 0.99827 0.000751987
-0.0235974 -0.0503777 0.998451 0
-0.0242125 -0.0468683 0.998608 0
-0.0250493 -0.0451015 0.998668 0.00159339
-0.0260911 -0.0454998 0.998624 0.00643429
-0.0264211 -0.0458578 0.998599 0.00893858
-0.0256495 -0.0439279 0.998705 0.00879094
-0.0261996 -0.0438415 0.998695 0.00982309
-0.0255922 -0.0410488 0.998829 0.00859297
-0.0264848 -0.0384753 0.998909 0.0110013
-0.0265553 -0.0358433 0.999005 0.0111837
-0.0266331 -0.0329797 0.999101 0.00992248
-0.0272799 -0.0323643 0.999104 0.0107782
-0.0269777 -0.029891 0.999189 0.00780527
-0.0266078 -0.027873 0.999257 0.00540249
-0.0272624 -0.0239621 0.999341 0.00461816
-0.0264162 -0.0191833 0.999467 5.71022e-05
-0.0276314 -0.0167183 0.999478 0.00017201
-0.027514 -0.0110427 0.99956 0
-0.0276085 -0.00698236 0.999594 0
-0.0283522 -0.00375955 0.999591 0
-0.02856 -0.00165272 0.999591 0
-0.0295241 0.00281364 0.99956 0
-0.0300821 0.00445027 0.999538 0
-0.0318835 0.00858152 0.999455 0
-0.0315823 0.0112295 0.999438 0
-0.0326852 0.0146981 0.999358 0
-0.0338285 0.0195369 0.999237 0
-0.0347674 0.0232395 0.999125 0.000465321
-0.0357828 0.0249326 0.999049 0.00273141
-0.0365945 0.0303778 0.998868 0.000629561
-0.0383312 0.0317787 0.99876 0.00426534
-0.0376272 0.0357866 0.998651 0.00455712
-0.0380902 0.0427064 0.998361 0.00761366
-0.0381558 0.0465005 0.998189 0.00335026
-0.0382497 0.0513451 0.997948 0.00361632
-0.0389004 0.0574655 0.997589 0.0031125
-0.0390566 0.0618866 0.997319 0.0016953
-0.0395856 0.0643179 0.997144 0.00322162
-0.041065 0.0697365 0.99672 0.00571557
-0.0417625 0.074977 0.99631 0.004465
-0.0419833 0.0826917 0.995691 0.00230452
-0.0434188 0.0894733 0.995042 0.00398955
-0.0435368 0.096147 0.994415 0.00396919
-0.044074 0.101192 0.99389 0.00534645
-0.0445917 0.113429 0.992545 0.00441288
-0.0447637 0.118744 0.991915 0.00560213
-0.0452018 0.124416 0.9912 0.00791954
-0.0458143 0.130193 0.99043 0.00624417
-0.0465267 0.136941 0.989486 0.00647365
-0.047461 0.149732 0.987587 0.00529269
-0.0478798 0.16017 0.985927 0.00381995
-0.0484636 0.170679 0.984134 0.00539991
-0.0489866 0.179233 0.982586 0.00496769
-0.0498361 0.189953 0.980528 0.00564991
-0.0510838 0.201127 0.978232 0.00755295
-0.0519463 0.211347 0.97603 0.0104647
-0.0518076 0.224321 0.973137 0.0069933
-0.0535302 0.242067 0.968782 0.0121823
-0.0544032 0.257561 0.964729 0.0115128
-0.0123888 -0.420547 0.907186 0.00505149
-0.012326 -0.4097 0.912137 0.00296078
-0.0126632 -0.403371 0.914949 0.00320711
-0.0134109 -0.403716 0.914786 0.00500713
-0.0129909 -0.390709 0.920422 0.00274088
-0.0133092 -0.386661 0.922126 0.00383523
-0.0137083 -0.382812 0.923724 0.00447384
-0.0138345 -0.380035 0.924869 0.00432399
-0.0135964 -0.377287 0.925997 0.00543953
-0.0137 -0.37248 0.927939 0.0045482
-0.0143226 -0.370938 0.928547 0.00507329
-0.0148435 -0.369147 0.929253 0.00632171
-0.0151845 -0.366147 0.930433 0.00689552
-0.0155966 -0.361765 0.932139 0.00568374
-0.015823 -0.348675 0.93711 0.00253841
-0.0158252 -0.344962 0.938483 0.00260582
-0.0160226 -0.34096 0.939941 0.00314322
-0.016141 -0.335178 0.942016 0.00382442
-0.0172716 -0.333195 0.9427 0.00507088
-0.0181576 -0.335294 0.941939 0.00735126
-0.0188853 -0.333145 0.942687 0.00766688
-0.0193821 -0.327487 0.944657 0.00635554
-0.019697 -0.324347 0.945733 0.00678722
-0.0189659 -0.315472 0.948745 0.0047344
-0.0188134 -0.307206 0.951457 0.00277917
-0.0191302 -0.306024 0.951831 0.00576799
-0.0196664 -0.303997 0.95247 0.00727365
-0.019501 -0.300005 0.953738 0.00938659
-0.0201344 -0.294279 0.955508 0.00857222
-0.0207402 -0.292075 0.95617 0.00924972
-0.0210973 -0.2866 0.957818 0.0088082
-0.0214731 -0.282466 0.959037 0.010089
-0.02222 -0.279602 0.959859 0.0105508
-0.022492 -0.27528 0.961101 0.0112837
-0.0225123 -0.266933 0.963452 0.00796059
-0.0232219 -0.266469 0.963564 0.012355
-0.0237461 -0.26143 0.96493 0.011136
-0.0236691 -0.258209 0.965799 0.0108509
-0.0242825 -0.25706 0.96609 0.0123849
-0.0253132 -0.253991 0.966875 0.0135387
-0.0266591 -0.252737 0.967168 0.0153191
-0.0271632 -0.24674 0.968701 0.0136321
-0.0273549 -0.240857 0.970175 0.0109434
-0.0279729 -0.236981 0.971111 0.0106353
-0.0284422 -0.231633 0.972387 0.0101069
-0.0280922 -0.226997 0.97349 0.00930179
-0.0285845 -0.223909 0.974191 0.0102755
-0.0291075 -0.219973 0.975072 0.0113589
-0.0296629 -0.219333 0.975199 0.012933
-0.0290393 -0.212511 0.976727 0.00893414
-0.0298585 -0.209134 0.977431 0.00881313
-0.0299778 -0.206617 0.977963 0.00953561
-0.0302713 -0.203787 0.978547 0.00958796
-0.0306873 -0.199265 0.979465 0.00986247
-0.0316557 -0.197947 0.979702 0.0142103
-0.0321946 -0.193805 0.980512 0.0151265
-0.0317585 -0.188749 0.981512 0.0113222
-0.0331443 -0.188312 0.98155 0.0150027
-0.0345043 -0.186602 0.981829 0.0185099
-0.0352689 -0.184993 0.982107 0.0209835
-0.0353833 -0.179697 0.983085 0.0210131
-0.0340839 -0.173314 0.984277 0.0171908
-0.0346109 -0.169527 0.984918 0.0181892
-0.0339974 -0.164126 0.985853 0.01457
-0.0348577 -0.158591 0.986729 0.017218
-0.0342867 -0.153512 0.987552 0.0156955
-0.0345916 -0.146174 0.988654 0.0171358
-0.0346515 -0.139355 0.989636 0.016179
-0.0341699 -0.137148 0.989961 0.0145301
-0.0352656 -0.134865 0.990236 0.0180691
-0.0356782 -0.13052 0.990804 0.0191556
-0.0354363 -0.128652 0.991057 0.017736
-0.0355091 -0.124424 0.991593 0.0204333
-0.0353721 -0.119095 0.992253 0.0183231
-0.0360748 -0.117563 0.99241 0.0205196
-0.0363415 -0.111204 0.993133 0.0196342
-0.0362124 -0.105143 0.993798 0.0170215
-0.0361301 -0.101186 0.994211 0.0138514
-0.0357333 -0.0960435 0.994736 0.0132387
-0.035907 -0.0941901 0.994906 0.0157287
-0.0363111 -0.093142 0.99499 0.0170118
-0.0364993 -0.0897218 0.995298 0.0182149
-0.0366734 -0.0868456 0.995547 0.0181996
-0.0365134 -0.083057 0.995876 0.0168475
-0.037087 -0.0817728 0.995961 0.0176182
-0.0365542 -0.0779023 0.996291 0.0166612
-0.0358663 -0.0733292 0.996663 0.0125243
-0.0356184 -0.0708902 0.996848 0.0112595
-0.0359302 -0.0706609 0.996853 0.0126574
-0.0351149 -0.0683222 0.997045 0.0114315
-0.0350567 -0.065778 0.997218 0.0111071
-0.0350009 -0.0644375 0.997308 0.0128506
-0.0346286 -0.0622876 0.997457 0.0139906
-0.033053 -0.0564487 0.997858 0.00915295
-0.0323223 -0.054848 0.997971 0.00635337
-0.0326696 -0.0525968 0.998081 0.00494634
-0.0314985 -0.050165 0.998244 0.00263695
-0.0316184 -0.0485416 0.998321 0.00353891
-0.0320972 -0.0466865 0.998394 0.0035162
-0.0320741 -0.046122 0.998421 0.00316949
-0.0318824 -0.0448609 0.998484 0.000676639
-0.0322316 -0.0441304 0.998506 0.00189986
-0.0319987 -0.0431855 0.998555 0.00180926
-0.0306988 -0.0428869 0.998608 0
-0.0301696 -0.0417691 0.998672 0
-0.0303752 -0.0400251 0.998737 0
-0.0307241 -0.0400731 0.998724 0
-0.0303884 -0.0407939 0.998705 0
-0.030482 -0.039886 0.998739 0
-0.0305132 -0.0423212 0.998638 0
-0.0295963 -0.0416842 0.998692 0
-0.0296108 -0.0430951 0.998632 0
-0.0296566 -0.0422453 0.998667 0
-0.0294603 -0.0413032 0.998712 0
-0.028618 -0.0423548 0.998693 0
-0.0284506 -0.0440916 0.998622 0
-0.0285368 -0.0478671 0.998446 0
-0.0281367 -0.0472398 0.998487 0
-0.0278251 -0.0478731 0.998466 0
-0.0279086 -0.0505443 0.998332 0
-0.0278147 -0.0532129 0.998196 0.00114581
-0.0278417 -0.0579903 0.997929 0.00508068
-0.0279227 -0.05797 0.997928 0.00415985
-0.0282116 -0.0587364 0.997875 0.00767392
-0.0279377 -0.0599421 0.997811 0.00600557
-0.0278684 -0.0610116 0.997748 0.00507537
-0.0276159 -0.0642127 0.997554 0.00705263
-0.0281591 -0.0668692 0.997364 0.00938353
-0.0273908 -0.0680278 0.997307 0.00806243
-0.0278987 -0.0698875 0.997165 0.00978994
-0.027604 -0.0703057 0.997143 0.01028
-0.0273928 -0.0730072 0.996955 0.0103056
-0.028062 -0.0752104 0.996773 0.010616
-0.0282723 -0.0785486 0.996509 0.0135303
-0.0274638 -0.0791152 0.996487 0.010025
-0.0267367 -0.07914 0.996505 0.00592163
-0.0261932 -0.0789321 0.996536 0.00439612
-0.0259244 -0.0805301 0.996415 0.00463483
-0.0260798 -0.0814499 0.996336 0.0037489
-0.0253483 -0.0814643 0.996354 0.00254617
-0.0254531 -0.0839232 0.996147 0.00577317
-0.0256791 -0.0858809 0.995974 0.00672396
-0.025234 -0.0860185 0.995974 0.00470651
-0.0248422 -0.0865813 0.995935 0.00512996
-0.0251235 -0.0864543 0.995939 0.00497
-0.0251779 -0.0867975 0.995908 0.00533964
-0.0247799 -0.0860181 0.995985 0.00470311
-0.0253733 -0.0865471 0.995925 0.00695362
-0.0246082 -0.0854975 0.996034 0.00282775
-0.025813 -0.0870759 0.995867 0.00438672
-0.0253377 -0.0867267 0.99591 0.00278171
-0.0253524 -0.0873089 0.995859 0.00576513
-0.0254223 -0.0866119 0.995918 0.00750932
-0.0253749 -0.0846929 0.996084 0.0057932
-0.025083 -0.0842679 0.996127 0.00407298
-0.0253274 -0.0817153 0.996334 0.00211496
-0.0254157 -0.0802116 0.996454 0.00261802
-0.0253235 -0.0783548 0.996604 0.000943983
-0.0249302 -0.0745267 0.996907 0
-0.0254809 -0.073056 0.997002 0
-0.0254744 -0.070001 0.997222 0
-0.0258473 -0.0682323 0.997335 0
-0.0260758 -0.0673741 0.997387 0.00348896
-0.0258445 -0.0646123 0.997576 0.000641591
-0.0267583 -0.0627271 0.997672 0.00447193
-0.0271733 -0.0624194 0.99768 0.00598643
-0.0273725 -0.0600322 0.997821 0.00709914
-0.027628 -0.0579291 0.997938 0.00926038
-0.0280779 -0.0550914 0.998087 0.00930944
-0.0280304 -0.0509166 0.998309 0.00610138
-0.0278525 -0.0470629 0.998504 0.0063525
-0.0276341 -0.0445724 0.998624 0.00637753
-0.0285203 -0.0446014 0.998598 0.00927046
-0.0288345 -0.0429996 0.998659 0.0100727
-0.0288469 -0.0432578 0.998647 0.00935666
-0.0294516 -0.0413874 0.998709 0.010008
-0.0294606 -0.0396253 0.99878 0.011685
-0.0280242 -0.0356614 0.998971 0.00761825
-0.0284849 -0.0346467 0.998994 0.00803102
-0.0284662 -0.0322486 0.999074 0.00483617
-0.028115 -0.0306519 0.999135 0.00342629
-0.0290202 -0.0284399 0.999174 0.00396334
-0.0293545 -0.0253169 0.999248 0.00632321
-0.0295619 -0.0221194 0.999318 0.00742532
-0.0306158 -0.0182248 0.999365 0.00551717
-0.0316853 -0.0133714 0.999408 0.00744823
-0.0315251 -0.0112878 0.999439 0.00815668
-0.0323661 -0.00987974 0.999427 0.0103047
-0.0321181 -0.00356311 0.999478 0.00452467
-0.0317904 0.000786557 0.999494 0
-0.0325354 0.0026772 0.999467 7.46068e-05
-0.0331114 0.00636311 0.999431 0.0011808
-0.0332676 0.00979514 0.999398 0
-0.0342665 0.0125173 0.999334 0.000180878
-0.0354912 0.0151685 0.999255 0.00488335
-0.0358442 0.0201217 0.999155 0.00470325
-0.0359728 0.026042 0.999013 0
-0.0373529 0.0294152 0.998869 0
-0.0387261 0.032754 0.998713 0.00270117
-0.0387503 0.0372303 0.998555 0
-0.0396573 0.0406468 0.998386 0.00135964
-0.0401212 0.0448131 0.998189 0.00528091
-0.0410838 0.0482744 0.997989 0.00966277
-0.041959 0.0524215 0.997743 0.0117964
-0.0433762 0.0568177 0.997442 0.0151531
-0.043283 0.0623412 0.997116 0.0105561
-0.0452035 0.0644092 0.996899 0.0127003
-0.045619 0.0732058 0.996273 0.00634235
-0.0453894 0.0789032 0.995848 0.007759
-0.0458306 0.0844128 0.995376 0.00918974
-0.0453204 0.0884197 0.995052 0.00899676
-0.0452774 0.0944406 0.9945 0.00819388
-0.0464154 0.0977084 0.994132 0.00685343
-0.0464097 0.106547 0.993224 0.00499221
-0.0460919 0.113094 0.992515 0.00330957
-0.0467642 0.118881 0.991807 0.00360541
-0.04851 0.126786 0.990743 0.00881207
-0.0510717 0.158481 0.98604 0.0122849
-0.0520325 0.172133 0.983698 0.0102796
-0.0521593 0.185674 0.981226 0.00901666
-0.0522048 0.197476 0.978917 0.00779204
-0.0527051 0.208275 0.976649 0.00988356
-0.0528713 0.220454 0.973963 0.00870193
-0.0540993 0.237428 0.969897 0.0100526
-0.0543346 0.24973 0.96679 0.00524007
-0.025136 -0.387201 0.921653 0.00767582
-0.0244995 -0.379322 0.92494 0.00382567
-0.0246595 -0.376616 0.926041 0.00448513
-0.0242024 -0.364218 0.930999 0.00215093
-0.024073 -0.360682 0.932378 0.00423353
-0.0238652 -0.359061 0.933009 0.00463279
-0.0239498 -0.360468 0.932464 0.00721921
-0.0243258 -0.357374 0.933645 0.00639144
-0.025102 -0.353629 0.935049 0.00784365
-0.0252623 -0.34829 0.937046 0.00688253
-0.0252059 -0.345192 0.938193 0.00808969
-0.025915 -0.343091 0.938945 0.00960384
-0.0252794 -0.334408 0.942089 0.00728259
-0.0257644 -0.334089 0.942189 0.00892856
-0.0266695 -0.335407 0.941696 0.0127643
-0.0278664 -0.338272 0.940636 0.016595
-0.0264515 -0.326138 0.944952 0.0107969
-0.0265095 -0.32403 0.945675 0.0113683
-0.0266591 -0.31482 0.948777 0.0091406
-0.0267623 -0.310215 0.95029 0.00680433
-0.0252655 -0.298084 0.954205 0.000991205
-0.0252049 -0.294148 0.955428 0.00196014
-0.025307 -0.292308 0.955989 0.00512351
-0.025026 -0.288324 0.957206 0.00509726
-0.0259378 -0.28807 0.957258 0.00740984
-0.0268675 -0.289769 0.95672 0.0132465
-0.0275927 -0.290456 0.95649 0.015814
-0.0279678 -0.285307 0.958028 0.0164361
-0.028527 -0.281318 0.95919 0.0162682
-0.0292323 -0.280396 0.959439 0.0188626
-0.0293463 -0.277215 0.96036 0.0189737
-0.0290113 -0.27028 0.962345 0.0163998
-0.0286507 -0.263384 0.964266 0.0151192
-0.0285913 -0.25663 0.966087 0.0127371
-0.0299249 -0.256104 0.966186 0.015421
-0.0310108 -0.254008 0.966705 0.0170769
-0.0304982 -0.247899 0.968306 0.0148811
-0.0318307 -0.246605 0.968593 0.0163488
-0.0312666 -0.239981 0.970274 0.0125944
-0.0308935 -0.232834 0.972026 0.00759147
-0.0308079 -0.226388 0.97355 0.00458009
-0.0308292 -0.22024 0.974958 0.00293269
-0.031074 -0.215778 0.975948 0.000494914
-0.0315832 -0.212136 0.97673 0
-0.0318819 -0.210528 0.977068 0.00291133
-0.0332943 -0.209002 0.977348 0.00608413
-0.0344476 -0.205518 0.978047 0.00682279
-0.034997 -0.203084 0.978536 0.00757729
-0.0344949 -0.19822 0.97955 0.00562486
-0.0340188 -0.195577 0.980098 0.00539346
-0.0339554 -0.19259 0.980692 0.00528271
-0.0344554 -0.190916 0.981001 0.00838459
-0.0341046 -0.18691 0.981785 0.00818956
-0.034295 -0.183077 0.9825 0.00832556
-0.0349323 -0.181438 0.982782 0.0131644
-0.0348675 -0.178674 0.98329 0.0152335
-0.034998 -0.1751 0.983929 0.0174551
-0.0350688 -0.169892 0.984838 0.0164355
-0.0348206 -0.162868 0.986033 0.0156802
-0.0352233 -0.156635 0.987028 0.0166486
-0.0349522 -0.15065 0.987969 0.0147103
-0.0343408 -0.148478 0.988319 0.0117957
-0.0348519 -0.142978 0.989112 0.0158634
-0.0337759 -0.136442 0.990072 0.0107083
-0.032572 -0.132423 0.990658 0.00881865
-0.0325282 -0.129006 0.99111 0.00740844
-0.0334118 -0.124923 0.991604 0.00928756
-0.0331646 -0.121209 0.992073 0.00542408
-0.0327599 -0.116666 0.992631 0.00676547
-0.0327902 -0.11199 0.993168 0.00842956
-0.0325794 -0.105614 0.993873 0.0083825
-0.0321433 -0.0989742 0.994571 0.00644359
-0.0325042 -0.0957169 0.994878 0.00616003
-0.0321916 -0.0926639 0.995177 0.00262436
-0.0331563 -0.0913984 0.995262 0.00376627
-0.0338341 -0.0873155 0.995606 0.00453513
-0.0329056 -0.083831 0.995937 0.00508054
-0.0330362 -0.082004 0.996084 0.00737908
-0.0335816 -0.0817483 0.996087 0.00629525
-0.0336284 -0.0791636 0.996294 0.00715378
-0.0343371 -0.0770484 0.996436 0.00652156
-0.0337835 -0.0719371 0.996837 0.00489735
-0.0332136 -0.0685597 0.997094 0.00453653
-0.0340064 -0.0657974 0.997253 0.0063508
-0.0344305 -0.0621347 0.997474 0.00595567
-0.0340302 -0.0600694 0.997614 0.00525403
-0.0335212 -0.0587571 0.997709 0.00350033
-0.0339457 -0.0589384 0.997684 0.0066536
-0.0344756 -0.0556104 0.997857 0.0104048
-0.0342202 -0.0525885 0.99803 0.00949029
-0.0334465 -0.0498064 0.998199 0.00841687
-0.0340307 -0.0513906 0.998099 0.010895
-0.0331109 -0.0502739 0.998186 0.00736548
-0.0332611 -0.0493143 0.998229 0.00783943
-0.0330469 -0.0477374 0.998313 0.00761344
-0.032984 -0.0479688 0.998304 0.00839875
-0.0326162 -0.0461126 0.998404 0.00815812
-0.0321443 -0.0438561 0.998521 0.00829333
-0.0326586 -0.0444205 0.998479 0.0085677
-0.0317989 -0.0443123 0.998512 0.0083344
-0.0312504 -0.0448979 0.998503 0.00690215
-0.0305471 -0.0429394 0.998611 0.00586085
-0.0302874 -0.0429089 0.99862 0.00727995
-0.0302167 -0.0429796 0.998619 0.00603599
-0.0306769 -0.0438088 0.998569 0.00863964
-0.0307247 -0.0448624 0.998521 0.00900888
-0.0305065 -0.0459907 0.998476 0.00906353
-0.031161 -0.0476378 0.998379 0.0113476
-0.0299704 -0.0465884 0.998464 0.00943774
-0.0301798 -0.0476645 0.998407 0.0132154
-0.0293634 -0.0475264 0.998438 0.0109434
-0.0290446 -0.0481587 0.998417 0.0087717
-0.0281433 -0.0501931 0.998343 0.00633449
-0.0278234 -0.0516403 0.998278 0.00520898
-0.0280834 -0.0531867 0.99819 0.0073028
-0.0282984 -0.0543122 0.998123 0.00999336
-0.0279081 -0.0556829 0.998058 0.00995656
-0.0270441 -0.0555192 0.998091 0.00882577
-0.0273454 -0.0588711 0.997891 0.0091852
-0.0270677 -0.0589949 0.997891 0.00691767
-0.0267812 -0.0588204 0.997909 0.00367227
-0.0267152 -0.0605916 0.997805 0.00379337
-0.0272618 -0.0648641 0.997522 0.00495988
-0.0272648 -0.0668778 0.997389 0.00461684
-0.0269901 -0.0673326 0.997365 0.0033928
-0.0267844 -0.0667207 0.997412 0
-0.0266677 -0.0701224 0.997182 0
-0.0264093 -0.0698661 0.997207 0
-0.0269144 -0.0709468 0.997117 0
-0.0268432 -0.0733048 0.996948 0
-0.0263143 -0.075318 0.996812 0
-0.0264372 -0.0756459 0.996784 0
-0.0258926 -0.076908 0.996702 0
-0.0259107 -0.077313 0.99667 0
-0.0256133 -0.0784518 0.996589 0
-0.0257047 -0.0808299 0.996396 0
-0.0264148 -0.0830605 0.996194 0
-0.0258989 -0.084017 0.996128 0.000552552
-0.0260093 -0.085533 0.995996 0
-0.0266387 -0.0860568 0.995934 0
-0.0260879 -0.0864729 0.995913 0
-0.0258014 -0.0868234 0.99589 0
-0.0254846 -0.0862167 0.99595 0
-0.0258305 -0.086076 0.995954 0.000233203
-0.0259256 -0.0863578 0.995927 0
-0.0261617 -0.0851213 0.996027 0
-0.0268592 -0.0841954 0.996087 0
-0.0273308 -0.0843466 0.996062 0
-0.027358 -0.0831309 0.996163 0
-0.027726 -0.082627 0.996195 0.000598602
-0.0281702 -0.0826979 0.996176 0.00342516
-0.0282031 -0.0816858 0.996259 0.00348162
-0.0287786 -0.0795846 0.996413 0.00352889
-0.0288255 -0.0780541 0.996532 0.00416587
-0.0286147 -0.0762401 0.996679 0.00520979
-0.0287761 -0.0728521 0.996928 0.00395628
-0.0296025 -0.0704375 0.997077 0.00267675
-0.0307005 -0.0687132 0.997164 0.00380121
-0.0309308 -0.0660724 0.997335 0.00430835
-0.0303978 -0.0623329 0.997592 0.00335888
-0.0320498 -0.0604958 0.997654 0.00638452
-0.0325431 -0.0582501 0.997771 0.00661099
-0.0324818 -0.0541815 0.998003 0.00582081
-0.033286 -0.0497322 0.998208 0.00582727
-0.0335662 -0.0482185 0.998273 0.00715197
-0.0335321 -0.0455643 0.998398 0.00624204
-0.0338689 -0.0438135 0.998465 0.0081613
-0.0340319 -0.0410353 0.998578 0.00707067
-0.0339861 -0.0382573 0.99869 0.00575165
-0.0333926 -0.036209 0.998786 0.00648479
-0.034147 -0.0348224 0.99881 0.0090038
-0.0332153 -0.0319211 0.998938 0.00586068
-0.0328044 -0.0315477 0.998964 0.00637346
-0.032015 -0.0283865 0.999084 0.00606543
-0.0313849 -0.0253592 0.999186 0.00418274
-0.0313013 -0.0243103 0.999214 0.00478914
-0.0314882 -0.0222352 0.999257 0.0031838
-0.0316829 -0.0205239 0.999287 0.00688539
-0.0307813 -0.0173929 0.999375 0.00507239
-0.0301885 -0.0134305 0.999454 0.00153813
-0.0303407 -0.0134494 0.999449 0.00266392
-0.0297341 -0.00999874 0.999508 0.00354567
-0.0298224 -0.00845212 0.999519 0.00501231
-0.0293407 -0.00568383 0.999553 0.00546692
-0.028892 -0.00362501 0.999576 0.0026509
-0.0293685 -0.00257085 0.999565 0.00351367
-0.0301704 -0.00130614 0.999544 0.00810975
-0.0309161 0.00268425 0.999518 0.009276
-0.0303652 0.00661962 0.999517 0.00466699
-0.0310579 0.00844441 0.999482 0.00430218
-0.03068 0.0118637 0.999459 0.00486384
-0.030871 0.0138241 0.999428 0.00453971
-0.0319235 0.0162779 0.999358 0.00544559
-0.0323479 0.0190081 0.999296 0.00345077
-0.0332045 0.0216937 0.999213 0.00691839
-0.0352626 0.0256636 0.999048 0.0108858
-0.0356777 0.0306941 0.998892 0.00781586
-0.0367494 0.0371375 0.998634 0.00435095
-0.0384314 0.0415618 0.998396 0.00334561
-0.0397304 0.0460752 0.998148 0
-0.0395878 0.0497701 0.997976 0
-0.0406394 0.053973 0.997715 0
-0.0419232 0.0588112 0.997388 0
-0.0417779 0.0613877 0.997239 0
-0.0424819 0.0685204 0.996745 0.00102293
-0.044423 0.0744783 0.996233 0.00246325
-0.0446577 0.0812007 0.995697 0.0013846
-0.0452927 0.0862717 0.995242 0.00181614
-0.0456595 0.0922512 0.994688 0.00114626
-0.0314002 -0.400385 0.915809 0.0073663
-0.0308812 -0.392298 0.91932 0.00698197
-0.0305136 -0.385836 0.922063 0.00682026
-0.0300668 -0.373548 0.927123 0.0020847
-0.0300531 -0.366852 0.929794 0.00035658
-0.0306191 -0.363081 0.931254 0.00310717
-0.0295886 -0.358028 0.933242 0.00137381
-0.0288491 -0.355031 0.934409 0.00243627
-0.0285894 -0.351071 0.935912 0.00200395
-0.0295867 -0.351517 0.935714 0.00589968
-0.0286268 -0.347217 0.937348 0.00521766
-0.0286175 -0.348342 0.93693 0.0079057
-0.0285722 -0.345047 0.93815 0.0102488
-0.0284742 -0.339068 0.940331 0.00906789
-0.0284349 -0.332932 0.942522 0.0084291
-0.0280895 -0.328409 0.944118 0.00732944
-0.0277157 -0.326855 0.944668 0.00896555
-0.0282995 -0.325376 0.945161 0.01218
-0.0290458 -0.323726 0.945705 0.0145864
-0.028975 -0.31804 0.947634 0.0138161
-0.0291971 -0.316286 0.948214 0.0147836
-0.0295509 -0.315271 0.948541 0.0173566
-0.0300327 -0.308584 0.950723 0.0154379
-0.030322 -0.306773 0.9513 0.0186672
-0.0297481 -0.302147 0.952797 0.0181188
-0.0295518 -0.296766 0.954493 0.01786
-0.0294646 -0.29283 0.955711 0.0187112
-0.0294483 -0.287454 0.957341 0.0189211
-0.0299239 -0.286573 0.957591 0.0218882
-0.0293906 -0.281838 0.959012 0.0198349
-0.030068 -0.27835 0.960009 0.0211178
-0.0304895 -0.275513 0.960814 0.0212199
-0.0305168 -0.275491 0.960819 0.0240718
-0.0300744 -0.268659 0.962766 0.0225882
-0.029841 -0.264747 0.963856 0.0215027
-0.030916 -0.2633 0.964219 0.0250454
-0.0306985 -0.255821 0.966237 0.0208402
-0.031686 -0.252332 0.967122 0.0188519
-0.0308927 -0.247697 0.968345 0.0170842
-0.0307965 -0.243677 0.969367 0.0164463
-0.0308898 -0.240056 0.970268 0.0162342
-0.0308842 -0.236735 0.971083 0.015447
-0.0303474 -0.231153 0.972444 0.0114471
-0.030364 -0.226348 0.973573 0.00937335
-0.0302063 -0.225365 0.973806 0.0119617
-0.0299221 -0.221918 0.974606 0.0106227
-0.0288874 -0.216445 0.975867 0.0080919
-0.0284572 -0.214287 0.976356 0.00950945
-0.0284904 -0.211465 0.97697 0.00867958
-0.0281345 -0.20612 0.978122 0.00881428
-0.0271008 -0.19811 0.979805 0.0046214
-0.0266022 -0.191951 0.981044 0.00257951
-0.0264501 -0.188948 0.981631 0.00357857
-0.0269395 -0.187512 0.981893 0.00608786
-0.0273426 -0.181805 0.982954 0.00447869
-0.0278187 -0.177026 0.983813 0.0055969
-0.0278407 -0.17194 0.984714 0.00546127
-0.0283218 -0.170683 0.984919 0.00809609
-0.0284543 -0.165592 0.985784 0.00768779
-0.0282282 -0.1579 0.987052 0.00611864
-0.0286254 -0.152162 0.987941 0.00328117
-0.0298906 -0.149348 0.988333 0.00437663
-0.0301888 -0.148502 0.988451 0.00859592
-0.0304962 -0.144497 0.989035 0.00729423
-0.0304453 -0.139393 0.989769 0.0079252
-0.0310538 -0.132703 0.990669 0.00409692
-0.032253 -0.128259 0.991216 0.0025246
-0.0310757 -0.124623 0.991717 0.000512654
-0.0315899 -0.120605 0.992198 0.00141802
-0.0304418 -0.116148 0.992765 0
-0.0302629 -0.111596 0.993293 0
-0.0301638 -0.106055 0.993903 0
-0.0304593 -0.102826 0.994233 0
-0.0305615 -0.0996614 0.994552 0.00220179
-0.0315994 -0.0966682 0.994815 0.0013267
-0.0324646 -0.0950661 0.994941 0.00429248
-0.0331825 -0.0926116 0.995149 0.00595184
-0.0330277 -0.0892136 0.995465 0.0049791
-0.0334033 -0.0852638 0.995798 0.00462352
-0.0323867 -0.081831 0.99612 0.00185705
-0.0319135 -0.077583 0.996475 0.000557286
-0.0326432 -0.0746105 0.996678 0.00480892
-0.0322775 -0.0709524 0.996957 0.00312458
-0.0318671 -0.0678149 0.997189 0.00300151
-0.03293 -0.0663585 0.997252 0.00523495
-0.0332413 -0.0642743 0.997378 0.00643494
-0.0333234 -0.0624068 0.997494 0.00602962
-0.0342836 -0.0605169 0.997578 0.00721609
-0.0338808 -0.0586062 0.997706 0.00688028
-0.0327769 -0.0551383 0.997941 0.0071411
-0.0323406 -0.0530187 0.99807 0.00795996
-0.0328754 -0.0534192 0.998031 0.0102411
-0.0325203 -0.0528282 0.998074 0.0100385
-0.0320991 -0.0507912 0.998193 0.0108377
-0.0323497 -0.0493983 0.998255 0.0121903
-0.0310657 -0.0472551 0.9984 0.00977608
-0.0299538 -0.0471721 0.998438 0.00815082
-0.0296382 -0.0454117 0.998529 0.0073044
-0.0298755 -0.0459345 0.998498 0.00881818
-0.0314168 -0.0482549 0.998341 0.0145429
-0.032201 -0.0451399 0.998462 0.0136806
-0.0318174 -0.0455367 0.998456 0.013297
-0.0309469 -0.0446918 0.998521 0.0124941
-0.0306816 -0.0431465 0.998598 0.0119369
-0.0310113 -0.044405 0.998532 0.0136042
-0.0306015 -0.0439968 0.998563 0.0131835
-0.0302604 -0.0440282 0.998572 0.011047
-0.0301206 -0.0438014 0.998586 0.00898167
-0.0301768 -0.0432991 0.998606 0.00758072
-0.0298612 -0.04496 0.998542 0.00841401
-0.0297362 -0.0454001 0.998526 0.00625062
-0.0304411 -0.0474583 0.998409 0.00807801
-0.0312342 -0.0478958 0.998364 0.00769872
-0.0312938 -0.0504368 0.998237 0.00820133
-0.0314262 -0.0512784 0.99819 0.00937099
-0.0315314 -0.052927 0.9981 0.0102602
-0.0309362 -0.0536011 0.998083 0.00760582
-0.0315073 -0.0551453 0.997981 0.0110999
-0.0310052 -0.0569421 0.997896 0.0112523
-0.0301752 -0.0570388 0.997916 0.00814364
-0.0294594 -0.0585061 0.997852 0.00441885
-0.030353 -0.0618571 0.997623 0.00591675
-0.0312178 -0.0639023 0.997468 0.00685029
-0.0324054 -0.065806 0.997306 0.00837685
-0.0318512 -0.0667837 0.997259 0.00726859
-0.0324069 -0.0681342 0.99715 0.00724462
-0.0312355 -0.0681938 0.997183 0.00148686
-0.0316907 -0.0694306 0.997083 0.0033948
-0.0315045 -0.0714606 0.996946 0.00232212
-0.0307036 -0.0713867 0.996976 0
-0.0311552 -0.0726456 0.996871 0
-0.0315869 -0.0744236 0.996726 0.000529124
-0.0316835 -0.0765127 0.996565 0.000720496
-0.0319979 -0.0794956 0.996321 0.00396731
-0.0321487 -0.0812874 0.996172 0.00497722
-0.031345 -0.0811474 0.996209 0.00395085
-0.0311113 -0.0819261 0.996153 0.00342604
-0.0310335 -0.0809007 0.996239 0.00127641
-0.0307158 -0.0818067 0.996175 0
-0.0309357 -0.083368 0.996038 0.00106066
-0.031963 -0.0859806 0.995784 0.00227937
-0.03141 -0.085341 0.995857 0
-0.0314504 -0.0842478 0.995948 0
-0.0313158 -0.0847301 0.995912 0
-0.0313031 -0.0862336 0.995783 0.000893457
-0.0305153 -0.0851037 0.995905 0
-0.030023 -0.0844442 0.995976 0
-0.0299992 -0.0833199 0.996071 0
-0.0296925 -0.0817091 0.996214 0
-0.0288579 -0.0807978 0.996313 0
-0.0285162 -0.0796523 0.996415 0
-0.0288666 -0.0785915 0.996489 0
-0.0287619 -0.0781078 0.99653 0
-0.0283777 -0.075954 0.996707 0
-0.0278946 -0.0739242 0.996874 0
-0.0281839 -0.073271 0.996914 0
-0.0289576 -0.0724322 0.996953 0
-0.0287922 -0.0694946 0.997167 0
-0.0287457 -0.0675427 0.997302 0
-0.0292313 -0.0642901 0.997503 0
-0.0297235 -0.0616559 0.997655 0
-0.0296814 -0.0586874 0.997835 0
-0.0290427 -0.0559743 0.99801 0.00174607
-0.0310357 -0.0531322 0.998105 0.00309724
-0.0313662 -0.0486842 0.998322 0.00205572
-0.0302756 -0.0436013 0.99859 0.000267406
-0.0312107 -0.0424891 0.998609 0.00252739
-0.0315719 -0.0417453 0.998629 0.00450573
-0.0326347 -0.0405831 0.998643 0.0075069
-0.0335153 -0.0400581 0.998635 0.0109408
-0.0337647 -0.0384055 0.998692 0.0112229
-0.0340553 -0.0357624 0.99878 0.0113153
-0.0339313 -0.0333415 0.998868 0.0125731
-0.0347285 -0.0300124 0.998946 0.0146097
-0.0351378 -0.0282373 0.998983 0.014497
-0.0344322 -0.0252492 0.999088 0.0146666
-0.0347018 -0.0232657 0.999127 0.0139225
-0.0352366 -0.0221117 0.999134 0.0150689
-0.0355588 -0.0194426 0.999178 0.0133682
-0.0347004 -0.0181456 0.999233 0.0125115
-0.0358499 -0.0182403 0.999191 0.0171863
-0.0357824 -0.0178723 0.9992 0.0172192
-0.0352826 -0.0165804 0.99924 0.0167834
-0.0366957 -0.0166675 0.999188 0.0211146
-0.0361087 -0.0131774 0.999261 0.0170901
-0.0358071 -0.0111089 0.999297 0.0166332
-0.0360886 -0.00974592 0.999301 0.0153183
-0.0357393 -0.0086949 0.999323 0.015083
-0.0353338 -0.00640635 0.999355 0.0144863
-0.0351363 -0.00371177 0.999376 0.0139332
-0.0345668 0.000345386 0.999402 0.0121977
-0.0347209 0.00480963 0.999385 0.0107666
-0.0355255 0.00576184 0.999352 0.0149023
-0.0351898 0.00912241 0.999339 0.0136966
-0.0347868 0.0156887 0.999272 0.00962495
-0.0349833 0.0176378 0.999232 0.00929401
-0.0345283 0.0204842 0.999194 0.00682097
-0.0346281 0.0250435 0.999086 0.00413857
-0.0342698 0.0264924 0.999061 0.00283667
-0.0336695 0.0308155 0.998958 0
-0.0339638 0.0350312 0.998809 0
-0.0339533 0.0384756 0.998683 0
-0.0332888 0.0438482 0.998483 0
-0.0339865 0.0467072 0.99833 0
-0.0339361 0.053677 0.997981 0
-0.0345193 0.0603201 0.997582 0
-0.0347569 0.0644952 0.997313 0
-0.0350563 0.0714936 0.996825 0
-0.0359269 0.0726888 0.996707 0
-0.0358774 0.0780028 0.996307 0
-0.0358536 0.0858256 0.995665 0
-0.0362889 0.0920381 0.995094 0
-0.0374012 0.100868 0.994197 0
