# .PCD v0.7 - Point Cloud Data file format
VERSION 0.7
FIELDS x y z
SIZE 4 4 4
TYPE F F F
COUNT 1 1 1
WIDTH 1410
HEIGHT 1
VIEWPOINT 0 0 0 1 0 0 0
POINTS 1410
DATA ascii
-0.088857003 0.031152001 -0.209373
-0.088854 0.031226 -0.20937499
-0.088850997 0.031298 -0.209381
-0.088848002 0.031372 -0.20938399
-0.088845998 0.031443998 -0.209378
-0.088843003 0.031516001 -0.209378
-0.08884 0.03159 -0.20937701
-0.088838004 0.031663001 -0.209361
-0.088835001 0.031737 -0.20934901
-0.088832997 0.031810999 -0.20933899
-0.088831 0.031885002 -0.209328
-0.088827997 0.031957999 -0.20932201
-0.088825002 0.032030001 -0.209316
-0.088822998 0.032104 -0.20931
-0.088820003 0.032178 -0.20930099
-0.088817999 0.032251 -0.209279
-0.088816002 0.032327 -0.209259
-0.088812999 0.032398999 -0.20926
-0.088809997 0.032471001 -0.209278
-0.088806003 0.032542001 -0.2093
-0.088802002 0.032614 -0.20931
-0.088799 0.032685999 -0.209325
-0.088794999 0.032756999 -0.20934699
-0.088790998 0.032830998 -0.20935901
-0.088788003 0.032903001 -0.209361
-0.088785 0.032974999 -0.20936801
-0.088781998 0.033047002 -0.20938
-0.088779002 0.033119 -0.20938601
-0.088776 0.033193 -0.209389
-0.088771999 0.033264998 -0.209397
-0.088768996 0.033337999 -0.20940299
-0.088766001 0.033410002 -0.209407
-0.088762999 0.033482 -0.209416
-0.088760003 0.033553999 -0.209424
-0.088756002 0.033626001 -0.209436
-0.088752002 0.033698998 -0.209455
-0.088748999 0.033771001 -0.20946699
-0.088744998 0.033842999 -0.209481
-0.088742003 0.033914998 -0.209491
-0.088739 0.033987001 -0.209498
-0.088735998 0.034058999 -0.20950601
-0.088733003 0.034132998 -0.209502
-0.08873 0.034205001 -0.209498
-0.088726997 0.034279 -0.209499
-0.088724002 0.034350999 -0.209497
-0.088721998 0.034425002 -0.209489
-0.088720001 0.034497999 -0.20947
-0.088716999 0.034572002 -0.20946001
-0.088712998 0.034644999 -0.209484
-0.088708997 0.034715001 -0.209516
-0.088705003 0.034786001 -0.209553
-0.088699996 0.034859002 -0.209589
-0.088696003 0.034929 -0.209617
-0.088691004 0.035002001 -0.209647
-0.088687003 0.035073001 -0.20968799
-0.088683002 0.035142999 -0.20971601
-0.088678002 0.035213999 -0.209756
-0.088674001 0.035287 -0.209785
-0.088669002 0.035358999 -0.209811
-0.088665999 0.035429999 -0.209833
-0.088661 0.035502002 -0.209859
-0.088656999 0.035574999 -0.209896
-0.088652 0.035645999 -0.20994
-0.088647 0.035716999 -0.209976
-0.088642001 0.03579 -0.210016
-0.088637002 0.035861 -0.210063
-0.088632002 0.035932001 -0.210117
-0.088627003 0.036003001 -0.210161
-0.088621996 0.036074001 -0.210208
-0.088615999 0.036145002 -0.21027599
-0.088610001 0.036215998 -0.210334
-0.088606 0.036286999 -0.210372
-0.088601001 0.036359999 -0.210407
-0.088597 0.036432002 -0.21043301
-0.088592 0.036502998 -0.210471
-0.088587001 0.036573999 -0.21052501
-0.088581003 0.036648002 -0.21058001
-0.088574998 0.036719002 -0.210646
-0.088569999 0.036789998 -0.210704
-0.088564001 0.036860999 -0.21076199
-0.088559002 0.036933001 -0.210815
-0.088552997 0.037004001 -0.21087299
-0.088546 0.037076 -0.21096499
-0.089357004 0.023458 -0.209847
-0.089354999 0.023534 -0.209829
-0.089363001 0.023642 -0.209555
-0.089369997 0.023824001 -0.209277
-0.089369997 0.023908 -0.209195
-0.089369997 0.023987999 -0.20912699
-0.089369997 0.024071001 -0.20905501
-0.089369997 0.024149001 -0.20899799
-0.089368999 0.024227999 -0.208948
-0.089368001 0.024307 -0.208904
-0.089365996 0.024382999 -0.208878
-0.089364 0.024456 -0.208864
-0.089362003 0.024529999 -0.208857
-0.089359 0.024604 -0.208841
-0.089357004 0.024679 -0.208827
-0.089354001 0.024751 -0.20882501
-0.089350998 0.024823001 -0.208832
-0.089348003 0.024896 -0.20884
-0.089345001 0.024968 -0.20884199
-0.089341998 0.025038 -0.208849
-0.089337997 0.025110001 -0.20886099
-0.089335002 0.025180001 -0.208875
-0.089331001 0.025251999 -0.208887
-0.089327998 0.025323 -0.20890599
-0.089323997 0.025390999 -0.208928
-0.089319997 0.025462 -0.208948
-0.089316003 0.025532 -0.208979
-0.089312002 0.025601 -0.209011
-0.089308001 0.025668999 -0.20903701
-0.089303002 0.025738001 -0.20907401
-0.089298002 0.025805 -0.209122
-0.089293003 0.025872 -0.209167
-0.089287996 0.025939001 -0.209225
-0.089282997 0.026006 -0.209271
-0.089279003 0.026077 -0.209296
-0.089275002 0.026147 -0.20931999
-0.089271002 0.026216 -0.20935
-0.089267001 0.026288001 -0.209364
-0.089263998 0.026358999 -0.209379
-0.089259997 0.026431 -0.20939299
-0.089257002 0.026501 -0.209409
-0.089253001 0.026573 -0.209426
-0.089249998 0.026645999 -0.209434
-0.089247003 0.026718 -0.209434
-0.089244001 0.02679 -0.209437
-0.089240998 0.026864 -0.20943899
-0.089238003 0.026937 -0.20943099
-0.089235999 0.027011 -0.209419
-0.089234002 0.027085001 -0.20941
-0.089230999 0.027156999 -0.20940401
-0.089227997 0.027232001 -0.209396
-0.089226 0.027303999 -0.209388
-0.089222997 0.027380001 -0.20937701
-0.089221999 0.027455 -0.20934699
-0.089220002 0.027528999 -0.20933101
-0.089216001 0.027601 -0.209341
-0.089212999 0.027673 -0.20934799
-0.089210004 0.027744999 -0.20935801
-0.089206003 0.027818 -0.20937
-0.089203 0.02789 -0.20937701
-0.089199997 0.027961999 -0.209387
-0.089195997 0.028031999 -0.20940299
-0.089193001 0.028103 -0.20942099
-0.089189 0.028175 -0.20943999
-0.089185998 0.028247001 -0.209446
-0.089183003 0.028318999 -0.209446
-0.08918 0.028393 -0.209443
-0.089176998 0.028467 -0.20944101
-0.089174002 0.028539 -0.209445
-0.089171 0.028611001 -0.209447
-0.089167997 0.028682999 -0.209452
-0.089165002 0.028755 -0.209456
-0.089162 0.028827 -0.209466
-0.089157999 0.028898999 -0.20947801
-0.089155003 0.028972 -0.209489
-0.089152001 0.029044 -0.209493
-0.089148998 0.029115999 -0.209493
-0.089146003 0.02919 -0.20949601
-0.089143001 0.029263999 -0.20949399
-0.089139998 0.029335 -0.20949
-0.089138001 0.029409001 -0.20948599
-0.089134999 0.029480999 -0.20948701
-0.089132003 0.029555 -0.209483
-0.089129999 0.029629 -0.20946901
-0.089128003 0.029704001 -0.209437
-0.089125998 0.02978 -0.20941199
-0.089125 0.029855 -0.209388
-0.089121997 0.029929001 -0.209378
-0.089119002 0.030001 -0.209378
-0.089116 0.030075001 -0.209381
-0.089112997 0.030145001 -0.209397
-0.089109004 0.030215001 -0.209419
-0.089105003 0.030288 -0.20943999
-0.089102 0.03036 -0.20945001
-0.089098997 0.030432001 -0.209452
-0.089094996 0.030506 -0.209456
-0.089093 0.030578 -0.209453
-0.089089997 0.030652 -0.209451
-0.089087002 0.030724 -0.209453
-0.089083999 0.030796001 -0.209452
-0.089080997 0.03087 -0.20944799
-0.089079 0.030944001 -0.20943999
-0.089075997 0.031017 -0.209438
-0.089073002 0.031090001 -0.209445
-0.08907 0.031161999 -0.209445
-0.089066997 0.031234 -0.209447
-0.089064002 0.031305999 -0.209457
-0.089060001 0.031380001 -0.209466
-0.089056998 0.031452 -0.209474
-0.089054003 0.031523999 -0.209472
-0.089051999 0.031598002 -0.209461
-0.089050002 0.031670999 -0.209447
-0.089047 0.031745002 -0.20943899
-0.089043997 0.031819001 -0.20943099
-0.089042 0.031891 -0.209424
-0.089040004 0.031966001 -0.20941199
-0.089037001 0.03204 -0.209398
-0.089034997 0.032113999 -0.20938399
-0.089033 0.032187 -0.209371
-0.089031003 0.032260999 -0.209343
-0.089028999 0.032336 -0.209319
-0.089025997 0.032407999 -0.209327
-0.089022003 0.032478999 -0.209354
-0.089018002 0.032551002 -0.209372
-0.089015 0.032621998 -0.209388
-0.089010999 0.032694001 -0.209411
-0.089006998 0.032765999 -0.20943099
-0.089002997 0.032839 -0.209447
-0.089000002 0.032910999 -0.209453
-0.088996999 0.032983001 -0.20945799
-0.088993996 0.033055 -0.209466
-0.088991001 0.033126999 -0.20946801
-0.088987999 0.033201002 -0.20946699
-0.088985004 0.033275001 -0.209461
-0.088982999 0.033346999 -0.209457
-0.088978998 0.033419002 -0.20946699
-0.088974997 0.033491001 -0.209488
-0.088972002 0.033562999 -0.209498
-0.088969 0.033636 -0.20951
-0.088964999 0.033707999 -0.209526
-0.088962004 0.033780001 -0.209529
-0.088959001 0.033852 -0.209539
-0.088955 0.033925001 -0.20955899
-0.088951997 0.033996999 -0.209566
-0.088947996 0.034069002 -0.20957001
-0.088945001 0.034143001 -0.20958
-0.088941999 0.034215 -0.20958599
-0.088939004 0.034288999 -0.209581
-0.088936999 0.034361001 -0.209573
-0.088933997 0.034433998 -0.209563
-0.088932 0.034508001 -0.209553
-0.088928998 0.034582 -0.209548
-0.088926002 0.034653999 -0.209562
-0.088921003 0.034724999 -0.209594
-0.088917002 0.034796 -0.209621
-0.088913001 0.034867998 -0.20965099
-0.088909 0.034938999 -0.209681
-0.088904001 0.035011999 -0.209721
-0.088899001 0.035082001 -0.209758
-0.088895001 0.035153002 -0.20978799
-0.088890001 0.035225999 -0.20982599
-0.088885002 0.035296999 -0.209867
-0.088881999 0.035369001 -0.209887
-0.088877998 0.035441 -0.20990901
-0.088873997 0.035512 -0.209931
-0.088868998 0.035585001 -0.20996401
-0.088864997 0.035654999 -0.210004
-0.088859998 0.035728 -0.210048
-0.088854998 0.035799 -0.210088
-0.088849999 0.035870001 -0.21013699
-0.088845 0.035941001 -0.21018299
-0.08884 0.036012001 -0.210225
-0.088835001 0.036084998 -0.21027499
-0.088829003 0.036155 -0.21033999
-0.088822998 0.036226001 -0.210392
-0.088817999 0.036299001 -0.21043999
-0.088812999 0.036370002 -0.210489
-0.088808 0.036442 -0.21052501
-0.088803001 0.036513001 -0.210575
-0.088798001 0.036584001 -0.210623
-0.088793002 0.036657002 -0.210666
-0.088788003 0.036727998 -0.21071801
-0.088781998 0.036802001 -0.210768
-0.088776998 0.036873002 -0.21082599
-0.088771001 0.036943998 -0.210889
-0.088765003 0.037016001 -0.210959
-0.089608997 0.023398999 -0.209822
-0.089608997 0.023483001 -0.20974
-0.089608997 0.023566 -0.209674
-0.089612 0.023657 -0.20953199
-0.089620002 0.023761 -0.209288
-0.089619003 0.023840001 -0.20923799
-0.089619003 0.023918999 -0.20918401
-0.089617997 0.023998 -0.20913
-0.089617997 0.024078 -0.20906501
-0.089617997 0.024158999 -0.20900901
-0.089616999 0.024238 -0.208965
-0.089615002 0.024315 -0.20892499
-0.089612998 0.024390001 -0.208903
-0.089611001 0.024464 -0.208884
-0.089608997 0.02454 -0.208866
-0.089607 0.024613 -0.20885199
-0.089605004 0.024687 -0.20884
-0.089602001 0.024761001 -0.208839
-0.089598998 0.024831001 -0.208845
-0.089594997 0.024902999 -0.208859
-0.089590997 0.024974 -0.208877
-0.089588001 0.025044 -0.20889001
-0.089584999 0.025116 -0.20889799
-0.089582004 0.025186 -0.20890801
-0.089578003 0.025257999 -0.208921
-0.089575 0.025331 -0.208931
-0.089570999 0.025401 -0.208941
-0.089566998 0.02547 -0.208978
-0.089561999 0.025537999 -0.209016
-0.089557998 0.025606999 -0.20905
-0.089553997 0.025674 -0.209089
-0.089547999 0.025741 -0.209139
-0.089543 0.025807999 -0.209195
-0.089538001 0.025875 -0.20924599
-0.089533001 0.025942 -0.20929199
-0.089529 0.026013 -0.209314
-0.089524999 0.026083 -0.209337
-0.089521997 0.026153 -0.20935699
-0.089518003 0.026226001 -0.20936701
-0.089515001 0.026298 -0.209378
-0.089511 0.026365999 -0.20940199
-0.089506999 0.026436999 -0.209424
-0.089504004 0.026509 -0.20943899
-0.089500003 0.026581001 -0.209447
-0.089497 0.026652999 -0.209455
-0.089493997 0.026725 -0.209463
-0.089491002 0.026797 -0.209464
-0.089488 0.026870999 -0.20946001
-0.089486003 0.026945001 -0.209452
-0.089483 0.027019 -0.209438
-0.089481004 0.027093001 -0.20943099
-0.089478001 0.027166 -0.209425
-0.089474998 0.027240001 -0.209419
-0.089473002 0.027314 -0.20941199
-0.089470997 0.027388001 -0.2094
-0.089469001 0.027463 -0.20936801
-0.089466996 0.027536999 -0.209354
-0.089463003 0.027611 -0.209363
-0.08946 0.027681001 -0.20937701
-0.089455999 0.027752999 -0.20939299
-0.089452997 0.027824 -0.20940299
-0.089450002 0.027896 -0.20941
-0.089446999 0.027968001 -0.209418
-0.089442998 0.028039999 -0.20943201
-0.089440003 0.028112 -0.20944101
-0.089437 0.028184 -0.209445
-0.089432999 0.028256999 -0.209455
-0.089429997 0.028329 -0.209457
-0.089427002 0.028402001 -0.20945799
-0.089424998 0.028473999 -0.209454
-0.089422002 0.028548 -0.20944799
-0.089419 0.028620001 -0.209455
-0.089414999 0.028693 -0.20946901
-0.089411996 0.028763 -0.209481
-0.089409001 0.028836999 -0.20948701
-0.089405 0.028906999 -0.209498
-0.089401998 0.028979 -0.209516
-0.089397997 0.029052 -0.20952401
-0.089395002 0.029123999 -0.209527
-0.089391999 0.029198 -0.20953099
-0.089390002 0.029270001 -0.209529
-0.089387 0.029343 -0.209525
-0.089383997 0.029417001 -0.209516
-0.089382 0.029491 -0.20950399
-0.089380004 0.029565001 -0.20949399
-0.089377001 0.029638 -0.20948599
-0.089373998 0.029712001 -0.20947701
-0.089373 0.029788001 -0.209451
-0.089372002 0.029863 -0.209409
-0.089368999 0.029937999 -0.20939501
-0.089365996 0.03001 -0.20940401
-0.089363001 0.030081 -0.209416
-0.089359 0.030154999 -0.209424
-0.089355998 0.030227 -0.209426
-0.089353003 0.030299 -0.209437
-0.08935 0.030369001 -0.209453
-0.089345999 0.030441999 -0.209471
-0.089341998 0.030514 -0.209484
-0.089339003 0.030586001 -0.209488
-0.089336 0.03066 -0.20948599
-0.089334004 0.030732 -0.209484
-0.089331001 0.030804001 -0.20948499
-0.089327998 0.030878 -0.209481
-0.089326002 0.030951001 -0.20946699
-0.089322999 0.031025 -0.209471
-0.089318998 0.031098001 -0.20948
-0.089317001 0.031169999 -0.20947801
-0.089313 0.031244 -0.20948
-0.089309998 0.031316001 -0.20948701
-0.089307003 0.031388 -0.209489
-0.089304 0.031459998 -0.209491
-0.089302003 0.031534001 -0.20948701
-0.089299001 0.031606998 -0.209484
-0.089295998 0.031679001 -0.20947801
-0.089294001 0.031753 -0.209466
-0.089291997 0.031826999 -0.209451
-0.089289002 0.0319 -0.20943899
-0.089286998 0.031973999 -0.20943099
-0.089284003 0.032047998 -0.209425
-0.089281999 0.032122001 -0.209418
-0.089279003 0.032195002 -0.2094
-0.089276999 0.032269001 -0.209382
-0.089275002 0.032343 -0.209372
-0.089272 0.032414999 -0.20937499
-0.089268997 0.032489002 -0.20938499
-0.089264996 0.032559 -0.209405
-0.089261003 0.032632001 -0.209427
-0.089257002 0.032703999 -0.209442
-0.089253999 0.032774001 -0.209454
-0.089249998 0.032846 -0.209466
-0.089247003 0.032919001 -0.209481
-0.089243002 0.032991 -0.209493
-0.08924 0.033062998 -0.20950501
-0.089236997 0.033135001 -0.209511
-0.089234002 0.033209 -0.209508
-0.089231998 0.033282999 -0.209498
-0.089229003 0.033355001 -0.20949601
-0.089226 0.033429001 -0.209503
-0.089221999 0.033500999 -0.209507
-0.089218996 0.033573002 -0.209519
-0.089215003 0.033645 -0.20953301
-0.089212 0.033718001 -0.209554
-0.089207999 0.03379 -0.20957001
-0.089203998 0.033860002 -0.209584
-0.089201003 0.033934999 -0.209592
-0.089198001 0.034007002 -0.20959499
-0.089194998 0.034079 -0.209593
-0.089192003 0.034153 -0.209599
-0.089189 0.034224998 -0.209608
-0.089185998 0.034299001 -0.209608
-0.089184001 0.034371 -0.209598
-0.089180999 0.034444001 -0.209592
-0.089179002 0.034518 -0.20957901
-0.089175999 0.034589998 -0.209575
-0.089171998 0.034662001 -0.20959701
-0.089167997 0.034735002 -0.209627
-0.089163996 0.034805998 -0.209656
-0.089158997 0.034878001 -0.209682
-0.089155003 0.034949001 -0.20971
-0.089151002 0.035021 -0.209747
-0.089146003 0.035092 -0.20978899
-0.089140996 0.035163 -0.209823
-0.089137003 0.035234001 -0.209861
-0.089132003 0.035307001 -0.20989799
-0.089128003 0.035379 -0.209922
-0.089124002 0.035450999 -0.20993599
-0.089120001 0.035521999 -0.20996401
-0.089116 0.035595 -0.209999
-0.089111 0.035665002 -0.21003699
-0.089106001 0.035735998 -0.210079
-0.089101002 0.035808999 -0.210118
-0.089097001 0.035879999 -0.21016
-0.089092001 0.035951 -0.210206
-0.089086004 0.036022 -0.210254
-0.089080997 0.036095001 -0.21030501
-0.089075997 0.036164001 -0.210363
-0.08907 0.036235999 -0.210421
-0.089064002 0.036307 -0.210481
-0.089059003 0.03638 -0.21053401
-0.089054003 0.036451001 -0.210574
-0.089050002 0.036522999 -0.21060801
-0.089045003 0.036594 -0.21065401
-0.089040004 0.036667001 -0.210697
-0.089034997 0.036738001 -0.210743
-0.089028999 0.036811002 -0.21079899
-0.089023001 0.036883 -0.210857
-0.089019001 0.036954001 -0.210898
-0.089013003 0.037027001 -0.21094599
-0.089897998 0.023324 -0.209925
-0.089899004 0.023407999 -0.20982701
-0.089899004 0.023491001 -0.20976301
-0.089897998 0.023568001 -0.20972501
-0.089910001 0.023848999 -0.209235
-0.089910999 0.023934999 -0.209139
-0.089910999 0.024017001 -0.20906501
-0.089911997 0.024098 -0.20899101
-0.089910999 0.024177 -0.20894501
-0.089909002 0.024251999 -0.20891701
-0.089907996 0.024328999 -0.208884
-0.089906 0.024405999 -0.208858
-0.089904003 0.02448 -0.208838
-0.089901999 0.024556 -0.208822
-0.089899004 0.024629001 -0.208809
-0.089896999 0.024700999 -0.20880499
-0.089892998 0.024773 -0.20881499
-0.089890003 0.024844 -0.20883401
-0.089886002 0.024914 -0.208846
-0.089883 0.024986001 -0.208856
-0.089879997 0.025057999 -0.208858
-0.089877002 0.02513 -0.208867
-0.089873001 0.025199 -0.208887
-0.089869 0.025269 -0.208915
-0.089864999 0.025338 -0.208942
-0.089860998 0.025408 -0.208968
-0.089856997 0.025477 -0.208994
-0.089851998 0.025545999 -0.20903701
-0.089846998 0.025614999 -0.209075
-0.089842997 0.025681 -0.209115
-0.089837 0.025746999 -0.20917401
-0.089832999 0.025815999 -0.209218
-0.089827999 0.025883 -0.20926
-0.089823 0.025951 -0.209307
-0.089818999 0.02602 -0.209335
-0.089814998 0.02609 -0.20934699
-0.089812003 0.026164001 -0.20935801
-0.089809 0.026234999 -0.20936801
-0.089805 0.026307 -0.20938601
-0.089800999 0.026377 -0.20940299
-0.089798003 0.026448 -0.209415
-0.089794002 0.026520001 -0.209429
-0.089791 0.026591999 -0.209436
-0.089789003 0.026666 -0.20943201
-0.089786001 0.026737999 -0.20943201
-0.089782998 0.02681 -0.209434
-0.089780003 0.026884001 -0.209435
-0.089777 0.026955999 -0.209433
-0.089775003 0.027031001 -0.209417
-0.089772999 0.027105 -0.209399
-0.089769997 0.027179001 -0.209392
-0.089767002 0.027253 -0.20938601
-0.089764997 0.027326001 -0.209372
-0.089763001 0.027402001 -0.209352
-0.089762002 0.027479 -0.20932101
-0.089759 0.027550999 -0.209317
-0.089754999 0.027620999 -0.20933899
-0.089750998 0.027694 -0.209355
-0.089748003 0.027766 -0.209362
-0.089745 0.027837999 -0.20936801
-0.089741997 0.027907999 -0.209382
-0.089737996 0.02798 -0.209399
-0.089735001 0.028053001 -0.209409
-0.089731999 0.028124999 -0.209411
-0.089727998 0.028197 -0.209418
-0.089725003 0.028269 -0.20942999
-0.089722 0.028341001 -0.209438
-0.089718997 0.028413 -0.209436
-0.089716002 0.028487001 -0.209433
-0.089713 0.028558999 -0.20943099
-0.089709997 0.028633 -0.209435
-0.089707002 0.028703 -0.209447
-0.089703999 0.028774999 -0.20945799
-0.089700997 0.028849 -0.209452
-0.089699 0.028922999 -0.209438
-0.089698002 0.028999999 -0.209396
-0.089695998 0.029077001 -0.209361
-0.089691997 0.029146001 -0.20938499
-0.089685999 0.029213 -0.209453
-0.089681998 0.029284 -0.209492
-0.089679003 0.029355999 -0.20949
-0.089676999 0.029429 -0.20947801
-0.089674003 0.029503001 -0.209462
-0.089671999 0.029579001 -0.209457
-0.089668997 0.029650999 -0.20944899
-0.089667 0.029724 -0.209435
-0.089665003 0.029802 -0.209405
-0.089663997 0.029874999 -0.20937601
-0.089662001 0.029951001 -0.20936
-0.089658998 0.030022999 -0.209362
-0.089654997 0.030095 -0.209379
-0.089651003 0.030165 -0.209397
-0.089648001 0.030238001 -0.20941301
-0.089644 0.030309999 -0.209427
-0.089640997 0.030379999 -0.20943999
-0.089636996 0.030452 -0.20945001
-0.089634001 0.030525999 -0.209456
-0.089630999 0.030598 -0.209461
-0.089628004 0.030671 -0.209463
-0.089625001 0.030743999 -0.209457
-0.089622997 0.030816 -0.20944899
-0.089620002 0.030889999 -0.209454
-0.089616999 0.030962 -0.209454
-0.089613996 0.031036001 -0.20944799
-0.089611001 0.03111 -0.209446
-0.089608997 0.031182 -0.209445
-0.089605004 0.031254001 -0.209453
-0.089602001 0.031326 -0.209461
-0.089598998 0.031399999 -0.209462
-0.089596003 0.031472001 -0.20946001
-0.089593001 0.031544 -0.209464
-0.089590997 0.031617999 -0.20945799
-0.089588001 0.031691998 -0.209447
-0.089585997 0.031764999 -0.20943899
-0.089583002 0.031838998 -0.209427
-0.089580998 0.031913001 -0.209411
-0.089579001 0.031987 -0.20940401
-0.089575998 0.032058001 -0.209398
-0.089573003 0.032132 -0.209392
-0.089570999 0.032205999 -0.20937701
-0.089569002 0.032281 -0.20935699
-0.089566998 0.032354999 -0.209343
-0.089562997 0.032427002 -0.209355
-0.089560002 0.032497998 -0.20937601
-0.089556001 0.032570001 -0.20939399
-0.089552 0.032641999 -0.209408
-0.089548998 0.032715 -0.20942
-0.089544997 0.032784998 -0.209443
-0.089541003 0.032857001 -0.209461
-0.089538001 0.032929 -0.209465
-0.089534998 0.033000998 -0.20947
-0.089532003 0.033075001 -0.209472
-0.089529 0.033149 -0.209464
-0.089527003 0.033220999 -0.20945799
-0.089524001 0.033295002 -0.209461
-0.089520998 0.033367001 -0.209465
-0.089518003 0.033441 -0.20946699
-0.089514002 0.033511002 -0.20947701
-0.089511 0.033585999 -0.20949
-0.089507997 0.033656001 -0.209502
-0.089504004 0.033728 -0.20952199
-0.089500003 0.033801001 -0.209543
-0.089496002 0.033872999 -0.209553
-0.089492999 0.033945002 -0.209563
-0.089489996 0.034017 -0.209565
-0.089487001 0.034091 -0.20956799
-0.089483999 0.034162998 -0.20957001
-0.089481004 0.034235001 -0.209574
-0.089478001 0.034309 -0.20957799
-0.089474998 0.034380998 -0.20957901
-0.089473002 0.034455001 -0.20956901
-0.089470997 0.034527998 -0.209545
-0.089468002 0.034602001 -0.209548
-0.089464001 0.034674998 -0.20957001
-0.08946 0.034745 -0.20959599
-0.089455001 0.034816001 -0.209628
-0.089451 0.034889001 -0.209659
-0.089446999 0.034959 -0.20968901
-0.089442 0.035032 -0.209729
-0.089437999 0.035103001 -0.20976301
-0.089432999 0.035174001 -0.20979799
-0.089428 0.035243999 -0.20983601
-0.089423999 0.035317 -0.209876
-0.089419 0.035388 -0.209905
-0.089415997 0.035459999 -0.20991901
-0.089411996 0.035533 -0.20994499
-0.089406997 0.035604998 -0.209977
-0.089403003 0.035675999 -0.210006
-0.089397997 0.035746999 -0.21006
-0.089391999 0.035817999 -0.210124
-0.089387 0.035889 -0.21016499
-0.089382 0.035962 -0.210207
-0.089377001 0.036033001 -0.210255
-0.089371003 0.036104001 -0.210311
-0.089365996 0.036175001 -0.21036001
-0.089360997 0.036246002 -0.21040601
-0.089355998 0.036318999 -0.210446
-0.089351997 0.036389999 -0.210472
-0.089348003 0.036462002 -0.21051501
-0.089341998 0.036534 -0.21057101
-0.089336 0.036605 -0.21063501
-0.089330003 0.036676001 -0.210693
-0.089325003 0.036747001 -0.210748
-0.089318998 0.036821 -0.210806
-0.089313 0.03689 -0.21087
-0.089308001 0.036963001 -0.210926
-0.089302003 0.037034001 -0.210981
-0.089296997 0.037106 -0.211041
-0.090271004 0.023344001 -0.209932
-0.090269998 0.023422999 -0.209888
-0.090268001 0.023497 -0.20987201
-0.090264998 0.023571 -0.209867
-0.090262003 0.023643 -0.209877
-0.090282999 0.023869 -0.20924599
-0.090285003 0.023956001 -0.20912801
-0.090286002 0.024041999 -0.20903599
-0.090285003 0.024118001 -0.209004
-0.090283997 0.024196999 -0.208958
-0.090282999 0.024274001 -0.208915
-0.090282001 0.024351001 -0.208883
-0.090279996 0.024426 -0.20886099
-0.090277001 0.024499999 -0.208845
-0.090274997 0.024574 -0.20884
-0.090272002 0.024648 -0.20883401
-0.090268999 0.024719 -0.20883
-0.090267003 0.024793001 -0.20883
-0.090263002 0.024863999 -0.20884299
-0.090259001 0.024933999 -0.20886301
-0.090255998 0.025003999 -0.20887899
-0.090251997 0.025075 -0.208892
-0.090249002 0.025145 -0.20890801
-0.090245001 0.025216 -0.20893601
-0.090241 0.025284 -0.20896301
-0.090236999 0.025353 -0.208993
-0.090232 0.025423 -0.20901901
-0.090228997 0.025491999 -0.20904399
-0.090223998 0.025562 -0.20907401
-0.090219997 0.025629001 -0.209116
-0.090214998 0.025696 -0.209161
-0.090209998 0.025765 -0.209203
-0.090204999 0.025831999 -0.209251
-0.0902 0.025899 -0.209298
-0.090195999 0.025970001 -0.209328
-0.090191998 0.026038 -0.209356
-0.090187997 0.026109001 -0.209379
-0.090185001 0.026183 -0.209381
-0.090181999 0.026255 -0.209383
-0.090178996 0.026327001 -0.20939399
-0.090175003 0.026396999 -0.209408
-0.090172 0.026466999 -0.20942
-0.090167999 0.02654 -0.209435
-0.090164997 0.026612001 -0.209447
-0.090162002 0.026683999 -0.209451
-0.090158999 0.026758 -0.20944101
-0.090157002 0.026831999 -0.209436
-0.090154 0.026904 -0.209436
-0.090150997 0.026977001 -0.209434
-0.090148002 0.027051 -0.209426
-0.090145998 0.027124999 -0.209417
-0.090144001 0.027199 -0.209405
-0.090140998 0.027272999 -0.209397
-0.090139002 0.027346 -0.20938499
-0.090136997 0.027424 -0.209356
-0.090135999 0.027499 -0.20932201
-0.090132996 0.027571 -0.20932201
-0.090129003 0.027643001 -0.209342
-0.090125002 0.027713999 -0.209365
-0.090121001 0.027783999 -0.209383
-0.090117998 0.027853999 -0.209399
-0.090115003 0.027926 -0.209406
-0.090111002 0.028000001 -0.20941
-0.090108 0.028073 -0.20941401
-0.090104997 0.028145 -0.209424
-0.090102002 0.028217001 -0.20943099
-0.090098999 0.028289 -0.209435
-0.090095997 0.028361 -0.20944101
-0.090093002 0.028433001 -0.209444
-0.090089999 0.028507 -0.209438
-0.090086997 0.028579 -0.209436
-0.090084001 0.028650999 -0.209444
-0.090080999 0.028723 -0.209455
-0.090076998 0.028795 -0.209463
-0.090074003 0.028867001 -0.209471
-0.090071 0.02894 -0.209484
-0.090066999 0.029012 -0.20949
-0.090063997 0.029084001 -0.20949399
-0.090061001 0.029155999 -0.209498
-0.090057999 0.02923 -0.209497
-0.090056002 0.029304 -0.209493
-0.090053 0.029375 -0.209489
-0.090051003 0.029451 -0.209479
-0.090048999 0.029525001 -0.20945799
-0.090047002 0.0296 -0.209436
-0.090044998 0.029673999 -0.20941401
-0.090043001 0.029749 -0.209392
-0.090040997 0.029825 -0.209373
-0.090039 0.029898001 -0.20935699
-0.090035997 0.029972 -0.20934901
-0.090033002 0.030042 -0.209362
-0.090029001 0.030115001 -0.20938
-0.090025 0.030184999 -0.20940199
-0.090020999 0.030257 -0.209418
-0.090017997 0.03033 -0.20942301
-0.090015002 0.030401999 -0.20943099
-0.090011999 0.030474 -0.20944101
-0.090007998 0.030546 -0.209452
-0.090005003 0.030618001 -0.209456
-0.090002999 0.030692 -0.20944799
-0.090000004 0.030765999 -0.209444
-0.089997001 0.030838 -0.209443
-0.089993998 0.03091 -0.209445
-0.089991003 0.030982001 -0.209455
-0.089988001 0.031056 -0.209461
-0.089984998 0.031128 -0.20946801
-0.089980997 0.031198001 -0.20947801
-0.089978002 0.031272002 -0.209482
-0.089974999 0.031344 -0.209481
-0.089971997 0.031417999 -0.209481
-0.08997 0.031491999 -0.209473
-0.089966998 0.031564001 -0.20946699
-0.089964002 0.031638 -0.209466
-0.089961998 0.031711999 -0.20946001
-0.089959003 0.031785 -0.20944799
-0.089956999 0.031858999 -0.209428
-0.089955002 0.031932998 -0.209415
-0.089951999 0.032005999 -0.20941301
-0.089950003 0.032078002 -0.209411
-0.089947 0.032152001 -0.2094
-0.089945003 0.032226 -0.20938601
-0.089942001 0.032299999 -0.20937601
-0.089939997 0.032372002 -0.20937601
-0.089936003 0.032444 -0.209389
-0.089933001 0.032515999 -0.209401
-0.089929 0.032588001 -0.209409
-0.089925997 0.03266 -0.209417
-0.089923002 0.032733001 -0.20943201
-0.089919001 0.032805 -0.20945001
-0.089915998 0.032876998 -0.20945799
-0.089911997 0.032949001 -0.20946901
-0.089909002 0.033020999 -0.209471
-0.089906 0.033094998 -0.20946901
-0.089902997 0.033167001 -0.209473
-0.089901 0.033241 -0.20947
-0.089897998 0.033314999 -0.20945799
-0.089895003 0.033387002 -0.20946001
-0.089892 0.033459 -0.209472
-0.089887999 0.033530999 -0.209483
-0.089884996 0.033604 -0.209497
-0.089881003 0.033675998 -0.20951299
-0.089877002 0.033746 -0.209534
-0.089873999 0.033819001 -0.209554
-0.089869998 0.033891 -0.20957001
-0.089867003 0.033962999 -0.209576
-0.089864001 0.034037001 -0.20957901
-0.089860998 0.034109 -0.209583
-0.089858003 0.034180999 -0.209585
-0.089855 0.034255002 -0.209581
-0.089853004 0.034329001 -0.20957001
-0.089850001 0.034402002 -0.209556
-0.089847997 0.034476001 -0.209544
-0.089845002 0.034548 -0.209539
-0.089841999 0.034619998 -0.209555
-0.089837998 0.034692999 -0.209581
-0.089832999 0.034763001 -0.209609
-0.089828998 0.034836002 -0.209638
-0.089824997 0.034906998 -0.209672
-0.089821003 0.034979001 -0.20969801
-0.089817002 0.035050001 -0.20972501
-0.089810997 0.035121001 -0.20977101
-0.089805998 0.035192002 -0.209821
-0.089801997 0.035264999 -0.209857
-0.089798003 0.035335001 -0.209884
-0.089792997 0.035408001 -0.209912
-0.089789003 0.035478 -0.209942
-0.089783996 0.035551 -0.209978
-0.089780003 0.035622001 -0.210015
-0.089775003 0.035693001 -0.21005499
-0.089769997 0.035765 -0.210095
-0.089764997 0.035836 -0.210142
-0.089759998 0.035907 -0.210186
-0.089755997 0.035980001 -0.210224
-0.089750998 0.036051001 -0.21026801
-0.089745998 0.036122002 -0.210317
-0.089740001 0.036192998 -0.210381
-0.089734003 0.036265001 -0.21044099
-0.089729004 0.036336001 -0.210485
-0.089725003 0.036408 -0.21051399
-0.089720003 0.036481 -0.21054401
-0.089714997 0.036552001 -0.210596
-0.089709997 0.036623001 -0.21065199
-0.089703999 0.036694001 -0.21070699
-0.089698002 0.036766 -0.21077301
-0.089691997 0.036837 -0.210833
-0.089686997 0.036910001 -0.210885
-0.089681 0.036981001 -0.21095
-0.089675002 0.037053 -0.211014
-0.089670002 0.037124 -0.211064
-0.090682998 0.023502 -0.210005
-0.090681002 0.023577999 -0.209987
-0.090677999 0.023653001 -0.209975
-0.090691 0.023771999 -0.209619
-0.090686999 0.023841999 -0.20964099
-0.090703003 0.023972001 -0.20919
-0.090703003 0.024053 -0.209132
-0.090701997 0.024132 -0.209076
-0.090701997 0.024212001 -0.20901901
-0.090700999 0.024289001 -0.20898101
-0.090699002 0.024365 -0.20895299
-0.090696998 0.024437999 -0.208937
-0.090695001 0.024514001 -0.208922
-0.090691999 0.024590001 -0.208904
-0.090690002 0.024661001 -0.208896
-0.090686999 0.024733 -0.20889799
-0.090683997 0.024806 -0.208909
-0.090680003 0.024878001 -0.208915
-0.090677001 0.02495 -0.20891701
-0.090674996 0.025023 -0.208904
-0.090673 0.025099 -0.208884
-0.090668999 0.025167 -0.20890599
-0.090663001 0.025231 -0.208995
-0.090657003 0.025295001 -0.20906501
-0.090653002 0.025365001 -0.209089
-0.090649001 0.025436001 -0.209108
-0.090645 0.025504 -0.209132
-0.090640999 0.025573 -0.209168
-0.090636 0.025642 -0.20921101
-0.090631001 0.02571 -0.20924699
-0.090627 0.025776999 -0.20928299
-0.090622999 0.025846001 -0.20931999
-0.090617999 0.025915001 -0.20935801
-0.090613998 0.025984 -0.20939399
-0.090608999 0.026054 -0.20942301
-0.090604998 0.026123 -0.20944899
-0.090602003 0.026195001 -0.209463
-0.090599 0.026267 -0.209472
-0.090594999 0.026339 -0.20948
-0.090591997 0.026409 -0.20949
-0.090589002 0.026481999 -0.209502
-0.090585001 0.026554 -0.209511
-0.090581998 0.026626 -0.20951501
-0.090579003 0.026698001 -0.209527
-0.090576001 0.026769999 -0.209536
-0.090572998 0.026842 -0.209534
-0.090570003 0.026915999 -0.209526
-0.090567999 0.02699 -0.209518
-0.090565003 0.027063999 -0.20951299
-0.090562999 0.027137 -0.209501
-0.090559997 0.027213 -0.20948701
-0.090558 0.027287001 -0.209475
-0.090556003 0.027362 -0.209454
-0.090553999 0.027437 -0.209424
-0.090552002 0.027511001 -0.209408
-0.090549 0.027582999 -0.20941401
-0.090545997 0.027655 -0.209429
-0.090542004 0.027728001 -0.20943899
-0.090539001 0.027798001 -0.209457
-0.090535 0.027869999 -0.20947
-0.090531997 0.027942 -0.20947801
-0.090529002 0.028014001 -0.20947801
-0.090526 0.028088 -0.209472
-0.090524003 0.028162001 -0.20946901
-0.090520002 0.028232001 -0.209483
-0.090516001 0.028302999 -0.209503
-0.090512998 0.028377 -0.209509
-0.090510003 0.028449001 -0.20950601
-0.090507001 0.028523 -0.209508
-0.090503998 0.028595001 -0.209516
-0.090501003 0.028666999 -0.209525
-0.090498 0.028739 -0.209527
-0.090493999 0.028809 -0.209543
-0.090490997 0.028882001 -0.209555
-0.090488002 0.028956 -0.209558
-0.090484999 0.029028 -0.209562
-0.090481997 0.029100001 -0.209562
-0.090479001 0.029173 -0.209557
-0.090475999 0.029247001 -0.209553
-0.090474002 0.029321 -0.209545
-0.090471998 0.029394999 -0.209527
-0.090469003 0.029468 -0.209516
-0.090466999 0.029541999 -0.209508
-0.090464003 0.029616 -0.2095
-0.090461999 0.029689999 -0.209482
-0.090461001 0.029765001 -0.209451
-0.090460002 0.029842 -0.209409
-0.090457998 0.029917 -0.209387
-0.090455003 0.029989 -0.20939299
-0.090451002 0.030060001 -0.209416
-0.090447001 0.030131999 -0.20942999
-0.090443999 0.030204 -0.20943999
-0.090439998 0.030277001 -0.20945001
-0.090437002 0.030347001 -0.209473
-0.090433002 0.030418999 -0.20949499
-0.090429001 0.03049 -0.209517
-0.090425 0.030562 -0.20953
-0.090421997 0.030634001 -0.20953
-0.09042 0.030708 -0.209528
-0.090416998 0.030780001 -0.209526
-0.090414003 0.030854 -0.209519
-0.090411 0.030928001 -0.209517
-0.090407997 0.030999999 -0.209525
-0.090405002 0.031072 -0.20953
-0.090402 0.031144001 -0.209536
-0.090398997 0.031215999 -0.20954201
-0.090396002 0.031289998 -0.209546
-0.090392999 0.031362001 -0.20955101
-0.090389997 0.031434 -0.209553
-0.090387002 0.031507999 -0.209547
-0.090383999 0.031580001 -0.209544
-0.090380996 0.031654 -0.209546
-0.090378001 0.031725999 -0.209544
-0.090375997 0.031800002 -0.209536
-0.090374 0.031872999 -0.209525
-0.090370998 0.031947002 -0.209511
-0.090369001 0.032021001 -0.209497
-0.090368003 0.032097999 -0.209455
-0.090365998 0.032173 -0.209428
-0.090364002 0.032244999 -0.20942201
-0.090360001 0.032317001 -0.20943201
-0.090356998 0.032389998 -0.209452
-0.090352997 0.03246 -0.20946699
-0.090349004 0.032531999 -0.209481
-0.090346001 0.032604001 -0.20949499
-0.090342 0.032676999 -0.20951401
-0.090338998 0.032749001 -0.209526
-0.090336002 0.032821 -0.20952401
-0.090333 0.032894999 -0.20952401
-0.090329997 0.032967001 -0.209519
-0.090328 0.033041 -0.20951501
-0.090324 0.033112999 -0.209525
-0.090320997 0.033185001 -0.209529
-0.090319 0.033259001 -0.20952401
-0.090315998 0.033332001 -0.209516
-0.090313002 0.033404998 -0.209526
-0.090309002 0.033477001 -0.209539
-0.090305999 0.033549 -0.209553
-0.090301998 0.033620998 -0.209563
-0.090299003 0.033693999 -0.20957699
-0.090295002 0.033764001 -0.2096
-0.090291001 0.033836 -0.20961601
-0.090287998 0.033909 -0.209626
-0.090285003 0.033983 -0.20963199
-0.090282001 0.034054998 -0.209635
-0.090278998 0.034129001 -0.209629
-0.090276003 0.034200002 -0.20962501
-0.090273 0.034274999 -0.20963199
-0.090269998 0.034345999 -0.209628
-0.090268001 0.034419999 -0.20961601
-0.090265997 0.034494001 -0.209608
-0.090263002 0.034568001 -0.20960701
-0.090259001 0.034637999 -0.209619
-0.090255 0.034711 -0.20964301
-0.090250999 0.034782998 -0.20966101
-0.090246998 0.034853 -0.20969
-0.090242997 0.034926001 -0.20973
-0.090237997 0.034997001 -0.209768
-0.090232998 0.035068002 -0.209805
-0.090228997 0.035138998 -0.209841
-0.090223998 0.035209 -0.209879
-0.090218998 0.035282001 -0.209921
-0.090213999 0.035353001 -0.209966
-0.090209998 0.035425998 -0.209994
-0.090205997 0.035496 -0.21001799
-0.090200998 0.035567001 -0.210067
-0.090195999 0.035640001 -0.210107
-0.090191998 0.035711002 -0.21013901
-0.090186998 0.035783999 -0.210179
-0.090181999 0.035854999 -0.21021999
-0.090177 0.035925001 -0.21026
-0.090172 0.035996001 -0.21031
-0.090167001 0.036068 -0.210364
-0.090162002 0.036139999 -0.210407
-0.090157002 0.036210999 -0.210453
-0.090152003 0.036281999 -0.210501
-0.090147004 0.036355 -0.210539
-0.090143003 0.036428001 -0.21056999
-0.090136997 0.036499001 -0.210622
-0.090131998 0.036570001 -0.21067999
-0.090126 0.036641002 -0.21073
-0.090121001 0.036713999 -0.210777
-0.090115003 0.036786001 -0.210841
-0.090109996 0.036857001 -0.210903
-0.090103999 0.036928002 -0.21095499
-0.090098999 0.036998998 -0.21100999
-0.090092003 0.037071001 -0.211092
-0.091155 0.023717999 -0.20964999
-0.091151997 0.023792 -0.20965099
-0.091164 0.023907 -0.209314
-0.091164999 0.023991 -0.209224
-0.091164999 0.024072999 -0.209158
-0.091164999 0.024152 -0.209096
-0.091164 0.024231 -0.209047
-0.091162004 0.024305999 -0.209023
-0.091160998 0.024382999 -0.208985
-0.091159001 0.024459001 -0.20896301
-0.091155998 0.024532 -0.208958
-0.091153003 0.024606001 -0.208956
-0.091150999 0.024677999 -0.20895
-0.091147996 0.02475 -0.208956
-0.091144003 0.024821 -0.20897099
-0.091140002 0.024891 -0.20899101
-0.091136999 0.024961 -0.209013
-0.091132998 0.02503 -0.20904
-0.091128998 0.0251 -0.20905399
-0.091124997 0.025172999 -0.20907199
-0.091121003 0.025241001 -0.209103
-0.091117002 0.02531 -0.209135
-0.091113001 0.025379 -0.20916501
-0.091109 0.025447 -0.209194
-0.091104001 0.025518 -0.209226
-0.0911 0.025586 -0.20925599
-0.091095001 0.025655 -0.209297
-0.091091 0.025722001 -0.209343
-0.091086 0.025791001 -0.209379
-0.091081999 0.02586 -0.20941
-0.091077998 0.02593 -0.209434
-0.091075003 0.026001999 -0.209436
-0.091075003 0.026085 -0.209362
-0.091075003 0.026163001 -0.20930301
-0.091069996 0.02623 -0.20935699
-0.091061004 0.026287001 -0.20949499
-0.091057003 0.026357999 -0.20952
-0.091054 0.02643 -0.20952401
-0.091049999 0.0265 -0.209544
-0.091045998 0.026573 -0.209563
-0.091043003 0.026643001 -0.209575
-0.091039002 0.026714999 -0.20958699
-0.091035999 0.026784999 -0.209602
-0.091032997 0.026859 -0.209598
-0.091031 0.026932999 -0.20958599
-0.091027997 0.027007001 -0.20958
-0.091025002 0.027081 -0.209575
-0.091022998 0.027154 -0.20956101
-0.091021001 0.02723 -0.209545
-0.091018997 0.027303999 -0.209535
-0.091017 0.027379001 -0.209512
-0.091015004 0.027456 -0.20948
-0.091012999 0.027527999 -0.20947
-0.091009997 0.0276 -0.20947599
-0.091006003 0.027673 -0.20949499
-0.091002002 0.027743001 -0.209509
-0.090999 0.027817 -0.209511
-0.090995997 0.027889 -0.209518
-0.090993002 0.027961001 -0.209528
-0.090989999 0.028032999 -0.20953199
-0.090985999 0.028103 -0.209544
-0.090983003 0.028176 -0.20956101
-0.090980001 0.028248001 -0.209567
-0.090976998 0.02832 -0.20956901
-0.090974003 0.028394001 -0.20956799
-0.090971 0.028468 -0.209562
-0.090967998 0.02854 -0.20956799
-0.090963997 0.028612001 -0.20958
-0.090961002 0.028681999 -0.20959499
-0.090957999 0.028754 -0.20960499
-0.090954997 0.028828001 -0.20960701
-0.090951003 0.028901 -0.209613
-0.090948001 0.028973 -0.209622
-0.090944998 0.029045001 -0.20962
-0.090943001 0.029118 -0.20961399
-0.090939999 0.029192001 -0.209611
-0.090937003 0.029266 -0.209601
-0.090934999 0.029340001 -0.209583
-0.090933003 0.029415 -0.20956101
-0.090930998 0.029488999 -0.209548
-0.090929002 0.029563 -0.209536
-0.090926997 0.029638 -0.20952199
-0.090925001 0.029712001 -0.209498
-0.090922996 0.029787 -0.209463
-0.090921 0.029862 -0.209443
-0.090919003 0.029936001 -0.209433
-0.090916 0.03001 -0.209433
-0.090912998 0.03008 -0.209444
-0.090908997 0.030153001 -0.20946001
-0.090906002 0.030224999 -0.20947
-0.090902001 0.030297 -0.20947801
-0.090898998 0.030369001 -0.209493
-0.090894997 0.030440001 -0.209521
-0.090891004 0.030510001 -0.209545
-0.090887003 0.030583 -0.209558
-0.090884 0.030655 -0.20957001
-0.090879999 0.030727001 -0.209582
-0.090876997 0.030799 -0.20958599
-0.090875 0.030871 -0.209581
-0.090871997 0.030944999 -0.20957699
-0.090869002 0.031017 -0.20958699
-0.090865001 0.031089 -0.209598
-0.090861998 0.031160999 -0.209604
-0.090859003 0.031233 -0.209608
-0.090856001 0.031307001 -0.20961601
-0.090852 0.031380001 -0.209627
-0.090848997 0.031452 -0.209635
-0.090846002 0.031523999 -0.20963299
-0.090843998 0.031598002 -0.209628
-0.090842001 0.031670999 -0.209612
-0.090838999 0.031745002 -0.209598
-0.090837002 0.031819001 -0.20959
-0.090833999 0.031893 -0.209589
-0.090830997 0.031966001 -0.20957901
-0.090829 0.03204 -0.209565
-0.090827003 0.032113999 -0.209555
-0.090824999 0.032189 -0.209528
-0.090823002 0.032262001 -0.2095
-0.090820998 0.032334 -0.2095
-0.090816997 0.032409001 -0.209508
-0.090814002 0.032478999 -0.20952301
-0.090809003 0.032551002 -0.209557
-0.090805002 0.032621998 -0.209585
-0.090801999 0.032694001 -0.209598
-0.090798996 0.032765999 -0.2096
-0.090796001 0.032838002 -0.209602
-0.090792999 0.032912001 -0.209602
-0.090790004 0.032986 -0.20959701
-0.090787999 0.033059999 -0.20958699
-0.090784997 0.033132002 -0.209583
-0.090782002 0.033206001 -0.209583
-0.090778999 0.033278 -0.209582
-0.090777002 0.033351999 -0.209576
-0.090773001 0.033424001 -0.20958
-0.090769 0.033496 -0.20960499
-0.090765998 0.033567999 -0.209621
-0.090763003 0.033640001 -0.209619
-0.09076 0.033712 -0.209627
-0.090755999 0.033785 -0.20964999
-0.090751998 0.033856999 -0.209664
-0.090749003 0.033929002 -0.209674
-0.090746 0.034001 -0.209682
-0.090742998 0.034074999 -0.209683
-0.090740003 0.034147002 -0.209677
-0.090737 0.034221001 -0.20967899
-0.090733998 0.034293 -0.209684
-0.090731002 0.034366999 -0.209676
-0.090728998 0.034441002 -0.209672
-0.090726003 0.034513 -0.20967001
-0.090723 0.034587 -0.209667
-0.090719998 0.034658998 -0.20967899
-0.090714999 0.034729999 -0.209709
-0.090710998 0.034802001 -0.209739
-0.090706997 0.034873001 -0.20977201
-0.090701997 0.034944002 -0.209804
-0.090697996 0.035014998 -0.20984399
-0.090692997 0.035087001 -0.20988099
-0.090689003 0.035158001 -0.209911
-0.090683997 0.035229001 -0.209951
-0.090678997 0.035301998 -0.20999099
-0.090674996 0.035372 -0.210026
-0.090671003 0.035445001 -0.21005
-0.090666004 0.035516001 -0.210088
-0.090660997 0.035588 -0.210126
-0.090657003 0.035659 -0.210161
-0.090651996 0.035732001 -0.210195
-0.090648003 0.035804 -0.210227
-0.090643004 0.035875 -0.21026801
-0.090637997 0.035946 -0.210308
-0.090632997 0.036017001 -0.21036001
-0.090627998 0.036088001 -0.210418
-0.090622 0.03616 -0.21047699
-0.090616003 0.036231 -0.210535
-0.090612002 0.036302 -0.210575
-0.090607002 0.036373999 -0.21060701
-0.090603001 0.036447 -0.210638
-0.090598002 0.036520001 -0.210686
-0.090591997 0.036591001 -0.210738
-0.090586998 0.036662001 -0.210788
-0.090581 0.036734 -0.210849
-0.090575002 0.036805 -0.210917
-0.090570003 0.036876 -0.210971
-0.090563998 0.036947999 -0.211035
-0.090558 0.037018999 -0.211096
-0.091651 0.024104999 -0.20909899
-0.091650002 0.024181999 -0.209061
-0.091647997 0.024261 -0.209025
-0.091646999 0.024336999 -0.208994
-0.091645002 0.024412001 -0.20897201
-0.091642 0.024488 -0.208956
-0.091640003 0.024560999 -0.208942
-0.091637999 0.024635 -0.208931
-0.091635004 0.024707001 -0.208933
-0.091631003 0.024776001 -0.208955
-0.091627002 0.024846001 -0.208979
-0.091623001 0.024915 -0.20900799
-0.091619 0.024985 -0.20903
-0.091614999 0.025055001 -0.20905
-0.091611996 0.025126001 -0.20907301
-0.091608003 0.025195999 -0.209093
-0.091604002 0.025266999 -0.20911101
-0.091600001 0.025335001 -0.209142
-0.091596 0.025404001 -0.209176
-0.091591999 0.025474001 -0.209196
-0.091587998 0.025543001 -0.209223
-0.091582999 0.025612 -0.20925701
-0.091578998 0.025681 -0.20930099
-0.091573998 0.025748 -0.20934799
-0.091568999 0.025815001 -0.209396
-0.091564998 0.025883 -0.209426
-0.091559999 0.025954001 -0.209453
-0.091555998 0.026024001 -0.209483
-0.091551997 0.026093001 -0.209511
-0.091549002 0.026164999 -0.20952199
-0.091545001 0.026237 -0.209534
-0.091541998 0.026308 -0.209548
-0.091537997 0.026380001 -0.209563
-0.091535002 0.026450001 -0.20956901
-0.091531999 0.026521999 -0.209575
-0.091528997 0.026596 -0.209581
-0.091526002 0.026667999 -0.20958801
-0.091522001 0.02674 -0.209594
-0.091519997 0.026812 -0.20959599
-0.091517001 0.026885999 -0.209591
-0.091514997 0.02696 -0.20957699
-0.091512002 0.027034 -0.209571
-0.091508999 0.027108001 -0.209565
-0.091507003 0.027181 -0.209552
-0.091504999 0.027256999 -0.209536
-0.091503002 0.027331 -0.20952199
-0.091499999 0.027406 -0.20950399
-0.091498002 0.027480001 -0.20949499
-0.091495 0.027551999 -0.209501
-0.091490999 0.027621999 -0.20951501
-0.091487996 0.027695 -0.209529
-0.091484003 0.027767001 -0.209538
-0.091481 0.027841 -0.209538
-0.091479003 0.027912 -0.20953
-0.091476001 0.027984999 -0.209535
-0.091472998 0.028057 -0.209545
-0.091468997 0.028129 -0.20955899
-0.091466002 0.028201001 -0.209571
-0.091463 0.028272999 -0.209576
-0.091459997 0.028345 -0.20957799
-0.091457002 0.028418999 -0.20957799
-0.091453999 0.028491 -0.209575
-0.091450997 0.028565001 -0.20957699
-0.091448002 0.028635001 -0.209589
-0.091444001 0.028708 -0.209603
-0.091440998 0.02878 -0.20960601
-0.091438003 0.028853999 -0.209604
-0.091435 0.028926 -0.209608
-0.091431998 0.028999999 -0.20961
-0.091429003 0.029072 -0.209609
-0.091426 0.029146001 -0.20960701
-0.091424003 0.029216999 -0.209601
-0.091421001 0.029293001 -0.20959
-0.091418996 0.029367 -0.209572
-0.091417 0.029441999 -0.20954999
-0.091415003 0.029516 -0.20953
-0.091412999 0.029588999 -0.20951501
-0.091411002 0.029665001 -0.209497
-0.091408998 0.02974 -0.209475
-0.091407001 0.029813999 -0.209457
-0.091404997 0.029888 -0.209444
-0.091402002 0.029960999 -0.20943201
-0.091399997 0.030035 -0.20942201
-0.091397002 0.030108999 -0.209416
-0.091394 0.030181 -0.209427
-0.091389999 0.030251 -0.209447
-0.091385998 0.030322 -0.20946901
-0.091383003 0.030393999 -0.20948599
-0.091379002 0.030467 -0.20950601
-0.091375001 0.030537 -0.209526
-0.091371 0.030608 -0.20954999
-0.091366999 0.030680001 -0.209573
-0.091362998 0.030750001 -0.209591
-0.091360003 0.030823 -0.20960499
-0.091357 0.030895 -0.20961
-0.091353998 0.030967001 -0.20961399
-0.091349997 0.031039 -0.20962401
-0.091347001 0.031111 -0.20963401
-0.091343999 0.031183001 -0.20964301
-0.091340996 0.031254999 -0.209649
-0.091338001 0.031328999 -0.20965099
-0.091334 0.031401001 -0.209657
-0.091330998 0.031475998 -0.209664
-0.091329001 0.031546999 -0.20964999
-0.091326997 0.031621002 -0.209638
-0.091324002 0.031695001 -0.20963299
-0.091321997 0.031768002 -0.209621
-0.091319002 0.031844001 -0.20960701
-0.091316998 0.031918 -0.209593
-0.091315001 0.031991001 -0.209576
-0.091312997 0.032065 -0.209556
-0.091311 0.032138001 -0.209538
-0.091309004 0.032214001 -0.209516
-0.091306999 0.032288 -0.209507
-0.091303997 0.032359999 -0.209509
-0.091300003 0.032432001 -0.209525
-0.091296002 0.032504 -0.209539
-0.091293 0.032577001 -0.20954999
-0.091288999 0.032648999 -0.209564
-0.091286004 0.032719001 -0.20957799
-0.091282003 0.032791 -0.209591
-0.091279 0.032862999 -0.209601
-0.091275997 0.032938 -0.20960499
-0.091273002 0.033011001 -0.20959701
-0.091270998 0.033082999 -0.20959
-0.091268003 0.033156998 -0.209584
-0.091265999 0.033231001 -0.209564
-0.091264002 0.033305999 -0.209544
-0.091260999 0.033378001 -0.20956101
-0.091256998 0.033449002 -0.20958699
-0.091252998 0.033521 -0.209603
-0.091248997 0.033594001 -0.209622
-0.091246001 0.033666 -0.209636
-0.091242 0.033737998 -0.209644
-0.091238998 0.033808 -0.20965999
-0.091234997 0.033881001 -0.209675
-0.091232002 0.033955 -0.209673
-0.091229998 0.034028001 -0.20966899
-0.091225997 0.034100998 -0.20967899
-0.091223001 0.034171 -0.209694
-0.091219999 0.034244999 -0.20969599
-0.091216996 0.034318998 -0.209686
-0.091215 0.034391999 -0.209677
-0.091211997 0.034464002 -0.20967101
-0.09121 0.034538001 -0.209659
-0.091206998 0.034612 -0.209663
-0.091202997 0.034681998 -0.20968799
-0.091199003 0.034754999 -0.20971601
-0.091193996 0.034825999 -0.209746
-0.091190003 0.034896001 -0.209783
-0.091185004 0.034968998 -0.209821
-0.091179997 0.035038002 -0.209867
-0.091174997 0.035110999 -0.209907
-0.091170996 0.035181999 -0.20994399
-0.091165997 0.035253 -0.209978
-0.091162004 0.035324998 -0.210006
-0.091158003 0.035397999 -0.21002799
-0.091154002 0.035468001 -0.210063
-0.091149002 0.035541002 -0.210095
-0.091145001 0.035611998 -0.210125
-0.091140002 0.035684001 -0.210164
-0.091136001 0.035755001 -0.2102
-0.091131002 0.035828002 -0.21023799
-0.091126002 0.035898998 -0.21028399
-0.091121003 0.035969999 -0.210335
-0.091116004 0.036040999 -0.210379
-0.091109999 0.036111999 -0.210437
-0.091104001 0.036184002 -0.21050701
-0.091099001 0.036254 -0.21055
-0.091095001 0.036327001 -0.210584
-0.091090001 0.036400001 -0.210614
-0.091085002 0.036471002 -0.21065401
-0.091080002 0.036543999 -0.21070901
-0.091075003 0.036614999 -0.21075299
-0.091069996 0.036685999 -0.210805
-0.091063 0.036757 -0.210875
-0.091058001 0.036828 -0.210924
-0.091053002 0.036901001 -0.210976
-0.091046996 0.036973 -0.211042
-0.091040999 0.037041999 -0.211114
-0.093362004 0.023804 -0.209396
-0.093362004 0.023884 -0.209342
-0.093360998 0.023963001 -0.20929199
-0.093363002 0.024049001 -0.209186
-0.093362004 0.024127999 -0.209134
-0.093360998 0.024207 -0.209096
-0.093359001 0.024281999 -0.20906299
-0.093356997 0.024358001 -0.209043
-0.093355 0.024432 -0.20903499
-0.093351997 0.024503 -0.209033
-0.093349002 0.024576999 -0.209032
-0.093346998 0.024649 -0.209024
-0.093342997 0.024721 -0.20903
-0.093340002 0.024793001 -0.20904
-0.093336999 0.024863999 -0.209051
-0.093332998 0.024936 -0.209067
-0.093328997 0.025003999 -0.209089
-0.093326002 0.025077 -0.209102
-0.093323 0.025149001 -0.209106
-0.093319997 0.025220999 -0.209108
-0.093316004 0.025291 -0.209125
-0.093313001 0.025361 -0.209143
-0.093308002 0.025429999 -0.20917299
-0.093304001 0.025498999 -0.20920999
-0.0933 0.025568999 -0.209234
