-0.0479066 0.0823707 0.99545 0
0.20028 -0.0235581 0.979455 0.0265189
0.199578 -0.0238677 0.979591 0.0170264
0.202862 -0.0151569 0.97909 0
0.211624 -0.0229748 0.977081 0
-0.0929203 0.103521 0.990277 0
-0.0938901 0.102724 0.990269 0
-0.0862048 0.102678 0.990972 0
-0.0811922 0.100992 0.991569 0
-0.0726724 0.100576 0.992272 0.0013093
-0.0654691 0.10756 0.992041 0.0129892
-0.0649911 0.109896 0.991816 0.00586266
-0.0623413 0.112961 0.991642 0.0152147
-0.062254 0.105664 0.992451 0.0125454
-0.0633981 0.0891955 0.993994 0.0255411
-0.0577254 0.0942341 0.993875 0.0169311
-0.0603455 0.101413 0.993012 0.020868
-0.0574785 0.0991114 0.993415 0.020582
-0.0613639 0.0881021 0.99422 0.0315407
-0.0548472 0.086753 0.994719 0.0253792
-0.0577828 0.0955032 0.993751 0.0351265
-0.0526522 0.07605 0.995713 0.0215311
-0.0541868 0.063532 0.996508 0.0388714
-0.0547013 0.0620372 0.996574 0.0396299
-0.0551871 0.056129 0.996897 0.0423478
-0.0533028 0.0662666 0.996377 0.0437315
-0.05959 0.0740473 0.995473 0.0468608
-0.0548034 0.083626 0.994989 0.0213966
-0.0531579 0.0912794 0.994406 0.0183114
-0.0526898 0.0925091 0.994317 0.0286289
-0.0492228 0.0993626 0.993833 0.00915479
-0.0483735 0.0920592 0.994578 0.00282667
-0.0482725 0.0888865 0.994871 0.00378514
0.1958 -0.0271194 0.980269 0.0382281
0.193147 -0.0175462 0.981013 0.0164499
0.198257 -0.0206882 0.979932 0.0179969
0.19582 -0.0234074 0.98036 0.00466704
0.203395 -0.0363192 0.978423 0
-0.077834 0.103611 0.991568 0
-0.0639119 0.105373 0.992377 0
-0.0648129 0.114063 0.991357 0.0187852
-0.0664637 0.104288 0.992324 0.0259261
-0.0539614 0.112189 0.992221 0.00974063
-0.0547913 0.106362 0.992817 0.0126055
-0.0632343 0.102803 0.99269 0.031054
-0.0557117 0.108001 0.992588 0.0218124
-0.0589724 0.0945019 0.993776 0.0331311
-0.0631834 0.087987 0.994116 0.0442495
-0.0570403 0.0914785 0.994172 0.0340383
-0.0580394 0.0772565 0.99532 0.0363133
-0.0539352 0.0679755 0.996228 0.0313372
-0.0599594 0.0519887 0.996846 0.0424826
-0.0588949 0.0641442 0.996201 0.0448446
-0.056426 0.0711948 0.995865 0.0467786
-0.0576097 0.0640656 0.996281 0.0385069
-0.0526316 0.0785577 0.995519 0.0183182
-0.0517305 0.0864313 0.994914 0.0212304
-0.054384 0.081769 0.995166 0.0285226
-0.0478205 0.0912669 0.994678 0.00577017
-0.0464169 0.0975685 0.994146 0
-0.0446843 0.10767 0.993182 0
-0.0458143 0.0977703 0.994154 0
-0.0468031 0.0924 0.994621 0
-0.0526036 0.0913609 0.994427 0.00611012
-0.0550135 0.0916873 0.994267 0.0119906
0.180794 -0.0173267 0.983368 0.0161081
0.185944 -0.0226541 0.982299 0.00833049
0.194219 -0.0243925 0.980655 0.0089898
0.193065 -0.0348909 0.980565 0
0.196447 -0.0234436 0.980234 0
-0.0698577 0.0882941 0.993642 0.00379354
-0.0631176 0.100456 0.992937 0.0125766
-0.0582312 0.10605 0.992654 0.0212411
-0.0575835 0.100039 0.993316 0.0217552
-0.0566083 0.102484 0.993123 0.0178015
-0.0584005 0.0927218 0.993978 0.0267884
-0.0566157 0.0833839 0.994908 0.0393001
-0.0621732 0.0750222 0.995242 0.0426519
-0.0611889 0.0713339 0.995574 0.0466207
-0.0579285 0.0766412 0.995375 0.0443748
-0.059442 0.0583524 0.996525 0.0481282
-0.0580895 0.0634072 0.996296 0.0516607
-0.0550343 0.0696361 0.996053 0.0375015
-0.0547002 0.0603541 0.996677 0.0359904
-0.0512088 0.0730985 0.996009 0.0240723
-0.046747 0.0870304 0.995108 0.00628164
-0.0465924 0.082674 0.995487 0.0120468
-0.0432727 0.0791162 0.995926 0.000749882
-0.0458336 0.0971099 0.994218 0
-0.0462186 0.107149 0.993168 0
-0.0474747 0.097561 0.994097 0
-0.0459292 0.113428 0.992484 0
-0.0542101 0.100992 0.993409 0.0145687
-0.0529576 0.0951299 0.994055 0.00583216
-0.0539537 0.106833 0.992812 0.0131685
0.174881 -0.0212039 0.984361 0.0174828
0.179672 -0.0218454 0.983484 0.00728473
0.184048 -0.0251404 0.982596 0
0.188805 -0.0304655 0.981542 0.00482912
0.198283 -0.0345406 0.979536 0.0183129
0.199477 -0.0390926 0.979122 0.0105495
-0.0520086 0.113161 0.992215 0.00291219
-0.0531716 0.109341 0.992581 0.0118813
-0.0571922 0.0966235 0.993676 0.0364113
-0.0615296 0.0827263 0.994671 0.0378909
-0.0583737 0.076173 0.995384 0.0405368
-0.0607337 0.0776489 0.995129 0.0424895
-0.0632454 0.073954 0.995254 0.0469497
-0.0580156 0.0708976 0.995795 0.0466
-0.05767 0.0852496 0.994689 0.0419729
-0.0509175 0.0912242 0.994528 0.0239658
-0.047403 0.0781043 0.995818 0.0270056
-0.0498447 0.0724043 0.996129 0.0295408
-0.0505739 0.0737525 0.995993 0.0245073
-0.0464309 0.0816798 0.995577 0.00224348
-0.042306 0.0829632 0.995654 0
-0.0458725 0.0977453 0.994154 0
-0.0459963 0.106422 0.993257 0
-0.0471532 0.101717 0.993695 0
-0.0538451 0.0915406 0.994345 0.013101
-0.0538565 0.102435 0.993281 0.0121047
-0.0569487 0.0935364 0.993986 0.0193684
-0.0550207 0.0937122 0.994078 0.0093062
0.164722 -0.0193012 0.986151 0
0.174358 -0.0160781 0.984551 0
0.179608 -0.0246413 0.983429 0
0.184318 -0.0234609 0.982587 0.00585351
0.191131 -0.020155 0.981358 0.00281541
0.199562 -0.0360887 0.97922 0.00851322
-0.0526034 0.118571 0.991551 0.00998267
-0.0530149 0.112643 0.99222 0.00811983
-0.0549651 0.102745 0.993188 0.0211507
-0.0602203 0.0952576 0.993629 0.0330105
-0.0572163 0.0878909 0.994485 0.0327175
-0.0566034 0.0907983 0.994259 0.0340241
-0.0581588 0.0730834 0.995629 0.0449437
-0.0511359 0.083389 0.995204 0.0323769
-0.0505167 0.0847524 0.995121 0.025689
-0.0446713 0.0831178 0.995538 0.0202629
-0.0439458 0.0875152 0.995193 0.00745287
-0.0436497 0.0784814 0.99596 0.0122456
-0.0492364 0.0725775 0.996147 0.0199866
-0.0461277 0.0797145 0.99575 0.0108813
-0.0392674 0.0882476 0.995324 0
-0.0416365 0.111829 0.992855 0
-0.042559 0.0975803 0.994317 0
-0.0486977 0.0916689 0.994598 0.00640524
-0.0531955 0.0829057 0.995137 0.0205641
-0.0551071 0.0724352 0.99585 0.0195635
-0.0563223 0.0733878 0.995712 0.029653
-0.0513097 0.0802585 0.995453 0
-0.0511771 0.0814448 0.995363 0.0166492
0.15904 -0.0127542 0.98719 0
0.166615 -0.0128953 0.985938 0
0.173468 -0.0224589 0.984583 0.00375076
0.17891 -0.0163568 0.983729 0
0.18443 -0.0115114 0.982778 0
-0.0520065 0.0846597 0.995052 0.0194022
-0.0531126 0.0819588 0.995219 0.022763
-0.0497462 0.0845244 0.995179 0.0153675
-0.0471302 0.0863355 0.995151 0.0161811
-0.0455343 0.0902284 0.99488 0.0114939
-0.0444046 0.0835345 0.995515 0.0156828
-0.0426033 0.0897599 0.995052 0.00706884
-0.044297 0.0952793 0.994465 0.0022082
-0.0453466 0.0874444 0.995137 0.00453096
-0.0408999 0.0916897 0.994947 0
-0.0412408 0.0767772 0.996195 0
-0.0398401 0.0963506 0.99455 0
-0.0422 0.0860378 0.995398 1.2166e-05
-0.0469376 0.0657747 0.99673 0.0149772
-0.0509603 0.0616859 0.996794 0.0285577
-0.0566086 0.0581502 0.996702 0.0212292
-0.0518533 0.0631022 0.996659 0.0114984
-0.0505462 0.0590274 0.996976 0.0260807
-0.0487928 0.0731659 0.996126 0.0103619
0.150961 -0.0162839 0.988406 0.000835017
0.162528 -0.0183931 0.986533 0.00680818
0.165922 -0.0152893 0.98602 0
0.174187 -0.0047774 0.984701 0
0.184016 -0.0133517 0.982832 0
0.183511 -0.0300242 0.982559 0
-0.0525847 0.0700693 0.996155 0.0199182
-0.0482535 0.0788757 0.995716 0
-0.0463756 0.0827452 0.995491 0.00881166
-0.046816 0.0849971 0.995281 0.012647
-0.0430074 0.083463 0.995582 0.011439
-0.043963 0.100578 0.993957 0.0142809
-0.0426774 0.0990132 0.99417 0.0214366
-0.0403778 0.0991311 0.994255 0.0124621
-0.0448157 0.0919045 0.994759 0.0183723
-0.0419059 0.0828497 0.995681 0.00434509
-0.0465993 0.0667565 0.996681 0.0139375
-0.0422083 0.0668308 0.996871 0.00412788
-0.041699 0.0659259 0.996953 0.0102851
-0.0474712 0.0540262 0.99741 0.0249481
-0.050825 0.040017 0.997905 0.0359381
-0.0534622 0.0371615 0.997878 0.0324989
-0.0501435 0.0340357 0.998162 0.0170596
-0.0452548 0.054617 0.997481 0.0101052
-0.0479254 0.066086 0.996662 0.0151611
-0.0458667 0.0712739 0.996402 7.69968e-05
0.148407 -0.0250005 0.98861 0.00817271
0.157736 -0.0232907 0.987207 0.00689973
0.161882 -0.0254997 0.98648 0.00770635
0.166141 -0.0139622 0.986003 0
0.170708 -0.0198746 0.985121 0
0.179935 -0.0335046 0.983108 0
-0.0418517 0.077929 0.99608 0
-0.0461847 0.0700838 0.996471 0.0126025
-0.0440082 0.0704658 0.996543 0.0150156
-0.0436888 0.0949606 0.994522 0.0102151
-0.0492595 0.0862023 0.995059 0.0209332
-0.043537 0.0913029 0.994871 0.00556238
-0.0439823 0.0971957 0.994293 0
-0.04809 0.086035 0.995131 0.0109873
-0.0502852 0.0671875 0.996472 0.0155365
-0.0433945 0.0629607 0.997072 0.0042496
-0.0450329 0.059346 0.997221 0.0237154
-0.0488687 0.0487335 0.997616 0.035909
-0.0521048 0.035181 0.998022 0.0387518
-0.0496208 0.0319058 0.998258 0.033589
-0.0497108 0.0296868 0.998322 0.023733
-0.0471228 0.0433728 0.997947 0.0114116
-0.0470021 0.0705552 0.9964 0.00994154
-0.0482592 0.0756887 0.995963 0.0142305
-0.048053 0.0731012 0.996166 0.000305327
-0.0461198 0.0791497 0.995795 0
0.144485 -0.0167025 0.989366 0.0120587
0.150497 -0.0194714 0.988419 0.00833227
0.159887 -0.0280025 0.986738 0.0146732
0.15984 -0.0240352 0.98685 0.00619861
0.164808 -0.0263638 0.985973 0.00212357
0.175325 -0.0391417 0.983732 0.0126853
-0.0475779 0.0672 0.996605 0.0195196
-0.0440151 0.0794936 0.995863 0.0102042
-0.0450839 0.0747392 0.996183 0.00785527
-0.0428221 0.0906586 0.994961 0
-0.0454092 0.090277 0.994881 0.0126277
-0.050026 0.0787919 0.995635 0.0159725
-0.0499319 0.0694888 0.996332 0.00970273
-0.0476452 0.0545255 0.997375 0.00881772
-0.0472775 0.0698688 0.996435 0.0156291
-0.0506162 0.0462815 0.997645 0.0351611
-0.0537989 0.0435867 0.9976 0.0456877
-0.0538817 0.0292133 0.99812 0.0512152
-0.0501868 0.0293667 0.998308 0.0319118
-0.0490931 0.0446206 0.997797 0.0177038
-0.0459927 0.0717854 0.996359 0
-0.0448257 0.0725107 0.99636 0
-0.0467633 0.0872101 0.995092 0
-0.047117 0.0777418 0.99586 0
-0.0504011 0.0653394 0.996589 0.00833486
0.133767 -0.0104524 0.990958 0.0185888
0.138224 -0.0179083 0.990239 0.00786761
0.142535 -0.0203041 0.989582 0.00577234
0.149828 -0.0230239 0.988444 0.00555879
0.151675 -0.0290959 0.988002 0
0.164742 -0.039135 0.98556 0.0125799
0.164774 -0.0355317 0.985691 0.000801166
-0.0432359 0.0812047 0.995759 0
-0.0534543 0.0552601 0.99704 0.0236972
-0.0499888 0.0557025 0.997195 0.0083125
-0.0459606 0.0664765 0.996729 0.0165736
-0.0514092 0.033851 0.998104 0.0369136
-0.0538534 0.0340378 0.997969 0.0537059
-0.0534516 0.0339447 0.997993 0.0504275
-0.0506963 0.0428126 0.997796 0.0327124
-0.0513696 0.0467386 0.997585 0.0222239
-0.0458367 0.0734911 0.996242 0
-0.0430299 0.0904089 0.994975 0
-0.045989 0.0688442 0.996567 0
-0.0479995 0.0611899 0.996971 0
-0.0463013 0.0695907 0.996501 0
-0.04885 0.0671879 0.996544 0.00766887
0.131173 -0.0162853 0.991226 0
0.135155 -0.0252357 0.990503 0
0.140668 -0.0211509 0.989831 0
0.152591 -0.0262149 0.987942 0
0.156021 -0.0199929 0.987551 0
0.158659 -0.0211546 0.987107 0
0.162438 -0.0239325 0.986429 0.00331161
-0.0522783 0.0609734 0.996769 0.0181907
-0.0482875 0.0572531 0.997191 0.0126026
-0.0469561 0.051142 0.997587 0.0154942
-0.0533557 0.035614 0.99794 0.0426132
-0.0547677 0.0229986 0.998234 0.0546247
-0.0560688 0.0362684 0.997768 0.0554634
-0.0520765 0.0571831 0.997005 0.0380987
-0.0505068 0.0500553 0.997469 0.0270989
-0.0471294 0.0622525 0.996947 0.00587499
-0.0465232 0.0747879 0.996114 0
-0.0486809 0.0579326 0.997133 0
-0.0492925 0.06045 0.996953 0
-0.0501546 0.0608006 0.996889 0.00156608
-0.0496991 0.070716 0.996258 0.00364058
-0.0434872 0.0842957 0.995491 0
0.133088 0.00944746 0.991059 0
0.137508 -0.00484475 0.990489 0
0.141092 -0.0190525 0.989813 0.00126647
0.148762 -0.0143981 0.988768 0
0.154193 -0.0192987 0.987852 0
0.157157 -0.0313489 0.987076 0.00247758
0.166165 -0.0433405 0.985145 0.0126998
-0.0520017 0.0495345 0.997418 0.0212491
-0.0577478 0.0425392 0.997424 0.0423891
-0.0569064 0.0315601 0.997881 0.0513797
-0.0547088 0.0376957 0.997791 0.043654
-0.0561824 0.0462108 0.997351 0.0537865
-0.0525388 0.0632643 0.996613 0.0253921
-0.0521122 0.0599012 0.996843 0.0238896
-0.0487422 0.072929 0.996145 0.00215278
-0.0480681 0.0619167 0.996923 0
-0.0504777 0.0580145 0.997039 0
-0.0523922 0.0706301 0.996126 0.0081228
-0.0512941 0.0788301 0.995568 0.00832036
-0.0482401 0.0748603 0.996027 0.00997921
-0.0441115 0.0818339 0.995669 0
-0.0510106 0.0547847 0.997194 0.0128913
0.132656 0.00454634 0.991152 0
0.136718 -0.00103759 0.990609 0
0.139906 -0.020492 0.989953 0.000583564
0.149285 -0.0299886 0.988339 0.00143288
0.154649 -0.0359338 0.987316 0.0109099
0.160957 -0.0478066 0.985803 0.0208305
0.172265 -0.0452822 0.984009 0.0181768
0.181744 -0.0464197 0.98225 0.0207373
-0.0508002 0.0414114 0.99785 0.0256451
-0.054424 0.0349226 0.997907 0.0263947
-0.0550758 0.0341063 0.9979 0.0302101
-0.0527528 0.0449593 0.997595 0.0269054
-0.0555011 0.0443433 0.997474 0.0371656
-0.0561929 0.0476428 0.997283 0.0392838
-0.0533819 0.0555406 0.997028 0.020511
-0.0509317 0.0595207 0.996927 0.00240159
-0.0523011 0.0699583 0.996178 0.00566228
-0.0541101 0.0685037 0.996182 0.00853105
-0.0554746 0.056309 0.996871 0.0225322
-0.0497538 0.0724213 0.996132 0.00829841
-0.0491665 0.0754502 0.995937 0.0157218
-0.046514 0.0735465 0.996207 0.000795094
-0.0491602 0.0524695 0.997412 0
-0.0485933 0.0545151 0.99733 4.81406e-05
0.13222 -0.00330632 0.991215 0
0.135974 -0.00939193 0.990668 0
0.137088 -0.0285525 0.990147 0.00149435
0.141058 -0.0368638 0.989315 0.0076427
0.144748 -0.0285775 0.989056 0.0123142
0.152035 -0.0407106 0.987536 0.0177765
0.173641 -0.0605364 0.982947 0.0217643
-0.050977 0.0506088 0.997417 0.0181749
-0.0557336 0.0502221 0.997182 0.0216233
-0.0543463 0.0537956 0.997072 0.0294518
-0.0546294 0.0495218 0.997278 0.0265931
-0.055965 0.055087 0.996912 0.0218167
-0.0593659 0.0487319 0.997046 0.0348233
-0.0525953 0.0516838 0.997278 0.0105477
-0.0542502 0.0611414 0.996654 0.00357506
-0.054421 0.0687643 0.996147 0
-0.05596 0.0716376 0.99586 0.0081865
-0.0591697 0.0428894 0.997326 0.022415
-0.0561845 0.0563612 0.996828 0.0202043
-0.0539201 0.0690215 0.996157 0.0223943
-0.0470315 0.0701254 0.996429 0
-0.0463504 0.0740358 0.996178 0
-0.0491999 0.0479674 0.997636 0
-0.0478192 0.0611143 0.996985 0
-0.0476223 0.0653153 0.996728 0
-0.0456696 0.0587686 0.997226 0
0.123826 -0.0131506 0.992217 0
0.126653 0.00222394 0.991944 0
0.131342 -0.0234191 0.99106 0.00229217
0.138177 -0.0389267 0.989642 0.0181737
0.142634 -0.0489725 0.988563 0.0195244
0.150704 -0.0542229 0.987091 0.0337622
0.161659 -0.056807 0.98521 0.0271271
0.175968 -0.0665025 0.982147 0.0354323
0.187593 -0.0779438 0.979149 0.0415735
-0.0512707 0.0553324 0.997151 0.00974976
-0.0556695 0.0541418 0.99698 0.0253277
-0.0590331 0.0483785 0.997083 0.034835
-0.0594151 0.0387725 0.99748 0.0299215
-0.0549078 0.0510574 0.997185 0.0178491
-0.0555729 0.0703371 0.995974 0.00740336
-0.0555472 0.0678374 0.996149 0.00700898
-0.0563901 0.0596915 0.996623 0.00953834
-0.057302 0.0582522 0.996656 0.0157241
-0.0600888 0.0521219 0.996831 0.0325768
-0.0496806 0.0631075 0.996769 0.0225782
-0.048316 0.0687142 0.996466 0
-0.0443104 0.0656229 0.99686 0
-0.0443714 0.0580409 0.997328 0
-0.044571 0.0584156 0.997297 0
-0.0463271 0.0640487 0.996871 0
-0.0477 0.0592798 0.997101 0
-0.054237 0.0544937 0.99704 0.015534
-0.046323 0.0694888 0.996507 0
-0.0454692 0.0607185 0.997119 0
0.116435 -0.0087955 0.993159 0
0.120782 -0.011658 0.992611 0
0.127287 -0.027926 0.991473 0.00660361
0.134508 -0.0451988 0.989881 0.0152323
0.134469 -0.0442494 0.989929 0.0112579
0.150744 -0.0639087 0.986505 0.0394469
0.167939 -0.0817477 0.982402 0.0465504
0.179315 -0.0839648 0.980202 0.0493803
0.1818 -0.090594 0.979153 0.0475313
-0.0609604 0.0431113 0.997209 0.0291014
-0.0555961 0.0490324 0.997249 0.0205511
-0.0555827 0.0586942 0.996727 0.0256029
-0.0551298 0.0670544 0.996225 0.0116372
-0.0559999 0.0626479 0.996463 0.00444089
-0.0564987 0.0416267 0.997534 0.0191302
-0.0547955 0.0505405 0.997218 0.0189211
-0.0509279 0.061067 0.996834 0.0233762
-0.0438525 0.0617533 0.997128 0
-0.041485 0.0600772 0.997331 0
-0.0439785 0.0558058 0.997473 0
-0.0427889 0.0522858 0.997715 0
-0.0464567 0.0505632 0.99764 0
-0.0473579 0.050882 0.997581 0
-0.0503073 0.0458791 0.997679 0.0162957
-0.0471966 0.0686301 0.996525 0
-0.0463634 0.0664861 0.99671 0
-0.0484861 0.0428228 0.997905 0.0161297
0.11429 -0.00666645 0.993425 0
0.11686 -0.0180644 0.992984 0
0.124862 -0.0285139 0.991764 0.00928643
0.13203 -0.0331951 0.99069 0.0223859
0.135868 -0.0408442 0.989885 0.025888
0.144036 -0.0433732 0.988621 0.0189911
0.15921 -0.0683453 0.984876 0.0344192
0.172671 -0.0886911 0.980978 0.0427792
0.178174 -0.091842 0.979703 0.0467978
-0.0523529 0.0477822 0.997485 0.0215974
-0.0522921 0.061625 0.996729 0.0161571
-0.0565874 0.0540288 0.996935 0.0152024
-0.0558689 0.0580332 0.99675 0.0247499
-0.0520223 0.0529068 0.997243 0.0121408
-0.049225 0.0632406 0.996784 0.0169163
-0.0502042 0.0609369 0.996878 0.0239804
-0.043161 0.0752807 0.996228 0
-0.0386129 0.0822176 0.995866 0
-0.0411488 0.0626253 0.997189 0
-0.0411613 0.0513892 0.99783 0
-0.0418287 0.0547643 0.997623 0
-0.0451645 0.0493555 0.99776 0
-0.0494059 0.0453674 0.997748 0.0125039
-0.0452231 0.069166 0.99658 0
-0.0457461 0.0581063 0.997262 0.00302968
-0.0457169 0.0420225 0.99807 0.0163146
-0.041573 0.0326461 0.998602 0
-0.0434483 0.00990796 0.999007 0.000425953
-0.0450296 0.0164777 0.99885 0.0145404
0.116251 -0.0261548 0.992875 0.000266417
0.127676 -0.0355635 0.991178 0.0195071
0.135089 -0.0453434 0.989795 0.0204172
0.135574 -0.0465634 0.989672 0.0140378
0.138816 -0.0520109 0.988951 0.000469317
0.156828 -0.082795 0.984149 0.0260669
0.16544 -0.0871098 0.982365 0.0287346
0.182919 -0.0953403 0.978494 0.0390239
-0.0545965 0.0500131 0.997255 0.010792
-0.0539407 0.0590554 0.996796 0.0168077
-0.0515245 0.0578803 0.996993 0.0245378
-0.0499124 0.0652867 0.996617 0.0189086
-0.044992 0.0659504 0.996808 0
-0.0426532 0.0648077 0.996986 0
-0.038669 0.0462444 0.998181 0
-0.0428938 0.0506942 0.997793 0
-0.0419435 0.052784 0.997725 0
-0.0447287 0.033988 0.998421 0
-0.0465997 0.0438617 0.99795 0
-0.0432149 0.0570837 0.997434 0
-0.0442525 0.0465277 0.997936 0.00123075
-0.0448393 0.0372344 0.9983 0.00308743
-0.0433222 0.0333638 0.998504 0
-0.0431487 0.0220573 0.998825 0
-0.0439891 0.0295635 0.998595 0
0.127647 -0.0528562 0.99041 0.018576
0.12448 -0.0412334 0.991365 0
0.131483 -0.0398617 0.990517 0
0.140786 -0.0643245 0.987948 0.0118099
0.151459 -0.0754282 0.985581 0.0203455
0.162317 -0.0842655 0.983134 0.0221362
0.169723 -0.0935036 0.981046 0.0332639
-0.0486951 0.0679384 0.9965 0.0151244
-0.0465658 0.0545287 0.997426 0.00418655
-0.0466426 0.061643 0.997008 0.0164126
-0.0429928 0.0528287 0.997678 0
-0.0395084 0.0406715 0.998391 0
-0.0409422 0.026802 0.998802 0
-0.0404063 0.0305087 0.998717 0
-0.0420799 0.0307082 0.998642 0
-0.0442533 0.0331287 0.998471 0.00138333
-0.0452883 0.0382234 0.998242 0
-0.0473246 0.0440481 0.997908 0.00261482
-0.0409934 0.0430039 0.998234 0
-0.0389272 0.0419885 0.998359 0
-0.042782 0.0307516 0.998611 0
-0.0433776 0.0232411 0.998788 0.00412876
-0.0450095 0.0333129 0.998431 0
0.120523 -0.0526575 0.991313 0.0031197
0.130154 -0.0443581 0.990501 0
0.135966 -0.0692347 0.988291 0.00641467
0.14609 -0.083058 0.985778 0.0149811
0.152712 -0.0829957 0.98478 0.0171944
0.160813 -0.085232 0.983298 0.0156524
-0.0458682 0.0617311 0.997038 0.00824512
-0.0415714 0.0488541 0.99794 0
-0.0409367 0.0463902 0.998084 0
-0.039418 0.0255488 0.998896 0
-0.0448573 0.0147597 0.998884 0.00905322
-0.0405152 0.0249581 0.998867 0
-0.0410768 0.0356113 0.998521 0
-0.0440781 0.024334 0.998732 0
-0.0452147 0.0257273 0.998646 0
-0.0468091 0.0428295 0.997985 0
-0.0429684 0.0412092 0.998226 0
-0.0396133 0.0486822 0.998029 0
-0.0402848 0.0271588 0.998819 0
-0.0415207 0.0350087 0.998524 0.0029378
-0.0406446 0.0441259 0.998199 0
-0.0430371 0.0396648 0.998286 0
0.123845 -0.0702642 0.989811 0.00214322
0.133179 -0.0583136 0.989375 0
0.13431 -0.0682666 0.988585 0.00243492
0.140632 -0.0793575 0.986876 0.00553477
0.146259 -0.0748155 0.986413 0.00665663
0.160754 -0.0756186 0.984093 0.0192098
-0.0408476 0.0459324 0.998109 0
-0.0410969 0.0462457 0.998084 0
-0.0439536 0.00954503 0.998988 0
-0.0454045 -0.00387907 0.998961 0.012621
-0.0463922 0.00501742 0.998911 0.0106137
-0.0450641 0.00352374 0.998978 0
-0.0468099 0.006891 0.99888 0
-0.0472385 0.0194454 0.998694 0
-0.0445101 0.0330553 0.998462 0
-0.0410356 0.041483 0.998296 0
-0.0398653 0.048467 0.998029 0
-0.0383103 0.0387311 0.998515 0
-0.0377591 0.0358515 0.998644 0
-0.0412504 0.0377003 0.998437 0
-0.0433676 0.0376465 0.99835 0
-0.0437988 0.0317302 0.998536 0
0.124287 -0.0661685 0.990038 0.00804654
0.12791 -0.0611123 0.989901 0.00266081
0.138527 -0.0690446 0.987949 0
0.144039 -0.0764173 0.986617 0.0142228
0.151861 -0.0817498 0.985015 0.0119142
0.15767 -0.0776441 0.984435 0.0129246
-0.0409791 0.0477218 0.99802 0
-0.0409422 0.0324793 0.998633 0
-0.0463731 0.00946478 0.998879 0
-0.0481033 -0.0051486 0.998829 0.0184984
-0.0503638 -0.00754076 0.998702 0.018928
-0.0456034 0.00512008 0.998946 0.00226499
-0.0483102 0.0130668 0.998747 0
-0.048457 0.0380934 0.998099 0
-0.0437229 0.0377409 0.998331 0
-0.0413114 0.0400497 0.998343 0
-0.0402116 0.0403489 0.998376 0
-0.0394867 0.0458574 0.998167 0
-0.0397212 0.0458822 0.998157 0
-0.0426237 0.0461266 0.998026 0
-0.0427196 0.0170854 0.998941 0.0024262
-0.0433377 0.0212811 0.998834 0.000437334
-0.0449644 0.00976199 0.998941 0.00239398
0.117707 -0.0502324 0.991777 0
0.124077 -0.058461 0.990549 0
0.135983 -0.0777566 0.987655 0
0.153439 -0.0941848 0.983659 0.0232186
0.154035 -0.0821937 0.984641 0.0168999
0.156881 -0.0791198 0.984443 0.00802469
-0.0455349 0.0287287 0.99855 0
-0.0463969 0.023214 0.998653 0
-0.0447503 0.0236877 0.998717 0
-0.0466406 0.00306445 0.998907 0.0075773
-0.0503971 0.00345479 0.998723 0.0144415
-0.0516175 0.00241003 0.998664 0.0235323
-0.0496232 0.013089 0.998682 0.00920689
-0.0500929 0.029851 0.998298 0
-0.0449954 0.0322889 0.998465 0
-0.0423356 0.0497857 0.997862 0
-0.0440955 0.042532 0.998122 0
-0.0426375 0.0364192 0.998427 0
-0.0410324 0.0268753 0.998796 0
-0.0376469 0.0320616 0.998777 0
-0.0420786 0.0188338 0.998937 0
-0.0427452 0.0251368 0.99877 0.00460004
-0.0438072 0.0187257 0.998864 0
0.120612 -0.0467699 0.991597 0
0.129036 -0.054624 0.990134 0
0.14043 -0.0585814 0.988356 0.0115165
0.148696 -0.0694815 0.986439 0.0103271
0.154372 -0.0664129 0.985778 0
-0.0429502 0.0264204 0.998728 0
-0.0448278 0.0250458 0.998681 0
-0.0467518 0.0258523 0.998572 0
-0.0479785 0.0238494 0.998564 0
-0.0457774 0.0125523 0.998873 0.00668164
-0.0495793 -0.00884198 0.998731 0.0113161
-0.0542401 -0.00847695 0.998492 0.0129983
-0.0510794 -0.000673105 0.998694 0.00878886
-0.0498283 0.010877 0.998699 0
-0.0496636 0.0230896 0.998499 0
-0.0501626 0.0310004 0.99826 0
-0.0436581 0.042464 0.998144 0
-0.0485177 0.0335932 0.998257 0
-0.0432254 0.0342635 0.998478 0
-0.0412589 0.0138391 0.999053 0
-0.0410326 0.0125606 0.999079 0
-0.0473258 0.00481981 0.998868 0.0114194
-0.0487287 0.00159105 0.998811 0.00874197
-0.048671 -5.30514e-05 0.998815 0.0172563
0.119046 -0.0487849 0.99169 0
0.12884 -0.0401295 0.990853 0
0.134223 -0.0572399 0.989297 0
0.13976 -0.062349 0.988221 0
0.144743 -0.0484517 0.988282 0
0.153421 -0.0580321 0.986455 0.00341432
-0.0419115 0.0233361 0.998849 0
-0.0448579 0.0271727 0.998624 0
-0.0445295 0.00775231 0.998978 0.00218857
-0.0460872 0.018023 0.998775 0
-0.0475729 0.00456407 0.998857 0
-0.0481784 -0.00540504 0.998824 0
-0.0538579 -0.00329138 0.998543 0.00629419
-0.0536816 0.00306168 0.998553 0
-0.0532483 0.00918822 0.998539 0
-0.0513782 0.0387246 0.997928 0
-0.0518533 0.021478 0.998424 0
-0.0499995 0.0234344 0.998474 0
-0.0481176 0.0279248 0.998451 0
-0.0447889 0.0174011 0.998845 0
-0.045091 -0.00211174 0.998981 0
-0.0449926 0.00239428 0.998984 0
-0.0466981 -0.00902425 0.998868 0.00830557
-0.0466744 -0.00440631 0.9989 0.000142457
-0.0455003 -0.00343638 0.998958 0
-0.044591 0.008105 0.998972 0.00407043
0.128443 -0.054101 0.99024 0
0.137186 -0.0684127 0.98818 0.00353406
0.138689 -0.0611973 0.988443 0
0.145102 -0.0532493 0.987983 0
0.153711 -0.0589406 0.986356 0.00234209
-0.0465308 0.0214461 0.998687 0
-0.0540015 -0.0123988 0.998464 0.0262293
-0.05115 0.00869278 0.998653 0.00419402
-0.0485159 0.000154325 0.998822 0.00530493
-0.0491797 -0.008771 0.998751 0
-0.0491906 -0.0128836 0.998706 0
-0.0510089 -0.00411826 0.99869 0
-0.0516557 0.0017403 0.998663 0
-0.0527115 0.00201941 0.998608 0
-0.0525653 0.0260864 0.998277 0
-0.0520052 0.0261068 0.998305 0
-0.0488872 0.0293444 0.998373 0
-0.0492003 0.026325 0.998442 0
-0.0456184 0.00525056 0.998945 0
-0.0470064 -0.00165277 0.998893 0
-0.0463539 -0.00341592 0.998919 0
-0.0475284 -0.00484989 0.998858 0.00209401
-0.046856 -0.000751151 0.998901 0.000145018
-0.0470698 0.00251323 0.998888 0.00112653
-0.0491269 0.00822471 0.998759 0.00331622
0.141163 -0.0723803 0.987337 0.00816121
0.14464 -0.0623347 0.987519 0.0116827
0.148716 -0.0509829 0.987565 0
0.149383 -0.0489384 0.987568 0
-0.0472757 0.0192009 0.998697 0
-0.0534459 0.00215159 0.998568 0.0180698
-0.0521292 -0.0205539 0.998429 0.00628942
-0.0496627 -0.00151887 0.998765 0.00468741
-0.0489041 -0.00934409 0.99876 0
-0.0486016 -0.0251536 0.998501 0.00128971
-0.0529238 -0.0342822 0.99801 0.0090071
-0.0496685 -0.0146564 0.998658 0
-0.0481148 0.00615012 0.998823 0
-0.0536549 0.0053255 0.998545 0
-0.0504974 0.00621596 0.998705 0
-0.0543751 0.0138939 0.998424 0
-0.0526927 0.00697366 0.998586 0
-0.0502621 0.00536022 0.998722 0
-0.0467351 0.00419281 0.998899 0
-0.045226 -0.000873415 0.998976 0
-0.0483492 -0.0192985 0.998644 0
-0.0452993 -0.0189539 0.998794 0
-0.0461551 -0.0121749 0.99886 0
-0.0489808 -0.00421624 0.998791 0
-0.0485389 -0.0150719 0.998708 0.00544548
0.132815 -0.0629426 0.98914 0
0.142024 -0.0620427 0.987917 0.00833989
0.141408 -0.0543145 0.98846 0
0.153379 -0.0665956 0.985921 0
0.163053 -0.0682509 0.984254 0.00278585
-0.0444241 0.0127863 0.998931 0
-0.0470563 0.0114323 0.998827 0
-0.0546438 -0.0144792 0.998401 0.0214352
-0.0544375 -0.0303562 0.998056 0.00927751
-0.0502213 -0.0199932 0.998538 0.0012354
-0.0489133 -0.0198189 0.998606 0
-0.0487537 -0.0335748 0.998246 0
-0.0508937 -0.0288879 0.998286 0.0027156
-0.0483986 -0.0202482 0.998623 0.0024964
-0.0477383 -0.00621705 0.998841 0
-0.050128 -0.00350631 0.998737 0
-0.0534368 -0.00853428 0.998535 0
-0.0523743 0.0109256 0.998568 0
-0.049174 0.00555724 0.998775 0
-0.0491303 -0.00253461 0.998789 0
-0.0481198 -0.0092343 0.998799 0
-0.0488211 -0.0182431 0.998641 0
-0.0488226 -0.0226718 0.99855 0
-0.0463298 -0.013249 0.998838 0
-0.0491626 -0.0165554 0.998654 0
-0.0488572 -0.0201112 0.998603 0
0.135157 -0.0646539 0.988712 0
0.135601 -0.0676832 0.988449 0
0.14742 -0.06059 0.987216 0
0.150095 -0.0737234 0.985919 0.00279873
0.164576 -0.0643046 0.984266 0
-0.0480539 0.00253069 0.998842 0
-0.0540624 -0.0135151 0.998446 0.00970801
-0.0555681 -0.0227051 0.998197 0.00800489
-0.0512792 -0.0218005 0.998446 0
-0.0516148 -0.023193 0.998398 0
-0.0527538 -0.0306431 0.998137 0.00384191
-0.0476232 -0.0187195 0.99869 0
-0.046595 -0.0120167 0.998842 0
-0.0472548 -0.0293895 0.99845 0.00221073
-0.0484486 -0.0153946 0.998707 0
-0.0533709 -0.0264894 0.998223 0.000100849
-0.0542537 -0.00554007 0.998512 0
-0.0508865 -0.00612153 0.998686 0
-0.0540944 -0.0063628 0.998516 0
-0.0504535 -0.0160413 0.998598 0
-0.0499435 -0.0229384 0.998489 0
-0.0506177 -0.0295816 0.99828 0.00233216
-0.0472905 -0.022477 0.998628 0
-0.048616 -0.0161428 0.998687 0
-0.0489303 -0.0153092 0.998685 0
0.136356 -0.0757726 0.987758 0
0.148948 -0.0701809 0.986351 0
0.151928 -0.0724155 0.985735 0
0.162925 -0.0680522 0.984289 0
-0.0515523 -0.0170324 0.998525 0
-0.0557377 -0.0319268 0.997935 0.0126255
-0.0541446 -0.0131652 0.998446 0
-0.058666 -0.027272 0.997905 0.0105553
-0.0562515 -0.0362835 0.997757 0.0197423
-0.0528649 -0.026795 0.998242 0.0234213
-0.0486991 -0.0225465 0.998559 8.10437e-05
-0.0472349 -0.0266208 0.998529 0
-0.0511753 -0.0299097 0.998242 0.00163577
-0.0548205 -0.0352582 0.997874 0.00638651
-0.0537923 -0.0276424 0.998169 0
-0.0531467 -0.0170736 0.998441 0
-0.0530821 -0.0148384 0.99848 0
-0.0489848 -0.0105584 0.998744 0
-0.0468565 -0.0202229 0.998697 0
-0.0493499 -0.0220326 0.998539 0
-0.0490153 -0.0329644 0.998254 0
-0.0517966 -0.0271055 0.99829 0
0.140644 -0.0780049 0.986983 0
0.141561 -0.0795852 0.986725 0
0.162995 -0.0606439 0.984761 0
0.161476 -0.0639003 0.984806 0
-0.0518994 -0.00729047 0.998626 0
-0.0572964 -0.0249783 0.998045 0.009111
-0.0582951 -0.0146282 0.998192 0.0118126
-0.056977 -0.0436762 0.99742 0.0260197
-0.0534047 -0.0348933 0.997963 0.0162289
-0.0518374 -0.0387564 0.997903 0.00873032
-0.0519908 -0.0379614 0.997926 0.0115638
-0.0549057 -0.0333882 0.997933 0.00109651
-0.0589043 -0.0530846 0.996851 0.0156491
-0.0541658 -0.0378165 0.997816 0
-0.0516747 -0.0410729 0.997819 0
-0.0500483 -0.0277501 0.998361 0
-0.0486846 -0.0160687 0.998685 0
-0.0477571 -0.0243658 0.998562 0
-0.0514443 -0.035291 0.998052 0
-0.0533932 -0.0292422 0.998145 0
-0.0549523 -0.0267879 0.99813 0
-0.0550124 -0.0210928 0.998263 0
-0.0510342 -0.0325565 0.998166 0
0.137515 -0.0534514 0.989057 0
0.138717 -0.0700275 0.987853 0
0.155137 -0.0734402 0.985159 0
0.156069 -0.0684225 0.985373 0
-0.0499512 -0.00345229 0.998746 0
-0.0513686 -0.0170276 0.998535 0
-0.0536372 -0.027216 0.99819 0.00112109
-0.0610805 -0.0350321 0.997518 0.0210663
-0.0582286 -0.0290553 0.99788 0.0128252
-0.0601712 -0.0311997 0.9977 0.0218553
-0.0616225 -0.0509254 0.9968 0.0323094
-0.0559937 -0.0488518 0.997235 0.0274594
-0.0557297 -0.0435533 0.997496 0.0215841
-0.0558661 -0.0496735 0.997202 0.00783414
-0.0611569 -0.0548966 0.996617 0.0226244
-0.0543082 -0.0380985 0.997797 0.00223489
-0.051558 -0.0445559 0.997676 0
-0.0520424 -0.0346101 0.998045 0
-0.0479717 -0.0322337 0.998328 0
-0.0489271 -0.0352398 0.998181 0
-0.0489358 -0.0305137 0.998336 0
-0.0514102 -0.0276122 0.998296 0
-0.0551969 -0.0267805 0.998116 0
0.135647 -0.0588926 0.989005 0
0.151474 -0.0818082 0.98507 0
0.156196 -0.0855696 0.984013 0
-0.0499983 -0.0476956 0.99761 0
-0.0499119 -0.01509 0.99864 0
-0.0506041 -0.0123529 0.998642 0
-0.0524425 -0.0353214 0.997999 0
-0.0564096 -0.0361468 0.997753 0
-0.0569934 -0.0387459 0.997622 0.00618266
-0.0550862 -0.0258015 0.998148 0.00144409
-0.057093 -0.0436442 0.997414 0.014428
-0.0587417 -0.0457293 0.997225 0.0238717
-0.0540304 -0.0445179 0.997546 0.0137529
-0.0575616 -0.0445406 0.997348 0.0201058
-0.0602388 -0.0504172 0.99691 0.0236818
-0.0593642 -0.0597572 0.996446 0.0199483
-0.0592828 -0.0725136 0.995604 0.0136432
-0.0524886 -0.0571203 0.996987 0.0011329
-0.0495918 -0.0406734 0.997941 0
-0.0481345 -0.0324574 0.998313 0
-0.0480412 -0.0373249 0.998148 0
-0.0509608 -0.0284771 0.998295 0
-0.052028 -0.0307074 0.998173 0
0.149537 -0.0802687 0.985493 0
0.154296 -0.0842943 0.984422 0
-0.0525518 -0.0634133 0.996603 0
-0.0514309 -0.0535275 0.997241 0.000568548
-0.0506261 -0.0386421 0.99797 0
-0.0549497 -0.0359815 0.997841 0
-0.059365 -0.0522522 0.996868 0.00265882
-0.0575177 -0.0493851 0.997122 3.14776e-05
-0.0562549 -0.0515157 0.997086 0.012179
-0.0579605 -0.0482379 0.997153 0.0183463
-0.0565884 -0.0418124 0.997522 0.0146487
-0.0567301 -0.0400279 0.997587 0.0184971
-0.0550247 -0.0465723 0.997398 0.0072597
-0.0542272 -0.0584791 0.996815 0.00771533
-0.0584624 -0.0669874 0.99604 0.0148179
-0.0606064 -0.0653001 0.996023 0.0183778
-0.0559397 -0.0617718 0.996521 0.00594092
-0.0523666 -0.0589013 0.996889 0
-0.0505552 -0.0537981 0.997271 0
-0.0508862 -0.041766 0.997831 0
-0.055564 -0.0417067 0.997584 0.00707884
-0.0559506 -0.0406418 0.997606 0.015742
0.149976 -0.0792879 0.985505 0
0.153834 -0.0784079 0.984981 0
-0.054794 -0.0697946 0.996055 0.0092927
-0.0529599 -0.0589569 0.996855 0.0084588
-0.0503781 -0.0549514 0.997217 0.000593231
-0.0554939 -0.0611858 0.996583 0.00468997
-0.0539037 -0.0460707 0.997483 0.00164006
-0.0595563 -0.0549145 0.996713 0.000955488
-0.0564352 -0.0598091 0.996613 8.17284e-05
-0.0514487 -0.052645 0.997287 0
-0.0547532 -0.0373932 0.9978 0.0138504
-0.0522334 -0.0408317 0.9978 0.000176418
-0.0540327 -0.0523546 0.997166 0.00270476
-0.0518631 -0.0524149 0.997278 0
-0.0546834 -0.0589582 0.996762 0.00500734
-0.0585518 -0.0615898 0.996383 0.0104826
-0.0582623 -0.0634009 0.996286 0.00426711
-0.0522786 -0.0621413 0.996697 0
-0.0549349 -0.0406044 0.997664 0.00891248
0.149673 -0.0783549 0.985626 0
0.150188 -0.0736524 0.98591 0
-0.0549099 -0.0783735 0.995411 0.00996212
-0.0549225 -0.0799067 0.995288 0.00171944
-0.0573261 -0.0757817 0.995475 0.00816074
-0.0550534 -0.0556198 0.996933 0
-0.0626347 -0.0666983 0.995805 0.00936609
-0.0604231 -0.0684884 0.99582 0.00215507
-0.0556002 -0.0596093 0.996672 0
-0.052696 -0.0459341 0.997554 0
-0.0503941 -0.0541735 0.997259 0
-0.0520256 -0.0537661 0.997197 0
-0.0517142 -0.0483966 0.997489 0
-0.0502743 -0.0508309 0.997441 0
-0.0535797 -0.0530108 0.997155 0
-0.0562283 -0.0628155 0.99644 0.00104096
-0.0587208 -0.0709873 0.995747 0.00441035
-0.0522896 -0.0698566 0.996186 0
-0.0635434 -0.058902 0.996239 0.0255575
0.145033 -0.0846613 0.985798 0
0.154566 -0.0874131 0.984108 0
0.159839 -0.0917905 0.982866 0
-0.0533354 -0.0761095 0.995672 0
-0.051907 -0.07992 0.995449 0
-0.0573006 -0.0745979 0.995566 0.00669063
-0.0565191 -0.0685104 0.996048 0
-0.0596857 -0.0735976 0.9955 0.00650085
-0.0562634 -0.0482605 0.997249 0
-0.0506599 -0.0468672 0.997616 0
-0.0527949 -0.0541222 0.997138 0
-0.0512339 -0.0517363 0.997346 0
-0.0520237 -0.0570846 0.997013 0
-0.051048 -0.0590659 0.996948 0
-0.0538535 -0.0626739 0.99658 0
-0.0560271 -0.0738344 0.995695 0
-0.0543344 -0.066896 0.996279 0
0.149364 -0.0971814 0.983995 0
0.153938 -0.0955147 0.983453 0
0.159928 -0.0926308 0.982773 0
-0.051406 -0.0718207 0.996092 0
-0.0539822 -0.080132 0.995321 0.00490131
-0.0562877 -0.0830616 0.994954 0.0029191
-0.0593186 -0.0888316 0.994279 0.00699841
-0.0595332 -0.0821477 0.99484 0
-0.0589248 -0.0679152 0.99595 0.00925935
-0.0553908 -0.0641308 0.996403 0.00263333
-0.0514879 -0.0559222 0.997107 0
-0.0499409 -0.0583357 0.997047 0
-0.0507597 -0.0596366 0.996929 0
-0.0498345 -0.0548504 0.99725 0
-0.0537616 -0.0725095 0.995918 0
-0.0551137 -0.0775802 0.995462 0
-0.0560783 -0.080663 0.995163 0
0.148944 -0.102112 0.983559 0
0.156186 -0.105539 0.982073 0
0.163843 -0.10504 0.980878 0
-0.0557652 -0.0794955 0.995274 0
-0.0520881 -0.0717691 0.99606 0
-0.0546471 -0.0871227 0.994698 0.0112868
-0.0588132 -0.0854416 0.994606 0.013695
-0.0565762 -0.0821589 0.995012 0
-0.0572901 -0.0895248 0.994336 0
-0.05805 -0.0809903 0.995023 0.00275331
-0.0556541 -0.0741102 0.995696 0
-0.050768 -0.0540284 0.997248 0
-0.0505608 -0.0602761 0.9969 0
-0.0499723 -0.0556961 0.997196 0
-0.0466465 -0.0558245 0.99735 0
-0.0497535 -0.0637831 0.996723 0
-0.0510847 -0.0739369 0.995954 0
-0.0551316 -0.0826655 0.995051 0
0.165925 -0.111713 0.97979 0
0.172401 -0.103695 0.979554 0
0.183306 -0.0990806 0.97805 0
-0.0525888 -0.0708926 0.996097 0
-0.0523087 -0.0696301 0.996201 0
-0.0553045 -0.0799306 0.995265 0.0120829
-0.0528254 -0.082997 0.995149 0
-0.0590022 -0.0983714 0.993399 0.00125002
-0.0581186 -0.0956106 0.993721 0
-0.0574679 -0.0876348 0.994494 0
-0.0553073 -0.0783797 0.995388 0
-0.0527854 -0.0650477 0.996485 0
-0.0559757 -0.0685045 0.996079 0
-0.0539061 -0.0716223 0.995974 0
-0.0522691 -0.0693038 0.996225 0
-0.0516635 -0.0694668 0.996246 0
-0.0516452 -0.0777809 0.995632 0
0.165806 -0.113373 0.97962 0
0.172599 -0.108909 0.978953 0
0.183547 -0.098115 0.978102 0
-0.060682 -0.0891166 0.994171 0.0162187
-0.0555815 -0.090584 0.994337 0.00583282
-0.0550682 -0.0738589 0.995747 0
-0.0546078 -0.0754805 0.995651 0
-0.0603384 -0.10129 0.993025 0.023532
-0.0542942 -0.100845 0.99342 0.00568286
-0.0592174 -0.117625 0.991291 0.0158876
-0.0600844 -0.110108 0.992102 0.00110157
-0.0590158 -0.101807 0.993052 0
-0.0590442 -0.10415 0.992807 0
-0.0586558 -0.0892592 0.99428 0
-0.0549329 -0.0786843 0.995385 0
-0.0552522 -0.0802261 0.995244 0
0.167687 -0.0949653 0.981256 0
0.172778 -0.0981153 0.980062 0
0.185772 -0.100788 0.97741 0
-0.0603146 -0.112832 0.991782 0.00678856
-0.0613389 -0.110691 0.99196 0.0163297
-0.0558921 -0.0899567 0.994376 0
-0.0582481 -0.0965438 0.993623 0
-0.0553411 -0.0988925 0.993558 0.0010729
-0.0588376 -0.109883 0.992202 0.0148425
-0.0569905 -0.105964 0.992735 0.000948505
-0.0585161 -0.111288 0.992064 0.00328016
-0.0634362 -0.122813 0.9904 0.0158364
-0.0588913 -0.106996 0.992514 0
-0.0573454 -0.0996185 0.993372 0
-0.0613988 -0.0979459 0.993296 0
0.172413 -0.093586 0.980569 0
0.176134 -0.0986448 0.979411 0
0.187131 -0.10541 0.976663 0
-0.0559861 -0.103125 0.993091 0.0057926
-0.0640374 -0.125664 0.990004 0.0171834
-0.067627 -0.123809 0.989999 0.0306804
-0.0644371 -0.119628 0.990726 0.0284063
-0.0634522 -0.115136 0.991321 0.0211085
-0.0583365 -0.118168 0.991279 0.00975527
-0.0589449 -0.113805 0.991753 0.0100646
-0.0582917 -0.118957 0.991187 0
-0.0575822 -0.118328 0.991304 0.000927517
-0.0593385 -0.117892 0.991252 0.00844615
-0.0603214 -0.12696 0.990072 0.00469791
-0.06327 -0.127574 0.989809 0.0118444
-0.0579475 -0.115723 0.99159 0
-0.05782 -0.10428 0.992866 0
0.177584 -0.095848 0.979427 0
0.185502 -0.0938669 0.97815 0
0.195649 -0.10015 0.975547 0
-0.0565536 -0.107977 0.992544 0
-0.0604705 -0.129124 0.989783 0.0159145
-0.0616205 -0.125522 0.990175 0.00868039
-0.0660874 -0.12033 0.990532 0.026815
-0.0608632 -0.107961 0.99229 0.0171611
-0.0623841 -0.114675 0.991442 0.0209249
-0.0622136 -0.113354 0.991605 0.0155413
-0.0565631 -0.10586 0.992771 0.00147437
-0.0574369 -0.109577 0.992317 0
-0.0603069 -0.11064 0.992029 0.00708115
-0.0615065 -0.12012 0.990852 0.00654558
-0.0609011 -0.129579 0.989697 0.00990325
-0.0650019 -0.139118 0.98814 0.00884597
-0.0584183 -0.11872 0.991208 0.00327664
-0.0573671 -0.11753 0.991411 0
0.186364 -0.0973364 0.977647 0
0.195282 -0.0955643 0.97608 0
-0.0554942 -0.107425 0.992663 7.3542e-05
-0.0603158 -0.137033 0.988728 0.0214395
-0.0628764 -0.135624 0.988763 0.0177392
-0.0629018 -0.120491 0.99072 0.0185085
-0.0618548 -0.120277 0.990812 0.0145676
-0.0553871 -0.103921 0.993042 0
-0.0578862 -0.110661 0.992171 0.00808088
-0.0550689 -0.115498 0.99178 0.00252343
-0.0543461 -0.105468 0.992937 0
-0.0586921 -0.116541 0.99145 0
-0.0578989 -0.12709 0.9902 0
-0.05891 -0.135137 0.989074 0.00390134
-0.0612114 -0.140936 0.988124 0.00608608
-0.0606064 -0.116811 0.991303 0
0.197869 -0.0989503 0.975221 0
-0.0615384 -0.099364 0.993146 0.00367574
-0.063533 -0.0983571 0.993121 0.00175329
-0.0659612 -0.110191 0.991719 0.0136169
-0.0615675 -0.10389 0.992681 0.00128837
-0.0590638 -0.0931423 0.993899 0
-0.0541113 -0.0898131 0.994488 0
-0.0592408 -0.128657 0.989918 0
-0.0616372 -0.137335 0.988605 0.0130283
-0.0568915 -0.121369 0.990976 0.00502726
-0.0590622 -0.117703 0.991291 0
-0.0574001 -0.108667 0.99242 0
-0.0550061 -0.107306 0.992703 0
-0.054531 -0.119036 0.991391 0
-0.053837 -0.116213 0.991764 0
-0.0563748 -0.120528 0.991108 0.00375896
-0.0591602 -0.130221 0.989718 0
0.203325 -0.102544 0.973727 0
-0.0634081 -0.103857 0.992569 0
-0.0616555 -0.105914 0.992462 0.00205252
-0.0644614 -0.12288 0.990326 0.00808151
-0.0623569 -0.110535 0.991914 0.00645781
-0.0655556 -0.11757 0.990898 0.0104547
-0.0676826 -0.119122 0.99057 0.0152051
-0.0614481 -0.113426 0.991644 0.00330414
-0.0601042 -0.0960602 0.993559 0
-0.0572133 -0.0942025 0.993908 0
-0.0560228 -0.120858 0.991088 0.00403497
-0.0581516 -0.116981 0.99143 0.0102593
-0.0537525 -0.116935 0.991684 0
-0.0539108 -0.108078 0.99268 0
-0.054577 -0.113732 0.992011 0
-0.0564833 -0.112592 0.992035 0
-0.0515291 -0.111696 0.992406 0
0.200423 -0.103032 0.974277 0
-0.0601839 -0.126547 0.990133 0.0004967
-0.0591876 -0.116593 0.991415 0
-0.0641901 -0.130974 0.989306 0.0119232
-0.0647182 -0.124204 0.990144 0.00546663
-0.0680519 -0.128981 0.989309 0.0157162
-0.0656508 -0.125021 0.98998 0.0160151
-0.062562 -0.116604 0.991206 0.00813077
-0.0608943 -0.114578 0.991546 0.00317701
-0.0591605 -0.106858 0.992513 0
-0.05648 -0.128893 0.990049 0.00145782
-0.0600837 -0.131199 0.989534 0.0169253
-0.0573179 -0.121925 0.990883 0
-0.0577869 -0.118954 0.991217 0.000675889
-0.055357 -0.114597 0.991868 0
-0.0554636 -0.109187 0.992473 0
-0.0552204 -0.119866 0.991253 0
0.200001 -0.0990957 0.974772 0
-0.068927 -0.14367 0.987222 0.0166194
-0.0613806 -0.132075 0.989337 0.00516431
-0.0588928 -0.122472 0.990723 0.000476774
-0.0597884 -0.120465 0.990916 0.00105728
-0.0597766 -0.118727 0.991126 0
-0.0690274 -0.135276 0.988401 0.0196832
-0.0622086 -0.128227 0.989792 0.0117464
-0.0611275 -0.127576 0.989943 0.00799094
-0.0596493 -0.131167 0.989564 0.00355519
-0.0608269 -0.12647 0.990104 0.00744919
-0.0606671 -0.150736 0.986711 0.0216314
-0.060435 -0.145863 0.987457 0.0215331
-0.0528885 -0.129767 0.990133 0
-0.0535715 -0.122145 0.991065 0
-0.0597544 -0.127205 0.990075 0.00984788
-0.0588149 -0.114159 0.99172 0.00223509
-0.0539329 -0.114567 0.99195 0
-0.0698099 -0.151351 0.986012 0.014716
-0.0685546 -0.143035 0.987341 0.0182846
-0.0620255 -0.134 0.989038 0.00170506
-0.0576576 -0.122149 0.990836 0
-0.0606308 -0.106837 0.992426 0
-0.0605615 -0.121296 0.990767 0
-0.0642947 -0.129838 0.989448 0
-0.0666615 -0.144685 0.98723 0.0037535
-0.0617751 -0.143686 0.987693 2.36935e-05
-0.0637016 -0.143389 0.987614 0.00565553
-0.0651262 -0.142094 0.987708 0.00771268
-0.058768 -0.141539 0.988187 0.013043
-0.0583723 -0.146683 0.98746 0.010897
-0.0542354 -0.135206 0.989332 0.00417875
-0.0554824 -0.130244 0.989928 0.0042708
-0.0562073 -0.130743 0.989822 0.00657216
-0.0567762 -0.122485 0.990845 0
-0.089508 -0.168686 0.981597 0.0424843
-0.0809063 -0.1779 0.980717 0.0343416
-0.082049 -0.176536 0.980868 0.0368763
-0.0766335 -0.175586 0.981477 0.0289535
-0.0713143 -0.141588 0.987354 0.0145274
-0.0639203 -0.129686 0.989493 0
-0.0658097 -0.132818 0.988953 0.00154829
-0.0637577 -0.129367 0.989545 0.000748458
-0.0635039 -0.134345 0.988898 0.00242189
-0.0630859 -0.14263 0.987764 0
-0.0634833 -0.134879 0.988826 0
-0.0644196 -0.145717 0.987227 0.00653366
-0.0638835 -0.14962 0.986678 0.00142776
-0.063721 -0.156107 0.985683 0.00855726
-0.0620617 -0.155652 0.98586 0.0108971
-0.055064 -0.140842 0.9885 0.00515122
-0.0583488 -0.151374 0.986753 0.00832434
-0.102232 -0.1625 0.981398 0.0351209
-0.0898221 -0.163287 0.982481 0.0349804
-0.0873814 -0.1606 0.983144 0.0365991
-0.0870752 -0.176562 0.98043 0.0428056
-0.0870329 -0.186905 0.978515 0.0481437
-0.0822674 -0.170855 0.981856 0.0397401
-0.0790838 -0.171133 0.982069 0.0328365
-0.078237 -0.160203 0.983979 0.0295232
-0.0738398 -0.147695 0.986273 0.0147291
-0.0687469 -0.127964 0.989393 0.00631289
-0.0660631 -0.134987 0.988643 0.000488607
-0.0657778 -0.143688 0.987435 0
-0.067555 -0.151687 0.986117 0.00365638
-0.0629722 -0.139851 0.988168 0
-0.0630708 -0.148671 0.986873 0.00420033
-0.0615807 -0.148236 0.987033 0.00713416
-0.0614164 -0.141666 0.988008 0.013166
-0.0559242 -0.130587 0.989858 0
-0.104271 -0.159782 0.98163 0.00717389
-0.100116 -0.161654 0.981756 0.0177837
-0.100843 -0.169517 0.980354 0.0304817
-0.0929525 -0.171815 0.980734 0.0270733
-0.0885632 -0.163297 0.982594 0.0260548
-0.0847832 -0.16858 0.982035 0.0285422
-0.0834271 -0.176506 0.980758 0.0318878
-0.0754821 -0.164962 0.983407 0.0157003
-0.0784893 -0.177106 0.981057 0.029869
-0.0784505 -0.178252 0.980853 0.0252958
-0.0774473 -0.160263 0.984031 0.0144644
-0.0721327 -0.148635 0.986258 0.00395274
-0.0695054 -0.159123 0.984809 0.00733621
-0.0693439 -0.163992 0.984021 0.0117419
-0.0679055 -0.16754 0.983524 0.0216261
-0.0640977 -0.159756 0.985073 0.0109667
-0.0620364 -0.160302 0.985117 0.0027907
-0.0606776 -0.143927 0.987726 0.00278058
-0.0611744 -0.13955 0.988324 0.0072111
-0.0573468 -0.135423 0.989127 0.00566255
-0.104022 -0.155425 0.982355 0.000435054
-0.100368 -0.153713 0.983005 0
-0.0951315 -0.164307 0.981811 0
-0.0925043 -0.155984 0.983418 0.0025247
-0.082709 -0.163461 0.983077 0.0118724
-0.0829212 -0.162313 0.983249 0.0207465
-0.087113 -0.174447 0.980806 0.0355809
-0.082695 -0.18046 0.9801 0.0257703
-0.0776842 -0.174719 0.981549 0.0211521
-0.0791956 -0.181881 0.980126 0.0243635
-0.078534 -0.1795 0.980618 0.0254171
-0.0758557 -0.178382 0.981033 0.017275
-0.0719425 -0.164989 0.983668 0.0089792
-0.0742189 -0.170001 0.982645 0.016109
-0.0675559 -0.17245 0.982699 0.0137938
-0.116305 -0.154351 0.981147 0
-0.113945 -0.163484 0.979944 0
-0.101577 -0.154335 0.982783 0
-0.0976578 -0.158628 0.982497 0
-0.0931637 -0.155951 0.983361 0.00196329
-0.0818587 -0.160256 0.983675 0.0147639
-0.0821581 -0.158781 0.98389 0.0154812
-0.0792902 -0.167477 0.982682 0.016875
-0.0761459 -0.160038 0.98417 0.00458523
-0.0801384 -0.171555 0.98191 0.0156676
-0.075979 -0.173979 0.981814 0.0191438
-0.136297 -0.143227 0.98026 0
-0.122107 -0.151169 0.980937 0
-0.108529 -0.152039 0.982398 0
-0.106115 -0.157131 0.98186 0
-0.099569 -0.148273 0.983921 0
-0.0916726 -0.146718 0.984921 0.00305618
-0.0780983 -0.140038 0.987061 0
-0.0774155 -0.150777 0.985532 0
-0.0726441 -0.160035 0.984435 0
-0.0693315 -0.154512 0.985555 0
-0.0698342 -0.163509 0.984067 0.000551587
-0.0768082 -0.176412 0.981315 0.0202902
-0.160528 -0.156662 0.974519 0.015598
-0.158212 -0.158856 0.974543 0.0126644
-0.148851 -0.159921 0.975843 0.0131136
-0.137379 -0.147465 0.97948 0
-0.119049 -0.155091 0.980701 0
-0.112169 -0.154009 0.981682 0.00373153
-0.106978 -0.146252 0.983446 0.00605448
-0.0980303 -0.140935 0.985153 0.00334785
-0.092563 -0.148435 0.984581 0.0107463
-0.081034 -0.144668 0.986157 0
-0.0742018 -0.146693 0.986395 0
-0.071067 -0.157276 0.984994 0
-0.194348 -0.154412 0.968703 0.022826
-0.182364 -0.16999 0.968425 0.025181
-0.162437 -0.173594 0.971328 0.0169184
-0.159844 -0.168452 0.972663 0.0110411
-0.148742 -0.172117 0.973782 0.00950368
-0.1434 -0.165242 0.975772 0.0146162
-0.12685 -0.164196 0.978238 0.0064618
-0.123837 -0.169367 0.977742 0.0176074
-0.108376 -0.155891 0.981811 0.00613197
-0.0985215 -0.142533 0.984874 0.0070275
-0.193056 -0.140393 0.971092 0.00832677
-0.195444 -0.163809 0.966938 0.0193252
-0.178057 -0.16242 0.970523 0.01322
-0.172767 -0.172658 0.969712 0.0168879
-0.164365 -0.170876 0.971486 0.0157569
-0.15349 -0.170084 0.973402 0.0165434
-0.146389 -0.164752 0.975411 0.0195862
-0.131491 -0.171334 0.976399 0.0135316
-0.118268 -0.153177 0.981096 0.00778781
-0.198105 -0.149636 0.968692 0.00617081
-0.187015 -0.148075 0.971133 0.00426461
-0.17754 -0.164852 0.970208 0.0099925
-0.169296 -0.166746 0.971357 0.00520593
-0.166968 -0.166294 0.971838 0.0155592
-0.155914 -0.162528 0.974308 0.0100894
-0.143365 -0.153826 0.977642 0.0136932
-0.127496 -0.148512 0.980657 0.00206917
-0.119629 -0.151461 0.981197 0.00972205
-0.205883 -0.134235 0.969326 0
-0.197074 -0.144 0.969756 0
-0.189399 -0.136813 0.972322 0
-0.18027 -0.158809 0.970712 0.00526733
-0.175679 -0.163087 0.970845 0.00749455
-0.168327 -0.16727 0.971435 0.0177678
-0.164342 -0.173495 0.971026 0.0196624
-0.153428 -0.155273 0.975884 0.0145895
-0.209205 -0.140175 0.967773 0.00712649
-0.193849 -0.144448 0.970339 0.000704969
-0.188837 -0.156445 0.969466 0.00657247
-0.180862 -0.174087 0.967979 0.00967447
-0.174519 -0.165448 0.970655 0.0062548
-0.161136 -0.17063 0.97207 0.0191335
-0.159385 -0.182498 0.970201 0.0215526
0.28067 -0.0956469 0.955027 0
-0.218575 -0.138537 0.965936 0.00523448
-0.207727 -0.141326 0.967924 0.000510607
-0.196374 -0.154007 0.968359 0.00928335
-0.180815 -0.164766 0.969617 0.0029283
0.286579 -0.100852 0.952734 0
-0.221313 -0.145279 0.964321 0
-0.216287 -0.14029 0.966198 0
-0.205614 -0.138916 0.968724 0
-0.194518 -0.149113 0.969499 0
0.285036 -0.10211 0.953062 0
-0.227297 -0.133068 0.964691 0
-0.216223 -0.148853 0.96493 0
-0.205712 -0.14746 0.967439 0
0.30588 -0.0955056 0.947268 0.0127619
-0.226463 -0.140463 0.963838 0
-0.213747 -0.146116 0.9659 0
-0.207161 -0.144333 0.967601 0
0.305721 -0.0866833 0.948167 0.00737419
0.297013 -0.0760562 0.95184 0.00143965
-0.226989 -0.13568 0.9644 0
-0.215767 -0.148512 0.965085 0
-0.209791 -0.14621 0.966752 0
0.303517 -0.0763728 0.94976 0.0104445
0.317692 -0.0762656 0.945122 0.0143583
-0.277251 -0.132398 0.951631 0.00446589
-0.271839 -0.133748 0.953003 0.0073577
-0.235302 -0.137174 0.962193 0
-0.225874 -0.144608 0.963364 0
0.325387 -0.076077 0.942515 0.0212311
0.336065 -0.0782695 0.938581 0.0207193
-0.302173 -0.143948 0.942322 0.0153768
-0.281073 -0.12839 0.951059 0.0067145
-0.275414 -0.13016 0.952473 0.00674671
-0.235689 -0.143814 0.961129 0.0062462
-0.226923 -0.145132 0.963038 0.000658284
0.341027 -0.0767094 0.936918 0.0259394
0.354397 -0.0733904 0.932211 0.0279185
-0.303487 -0.139269 0.942603 0.0157412
