# .PCD v0.7 - Point Cloud Data file format
VERSION 0.7
FIELDS x y z
SIZE 4 4 4
TYPE F F F
COUNT 1 1 1
WIDTH 1328
HEIGHT 1
VIEWPOINT 0 0 0 1 0 0 0
POINTS 1328
DATA ascii
-0.059521802 -0.2428612 -0.38635078
-0.059214335 -0.24288534 -0.38637066
-0.058904003 -0.24290484 -0.38634169
-0.058734167 -0.242908 -0.386327
-0.058528885 -0.2429239 -0.38628355
-0.058304165 -0.24289866 -0.38629735
-0.058031995 -0.24287565 -0.386305
-0.057851002 -0.24288768 -0.38630733
-0.057637002 -0.24290501 -0.38629964
-0.05752733 -0.24290922 -0.38628811
-0.057343498 -0.24291533 -0.38626567
-0.057016499 -0.242897 -0.38628
-0.056841999 -0.242902 -0.386244
-0.056720875 -0.24288487 -0.38624251
-0.056515999 -0.2428495 -0.38621598
-0.056009002 -0.242871 -0.3862085
-0.0558668 -0.24290481 -0.38621002
-0.055709999 -0.24290216 -0.38621235
-0.055195503 -0.242847 -0.38620299
-0.054917 -0.242865 -0.386204
-0.054102 -0.242902 -0.38620299
-0.053905111 -0.24287632 -0.38622665
-0.053708505 -0.24288969 -0.38623235
-0.05356 -0.2429 -0.38621965
-0.053302333 -0.242911 -0.38622853
-0.053129669 -0.24292117 -0.38627398
-0.052934501 -0.24289551 -0.38628548
-0.052701198 -0.24288699 -0.386278
-0.052501004 -0.24289368 -0.386273
-0.052251 -0.24289601 -0.38629067
-0.052068997 -0.24291499 -0.38636401
-0.05194217 -0.24292266 -0.38636419
-0.051587999 -0.24294899 -0.38639599
-0.060867 -0.24279299 -0.386397
-0.060639001 -0.242707 -0.38639349
-0.060533661 -0.24267535 -0.38637567
-0.060390998 -0.24268 -0.38639033
-0.060134333 -0.24269134 -0.38637733
-0.059872001 -0.24270999 -0.38638768
-0.059692997 -0.24277167 -0.38638964
-0.059524998 -0.24270001 -0.38636997
-0.059204999 -0.24271101 -0.38636899
-0.059199002 -0.242604 -0.38637099
-0.058891501 -0.2426955 -0.38637081
-0.058722168 -0.24269934 -0.38634899
-0.058516331 -0.24271467 -0.38631779
-0.058294006 -0.24272333 -0.38631308
-0.058022 -0.24270201 -0.386318
-0.057839334 -0.24267733 -0.38632098
-0.057624329 -0.24269633 -0.38633665
-0.057515223 -0.24269955 -0.3863112
-0.057332169 -0.24270535 -0.38626885
-0.057007 -0.24272233 -0.38628498
-0.056832001 -0.24272768 -0.38626167
-0.056723002 -0.24271443 -0.38625845
-0.056505334 -0.24267399 -0.38623834
-0.056264002 -0.24268501 -0.38620135
-0.056003001 -0.24276701 -0.38623101
-0.055897996 -0.24269649 -0.38622826
-0.055707447 -0.242714 -0.38621482
-0.055183999 -0.242636 -0.38621151
-0.054906335 -0.24269134 -0.3862327
-0.054710891 -0.24269731 -0.38622108
-0.054265 -0.24264701 -0.38620901
-0.0541135 -0.24270825 -0.38622522
-0.053895831 -0.24270065 -0.38622633
-0.053696666 -0.24267966 -0.38625064
-0.053549498 -0.24268851 -0.3862085
-0.053291004 -0.24270068 -0.38623235
-0.053118333 -0.24271034 -0.38627949
-0.052925337 -0.24272017 -0.38629082
-0.052711397 -0.24271759 -0.38628641
-0.052489668 -0.24268299 -0.38627633
-0.052239999 -0.24268599 -0.38629901
-0.052058667 -0.24270399 -0.38635698
-0.051972669 -0.24271201 -0.38638601
-0.060525998 -0.24253599 -0.38638401
-0.060125999 -0.242552 -0.38639799
-0.059787001 -0.24257299 -0.386399
-0.059484497 -0.24254251 -0.38638452
-0.059193999 -0.24249899 -0.38636899
-0.058879834 -0.24248551 -0.38638398
-0.058710504 -0.2424885 -0.38636032
-0.058504336 -0.24250489 -0.38634098
-0.05832684 -0.242513 -0.38631985
-0.058103163 -0.24252033 -0.38632882
-0.057829 -0.242502 -0.3863495
-0.057614665 -0.24248366 -0.38630033
-0.057503887 -0.242489 -0.38631833
-0.057320163 -0.24249518 -0.38628885
-0.056908172 -0.24251467 -0.38627633
-0.056706335 -0.24252521 -0.38626578
-0.056496501 -0.24249849 -0.386228
-0.056252003 -0.24247499 -0.38621235
-0.055898335 -0.242494 -0.38623545
-0.055695221 -0.24250534 -0.38623774
-0.055546999 -0.24244399 -0.38620701
-0.055306166 -0.24252401 -0.38621017
-0.055176001 -0.242497 -0.38622999
-0.054894332 -0.24248099 -0.38625333
-0.054689504 -0.24248907 -0.3862347
-0.054526001 -0.24245267 -0.38620901
-0.054257665 -0.24250598 -0.38621366
-0.054125667 -0.24251384 -0.38623819
-0.05391214 -0.24253584 -0.386237
-0.053709716 -0.24248613 -0.38625172
-0.053537335 -0.24247801 -0.38622931
-0.0532795 -0.24248999 -0.38624632
-0.053107169 -0.24249934 -0.38628283
-0.052913666 -0.24251015 -0.3862997
-0.052691001 -0.24252166 -0.38628784
-0.052478667 -0.24247234 -0.38628268
-0.052227665 -0.24247567 -0.38632199
-0.052046668 -0.24249268 -0.38636932
-0.051934 -0.24252401 -0.386392
-0.059442498 -0.242351 -0.38639349
-0.059184 -0.24232399 -0.38638234
-0.058847498 -0.24229275 -0.38638574
-0.058701999 -0.242349 -0.38638949
-0.058492109 -0.24229465 -0.38636056
-0.05831483 -0.24230301 -0.38633868
-0.058137998 -0.24232499 -0.38633674
-0.057890404 -0.242309 -0.38636279
-0.057604998 -0.24230951 -0.38632047
-0.057502903 -0.24227139 -0.38632721
-0.05730867 -0.24228483 -0.38629234
-0.056896668 -0.24230416 -0.38628864
-0.056694668 -0.24231479 -0.38627762
-0.056486998 -0.24232267 -0.38623634
-0.0562425 -0.2423 -0.38622248
-0.055932496 -0.24227899 -0.38624549
-0.055711504 -0.242294 -0.38624826
-0.055539668 -0.24230266 -0.38620934
-0.05529483 -0.24231385 -0.38621986
-0.055165332 -0.24232167 -0.38625634
-0.054885 -0.242304 -0.38625249
-0.054687332 -0.24227779 -0.38625187
-0.054535504 -0.24228866 -0.38622531
-0.054245997 -0.24229567 -0.38622269
-0.054114163 -0.24230301 -0.38624451
-0.053918835 -0.24231534 -0.38624915
-0.053723499 -0.24231425 -0.38627076
-0.053528 -0.24230349 -0.38623148
-0.053267498 -0.24227983 -0.38626349
-0.053095832 -0.24228899 -0.38628969
-0.05290233 -0.2422995 -0.38630903
-0.052679498 -0.24231116 -0.38629949
-0.052468002 -0.24229801 -0.38630351
-0.052217998 -0.2422995 -0.38632601
-0.059176002 -0.242184 -0.38639599
-0.058632001 -0.24200401 -0.38639599
-0.058480337 -0.24208456 -0.38637501
-0.05830333 -0.24209249 -0.38634801
-0.058171 -0.242094 -0.38635167
-0.057898834 -0.24211051 -0.38635218
-0.057510253 -0.24210262 -0.3863394
-0.057297166 -0.24207449 -0.38630638
-0.056929249 -0.24211074 -0.38631523
-0.05670391 -0.24209718 -0.38628352
-0.056475002 -0.24211334 -0.38626334
-0.056232333 -0.24212635 -0.38624468
-0.055913199 -0.24208379 -0.38625497
-0.055700082 -0.24208359 -0.38625625
-0.055528667 -0.24209301 -0.38621268
-0.055282995 -0.24210434 -0.38623667
-0.055154998 -0.24211067 -0.386242
-0.054874998 -0.24212901 -0.38626432
-0.054677501 -0.24210167 -0.38625702
-0.054523993 -0.2420785 -0.38623452
-0.054235 -0.24208499 -0.38623032
-0.054102331 -0.24209251 -0.38626149
-0.053907167 -0.24210483 -0.38626316
-0.053702001 -0.24211399 -0.38626835
-0.053517997 -0.24212766 -0.38624868
-0.053258251 -0.2421035 -0.38626146
-0.053083334 -0.24207868 -0.38631463
-0.052890833 -0.24208884 -0.38632151
-0.052667335 -0.2421 -0.38631848
-0.052459333 -0.242121 -0.38630101
-0.052209999 -0.24212366 -0.38630131
-0.058628 -0.241932 -0.386399
-0.058468886 -0.24187432 -0.38638413
-0.058291331 -0.24188298 -0.38636932
-0.058158997 -0.24188399 -0.38636002
-0.057933249 -0.24191549 -0.3863695
-0.057794001 -0.241871 -0.38637298
-0.057500836 -0.24192691 -0.38633788
-0.057285998 -0.24190049 -0.38634223
-0.056959998 -0.24188201 -0.38633868
-0.056699753 -0.24189276 -0.38630626
-0.056462999 -0.24190266 -0.386271
-0.056220997 -0.24191566 -0.38625133
-0.055920601 -0.2419142 -0.38627559
-0.055688161 -0.24187358 -0.38627684
-0.055516664 -0.24188268 -0.38623634
-0.055271666 -0.24189384 -0.38624084
-0.055143669 -0.24190067 -0.386237
-0.054862995 -0.24191965 -0.38628733
-0.054668114 -0.24192677 -0.38626468
-0.054501601 -0.24188299 -0.38625079
-0.054223001 -0.24187465 -0.38624868
-0.054090664 -0.24188201 -0.38627067
-0.0538955 -0.24189417 -0.38627782
-0.053701874 -0.24191013 -0.38627636
-0.053528499 -0.24189925 -0.38628
-0.053248167 -0.24192917 -0.38627884
-0.053063601 -0.2418834 -0.38633019
-0.052879002 -0.24187784 -0.38632765
-0.052655336 -0.24189 -0.38634002
-0.052447665 -0.24191099 -0.38631168
-0.052200999 -0.24198399 -0.38633499
-0.052194998 -0.241879 -0.38634598
-0.05846075 -0.24171674 -0.38638377
-0.058292333 -0.241684 -0.38639048
-0.058146998 -0.24167399 -0.38638934
-0.057788 -0.241767 -0.38638899
-0.057506997 -0.24172309 -0.3863613
-0.057306252 -0.24171625 -0.38636476
-0.056948334 -0.24167199 -0.38635767
-0.056687165 -0.24168311 -0.3863374
-0.056452334 -0.24169266 -0.38627133
-0.056208331 -0.24170566 -0.38628164
-0.055900831 -0.24171901 -0.3862913
-0.055678003 -0.24169837 -0.38629311
-0.055504333 -0.24167334 -0.38625732
-0.055259168 -0.24168384 -0.38627085
-0.055131331 -0.24168999 -0.38627067
-0.054851666 -0.24170899 -0.38628998
-0.054656997 -0.24171577 -0.38626769
-0.054515004 -0.2417134 -0.38625702
-0.054213502 -0.241699 -0.38624999
-0.054070801 -0.24168661 -0.38628039
-0.053883001 -0.24168332 -0.38630185
-0.053722501 -0.24168716 -0.3863008
-0.053541835 -0.24170566 -0.38629782
-0.053279001 -0.241717 -0.38629365
-0.053117622 -0.24171561 -0.38632289
-0.052869249 -0.24170224 -0.38634649
-0.052692335 -0.241677 -0.38635334
-0.052515 -0.24169201 -0.38634816
-0.052184332 -0.24170333 -0.38636532
-0.058453001 -0.24155849 -0.38638699
-0.05833767 -0.24155332 -0.38639298
-0.057500377 -0.24151462 -0.38638139
-0.057293426 -0.24153471 -0.38639131
-0.056938 -0.24149701 -0.38637799
-0.056674201 -0.2414867 -0.38636142
-0.056479502 -0.24146375 -0.38632149
-0.056196999 -0.24149434 -0.38629067
-0.055888336 -0.24150866 -0.38631931
-0.055682193 -0.24152961 -0.38631931
-0.05554425 -0.241496 -0.3863025
-0.055247664 -0.24147284 -0.38627902
-0.055119336 -0.24148066 -0.386296
-0.054841001 -0.24149866 -0.38628832
-0.054668996 -0.24150433 -0.38629302
-0.054527111 -0.24151479 -0.386271
-0.054206498 -0.241558 -0.38624102
-0.054100499 -0.24150603 -0.3862718
-0.053871334 -0.241473 -0.38631353
-0.053710502 -0.24147616 -0.38631383
-0.053530168 -0.24149533 -0.3863115
-0.053267002 -0.24150699 -0.38631201
-0.053094998 -0.24151455 -0.38634768
-0.052858997 -0.24152684 -0.38636336
-0.052682001 -0.24149999 -0.38635999
-0.0525035 -0.24148048 -0.38635954
-0.052174002 -0.24149199 -0.38635397
-0.057496667 -0.24129599 -0.38638666
-0.056931999 -0.241392 -0.386388
-0.056698002 -0.24131057 -0.38638642
-0.056493796 -0.24128541 -0.38635558
-0.056185335 -0.24128433 -0.38630435
-0.055876333 -0.24129833 -0.38634118
-0.055679221 -0.24131176 -0.38633478
-0.055534672 -0.24131982 -0.38631317
-0.055279002 -0.24129599 -0.386314
-0.0551535 -0.24130149 -0.38627777
-0.054829668 -0.24128801 -0.38629401
-0.054657001 -0.2412945 -0.386318
-0.054515 -0.24130434 -0.38629341
-0.054104224 -0.24131778 -0.38628045
-0.053861 -0.2412975 -0.38633901
-0.05370025 -0.241301 -0.38633651
-0.053517833 -0.24128501 -0.38633466
-0.053254664 -0.24129634 -0.38633564
-0.053127829 -0.24130066 -0.386336
-0.052897446 -0.24131387 -0.38636401
-0.052672666 -0.24132501 -0.38637432
-0.052476801 -0.2412858 -0.38636321
-0.052163001 -0.24128 -0.38635433
-0.056696665 -0.24116467 -0.38639534
-0.056501001 -0.24112999 -0.386383
-0.056173 -0.24107467 -0.38633564
-0.055864666 -0.24108799 -0.38635015
-0.055667561 -0.24110134 -0.38634744
-0.055522665 -0.24110933 -0.386336
-0.055268999 -0.24112101 -0.38632265
-0.055143166 -0.24112733 -0.38630602
-0.054817002 -0.24107701 -0.38631901
-0.05464533 -0.24108368 -0.38632998
-0.054503445 -0.24109398 -0.38630357
-0.054104123 -0.24111497 -0.38630226
-0.053871997 -0.24111128 -0.38634944
-0.053691503 -0.241162 -0.38637203
-0.053505167 -0.24107452 -0.38636801
-0.053241998 -0.24108534 -0.38635969
-0.053115997 -0.24108951 -0.38635066
-0.052931998 -0.24110216 -0.38638499
-0.052727167 -0.24110949 -0.38636783
-0.052524 -0.24112551 -0.38638175
-0.0524 -0.24106701 -0.38637501
-0.052154001 -0.2411045 -0.38635099
-0.056473602 -0.24093421 -0.38638642
-0.056162998 -0.240899 -0.3863495
-0.055853005 -0.240878 -0.38637102
-0.055662002 -0.24089974 -0.38637638
-0.055509835 -0.24089934 -0.38636747
-0.055257332 -0.24091066 -0.38634029
-0.055131003 -0.24091651 -0.38632718
-0.054807998 -0.24090201 -0.38632798
-0.054633837 -0.24087299 -0.38634065
-0.0545035 -0.24089149 -0.38631701
-0.054397002 -0.24081901 -0.386305
-0.054125834 -0.24089366 -0.38630685
-0.053937506 -0.24090783 -0.38634849
-0.053738832 -0.24088949 -0.38638303
-0.05349575 -0.2408985 -0.38636899
-0.053231001 -0.24087401 -0.38635731
-0.053104002 -0.24087918 -0.38637352
-0.052930795 -0.24089059 -0.38639361
-0.052716166 -0.24089833 -0.38637081
-0.052553337 -0.240909 -0.38637701
-0.052392334 -0.24092734 -0.38638267
-0.052145001 -0.24092834 -0.38634133
-0.056394998 -0.24071099 -0.38638797
-0.056152001 -0.24072367 -0.38638267
-0.055858333 -0.24071266 -0.38638201
-0.055752501 -0.24070999 -0.3863765
-0.055473998 -0.2407075 -0.38636497
-0.055245001 -0.24069934 -0.38636136
-0.055118829 -0.24070567 -0.38634551
-0.054800998 -0.240797 -0.38634199
-0.054724 -0.24069449 -0.38635474
-0.054542426 -0.24068916 -0.38634229
-0.054388668 -0.24067833 -0.38633403
-0.054113504 -0.24068318 -0.38632286
-0.053926665 -0.24069615 -0.38634619
-0.053705774 -0.24070257 -0.38636601
-0.053487167 -0.24072266 -0.3863585
-0.053222001 -0.2406985 -0.38635999
-0.053094998 -0.24070302 -0.38635826
-0.052859001 -0.24071801 -0.38638851
-0.052704502 -0.24068701 -0.38637879
-0.052542668 -0.24069734 -0.38636732
-0.052381665 -0.24071567 -0.38637367
-0.052133005 -0.24071699 -0.386354
-0.056387 -0.24057101 -0.386392
-0.056140665 -0.24051332 -0.38638699
-0.055881001 -0.240594 -0.38639
-0.055736002 -0.24053334 -0.38638768
-0.055461496 -0.24047899 -0.38638222
-0.055233002 -0.24048932 -0.38638934
-0.055107173 -0.24049498 -0.38635901
-0.054713998 -0.24051882 -0.38637385
-0.054544877 -0.24051827 -0.38636413
-0.054379001 -0.240502 -0.38634402
-0.054094203 -0.24048659 -0.3863382
-0.053915169 -0.2404855 -0.38635251
-0.053695664 -0.24049102 -0.38634923
-0.053476166 -0.240512 -0.38635197
-0.053212669 -0.24052233 -0.38635302
-0.053085834 -0.24052717 -0.38636199
-0.052898251 -0.24046899 -0.38638973
-0.052693833 -0.24047615 -0.38637081
-0.052531332 -0.24048632 -0.38636699
-0.052370001 -0.24050499 -0.38638368
-0.052122001 -0.24050701 -0.38636366
-0.056131501 -0.240338 -0.38639
-0.055424001 -0.24027102 -0.386392
-0.055221666 -0.24027734 -0.386381
-0.055095334 -0.24028432 -0.38637635
-0.054702163 -0.24030733 -0.38638496
-0.054527774 -0.24031666 -0.38637799
-0.054368999 -0.240326 -0.38636264
-0.054102004 -0.24031761 -0.38634562
-0.053894199 -0.24028921 -0.38635299
-0.053683892 -0.24028033 -0.38635877
-0.053464998 -0.24030082 -0.3863537
-0.053203501 -0.240346 -0.38635549
-0.05309229 -0.24030542 -0.38636228
-0.052900799 -0.24031338 -0.38638839
-0.052684497 -0.24030049 -0.3863745
-0.052519333 -0.24027567 -0.38638899
-0.052358329 -0.24029301 -0.386392
-0.052110333 -0.24029501 -0.38636732
-0.055605333 -0.24011801 -0.38639566
-0.055415001 -0.24009401 -0.38639101
-0.055212498 -0.24010101 -0.38638449
-0.055084169 -0.24007301 -0.38637817
-0.0546766 -0.24008279 -0.38637739
-0.054516666 -0.24010611 -0.3863771
-0.054357003 -0.240116 -0.38636899
-0.054083336 -0.24012101 -0.38633919
-0.053906202 -0.24011919 -0.38635558
-0.053664286 -0.24008986 -0.38636658
-0.053454328 -0.24008934 -0.38634518
-0.053105667 -0.24010356 -0.386363
-0.052932333 -0.24011366 -0.38638902
-0.052674327 -0.24012434 -0.38638851
-0.052510001 -0.24010101 -0.38639
-0.052347671 -0.24008232 -0.38637969
-0.052099664 -0.24008368 -0.38636732
-0.055408999 -0.239989 -0.386399
-0.055204999 -0.239962 -0.38638699
-0.055100001 -0.23988979 -0.38637659
-0.054680005 -0.23988551 -0.3863835
-0.054490834 -0.2399205 -0.38638902
-0.054345336 -0.23990534 -0.38638735
-0.054071996 -0.23991032 -0.38634947
-0.053885501 -0.23992334 -0.38635814
-0.053698163 -0.23992735 -0.38636169
-0.053532399 -0.2398854 -0.38638419
-0.053395331 -0.23987967 -0.38633999
-0.053105626 -0.23990075 -0.38636488
-0.052923001 -0.23993799 -0.38639501
-0.0526665 -0.2399835 -0.38639149
-0.0523385 -0.239907 -0.38638598
-0.052085001 -0.239838 -0.38639247
-0.055394664 -0.23970766 -0.38639033
-0.055097625 -0.23972963 -0.38638201
-0.054740001 -0.23967235 -0.38638768
-0.054447666 -0.23968999 -0.38638699
-0.054334331 -0.23969434 -0.38638666
-0.054060165 -0.23969966 -0.38636217
-0.053873669 -0.23971267 -0.3863745
-0.053695798 -0.239731 -0.38638464
-0.053545199 -0.23971359 -0.38637543
-0.0533855 -0.239704 -0.38635451
-0.053125504 -0.2396795 -0.3863683
-0.052965667 -0.23964067 -0.38639131
-0.052324999 -0.23965999 -0.38639501
-0.0520785 -0.2396975 -0.38637799
-0.055385001 -0.23953199 -0.38639599
-0.055053834 -0.2395115 -0.38639131
-0.054731999 -0.239531 -0.38639
-0.054436669 -0.23947801 -0.38638198
-0.054322999 -0.23948433 -0.38638964
-0.054048996 -0.239489 -0.38637081
-0.053862002 -0.239502 -0.38638183
-0.053683002 -0.23949119 -0.38638979
-0.0535134 -0.23953359 -0.38638979
-0.053375665 -0.23952866 -0.38636398
-0.053107001 -0.23948339 -0.3863664
-0.052943498 -0.23947734 -0.38637614
-0.052703001 -0.239417 -0.38639799
-0.052318666 -0.23952 -0.38636801
-0.052070498 -0.239556 -0.38638902
-0.055372331 -0.23928635 -0.38639298
-0.055088665 -0.23936933 -0.38639298
-0.054997999 -0.239268 -0.38639399
-0.054428998 -0.239338 -0.386392
-0.054313499 -0.239308 -0.38639501
-0.054079998 -0.23927701 -0.38637432
-0.053956605 -0.2392678 -0.3863886
-0.053651001 -0.23934264 -0.38639399
-0.053459663 -0.23931533 -0.38639331
-0.053364333 -0.23931833 -0.3863717
-0.053114802 -0.23931441 -0.38636598
-0.052933998 -0.2393015 -0.38637498
-0.052739501 -0.23927586 -0.38638464
-0.052529663 -0.23924033 -0.38639268
-0.052307997 -0.23930834 -0.38636032
-0.055074666 -0.23908766 -0.38639465
-0.054988999 -0.23909199 -0.38638434
-0.054414 -0.23905601 -0.386397
-0.05407 -0.23910201 -0.38639
-0.053890999 -0.23907535 -0.38639069
-0.053698003 -0.2390845 -0.3863945
-0.0534904 -0.23908341 -0.3863768
-0.053353999 -0.23910634 -0.38635767
-0.053096335 -0.2391175 -0.38636288
-0.052925836 -0.23912518 -0.38635632
-0.052731246 -0.23909999 -0.38636851
-0.052505333 -0.23907699 -0.38637316
-0.052297 -0.239097 -0.3863647
-0.051871002 -0.23918501 -0.386399
-0.055063333 -0.23887734 -0.386397
-0.054981001 -0.238952 -0.38639799
-0.054407001 -0.23891699 -0.38638964
-0.054291502 -0.238886 -0.386397
-0.054061335 -0.238925 -0.38637999
-0.0538815 -0.23889899 -0.38639599
-0.053601999 -0.238943 -0.38638401
-0.053517621 -0.23887339 -0.3863669
-0.05334267 -0.23889534 -0.38636133
-0.053085167 -0.23890649 -0.38635817
-0.052914668 -0.238914 -0.38635454
-0.0527215 -0.23892398 -0.38637665
-0.052496001 -0.23890026 -0.38637623
-0.052285668 -0.23888634 -0.38636601
-0.052035999 -0.23888834 -0.3863813
-0.055346001 -0.238794 -0.38639799
-0.055055998 -0.238736 -0.38639301
-0.054282334 -0.23871034 -0.38638699
-0.054049671 -0.23871434 -0.38638964
-0.053919002 -0.23872083 -0.38638332
-0.053719498 -0.238662 -0.3863965
-0.053504001 -0.23869272 -0.38637498
-0.053330999 -0.23868434 -0.38636699
-0.053074498 -0.23869516 -0.38634667
-0.052902997 -0.23870333 -0.38636419
-0.0527105 -0.2387135 -0.3863717
-0.052486837 -0.23872517 -0.3863802
-0.052274663 -0.23867567 -0.38636366
-0.052025001 -0.23867698 -0.38637099
-0.051842 -0.23862199 -0.38638699
-0.051759001 -0.238664 -0.386388
-0.054956999 -0.23849499 -0.3863965
-0.054674998 -0.238442 -0.38638401
-0.054298751 -0.23847975 -0.3863855
-0.054039001 -0.23850299 -0.38638234
-0.053908333 -0.23850882 -0.3863695
-0.053712502 -0.2385205 -0.38638616
-0.053506557 -0.238506 -0.38638324
-0.053320665 -0.23847334 -0.38634863
-0.053063828 -0.2384845 -0.38634634
-0.052892338 -0.23849232 -0.38635865
-0.052698836 -0.23850101 -0.38637635
-0.052475002 -0.2385145 -0.38639283
-0.052265 -0.238499 -0.38636398
-0.052015498 -0.238502 -0.38637599
-0.051837999 -0.238552 -0.38639
-0.054346498 -0.23830226 -0.3863855
-0.054027665 -0.23829199 -0.38638267
-0.0538975 -0.23829834 -0.38636351
-0.053702164 -0.23830949 -0.3863692
-0.053506143 -0.23830713 -0.38638642
-0.053310998 -0.238297 -0.38636699
-0.053051997 -0.2382725 -0.38635683
-0.052882332 -0.23828132 -0.386336
-0.052688506 -0.23829049 -0.38636434
-0.052464169 -0.23830266 -0.3863875
-0.052255664 -0.23832333 -0.38636664
-0.052006666 -0.23832433 -0.38636434
-0.054249 -0.23807667 -0.38639235
-0.054017335 -0.23808001 -0.38636768
-0.053886335 -0.23808651 -0.38636386
-0.053690497 -0.23809902 -0.38638017
-0.05351143 -0.23811458 -0.38637844
-0.053339399 -0.238107 -0.3863644
-0.053057332 -0.23810868 -0.38635501
-0.052884996 -0.23808168 -0.38635433
-0.052677002 -0.23807949 -0.38637331
-0.052453171 -0.23809133 -0.38637629
-0.052244663 -0.23811199 -0.38637266
-0.051996004 -0.238114 -0.38635468
-0.054296751 -0.23789951 -0.38638201
-0.054008 -0.237905 -0.38637799
-0.053875331 -0.23787583 -0.38636601
-0.053679664 -0.2378875 -0.38637567
-0.053518999 -0.23789018 -0.38637483
-0.053338673 -0.2379095 -0.38636634
-0.053075999 -0.23792 -0.38634935
-0.052916121 -0.2379175 -0.38635549
-0.052667998 -0.23790325 -0.38636702
-0.052490335 -0.23787732 -0.38638365
-0.0523545 -0.23790526 -0.38638252
-0.051912796 -0.23792282 -0.38638139
-0.051318999 -0.237845 -0.3863925
-0.0550825 -0.23764199 -0.38639301
-0.054954 -0.2376135 -0.38639149
-0.054287001 -0.23772234 -0.386392
-0.054001998 -0.23779801 -0.38636899
-0.053909834 -0.23769782 -0.38635883
-0.053668838 -0.2376755 -0.38636947
-0.053507332 -0.23767917 -0.38638183
-0.053326834 -0.2376985 -0.38637617
-0.053064 -0.23770933 -0.38636231
-0.052894775 -0.23771599 -0.38635054
-0.052658994 -0.23772782 -0.38636467
-0.052482001 -0.237701 -0.38636899
-0.0523174 -0.23766539 -0.38638562
-0.051973 -0.237692 -0.38637233
-0.051747501 -0.23763999 -0.3863945
-0.051313002 -0.237738 -0.386399
-0.054940403 -0.237487 -0.38636038
-0.054624498 -0.2374925 -0.38639849
-0.054276332 -0.23751199 -0.38638365
-0.053900555 -0.23752257 -0.38636166
-0.053659499 -0.23750049 -0.38637024
-0.053498499 -0.23750401 -0.38638049
-0.0533165 -0.237487 -0.38636267
-0.053053334 -0.23749733 -0.38635531
-0.05290943 -0.23751329 -0.38634014
-0.052684501 -0.23750588 -0.38636512
-0.052471999 -0.237525 -0.38637733
-0.052276403 -0.2374856 -0.38637021
-0.051963001 -0.23748069 -0.38635066
-0.051740665 -0.23749883 -0.38637915
-0.05146775 -0.23745924 -0.38639373
-0.0513268 -0.23751321 -0.3863866
-0.055270333 -0.23731734 -0.38635835
-0.055064499 -0.2372905 -0.38637853
-0.054948598 -0.23731799 -0.38635778
-0.054409999 -0.23721801 -0.38639599
-0.054291122 -0.23729023 -0.38637465
-0.053915285 -0.23731942 -0.38637242
-0.053687498 -0.23731375 -0.38635987
-0.053488836 -0.23732765 -0.3863875
-0.053305667 -0.23727615 -0.38635698
-0.053042997 -0.237287 -0.386338
-0.052916665 -0.23729134 -0.38633299
-0.052733835 -0.23730302 -0.38634834
-0.052527666 -0.23730983 -0.38635385
-0.052300401 -0.23731299 -0.38635001
-0.0519545 -0.237304 -0.38633353
-0.051698748 -0.23729812 -0.38636962
-0.051474802 -0.23729321 -0.38638082
-0.051323503 -0.23731601 -0.38636398
-0.051173002 -0.23724601 -0.38637501
-0.050834998 -0.237261 -0.38638499
-0.055258002 -0.23710601 -0.386381
-0.055057 -0.237149 -0.38638699
-0.054928664 -0.23712035 -0.386379
-0.054604501 -0.237106 -0.386388
-0.054464836 -0.23707564 -0.38638714
-0.054325998 -0.23708463 -0.38637364
-0.054195002 -0.237056 -0.38638598
-0.053923335 -0.23709734 -0.3863565
-0.053737495 -0.23710984 -0.3863503
-0.053516667 -0.23711532 -0.38636899
-0.053296249 -0.23710001 -0.38635999
-0.053032 -0.23707567 -0.38633966
-0.052906334 -0.23707999 -0.38631865
-0.052723002 -0.23709168 -0.38633502
-0.052517164 -0.23709917 -0.3863478
-0.052354664 -0.23711 -0.38634467
-0.052195001 -0.237128 -0.38632366
-0.051945001 -0.23712899 -0.38632834
-0.051720168 -0.23707718 -0.38634717
-0.051503897 -0.23709412 -0.38636622
-0.051334124 -0.23709363 -0.38635176
-0.051165 -0.23710699 -0.38637534
-0.050828334 -0.23712033 -0.38637534
-0.055243 -0.23682401 -0.38639501
-0.055041999 -0.23686901 -0.3863965
-0.054917838 -0.23691016 -0.38637248
-0.054523252 -0.2368975 -0.38637224
-0.054341745 -0.23688112 -0.38636124
-0.054187 -0.23688202 -0.38637164
-0.053913336 -0.23688652 -0.38633952
-0.053727496 -0.23690002 -0.38633403
-0.053506218 -0.23690456 -0.38635698
-0.05328767 -0.23692484 -0.38634384
-0.053024501 -0.236901 -0.3863095
-0.052898001 -0.23690525 -0.38630426
-0.052713167 -0.23688082 -0.38630998
-0.05250667 -0.23688801 -0.38632882
-0.052343335 -0.23689799 -0.38634565
-0.052183669 -0.23691599 -0.38632932
-0.051934663 -0.23691799 -0.38631597
-0.051710747 -0.23690102 -0.38634747
-0.051504336 -0.23687512 -0.38635489
-0.051330108 -0.2368899 -0.38636565
-0.051155001 -0.23689599 -0.38635466
-0.050817337 -0.23690867 -0.38636768
-0.050618995 -0.236926 -0.38639569
-0.050524998 -0.23686101 -0.386397
-0.05024467 -0.236874 -0.38638768
-0.055234998 -0.23668399 -0.38639748
-0.05503267 -0.236692 -0.38639101
-0.054907169 -0.23669933 -0.38636851
-0.054513831 -0.23672152 -0.38637483
-0.054344289 -0.23670956 -0.38637659
-0.054176331 -0.23667033 -0.386354
-0.053903162 -0.23667617 -0.38631415
-0.053716168 -0.23668833 -0.38632855
-0.05349578 -0.23669311 -0.38634357
-0.053277165 -0.23671351 -0.38633117
-0.053014997 -0.236724 -0.38631201
-0.052889336 -0.23672849 -0.38628936
-0.052693397 -0.2366852 -0.38628596
-0.052496169 -0.23667733 -0.38631853
-0.052332997 -0.23668735 -0.38633266
-0.052173331 -0.23670501 -0.38631299
-0.051924333 -0.23670633 -0.38630131
-0.051702831 -0.23672567 -0.38632286
-0.051495332 -0.23669934 -0.3863512
-0.051312625 -0.23668863 -0.38635251
-0.051144 -0.23668534 -0.38635167
-0.050806668 -0.23669833 -0.38635865
-0.050604999 -0.236644 -0.38638401
-0.050521001 -0.236789 -0.386399
-0.050271332 -0.23668401 -0.386381
-0.049849 -0.236615 -0.386397
-0.05522 -0.236403 -0.38639301
-0.055022329 -0.23648135 -0.386372
-0.054895833 -0.23648816 -0.38636735
-0.054503664 -0.2365105 -0.3863515
-0.054328889 -0.23651955 -0.3863503
-0.054167502 -0.236496 -0.38634899
-0.053893749 -0.2364995 -0.38631248
-0.053706001 -0.23647732 -0.38631284
-0.053485557 -0.23648323 -0.38632476
-0.053266998 -0.23650284 -0.38631067
-0.053004999 -0.23651333 -0.38628101
-0.052878171 -0.23651834 -0.38628602
-0.0527054 -0.23651461 -0.38628599
-0.052487999 -0.23650125 -0.38629851
-0.052322667 -0.23647599 -0.38631368
-0.052162666 -0.23649366 -0.38630033
-0.051914666 -0.23649567 -0.38626969
-0.051692668 -0.23651464 -0.38629949
-0.051486332 -0.23652345 -0.386345
-0.051310107 -0.23649155 -0.38634309
-0.051132996 -0.23647399 -0.38634932
-0.050747748 -0.23650825 -0.38635278
-0.050552502 -0.23647125 -0.38634273
-0.050270002 -0.23651859 -0.38637656
-0.0500235 -0.236499 -0.38639748
-0.049842 -0.23647299 -0.38639399
-0.0552155 -0.23629799 -0.38638401
-0.055011671 -0.23627101 -0.38636968
-0.054885503 -0.23627801 -0.38634869
-0.054492664 -0.23630001 -0.38635281
-0.054318443 -0.23630922 -0.3863413
-0.054159667 -0.23631966 -0.38631535
-0.053884834 -0.23632449 -0.38631201
-0.0536975 -0.23630226 -0.38629472
-0.053466715 -0.23629259 -0.38631001
-0.053257167 -0.236292 -0.386289
-0.052910332 -0.23630545 -0.38626564
-0.052685332 -0.23631866 -0.38627386
-0.052479833 -0.23632582 -0.38627851
-0.052314498 -0.236301 -0.38628501
-0.052151997 -0.23628366 -0.38628998
-0.051904004 -0.23628533 -0.38626865
-0.051682502 -0.23630399 -0.3862808
-0.051476553 -0.23631287 -0.38631555
-0.051309288 -0.23630603 -0.38632956
-0.0511235 -0.236297 -0.38634849
-0.050786 -0.23627533 -0.38632965
-0.050513122 -0.236287 -0.3863565
-0.05028943 -0.2362963 -0.3863717
-0.050015002 -0.23632334 -0.38638735
-0.049834497 -0.23629799 -0.38636398
-0.049705252 -0.23630399 -0.3863925
-0.055640001 -0.23602299 -0.386388
-0.055314835 -0.23611458 -0.38638958
-0.055003501 -0.2360945 -0.38635099
-0.054876998 -0.23610151 -0.38633448
-0.054482669 -0.23608883 -0.38632932
-0.054307777 -0.23609799 -0.3863301
-0.054149333 -0.23610832 -0.38629833
-0.053875666 -0.23611383 -0.38627365
-0.053688664 -0.23612601 -0.38628969
-0.05348786 -0.23613027 -0.38628238
-0.0532974 -0.23609141 -0.38627583
-0.053198002 -0.236048 -0.3862465
-0.052900333 -0.23609501 -0.38624421
-0.05267483 -0.23610766 -0.38626134
-0.052482199 -0.236128 -0.38628101
-0.052329749 -0.2361065 -0.38626647
-0.052141666 -0.236072 -0.38627568
-0.051893335 -0.23607402 -0.38625231
-0.051672164 -0.23609249 -0.38626036
-0.051486142 -0.23611055 -0.38630459
-0.051311266 -0.23610763 -0.38630065
-0.051115334 -0.236122 -0.38633069
-0.050778002 -0.2361 -0.38630301
-0.050493225 -0.23608576 -0.38634968
-0.050291888 -0.23609442 -0.38636255
-0.050004665 -0.23611234 -0.38636366
-0.049826 -0.23612233 -0.386345
-0.049696669 -0.23612833 -0.38638017
-0.055894502 -0.2358395 -0.38639349
-0.055632669 -0.235883 -0.38638797
-0.055474002 -0.23588 -0.38638902
-0.055340335 -0.235902 -0.38638067
-0.055196669 -0.23591232 -0.38634968
-0.054910887 -0.23592488 -0.38631523
-0.054487996 -0.23589301 -0.38629797
-0.054307699 -0.23588002 -0.3863039
-0.054138999 -0.23589833 -0.38629532
-0.053864002 -0.23590283 -0.38628283
-0.053678662 -0.23591584 -0.3862665
-0.053491667 -0.23591934 -0.38626829
-0.0533498 -0.23591599 -0.386278
-0.053188667 -0.23587199 -0.38623866
-0.052889556 -0.23588401 -0.38623321
-0.052664336 -0.23589666 -0.38624737
-0.052524332 -0.23589867 -0.38625002
-0.052344333 -0.23591168 -0.38625118
-0.052133501 -0.235897 -0.38624799
-0.051885001 -0.235899 -0.38623703
-0.051662337 -0.23588268 -0.38623416
-0.051490169 -0.23588967 -0.38628367
-0.051309001 -0.23590291 -0.38627172
-0.051107001 -0.23591132 -0.38627568
-0.050768662 -0.23592401 -0.38629735
-0.05047375 -0.23588425 -0.3863191
-0.050324831 -0.23588149 -0.38634431
-0.050196666 -0.23588867 -0.38630867
-0.049905505 -0.23590666 -0.38632849
-0.049686331 -0.23591717 -0.38636163
-0.056132 -0.23571999 -0.386397
-0.055887498 -0.235698 -0.386381
-0.055622667 -0.235672 -0.38636503
-0.055488836 -0.23568399 -0.38636002
-0.055329554 -0.23568998 -0.38637477
-0.055187333 -0.23570132 -0.38631132
-0.054900557 -0.23571332 -0.38630188
-0.054536 -0.23570099 -0.38628
-0.05431309 -0.23567517 -0.38629463
-0.054128002 -0.235687 -0.38629165
-0.053853836 -0.23569232 -0.38626313
-0.053668335 -0.23570515 -0.38624451
-0.053481001 -0.23570865 -0.38625666
-0.05332933 -0.23572068 -0.38626799
-0.053180501 -0.235697 -0.38622701
-0.052921668 -0.23567249 -0.38621899
-0.052702997 -0.23571849 -0.3862195
-0.052535001 -0.23567151 -0.38623148
-0.052334327 -0.23570098 -0.38623479
-0.052126002 -0.23572201 -0.38621533
-0.051878497 -0.23575801 -0.38621998
-0.051643997 -0.23568659 -0.3862254
-0.051480502 -0.23567902 -0.38625398
-0.051298082 -0.23569191 -0.38626775
-0.051095996 -0.23570032 -0.38627329
-0.050760001 -0.23571366 -0.38625634
-0.050503671 -0.23572099 -0.38629401
-0.050325498 -0.23568185 -0.38631868
-0.050186336 -0.235678 -0.38628566
-0.049894836 -0.235695 -0.38632083
-0.049676504 -0.23570634 -0.38633433
-0.049525999 -0.2356765 -0.38636801
-0.049153 -0.2357015 -0.386388
-0.056897499 -0.235439 -0.38639
-0.056620501 -0.235488 -0.38639301
-0.056445003 -0.23549433 -0.38638866
-0.056371 -0.23542701 -0.38639399
-0.056121003 -0.235511 -0.3863833
-0.055879001 -0.23552366 -0.38636199
-0.055614002 -0.2354975 -0.38635451
-0.055469401 -0.23548898 -0.38635722
-0.055319443 -0.23548023 -0.38635656
-0.055176001 -0.23549066 -0.38631797
-0.054890335 -0.23550323 -0.38628599
-0.054526329 -0.23552532 -0.386289
-0.054295555 -0.23548858 -0.38628784
-0.054116335 -0.23547566 -0.38629568
-0.053865001 -0.23549825 -0.38625699
-0.053692751 -0.23548225 -0.38624749
-0.053470332 -0.23549767 -0.38624799
-0.053319499 -0.23551051 -0.38623604
-0.053176001 -0.23559199 -0.38620299
-0.052954502 -0.23549449 -0.38621199
-0.052323997 -0.23548983 -0.38621247
-0.052115332 -0.23550999 -0.386215
-0.051665753 -0.23552899 -0.38621601
-0.051462401 -0.23548241 -0.38623422
-0.05129591 -0.23548673 -0.38624763
-0.051115252 -0.2354725 -0.38622048
-0.050749671 -0.235503 -0.38623166
-0.050505832 -0.23552115 -0.38627085
-0.050341126 -0.2355195 -0.38629615
-0.050177999 -0.235502 -0.38626501
-0.049974997 -0.235479 -0.38629568
-0.049709108 -0.23549244 -0.386309
-0.049518663 -0.23549999 -0.38633332
-0.04910833 -0.23550266 -0.38638365
-0.056891501 -0.2352975 -0.38636249
-0.056610662 -0.235277 -0.38636732
-0.056435 -0.235283 -0.38636565
-0.056324374 -0.23528112 -0.38638464
-0.056110334 -0.23529899 -0.38637832
-0.055869002 -0.235312 -0.38633868
-0.055605669 -0.235321 -0.38633668
-0.055479597 -0.2353178 -0.38634938
-0.055304144 -0.23528984 -0.38633958
-0.055165667 -0.23527999 -0.38629499
-0.054921329 -0.23528999 -0.38629851
-0.05479433 -0.23529701 -0.38628101
-0.054516334 -0.23531501 -0.38626134
-0.054301001 -0.23531681 -0.38629133
-0.054109 -0.235301 -0.3862555
-0.053875998 -0.2353045 -0.38626149
-0.0537435 -0.23527549 -0.38625434
-0.053505108 -0.23528767 -0.38623211
-0.053320598 -0.23531261 -0.3862226
-0.052947998 -0.23535499 -0.38620299
-0.052313 -0.23527932 -0.38621601
-0.051421002 -0.235331 -0.386213
-0.051300429 -0.23528901 -0.38621989
-0.051075999 -0.23527867 -0.38622332
-0.050739665 -0.23529167 -0.38621333
-0.050495666 -0.23531067 -0.38624832
-0.050324779 -0.23531845 -0.38629046
-0.050169334 -0.23532633 -0.38626036
-0.049966499 -0.235305 -0.38627201
-0.049699001 -0.23528266 -0.38628766
-0.049509 -0.23529033 -0.38630366
-0.0492565 -0.23526651 -0.386381
-0.049080223 -0.2353161 -0.38636798
-0.048905671 -0.23527266 -0.38638866
-0.056917995 -0.23510781 -0.38636199
-0.0566025 -0.235102 -0.38635552
-0.056425333 -0.23507299 -0.38633201
-0.056309555 -0.23508032 -0.38636202
-0.056101006 -0.23508966 -0.38634601
-0.055858668 -0.23510234 -0.38632098
-0.055505775 -0.23511897 -0.38632342
-0.05530737 -0.23512013 -0.38632274
-0.055156998 -0.23510399 -0.3862935
-0.054911837 -0.23507933 -0.38626218
-0.054785002 -0.23508668 -0.38623533
-0.054506 -0.23510401 -0.38624433
-0.05428442 -0.23511298 -0.3862755
-0.054101333 -0.23512566 -0.38622665
-0.053867999 -0.23512866 -0.38624033
-0.053735003 -0.23509949 -0.38623327
-0.053496201 -0.23510399 -0.38620979
-0.053355001 -0.23515099 -0.38620201
-0.052288666 -0.235116 -0.38620332
-0.051322199 -0.23513739 -0.38620859
-0.051068999 -0.235138 -0.386217
-0.0507305 -0.235116 -0.38621199
-0.050485667 -0.23510017 -0.3862243
-0.05031478 -0.23510711 -0.38626564
-0.050159335 -0.23511632 -0.38623068
-0.049958665 -0.23512869 -0.38624999
-0.049678501 -0.23508061 -0.38627249
-0.049499001 -0.23507933 -0.38627866
-0.049249005 -0.23509099 -0.38634267
-0.049070001 -0.23510467 -0.38635033
-0.048884001 -0.23510933 -0.38635933
-0.048742998 -0.235117 -0.386397
-0.057210498 -0.23486349 -0.38636798
-0.057101224 -0.23490256 -0.38638091
-0.056917667 -0.23491 -0.38634717
-0.056523405 -0.23491459 -0.38632601
-0.056295127 -0.23487951 -0.3863245
-0.056091335 -0.234879 -0.38631535
-0.055849001 -0.23489167 -0.38629401
-0.05549578 -0.23490821 -0.38630179
-0.055292666 -0.23491889 -0.38629678
-0.055149 -0.23492932 -0.38626266
-0.054904003 -0.23490451 -0.38623202
-0.054501001 -0.234965 -0.386204
-0.054275498 -0.23490351 -0.38622856
-0.054090332 -0.234915 -0.38622832
-0.053859502 -0.234954 -0.386222
-0.053728748 -0.23495999 -0.38621625
-0.050430331 -0.23489167 -0.38620767
-0.05030489 -0.23489587 -0.38624012
-0.049947668 -0.234917 -0.38624167
-0.049732398 -0.23491421 -0.38624319
-0.0495435 -0.23490101 -0.38626075
-0.049237669 -0.23488002 -0.38634634
-0.049078431 -0.23490356 -0.386316
-0.048904248 -0.23488925 -0.38634962
-0.048665799 -0.23489681 -0.38639021
-0.057776 -0.23465 -0.38639501
-0.057203002 -0.234724 -0.38636148
-0.057102002 -0.23468521 -0.38635921
-0.056908336 -0.2347005 -0.38631415
-0.056496996 -0.23471934 -0.38629234
-0.05629928 -0.23470914 -0.38629845
-0.056083001 -0.234704 -0.38629848
-0.05583933 -0.23468132 -0.38626501
-0.055531669 -0.23469366 -0.38627014
-0.05531108 -0.23470783 -0.38626587
-0.055139665 -0.23471868 -0.38622436
-0.054939501 -0.234762 -0.38621402
-0.054083001 -0.23477399 -0.386213
-0.050423 -0.234752 -0.38620201
-0.050272502 -0.23475751 -0.386208
-0.049937997 -0.234707 -0.38621131
-0.049693752 -0.23473775 -0.38622075
-0.0495262 -0.23474118 -0.38622618
-0.049229503 -0.23470449 -0.38632351
-0.049079668 -0.23468201 -0.38631117
-0.048904665 -0.23468655 -0.38633314
-0.048667502 -0.23469865 -0.38636649
-0.058105499 -0.2344265 -0.38639802
-0.057852998 -0.234437 -0.38639799
-0.057769332 -0.23450799 -0.38638866
-0.057478599 -0.23451062 -0.3863852
-0.05710867 -0.23448098 -0.3863351
-0.05689767 -0.2344895 -0.38629985
-0.05653175 -0.234525 -0.38627124
-0.056305274 -0.23451191 -0.38626215
-0.056074668 -0.23452835 -0.38627633
-0.055829335 -0.23447101 -0.38624668
-0.05552217 -0.234484 -0.38624015
-0.055301249 -0.23449801 -0.38624105
-0.049665 -0.23458099 -0.38620499
-0.049513798 -0.23450141 -0.38622019
-0.049222331 -0.23452866 -0.386282
-0.049071502 -0.23450524 -0.38629851
-0.048894446 -0.234475 -0.38631591
-0.0486692 -0.2345006 -0.38634318
-0.048597999 -0.234421 -0.38635901
-0.058447 -0.23426849 -0.38638651
-0.058076747 -0.23427901 -0.38637298
-0.057881396 -0.2342824 -0.38638261
-0.057758998 -0.23429768 -0.38637432
-0.057534002 -0.23432851 -0.38636202
-0.057396501 -0.23428449 -0.38633251
-0.057092272 -0.23427835 -0.38630056
-0.056888502 -0.23428035 -0.38626683
-0.056565661 -0.23429699 -0.38623467
-0.056302831 -0.234308 -0.38625029
-0.056064334 -0.23431833 -0.38625932
-0.055821002 -0.23429701 -0.38621849
-0.055503804 -0.23428801 -0.38622743
-0.055294 -0.23431057 -0.38621789
-0.049503997 -0.23431781 -0.38622802
-0.049211666 -0.234318 -0.38627663
-0.049062502 -0.23433 -0.38628581
-0.048903801 -0.2343072 -0.38629138
-0.048726499 -0.23427175 -0.38631749
-0.048592001 -0.23428033 -0.38633099
-0.05875 -0.234072 -0.38637298
-0.058463249 -0.23414525 -0.38636625
-0.058312424 -0.23410927 -0.38636488
-0.058076859 -0.23408642 -0.38635918
-0.057910629 -0.23407575 -0.38635573
-0.057748999 -0.23408733 -0.38634238
-0.057568666 -0.234098 -0.38632599
-0.057388335 -0.234109 -0.38631734
-0.057113625 -0.23411213 -0.38628349
-0.056891669 -0.23408033 -0.38624585
-0.056554999 -0.23408532 -0.38622034
-0.056263223 -0.23409843 -0.38624823
-0.056056999 -0.234143 -0.38622099
-0.055812001 -0.23412 -0.38621998
-0.055550501 -0.234164 -0.3862105
-0.049450666 -0.23409466 -0.38620368
-0.049203999 -0.23417599 -0.386289
-0.049088877 -0.23410714 -0.38626975
-0.048919335 -0.23412268 -0.38629234
-0.0487528 -0.2341146 -0.38629442
-0.048583999 -0.234106 -0.3863005
-0.059215002 -0.233804 -0.38637799
-0.0591424 -0.23387161 -0.38637739
-0.0589955 -0.233854 -0.38639152
-0.058743 -0.233898 -0.38633069
-0.058474664 -0.23391767 -0.38633034
-0.05830311 -0.23392054 -0.38632885
-0.05808175 -0.23390175 -0.3863225
-0.057911668 -0.23387501 -0.38632345
-0.057739664 -0.233878 -0.38630471
-0.057558998 -0.23388867 -0.38629767
-0.057377666 -0.23389934 -0.38630304
-0.05711345 -0.23392034 -0.38624409
-0.056923125 -0.23391901 -0.38623637
-0.056241568 -0.23390014 -0.386215
-0.049091771 -0.23390433 -0.38624775
-0.0489095 -0.2339115 -0.3862685
-0.048733499 -0.23391767 -0.38628387
-0.048574332 -0.23392832 -0.38631701
-0.048200998 -0.233872 -0.38639399
-0.048197001 -0.23380201 -0.38639799
-0.060056001 -0.233619 -0.38639799
-0.059402 -0.23379301 -0.386397
-0.059296995 -0.23371379 -0.38636631
-0.059138834 -0.23367518 -0.38634363
-0.058988001 -0.23367865 -0.38635233
-0.058733668 -0.23368932 -0.386289
-0.058465 -0.23370732 -0.38629937
-0.058320999 -0.23371914 -0.38629243
-0.058105372 -0.23371498 -0.38628277
-0.057903837 -0.23369901 -0.38628748
-0.057731502 -0.233702 -0.38629049
-0.057549331 -0.23367734 -0.386273
-0.057368334 -0.23368867 -0.38626733
-0.057103623 -0.23371775 -0.38622501
-0.056945164 -0.23371518 -0.38622651
-0.049104001 -0.233715 -0.38622352
-0.048899163 -0.23370166 -0.38625181
-0.048724163 -0.23370783 -0.38625351
-0.048564669 -0.23371899 -0.38627601
-0.060653999 -0.23344 -0.386397
-0.060469668 -0.23352401 -0.38635468
-0.060308497 -0.23349385 -0.38639036
-0.060101498 -0.23347835 -0.38637552
-0.059903 -0.23341399 -0.38638201
-0.059650004 -0.23349468 -0.38638067
-0.059296727 -0.23352319 -0.38635156
-0.059144605 -0.23349079 -0.38632062
-0.058979999 -0.233504 -0.386323
-0.058722332 -0.23347767 -0.38628832
-0.058455665 -0.23349766 -0.38625932
-0.05833067 -0.23349799 -0.38626313
-0.058106449 -0.23351267 -0.38626543
-0.057896331 -0.23352477 -0.38625777
-0.057723332 -0.23352732 -0.38626966
-0.057541497 -0.233503 -0.38624799
-0.057358667 -0.23347901 -0.38624367
-0.05709175 -0.23348175 -0.38620651
-0.056943201 -0.23351941 -0.38621122
-0.049174 -0.23354401 -0.38622001
-0.04887075 -0.23350899 -0.38620776
-0.048712999 -0.2334965 -0.38625249
-0.048554331 -0.23350666 -0.38626099
-0.04804967 -0.23348433 -0.38638434
-0.061039999 -0.233208 -0.386399
-0.060648005 -0.23330067 -0.38636932
-0.060458664 -0.233312 -0.38635066
-0.060300782 -0.23331976 -0.38635987
-0.060082197 -0.2332834 -0.3863472
-0.059897333 -0.23327534 -0.38635233
-0.059641 -0.23328567 -0.38633767
-0.059307449 -0.2333061 -0.38633078
-0.059145112 -0.23332132 -0.38631955
-0.058972001 -0.23332934 -0.38629898
-0.058714502 -0.2333035 -0.38626349
-0.058448501 -0.23332399 -0.38621551
-0.058323253 -0.23332399 -0.38622651
-0.058096442 -0.23330376 -0.38624245
-0.057897497 -0.23332411 -0.38623139
-0.057735 -0.23330075 -0.38623875
-0.057533335 -0.233329 -0.386222
-0.057350501 -0.23330501 -0.38621598
-0.057032 -0.233362 -0.38620099
-0.056967001 -0.233364 -0.386206
-0.0489005 -0.23329775 -0.38620776
-0.048703168 -0.23328567 -0.38622233
-0.048544999 -0.23329699 -0.38622868
-0.048102997 -0.233301 -0.38638219
-0.061035499 -0.2331035 -0.38638601
-0.060968 -0.23307367 -0.38637567
-0.060638666 -0.233092 -0.38633695
-0.060449671 -0.23310368 -0.386305
-0.060291782 -0.23311056 -0.38632643
-0.0600954 -0.23311479 -0.38632339
-0.059889503 -0.2331 -0.38632199
-0.059630334 -0.23307501 -0.38632002
-0.059298225 -0.23309612 -0.38629511
-0.059135556 -0.23311125 -0.38628721
-0.058962669 -0.23311967 -0.38626301
-0.058708001 -0.23312967 -0.38621297
-0.058269002 -0.233007 -0.38621101
-0.058171 -0.23308633 -0.38621435
-0.057911597 -0.23311739 -0.38622004
-0.057764996 -0.23315434 -0.38621166
-0.057526 -0.233187 -0.386215
-0.048646502 -0.23311299 -0.386213
-0.048534334 -0.23308599 -0.38621497
-0.048105165 -0.23310299 -0.38636115
-0.047995999 -0.233109 -0.386381
-0.061448999 -0.2328655 -0.38637701
-0.061082441 -0.23290832 -0.38637269
-0.060960501 -0.232899 -0.386347
-0.060629666 -0.23288132 -0.38629532
-0.060439665 -0.23289268 -0.38628331
-0.060282443 -0.23290068 -0.38628656
-0.060076166 -0.23291932 -0.38628948
-0.05988133 -0.232925 -0.38630533
-0.059623502 -0.2329005 -0.38627499
-0.059288781 -0.23288621 -0.38626015
-0.059126217 -0.23290123 -0.38625044
-0.058952998 -0.23290932 -0.38623235
-0.058699001 -0.232953 -0.38620299
-0.058265999 -0.23293801 -0.38620099
-0.058164001 -0.23294599 -0.386206
-0.048526999 -0.23294599 -0.38621199
-0.048095167 -0.23289233 -0.38633785
-0.047984999 -0.232898 -0.38636765
-0.06207975 -0.23268175 -0.38639525
-0.061709661 -0.23268266 -0.38638735
-0.061440002 -0.232691 -0.38636699
-0.061091661 -0.23271257 -0.38635519
-0.060951333 -0.23272367 -0.38634202
-0.060619999 -0.23267199 -0.38626501
-0.060430665 -0.232684 -0.38624236
-0.060273007 -0.23269089 -0.38624936
-0.060067166 -0.23270983 -0.38625035
-0.059871662 -0.23271567 -0.38628033
-0.059615668 -0.23272634 -0.38624099
-0.05927125 -0.23268649 -0.38621476
-0.059141498 -0.2327055 -0.38621148
-0.058945 -0.23273501 -0.3862105
-0.048085168 -0.23268165 -0.38631317
-0.047951002 -0.23267241 -0.38637322
-0.062447336 -0.23250735 -0.38637003
-0.062219333 -0.232518 -0.38638499
-0.062095914 -0.23252392 -0.38637552
-0.06187867 -0.23253 -0.38638568
-0.061700668 -0.23247367 -0.38634768
-0.061430335 -0.23248132 -0.38634899
-0.061082084 -0.23250365 -0.38632333
-0.060941998 -0.23251434 -0.38631168
-0.060611501 -0.23249701 -0.38625401
-0.060420666 -0.23247401 -0.38621664
-0.060271502 -0.23249039 -0.38621488
-0.060010001 -0.232572 -0.38620701
-0.059862334 -0.23250668 -0.38623667
-0.059606001 -0.232517 -0.38621867
-0.0592045 -0.23250499 -0.38621598
-0.059131503 -0.23251499 -0.38622048
-0.048064999 -0.23248658 -0.38627502
-0.047909625 -0.23246852 -0.38635835
-0.064058997 -0.23221301 -0.386399
-0.062960997 -0.23226701 -0.38639599
-0.062438998 -0.23229899 -0.38631499
-0.062210664 -0.23230934 -0.38633999
-0.062087253 -0.23231526 -0.38632944
-0.061868336 -0.23232032 -0.38636932
-0.061692499 -0.23229951 -0.38631999
-0.061420333 -0.23227167 -0.38631669
-0.061087601 -0.23229952 -0.38629809
-0.060958602 -0.2322894 -0.386269
-0.0606055 -0.23235801 -0.38621899
-0.060414001 -0.232334 -0.38620299
-0.059854001 -0.23233101 -0.38622248
-0.0480798 -0.23231621 -0.3862648
-0.047892332 -0.23230149 -0.386356
-0.064065002 -0.23207225 -0.38638175
-0.063998997 -0.2320445 -0.38638198
-0.063786998 -0.23200899 -0.38639599
-0.063486665 -0.23204966 -0.38639131
-0.063292503 -0.232034 -0.386388
-0.063151002 -0.2320435 -0.38639051
-0.062954336 -0.23212634 -0.38637534
-0.062429667 -0.23209 -0.38627198
-0.062204003 -0.2321355 -0.38628551
-0.062095504 -0.23210566 -0.38627645
-0.061894 -0.23209201 -0.3863185
-0.061684668 -0.23212402 -0.38628531
-0.061413001 -0.232096 -0.38627899
-0.061087999 -0.2320821 -0.38625968
-0.060956668 -0.23209317 -0.3862277
-0.04808725 -0.232135 -0.38626677
-0.04790473 -0.23211874 -0.3863228
-0.064247333 -0.23191567 -0.38636199
-0.064101368 -0.23191863 -0.38636413
-0.063991666 -0.23187099 -0.38634065
-0.063676797 -0.23189001 -0.38638139
-0.063462995 -0.23188718 -0.38636836
-0.063287668 -0.23189582 -0.38633952
-0.063144997 -0.23190449 -0.38635954
-0.062945671 -0.23191734 -0.38632765
-0.062419336 -0.23187967 -0.38626134
-0.062118668 -0.23189516 -0.38625476
-0.061921168 -0.23189934 -0.3862783
-0.061673999 -0.23191367 -0.38627502
-0.061405331 -0.23192233 -0.38625035
-0.061073128 -0.23188213 -0.38622928
-0.060959999 -0.231929 -0.386204
-0.048105333 -0.23190467 -0.38623467
-0.0479054 -0.23192899 -0.38628992
-0.047800001 -0.231849 -0.38633999
-0.066188 -0.231612 -0.386399
-0.064238667 -0.23170666 -0.38631567
-0.064085551 -0.23171777 -0.38634112
-0.063985005 -0.23169699 -0.38629502
-0.063732252 -0.23173425 -0.38631898
-0.063489623 -0.23166798 -0.38632539
-0.063277833 -0.231686 -0.38631651
-0.063136004 -0.2316957 -0.38631687
-0.062935665 -0.23170768 -0.38630936
-0.062410668 -0.231672 -0.38621464
-0.062108163 -0.23168373 -0.38624153
-0.061911497 -0.23168965 -0.38625133
-0.061664332 -0.23170434 -0.38625202
-0.061395336 -0.231713 -0.38623333
-0.061099201 -0.2317158 -0.38622001
-0.048094999 -0.23169298 -0.38621667
-0.047926888 -0.23170365 -0.38624251
-0.047793668 -0.23170699 -0.38632798
-0.066273794 -0.23145799 -0.3863892
-0.066182002 -0.231507 -0.38639301
-0.065926999 -0.231426 -0.386392
-0.065408997 -0.23143999 -0.38639599
-0.065250002 -0.231454 -0.386381
-0.065134495 -0.23145899 -0.3863835
-0.064906999 -0.23148401 -0.38637859
-0.064229004 -0.23149766 -0.38628733
-0.064077109 -0.23150998 -0.38628852
-0.063977331 -0.23152299 -0.38626233
-0.063765667 -0.23152167 -0.38630399
-0.063542746 -0.23149949 -0.38631001
-0.063311219 -0.23147532 -0.38627434
-0.06312684 -0.23148686 -0.38627747
-0.062926002 -0.23149832 -0.38628101
-0.062403001 -0.23153 -0.38621101
-0.062399998 -0.23146001 -0.38620901
-0.062112905 -0.23148079 -0.38622168
-0.061888404 -0.23149499 -0.38622221
-0.0616575 -0.2315305 -0.38621402
-0.061385002 -0.23150367 -0.386215
-0.061110001 -0.231553 -0.38620651
-0.047909997 -0.231501 -0.38623637
-0.04778333 -0.23149566 -0.38631034
-0.066490166 -0.23129483 -0.38637885
-0.066274501 -0.23129749 -0.38636425
-0.066106342 -0.23128998 -0.38637933
-0.065921001 -0.231286 -0.38635802
-0.065679997 -0.2312555 -0.38635999
-0.065454006 -0.231298 -0.38637698
-0.065297432 -0.23130143 -0.38636643
-0.06512633 -0.231318 -0.38636675
-0.064925596 -0.23131637 -0.38634378
-0.064219661 -0.231288 -0.38625035
-0.06406711 -0.23130012 -0.386264
-0.063967325 -0.23131366 -0.38623598
-0.063756667 -0.23131233 -0.38625702
-0.06353467 -0.23132549 -0.38628116
-0.063303329 -0.23130099 -0.38624716
-0.063117333 -0.23127751 -0.38625017
-0.062916003 -0.23128898 -0.38625869
-0.062392667 -0.23132001 -0.386204
-0.062090501 -0.231335 -0.3862035
-0.061825 -0.231343 -0.38620701
-0.047865998 -0.23129925 -0.38623574
-0.047772665 -0.23128468 -0.38630033
-0.047589671 -0.23128499 -0.38637567
-0.067109004 -0.23100799 -0.38639399
-0.066963002 -0.231022 -0.38638899
-0.066757999 -0.231025 -0.38638601
-0.066547498 -0.23110516 -0.38634285
-0.066310331 -0.23112042 -0.386325
-0.066116162 -0.23112683 -0.38633767
-0.065911666 -0.23107767 -0.38632497
