# .PCD v0.7 - Point Cloud Data file format
VERSION 0.7
FIELDS x y z
SIZE 4 4 4
TYPE F F F
COUNT 1 1 1
WIDTH 1384
HEIGHT 1
VIEWPOINT 0 0 0 1 0 0 0
POINTS 1384
DATA ascii
-0.12012725 -0.18449801 -0.29304403
-0.11991566 -0.184478 -0.29303363
-0.11974225 -0.18446951 -0.29301476
-0.119493 -0.184424 -0.29300699
-0.1222315 -0.184322 -0.29319102
-0.122121 -0.18429299 -0.29316983
-0.121975 -0.18430267 -0.29311466
-0.12166166 -0.18431365 -0.29302967
-0.121391 -0.18425301 -0.29300401
-0.12109434 -0.18424468 -0.293008
-0.12088734 -0.18428367 -0.29302499
-0.12052434 -0.18429799 -0.29308435
-0.12026266 -0.184313 -0.29305997
-0.12014201 -0.18431789 -0.29307121
-0.11990599 -0.18429799 -0.29304302
-0.11970633 -0.184273 -0.29303333
-0.1195178 -0.18426701 -0.29302439
-0.12196166 -0.184089 -0.29316235
-0.12164766 -0.18410033 -0.29308036
-0.12129455 -0.1841138 -0.29302356
-0.12113 -0.18412185 -0.29305199
-0.1209365 -0.18410249 -0.29304326
-0.120512 -0.18408434 -0.29311433
-0.12024999 -0.18409868 -0.29308665
-0.12013 -0.18410291 -0.29308346
-0.11989599 -0.18411867 -0.29304633
-0.119681 -0.18410534 -0.293033
-0.11951651 -0.184102 -0.29304275
-0.11921734 -0.18407799 -0.29301366
-0.119045 -0.18405449 -0.29300851
-0.117104 -0.18404 -0.29300401
-0.116893 -0.18406001 -0.29300299
-0.121952 -0.183946 -0.293199
-0.12163433 -0.18388666 -0.29312864
-0.12130629 -0.18390886 -0.29306057
-0.12113663 -0.1838975 -0.29307735
-0.12092549 -0.18392415 -0.29307818
-0.120502 -0.18390501 -0.293127
-0.12023767 -0.18388401 -0.29310802
-0.12011845 -0.18388733 -0.29308933
-0.11988401 -0.18390334 -0.29305699
-0.1196776 -0.18389881 -0.29301459
-0.11950684 -0.18392248 -0.29304299
-0.11920699 -0.1839 -0.29303449
-0.11903433 -0.18387599 -0.29303202
-0.118889 -0.18386939 -0.293008
-0.117477 -0.183805 -0.29300299
-0.11730924 -0.183851 -0.29301152
-0.11710311 -0.1838918 -0.29304424
-0.11693825 -0.18390511 -0.29301512
-0.1166715 -0.18385249 -0.29300401
-0.11651167 -0.18388332 -0.29300568
-0.116321 -0.183835 -0.2930015
-0.116128 -0.183806 -0.29300299
-0.12162101 -0.18367267 -0.29316333
-0.121311 -0.18368401 -0.29309401
-0.12113111 -0.18369144 -0.29310223
-0.120914 -0.18370883 -0.29308116
-0.12049267 -0.183725 -0.29311502
-0.12022901 -0.18370301 -0.29309702
-0.12010099 -0.18369286 -0.29308814
-0.11987367 -0.18368767 -0.293046
-0.11967549 -0.18369883 -0.29304233
-0.119495 -0.18370749 -0.2930555
-0.119127 -0.18371139 -0.29306501
-0.11888675 -0.18370351 -0.29302424
-0.11747099 -0.183697 -0.29301301
-0.1173108 -0.18368599 -0.29303479
-0.11710741 -0.18368326 -0.29307249
-0.11692667 -0.18369967 -0.2930451
-0.11666217 -0.18370883 -0.29304034
-0.11648849 -0.18371718 -0.2930325
-0.1163224 -0.18371239 -0.29301137
-0.116157 -0.18369825 -0.2930145
-0.11576501 -0.18365 -0.29301
-0.115404 -0.18363 -0.293006
-0.121611 -0.183494 -0.29317701
-0.121301 -0.18350498 -0.29311424
-0.12111911 -0.18347666 -0.2931138
-0.1209015 -0.18349402 -0.29310417
-0.12048167 -0.18350933 -0.29310867
-0.12022033 -0.183523 -0.29307637
-0.12010588 -0.18351811 -0.29308015
-0.1198645 -0.183507 -0.29303199
-0.11966249 -0.18348485 -0.29307401
-0.1194815 -0.18349349 -0.293102
-0.11909801 -0.183513 -0.29308933
-0.11887684 -0.18352383 -0.29302934
-0.11872367 -0.183483 -0.29301667
-0.11746 -0.18351765 -0.29303634
-0.11731861 -0.183514 -0.29306021
-0.11708699 -0.18349355 -0.29310676
-0.11691432 -0.18348499 -0.29306832
-0.1166596 -0.1835084 -0.293075
-0.11649329 -0.18349099 -0.29306144
-0.116303 -0.18351233 -0.29302415
-0.11614666 -0.18351901 -0.29303551
-0.115962 -0.18346401 -0.29300201
-0.1157575 -0.183506 -0.29301101
-0.1154 -0.183558 -0.293006
-0.115104 -0.183448 -0.29300502
-0.121914 -0.183227 -0.29319701
-0.121603 -0.18335 -0.29318351
-0.121597 -0.18324199 -0.29318699
-0.12129116 -0.18332548 -0.29311666
-0.12111033 -0.18329632 -0.29310501
-0.12089034 -0.18327783 -0.29309884
-0.120471 -0.18329334 -0.293102
-0.120209 -0.18330699 -0.29307631
-0.12008878 -0.18331222 -0.29306999
-0.11985499 -0.183327 -0.29303202
-0.11965325 -0.18330425 -0.29306999
-0.11947017 -0.18327717 -0.29309902
-0.11910479 -0.1833096 -0.2930896
-0.118883 -0.1832983 -0.29306683
-0.11869951 -0.18331699 -0.29302767
-0.11808 -0.18328266 -0.29301569
-0.117967 -0.183209 -0.29300699
-0.11771434 -0.18329366 -0.29303232
-0.11744734 -0.18330334 -0.29306301
-0.11729717 -0.18331367 -0.29309684
-0.11709253 -0.18331772 -0.29312485
-0.11690316 -0.18330581 -0.2931
-0.11668567 -0.183276 -0.293084
-0.11650512 -0.18328544 -0.29308847
-0.11628968 -0.18329716 -0.29305485
-0.11613432 -0.18330367 -0.29304752
-0.115953 -0.18332233 -0.29303566
-0.11574733 -0.18332732 -0.29302433
-0.1152945 -0.18324 -0.29301
-0.115082 -0.18328732 -0.29301199
-0.114875 -0.183376 -0.29300201
-0.12190667 -0.18308334 -0.29319799
-0.12159099 -0.18309768 -0.29316768
-0.12128033 -0.183109 -0.2931065
-0.12110066 -0.18311678 -0.29310364
-0.120881 -0.18309824 -0.29309422
-0.12045833 -0.18307799 -0.29312134
-0.120201 -0.183163 -0.29308301
-0.12009937 -0.18308882 -0.29306519
-0.11984333 -0.18311299 -0.29304066
-0.11969433 -0.18312334 -0.29304898
-0.11951857 -0.18310972 -0.29307571
-0.119161 -0.183075 -0.29309201
-0.11889844 -0.18309146 -0.29306978
-0.118711 -0.18311802 -0.29303777
-0.11825633 -0.18309499 -0.293017
-0.1180909 -0.18311034 -0.29303202
-0.117961 -0.183102 -0.2930215
-0.11770099 -0.183079 -0.29306367
-0.11743433 -0.183088 -0.29309833
-0.11728533 -0.18309815 -0.29310885
-0.11710044 -0.18310522 -0.29312488
-0.11691899 -0.18312477 -0.29311702
-0.116676 -0.18309599 -0.293089
-0.116483 -0.18309085 -0.29308787
-0.11627751 -0.183082 -0.2930755
-0.1161215 -0.1830885 -0.29308084
-0.11594101 -0.183107 -0.293055
-0.115735 -0.18311198 -0.29304302
-0.115375 -0.183128 -0.29304567
-0.11509278 -0.18309432 -0.29303014
-0.1148565 -0.183053 -0.29302502
-0.114705 -0.18302201 -0.293008
-0.1218975 -0.18290401 -0.293192
-0.12158 -0.182881 -0.29315498
-0.1212695 -0.18289351 -0.29309699
-0.12108912 -0.18290167 -0.29310545
-0.12087166 -0.18291916 -0.29309431
-0.12045 -0.18289751 -0.29309398
-0.12009659 -0.18287949 -0.2930617
-0.119831 -0.18289702 -0.293062
-0.119683 -0.18290834 -0.29305968
-0.11949677 -0.18291444 -0.2930592
-0.119151 -0.182895 -0.293098
-0.11887588 -0.1828855 -0.2930755
-0.1186755 -0.18288569 -0.29304919
-0.118274 -0.18290167 -0.29303634
-0.1181 -0.18291736 -0.29304057
-0.117963 -0.18290301 -0.29302776
-0.1176925 -0.1828995 -0.29305899
-0.117423 -0.18287234 -0.2931
-0.11727317 -0.18288267 -0.2931262
-0.11708866 -0.18288943 -0.29313409
-0.11690784 -0.18290885 -0.29311553
-0.11666533 -0.18291666 -0.29311401
-0.11650857 -0.18292543 -0.29311284
-0.11629399 -0.18289301 -0.29308662
-0.11610401 -0.18288721 -0.29308099
-0.11592934 -0.182891 -0.29305601
-0.11572299 -0.182896 -0.29306102
-0.11536401 -0.18291199 -0.29303765
-0.11510082 -0.18291901 -0.29303625
-0.114849 -0.182908 -0.29302502
-0.11466733 -0.18292767 -0.29300934
-0.11453624 -0.18286574 -0.293006
-0.12188999 -0.18276 -0.29319701
-0.1215705 -0.182703 -0.29315901
-0.12125782 -0.18267782 -0.29309866
-0.12107833 -0.18268511 -0.29309347
-0.12087361 -0.182717 -0.29307759
-0.120798 -0.182632 -0.29306301
-0.12044267 -0.18271632 -0.29305601
-0.12008813 -0.18269952 -0.29304475
-0.11982068 -0.18268168 -0.29304498
-0.11967099 -0.18269233 -0.29306
-0.11950942 -0.18270886 -0.29307798
-0.119396 -0.182668 -0.293098
-0.11914133 -0.18271534 -0.29310668
-0.1189294 -0.18271619 -0.2930924
-0.11869515 -0.18269014 -0.2930744
-0.11826199 -0.18268567 -0.29304132
-0.11811001 -0.18269356 -0.29303586
-0.11796582 -0.18270284 -0.29302731
-0.11768433 -0.18271868 -0.29302299
-0.117414 -0.18269201 -0.2930795
-0.11726375 -0.1827025 -0.2931315
-0.11707655 -0.18267411 -0.29314724
-0.11689559 -0.18269326 -0.29313424
-0.116653 -0.18270068 -0.29313001
-0.11651367 -0.18270884 -0.29312965
-0.11630254 -0.18271944 -0.29309681
-0.11610919 -0.18271461 -0.2930752
-0.11591834 -0.18267466 -0.29305199
-0.115711 -0.18268 -0.29306799
-0.115352 -0.18269734 -0.29306301
-0.1150993 -0.18271619 -0.2930378
-0.1149012 -0.1827088 -0.29303619
-0.11468799 -0.182698 -0.2930055
-0.1144615 -0.1826705 -0.29301175
-0.121875 -0.18247201 -0.29319599
-0.12156167 -0.182521 -0.29314366
-0.12124875 -0.1824975 -0.29308951
-0.12106984 -0.18250483 -0.29307634
-0.12091067 -0.182485 -0.29304668
-0.120791 -0.18248801 -0.29305467
-0.12043133 -0.18250068 -0.29305401
-0.12009569 -0.18252482 -0.29303318
-0.11990425 -0.182495 -0.29302526
-0.119661 -0.182477 -0.29303232
-0.11951667 -0.18248133 -0.29306349
-0.119387 -0.18248634 -0.29308298
-0.11912967 -0.1825 -0.29311034
-0.11890784 -0.1825155 -0.29310352
-0.1187085 -0.18251586 -0.29309076
-0.1182535 -0.182505 -0.29302749
-0.11809855 -0.18247832 -0.29303733
-0.11795466 -0.1824875 -0.29302219
-0.11767233 -0.18250299 -0.29303867
-0.117405 -0.18251167 -0.29307601
-0.11725517 -0.18252285 -0.29310918
-0.11706683 -0.18249434 -0.293156
-0.11688425 -0.18247758 -0.29312989
-0.116642 -0.18248467 -0.29312268
-0.116503 -0.18249233 -0.29311985
-0.11630225 -0.18251213 -0.29310048
-0.11610728 -0.182502 -0.29307371
-0.115909 -0.182494 -0.29304451
-0.115701 -0.1825 -0.29307401
-0.11534067 -0.18248002 -0.29305267
-0.11509833 -0.18249245 -0.29304656
-0.11490617 -0.1825065 -0.29304415
-0.11468 -0.18255401 -0.29301101
-0.114499 -0.1825605 -0.29301
-0.12186533 -0.18229233 -0.29319432
-0.12155 -0.18230601 -0.29314366
-0.121286 -0.18231533 -0.29307166
-0.12109384 -0.18232383 -0.2930769
-0.120902 -0.18230501 -0.293037
-0.12078249 -0.182308 -0.29303849
-0.120419 -0.18228601 -0.29306498
-0.12009467 -0.18230122 -0.29303199
-0.11991461 -0.18232839 -0.29301921
-0.119651 -0.1822965 -0.29304549
-0.11950774 -0.182301 -0.29305351
-0.119378 -0.182307 -0.293073
-0.11911833 -0.182284 -0.29310831
-0.11889699 -0.18229949 -0.2930975
-0.1186985 -0.18231726 -0.29308426
-0.118597 -0.18224099 -0.29304501
-0.11824399 -0.18232535 -0.29302564
-0.11808883 -0.18229866 -0.29304019
-0.1179386 -0.18228678 -0.29302803
-0.11766034 -0.18228699 -0.29305002
-0.11732201 -0.18231173 -0.29308271
-0.11708374 -0.18230601 -0.29312119
-0.11690234 -0.18229501 -0.29311582
-0.116714 -0.18230325 -0.2931115
-0.11649233 -0.1822765 -0.29310501
-0.116323 -0.182285 -0.29310083
-0.11611766 -0.18229598 -0.29308453
-0.11589933 -0.18231399 -0.29304934
-0.11569234 -0.18232034 -0.29306066
-0.1153315 -0.18230051 -0.29304951
-0.11508723 -0.18227644 -0.29304278
-0.11489499 -0.18229084 -0.29303816
-0.114665 -0.182266 -0.29300299
-0.11457 -0.182308 -0.29300666
-0.11435249 -0.18228 -0.29300299
-0.12185401 -0.18207699 -0.29319033
-0.12153867 -0.18209 -0.29314569
-0.12127334 -0.182101 -0.29309633
-0.121099 -0.1821149 -0.29307979
-0.12093461 -0.18210559 -0.29305381
-0.12077267 -0.18212833 -0.29303834
-0.12041 -0.182106 -0.29306
-0.12008333 -0.18208578 -0.2930308
-0.11997633 -0.18209298 -0.29302201
-0.1197006 -0.1820984 -0.29304361
-0.11949766 -0.18212183 -0.29306382
-0.11936801 -0.18212767 -0.29309168
-0.1191085 -0.18210399 -0.293109
-0.118887 -0.18208319 -0.29305899
-0.1187195 -0.18209101 -0.29308566
-0.11858834 -0.18209833 -0.29306602
-0.11823233 -0.18211 -0.293028
-0.118079 -0.18211877 -0.29304954
-0.117939 -0.18211241 -0.29304457
-0.1176495 -0.182108 -0.293075
-0.11733101 -0.18208401 -0.29306683
-0.117112 -0.18209456 -0.29309654
-0.11691925 -0.18211167 -0.29310483
-0.116705 -0.18212283 -0.29310417
-0.116483 -0.182096 -0.29309824
-0.11631375 -0.18210524 -0.29309174
-0.11610612 -0.18207988 -0.29308566
-0.11588734 -0.18209867 -0.29305834
-0.115683 -0.18210334 -0.29302466
-0.11532301 -0.18211967 -0.29302868
-0.11507767 -0.18209635 -0.29304516
-0.11486779 -0.18209019 -0.29305059
-0.11465567 -0.18208568 -0.29300401
-0.11451617 -0.1820925 -0.29301703
-0.11438766 -0.18209799 -0.29301533
-0.1218445 -0.181897 -0.29319251
-0.12152701 -0.181876 -0.29315868
-0.12126199 -0.18188535 -0.29309767
-0.12109833 -0.18189222 -0.29307821
-0.12093502 -0.18190266 -0.29305398
-0.12076034 -0.18191367 -0.29306269
-0.120404 -0.181998 -0.29306999
-0.1203985 -0.18189 -0.2930685
-0.120074 -0.18190598 -0.29302731
-0.11996501 -0.181877 -0.29301834
-0.11970416 -0.18189649 -0.29305384
-0.1194855 -0.18190651 -0.29308018
-0.11935633 -0.18191235 -0.29309598
-0.1191 -0.18192299 -0.29308635
-0.11887675 -0.18190351 -0.29307926
-0.1187085 -0.18187548 -0.29308167
-0.11857733 -0.18188201 -0.29306233
-0.11821967 -0.181895 -0.29305968
-0.11806778 -0.18190335 -0.2930502
-0.1179235 -0.181912 -0.29303983
-0.11764067 -0.18192799 -0.29306135
-0.11731 -0.18188341 -0.29307359
-0.11710033 -0.18187867 -0.29310408
-0.11690825 -0.18189526 -0.29309517
-0.11669383 -0.181906 -0.29309785
-0.1164735 -0.18191583 -0.29309815
-0.11630433 -0.18192483 -0.29309982
-0.11609665 -0.18190032 -0.29308799
-0.115876 -0.18188201 -0.29306164
-0.11567 -0.18188699 -0.29305065
-0.11531166 -0.181903 -0.29302999
-0.11506888 -0.18191633 -0.29303166
-0.11495433 -0.18192434 -0.29305002
-0.114745 -0.18188967 -0.29301998
-0.11452699 -0.18189326 -0.29300952
-0.11433151 -0.18188399 -0.2930105
-0.122031 -0.18170001 -0.29319999
-0.12183567 -0.18171768 -0.29317167
-0.1215185 -0.18169451 -0.29313099
-0.121253 -0.181704 -0.29308301
-0.12108699 -0.18167557 -0.29307508
-0.12092299 -0.18168718 -0.29306898
-0.12074933 -0.18169732 -0.29305401
-0.12038834 -0.18171068 -0.29307899
-0.12006467 -0.18172632 -0.29302704
-0.119955 -0.18169901 -0.29303652
-0.11969399 -0.18168034 -0.2930325
-0.11947467 -0.18169083 -0.2930685
-0.11934566 -0.18169534 -0.29308265
-0.11908833 -0.18170901 -0.29310167
-0.11886683 -0.181724 -0.29308915
-0.11869875 -0.18169551 -0.293091
-0.118569 -0.181702 -0.29304549
-0.11820867 -0.18167967 -0.29305902
-0.11808767 -0.181687 -0.29305166
-0.11793845 -0.18169324 -0.29306245
-0.117629 -0.181713 -0.29306868
-0.1173216 -0.1817086 -0.29306659
-0.11709134 -0.18169867 -0.29309651
-0.11688992 -0.181687 -0.29310283
-0.1166986 -0.18170521 -0.29311579
-0.116482 -0.181688 -0.29308897
-0.11629234 -0.18170865 -0.293111
-0.11608667 -0.18171999 -0.2930941
-0.11586601 -0.181704 -0.29308099
-0.11566 -0.18170699 -0.29305699
-0.11529901 -0.18168835 -0.29304901
-0.11507571 -0.18170956 -0.29301697
-0.1149644 -0.18169139 -0.2930384
-0.11471166 -0.18172349 -0.29301414
-0.114538 -0.18169451 -0.29300398
-0.12205075 -0.18148349 -0.29319301
-0.1218642 -0.18148521 -0.2931748
-0.12150934 -0.18151499 -0.29312667
-0.12124433 -0.18152499 -0.29306835
-0.12107734 -0.18149666 -0.29308367
-0.1209018 -0.18148741 -0.29305941
-0.120738 -0.18148233 -0.29306301
-0.12037667 -0.18149532 -0.29308867
-0.12008067 -0.181511 -0.29305184
-0.11996966 -0.18151484 -0.29305685
-0.119684 -0.18150049 -0.29303801
-0.1194554 -0.18149021 -0.29306519
-0.11933433 -0.18147968 -0.29307935
-0.11907733 -0.18149167 -0.29309466
-0.11886661 -0.18152179 -0.2930882
-0.11870558 -0.18150413 -0.29307958
-0.118558 -0.18152399 -0.29306531
-0.118201 -0.181536 -0.293064
-0.1181018 -0.1814988 -0.29305598
-0.11792075 -0.18148699 -0.29305899
-0.11761834 -0.18149567 -0.29305503
-0.11729967 -0.1815085 -0.29309165
-0.11708167 -0.18151888 -0.29310378
-0.11689644 -0.18151055 -0.29309976
-0.11675099 -0.18147433 -0.29312134
-0.11649655 -0.18148221 -0.29311389
-0.11628083 -0.18149333 -0.29311299
-0.11608451 -0.18151337 -0.29309988
-0.11589199 -0.18150149 -0.29307523
-0.11565099 -0.18152767 -0.29305768
-0.11528733 -0.181473 -0.29306233
-0.11507701 -0.18148334 -0.29301414
-0.11495916 -0.18148966 -0.29303834
-0.11473925 -0.18152374 -0.29300475
-0.11453 -0.18155149 -0.29301202
-0.12203 -0.181292 -0.29319468
-0.12186433 -0.18128283 -0.29316166
-0.121499 -0.18129933 -0.29310599
-0.12123168 -0.18131 -0.29309201
-0.121076 -0.18132576 -0.29308704
-0.12092883 -0.18130167 -0.29306468
-0.120727 -0.18130299 -0.293084
-0.120365 -0.18127935 -0.29309067
-0.1200685 -0.18129648 -0.29307082
-0.11995717 -0.181301 -0.29307631
-0.11971225 -0.18133676 -0.29304674
-0.11950228 -0.18130887 -0.29305556
-0.1193255 -0.1813 -0.29306799
-0.11906567 -0.18127699 -0.293102
-0.11889601 -0.18128867 -0.29306963
-0.11871722 -0.18129855 -0.29306826
-0.118547 -0.18130799 -0.29306701
-0.11810879 -0.18132499 -0.2930561
-0.11792628 -0.18131201 -0.29305771
-0.11760733 -0.18128 -0.29304364
-0.11728849 -0.18129234 -0.29308832
-0.11709071 -0.18131287 -0.29310015
-0.11690184 -0.18131661 -0.29311869
-0.11676034 -0.18128066 -0.29311398
-0.1165315 -0.18130049 -0.29311699
-0.11630163 -0.18128513 -0.29311273
-0.11610001 -0.18128701 -0.2931025
-0.11591816 -0.18129902 -0.29308149
-0.115639 -0.18131299 -0.29307166
-0.1152785 -0.18129149 -0.293044
-0.1150675 -0.18130375 -0.29300827
-0.11494301 -0.18128781 -0.29303819
-0.1147665 -0.18132401 -0.2930035
-0.12206943 -0.18112244 -0.29318786
-0.1218832 -0.18109301 -0.29316682
-0.12148867 -0.18108332 -0.29308832
-0.12122133 -0.181095 -0.29307666
-0.121088 -0.18110017 -0.29309666
-0.12092488 -0.18110968 -0.29309103
-0.120718 -0.181123 -0.29308033
-0.1203555 -0.1811 -0.2930955
-0.12005699 -0.18108118 -0.29307151
-0.11994567 -0.18108499 -0.29308185
-0.11973766 -0.18109934 -0.29303566
-0.11951886 -0.18112299 -0.29306611
-0.1193488 -0.18110558 -0.29306442
-0.1190565 -0.18109751 -0.293093
-0.118884 -0.18107401 -0.29308435
-0.11870555 -0.18108279 -0.29307702
-0.118535 -0.18109198 -0.29307699
-0.11809734 -0.18110956 -0.29305565
-0.11790811 -0.18111812 -0.29306066
-0.117598 -0.18110099 -0.29304451
-0.11727833 -0.18107666 -0.29306132
-0.11709367 -0.181087 -0.2930935
-0.11691567 -0.18109851 -0.29310575
-0.11676151 -0.18111266 -0.293111
-0.11652249 -0.18112101 -0.2931135
-0.11631472 -0.18111014 -0.29311299
-0.11609124 -0.181108 -0.29308927
-0.11590733 -0.18108283 -0.29306719
-0.11562867 -0.18109667 -0.29305032
-0.115269 -0.18111266 -0.29304036
-0.115077 -0.181141 -0.29300475
-0.1149452 -0.181114 -0.29302141
-0.1146775 -0.18107525 -0.29300874
-0.114508 -0.18108299 -0.29301199
-0.114245 -0.181095 -0.29300401
-0.098642997 -0.181069 -0.293089
-0.1220735 -0.180924 -0.29319325
-0.12193301 -0.18091621 -0.2931802
-0.12179599 -0.18092567 -0.29313669
-0.1214775 -0.180905 -0.2931225
-0.121209 -0.180879 -0.293093
-0.12107617 -0.18088567 -0.2931045
-0.12091378 -0.18089464 -0.29309088
-0.120706 -0.18090899 -0.29309833
-0.12034533 -0.18092035 -0.29310265
-0.120048 -0.18090126 -0.29305899
-0.1199314 -0.1808846 -0.29305559
-0.11972633 -0.18088435 -0.293035
-0.11952716 -0.18089633 -0.29305699
-0.11934733 -0.18090451 -0.29305333
-0.11904699 -0.18091799 -0.29309335
-0.118875 -0.180894 -0.29308701
-0.11869567 -0.18090332 -0.29308566
-0.11852333 -0.180876 -0.29307768
-0.118086 -0.18089344 -0.29305699
-0.11789688 -0.18090245 -0.29305202
-0.117589 -0.18092 -0.29303366
-0.11726925 -0.18089701 -0.29305124
-0.117085 -0.18090649 -0.29307699
-0.11690459 -0.1808825 -0.29310107
-0.11675017 -0.18089651 -0.29310682
-0.11651101 -0.18090399 -0.29310885
-0.11629244 -0.18091545 -0.29311833
-0.11608168 -0.1809275 -0.29309067
-0.1158824 -0.18088301 -0.29306141
-0.11561733 -0.18088 -0.29305002
-0.11525834 -0.18089633 -0.29303369
-0.11504649 -0.18090801 -0.29301831
-0.11493 -0.18091317 -0.293006
-0.114746 -0.18092901 -0.29300299
-0.1145445 -0.18090126 -0.29300702
-0.098640002 -0.180997 -0.29308099
-0.122044 -0.18076301 -0.29319701
-0.1219226 -0.18071499 -0.29317579
-0.121784 -0.18071099 -0.29315901
-0.12146801 -0.18072467 -0.29312301
-0.121201 -0.18073601 -0.293107
-0.121093 -0.1806974 -0.29310322
-0.12090199 -0.18067965 -0.29309991
-0.120694 -0.18069299 -0.29310301
-0.120336 -0.18070501 -0.29306832
-0.12003884 -0.18072134 -0.29305914
-0.1199322 -0.18070979 -0.29305118
-0.1197175 -0.180704 -0.293019
-0.11951634 -0.1806805 -0.29304531
-0.119334 -0.18068916 -0.29309765
-0.11903667 -0.18070267 -0.29307398
-0.11886533 -0.18071467 -0.29308501
-0.11868633 -0.18072377 -0.29307988
-0.118514 -0.180696 -0.293075
-0.11809714 -0.180687 -0.29305142
-0.11790635 -0.18067954 -0.29304755
-0.11757767 -0.18070467 -0.29303601
-0.1172595 -0.18071733 -0.29305983
-0.11707633 -0.18072633 -0.2930665
-0.11688469 -0.1806826 -0.29308298
-0.11674017 -0.18068068 -0.29307732
-0.11649966 -0.1806885 -0.29310501
-0.11632467 -0.18069701 -0.29313049
-0.11611167 -0.18070889 -0.29308611
-0.1159026 -0.18070719 -0.29306382
-0.11560801 -0.18070051 -0.29304749
-0.11524767 -0.18068099 -0.29301533
-0.115003 -0.180766 -0.29301801
-0.11493 -0.18069699 -0.29301044
-0.114732 -0.180677 -0.293008
-0.114535 -0.180721 -0.29300484
-0.121874 -0.180526 -0.29319
-0.121772 -0.18049501 -0.29317099
-0.12145567 -0.18051 -0.29314032
-0.12110145 -0.18052457 -0.29310855
-0.12089183 -0.18049949 -0.2931115
-0.12071175 -0.18045823 -0.29310149
-0.12032434 -0.18048966 -0.29307297
-0.120062 -0.18050468 -0.29305932
-0.11994178 -0.18050933 -0.29306412
-0.11970734 -0.180526 -0.29304099
-0.11950574 -0.18050075 -0.29306874
-0.11932301 -0.18047367 -0.29309282
-0.11902533 -0.18048634 -0.293071
-0.11885434 -0.180499 -0.29307866
-0.11871483 -0.18050568 -0.29308698
-0.118549 -0.18051434 -0.29308498
-0.1181035 -0.18049626 -0.29304701
-0.11789588 -0.18049465 -0.29303268
-0.117567 -0.18049002 -0.29302201
-0.117276 -0.18051726 -0.29303649
-0.11709812 -0.18050049 -0.2930451
-0.11689659 -0.1805062 -0.29307133
-0.11673075 -0.1805 -0.29307374
-0.11648099 -0.1804876 -0.2930766
-0.1163145 -0.18048035 -0.29310167
-0.11610022 -0.18049312 -0.29308623
-0.11587733 -0.18050735 -0.29306081
-0.115603 -0.180593 -0.293037
-0.11559699 -0.180485 -0.293035
-0.115058 -0.180439 -0.293006
-0.11492629 -0.1804813 -0.29301271
-0.11472267 -0.18049699 -0.29300666
-0.1145324 -0.18049081 -0.29301339
-0.114284 -0.18050079 -0.29300839
-0.121763 -0.180353 -0.293194
-0.12144367 -0.18029399 -0.29315665
-0.12110025 -0.18031701 -0.29312363
-0.12093614 -0.18030414 -0.29313087
-0.120733 -0.18029551 -0.29310325
-0.12031267 -0.18027367 -0.29308367
-0.12004966 -0.18028867 -0.29308134
-0.11992989 -0.18029366 -0.29307145
-0.11969501 -0.18031 -0.293051
-0.119496 -0.18032134 -0.29307631
-0.11931375 -0.18029425 -0.29308426
-0.1190165 -0.180306 -0.29305801
-0.11884367 -0.18028367 -0.29305935
-0.11870534 -0.18029083 -0.29305384
-0.11853883 -0.18029851 -0.29305902
-0.11809468 -0.18031667 -0.293035
-0.11790273 -0.180319 -0.29303998
-0.117556 -0.18027401 -0.29300666
-0.11728966 -0.18028234 -0.29302868
-0.11709934 -0.18029313 -0.29302356
-0.11689141 -0.18031211 -0.29307151
-0.11674113 -0.18031025 -0.293053
-0.11649139 -0.18031362 -0.29307398
-0.1163065 -0.1803005 -0.29307503
-0.1160795 -0.18028663 -0.29308051
-0.11593834 -0.18028234 -0.29307935
-0.115794 -0.18030067 -0.29302967
-0.11558801 -0.180305 -0.293024
-0.115229 -0.18032168 -0.29301
-0.115051 -0.18029501 -0.29300499
-0.11492459 -0.18029419 -0.29300562
-0.11471099 -0.180281 -0.29301667
-0.1145115 -0.18029 -0.29302451
-0.11430299 -0.18030725 -0.29301924
-0.114198 -0.180232 -0.29302099
-0.1217505 -0.18010101 -0.293185
-0.121432 -0.18007934 -0.29316601
-0.12112049 -0.1800915 -0.29312766
-0.12094022 -0.18009888 -0.29313338
-0.12072334 -0.180116 -0.2931115
-0.12030201 -0.18009451 -0.2931
-0.120038 -0.18007301 -0.29308167
-0.11991811 -0.18007755 -0.29307956
-0.11968433 -0.180094 -0.293044
-0.119485 -0.18010567 -0.29306617
-0.11930499 -0.18011402 -0.29307365
-0.11900634 -0.18012667 -0.29306832
-0.118835 -0.180104 -0.29305202
-0.11869434 -0.18007499 -0.29304484
-0.11852816 -0.18008316 -0.29304302
-0.11808366 -0.18010099 -0.29302767
-0.11788442 -0.18011008 -0.293037
-0.117546 -0.1800935 -0.29302201
-0.11728001 -0.18010199 -0.293037
-0.11709888 -0.18008575 -0.2930271
-0.116901 -0.18007989 -0.29306641
-0.11673722 -0.18010323 -0.29304436
-0.11647167 -0.180113 -0.29305983
-0.11629751 -0.18012066 -0.29306349
-0.11610833 -0.18011968 -0.29307649
-0.11595267 -0.18009067 -0.29306498
-0.11578267 -0.180085 -0.29303035
-0.11557633 -0.18008934 -0.29303101
-0.1152195 -0.18014151 -0.29301551
-0.115043 -0.180151 -0.29301599
-0.11491489 -0.180121 -0.29301679
-0.114701 -0.18010101 -0.29302299
-0.11449933 -0.18007384 -0.29303733
-0.1143346 -0.1800938 -0.29300839
-0.114193 -0.180123 -0.29301399
-0.098591998 -0.18009201 -0.29308999
-0.121744 -0.179993 -0.29318699
-0.12142099 -0.17989901 -0.29319
-0.121108 -0.17987616 -0.29315081
-0.1209289 -0.17988309 -0.293134
-0.12071166 -0.17990066 -0.29311249
-0.120293 -0.17991567 -0.29310134
-0.120028 -0.179894 -0.2931
-0.119908 -0.17989933 -0.29309267
-0.119672 -0.17987867 -0.29306269
-0.11947417 -0.17988984 -0.29305467
-0.11929333 -0.17989899 -0.29307649
-0.11891101 -0.17991833 -0.29304585
-0.11868551 -0.17989551 -0.29303575
-0.118519 -0.17990351 -0.29303801
-0.11807183 -0.17988501 -0.29303297
-0.1179001 -0.17989178 -0.29304212
-0.1177935 -0.17990249 -0.29300052
-0.117541 -0.179986 -0.29301301
-0.11727033 -0.179923 -0.29303703
-0.11713666 -0.17990701 -0.29302001
-0.11689989 -0.17989498 -0.29305425
-0.11672579 -0.17988722 -0.29304135
-0.11646017 -0.17989683 -0.29306331
-0.11628532 -0.179905 -0.2930778
-0.1161105 -0.17991567 -0.29307383
-0.1159555 -0.17992251 -0.29306635
-0.1157735 -0.179904 -0.29302198
-0.115565 -0.179874 -0.29302832
-0.115206 -0.17988999 -0.29301199
-0.11490289 -0.17990489 -0.29302934
-0.11469267 -0.17992167 -0.293008
-0.11450768 -0.17990465 -0.29301897
-0.11435901 -0.179897 -0.29301298
-0.098582 -0.17991133 -0.29309234
-0.12108266 -0.179709 -0.29317132
-0.12091767 -0.179704 -0.29316518
-0.12070066 -0.17968518 -0.29310802
-0.12028199 -0.17969799 -0.29309002
-0.12001801 -0.17971401 -0.29311368
-0.11989821 -0.17971911 -0.2931022
-0.119662 -0.1797 -0.29308
-0.119463 -0.17967384 -0.293051
-0.119282 -0.17968351 -0.29307649
-0.118899 -0.179702 -0.29306033
-0.11867484 -0.17971499 -0.29305664
-0.1185085 -0.17972316 -0.29306066
-0.1180518 -0.1796848 -0.29305539
-0.11788877 -0.17967667 -0.29304421
-0.11778066 -0.17968667 -0.293026
-0.11752534 -0.17969866 -0.29301965
-0.11725867 -0.17970699 -0.29304433
-0.11711919 -0.17970119 -0.29302663
-0.11690708 -0.17971881 -0.29304263
-0.11670925 -0.17968114 -0.29302722
-0.11645941 -0.179695 -0.29306298
-0.1162923 -0.17967859 -0.29305929
-0.11609999 -0.1797 -0.29306051
-0.11594468 -0.17970668 -0.29305583
-0.11576466 -0.17972367 -0.29301167
-0.1155565 -0.179693 -0.293019
-0.115197 -0.179709 -0.293008
-0.1148855 -0.17969838 -0.29302412
-0.114681 -0.17970599 -0.29301068
-0.11429167 -0.179721 -0.29300532
-0.09857133 -0.179694 -0.29308033
-0.12104199 -0.17951834 -0.29317665
-0.12090855 -0.179524 -0.29315841
-0.120691 -0.1795055 -0.29310974
-0.12026834 -0.17948334 -0.29313532
-0.120006 -0.179498 -0.29312432
-0.119886 -0.17950334 -0.29312044
-0.119652 -0.17952 -0.293084
-0.11945301 -0.17949525 -0.29306549
-0.11927225 -0.1795035 -0.29308125
-0.11890581 -0.17949919 -0.29304761
-0.1186827 -0.17948799 -0.29305914
-0.11849699 -0.17950733 -0.29306218
-0.1180598 -0.1795108 -0.29305762
-0.11787867 -0.17949666 -0.29306084
-0.1177705 -0.179507 -0.29303899
-0.11751366 -0.179482 -0.29302567
-0.11724767 -0.179491 -0.29303965
-0.11709949 -0.17950051 -0.29302952
-0.11688841 -0.17951024 -0.29305273
-0.116716 -0.17951261 -0.29302263
-0.1164885 -0.179497 -0.29304498
-0.11629542 -0.17949228 -0.29304728
-0.11608967 -0.17948352 -0.29303783
-0.11593368 -0.17948999 -0.29304433
-0.11575333 -0.17950802 -0.29300502
-0.115551 -0.17958499 -0.29300299
-0.115007 -0.17946801 -0.293001
-0.114858 -0.179546 -0.29300851
-0.11425 -0.179471 -0.29300299
-0.098560333 -0.17947699 -0.29306635
-0.121033 -0.17937399 -0.29319701
-0.12089667 -0.179308 -0.29317215
-0.12068067 -0.17932583 -0.29312551
-0.1202585 -0.1793035 -0.29313701
-0.11990442 -0.17928599 -0.29312283
-0.11964166 -0.179304 -0.29306734
-0.11949333 -0.17931533 -0.29306433
-0.11930667 -0.17932099 -0.29307535
-0.118964 -0.1792995 -0.2930485
-0.11869833 -0.17928156 -0.293062
-0.11848549 -0.17929183 -0.29306567
-0.118063 -0.17932549 -0.29305723
-0.11789154 -0.17931035 -0.29306835
-0.11776101 -0.17932667 -0.29303932
-0.117504 -0.179304 -0.29303101
-0.117236 -0.17927499 -0.29304567
-0.11708733 -0.17928468 -0.29304501
-0.11688482 -0.17930017 -0.29304421
-0.11670619 -0.17930409 -0.29302961
-0.11647934 -0.17931767 -0.29303369
-0.11630837 -0.17931752 -0.29304376
-0.11608125 -0.1793035 -0.29301047
-0.11592334 -0.17927401 -0.29302415
-0.114415 -0.17935701 -0.293001
-0.098551005 -0.179295 -0.29306901
-0.12101867 -0.17908667 -0.29318801
-0.12088628 -0.17910258 -0.29318699
-0.12066799 -0.17911033 -0.29315966
-0.12025001 -0.179124 -0.29313132
-0.11988544 -0.17909512 -0.29312089
-0.119629 -0.17908834 -0.29309332
-0.11948133 -0.17909932 -0.29307199
-0.119295 -0.1791051 -0.29307592
-0.11895467 -0.179121 -0.29304865
-0.11868834 -0.17910133 -0.29306933
-0.11847316 -0.17907615 -0.29308051
-0.118072 -0.17909001 -0.29305568
-0.11790751 -0.17910671 -0.2930662
-0.1177694 -0.1790944 -0.29304761
-0.11749467 -0.17912202 -0.29302701
-0.1172255 -0.179095 -0.293064
-0.11707801 -0.179105 -0.29304349
-0.11689337 -0.17908424 -0.29304162
-0.116711 -0.17909475 -0.29302725
-0.116468 -0.17910166 -0.29303598
-0.11628755 -0.17911123 -0.29303589
-0.11607216 -0.17912383 -0.29300618
-0.1159145 -0.17909451 -0.2930105
-0.11484567 -0.17913699 -0.29300201
-0.098540664 -0.179115 -0.29308301
-0.121011 -0.178945 -0.293194
-0.12092533 -0.178874 -0.29318365
-0.12071566 -0.178892 -0.29316333
-0.120596 -0.178896 -0.29317367
-0.12023699 -0.17890799 -0.29315335
-0.11989253 -0.17891945 -0.29312107
-0.119619 -0.178909 -0.29309499
-0.11947 -0.17888398 -0.29307267
-0.11930887 -0.17889901 -0.29307371
-0.119196 -0.178856 -0.29308498
-0.118942 -0.17890465 -0.29306901
-0.11871984 -0.17891984 -0.29307184
-0.11852016 -0.17890915 -0.29308715
-0.11806101 -0.17887501 -0.29305133
-0.11790734 -0.1788841 -0.29307255
-0.11776367 -0.17889267 -0.293053
-0.117483 -0.17890799 -0.29303265
-0.11721667 -0.17891566 -0.29305232
-0.11706817 -0.17892516 -0.2930505
-0.1168836 -0.17888899 -0.2930364
-0.11670154 -0.17887218 -0.29302418
-0.11645699 -0.178886 -0.29302397
-0.11631817 -0.1788945 -0.29301599
-0.11611933 -0.178904 -0.29301766
-0.11587 -0.17891599 -0.29300299
-0.114977 -0.178891 -0.29300499
-0.098529667 -0.17889833 -0.29307365
-0.120704 -0.17867601 -0.293176
-0.12058467 -0.17868066 -0.29318035
-0.12022499 -0.17869265 -0.29316899
-0.11990021 -0.17870888 -0.29313463
-0.119701 -0.17872234 -0.29312116
-0.11946 -0.17870399 -0.29308099
-0.1193066 -0.17868701 -0.293089
-0.11918533 -0.17867601 -0.29310167
-0.11893 -0.17868833 -0.29308033
-0.11870816 -0.17870401 -0.29307634
-0.11849678 -0.17871368 -0.29310048
-0.118051 -0.17869499 -0.29306251
-0.11789799 -0.17870332 -0.293071
-0.11775183 -0.17867666 -0.29306316
-0.11747134 -0.17869133 -0.29304066
-0.117206 -0.17869933 -0.29303533
-0.117082 -0.17872626 -0.29302198
-0.11686425 -0.1787705 -0.29301676
-0.1166095 -0.1787035 -0.293026
-0.1164475 -0.17870601 -0.29302701
-0.1162865 -0.17869724 -0.29300874
-0.11606801 -0.17868087 -0.29300728
-0.1159006 -0.17869881 -0.29300979
-0.115503 -0.17868499 -0.29301
-0.115144 -0.178702 -0.29301101
-0.1148973 -0.17865799 -0.29300329
-0.114782 -0.17861301 -0.29300401
-0.098520339 -0.17868133 -0.29302633
-0.120694 -0.178497 -0.29318702
-0.12021401 -0.17847733 -0.29316235
-0.11988856 -0.17849332 -0.29314199
-0.11973701 -0.1785225 -0.2931245
-0.1195088 -0.178505 -0.29309139
-0.1193148 -0.1785128 -0.29309601
-0.1191765 -0.178497 -0.29309201
-0.11892 -0.178509 -0.29308799
-0.118696 -0.17848884 -0.29309282
-0.11851072 -0.17850743 -0.29311642
-0.118396 -0.178468 -0.29309797
-0.118041 -0.17851667 -0.29307833
-0.11788789 -0.17852433 -0.29308665
-0.11774226 -0.178497 -0.29306775
-0.117459 -0.17847633 -0.29306135
-0.11712285 -0.178499 -0.29304472
-0.11688637 -0.17849283 -0.29304409
-0.11669567 -0.17851855 -0.29303056
-0.116502 -0.1785112 -0.293028
-0.11628234 -0.17848735 -0.29301932
-0.1161176 -0.17848602 -0.29301441
-0.11591012 -0.17849088 -0.29302913
-0.115697 -0.17842899 -0.29300001
-0.11549399 -0.178506 -0.29300734
-0.115134 -0.17852168 -0.29301968
-0.1148756 -0.1784914 -0.29301482
-0.114776 -0.178506 -0.29301399
-0.098511994 -0.178501 -0.29301399
-0.120684 -0.17831798 -0.29319501
-0.1205635 -0.178286 -0.29318699
-0.12020449 -0.178297 -0.29316401
-0.119877 -0.17827824 -0.29315355
-0.11977033 -0.17828567 -0.293134
-0.11951233 -0.17830282 -0.29310486
-0.11929516 -0.17831232 -0.29310417
-0.119167 -0.178317 -0.29309267
-0.11891034 -0.17832899 -0.29309833
-0.11867519 -0.17828819 -0.29309458
-0.11851784 -0.17828034 -0.29311067
-0.11838634 -0.17828865 -0.29309466
-0.11802834 -0.17829998 -0.293102
-0.11787578 -0.17830822 -0.29309845
-0.117732 -0.17831701 -0.29308298
-0.1174495 -0.178297 -0.29305899
-0.1171208 -0.1782866 -0.2930668
-0.11690199 -0.17828919 -0.29305932
-0.11671383 -0.17829254 -0.29304221
-0.11650717 -0.1783095 -0.29303652
-0.1162875 -0.17831881 -0.29302466
-0.11612581 -0.17831181 -0.29304081
-0.1158942 -0.178295 -0.29303122
-0.115689 -0.178285 -0.29301235
-0.115482 -0.17829067 -0.29302332
-0.11512268 -0.17830634 -0.29301265
-0.114861 -0.17832986 -0.2930243
-0.114766 -0.17832701 -0.29302466
-0.09850166 -0.17831902 -0.29302233
-0.120677 -0.178174 -0.29319501
-0.120194 -0.17811799 -0.29318431
-0.11986735 -0.17809834 -0.293152
-0.1197605 -0.17810699 -0.29314199
-0.11950051 -0.17808752 -0.29311183
-0.11928317 -0.17809767 -0.2931135
-0.11915467 -0.178102 -0.29311332
-0.11890033 -0.178113 -0.29307035
-0.118686 -0.178115 -0.293107
-0.1185085 -0.178101 -0.2931025
-0.118375 -0.17810801 -0.29312551
-0.11801633 -0.17808433 -0.29311132
-0.11787274 -0.17810127 -0.29309922
-0.11773072 -0.17808957 -0.29309842
-0.117441 -0.17811699 -0.29304466
-0.1171322 -0.17811279 -0.29306719
-0.11690316 -0.17810167 -0.2930665
-0.11670263 -0.17808983 -0.29305255
-0.11649584 -0.17809349 -0.29303801
-0.11627533 -0.17810249 -0.29303667
-0.11610533 -0.17811032 -0.29305282
-0.1159 -0.17812167 -0.29303265
-0.115679 -0.178105 -0.2930125
-0.11547067 -0.178074 -0.29302335
-0.11511 -0.178091 -0.29304132
-0.11485937 -0.17809375 -0.29302189
-0.11475467 -0.17811067 -0.29302466
-0.098490663 -0.17810333 -0.29301167
-0.11987472 -0.17792928 -0.29315659
-0.11976941 -0.17790902 -0.29316121
-0.11947501 -0.17788719 -0.29311159
-0.11927149 -0.17788218 -0.29311684
-0.11914267 -0.17788666 -0.29312468
-0.118888 -0.17789833 -0.29308465
-0.11866567 -0.17791416 -0.29309949
-0.1184985 -0.177921 -0.29311767
-0.11836667 -0.17792867 -0.29310867
-0.118007 -0.17790499 -0.2931025
-0.11788467 -0.17787667 -0.29309401
-0.11773566 -0.17788233 -0.29309833
-0.11742833 -0.17790098 -0.29306665
-0.11711184 -0.17791234 -0.29305968
-0.11689399 -0.17792167 -0.29306233
-0.11669949 -0.17790189 -0.29306519
-0.1165002 -0.17789119 -0.2930634
-0.11628243 -0.17787488 -0.29305759
-0.11609382 -0.17789483 -0.29305997
-0.11588734 -0.17790577 -0.29305699
-0.11566967 -0.17792499 -0.29301667
-0.1154615 -0.177894 -0.29302001
-0.115103 -0.177948 -0.29302499
-0.11487456 -0.17789713 -0.29302046
-0.11477667 -0.17784302 -0.2930173
-0.120174 -0.17775799 -0.29319999
-0.11987484 -0.17770316 -0.29316118
-0.119764 -0.177707 -0.29315832
-0.119495 -0.17771299 -0.29312983
-0.11926175 -0.17770225 -0.29312748
-0.119133 -0.177707 -0.29313201
-0.11887533 -0.177683 -0.29311669
-0.1186658 -0.17771241 -0.29309258
-0.11850315 -0.17769444 -0.29311329
-0.11835533 -0.17771299 -0.29310799
-0.118002 -0.177797 -0.29310599
-0.117915 -0.17769401 -0.29310635
-0.11771772 -0.17768785 -0.29309943
-0.11741667 -0.17768498 -0.293075
-0.1171 -0.17769651 -0.29306534
-0.11688166 -0.17770568 -0.29307544
-0.11669637 -0.177715 -0.29306218
-0.11655401 -0.17769501 -0.29307902
-0.11629983 -0.17770384 -0.29306212
-0.11608183 -0.17767884 -0.29307202
-0.115885 -0.17769888 -0.29306939
-0.115693 -0.17768724 -0.29303125
-0.115452 -0.17771433 -0.29301599
-0.11487775 -0.17770551 -0.29301175
-0.1147542 -0.17768998 -0.29302061
-0.114573 -0.177655 -0.293006
-0.120159 -0.17747 -0.29319701
-0.11986384 -0.17748749 -0.29315352
-0.11975316 -0.17749166 -0.293147
-0.119544 -0.17750733 -0.29313001
-0.11929989 -0.17752098 -0.29312733
-0.11912367 -0.177527 -0.29312465
-0.1188655 -0.177503 -0.29312399
-0.11869333 -0.17747933 -0.29311299
-0.11851455 -0.17748843 -0.2931079
-0.118343 -0.17749698 -0.29312769
-0.11790577 -0.17751423 -0.29310191
-0.1177225 -0.17751262 -0.29311025
-0.1174065 -0.177505 -0.29308552
-0.117088 -0.17748034 -0.29307702
-0.116879 -0.17749873 -0.29308775
-0.11669467 -0.17750449 -0.29307383
-0.11655775 -0.17749725 -0.29308698
-0.11631558 -0.17753328 -0.29308113
-0.11611366 -0.17749684 -0.2930885
-0.1158936 -0.1774876 -0.29306719
-0.11571834 -0.17748499 -0.29305232
-0.11543933 -0.177498 -0.29303899
-0.115079 -0.177478 -0.29302001
-0.11486834 -0.17752568 -0.29301283
-0.114756 -0.17751598 -0.29301742
-0.114563 -0.17747401 -0.29301235
-0.114229 -0.177414 -0.293001
-0.114118 -0.177541 -0.29300433
-0.098458 -0.177488 -0.29301453
-0.11984541 -0.177286 -0.29317561
-0.11973619 -0.1772902 -0.29317197
-0.11953133 -0.17729099 -0.29315636
-0.11933383 -0.17730249 -0.2931385
-0.11915434 -0.17731051 -0.29313067
-0.11885667 -0.177323 -0.29311335
-0.11868399 -0.17730001 -0.29310697
-0.11849214 -0.1772937 -0.29311743
-0.11833167 -0.17728101 -0.29311967
-0.11789411 -0.17729834 -0.29310745
-0.11770567 -0.17730731 -0.29309735
-0.117401 -0.177397 -0.293082
-0.11739551 -0.17728899 -0.29308149
-0.11707875 -0.17730051 -0.29307026
-0.116886 -0.17728759 -0.29308382
-0.11671499 -0.17728448 -0.29310241
-0.11656233 -0.17729901 -0.29307202
-0.116322 -0.17730618 -0.29310116
-0.11610354 -0.17731634 -0.2930989
-0.1158998 -0.1773138 -0.29307517
-0.1156926 -0.17728481 -0.2930612
-0.115428 -0.17728233 -0.29303968
-0.11506967 -0.17729867 -0.29301965
-0.11485634 -0.17730983 -0.29302883
-0.11473951 -0.17731567 -0.29302734
-0.114503 -0.17728467 -0.29300633
-0.098448336 -0.17730732 -0.29301736
-0.1198496 -0.17711261 -0.29318541
-0.11973621 -0.17711601 -0.29318559
-0.11952 -0.17707498 -0.29314768
-0.11932234 -0.17708652 -0.29314235
-0.119143 -0.1770945 -0.29313067
-0.11884501 -0.17710733 -0.29311532
-0.118674 -0.17712002 -0.29312435
-0.11850487 -0.17711923 -0.29311284
-0.1183225 -0.177101 -0.293118
-0.11788245 -0.17708246 -0.29311678
-0.1176929 -0.17709078 -0.29311848
-0.11738599 -0.177109 -0.29308233
-0.11706866 -0.17712051 -0.29308268
-0.1168924 -0.1771144 -0.2930924
-0.11669379 -0.1770848 -0.29311419
-0.11654983 -0.17708282 -0.29309484
-0.11631 -0.17709017 -0.29311281
-0.11610388 -0.17710911 -0.29310361
-0.11589814 -0.17710172 -0.2930837
-0.1157122 -0.177109 -0.29307717
-0.115418 -0.177102 -0.293053
-0.11505699 -0.17708234 -0.29303899
-0.11484467 -0.17709385 -0.29303065
-0.11472666 -0.17709868 -0.29305699
-0.11454467 -0.17711501 -0.29300633
-0.114282 -0.1771102 -0.29300761
-0.114125 -0.17709599 -0.2930055
-0.113949 -0.17710549 -0.29300499
-0.098440997 -0.177163 -0.29300901
-0.119801 -0.176985 -0.29318899
-0.11972966 -0.17692733 -0.29319298
-0.11950999 -0.17689499 -0.29316902
-0.11931275 -0.1769065 -0.29314423
-0.11913083 -0.17687851 -0.29314965
-0.118834 -0.176892 -0.29311302
-0.11866134 -0.17690301 -0.293147
-0.11849413 -0.17692126 -0.29312238
-0.1183345 -0.1769025 -0.29312074
-0.11791125 -0.176901 -0.29310051
-0.11769949 -0.17688902 -0.29312161
-0.117374 -0.17689401 -0.29308864
-0.11705717 -0.1769045 -0.29308483
-0.1168735 -0.17691301 -0.29310283
-0.1167048 -0.1769087 -0.29311249
-0.1165395 -0.17690225 -0.29311627
-0.1162888 -0.17688861 -0.29313001
-0.116124 -0.17688183 -0.29312217
-0.11591056 -0.17689466 -0.29308993
-0.11568733 -0.17690901 -0.29306436
-0.11540833 -0.17692232 -0.29305366
-0.1150485 -0.17690299 -0.2930195
-0.11485225 -0.17689501 -0.29303324
-0.11473463 -0.17687288 -0.29306576
-0.114533 -0.176899 -0.29301766
-0.11431501 -0.17691742 -0.29301688
-0.11413575 -0.17689675 -0.29300949
-0.113941 -0.176962 -0.29300249
-0.09843 -0.176945 -0.293001
-0.11973429 -0.17668915 -0.2931923
-0.1195 -0.176715 -0.29317966
-0.11930417 -0.17672749 -0.29312468
-0.11912125 -0.17669874 -0.293152
-0.11882234 -0.17667599 -0.29311833
-0.11865 -0.17668767 -0.29314533
-0.11851266 -0.176695 -0.29312301
-0.11834616 -0.17670299 -0.29312602
-0.11790168 -0.17672133 -0.29310599
-0.11771321 -0.17671511 -0.29311436
-0.117363 -0.176678 -0.29308334
-0.11709767 -0.17668533 -0.29308265
-0.11690622 -0.17669578 -0.29309386
-0.11668409 -0.17670876 -0.29311258
-0.11652901 -0.17672201 -0.29313269
-0.11629939 -0.1767146 -0.29312542
-0.11611424 -0.1767015 -0.29312301
-0.115899 -0.17667888 -0.29309043
-0.1156914 -0.1767056 -0.29307202
-0.11550049 -0.1767045 -0.293044
-0.1153955 -0.176671 -0.29304302
-0.11503967 -0.17672367 -0.29300568
-0.114859 -0.176696 -0.29304799
-0.1147325 -0.17670183 -0.29306051
-0.114521 -0.17668299 -0.29302666
-0.11432183 -0.176691 -0.29302201
-0.11410201 -0.17669968 -0.29301399
-0.1197135 -0.17653775 -0.29319328
-0.11948866 -0.17649966 -0.29317167
-0.11929216 -0.17651151 -0.29314068
-0.119111 -0.17651866 -0.29316536
-0.118811 -0.176495 -0.29315251
-0.1186395 -0.176507 -0.29316801
-0.1185005 -0.17647903 -0.29314449
-0.118335 -0.17648734 -0.29312399
-0.11789048 -0.17650551 -0.29310265
-0.11769217 -0.17651474 -0.29309812
-0.11735401 -0.176498 -0.29307199
-0.117088 -0.176505 -0.29309499
-0.11689477 -0.17648001 -0.29310033
-0.11669811 -0.17648989 -0.29312313
-0.11654422 -0.17650524 -0.29311633
-0.11627851 -0.17651349 -0.29313684
-0.11610534 -0.176522 -0.29311669
-0.11588899 -0.17649901 -0.29309848
-0.115739 -0.176504 -0.29308999
-0.11559267 -0.17648666 -0.29304102
-0.11538566 -0.17649101 -0.29305002
-0.11502866 -0.17650799 -0.29300201
-0.11485001 -0.176516 -0.29304564
-0.11472355 -0.17652212 -0.29304641
-0.114511 -0.176503 -0.29303002
-0.1143008 -0.1764898 -0.29303521
-0.11410162 -0.17649212 -0.29302928
-0.113954 -0.17641899 -0.29302549
-0.113758 -0.17650001 -0.29301634
-0.098405004 -0.176475 -0.29300499
-0.119477 -0.176284 -0.29317567
-0.11927999 -0.1762955 -0.29315415
-0.11909967 -0.17630267 -0.29316798
-0.118804 -0.17635199 -0.29314199
-0.118672 -0.1763065 -0.29316276
-0.11849049 -0.17629901 -0.29314524
-0.118315 -0.17628619 -0.2931312
-0.11787916 -0.17628966 -0.29310435
-0.1176966 -0.17630449 -0.29311362
-0.11759751 -0.17627099 -0.29309249
-0.117344 -0.176318 -0.29308668
-0.11707801 -0.17632568 -0.293098
-0.1169026 -0.17630699 -0.2931
-0.11669425 -0.17629176 -0.29314226
-0.11653333 -0.17628966 -0.29310402
-0.11626684 -0.17629766 -0.29314101
-0.1160925 -0.17630534 -0.29314598
-0.11590214 -0.17632771 -0.29311758
-0.115756 -0.1763092 -0.2931034
-0.115583 -0.17630699 -0.293046
-0.11537466 -0.17627533 -0.29304266
-0.11501601 -0.17629135 -0.29302868
-0.11483833 -0.17630066 -0.29304302
-0.11471222 -0.17630599 -0.29304776
-0.11450133 -0.176323 -0.29304066
-0.11431079 -0.17631581 -0.29304239
-0.114124 -0.17630126 -0.29304975
-0.1139382 -0.17628981 -0.29304022
-0.11374601 -0.176284 -0.29302499
-0.098395668 -0.17629401 -0.29300833
-0.11946701 -0.17610399 -0.29318699
-0.1192675 -0.17607851 -0.29317883
-0.11908817 -0.17608701 -0.2931695
-0.118705 -0.17610599 -0.29315051
-0.118481 -0.17611916 -0.293147
-0.1183226 -0.17611198 -0.29315522
-0.1178596 -0.17608881 -0.29310921
-0.117695 -0.17607976 -0.29313132
-0.117587 -0.17609 -0.29311731
-0.11733267 -0.176102 -0.29308766
-0.117066 -0.176109 -0.29311267
-0.11691783 -0.17611901 -0.29309964
-0.11671218 -0.17612018 -0.29315174
-0.11651488 -0.176083 -0.29312503
-0.11625601 -0.17608233 -0.29313567
-0.116081 -0.17608999 -0.29314482
-0.11590666 -0.17610033 -0.29313615
-0.1157525 -0.17610751 -0.29310402
-0.115573 -0.17612635 -0.29305634
-0.115366 -0.17609599 -0.29303449
-0.11500499 -0.17607565 -0.29302132
-0.11482733 -0.176085 -0.29304168
-0.11470078 -0.17609078 -0.29305089
-0.114489 -0.176107 -0.29305333
-0.11428967 -0.17611468 -0.29305866
-0.11411417 -0.17612118 -0.29306033
-0.1139462 -0.1761158 -0.29304478
-0.113736 -0.17610399 -0.29302901
-0.098383337 -0.17607665 -0.29301569
-0.119461 -0.17599601 -0.29319799
-0.119258 -0.17589927 -0.2931785
-0.1190785 -0.17590699 -0.29317024
-0.11869282 -0.17588983 -0.293167
-0.1184695 -0.1759035 -0.29315099
-0.11830249 -0.17591101 -0.29316801
-0.11786599 -0.175914 -0.29314241
-0.11768517 -0.17590034 -0.29313317
-0.117576 -0.17587501 -0.29310533
-0.11732101 -0.17588599 -0.29309833
-0.11705466 -0.17589401 -0.29311368
-0.11690534 -0.17590283 -0.29312482
-0.11669425 -0.17591216 -0.29314664
-0.11651971 -0.1759087 -0.29312271
-0.116294 -0.175899 -0.2931475
-0.11610156 -0.17589386 -0.29313371
-0.11589666 -0.17588516 -0.29310867
-0.11574101 -0.175892 -0.2931025
-0.115562 -0.17591101 -0.29304233
-0.11535499 -0.17591535 -0.29305732
-0.1149065 -0.1759005 -0.29303649
-0.11468934 -0.17587501 -0.2930491
-0.11447867 -0.17589132 -0.29303536
-0.11427832 -0.17589916 -0.2930555
-0.11410299 -0.17590548 -0.29305449
-0.113927 -0.175915 -0.29304218
-0.113727 -0.17592435 -0.2930223
-0.113524 -0.175869 -0.29300001
-0.11927425 -0.17573726 -0.293176
-0.11910087 -0.17571662 -0.2931774
-0.1187695 -0.175704 -0.2931475
-0.11850323 -0.17568468 -0.29317677
-0.118291 -0.17569534 -0.29317331
-0.1178562 -0.17572701 -0.2931436
-0.1176878 -0.1757126 -0.29314539
-0.11756501 -0.175694 -0.29313099
-0.11731 -0.175706 -0.29311699
-0.117043 -0.175678 -0.29311299
-0.11689367 -0.17568684 -0.29313049
-0.11668283 -0.17569649 -0.2931484
-0.11650199 -0.17571378 -0.29312325
-0.11628433 -0.17571901 -0.29314867
-0.11611425 -0.17571926 -0.29314077
-0.11587679 -0.17568401 -0.29312479
-0.11572983 -0.17567633 -0.2931045
-0.11555067 -0.175695 -0.29304966
-0.115343 -0.17569934 -0.29306766
-0.11489683 -0.1757205 -0.29304114
-0.11467917 -0.17569466 -0.29306865
-0.11446767 -0.17567533 -0.29302999
-0.11426734 -0.17568283 -0.29305401
-0.114092 -0.17568916 -0.29304618
-0.113916 -0.1756985 -0.29303816
-0.11371567 -0.175708 -0.29302165
-0.113382 -0.175731 -0.29300299
-0.119286 -0.175503 -0.29319367
-0.11910066 -0.17550901 -0.29318011
-0.118759 -0.175524 -0.29316834
-0.11848128 -0.17549001 -0.29317275
-0.118279 -0.1754785 -0.29318249
-0.117878 -0.17549334 -0.29314467
-0.11769525 -0.1755024 -0.29316226
-0.117556 -0.17551434 -0.29313132
-0.11730033 -0.17552532 -0.29312566
-0.117034 -0.175497 -0.293107
-0.1168738 -0.17548499 -0.29312921
-0.11669833 -0.17547679 -0.29312602
-0.11651659 -0.17549591 -0.29312733
-0.11627301 -0.175502 -0.29315367
-0.11609334 -0.17551212 -0.29313335
-0.1158848 -0.17550921 -0.2931186
-0.11572126 -0.17549625 -0.2930795
-0.11553833 -0.17547834 -0.29306635
-0.11533167 -0.17548335 -0.29306832
-0.11497466 -0.17549968 -0.29302499
-0.11470208 -0.17551292 -0.29304543
-0.114457 -0.175495 -0.29304999
-0.1142575 -0.17550251 -0.29305574
-0.1140728 -0.17548801 -0.29304141
-0.11390501 -0.17548268 -0.29302737
-0.113705 -0.17549233 -0.29301468
-0.119271 -0.17521501 -0.293199
-0.11910037 -0.17530173 -0.29318112
-0.118999 -0.17522401 -0.29319099
-0.118747 -0.175308 -0.29317865
-0.118508 -0.17532399 -0.29317141
-0.11829539 -0.17529102 -0.29317901
-0.11786634 -0.17527767 -0.29315367
-0.11771411 -0.17528611 -0.29315123
-0.1175695 -0.175294 -0.29314867
-0.11728901 -0.17531 -0.29312298
-0.117024 -0.17531733 -0.293111
-0.1168836 -0.1753116 -0.29312059
-0.11668933 -0.17529701 -0.29311916
-0.11650609 -0.17528008 -0.29310873
-0.11626234 -0.17528665 -0.293125
-0.11609388 -0.17530525 -0.29310903
-0.11588586 -0.17529757 -0.29309183
-0.11571183 -0.17531581 -0.29308531
-0.115529 -0.17529801 -0.29305801
-0.1153235 -0.17530349 -0.29304802
-0.11496267 -0.17528333 -0.29302967
-0.11469125 -0.17529674 -0.29303584
-0.114448 -0.17531432 -0.29304335
-0.114274 -0.17533875 -0.29304326
-0.114115 -0.17530657 -0.29303598
-0.11389574 -0.175302 -0.29302126
-0.113693 -0.17527501 -0.29301932
-0.1192655 -0.17510751 -0.29317901
-0.11912167 -0.17507617 -0.29316115
-0.118992 -0.17507935 -0.29318765
-0.11873633 -0.17509167 -0.29317331
-0.11851484 -0.17510734 -0.29315948
-0.11830345 -0.17511623 -0.29318088
-0.117856 -0.175097 -0.29316801
-0.11770484 -0.17510568 -0.29314885
-0.11755817 -0.17507768 -0.29314783
-0.11727733 -0.17509365 -0.293129
-0.11701233 -0.17510067 -0.29312301
-0.11686417 -0.1751105 -0.29311416
-0.11667944 -0.17511645 -0.29312167
-0.11649649 -0.17509937 -0.29310825
-0.116254 -0.175106 -0.29311401
-0.11611234 -0.17507817 -0.29311183
-0.1159 -0.17508954 -0.29310179
-0.11570051 -0.17509983 -0.29308268
-0.11552 -0.17511833 -0.29305166
-0.11531433 -0.17512302 -0.29303703
-0.114953 -0.17510299 -0.293028
-0.11470767 -0.17507869 -0.29304668
-0.11451516 -0.17509185 -0.29305002
-0.11428633 -0.17510401 -0.29303801
-0.11410432 -0.17511146 -0.29303709
