# .PCD v0.7 - Point Cloud Data file format
VERSION 0.7
FIELDS x y z
SIZE 4 4 4
TYPE F F F
COUNT 1 1 1
WIDTH 1412
HEIGHT 1
VIEWPOINT 0 0 0 1 0 0 0
POINTS 1412
DATA ascii
-0.096352004 0.151691 -0.22938333
-0.096130334 0.151677 -0.22926199
-0.095879003 0.15169951 -0.229324
-0.095580667 0.15172066 -0.22932167
-0.095203504 0.15166999 -0.22933099
-0.095200002 0.151776 -0.22931901
-0.094757996 0.15168066 -0.22928132
-0.094317496 0.151693 -0.22922701
-0.093893327 0.15171 -0.22921534
-0.093385004 0.15168333 -0.22921665
-0.10634234 0.15190333 -0.22933467
-0.106073 0.151878 -0.22923499
-0.1058185 0.151897 -0.22923151
-0.10549233 0.15191567 -0.22923966
-0.10510267 0.15189433 -0.22923733
-0.1046785 0.151906 -0.229242
-0.10423066 0.15191634 -0.22927167
-0.10371801 0.15189433 -0.22929633
-0.10327101 0.15187199 -0.22936366
-0.102811 0.15191267 -0.22937901
-0.102402 0.151894 -0.229397
-0.1011105 0.151879 -0.2293925
-0.096343003 0.151907 -0.22938435
-0.096120663 0.15189433 -0.22928067
-0.095871001 0.15188032 -0.22934
-0.095573999 0.15189999 -0.22931699
-0.095194004 0.151922 -0.229322
-0.094750337 0.151896 -0.22926901
-0.094310999 0.15187167 -0.22922267
-0.093886003 0.1518905 -0.22921801
-0.093376666 0.15189867 -0.22921534
-0.10633466 0.152117 -0.22931902
-0.106064 0.15209334 -0.22924167
-0.10581066 0.15207633 -0.22924066
-0.10548399 0.152096 -0.229267
-0.105095 0.15210867 -0.229223
-0.104671 0.15208535 -0.22925566
-0.1042245 0.152095 -0.2292565
-0.10371033 0.15210833 -0.22927433
-0.10326334 0.15208699 -0.22934234
-0.10280333 0.152127 -0.22936366
-0.102392 0.152145 -0.2293915
-0.1011035 0.15205801 -0.22939199
-0.096334331 0.152123 -0.22938566
-0.096111991 0.15211032 -0.22928701
-0.095863342 0.152095 -0.22932433
-0.095566668 0.15208 -0.22931999
-0.0951875 0.152099 -0.229313
-0.094742 0.15211201 -0.22926433
-0.0938785 0.152105 -0.229202
-0.093370996 0.152042 -0.22920699
-0.1063285 0.15229499 -0.229307
-0.106056 0.15230767 -0.22924466
-0.1058035 0.152255 -0.22923701
-0.105799 0.152363 -0.229242
-0.10547667 0.15227599 -0.22927065
-0.105087 0.15232301 -0.22921568
-0.10466266 0.1523 -0.229249
-0.104218 0.152273 -0.22923833
-0.10370067 0.15232433 -0.22929601
-0.10325567 0.15230034 -0.22932465
-0.10279649 0.15230599 -0.22935951
-0.10238534 0.15232433 -0.22938101
-0.101092 0.152346 -0.229388
-0.096328497 0.152302 -0.22936201
-0.096103333 0.15232567 -0.22929001
-0.095856994 0.152309 -0.22928166
-0.095559336 0.15229499 -0.22930266
-0.095180996 0.152279 -0.22930332
-0.094734333 0.15232633 -0.22925
-0.0942965 0.152266 -0.22920799
-0.10632033 0.15247567 -0.22932166
-0.106047 0.15252399 -0.22925036
-0.1057955 0.1524695 -0.229238
-0.10546901 0.15249033 -0.22926001
-0.1050785 0.152503 -0.229233
-0.104657 0.1524775 -0.229215
-0.10420833 0.15248901 -0.22926767
-0.10369501 0.152502 -0.22926401
-0.103248 0.15251534 -0.22930966
-0.102791 0.152484 -0.22933167
-0.1023805 0.152501 -0.229351
-0.10108633 0.15252334 -0.22936733
-0.096321322 0.15248235 -0.22937368
-0.096096002 0.15250599 -0.2292985
-0.095849998 0.15252201 -0.22925466
-0.09555167 0.152509 -0.22928166
-0.095173992 0.15249334 -0.22927499
-0.094727501 0.152505 -0.229243
-0.106312 0.15269168 -0.22932567
-0.10604 0.15270101 -0.2292445
-0.105785 0.15275499 -0.22921599
-0.10546199 0.15270235 -0.22922701
-0.105072 0.15268235 -0.22923
-0.104647 0.15272766 -0.22921501
-0.104202 0.152669 -0.22925299
-0.104198 0.152775 -0.22925401
-0.10368866 0.15267999 -0.22925533
-0.1032425 0.152693 -0.229288
-0.102782 0.15270035 -0.22934532
-0.102372 0.152683 -0.22937232
-0.102016 0.15273599 -0.229396
-0.10108 0.152703 -0.22936049
-0.100834 0.152731 -0.22939999
-0.096314333 0.15269567 -0.22934198
-0.096089661 0.15268467 -0.22927599
-0.095843494 0.15270101 -0.22924399
-0.095543332 0.15272467 -0.22927767
-0.095165998 0.15270866 -0.22926299
-0.094721667 0.152684 -0.229212
-0.093856499 0.15267999 -0.229202
-0.10630533 0.15290333 -0.22928934
-0.106034 0.15288033 -0.22922967
-0.1057785 0.15290049 -0.2292465
-0.10545167 0.15292066 -0.22926833
-0.105062 0.15296599 -0.229204
-0.1046405 0.152907 -0.229205
-0.1041945 0.1528825 -0.22923401
-0.10367966 0.152896 -0.22926766
-0.10323399 0.15287267 -0.22930099
-0.10277399 0.15291466 -0.229331
-0.102364 0.15289767 -0.22936434
-0.10201033 0.15287967 -0.229394
-0.10107467 0.15288 -0.22932066
-0.097374 0.15290767 -0.22938466
-0.096307993 0.15290867 -0.22929567
-0.096082002 0.1529 -0.22926401
-0.095837675 0.15287967 -0.22922231
-0.095536999 0.152904 -0.229267
-0.095157675 0.152924 -0.22926201
-0.0947145 0.15286399 -0.22921649
-0.106505 0.153079 -0.22939032
-0.10629633 0.15311967 -0.229303
-0.10602599 0.15309501 -0.22922367
-0.10577133 0.15307868 -0.22924034
-0.105445 0.153099 -0.22925501
-0.10505533 0.15311199 -0.229221
-0.10367099 0.15311199 -0.22926766
-0.10322601 0.153088 -0.22929935
-0.1027675 0.15309399 -0.2293255
-0.10235833 0.15310933 -0.22930799
-0.102006 0.153023 -0.229379
-0.10106567 0.15309633 -0.229324
-0.10082066 0.15308867 -0.229389
-0.097365342 0.153125 -0.22939335
-0.096298993 0.15312634 -0.22930966
-0.096074335 0.15311533 -0.22925501
-0.095828332 0.153097 -0.22923367
-0.095530666 0.153083 -0.22925466
-0.095150501 0.15310499 -0.2292635
-0.0933275 0.153157 -0.22920349
-0.106499 0.15322299 -0.229399
-0.106289 0.153299 -0.229306
-0.10601733 0.15331 -0.229222
-0.105763 0.153294 -0.22923733
-0.105439 0.15327667 -0.22924201
-0.10504734 0.15332633 -0.22921367
-0.104178 0.153345 -0.229203
-0.10366333 0.15332533 -0.22925399
-0.103218 0.15330233 -0.22928534
-0.10276034 0.153273 -0.22932033
-0.102348 0.15332668 -0.22934334
-0.1012845 0.153294 -0.22938499
-0.10105567 0.15331499 -0.22935967
-0.10081267 0.153304 -0.22937334
-0.097358495 0.153303 -0.22937849
-0.096496001 0.15336999 -0.229396
-0.096291497 0.15330701 -0.22931699
-0.096067503 0.15329349 -0.229239
-0.095820665 0.153312 -0.22922499
-0.095522337 0.153299 -0.22925067
-0.095144995 0.15328267 -0.22923267
-0.106282 0.15347899 -0.22930968
-0.10601 0.153524 -0.22920567
-0.105757 0.1534715 -0.22922
-0.10543001 0.15349267 -0.22924601
-0.10504051 0.153505 -0.229206
-0.104172 0.15348899 -0.22920699
-0.1036555 0.15350699 -0.22927099
-0.10320999 0.15351734 -0.22927968
-0.10275333 0.153487 -0.229298
-0.102342 0.153506 -0.22932699
-0.1019865 0.15349101 -0.229396
-0.101279 0.15347199 -0.22936366
-0.1010485 0.153493 -0.229359
-0.10080434 0.15351968 -0.22937167
-0.097352006 0.15348367 -0.22937667
-0.096747339 0.153524 -0.22939433
-0.096491002 0.153514 -0.22939666
-0.09628433 0.15348665 -0.22931235
-0.096062005 0.15347233 -0.22922367
-0.095812999 0.153492 -0.229233
-0.095515333 0.153513 -0.22921832
-0.095136672 0.15349834 -0.22922599
-0.094687998 0.15354601 -0.229206
-0.10627367 0.15369433 -0.22930634
-0.10600249 0.153704 -0.22921151
-0.105746 0.15375701 -0.22921
-0.10542133 0.153708 -0.22925098
-0.10503334 0.15368466 -0.22921066
-0.104163 0.153705 -0.229214
-0.103649 0.15368535 -0.22926132
-0.103204 0.153696 -0.22926101
-0.10274533 0.15370101 -0.22928067
-0.10233434 0.153686 -0.22933699
-0.101978 0.153706 -0.229395
-0.10127232 0.15368499 -0.22932668
-0.10104233 0.15367234 -0.22934432
-0.1007985 0.153697 -0.22935399
-0.097343676 0.15369833 -0.229375
-0.096742004 0.1537015 -0.229367
-0.096483499 0.153694 -0.229397
-0.096276335 0.15370168 -0.22930801
-0.096053667 0.15368767 -0.22921534
-0.095807999 0.153635 -0.2292175
-0.095507503 0.15369301 -0.22924
-0.095126994 0.153715 -0.22924699
-0.094684005 0.1536545 -0.2292095
-0.10626533 0.15390833 -0.229302
-0.10599566 0.153882 -0.22920901
-0.10574 0.153901 -0.22922051
-0.105414 0.15392201 -0.22923499
-0.1046 0.153946 -0.229202
-0.104156 0.1538855 -0.229215
-0.10364167 0.153899 -0.22924234
-0.10319767 0.15387499 -0.22925033
-0.102737 0.153917 -0.22928567
-0.102327 0.153899 -0.22931068
-0.10197201 0.15388401 -0.22937532
-0.101264 0.1539 -0.22932601
-0.10103533 0.15388633 -0.22931801
-0.10079267 0.15387499 -0.22932701
-0.097335666 0.153914 -0.22936533
-0.096734338 0.15388267 -0.22937401
-0.09647733 0.15387134 -0.22938132
-0.096267998 0.15391766 -0.229306
-0.096043497 0.15393999 -0.22921801
-0.095499665 0.15387399 -0.22924833
-0.095119506 0.15389651 -0.229267
-0.10625733 0.15412335 -0.22929533
-0.10598699 0.154098 -0.22921433
-0.105733 0.154081 -0.229219
-0.1054085 0.154099 -0.229205
-0.105017 0.15411401 -0.22920366
-0.103634 0.15411401 -0.22922766
-0.10318867 0.15409066 -0.22925667
-0.1027305 0.15409601 -0.2292785
-0.10231867 0.15411501 -0.22930533
-0.10196367 0.15410034 -0.22937334
-0.1016735 0.1541145 -0.22935399
-0.10125434 0.154118 -0.229342
-0.10102733 0.154101 -0.22930668
-0.100784 0.154092 -0.22933267
-0.097328 0.15412898 -0.22934999
-0.096725665 0.154099 -0.22938001
-0.096469671 0.15408601 -0.22936167
-0.0962625 0.1540955 -0.22927499
-0.096036665 0.154119 -0.22920901
-0.095793001 0.154029 -0.229202
-0.095491 0.154091 -0.22925834
-0.095112331 0.15407567 -0.229261
-0.106455 0.154368 -0.229376
-0.10625049 0.154302 -0.22929299
-0.10597867 0.15431267 -0.229212
-0.105725 0.15429634 -0.22921534
-0.1054025 0.15424401 -0.2292185
-0.105398 0.154351 -0.229205
-0.103624 0.15439799 -0.229205
-0.103181 0.15430467 -0.22924601
-0.102723 0.15427534 -0.22927968
-0.102313 0.15432633 -0.22925167
-0.10195733 0.154312 -0.22932434
-0.10166749 0.1542595 -0.22937
-0.1012475 0.15429649 -0.229341
-0.10102 0.15431499 -0.22928567
-0.10077567 0.15430599 -0.22932667
-0.100429 0.154366 -0.22939201
-0.097321495 0.15430701 -0.22933349
-0.096718006 0.15431499 -0.22936733
-0.096462332 0.154301 -0.22934
-0.096256338 0.15427367 -0.22925299
-0.096029997 0.15429801 -0.22920549
-0.095484667 0.15430267 -0.22920866
-0.095107004 0.1542535 -0.229232
-0.10645133 0.15450966 -0.22934401
-0.10624299 0.15448201 -0.22929966
-0.10597033 0.15452766 -0.22921033
-0.1036185 0.15450799 -0.229224
-0.10317334 0.15451901 -0.22922568
-0.10271499 0.15448999 -0.22927767
-0.10230701 0.154504 -0.22923401
-0.10194833 0.15452766 -0.22933267
-0.101657 0.15451166 -0.22938399
-0.10144433 0.15449865 -0.229375
-0.10124066 0.154476 -0.22933567
-0.101014 0.154493 -0.22926399
-0.10076767 0.15452133 -0.22931634
-0.10042567 0.15450765 -0.22935766
-0.097314663 0.154487 -0.22932799
-0.096710995 0.154494 -0.22936
-0.096453667 0.15451801 -0.22934668
-0.096247338 0.15449101 -0.22926767
-0.095478997 0.154448 -0.229212
-0.106443 0.15469199 -0.22937199
-0.10623568 0.154696 -0.22927099
-0.103613 0.154651 -0.229222
-0.10316651 0.154697 -0.229213
-0.10270701 0.154706 -0.22926533
-0.102299 0.15468566 -0.22925366
-0.10194249 0.154707 -0.22931099
-0.10165133 0.15472366 -0.22933035
-0.10143567 0.15471466 -0.229379
-0.10123434 0.154689 -0.22929168
-0.10100701 0.15467267 -0.22926433
-0.1007615 0.154699 -0.22929201
-0.100416 0.15472566 -0.22938032
-0.097308666 0.15469967 -0.22928433
-0.096704334 0.15467332 -0.22934967
-0.096447498 0.154696 -0.2293275
-0.096240342 0.15470435 -0.22923867
-0.10691366 0.15490668 -0.22938769
-0.10643601 0.154871 -0.22936733
-0.10622833 0.15490967 -0.22925134
-0.10269866 0.15492067 -0.22925834
-0.102291 0.15490033 -0.22924733
-0.101937 0.15488333 -0.22928531
-0.1016445 0.15490299 -0.22931901
-0.10142901 0.15492801 -0.22934933
-0.10122833 0.15490133 -0.22924767
-0.101002 0.154816 -0.229259
-0.1009975 0.15492401 -0.22925749
-0.10075467 0.154879 -0.22929567
-0.10041 0.15490299 -0.22935599
-0.097301006 0.154915 -0.22926867
-0.096697666 0.15488668 -0.22931866
-0.096441001 0.15487534 -0.22931133
-0.096232675 0.15491933 -0.22922266
-0.10690633 0.15512 -0.22936599
-0.106431 0.15508033 -0.229295
-0.10622066 0.15512367 -0.22923668
-0.1026935 0.1550965 -0.22921899
-0.102283 0.15511501 -0.22923468
-0.101929 0.15509801 -0.22927701
-0.10163867 0.15508068 -0.22929634
-0.10142151 0.155108 -0.22935399
-0.10122033 0.15511601 -0.22924167
-0.10099133 0.155102 -0.22923802
-0.10074767 0.15509333 -0.22927201
-0.10040399 0.15508099 -0.22933066
-0.097294003 0.155093 -0.22926
-0.09668833 0.155104 -0.22932868
-0.096433669 0.15508968 -0.22929166
-0.0962255 0.1551 -0.22922799
-0.1068995 0.15529901 -0.229358
-0.10642266 0.155296 -0.22929299
-0.106214 0.155302 -0.22922499
-0.10227499 0.15533 -0.22922499
-0.10192201 0.155312 -0.22925334
-0.10163067 0.15529567 -0.22929066
-0.101415 0.15528734 -0.22934532
-0.1012125 0.15529799 -0.229259
-0.10098333 0.15531701 -0.22922367
-0.10074066 0.155306 -0.22923465
-0.100401 0.155221 -0.229287
-0.1003965 0.155329 -0.2292905
-0.097288668 0.15527099 -0.22923267
-0.096680999 0.15531732 -0.229311
-0.096424997 0.155306 -0.22929233
-0.096220002 0.15524149 -0.2292145
-0.10689366 0.15547635 -0.22932799
-0.10641433 0.15551101 -0.22929466
-0.10621 0.15540799 -0.229215
-0.10191401 0.155527 -0.22924
-0.10162234 0.15551133 -0.22928567
-0.10140733 0.15550067 -0.22932033
-0.101205 0.155478 -0.22926366
-0.10073233 0.15552168 -0.229231
-0.100391 0.155506 -0.22925834
-0.097279668 0.15548867 -0.229239
-0.096675001 0.155497 -0.229293
-0.096419334 0.15551732 -0.22924133
-0.10688633 0.15569 -0.22931235
-0.106408 0.15572333 -0.22925299
-0.101908 0.15570399 -0.22921801
-0.10161433 0.15572633 -0.22927767
-0.101403 0.15567601 -0.22927299
-0.1014 0.155782 -0.22924601
-0.10119867 0.15569 -0.22922134
-0.10097 0.155674 -0.22920799
-0.100728 0.155663 -0.22921801
-0.10038366 0.15572 -0.22923534
-0.097273998 0.15566599 -0.229212
-0.096670002 0.15567298 -0.22924767
-0.096412003 0.15569749 -0.2292435
-0.106879 0.155904 -0.22929466
-0.106403 0.155866 -0.22924601
-0.1064 0.155936 -0.22923601
-0.1016105 0.155901 -0.2292195
-0.101394 0.15592666 -0.22925334
-0.1011925 0.15586901 -0.22920901
-0.1003765 0.1559 -0.229231
-0.096666001 0.15581299 -0.229212
-0.096406996 0.15584099 -0.22922501
-0.10687267 0.15611567 -0.22924767
-0.106399 0.15600801 -0.229215
-0.10160249 0.156047 -0.22925499
-0.101599 0.15615401 -0.229241
-0.101387 0.1561065 -0.22925201
-0.10037 0.15608001 -0.22923131
-0.106866 0.15632801 -0.22921567
-0.10159434 0.15629733 -0.22922333
-0.101383 0.1562475 -0.22922051
-0.100365 0.156223 -0.229219
-0.10159 0.15643901 -0.229205
-0.101278 0.164382 -0.229202
-0.106062 0.16448301 -0.2292815
-0.105851 0.164562 -0.229221
-0.1015585 0.1645215 -0.229287
-0.101268 0.1645035 -0.22930199
-0.101055 0.1644935 -0.229304
-0.1008455 0.164554 -0.22932899
-0.10062 0.164533 -0.229275
-0.1003755 0.164526 -0.22931099
-0.096323997 0.164433 -0.229297
-0.096066505 0.1644565 -0.22927299
-0.095628001 0.164536 -0.22922499
-0.095380001 0.164519 -0.229238
-0.105839 0.164657 -0.229379
-0.105571 0.16465551 -0.22925201
-0.101046 0.164618 -0.22939999
-0.095616996 0.16463099 -0.229379
-0.095371 0.16461 -0.229358
-0.077275999 0.125789 -0.229185
-0.076728001 0.125753 -0.22919799
-0.077928998 0.12598699 -0.229165
-0.077689998 0.125971 -0.229175
-0.077481002 0.125954 -0.22917099
-0.077275001 0.12590599 -0.229102
-0.077013001 0.125893 -0.22906801
-0.076728001 0.1258755 -0.22908449
-0.076398 0.125807 -0.229196
-0.078679003 0.126167 -0.229149
-0.078276664 0.12607867 -0.229123
-0.077928998 0.1261085 -0.229059
-0.077690497 0.12609249 -0.229067
-0.077481501 0.12607551 -0.229045
-0.077275001 0.12602501 -0.22900701
-0.078677334 0.12632 -0.22906733
-0.078275003 0.126233 -0.22903299
-0.077688001 0.12620699 -0.22902
-0.082169995 0.12689801 -0.229182
-0.082383998 0.12717199 -0.229175
-0.082166001 0.12708567 -0.22910933
-0.083535001 0.12734601 -0.22918901
-0.082869001 0.12731451 -0.229157
-0.082610004 0.127335 -0.229175
-0.082381003 0.12732001 -0.22912998
-0.082161002 0.12731034 -0.22903265
-0.084902003 0.127533 -0.22919901
-0.084465995 0.12754551 -0.22917199
-0.084013008 0.12748267 -0.229168
-0.083531 0.12749499 -0.22914201
-0.083126001 0.12751067 -0.22914399
-0.082864329 0.127501 -0.22909667
-0.082606331 0.12748499 -0.22911733
-0.082376502 0.12750649 -0.2290695
-0.084898673 0.12768233 -0.22914033
-0.084462002 0.127694 -0.22913751
-0.084006995 0.12770434 -0.229109
-0.083525993 0.12767966 -0.22909601
-0.083123498 0.12770051 -0.229047
-0.08286 0.1276875 -0.229037
-0.082602002 0.1276705 -0.2290635
-0.082598001 0.12778001 -0.229045
-0.082374997 0.12762 -0.229013
-0.088463999 0.12795299 -0.22919799
-0.084892333 0.127904 -0.229091
-0.084456675 0.127876 -0.22910333
-0.084003001 0.1278905 -0.22905049
-0.083521336 0.12790467 -0.22901399
-0.083119005 0.127848 -0.2290155
-0.082595997 0.127854 -0.229027
-0.088923998 0.128195 -0.22919001
-0.088459335 0.12810034 -0.22917099
-0.088068999 0.12815 -0.22919901
-0.08488667 0.12812567 -0.22903101
-0.084448993 0.12809533 -0.22907434
-0.083997995 0.12803751 -0.229019
-0.088921502 0.128306 -0.229165
-0.088452004 0.12831867 -0.22914167
-0.088064998 0.12829866 -0.22916532
-0.084880002 0.12830749 -0.229009
-0.084443003 0.12831533 -0.22902633
-0.088915668 0.128488 -0.22913666
-0.088446498 0.128501 -0.22911
-0.088057667 0.128517 -0.229128
-0.084438004 0.128462 -0.229004
-0.088907667 0.12870634 -0.22911733
-0.088439338 0.128681 -0.229109
-0.088052005 0.128699 -0.22910351
-0.088899665 0.12892133 -0.22911233
-0.088432007 0.12889899 -0.22908433
-0.088045336 0.12887967 -0.22909068
-0.091803506 0.12910849 -0.229195
-0.090678006 0.12909167 -0.22916134
-0.088893503 0.12910199 -0.22909701
-0.088423669 0.129115 -0.229084
-0.088037334 0.12909567 -0.22908233
-0.091796331 0.129288 -0.22919433
-0.090670668 0.12930767 -0.22914034
-0.088886999 0.12928367 -0.22908168
-0.0884175 0.129296 -0.22906899
-0.088030003 0.12931299 -0.22906834
-0.091788329 0.12950467 -0.229185
-0.0914905 0.12945201 -0.22919901
-0.091087997 0.12954099 -0.229194
-0.090661667 0.12952267 -0.22914965
-0.088880002 0.12950234 -0.22904767
-0.088411331 0.12947667 -0.229046
-0.0880225 0.129493 -0.2290715
-0.092017002 0.129732 -0.229194
-0.091780998 0.129722 -0.22915967
-0.091478497 0.12974 -0.22919801
-0.091078997 0.129757 -0.229195
-0.090654999 0.129703 -0.22914201
-0.088871658 0.12971699 -0.22904801
-0.088403665 0.12969433 -0.22902465
-0.08801534 0.12967199 -0.22906832
-0.092013001 0.129804 -0.22920001
-0.091773495 0.12990001 -0.22917199
-0.091075495 0.12986501 -0.2291885
-0.090647995 0.12988167 -0.22914433
-0.088863999 0.129896 -0.22906101
-0.08839599 0.12991066 -0.22901033
-0.088006996 0.12988733 -0.22906667
-0.091765337 0.130078 -0.22919132
-0.091066495 0.130079 -0.229197
-0.090638004 0.13009466 -0.22917001
-0.088856004 0.130073 -0.22907799
-0.088386327 0.13012433 -0.22903466
-0.088001996 0.130032 -0.229054
-0.087997496 0.13013899 -0.22906101
-0.091758505 0.130257 -0.22919551
-0.090629667 0.13031 -0.22917266
-0.088847995 0.130289 -0.22907567
-0.088378504 0.130302 -0.2290525
-0.087990336 0.13031866 -0.22906299
-0.091748662 0.13050866 -0.22919033
-0.090621501 0.13048801 -0.2291925
-0.08883933 0.130505 -0.22907166
-0.088371664 0.13048233 -0.22904801
-0.087983996 0.1305 -0.229047
-0.090613 0.130702 -0.229197
-0.088830329 0.13071901 -0.22908068
-0.08836367 0.130698 -0.229038
-0.087976336 0.130678 -0.22906299
-0.088824004 0.1309 -0.229073
-0.088355005 0.13091266 -0.22905099
-0.087967992 0.13089333 -0.22906201
-0.071245007 0.13088034 -0.22900666
-0.091729 0.13101199 -0.229193
-0.088815331 0.13107701 -0.22909999
-0.088344663 0.13112468 -0.229092
-0.087959997 0.13111067 -0.22905
-0.071235329 0.13109501 -0.22903268
-0.090585999 0.131386 -0.229193
-0.088805996 0.131291 -0.22911768
-0.088336498 0.131302 -0.22912151
-0.087949663 0.13132232 -0.22908968
-0.071226001 0.131311 -0.22904567
-0.090582505 0.13149449 -0.2291875
-0.088797003 0.13150533 -0.22913432
-0.088330001 0.13148268 -0.22909766
-0.087941498 0.13150001 -0.22912401
-0.071217 0.13152565 -0.22906899
-0.088787995 0.13172001 -0.22915232
-0.088321 0.13169734 -0.22911467
-0.087932996 0.131677 -0.22914499
-0.071209505 0.131706 -0.229076
-0.0887805 0.131899 -0.22916299
-0.088310331 0.13190933 -0.22916301
-0.087924331 0.13189234 -0.229149
-0.071206003 0.131815 -0.22905201
-0.071199998 0.13195901 -0.229057
-0.088773005 0.13207734 -0.22917266
-0.088301331 0.13212366 -0.22917467
-0.087915003 0.13210601 -0.22916865
-0.084729999 0.13215201 -0.229001
-0.071193337 0.13210233 -0.22908266
-0.088764332 0.132292 -0.229176
-0.088294506 0.132305 -0.2291645
-0.087906338 0.132321 -0.22917867
-0.084724002 0.13229533 -0.22900666
-0.084287003 0.13230599 -0.229012
-0.071184337 0.13231868 -0.229092
-0.088757999 0.13243499 -0.229192
-0.088287674 0.13248433 -0.22917099
-0.087898999 0.13250101 -0.22918299
-0.084715001 0.13251035 -0.22902334
-0.084279001 0.13248266 -0.22903633
-0.071177498 0.13249949 -0.229093
-0.084706001 0.132725 -0.22903167
-0.08427 0.132698 -0.22905068
-0.071170002 0.13268 -0.2291
-0.084698498 0.13290299 -0.2290435
-0.084260337 0.13291299 -0.22907199
-0.071159996 0.13289399 -0.22912766
-0.084691338 0.133083 -0.22904433
-0.084253997 0.133093 -0.22905999
-0.083802998 0.133035 -0.229003
-0.083800003 0.13310701 -0.229001
-0.071151994 0.13311134 -0.229127
-0.084682673 0.13329832 -0.22905301
-0.084247001 0.13327301 -0.22906166
-0.082380995 0.1333575 -0.22900799
-0.071141995 0.13332666 -0.22915733
-0.084672332 0.13351201 -0.22908999
-0.084237672 0.13348766 -0.22908033
-0.083784506 0.13350099 -0.22901201
-0.082374498 0.13350001 -0.22902501
-0.071134999 0.133506 -0.22915351
-0.084661998 0.133725 -0.22912633
-0.084228002 0.13370134 -0.22910233
-0.083775997 0.133679 -0.22903366
-0.082624666 0.13369232 -0.22902568
-0.082367003 0.133679 -0.22903867
-0.082136497 0.133698 -0.22900799
-0.071127333 0.13368668 -0.229167
-0.084654003 0.133903 -0.2291555
-0.084218331 0.13391533 -0.22913466
-0.083767332 0.13389367 -0.22904466
-0.082616664 0.13390867 -0.22901499
-0.082358338 0.13389499 -0.229039
-0.082128994 0.13387766 -0.22901332
-0.071117997 0.133903 -0.22918732
-0.084647991 0.13408466 -0.22913599
-0.0842105 0.134096 -0.229138
-0.083759002 0.13411033 -0.22904401
-0.083279006 0.13408767 -0.22901201
-0.082604997 0.134196 -0.22901499
-0.082350008 0.134111 -0.22904168
-0.082119994 0.134093 -0.22901767
-0.071107499 0.13415501 -0.229196
-0.084639005 0.13429965 -0.22914632
-0.08420366 0.13427468 -0.22914399
-0.083750002 0.134325 -0.229048
-0.083273001 0.134231 -0.22900601
-0.082602002 0.134268 -0.229031
-0.082598999 0.13433801 -0.229041
-0.082341 0.13432567 -0.22905068
-0.082111001 0.13430899 -0.22903101
-0.071102999 0.13426299 -0.22919901
-0.084630333 0.13451566 -0.22914733
-0.084194995 0.13449 -0.22914566
-0.083742 0.1345045 -0.22907001
-0.08326 0.134554 -0.22901699
-0.082593329 0.13448399 -0.22903067
-0.082333505 0.134505 -0.22905451
-0.082102664 0.13452367 -0.22903435
-0.071096495 0.134444 -0.229193
-0.084622502 0.13469499 -0.22915751
-0.084186673 0.13470601 -0.22914499
-0.083734661 0.134684 -0.22908433
-0.083253503 0.13469701 -0.22903201
-0.082850002 0.13471501 -0.229003
-0.08258567 0.1347 -0.22901468
-0.082327329 0.13468599 -0.22904134
-0.082095504 0.13470399 -0.229031
-0.084616333 0.13487466 -0.22914134
-0.084176995 0.13492067 -0.22917032
-0.083727002 0.1349 -0.22907032
-0.083246671 0.134877 -0.229029
-0.082842 0.134929 -0.229008
-0.082577497 0.13491601 -0.2290055
-0.082318336 0.13490066 -0.22905467
-0.082088672 0.13488467 -0.22902066
-0.071077995 0.13491499 -0.22919233
-0.084607005 0.13509034 -0.22915733
-0.084169999 0.13510001 -0.22916999
-0.08371833 0.135115 -0.22906667
-0.083237998 0.13509166 -0.22904335
-0.082834996 0.13507335 -0.22902399
-0.082569495 0.135095 -0.229029
-0.082309 0.135115 -0.22907834
-0.082082003 0.13506401 -0.229018
-0.0710705 0.135095 -0.22919351
-0.084601998 0.135234 -0.229151
-0.084598497 0.135344 -0.229132
-0.084163666 0.13528167 -0.22915334
-0.083710998 0.1352945 -0.229075
-0.083229668 0.135309 -0.22903067
-0.08282733 0.135289 -0.22901301
-0.082562998 0.13527535 -0.22901566
-0.082301497 0.135295 -0.2290805
-0.0820705 0.135351 -0.22902051
-0.071065001 0.13527733 -0.22916634
-0.084591664 0.135524 -0.22913301
-0.084155329 0.13549733 -0.22915
-0.083702005 0.13547333 -0.22911267
-0.083220996 0.135525 -0.22903466
-0.082818665 0.13550434 -0.22901666
-0.082554333 0.13549034 -0.22901933
-0.082295999 0.13547634 -0.22904567
-0.082065001 0.13549601 -0.22901499
-0.071057335 0.13549399 -0.22914934
-0.084583506 0.135702 -0.2291455
-0.084147334 0.13571365 -0.22913267
-0.083694994 0.13568999 -0.22908668
-0.083214499 0.13570449 -0.22903401
-0.082809664 0.13571967 -0.22902799
-0.082545668 0.13570666 -0.22902334
-0.082288675 0.135694 -0.22902368
-0.082061999 0.13560399 -0.229003
-0.071048997 0.135711 -0.22914667
-0.084577329 0.13588268 -0.229131
-0.0841415 0.135895 -0.229119
-0.083689004 0.13590933 -0.22902934
-0.083207004 0.13588335 -0.22903967
-0.082802996 0.135901 -0.229013
-0.082537331 0.13592167 -0.22902067
-0.082278669 0.13590734 -0.22904867
-0.0710425 0.135893 -0.22913
-0.084569 0.13609833 -0.22913533
-0.084134005 0.13607433 -0.22912033
-0.083678998 0.13612267 -0.22906701
-0.083201997 0.13602801 -0.22902299
-0.083197996 0.136136 -0.229022
-0.082796335 0.136081 -0.229008
-0.082530499 0.13610199 -0.229019
-0.082269996 0.136123 -0.22906367
-0.071037002 0.136075 -0.22909333
-0.08456067 0.13631433 -0.22912733
-0.08412534 0.13629 -0.22912367
-0.083671004 0.136301 -0.22908601
-0.083191 0.136316 -0.22901468
-0.082526997 0.13621099 -0.22900499
-0.082263499 0.13630401 -0.22904551
-0.071029671 0.13629299 -0.22907101
-0.084553495 0.13649499 -0.22912449
-0.084118001 0.13650668 -0.22910434
-0.083664663 0.136483 -0.22907035
-0.083186001 0.13646001 -0.229013
-0.082777001 0.136584 -0.229002
-0.082514003 0.136535 -0.229009
-0.082256667 0.13648367 -0.22903867
-0.082026497 0.136503 -0.22900701
-0.07102 0.13650866 -0.22909433
-0.084547006 0.136675 -0.22912133
-0.084110342 0.13672332 -0.22908334
-0.083655663 0.13669766 -0.22908266
-0.083173998 0.136748 -0.22901399
-0.082510002 0.13664301 -0.229012
-0.082248993 0.13670033 -0.22902699
-0.071011998 0.13672601 -0.22908634
-0.084539674 0.13689168 -0.22909899
-0.084103003 0.13690349 -0.22908899
-0.083647333 0.13691367 -0.22908266
-0.083168 0.13689132 -0.229028
-0.082766995 0.13683599 -0.229003
-0.082497999 0.136931 -0.229011
-0.08224 0.13691567 -0.22903199
-0.071006 0.136907 -0.229059
-0.084531002 0.13710733 -0.229095
-0.084095336 0.137082 -0.22910799
-0.083640501 0.13709301 -0.229081
-0.083163001 0.137035 -0.22901499
-0.082492329 0.137073 -0.22902401
-0.082232505 0.137095 -0.22903851
-0.071001999 0.137015 -0.229063
-0.070997998 0.13712451 -0.22905499
-0.084522329 0.13732266 -0.22909801
-0.084087335 0.137299 -0.22909434
-0.083633997 0.137274 -0.22906333
-0.082487002 0.137218 -0.229008
-0.08222533 0.137275 -0.229041
-0.070991002 0.13730468 -0.22904466
-0.084515497 0.137502 -0.229096
-0.084079005 0.13751501 -0.22908832
-0.083627343 0.137491 -0.22902501
-0.082222 0.13742 -0.22900601
-0.070983671 0.137522 -0.22901601
-0.084508002 0.13768201 -0.22909933
-0.084072001 0.137694 -0.22909001
-0.083619505 0.137707 -0.22900701
-0.070978999 0.137667 -0.229004
-0.084500007 0.137898 -0.229093
-0.084064998 0.13787366 -0.229087
-0.083611004 0.137923 -0.22901267
-0.083126999 0.137971 -0.229003
-0.084491335 0.13811399 -0.22910233
-0.084055997 0.138089 -0.229096
-0.083603501 0.13810199 -0.22902301
-0.084485002 0.138293 -0.229086
-0.084047668 0.13830501 -0.229092
-0.083595335 0.138281 -0.22904201
-0.084478669 0.13847433 -0.22906701
-0.08403933 0.138521 -0.22909166
-0.08358667 0.13849699 -0.22904867
-0.084469996 0.138689 -0.22907066
-0.084032506 0.1387005 -0.2290875
-0.083578996 0.138713 -0.22902633
-0.084461331 0.138905 -0.22907667
-0.084026664 0.138882 -0.229057
-0.083572999 0.13889199 -0.22901
-0.084454335 0.13912201 -0.22904801
-0.084018327 0.139098 -0.22905965
-0.084447995 0.139302 -0.229031
-0.084010333 0.139313 -0.22905
-0.084441997 0.13948099 -0.22901233
-0.084004 0.139493 -0.22903299
-0.084432997 0.139697 -0.229019
-0.084000997 0.13960201 -0.229013
-0.083996505 0.13970999 -0.2290055
-0.087999001 0.139814 -0.229197
-0.0844265 0.13987699 -0.2290085
-0.083986998 0.139962 -0.229008
-0.083981335 0.140104 -0.229011
-0.088448003 0.140341 -0.229196
-0.084408 0.14034501 -0.229004
-0.083974496 0.140284 -0.229011
-0.088445 0.140413 -0.22919101
-0.087585494 0.140478 -0.229193
-0.084403999 0.140452 -0.22901201
-0.088434003 0.14069967 -0.22919466
-0.087964997 0.14067501 -0.2291985
-0.084390998 0.140774 -0.22900601
-0.088425666 0.14091466 -0.22918867
-0.087956995 0.14089067 -0.22917767
-0.087571003 0.14087333 -0.22916834
-0.088418499 0.141094 -0.22918651
-0.087950327 0.14110734 -0.22914965
-0.087563336 0.14108966 -0.22915466
-0.088411331 0.14127399 -0.22919333
-0.087942667 0.14132367 -0.22913067
-0.087554671 0.141305 -0.22915667
-0.088404663 0.14148934 -0.22915833
-0.0879355 0.1415025 -0.22913399
-0.087547332 0.14152066 -0.22913098
-0.08839599 0.14170533 -0.22915868
-0.087928675 0.141681 -0.229128
-0.087540001 0.1417 -0.229139
-0.088388003 0.141921 -0.229142
-0.087921001 0.14189699 -0.22911566
-0.087535001 0.14188068 -0.229105
-0.088380501 0.142101 -0.229157
-0.087912999 0.142113 -0.22910367
-0.087526001 0.142095 -0.229105
-0.091284998 0.142354 -0.229176
-0.090155996 0.14237399 -0.22919001
-0.088375002 0.14228033 -0.22912668
-0.087906003 0.14229199 -0.22909999
-0.087519012 0.14231066 -0.22908068
-0.091282003 0.142426 -0.229184
-0.090149999 0.14251667 -0.229186
-0.088367335 0.142496 -0.22910233
-0.087899335 0.142472 -0.22909234
-0.087509997 0.14252667 -0.22908701
-0.091507003 0.142728 -0.22920001
-0.090144001 0.14266001 -0.22919901
-0.088358007 0.14271133 -0.22912101
-0.08789134 0.14268799 -0.22908533
-0.0875035 0.14270601 -0.2290765
-0.091263503 0.142893 -0.2291835
-0.090135671 0.142876 -0.229194
-0.088351503 0.14289099 -0.22911951
-0.087882996 0.142904 -0.22908066
-0.087496668 0.142886 -0.22907233
-0.091257997 0.14300001 -0.22920001
-0.090128005 0.14309201 -0.22917233
-0.088344671 0.143071 -0.22910701
-0.087873995 0.14311866 -0.229091
-0.087487996 0.14310133 -0.22907101
-0.091481999 0.143373 -0.229183
-0.091248333 0.143288 -0.22916901
-0.090120338 0.143307 -0.22916366
-0.088336669 0.14328633 -0.22909801
-0.087868005 0.14329851 -0.22907901
-0.087480001 0.143316 -0.22907932
-0.091478005 0.143481 -0.229186
-0.091239005 0.143503 -0.22918299
-0.090111338 0.14352199 -0.229174
-0.088328995 0.143501 -0.22908367
-0.087862998 0.14347833 -0.22902566
-0.087473005 0.1434955 -0.22906199
-0.091469005 0.143696 -0.22919199
-0.091232002 0.14371867 -0.22915633
-0.090533003 0.143686 -0.22919901
-0.090104997 0.143701 -0.22916301
-0.088320337 0.14371699 -0.22908567
-0.087855004 0.14369267 -0.22901468
-0.087466665 0.14367533 -0.22905801
-0.091464996 0.143803 -0.22919101
-0.091224499 0.14389801 -0.2291705
-0.090097666 0.14388101 -0.22916333
-0.088314503 0.143896 -0.229068
-0.087846003 0.14390801 -0.22902866
-0.087457336 0.14389168 -0.22906601
-0.091217004 0.144077 -0.22917999
-0.090915002 0.144135 -0.229186
-0.090516336 0.144118 -0.22918801
-0.090089999 0.144097 -0.22914965
-0.088307329 0.144076 -0.22906299
-0.087838329 0.14412367 -0.229011
-0.087453 0.14407051 -0.22902399
-0.091444001 0.1443415 -0.22919351
-0.091208667 0.144293 -0.22917967
-0.090911999 0.144207 -0.229194
-0.090509996 0.14429599 -0.22916949
-0.090081669 0.14431132 -0.22914366
-0.088299662 0.14429 -0.22905201
-0.087831497 0.144302 -0.229003
-0.091437995 0.144521 -0.22916268
-0.091203004 0.144472 -0.22915199
-0.091197997 0.14458001 -0.229158
-0.090898998 0.14452851 -0.229195
-0.090502001 0.144476 -0.22918467
-0.090074003 0.144526 -0.229138
-0.088291325 0.14450566 -0.22904533
-0.087823994 0.14448167 -0.22901767
-0.091432005 0.14469901 -0.22914499
-0.091192335 0.14472266 -0.229174
-0.090891995 0.14470799 -0.22919066
-0.090493999 0.14469166 -0.229183
-0.090066999 0.144706 -0.229131
-0.088283993 0.144721 -0.22901632
-0.091424666 0.144879 -0.22915201
-0.091187 0.1449015 -0.2291375
-0.090883002 0.14492449 -0.2291995
-0.090485997 0.144907 -0.22916299
-0.090060003 0.144886 -0.22912668
-0.088277504 0.14490101 -0.229019
-0.091414995 0.145096 -0.22916766
-0.091180004 0.14508165 -0.22913735
-0.090876505 0.14510301 -0.22918901
-0.090478003 0.14512168 -0.22916333
-0.090051003 0.14510132 -0.22913666
-0.088269331 0.14507967 -0.22903834
-0.091407664 0.14530967 -0.22915299
-0.091170669 0.14529733 -0.22914965
-0.090870343 0.14528267 -0.22917466
-0.090471506 0.14530149 -0.22915199
-0.090042673 0.14531668 -0.22913301
-0.088261001 0.14529499 -0.22903265
-0.091402002 0.14545301 -0.229151
-0.091398001 0.14556099 -0.2291555
-0.091162674 0.14551133 -0.22914468
-0.090862997 0.14549701 -0.22915967
-0.090464331 0.14548068 -0.22915535
-0.090036497 0.145495 -0.22912201
-0.088255003 0.14547449 -0.2290135
-0.091393001 0.145705 -0.22913601
-0.091155 0.14572699 -0.22912733
-0.090854324 0.145713 -0.229156
-0.090456665 0.145696 -0.22913902
-0.090030998 0.14567433 -0.229083
-0.088243499 0.145762 -0.229008
-0.091385998 0.14588434 -0.22913134
-0.091149494 0.145906 -0.2291005
-0.0908475 0.14589301 -0.2291505
-0.090448 0.14591199 -0.22914501
-0.090022326 0.14589067 -0.22909398
-0.088237494 0.145905 -0.22902399
-0.091605 0.14611401 -0.22919799
-0.091378003 0.14609933 -0.22911966
-0.091141671 0.14608534 -0.22910534
-0.090840995 0.14607133 -0.22913933
-0.09043967 0.146126 -0.229142
-0.090013675 0.14610499 -0.22909868
-0.088232502 0.14604799 -0.229011
-0.091369331 0.146314 -0.22912766
-0.091133334 0.1463 -0.22910434
-0.090833664 0.146286 -0.22912066
-0.090432495 0.14630601 -0.22914501
-0.090005994 0.14632033 -0.22908567
-0.091588996 0.14654499 -0.22919001
-0.091363505 0.14649349 -0.229105
-0.091125667 0.146516 -0.22909166
-0.090824001 0.146503 -0.22914833
-0.090425335 0.14648567 -0.22914
-0.090001002 0.14646401 -0.229074
-0.089997999 0.14653599 -0.229076
-0.088214666 0.146516 -0.22900133
-0.091583006 0.146689 -0.22918399
-0.091356665 0.14667299 -0.22909801
-0.091118999 0.146696 -0.22908249
-0.090815663 0.146718 -0.22914301
-0.090418003 0.14670099 -0.22912566
-0.089992337 0.14667965 -0.22906899
-0.091573499 0.14693899 -0.22917801
-0.09134867 0.146887 -0.22909398
-0.091111332 0.146874 -0.22909367
-0.090809003 0.146896 -0.2291265
-0.090409994 0.146915 -0.229109
-0.089984991 0.14689299 -0.22904199
-0.091567002 0.14711867 -0.22916599
-0.091340661 0.147103 -0.22908033
-0.091103338 0.14708935 -0.22908668
-0.090803504 0.14703999 -0.229123
-0.090800002 0.147148 -0.229123
-0.090404004 0.14709449 -0.2290985
-0.089977331 0.14710866 -0.22903067
-0.092298999 0.147377 -0.229194
-0.091560498 0.14729801 -0.22916651
-0.091332674 0.14731833 -0.22907431
-0.091095001 0.147305 -0.22908501
-0.090794332 0.14729135 -0.22911532
-0.090396665 0.147274 -0.22909768
-0.089968003 0.14732499 -0.22904433
-0.092661001 0.147539 -0.229193
-0.092294998 0.147521 -0.22916932
-0.091965005 0.14754599 -0.22918701
-0.091553003 0.14747833 -0.22916698
-0.091325499 0.1474975 -0.22907999
-0.091087334 0.14751966 -0.22907166
-0.090786003 0.14750634 -0.229113
-0.090388335 0.14748934 -0.22909467
-0.089961998 0.14750201 -0.229029
-0.092655338 0.14768167 -0.22918367
-0.092287004 0.1477 -0.229185
-0.091960996 0.147652 -0.229193
-0.091752999 0.14774549 -0.2291925
-0.091545008 0.14769334 -0.229158
-0.091318004 0.14767601 -0.22907899
-0.091080502 0.14769849 -0.2290595
-0.090777993 0.14772166 -0.22910434
-0.090380333 0.14770468 -0.22908533
-0.089954674 0.14768232 -0.22903766
-0.092648 0.147861 -0.229195
-0.092276998 0.14795101 -0.22917999
-0.091747999 0.147854 -0.229197
-0.091535993 0.14790867 -0.22916234
-0.091309994 0.147892 -0.22907734
-0.091072999 0.147879 -0.22907567
-0.090771496 0.147901 -0.2290895
-0.090372674 0.14791934 -0.22906967
-0.089947008 0.147898 -0.22901635
-0.093061499 0.148101 -0.229194
-0.092638001 0.148113 -0.229195
-0.092271328 0.148095 -0.22918899
-0.091945998 0.148012 -0.22919799
-0.091739997 0.148068 -0.22920001
-0.091527343 0.14812399 -0.22917634
-0.091302 0.14810801 -0.22906534
-0.091064662 0.14809467 -0.22906999
-0.090764336 0.148081 -0.22909433
-0.090365499 0.14809901 -0.22907001
-0.089938663 0.14811333 -0.22901399
-0.092263006 0.14831001 -0.22918232
-0.091520503 0.148304 -0.2291705
-0.091292657 0.14832334 -0.22908533
-0.091057658 0.14830799 -0.22904567
-0.090758674 0.14829402 -0.22904199
-0.090357997 0.148279 -0.229077
-0.089929998 0.14832801 -0.22902434
-0.092624001 0.14847299 -0.229196
-0.092254996 0.14852534 -0.22917402
-0.091922998 0.148587 -0.22920001
-0.091723002 0.1485 -0.229196
-0.091513671 0.14848401 -0.22916166
-0.091286004 0.14850199 -0.22907701
-0.091049008 0.148524 -0.22905166
-0.090748996 0.14850967 -0.22906435
-0.090349339 0.14849432 -0.22908467
-0.089922994 0.14850751 -0.2290175
-0.093038499 0.14867601 -0.2291985
-0.092617005 0.14868633 -0.22916299
-0.092250004 0.1487035 -0.229141
-0.091921002 0.14869249 -0.2291685
-0.091716997 0.148644 -0.22920001
-0.091506995 0.148697 -0.22912933
-0.091279663 0.148682 -0.22906433
-0.091042995 0.1487025 -0.2290255
-0.090739995 0.148726 -0.22907366
-0.090341002 0.148709 -0.22908001
-0.089917004 0.148652 -0.229031
-0.09260767 0.148902 -0.22918133
-0.092241667 0.148884 -0.22915667
-0.09191367 0.14887267 -0.22917001
-0.091498338 0.148913 -0.22913332
-0.091271006 0.14889701 -0.22906034
-0.091032997 0.14895301 -0.229019
-0.090733498 0.1489055 -0.22905901
-0.090332665 0.14892501 -0.22908099
-0.089906 0.14893851 -0.229019
-0.092602998 0.149046 -0.229168
-0.092597999 0.14915401 -0.229177
-0.092233002 0.14910001 -0.22915967
-0.09190467 0.14908899 -0.22918068
-0.091701001 0.14907368 -0.22918433
-0.091491506 0.149093 -0.2291265
-0.091263674 0.149111 -0.22903998
-0.091027342 0.149097 -0.22902399
-0.090726674 0.14908367 -0.229059
-0.090326995 0.14910349 -0.22905099
-0.089899004 0.14911799 -0.22901799
-0.1052075 0.14928 -0.229197
-0.093016505 0.14925 -0.22918899
-0.092592999 0.14929751 -0.22916549
-0.092224002 0.149316 -0.22917366
-0.09189567 0.149305 -0.22918899
-0.091692328 0.14928967 -0.229185
-0.091484666 0.14927299 -0.22912467
-0.091255002 0.149327 -0.22905068
-0.091019996 0.14931233 -0.22900967
-0.090719342 0.149299 -0.22903998
-0.090319999 0.14928401 -0.229057
-0.092586666 0.14947499 -0.22914667
-0.092216499 0.149496 -0.229186
-0.091888666 0.149518 -0.22916533
-0.091684669 0.149505 -0.229176
-0.091477007 0.14948601 -0.229105
-0.091249004 0.14950651 -0.229029
-0.0910125 0.149492 -0.22901049
-0.090710998 0.149515 -0.229038
-0.090311326 0.14949833 -0.22905798
-0.093001001 0.149644 -0.22919001
-0.092997499 0.14975201 -0.22917801
-0.09257666 0.14969234 -0.22917567
-0.092210673 0.14967333 -0.22916301
-0.091882005 0.149698 -0.22914949
-0.091676332 0.14972 -0.22916667
-0.091468997 0.149702 -0.229102
-0.091242336 0.14968467 -0.22902434
-0.091007002 0.14963549 -0.229011
-0.090703502 0.14969499 -0.22904551
-0.090303004 0.14971399 -0.22904932
-0.092991002 0.149896 -0.229186
-0.092570662 0.14990532 -0.22912467
-0.092203327 0.14988899 -0.22913666
-0.091876 0.149877 -0.22913434
-0.091671005 0.14989799 -0.22913599
-0.091460668 0.14991766 -0.22909467
-0.091233999 0.1499 -0.229021
-0.090994999 0.149958 -0.22900701
-0.090696 0.149875 -0.229056
-0.090295002 0.14989451 -0.229072
-0.093448669 0.15009999 -0.22918399
-0.092985995 0.15007433 -0.22914465
-0.092562325 0.15012167 -0.22913067
-0.09219601 0.150103 -0.22911334
-0.091866665 0.150094 -0.22915266
-0.091663331 0.150078 -0.229147
-0.0914535 0.15009749 -0.22909549
-0.090988666 0.150102 -0.22901465
-0.090687662 0.15008967 -0.22905034
-0.090288334 0.15007435 -0.22906534
-0.092977673 0.15028967 -0.22914632
-0.092556 0.1503 -0.2291095
-0.092188664 0.15031765 -0.22908966
-0.091859341 0.15030767 -0.22912633
-0.091655664 0.15029401 -0.229131
-0.091447659 0.15027566 -0.22907066
-0.091219999 0.15026 -0.229008
-0.090980329 0.150318 -0.22901066
-0.090679325 0.15030466 -0.22905201
-0.090280332 0.15029 -0.229059
-0.093433 0.15049601 -0.2291905
-0.092968337 0.15050633 -0.229165
-0.092548005 0.15048 -0.22912933
-0.092179999 0.150498 -0.22912
-0.091850333 0.15052368 -0.22913902
-0.091648005 0.150507 -0.22911133
-0.091437332 0.15049399 -0.22911368
-0.090973496 0.15049601 -0.22900349
-0.090671003 0.15052 -0.22904335
-0.090273 0.15050334 -0.22903299
-0.092959009 0.15072365 -0.22918433
-0.092539668 0.15069599 -0.22913234
-0.092172332 0.15067834 -0.22913568
-0.091841996 0.1507055 -0.229157
-0.091637999 0.15072501 -0.22913933
-0.09142933 0.15070866 -0.229101
-0.091202497 0.15072501 -0.229009
-0.090967 0.150676 -0.22900333
-0.090664506 0.1507 -0.229039
-0.090265997 0.15071833 -0.22900333
-0.092951998 0.150902 -0.22917399
-0.092532001 0.15091068 -0.22911167
-0.092164993 0.15089333 -0.22911267
-0.09183567 0.150883 -0.22915101
-0.091630504 0.150906 -0.22915399
-0.091421328 0.150923 -0.22909333
-0.091197997 0.150833 -0.22900601
-0.090957999 0.150892 -0.229003
-0.090657003 0.15087999 -0.22904134
-0.090258002 0.15089899 -0.229021
-0.093405999 0.151178 -0.229194
-0.092947334 0.15107967 -0.22913267
-0.092525005 0.151125 -0.22908799
-0.092156 0.15110932 -0.22911467
-0.091828667 0.15109766 -0.229122
-0.091623001 0.151086 -0.22916199
-0.091415495 0.1511025 -0.2290705
-0.091186337 0.15112133 -0.22901298
-0.090649337 0.15109533 -0.22903167
-0.090250008 0.151079 -0.229038
-0.093912497 0.151242 -0.22919551
-0.093402997 0.15128401 -0.2291615
-0.093397997 0.151393 -0.229173
-0.092938997 0.15129466 -0.22912633
-0.092517003 0.151305 -0.22911
-0.092148334 0.15132366 -0.22910833
-0.091820337 0.15131368 -0.22911768
-0.091616005 0.15129934 -0.22912633
-0.091408335 0.15128233 -0.22907133
-0.091178998 0.1513015 -0.22902501
-0.090938002 0.15139601 -0.22900499
-0.090640999 0.15130933 -0.22902365
-0.090243995 0.1512575 -0.2290165
-0.093395002 0.151465 -0.22919101
-0.092930339 0.15151067 -0.22913568
-0.092509001 0.15148634 -0.22912534
-0.092142001 0.151503 -0.229091
-0.091812998 0.15149349 -0.22912949
-0.091607332 0.15151533 -0.22913902
-0.091402002 0.151427 -0.22907899
-0.091398001 0.1515345 -0.22907901
-0.091171332 0.15148167 -0.22902799
-0.090633497 0.15149 -0.22903651
-0.090232499 0.151546 -0.229021
-0.092922501 0.151692 -0.22915101
-0.092501007 0.151701 -0.22910833
-0.092135005 0.151683 -0.22909367
-0.091806673 0.15167201 -0.22911467
-0.091601998 0.151659 -0.229138
-0.091599002 0.151731 -0.22913601
-0.091390334 0.151715 -0.229093
-0.091162659 0.15169734 -0.22903001
-0.090626001 0.15167066 -0.22904301
-0.090225339 0.15172566 -0.22902767
-0.093883 0.151996 -0.229196
-0.092914335 0.15187266 -0.22916967
-0.092492335 0.151917 -0.22911634
-0.092124671 0.15189999 -0.229131
-0.091796003 0.15189067 -0.22914632
-0.091592334 0.151875 -0.22915101
-0.091382995 0.151895 -0.229096
-0.091153674 0.151914 -0.22904468
-0.090917669 0.15189999 -0.229026
-0.090618007 0.151885 -0.22903334
-0.090218499 0.15190449 -0.229021
-0.089792997 0.151848 -0.22900701
-0.094304003 0.152086 -0.22919166
-0.093369 0.1521475 -0.229173
-0.092906334 0.15208833 -0.22916432
-0.092484504 0.152097 -0.229128
-0.092116676 0.152115 -0.22911532
-0.09178967 0.15210368 -0.22911133
-0.091584675 0.152091 -0.22913933
-0.091376007 0.15207499 -0.22909433
-0.091146328 0.15212834 -0.22902034
-0.090910494 0.15208 -0.2290265
-0.090609998 0.15210032 -0.22902334
-0.090210997 0.15208535 -0.22902866
-0.094292 0.152374 -0.22920001
-0.093872331 0.15228333 -0.22918767
-0.093362331 0.15232633 -0.229164
-0.092897676 0.15230367 -0.22916667
-0.092477672 0.15227699 -0.22912566
-0.092109501 0.15229499 -0.22911599
-0.091780007 0.15232 -0.22913332
-0.09157633 0.152307 -0.22913401
-0.091369003 0.15228833 -0.22906066
-0.090599999 0.15238699 -0.229004
-0.090204999 0.152264 -0.22901049
-0.105793 0.152576 -0.229197
-0.104654 0.152583 -0.22920001
-0.094287671 0.15251566 -0.22918065
-0.093864001 0.15249901 -0.22918899
-0.093354501 0.15250799 -0.229173
-0.09289033 0.152518 -0.22914468
-0.092469335 0.152493 -0.22912334
-0.092102326 0.152475 -0.22912067
-0.091774002 0.1524995 -0.22911149
-0.091567665 0.152523 -0.22913967
-0.091361009 0.15250333 -0.22905433
-0.090595007 0.15249699 -0.229013
-0.090191998 0.15258799 -0.229008
-0.105791 0.15264501 -0.229194
-0.094280496 0.15269551 -0.22917801
-0.093851998 0.152787 -0.22919901
-0.093349002 0.152686 -0.22914799
-0.092882998 0.152698 -0.229148
-0.092461668 0.15270901 -0.22911067
-0.09209466 0.15269034 -0.22910534
-0.091766991 0.15267934 -0.22911133
-0.091559999 0.152703 -0.22914949
-0.091352336 0.15271966 -0.22906367
-0.090587668 0.15267567 -0.22901833
-0.090187997 0.152696 -0.229013
-0.1050665 0.15286 -0.229197
-0.104192 0.152987 -0.22919101
-0.094710998 0.15297 -0.22920001
-0.094273664 0.15287535 -0.22917467
-0.093848497 0.152895 -0.22919001
-0.093339674 0.15290301 -0.229168
-0.092877664 0.15287633 -0.229113
-0.092453994 0.15292367 -0.22909833
-0.092087001 0.15290433 -0.22909367
-0.091758668 0.152895 -0.22910701
-0.091554008 0.15288199 -0.22912832
-0.091345504 0.152899 -0.229055
-0.090581998 0.152821 -0.229019
-0.090184003 0.152804 -0.229009
-0.104635 0.15308434 -0.22918566
-0.1041895 0.153093 -0.22917101
-0.094705999 0.15311334 -0.22919302
-0.094265006 0.153093 -0.229187
-0.093842 0.15307434 -0.22917134
-0.093332 0.15304901 -0.229195
-0.092869006 0.15309232 -0.22911966
-0.092449002 0.153099 -0.22904551
-0.092078663 0.15312 -0.22908966
-0.091750674 0.15310967 -0.22909701
-0.091547005 0.15309601 -0.22910066
-0.091339 0.15307833 -0.22904766
-0.10462867 0.15329701 -0.22913933
-0.1041825 0.153237 -0.229195
-0.094698995 0.153293 -0.229188
-0.094256997 0.153308 -0.22917366
-0.093832999 0.153291 -0.22918002
-0.093323 0.15330049 -0.22918299
-0.092860669 0.15330833 -0.22911566
-0.092441 0.15328068 -0.22906433
-0.092072502 0.1533 -0.22907799
-0.091743 0.15332432 -0.22908133
-0.091538668 0.153312 -0.22910134
-0.091331996 0.15329233 -0.22902198
-0.105754 0.153577 -0.229185
-0.10461867 0.153514 -0.22917067
-0.094693497 0.153437 -0.229186
-0.094249003 0.153522 -0.22916199
-0.093823999 0.15350699 -0.22918899
-0.093315996 0.15348034 -0.22918899
-0.092851996 0.15352432 -0.229122
-0.092432342 0.15349765 -0.22907799
-0.09206567 0.15347934 -0.22906667
-0.091736495 0.153504 -0.229075
-0.091530502 0.153493 -0.22911701
-0.091323338 0.15350933 -0.22902668
-0.105752 0.153649 -0.229176
-0.104612 0.1536915 -0.229164
-0.095804997 0.153742 -0.229197
-0.094681002 0.153761 -0.229195
-0.094243005 0.1537015 -0.22914499
-0.093816005 0.153723 -0.22918367
-0.093308002 0.15369533 -0.22917767
-0.092844501 0.153705 -0.229137
-0.092424668 0.15371166 -0.22906001
-0.092057325 0.15369467 -0.22906534
-0.091729671 0.15368401 -0.22906733
-0.091524661 0.15367134 -0.22909732
-0.091314666 0.153724 -0.22902566
-0.10502601 0.15389867 -0.22919066
-0.104605 0.15383801 -0.2291895
-0.104153 0.153991 -0.229185
-0.096049003 0.15383001 -0.22919799
-0.095802002 0.153813 -0.229195
-0.095797494 0.15392101 -0.22919551
-0.094674997 0.153905 -0.229192
-0.094235994 0.15388067 -0.22914733
-0.0938095 0.1539025 -0.229173
-0.09330067 0.15390934 -0.22915201
-0.092837334 0.15388501 -0.22912733
-0.092416339 0.15392767 -0.229057
-0.092049666 0.153909 -0.229041
-0.091721661 0.15389933 -0.22905566
-0.091517664 0.15388499 -0.22906233
-0.0913065 0.153905 -0.229039
-0.10459567 0.15408833 -0.22917767
-0.1041505 0.15409601 -0.229159
-0.0957895 0.154137 -0.22919551
-0.094668001 0.15411967 -0.22916834
-0.094226994 0.154098 -0.229156
-0.093803339 0.15408 -0.22915266
-0.093293995 0.15412334 -0.22912067
-0.092830338 0.15409867 -0.22910035
-0.092410505 0.15410501 -0.22903499
-0.092043996 0.15408701 -0.22902149
-0.091714002 0.15411299 -0.22903633
-0.09150967 0.1541 -0.22905634
-0.091300666 0.154084 -0.22901969
-0.105009 0.15432833 -0.22918767
-0.10458901 0.15430067 -0.229138
-0.10414267 0.154276 -0.229173
-0.1036285 0.1542905 -0.2291885
-0.095782995 0.15431632 -0.22918166
-0.095105 0.15436 -0.229192
-0.094660997 0.15429901 -0.22916001
-0.094219334 0.154312 -0.22913766
-0.093795992 0.15429465 -0.22912998
-0.093287498 0.154302 -0.229103
-0.092823334 0.15431267 -0.22907431
-0.092404 0.1542505 -0.229046
-0.092399001 0.15436099 -0.229067
-0.092035502 0.154302 -0.22901499
-0.091706336 0.154328 -0.22902465
-0.091502003 0.15431599 -0.22904199
-0.10571799 0.15450867 -0.229185
-0.10539299 0.154493 -0.229196
-0.105003 0.154507 -0.22917899
-0.104583 0.154512 -0.22909634
-0.10413367 0.15449166 -0.22918333
-0.096023671 0.154478 -0.229195
-0.095775999 0.154497 -0.22918299
-0.095476501 0.15455249 -0.2291835
-0.095100008 0.15450101 -0.22917099
-0.094654329 0.154478 -0.22915633
-0.09421134 0.15452766 -0.22913234
-0.093788661 0.15450867 -0.229109
-0.093281001 0.15448134 -0.22909565
-0.092816502 0.15449101 -0.22907001
