-0.0617697 -0.0281242 0.997694 0.00490397
-0.0633586 -0.0351691 0.997371 0.0029921
-0.0638038 -0.0302057 0.997505 0.00488202
-0.0640836 -0.032203 0.997425 0.0050893
-0.0644456 -0.0324899 0.997392 0.00731242
-0.0664988 -0.029516 0.99735 0.00703625
-0.0633229 -0.0339712 0.997415 7.31547e-05
0.0198433 -0.0369956 0.999118 0.0134108
0.0236511 -0.0399887 0.99892 0.0123011
0.0264393 -0.0423213 0.998754 0.0138093
-0.0621487 -0.0288299 0.99765 0.00304628
-0.0622699 -0.0296667 0.997618 0.00313751
-0.0607774 -0.0301978 0.997694 0.00375116
-0.065963 -0.0321373 0.997304 0.00547116
-0.0661015 -0.0300948 0.997359 0.00656848
-0.0657889 -0.0289264 0.997414 0.00890192
-0.0659213 -0.0308337 0.997348 0.00920472
-0.0647858 -0.0308639 0.997422 0.00738766
-0.0642492 -0.0315257 0.997436 0.0065984
-0.0628119 -0.0323244 0.997502 0.00280255
0.0229908 -0.0399341 0.998938 0.00834601
0.0238649 -0.0402049 0.998906 0.0124951
-0.0627573 -0.0284619 0.997623 0.00201576
-0.0625992 -0.0333491 0.997481 0.00174017
-0.0668183 -0.0278654 0.997376 0.00453262
-0.0654685 -0.0339672 0.997276 0.00494907
-0.0623958 -0.0328248 0.997512 0.00296927
-0.0604073 -0.0351607 0.997554 0.00262282
-0.0641623 -0.0321089 0.997423 0.00790201
-0.0636238 -0.0328961 0.997432 0.00681759
0.030808 -0.0436713 0.998571 0.00399541
0.0283297 -0.0431642 0.998666 0.00545662
-0.0652456 -0.0229449 0.997605 0.00713821
-0.063183 -0.027567 0.997621 0.00591891
-0.064335 -0.0283539 0.997525 0.00314667
-0.0641344 -0.0282518 0.997541 0.00183187
-0.0646657 -0.0283083 0.997505 0.000420302
-0.0666571 -0.0280593 0.997381 0
-0.0658408 -0.03018 0.997374 0.00456603
-0.0630448 -0.0356793 0.997373 0.000831615
-0.0607519 -0.0322899 0.99763 0.0034199
-0.0596916 -0.0312997 0.997726 0.00403794
-0.0624878 -0.0308764 0.997568 0.00285194
0.0356115 -0.0465803 0.99828 0
0.0333819 -0.0450445 0.998427 0
-0.064531 -0.0274711 0.997537 0.00414675
-0.0629399 -0.0282811 0.997616 0.00609535
-0.0638889 -0.027891 0.997567 0.00235371
-0.0658614 -0.0227193 0.99757 0.00180372
-0.0663703 -0.0261294 0.997453 0.00264185
-0.0689687 -0.0287626 0.997204 0.00568628
-0.0644509 -0.03186 0.997412 0.00471652
-0.0582821 -0.0287169 0.997887 0.000562624
-0.0600748 -0.032426 0.997667 0
0.0342406 -0.0462903 0.998341 0
0.034581 -0.0477447 0.998261 0
0.0252413 -0.0410617 0.998838 0.00112735
0.0265358 -0.0408706 0.998812 0.00121492
-0.0654777 -0.0267704 0.997495 0.00187829
-0.065092 -0.0295175 0.997443 0.00232558
-0.0621358 -0.0296593 0.997627 0.00247297
-0.0624999 -0.0283266 0.997643 0.00162228
-0.065979 -0.022633 0.997564 0.00264908
-0.0675896 -0.0248553 0.997404 0.00514556
-0.0676272 -0.026758 0.997352 0.00451401
-0.0691211 -0.0291708 0.997182 0.00545495
-0.064856 -0.027871 0.997505 0.00519493
-0.0588859 -0.0277117 0.99788 0.00311841
0.0262278 -0.0456788 0.998612 0
0.0290088 -0.0479325 0.998429 0
0.0285599 -0.0471736 0.998478 0
0.0267368 -0.0418519 0.998766 0
0.0311772 -0.0398835 0.998718 0
0.0336135 -0.0395337 0.998653 0.00106623
-0.0602554 -0.0316582 0.997681 0
-0.0652329 -0.0279631 0.997478 0
-0.0656349 -0.0292531 0.997415 0.00275664
-0.0641464 -0.0304769 0.997475 0.000636721
-0.0635745 -0.0263243 0.99763 0
-0.0671438 -0.026376 0.997395 0.0011342
-0.069493 -0.0282417 0.997183 0.00533847
-0.0677 -0.0269088 0.997343 0.000706101
-0.0667115 -0.0205032 0.997562 0.00538898
-0.0630045 -0.0228745 0.997751 0.00465915
-0.0617225 -0.0291113 0.997669 0.00109594
0.0268549 -0.0428869 0.998719 0
0.0283681 -0.0435219 0.99865 0
0.0309744 -0.0446247 0.998524 0
0.0320991 -0.0432924 0.998547 0
0.0311732 -0.0400383 0.998712 0
0.0321514 -0.0362195 0.998827 0.00140768
-0.0669917 -0.0298564 0.997307 0.00187394
-0.0674728 -0.0326714 0.997186 0.00194263
-0.0647129 -0.0315515 0.997405 0
-0.0662426 -0.0279856 0.997411 0.000569846
-0.0688429 -0.0253847 0.997304 0.00282014
-0.0686804 -0.0255669 0.997311 0.0033224
-0.0666124 -0.028032 0.997385 0.000722452
-0.06785 -0.0228485 0.997434 0.00545725
-0.0627107 -0.0277587 0.997646 0.00314801
0.0231731 -0.0397068 0.998943 0
0.0249335 -0.0410642 0.998845 0
0.0325397 -0.0399064 0.998673 0
0.0293728 -0.0402819 0.998756 0
0.031859 -0.0359791 0.998845 0.00340393
-0.0704381 -0.0327643 0.996978 0.00264295
-0.0694981 -0.0319818 0.997069 0.00287576
-0.0683696 -0.0274329 0.997283 0.000684786
-0.0676841 -0.0256676 0.997377 0.00164221
-0.0689125 -0.029294 0.997193 0.00342128
-0.0682103 -0.0250137 0.997357 0.00503332
-0.0664471 -0.0261481 0.997447 0.00257899
-0.0640008 -0.0257149 0.997618 0.00366183
-0.0610311 -0.026736 0.997778 0.000931369
0.0223815 -0.0363344 0.999089 0
0.0282399 -0.0385535 0.998857 0
0.0300089 -0.0365532 0.998881 6.86496e-05
0.0293443 -0.0367581 0.998893 0
0.0306187 -0.0353099 0.998907 0
0.0333756 -0.0340848 0.998861 0
-0.065038 -0.0325945 0.99735 0
-0.0715676 -0.0352497 0.996813 0
-0.0712367 -0.0283648 0.997056 0.00182664
-0.0698939 -0.0284657 0.997148 0.00234432
-0.0689195 -0.0228021 0.997362 0.00534468
-0.0684981 -0.0280704 0.997256 0.00210231
-0.0684775 -0.0236749 0.997372 0.00407861
-0.0678899 -0.0218109 0.997454 0.00638777
-0.0623832 -0.0255568 0.997725 0.0024753
-0.0591398 -0.0221787 0.998003 0.00334435
0.0271367 -0.0348819 0.999023 0
0.0307214 -0.0360679 0.998877 0.00156884
0.031431 -0.0348026 0.9989 0
0.0325312 -0.0319881 0.998959 0.000634458
0.0329563 -0.0347079 0.998854 0
0.0362897 -0.0314714 0.998846 0
-0.062277 -0.0291132 0.997634 0
-0.0672549 -0.0335634 0.997171 0
-0.0697514 -0.0333061 0.997008 0
-0.0720859 -0.0311784 0.996911 0.00230127
-0.0719086 -0.0255179 0.997085 0.00391591
-0.0688985 -0.0255541 0.997296 0.00461931
-0.0694219 -0.0233841 0.997313 0.00584304
-0.0673198 -0.0202554 0.997526 0.00549859
-0.0651403 -0.0237832 0.997593 0.00412564
-0.063496 -0.0209309 0.997763 0.00478766
-0.0590929 -0.0204463 0.998043 0.00451451
0.0207373 -0.0327589 0.999248 0.00265891
0.0270087 -0.0340229 0.999056 0.00146339
0.0355603 -0.035437 0.998739 0.0019767
0.0318911 -0.0316677 0.99899 0.0069037
0.0344748 -0.030645 0.998936 0.00149405
0.0351175 -0.0299543 0.998934 0
0.0361838 -0.032623 0.998813 0
0.0433736 -0.0349255 0.998448 0
-0.0669096 -0.0323744 0.997234 0
-0.0697223 -0.0319824 0.997054 0
-0.0725144 -0.0312766 0.996877 0.0035016
-0.0705151 -0.0269563 0.997146 0.00329364
-0.0717553 -0.0224637 0.997169 0.00449747
-0.0685863 -0.023529 0.997368 0.00553331
-0.0649909 -0.0234744 0.99761 0.00398918
-0.0655987 -0.0211677 0.997622 0.00422602
-0.0628276 -0.0215984 0.997791 0.00391927
-0.0597483 -0.0226093 0.997957 0.0023177
0.0277944 -0.0328377 0.999074 0.00111207
0.0302213 -0.0350032 0.99893 0.00324968
0.0313092 -0.0287764 0.999095 0.00958833
0.0332289 -0.0301399 0.998993 0.00478285
0.0382035 -0.0329497 0.998727 0
0.0356785 -0.0302602 0.998905 1.45102e-05
0.040905 -0.0299624 0.998714 0
-0.0662142 -0.0324816 0.997277 0
-0.0704621 -0.0327539 0.996977 0
-0.0701804 -0.0327089 0.996998 0.00278794
-0.0686887 -0.0314899 0.997141 0.00193545
-0.0667098 -0.0303823 0.99731 0.00159263
-0.0719813 -0.0224146 0.997154 0.00516122
-0.070489 -0.0219681 0.997271 0.00541577
-0.0664802 -0.0254734 0.997463 0.00441147
-0.0644 -0.0244824 0.997624 0.00615532
-0.0629243 -0.0214751 0.997787 0.00441634
-0.05917 -0.0276507 0.997865 0.000551816
0.0356747 -0.0375765 0.998657 0
0.0335949 -0.0350111 0.998822 0.00356913
0.0342257 -0.0299763 0.998964 0.00947112
0.0369029 -0.0314513 0.998824 0.00625647
0.0346327 -0.0287954 0.998985 0.00366591
0.0352361 -0.0290642 0.998956 0.00454412
0.0416812 -0.0289004 0.998713 0.00235103
-0.0592105 -0.030461 0.997781 0
-0.068891 -0.0331003 0.997075 0
-0.0716481 -0.0333698 0.996872 0
-0.0724502 -0.0333151 0.996815 0.00486658
-0.0693162 -0.0246108 0.997291 0.00433617
-0.069319 -0.0200272 0.997393 0.00358333
-0.070571 -0.0239303 0.99722 0.00565356
-0.0645204 -0.0222016 0.997669 0.00541339
-0.0631105 -0.0217681 0.997769 0.00387799
-0.0599072 -0.0248087 0.997896 0.003929
-0.0618012 -0.023716 0.997807 0.00284754
0.0428784 -0.0389904 0.998319 0
0.0429423 -0.0384378 0.998338 0.000931556
0.0385779 -0.0320175 0.998743 0.00668491
0.0347441 -0.029341 0.998965 0.00745373
0.0367344 -0.0296786 0.998884 0.00593613
0.0358936 -0.0312661 0.998866 0.00458575
0.0385378 -0.0273274 0.998883 0.00111202
-0.0559812 -0.0263873 0.998083 0
-0.0609372 -0.0311044 0.997657 0
-0.0682895 -0.032462 0.997137 0
-0.0710287 -0.0325589 0.996943 0.000899808
-0.071031 -0.0279111 0.997083 0.00407205
-0.0700978 -0.0213801 0.997311 0.00552055
-0.070493 -0.0224742 0.997259 0.00440782
-0.0714387 -0.0203684 0.997237 0.00990569
-0.0668745 -0.0212921 0.997534 0.00855642
-0.064064 -0.0221175 0.997701 0.00589687
-0.0650897 -0.020858 0.997661 0.00522317
-0.0628798 -0.0168181 0.997879 0.00372959
-0.0603323 -0.0267251 0.99782 0
0.0408517 -0.0364086 0.998502 0
0.0451035 -0.0357314 0.998343 0
0.0372543 -0.0320716 0.998791 0
0.0387315 -0.0307351 0.998777 0.00363853
0.0366222 -0.0302022 0.998873 0.0054103
0.0370273 -0.0309257 0.998836 0.00362067
0.0379045 -0.0279578 0.99889 0
0.03676 -0.0298963 0.998877 0.00428816
-0.0545348 -0.0270904 0.998144 0
-0.063334 -0.0277445 0.997607 0
-0.0705845 -0.0275762 0.997125 0.000133571
-0.0700205 -0.0311231 0.99706 4.12114e-05
-0.0706525 -0.0265589 0.997147 0.00459252
-0.0691611 -0.0221412 0.99736 0.00509272
-0.0706776 -0.0221565 0.997253 0.00735104
-0.0692008 -0.020956 0.997383 0.00549178
-0.0669856 -0.0194505 0.997564 0.00587685
-0.065667 -0.0169196 0.997698 0.00594095
-0.063215 -0.0171913 0.997852 0.00443948
0.0416095 -0.0337914 0.998562 0
0.0417534 -0.0318254 0.998621 0
0.0439766 -0.031828 0.998525 0
0.0406489 -0.0325826 0.998642 0
0.0372446 -0.0348526 0.998698 0.0010088
0.0370064 -0.0296199 0.998876 0.00433633
0.0354381 -0.0272954 0.998999 0.00419294
-0.0581421 -0.0252734 0.997988 0
-0.0648349 -0.0262925 0.99755 0
-0.0647202 -0.0301834 0.997447 0
-0.0698459 -0.027035 0.997191 0.000228586
-0.0717721 -0.0283358 0.997018 0.00114377
-0.0689871 -0.023979 0.997329 0.00260704
-0.0689536 -0.0256643 0.99729 0.00542689
-0.0727254 -0.0228551 0.99709 0.00889066
-0.0706875 -0.0230884 0.997231 0.00470659
-0.065853 -0.0266791 0.997473 0.000857343
-0.0649311 -0.0193984 0.997701 0.00403307
-0.063202 -0.0221468 0.997755 0.00435243
-0.0617567 -0.0197445 0.997896 0.00026587
0.0354504 -0.0288746 0.998954 0.000943327
0.0390437 -0.0267105 0.99888 0.000289115
0.041608 -0.0302333 0.998676 0
0.0392446 -0.0300992 0.998776 0
0.0385998 -0.0321956 0.998736 0
0.0359672 -0.0280342 0.99896 0.00280314
0.0335775 -0.0276925 0.999052 0.00628644
0.0342293 -0.0340292 0.998834 0.000157963
-0.0583353 -0.0244596 0.997997 0
-0.0680293 -0.0249651 0.997371 0
-0.0691805 -0.0274838 0.997225 0
-0.0705449 -0.0203834 0.9973 0.00156255
-0.0713164 -0.0232873 0.997182 0.00188844
-0.0687163 -0.0257431 0.997304 0.00372927
-0.0714539 -0.0238129 0.99716 0.00811229
-0.0712517 -0.0215982 0.997225 0.0084198
-0.0677318 -0.0274716 0.997325 0.00398875
-0.0637791 -0.0198329 0.997767 0.00327149
-0.0651465 -0.021304 0.997648 0.00170888
0.0332011 -0.0266295 0.999094 0.00328459
0.0313847 -0.0266559 0.999152 0.00201033
0.0384135 -0.0286298 0.998852 5.10361e-05
0.037729 -0.0278571 0.9989 0.00228747
0.036718 -0.030681 0.998855 0
0.0344153 -0.0305167 0.998942 0.00465142
0.0320531 -0.0299749 0.999037 0.00632225
0.0304433 -0.0323433 0.999013 0.00344501
-0.0577524 -0.0244189 0.998032 0.00354045
-0.0677688 -0.0232481 0.99743 0.000366361
-0.0720434 -0.0265083 0.997049 0
-0.0720858 -0.0263861 0.997049 0
-0.0700875 -0.0288044 0.997125 0
-0.0695447 -0.0230361 0.997313 0
-0.0712517 -0.0227434 0.997199 0.00258151
-0.0706579 -0.0259868 0.997162 0.00427754
-0.0678887 -0.0260336 0.997353 0.00333125
-0.0642087 -0.0280616 0.997542 0.00154378
-0.0655404 -0.0254394 0.997526 0.00300836
-0.0635523 -0.0225694 0.997723 0.00301056
-0.0654346 -0.0223162 0.997607 0.00258574
0.0271659 -0.0259915 0.999293 0.00258091
0.0320929 -0.0259626 0.999148 0.000186693
0.0319919 -0.0254974 0.999163 0.00025697
0.039188 -0.0272804 0.998859 0.00203671
0.0355417 -0.0284551 0.998963 0.001298
0.0295722 -0.0315355 0.999065 0.00109735
0.0294297 -0.0306194 0.999098 0.00750905
0.0305905 -0.0289292 0.999113 0.00267389
-0.0623778 -0.0221654 0.997806 0.00640507
-0.0701379 -0.0230589 0.997271 0.00282789
-0.0697259 -0.0249935 0.997253 0
-0.070479 -0.0241758 0.99722 0
-0.0690251 -0.0247332 0.997308 0.000737986
-0.0722267 -0.0231923 0.997119 0.000683187
-0.0707386 -0.019977 0.997295 0.00426771
-0.0698093 -0.023702 0.997279 0.00328914
-0.0656011 -0.0257717 0.997513 0.00339628
-0.0628389 -0.032512 0.997494 0
-0.0636196 -0.0268316 0.997613 0.000572784
-0.0640832 -0.0269182 0.997581 0
0.0262113 -0.0224169 0.999405 0.00295894
0.0282349 -0.0233371 0.999329 0
0.0324161 -0.0253204 0.999154 0.000347387
0.0330713 -0.0248487 0.999144 0.00189235
0.0342574 -0.0265982 0.999059 0.00332497
0.0299158 -0.0286401 0.999142 0.000507251
0.0281946 -0.0283252 0.999201 0.00451725
0.027895 -0.0259588 0.999274 0.00382585
-0.0629733 -0.0218223 0.997777 0.0051753
-0.068401 -0.0237675 0.997375 0.00286484
-0.0674511 -0.0235349 0.997445 0
-0.070444 -0.0254269 0.997192 0
-0.0678653 -0.0272932 0.997321 0
-0.0699025 -0.0269987 0.997188 0.000744076
-0.0694813 -0.022616 0.997327 0.00172601
-0.0664763 -0.0208961 0.997569 0.00192408
-0.0652968 -0.0281742 0.997468 0.000444842
-0.0645572 -0.0249141 0.997603 0
-0.0630225 -0.0254512 0.997688 0
0.0261082 -0.0236364 0.99938 0.000727661
0.0275152 -0.0223678 0.999371 0
0.030648 -0.0220883 0.999286 0
0.0336808 -0.0223614 0.999182 0
0.0328278 -0.0238955 0.999175 0.00306953
0.0274312 -0.0260866 0.999283 0.0043643
0.0283593 -0.0266809 0.999242 0
0.0294731 -0.0269762 0.999202 0.00490587
0.0304818 -0.0301817 0.99908 0.0015307
-0.0586678 -0.0226447 0.998021 0.00505224
-0.0653345 -0.0245831 0.997561 0.00187161
-0.066299 -0.0201098 0.997597 0.00128129
-0.0675429 -0.0234217 0.997441 0
-0.0664619 -0.0298808 0.997341 0
-0.067371 -0.0246694 0.997423 0.000267082
-0.0679694 -0.0207145 0.997472 0.00123439
-0.065646 -0.0227961 0.997583 0
-0.0648026 -0.0294163 0.997464 0
-0.0657363 -0.0266988 0.99748 0
-0.0631696 -0.0240568 0.997713 0
-0.0659108 -0.0217853 0.997588 0
-0.0669089 -0.0241471 0.997467 0.000729485
0.024036 -0.0208977 0.999493 0.00256374
0.0308307 -0.0211136 0.999302 0
0.0282799 -0.0217806 0.999363 0
0.0295931 -0.0204334 0.999353 0.000355416
0.0284487 -0.0210729 0.999373 0.00199208
0.0286007 -0.0275851 0.99921 0.00334771
0.0263309 -0.0279557 0.999262 0.00115876
0.0302085 -0.0244231 0.999245 0.00548664
0.0347385 -0.0308967 0.998919 0.00396354
-0.0535498 -0.0217582 0.998328 0.00343785
-0.061324 -0.0230416 0.997852 0.00485316
-0.0649612 -0.0204607 0.997678 0.00203809
-0.0663773 -0.0238445 0.99751 0.000635116
-0.071027 -0.022629 0.997218 0.00377487
-0.068896 -0.0275392 0.997244 0.000776054
-0.0685564 -0.0232932 0.997375 0
-0.0659407 -0.0249303 0.997512 0
-0.0641803 -0.0235751 0.99766 0
-0.0659962 -0.0263729 0.997471 0
-0.0659433 -0.0219118 0.997583 0
-0.0656124 -0.0276242 0.997463 0
0.0197022 -0.017267 0.999657 0.000964555
0.0249767 -0.0210244 0.999467 0
0.0257361 -0.0197686 0.999473 0
0.0295211 -0.0202227 0.99936 0
0.0278198 -0.0231255 0.999345 0.00292601
0.029046 -0.0252729 0.999259 0.0015501
0.0295839 -0.0269047 0.9992 0.00148164
0.0319517 -0.0273111 0.999116 0.00128549
0.0377576 -0.0332623 0.998733 0.00341172
-0.0587293 -0.0234446 0.997999 2.08197e-05
-0.0633625 -0.0229812 0.997726 0
-0.0690903 -0.0221462 0.997365 0.00166734
-0.071444 -0.0220955 0.9972 0.00182435
-0.0689376 -0.0227632 0.997361 0.00423501
-0.0668899 -0.0190577 0.997578 0.00115506
-0.0657337 -0.0258682 0.997502 0
-0.0635469 -0.0281601 0.997581 0
-0.0634592 -0.0288987 0.997566 0
-0.0644276 -0.0259156 0.997586 0
-0.0655144 -0.020904 0.997633 0
-0.0649673 -0.0257897 0.997554 0
0.0247575 -0.0203038 0.999487 0
0.0329582 -0.0216202 0.999223 0
0.0305105 -0.0230642 0.999268 0
0.0327141 -0.0224967 0.999211 0
0.0273793 -0.0219194 0.999385 0.00134031
0.0280942 -0.0220801 0.999361 0.000337873
0.0308983 -0.0267127 0.999166 0.00335658
0.0331795 -0.0294011 0.999017 0.00379266
0.0377323 -0.0298151 0.998843 0.00432383
-0.0597219 -0.025233 0.997896 0
-0.0666004 -0.0253955 0.997456 0
-0.0683835 -0.0235158 0.997382 0
-0.0709999 -0.0237486 0.997194 0.00307193
-0.0664832 -0.0162526 0.997655 0.00241533
-0.0684772 -0.0195329 0.997461 0.00371552
-0.0660897 -0.0224673 0.997561 0
-0.0658887 -0.0260552 0.997487 0
-0.0665806 -0.0293295 0.99735 0
-0.066418 -0.0202574 0.997586 7.25484e-05
0.0343372 -0.0234535 0.999135 0
0.0278685 -0.020816 0.999395 0
0.0295229 -0.020706 0.99935 0
0.0308242 -0.0204692 0.999315 0
0.0319152 -0.0221639 0.999245 0
0.0292709 -0.0198718 0.999374 0.000351721
0.0315918 -0.019842 0.999304 0.00525379
0.0318173 -0.0215319 0.999262 0.00531558
0.0341012 -0.0237951 0.999135 0.00505013
0.0329358 -0.0276332 0.999075 0.00877352
0.0350837 -0.0307566 0.998911 0.00750764
-0.0599243 -0.0254126 0.997879 0
-0.0671378 -0.0268451 0.997382 0
-0.0682717 -0.0289806 0.997246 0.00079849
-0.068024 -0.0215596 0.997451 0.00403204
-0.0699828 -0.0163723 0.997414 0.00398004
-0.0704266 -0.017771 0.997359 0.00404347
-0.0674711 -0.0206236 0.997508 0.00184119
-0.0655972 -0.0243338 0.997549 0
-0.0697551 -0.0248516 0.997255 0
-0.0669744 -0.0188576 0.997576 0.00148536
0.0317408 -0.0212788 0.99927 0
0.0337032 -0.021245 0.999206 0
0.0291492 -0.0197246 0.99938 0
0.0273879 -0.0188503 0.999447 0
0.0333237 -0.0196192 0.999252 0.00144356
0.0309179 -0.0196685 0.999328 0.00567311
0.0325543 -0.0248589 0.999161 0.00499829
0.0336599 -0.0243286 0.999137 0.0082411
0.0350928 -0.0266144 0.99903 0.00712724
-0.0569643 -0.0264452 0.998026 0
-0.0665812 -0.025155 0.997464 0.00243018
-0.0711261 -0.0237321 0.997185 0.00817952
-0.0703379 -0.0220767 0.997279 0.00648904
-0.0733246 -0.0197182 0.997113 0.00527644
-0.0709001 -0.018393 0.997314 0.00494542
-0.0669189 -0.0171737 0.997611 0
-0.0679443 -0.0162175 0.997557 0
-0.0663348 -0.0205724 0.997585 0
-0.0699193 -0.0216335 0.997318 0.00200124
-0.0694802 -0.0182678 0.997416 0.00336915
0.0266956 -0.020962 0.999424 0
0.0266124 -0.018651 0.999472 0
0.0301042 -0.0204762 0.999337 0
0.0273294 -0.0175357 0.999473 0
0.027965 -0.0207192 0.999394 0
0.0326506 -0.0175907 0.999312 0.0008395
0.0309523 -0.019793 0.999325 0.00625179
0.031986 -0.0277799 0.999102 0.00571733
0.0335649 -0.0264239 0.999087 0.00797359
0.0347781 -0.0254239 0.999072 0.00506506
-0.0580358 -0.0248215 0.998006 0.00276972
-0.0674142 -0.0243576 0.997428 0.00493901
-0.0729247 -0.0242024 0.997044 0.00810237
-0.0731474 -0.0246626 0.997016 0.00914548
-0.0710201 -0.0213127 0.997247 0.00784783
-0.0712216 -0.0158105 0.997335 0.00407254
-0.0685665 -0.0173977 0.997495 0
-0.0655623 -0.0195516 0.997657 0
-0.0674342 -0.0213893 0.997495 0.000993712
0.0207949 -0.0192202 0.999599 0.000299063
0.0265126 -0.0164035 0.999514 0
0.0279689 -0.0197295 0.999414 0
0.0298443 -0.0197767 0.999359 0
0.0311556 -0.0194058 0.999326 0.0015187
0.0325947 -0.0210392 0.999247 0.00174672
0.034271 -0.0253236 0.999092 0.00439148
0.0330693 -0.0255967 0.999125 0.00681504
0.0344722 -0.0263812 0.999057 0.00415374
-0.0532265 -0.0240201 0.998294 0.00689569
-0.0655542 -0.0232738 0.997578 0.00701924
-0.07141 -0.0237503 0.997164 0.00840377
-0.0710401 -0.026529 0.997121 0.0096672
-0.0727675 -0.0190912 0.997166 0.00732396
-0.068416 -0.0201814 0.997453 0.00135912
-0.0695712 -0.017113 0.99743 0.00130027
-0.0705901 -0.0180373 0.997342 0.00140172
-0.0705051 -0.0214507 0.997281 0.00297612
0.0157765 -0.0157894 0.999751 0.00512396
0.0239592 -0.0147646 0.999604 0.00192572
0.0272373 -0.018062 0.999466 0.000355237
0.0295336 -0.0188596 0.999386 0.000337264
0.0311048 -0.0177452 0.999359 0.00237778
0.031695 -0.0205581 0.999286 0.00205129
0.0323891 -0.0244504 0.999176 0.00444848
0.0339118 -0.0277059 0.999041 0.00553654
0.0347232 -0.0253413 0.999076 0
0.0364611 -0.0262957 0.998989 0.00213272
-0.0524414 -0.0255625 0.998297 0.00369754
-0.0625991 -0.0254524 0.997714 0.00646177
-0.0707377 -0.02575 0.997162 0.00799488
-0.0693388 -0.0268059 0.997233 0.00794959
-0.0712527 -0.0198768 0.99726 0.00811429
-0.0685239 -0.0233734 0.997376 0.00107182
-0.0688994 -0.0195952 0.997431 0.00109939
-0.0687755 -0.0177961 0.997473 0
-0.0729483 -0.0180697 0.997172 0.00207177
-0.0707672 -0.0150947 0.997379 0.00465586
0.00924848 -0.0152087 0.999842 0.00580812
0.0140694 -0.0163777 0.999767 0.00165739
0.0180798 -0.0144392 0.999732 0.00381079
0.0264761 -0.0165096 0.999513 0.00166548
0.0283876 -0.0171879 0.999449 0.0022249
0.028474 -0.0174187 0.999443 0.00233232
0.0312633 -0.0191145 0.999328 0.00408738
0.0352552 -0.0240597 0.999089 0.0056567
0.0329679 -0.0265777 0.999103 0.0047637
0.0341363 -0.0302594 0.998959 0.00336879
0.0342583 -0.0292815 0.998984 0
-0.0582891 -0.0230762 0.998033 0.0076079
-0.066193 -0.023883 0.997521 0.00909975
-0.0681871 -0.0240383 0.997383 0.00903542
-0.0690176 -0.0219005 0.997375 0.00852891
-0.068961 -0.0217069 0.997383 0.00502427
-0.0651812 -0.02136 0.997645 0
-0.0708758 -0.0139056 0.997388 0.00395109
-0.0722265 -0.0118746 0.997318 0.00425672
0.0104384 -0.0175374 0.999792 0.0055164
0.0140501 -0.0160258 0.999773 0.00467542
0.0241074 -0.0152558 0.999593 0.00498219
0.0263864 -0.0194211 0.999463 0.00321248
0.0273574 -0.0188873 0.999447 0.00328776
0.0283053 -0.0182494 0.999433 0.00548409
0.0345355 -0.0195947 0.999211 0.000846244
0.0312394 -0.020429 0.999303 0.00372622
0.0341149 -0.0264221 0.999069 0.00139783
0.0338751 -0.0298805 0.998979 0
-0.0467449 -0.022502 0.998653 0.0027602
-0.057923 -0.0231298 0.998053 0.00713643
-0.0666642 -0.0225322 0.997521 0.00781523
-0.068856 -0.0261913 0.997283 0.00466812
-0.0668505 -0.0252451 0.997444 0.00650602
-0.0680002 -0.0215285 0.997453 0.00414709
-0.0655743 -0.0210704 0.997625 0.000160564
-0.072097 -0.0162542 0.997265 0.0027829
-0.073472 -0.00949126 0.997252 0.00539967
0.0146725 -0.0185638 0.99972 0.00656522
0.0252212 -0.0176869 0.999525 0.00464843
0.0220119 -0.0169581 0.999614 0.00826466
0.0268648 -0.0185572 0.999467 0.00724167
0.0299404 -0.0205176 0.999341 0.00579779
0.0323257 -0.0206394 0.999264 0.000768689
0.0326737 -0.0221144 0.999221 0.000298844
0.0321026 -0.0243191 0.999189 0
0.0359861 -0.028279 0.998952 0
0.0413327 -0.0279936 0.998753 0
-0.0489585 -0.0235666 0.998523 0.00357655
-0.0576043 -0.0251903 0.998022 0.00505129
-0.0637754 -0.0255617 0.997637 0.00645553
-0.0681553 -0.0218733 0.997435 0.00739142
-0.068313 -0.0237007 0.997382 0.0057108
-0.0657891 -0.0236425 0.997553 0.00143772
-0.0694631 -0.0186371 0.99741 0.00345019
-0.0716367 -0.0168356 0.997289 0.00258536
0.00834916 -0.0188633 0.999787 0.00836003
0.0125737 -0.016576 0.999784 0.00979476
0.0185109 -0.0187522 0.999653 0.0100193
0.0293058 -0.0200935 0.999368 0.00842897
0.0282932 -0.0179026 0.999439 0.00831155
0.0286279 -0.0200165 0.99939 0.00475575
0.0320544 -0.0178003 0.999328 0.00144268
0.0335287 -0.018987 0.999257 0
0.0315847 -0.0267483 0.999143 0
0.0357865 -0.0311588 0.998874 0
0.0421558 -0.0303597 0.99865 0
-0.0589383 -0.0229148 0.997999 0.00659949
-0.0648885 -0.0231776 0.997623 0.00532288
-0.0686048 -0.0190746 0.997462 0.00906074
-0.0684266 -0.0201347 0.997453 0.00757072
-0.066648 -0.0255004 0.997451 0
-0.0694999 -0.0165832 0.997444 0.00100801
-0.0713399 -0.0134059 0.997362 0.00267135
-0.0707645 -0.0183276 0.997325 0.00530819
0.00667782 -0.0165485 0.999841 0.00806309
0.011763 -0.0183495 0.999762 0.00588133
0.0182209 -0.0174414 0.999682 0.00797381
0.0258395 -0.0187144 0.999491 0.00842481
0.0268844 -0.0179669 0.999477 0.00696622
0.0310173 -0.0220133 0.999276 0.00593254
0.0290394 -0.0187396 0.999403 0.00529706
0.0292331 -0.0220023 0.99933 0
0.0276971 -0.0186058 0.999443 0
0.034167 -0.0297714 0.998973 0
0.039339 -0.0274566 0.998849 0
-0.0576143 -0.0218281 0.9981 0.00539232
-0.0624207 -0.0209813 0.997829 0.00584798
-0.0696759 -0.0197971 0.997373 0.00868881
-0.0700087 -0.0252139 0.997228 0.00702591
-0.0698596 -0.0263277 0.997209 0.00176445
-0.0704462 -0.0229009 0.997253 0.00107445
-0.0729769 -0.0205215 0.997123 0.00714022
0.00228014 -0.0137365 0.999903 0.00753916
0.0147155 -0.0173977 0.99974 0.00623266
0.0200155 -0.0193058 0.999613 0.00456743
0.0263565 -0.0212334 0.999427 0.00368221
0.0278494 -0.0209947 0.999392 0.0051778
0.0294395 -0.0171531 0.999419 0.00710334
0.0306187 -0.0199723 0.999332 0.00170218
0.0268167 -0.0190172 0.99946 0
0.0261843 -0.0173792 0.999506 0.000480166
0.0329435 -0.0245325 0.999156 0
0.0369019 -0.0264204 0.99897 0
0.0228619 -0.0333577 0.999182 0
-0.0482158 -0.0221923 0.99859 0.00320546
-0.0533641 -0.0242743 0.99828 0.00279918
-0.0602689 -0.0255649 0.997855 0.00154925
-0.0661846 -0.0275611 0.997427 0.00343421
-0.0728288 -0.0244886 0.997044 0.00544523
-0.0758948 -0.0209324 0.996896 0.00554639
-0.0735518 -0.0254991 0.996965 0.00676649
-0.0735925 -0.0262556 0.996943 0.00471917
-0.0751229 -0.0210182 0.996953 0.0084411
0.000451885 -0.0168826 0.999857 0.01118
0.015712 -0.0197126 0.999682 0.00488578
0.0231061 -0.0217688 0.999496 0.000856582
0.0283295 -0.023363 0.999326 0.00268936
0.033632 -0.0214644 0.999204 0.00163604
0.03075 -0.0198612 0.99933 0.00336683
0.029943 -0.0224278 0.9993 0.00260395
0.0291014 -0.0217562 0.99934 0.00240964
0.0310639 -0.0235299 0.99924 0
0.0282257 -0.0196738 0.999408 0
0.0223079 -0.0336082 0.999186 0
-0.0499794 -0.0230693 0.998484 0.00325771
-0.0528165 -0.0242881 0.998309 0.000716869
-0.060296 -0.0254425 0.997856 0
-0.0694019 -0.0224209 0.997337 0.00535532
-0.0757998 -0.0214039 0.996893 0.00746374
-0.0742964 -0.0217818 0.996998 0.00525849
-0.0766387 -0.0263443 0.996711 0.00879232
-0.0736458 -0.0267731 0.996925 0.00645984
-0.0735 -0.0233589 0.997022 0.00720699
0.00498078 -0.0212472 0.999762 0.00967034
0.0171051 -0.024364 0.999557 0.000675792
0.0259653 -0.0250816 0.999348 0
0.030938 -0.0265856 0.999168 0
0.0323864 -0.0250004 0.999163 0.00195605
0.0302777 -0.0246256 0.999238 0.00444417
0.0300509 -0.0210153 0.999327 0.00544849
0.0326096 -0.0245231 0.999167 0.00279508
0.0324783 -0.0227147 0.999214 0
0.0293766 -0.0217859 0.999331 0.00188887
0.0356249 -0.0264742 0.999014 0.00371636
-0.0510931 -0.0271651 0.998324 0.0041614
-0.0533759 -0.0261959 0.998231 0.0034557
-0.0629362 -0.0261674 0.997674 0.00256303
-0.0736591 -0.0234329 0.997008 0.00930072
-0.0767936 -0.0218057 0.996809 0.00824626
-0.0757656 -0.0256071 0.996797 0.00476422
-0.0741652 -0.0270735 0.996878 0.00671014
-0.0730132 -0.0300688 0.996878 0.00585298
-0.0705217 -0.0259842 0.997172 0.00329966
0.00662693 -0.0232693 0.999707 0.00404873
0.0193322 -0.0288014 0.999398 0
0.0270678 -0.026657 0.999278 0.000992572
0.0322708 -0.0298302 0.999034 0
0.0323906 -0.0258748 0.99914 0.00355136
0.0253564 -0.0241059 0.999388 0.00994456
0.0272405 -0.0248596 0.99932 0.00772114
0.0269641 -0.0252326 0.999318 0.00505889
0.0304986 -0.0241633 0.999243 0.00135792
0.0274391 -0.0262724 0.999278 0.00645087
0.0330422 -0.0277792 0.999068 0.00327146
-0.0459054 -0.0258028 0.998613 0.00598839
-0.0474593 -0.0285923 0.998464 0.00295923
-0.0563434 -0.0277204 0.998027 0.00330942
-0.0614742 -0.0294377 0.997674 0
-0.0693345 -0.0270071 0.997228 0.00459021
-0.0753376 -0.0252394 0.996839 0.00840272
-0.0740967 -0.022298 0.997002 0.00930595
-0.0756863 -0.0240011 0.996843 0.00883908
-0.0707643 -0.0297591 0.997049 0.00284582
0.00225141 -0.0254175 0.999674 0.00185017
0.0156121 -0.0281655 0.999481 0
0.0246059 -0.0300995 0.999244 0.00141663
0.028634 -0.0308764 0.999113 0.00400961
0.0298478 -0.0254766 0.99923 0.00568256
0.026903 -0.0238168 0.999354 0.00980657
0.0288651 -0.024986 0.999271 0.00864113
0.0277399 -0.0266039 0.999261 0.00201516
0.0279325 -0.0268121 0.99925 0.00452002
0.0255459 -0.0283914 0.99927 0.00750751
0.0288667 -0.0276054 0.999202 0.00481528
0.025432 -0.0386207 0.99893 0.000426968
-0.0523107 -0.0295131 0.998195 0.00500334
-0.0560145 -0.0269032 0.998067 0.00616277
-0.061161 -0.0279361 0.997737 0.00576795
-0.0705779 -0.025217 0.997187 0.00879628
-0.0741477 -0.0250177 0.996933 0.0095483
-0.0717528 -0.026297 0.997076 0.00633486
-0.0736792 -0.0251288 0.996965 0.0049751
-0.0722087 -0.0292635 0.99696 0.00233863
-0.0691821 -0.0312797 0.997114 0.00142698
0.000200156 -0.0274856 0.999622 0.00191454
0.00897373 -0.0299184 0.999512 0.00257982
0.0238397 -0.0316099 0.999216 0
0.0275656 -0.0304013 0.999158 0.00421282
0.0296995 -0.0307282 0.999086 0.00790301
0.0328599 -0.0298213 0.999015 0.00473015
0.0308043 -0.0263368 0.999178 0.0054413
0.0267082 -0.0298638 0.999197 0.00717827
0.0238428 -0.0313596 0.999224 0.00480366
0.0265506 -0.0273762 0.999273 0.00480753
0.0285328 -0.0294584 0.999159 0.00428894
0.0241856 -0.0386066 0.998962 0.000798481
-0.0366324 -0.0279479 0.998938 0.000478414
-0.0525659 -0.0289752 0.998197 0.00833998
-0.0549184 -0.0297826 0.998047 0.0071063
-0.0664938 -0.0298716 0.99734 0.00847649
-0.0656734 -0.0310223 0.997359 0.00561131
-0.0691505 -0.027943 0.997215 0.00564858
-0.0680255 -0.0270613 0.997317 0.00449182
-0.0698197 -0.0277176 0.997175 0.00490575
-0.070682 -0.0293531 0.997067 0.00513247
-0.0714484 -0.0292399 0.997016 0.00133627
-0.0685471 -0.0297477 0.997204 0
-0.00149505 -0.03192 0.999489 0.0056639
0.00594587 -0.030536 0.999516 0.00602998
0.0187051 -0.0319906 0.999313 0.00410016
0.0257684 -0.0332606 0.999114 0.00607127
0.0273686 -0.034038 0.999046 0.00562846
0.0290205 -0.029949 0.99913 0.00737367
0.0297122 -0.0265613 0.999206 0.00891859
0.0290666 -0.0302963 0.999118 0.00593316
0.0251496 -0.034619 0.999084 0.0057071
0.025404 -0.033084 0.99913 0.00111588
0.0280521 -0.0328043 0.999068 0.00205664
0.0260375 -0.044773 0.998658 0
-0.0469279 -0.0358497 0.998255 0.00417961
-0.0532404 -0.0346802 0.997979 0.00913525
-0.0673091 -0.0329621 0.997188 0.0099085
-0.0664011 -0.0316382 0.997291 0.00708739
-0.0653369 -0.0306348 0.997393 0.00579713
-0.0686892 -0.0289847 0.997217 0.00371128
-0.0705289 -0.0315973 0.997009 0.00409995
-0.0694966 -0.0276367 0.997199 0.00293617
-0.0679711 -0.0272921 0.997314 0
0.000601138 -0.0305736 0.999532 0.00585059
0.00358195 -0.0317805 0.999488 0.00683031
0.0120455 -0.0288871 0.99951 0.00970873
0.0205823 -0.0311914 0.999301 0.00822352
0.0258334 -0.033723 0.999097 0.00622285
0.0277106 -0.0376355 0.998907 0.00862836
0.0251899 -0.0282722 0.999283 0.00915933
0.0264661 -0.0287473 0.999236 0.0080344
0.0211156 -0.0332205 0.999225 0.00485178
0.0235314 -0.0372661 0.999028 0.00254873
0.0263462 -0.0374203 0.998952 0.00361654
0.0240555 -0.0455654 0.998672 0
-0.0454628 -0.0360664 0.998315 0.00469648
-0.0492185 -0.0358821 0.998143 0.00875427
-0.0605306 -0.0367638 0.997489 0.00793397
-0.0671081 -0.0343524 0.997154 0.0050802
-0.0634392 -0.0330316 0.997439 0.00492234
-0.0690442 -0.0331676 0.997062 0.00375253
-0.0663914 -0.0280945 0.997398 0
-0.0686857 -0.0274769 0.99726 0
0.0028587 -0.0337416 0.999427 0.00569709
0.0099427 -0.0324547 0.999424 0.00694629
0.0147115 -0.0331657 0.999342 0.00571095
0.014085 -0.0341983 0.999316 0.00901598
0.0210664 -0.033857 0.999205 0.00765455
0.0259227 -0.0367716 0.998987 0.00765192
0.0234425 -0.035106 0.999109 0.00975631
0.0235006 -0.0363755 0.999062 0.0106378
0.0239187 -0.0348485 0.999106 0.00754618
0.0197328 -0.0310452 0.999323 0.00577461
0.0222829 -0.03429 0.999163 0.00533496
0.0270173 -0.0437582 0.998677 0.00287372
0.0214794 -0.0484642 0.998594 0
-0.0414212 -0.0379064 0.998422 0.0029217
-0.0475624 -0.0396091 0.998083 0.00534226
-0.0565408 -0.0416951 0.997529 0.00470479
-0.0601688 -0.039936 0.997389 0.00251254
-0.063687 -0.0395881 0.997184 0.00398666
-0.0628888 -0.0358789 0.997375 0
-0.0656941 -0.0319207 0.997329 0
0.00335419 -0.0357253 0.999356 0.00586822
0.00904542 -0.0355745 0.999326 0.00834985
0.018242 -0.0359443 0.999187 0.00656319
0.021978 -0.0374674 0.999056 0.00736039
0.0298069 -0.0343167 0.998966 0.00685191
0.0256125 -0.0360249 0.999023 0.00928586
0.0265086 -0.0414474 0.998789 0.00548086
0.0215097 -0.038498 0.999027 0.00793287
0.0221869 -0.035805 0.999112 0.0046918
0.0252247 -0.0366862 0.999008 0.00158708
0.026678 -0.0439903 0.998676 0.00305179
0.0210933 -0.0476335 0.998642 0.00184811
-0.0432719 -0.0412199 0.998213 0.00250791
-0.0499501 -0.0434234 0.997807 0.00616718
-0.0530324 -0.0463806 0.997515 0.00343686
-0.0540919 -0.0419425 0.997655 0.000509093
-0.0639348 -0.0422155 0.997061 0.00429623
-0.0618685 -0.0368259 0.997405 0.00165235
0.00923323 -0.0398238 0.999164 0
0.00963533 -0.0401863 0.999146 0.00448135
0.0183887 -0.0400531 0.999028 0.0044513
0.0250984 -0.0387478 0.998934 0.00540111
0.0254815 -0.0376976 0.998964 0.0106518
0.0258681 -0.0427115 0.998752 0.00760575
0.0268872 -0.0432937 0.9987 0.00482908
0.025886 -0.0473276 0.998544 0.00472839
0.0232969 -0.0447866 0.998725 0.00549488
0.0213708 -0.0427579 0.998857 0.00237087
0.0248262 -0.0416897 0.998822 0
0.0330405 -0.0444605 0.998465 0
0.0348736 -0.0517957 0.998049 0
0.0230918 -0.0493483 0.998515 0.00188932
0.019431 -0.0518222 0.998467 0
-0.0463916 -0.0428446 0.998004 0.00612071
-0.0517523 -0.0437821 0.9977 0.0086391
-0.0541894 -0.0496434 0.997296 0.00491264
-0.0547992 -0.0446565 0.997498 0.00107193
-0.0570686 -0.0442535 0.997389 0
-0.0639259 -0.0376596 0.997244 0.00175674
-0.0648062 -0.030473 0.997432 0
0.00851778 -0.0387318 0.999213 0.00192947
0.0151774 -0.0416876 0.999015 0.00198155
0.0169765 -0.0408716 0.99902 0.00582018
0.0240889 -0.0419583 0.998829 0.00726604
0.0281373 -0.0454574 0.99857 0.00687096
0.0249069 -0.0450104 0.998676 0.00821521
0.0248762 -0.0460274 0.99863 0.00866018
0.0224171 -0.0464783 0.998668 0.00504403
0.0226708 -0.048295 0.998576 0.00124413
0.0261703 -0.0472331 0.998541 0
0.0297261 -0.0482231 0.998394 0
0.035419 -0.0529382 0.997969 0
0.0246856 -0.0529211 0.998294 0
-0.0332731 -0.0517317 0.998107 0.000549251
-0.0477257 -0.049022 0.997657 0.00707027
-0.0528664 -0.0492117 0.997388 0.00903089
-0.0584362 -0.051819 0.996945 0.00888801
-0.0575088 -0.0498528 0.9971 0.00583552
-0.0574369 -0.0512573 0.997032 0.00131447
-0.062118 -0.0450794 0.99705 0
0.0027782 -0.0455728 0.998957 0.0016706
0.0074485 -0.0456554 0.998929 0.00261339
0.0146227 -0.0453737 0.998863 0.00448809
0.0212057 -0.0444206 0.998788 0.00546929
0.0273112 -0.042337 0.99873 0.00703247
0.02571 -0.0438739 0.998706 0.00926721
0.0226162 -0.0473214 0.998624 0.00543122
0.0207402 -0.0530986 0.998374 0.00503561
0.0243051 -0.0500743 0.99845 0.000890508
0.0268685 -0.0570602 0.998009 0
0.0344365 -0.054195 0.997936 0
0.0276911 -0.05547 0.998076 0
0.019645 -0.0588881 0.998071 0
-0.0352598 -0.0543614 0.997899 0.00125392
-0.0512059 -0.0479495 0.997536 0.0107405
-0.0558426 -0.04912 0.997231 0.0133732
-0.0557078 -0.0530071 0.997039 0.0102149
-0.0612592 -0.0510148 0.996817 0.00893834
-0.0605115 -0.0565991 0.996562 0.00405449
-0.0666508 -0.0433181 0.996836 0.000711298
-0.00224119 -0.0445964 0.999003 0.00663142
0.00131769 -0.0478547 0.998853 0.00888759
0.01261 -0.0492819 0.998705 0.00664805
0.0240141 -0.0478383 0.998566 0.00826529
0.0228817 -0.0447173 0.998738 0.00760069
0.0225172 -0.0480586 0.998591 0.0129914
0.0247802 -0.0528354 0.998296 0.00534557
0.0232651 -0.0507804 0.998439 0.00257282
0.0245891 -0.0546752 0.998201 0.00409622
0.0239656 -0.0541392 0.998246 0.00267829
0.0253145 -0.0572298 0.99804 0
0.0317444 -0.0581547 0.997803 0
0.0238984 -0.05749 0.99806 0
0.0189977 -0.0630355 0.99783 0
-0.0356161 -0.0564993 0.997767 0.00174101
-0.0461873 -0.056579 0.997329 0.00870985
-0.0488018 -0.0539834 0.997349 0.00993474
-0.0556175 -0.0529783 0.997046 0.0132702
-0.0553609 -0.0576199 0.996803 0.0106058
-0.0639763 -0.0549483 0.996438 0.0104162
-0.0626473 -0.0568836 0.996413 0.0031378
0.0055703 -0.0527018 0.998595 0.00300453
0.0200775 -0.0563138 0.998211 0.00170857
0.0238897 -0.0522031 0.998351 0.00761723
0.0265057 -0.0520482 0.998293 0.0100656
0.024823 -0.0534555 0.998262 0.0102263
0.0245915 -0.0510935 0.998391 0.00713677
0.0247003 -0.0606852 0.997851 0.000507095
0.0250235 -0.0575136 0.998031 0.00163934
0.0262615 -0.0608507 0.997801 0
0.0247074 -0.0616955 0.997789 0
0.0285397 -0.0585796 0.997875 0
0.0284184 -0.0608809 0.99774 0
0.0235162 -0.0617846 0.997812 0
0.015728 -0.0636269 0.99785 0
-0.0337106 -0.0614404 0.997541 0.00170097
-0.0427103 -0.0611888 0.997212 0.00335324
-0.0454979 -0.0571629 0.997328 0.00788568
-0.0498575 -0.0565517 0.997154 0.0104457
-0.0518391 -0.0573232 0.997009 0.00807609
-0.0587408 -0.057407 0.996621 0.0109756
-0.0651002 -0.0579683 0.996194 0.00808444
-0.0628979 -0.0571851 0.99638 0.00430497
-0.0626373 -0.0637817 0.995996 0.00348254
0.0091398 -0.0599659 0.998159 0.00219733
0.0220882 -0.0611483 0.997884 0
0.0215196 -0.0609548 0.997909 0.00493574
0.023889 -0.0571194 0.998082 0.0103242
0.025959 -0.0567081 0.998053 0.0101496
0.024926 -0.0557963 0.998131 0.00629895
0.0275277 -0.0598686 0.997827 0.00218219
0.0233435 -0.0627979 0.997753 0.00322759
0.0282371 -0.0663555 0.997396 0
0.0270207 -0.0691594 0.99724 0
0.0270203 -0.0674305 0.997358 0
0.0320471 -0.0672202 0.997223 0
0.0256998 -0.0653065 0.997534 0
0.0190283 -0.0682699 0.997485 0
-0.0358293 -0.0647781 0.997256 0.0020325
-0.0443121 -0.063148 0.99702 0.00520819
-0.0455373 -0.0613675 0.997076 0.00767356
-0.0500552 -0.0563098 0.997158 0.0143439
-0.0551788 -0.0604847 0.996643 0.00739591
-0.0583676 -0.060067 0.996486 0.00731164
-0.0648118 -0.0628817 0.995914 0.00973037
-0.062988 -0.0645777 0.995923 0.00478489
-0.062506 -0.0660458 0.995857 0.00217407
0.0124469 -0.0652257 0.997793 0.00211337
0.0196026 -0.0642094 0.997744 0
0.0193456 -0.0620167 0.997888 0.0054918
0.022136 -0.0633844 0.997744 0.00778956
0.0251285 -0.0641014 0.997627 0.00644689
0.0273412 -0.0665661 0.997407 0.00364607
0.0271679 -0.066961 0.997386 0.00114357
0.02542 -0.0634726 0.99766 0.000234855
0.0280186 -0.0689895 0.997224 0
0.0251888 -0.0705174 0.997193 0
0.0224707 -0.0698176 0.997307 0
0.0308913 -0.0718917 0.996934 0
0.0258022 -0.0716997 0.997092 0
0.0178929 -0.0702103 0.997372 0.000827194
-0.0374372 -0.0614544 0.997408 0.00366721
-0.0441841 -0.0654352 0.996878 0.0103752
-0.0466787 -0.0625645 0.996949 0.00707123
-0.0467445 -0.0655057 0.996757 0.00670277
-0.0508808 -0.0666026 0.996481 0.00527496
-0.0618306 -0.0671035 0.995828 0.00727826
-0.0617813 -0.0687502 0.995719 0.00445342
0.016811 -0.0682243 0.997528 0.00407579
0.019211 -0.0662228 0.99762 0.0048126
0.0209084 -0.0681821 0.997454 0.00124962
0.0206146 -0.0680769 0.997467 0.00699499
0.0269404 -0.0677619 0.997338 0.00538225
0.0275013 -0.0726984 0.996975 0.00124329
0.0260844 -0.0724301 0.997032 0
0.0278174 -0.0743828 0.996842 0
0.0295755 -0.072889 0.996901 0
0.0253865 -0.0777429 0.99665 0
0.0269153 -0.0743441 0.996869 0
0.0278979 -0.0708009 0.9971 0
0.0237218 -0.0739926 0.996977 0
0.0180342 -0.0721645 0.99723 0.00309973
-0.0375761 -0.066201 0.997099 0.0061747
-0.0398138 -0.068459 0.996859 0.0061428
-0.0458929 -0.0659624 0.996766 0.0049847
-0.0451777 -0.0654867 0.99683 0.00387632
-0.0516287 -0.0657337 0.996501 0.00778749
-0.0572552 -0.0673419 0.996086 0.00564098
-0.0585437 -0.0693809 0.995871 0.00589746
-0.0618307 -0.0707797 0.995574 0.00617316
-0.00323552 -0.0686025 0.997639 0.00985583
0.0127885 -0.0710549 0.997391 0.00480939
0.0196497 -0.0730116 0.997137 0.00287935
0.023851 -0.074801 0.996913 0
0.0229705 -0.0735377 0.997028 0.00474648
0.0254351 -0.0736754 0.996958 0.00337741
0.0299869 -0.082193 0.996165 0
0.0302551 -0.0781212 0.996485 0
0.0266024 -0.0787503 0.996539 0
0.0257333 -0.0807117 0.996405 0
0.0297072 -0.0812436 0.996251 0
0.026634 -0.07839 0.996567 0
0.025897 -0.0739966 0.996922 0
0.0196241 -0.0770134 0.996837 0.00177627
0.017382 -0.0747825 0.997048 0.00364662
0.00750304 -0.0780216 0.996923 0.00632519
-0.0362756 -0.0731789 0.996659 0.00380499
-0.039671 -0.0736007 0.996498 0.00478582
-0.0464813 -0.07095 0.996396 0.0076141
-0.0471019 -0.0693657 0.996479 0.0072944
-0.0498778 -0.0692001 0.996355 0.00741896
-0.0601418 -0.073824 0.995456 0.00371878
-0.0594468 -0.0704051 0.995746 0.0053773
0.00316107 -0.0754541 0.997144 0.00482371
0.0119677 -0.0749377 0.997116 0.00468121
0.0199217 -0.0783089 0.99673 0.00335658
0.0316835 -0.0861496 0.995778 0
0.0312422 -0.0888259 0.995557 0
0.0264874 -0.0840175 0.996112 0
0.0248022 -0.0872464 0.995878 0
0.0257556 -0.0844728 0.996093 0
0.0266568 -0.0838545 0.996121 0
0.0272757 -0.0794739 0.996464 0
0.0262444 -0.0831295 0.996193 0
0.0200442 -0.0804967 0.996553 0.00107559
0.0171499 -0.0801262 0.996637 0.00254848
0.00645399 -0.0785151 0.996892 0.00569674
-0.0357674 -0.0780759 0.996306 0.00339654
-0.0413314 -0.0720001 0.996548 0.00596956
-0.0431019 -0.0771921 0.996084 0.00326711
-0.0462978 -0.0746805 0.996132 0.00504566
-0.0604852 -0.0747316 0.995368 0.00281028
0.00970595 -0.0792722 0.996806 0.00224485
0.0163004 -0.0819569 0.996503 0.00257549
0.0331781 -0.0931844 0.995096 0
0.0296369 -0.0927671 0.995247 0
0.0242921 -0.0949299 0.995188 0
0.0218913 -0.0885694 0.995829 0
0.0261434 -0.0899664 0.995602 0
0.0257329 -0.0882207 0.995768 0
0.0271389 -0.0850739 0.996005 0
0.0233395 -0.0867768 0.995954 0
0.0215985 -0.0859066 0.996069 0
0.0189677 -0.0833995 0.996336 0.00278191
0.00970859 -0.0850451 0.99633 0.00763038
-0.0342416 -0.081553 0.996081 0.00414166
-0.041909 -0.0800215 0.995912 0.00149503
-0.0403644 -0.0796288 0.996007 0.000625106
-0.0447617 -0.0815122 0.995667 0.00223279
-0.012747 -0.0818465 0.996563 0.00467565
0.00611069 -0.0829529 0.996535 0.00590201
0.0119913 -0.0865509 0.996175 0.00346413
0.0254497 -0.101326 0.994528 0
0.0200786 -0.09668 0.995113 0
0.0249027 -0.0928158 0.995372 0.00021135
0.0275536 -0.089859 0.995573 0.000184156
0.0300095 -0.092452 0.995265 0
0.0282015 -0.090294 0.995516 0
0.0238105 -0.0869531 0.995928 0
0.0243198 -0.0906291 0.995588 0
0.0186008 -0.0868049 0.996052 0.00366184
0.0128353 -0.0912217 0.995748 0.00440679
-0.0347028 -0.0868717 0.995615 0.0033197
-0.0401589 -0.0871036 0.995389 0
-0.0393278 -0.083281 0.99575 0.00441958
-0.0429881 -0.0842553 0.995516 0.0039692
-0.00892069 -0.0915069 0.995765 0.0014591
0.00542031 -0.0892839 0.995991 0.0044699
0.0194194 -0.0934214 0.995437 0.00243383
0.0207529 -0.106406 0.994106 0
0.0204916 -0.0993891 0.994838 0
0.025907 -0.100851 0.994564 0
0.0284529 -0.0968854 0.994889 0
0.0293923 -0.0979297 0.994759 0
0.0273362 -0.0978487 0.994826 0
0.0251841 -0.0957298 0.995089 0
0.0199211 -0.0929988 0.995467 0.00245696
0.0135661 -0.0911839 0.995742 0.00447681
-0.0351238 -0.0901795 0.995306 0.00498313
-0.0392386 -0.0912297 0.995057 2.21823e-06
-0.0383062 -0.0887795 0.995314 0.00215559
-0.0439692 -0.0917616 0.99481 0.00342277
-0.0141291 -0.0951591 0.995362 0.00359005
0.000588333 -0.0931278 0.995654 0.0122341
0.0157755 -0.0972225 0.995138 0.00758684
0.0189236 -0.102241 0.99458 0
0.0209784 -0.103934 0.994363 0
0.0263265 -0.106644 0.993949 0
0.032089 -0.102683 0.994196 0
0.0289199 -0.102492 0.994313 0
0.0250372 -0.100945 0.994577 0
0.0193612 -0.0979967 0.994998 0
0.0162199 -0.0971536 0.995137 0.00226411
0.015112 -0.0962793 0.99524 0.00323407
-0.0344833 -0.0904661 0.995302 0.00507583
-0.0375965 -0.0967332 0.9946 0
-0.0391029 -0.0943839 0.994768 0.0058291
-0.0440692 -0.0919322 0.99479 0.00712707
-0.0166032 -0.0977879 0.995069 0.00364828
0.00371749 -0.10122 0.994857 0.00941567
0.0176001 -0.100399 0.994792 0.00904113
0.0234171 -0.10281 0.994425 0.00189532
0.0232142 -0.108016 0.993878 0
0.0311855 -0.105522 0.993928 0
0.0304454 -0.105259 0.993979 0
0.0181609 -0.10228 0.99459 0
0.0151367 -0.104432 0.994417 0
-0.0338203 -0.0958066 0.994825 0.00435163
-0.0365904 -0.0974526 0.994567 0.00327516
-0.0416367 -0.0946 0.994644 0.00967272
-0.0145074 -0.106444 0.994213 0.000710101
0.00320976 -0.105442 0.99442 0.00744159
0.0207586 -0.106342 0.994113 0.00155656
0.022956 -0.111987 0.993445 0
0.0287895 -0.106522 0.993893 0
0.030226 -0.112837 0.993154 0
0.0311049 -0.111905 0.993232 0
0.0232177 -0.107929 0.993887 0
0.017581 -0.106614 0.994145 0
0.0134056 -0.109368 0.993911 0
-0.031871 -0.0995808 0.994519 0.00389172
-0.0371168 -0.0974521 0.994548 0.00567131
-0.0423503 -0.0964724 0.994434 0.0120906
-0.0143938 -0.112968 0.993494 0
0.00413196 -0.112092 0.993689 0
0.0092093 -0.113605 0.993483 0
0.0225162 -0.11372 0.993258 0.000184099
0.030467 -0.114658 0.992938 0
0.0297634 -0.113703 0.993069 0
0.0106332 -0.110105 0.993863 0
-0.0372543 -0.0996681 0.994323 0.00767436
-0.0419707 -0.100749 0.994026 0.0115814
-0.00939124 -0.1184 0.992922 0
0.00906633 -0.117716 0.993006 0
0.0211123 -0.111622 0.993526 0.00217316
0.0202229 -0.114136 0.993259 0.00415417
0.0296291 -0.118388 0.992525 0.000983651
0.0119152 -0.115018 0.993292 0
-0.0151288 -0.119237 0.992751 0
0.0200524 -0.120353 0.992529 0.00199508
0.0254194 -0.118497 0.992629 0.003965
0.00928056 -0.114198 0.993415 0.000908269
0.0179844 -0.116785 0.992994 0.00481947
0.0311149 0.118858 0.992424 0.00382549
-0.0176232 0.141903 0.989724 0.017802
-0.011066 0.14977 0.988659 0.0157849
0.0340987 0.136724 0.990022 0.00154239
0.0309703 0.130191 0.991005 0.0045939
0.0293506 0.117357 0.992656 0.00680111
0.0290503 0.126337 0.991562 0.00520562
0.0259178 0.128888 0.99132 0.00281858
0.0203755 0.122225 0.992293 0.000999129
-0.0397809 0.145928 0.988495 0.00785863
-0.0404964 0.141047 0.989174 0.00515818
-0.0543749 0.148478 0.98742 0.00162885
-0.0637244 0.152755 0.986207 0.00447261
-0.00823567 0.160497 0.987002 0.0137415
-0.00172751 0.155519 0.987831 0.00771936
0.0293084 0.134869 0.99043 0.00775178
-0.0575776 0.160965 0.985279 0.00409904
-0.0628249 0.160454 0.985042 0.00411862
-0.141161 -0.177471 0.973949 0.00521972
-0.13656 -0.178191 0.974474 0
-0.126401 -0.171717 0.977004 0
-0.128396 -0.174261 0.976293 0
-0.132053 -0.171186 0.976349 0.00259434
-0.142584 -0.167551 0.975498 0.00814318
-0.143129 -0.165633 0.975746 0.00294732
-0.140408 -0.167964 0.975743 0.00476684
-0.135013 -0.175181 0.975235 0.00607541
-0.112447 -0.197086 0.973916 0.00197977
-0.118172 -0.187601 0.975111 0.000383017
-0.124539 -0.167963 0.977895 0.00437693
-0.127688 -0.164681 0.978047 0.00515613
-0.134419 -0.160856 0.977782 0.0054448
-0.14417 -0.158318 0.976806 0.00797246
-0.113508 -0.179016 0.977277 0.00595999
-0.11948 -0.176613 0.977002 0.00610762
-0.127967 -0.156242 0.979394 0.00711447
-0.0953621 -0.152242 0.983732 0.00389042
-0.0960665 -0.136982 0.985904 0.00431876
-0.0969069 -0.147041 0.984372 0.00237475
-0.0475764 -0.122839 0.991286 0.000882091
-0.0951402 -0.131453 0.986746 0
-0.096567 -0.132035 0.98653 0.000261994
-0.0957537 -0.131577 0.986671 0.000556602
-0.0962378 -0.140233 0.98543 0.00296225
-0.0344032 -0.12842 0.991123 0
-0.0319791 -0.126414 0.991462 0.00349044
-0.0324587 -0.126662 0.991415 0.00110237
-0.0495365 -0.119036 0.991653 0.00488164
-0.0803434 -0.115448 0.990059 0
-0.0949435 -0.119584 0.988274 0
-0.0980686 -0.124259 0.987392 0.000729358
-0.0958787 -0.122384 0.987841 0.00254792
-0.0346676 -0.124105 0.991663 0
-0.0324949 -0.12376 0.99178 0.0049556
-0.03184 -0.117697 0.992539 0
-0.0510075 -0.110958 0.992515 0.00518234
-0.0816563 -0.107929 0.990799 0
-0.0950533 -0.113125 0.989024 9.08838e-05
-0.0988692 -0.114673 0.988471 0.00146767
-0.0999261 -0.108161 0.989099 0.00249287
-0.0964743 -0.118457 0.988261 0.00152649
-0.0585744 -0.137971 0.988703 0
-0.0352966 -0.117818 0.992408 0.0019742
-0.0326716 -0.115931 0.99272 1.01606e-05
-0.0317034 -0.110558 0.993364 0.00288968
-0.0509681 -0.101247 0.993555 0.00537033
-0.0841365 -0.103821 0.991031 0.000272143
-0.100738 -0.108003 0.989033 0.00263676
-0.0615995 -0.127498 0.989924 0
-0.0584659 -0.128078 0.990039 0
-0.0564112 -0.119922 0.991179 0.000662175
-0.0345596 -0.109259 0.993412 0.000944901
-0.0346902 -0.104278 0.993943 0.00362904
-0.0320261 -0.106155 0.993834 0.00331088
-0.0628015 -0.120851 0.990682 0
-0.0578583 -0.115446 0.991627 0
-0.0560806 -0.113057 0.992005 0.000898592
-0.0346497 -0.100687 0.994315 0.000892394
-0.0321879 -0.0959873 0.994862 0.00382171
-0.062273 -0.110885 0.99188 0
-0.0572476 -0.110151 0.992265 0
-0.0565978 -0.0948673 0.99388 0.00319048
-0.0324918 -0.0899131 0.99542 0.0062849
-0.0627611 -0.100554 0.99295 0
-0.0574939 -0.0994041 0.993385 0
-0.0546486 -0.091139 0.994338 0.00195306
-0.0598268 -0.0897975 0.994162 0
-0.0576813 -0.0875296 0.994491 0
-0.0537412 -0.0788589 0.995436 0.00122412
-0.0584859 -0.072762 0.995633 0.00298724
-0.0555369 -0.0771787 0.995469 0
-0.060647 -0.0779505 0.995111 0
-0.0561436 -0.0780232 0.995369 0
-0.0535686 -0.0668828 0.996322 0
-0.0606804 -0.0675664 0.995868 0.00438059
-0.0547178 -0.0697713 0.996061 0
-0.0594332 -0.0687986 0.995859 0
-0.0554705 -0.0638927 0.996414 0
-0.0537006 -0.0540778 0.997092 2.18845e-05
-0.0633369 -0.0611867 0.996115 0.0021409
-0.0646392 -0.0634894 0.995887 0.000956335
