-0.00420466 0.0230914 0.999725 0.00527958
-0.00596468 0.0104081 0.999928 0.0256767
0.00645753 0.0230573 0.999713 0.00928235
0.010148 0.0250538 0.999635 0.0189623
0.0136739 0.00911134 0.999865 0.028759
0.0170315 0.0109357 0.999795 0.0261176
0.0183009 0.0149966 0.99972 0.013679
0.0247124 0.0215763 0.999462 0.00760008
0.0300121 0.0290573 0.999127 0.0100998
0.0382326 0.0329207 0.998726 0.00466014
0.0517383 0.0346566 0.998059 0
0.0563155 0.0294106 0.99798 0.00425733
0.0704582 0.041439 0.996654 0
0.0735064 0.0480474 0.996137 0.000568524
-0.0517386 0.0506098 0.997377 0
-0.0432266 0.0647453 0.996965 0
-0.0408198 0.0509738 0.997865 0
-0.0347843 0.0705331 0.996903 0
-0.0301674 0.0668281 0.997308 0
-0.0245917 0.0613564 0.997813 0
-0.0181559 0.0677183 0.997539 0
-0.014642 0.0327395 0.999357 0
-0.0136666 0.0397292 0.999117 0
-0.0124394 0.0303952 0.999461 0.00836567
-0.00941352 0.0286405 0.999545 0.00470931
-0.00533045 0.0341189 0.999404 0
-0.00366225 0.0266475 0.999638 0.00515516
0.00290485 0.0115137 0.999929 0.0184642
0.0075514 0.018512 0.9998 0.0103528
0.00940964 0.00814785 0.999923 0.0261332
0.0153548 0.0146606 0.999775 0.0174118
0.0261047 0.0156583 0.999537 0.0101833
0.0271452 0.0244585 0.999332 0.00986215
0.0356398 0.0315295 0.998867 0.00214264
0.0469005 0.0321425 0.998382 0.000844389
0.0502399 0.0267555 0.998379 0.00884535
0.0604525 0.0270804 0.997804 0.013672
0.0754721 0.047189 0.996031 0.00545985
0.0797423 0.0491503 0.995603 0
-0.0498511 0.0558915 0.997192 0
-0.0476113 0.0684648 0.996517 0
-0.0409916 0.0504394 0.997886 0
-0.0284366 0.0871759 0.995787 0
-0.0253891 0.0738785 0.996944 0
-0.016592 0.080037 0.996654 0
-0.00994093 0.0408193 0.999117 0
-0.0109898 0.0515138 0.998612 0
-0.0131257 0.0399494 0.999116 0.00341153
-0.00807696 0.0459453 0.998911 0
-0.00522573 0.0313177 0.999496 0
-0.00173049 0.0299111 0.999551 0
0.00401456 0.00542472 0.999977 0.0152745
0.00670006 0.00345715 0.999972 0.00833415
0.0111753 0.019291 0.999752 0.00575707
0.0157227 0.0254464 0.999553 0.0156168
0.0223441 0.021636 0.999516 0.00799516
0.0275772 0.0187901 0.999443 0.0248032
0.0381562 0.0175226 0.999118 0.0210426
0.0467384 0.0205675 0.998695 0.0162679
0.047788 0.0272016 0.998487 0.0171365
0.0629453 0.0388081 0.997262 0.0157856
0.0759676 0.0495614 0.995878 0
-0.047452 0.0588809 0.997137 0
-0.0283293 0.0590262 0.997854 0
-0.0189784 0.0619273 0.9979 0
-0.0105442 0.0473166 0.998824 0
-0.00944816 0.0580125 0.998271 0
-0.0106621 0.0602758 0.998125 0
-0.00830493 0.040696 0.999137 0
-0.00319214 0.0344641 0.999401 0
-0.00275465 0.02831 0.999595 0
0.00425493 0.0112521 0.999928 0.00627613
0.00529017 0.0115741 0.999919 0.00173599
0.010756 0.0222288 0.999695 0
0.014637 0.0332329 0.99934 0
0.0200154 0.0168262 0.999658 0.0263699
0.0283368 0.0244495 0.999299 0.0265595
0.0395558 0.0191374 0.999034 0.0206366
0.0455521 0.0165289 0.998825 0.0293812
0.0499212 0.0341961 0.998168 0.0234654
0.060606 0.0392187 0.997391 0.0184604
0.0781187 0.0603544 0.995115 0
0.0964631 0.0500543 0.994077 0
-0.0335988 0.0575065 0.99778 0
-0.0275597 0.0565085 0.998022 0
-0.0198312 0.0573912 0.998155 0
-0.0090185 0.0704664 0.997473 0
-0.0102825 0.0656222 0.997792 0
-0.0096276 0.0534399 0.998525 0
-0.00951008 0.0394449 0.999177 0
-0.00787455 0.0252823 0.999649 0
-0.00360263 0.0217132 0.999758 0.00415901
0.00108717 0.0184797 0.999829 0.0161402
0.00478544 0.0109187 0.999929 0.00903429
0.0143244 0.0100022 0.999847 0
0.0201339 0.0197658 0.999602 0.0123784
0.0309964 0.0236498 0.99924 0.00681828
0.0401396 0.0239601 0.998907 0.0172363
0.0456444 0.0322562 0.998437 0.02473
0.0949036 0.0383208 0.994749 0
-0.0347203 0.0596791 0.997614 0.00621427
-0.0249634 0.0612653 0.997809 0
-0.0125819 0.0584736 0.99821 0
-0.0127788 0.0506289 0.998636 0
-0.0101868 0.0458415 0.998897 0
-0.00873298 0.0404012 0.999145 0
-0.0091032 0.0212091 0.999734 0
-0.00619429 0.014713 0.999873 0.0189488
0.00248115 0.00339717 0.999991 0.0178379
0.00802368 0.00497127 0.999955 0.00172417
0.0118884 0.010416 0.999875 0
0.0243442 0.0301925 0.999248 0
0.0285116 0.0376709 0.998883 0
0.0407314 0.0339524 0.998593 0.00629536
0.048635 0.0413487 0.99796 0.00262571
0.054601 0.0370852 0.997819 0
0.0634243 0.0200326 0.997786 0.00841049
0.0805114 0.0300579 0.9963 0
-0.0412513 0.0566159 0.997543 0.0166818
-0.0266182 0.0565315 0.998046 0.00514709
-0.0137318 0.0344735 0.999311 0
-0.0105483 0.0230171 0.999679 0.00204318
-0.00741772 0.0191499 0.999789 0.00832
-0.00593621 0.0159377 0.999855 0.0139374
-0.00322208 0.0106309 0.999938 0.0215053
0.00308204 0.0056599 0.999979 0.017087
0.00826841 0.0104271 0.999911 0
0.00884565 0.0103874 0.999907 0.000660878
0.0227682 0.0312141 0.999253 0
0.0339001 0.0384049 0.998687 0
0.0464562 0.0400843 0.998116 0
0.0481504 0.036295 0.998181 0
0.0522266 0.0462076 0.997566 0
0.0667709 0.0310468 0.997285 0
0.0795084 0.0293873 0.996401 0
-0.0276844 0.0534036 0.998189 0.00719183
-0.0197975 0.0447819 0.998801 0
-0.019384 0.0443349 0.998829 0
-0.0149311 0.0336767 0.999321 0
-0.0134053 0.0262134 0.999566 0.00807236
-0.00865208 0.0285251 0.999556 0.00261705
-0.0042563 0.00961623 0.999945 0.0176265
-0.00465609 0.00484527 0.999977 0.0207404
0.00439497 0.00254005 0.999987 0.00715455
0.00432131 0.0120171 0.999918 0.00434989
0.0131863 0.0115501 0.999846 0.0021119
0.0242995 0.029177 0.999279 0
0.031206 0.0264072 0.999164 0
0.0416076 0.0345677 0.998536 0
0.0439357 0.0359247 0.998388 0
0.0535414 0.0493052 0.997348 0
-0.0246093 0.0412918 0.998844 0.00670987
-0.0212914 0.0377391 0.999061 0
-0.0183506 0.0339539 0.999255 0.00691563
-0.0169503 0.0307444 0.999384 0.0111668
-0.0131368 0.0214373 0.999684 0.0213442
-0.00833858 0.0178164 0.999807 0.00925251
-0.00600175 0.0175202 0.999829 0.00369045
0.00238067 0.0257723 0.999665 0
0.010041 0.02293 0.999687 0
0.0167757 0.0286168 0.99945 0
0.0237384 0.0146872 0.99961 0
0.028895 0.0165431 0.999446 0.00356214
0.0371656 0.0203769 0.999101 0.00274355
0.0433715 0.0241902 0.998766 0.0151607
0.0545232 0.0282263 0.998114 0.000483745
-0.030549 0.0367194 0.998859 0.0094222
-0.0229895 0.035842 0.999093 0
-0.0205971 0.0320382 0.999274 0
-0.0124734 0.0348877 0.999313 0
-0.0130517 0.0266688 0.999559 0.00673928
-0.00996039 0.0155735 0.999829 0.0137423
-0.00367954 0.0210799 0.999771 0.00122141
-0.000128617 0.0163564 0.999866 0
0.0102871 0.00946947 0.999902 0
0.0207607 0.00419622 0.999776 0.0014732
0.0273195 0.0135688 0.999535 0.0098101
0.0340476 0.00962039 0.999374 0.0105879
0.0405611 0.0121424 0.999103 0.0206772
0.0482859 0.00962613 0.998787 0.0223788
0.057621 0.0197259 0.998144 0.00749066
0.0709825 0.0129229 0.997394 0.00761744
-0.0340496 0.0169481 0.999276 0.0089261
-0.0279475 0.0220095 0.999367 0.00227229
-0.0215599 0.0310583 0.999285 0
-0.0138725 0.0425748 0.998997 0
-0.011855 0.0276351 0.999548 0
-0.00794244 0.0180428 0.999806 0.0036637
-0.00434142 0.0157249 0.999867 0
-0.00164509 0.0056039 0.999983 0.0055321
0.0129282 -0.00153162 0.999915 0.0152906
0.0210103 0.00950585 0.999734 0.00809558
0.0341442 -0.00273301 0.999413 0.0145358
0.038496 0.00513147 0.999246 0.0217809
0.0513528 0.0114055 0.998615 0.0231883
0.0574566 0.00603625 0.99833 0.017567
0.0658184 0.00343947 0.997826 0.0281482
0.0964692 -0.00511336 0.995323 0.0234486
-0.0401368 0.00255024 0.999191 0.0275567
-0.0353391 0.00849218 0.999339 0.0194795
-0.0231155 0.0275873 0.999352 0
-0.0158712 0.0297213 0.999432 0
-0.00970186 0.0278014 0.999566 0
-0.00643004 0.0251269 0.999664 0
-0.00319225 0.0210011 0.999774 0
-0.000567462 0.00218753 0.999997 0.0165532
0.0138027 -0.00875796 0.999866 0.0219656
0.0224724 -0.0164636 0.999612 0.0325233
0.0326156 -0.00978536 0.99942 0.0324441
0.0461102 -0.0224604 0.998684 0.0358893
0.0584217 -0.00761541 0.998263 0.031745
0.0632013 0.000537015 0.998001 0.0171242
0.0742966 0.0101434 0.997185 0.00405419
-0.0370617 -0.00555538 0.999298 0.0229488
-0.0258891 0.0134593 0.999574 0.00690671
-0.0212252 0.015813 0.99965 0.00986071
-0.0150324 0.0312677 0.999398 0
-0.00949879 0.0237574 0.999673 0
-0.00755941 0.0221426 0.999726 0
-0.0003953 0.00620379 0.999981 0.00507805
0.0136034 -0.0105124 0.999852 0.0288956
0.0267987 -0.0145339 0.999535 0.0411775
0.036291 -0.0233365 0.999069 0.0454733
0.0476922 -0.0268949 0.9985 0.0317978
0.0603068 -0.00798114 0.998148 0.0221479
0.0672047 0.0130449 0.997654 0
0.0768822 0.00350298 0.997034 0
-0.0513992 -0.0255539 0.998351 0.0189088
-0.0352951 -0.000680472 0.999377 0.0146725
-0.0260317 0.00405768 0.999653 0.0208629
-0.0226656 0.0144762 0.999638 0.0111967
-0.0138764 0.0161243 0.999774 0
-0.0100358 0.0146764 0.999842 0
-0.00848093 0.0124131 0.999887 0.000191004
-0.00152067 0.00316624 0.999994 0.0238945
0.0163885 -0.00661154 0.999844 0.0320483
0.0220005 -0.0125162 0.99968 0.0459887
0.0397805 -0.0226232 0.998952 0.0450562
0.0478419 -0.0229334 0.998592 0.0368394
0.060231 -0.0301914 0.997728 0.0302265
0.0650041 0.000980573 0.997885 0.0107887
0.0765998 -0.00339938 0.997056 0.0118043
0.106831 -0.0114711 0.994211 0.0210013
-0.052429 -0.0156069 0.998503 0.0239433
-0.0375293 -0.0187885 0.999119 0.0223875
-0.0239422 -0.00555611 0.999698 0.0253869
-0.020426 0.0112378 0.999728 0.00509902
-0.0150529 0.0204509 0.999678 0
-0.0107469 0.0209803 0.999722 0
-0.00877418 0.015573 0.99984 0
-0.000630985 0.0127186 0.999919 0.0181997
0.012379 0.00384341 0.999916 0.0286469
0.0234917 -0.00482701 0.999712 0.0355281
0.041051 -0.00549845 0.999142 0.030341
0.0519945 -0.0152336 0.998531 0.0413937
0.0612458 -0.0123283 0.998047 0.0217301
0.0678447 -0.00576961 0.997679 0.000700183
0.0740773 -0.00458038 0.997242 0
0.106247 -0.0226012 0.994083 0.0224545
-0.0477037 -0.00590274 0.998844 0.0177888
-0.0404011 -0.0106511 0.999127 0.0308156
-0.0285412 -0.0129846 0.999508 0.0270303
-0.0213429 0.00758869 0.999743 0.00457691
-0.0166087 0.0152049 0.999747 0
-0.0134661 0.0104277 0.999855 0
-0.00990884 0.00394272 0.999943 0
-0.00322605 0.0151087 0.999881 0.0121148
0.0114868 0.000887936 0.999934 0.0182962
0.0258544 -0.0076564 0.999636 0.0320722
0.0429803 -0.00994388 0.999026 0.0309384
0.0513003 -0.0114264 0.998618 0.0329
0.05748 -0.0159169 0.99822 0.0259365
0.0629493 -0.0142422 0.997915 0.0139989
0.0730645 -0.00891642 0.997287 0.0133071
0.0847362 -0.0140904 0.996304 0.0101589
0.101718 -0.00826198 0.994779 0.0097011
0.110616 -0.0143954 0.993759 0.0155523
-0.0483285 -0.0141872 0.998731 0.016103
-0.039508 -0.0107486 0.999161 0.0297041
-0.0308996 -0.0150256 0.99941 0.0243999
-0.0212093 0.00323888 0.99977 0.0011536
-0.014658 0.019504 0.999702 0
-0.0125063 0.0295416 0.999485 0
-0.0083123 0.0217123 0.99973 0
0.000753394 0.0189615 0.99982 0
0.0119863 0.00357195 0.999922 0.0151463
0.0276339 -0.0136136 0.999525 0.0146499
0.0402545 -0.0154216 0.99907 0.0256618
0.0496008 -0.0213139 0.998542 0.0433274
0.0587259 -0.0142897 0.998172 0.03543
0.0657274 -0.0247532 0.997531 0.0227367
0.0755423 -0.012802 0.99706 0.0166027
0.0812966 -0.0159341 0.996563 0.019052
0.108599 -0.021424 0.993855 0.0203137
-0.0465749 -0.00865795 0.998877 0.0152388
-0.0374055 -0.00534019 0.999286 0.0185504
-0.0301901 -0.011129 0.999482 0.0215386
-0.0212187 7.56067e-05 0.999775 0
-0.0171228 0.01382 0.999758 0
-0.0140793 0.0258317 0.999567 0
-0.00848635 0.0216763 0.999729 0
0.00218761 0.00555912 0.999982 0
0.0179035 0.0208063 0.999623 0
0.0271867 -0.0114656 0.999565 0.00898942
0.0427421 -0.0164595 0.998951 0.018272
0.0507199 -0.0193121 0.998526 0.0263613
0.0573874 -0.0162561 0.99822 0.0318205
0.0603593 -0.0111037 0.998115 0.0106147
0.0700317 -0.0112085 0.997482 0.00464937
0.0801345 -0.00636208 0.996764 0.00281306
0.102852 -0.00660348 0.994675 0
-0.0404275 -0.00291211 0.999178 0.00509233
-0.0307004 0.00302435 0.999524 0.00194378
-0.0244654 -0.00594185 0.999683 0.002846
-0.0180779 0.000811229 0.999836 0
-0.0136376 0.0319149 0.999398 0
-0.011955 0.0320844 0.999414 0
-0.00696338 0.0197797 0.99978 0
0.00239335 0.00835892 0.999962 0
0.0161592 0.013833 0.999774 0
0.0290351 -0.0121346 0.999505 0.00862001
0.0452427 -0.0150133 0.998863 0.018085
0.0486338 -0.0267928 0.998457 0.038361
0.0570327 -0.0211055 0.998149 0.0228944
0.0651247 -0.0106611 0.99782 0.00762963
0.0754927 -0.00303311 0.997142 0.00546528
0.0856266 -0.01638 0.996193 0.0119372
0.111718 -0.00710336 0.993715 0.00295497
0.113836 0.00622146 0.99348 0
-0.0419713 -0.0028199 0.999115 0
-0.0391871 -0.0121284 0.999158 0
-0.0296058 -0.00356805 0.999555 0
-0.0233771 0.00106368 0.999726 0
-0.0178846 0.00877131 0.999802 0
-0.0127515 0.0166098 0.999781 0
-0.0107837 0.0173989 0.99979 0
-0.00566766 0.0210974 0.999761 0
0.00534404 0.0113528 0.999921 0
0.0149441 -0.00265745 0.999885 0
0.0340285 -0.00255555 0.999418 0
0.0450525 -0.010178 0.998933 0.0183746
0.0512684 -0.0227124 0.998427 0.0210739
0.0596337 -0.0218032 0.997982 0.0145267
0.0752083 -0.00414942 0.997159 0
0.0850222 0.00183766 0.996377 0
0.089567 0.011313 0.995916 0
0.0971448 0.006141 0.995251 0
0.114353 -0.0065321 0.993419 0
0.12107 0.00814934 0.99261 0
-0.0450299 4.60696e-05 0.998986 0
-0.0244963 -0.00470894 0.999689 0
-0.0183958 -0.00770836 0.999801 0
-0.0117422 0.000352365 0.999931 0
-0.0108168 0.0219921 0.9997 0
-0.00818883 0.0104817 0.999912 0
0.00689862 0.0132136 0.999889 0
0.0189082 0.00158988 0.99982 0
0.0320669 0.00483175 0.999474 0
0.0474323 -0.00893073 0.998835 0.0115005
0.0598232 -0.0130697 0.998123 0.00315551
0.0687742 -0.00800381 0.9976 0
0.0812355 0.00261226 0.996692 0
0.0906791 0.0173247 0.995729 0
0.0958059 0.0236035 0.99512 0
0.0983959 0.0167606 0.995006 0
0.111583 0.0153814 0.993636 0.00212346
0.122967 0.010373 0.992357 0
0.126528 0.0150561 0.991849 0
-0.0399935 -0.00660006 0.999178 0
-0.0179896 -0.0025311 0.999835 0
-0.0170839 -0.00374027 0.999847 0
-0.0120711 0.00905762 0.999886 0
-0.00680992 0.0144807 0.999872 0
-0.00800403 0.000573083 0.999968 0
0.0056082 -0.000227106 0.999984 0
0.017931 -0.00247506 0.999836 0
0.0331324 -0.0112192 0.999388 0
0.05104 -0.0125612 0.998618 0
0.0629534 -0.0186351 0.997842 0
0.0725311 -0.0127438 0.997285 0
0.081973 0.00647647 0.996614 0
0.0931577 0.0102716 0.995598 0
0.0955655 0.00813134 0.99539 0
0.104499 0.0154972 0.994404 0
0.120036 0.00680169 0.992746 0
0.120576 0.00229768 0.992701 0.00598004
0.127799 0.00252847 0.991797 0
0.15205 -0.0102838 0.988319 0
-0.033406 -0.0111253 0.99938 0
-0.0343634 -0.00869694 0.999372 0
-0.0261608 -0.00653001 0.999636 0
-0.0191783 -0.00417131 0.999807 0
-0.0165502 -0.00324626 0.999858 0
-0.00902302 0.0029715 0.999955 0
-0.00736883 0.00220881 0.99997 0
-0.00349962 0.00146439 0.999993 0
0.00818224 -0.00993442 0.999917 0
0.019208 -0.00996898 0.999766 0
0.0306431 -0.00695625 0.999506 0
0.0441163 -0.00913865 0.998985 0
0.0633467 -0.0156734 0.997868 0
0.0759681 -0.0232935 0.996838 0
0.0842987 -0.00771489 0.996411 0
0.0977303 -0.00456544 0.995202 0
0.101869 -0.00286532 0.994794 0
0.106624 -0.00397009 0.994291 0
0.120754 0.000208296 0.992683 0
0.128157 -0.00223192 0.991751 0
0.141767 -0.00889698 0.98986 0
0.163572 -0.0285707 0.986118 0
-0.0335125 -0.00877802 0.9994 0
-0.0242431 -0.00522619 0.999692 0
-0.0165684 -0.00469585 0.999852 0
-0.0171851 -0.00742223 0.999825 0
-0.0120698 0.0116152 0.99986 0
-0.00827201 -0.00419177 0.999957 0
-0.00278718 -0.00875238 0.999958 0
0.0153113 -0.0242047 0.99959 0
0.0351584 -0.0189496 0.999202 0
0.0457979 -0.0164612 0.998815 0
0.064968 -0.0249006 0.997577 0
0.0740847 -0.0192667 0.997066 0
0.0920229 -0.00945846 0.995712 0
0.0969636 -0.0264067 0.994938 0
0.102469 -0.0201671 0.994532 0
0.110205 -0.0150907 0.993794 0
0.125191 -0.0167425 0.991991 0
0.136299 -0.0230947 0.990399 0
0.148881 -0.0112232 0.988791 0
0.161797 -0.029163 0.986393 0
-0.0335049 -0.0173357 0.999288 0
-0.0239374 -0.0116291 0.999646 0
-0.0194723 -0.00575896 0.999794 0
-0.0183936 -0.014046 0.999732 0
-0.0177651 -0.0132447 0.999754 0
-0.0117496 -0.0142407 0.99983 0
-0.00605295 -0.00809355 0.999949 0
0.0203849 -0.00588626 0.999775 0
0.0390585 -0.0299869 0.998787 0
0.0483307 -0.0258352 0.998497 0
0.0676437 -0.0318196 0.997202 0
0.0804144 -0.0195519 0.99657 0
0.0879163 -0.0226269 0.995871 0
0.0943258 -0.029285 0.995111 0
0.105631 -0.032109 0.993887 0
0.110044 -0.0214343 0.993696 0
0.127981 -0.0367206 0.991097 0
0.133212 -0.0302059 0.990627 0
0.142921 -0.0374807 0.989024 0
0.157671 -0.0384053 0.986745 0
-0.0366887 -0.0130594 0.999241 0
-0.0249451 -0.00685301 0.999665 0
-0.0221583 -0.0107408 0.999697 0
-0.0184331 -0.0136825 0.999736 0
-0.01277 -0.0119979 0.999846 0
-0.0105423 -0.0155386 0.999824 0
-0.00944219 -0.0144157 0.999852 0
-0.0077955 -0.0130387 0.999885 0
0.0127865 -0.0151059 0.999804 0
0.0398398 -0.0177407 0.999049 0
0.0475328 -0.0217597 0.998633 0
0.0686537 -0.021776 0.997403 0
0.0812336 -0.0220887 0.99645 0
0.0917218 -0.0385996 0.995036 0
0.0967489 -0.0370399 0.994619 0.000918879
0.103501 -0.045652 0.993581 0
0.105881 -0.0445251 0.993381 0
0.12402 -0.040752 0.991443 0
0.127686 -0.0447367 0.990805 0.00253792
0.13789 -0.0462194 0.989369 0
0.152357 -0.0484579 0.987137 0
0.163919 -0.0367037 0.985791 0
-0.0349622 -0.0250631 0.999074 0
-0.0266841 -0.0272022 0.999274 0
-0.0262548 -0.0211024 0.999433 0
-0.0233895 -0.0382323 0.998995 0
-0.0170943 -0.0296569 0.999414 0
-0.0130945 -0.0281108 0.999519 0.00623525
-0.00972141 -0.0186401 0.999779 0.00608705
-0.00315523 -0.0112857 0.999931 0
0.0134884 -0.0133412 0.99982 0.0155067
0.0302332 -0.0182933 0.999375 0.0101542
0.04276 -0.0273827 0.99871 0.00591919
0.0685152 -0.0199968 0.99745 0
0.0789461 -0.0304974 0.996412 0
0.0909331 -0.0325282 0.995326 0
0.0983713 -0.0355879 0.994513 0
0.103791 -0.0475078 0.993464 0.00859208
0.108516 -0.0536261 0.992647 0.00707036
0.121051 -0.0482911 0.991471 0.00961222
0.125727 -0.0553851 0.990518 0.0015764
0.13326 -0.0502709 0.989805 0
0.169565 -0.0384002 0.984771 0
-0.0372533 -0.0313443 0.998814 0
-0.0314159 -0.0357595 0.998867 0
-0.0299733 -0.0418116 0.998676 0
-0.0247497 -0.0394586 0.998915 0.00132616
-0.0191052 -0.0342079 0.999232 0.00622338
-0.0159335 -0.0222796 0.999625 0.00594951
-0.0114629 -0.0239613 0.999647 0.0169885
-0.00840739 -0.0223365 0.999715 0.015627
0.00909395 -0.016839 0.999817 0.024112
0.0250577 -0.0236656 0.999406 0.0216808
0.0452924 -0.0243201 0.998678 0.0010273
0.0613631 -0.0220225 0.997873 0
0.0733193 -0.0226851 0.997051 0
0.0893467 -0.0258724 0.995664 0
0.0951944 -0.0391836 0.994687 0
0.0969012 -0.0550658 0.99377 0.000744846
0.107147 -0.054028 0.992774 0.0103715
0.120068 -0.0562097 0.991173 0.0049801
0.122531 -0.0602823 0.990632 0.00256507
0.138306 -0.0630319 0.988382 0
0.186501 -0.0631701 0.980422 0
-0.0433789 -0.04797 0.997906 0
-0.0385347 -0.0412447 0.998406 0
-0.0311934 -0.0307323 0.999041 0
-0.0321479 -0.0483439 0.998313 0.00487238
-0.0272081 -0.04829 0.998463 0.0118044
-0.0210767 -0.0322002 0.999259 0.01332
-0.0202121 -0.0249773 0.999484 0.0232266
-0.0179361 -0.0216229 0.999605 0.0307157
-0.0152009 -0.0303706 0.999423 0.0379277
0.00618809 -0.0244138 0.999683 0.0290097
0.0236683 -0.0278781 0.999331 0.0109977
0.0406419 -0.020406 0.998965 0.00148247
0.064734 -0.0197031 0.997708 0
0.0714855 -0.0261347 0.997099 0
0.0858318 -0.0398926 0.995511 0
0.0911971 -0.0308574 0.995355 0
0.0955767 -0.0495558 0.994188 0
0.101353 -0.0456651 0.993802 0
0.117009 -0.0568947 0.9915 0
0.123057 -0.0543603 0.99091 0
0.135073 -0.0726727 0.988167 0.00150495
0.153972 -0.0783425 0.984964 0
0.169855 -0.0707689 0.982925 0.00116282
0.185282 -0.0803013 0.979399 0.00739854
-0.0443809 -0.059698 0.997229 0.00974481
-0.0425059 -0.0520177 0.997741 0.00885394
-0.0413993 -0.0589315 0.997403 0.00892791
-0.0326133 -0.036684 0.998795 0
-0.0347354 -0.044482 0.998406 0.0117026
-0.0265437 -0.0408112 0.998814 0.0116926
-0.0211096 -0.047061 0.998669 0.0237086
-0.0164659 -0.0331698 0.999314 0.0173619
-0.0163471 -0.0381376 0.999139 0.0135384
-0.0193138 -0.0573562 0.998167 0.0376607
0.00447425 -0.0328771 0.999449 0.0229445
0.0187545 -0.0354062 0.999197 0.0225432
0.0428875 -0.0290449 0.998658 0.00133945
0.060181 -0.0426096 0.997278 0.00655281
0.0735495 -0.0322202 0.996771 0.00509892
0.0825598 -0.0372998 0.995888 0
0.0892377 -0.0475608 0.994874 0
0.0952686 -0.0484721 0.994271 0
0.10072 -0.0406578 0.994084 0
0.114674 -0.0472189 0.99228 0.000815918
0.121667 -0.0607361 0.990711 0.0100561
0.137722 -0.0735166 0.987739 0.00495431
0.154042 -0.0764483 0.985102 0
0.163623 -0.0674528 0.984214 0.000239438
0.176014 -0.0762996 0.981426 0
0.179389 -0.0649684 0.981631 0.00145488
-0.053721 -0.0631891 0.996555 0.0252597
-0.049955 -0.0561131 0.997174 0.0212499
-0.0449213 -0.0606506 0.997148 0.0117141
-0.0490748 -0.064415 0.996716 0.0241173
-0.037319 -0.0436917 0.998348 0.01081
-0.0372067 -0.0458716 0.998254 0.0171003
-0.0308517 -0.0555098 0.997981 0.0172726
-0.0241806 -0.0498644 0.998463 0.0259693
-0.022155 -0.0479622 0.998603 0.0265621
-0.0205844 -0.0564951 0.998191 0.0259549
-0.0230503 -0.0697987 0.997295 0.0453131
0.00432698 -0.0499643 0.998742 0.0211857
0.0196129 -0.0495424 0.998579 0.0103776
0.0422405 -0.0568607 0.997488 0.0186236
0.0621436 -0.0482555 0.9969 0.00658404
0.0694393 -0.0545953 0.996091 0.010885
0.0824626 -0.0569356 0.994966 0.0072295
0.0854 -0.0584561 0.99463 0.000351446
0.0903612 -0.0475077 0.994775 0
0.0978275 -0.0570684 0.993566 0
0.113076 -0.0534499 0.992148 0
0.119162 -0.0609489 0.991002 0.00123058
0.140851 -0.0648023 0.987908 0.00368201
0.150659 -0.0807204 0.985285 0.00170071
0.159525 -0.0823008 0.983757 0
0.171392 -0.0813934 0.981835 0.00148124
0.173664 -0.0603316 0.982955 0.000963038
-0.051572 -0.0702257 0.996197 0.0252207
-0.0493801 -0.0667465 0.996547 0.0254984
-0.0528845 -0.0737982 0.99587 0.0224333
-0.0453776 -0.0524411 0.997593 0.0135538
-0.0337705 -0.0480914 0.998272 0
-0.0269998 -0.044948 0.998624 0.00828848
-0.0269357 -0.0510703 0.998332 0.019478
-0.0168761 -0.0604603 0.998028 0.0154171
-0.0220359 -0.0765711 0.996821 0.0400372
-0.0210814 -0.0686097 0.997421 0.0353965
0.00425571 -0.0644897 0.997909 0.0165363
0.0203999 -0.0633737 0.997781 0.0153474
0.0397816 -0.0686612 0.996847 0.0212917
0.0596148 -0.0619465 0.996297 0.00871769
0.0676561 -0.0672494 0.99544 0.0129455
0.0795303 -0.056375 0.995237 0.00506579
0.0850311 -0.0544297 0.994891 0.00393502
0.0952324 -0.0513513 0.99413 0.00594015
0.104436 -0.0546992 0.993026 0.00895932
0.113721 -0.0552758 0.991974 0.00826144
0.123194 -0.055811 0.990812 0.0067568
0.138607 -0.0666039 0.988105 0.0191865
0.14591 -0.0733729 0.986573 0.00371125
0.161441 -0.069856 0.984407 0.00218849
0.175645 -0.0772778 0.981416 0.0107816
0.183743 -0.0761809 0.980018 0.00150462
-0.0575547 -0.0980017 0.993521 0.03197
-0.0541625 -0.088898 0.994567 0.0172213
-0.0508033 -0.0730239 0.996035 0.0086941
-0.0460415 -0.0563537 0.997349 0.0130318
-0.0388104 -0.0567715 0.997633 0
-0.0313124 -0.0537851 0.998061 0.00122509
-0.0274709 -0.0761444 0.996718 0.0195001
-0.0229355 -0.0788043 0.996626 0.0239674
-0.0231535 -0.0930662 0.995391 0.0466664
-0.0185795 -0.0827332 0.996398 0.0392492
0.00309987 -0.084959 0.99638 0.0277501
0.0113606 -0.0817661 0.996587 0.0268748
0.060186 -0.0742466 0.995422 0.00331554
0.0661916 -0.0754849 0.994948 0.00970651
0.0774954 -0.0603324 0.995166 0.00529746
0.0835803 -0.0557659 0.994939 0
0.0930358 -0.0483893 0.994486 0
0.10322 -0.0580436 0.992964 0.00505271
0.118 -0.0613568 0.991116 0.0257483
0.124611 -0.0693658 0.989778 0.0331028
0.139897 -0.0801225 0.986919 0.030015
0.150182 -0.0747447 0.985829 0.0192366
0.163534 -0.0843324 0.982927 0.00833282
0.174894 -0.079597 0.981364 0
0.192857 -0.0884537 0.977232 0.0189305
-0.0536671 -0.0798274 0.995363 0.0100936
-0.0517307 -0.0778315 0.995624 0.0116888
-0.051047 -0.0775883 0.995678 0.00645599
-0.044005 -0.0561248 0.997454 0.00296837
-0.0358717 -0.0494953 0.99813 0
-0.0303705 -0.0534526 0.998108 0
-0.0274748 -0.0694744 0.997205 0.00667106
-0.0265535 -0.0827362 0.996218 0.0116608
-0.0240934 -0.100808 0.994614 0.0320756
-0.0220761 -0.106207 0.994099 0.040935
-0.00116773 -0.0998198 0.995005 0.0371421
0.060381 -0.0808263 0.994898 0.00938633
0.0661377 -0.0739036 0.99507 0.0090387
0.0721787 -0.068475 0.995038 0
0.0824692 -0.0579835 0.994905 0
0.0937073 -0.0619266 0.993672 0.00287979
0.101867 -0.0590267 0.993045 0.000112865
0.123606 -0.0638846 0.990273 0.0267104
0.125356 -0.0736771 0.989372 0.0330348
0.14129 -0.0917189 0.98571 0.0372135
0.157014 -0.0879592 0.983672 0.0260476
0.172436 -0.091435 0.980768 0.02486
0.187759 -0.101175 0.97699 0.0281348
0.198372 -0.0931242 0.975693 0.0289535
-0.0554575 -0.0764258 0.995532 0
-0.0561309 -0.0820248 0.995048 0.00646936
-0.0556282 -0.0724465 0.99582 0.00475243
-0.0483803 -0.0659651 0.996648 0
-0.0451952 -0.0595364 0.997203 0
-0.0411719 -0.0538917 0.997698 0
-0.0358283 -0.0791869 0.996216 0.0223283
-0.0322951 -0.0804003 0.996239 0.0213864
-0.0257149 -0.0877802 0.995808 0.0169484
-0.0256369 -0.115361 0.992993 0.0302153
-0.0230818 -0.128203 0.991479 0.0359784
0.000790474 -0.115496 0.993308 0.0355808
0.00735112 -0.122527 0.992438 0.0289372
0.0643357 -0.075 0.995106 0
0.0869065 -0.069981 0.993756 0
0.101624 -0.0633339 0.992805 0.00726052
0.111665 -0.0642852 0.991664 0.0111697
0.12553 -0.0801911 0.988844 0.0275476
0.135122 -0.0962547 0.986142 0.0397721
0.148058 -0.0814157 0.985622 0.0319214
0.17658 -0.102755 0.978908 0.0394515
0.192941 -0.111133 0.974897 0.0389962
0.198616 -0.0903896 0.9759 0.02879
-0.0529011 -0.0621322 0.996665 0
-0.0539205 -0.0731135 0.995865 0
-0.0553105 -0.0709435 0.995946 0
-0.0569816 -0.0748783 0.995563 0
-0.0532431 -0.0786292 0.995481 0
-0.0510298 -0.0621521 0.996761 0
-0.0465072 -0.0601931 0.997103 0
-0.0388525 -0.0489173 0.998047 0
-0.0334259 -0.0705176 0.99695 0.00415663
-0.0292159 -0.0819665 0.996207 0.00705265
-0.0287542 -0.0935311 0.995201 0.0143525
-0.027027 -0.106686 0.993925 0.0245896
-0.0193267 -0.109217 0.99383 0.0239216
0.0659389 -0.096568 0.99314 0.0181057
0.0900719 -0.0794257 0.992763 0.00486953
0.104336 -0.0827982 0.99109 0.0249028
0.114422 -0.0841143 0.989865 0.028293
0.128491 -0.0850491 0.988057 0.0242419
0.131333 -0.100459 0.986235 0.0250591
0.146824 -0.11326 0.982657 0.0300591
0.168866 -0.117747 0.978581 0.0272402
0.192499 -0.119187 0.974032 0.0342656
0.200875 -0.112099 0.973182 0.0316635
0.202144 -0.0896456 0.975244 0.00645592
-0.0553063 -0.0536357 0.997028 0
-0.0590929 -0.0635029 0.996231 0
-0.0528893 -0.062255 0.996658 0
-0.0550567 -0.0738282 0.99575 0.00430887
-0.0566263 -0.0645351 0.996307 0
-0.0506936 -0.0750282 0.995892 0
-0.0507738 -0.0652219 0.996578 0
-0.0477952 -0.0473073 0.997736 0
-0.0463637 -0.0521569 0.997562 0
-0.0364589 -0.060721 0.997489 0
-0.0290754 -0.0687653 0.997209 0.00258625
-0.0269231 -0.0750479 0.996816 0.0113244
-0.0265336 -0.0851079 0.996018 0.0232775
-0.0194812 -0.101608 0.994634 0.0225263
0.0941587 -0.0996284 0.99056 0.0178052
0.115319 -0.0880917 0.989415 0.0270494
0.130865 -0.0915674 0.987162 0.0282888
0.143786 -0.0973526 0.984809 0.016813
0.155523 -0.095408 0.983214 0.00837222
0.175399 -0.0936699 0.980031 0.00418722
0.192012 -0.0994221 0.976344 0.0036703
0.201344 -0.0911948 0.975266 0.0120468
-0.0608663 -0.0725044 0.995509 0.00741079
-0.0548714 -0.0514599 0.997166 0
-0.0596638 -0.0695064 0.995796 0
-0.0581043 -0.0718378 0.995722 0
-0.05905 -0.0748278 0.995447 0.00284691
-0.0539978 -0.0663643 0.996333 0
-0.0529646 -0.0628795 0.996615 0
-0.0483148 -0.0503382 0.997563 0
-0.0442278 -0.0443153 0.998038 0
-0.0405168 -0.0440206 0.998209 0
-0.0346988 -0.0665459 0.99718 0
-0.0321079 -0.0746516 0.996693 0.00635367
0.130966 -0.0909083 0.98721 0.00700175
0.141856 -0.0936159 0.985451 0.010509
0.154966 -0.0943679 0.983402 0.000326101
0.172023 -0.085728 0.981356 0
0.188356 -0.0781777 0.978984 0
0.198886 -0.0867499 0.976176 0
-0.0600376 -0.0962791 0.993542 0.00851799
-0.0584197 -0.0669116 0.996047 0
-0.0583015 -0.0578046 0.996624 0
-0.0579957 -0.0663723 0.996108 0.00252008
-0.0582362 -0.0676282 0.996009 0
-0.0578981 -0.073717 0.995597 0
-0.0549377 -0.0815093 0.995157 0
-0.0526859 -0.0666521 0.996384 0
-0.0504445 -0.0645074 0.996641 0
-0.0471249 -0.0488975 0.997692 0
-0.0407628 -0.0550772 0.99765 0
-0.0410018 -0.0595036 0.997386 0
-0.0278864 -0.0552588 0.998083 0
-0.0317287 -0.0750323 0.996676 0
-0.0255161 -0.0776836 0.996652 0.00133554
0.137226 -0.117897 0.983498 0.0190303
0.140417 -0.0908735 0.985913 0.00694782
0.15983 -0.0823104 0.983707 0
0.170661 -0.0804286 0.982042 0.000867442
0.181853 -0.0858307 0.979573 0
0.189701 -0.095453 0.977191 0
-0.0637746 -0.0744796 0.995181 0.00169938
-0.0617634 -0.0748591 0.99528 0
-0.0587866 -0.075951 0.995377 0
-0.0579257 -0.0751624 0.995487 0
-0.0565572 -0.0675155 0.996114 0
-0.0578353 -0.0622461 0.996384 0
-0.0579381 -0.0677321 0.99602 0
-0.0567345 -0.0691735 0.99599 0
-0.0538117 -0.080484 0.995302 0
-0.05405 -0.0765685 0.995598 0
-0.0492056 -0.073886 0.996052 0
-0.0445142 -0.052345 0.997636 0
-0.0438385 -0.06551 0.996889 0
-0.038108 -0.0588826 0.997537 0
0.137791 -0.11189 0.984121 0.021469
0.14515 -0.0988757 0.984457 0.0190744
0.160314 -0.089282 0.98302 0.000428074
0.170655 -0.0893812 0.981269 0.00582921
0.187529 -0.10493 0.976638 0.0101732
0.196234 -0.102655 0.975169 0.0127305
-0.0693586 -0.103342 0.992225 0
-0.0690456 -0.11156 0.991356 0
-0.068227 -0.10021 0.992624 0.000178199
-0.0657359 -0.0896563 0.993801 0
-0.0625445 -0.0799349 0.994836 0
-0.0568748 -0.0739983 0.995635 0
-0.0562738 -0.067868 0.996106 0
-0.0538326 -0.0598571 0.996754 0
-0.0573065 -0.0679543 0.996041 0
-0.0544859 -0.0650348 0.996394 0
-0.055571 -0.0655444 0.996301 0
-0.0511921 -0.0826282 0.995265 0
-0.0475087 -0.0880136 0.994986 0
-0.0461248 -0.0699877 0.996481 0
-0.041574 -0.0630871 0.997142 0
-0.0354617 -0.0565668 0.997769 0
-0.034962 -0.0642851 0.997319 0
0.156752 -0.0895553 0.983569 0
0.17176 -0.0928294 0.980756 0.00273897
0.18104 -0.110173 0.977285 0.0132997
0.197527 -0.106963 0.974444 0.0180508
-0.071882 -0.119521 0.990226 0
-0.0729734 -0.113446 0.990861 0.00925091
-0.0731247 -0.105538 0.991723 0
-0.0711024 -0.104494 0.991981 0.00541897
-0.0665352 -0.0918969 0.993543 0
-0.060935 -0.0779187 0.995096 0
-0.0605469 -0.0743722 0.995391 0
-0.0605882 -0.0785888 0.995064 0
-0.0578276 -0.0672714 0.996057 0
-0.0579462 -0.08116 0.995015 0
-0.0623056 -0.0942798 0.993594 0
-0.0612906 -0.0964092 0.993453 4.14602e-05
-0.0572605 -0.091179 0.994187 0.00340118
-0.0496247 -0.0956201 0.99418 0
-0.0482339 -0.0898821 0.994784 0
-0.043204 -0.0895487 0.995045 0
-0.043107 -0.0743079 0.996303 0
-0.0382022 -0.0759674 0.996378 0
0.171821 -0.103114 0.979717 0.0045614
0.189349 -0.112746 0.975415 0.0194527
0.202354 -0.129505 0.970712 0.0278061
0.214367 -0.1414 0.966464 0.029667
-0.0747154 -0.127802 0.988981 0.00227447
-0.0707247 -0.124504 0.989695 0.0060929
-0.0705585 -0.115027 0.990853 0.00656505
-0.0698479 -0.102813 0.992245 0
-0.0721369 -0.107869 0.991544 0.00569873
-0.0643619 -0.104054 0.992487 0
-0.0602122 -0.0801845 0.99496 0
-0.0614139 -0.0815443 0.994776 0
-0.0625578 -0.0868018 0.99426 0
-0.0618678 -0.090611 0.993963 0
-0.0645188 -0.0921883 0.993649 0.00495528
-0.0600693 -0.0950976 0.993654 0
-0.0568944 -0.0963823 0.993717 0
-0.0583857 -0.0881863 0.994391 0.00151509
-0.0505372 -0.0889641 0.994752 0
-0.0490209 -0.0974045 0.994037 0
-0.0472183 -0.0888285 0.994927 0
-0.0454804 -0.0876926 0.995109 0
-0.0398513 -0.077027 0.996232 0
0.195893 -0.120603 0.973181 0.0245386
0.207698 -0.132178 0.969222 0.0216056
-0.0688124 -0.112962 0.991214 0.00455428
-0.0702613 -0.116225 0.990735 0.00628243
-0.0759667 -0.116943 0.990229 0.0133018
-0.0730998 -0.111141 0.991113 0.00568519
-0.066165 -0.0962499 0.993156 0
-0.065281 -0.100512 0.992792 0
-0.0618398 -0.0850525 0.994456 0
-0.0625467 -0.0982625 0.993193 0
-0.0630949 -0.103627 0.992613 0.00196278
-0.0613007 -0.0900433 0.994049 0.00159806
-0.0617253 -0.0994701 0.993124 0
-0.0633219 -0.0943182 0.993526 3.56886e-06
-0.0587991 -0.0804012 0.995027 0.00380737
-0.0518614 -0.0947957 0.994145 0
-0.0534987 -0.10563 0.992965 0
-0.0545087 -0.116558 0.991687 0.0068656
-0.0500278 -0.100627 0.993666 0.000227451
0.183609 -0.111698 0.976633 0.00831638
0.211236 -0.152549 0.965458 0.0306475
-0.066041 -0.116254 0.991022 0.00357679
-0.0727103 -0.128021 0.989102 0.0123139
-0.0741359 -0.127948 0.989006 0.0145826
-0.0689171 -0.114305 0.991052 0.00461796
-0.0679757 -0.103661 0.992287 0
-0.0662317 -0.112908 0.991396 0
-0.0649679 -0.0977026 0.993093 0
-0.0656825 -0.109101 0.991858 0.00350308
-0.0656105 -0.0972144 0.993098 0
-0.060398 -0.0760989 0.995269 0
-0.0623587 -0.0866912 0.994282 0
-0.0613115 -0.0807412 0.994848 0
-0.0574826 -0.0929402 0.994011 0.00549302
-0.0588923 -0.097759 0.993466 0.0126131
-0.0493415 -0.102921 0.993465 0
0.187763 -0.120504 0.974794 0.0107199
0.20573 -0.143449 0.968038 0.02731
-0.0755851 -0.112409 0.990783 0.0385092
-0.0720528 -0.117401 0.990467 0.0314482
-0.0719649 -0.119246 0.990253 0.0231376
-0.0736708 -0.132374 0.988458 0.0211694
-0.0730955 -0.13782 0.987756 0.0131695
-0.0677973 -0.108747 0.991755 0
-0.0685259 -0.112574 0.991278 0.0045524
-0.0619911 -0.103299 0.992717 0
-0.0649984 -0.0997252 0.99289 0.00160376
-0.0655066 -0.100699 0.992758 0.00326239
-0.0597674 -0.0849079 0.994595 0
-0.0621028 -0.0790034 0.994938 0
-0.0582986 -0.0903208 0.994205 0
-0.0592667 -0.0885424 0.994308 0
0.210913 -0.12837 0.969039 0.0263773
-0.0754055 -0.12428 0.989378 0.0597416
-0.0707019 -0.119009 0.990373 0.0419639
-0.066615 -0.100222 0.992733 0.0231534
-0.0720482 -0.112522 0.991034 0.01829
-0.0699365 -0.123117 0.989925 0.00961351
-0.0685751 -0.110597 0.991497 0.00896074
-0.0647627 -0.10451 0.992413 0.0028904
-0.0689982 -0.104972 0.992079 0.00932341
-0.0656219 -0.112823 0.991446 0
-0.0638156 -0.0902148 0.993876 0
-0.057821 -0.092102 0.994069 0
-0.0587047 -0.0878795 0.9944 0
0.215441 -0.128738 0.967994 0.0187491
-0.0707015 -0.138976 0.987769 0.0437922
-0.0685526 -0.129316 0.989231 0.0419268
-0.0649467 -0.128604 0.989567 0.0398625
-0.0640351 -0.100016 0.992923 0.039847
-0.0638902 -0.101005 0.992832 0.040172
-0.0679317 -0.101499 0.992514 0.0350432
-0.0650335 -0.104649 0.992381 0.0266677
-0.0785001 -0.127311 0.988751 0.02637
-0.0733871 -0.120659 0.989978 0.0229637
-0.0738336 -0.122536 0.989714 0.030062
-0.0698777 -0.115262 0.990874 0.0181789
-0.0693464 -0.100304 0.992537 0.00777317
-0.068819 -0.107337 0.991838 0.00844891
-0.0623886 -0.103211 0.992701 0.00417607
-0.059851 -0.0911001 0.994042 0
0.222458 -0.142215 0.964514 0.0225668
0.22221 -0.143165 0.964431 0.0281149
-0.0628336 -0.131321 0.989347 0.0334311
-0.0659108 -0.124785 0.989992 0.0367928
-0.0692273 -0.104962 0.992064 0.0368311
-0.0631327 -0.0737067 0.99528 0.0243107
-0.0630536 -0.0871136 0.994201 0.0287314
-0.0660293 -0.0969803 0.993094 0.030975
-0.0701967 -0.112354 0.991186 0.0443566
-0.0789407 -0.125376 0.988964 0.0354614
-0.0764213 -0.131987 0.988301 0.0326358
-0.0743652 -0.130346 0.988676 0.0323286
-0.0776562 -0.126984 0.98886 0.0361379
-0.0741962 -0.117789 0.990263 0.0362099
-0.0748666 -0.115733 0.990455 0.0298679
0.249916 -0.138494 0.958312 0.0204004
-0.0644766 -0.114348 0.991346 0.0163556
-0.0596436 -0.123693 0.990526 0.0209957
-0.0582727 -0.0862331 0.994569 0.00708401
-0.0548749 -0.0749937 0.995673 0.00651352
-0.059209 -0.0699454 0.995792 0.0120049
-0.0593513 -0.0793117 0.995081 0.00785415
-0.0674751 -0.0993896 0.992758 0.0353957
-0.0690728 -0.107469 0.991806 0.0335412
-0.0762157 -0.133928 0.988056 0.0390742
-0.0746755 -0.135743 0.987926 0.0332454
-0.0789879 -0.137366 0.987366 0.0439178
-0.0811679 -0.138993 0.986961 0.0503439
-0.0786108 -0.122024 0.989409 0.0456202
0.238747 -0.127626 0.962658 0.0104284
0.233843 -0.12187 0.964606 0.00355461
-0.0580076 -0.115369 0.991627 0.007331
-0.0569896 -0.102806 0.993068 0.0117227
-0.0536403 -0.0940194 0.994124 0.00448903
-0.0520553 -0.0791457 0.995503 0.00173136
-0.0517596 -0.0754452 0.995806 0
-0.0548673 -0.0801224 0.995274 0.00483392
-0.0573325 -0.0797754 0.995163 0.00584185
-0.0729265 -0.107594 0.991517 0.0305584
-0.0711044 -0.107154 0.991697 0.029114
-0.0707444 -0.105583 0.991891 0.0291975
-0.078642 -0.136421 0.987525 0.0527418
-0.0763103 -0.139904 0.98722 0.0530472
0.223904 -0.125211 0.966535 1.62068e-05
0.233355 -0.122635 0.964627 0
-0.0703506 -0.121647 0.990077 0.0303087
-0.0587929 -0.112574 0.991902 7.19132e-05
-0.0571191 -0.113523 0.991892 0
-0.0524986 -0.109386 0.992612 0
-0.0540586 -0.0889284 0.99457 0
-0.0492 -0.0671827 0.996527 0
-0.0530386 -0.0735644 0.995879 0
-0.0552452 -0.077847 0.995433 0
-0.0538351 -0.0725009 0.995914 0
-0.0576042 -0.0715996 0.995769 0.00276031
-0.0563027 -0.0637954 0.996374 0.00275174
-0.0688117 -0.106714 0.991906 0.0253126
-0.0677558 -0.111217 0.991484 0.028661
-0.0748241 -0.116018 0.990425 0.0377254
0.214461 -0.111635 0.970332 0
0.218554 -0.110478 0.969551 0
-0.0649691 -0.127005 0.989772 0.0251162
-0.064597 -0.104366 0.992439 0.0202962
-0.0649229 -0.119629 0.990694 0.0143139
-0.0569903 -0.103375 0.993008 0.000650797
-0.0554843 -0.103948 0.993034 0.00443771
-0.0521004 -0.0935181 0.994253 0
-0.0546127 -0.0745786 0.995719 0
-0.054418 -0.062919 0.996534 0
-0.0512957 -0.0628643 0.996703 0
-0.0545053 -0.0471992 0.997397 0
-0.0534896 -0.072656 0.995922 0
-0.0552869 -0.0693063 0.996062 0.0029826
-0.0555825 -0.0692265 0.996051 0.0027776
-0.066524 -0.102891 0.992466 0.0255693
-0.0691771 -0.1088 0.991654 0.032061
0.215477 -0.0928979 0.97208 0
0.216919 -0.101486 0.9709 0
-0.0632435 -0.113514 0.991521 0.0261921
-0.0642102 -0.112606 0.991563 0.0327921
-0.0666574 -0.118545 0.990709 0.03357
-0.0654308 -0.107133 0.992089 0.029438
-0.0623786 -0.12077 0.990719 0.0222174
-0.054703 -0.105198 0.992946 0.00818484
-0.0637472 -0.11865 0.990888 0.0279333
-0.0534322 -0.0923076 0.994296 0.00119158
-0.0534311 -0.0705435 0.996077 0.00235803
-0.0547675 -0.0699961 0.996043 0
-0.0532232 -0.0732926 0.995889 0
-0.0498299 -0.0562599 0.997172 0
-0.0563032 -0.073089 0.995735 0
-0.0584232 -0.0800605 0.995076 0
0.210327 -0.0926563 0.97323 0
0.216972 -0.0953155 0.971513 0
-0.0633271 -0.0650365 0.995871 0.0238923
-0.0635848 -0.0544454 0.99649 0.0206487
-0.0663701 -0.0920312 0.993542 0.0293155
-0.0633015 -0.10368 0.992594 0.0357081
-0.0667839 -0.123375 0.99011 0.0410324
-0.0650953 -0.115678 0.991151 0.0308452
-0.0645964 -0.11989 0.990683 0.033637
-0.0588586 -0.116985 0.991388 0.0281821
-0.0604064 -0.116137 0.991395 0.0252449
-0.0594513 -0.106739 0.992508 0.0219243
-0.0536754 -0.0983056 0.993708 0.0129645
-0.0515225 -0.0776109 0.995652 0.00323212
-0.0514057 -0.0784193 0.995594 0
-0.0515113 -0.0866519 0.994906 0
-0.0522495 -0.0719366 0.99604 0
-0.0573658 -0.081987 0.994981 0.00397736
-0.0632083 -0.0796745 0.994815 0.0156911
0.200164 -0.0965898 0.97499 0
0.205792 -0.0998951 0.973484 0
-0.0559143 -0.0521629 0.997072 0.0173393
-0.0600658 -0.056103 0.996617 0.0195124
-0.063002 -0.0654772 0.995863 0.0277573
-0.0611218 -0.0557927 0.99657 0.0209698
-0.0662414 -0.0877843 0.993935 0.0320079
-0.0629918 -0.0876939 0.994154 0.0361612
-0.0676921 -0.10115 0.992566 0.0386534
-0.0672237 -0.114922 0.991097 0.0423659
-0.0675192 -0.123767 0.990012 0.0504626
-0.0631785 -0.12339 0.990345 0.0382418
-0.0593766 -0.123014 0.990627 0.0338606
-0.0565022 -0.112035 0.992097 0.0167346
-0.0528257 -0.0972788 0.993854 0.0115365
-0.0542096 -0.0779465 0.995483 0.011951
-0.049738 -0.0763318 0.995841 0.000320287
-0.059802 -0.0835533 0.994707 0.00966221
0.192176 -0.0958156 0.976672 0
0.191165 -0.0874796 0.977652 0
-0.0489304 -0.0622661 0.996859 0.0176602
-0.0577843 -0.054937 0.996816 0.00533869
-0.056929 -0.0532751 0.996956 0.0083565
-0.0607517 -0.059774 0.996362 0.0186614
-0.060309 -0.0455441 0.99714 0.0155847
-0.0606337 -0.0501813 0.996898 0.0186746
-0.0615223 -0.0605612 0.996267 0.0210216
-0.0624162 -0.0655754 0.995894 0.0146668
-0.0593089 -0.0588254 0.996505 0.0248424
-0.0631684 -0.083042 0.994542 0.0238141
-0.0658342 -0.0856254 0.99415 0.0322081
-0.0667026 -0.107789 0.991934 0.0417707
-0.0643116 -0.111572 0.991673 0.0376875
-0.0606739 -0.113764 0.991653 0.0314044
-0.0606876 -0.110628 0.992007 0.0236776
-0.0584232 -0.118572 0.991225 0.0312161
-0.0554142 -0.0978191 0.99366 0.017455
-0.0515404 -0.078158 0.995608 0.00304987
0.18637 -0.0724386 0.979806 0
0.183859 -0.0799351 0.979697 0
-0.0515642 -0.0609872 0.996806 0.0106139
-0.048056 -0.0627026 0.996875 0
-0.0533894 -0.0677337 0.996274 0.000900659
-0.055825 -0.0562532 0.996855 0.00521158
-0.0595939 -0.0438575 0.997259 0.00774038
-0.0556602 -0.02723 0.998078 0.00276062
-0.0616182 -0.0529714 0.996693 0.0205772
-0.0642452 -0.0514423 0.996607 0.0216184
-0.063425 -0.0660947 0.995795 0.0192553
-0.0592665 -0.05967 0.996457 0.0101885
-0.0590633 -0.0580891 0.996563 0.00618454
-0.0604167 -0.072354 0.995547 0.0200526
-0.0590448 -0.0885646 0.994319 0.0307547
-0.0578818 -0.101227 0.993178 0.0173603
-0.0545064 -0.0999062 0.993503 0.018385
-0.0608045 -0.126561 0.990093 0.0276921
-0.060076 -0.106991 0.992443 0.025668
-0.0550056 -0.0936117 0.994088 0.0100871
-0.0517777 -0.0865363 0.994902 0
0.175824 -0.0688977 0.982008 0
-0.0592343 -0.071176 0.995703 0.00706997
-0.0560626 -0.0740742 0.995676 0.00926363
-0.049324 -0.0692492 0.996379 0.00652096
-0.0480889 -0.0393143 0.998069 0
-0.0514831 -0.0631057 0.996678 0
-0.0471364 -0.052268 0.99752 0
-0.0565599 -0.0644458 0.996317 0.0043028
-0.0594506 -0.0572631 0.996587 0.0196231
-0.0602884 -0.0432215 0.997245 0.016654
-0.0644849 -0.0686734 0.995553 0.0204395
-0.0626468 -0.068018 0.995715 0.0167266
-0.0585524 -0.0545336 0.996794 0.00820481
-0.0566838 -0.05403 0.996929 0.00702273
-0.0571189 -0.0512526 0.997051 0.00550642
-0.0608046 -0.0792845 0.994996 0.0268503
-0.0572268 -0.0854274 0.9947 0.0233814
-0.0584913 -0.0941398 0.993839 0.0238382
-0.0545538 -0.0905318 0.994398 0.0104006
-0.0575266 -0.105443 0.99276 0.0180631
-0.0606945 -0.0609757 0.996292 0.0157852
-0.0581403 -0.0621939 0.996369 0.0105518
-0.0614383 -0.052806 0.996713 0.0061527
-0.0569448 -0.0787718 0.995265 0.0122653
-0.059361 -0.0801205 0.995016 0.0146501
-0.0486567 -0.0827439 0.995382 0
-0.0474816 -0.0631485 0.996874 0
-0.0439938 -0.0441864 0.998054 0
-0.0513036 -0.0621538 0.996747 0
-0.0487469 -0.0584342 0.9971 0.00840412
-0.0544909 -0.0533307 0.997089 0.0021578
-0.0646274 -0.0657044 0.995744 0.0274047
-0.0629629 -0.0734208 0.995312 0.0336516
-0.0662733 -0.0708745 0.995281 0.0274028
-0.0563784 -0.0657615 0.996241 0.0183714
-0.0587182 -0.0572027 0.996634 0.0127899
-0.0622328 -0.0657565 0.995893 0.0212261
-0.0660198 -0.0532456 0.996397 0.0317963
-0.0686803 -0.0655893 0.99548 0.0199344
-0.0677179 -0.0512056 0.99639 0.0226568
-0.0633628 -0.0697282 0.995552 0.0267043
-0.0578063 -0.0741094 0.995573 0.0134991
-0.0552314 -0.0808576 0.995194 0.00648218
-0.0521559 -0.0552653 0.997109 0.00139609
-0.0473707 -0.0610969 0.997007 0
-0.0491918 -0.0632651 0.996784 0
-0.0459783 -0.0487426 0.997753 0.000178024
-0.050046 -0.0523499 0.997374 0
-0.0528814 -0.0535636 0.997163 0
-0.0584951 -0.0648176 0.996181 0.0207143
-0.0669145 -0.067098 0.9955 0.021601
-0.0611717 -0.0768002 0.995168 0.0283481
-0.0628265 -0.0784548 0.994936 0.0249736
-0.0637511 -0.0776973 0.994937 0.021367
-0.0612976 -0.0672863 0.995849 0.0234157
-0.0680116 -0.0685455 0.995327 0.0272537
-0.0722117 -0.0727658 0.994731 0.0344494
-0.0701314 -0.0637903 0.995496 0.042292
-0.0644127 -0.0737537 0.995194 0.0211855
-0.0623795 -0.0633698 0.996039 0.0155024
-0.0534572 -0.0563648 0.996978 0.00800819
-0.0519999 -0.0617518 0.996736 0.00797386
-0.0509201 -0.0579529 0.99702 0
-0.0543924 -0.0671232 0.996261 0.0057682
-0.0552246 -0.0603704 0.996647 0
-0.0524967 -0.0645342 0.996534 0
-0.0545389 -0.0620563 0.996581 0
-0.0575436 -0.0492656 0.997127 0
-0.0607058 -0.0631579 0.996156 0.0205888
-0.0643754 -0.0820592 0.994546 0.0333521
-0.0644182 -0.0780036 0.99487 0.0326012
-0.0708047 -0.090959 0.993334 0.0364156
-0.0575338 -0.0669685 0.996095 0.0229909
-0.0493416 -0.0356009 0.998147 0.0172877
-0.0538267 -0.0446819 0.99755 0.0047104
-0.0661217 -0.0620089 0.995883 0.0275918
-0.0673082 -0.0549017 0.996221 0.0245301
-0.0637782 -0.0615955 0.996061 0.0203839
-0.062685 -0.0551868 0.996506 0.0230287
-0.0650525 -0.0613504 0.995994 0.0248464
-0.0629062 -0.0502221 0.996755 0.00112799
-0.0513629 -0.0382843 0.997946 0
-0.0531017 -0.0456401 0.997546 0
-0.0542161 -0.0813669 0.995209 0.00701949
-0.0530426 -0.0694872 0.996172 0
-0.055943 -0.068652 0.996071 0
-0.0616089 -0.0647795 0.995996 0.0131427
-0.0607445 -0.0544554 0.996667 0.00914055
-0.0639287 -0.0590054 0.996209 0.0182805
-0.0669039 -0.0855604 0.994084 0.0278326
-0.0695163 -0.0793625 0.994419 0.0352754
-0.0709509 -0.0812326 0.994167 0.0285804
-0.0542276 -0.0638708 0.996484 0.0258026
-0.0554247 -0.0532932 0.99704 0.032196
-0.0534431 -0.0407565 0.997739 0.0182863
-0.0550997 -0.0294535 0.998046 0.0123047
-0.0535468 -0.0388554 0.997809 0.0130466
-0.0631368 -0.0582519 0.996303 0.0287448
-0.0640905 -0.06322 0.99594 0.022793
-0.0663233 -0.0577303 0.996127 0.0194258
-0.0608127 -0.0602383 0.99633 0.0143733
-0.0549194 -0.0302168 0.998033 0
-0.0572609 -0.0330311 0.997813 0
-0.0532474 -0.036126 0.997928 0
-0.0537386 -0.0528473 0.997156 0
-0.0516803 -0.0514269 0.997339 0
-0.053702 -0.0596964 0.996771 0
-0.0615614 -0.0642696 0.996032 0.013443
-0.0581848 -0.059902 0.996507 0.0132346
-0.059364 -0.0520384 0.996879 0.00918044
-0.0674517 -0.0712605 0.995174 0.0247318
-0.0652396 -0.0657908 0.995698 0.0210959
-0.0638447 -0.0640659 0.995901 0.00676979
-0.0547949 -0.0708654 0.99598 0.0165877
-0.0563887 -0.0725727 0.995768 0.0223211
-0.0596121 -0.0482686 0.997054 0.0302639
-0.061328 -0.0403895 0.9973 0.0263249
-0.064495 -0.0478072 0.996772 0.0286666
-0.0642664 -0.0517508 0.99659 0.0231357
-0.0618112 -0.0419421 0.997206 0.0119488
-0.0593622 -0.0469438 0.997132 0.00739452
-0.0561598 -0.0291638 0.997996 0.00344276
-0.0567733 -0.0100038 0.998337 0
-0.056039 -0.0179506 0.998267 0
-0.0543126 -0.0308898 0.998046 0
-0.046933 -0.033232 0.998345 0
-0.0520574 -0.0514095 0.99732 0
-0.0508441 -0.0459923 0.997647 0
-0.0578063 -0.0410046 0.997485 0
-0.0560021 -0.0400712 0.997626 0.00128572
-0.0579025 -0.0521511 0.996959 0.00735552
-0.0671959 -0.0682904 0.9954 0.0217579
-0.0657047 -0.055659 0.996286 0.00675417
-0.0619467 -0.0455664 0.997039 0
-0.0658283 -0.0432806 0.996892 0.00517017
-0.0654791 -0.0291298 0.997429 0.00224676
-0.0654109 -0.0223882 0.997607 0
-0.0612293 -0.0333035 0.997568 0.00128087
-0.0600124 -0.0196646 0.998004 0.00451301
-0.057603 -0.0550792 0.996819 0.00614133
-0.0621462 -0.0786141 0.994966 0.0211316
-0.0612046 -0.0517818 0.996781 0.0231469
-0.0627891 -0.0295289 0.99759 0.023094
-0.05887 -0.0462464 0.997194 0.0278241
-0.0562935 -0.0400948 0.997609 0.00528134
-0.0593351 -0.0327593 0.9977 0.00364831
-0.0586029 -0.0139209 0.998184 0.00665736
-0.0583125 -0.0343336 0.997708 0.00608571
-0.0610969 -0.0455094 0.997094 0.000439261
-0.0528233 -0.0383113 0.997869 0
-0.051354 -0.0256763 0.99835 0
-0.0512912 -0.0284201 0.998279 0
-0.0490022 -0.0258715 0.998464 0
-0.0544707 -0.0373379 0.997817 0
-0.0506001 -0.0313502 0.998227 0
-0.0616089 -0.0458373 0.997047 0.0142473
-0.0623032 -0.0389186 0.997298 0.00377892
-0.0685664 -0.0393543 0.99687 0.0136803
-0.066327 -0.0430804 0.996868 0.00901587
0.187881 -0.0830034 0.978678 0.0270488
-0.0671003 -0.0104275 0.997692 0
-0.0670243 -0.0426589 0.996839 0.00600672
-0.0571055 -0.0348597 0.997759 0
-0.0547685 -0.0413427 0.997643 0.000228445
-0.0570102 -0.0594539 0.996602 0.00899218
-0.0482134 -0.0152567 0.998721 0.00257123
-0.0553715 -0.0184778 0.998295 0.00985314
-0.0535907 -0.0344568 0.997968 0.0205133
-0.0548427 -0.0277299 0.99811 0.00452317
-0.0540316 -0.0160814 0.99841 0.00735138
-0.0563185 -0.0167985 0.998271 0.00570472
-0.0517152 -0.0114478 0.998596 0.00258779
-0.0572713 -0.0167884 0.998217 0
-0.0625495 -0.026079 0.997701 0.000651682
-0.0521834 -0.0263363 0.99829 0
-0.0509471 -0.023566 0.998423 0
-0.0514617 -0.0145125 0.998569 0
-0.0588707 -0.0400886 0.99746 0.0109294
-0.0622381 -0.0340392 0.997481 0.00537875
-0.0620341 -0.03337 0.997516 0.00168942
-0.0608247 -0.0395472 0.997365 0
-0.0540124 0.00569017 0.998524 0
0.18178 -0.0839855 0.979746 0.0340386
-0.0634377 -0.0223532 0.997735 0
-0.0613628 -0.0383784 0.997377 0
-0.0535648 -0.0387316 0.997813 0
-0.0501527 -0.0363871 0.998079 0
-0.0500591 -0.0496877 0.99751 0.0010922
-0.0514544 -0.020264 0.99847 0.00535717
-0.0549853 -0.0243483 0.99819 0.00860969
-0.0560528 -0.0212891 0.998201 0.0104274
-0.0598459 -0.0360493 0.997557 0.00396294
-0.0557942 -0.0172123 0.998294 0.0100875
-0.0575947 -0.0163322 0.998206 0.0132266
-0.0596748 -0.0245665 0.997916 0.00897864
