# .PCD v0.7 - Point Cloud Data file format
VERSION 0.7
FIELDS x y z
SIZE 4 4 4
TYPE F F F
COUNT 1 1 1
WIDTH 1320
HEIGHT 1
VIEWPOINT 0 0 0 1 0 0 0
POINTS 1320
DATA ascii
-0.078932337 -0.27027366 -0.40349567
-0.078687005 -0.27029082 -0.40351269
-0.078467667 -0.270309 -0.40350401
-0.078318834 -0.2703208 -0.40350816
-0.078188494 -0.27029097 -0.403557
-0.077924997 -0.27030301 -0.40351599
-0.077644207 -0.27029282 -0.40350881
-0.077517405 -0.27028117 -0.40349588
-0.077264331 -0.27029935 -0.40347099
-0.077003494 -0.27034301 -0.40343601
-0.076883718 -0.27030429 -0.40344283
-0.076671854 -0.27033657 -0.40342411
-0.076506786 -0.27029568 -0.40342155
-0.076297991 -0.27027884 -0.40343666
-0.076169007 -0.27028334 -0.40343833
-0.075910337 -0.2702975 -0.40342966
-0.075680666 -0.27030566 -0.403409
-0.075553998 -0.27031249 -0.40340251
-0.075338006 -0.27028999 -0.40340298
-0.080853999 -0.270165 -0.40359801
-0.080759004 -0.27013001 -0.40358901
-0.080498911 -0.27011535 -0.40358189
-0.079842001 -0.270152 -0.40360001
-0.079605669 -0.270096 -0.40359366
-0.079459108 -0.27010858 -0.40357655
-0.079312831 -0.27011618 -0.4035708
-0.079108886 -0.27011803 -0.40354255
-0.078922004 -0.27009299 -0.40351599
-0.078662597 -0.27008659 -0.40351582
-0.078467801 -0.27010301 -0.40350741
-0.078319721 -0.27008945 -0.40352255
-0.078179665 -0.27010667 -0.40353563
-0.077914663 -0.27011999 -0.40352699
-0.077658996 -0.27009398 -0.40352648
-0.077521622 -0.27010477 -0.40351427
-0.077252001 -0.27008 -0.403496
-0.076911002 -0.2701019 -0.40345535
-0.076688863 -0.27009541 -0.403449
-0.076515496 -0.27011576 -0.40343758
-0.076333284 -0.27010828 -0.40343776
-0.076159507 -0.2701 -0.40342999
-0.075898163 -0.27007851 -0.40344384
-0.075705998 -0.27008599 -0.40343902
-0.075525165 -0.27006984 -0.40341565
-0.0753548 -0.27009198 -0.40340799
-0.080477141 -0.26992801 -0.40359515
-0.079459406 -0.2699326 -0.40358439
-0.079321496 -0.26989481 -0.40357819
-0.079096548 -0.26989877 -0.40355802
-0.078910999 -0.26991099 -0.40353867
-0.078734003 -0.26992068 -0.40352067
-0.078548998 -0.26989901 -0.40353352
-0.078318626 -0.26988915 -0.40353549
-0.078167997 -0.26988634 -0.40354601
-0.077901997 -0.26990068 -0.40354633
-0.07764966 -0.26991001 -0.40352035
-0.077512495 -0.26992032 -0.40351012
-0.077241004 -0.269898 -0.40351552
-0.076927803 -0.26988718 -0.40347138
-0.076701775 -0.26988479 -0.40345752
-0.076503329 -0.26989669 -0.4034507
-0.076312669 -0.26991045 -0.403449
-0.076148339 -0.26991901 -0.40347037
-0.0758885 -0.26989451 -0.40344873
-0.075696498 -0.269903 -0.40344399
-0.075488426 -0.26987743 -0.40342599
-0.075312227 -0.269889 -0.40342042
-0.075148001 -0.26982301 -0.40340301
-0.080403 -0.26975301 -0.40359399
-0.079387501 -0.26970699 -0.4035835
-0.079109855 -0.26968876 -0.40357313
-0.078937396 -0.26967379 -0.40355501
-0.078721337 -0.26970267 -0.40354666
-0.078538999 -0.26971582 -0.40354452
-0.07832586 -0.26971 -0.40353441
-0.078157499 -0.26970398 -0.40355802
-0.077891 -0.26968065 -0.40354335
-0.077638 -0.2696887 -0.40352035
-0.077499911 -0.26970178 -0.40353116
-0.077230997 -0.26971501 -0.403523
-0.076934002 -0.26971081 -0.40349483
-0.076691508 -0.26970163 -0.40347433
-0.076485187 -0.26968434 -0.40346801
-0.076300234 -0.2696912 -0.40346646
-0.076136 -0.26969966 -0.40348768
-0.075963326 -0.26970801 -0.403476
-0.07573916 -0.2697185 -0.40346214
-0.075499713 -0.26970786 -0.40344158
-0.075301833 -0.26970652 -0.40343401
-0.075118996 -0.269696 -0.40341249
-0.074951001 -0.26960599 -0.403404
-0.079430997 -0.26959699 -0.40359399
-0.079377674 -0.26952365 -0.40358868
-0.079117998 -0.269494 -0.40358478
-0.078938 -0.26950476 -0.40357399
-0.078709997 -0.26948267 -0.40354633
-0.078526504 -0.26949701 -0.40356717
-0.078305453 -0.26951289 -0.40355566
-0.078146666 -0.26952201 -0.40358531
-0.077879995 -0.26949799 -0.40356201
-0.077627003 -0.2695075 -0.40355101
-0.077486917 -0.26948294 -0.40356025
-0.077218331 -0.2694957 -0.40354666
-0.076913834 -0.26950648 -0.40351185
-0.076691881 -0.26952788 -0.40348741
-0.076499298 -0.26950151 -0.40349236
-0.07627786 -0.26949412 -0.40348843
-0.076123334 -0.26948032 -0.40350935
-0.075949997 -0.26949069 -0.4035143
-0.075725831 -0.26949915 -0.40349218
-0.075476222 -0.26951167 -0.40346831
-0.075291663 -0.26952389 -0.40345034
-0.075085998 -0.2694945 -0.40341973
-0.074944496 -0.26949599 -0.40342051
-0.074671999 -0.269465 -0.40340301
-0.074110001 -0.26942 -0.40340301
-0.079415001 -0.26930365 -0.40359569
-0.079096667 -0.26936033 -0.40359235
-0.078927495 -0.26932183 -0.40358499
-0.078699 -0.26929998 -0.40357602
-0.078504995 -0.26929241 -0.40358019
-0.078302249 -0.26930261 -0.40358251
-0.078136504 -0.26933903 -0.403595
-0.077868998 -0.26931569 -0.40358901
-0.077615999 -0.26932499 -0.40357769
-0.077477247 -0.26929837 -0.40355629
-0.077209003 -0.26935199 -0.403584
-0.076900326 -0.26928902 -0.4035562
-0.076708332 -0.26929817 -0.4035227
-0.076508313 -0.26931554 -0.40351659
-0.07632222 -0.26931545 -0.40349978
-0.076141328 -0.26928499 -0.40352699
-0.075939 -0.26930898 -0.40354151
-0.075714171 -0.26927966 -0.4035008
-0.075472631 -0.26930088 -0.40348241
-0.07530167 -0.2693029 -0.40345868
-0.07509286 -0.2693013 -0.40344229
-0.074933998 -0.26931468 -0.40344432
-0.074663669 -0.26932034 -0.40341666
-0.074540332 -0.26929298 -0.40341401
-0.074310251 -0.2693105 -0.40340376
-0.074155599 -0.2692894 -0.40341201
-0.073920503 -0.269252 -0.40340799
-0.078691997 -0.26919201 -0.40359399
-0.078489661 -0.26913333 -0.40358999
-0.078318998 -0.26910949 -0.403597
-0.077857666 -0.26909569 -0.40359366
-0.077605002 -0.26910499 -0.40357336
-0.077490889 -0.26911464 -0.40357974
-0.077395 -0.269122 -0.40356266
-0.0768895 -0.26910776 -0.40358701
-0.076695338 -0.26907918 -0.403548
-0.076504253 -0.26909098 -0.40354678
-0.076332115 -0.26910275 -0.40351763
-0.076146334 -0.26911351 -0.40353486
-0.075929999 -0.269124 -0.40353465
-0.0757045 -0.26909602 -0.40349698
-0.075475 -0.26908559 -0.40349859
-0.07533367 -0.26908025 -0.40346611
-0.075105891 -0.26909044 -0.40345323
-0.074922331 -0.2690933 -0.403442
-0.074652009 -0.26909935 -0.40341997
-0.074505083 -0.26911244 -0.40342104
-0.074294597 -0.2691268 -0.403413
-0.074128792 -0.26911241 -0.40340838
-0.073941 -0.26908934 -0.40341067
-0.073575005 -0.26904702 -0.403402
-0.078339003 -0.26899499 -0.40359899
-0.077506892 -0.26890898 -0.40358588
-0.077383675 -0.26890168 -0.40356335
-0.076834001 -0.26885399 -0.40360001
-0.076684996 -0.26889697 -0.40357023
-0.076485887 -0.26889646 -0.40355554
-0.076319329 -0.2688843 -0.40354246
-0.076133505 -0.26889482 -0.40355536
-0.075917996 -0.268904 -0.40353867
-0.075694159 -0.26891315 -0.40351519
-0.075485006 -0.26890719 -0.40350682
-0.075323336 -0.26889667 -0.4034785
-0.075096004 -0.26890734 -0.40346134
-0.074912503 -0.26890898 -0.40344
-0.074639998 -0.26887998 -0.4034307
-0.074493326 -0.26889277 -0.4034265
-0.074307874 -0.2688975 -0.40341949
-0.074125834 -0.26890752 -0.40342966
-0.073914126 -0.2689116 -0.40342188
-0.073731005 -0.26889399 -0.40340298
-0.073564999 -0.26886401 -0.403402
-0.073243998 -0.26881099 -0.403402
-0.077583998 -0.268738 -0.40359101
-0.077370338 -0.26868334 -0.40359434
-0.076674998 -0.2687135 -0.40357485
-0.076490186 -0.26871684 -0.40356323
-0.076309167 -0.26870117 -0.40355733
-0.076121502 -0.26867414 -0.40356731
-0.075905673 -0.268684 -0.40355667
-0.075681999 -0.26869366 -0.40353084
-0.075464003 -0.26870266 -0.40351501
-0.07531333 -0.26871365 -0.4034881
-0.075111151 -0.26873443 -0.40347528
-0.074940398 -0.26871121 -0.40345502
-0.07463 -0.26869649 -0.40343201
-0.0744721 -0.2686879 -0.4034304
-0.074296743 -0.26869574 -0.40343198
-0.074113004 -0.26868847 -0.40345487
-0.073890775 -0.26870278 -0.40345681
-0.073720329 -0.268711 -0.40343234
-0.073513001 -0.26871151 -0.40341687
-0.073261663 -0.26868868 -0.40340734
-0.073149003 -0.26867199 -0.40340301
-0.078653 -0.268457 -0.40359801
-0.078419998 -0.26840001 -0.40355501
-0.078282997 -0.26840949 -0.403577
-0.077358998 -0.268462 -0.403597
-0.0768525 -0.26840901 -0.40359551
-0.0766536 -0.26849458 -0.40358964
-0.076478273 -0.26851073 -0.40358302
-0.076308802 -0.26851058 -0.40357298
-0.076111004 -0.26849201 -0.40358377
-0.075894997 -0.268502 -0.40357199
-0.075660601 -0.26848722 -0.40352482
-0.075452663 -0.26848233 -0.40350965
-0.075302444 -0.26849258 -0.40346822
-0.075128399 -0.26851517 -0.403442
-0.074944496 -0.2685765 -0.40342301
-0.074529499 -0.26859152 -0.4034155
-0.074242003 -0.26853901 -0.40341499
-0.074090332 -0.26851466 -0.40342602
-0.073914394 -0.26849261 -0.40343857
-0.073751666 -0.26848999 -0.40343502
-0.073500998 -0.26849088 -0.40342435
-0.073266 -0.268554 -0.40341327
-0.073145002 -0.26859799 -0.40340501
-0.079277501 -0.26820397 -0.40358651
-0.079068668 -0.268255 -0.40355
-0.078875832 -0.26828966 -0.4035275
-0.078649998 -0.26830366 -0.40350232
-0.078475796 -0.26830161 -0.403512
-0.078280002 -0.26829499 -0.40350801
-0.078126505 -0.268305 -0.40355673
-0.077351004 -0.26831448 -0.40359601
-0.077151999 -0.268246 -0.40355799
-0.07685025 -0.26829326 -0.40350774
-0.076657251 -0.26830423 -0.40349525
-0.076481 -0.26829845 -0.40351704
-0.076315917 -0.26829132 -0.40350387
-0.076103829 -0.2683045 -0.40352967
-0.075887002 -0.2683163 -0.40354368
-0.075674601 -0.26830781 -0.40347821
-0.075496003 -0.26828751 -0.40344
-0.075375497 -0.26833701 -0.40341848
-0.073788002 -0.26833901 -0.403404
-0.073489994 -0.26835299 -0.403404
-0.084344998 -0.268067 -0.40359399
-0.081017002 -0.26800999 -0.40358701
-0.080830999 -0.2680645 -0.40357399
-0.08068233 -0.26805967 -0.40356168
-0.080509603 -0.26806578 -0.40357941
-0.080369003 -0.26805899 -0.40357101
-0.079401001 -0.268047 -0.40358201
-0.07929983 -0.26808965 -0.40354821
-0.079091497 -0.26809135 -0.40347669
-0.078869998 -0.2681005 -0.40344149
-0.078645997 -0.26815301 -0.40342301
-0.078463003 -0.26816601 -0.40342849
-0.07827317 -0.26810765 -0.40344384
-0.078120001 -0.26811698 -0.40348634
-0.077803999 -0.26806501 -0.403575
-0.077492498 -0.26809016 -0.40354553
-0.077367991 -0.26808783 -0.40350434
-0.077150501 -0.26813149 -0.40346301
-0.076848499 -0.26817799 -0.40342399
-0.076609999 -0.26819101 -0.40340099
-0.076484248 -0.26816076 -0.40342024
-0.076246999 -0.26811901 -0.40343699
-0.076106206 -0.26809201 -0.40342197
-0.075879663 -0.26808932 -0.40344438
-0.075660005 -0.26817048 -0.40341151
-0.084699996 -0.26789132 -0.40357137
-0.084501281 -0.26788145 -0.40357944
-0.084333114 -0.26791731 -0.40357545
-0.084104799 -0.26788181 -0.4035922
-0.082301997 -0.267802 -0.40359801
-0.08130566 -0.26786003 -0.40356767
-0.081098244 -0.26789901 -0.40354702
-0.080827504 -0.26791352 -0.40349099
-0.080692165 -0.26788282 -0.40349302
-0.080487333 -0.26790169 -0.40352586
-0.080335163 -0.26791215 -0.40354314
-0.079719 -0.26780099 -0.40359801
-0.079492003 -0.26788768 -0.40353432
-0.079320252 -0.26789919 -0.40345886
-0.07912825 -0.267941 -0.4034225
-0.078235328 -0.26789165 -0.40344897
-0.078109503 -0.26789501 -0.40345633
-0.077802002 -0.267988 -0.40352499
-0.077798501 -0.26787603 -0.40348801
-0.077500604 -0.2679536 -0.40345138
-0.077389002 -0.26793399 -0.40341499
-0.076219 -0.267959 -0.40341949
-0.084959663 -0.26772666 -0.40357634
-0.084692001 -0.26770598 -0.40353599
-0.084484667 -0.26768124 -0.40354878
-0.08432322 -0.26769489 -0.40353787
-0.084125839 -0.26771685 -0.40358469
-0.083440498 -0.26766747 -0.40358698
-0.083324999 -0.26767617 -0.40356421
-0.083093427 -0.26765957 -0.403548
-0.082837336 -0.26769501 -0.40354571
-0.082484335 -0.26770866 -0.40355799
-0.082331195 -0.2677092 -0.40357119
-0.081676498 -0.267609 -0.40358049
-0.081444331 -0.267694 -0.40354633
-0.08132492 -0.26770657 -0.40350258
-0.081092499 -0.26771036 -0.40346333
-0.080820329 -0.26772633 -0.40343034
-0.080685496 -0.26769501 -0.40342274
-0.080487333 -0.26769423 -0.40347096
-0.080342874 -0.26768038 -0.40351999
-0.0800635 -0.26767302 -0.40358102
-0.079833336 -0.267667 -0.40357232
-0.079715997 -0.26768452 -0.403519
-0.079486504 -0.2676985 -0.40344399
-0.079373993 -0.26772133 -0.40342501
-0.078253254 -0.26770198 -0.40342
-0.078090206 -0.26769039 -0.40346318
-0.077792495 -0.267726 -0.40344799
-0.085124999 -0.2674695 -0.40360001
-0.084948666 -0.26750532 -0.40355599
-0.084683001 -0.26752168 -0.403523
-0.084475003 -0.26749834 -0.40355
-0.084305502 -0.26748374 -0.40353426
-0.084100775 -0.26748386 -0.4035728
-0.083751 -0.26750365 -0.40355468
-0.08343517 -0.26751766 -0.40353563
-0.083301879 -0.26751551 -0.4035005
-0.08310017 -0.26749268 -0.40348783
-0.082830504 -0.26750851 -0.403483
-0.082555003 -0.26748034 -0.403496
-0.082341999 -0.267499 -0.40354812
-0.08185225 -0.26748925 -0.40356901
-0.081674002 -0.26749551 -0.4035145
-0.081438497 -0.267506 -0.40346551
-0.081329003 -0.26750913 -0.40343413
-0.081169501 -0.26752549 -0.4034225
-0.080632001 -0.26754999 -0.40340698
-0.080504142 -0.26750702 -0.40344211
-0.080341667 -0.26750317 -0.40347961
-0.080055997 -0.26748633 -0.40352902
-0.079864502 -0.26750875 -0.40351325
-0.079745606 -0.26748019 -0.40344882
-0.079481997 -0.26758599 -0.40340701
-0.078242667 -0.26751947 -0.40343985
-0.078097999 -0.26751241 -0.40345421
-0.084936999 -0.26728532 -0.40355167
-0.084672004 -0.26730135 -0.40351367
-0.084473141 -0.26733571 -0.40356311
-0.084309444 -0.26730728 -0.40355632
-0.08409217 -0.26729968 -0.40355501
-0.083742328 -0.26728132 -0.40349665
-0.08342617 -0.26729435 -0.40347829
-0.083307743 -0.26731074 -0.4034355
-0.083094828 -0.26734331 -0.40343317
-0.082823001 -0.26732099 -0.40342367
-0.082545996 -0.26729599 -0.40349001
-0.082297176 -0.26728812 -0.40354344
-0.082060337 -0.26729235 -0.40356934
-0.081854999 -0.26731601 -0.40350085
-0.081686281 -0.26729685 -0.4034442
-0.081433997 -0.26739299 -0.40342799
-0.080479629 -0.26731765 -0.40344
-0.080332555 -0.26731855 -0.40346456
-0.080048501 -0.2672995 -0.40348399
-0.079878494 -0.26730251 -0.4034515
-0.0797925 -0.267306 -0.40342599
-0.07821925 -0.2673195 -0.40342951
-0.078079499 -0.26730666 -0.40343931
-0.084927 -0.267102 -0.40356249
-0.084658675 -0.26708332 -0.403548
-0.084504008 -0.26709366 -0.40357399
-0.084290117 -0.26711023 -0.403586
-0.084106006 -0.26712757 -0.40357259
-0.083997995 -0.26707801 -0.403539
-0.083733 -0.26709598 -0.403485
-0.083442494 -0.26710349 -0.40343648
-0.083364397 -0.267106 -0.40341339
-0.082535334 -0.26711467 -0.40350866
-0.082303114 -0.26710901 -0.4035539
-0.082052 -0.26710802 -0.40354002
-0.081880666 -0.26707664 -0.40345934
-0.081746839 -0.2670835 -0.4034293
-0.0804355 -0.26710698 -0.40341175
-0.080322437 -0.26709679 -0.40343258
-0.08004 -0.26711467 -0.40345931
-0.079869665 -0.26711735 -0.40342435
-0.079783998 -0.267122 -0.40340933
-0.078086004 -0.26713368 -0.40340734
-0.084917001 -0.26691964 -0.40357733
-0.084647998 -0.2669 -0.4035655
-0.084468998 -0.266949 -0.4035905
-0.084307335 -0.26689002 -0.40359131
-0.084071003 -0.26689902 -0.40359667
-0.083988003 -0.26689503 -0.403543
-0.083724342 -0.26691234 -0.403469
-0.083433665 -0.26691964 -0.40341631
-0.083384 -0.266891 -0.40340251
-0.082805 -0.26695299 -0.40340099
-0.082798004 -0.26684451 -0.403422
-0.082525007 -0.26689267 -0.40347731
-0.082284994 -0.26691303 -0.40353346
-0.082043335 -0.26692399 -0.40352535
-0.081872001 -0.26689202 -0.40344101
-0.081783503 -0.26689649 -0.40341902
-0.080413997 -0.26694199 -0.403411
-0.080305628 -0.266886 -0.40342239
-0.080027007 -0.26689735 -0.40348864
-0.07985767 -0.26689735 -0.40343437
-0.079771996 -0.266902 -0.40341297
-0.078057498 -0.26686451 -0.40340799
-0.084903993 -0.26669967 -0.40359434
-0.084638 -0.26671767 -0.403577
-0.084271997 -0.266673 -0.40358636
-0.084063999 -0.26675299 -0.40359199
-0.083975665 -0.26667666 -0.403568
-0.083712339 -0.26669267 -0.40347299
-0.083421998 -0.26670036 -0.40341699
-0.083374344 -0.26670802 -0.40340599
-0.082792997 -0.26673499 -0.40340701
-0.082516499 -0.26670849 -0.4034535
-0.082300775 -0.26669019 -0.40351933
-0.082113504 -0.26670033 -0.40350795
-0.081862003 -0.26670936 -0.40343568
-0.081773996 -0.26671401 -0.40341198
-0.08029075 -0.26673025 -0.40342224
-0.080014326 -0.26667765 -0.40351066
-0.079844661 -0.26667932 -0.40346432
-0.079735503 -0.266666 -0.40343076
-0.078049332 -0.26671866 -0.40342569
-0.084625997 -0.26649901 -0.40358865
-0.083965003 -0.26649499 -0.40359402
-0.083702505 -0.26651001 -0.40348202
-0.083409667 -0.26648101 -0.40343437
-0.083322249 -0.26647151 -0.40340877
-0.082507335 -0.26652399 -0.40344104
-0.082283139 -0.26649183 -0.40351257
-0.082101829 -0.26648018 -0.40350917
-0.08185 -0.26648936 -0.40344736
-0.0817395 -0.26649404 -0.40341276
-0.080299996 -0.2664938 -0.403411
-0.080004007 -0.26649451 -0.40352452
-0.079833001 -0.26649702 -0.40350199
-0.079703495 -0.26650348 -0.40344799
-0.07809975 -0.26647776 -0.40342227
-0.077995002 -0.26650035 -0.40343133
-0.083691001 -0.26632866 -0.40351501
-0.083401002 -0.26633701 -0.40345901
-0.083324663 -0.26627234 -0.40343916
-0.08312057 -0.26627645 -0.40341517
-0.082948998 -0.26620799 -0.403402
-0.082767501 -0.266258 -0.40341902
-0.082495332 -0.26630533 -0.40345535
-0.08228837 -0.26631275 -0.40350127
-0.082091004 -0.266298 -0.40353724
-0.081839994 -0.266307 -0.40345651
-0.081712797 -0.26626179 -0.40342942
-0.080228336 -0.26629233 -0.40342367
-0.079909332 -0.26631284 -0.40351132
-0.079693004 -0.26632085 -0.40345982
-0.078068338 -0.26627633 -0.40342331
-0.07798367 -0.26628068 -0.40343067
-0.083678 -0.26611033 -0.40355369
-0.083316177 -0.26611865 -0.40346882
-0.083120421 -0.26610917 -0.40343669
-0.082943 -0.26609898 -0.403409
-0.082758002 -0.26607534 -0.40341637
-0.082484335 -0.26608434 -0.40344334
-0.082271896 -0.2661019 -0.40348041
-0.082123503 -0.26613024 -0.403523
-0.0818974 -0.26610619 -0.40349665
-0.081694245 -0.26609427 -0.40343699
-0.079899333 -0.26609033 -0.40347466
-0.079681337 -0.26610067 -0.40346101
-0.083664663 -0.26589134 -0.40358901
-0.083302669 -0.26590642 -0.40347871
-0.083099447 -0.26591167 -0.40344447
-0.082933001 -0.26591599 -0.40341866
-0.082750998 -0.265928 -0.403402
-0.082475007 -0.26590002 -0.40342999
-0.082256123 -0.26588911 -0.40343386
-0.082153663 -0.26588932 -0.40348101
-0.081903666 -0.26589969 -0.40349698
-0.081684671 -0.26591116 -0.40344068
-0.081551 -0.26591465 -0.40340766
-0.079805501 -0.2659075 -0.40343201
-0.079681203 -0.26589298 -0.40343061
-0.083655 -0.265708 -0.403588
-0.083290666 -0.26568699 -0.40348765
-0.083086878 -0.26569277 -0.40346578
-0.082919337 -0.26569733 -0.40345132
-0.082735002 -0.265636 -0.40341699
-0.082465 -0.26571766 -0.40344235
-0.082271002 -0.26571831 -0.4034375
-0.082163334 -0.26569033 -0.40343499
-0.081893504 -0.26567802 -0.40346435
-0.081673503 -0.26569048 -0.40343234
-0.081541002 -0.26573199 -0.40340599
-0.079801001 -0.26579601 -0.40341699
-0.079753503 -0.26572549 -0.40340698
-0.083645999 -0.26552501 -0.40357962
-0.083287373 -0.26549536 -0.40350223
-0.083105862 -0.26549301 -0.40346915
-0.082943201 -0.26546198 -0.40346161
-0.082725339 -0.26549003 -0.40345466
-0.082451999 -0.26549968 -0.40346634
-0.082268506 -0.26550999 -0.40344772
-0.082163826 -0.26551881 -0.40341851
-0.081914999 -0.26550367 -0.40343165
-0.081691198 -0.265497 -0.40341645
-0.084060997 -0.26521099 -0.40359399
-0.083899006 -0.265248 -0.40359199
-0.08363533 -0.26530334 -0.40355566
-0.083301499 -0.26531073 -0.40352637
-0.083141625 -0.26531473 -0.40348488
-0.082942247 -0.26529375 -0.40347901
-0.082715005 -0.26530701 -0.40346903
-0.082439668 -0.26527932 -0.40348768
-0.082257003 -0.26528963 -0.40344784
-0.082151331 -0.26530018 -0.40344188
-0.081961997 -0.26530501 -0.40344235
-0.08174517 -0.2653175 -0.40341553
-0.083893001 -0.26513699 -0.40359101
-0.083622999 -0.26508367 -0.40357032
-0.083284229 -0.26510167 -0.40353644
-0.08312089 -0.26510587 -0.4035213
-0.082931668 -0.26511183 -0.40350214
-0.082704 -0.26512566 -0.40350401
-0.082429007 -0.26509702 -0.40350699
-0.082240395 -0.265086 -0.40346104
-0.082139008 -0.26508012 -0.4034555
-0.081950001 -0.26508501 -0.4034543
-0.081714712 -0.26510972 -0.40342015
-0.081552997 -0.26510549 -0.40340501
-0.083612993 -0.26490101 -0.403584
-0.083271556 -0.26488256 -0.40356252
-0.083108559 -0.2648868 -0.40353766
-0.082919173 -0.26489282 -0.40352598
-0.082691662 -0.26490667 -0.40352234
-0.082419001 -0.26491401 -0.40351868
-0.082240202 -0.2649096 -0.40348998
-0.082128748 -0.26489851 -0.40347049
-0.081939995 -0.26490301 -0.40346301
-0.081720673 -0.26487902 -0.40344813
-0.081562497 -0.26486751 -0.4034245
-0.081299998 -0.264826 -0.403402
-0.083607003 -0.26479101 -0.403595
-0.083237499 -0.26470399 -0.40357426
-0.083097503 -0.26470435 -0.40356699
-0.082898401 -0.26468819 -0.40354162
-0.082678668 -0.26468667 -0.40354869
-0.082406335 -0.26469532 -0.40353966
-0.082237251 -0.26472124 -0.40350097
-0.082137622 -0.26470464 -0.40349236
-0.081930667 -0.26471964 -0.4034557
-0.081710495 -0.26469499 -0.40346223
-0.081530504 -0.26470375 -0.40343574
-0.081292003 -0.26467833 -0.40340635
-0.080573 -0.26464701 -0.40340099
-0.0832275 -0.2645205 -0.40358004
-0.083087221 -0.26452154 -0.40358502
-0.082906008 -0.26451218 -0.40357041
-0.082669005 -0.26450402 -0.40355349
-0.082314499 -0.26447919 -0.40355381
-0.082132667 -0.26449287 -0.40351123
-0.081917338 -0.26450068 -0.40348601
-0.081700005 -0.26451302 -0.40347371
-0.081520498 -0.26452017 -0.40344167
-0.0812575 -0.26449952 -0.40341502
-0.081090242 -0.26445913 -0.40340865
-0.080650993 -0.26449767 -0.40340832
-0.080564 -0.26450166 -0.40341768
-0.080299444 -0.26450464 -0.40341145
-0.083099 -0.26437667 -0.40359497
-0.082876995 -0.26432198 -0.403586
-0.082662001 -0.26439399 -0.40358299
-0.082304254 -0.264296 -0.40357351
-0.082113244 -0.26428413 -0.40354311
-0.081903666 -0.26428136 -0.40353236
-0.081687495 -0.26429331 -0.40349254
-0.081508495 -0.26430067 -0.4034605
-0.08124733 -0.26431715 -0.40342817
-0.081116624 -0.26431161 -0.40341851
-0.080996998 -0.26426101 -0.40343899
-0.080639668 -0.26427701 -0.40340567
-0.080506004 -0.26428351 -0.40342018
-0.080302835 -0.26430023 -0.40341941
-0.079663329 -0.26428333 -0.40340969
-0.08288867 -0.26408735 -0.40359131
-0.082332999 -0.26409298 -0.40358353
-0.082117714 -0.26410687 -0.40355942
-0.081893995 -0.26410002 -0.40354449
-0.081667401 -0.26408941 -0.40350479
-0.081496172 -0.26408166 -0.40347871
-0.081234492 -0.26409867 -0.4034535
-0.081114888 -0.26410988 -0.40342876
-0.080904506 -0.26411417 -0.40342966
-0.080629498 -0.264094 -0.40341902
-0.080495253 -0.26410151 -0.40343976
-0.080290169 -0.26408115 -0.40344372
-0.080144599 -0.26407439 -0.40341657
-0.079881996 -0.26406801 -0.40340298
-0.07964775 -0.26413125 -0.4034175
-0.079530001 -0.264045 -0.40340099
-0.078610003 -0.26406503 -0.40340251
-0.078429997 -0.26403999 -0.40340599
-0.078298002 -0.26408303 -0.40340149
-0.082283504 -0.26392999 -0.40359324
-0.0821089 -0.2639001 -0.40356502
-0.081883334 -0.26391533 -0.40355468
-0.081674598 -0.2639128 -0.40353298
-0.081485502 -0.26389849 -0.40349323
-0.081234753 -0.26389524 -0.4034785
-0.081119455 -0.26388282 -0.40345299
-0.080892496 -0.26389453 -0.403442
-0.080618002 -0.26391232 -0.40346232
-0.08048483 -0.26391867 -0.40345684
-0.080279998 -0.26389813 -0.40345389
-0.080128998 -0.26390749 -0.40344599
-0.07987199 -0.26388434 -0.40341333
-0.079656668 -0.26389116 -0.40341616
-0.079522334 -0.26390001 -0.40340629
-0.079286002 -0.263845 -0.40340099
-0.078421332 -0.26389435 -0.40342602
-0.078287996 -0.26390067 -0.40341935
-0.078185998 -0.26383999 -0.403413
-0.082087666 -0.26368868 -0.40356457
-0.081872009 -0.26369569 -0.40354863
-0.081653669 -0.26370868 -0.40355483
-0.081474997 -0.26371631 -0.40351734
-0.081236005 -0.2636925 -0.40349451
-0.081106782 -0.26369435 -0.403465
-0.080964662 -0.26367632 -0.403474
-0.080682799 -0.26369983 -0.4034524
-0.080472998 -0.26369867 -0.40346834
-0.080294885 -0.26371387 -0.40347567
-0.080143996 -0.26372266 -0.40345535
-0.079861 -0.26370251 -0.403438
-0.079646498 -0.2637085 -0.40343553
-0.079531752 -0.26366076 -0.40342772
-0.079277001 -0.26369765 -0.40341005
-0.078945003 -0.26364601 -0.40340599
-0.078686997 -0.26365301 -0.403402
-0.078481801 -0.2636838 -0.40341941
-0.078275673 -0.26368067 -0.403433
-0.078096375 -0.26368862 -0.40341675
-0.077930003 -0.263634 -0.40340701
-0.082077332 -0.26350567 -0.4035815
-0.081859998 -0.26347634 -0.40356135
-0.081664994 -0.26350626 -0.40356499
-0.081496127 -0.26348624 -0.40353373
-0.081225328 -0.26350933 -0.403512
-0.08111354 -0.26351535 -0.40346298
-0.080954507 -0.263493 -0.40348202
-0.080788337 -0.2635273 -0.40343764
-0.080494128 -0.26348674 -0.40348962
-0.080282226 -0.26349488 -0.40350044
-0.080131441 -0.26350355 -0.40347278
-0.079850666 -0.26351932 -0.40345731
-0.079678997 -0.26352301 -0.40345266
-0.079544753 -0.263495 -0.40345097
-0.079264998 -0.26347831 -0.403422
-0.07914 -0.2634165 -0.4034085
-0.078895502 -0.26350018 -0.40340734
-0.078720495 -0.26343 -0.40340301
-0.078535005 -0.26351875 -0.40343601
-0.078308664 -0.26348433 -0.403458
-0.078065254 -0.2634885 -0.40342876
-0.077887006 -0.263473 -0.40342402
-0.077570006 -0.26346648 -0.40341002
-0.082041994 -0.2633625 -0.40359652
-0.081849501 -0.263293 -0.40358001
-0.0816755 -0.26330298 -0.40359098
-0.081484497 -0.26328513 -0.40355486
-0.081214003 -0.2632893 -0.40351334
-0.081094161 -0.26330283 -0.40347961
-0.080944337 -0.26331034 -0.40349269
-0.080776334 -0.2633073 -0.40345135
-0.080508426 -0.26330915 -0.40349156
-0.080264501 -0.26328388 -0.40349513
-0.080120109 -0.2632829 -0.40346837
-0.079838328 -0.26330003 -0.40347335
-0.079666667 -0.26330301 -0.40347099
-0.079534501 -0.26331216 -0.40346482
-0.079255 -0.26329499 -0.40343398
-0.079159006 -0.26330298 -0.40340549
-0.078920446 -0.26327911 -0.40341666
-0.078712165 -0.263284 -0.40341648
-0.078568332 -0.26329565 -0.40343067
-0.078322165 -0.26331183 -0.40345716
-0.078113399 -0.263313 -0.40344182
-0.077910163 -0.26330468 -0.40344867
-0.077559002 -0.26328436 -0.40344098
-0.077238001 -0.26322299 -0.40341201
-0.081839003 -0.26311031 -0.40359399
-0.081666 -0.26311997 -0.40359235
-0.081540205 -0.2631124 -0.40357059
-0.081299499 -0.26310149 -0.403541
-0.081089176 -0.26308993 -0.40350083
-0.080948502 -0.26307201 -0.40350997
-0.080763668 -0.26308799 -0.40346834
-0.080530502 -0.26310933 -0.40349546
-0.080306999 -0.26310909 -0.4034968
-0.080109663 -0.26309967 -0.40347934
-0.079825997 -0.26308 -0.40348768
-0.079654336 -0.26308301 -0.40348434
-0.079522498 -0.26309249 -0.40347585
-0.079244666 -0.26311168 -0.40345299
-0.079114169 -0.26309898 -0.40341851
-0.0789105 -0.263096 -0.40342665
-0.078702256 -0.26310101 -0.40341651
-0.078556001 -0.26307601 -0.40345064
-0.078310169 -0.26309147 -0.40346482
-0.078091674 -0.263109 -0.40344381
-0.077900209 -0.26312146 -0.40345901
-0.077548996 -0.26310003 -0.40345001
-0.077275999 -0.26312235 -0.40340531
-0.076432005 -0.26308 -0.4034065
-0.081881665 -0.26288834 -0.40359166
-0.081511199 -0.26292238 -0.4035852
-0.081385009 -0.26291332 -0.40357533
-0.081129774 -0.26290643 -0.40352198
-0.080956995 -0.26290673 -0.40351549
-0.080752507 -0.262905 -0.40350199
-0.080518 -0.26288936 -0.4035168
-0.080301695 -0.26291066 -0.40350342
-0.080116995 -0.262909 -0.40349185
-0.079816505 -0.26289549 -0.40347701
-0.079646006 -0.26289898 -0.40346
-0.079502195 -0.26288778 -0.40348497
-0.079232998 -0.26289201 -0.40345731
-0.079086892 -0.26290467 -0.40342769
-0.078900889 -0.26291257 -0.40342987
-0.078692324 -0.26291752 -0.40342304
-0.078546494 -0.2628915 -0.40343499
-0.078284398 -0.262887 -0.40349478
-0.078078829 -0.26288918 -0.40347433
-0.077888779 -0.26290056 -0.40345156
-0.077538334 -0.26291701 -0.40346202
-0.077284001 -0.26285201 -0.40340301
-0.077122003 -0.26286599 -0.40340501
-0.076463804 -0.26288119 -0.40341419
-0.076275803 -0.2628918 -0.40340558
-0.081983 -0.262739 -0.40358299
-0.081642665 -0.26268032 -0.40359268
-0.081462674 -0.26268998 -0.40358934
-0.081373334 -0.26269233 -0.40357503
-0.081110753 -0.26271242 -0.40353957
-0.080947332 -0.26272336 -0.40351549
-0.080742665 -0.26272234 -0.40350366
-0.080508001 -0.26270652 -0.40353051
-0.080300331 -0.26268277 -0.40352547
-0.080111742 -0.26269552 -0.40350768
-0.079807661 -0.26271367 -0.40347099
-0.079636 -0.26271603 -0.40346634
-0.079510599 -0.26271078 -0.40349779
-0.079221994 -0.26270902 -0.40348351
-0.079074226 -0.26268476 -0.40345189
-0.078888103 -0.26269278 -0.4034541
-0.078679502 -0.26269802 -0.403451
-0.078536667 -0.26270834 -0.40344
-0.078302607 -0.26271001 -0.4034864
-0.078069247 -0.26270625 -0.40347326
-0.077918835 -0.26267967 -0.40346071
-0.077793337 -0.262683 -0.40344402
-0.077527009 -0.26269701 -0.40346
-0.077242166 -0.26270783 -0.40342367
-0.077113442 -0.26271948 -0.40341166
-0.076865003 -0.262656 -0.40340099
-0.076462835 -0.26267582 -0.40343034
-0.076275192 -0.26270121 -0.40341002
-0.076173835 -0.26268914 -0.40340936
-0.081634998 -0.26253301 -0.40359801
-0.081451997 -0.2625055 -0.40359849
-0.081364006 -0.26251 -0.403566
-0.081098914 -0.26249224 -0.40354395
-0.080934659 -0.26250383 -0.40354601
-0.080729999 -0.26250169 -0.40352699
-0.080497503 -0.26252282 -0.40354237
-0.080290325 -0.26249897 -0.4035275
-0.08009319 -0.26248255 -0.40352276
-0.079709835 -0.2624945 -0.4034785
-0.079488993 -0.26250601 -0.40352848
-0.079210997 -0.26252666 -0.403505
-0.079063833 -0.26250201 -0.40346482
-0.07889083 -0.26249817 -0.40347049
-0.078685716 -0.26247773 -0.40346304
-0.078524001 -0.26248935 -0.40346733
-0.078278333 -0.26250467 -0.40348768
-0.078070596 -0.26253641 -0.40348202
-0.077926598 -0.2624872 -0.40347618
-0.077782497 -0.26249897 -0.403469
-0.077514999 -0.2624757 -0.40346467
-0.0772475 -0.26250574 -0.40343398
-0.077121198 -0.2624971 -0.40341139
-0.076859504 -0.26254702 -0.40340298
-0.076532833 -0.26251116 -0.40340817
-0.076234505 -0.26250601 -0.40341252
-0.076164007 -0.26250598 -0.40340775
-0.060113002 -0.26243201 -0.403474
-0.081619002 -0.26223901 -0.403597
-0.081444994 -0.26235998 -0.40359899
-0.081353329 -0.26232597 -0.40358567
-0.081078604 -0.26228827 -0.40355149
-0.080922328 -0.26228437 -0.403559
-0.080718331 -0.26228234 -0.40353099
-0.080485336 -0.26230285 -0.40355515
-0.080280118 -0.26231655 -0.40354499
-0.080097668 -0.26230457 -0.40353903
-0.079680204 -0.26228958 -0.40350717
-0.079476997 -0.26228568 -0.40353981
-0.079203002 -0.26238 -0.403512
-0.079079457 -0.26230973 -0.40349007
-0.078913197 -0.26231161 -0.4034842
-0.078713141 -0.26230842 -0.40347791
-0.078514501 -0.26230597 -0.403465
-0.078299999 -0.262301 -0.40351
-0.078139201 -0.26228082 -0.40351361
-0.077929661 -0.26231012 -0.40348822
-0.077772997 -0.26231667 -0.40346766
-0.077505 -0.2622925 -0.40347052
-0.077252001 -0.26230299 -0.40345252
-0.077115119 -0.26228562 -0.40341613
-0.076844007 -0.26225299 -0.40341002
-0.076559253 -0.26228148 -0.40340826
-0.076329283 -0.26232514 -0.40341216
-0.076154336 -0.26232201 -0.40340754
-0.060105 -0.26228401 -0.40347633
-0.081614003 -0.262128 -0.40359253
-0.081522003 -0.262099 -0.40359601
-0.081343502 -0.26214302 -0.40358999
-0.081080109 -0.26211789 -0.40357676
-0.080911756 -0.26210049 -0.40357924
-0.080707997 -0.262099 -0.40355349
-0.08047317 -0.26208267 -0.40356782
-0.080267996 -0.26209632 -0.40355349
-0.080086097 -0.26211575 -0.40355042
-0.079999 -0.26203999 -0.403548
-0.079731248 -0.26212749 -0.40351975
-0.079493597 -0.26209399 -0.40353662
-0.079106331 -0.26209378 -0.40350848
-0.078926891 -0.26210511 -0.40349957
-0.078701377 -0.26211876 -0.40348703
-0.078528255 -0.26210198 -0.40346801
-0.0783225 -0.26209801 -0.40351799
-0.0781288 -0.26208982 -0.40351683
-0.077917553 -0.26209033 -0.40349481
-0.077761002 -0.26209632 -0.40347168
-0.077495664 -0.26210999 -0.40346965
-0.077242665 -0.26212001 -0.40345502
-0.077114098 -0.26211411 -0.4034465
-0.076836005 -0.262106 -0.403418
-0.07649 -0.26216 -0.40340999
-0.076293334 -0.26209578 -0.40342322
-0.076124124 -0.26209489 -0.40342537
-0.0600955 -0.26209903 -0.40347701
-0.081048749 -0.26191789 -0.40357637
-0.080921002 -0.26191702 -0.40358883
-0.080697335 -0.26191631 -0.40357199
-0.080463499 -0.26189926 -0.40357301
-0.080302 -0.26192001 -0.40357432
-0.080093995 -0.26191983 -0.40357956
-0.079991005 -0.261893 -0.40355501
-0.079762004 -0.261906 -0.40353966
-0.079502441 -0.2619158 -0.40352589
-0.079084754 -0.26188302 -0.40350863
-0.078915216 -0.26188487 -0.40350544
-0.078722499 -0.26188701 -0.40348199
-0.078540839 -0.26189819 -0.40349531
-0.078313001 -0.2619147 -0.40351138
-0.078139 -0.26191083 -0.40352041
-0.077907503 -0.26190647 -0.40350565
-0.077748664 -0.26187602 -0.40349135
-0.077483661 -0.26188931 -0.40347335
-0.077229999 -0.26189902 -0.40347266
-0.077093005 -0.26191017 -0.40346143
-0.076825999 -0.26192269 -0.40341768
-0.076558001 -0.261859 -0.40340999
-0.07628186 -0.26189658 -0.40342811
-0.076130375 -0.26188213 -0.40342489
-0.060059998 -0.26191869 -0.40347815
-0.081051663 -0.26168784 -0.40359506
-0.080931857 -0.261695 -0.40358683
-0.080684997 -0.26169565 -0.403579
-0.0804535 -0.26171634 -0.40357316
-0.08028461 -0.26171058 -0.40359321
-0.0801 -0.26170367 -0.40357685
-0.079980999 -0.26170951 -0.40356398
-0.079750001 -0.26168665 -0.40354034
-0.079502501 -0.26170388 -0.40352777
-0.079396002 -0.26162899 -0.403543
-0.079096571 -0.26170486 -0.40352711
-0.078904994 -0.26170099 -0.40351066
-0.078712255 -0.26170349 -0.40349126
-0.078528501 -0.26167783 -0.40350699
-0.078301333 -0.2616947 -0.40351471
-0.078118496 -0.26170668 -0.40351486
-0.077898003 -0.26172301 -0.40350536
-0.077738501 -0.26169249 -0.40349901
-0.077473 -0.26170599 -0.40349549
-0.077217668 -0.26167932 -0.40349165
-0.077080257 -0.26169008 -0.40348336
-0.076812662 -0.26170266 -0.40345466
-0.076507501 -0.26171497 -0.4034338
-0.076322004 -0.26171058 -0.40343279
-0.076121122 -0.26169986 -0.40342191
-0.075888999 -0.26167834 -0.40340766
-0.06004883 -0.26169717 -0.40346453
-0.081042498 -0.26150376 -0.40359202
-0.080927752 -0.26149273 -0.40359601
-0.080673002 -0.26147631 -0.40359068
-0.080484338 -0.26149368 -0.40359068
-0.080290496 -0.26152375 -0.40359449
-0.080091007 -0.26152608 -0.40357599
-0.079970665 -0.26152599 -0.40357134
-0.079739004 -0.26150298 -0.40356499
-0.079515599 -0.26148778 -0.40354419
-0.079388998 -0.26148096 -0.40353897
-0.079074331 -0.26150668 -0.40352944
-0.078895546 -0.26151666 -0.40350744
-0.078702331 -0.26152036 -0.40349698
-0.078518495 -0.26149452 -0.40352073
-0.07828933 -0.26147401 -0.40352535
-0.078106672 -0.26148668 -0.40352264
-0.07788644 -0.26150241 -0.40350455
-0.077729002 -0.26150832 -0.40349135
-0.077463336 -0.26152265 -0.40350032
-0.077207997 -0.26149601 -0.40349197
-0.077075377 -0.26149738 -0.40350226
-0.0768985 -0.2614795 -0.40347475
-0.076796003 -0.26140901 -0.403487
-0.076494999 -0.26149517 -0.40345082
-0.076302342 -0.26150584 -0.40343249
-0.076111503 -0.26151642 -0.40342152
-0.075879 -0.26149398 -0.4034085
-0.060032599 -0.2614924 -0.4034718
-0.081009001 -0.2613233 -0.40358797
-0.080942199 -0.2613124 -0.40358502
-0.080663502 -0.26129252 -0.403586
-0.080472663 -0.26127398 -0.40359268
-0.080301158 -0.26128533 -0.40359434
-0.080053993 -0.26129088 -0.40357828
-0.079959996 -0.26130566 -0.40355599
-0.079730667 -0.26132032 -0.403548
-0.079523191 -0.26131082 -0.4035522
-0.079378501 -0.261298 -0.403552
-0.079082429 -0.26129514 -0.40352485
-0.078904003 -0.26129046 -0.40351391
-0.078690164 -0.26130083 -0.40351117
-0.078509666 -0.26131099 -0.403505
-0.078280002 -0.26129001 -0.40351701
-0.078097001 -0.26130328 -0.40351999
-0.077884376 -0.26129124 -0.40349948
-0.077737994 -0.26126924 -0.40349349
-0.077451669 -0.26130199 -0.40349033
-0.077202 -0.26138601 -0.403501
-0.077110998 -0.26130429 -0.40350142
-0.076986998 -0.26129198 -0.40347248
-0.076790497 -0.26129848 -0.40347201
-0.076476 -0.26129079 -0.40345058
-0.076290332 -0.26128519 -0.40344
-0.076099165 -0.26129642 -0.40343821
-0.075925328 -0.26130983 -0.40340832
-0.075782999 -0.261282 -0.403418
-0.060041752 -0.26132649 -0.4034805
-0.059997998 -0.26125899 -0.403505
-0.080956668 -0.261105 -0.40358531
-0.080654331 -0.26110899 -0.40358135
-0.080463 -0.26108998 -0.403593
-0.080207005 -0.26110801 -0.40358901
-0.080079101 -0.26107892 -0.40358227
-0.079960749 -0.26106676 -0.40355676
-0.079718672 -0.26109967 -0.40355268
-0.079503506 -0.26110515 -0.40355536
-0.079369001 -0.26111534 -0.40355232
-0.079085499 -0.26109976 -0.40354025
-0.078888796 -0.2610915 -0.40352216
-0.078678004 -0.26108083 -0.40352151
-0.078498006 -0.26109067 -0.40350285
-0.078271002 -0.261107 -0.40349969
-0.078087829 -0.26111931 -0.40350533
-0.077902496 -0.26109675 -0.4034785
-0.077750996 -0.26110375 -0.40347749
-0.077440001 -0.26108202 -0.40349498
-0.077101506 -0.26109824 -0.40349284
-0.076977998 -0.26110899 -0.40346536
-0.076780997 -0.261116 -0.40347031
-0.0764836 -0.26111281 -0.40344802
-0.076279998 -0.26110199 -0.403456
-0.076084726 -0.26108381 -0.40346155
-0.075914674 -0.26109022 -0.40342978
-0.075737402 -0.26108441 -0.4034214
-0.060043667 -0.261103 -0.40346065
-0.059990998 -0.26111168 -0.40348533
-0.080457002 -0.26098099 -0.40359899
-0.080302 -0.26086366 -0.40359569
-0.080089405 -0.26090163 -0.40358758
-0.079965502 -0.26090151 -0.403557
-0.079706334 -0.26087967 -0.40356398
-0.079491332 -0.26088551 -0.40356579
-0.079358332 -0.26089397 -0.40353298
-0.079075836 -0.26091683 -0.40354434
-0.07893087 -0.26091877 -0.40352637
-0.078710668 -0.26089767 -0.403523
-0.0784766 -0.26088661 -0.4035182
-0.078259341 -0.26088634 -0.40350533
-0.078076176 -0.26089865 -0.40351048
-0.077893168 -0.26091316 -0.40347734
-0.077740997 -0.26091984 -0.4034895
-0.0774315 -0.26089799 -0.403483
-0.077082545 -0.26088598 -0.40348977
-0.07696601 -0.26088831 -0.40346703
-0.076769672 -0.260896 -0.40346766
-0.076464497 -0.26090801 -0.40344802
-0.0762695 -0.26091918 -0.40347317
-0.07607878 -0.26090521 -0.40348589
-0.075904168 -0.26090649 -0.40344366
-0.075718008 -0.26087898 -0.40342465
-0.075502001 -0.26088899 -0.4034147
-0.060032997 -0.26088199 -0.40344465
-0.059980664 -0.26089063 -0.40346003
-0.080629997 -0.26067001 -0.40360001
-0.080358997 -0.26076499 -0.40359899
-0.079954661 -0.26071835 -0.40358117
-0.079697996 -0.26069599 -0.403548
-0.079481997 -0.26070225 -0.40356225
-0.079346001 -0.26067469 -0.40354764
-0.079064168 -0.2606965 -0.40354785
-0.078912444 -0.26070821 -0.40352589
-0.078700773 -0.26071379 -0.40352428
-0.078487001 -0.26070857 -0.40351778
-0.078251004 -0.26070303 -0.4034785
-0.078055397 -0.26069537 -0.40352219
-0.077880166 -0.26069352 -0.4035027
-0.077728994 -0.26070049 -0.40349999
-0.077421337 -0.26071501 -0.4034853
-0.077090777 -0.26070723 -0.40348271
-0.076957002 -0.26070499 -0.40346402
-0.076758333 -0.26067534 -0.40346098
-0.076453499 -0.26068732 -0.40343401
-0.076258503 -0.26069883 -0.40346003
-0.076081201 -0.26071578 -0.40346521
-0.075913362 -0.26071563 -0.40343845
-0.075708002 -0.26069576 -0.40342501
-0.075492501 -0.26070601 -0.40341502
-0.075208999 -0.260607 -0.40340501
-0.060023002 -0.26069701 -0.40344203
-0.059971001 -0.26070601 -0.40345448
-0.080626003 -0.26059601 -0.40359601
-0.079943337 -0.26049834 -0.40357649
-0.079687327 -0.26051334 -0.40355697
-0.079472162 -0.26051918 -0.40356001
-0.079336002 -0.26049101 -0.403559
-0.079043999 -0.26049119 -0.4035376
-0.078901 -0.260488 -0.40352631
-0.078700751 -0.26050228 -0.40351701
-0.078485861 -0.26049215 -0.40350971
-0.078239329 -0.26052031 -0.40351763
-0.078064799 -0.26051658 -0.40353578
-0.0778642 -0.26048881 -0.40350002
-0.077717505 -0.26048017 -0.403494
-0.077409327 -0.26049498 -0.40349197
-0.077095665 -0.26050866 -0.40349221
-0.076971166 -0.26052049 -0.40347064
-0.076748997 -0.26049203 -0.40345001
-0.076443747 -0.26050425 -0.40343601
-0.076258399 -0.26049203 -0.40342599
-0.076091602 -0.26047921 -0.40344328
-0.075907536 -0.26050782 -0.40342638
-0.075702995 -0.26058602 -0.40341502
-0.075487003 -0.26059601 -0.403404
-0.075203001 -0.260497 -0.403404
-0.060013 -0.26051235 -0.40344903
-0.059961002 -0.26052102 -0.40345702
-0.080420494 -0.26028299 -0.40359402
-0.080109 -0.260304 -0.40360001
-0.079932161 -0.26027784 -0.4035742
-0.079675667 -0.26029298 -0.40356335
-0.079460502 -0.26029867 -0.40356436
-0.079326667 -0.26030734 -0.40354833
-0.079094 -0.26032469 -0.40353265
-0.078917257 -0.26030314 -0.40353137
-0.078722253 -0.26031026 -0.40351826
-0.078501113 -0.26028067 -0.40351754
-0.078227669 -0.260299 -0.40352133
-0.078093 -0.26030636 -0.40353867
-0.077914253 -0.26031387 -0.40351248
-0.077707753 -0.260297 -0.40349597
-0.077402003 -0.26034701 -0.40347901
-0.077397004 -0.26023799 -0.40347701
-0.077085219 -0.26028886 -0.4034712
-0.076960169 -0.26030052 -0.4034605
-0.076739997 -0.26030803 -0.40343866
-0.076475665 -0.2603167 -0.4034293
-0.076349802 -0.26031101 -0.4034192
-0.076100752 -0.26030201 -0.40344372
-0.075897254 -0.26028052 -0.40341413
-0.060004 -0.26032799 -0.40344501
-0.059961751 -0.26027876 -0.40344974
-0.080411009 -0.26010001 -0.40358934
-0.080324665 -0.26010397 -0.403586
-0.079946496 -0.26009268 -0.40358338
-0.079666004 -0.26010901 -0.40356749
-0.079449333 -0.26007849 -0.40355849
-0.079314999 -0.2600877 -0.40354267
-0.079081662 -0.26010501 -0.40354931
-0.078907497 -0.2601195 -0.40352774
-0.078712165 -0.26012668 -0.4035275
-0.078539252 -0.26009399 -0.4035145
-0.078288406 -0.26008901 -0.40351218
-0.078082003 -0.26008597 -0.403532
-0.077894896 -0.26010367 -0.40349901
-0.077698834 -0.26011315 -0.40348199
-0.077389501 -0.26009101 -0.40346849
-0.077075996 -0.26010469 -0.40346
-0.0769495 -0.26007983 -0.40344182
-0.076729 -0.260088 -0.40342498
-0.076465003 -0.26009598 -0.40341267
-0.076328494 -0.26010618 -0.40341437
-0.076091088 -0.26011825 -0.40344295
-0.075888999 -0.26009774 -0.40341526
-0.075719997 -0.26007199 -0.403402
-0.059960604 -0.26008922 -0.40343222
-0.080403998 -0.25995201 -0.40358499
-0.080343664 -0.25990698 -0.40358499
-0.0801135 -0.25986201 -0.4035975
-0.079937004 -0.25990948 -0.40358004
-0.07965567 -0.25992599 -0.40357101
-0.079483002 -0.25989199 -0.40356451
-0.079350494 -0.25990099 -0.4035615
-0.079068996 -0.25988469 -0.40356934
-0.078895323 -0.25989923 -0.40354216
-0.078700162 -0.25990599 -0.40353349
-0.078529663 -0.2599102 -0.40351763
-0.078315005 -0.25991121 -0.40350598
-0.078072503 -0.25990301 -0.40352452
-0.077883668 -0.25988331 -0.40348712
-0.077687338 -0.25989282 -0.40347782
-0.077380002 -0.25990734 -0.40346265
-0.077066883 -0.25992119 -0.40345266
-0.07694 -0.25989676 -0.40344101
-0.076719001 -0.25990498 -0.40343851
-0.076453 -0.25987601 -0.40342268
-0.076316833 -0.25988564 -0.40341333
-0.076087087 -0.25990427 -0.40343341
-0.075940505 -0.25992134 -0.40341416
-0.075754754 -0.25993899 -0.40340951
-0.059961997 -0.2599104 -0.40342039
-0.080078498 -0.25971699 -0.403597
-0.079919502 -0.25969851 -0.40358621
-0.079643667 -0.25970566 -0.40358666
-0.079472996 -0.25970832 -0.40356269
-0.079340838 -0.25971767 -0.40355781
-0.079060003 -0.25970101 -0.403561
-0.078892 -0.25968549 -0.40353325
-0.078704573 -0.2596747 -0.40352541
-0.07851734 -0.25968984 -0.40352765
-0.078376003 -0.25970101 -0.40349165
-0.078130171 -0.25971565 -0.40351534
-0.077874333 -0.25969952 -0.40348366
-0.0776686 -0.2596876 -0.40346742
-0.077369332 -0.25968698 -0.40344605
-0.077071287 -0.25971046 -0.40346059
-0.076947004 -0.25970188 -0.40345109
-0.076709665 -0.25972065 -0.40342602
-0.076443002 -0.2596935 -0.40342802
-0.076307252 -0.2597025 -0.40341449
-0.076094553 -0.2596769 -0.40341422
-0.075993001 -0.25968099 -0.40341601
-0.059951 -0.2597785 -0.40340352
-0.080293663 -0.2595177 -0.40358698
-0.079900332 -0.25951934 -0.40359068
-0.079631992 -0.25948533 -0.40357837
-0.079461001 -0.25948834 -0.40356836
-0.079329662 -0.25949767 -0.4035565
-0.079049997 -0.25951734 -0.40356568
-0.078902334 -0.25949416 -0.40353402
-0.078716166 -0.25950196 -0.40353283
-0.078507751 -0.25950676 -0.403532
-0.078363337 -0.25948068 -0.40351132
-0.078118004 -0.25949535 -0.40352383
-0.077900171 -0.25951317 -0.40348837
-0.077719875 -0.25951576 -0.40347999
-0.077359498 -0.25950402 -0.403447
-0.077070333 -0.25947818 -0.40346548
-0.076942116 -0.25948989 -0.40343776
-0.076697335 -0.25950032 -0.40343568
-0.076434009 -0.259509 -0.40341333
-0.076297827 -0.25951836 -0.40341005
-0.076085001 -0.25949267 -0.40341637
-0.075959496 -0.25950101 -0.40341327
-0.080282003 -0.25929701 -0.40359667
-0.079873659 -0.25937268 -0.40359867
-0.079622999 -0.25930101 -0.40357798
-0.079450995 -0.25930449 -0.403575
-0.079317667 -0.25927669 -0.40356016
-0.079038665 -0.25929669 -0.40355766
-0.07889311 -0.25931022 -0.40352318
-0.078706659 -0.25931799 -0.40353286
-0.078498162 -0.25932267 -0.40352896
-0.078353494 -0.25929701 -0.40351951
-0.078093395 -0.25929019 -0.40353379
-0.077887833 -0.25929284 -0.40350553
-0.077698007 -0.25930443 -0.40348414
-0.077349 -0.25932035 -0.40346599
-0.077061504 -0.25929573 -0.403451
-0.076932997 -0.25930652 -0.40343168
-0.076686673 -0.25928101 -0.40342465
-0.076421998 -0.259289 -0.40342835
-0.076055668 -0.25933483 -0.40341631
-0.075949498 -0.25931737 -0.40341917
-0.075020999 -0.259251 -0.403413
-0.080274001 -0.25915101 -0.40359801
-0.079873607 -0.25908837 -0.40359277
-0.079613328 -0.25911868 -0.40357098
-0.079442002 -0.25912201 -0.40356734
-0.079308748 -0.259094 -0.40354523
-0.079026997 -0.25907668 -0.40355667
-0.078881338 -0.25909004 -0.40352714
-0.07869523 -0.25909767 -0.40352824
-0.078487001 -0.25910231 -0.40351567
-0.078343995 -0.2591137 -0.40352035
-0.078111604 -0.25911278 -0.40352401
-0.077878498 -0.25910899 -0.403496
-0.077697247 -0.25909302 -0.40348539
-0.077598996 -0.25901201 -0.403465
-0.077337667 -0.25909901 -0.40345535
-0.077051662 -0.25911102 -0.40344867
-0.076923445 -0.25912258 -0.40342656
-0.076676995 -0.25909603 -0.40342
-0.076415002 -0.259141 -0.403413
-0.076330006 -0.259112 -0.40340698
-0.076010004 -0.25916499 -0.40341601
-0.075961664 -0.259094 -0.40341631
-0.075071745 -0.25910249 -0.4034085
-0.074915998 -0.259152 -0.40340099
-0.080534004 -0.258834 -0.40359399
-0.080306001 -0.25892726 -0.40358901
-0.079875998 -0.25887263 -0.40358764
-0.079604 -0.25893402 -0.40355802
-0.07947325 -0.25888225 -0.40354827
-0.079298832 -0.25890967 -0.4035455
-0.079017997 -0.25889301 -0.40354848
-0.078872167 -0.25890616 -0.403519
-0.078684114 -0.25887743 -0.40351641
-0.078475498 -0.25888216 -0.40351763
-0.078332335 -0.25889301 -0.40352103
-0.07808733 -0.258908 -0.40351716
-0.077869333 -0.25892532 -0.40348884
-0.077719502 -0.25889999 -0.40346748
-0.077593997 -0.25890303 -0.4034625
-0.077327006 -0.25887999 -0.40343699
-0.077041 -0.25889099 -0.40344083
-0.07691256 -0.25890276 -0.40341365
-0.076670006 -0.2589505 -0.40340948
-0.076403998 -0.25892201 -0.403402
-0.076398998 -0.25884801 -0.40340999
-0.076043002 -0.25887099 -0.40340999
-0.075966328 -0.25889567 -0.40341172
-0.080526665 -0.25868735 -0.40358067
-0.080251999 -0.25870934 -0.4035683
-0.080081001 -0.25872201 -0.40359801
-0.079862997 -0.25869098 -0.40358099
-0.079505332 -0.25867933 -0.40355051
-0.079287499 -0.25868967 -0.40354618
-0.079008669 -0.25871003 -0.40353766
-0.078862563 -0.2587229 -0.40351576
-0.078714497 -0.25869399 -0.40351278
-0.078509502 -0.25869718 -0.40350667
-0.078323498 -0.25870901 -0.40349501
-0.078076497 -0.258688 -0.40350434
-0.077869602 -0.25871959 -0.40348381
-0.077723004 -0.25870413 -0.40346342
-0.077583998 -0.25872031 -0.40346202
-0.077317998 -0.25869501 -0.40342802
-0.077042669 -0.25871965 -0.40343466
-0.076934859 -0.25867942 -0.40342316
-0.076394007 -0.25873899 -0.40340599
-0.076035328 -0.25872499 -0.40341535
-0.075986996 -0.25872299 -0.40340701
-0.080518 -0.25854 -0.40359899
-0.080241501 -0.258526 -0.40358901
-0.080147997 -0.25853002 -0.403593
-0.079849854 -0.258526 -0.40358472
-0.07949575 -0.25849649 -0.40355077
-0.079277746 -0.25850627 -0.4035455
-0.079001002 -0.25856301 -0.403541
-0.078885302 -0.2585004 -0.40352002
-0.078718431 -0.25849929 -0.40350342
-0.078500777 -0.25851387 -0.40348497
-0.078314334 -0.25852633 -0.40348634
-0.078090668 -0.25851533 -0.40348467
-0.077924997 -0.25848049 -0.40350223
-0.077729441 -0.25849298 -0.40347525
-0.077572331 -0.258499 -0.40346035
-0.077307664 -0.25851265 -0.40344366
-0.077054001 -0.25852266 -0.40344098
-0.076946571 -0.25850901 -0.40343073
-0.076027997 -0.25857899 -0.403411
-0.075949006 -0.25855532 -0.40340498
-0.079841003 -0.25831425 -0.40359625
-0.079797998 -0.25826102 -0.403584
-0.079503998 -0.2583268 -0.40355277
-0.079287134 -0.25831085 -0.4035317
-0.078895003 -0.25828797 -0.40352577
-0.078725889 -0.25828868 -0.40350401
-0.07850112 -0.25830248 -0.40347061
-0.078326754 -0.25828549 -0.403485
-0.078125991 -0.25831798 -0.40346536
-0.077950001 -0.25831398 -0.40351257
-0.077710502 -0.25828248 -0.40347025
-0.077560671 -0.258279 -0.40346667
