-0.0449352 -0.141159 0.988967 0
-0.0507214 -0.124825 0.990881 0.011102
-0.0487386 -0.128409 0.990523 0.00796457
-0.0547417 -0.126951 0.990397 0.0165449
-0.0577298 -0.127148 0.990202 0.0196459
-0.0621622 -0.147758 0.987068 0.0274214
-0.0616209 -0.160106 0.985174 0.0349142
-0.0609053 -0.168287 0.983855 0.0393902
-0.0470146 -0.161098 0.985818 0.0133166
0.218978 -0.148684 0.964335 0.0167111
0.231765 -0.154685 0.960395 0.0212948
-0.112838 -0.111386 0.98735 0
-0.111219 -0.108226 0.987885 0.00907453
-0.0988998 -0.098248 0.990235 0
-0.0894907 -0.0931215 0.991625 0
-0.0824516 -0.0882244 0.992682 0
-0.069749 -0.0965135 0.992885 0
-0.0645689 -0.103626 0.992518 0
-0.0672082 -0.106781 0.992009 0
-0.0602295 -0.0984837 0.993314 0
-0.0587429 -0.119887 0.991048 0
-0.0605915 -0.115543 0.991453 0
-0.06089 -0.13893 0.988428 0
-0.0595421 -0.136118 0.988902 0
-0.0573097 -0.148472 0.987255 0.010812
-0.0501678 -0.143804 0.988334 0
-0.0499658 -0.140079 0.988879 0
-0.0444329 -0.138959 0.989301 0
-0.0422018 -0.133074 0.990207 0
-0.0466463 -0.134633 0.989797 0
-0.0466015 -0.132635 0.990069 0
-0.0448654 -0.127979 0.990761 0.000816585
-0.0488528 -0.131147 0.990159 0
-0.0593055 -0.155076 0.986121 0.0199764
-0.0520142 -0.159246 0.985868 0.0214737
-0.0509056 -0.150431 0.987309 0.0206651
0.225556 -0.156231 0.961622 0.0164842
0.243594 -0.164452 0.955833 0.0275508
-0.126311 -0.12278 0.984363 0.0150981
-0.11671 -0.111822 0.986851 0.00317407
-0.108844 -0.108589 0.98811 0
-0.101862 -0.0956923 0.990185 0.000581677
-0.0884153 -0.0867249 0.992301 0
-0.0746439 -0.0945631 0.992717 0
-0.0710272 -0.101025 0.992345 0
-0.0697944 -0.110366 0.991437 0
-0.068747 -0.107128 0.991866 0
-0.0680174 -0.123274 0.990039 0
-0.0664042 -0.136482 0.988415 0
-0.059511 -0.135003 0.989056 0
-0.0616771 -0.144826 0.987533 0
-0.0590014 -0.147538 0.987295 0.0025421
-0.0532318 -0.145688 0.987897 0
-0.055777 -0.151614 0.986865 0
-0.0440425 -0.144615 0.988507 0
-0.0416082 -0.136307 0.989792 0
-0.0404597 -0.125708 0.991242 0
-0.0437958 -0.128166 0.990785 0
-0.0430739 -0.133691 0.990086 0
0.239339 -0.168434 0.956215 0.0144758
0.241667 -0.172509 0.954902 0.0184584
-0.129935 -0.122691 0.983902 0.0117245
-0.119555 -0.121051 0.98542 0.012198
-0.112511 -0.112589 0.987251 0.0138745
-0.0965677 -0.0849147 0.991698 0
-0.0914342 -0.0945898 0.991309 0
-0.0785781 -0.110187 0.9908 0
-0.0724797 -0.107731 0.991534 0
-0.0686829 -0.112226 0.991306 0
-0.0717749 -0.130612 0.988832 0.000756414
-0.0692344 -0.134446 0.988499 0
-0.0654292 -0.130132 0.989335 0
-0.0661883 -0.146473 0.986998 0.00199664
-0.0639411 -0.145819 0.987243 0.00139993
0.240923 -0.176684 0.954327 0.0260051
0.247174 -0.175784 0.952893 0.0263956
-0.166497 -0.148502 0.974795 0.0287445
-0.159475 -0.145984 0.976348 0.0255935
-0.133584 -0.125822 0.983018 0.0187866
-0.121859 -0.118299 0.985472 0.0159346
-0.115996 -0.112888 0.986814 0.0161969
-0.105415 -0.113944 0.987879 0.00857473
-0.0923811 -0.112705 0.989325 0
-0.0873589 -0.124976 0.988306 0.00109003
-0.0809796 -0.116565 0.989876 0
-0.080149 -0.117453 0.989839 0.00181954
-0.0817221 -0.131098 0.987995 0.0120204
-0.0763673 -0.144802 0.986509 0.0110053
-0.0737731 -0.139808 0.987427 0.00819404
-0.0653286 -0.145478 0.987202 0
-0.173825 -0.161242 0.971486 0.00547426
-0.171404 -0.156428 0.972703 0.0151434
-0.169261 -0.156126 0.973127 0.0255979
-0.158226 -0.1531 0.975461 0.0224257
-0.143388 -0.144642 0.97904 0.0300863
-0.129445 -0.14001 0.981652 0.015395
-0.114835 -0.124068 0.985606 0.00902747
-0.103542 -0.118934 0.987489 0
-0.0972934 -0.133704 0.986234 0
-0.0894652 -0.135703 0.986702 0.0115026
-0.0833754 -0.13433 0.987423 0.00944166
-0.0804735 -0.132199 0.987951 0.0114354
-0.0770493 -0.144982 0.98643 0.00902452
0.242086 -0.184138 0.952622 0.0214572
-0.176663 -0.172137 0.969102 0.0161039
-0.17612 -0.161319 0.97106 0.0186183
-0.174958 -0.163335 0.970933 0.0270275
-0.169214 -0.173834 0.970128 0.0289256
-0.145861 -0.159314 0.976393 0.0306925
-0.127367 -0.140638 0.981834 0.00826728
-0.127518 -0.157373 0.979272 0.017575
-0.106137 -0.146592 0.983487 0.00978413
-0.102126 -0.152879 0.982954 0.0124585
-0.086443 -0.13524 0.987035 0.000619752
0.252527 -0.185056 0.949729 0.026134
-0.186255 -0.164798 0.968582 0.0179572
-0.177562 -0.173446 0.968704 0.0163488
-0.175002 -0.168616 0.970022 0.0232775
-0.168135 -0.166019 0.971683 0.0181255
-0.161582 -0.177316 0.970799 0.0226875
-0.139123 -0.171692 0.975278 0.0226333
-0.130941 -0.169549 0.976784 0.0114217
-0.126915 -0.181577 0.975152 0.0165675
-0.10442 -0.159842 0.981604 0.00985463
-0.196045 -0.157845 0.967807 0.0164711
-0.186848 -0.175156 0.966648 0.0208741
-0.175163 -0.183819 0.967227 0.0188053
-0.173382 -0.178017 0.968632 0.0209057
-0.154404 -0.169453 0.973368 0.00236912
-0.14821 -0.1718 0.973919 0.0126906
-0.141557 -0.185631 0.97237 0.0177246
-0.136822 -0.187814 0.972628 0.0159673
-0.198018 -0.183702 0.96283 0.0171623
-0.186755 -0.183262 0.965162 0.0182825
-0.173757 -0.180668 0.968074 0.0138143
-0.163262 -0.16966 0.971885 0.00512669
-0.167344 -0.184605 0.968461 0.0191212
-0.150935 -0.183509 0.971362 0.0133494
-0.137076 -0.191166 0.971939 0.0137915
-0.199402 -0.189638 0.961393 0.0221068
-0.185948 -0.181016 0.965741 0.0162419
-0.167972 -0.180473 0.969131 0.00479359
-0.166231 -0.175024 0.97043 0.00741038
-0.162105 -0.177363 0.970703 0.0133558
-0.14759 -0.169275 0.974455 0.00382941
-0.21236 -0.195786 0.957377 0.0200316
-0.193543 -0.192237 0.962074 0.0259001
-0.16815 -0.16816 0.971312 0
-0.164487 -0.175538 0.970634 0.000781045
-0.164422 -0.183824 0.96911 0.00704321
-0.160407 -0.180441 0.970418 0.0110647
-0.237803 -0.197798 0.95096 0.0189952
-0.218106 -0.20334 0.954506 0.0159637
-0.206452 -0.199663 0.957869 0.0118234
-0.186138 -0.194464 0.963087 0.0176315
-0.170034 -0.174133 0.969931 0.00464224
-0.165968 -0.177309 0.97006 0
-0.26438 -0.203894 0.942619 0.018954
-0.252558 -0.21921 0.942423 0.0289552
-0.226017 -0.211167 0.95096 0.0201118
-0.202304 -0.199461 0.958795 0.0057005
-0.191841 -0.195286 0.961801 0.0175025
-0.178912 -0.187397 0.965853 0.0100728
-0.290714 -0.201345 0.935385 0.0218917
-0.267574 -0.209747 0.940431 0.0230212
-0.252341 -0.206514 0.945344 0.0168313
-0.230576 -0.21057 0.949997 0.0188477
-0.212333 -0.197658 0.956998 0.0174755
-0.191991 -0.194161 0.961998 0.0145472
-0.292171 -0.185101 0.938282 0.0236907
-0.265409 -0.188406 0.945548 0.016123
-0.253967 -0.195027 0.947346 0.0177287
-0.234518 -0.186948 0.953966 0.0141897
-0.216826 -0.179937 0.959484 0.0072527
0.321202 -0.201902 0.925238 0.00419847
-0.310452 -0.172988 0.934716 0.0152752
-0.295984 -0.189072 0.936294 0.0298209
-0.272285 -0.181352 0.944972 0.0216765
-0.253184 -0.173213 0.951785 0.0164315
-0.235009 -0.182013 0.9548 0.0130999
0.314642 -0.188237 0.930359 0
-0.308483 -0.165458 0.936729 0.0121362
-0.290908 -0.180681 0.939536 0.024817
-0.274932 -0.177102 0.945012 0.0249634
-0.265283 -0.177845 0.947627 0.0222928
0.319837 -0.188127 0.928608 0
0.335662 -0.192876 0.922025 0
-0.30448 -0.154799 0.939856 0
-0.305088 -0.156281 0.939413 0.00556766
-0.2814 -0.164921 0.945312 0.0131791
0.324688 -0.192124 0.926103 0
0.333625 -0.193743 0.922582 0
-0.308023 -0.152514 0.939075 0
-0.298247 -0.15756 0.941395 0
0.330293 -0.184997 0.925572 0
0.349828 -0.188746 0.917603 0
-0.308446 -0.164363 0.936934 0
-0.295222 -0.158917 0.94212 0
0.344386 -0.185329 0.920354 0
-0.304266 -0.166464 0.93793 0
-0.299832 -0.166918 0.939276 0
0.358813 -0.18727 0.91443 0
0.354652 -0.187882 0.915927 0
-0.339559 -0.16853 0.925364 0
-0.307233 -0.170338 0.936265 0
0.365658 -0.191108 0.910918 0
-0.335434 -0.168876 0.926804 0
0.355695 -0.183433 0.916424 0
-0.349448 -0.160888 0.923039 0
-0.340631 -0.166962 0.925254 0
0.343747 -0.185816 0.920495 0.000973607
-0.34818 -0.15861 0.923912 0
-0.336585 -0.157284 0.928425 0
-0.3499 -0.159926 0.923035 0
-0.344605 -0.155284 0.925816 0
-0.338877 -0.153216 0.928271 0
-0.331338 -0.154628 0.930755 0
-0.350648 -0.15621 0.923387 0
-0.348042 -0.159032 0.923892 0
-0.335244 -0.155985 0.929129 0
-0.35858 -0.159826 0.919715 0
-0.349846 -0.17352 0.920597 0
-0.342875 -0.163373 0.925065 0.000112152
-0.371742 -0.158083 0.914777 0.00233652
-0.361514 -0.163354 0.917945 0
-0.355662 -0.166542 0.919657 0.00556682
-0.372466 -0.158551 0.914402 0.00322731
-0.371745 -0.160285 0.914393 0.00873609
-0.368146 -0.166857 0.914674 0.0155272
-0.372697 -0.14744 0.916165 0
-0.3668 -0.15834 0.916726 0.00315399
-0.361632 -0.166204 0.917387 0.00641587
-0.378089 -0.14868 0.913752 0
-0.379076 -0.152088 0.912782 0.010138
-0.392446 -0.137773 0.909398 0
-0.384444 -0.136029 0.913071 0.000767827
-0.374662 -0.145245 0.915714 0.00336127
-0.400299 -0.128721 0.907299 0
-0.383601 -0.128441 0.914523 0
-0.404245 -0.118376 0.906958 0
-0.399771 -0.119911 0.908738 0
-0.411014 -0.109766 0.904996 0
-0.405415 -0.11035 0.907448 0.000307923
-0.403441 -0.123026 0.906697 0.000713202
-0.424306 -0.116872 0.897945 0
-0.434566 -0.113702 0.893434 0.0171131
-0.452331 -0.117674 0.884053 0.0168666
-0.435483 -0.118984 0.892299 0.0145937
-0.461896 -0.105361 0.880654 0.0159241
-0.454767 -0.110587 0.883718 0.0148574
-0.475226 -0.10024 0.874135 0.0206598
-0.454595 -0.09588 0.885523 0.0199251
-0.475693 -0.078372 0.876113 0.0244645
-0.466257 -0.0855202 0.880506 0.0288335
-0.444038 -0.076012 0.892778 0.0183872
-0.482081 -0.0659502 0.873641 0.0361996
-0.47284 -0.0604495 0.879072 0.0363904
-0.477717 -0.0558188 0.876739 0.0249239
-0.480652 -0.0552386 0.87517 0.0324377
-0.466365 -0.059833 0.882567 0.0331533
-0.46998 -0.0463219 0.881461 0.0233169
-0.462501 -0.0485904 0.885286 0.0274612
-0.458878 -0.0531283 0.886909 0.0275097
-0.445741 -0.0270754 0.894753 0.0106914
-0.460265 -0.0331065 0.887164 0.0256888
-0.449953 -0.0312408 0.892506 0.0160899
-0.446744 -0.00956981 0.894611 0.0204468
-0.442445 -0.0096788 0.896744 0.0101147
-0.464103 -0.00793393 0.885746 0.0280588
-0.446949 -0.00719825 0.894531 0.0115147
-0.431747 0.00540907 0.901978 0.00462939
-0.439719 0.00504682 0.898121 0.0191064
-0.443044 0.0102809 0.896441 0.00657204
-0.434592 0.0131167 0.900532 0.0102519
-0.432485 0.0183834 0.901454 0.0152707
-0.455913 0.0168147 0.889865 0.0150242
-0.424119 0.0279064 0.905177 0.00519858
-0.443034 0.0232537 0.896203 0.00530155
-0.421482 0.0293641 0.906361 0.000712243
-0.449266 0.0278672 0.892964 0.0141149
-0.429044 0.0395356 0.902418 0
-0.421836 0.0406497 0.90576 0
-0.427931 0.0369459 0.903056 0.00475314
-0.424764 0.0534554 0.903725 0
-0.424929 0.0472749 0.903991 0
-0.425145 0.0590864 0.903195 0
-0.431267 0.0556995 0.900503 0.00728807
-0.422639 0.0628089 0.904119 0
-0.427305 0.0630866 0.901904 0.00844636
-0.41195 0.0748661 0.908126 0.000232807
-0.422726 0.0749489 0.903153 0
-0.41209 0.0715674 0.908328 0
-0.395968 0.0838607 0.914427 0
-0.408869 0.0819847 0.908903 0
-0.395759 0.0755161 0.915244 0
-0.385366 0.0805824 0.919239 0
0.401187 0.154594 0.902856 0.0228743
-0.403104 0.0946015 0.910251 0
-0.395677 0.0983487 0.913109 0
-0.384152 0.0951738 0.918351 0.00165484
0.391708 0.15504 0.906933 0.0172288
-0.405141 0.103165 0.908415 0
-0.395606 0.104621 0.912442 0
-0.376746 0.0954233 0.921388 0
-0.379493 0.103461 0.919392 0
0.374208 0.154485 0.914387 0.021679
0.393154 0.153042 0.906646 0.0213085
-0.390678 0.125551 0.911925 0
-0.379976 0.111718 0.918225 0
-0.373453 0.11041 0.921055 0
-0.375199 0.117162 0.91951 0.00858125
-0.37462 0.117121 0.919751 0
-0.377734 0.118781 0.918264 0.00328864
-0.374696 0.120097 0.919337 0.0153653
-0.35763 0.149912 0.921752 0.018844
-0.379617 0.131508 0.915749 0.00686269
-0.364263 0.155841 0.918165 0.0103153
-0.353697 0.178239 0.918221 0.00791107
-0.350645 0.190623 0.916903 0.0119444
-0.331495 0.190389 0.924047 0.00190568
-0.364572 0.174782 0.914625 0.0159081
-0.347237 0.176772 0.920966 0.00996513
-0.329932 0.200358 0.922497 0
-0.321408 0.190741 0.927532 0
-0.328943 0.203821 0.922092 0
-0.32346 0.175471 0.92983 0
-0.313366 0.201791 0.927945 0
-0.310248 0.207169 0.927808 0
-0.317684 0.197633 0.927371 0
-0.316856 0.195726 0.928059 0
-0.309324 0.216782 0.925918 0.00328468
-0.217565 0.318892 0.922482 0.0105689
-0.20825 0.305153 0.929254 0
-0.201761 0.28418 0.937302 0
-0.0551382 -0.190793 0.980081 0.0191144
-0.0596932 -0.147205 0.987303 0
-0.061385 -0.151031 0.986621 0
-0.061821 -0.152742 0.986331 0
-0.0659019 -0.159591 0.984981 0
-0.0663998 -0.153161 0.985968 0
-0.0788395 -0.129353 0.98846 0
-0.078396 -0.111871 0.990626 0
0.289302 -0.227668 0.92977 0.00490899
0.292962 -0.230729 0.927867 0
-0.0377829 -0.0786406 0.996187 0.0139706
-0.0391498 -0.0817081 0.995887 0.0104745
-0.0608115 -0.22438 0.972602 0.0291685
-0.0602288 -0.20908 0.976042 0.0265916
-0.0529397 -0.215385 0.975093 0.0133634
-0.0511155 -0.164958 0.984975 0
-0.0533342 -0.160859 0.985535 0
-0.0559377 -0.15441 0.986422 0
-0.053851 -0.149062 0.98736 0
-0.0563932 -0.149951 0.987084 0
-0.0576773 -0.130945 0.98971 0
-0.0582245 -0.148645 0.987175 0
-0.0618877 -0.141242 0.988039 0
-0.0625248 -0.146893 0.987174 0
-0.0655292 -0.158958 0.985108 0
0.300783 -0.228355 0.92595 0.00271145
-0.0329576 -0.0796845 0.996275 0
-0.0306517 -0.0769299 0.996565 0
-0.037913 -0.105578 0.993688 0.0158593
-0.0369296 -0.0738894 0.996582 0.0202748
-0.0449291 -0.122184 0.99149 0.0308778
-0.0426622 -0.101924 0.993877 0.0160037
-0.0488607 -0.0840241 0.995265 0.0189215
-0.0546368 -0.172094 0.983564 0.0274836
-0.058204 -0.192223 0.979624 0.0281825
-0.0571897 -0.175785 0.982766 0.0253059
-0.0558533 -0.208829 0.976356 0.013049
-0.0505945 -0.163686 0.985214 0.00369825
-0.0507609 -0.132699 0.989856 0
-0.054742 -0.151894 0.98688 0
-0.0518566 -0.121553 0.991229 0
-0.0586585 -0.152327 0.986588 0
-0.0560226 -0.129015 0.990059 0
-0.0631752 -0.180167 0.981605 0
-0.0561571 -0.171805 0.983529 0
-0.0513508 -0.129796 0.99021 0
-0.0515443 -0.139124 0.988933 0
-0.0513966 -0.161042 0.985608 0
-0.0457079 -0.144291 0.988479 0
-0.0464595 -0.112324 0.992585 0
-0.042794 -0.124311 0.99132 0
-0.0455327 -0.155308 0.986816 0
-0.0420922 -0.119305 0.991965 0
-0.0402747 -0.102978 0.993868 0
-0.0374944 -0.107774 0.993468 0
-0.0350358 -0.0995058 0.99442 0.00528324
-0.0349169 -0.0720294 0.996791 0
-0.0337048 -0.0501924 0.998171 0.0103673
-0.0331824 -0.0647076 0.997352 0.0154988
-0.0385756 -0.107527 0.993454 0.0239879
-0.0427765 -0.0975957 0.994306 0.013192
-0.0493011 -0.101053 0.993659 0.015498
-0.0515672 -0.129601 0.990224 0.0217397
-0.0571168 -0.161636 0.985196 0.0207718
-0.0598755 -0.138995 0.988481 0
-0.0714337 -0.19097 0.978993 0.0198273
-0.070655 -0.188573 0.979514 0.0166168
-0.066377 -0.186992 0.980116 0
-0.0669804 -0.194863 0.978541 0
-0.0643095 -0.191387 0.979406 0
-0.0545311 -0.150128 0.987161 0
-0.0503005 -0.124199 0.990982 0
-0.0508344 -0.119755 0.991501 0
-0.0497061 -0.127332 0.990614 0
-0.0439953 -0.13341 0.990084 0
-0.0417318 -0.103716 0.993731 0
-0.0441949 -0.12018 0.991768 0
-0.0436197 -0.0987104 0.99416 0
-0.0982054 -0.152935 0.983345 0.00763446
-0.0929858 -0.155018 0.983526 0
-0.08834 -0.151221 0.984545 0
-0.0899163 -0.163638 0.982414 0.00481002
-0.0854015 -0.161005 0.983252 0.0146118
-0.0856507 -0.136215 0.98697 0.0266814
-0.081739 -0.147385 0.985696 0.0255292
-0.0846901 -0.183648 0.979337 0.0344271
-0.0814196 -0.166879 0.98261 0.0267965
-0.0779883 -0.215892 0.973298 0.0317236
-0.069741 -0.190717 0.979165 0.0121579
-0.0679698 -0.178092 0.981664 0
-0.0708823 -0.192002 0.978831 0
-0.0611777 -0.177825 0.982159 0
-0.0523939 -0.140559 0.988685 0
-0.118908 -0.0780421 0.989833 0.0141873
-0.103136 -0.133448 0.985675 0.0127466
-0.100943 -0.133261 0.985927 0.0122771
-0.0928936 -0.116188 0.988874 0
-0.0919744 -0.146743 0.984889 0.00528459
-0.0857904 -0.14301 0.985996 0
-0.0867716 -0.151426 0.984653 0.0198496
-0.0839413 -0.152035 0.984804 0.0244843
-0.0784963 -0.121254 0.989513 0.0184742
-0.0764196 -0.127638 0.988872 0.0302766
-0.152999 -0.124946 0.980296 0.0161007
-0.141904 -0.0897258 0.985806 0.0146491
-0.133364 -0.0833503 0.987556 0.0138753
-0.112267 -0.0198735 0.993479 0
-0.112476 -0.0561389 0.992067 0.0106082
-0.0995288 -0.119049 0.987887 0.0111249
-0.0950284 -0.0792222 0.992317 0
-0.093022 -0.0951522 0.991107 0
-0.0850993 -0.126376 0.988325 0.0255623
-0.0763865 -0.100027 0.992048 0.019401
-0.186789 -0.116688 0.975445 0.0222267
-0.174996 -0.0982613 0.979654 0.00973681
-0.158533 -0.0979962 0.982478 0.00178127
-0.156764 -0.138759 0.97784 0.0210589
-0.150097 -0.126051 0.980603 0.0242884
-0.143332 -0.101685 0.984437 0.0276638
-0.125144 -0.0809685 0.988829 0.00771567
-0.105502 -0.0333944 0.993858 0
-0.212556 -0.140135 0.967048 0.022233
-0.201852 -0.123813 0.971559 0.016042
-0.18673 -0.103381 0.976957 0.0119339
-0.174525 -0.0864241 0.980853 0.00439197
-0.158998 -0.0906569 0.983108 0
-0.153027 -0.069736 0.985758 0.00703843
-0.154505 -0.114428 0.981343 0.0146032
-0.132452 -0.029079 0.990763 0
-0.129618 -0.0634881 0.989529 0.014945
-0.116836 -0.0501342 0.991885 0.00322308
-0.224757 -0.103241 0.96893 0.0225115
-0.214969 -0.142969 0.9661 0.02185
-0.195702 -0.104462 0.975084 0.00413244
-0.186525 -0.10959 0.976319 0.00941409
-0.182708 -0.133313 0.974087 0.0180488
-0.159288 -0.0946911 0.98268 0
-0.152604 -0.0736878 0.985536 0.00811876
-0.119987 -0.0568287 0.991148 0
0.400655 -0.140624 0.905373 0.0199451
-0.245023 -0.0660595 0.967264 0.00711978
-0.241775 -0.0972224 0.965449 0.012345
-0.235887 -0.115387 0.964906 0.0348768
-0.209755 -0.111916 0.971328 0.0133754
-0.200447 -0.111833 0.973301 0.0168946
-0.189501 -0.112254 0.975443 0.00845934
-0.174659 -0.120082 0.977279 0.0111505
0.404492 -0.136332 0.904323 0.0245882
0.410337 -0.131194 0.902448 0.0183751
-0.255166 -0.0528121 0.965454 0.00596681
-0.243388 -0.0854155 0.966161 0.0146836
-0.247325 -0.106072 0.963109 0.0267448
-0.221106 -0.0912334 0.970973 0.0169895
-0.20273 -0.0971979 0.974399 0.011179
-0.194637 -0.096336 0.976133 0.010255
-0.191189 -0.135648 0.972135 0.0125877
0.391951 -0.0999131 0.914544 0.00896577
-0.253334 -0.0417876 0.966476 0.00641351
-0.249826 -0.0719229 0.965616 0.0171582
-0.251901 -0.126541 0.959444 0.0320761
-0.208106 -0.0872403 0.974208 0.00664114
-0.208428 -0.101167 0.972791 0.0160693
-0.201674 -0.0986868 0.974468 0.0164426
0.394646 -0.10361 0.912973 0.0106684
0.402346 -0.110787 0.90876 0.00734902
-0.25313 -0.0736854 0.964622 0.0193568
-0.245347 -0.0841945 0.965772 0.026614
-0.219002 -0.0807865 0.972374 0.0197429
-0.206716 -0.100694 0.973206 0.0170526
-0.198184 -0.108514 0.97414 0.00673246
0.38837 -0.094089 0.916688 0.0030359
0.394198 -0.0821602 0.915345 0
-0.271445 0.00867486 0.962415 0
-0.258201 -0.0655274 0.963866 0.0346116
-0.254323 -0.0793689 0.963857 0.0427363
-0.201225 -0.0901623 0.975387 0.0125836
-0.197928 -0.111483 0.973856 0.0103706
0.39167 -0.0803303 0.916592 0.00665872
0.395083 -0.0780528 0.915324 0
-0.278167 -0.00758145 0.960503 0
-0.256413 -0.0453105 0.965505 0.023173
-0.253433 -0.0578685 0.96562 0.0391273
-0.210562 -0.105181 0.971906 0.0218681
0.389768 -0.0683382 0.918374 0.0013895
-0.284122 -0.00920081 0.958744 0
-0.254384 -0.0410566 0.966231 0.0264411
-0.252455 -0.0497756 0.966327 0.0328024
0.379103 -0.0536516 0.923798 0
-0.288198 -0.0190619 0.957381 0.0014469
-0.254593 -0.0178647 0.966883 0.0138523
0.387855 -0.0552736 0.920061 0
0.403126 -0.054775 0.913504 0
-0.294143 -0.0166442 0.955617 0.0152064
-0.25347 -0.00827118 0.967308 0.00992501
0.376205 -0.0389364 0.925718 0
0.395843 -0.0574536 0.916519 0
-0.299562 -0.0102931 0.954021 0.0207345
0.375514 -0.036061 0.926115 0
0.388811 -0.0493537 0.919995 0.00434717
-0.290158 0.00378629 0.956971 0.0143443
-0.283704 0.0127003 0.958828 0.00725849
0.375439 -0.0389229 0.926029 0
0.386347 -0.0370116 0.921611 0
-0.299641 0.0144212 0.953943 0.0223854
-0.291341 0.0231143 0.95634 0.0159898
0.375769 -0.0224458 0.926441 0
-0.293236 0.0385805 0.955261 0.0129995
-0.287314 0.039948 0.957003 0.0103817
0.374053 -0.0139809 0.927302 0
-0.304505 0.0364671 0.951812 0.0289605
-0.284086 0.0436682 0.957804 0.0147905
0.36868 -0.0133268 0.929461 0
-0.292399 0.0604444 0.954384 0.0174153
-0.281212 0.054774 0.958081 0.00573261
0.366592 -0.0139071 0.930278 0
-0.295831 0.0500073 0.953931 0.0206112
0.358115 -0.00919321 0.933632 0
-0.305283 0.0449652 0.951199 0.0242097
-0.242267 0.0759956 0.967229 0
-0.233675 0.0737114 0.969517 0
-0.227098 0.0744444 0.971022 0
0.358208 -0.00716141 0.933614 0
-0.247177 0.0799331 0.965668 0
-0.236297 0.0701506 0.969145 0
-0.225679 0.0837343 0.970597 0
0.339786 -0.00235553 0.9405 0.000109143
-0.245672 0.0711477 0.966739 0
-0.237793 0.0697663 0.968807 0
-0.227917 0.0705381 0.971122 0
-0.207253 0.0900044 0.974138 0
0.3478 0.0109904 0.937504 0.015132
-0.256646 0.0704386 0.963935 0.00683843
-0.246969 0.0716426 0.966371 0.0108452
-0.239447 0.0740898 0.968078 0.00984276
-0.213061 0.0843385 0.973392 0.00561359
-0.198141 0.0925182 0.975798 0
0.326288 0.0315132 0.944745 0
-0.26156 0.0720435 0.962495 0.0172334
-0.252453 0.0802672 0.964274 0.0226639
-0.243979 0.0782475 0.966619 0.0199904
-0.210126 0.098256 0.972724 0.00155518
-0.198368 0.0988329 0.975132 0
0.315087 0.0299134 0.948591 0
-0.250303 0.0890948 0.964059 0.0116724
-0.254349 0.0783014 0.963937 0.0169804
-0.238051 0.0927311 0.966816 0.0147615
-0.218426 0.100292 0.970686 0.0124162
-0.201343 0.112578 0.97303 0.00770856
0.320423 0.0216135 0.947028 0.0092988
0.316522 0.0328421 0.948016 0
-0.264466 0.0942852 0.959775 0.0303223
-0.24723 0.0969971 0.96409 0.027622
-0.220304 0.1038 0.969893 0.018036
-0.192537 0.118677 0.974087 0
-0.18494 0.114326 0.976077 0
0.308458 0.0379194 0.950482 0
0.320276 0.0352952 0.946667 0
-0.264305 0.103213 0.9589 0.0309594
-0.255266 0.110265 0.960563 0.033212
-0.216788 0.122702 0.968477 0.00989114
-0.200346 0.130444 0.971002 0
-0.185402 0.135165 0.973323 0
-0.169504 0.146914 0.974518 0
0.287929 0.0344992 0.95703 0
0.307646 0.0348216 0.950864 0
0.317042 0.0329612 0.947838 0
-0.268151 0.118956 0.956004 0.0282164
-0.24781 0.137517 0.958999 0.0190648
-0.218336 0.125649 0.967751 0.0100188
-0.19933 0.131657 0.971048 0
-0.18758 0.144734 0.971527 0
-0.17588 0.150316 0.972868 0
-0.164973 0.153502 0.97428 0
0.300212 0.0380122 0.953115 0
-0.239627 0.130249 0.962088 0.0092189
-0.208813 0.127205 0.969647 0
-0.196786 0.138209 0.970656 0
-0.178776 0.142537 0.97351 0
-0.171186 0.131543 0.976418 0
-0.155585 0.143314 0.977371 0
0.289632 0.0375814 0.9564 0
0.308052 0.028971 0.950928 0
-0.234963 0.137783 0.962189 0.00599176
-0.219909 0.13265 0.966459 0.00481041
-0.191995 0.141981 0.971071 0
-0.183296 0.139908 0.973051 0
-0.172857 0.12523 0.976953 0.00419105
-0.161766 0.13215 0.977941 0
-0.155698 0.1389 0.97799 0
0.293724 0.0323151 0.955344 0
0.305119 0.030759 0.951817 0
-0.20653 0.153431 0.966335 0
-0.192812 0.137535 0.971549 0
-0.18298 0.133948 0.973949 0
-0.179918 0.132025 0.974781 0.0119995
-0.166679 0.137689 0.97635 0.00834864
-0.153738 0.133403 0.979065 0.00380145
-0.141159 0.132218 0.981118 0.00469888
-0.148706 0.125272 0.980915 0.0223653
-0.114704 0.131669 0.984635 0
0.281147 0.0189547 0.959478 0
0.295811 0.0160754 0.955111 0
-0.202167 0.149997 0.967796 0
-0.188299 0.144022 0.971494 0
-0.180461 0.137955 0.97386 0.000815661
-0.163821 0.148014 0.975323 0
-0.162247 0.1385 0.976982 0.0123008
-0.14731 0.132903 0.980121 0
-0.1397 0.137716 0.98057 0
-0.147292 0.126271 0.981 0.0208297
-0.128421 0.131319 0.982987 0.00599019
-0.113779 0.138583 0.983793 0.0010717
-0.106588 0.140824 0.98428 0
-0.087585 0.165718 0.982276 0
0.28242 0.023602 0.959 0
0.286461 0.0162486 0.957954 0.00472367
-0.180364 0.156336 0.971096 0.00394809
-0.166631 0.145625 0.975206 0.000779786
-0.153979 0.141088 0.977949 0.000485909
-0.146635 0.141825 0.978971 0
-0.145492 0.131426 0.980591 0.0136156
-0.139556 0.13757 0.980611 0.00969016
-0.12172 0.147866 0.981489 0
-0.114567 0.143946 0.982931 0.00199155
-0.107112 0.150606 0.982774 0
-0.0864805 0.171006 0.981467 0
-0.0834509 0.170455 0.981825 0
-0.080671 0.172991 0.981614 0
0.283114 0.0370762 0.958369 0
0.285167 0.0323896 0.95793 0.000556952
0.275457 0.0339556 0.960714 0.000578886
-0.177728 0.157762 0.971352 0.00404573
-0.167433 0.14984 0.97443 0
-0.16026 0.143652 0.976566 0.0034896
-0.150366 0.145246 0.977903 0
-0.146217 0.130953 0.980547 0.00939699
-0.146196 0.13869 0.979486 0.0273316
-0.130236 0.148439 0.980308 0.00421525
-0.123767 0.145742 0.98155 0.0136071
-0.106 0.159037 0.981566 0.000971987
-0.0866724 0.167552 0.982046 0
-0.0842892 0.163701 0.982902 0.00226189
-0.0868049 0.169134 0.981763 0
0.277213 0.0299466 0.960342 0.0109519
0.267164 0.0433425 0.962676 0.00560493
0.289615 0.0373617 0.956414 0
-0.173158 0.154636 0.972679 0
-0.162634 0.151916 0.974921 0.00265216
-0.155922 0.154876 0.975552 0.0173401
-0.150855 0.143154 0.978136 0.0224003
-0.149118 0.143342 0.978374 0.0311385
-0.138919 0.148323 0.979133 0.0275857
-0.120934 0.158813 0.979874 0.011233
-0.10172 0.162174 0.981505 0
-0.0874276 0.173284 0.980984 0
-0.0818201 0.173989 0.981343 0
-0.0833498 0.173959 0.981219 0
-0.0795463 0.169691 0.982282 0
0.279268 0.0358638 0.959543 0.0172371
0.270731 0.0474663 0.961484 0
-0.169868 0.15813 0.972697 0.00882008
-0.171018 0.156111 0.972822 0.0256831
-0.151689 0.154678 0.976251 0.0247721
-0.138957 0.151158 0.978694 0.0191529
-0.128435 0.146108 0.980896 0.0218695
-0.113058 0.160144 0.980598 0
-0.101258 0.171663 0.979938 0
-0.0820022 0.167113 0.982522 0
-0.0823847 0.175872 0.98096 0
-0.0867887 0.165705 0.982349 0.00401008
-0.0790465 0.175256 0.981345 0
-0.0809544 0.162168 0.983437 0.00438791
-0.0632622 0.146113 0.987243 0.0081556
-0.0620775 0.139844 0.988226 0.00887624
0.271427 0.0364283 0.961769 0.019604
0.271082 0.0397541 0.961735 0.00898347
-0.155651 0.150995 0.976204 0.0220217
-0.15398 0.147537 0.976997 0.0391699
-0.126385 0.150449 0.980506 0.0129914
-0.112033 0.152255 0.981971 0.00303247
-0.100808 0.15055 0.983449 0
-0.0876636 0.157375 0.98364 0
-0.0879849 0.170087 0.981493 0.00189415
-0.0761252 0.179772 0.980758 0
-0.0732321 0.173183 0.982163 0
-0.0748557 0.164099 0.983599 0
-0.0720173 0.152164 0.985728 0.00594295
-0.0705196 0.151648 0.985916 0.0101107
-0.0720986 0.13539 0.988166 0.0204013
-0.0621295 0.143225 0.987738 0.00525319
-0.0537743 0.133311 0.989614 0.00354478
-0.055173 0.125182 0.990599 0.00912958
0.265164 0.0288144 0.963773 0.0343689
0.267062 0.0353451 0.963031 0.022291
-0.160012 0.14335 0.976651 0.0278043
-0.143306 0.135512 0.980357 0.0129872
-0.144827 0.135962 0.980071 0.0290543
-0.12346 0.138782 0.982597 0.0175408
-0.105895 0.142534 0.984109 0.00811429
-0.0893842 0.160761 0.982938 0.00366699
-0.0850061 0.172663 0.981306 0
-0.0799064 0.173024 0.981671 0
-0.0807816 0.160726 0.983688 0
-0.0719558 0.161011 0.984326 0
-0.0669127 0.148929 0.986581 0
-0.0649023 0.141301 0.987837 0
-0.0673794 0.129747 0.989255 0.0158012
-0.0632408 0.136236 0.988656 0.00362967
-0.0519667 0.139926 0.988797 0.00433653
-0.0499267 0.135738 0.989486 0.00746556
-0.0472143 0.130019 0.990387 0
-0.0381287 0.125729 0.991332 0
-0.0444702 0.141652 0.988917 0.0164332
-0.0396955 0.1485 0.988115 0.00848691
-0.0453427 0.137881 0.98941 0.019312
0.252684 0.0366969 0.966853 0.0284639
0.270841 0.0349892 0.961988 0.0349091
-0.146664 0.137748 0.979548 0.0251674
-0.14188 0.12881 0.981467 0.0281816
-0.127962 0.130771 0.98312 0.0231069
-0.110304 0.139086 0.984118 0.0148422
-0.0949073 0.15319 0.983629 0.0144544
-0.0844068 0.153196 0.984584 0
-0.078191 0.14745 0.985974 0
-0.0698017 0.153849 0.985626 0
-0.066175 0.146148 0.987047 0.000378859
-0.0672773 0.143924 0.987299 0
-0.0665768 0.146025 0.987038 0
-0.0585886 0.141285 0.988234 0.00196475
-0.0652039 0.137718 0.988323 0.00823478
-0.0511143 0.143469 0.988334 0
-0.0467556 0.141903 0.988776 0
-0.042619 0.134053 0.990057 0
-0.0439442 0.137812 0.989483 0.00317105
-0.038536 0.143221 0.98894 0
-0.0456245 0.137494 0.989451 0.0069234
-0.0494465 0.143325 0.98844 0.0177171
-0.0472186 0.14061 0.988938 0.0239222
-0.0415769 0.139578 0.989338 0.0190185
-0.0414092 0.122558 0.991597 0.0180448
-0.0369236 0.119607 0.992134 0.0104978
-0.0312991 0.102573 0.994233 0.0135457
-0.0333956 0.102283 0.994195 0.0106762
0.228382 0.0494164 0.972317 0.00263976
0.233318 0.0433591 0.971433 0.0120562
-0.126412 0.108284 0.98605 0.0121172
-0.111099 0.120689 0.986454 0
-0.0916533 0.134769 0.986629 0.00237766
-0.0876446 0.138179 0.986522 0.00478121
-0.0820138 0.149332 0.98538 0.0102839
-0.0693827 0.146865 0.98672 0.00306673
-0.0668363 0.147958 0.986733 0.00446426
-0.0581415 0.14994 0.986984 0
-0.0623409 0.145986 0.987321 0
-0.0525597 0.148502 0.987514 0
-0.0582164 0.140458 0.988374 0
-0.0470522 0.148896 0.987733 0
-0.0397996 0.14989 0.987901 0
-0.0449025 0.136217 0.989661 0
-0.0425676 0.142099 0.988937 0
-0.0455387 0.13756 0.989446 0
-0.0458409 0.149251 0.987736 0.0103924
-0.046028 0.146413 0.988152 0.0154289
-0.0442277 0.144934 0.988452 0.0236176
-0.0485546 0.122446 0.991287 0.0247053
-0.0389238 0.116517 0.992426 0.0186771
-0.035468 0.108996 0.993409 0.0210393
-0.0313964 0.0996121 0.994531 0
-0.0356479 0.0986905 0.994479 0.00577837
-0.0308265 0.105472 0.993944 0.0160953
-0.0317931 0.103794 0.994091 0.0184734
-0.0346577 0.109995 0.993328 0.0245738
-0.0257979 0.131794 0.990941 0
-0.0267196 0.137528 0.990137 0
0.217116 0.0522615 0.974746 0.00748268
0.229424 0.0660812 0.971081 0
-0.094219 0.13891 0.985813 0.00653783
-0.0864774 0.138367 0.986598 0.00552797
-0.0819179 0.14198 0.986474 1.76064e-05
-0.0636389 0.158428 0.985317 0
-0.0623003 0.148894 0.986889 0.000733644
-0.0600977 0.147137 0.987289 0
-0.0548261 0.142033 0.988342 0
-0.0489329 0.144304 0.988323 0
-0.0477236 0.136885 0.989437 0
-0.0472109 0.146073 0.988147 0
-0.0416632 0.132701 0.99028 0
-0.0425279 0.13787 0.989537 0
-0.040319 0.155189 0.987062 0
-0.0430281 0.143864 0.988662 0
-0.044161 0.13984 0.989189 0.0161712
-0.0412498 0.15003 0.987821 0.0171417
-0.0462668 0.133731 0.989937 0.0292761
-0.0425517 0.124118 0.991355 0.00723469
-0.0391898 0.107453 0.993437 0.000194517
-0.0322182 0.107661 0.993666 0.00500444
-0.0342995 0.106127 0.993761 0
-0.0289307 0.110491 0.993456 0
-0.028518 0.0982723 0.994751 0.00603219
-0.032206 0.116001 0.992727 0.00785889
-0.0294714 0.113701 0.993078 0.00462514
-0.027568 0.125933 0.991656 0
-0.0220335 0.14177 0.989654 0
-0.0290564 0.135812 0.990309 0
-0.0316419 0.137652 0.989975 0
-0.028358 0.142268 0.989422 0
-0.0248091 0.127688 0.991504 0
-0.0319329 0.131766 0.990766 0.00397058
-0.0452183 0.136046 0.98967 0.00859381
0.222438 0.0380477 0.974204 0.0325679
0.226851 0.036109 0.97326 0.0266083
-0.0686188 0.136145 0.98831 0.0105541
-0.0632563 0.146997 0.987112 0.000658355
-0.0550802 0.145579 0.987812 0
-0.0515188 0.131728 0.989946 0
-0.0522201 0.139364 0.988863 0
-0.0499635 0.143009 0.988459 0
-0.0483486 0.137798 0.98928 0
-0.0411702 0.141797 0.989039 0
-0.0353002 0.147565 0.988422 0
-0.0320371 0.161703 0.986319 0
-0.0380409 0.132521 0.99045 0.0160231
-0.0392291 0.130971 0.99061 0.0261813
-0.0431704 0.12534 0.991174 0.0300198
-0.0402614 0.125718 0.991249 0.018338
-0.0368886 0.11676 0.992475 0.00621538
-0.0380393 0.105535 0.993688 0.00446462
-0.0284129 0.105862 0.993975 0
-0.0273287 0.0996587 0.994646 0
-0.0274996 0.109537 0.993602 0
-0.0208565 0.0994125 0.994828 0
-0.0212669 0.132946 0.990895 0
-0.0248277 0.115566 0.99299 0
-0.0252082 0.124597 0.991887 0.0054333
-0.0202399 0.147114 0.988912 0
-0.0256903 0.128427 0.991386 0
-0.0338463 0.133681 0.990446 0.00534598
-0.0279447 0.141747 0.989508 0
-0.0266142 0.153308 0.98782 0
-0.0310827 0.127106 0.991402 0
-0.0334732 0.133948 0.990423 0.00674556
-0.036351 0.136823 0.989928 0
-0.0396735 0.13274 0.990357 0.00849856
-0.0391364 0.111078 0.993041 0.00435603
-0.0432997 0.103878 0.993647 0.0164367
-0.0527335 0.122494 0.991067 0.0223814
0.215627 0.0325165 0.975934 0.0331665
0.221359 0.0337269 0.974609 0.0401821
-0.0597994 0.141632 0.988111 0
-0.0528267 0.140301 0.988699 0
-0.0545421 0.120578 0.991204 0
-0.0586505 0.130492 0.989713 0
-0.0528561 0.16062 0.9856 0
-0.0513749 0.153491 0.986814 0
-0.0490568 0.142508 0.988577 0
-0.0374216 0.149563 0.988044 0
-0.0359942 0.139665 0.989544 0
-0.0374065 0.13204 0.990538 0.0253859
-0.035284 0.130988 0.990756 0.0252029
-0.0355493 0.123274 0.991736 0.0246792
-0.0367297 0.114252 0.992773 0.0200796
-0.0307487 0.126899 0.991439 0
-0.0342645 0.123399 0.991765 0.0017736
-0.0303535 0.124607 0.991742 0
-0.0292699 0.111801 0.993299 0
-0.027921 0.112108 0.993304 0
-0.028113 0.128038 0.991371 0
-0.0237655 0.139138 0.989988 0
-0.0224304 0.141221 0.989724 0
-0.0263118 0.129928 0.991174 0
-0.021787 0.144042 0.989332 0
-0.024901 0.138162 0.990097 0
-0.0282767 0.123406 0.991953 0
-0.0329752 0.13074 0.990868 0
-0.0296413 0.132712 0.990711 0
-0.0304823 0.134389 0.99046 0
-0.0344387 0.130014 0.990914 0.010688
-0.0389396 0.134317 0.990173 0.0168139
-0.0403884 0.128636 0.990869 0.0110578
-0.0390843 0.114997 0.992597 0.0178003
-0.0431659 0.129139 0.990687 0.0162244
-0.0453808 0.138494 0.989323 0.0178234
-0.0417858 0.138493 0.989482 0.00715078
-0.037672 0.138063 0.989707 0.00129608
-0.0507136 0.127017 0.990603 0.00760236
-0.0492168 0.120065 0.991545 0.0041759
-0.0553187 0.0933053 0.9941 0.0127075
-0.0494124 0.104967 0.993247 0
0.212482 0.0464112 0.976062 0.0237082
0.205091 0.0429266 0.977801 0.0290885
-0.0505095 0.156176 0.986437 0
-0.0528459 0.146543 0.987792 0
-0.0434 0.15214 0.987406 0
-0.0388682 0.149502 0.987997 0.000686495
-0.0395174 0.131305 0.990554 0.0147582
-0.0383249 0.134753 0.990138 0.0283466
-0.0303641 0.133711 0.990555 0.0169805
-0.0313679 0.137619 0.989988 0.0113739
-0.032261 0.115882 0.992739 0
-0.0338 0.121789 0.99198 0
-0.0319677 0.138431 0.989856 0
-0.0260143 0.131574 0.990965 0
-0.0291205 0.122938 0.991987 0
-0.0270395 0.13538 0.990425 0
-0.0246916 0.131157 0.991054 0
-0.0273416 0.135274 0.990431 0
-0.0261122 0.135081 0.99049 0
-0.0243866 0.146744 0.988874 0
-0.0220636 0.127754 0.99156 0
-0.0266402 0.13005 0.991149 0.00201464
-0.0283035 0.139045 0.989881 0.00195967
-0.0287793 0.128136 0.991339 0.0007154
-0.0344468 0.139292 0.989652 0
-0.0438944 0.121651 0.991602 0.0259913
-0.0366636 0.131303 0.990664 0.0165851
-0.0328249 0.122909 0.991875 0.0237298
-0.0425669 0.122477 0.991558 0.0260901
-0.0345897 0.133232 0.990481 0.0136525
-0.0426095 0.125708 0.991152 0.0222914
-0.0422538 0.142089 0.988952 0.000691669
-0.0380303 0.151451 0.987733 0
-0.0387903 0.130846 0.990644 0
-0.0465777 0.125026 0.991059 0
-0.0457151 0.138628 0.989289 0
-0.0507671 0.107872 0.992868 0.00773586
-0.0459691 0.1165 0.992126 0
-0.0469813 0.105724 0.993285 0
-0.0511907 0.0975396 0.993914 0.00536025
-0.0530431 0.0992965 0.993643 0
0.191527 0.0511893 0.980152 0.0224531
0.202157 0.0441161 0.978359 0.0295706
-0.0447305 0.120802 0.991668 0
-0.0508226 0.135741 0.98944 0.021988
-0.0435161 0.134833 0.989912 0.0235943
-0.0378854 0.145804 0.988588 0.0161601
-0.0356418 0.127998 0.991134 0.0208224
-0.0282372 0.1439 0.989189 0.00617628
-0.0321255 0.124829 0.991658 0.00374911
-0.0363717 0.11586 0.992599 0.0145591
-0.0352185 0.128435 0.991092 0
-0.0348641 0.130908 0.990781 0
-0.0331943 0.135195 0.990263 0
-0.031298 0.125074 0.991654 0
-0.027621 0.143117 0.98932 0
-0.023675 0.147317 0.988806 0
-0.0225684 0.146396 0.988969 0
-0.0161499 0.149518 0.988627 0
-0.0230876 0.145443 0.989097 0
-0.0228041 0.14124 0.989713 0
-0.0278706 0.136679 0.990223 0
-0.0291368 0.121419 0.992174 0.0067153
-0.0320598 0.120923 0.992144 0.0143199
-0.0395019 0.120059 0.991981 0.0194211
-0.043221 0.113593 0.992587 0.021899
-0.0397652 0.119623 0.992023 0.0251552
-0.0470755 0.12748 0.990723 0.0330601
-0.0357915 0.125098 0.991499 0.0243411
-0.0319425 0.128951 0.991136 0.00515204
-0.0377051 0.148502 0.988193 0
-0.0363143 0.144661 0.988815 0
-0.03458 0.134503 0.99031 0
-0.0326896 0.140063 0.989603 0
-0.0422953 0.139778 0.989279 0
-0.0452337 0.133092 0.990071 0
-0.0490715 0.119325 0.991642 0.00223961
-0.0507939 0.107657 0.99289 0.00189735
-0.0491071 0.103714 0.993394 0.00237527
-0.0503986 0.0895347 0.994708 0.00637453
-0.0544844 0.102209 0.99327 0
-0.0596728 0.0929645 0.99388 0.00308483
-0.0531935 0.0976605 0.993797 0
0.187386 0.0370729 0.981586 0.021372
0.196873 0.0384098 0.979676 0.0189104
0.208546 0.0440558 0.97702 0.0235547
-0.0488274 0.136329 0.98946 0.0281031
-0.0388551 0.128666 0.990927 0.0213647
-0.0379352 0.119408 0.99212 0.0174684
-0.0352858 0.129452 0.990958 0
-0.0382641 0.126992 0.991165 0.00567879
-0.0306178 0.134502 0.99044 0
-0.0305264 0.129377 0.991125 0
-0.0266294 0.133317 0.990716 0
-0.0190528 0.150405 0.988441 0
-0.0212548 0.139451 0.990001 0
-0.0160965 0.152012 0.988247 0
-0.022439 0.153363 0.987915 0
-0.0273613 0.133581 0.99066 0
-0.0331745 0.135169 0.990267 0.00216078
-0.0362807 0.121079 0.99198 0.0163565
-0.0393808 0.114891 0.992597 0.0267233
-0.0424808 0.113043 0.992682 0.0214659
-0.0440108 0.118666 0.991958 0.0276958
-0.0449444 0.11598 0.992234 0.0255827
-0.0370115 0.131975 0.990562 0.0242533
-0.0348116 0.129995 0.990903 0.0110342
-0.0324885 0.141049 0.989469 0.00512215
-0.0306837 0.149335 0.98831 0
-0.0323793 0.141432 0.989418 0
-0.0341522 0.152807 0.987666 0
-0.0380353 0.132057 0.990512 0
-0.0411165 0.126172 0.991156 0
-0.041184 0.123217 0.991525 0
-0.0417659 0.126639 0.991069 0
-0.0378964 0.11921 0.992146 0
-0.0362136 0.110146 0.993255 0
-0.0503511 0.0980848 0.993903 0
-0.0500105 0.105897 0.993119 0.00667382
-0.0519322 0.0870063 0.994853 0.00267342
-0.0557439 0.0857578 0.994755 0
-0.0586676 0.0897499 0.994235 0
0.188496 0.022849 0.981808 0.0361441
0.206437 0.0251068 0.978138 0.0372883
0.212431 0.0234109 0.976896 0.0415022
-0.0228113 0.148924 0.988585 0
-0.0219202 0.14085 0.989788 0
-0.0183564 0.148797 0.988697 0
-0.0143156 0.143139 0.989599 0
-0.0179474 0.147759 0.988861 0
-0.0216927 0.139587 0.989972 0
-0.0270285 0.146868 0.988787 0
-0.0386058 0.128784 0.990921 0.0243243
-0.0400663 0.129151 0.990815 0.026731
-0.0433768 0.112886 0.992661 0.0279902
-0.0475464 0.100341 0.993816 0.0343303
-0.0390235 0.123244 0.991609 0.0143508
-0.0379165 0.112985 0.992873 0.00621278
-0.0321488 0.13431 0.990418 0
-0.0334199 0.149025 0.988268 0
-0.030363 0.151723 0.987957 0
-0.0294186 0.152968 0.987793 0
-0.0395844 0.14771 0.988238 0
-0.0401396 0.143252 0.988872 0
-0.0369084 0.126895 0.991229 0
-0.0401759 0.128071 0.990951 0
-0.0372619 0.120123 0.992059 0
-0.0413915 0.108114 0.993276 0
-0.0450161 0.11201 0.992687 0
-0.0467864 0.106238 0.993239 0
-0.048298 0.0945457 0.994348 0
-0.050741 0.093337 0.994341 0
-0.0469155 0.0932639 0.994535 0
0.194259 -0.00308549 0.980945 0.0389628
0.208196 0.0133328 0.977996 0.0345277
0.216437 0.0165626 0.976156 0.0284904
-0.0243071 0.143978 0.989282 0
-0.0236347 0.146052 0.988995 0
-0.0152765 0.158134 0.9873 0
-0.0282809 0.138238 0.989995 0
-0.0408877 0.129917 0.990682 0.0243819
-0.0406222 0.126957 0.991076 0.0268238
-0.0449469 0.103638 0.993599 0.0206638
-0.0462153 0.101347 0.993777 0.0179151
-0.0430241 0.110433 0.992952 0.016409
-0.0402012 0.120735 0.99187 0.00956303
-0.0323548 0.127278 0.991339 0.00125758
-0.031062 0.148155 0.988476 0
-0.0327905 0.150546 0.988059 0
-0.0286446 0.159612 0.986764 0
-0.0323227 0.15604 0.987222 0
-0.035181 0.14692 0.988523 0
-0.034315 0.114826 0.992793 0
-0.0317081 0.13663 0.990115 0
-0.0346253 0.126535 0.991358 0
-0.0411892 0.114699 0.992546 0
-0.0436773 0.120148 0.991795 0
-0.0400832 0.107686 0.993377 0
-0.0489345 0.0919165 0.994564 0
-0.054547 0.0878736 0.994637 0.00450527
-0.0489691 0.0819218 0.995435 0.00285512
-0.0568834 0.0703304 0.995901 0.0207767
-0.0516897 0.0821961 0.995275 0.0208926
0.200447 0.0137212 0.979609 0.0338296
0.213307 0.0103929 0.97693 0.0394831
0.21718 0.0265965 0.975769 0.0319545
-0.0253809 0.140665 0.989732 0
-0.0384233 0.0999456 0.994251 0.0162497
-0.0508416 0.0940316 0.99427 0.0270884
-0.0470236 0.10718 0.993127 0.0213927
-0.0376244 0.111813 0.993017 0.00255679
-0.0302895 0.144039 0.989108 0
-0.0268151 0.147677 0.988672 0
-0.0297129 0.149849 0.988262 0
-0.0286747 0.138081 0.990006 0
-0.0353537 0.132874 0.990502 0
-0.0366405 0.126274 0.991318 0
-0.0385027 0.109072 0.993288 0
-0.0430105 0.110351 0.992962 0
-0.0458574 0.104694 0.993447 0
-0.0393676 0.109832 0.99317 0
-0.0421869 0.114785 0.992494 0
-0.0433829 0.100309 0.99401 0
-0.0533015 0.103248 0.993226 0.0062134
-0.0573193 0.105112 0.992807 0.00890573
-0.0569837 0.0865179 0.994619 0.0159649
-0.0512491 0.0812781 0.995373 0.0196571
-0.0510697 0.0873773 0.994865 0.0237034
-0.0557311 0.0846355 0.994852 0.0200274
-0.0577602 0.0686916 0.995964 0.0304843
0.1706 0.0199861 0.985138 0.0173104
0.187719 0.0169614 0.982076 0.0307429
0.205812 0.0293263 0.978152 0.0218192
0.203925 0.0286061 0.978569 0.0206717
-0.0457513 0.0949931 0.994426 0.0189022
-0.0407538 0.105228 0.993613 0.00795851
-0.0417988 0.103117 0.993791 0.0176308
-0.0428938 0.117554 0.99214 0.0215255
-0.0269687 0.132916 0.99076 0
-0.0348561 0.119181 0.992261 0
-0.0382248 0.119346 0.992117 0
-0.0336321 0.117703 0.992479 0
-0.037789 0.11066 0.99314 0
-0.0388466 0.109517 0.993226 0
-0.0483619 0.11455 0.99224 0
-0.0475994 0.121302 0.991474 0
-0.0475125 0.115613 0.992157 0.00829016
-0.0515486 0.101459 0.993503 0.0139124
-0.0552496 0.106242 0.992804 0
-0.0587894 0.0925613 0.99397 0.0101954
-0.0585614 0.0809734 0.994994 0.00579193
-0.0585511 0.072891 0.99562 0.0218354
-0.0617699 0.0860552 0.994374 0.0224736
-0.0651303 0.0632327 0.995871 0.0419983
-0.0543078 0.0802256 0.995296 0.0321747
-0.0515397 0.0936747 0.994268 0.0309553
0.163691 0.0267939 0.986148 0.00155244
0.184511 0.0192975 0.982641 0.0130262
0.197919 0.0190798 0.980033 0.0129674
0.203637 0.0188455 0.978865 0.0049544
-0.0424544 0.101568 0.993922 0.0091644
-0.0411327 0.111337 0.992931 0.0200936
-0.0372293 0.110393 0.993191 0.0217986
-0.0301 0.125891 0.991587 0
-0.0341541 0.109597 0.993389 0
-0.0406819 0.122996 0.991573 0
-0.0408772 0.110718 0.993011 0
-0.0390521 0.108835 0.993293 0
-0.0430315 0.103881 0.993658 0
-0.0468723 0.106101 0.99325 0
-0.048053 0.110667 0.992695 0
-0.0477741 0.115959 0.992104 0.000893938
-0.0567859 0.0973815 0.993626 0.0011152
-0.0526669 0.0962797 0.99396 0
-0.0550376 0.0863062 0.994747 0.010335
-0.0537111 0.0967823 0.993855 0.00975213
-0.0670871 0.0716138 0.995174 0.0344586
-0.0633983 0.0809915 0.994696 0.0306407
-0.0581031 0.0795332 0.995137 0.0362261
-0.0493289 0.0831657 0.995314 0.0315811
-0.0506717 0.0914433 0.99452 0.0273959
-0.0565181 0.0890482 0.994423 0.0303418
0.151866 0.00535935 0.988387 0.0124153
0.171528 0.0187069 0.985002 0.0133672
0.1784 0.0165504 0.983819 0.0175601
0.198172 0.0177457 0.980007 0.0164981
-0.0433161 0.107959 0.993211 0.0199581
-0.0385658 0.114546 0.992669 0.0145498
-0.0347626 0.109275 0.993403 0
-0.0414986 0.087835 0.99527 0
-0.0450483 0.106066 0.993338 0
-0.0427397 0.0934894 0.994702 0
-0.0508348 0.0943591 0.994239 0
-0.0574165 0.100006 0.993329 0
-0.0573008 0.109835 0.992297 0
-0.0603888 0.10371 0.992773 0
-0.0575568 0.105557 0.992746 0
-0.0598063 0.0924834 0.993917 0.00816625
-0.0621872 0.0840407 0.99452 0.0129211
-0.0689908 0.0690057 0.995228 0.0310957
-0.0639473 0.0697831 0.99551 0.0291829
-0.0627678 0.0639058 0.99598 0.0255604
-0.060083 0.0705748 0.995695 0.0369811
-0.0562594 0.0901878 0.994334 0.0272782
-0.0484367 0.0960779 0.994195 0.0119598
-0.0554896 0.0864502 0.99471 0.0218119
0.169902 0.00689342 0.985437 0.0238481
0.17763 0.0126027 0.984017 0.0233589
0.204666 0.00404608 0.978823 0.0376353
-0.0463121 0.103277 0.993574 0.00607034
-0.0449565 0.0922148 0.994724 0
-0.0402005 0.0876029 0.995344 0
-0.0467871 0.0860433 0.995192 0
-0.0485155 0.077334 0.995824 0
-0.0527487 0.0846432 0.995014 0
-0.0569359 0.0964165 0.993711 0
-0.0631926 0.0951445 0.993456 0
-0.070958 0.0823441 0.994075 0.005464
-0.058376 0.0979704 0.993476 0
-0.0625752 0.0870467 0.994237 0.0075043
-0.067228 0.0802461 0.994505 0.0174144
-0.0682871 0.0698627 0.995217 0.0185991
-0.0586064 0.0728207 0.995622 0.0164098
-0.0632598 0.0692066 0.995595 0.03542
-0.0595979 0.0667294 0.99599 0.0177887
-0.0631007 0.0825935 0.994584 0.0255988
-0.0608709 0.0756407 0.995275 0.0261033
-0.0650808 0.0832833 0.994399 0.0146797
-0.057424 0.0844353 0.994773 0.00922468
0.178718 -0.00711747 0.983874 0.0472649
0.183407 -0.00310121 0.983032 0.0459568
0.20647 -0.0131736 0.978364 0.0538963
-0.0482996 0.076336 0.995912 0
-0.0455476 0.077211 0.995974 0
-0.047437 0.0708794 0.996356 0
-0.0547914 0.0741784 0.995739 0
-0.0626589 0.0715934 0.995464 0.00694599
-0.0579435 0.0738362 0.995586 0
-0.0634779 0.0815548 0.994645 0
-0.065187 0.0911122 0.993705 0
-0.0625863 0.0778354 0.995 0
-0.0653451 0.071971 0.995264 0.00715141
-0.0656132 0.0684874 0.995492 0.0105764
-0.0582862 0.0769658 0.995329 0.00542965
-0.0579108 0.073805 0.99559 0.00929259
-0.0578944 0.0716566 0.995748 0.0212136
-0.0625503 0.072584 0.995399 0.016873
-0.0613209 0.0686961 0.995751 0.0203177
-0.0641265 0.0696641 0.995507 0.0155437
-0.070644 0.0628933 0.995517 0.0284751
-0.0636001 0.0754092 0.995122 0.0169717
-0.0624477 0.0771172 0.995064 0.0147767
-0.0641668 0.0528756 0.996537 0.021168
-0.0619728 0.0574297 0.996424 0.0170056
0.180283 -0.0234087 0.983336 0.0608958
0.185784 -0.0274878 0.982206 0.0562181
0.205119 -0.0236144 0.978452 0.0445716
0.220885 -0.029724 0.974847 0.0463586
-0.0501607 0.06891 0.996361 0
-0.0468054 0.0586375 0.997181 0
-0.0446183 0.0816809 0.995659 0
-0.0496404 0.0796199 0.995588 0
-0.0577158 0.072264 0.995714 0
-0.0662402 0.0824399 0.994392 0.00586281
-0.0623572 0.0817701 0.994699 0
-0.0628293 0.0694837 0.995603 0
-0.0636202 0.0707508 0.995463 0.00691134
-0.0567879 0.0800317 0.995173 0
-0.0536568 0.0661351 0.996367 0
-0.0587401 0.0571188 0.996638 0.00681428
-0.0626513 0.0565694 0.996431 0.00581033
-0.0566899 0.0678164 0.996086 0.00867377
-0.0593693 0.0658227 0.996064 0.0103518
-0.0647351 0.0615142 0.996005 0.0123429
-0.0747939 0.0502994 0.99593 0.0331619
-0.0714864 0.0615852 0.995539 0.0236542
-0.0671083 0.0639828 0.995692 0.01372
-0.0643598 0.0512353 0.996611 0.01439
-0.0655024 0.0533629 0.996424 0.0254182
-0.0526225 0.0548886 0.997105 0.0142992
-0.0504098 0.0467632 0.997633 0.0188191
0.170755 -0.0307631 0.984833 0.0459243
0.195165 -0.0372573 0.980063 0.055313
0.214611 -0.0385683 0.975938 0.0352536
-0.0505364 0.0588567 0.996986 6.75015e-06
-0.0488194 0.0555072 0.997264 0
-0.0531566 0.0648911 0.996476 0
-0.0515769 0.0744174 0.995892 0
-0.0506281 0.0702347 0.996245 0
-0.0507807 0.0812928 0.995396 0
-0.0541582 0.0590983 0.996782 0
-0.060525 0.0687899 0.995794 0.00748704
-0.0603776 0.0661782 0.995979 0.00035829
-0.056276 0.0528017 0.997018 0.000565252
-0.0612251 0.041782 0.997249 0.0118093
-0.0595593 0.0466097 0.997136 0.00850489
-0.0489124 0.0622712 0.99686 0.00203614
-0.0534117 0.0456053 0.997531 0.00507167
-0.0668286 0.05271 0.996371 0.0247684
-0.0726666 0.048234 0.996189 0.025826
-0.0779571 0.0413732 0.996098 0.0277535
-0.0698599 0.0528501 0.996156 0.0171772
-0.0645928 0.0342525 0.997324 0.0230907
-0.0637368 0.0449245 0.996955 0.0264544
-0.0537399 0.0333464 0.997998 0.0282661
-0.046577 0.0370552 0.998227 0.0199463
0.171196 -0.037675 0.984516 0.0525963
0.182935 -0.042745 0.982195 0.0525582
0.185024 -0.0474257 0.981589 0.0572387
0.210712 -0.045144 0.976505 0.0555263
-0.0452706 0.0435243 0.998026 0
-0.0501274 0.0564127 0.997148 0
-0.0509595 0.0464128 0.997622 0.000194426
-0.0529651 0.061524 0.996699 0
-0.0572286 0.0586621 0.996636 0.00538871
-0.0616603 0.056684 0.996486 0.0060963
-0.0552844 0.0370989 0.997781 0.0011584
-0.0577984 0.0350904 0.997711 0.00442709
-0.0568402 0.0383776 0.997645 0.00474744
-0.0514695 0.0514795 0.997347 0
-0.0525068 0.0436121 0.997668 0.00369147
-0.067732 0.0374243 0.997001 0.035523
-0.0635947 0.0383028 0.99724 0.0162811
-0.0770693 0.0305939 0.996556 0.0245713
-0.0737752 0.0257683 0.996942 0.0347557
-0.0713493 0.0285674 0.997042 0.0323537
-0.0698698 0.0250687 0.997241 0.0394042
-0.0570408 0.020996 0.998151 0.0369226
-0.0470776 0.0271674 0.998522 0.0303154
-0.0448243 0.0295468 0.998558 0.0150771
0.1672 -0.0486455 0.984722 0.0443778
0.176004 -0.0510063 0.983067 0.0509224
0.21108 -0.0461541 0.976379 0.0580713
0.213791 -0.0423385 0.975962 0.0506128
-0.0465193 0.0406254 0.998091 0
-0.050139 0.035644 0.998106 0.00055776
-0.055325 0.0574406 0.996815 0
-0.0588554 0.0441094 0.997292 0.00633087
-0.0532735 0.0374086 0.997879 0.00331693
-0.0528355 0.0425048 0.997698 0
-0.0510418 0.0477901 0.997552 0.00808568
-0.0492056 0.0465975 0.997701 0.0026148
-0.0547399 0.0375883 0.997793 0.0191139
-0.0654459 0.021261 0.99763 0.0212395
-0.0650721 0.0243369 0.997584 0.017766
-0.062944 0.0198938 0.997819 0.0112583
