# .PCD v0.7 - Point Cloud Data file format
VERSION 0.7
FIELDS x y z
SIZE 4 4 4
TYPE F F F
COUNT 1 1 1
WIDTH 1378
HEIGHT 1
VIEWPOINT 0 0 0 1 0 0 0
POINTS 1378
DATA ascii
-0.11790667 -0.23968701 -0.40504202
-0.118278 -0.23952875 -0.40516025
-0.11807275 -0.2394975 -0.40510175
-0.117897 -0.23950751 -0.40504301
-0.11810733 -0.23931654 -0.40512034
-0.117887 -0.23932783 -0.40505317
-0.117758 -0.239255 -0.40500101
-0.118325 -0.239096 -0.405195
-0.11809589 -0.23910043 -0.40512335
-0.117876 -0.23911268 -0.40505001
-0.117751 -0.23911101 -0.40500602
-0.11831433 -0.23887999 -0.40519068
-0.11812982 -0.23888367 -0.40512481
-0.11790822 -0.23889354 -0.40506443
-0.117739 -0.238895 -0.40501067
-0.118305 -0.23869801 -0.40518248
-0.11812075 -0.238703 -0.40511724
-0.11788674 -0.23868749 -0.40505591
-0.1177295 -0.2387155 -0.40500748
-0.118296 -0.23851967 -0.40518132
-0.11811117 -0.23852301 -0.40511653
-0.11791784 -0.23852016 -0.40506434
-0.117798 -0.238464 -0.40503699
-0.11828434 -0.23830301 -0.40517935
-0.11809999 -0.23830752 -0.4051145
-0.11792284 -0.23831683 -0.40505567
-0.11775032 -0.23831999 -0.40501082
-0.11827368 -0.238087 -0.40516365
-0.11808934 -0.23809099 -0.40510198
-0.11791068 -0.23810083 -0.40506586
-0.11773866 -0.238104 -0.40501666
-0.118265 -0.23790801 -0.4051525
-0.11807833 -0.237875 -0.40509447
-0.11790033 -0.23788451 -0.4050453
-0.117748 -0.23790599 -0.40503174
-0.118482 -0.23766299 -0.40519431
-0.11825667 -0.23772602 -0.40513197
-0.1180695 -0.23769501 -0.40507674
-0.117881 -0.2376838 -0.40504497
-0.117761 -0.237745 -0.40501201
-0.118441 -0.237569 -0.40519899
-0.11831867 -0.23750585 -0.40516484
-0.11805951 -0.23751533 -0.40508783
-0.1178906 -0.2375098 -0.40502381
-0.11844699 -0.2372648 -0.40518999
-0.11830784 -0.23728985 -0.40515482
-0.11804882 -0.23729865 -0.40507901
-0.117881 -0.237323 -0.40501642
-0.1184632 -0.2370902 -0.40518421
-0.118284 -0.23708899 -0.40512061
-0.118083 -0.23708268 -0.40506101
-0.1179505 -0.23708616 -0.4050138
-0.11846777 -0.23691633 -0.40516779
-0.11830499 -0.2369144 -0.40512198
-0.1180745 -0.23690349 -0.40503401
-0.11798701 -0.236903 -0.40500599
-0.11847485 -0.23670971 -0.40514785
-0.1183095 -0.23670201 -0.40510225
-0.11806633 -0.23672266 -0.40500903
-0.11849285 -0.23647043 -0.40514895
-0.118365 -0.23648985 -0.40513301
-0.11813901 -0.2364898 -0.40503082
-0.11850768 -0.23629867 -0.40514433
-0.11835501 -0.2362745 -0.40510169
-0.11815175 -0.23630574 -0.40500975
-0.11849855 -0.23611911 -0.40513623
-0.1183465 -0.236095 -0.40508074
-0.118177 -0.23610699 -0.405011
-0.11848766 -0.2359032 -0.4051235
-0.11833799 -0.23591484 -0.40506399
-0.118172 -0.235999 -0.40500501
-0.1186435 -0.235641 -0.40518701
-0.11848713 -0.23569587 -0.40510887
-0.11833829 -0.23568858 -0.40504059
-0.11866933 -0.23548366 -0.40516302
-0.11850725 -0.235505 -0.40508229
-0.1183632 -0.23548 -0.40501642
-0.11867717 -0.23531549 -0.40514982
-0.118499 -0.23532484 -0.40506002
-0.11836699 -0.23531133 -0.405013
-0.118803 -0.235168 -0.405191
-0.118686 -0.23509929 -0.40512845
-0.11848884 -0.23510902 -0.40503132
-0.11888351 -0.234908 -0.40519148
-0.11870078 -0.23488323 -0.40512013
-0.11852167 -0.23489 -0.40501764
-0.11887433 -0.23472734 -0.40517333
-0.11871199 -0.23470941 -0.40508956
-0.11854199 -0.234697 -0.40501234
-0.11888526 -0.23449302 -0.40515423
-0.11873066 -0.23452185 -0.40508518
-0.118593 -0.23452699 -0.40502265
-0.11889767 -0.23429382 -0.40512916
-0.11872216 -0.23430733 -0.40502146
-0.119003 -0.234145 -0.40518701
-0.11891537 -0.23406838 -0.40511701
-0.11873375 -0.23410949 -0.40501201
-0.119051 -0.23392732 -0.40518367
-0.118917 -0.23389751 -0.40509936
-0.119041 -0.233712 -0.40515801
-0.11890855 -0.23371847 -0.40507478
-0.1190712 -0.23348019 -0.40515
-0.11893833 -0.23350067 -0.40507331
-0.119072 -0.23327784 -0.40513316
-0.1189285 -0.23328532 -0.40504083
-0.11906324 -0.23309824 -0.40511426
-0.118955 -0.233105 -0.405045
-0.11905533 -0.23291884 -0.40508619
-0.11894667 -0.23292534 -0.405018
-0.11924151 -0.23265 -0.405191
-0.11909467 -0.23269933 -0.40511432
-0.11897833 -0.23275667 -0.40501034
-0.11923499 -0.23250701 -0.405175
-0.11908633 -0.23248534 -0.40505898
-0.118988 -0.232563 -0.40500101
-0.11922767 -0.232328 -0.40512967
-0.119078 -0.232306 -0.4050355
-0.11921734 -0.23211266 -0.40511164
-0.119069 -0.232126 -0.40502766
-0.119207 -0.23189734 -0.40508929
-0.11930666 -0.23172234 -0.40514866
-0.11919551 -0.23164651 -0.405045
-0.119351 -0.23152733 -0.40517965
-0.1191895 -0.23150299 -0.40502
-0.11934167 -0.23131233 -0.40513864
-0.119417 -0.23101801 -0.405195
-0.11933199 -0.231097 -0.40510133
-0.11940966 -0.230875 -0.40518031
-0.11932101 -0.230882 -0.40509668
-0.119451 -0.230765 -0.40516651
-0.11934166 -0.23068799 -0.40509465
-0.11934849 -0.23051967 -0.40509632
-0.1194695 -0.230258 -0.40518951
-0.11933883 -0.230305 -0.40506116
-0.11946133 -0.23007832 -0.40516067
-0.1193525 -0.23010674 -0.40504998
-0.11948267 -0.22988568 -0.40514898
-0.11936466 -0.229873 -0.40502036
-0.11949083 -0.22971649 -0.40512863
-0.119358 -0.22973 -0.40500399
-0.11948758 -0.22949158 -0.40509483
-0.11950428 -0.22929345 -0.40510613
-0.119509 -0.229103 -0.40507948
-0.119671 -0.228843 -0.405186
-0.11950181 -0.22893879 -0.40505499
-0.11966467 -0.2287 -0.40515766
-0.119491 -0.22870833 -0.40505433
-0.11965433 -0.228485 -0.40513265
-0.119481 -0.22849299 -0.40502468
-0.119669 -0.22829001 -0.40513134
-0.11968558 -0.22810973 -0.40512386
-0.11969333 -0.22790258 -0.40510878
-0.11971288 -0.22768413 -0.40510714
-0.11972342 -0.22748728 -0.40510812
-0.11972875 -0.22731288 -0.40510401
-0.11971311 -0.227108 -0.40506423
-0.11974575 -0.22689587 -0.40510261
-0.11971133 -0.22667599 -0.405031
-0.1198305 -0.226474 -0.40517998
-0.11976139 -0.22651239 -0.40509376
-0.11984483 -0.22629283 -0.40515468
-0.11974767 -0.22631299 -0.40505418
-0.11984318 -0.22610067 -0.40514717
-0.1197365 -0.22609667 -0.4050487
-0.119836 -0.22592825 -0.40517601
-0.11973543 -0.22587727 -0.4050667
-0.119839 -0.22578201 -0.40518799
-0.11975667 -0.22571249 -0.4051303
-0.119821 -0.225455 -0.40519601
-0.1197602 -0.225493 -0.40511304
-0.119773 -0.22535799 -0.405148
-0.11968734 -0.22503467 -0.40508565
-0.11973251 -0.22491281 -0.40512371
-0.11970518 -0.2247189 -0.40512565
-0.1195925 -0.2246905 -0.40501201
-0.11964379 -0.22451398 -0.40514097
-0.119557 -0.22449461 -0.40505061
-0.1196115 -0.22431651 -0.40517998
-0.11951149 -0.22428 -0.40510839
-0.119449 -0.22412167 -0.40515068
-0.11924466 -0.22403733 -0.40505299
-0.119416 -0.22399899 -0.40518999
-0.1192335 -0.22389899 -0.40511924
-0.11909 -0.223804 -0.40506703
-0.119225 -0.22378799 -0.40514901
-0.119066 -0.22370131 -0.40513399
-0.1189465 -0.22370249 -0.405036
-0.118933 -0.22358 -0.40518299
-0.11871067 -0.25406766 -0.40495268
-0.118538 -0.25407699 -0.404993
-0.119113 -0.25382799 -0.40490699
-0.11892001 -0.25389162 -0.40490142
-0.11871812 -0.25392213 -0.40486801
-0.118494 -0.25399449 -0.40488449
-0.11834601 -0.253997 -0.4048155
-0.119423 -0.25366899 -0.40497899
-0.1192942 -0.25370377 -0.40494099
-0.11911 -0.2537145 -0.404845
-0.118968 -0.25375801 -0.40487501
-0.119867 -0.25342599 -0.40498
-0.11973201 -0.25347227 -0.404975
-0.11950689 -0.25351065 -0.40490559
-0.11930116 -0.25355467 -0.40484416
-0.1200445 -0.253203 -0.40497398
-0.1199055 -0.2533145 -0.404953
-0.11972633 -0.25328115 -0.40487432
-0.1195895 -0.25331849 -0.404836
-0.12008467 -0.25308952 -0.40494335
-0.11990879 -0.25313899 -0.4048776
-0.119764 -0.25312901 -0.40481201
-0.120317 -0.252893 -0.40495536
-0.12008799 -0.25291014 -0.40486923
-0.119936 -0.252938 -0.404818
-0.120504 -0.25269464 -0.40497366
-0.12030999 -0.25270599 -0.40488601
-0.12016 -0.2527135 -0.40483397
-0.120645 -0.252451 -0.40498999
-0.12051183 -0.25252366 -0.40494516
-0.12030333 -0.25252137 -0.40482903
-0.12063867 -0.25230533 -0.40496996
-0.12050267 -0.25230333 -0.4048965
-0.12062767 -0.2520887 -0.4049603
-0.12049199 -0.25208583 -0.40488085
-0.1206185 -0.2519075 -0.40495551
-0.12048325 -0.25190449 -0.40486801
-0.12066799 -0.25171337 -0.40493974
-0.12052166 -0.25172099 -0.40483865
-0.12067 -0.25151309 -0.40493041
-0.1205315 -0.25148702 -0.40485227
-0.12068149 -0.25128734 -0.40493584
-0.1205445 -0.25128886 -0.40485135
-0.12067081 -0.25108781 -0.40494937
-0.120543 -0.25108659 -0.40485039
-0.1206616 -0.25091401 -0.40493998
-0.120516 -0.25091439 -0.40484062
-0.12065066 -0.25071386 -0.40494832
-0.12051449 -0.25071332 -0.40484616
-0.12064017 -0.25049716 -0.40493414
-0.12050334 -0.2504985 -0.40484616
-0.12062868 -0.25028184 -0.40493765
-0.120492 -0.25028285 -0.404845
-0.12061901 -0.250103 -0.40494329
-0.1204825 -0.25010252 -0.40484402
-0.12060934 -0.24992417 -0.40494838
-0.12047233 -0.24992418 -0.40485814
-0.1206015 -0.24978051 -0.40495598
-0.1205145 -0.24969527 -0.4049038
-0.12050612 -0.24950314 -0.40490687
-0.120399 -0.24942499 -0.404865
-0.12052751 -0.24927984 -0.40493813
-0.1203685 -0.24926275 -0.40485051
-0.1205175 -0.2491015 -0.40495473
-0.12033726 -0.24910051 -0.40483725
-0.12048575 -0.248941 -0.40495622
-0.12032684 -0.24892318 -0.40485647
-0.12044933 -0.24871133 -0.40498301
-0.12031367 -0.24871099 -0.40490082
-0.12030067 -0.24849917 -0.40494034
-0.120089 -0.24842501 -0.40480801
-0.1202665 -0.24830325 -0.40495625
-0.12008101 -0.24828167 -0.40481734
-0.120233 -0.248106 -0.404955
-0.12007099 -0.24810299 -0.404825
-0.119913 -0.248007 -0.404814
-0.12022234 -0.24792899 -0.40497801
-0.12006 -0.24792732 -0.40487
-0.1199075 -0.24790099 -0.40482101
-0.120214 -0.247787 -0.40499899
-0.12004667 -0.24771534 -0.40491167
-0.119898 -0.24772233 -0.40483263
-0.120034 -0.24750233 -0.40494904
-0.11988466 -0.24751 -0.40486801
-0.119779 -0.247437 -0.40480599
-0.120023 -0.247325 -0.4049795
-0.119872 -0.24729665 -0.40490568
-0.11972557 -0.24728642 -0.4048273
-0.119859 -0.24708366 -0.40493798
-0.11969455 -0.2470842 -0.40485111
-0.119848 -0.246906 -0.4049755
-0.11968401 -0.24690533 -0.40487328
-0.11984 -0.246764 -0.40499002
-0.11967389 -0.24672778 -0.40489447
-0.11952101 -0.246692 -0.40481198
-0.11969367 -0.24651419 -0.40494785
-0.11950722 -0.24651633 -0.404843
-0.11968133 -0.246301 -0.40497565
-0.119495 -0.24630277 -0.40486935
-0.11931799 -0.246271 -0.40481099
-0.119642 -0.246123 -0.40499002
-0.11952717 -0.24608733 -0.40492702
-0.11934983 -0.246094 -0.40484953
-0.1195145 -0.24587317 -0.40495715
-0.119337 -0.24588001 -0.40488252
-0.1191975 -0.24584499 -0.40481901
-0.1194615 -0.24569499 -0.40495402
-0.1193265 -0.245702 -0.40490401
-0.119144 -0.2457045 -0.40483299
-0.119452 -0.245516 -0.40496099
-0.11931617 -0.24552351 -0.40492848
-0.11911515 -0.24552657 -0.40484485
-0.118999 -0.245462 -0.404825
-0.119443 -0.245373 -0.404982
-0.1193035 -0.24531014 -0.40496114
-0.11912116 -0.24531233 -0.40488502
-0.118956 -0.24532016 -0.40482354
-0.119283 -0.2451102 -0.40499038
-0.1191085 -0.24509782 -0.40491581
-0.11889491 -0.24510247 -0.40483662
-0.11924 -0.24495301 -0.40499899
-0.119096 -0.24488433 -0.40494397
-0.11889131 -0.24490149 -0.40486789
-0.1187965 -0.244865 -0.40484199
-0.1190855 -0.24470575 -0.4049685
-0.11888877 -0.24467956 -0.404897
-0.11874825 -0.2446705 -0.40484875
-0.119067 -0.2445412 -0.40497962
-0.11887851 -0.24450032 -0.4049122
-0.1187 -0.24447532 -0.40485251
-0.11848199 -0.24444699 -0.40480798
-0.119018 -0.24431334 -0.40499035
-0.11886846 -0.24432233 -0.4049322
-0.1186895 -0.24429749 -0.40487447
-0.11847401 -0.244304 -0.40481001
-0.11886583 -0.24413133 -0.40496317
-0.11870813 -0.24410713 -0.40490511
-0.11846433 -0.24412467 -0.40482298
-0.118374 -0.24408901 -0.40481099
-0.118841 -0.243968 -0.404989
-0.11876217 -0.24389882 -0.40496781
-0.11852118 -0.24391 -0.40488803
-0.11834 -0.24389276 -0.40482199
-0.118181 -0.243853 -0.404818
-0.118731 -0.24375901 -0.404991
-0.11850733 -0.24369733 -0.40494648
-0.11830501 -0.24369867 -0.40486112
-0.11817199 -0.24370967 -0.40484402
-0.11849499 -0.24348183 -0.40496349
-0.11829284 -0.24348401 -0.40487871
-0.11813975 -0.2435105 -0.40483001
-0.11846233 -0.243315 -0.40497267
-0.11828326 -0.24330451 -0.40487927
-0.11810484 -0.24327783 -0.404838
-0.118407 -0.24315999 -0.4049685
-0.11829101 -0.24311486 -0.40491387
-0.11809475 -0.24309799 -0.4048475
-0.117968 -0.24305899 -0.40480101
-0.11827943 -0.24292131 -0.40494272
-0.11808417 -0.24292 -0.40487966
-0.1179365 -0.24290049 -0.40481824
-0.1182574 -0.24271002 -0.40496284
-0.11808956 -0.24269402 -0.40491655
-0.117902 -0.24270535 -0.40485486
-0.11774157 -0.24270557 -0.40482214
-0.1182825 -0.242515 -0.404991
-0.11810234 -0.24248846 -0.40495402
-0.1178895 -0.24249101 -0.40488079
-0.11771634 -0.24250221 -0.40483063
-0.1180765 -0.24229884 -0.40497419
-0.11789543 -0.24226558 -0.40489241
-0.117695 -0.2422806 -0.40482467
-0.11810934 -0.24208134 -0.40498337
-0.1179105 -0.24209601 -0.40490234
-0.11768728 -0.24209298 -0.40483958
-0.11759433 -0.24208467 -0.40481234
-0.11809325 -0.24193275 -0.40499103
-0.11789988 -0.24191611 -0.40491921
-0.11769038 -0.24191912 -0.40486035
-0.1175238 -0.2418876 -0.40481281
-0.118063 -0.24177299 -0.40499499
-0.11789975 -0.24170963 -0.4049305
-0.11768589 -0.24170521 -0.40486819
-0.1175342 -0.241714 -0.40482339
-0.1179195 -0.24148433 -0.40494904
-0.11769342 -0.24149556 -0.40489307
-0.1175125 -0.24151401 -0.4048405
-0.117909 -0.24130474 -0.40496999
-0.1176976 -0.24128589 -0.4049198
-0.11752488 -0.2412875 -0.40486613
-0.11789159 -0.24114001 -0.4049806
-0.11769816 -0.24109817 -0.40492931
-0.11752156 -0.24108045 -0.40488666
-0.11784799 -0.24094599 -0.40498701
-0.11768811 -0.24091867 -0.40494436
-0.11751149 -0.2409005 -0.40490317
-0.11767589 -0.24070366 -0.40496266
-0.11750122 -0.24072154 -0.40491974
-0.11766456 -0.24048768 -0.40496281
-0.11748955 -0.24050546 -0.40492612
-0.1176855 -0.2403065 -0.40496051
-0.11754421 -0.24028243 -0.40493765
-0.11739633 -0.24029601 -0.40489069
-0.117801 -0.24004699 -0.40498701
-0.11767716 -0.24012585 -0.40493652
-0.117528 -0.2400883 -0.40491143
-0.11738601 -0.24008 -0.40486598
-0.117879 -0.23997501 -0.405
-0.11770834 -0.23990743 -0.40495151
-0.1175325 -0.23991162 -0.40490615
-0.117377 -0.23989899 -0.404854
-0.1176971 -0.23969167 -0.40494913
-0.11751589 -0.23970634 -0.4048968
-0.117367 -0.23971899 -0.40485868
-0.11768601 -0.23949631 -0.40495628
-0.1175135 -0.23948309 -0.4049128
-0.11735532 -0.23950434 -0.40487197
-0.11771825 -0.23932926 -0.40498349
-0.1175075 -0.23928912 -0.40492788
-0.11734434 -0.23928966 -0.40486968
-0.11766333 -0.23911633 -0.40496898
-0.11751829 -0.239114 -0.40492994
-0.117333 -0.23907399 -0.40486801
-0.117652 -0.23890001 -0.40496698
-0.11749784 -0.23891376 -0.40493083
-0.117323 -0.238894 -0.40487951
-0.1176615 -0.23866549 -0.40497524
-0.11748616 -0.23869811 -0.40493312
-0.11731467 -0.23871399 -0.40486231
-0.11767575 -0.23850176 -0.40497199
-0.1174819 -0.23848806 -0.40494147
-0.1173265 -0.23847926 -0.40486997
-0.11762167 -0.23832534 -0.40497133
-0.11749033 -0.23829933 -0.40494013
-0.11734116 -0.23827982 -0.4048762
-0.11761066 -0.23810899 -0.40495935
-0.11748144 -0.2381192 -0.40492475
-0.11733175 -0.23809999 -0.40487275
-0.11765834 -0.23788966 -0.40497336
-0.11749364 -0.23789527 -0.40492544
-0.11732266 -0.23792 -0.40486583
-0.11770467 -0.23769568 -0.40498534
-0.11749267 -0.23768485 -0.40490234
-0.11731233 -0.2377045 -0.40484634
-0.11771067 -0.23752798 -0.40497014
-0.11748374 -0.237505 -0.40489015
-0.11732667 -0.23748668 -0.40483665
-0.117825 -0.23724 -0.40499401
-0.11769999 -0.2373125 -0.40495685
-0.11750245 -0.23732254 -0.40487856
-0.11734121 -0.23728299 -0.40483418
-0.117818 -0.23709698 -0.40497836
-0.11768933 -0.23709701 -0.40494332
-0.11749133 -0.23710674 -0.40486801
-0.11734014 -0.23712386 -0.40483314
-0.1178426 -0.23689179 -0.4049812
-0.11767917 -0.23688066 -0.404917
-0.11748078 -0.23689121 -0.40485042
-0.117373 -0.23690234 -0.40482131
-0.11793316 -0.23672616 -0.40497366
-0.11771316 -0.23670101 -0.4049193
-0.11746188 -0.23668537 -0.40483284
-0.11736166 -0.23668635 -0.40481868
-0.118059 -0.236578 -0.40499899
-0.11792234 -0.23651068 -0.40496448
-0.11770434 -0.23652132 -0.40490258
-0.11748416 -0.23651884 -0.40483201
-0.1173775 -0.23650399 -0.40480298
-0.1180435 -0.2362555 -0.40497601
-0.11791184 -0.23629516 -0.40494886
-0.11769333 -0.23630601 -0.40489912
-0.117504 -0.23633176 -0.40481299
-0.11803534 -0.236076 -0.40494701
-0.117902 -0.23607968 -0.40491602
-0.11770771 -0.23610042 -0.40487757
-0.117598 -0.236054 -0.40483803
-0.11809625 -0.23589374 -0.40496674
-0.11789375 -0.23589925 -0.40488899
-0.1177256 -0.23588939 -0.40483379
-0.117593 -0.235947 -0.40482399
-0.11808851 -0.23571484 -0.40493917
-0.1178855 -0.23571984 -0.40486351
-0.117752 -0.235696 -0.40481901
-0.1183185 -0.2354835 -0.4049935
-0.1180785 -0.23549901 -0.40490851
-0.11787584 -0.23550451 -0.40483269
-0.117747 -0.235588 -0.40481001
-0.11830234 -0.23529333 -0.40497133
-0.11810499 -0.23530126 -0.40488899
-0.1179286 -0.23530158 -0.4048284
-0.11832611 -0.23512289 -0.40496933
-0.11813 -0.235102 -0.40488401
-0.11799 -0.23510599 -0.4048295
-0.118436 -0.23489733 -0.40499303
-0.11831667 -0.234908 -0.4049297
-0.118122 -0.23492266 -0.40486035
-0.117985 -0.234998 -0.40481099
-0.11844725 -0.23466274 -0.40496373
-0.11830723 -0.23469289 -0.4048979
-0.11811201 -0.23470734 -0.4048377
-0.11846051 -0.23449925 -0.404953
-0.11829711 -0.23447734 -0.40486956
-0.1181035 -0.23452801 -0.404816
-0.118497 -0.23431778 -0.40492922
-0.11828933 -0.23429866 -0.40483549
-0.1186675 -0.23405699 -0.4049935
-0.11849837 -0.23411062 -0.40490502
-0.11829922 -0.23411788 -0.40482301
-0.11870184 -0.23387682 -0.40497634
-0.11852083 -0.23388416 -0.40488017
-0.1183638 -0.2339112 -0.40481839
-0.1186935 -0.2336975 -0.40495574
-0.1185125 -0.233705 -0.40485698
-0.11881933 -0.23350799 -0.40498534
-0.11868516 -0.23351832 -0.40492967
-0.118504 -0.23352565 -0.40483284
-0.11880933 -0.23329265 -0.40496168
-0.1186755 -0.23330314 -0.40489951
-0.11849317 -0.23331016 -0.40482518
-0.118858 -0.23312168 -0.40497532
-0.11869851 -0.23307651 -0.40488335
-0.118532 -0.233165 -0.40480301
-0.11887667 -0.23292834 -0.40498337
-0.11868871 -0.23289041 -0.40486029
-0.11891034 -0.23268767 -0.4049758
-0.11873733 -0.23272383 -0.40485564
-0.118915 -0.23248701 -0.40494472
-0.11875175 -0.2325245 -0.40483272
-0.11891367 -0.23228067 -0.40491521
-0.118768 -0.232361 -0.40480301
-0.11890549 -0.23210132 -0.40489116
-0.11905966 -0.23191166 -0.40498665
-0.11889645 -0.23192188 -0.40488079
-0.11905033 -0.23169833 -0.40494499
-0.11890984 -0.23173033 -0.40484965
-0.11904067 -0.231483 -0.40490833
-0.11894033 -0.23149101 -0.40482533
-0.11912219 -0.23131661 -0.40493959
-0.11909866 -0.23111816 -0.40489697
-0.11908799 -0.23090298 -0.40488267
-0.11911601 -0.23070276 -0.40487325
-0.1191435 -0.230501 -0.404888
-0.11913633 -0.23032399 -0.40484035
-0.119283 -0.230059 -0.40498698
-0.11913 -0.23018099 -0.40480599
-0.11927634 -0.22988033 -0.40492931
-0.119298 -0.22968866 -0.40491667
-0.1193055 -0.22952081 -0.40489468
-0.1194265 -0.22925851 -0.4049885
-0.11930521 -0.22931919 -0.40487918
-0.11941833 -0.22908001 -0.40496063
-0.119331 -0.22908901 -0.40487167
-0.11944067 -0.22888701 -0.40493569
-0.119321 -0.22887401 -0.40483233
-0.11945701 -0.22873139 -0.40494362
-0.11934167 -0.22868101 -0.40483499
-0.11948299 -0.22849865 -0.40493068
-0.11939466 -0.22851066 -0.404838
-0.11947317 -0.22828282 -0.40492785
-0.119389 -0.22837 -0.40480101
-0.11946459 -0.2280838 -0.40487981
-0.11945681 -0.2279118 -0.40486342
-0.11961851 -0.22766501 -0.40498799
-0.119447 -0.22771001 -0.40487266
-0.11961133 -0.22748701 -0.40493667
-0.119437 -0.22749533 -0.40484264
-0.11960299 -0.227309 -0.40491599
-0.11946975 -0.22726175 -0.40484077
-0.119592 -0.227092 -0.40490752
-0.11965233 -0.22690099 -0.40498164
-0.119584 -0.226914 -0.40487865
-0.11965475 -0.22666524 -0.404971
-0.11957368 -0.22669899 -0.40485635
-0.1196548 -0.2264826 -0.40494782
-0.11956301 -0.226484 -0.40484199
-0.11965821 -0.22630981 -0.40492979
-0.119555 -0.22630599 -0.4048135
-0.11964167 -0.22610767 -0.40493014
-0.11954567 -0.22612534 -0.40481699
-0.1196364 -0.22590479 -0.4049378
-0.11955026 -0.225888 -0.40483975
-0.119651 -0.22574399 -0.404948
-0.11957067 -0.22570933 -0.40486598
-0.1196574 -0.22551301 -0.4049488
-0.11958399 -0.225502 -0.40486601
-0.119625 -0.22524101 -0.40492401
-0.1195745 -0.22532099 -0.40487301
-0.1196366 -0.22510938 -0.40493879
-0.11956433 -0.22510733 -0.40484068
-0.119606 -0.224911 -0.404962
-0.11953417 -0.22486432 -0.40489617
-0.11949561 -0.22468761 -0.40489799
-0.11947966 -0.22452568 -0.40494767
-0.11928 -0.22446901 -0.40481001
-0.119445 -0.224378 -0.404991
-0.11926699 -0.2243005 -0.40487853
-0.11925467 -0.22414465 -0.40493801
-0.11912832 -0.22406133 -0.40487301
-0.119102 -0.223923 -0.40494299
-0.118961 -0.223858 -0.40491098
-0.118796 -0.223838 -0.40481699
-0.1187105 -0.22372749 -0.40489048
-0.11850667 -0.223655 -0.40487599
-0.118397 -0.22363999 -0.404807
-0.1183465 -0.22356451 -0.4048585
-0.094039001 -0.25481001 -0.40460601
-0.093956999 -0.25481799 -0.40464401
-0.093884252 -0.25469527 -0.40463275
-0.093735993 -0.25463769 -0.40465331
-0.093851998 -0.25449598 -0.404623
-0.093703404 -0.25448459 -0.40465102
-0.093564004 -0.25441 -0.40470099
-0.093877599 -0.25429741 -0.40461522
-0.093714006 -0.25430641 -0.40461841
-0.093528993 -0.25428769 -0.40466532
-0.118273 -0.25400099 -0.404789
-0.093877755 -0.25413176 -0.40461802
-0.093696006 -0.25414002 -0.40462101
-0.093498394 -0.25413117 -0.40463319
-0.11862 -0.25382999 -0.404726
-0.11849525 -0.25386676 -0.4047195
-0.118296 -0.25388113 -0.4046925
-0.118912 -0.25369501 -0.40473303
-0.11870616 -0.25370982 -0.40465549
-0.11929834 -0.25343734 -0.40476766
-0.11910633 -0.25351766 -0.404704
-0.1189445 -0.25353524 -0.404652
-0.118703 -0.25359899 -0.404605
-0.11947672 -0.25326729 -0.40473598
-0.11929411 -0.25328666 -0.40469378
-0.1191 -0.2533305 -0.40463001
-0.119855 -0.25304699 -0.40479699
-0.11970633 -0.25307798 -0.40476832
-0.11949533 -0.2530905 -0.40468183
-0.11928733 -0.25310019 -0.40463385
-0.120003 -0.25282499 -0.404798
-0.11987075 -0.25287899 -0.40474623
-0.11971451 -0.25290349 -0.404708
-0.11954139 -0.25291842 -0.40464622
-0.119306 -0.2529875 -0.40460598
-0.120081 -0.252657 -0.40477222
-0.11993386 -0.25269571 -0.40471655
-0.119708 -0.25271675 -0.40463725
-0.119571 -0.252754 -0.40460801
-0.12009975 -0.2524915 -0.40474379
-0.11991771 -0.25252503 -0.40465143
-0.12029367 -0.25230035 -0.40478301
-0.12009284 -0.25230634 -0.40468732
-0.1199556 -0.25231922 -0.40462962
-0.12028434 -0.25207999 -0.40473768
-0.1200946 -0.25210041 -0.404643
-0.119977 -0.25216001 -0.40461001
-0.1202765 -0.25189799 -0.40471101
-0.1201255 -0.25190601 -0.40466049
-0.092995666 -0.251899 -0.40465999
-0.12043067 -0.251719 -0.40478697
-0.12026867 -0.25171533 -0.40467098
-0.120118 -0.25172266 -0.40462065
-0.092985667 -0.25167966 -0.40463665
-0.12041967 -0.25150201 -0.40477502
-0.12025767 -0.25149798 -0.40465701
-0.092919998 -0.25147101 -0.404686
-0.12040967 -0.25128499 -0.40475202
-0.12024766 -0.25128001 -0.40462899
-0.120402 -0.25114101 -0.404744
-0.120292 -0.25108933 -0.40466166
-0.12031033 -0.25092235 -0.40467432
-0.12029835 -0.25070849 -0.40469149
-0.12028717 -0.25049317 -0.40468946
-0.12035633 -0.25028065 -0.40475902
-0.12019467 -0.25027701 -0.40463629
-0.1203465 -0.25010201 -0.404771
-0.120185 -0.25009799 -0.40464449
-0.12033701 -0.249924 -0.40477633
-0.120175 -0.249919 -0.40464935
-0.120326 -0.24970667 -0.40476701
-0.12016366 -0.249704 -0.40465033
-0.120314 -0.24949335 -0.40478531
-0.12015166 -0.24949034 -0.40466598
-0.119998 -0.24942601 -0.40461299
-0.120304 -0.249313 -0.40478301
-0.120139 -0.24927767 -0.40469599
-0.11999 -0.24928534 -0.40462467
-0.1201285 -0.24910051 -0.40472448
-0.119977 -0.249072 -0.40465465
-0.12011833 -0.24892199 -0.40473667
-0.11993233 -0.24888134 -0.40464664
-0.120106 -0.24870867 -0.40476036
-0.11990616 -0.24871467 -0.40464887
-0.119794 -0.24868 -0.40461099
-0.12009551 -0.248532 -0.404789
-0.11989349 -0.24850202 -0.40467599
-0.11976525 -0.24848475 -0.40462101
-0.11988083 -0.24828933 -0.40471017
-0.11973583 -0.24828951 -0.40464434
-0.092673004 -0.248211 -0.40461001
-0.1198584 -0.24809042 -0.40473881
-0.11972316 -0.24807717 -0.40468037
-0.1196 -0.248004 -0.40460399
-0.092666999 -0.24810299 -0.404612
-0.11980601 -0.24790001 -0.40474802
-0.11971276 -0.24789999 -0.40470174
-0.11959299 -0.247899 -0.40462548
-0.092653997 -0.247849 -0.404603
-0.11973366 -0.24772143 -0.40473428
-0.11951715 -0.24772529 -0.40462813
-0.1194 -0.247658 -0.40461501
-0.092644662 -0.24770701 -0.40463933
-0.11971337 -0.24751788 -0.40476638
-0.11952334 -0.24751268 -0.40466952
-0.119367 -0.24749801 -0.40462551
-0.092633665 -0.24748899 -0.404632
-0.119643 -0.24733201 -0.40478301
-0.11951035 -0.24730034 -0.40471101
-0.11933099 -0.24730335 -0.40465
-0.11919 -0.247235 -0.40461001
-0.092623994 -0.247307 -0.40463701
-0.1194975 -0.24708766 -0.40474486
-0.11931816 -0.24709082 -0.40468487
-0.11918233 -0.24709134 -0.40461299
-0.092614673 -0.24712534 -0.4046247
-0.1194766 -0.24688861 -0.40476736
-0.11930517 -0.24687801 -0.40472433
-0.119148 -0.246861 -0.40462226
-0.092602998 -0.24690799 -0.40462199
-0.092598997 -0.24683701 -0.40464401
-0.119461 -0.24673335 -0.40478697
-0.119295 -0.24669899 -0.40473375
-0.11911725 -0.24670249 -0.40463623
-0.11894725 -0.24662299 -0.40460727
-0.092591673 -0.24669068 -0.40462303
-0.11928517 -0.246521 -0.40474901
-0.11910633 -0.24652433 -0.40466401
-0.11894017 -0.24650049 -0.404634
-0.092580996 -0.24647398 -0.40461302
-0.11924975 -0.24632549 -0.40476626
-0.11909334 -0.24631232 -0.40470135
-0.11893024 -0.2463211 -0.40465078
-0.092572004 -0.24629301 -0.40460598
-0.119212 -0.24609435 -0.40479001
-0.11908051 -0.24609865 -0.40473434
-0.11891789 -0.24610779 -0.40467229
-0.092561997 -0.24611168 -0.40461433
-0.119204 -0.245951 -0.40479201
-0.11906783 -0.24588467 -0.4047637
-0.11890467 -0.24589443 -0.40470815
-0.118707 -0.245831 -0.40460801
-0.092549004 -0.245896 -0.40465033
-0.11901233 -0.24567433 -0.40478298
-0.1188919 -0.24568145 -0.40474355
-0.11869834 -0.24568933 -0.40463331
-0.118553 -0.245621 -0.40461701
-0.092536993 -0.24568002 -0.40467098
-0.11888101 -0.24550299 -0.40477315
-0.11868501 -0.24547566 -0.40468034
-0.11854399 -0.245479 -0.40464666
-0.092527002 -0.2455 -0.40467501
-0.118846 -0.245326 -0.40478203
-0.118674 -0.245299 -0.404717
-0.1184905 -0.24529901 -0.40463525
-0.092482999 -0.24533601 -0.40470958
-0.118815 -0.245185 -0.4048
-0.11866333 -0.24512033 -0.40474033
-0.11848017 -0.24512066 -0.40465084
-0.092507996 -0.24509966 -0.40463504
-0.118651 -0.24490766 -0.40476966
-0.11846733 -0.2449075 -0.40468416
-0.1182885 -0.2448775 -0.40461451
-0.092501998 -0.24495199 -0.404605
-0.11864001 -0.244729 -0.40479147
-0.11845383 -0.2446955 -0.40473402
-0.1182765 -0.24470116 -0.40466604
-0.118116 -0.24465466 -0.40461099
-0.092395999 -0.244674 -0.40475401
-0.11844499 -0.244553 -0.40476602
-0.11829638 -0.24447688 -0.40471759
-0.11809251 -0.24448867 -0.4046315
-0.092474997 -0.24444699 -0.404605
-0.092388332 -0.244528 -0.40474534
-0.11828371 -0.24429342 -0.40475002
-0.11807933 -0.24427564 -0.404672
-0.1179178 -0.24426718 -0.40462217
-0.092466332 -0.24430268 -0.40462801
-0.092376672 -0.24431068 -0.40475166
-0.11831 -0.24414401 -0.40476674
-0.11811149 -0.2440985 -0.40471819
-0.11787033 -0.2441045 -0.40463385
-0.11773416 -0.24408317 -0.4046205
-0.092455 -0.244085 -0.40462801
-0.092366338 -0.24409199 -0.40472567
-0.1182755 -0.24394849 -0.404789
-0.11808987 -0.24392937 -0.404751
-0.11787686 -0.2439367 -0.40467286
-0.11774115 -0.24388628 -0.40462819
-0.092445001 -0.24390399 -0.404627
-0.092355005 -0.24387532 -0.40472701
-0.11805381 -0.24371998 -0.4047696
-0.11789414 -0.24370041 -0.40471616
-0.11774388 -0.24371262 -0.40466276
-0.117588 -0.243699 -0.40461349
-0.092438504 -0.2437585 -0.404612
-0.092344001 -0.2436935 -0.40474701
-0.118072 -0.24345499 -0.40479901
-0.11790689 -0.24349488 -0.40474334
-0.1177251 -0.24350865 -0.40469831
-0.11757834 -0.24352001 -0.40462002
-0.092333667 -0.24351434 -0.40477166
-0.11789478 -0.24327976 -0.40476054
-0.11771354 -0.24329369 -0.40470812
-0.117565 -0.24330668 -0.40466735
-0.092411995 -0.24325199 -0.40460899
-0.092322327 -0.24329667 -0.40477368
-0.117885 -0.243119 -0.40477201
-0.11770688 -0.24308746 -0.40473756
-0.117553 -0.24309166 -0.40468502
-0.092404 -0.243108 -0.4046205
-0.092311002 -0.24307935 -0.40476236
-0.117874 -0.242957 -0.40477401
-0.11771763 -0.24290818 -0.40476939
-0.11753967 -0.24287833 -0.40472236
-0.092302501 -0.242898 -0.404746
-0.11765499 -0.242726 -0.404782
-0.117529 -0.242698 -0.40474701
-0.092338331 -0.24271284 -0.40467367
-0.11761866 -0.24251433 -0.40477666
-0.117519 -0.24252002 -0.40476501
-0.092306502 -0.242515 -0.40468299
-0.11760899 -0.2423355 -0.40478599
-0.11750833 -0.24230367 -0.40474901
-0.11683 -0.242246 -0.404607
-0.092272334 -0.24228068 -0.40469801
-0.11749566 -0.24209 -0.40477598
-0.116822 -0.24210399 -0.40461969
-0.11667925 -0.24209124 -0.40460825
-0.092264503 -0.242099 -0.40466851
-0.11681067 -0.241888 -0.404627
-0.11665767 -0.24189551 -0.40461484
-0.092255332 -0.24191667 -0.40465567
-0.116803 -0.24174599 -0.40463099
-0.11668387 -0.24166963 -0.40462434
-0.092247501 -0.24173549 -0.40461802
-0.11668634 -0.24149966 -0.40464965
-0.11654734 -0.24143033 -0.40462032
-0.11668587 -0.24132961 -0.40466624
-0.116555 -0.24127775 -0.40462774
-0.11670067 -0.24110349 -0.40468022
-0.11655249 -0.24112399 -0.40462977
-0.11668917 -0.24088782 -0.40468517
-0.11654025 -0.24089062 -0.40463462
-0.116195 -0.24091733 -0.40460899
-0.116666 -0.2406868 -0.40467602
-0.11652234 -0.24068512 -0.40464747
-0.1161144 -0.24071941 -0.40460539
-0.11668281 -0.24051419 -0.40468961
-0.11650512 -0.24047975 -0.40465751
-0.116177 -0.240559 -0.40460399
-0.11672401 -0.24031132 -0.40471336
-0.1165335 -0.2403079 -0.40467888
-0.115981 -0.240206 -0.40460399
-0.11671233 -0.24009667 -0.40471032
-0.11651359 -0.240108 -0.40467548
-0.11615399 -0.24012701 -0.40460733
-0.1159755 -0.240098 -0.404605
-0.11670033 -0.23988099 -0.40472004
-0.11650217 -0.239893 -0.40467834
-0.116139 -0.23984 -0.40460101
-0.1166915 -0.239701 -0.40470952
-0.11648446 -0.2396851 -0.40469077
-0.116133 -0.239732 -0.404603
-0.116682 -0.23952098 -0.40472031
-0.1164891 -0.23950876 -0.4046931
-0.116116 -0.23941 -0.40460199
-0.11667033 -0.239305 -0.40472135
-0.11648619 -0.2393245 -0.40469497
-0.11639801 -0.23929 -0.40466899
-0.1161105 -0.23930199 -0.40460598
-0.11665901 -0.23909068 -0.40471199
-0.11648432 -0.23910056 -0.40469158
-0.11638866 -0.23911034 -0.40466067
-0.11609999 -0.23912267 -0.40462768
-0.115921 -0.239057 -0.40460199
-0.11664834 -0.23887467 -0.40470502
-0.11647521 -0.23888466 -0.40464777
-0.116379 -0.23889334 -0.40462801
-0.11609 -0.23890701 -0.40460449
-0.115913 -0.23891366 -0.40461135
-0.11664 -0.23869601 -0.40468901
-0.11645957 -0.23869112 -0.4046267
-0.11636867 -0.23867799 -0.40461001
-0.116082 -0.238763 -0.40460899
-0.115904 -0.23873499 -0.404603
-0.11663034 -0.23851602 -0.40469098
-0.11646126 -0.23851626 -0.40465388
-0.116359 -0.238499 -0.404616
-0.11661967 -0.23830067 -0.40467432
-0.116451 -0.23831838 -0.40464872
-0.116375 -0.23831899 -0.404616
-0.11660999 -0.238084 -0.40463665
-0.11645616 -0.23809083 -0.40464553
-0.11639067 -0.23810299 -0.40460801
-0.116602 -0.237942 -0.40465501
-0.11646771 -0.23787455 -0.40462616
-0.11637934 -0.23788698 -0.40460733
-0.11650286 -0.23770843 -0.40462583
-0.117249 -0.23741899 -0.404796
-0.11649429 -0.23753443 -0.40461668
-0.11724401 -0.23731101 -0.40479702
-0.116574 -0.23736601 -0.40460101
-0.117231 -0.237059 -0.40479699
-0.11727367 -0.2369135 -0.40478566
-0.11726318 -0.23669784 -0.40476814
-0.117278 -0.23649216 -0.40475807
-0.1172 -0.236414 -0.404728
-0.11744151 -0.2362825 -0.40478951
-0.11734987 -0.23631752 -0.40477213
-0.1171955 -0.236306 -0.40470499
-0.11747367 -0.2361 -0.40476933
-0.11733469 -0.23611209 -0.40473744
-0.11718767 -0.23612733 -0.40467104
-0.11767 -0.23580401 -0.40479901
-0.11749463 -0.23587337 -0.40475911
-0.11732522 -0.23589677 -0.40470177
-0.117178 -0.23591232 -0.40463367
-0.1176655 -0.23569649 -0.40477002
-0.11749783 -0.23570216 -0.40473261
-0.117315 -0.23568153 -0.40467533
-0.117168 -0.23569699 -0.40460932
-0.1176914 -0.23550281 -0.40475479
-0.11749066 -0.23552267 -0.40468067
-0.11729942 -0.2354883 -0.40464211
-0.11784834 -0.23524232 -0.40479168
-0.11769083 -0.23530184 -0.40473333
-0.1175053 -0.23531613 -0.40465561
-0.11734175 -0.2353086 -0.4046219
-0.1178478 -0.23508939 -0.4047676
-0.11768118 -0.23508668 -0.404699
-0.11751234 -0.23508966 -0.40463817
-0.117341 -0.23517101 -0.40460899
-0.11790816 -0.23491664 -0.40476882
-0.117699 -0.23489818 -0.40467662
-0.11751933 -0.23492201 -0.40461564
-0.11792883 -0.23471232 -0.40474531
-0.11770733 -0.23472479 -0.40467811
-0.11753932 -0.23472868 -0.40460733
-0.118099 -0.23442 -0.40478501
-0.11791801 -0.23449701 -0.40473151
-0.11770875 -0.23451802 -0.40465567
-0.11809266 -0.23427732 -0.40476131
-0.11790901 -0.23428284 -0.40468118
-0.1177315 -0.23429282 -0.40463099
-0.11823 -0.234052 -0.40479901
-0.118085 -0.234098 -0.40472698
-0.11790125 -0.23410399 -0.40465176
-0.1177665 -0.23411 -0.40461802
-0.11825629 -0.23389499 -0.40477672
-0.118077 -0.23391999 -0.40469435
-0.1179026 -0.23394001 -0.40463144
-0.11829183 -0.23368692 -0.40474999
-0.118068 -0.23370533 -0.40465298
-0.11792666 -0.23370999 -0.40461802
-0.11827181 -0.23348701 -0.40471548
-0.11805767 -0.23348999 -0.40462634
-0.11792 -0.233566 -0.404603
-0.11830763 -0.2333165 -0.40471473
-0.11814734 -0.23331434 -0.40466765
-0.1184754 -0.23308161 -0.4047572
-0.11829155 -0.23311165 -0.40467298
-0.118189 -0.23312099 -0.40463629
-0.11847484 -0.23288083 -0.40473452
-0.11828937 -0.23290576 -0.40464538
-0.11818101 -0.232942 -0.4046075
-0.1186065 -0.232696 -0.404773
-0.11846675 -0.23270275 -0.40470552
-0.11833667 -0.23267765 -0.40462768
-0.11865433 -0.23251534 -0.404771
-0.1184935 -0.23251338 -0.40469211
-0.11833 -0.23253401 -0.404616
-0.11870839 -0.23228221 -0.4047772
-0.118541 -0.23230483 -0.40468431
-0.11870801 -0.23208082 -0.40475902
-0.11853132 -0.23209034 -0.40465513
-0.1187 -0.2319015 -0.40472949
-0.11853119 -0.23188958 -0.40464097
-0.11884367 -0.23166333 -0.40478635
-0.11869251 -0.231723 -0.40468964
-0.118562 -0.23169599 -0.404605
-0.118848 -0.2314955 -0.40476432
-0.11868283 -0.23150934 -0.40465951
-0.118556 -0.23158801 -0.404605
-0.1188775 -0.23128814 -0.40475708
-0.1187025 -0.23129183 -0.40464386
-0.11889376 -0.23109876 -0.40474051
-0.11876767 -0.23111868 -0.40465999
-0.11888599 -0.23092134 -0.40470919
-0.11878699 -0.23092568 -0.40465602
-0.119003 -0.2306605 -0.404796
-0.118876 -0.23070651 -0.40468752
-0.118777 -0.230711 -0.404632
-0.11890789 -0.23048753 -0.40471452
-0.118769 -0.230533 -0.40460199
-0.118888 -0.23028323 -0.40467349
-0.1191255 -0.230074 -0.4047845
-0.11895325 -0.2301265 -0.40469798
-0.119117 -0.229895 -0.40476397
-0.118969 -0.22991033 -0.40467533
-0.11910833 -0.22968166 -0.4047133
-0.118962 -0.22973301 -0.404634
-0.1191 -0.22950301 -0.40469402
-0.119249 -0.22924 -0.40479201
-0.11909267 -0.22932567 -0.40465698
-0.11924233 -0.22909667 -0.40477535
-0.119087 -0.229184 -0.40461999
-0.11923266 -0.22888267 -0.40474299
-0.119225 -0.22870401 -0.40470701
-0.11926166 -0.22852284 -0.40472081
-0.11928488 -0.2282975 -0.4047116
-0.11933134 -0.22808701 -0.40472332
-0.1193138 -0.22788939 -0.40467602
-0.119449 -0.22771633 -0.40477398
-0.1193238 -0.22771621 -0.40466881
-0.11943966 -0.22750235 -0.40473732
-0.11934999 -0.22751333 -0.40466401
-0.11942933 -0.22728866 -0.40471634
-0.11934033 -0.22729933 -0.40464234
-0.11941999 -0.22708599 -0.40471759
-0.11933 -0.22708499 -0.40461835
-0.1194118 -0.2269136 -0.40471378
-0.11940375 -0.226749 -0.40469351
-0.1193985 -0.226643 -0.404677
-0.119392 -0.22649968 -0.40466014
-0.11938175 -0.22630075 -0.40467423
-0.119372 -0.22610199 -0.40467799
-0.11936267 -0.225922 -0.40467501
-0.1195235 -0.22566101 -0.404764
-0.11935234 -0.22570767 -0.40464965
-0.11951366 -0.22548068 -0.40477034
-0.11934499 -0.225531 -0.4046165
-0.119506 -0.22530299 -0.40473649
-0.11933 -0.225243 -0.40461248
-0.11949601 -0.22512233 -0.40474832
-0.119322 -0.225098 -0.40462399
-0.119487 -0.22497401 -0.40478301
-0.11930833 -0.22491167 -0.40469703
-0.11929499 -0.22469451 -0.40470168
-0.11928532 -0.22452533 -0.4047167
-0.1191695 -0.22447474 -0.40462175
-0.1192725 -0.22436249 -0.40478098
-0.1191345 -0.22430675 -0.404686
-0.118993 -0.224209 -0.40461901
-0.11910834 -0.22416933 -0.40476069
-0.11892767 -0.22408633 -0.40468231
-0.11886233 -0.22396266 -0.40474299
-0.1186535 -0.2238965 -0.40467101
-0.11848434 -0.22384734 -0.40463266
-0.118642 -0.22377799 -0.40478799
-0.11847575 -0.22375348 -0.40472826
-0.118272 -0.22369726 -0.40467048
-0.117948 -0.223603 -0.404618
-0.118216 -0.22358701 -0.40472999
-0.11806533 -0.22356899 -0.40469733
-0.1178975 -0.2235305 -0.40466648
-0.11775801 -0.2235465 -0.4046185
-0.094437003 -0.25505599 -0.404459
-0.094431996 -0.25490549 -0.40440398
-0.094365001 -0.25491431 -0.40446067
-0.094168499 -0.254899 -0.40447551
-0.094424002 -0.25476199 -0.40441
-0.0943565 -0.25473201 -0.40443999
-0.094109401 -0.25471061 -0.40451479
-0.093951002 -0.25466901 -0.40459901
-0.11543 -0.254412 -0.40450701
-0.115273 -0.25442502 -0.40450898
-0.115166 -0.254421 -0.40444499
-0.094085999 -0.254511 -0.40453187
-0.093944006 -0.25452399 -0.4045957
-0.116462 -0.254273 -0.404452
-0.11632557 -0.25425383 -0.40446129
-0.116118 -0.2542665 -0.404468
-0.11564667 -0.25427666 -0.40446767
-0.11548567 -0.25430867 -0.40444031
-0.11529625 -0.25434473 -0.40446573
-0.094075002 -0.25429267 -0.40452585
-0.093937002 -0.25437999 -0.404594
-0.1165015 -0.25419599 -0.40441602
-0.094003998 -0.25408101 -0.40454331
-0.093873501 -0.25401902 -0.4045915
-0.093691498 -0.25402999 -0.40459752
-0.093548998 -0.254035 -0.40458801
-0.118123 -0.25385001 -0.40457401
-0.093912177 -0.25390068 -0.40451765
-0.093685664 -0.25387934 -0.40454897
-0.093498833 -0.25388917 -0.40454698
-0.11849375 -0.25370699 -0.4045735
-0.118284 -0.2536985 -0.40452653
-0.118122 -0.25372949 -0.40447101
-0.093895748 -0.25372276 -0.40445185
-0.093679495 -0.25369 -0.40446299
-0.093493499 -0.25369725 -0.4044435
-0.093359999 -0.25371051 -0.40452898
-0.118878 -0.25347349 -0.404569
-0.11870163 -0.25350624 -0.40452674
-0.11848817 -0.25351635 -0.40447554
-0.11832561 -0.25355279 -0.40444201
-0.093813002 -0.25356799 -0.40442199
-0.0936765 -0.25357503 -0.40441048
-0.093489498 -0.25358349 -0.40440398
-0.093355 -0.25351831 -0.40441868
-0.119096 -0.25321901 -0.404596
-0.1189155 -0.25328833 -0.40452501
-0.11870538 -0.25330114 -0.40445161
-0.118528 -0.25336099 -0.40440401
-0.093345493 -0.2533395 -0.4044275
-0.1190915 -0.2531085 -0.404571
-0.1189085 -0.25310251 -0.40446702
-0.118776 -0.25314 -0.40442401
-0.119431 -0.25290367 -0.40458035
-0.11928976 -0.25288287 -0.40453613
-0.11908668 -0.25291732 -0.40445635
-0.11891834 -0.25296533 -0.40441766
-0.119704 -0.25260448 -0.40459502
-0.1195148 -0.25266379 -0.40454498
-0.11930782 -0.25269073 -0.40445453
-0.119834 -0.25244999 -0.40458301
-0.1197 -0.25249249 -0.40455925
-0.11951751 -0.25249249 -0.40448648
-0.11936533 -0.25250801 -0.40441465
-0.1198485 -0.252285 -0.40456051
-0.1196925 -0.25230899 -0.40451384
-0.11950984 -0.25230852 -0.40444198
-0.093107253 -0.25229749 -0.4045445
-0.120029 -0.25201201 -0.40459201
-0.11988887 -0.25207525 -0.40454587
-0.119683 -0.25208935 -0.40446714
-0.11951733 -0.25213766 -0.40441501
-0.093084663 -0.25209734 -0.40452316
-0.120024 -0.251903 -0.40459099
-0.11989033 -0.25190249 -0.40452635
-0.119675 -0.25190699 -0.40443751
-0.093069203 -0.2518948 -0.40451217
-0.12001533 -0.25172198 -0.40456602
-0.11989262 -0.25172937 -0.40450326
-0.11974066 -0.25172201 -0.40441766
-0.093059666 -0.25173134 -0.40446201
-0.12005684 -0.25150332 -0.40455619
-0.119912 -0.25150332 -0.40449405
-0.11979201 -0.25150132 -0.4044157
-0.093052194 -0.251497 -0.40443176
-0.092978999 -0.25149351 -0.404576
-0.120098 -0.25128636 -0.40456101
-0.11993299 -0.25128576 -0.40447989
-0.093023002 -0.251331 -0.40441501
-0.092972666 -0.25130501 -0.40450266
-0.1200885 -0.25110701 -0.404558
-0.11992434 -0.25110519 -0.40446547
-0.092961334 -0.25108734 -0.40449867
-0.12007967 -0.25092664 -0.40454698
-0.11991511 -0.25092521 -0.40445766
-0.092932336 -0.25087202 -0.40449598
-0.12006867 -0.2507107 -0.40454033
-0.11990445 -0.25070912 -0.40444344
-0.092920996 -0.25071239 -0.40448642
-0.12005633 -0.250498 -0.40456
-0.11989245 -0.25049531 -0.40445977
-0.092918746 -0.25048801 -0.40445399
-0.12004533 -0.250283 -0.40455136
-0.11988088 -0.25028116 -0.40446389
-0.092881501 -0.25031275 -0.40449226
-0.120035 -0.25010401 -0.40457001
-0.11987168 -0.25010252 -0.40446734
-0.092855997 -0.25007966 -0.404497
-0.120026 -0.24992602 -0.40457466
-0.119895 -0.249925 -0.40448901
-0.11979567 -0.24992366 -0.40444031
-0.092846006 -0.249899 -0.404504
-0.12001399 -0.24971168 -0.40458366
-0.11988316 -0.24970998 -0.40450203
-0.11974861 -0.24969499 -0.40443659
-0.092835329 -0.24972034 -0.40452433
-0.120004 -0.249533 -0.40459502
-0.11987083 -0.24949634 -0.40452251
-0.11972934 -0.24949569 -0.4044435
-0.092826664 -0.249497 -0.40445969
-0.11985883 -0.24928367 -0.40454233
-0.11971733 -0.24928217 -0.40445885
-0.119582 -0.24928933 -0.404412
-0.092817336 -0.24927866 -0.40442732
-0.1198408 -0.24908641 -0.40457541
-0.1197065 -0.24910524 -0.40448725
-0.11953481 -0.24906202 -0.404425
-0.119838 -0.24892926 -0.404589
-0.11969616 -0.24892783 -0.40450951
-0.11951675 -0.24889874 -0.40443975
-0.092802003 -0.24899 -0.404423
-0.0927945 -0.24888301 -0.404461
-0.119801 -0.248788 -0.40459499
-0.1196835 -0.24871516 -0.40454066
-0.11950616 -0.248721 -0.40446463
-0.11936834 -0.24872167 -0.40440765
-0.092762001 -0.2486895 -0.40451151
-0.1196638 -0.2485168 -0.40455079
-0.1194945 -0.24850719 -0.40447617
-0.11935667 -0.24850734 -0.40441898
-0.092730999 -0.24849267 -0.40453449
-0.119616 -0.24828899 -0.404567
-0.11948184 -0.24829435 -0.40450871
-0.1193076 -0.2482802 -0.40443459
-0.092721492 -0.24831125 -0.404526
-0.119606 -0.24811199 -0.4045845
-0.11946901 -0.248082 -0.40454379
-0.11928701 -0.2480825 -0.4044615
-0.11915667 -0.248089 -0.40441832
-0.092754334 -0.24812467 -0.40447533
-0.11945774 -0.247906 -0.40458122
-0.1192755 -0.24790674 -0.40450251
-0.11909883 -0.24785434 -0.40443251
-0.092709601 -0.24792799 -0.40452617
-0.119409 -0.24779899 -0.40458801
-0.11926484 -0.24772917 -0.40453565
-0.11906866 -0.24770166 -0.40445581
-0.11896434 -0.24767299 -0.40442333
-0.092742749 -0.24767274 -0.4044885
-0.119244 -0.24753079 -0.40456337
-0.119075 -0.24753514 -0.40449744
-0.118975 -0.247494 -0.40446424
-0.092741594 -0.2474864 -0.40447578
-0.11910474 -0.24731937 -0.40454888
-0.11896434 -0.24731684 -0.404497
-0.11879467 -0.24732399 -0.40441766
-0.092744 -0.2473112 -0.404452
-0.11906201 -0.24709816 -0.40456101
-0.11895133 -0.24710451 -0.40453148
-0.11878267 -0.24711101 -0.40443432
-0.092715494 -0.24712875 -0.40446377
-0.11904319 -0.2468994 -0.40458339
-0.11893883 -0.24689119 -0.40456
-0.11877 -0.24689834 -0.40446666
-0.092669755 -0.24691525 -0.40449828
-0.119004 -0.246709 -0.40458798
-0.11892167 -0.24672633 -0.40457964
-0.11868733 -0.24668483 -0.40446171
-0.092691749 -0.24667601 -0.40445828
-0.118689 -0.24648741 -0.40451461
-0.1184995 -0.24644965 -0.40444303
-0.092695504 -0.24649476 -0.40446252
-0.118734 -0.24629399 -0.40455502
-0.11850483 -0.24629599 -0.40447116
-0.1183285 -0.246306 -0.40442002
-0.092684835 -0.246315 -0.40448233
-0.11872333 -0.24611633 -0.40458098
-0.11849512 -0.2461168 -0.40447766
-0.1182822 -0.24611261 -0.4044264
-0.092683144 -0.24608657 -0.40447971
-0.11871301 -0.245938 -0.40459698
-0.11852684 -0.24590401 -0.40453914
-0.11830567 -0.24591023 -0.40445921
-0.11813401 -0.24587551 -0.40441948
-0.092660837 -0.2458825 -0.40450683
-0.1185056 -0.24570461 -0.4045704
-0.11829233 -0.24569845 -0.40450478
-0.11807983 -0.24569899 -0.40442833
-0.117951 -0.245635 -0.404405
-0.092651248 -0.24570225 -0.40451825
-0.11845767 -0.24547701 -0.40458131
-0.11832333 -0.24548416 -0.40455115
-0.11810867 -0.24548633 -0.40447745
-0.11789957 -0.24547558 -0.40441456
-0.092641503 -0.24552083 -0.40451336
-0.1183034 -0.2452842 -0.40455842
-0.11809916 -0.24530698 -0.40448102
-0.11788155 -0.24528234 -0.40442866
-0.092636004 -0.24531861 -0.4045206
-0.092597999 -0.24523699 -0.40456399
-0.11831161 -0.24511158 -0.40457439
-0.11810037 -0.24513687 -0.40449524
-0.11788075 -0.24508627 -0.40445077
-0.1177685 -0.2450465 -0.40442401
-0.092646666 -0.24508302 -0.40448132
-0.092591338 -0.24509032 -0.40454531
-0.118295 -0.24498451 -0.40459299
-0.118119 -0.24491383 -0.40454385
-0.11790018 -0.24491744 -0.404486
-0.11770801 -0.2448705 -0.40443951
-0.092637494 -0.244902 -0.40447599
-0.092538998 -0.24487676 -0.40456903
-0.11809433 -0.24474967 -0.40458533
-0.1178968 -0.24471688 -0.40452224
-0.11773384 -0.24470569 -0.40447983
-0.092628665 -0.24472134 -0.40445733
-0.0925394 -0.24471641 -0.4045516
-0.11789456 -0.24449512 -0.40455467
-0.11771967 -0.24451256 -0.40451935
-0.092617668 -0.24450333 -0.40444466
-0.092529595 -0.24452801 -0.40454859
-0.117835 -0.24430224 -0.40458575
-0.11770667 -0.24429911 -0.40454999
-0.092607342 -0.24428566 -0.40442467
-0.092551671 -0.24429233 -0.40449968
-0.11761167 -0.24409032 -0.40454969
-0.092643 -0.244101 -0.40440851
-0.092563406 -0.24408679 -0.40446502
-0.117604 -0.243947 -0.40455401
-0.11759751 -0.24384099 -0.40458
-0.11692566 -0.24389033 -0.40441999
-0.116791 -0.24382199 -0.404401
-0.092635497 -0.243957 -0.40440601
-0.092565 -0.24391301 -0.40446362
-0.11691333 -0.24367566 -0.40444699
-0.11673146 -0.24367043 -0.40442613
-0.092531718 -0.24370228 -0.40449786
-0.116903 -0.243498 -0.404468
-0.1166935 -0.24348941 -0.40443411
-0.092499554 -0.24349755 -0.40452445
-0.11689299 -0.24331801 -0.40447965
-0.1167027 -0.24331549 -0.40444595
-0.092509858 -0.24328944 -0.40449983
-0.11688101 -0.243104 -0.40448967
-0.11668241 -0.24311548 -0.4044542
-0.116318 -0.243062 -0.40440699
-0.092516497 -0.2430965 -0.4044655
-0.11686867 -0.24289 -0.40451202
-0.1166849 -0.2429074 -0.40447825
-0.116596 -0.242872 -0.40445849
-0.11630901 -0.24292 -0.40442801
-0.092506833 -0.24291533 -0.40446898
-0.092395663 -0.24292566 -0.40459201
-0.11685634 -0.24267501 -0.40453133
-0.11668233 -0.24268454 -0.40449345
-0.116586 -0.24269301 -0.40446499
-0.11629733 -0.24270535 -0.40443802
-0.11608966 -0.24266566 -0.40441367
-0.092491806 -0.24271259 -0.404452
-0.116846 -0.242496 -0.40456
-0.11666442 -0.24249144 -0.40451714
-0.116574 -0.24247901 -0.40448603
-0.116286 -0.24248999 -0.40444031
-0.11606517 -0.2424975 -0.40442634
-0.092457674 -0.24248402 -0.40447602
-0.092371002 -0.242456 -0.404594
-0.11683699 -0.24235401 -0.40458351
-0.11666501 -0.24231863 -0.40457049
-0.1165635 -0.24229899 -0.40451199
-0.116274 -0.242276 -0.40445769
-0.11605316 -0.24228399 -0.40444067
-0.1158836 -0.242277 -0.4044168
-0.11573949 -0.2422635 -0.40440398
-0.092447996 -0.242303 -0.40447551
-0.092362337 -0.24227466 -0.40457368
-0.11662801 -0.2421525 -0.4045755
-0.11656425 -0.24210399 -0.40455174
-0.11626349 -0.242098 -0.40447748
-0.11605966 -0.24211566 -0.40443766
-0.11588243 -0.24207656 -0.40443799
-0.115723 -0.2420568 -0.40441698
-0.092438996 -0.24212165 -0.40446767
-0.092354 -0.242093 -0.404551
-0.11656582 -0.24190699 -0.40457651
-0.11625233 -0.24191867 -0.40451035
-0.11607733 -0.241926 -0.40448734
-0.11591115 -0.24191101 -0.4044576
-0.11568388 -0.24188326 -0.40444434
-0.092429332 -0.24190366 -0.40443265
-0.092345327 -0.24191134 -0.40452901
-0.11655434 -0.24169165 -0.40458098
-0.11624 -0.241705 -0.40453401
-0.116065 -0.24171001 -0.40450931
-0.11589874 -0.24172652 -0.40447488
-0.11570175 -0.24170189 -0.40446714
-0.11557899 -0.24170201 -0.40443301
-0.11539301 -0.24167733 -0.40441367
-0.092420503 -0.241723 -0.40441501
-0.092311494 -0.24167775 -0.40453324
-0.11653634 -0.24152465 -0.40458933
-0.11622866 -0.24148966 -0.40454066
-0.116052 -0.24149668 -0.40454435
-0.1159175 -0.24150167 -0.40451917
-0.11569925 -0.24151458 -0.40448841
-0.11554351 -0.24152599 -0.40443468
-0.11532599 -0.24148767 -0.404421
-0.092280835 -0.24147832 -0.40452299
-0.116508 -0.24133299 -0.40459999
-0.11621699 -0.241275 -0.40454897
-0.116039 -0.24128234 -0.40458167
-0.11590517 -0.24128699 -0.40453967
-0.11569491 -0.24130549 -0.40450782
-0.11554129 -0.24130014 -0.40445453
-0.1153062 -0.2413346 -0.40443021
-0.092271745 -0.24129725 -0.40451151
-0.116494 -0.24104799 -0.40459701
-0.1162065 -0.24109599 -0.40456301
-0.11603 -0.24110401 -0.4045735
