-0.0575043 -0.00699396 0.998321 0.0216621
-0.0553968 0.00905823 0.998423 0.0173072
-0.0547947 0.0154987 0.998377 0.0149501
-0.0522455 0.00919716 0.998592 0.0174813
-0.0519785 -0.00887492 0.998609 0.0114556
-0.0521892 -0.00343624 0.998631 0.0170601
-0.0588172 -0.0202952 0.998062 0.0294511
-0.0543017 -0.0242893 0.998229 0.0326525
-0.0461836 -0.00943916 0.998888 0.024758
-0.050914 -0.0173895 0.998552 0.0244956
-0.0530762 -7.51295e-05 0.99859 0.028425
-0.0587221 -0.0238704 0.997989 0.0380663
-0.0581597 -0.0374741 0.997604 0.0330413
-0.0576272 -0.0260893 0.997997 0.0243901
-0.0570465 -0.0155666 0.99825 0.0208482
-0.0573574 -0.0196682 0.99816 0.0203109
-0.058987 -0.0266025 0.997904 0.0207886
0.268353 -0.00759592 0.963291 0.0134819
0.287988 -0.0151784 0.957514 0.0187945
0.300892 -0.0274302 0.953264 0.0285796
-0.056138 0.00265187 0.99842 0.0228255
-0.0572361 -0.00581444 0.998344 0.026122
-0.059232 -0.0132656 0.998156 0.0272703
-0.0643987 -0.022872 0.997662 0.0397622
-0.0657563 -0.0209259 0.997616 0.0364638
-0.0631464 -0.0250403 0.99769 0.0367467
-0.0624872 -0.0207906 0.997829 0.0358299
-0.0575369 -0.0191572 0.99816 0.0219809
-0.0516031 -0.00935759 0.998624 0.0100615
-0.0519071 -0.00798884 0.99862 0.00247662
-0.0479366 -0.00516706 0.998837 0.00569787
-0.0487525 -0.0119234 0.99874 0.00351713
-0.0486929 -0.014765 0.998705 0.0123501
-0.0558529 -0.00867622 0.998401 0.0318293
-0.0539108 -0.0162859 0.998413 0.0294335
-0.0513934 -0.0160076 0.99855 0.0151913
-0.0556928 -0.0120532 0.998375 0.0316937
-0.0549981 -0.014449 0.998382 0.0263079
-0.0569064 -0.0260287 0.99804 0.0354192
-0.0569706 -0.0421539 0.997485 0.0351383
-0.0549574 -0.0368447 0.997809 0.0270052
-0.0546436 -0.0235556 0.998228 0.0159426
-0.0535209 -0.0238554 0.998282 0.011389
-0.0592788 -0.0329803 0.997696 0.0173025
-0.061106 -0.022812 0.997871 0.0173425
-0.0599807 -0.0303168 0.997739 0.0195163
-0.0525637 -0.0102744 0.998565 0.00384965
0.272349 -0.012205 0.962121 0.0180726
0.279462 -0.0115143 0.960088 0.00728089
-0.0588606 -0.0129136 0.998183 0.0273408
-0.060933 -0.0193617 0.997954 0.0283015
-0.0650886 -0.0145682 0.997773 0.0317833
-0.0618164 -0.0211603 0.997863 0.03384
-0.0654011 -0.0152612 0.997742 0.0360948
-0.0644579 -0.0115243 0.997854 0.0292777
-0.0627116 -0.00636307 0.998011 0.0218206
-0.0575431 -0.025346 0.998021 0.0149911
-0.0539384 -0.0219497 0.998303 0
-0.0518089 -0.016055 0.998528 0.00645283
-0.0514705 -0.0142022 0.998573 0.00309963
-0.0492781 -0.0110151 0.998724 0.00736301
-0.0466135 -0.0139792 0.998815 0.00248818
-0.0547609 -0.00564268 0.998484 0.0133919
-0.0530017 -0.0126005 0.998515 0.013627
-0.0564862 -0.0184193 0.998233 0.018755
-0.0556829 -0.0177978 0.99829 0.0216145
-0.0502427 -0.00662665 0.998715 0.0199421
-0.0566005 -0.0385986 0.997651 0.0321609
-0.0559586 -0.0368198 0.997754 0.0279402
-0.0515919 -0.0102737 0.998615 0.005833
-0.0551959 -0.028184 0.998078 0.00926573
-0.0559738 -0.0345318 0.997835 0.0205388
-0.0535789 -0.0229369 0.9983 0.00992946
-0.0556228 -0.0108568 0.998393 0.0160116
-0.052127 0.00017582 0.99864 0.00431517
0.274761 -0.0193888 0.961317 0.00713466
0.282698 -0.0151815 0.959089 0
0.294898 -0.0300004 0.955058 0.0032757
-0.0580512 -0.0100864 0.998263 0.02315
-0.0596784 -0.0208092 0.998001 0.0262508
-0.0642622 -0.0122041 0.997858 0.0282724
-0.0633804 -0.0257622 0.997657 0.0263458
-0.0554826 -0.00587096 0.998442 0.00847962
-0.0540873 -0.00976956 0.998488 0.00470062
-0.0590452 -0.00754133 0.998227 0.016352
-0.0515453 -0.0180823 0.998507 0
-0.0530968 -0.0243351 0.998293 0.0129216
-0.0461289 -0.0140783 0.998836 0.000924853
-0.0436029 -0.0155359 0.998928 0
-0.0465077 -0.0178287 0.998759 0
-0.049909 -0.0143244 0.998651 0
-0.0499271 -0.00993306 0.998703 0.00562149
-0.0513437 -0.00869671 0.998643 0.00443656
-0.0536736 -0.000564265 0.998558 0.00916046
-0.0511055 0.00360703 0.998687 0.0118552
-0.0551189 -0.0230125 0.998215 0.0077344
-0.0567111 -0.0276181 0.998009 0.0221201
-0.0522237 -0.0188192 0.998458 0
-0.053422 -0.0356672 0.997935 0.00347669
-0.0560953 -0.041306 0.997571 0.0182836
-0.0511944 -0.0213424 0.998461 0.00166703
-0.0485904 -0.0174223 0.998667 0.00116584
0.273041 -0.0159026 0.961871 0.0103638
0.277829 -0.0188618 0.960445 0.00194475
0.290694 -0.0280395 0.956405 0.00364875
-0.0524304 -0.0132106 0.998537 0.0169035
-0.0554794 -0.0283513 0.998057 0.0171925
-0.0574549 -0.0266685 0.997992 0.0224353
-0.0530886 -0.00583862 0.998573 0.0125741
-0.0542464 -0.0232235 0.998258 0.020159
-0.0545641 -0.0298931 0.998063 0.00988738
-0.053989 -0.015658 0.998419 0.000611167
-0.0489117 -0.0142974 0.998701 0
-0.0489037 -0.014554 0.998697 0
-0.0446822 -0.0175703 0.998847 0
-0.0452471 -0.00582083 0.998959 0
-0.0443863 -0.0141608 0.998914 0
-0.0526964 -0.0282544 0.998211 0.00231695
-0.0532464 -0.0128019 0.998499 0.000306401
-0.0518981 -0.0121775 0.998578 0.00183776
-0.0485829 0.00342636 0.998813 0
-0.0547721 -0.0120923 0.998426 0.00391876
-0.0524246 -0.0225514 0.99837 0.000228301
-0.0537926 -0.0365169 0.997884 0.000760006
-0.0497443 -0.0335401 0.998199 0
-0.0525821 -0.0365519 0.997947 0.0104879
-0.0562864 -0.0413059 0.99756 0.0194327
-0.0539389 -0.0402262 0.997734 0.0141879
-0.0540105 -0.0458239 0.997488 0.0219728
0.274796 -0.02241 0.961241 0.0202185
0.287903 -0.0329497 0.957092 0.0260712
0.290201 -0.0254003 0.956629 0.0117016
-0.0498677 -0.00954849 0.99871 0.00768816
-0.0458346 -0.0163132 0.998816 0.00488426
-0.0527215 -0.0255986 0.998281 0.0188963
-0.0471451 -0.0235232 0.998611 0.0171691
-0.0524394 -0.0260093 0.998285 0.0203075
-0.048146 -0.0160541 0.998711 0.00946342
-0.051052 -0.0272746 0.998324 0.00933582
-0.0510239 -0.0314703 0.998201 0.0142058
-0.0483069 -0.000521162 0.998832 0
-0.0485981 -0.0108239 0.99876 0
-0.0471819 -0.0250462 0.998572 0
-0.0482681 -0.0176001 0.998679 0
-0.0499356 -0.0436109 0.9978 0
-0.0537579 -0.0217555 0.998317 0
-0.0504715 -0.0125237 0.998647 0
-0.0477137 -0.0215139 0.998629 0.00471734
-0.0520815 -0.0222611 0.998395 0
-0.0550017 -0.027612 0.998104 0.00691669
-0.0568615 -0.0395709 0.997598 0.00679403
-0.0532238 -0.043557 0.997632 0.00514554
-0.0496376 -0.0311771 0.998281 0
-0.0518785 -0.0307889 0.998179 0.00191167
-0.0504568 -0.043819 0.997764 0.00921707
-0.0563165 -0.0522259 0.997046 0.0329169
-0.0530529 -0.0457007 0.997545 0.0228266
0.278563 -0.0392245 0.959617 0.0315405
0.290809 -0.0383884 0.956011 0.0288716
0.297264 -0.0352501 0.954144 0.0138067
-0.0493578 -0.0152633 0.998664 0.00698263
-0.0441313 -0.00985112 0.998977 0.0122114
-0.0463251 -0.0131011 0.998841 0.00583187
-0.0514471 -0.0187056 0.998501 0.0183362
-0.0486175 -0.0127997 0.998735 0.012964
-0.0487444 -0.0244037 0.998513 0.00781497
-0.0534687 -0.0266402 0.998214 0.0109107
-0.0520363 -0.0289948 0.998224 0.00134581
-0.0502242 -0.0129546 0.998654 0
-0.0471557 -0.0124452 0.99881 0
-0.0478334 -0.0246955 0.99855 0
-0.0513319 -0.0323616 0.998157 0
-0.0490518 -0.0202848 0.99859 0
-0.0459344 -0.0108457 0.998886 0
-0.0488541 -0.0231996 0.998536 0
-0.0519419 -0.0268472 0.998289 0
-0.0530662 -0.031683 0.998088 0
-0.0547193 -0.0281596 0.998105 0
-0.0559304 -0.0386132 0.997688 0.00736518
-0.0574799 -0.0480049 0.997192 0.00930111
-0.050193 -0.0331832 0.998188 0.00159133
-0.0531692 -0.0305395 0.998118 0
-0.0498942 -0.0393295 0.99798 0.00327504
-0.0486119 -0.038276 0.998084 0.00148216
-0.0499991 -0.0376145 0.998041 0
0.298576 -0.0331423 0.95381 0.0292355
0.304787 -0.0163282 0.952281 0.0150593
-0.0481054 -0.0288016 0.998427 0.0176511
-0.0507921 -0.0275749 0.998329 0.025119
-0.0497763 -0.0147232 0.998652 0.0130231
-0.0485531 -0.0138535 0.998725 0.016149
-0.0501342 -0.0172722 0.998593 0.0156062
-0.0483625 -0.00862684 0.998793 0.000285389
-0.0499363 -0.018528 0.998581 0
-0.0454065 -0.0170113 0.998824 0.00245859
-0.0459161 -0.0162355 0.998813 0.00119091
-0.0497091 -0.0137354 0.998669 0
-0.0526958 -0.0281348 0.998214 0
-0.0522106 -0.025438 0.998312 0
-0.0523685 -0.0177101 0.998471 0
-0.0539373 -0.0204558 0.998335 0
-0.0552694 -0.0237004 0.99819 0
-0.0507062 -0.0264609 0.998363 0
-0.0527566 -0.0272588 0.998235 0
-0.052792 -0.0374915 0.997901 0.00438173
-0.0478663 -0.0210617 0.998632 0
-0.0447634 -0.0196156 0.998805 0
-0.0460972 -0.0334332 0.998377 0
-0.0452226 -0.0406499 0.99815 0
0.288882 -0.0190386 0.957175 0.00946972
0.315851 -0.0318928 0.948273 0.0162239
-0.0525498 -0.0257766 0.998286 0.00631831
-0.0531043 -0.0360515 0.997938 0.0135053
-0.0526664 -0.0425345 0.997706 0.0160975
-0.0525959 -0.015253 0.998499 0.028532
-0.050991 -0.0302836 0.99824 0.0137218
-0.0509556 -0.0311155 0.998216 0.013149
-0.051072 -0.0271802 0.998325 0.00820581
-0.0539712 -0.0258182 0.998209 0.00644716
-0.0528654 -0.0130809 0.998516 0.00945817
-0.0503646 -0.013237 0.998643 0.0088305
-0.0498298 -0.00695865 0.998733 0.006954
-0.0555264 -0.0364236 0.997793 0
-0.0570462 -0.0449795 0.997358 0
-0.0531555 -0.0377076 0.997874 0
-0.055847 -0.0407838 0.997606 0
-0.0562448 -0.0339432 0.99784 0
-0.0516214 -0.040976 0.997826 0
-0.0503791 -0.0420743 0.997844 0
-0.0529745 -0.0379048 0.997876 0.00277436
-0.0474712 -0.0263738 0.998524 0
-0.0473459 -0.0278873 0.998489 0
-0.0469749 -0.0369587 0.998212 0
0.284864 -0.0150678 0.958449 0
0.307193 -0.0302525 0.951166 0.00587819
-0.0492072 -0.0290178 0.998367 0.000483117
-0.0516158 -0.0438615 0.997703 0.0201989
-0.0492381 -0.0347446 0.998183 0.00805961
-0.0549119 -0.0292564 0.998063 0.0186289
-0.0541784 -0.0394844 0.99775 0.0337627
-0.0519556 -0.0393671 0.997873 0.023643
-0.0548651 -0.02821 0.998095 0.0231208
-0.0596979 -0.0374223 0.997515 0.0167379
-0.0553052 -0.0256219 0.998141 0.0134026
-0.0554294 -0.0147439 0.998354 0.0128499
-0.051123 -0.0245957 0.998389 0.0126441
-0.0529499 -0.0317708 0.998092 0.00177496
-0.0541669 -0.0420926 0.997644 0
-0.0531403 -0.0560083 0.997015 0
-0.0529312 -0.0457593 0.997549 0
-0.0554544 -0.0469583 0.997356 0
-0.0525255 -0.0420289 0.997735 0.00319838
-0.0502856 -0.0587185 0.997007 0.00530776
-0.0504784 -0.056416 0.99713 0
-0.0502866 -0.0432463 0.997798 0
-0.0464117 -0.0353402 0.998297 0
-0.0442193 -0.00901292 0.998981 0
0.291038 -0.0344359 0.956091 0.00465776
0.304812 -0.0316679 0.951886 0.0124237
-0.0494852 -0.0482067 0.997611 0
-0.051344 -0.0317629 0.998176 0.0104657
-0.0536217 -0.0360746 0.997909 0.0185061
-0.0546053 -0.0324884 0.997979 0.0137313
-0.0518947 -0.0400266 0.99785 0.00706213
-0.0529657 -0.0184311 0.998426 0.00620208
-0.0524925 -0.0311743 0.998135 0.0193899
-0.0551293 -0.0366707 0.997806 0.0230769
-0.0548044 -0.0258093 0.998164 0.0196511
-0.0562325 -0.0275159 0.998038 0.0212592
-0.050167 -0.0266483 0.998385 0.0066673
-0.0511638 -0.0364281 0.998026 0
-0.0547288 -0.0401911 0.997692 0
-0.058404 -0.0687978 0.99592 0
-0.0536092 -0.0595569 0.996784 0
-0.0537816 -0.0472752 0.997433 0
-0.0520877 -0.0386183 0.997896 0.00129799
-0.0472311 -0.0413424 0.998028 0
-0.0466427 -0.0520954 0.997552 0
-0.0480728 -0.0444536 0.997854 0
0.295364 -0.0575437 0.95365 0.014212
0.315574 -0.064801 0.946686 0.0128718
0.32734 -0.0579568 0.943128 0.0226093
-0.056469 -0.0543935 0.996922 0.0121253
-0.0523173 -0.0473206 0.997509 0
-0.0539765 -0.0400398 0.997739 0.000285947
-0.0558811 -0.0402149 0.997627 0.011859
-0.0538582 -0.0468286 0.99745 0.00239497
-0.0505477 -0.0372608 0.998026 0
-0.0486114 -0.0163784 0.998683 0
-0.0479464 -0.0107941 0.998792 0
-0.0496608 -0.0174847 0.998613 0.00268351
-0.0493077 -0.0198577 0.998586 0.00560991
-0.0539246 -0.0266138 0.99819 0.018545
-0.0507143 -0.0275074 0.998334 0.00982407
-0.0566756 -0.0507463 0.997102 0.0103749
-0.0623165 -0.0601918 0.99624 0.00773888
-0.0570443 -0.0597055 0.996585 0.0019916
-0.0525026 -0.0630649 0.996627 0
-0.0519026 -0.0346132 0.998052 0
-0.0489046 -0.0391851 0.998034 0
-0.0432396 -0.0307098 0.998593 0
-0.0446096 -0.0346838 0.998402 0
-0.0431294 -0.0362729 0.998411 0
-0.0420629 -0.0288158 0.998699 0
0.308215 -0.0850653 0.947506 0.027118
0.331186 -0.0819336 0.940002 0.0318734
0.340541 -0.0877993 0.936121 0.0342165
-0.0531119 -0.0467083 0.997496 0
-0.0510614 -0.0432883 0.997757 0
-0.0510926 -0.0449849 0.99768 0
-0.0530271 -0.0458394 0.99754 0.00289505
-0.0493356 -0.0493348 0.997563 0
-0.0458241 -0.0247846 0.998642 0
-0.0424569 -0.00897193 0.999058 0
-0.0457561 -0.0317311 0.998449 0
-0.0450116 -0.0217265 0.99875 0
-0.0499329 -0.0277369 0.998367 0.00619051
-0.0540826 -0.0577989 0.996862 0.0119559
-0.0568271 -0.0662695 0.996182 0.0177283
-0.0534807 -0.0457036 0.997522 0.0019547
-0.0525165 -0.0602657 0.9968 0
-0.0526306 -0.0610408 0.996747 0
-0.045636 -0.0356339 0.998322 0
-0.0470586 -0.0371865 0.9982 0
-0.0444559 -0.0276596 0.998628 0
-0.0410323 -0.0445531 0.998164 0
-0.0399365 -0.0374574 0.9985 0
-0.0400343 -0.0343132 0.998609 0
0.304213 -0.090226 0.948322 0.0261914
0.319898 -0.0897962 0.943187 0.0268499
0.342243 -0.0949434 0.934802 0.0324509
-0.0515551 -0.0575455 0.997011 0
-0.0496924 -0.0401107 0.997959 0
-0.0517044 -0.0548827 0.997153 0
-0.0516812 -0.0499143 0.997415 0
-0.0490075 -0.0417742 0.997924 0
-0.0474055 -0.0284189 0.998471 0
-0.0466686 -0.0242101 0.998617 0
-0.0473498 -0.0345718 0.99828 0
-0.0449386 -0.0287847 0.998575 0
-0.048767 -0.0332425 0.998257 0
-0.0564512 -0.0567875 0.996789 0.00370732
-0.058406 -0.0509905 0.99699 0.00909108
-0.0535655 -0.0473037 0.997443 0.00626506
-0.0525494 -0.0680383 0.996298 0.002597
-0.0537602 -0.0621161 0.99662 0.000967734
-0.0492312 -0.0434898 0.99784 0.000368861
-0.04895 -0.043148 0.997869 0
-0.0434959 -0.0169658 0.99891 0
-0.0437626 -0.0481495 0.997881 0
-0.0407276 -0.0454055 0.998138 0
0.281193 -0.0796348 0.956341 0.00219656
0.304936 -0.0864506 0.948441 0.0127354
0.333098 -0.0918922 0.938404 0.0193587
-0.0508864 -0.0704755 0.996215 0.0164492
-0.0516893 -0.0512685 0.997346 0
-0.0494177 -0.046674 0.997687 0
-0.0502335 -0.048243 0.997572 0
-0.0495289 -0.0468537 0.997673 0
-0.0494428 -0.0324709 0.998249 0
-0.048539 -0.0347125 0.998218 0
-0.0520872 -0.0390938 0.997877 0
-0.0476267 -0.0233934 0.998591 0
-0.0482051 -0.0223542 0.998587 0
-0.0509749 -0.0312157 0.998212 0
-0.0555916 -0.0478689 0.997305 0.000974679
-0.0607602 -0.0509095 0.996853 0.0111481
-0.0587442 -0.0563387 0.996682 0.0150988
-0.0589145 -0.0520634 0.996904 0.0116614
-0.0546767 -0.0501537 0.997244 0.0013194
-0.0531726 -0.0365807 0.997915 0
-0.0494648 -0.0385322 0.998032 0
-0.0436601 -0.0431573 0.998114 0
0.311094 -0.0820256 0.946833 0.0133469
0.319631 -0.0848756 0.943733 0.00498288
-0.0474289 -0.0573393 0.997228 0.00857605
-0.0512521 -0.0773975 0.995682 0.00827522
-0.0470936 -0.0554324 0.997351 0
-0.0462166 -0.0421347 0.998042 0
-0.0465603 -0.0328294 0.998376 0
-0.0501834 -0.0355424 0.998107 0
-0.049992 -0.0486171 0.997566 0
-0.0521286 -0.0443807 0.997654 0
-0.0497781 -0.0323261 0.998237 0
-0.0508869 -0.0335743 0.99814 0
-0.0497279 -0.0307165 0.99829 0
-0.0544715 -0.0290934 0.998091 0
-0.0501648 -0.0319057 0.998231 0
-0.0539146 -0.0390145 0.997783 0
-0.058776 -0.0465428 0.997186 0.00951606
-0.0644183 -0.0771214 0.994938 0.0238464
-0.0600825 -0.0572772 0.996549 0.00965918
-0.060914 -0.0513438 0.996822 0.0123419
-0.0488634 -0.0192498 0.99862 0
-0.0510496 -0.0302665 0.998237 0
0.328038 -0.104718 0.938842 0.0273753
0.331104 -0.0915053 0.939147 0.0195415
-0.0544475 -0.0633283 0.996506 0
-0.0467522 -0.0737986 0.996177 0
-0.0465414 -0.0707992 0.996404 0.00656435
-0.0479446 -0.070707 0.996344 0.00804256
-0.0478709 -0.0509366 0.997554 0
-0.0458988 -0.0423136 0.998049 0
-0.045165 -0.0265603 0.998626 0
-0.0492895 -0.0283932 0.998381 0
-0.0495272 -0.0365574 0.998103 0
-0.0506656 -0.0416561 0.997847 0
-0.0468582 -0.0192411 0.998716 0
-0.0478797 -0.0319782 0.998341 0
-0.0488588 -0.0361289 0.998152 0
-0.0524676 -0.0405151 0.9978 0.00995402
-0.0545442 -0.0543682 0.99703 0.0092165
-0.0604802 -0.0658533 0.995995 0.00878711
-0.0638758 -0.072803 0.995299 0.01172
-0.068257 -0.0721358 0.995056 0.0184657
-0.0644721 -0.058467 0.996205 0.0154932
-0.0602437 -0.0379824 0.997461 0.00560696
-0.0501747 -0.0256276 0.998412 0
-0.0490006 -0.0254054 0.998476 0
0.327436 -0.0964583 0.939937 0.0290104
0.346722 -0.111362 0.931334 0.0378794
-0.053144 -0.0662552 0.996386 0
-0.053368 -0.0918622 0.994341 0.00647536
-0.0506061 -0.0943147 0.994255 0.0051806
-0.0454205 -0.0699067 0.996519 0.00831285
-0.0475304 -0.0641034 0.996811 0.00104254
-0.0444234 -0.0455013 0.997976 0
-0.0433481 -0.0406441 0.998233 0
-0.0456765 -0.0304313 0.998493 0
-0.0498817 -0.0149744 0.998643 0
-0.0492993 -0.0280893 0.998389 0
-0.0493507 -0.026887 0.99842 0
-0.0512067 -0.030778 0.998214 0
-0.0527497 -0.0329486 0.998064 0
-0.0514415 -0.0441723 0.997699 0
-0.0549299 -0.0601709 0.996676 0.0044849
-0.0634305 -0.0723507 0.99536 0.0307415
-0.0635887 -0.0623138 0.996029 0.0224168
-0.0626999 -0.0587277 0.996303 0.0156882
-0.0640415 -0.0566417 0.996339 0.00636764
-0.0637266 -0.0537041 0.996521 0.0114224
-0.0606859 -0.0438594 0.997193 0.00847651
-0.0566393 -0.0397344 0.997604 0.00689598
0.318692 -0.082537 0.944258 0.0225776
0.326733 -0.0893183 0.940887 0.0215758
-0.0454656 -0.0642364 0.996898 0
-0.046234 -0.0696083 0.996502 0.00699544
-0.0475229 -0.0802622 0.99564 0.00804107
-0.0415872 -0.053398 0.997707 0
-0.0449772 -0.0570012 0.99736 0
-0.0456028 -0.0509683 0.997659 0
-0.0507227 -0.0444618 0.997723 0
-0.0460234 -0.0258833 0.998605 0
-0.0473779 -0.0262486 0.998532 0
-0.0493254 -0.0270559 0.998416 0
-0.0518037 -0.0302254 0.9982 0
-0.0544496 -0.0407508 0.997685 0.00303158
-0.0524102 -0.0360888 0.997973 0
-0.0524551 -0.0395378 0.99784 0
-0.0531515 -0.0507488 0.997296 0
-0.0636933 -0.0624705 0.996012 0.0168983
-0.0616374 -0.0641563 0.996035 0.0106483
-0.0625098 -0.0724812 0.995409 0.0144892
-0.0580236 -0.0569117 0.996692 0.00791437
-0.059647 -0.0528821 0.996818 0.0111046
-0.0611531 -0.0525722 0.996743 0.0163436
0.326281 -0.0813565 0.941765 0.0249722
-0.0465205 -0.0687543 0.996548 0
-0.041806 -0.0460516 0.998064 0.0050073
-0.0462442 -0.0637035 0.996897 0.00698831
-0.0421219 -0.0515545 0.997781 0
-0.0442352 -0.0523511 0.997649 0
-0.0462738 -0.044721 0.997927 0
-0.0472267 -0.0566961 0.997274 0
-0.0481611 -0.0483957 0.997666 0
-0.0450247 -0.0431374 0.998054 0
-0.048334 -0.0305758 0.998363 0
-0.0507852 -0.0308646 0.998233 0
-0.0566942 -0.032239 0.997871 0
-0.0556704 -0.0434845 0.997502 0
-0.0510551 -0.0387828 0.997943 0
-0.053786 -0.0500189 0.997299 0
-0.0579525 -0.0668354 0.99608 0
-0.0606973 -0.0567659 0.996541 0.0101313
-0.0645761 -0.062343 0.995964 0.00941016
-0.0647047 -0.0748362 0.995094 0.0164002
-0.0575368 -0.0617569 0.996431 0.0115424
-0.0600437 -0.0527354 0.996802 0.00136371
0.339941 -0.0817606 0.936886 0.0347896
-0.0462655 -0.0563744 0.997337 0.00462755
-0.0452787 -0.0591541 0.997221 0.00558168
-0.0416605 -0.0555685 0.997585 0
-0.0448563 -0.0607916 0.997142 0
-0.047302 -0.0694468 0.996464 0
-0.0469539 -0.0517292 0.997557 0
-0.047679 -0.0401901 0.998054 0
-0.0525964 -0.0505669 0.997335 0
-0.0504514 -0.0509326 0.997427 0
-0.0543921 -0.0535122 0.997085 0
-0.0554471 -0.0405511 0.997638 0
-0.0532107 -0.051423 0.997258 0
-0.0530844 -0.0468011 0.997493 0
-0.0570027 -0.0538949 0.996918 0
-0.0558732 -0.0572243 0.996797 0
-0.0545312 -0.0622065 0.996572 0.000612242
-0.0577698 -0.0576809 0.996662 0.0057668
-0.0567206 -0.0541207 0.996922 0.00506376
-0.0595357 -0.0704392 0.995738 0
0.327066 -0.0811289 0.941512 0.021991
-0.0500327 -0.0497489 0.997508 0
-0.048578 -0.0392876 0.998046 0
-0.0475923 -0.0481952 0.997703 0
-0.0491085 -0.050717 0.997505 0
-0.0458465 -0.0467675 0.997853 0
-0.0451063 -0.0496174 0.997749 0
-0.0448049 -0.0593666 0.99723 0.00340684
-0.0438235 -0.0490067 0.997836 0
-0.0471444 -0.0477382 0.997747 0
-0.0493275 -0.0452368 0.997758 0
-0.0508535 -0.054064 0.997242 0
-0.0497614 -0.0619272 0.996839 0.00203388
-0.0517672 -0.0597967 0.996867 0
-0.0545121 -0.0473874 0.997388 0.00402432
-0.0526394 -0.0558045 0.997053 0
-0.0550234 -0.0578005 0.996811 0
-0.0600724 -0.0780337 0.995139 0.0093558
-0.060385 -0.0644432 0.996093 0.00568693
-0.0550403 -0.0618446 0.996567 0
-0.05342 -0.0474391 0.997445 0
-0.0590938 -0.0835185 0.994753 0
0.321283 -0.0654142 0.944721 0.0124335
0.321281 -0.0674406 0.944579 0.00931984
-0.049236 -0.0548806 0.997278 0.00226136
-0.0486284 -0.0475902 0.997683 0.00273539
-0.0483824 -0.032257 0.998308 0
-0.0480552 -0.0273974 0.998469 0
-0.0466019 -0.0218331 0.998675 0
-0.0486664 -0.0481561 0.997653 0.00511512
-0.048028 -0.0573254 0.9972 0.00787082
-0.0479187 -0.063384 0.996838 0.000250246
-0.0488146 -0.0700461 0.996349 0.00807371
-0.0487361 -0.0636059 0.996784 0.00266959
-0.0512811 -0.0654288 0.996539 0.010082
-0.0529443 -0.0765066 0.995662 0.015835
-0.0543281 -0.081347 0.995204 0.0172841
-0.0536534 -0.0673943 0.996283 0.00985933
-0.0548103 -0.0505161 0.997218 0
-0.0560433 -0.0570795 0.996795 0.000328042
-0.0562901 -0.067901 0.996103 0.00734514
-0.0576655 -0.0762307 0.995421 0.00323706
-0.0542691 -0.0688993 0.996146 0.00132392
0.317596 -0.0606159 0.946287 0.00429042
-0.0561809 -0.0562389 0.996835 0.00144056
-0.0508856 -0.0407197 0.997874 0
-0.0512675 -0.0539197 0.997228 0
-0.0541616 -0.0664292 0.99632 0.00570565
-0.0521818 -0.0573283 0.996991 0.00835765
-0.048301 -0.0458204 0.997781 0
-0.0501131 -0.0579454 0.997061 0.00689175
-0.0514115 -0.0380913 0.997951 0
-0.0479635 -0.0377375 0.998136 0
-0.0485832 -0.0455163 0.997781 0
-0.0520393 -0.0540808 0.99718 0.00656688
-0.0487176 -0.0474748 0.997684 0.00115533
-0.0503748 -0.0637805 0.996692 0.0103308
-0.0493142 -0.0651447 0.996657 0.00621404
-0.0535446 -0.0859696 0.994858 0.011335
-0.0504384 -0.0668748 0.996486 0.0115034
-0.0513886 -0.0786705 0.995575 0.0148469
-0.0548884 -0.0818106 0.995135 0.0187328
-0.0566563 -0.0752301 0.995555 0.00700958
-0.0540257 -0.0646517 0.996444 0.00233882
-0.0536856 -0.0780158 0.995506 0
-0.0538986 -0.0794649 0.995379 0
-0.0547151 -0.0593277 0.996738 0
0.314657 -0.0655923 0.946936 0
-0.057229 -0.0435859 0.997409 0
-0.0568464 -0.0576293 0.996718 0
-0.0569334 -0.0759375 0.995486 0.0115299
-0.0527951 -0.0698097 0.996162 0
-0.0524563 -0.0649072 0.996512 0.00200948
-0.0495718 -0.045942 0.997713 0
-0.0473902 -0.0546831 0.997378 0
-0.045575 -0.0629796 0.996974 0
-0.0524724 -0.0485847 0.99744 0.00715699
-0.0512506 -0.0470164 0.997578 0
-0.0497345 -0.0352404 0.998141 0
-0.0493849 -0.030439 0.998316 0
-0.0470053 -0.0483353 0.997724 0.00303684
-0.0517402 -0.0705447 0.996166 0.0159838
-0.0509045 -0.0666599 0.996476 0.011396
-0.0544323 -0.0845817 0.994929 0.0165916
-0.0493178 -0.0639416 0.996734 0.00747571
-0.0528866 -0.0722567 0.995983 0.0140867
-0.0554976 -0.079166 0.995315 0.016092
-0.0590262 -0.0843956 0.994682 0.00883832
-0.055651 -0.0803743 0.99521 0.00194512
0.318388 -0.0702652 0.945353 0
-0.0591638 -0.0423804 0.997348 0
-0.057884 -0.0491096 0.997115 0
-0.064414 -0.0772273 0.994931 0.000886686
-0.0657183 -0.0615032 0.995941 0.00278974
-0.0642485 -0.0677157 0.995634 0.00781413
-0.0603819 -0.0730366 0.9955 0.0115319
-0.0581637 -0.0708453 0.99579 0.0108966
-0.0549745 -0.0472366 0.99737 0.00511754
-0.051 -0.0392989 0.997925 0
-0.0502119 -0.0550533 0.99722 0
-0.0473942 -0.0560364 0.997303 0
-0.0548157 -0.0377267 0.997784 0.00118865
-0.0532205 -0.0416733 0.997713 0.00768135
-0.0479873 -0.0204993 0.998638 0
-0.0483915 -0.0277115 0.998444 0.00791741
-0.0538329 -0.0622914 0.996605 0.018849
-0.0507448 -0.0645243 0.996625 0.00711409
-0.0504505 -0.0477174 0.997586 0.00917086
-0.0482848 -0.0438566 0.99787 0
-0.0457539 -0.0603649 0.997127 0.00368302
-0.046014 -0.0482375 0.997775 0
-0.0498355 -0.0669565 0.996511 0
-0.0636265 -0.0380962 0.997246 0
-0.0601258 -0.0508468 0.996895 0
-0.0637602 -0.0533375 0.996539 0
-0.0692713 -0.0836117 0.994088 0.00803539
-0.067695 -0.077662 0.994679 0.00718453
-0.0649773 -0.069725 0.995448 0.00830631
-0.0611835 -0.0916561 0.993909 0.011837
-0.0592982 -0.0663068 0.996036 0.0142348
-0.0530037 -0.0489924 0.997392 0
-0.055017 -0.0456498 0.997441 0.0151625
-0.0497275 -0.0602314 0.996945 0.00804011
-0.0521277 -0.0528896 0.997239 0.000429266
-0.052896 -0.0392191 0.99783 0.000392971
-0.0529531 -0.0410802 0.997752 0
-0.0514704 -0.0460957 0.99761 0.00411605
-0.0506 -0.052109 0.997359 0.0143007
-0.056011 -0.0847464 0.994827 0.0126157
-0.0524934 -0.0669786 0.996373 0.00694149
-0.0443696 -0.0439963 0.998046 0
-0.0464261 -0.061937 0.997 0.00600962
-0.0447252 -0.0537629 0.997552 0
-0.0433712 -0.0388583 0.998303 0
-0.0695146 -0.0502739 0.996313 0
-0.0646085 -0.0373514 0.997211 0
-0.0631013 -0.0444333 0.997018 0
-0.0616566 -0.0563923 0.996503 0
-0.0684592 -0.0625275 0.995693 0.00327797
-0.0656164 -0.0752771 0.995001 0.00623163
-0.0656004 -0.0908495 0.993702 0.012642
-0.0645235 -0.0810795 0.994617 0.0108174
-0.0573203 -0.05945 0.996584 0
-0.0540743 -0.0545333 0.997047 0
-0.0535375 -0.0596101 0.996785 0.00968947
-0.0490595 -0.0440942 0.997822 0.00256869
-0.0478666 -0.0373043 0.998157 0
-0.0538117 -0.0481249 0.997391 0.000898623
-0.0547092 -0.059726 0.996714 0.0062907
-0.0518853 -0.0788293 0.995537 0.00756925
-0.058673 -0.0824662 0.994865 0.0316164
-0.0554008 -0.0911277 0.994297 0.0120327
-0.0500838 -0.0684523 0.996396 0
-0.0455987 -0.0549256 0.997449 0
-0.0442174 -0.0563608 0.997431 0
-0.0746536 -0.037892 0.996489 0
-0.0732075 -0.039872 0.996519 0
-0.0692319 -0.0388508 0.996844 0
-0.0629058 -0.0441262 0.997043 0
-0.0644841 -0.0533904 0.996489 0
-0.0644188 -0.0552213 0.996394 0
-0.0673324 -0.0517514 0.996388 0
-0.0635055 -0.0654126 0.995835 0.00205923
-0.0633125 -0.0840027 0.994452 0.00765048
-0.063053 -0.0710085 0.995481 0.00738091
-0.0541076 -0.0475803 0.997401 0
-0.0559372 -0.0569215 0.99681 0.0174059
-0.0515798 -0.0624395 0.996715 0.00681545
-0.0485952 -0.0603284 0.996995 0
-0.0487179 -0.0684646 0.996463 0
-0.0530618 -0.060515 0.996756 0.00990018
-0.0566972 -0.0826489 0.994965 0.0197469
-0.060702 -0.0822443 0.994762 0.0325452
-0.0577329 -0.106437 0.992642 0.0304622
-0.0495554 -0.0582241 0.997073 0
-0.0483899 -0.0532305 0.997409 0.000119592
-0.0786806 -0.0418397 0.996022 0
-0.0759805 -0.0498147 0.995864 0
-0.0718862 -0.0524965 0.99603 0
-0.0653339 -0.0480419 0.996706 0
-0.0662646 -0.0555742 0.996253 0
-0.0694992 -0.0555461 0.996034 0
-0.0672774 -0.065069 0.99561 0
-0.0670022 -0.0637584 0.995714 0
-0.059766 -0.0713746 0.995657 0
-0.0590513 -0.0727898 0.995598 0.00208443
-0.0606654 -0.0795945 0.99498 0.00928018
-0.0557696 -0.0626392 0.996477 0.0158606
-0.0529743 -0.0595711 0.996817 0.0153766
-0.0548888 -0.0652758 0.996356 0.0107654
-0.0515648 -0.0592986 0.996908 0.0110369
-0.0497296 -0.0662886 0.996561 0.011513
-0.0554335 -0.0726676 0.995815 0.0213357
-0.0565783 -0.0895434 0.994375 0.0180435
-0.0628786 -0.0872028 0.994204 0.0355506
-0.0795549 -0.0403791 0.996012 0
-0.0776333 -0.0536847 0.995536 0
-0.0777503 -0.0599467 0.995169 0
-0.0681341 -0.0629408 0.995689 0
-0.0676715 -0.0452861 0.996679 0
-0.0669509 -0.0626436 0.995788 0
-0.0673453 -0.0637343 0.995692 0
-0.0660936 -0.071269 0.995265 0
-0.0566971 -0.0652213 0.996259 0
-0.0535414 -0.067588 0.996276 0
-0.0499868 -0.0678201 0.996445 0
-0.0546053 -0.0762991 0.995589 0.0128948
-0.0550801 -0.0645079 0.996396 0.0138162
-0.0555561 -0.060072 0.996647 0.0177364
-0.0549589 -0.0682261 0.996155 0.017131
-0.0523496 -0.0798352 0.995432 0.0153795
-0.0583032 -0.0793412 0.995141 0.0326569
-0.0568888 -0.091212 0.994205 0.0323594
-0.0911117 -0.0289153 0.995421 0
-0.0893332 -0.0355519 0.995367 0
-0.086132 -0.044341 0.995296 0
-0.0813221 -0.0575194 0.995027 0
-0.078193 -0.0499845 0.995684 0
-0.077144 -0.0601716 0.995203 0
-0.0713851 -0.05713 0.995811 0
-0.072393 -0.0581126 0.995682 0
-0.071827 -0.0611992 0.995538 0
-0.0649223 -0.0630093 0.995899 0
-0.0612066 -0.069446 0.995706 0
-0.0521735 -0.0607884 0.996786 0
-0.0544671 -0.0750083 0.995694 0
-0.0513303 -0.0643308 0.996608 0
-0.0533159 -0.0709799 0.996052 0
-0.0534557 -0.0630018 0.996581 0.00885695
-0.0537752 -0.0578415 0.996876 0.0034969
-0.0554193 -0.0713769 0.995909 0.00968952
-0.055647 -0.0828393 0.995008 0.0233096
-0.0544251 -0.0833572 0.995032 0.0224922
-0.0605885 -0.104672 0.992659 0.0275943
-0.0929164 -0.0399209 0.994873 0
-0.0889118 -0.0473654 0.994913 0
-0.083947 -0.0555327 0.994922 0
-0.0824272 -0.0537567 0.995146 0
-0.0819935 -0.0579181 0.994949 0
-0.0769484 -0.0669559 0.994784 0
-0.0729829 -0.0746645 0.994534 0.00346712
-0.0691323 -0.0618417 0.995689 0
-0.0693874 -0.0677423 0.995287 0
-0.0657185 -0.0666136 0.995612 0
-0.0623116 -0.0665075 0.995838 0.00021024
-0.0569378 -0.0697237 0.99594 0
-0.0571275 -0.0728227 0.995707 0
-0.0525262 -0.062138 0.996684 0
-0.052887 -0.074688 0.995804 0.00415009
-0.0521125 -0.0672316 0.996376 0.00404925
-0.0525553 -0.0638247 0.996576 0.00982775
-0.0531798 -0.0725109 0.995949 0.0107737
-0.0975813 -0.0427461 0.994309 0
-0.0876092 -0.0420919 0.995265 0
-0.0840563 -0.0324052 0.995934 0
-0.0867404 -0.0586702 0.994502 0.0057634
-0.0830508 -0.0745107 0.993756 0.0113507
-0.0814682 -0.0774662 0.993661 0.0109436
-0.082986 -0.0817252 0.993194 0.0216917
-0.0765744 -0.0846732 0.993462 0.0156887
-0.0688762 -0.0712841 0.995075 0.00703317
-0.065059 -0.0634345 0.995863 0.000632771
-0.0629495 -0.0759926 0.995119 0.00802007
-0.0569813 -0.0673427 0.996101 0
-0.0566352 -0.0692404 0.995991 0
-0.0530043 -0.0637736 0.996556 0
-0.053089 -0.0593471 0.996825 0
-0.0541841 -0.0598368 0.996736 0.00676179
-0.0582591 -0.0769452 0.995332 0.0186374
-0.0552408 -0.0623046 0.996527 0.0184097
-0.110846 -0.048434 0.992657 0
-0.101306 -0.0362326 0.994195 0
-0.0925502 -0.043566 0.994754 0
-0.088321 -0.0412114 0.995239 0
-0.0912969 -0.0688097 0.993444 0.0242079
-0.0873505 -0.0735715 0.993457 0.0210859
-0.083228 -0.0806753 0.99326 0.0223452
-0.0821649 -0.0868468 0.992828 0.0229784
-0.0777105 -0.084928 0.993352 0.0219855
-0.0759425 -0.0705109 0.994616 0.0148683
-0.07425 -0.0712072 0.994694 0.0143185
-0.0730596 -0.0794793 0.994156 0.019311
-0.0594006 -0.0659307 0.996055 0.00368785
-0.0534857 -0.0614355 0.996677 0.00333499
-0.0524671 -0.0598311 0.996829 0
-0.0531918 -0.0574066 0.996933 0
-0.0523025 -0.0634986 0.99661 0
0.343075 -0.104518 0.933475 0.00188874
-0.110816 -0.0440845 0.992863 0.0014952
-0.1062 -0.042517 0.993435 0
-0.109546 -0.0438851 0.993012 0.0133208
-0.0967454 -0.0478554 0.994158 0.00758814
-0.0903924 -0.0506629 0.994617 0.0108321
-0.0859422 -0.0607667 0.994445 0.0179304
-0.0892809 -0.0595179 0.994227 0.0274529
-0.085923 -0.0735358 0.993584 0.0237885
-0.0853863 -0.0720077 0.993742 0.0203635
-0.0847863 -0.0768525 0.993431 0.0319947
-0.0816011 -0.0716091 0.994089 0.0224309
-0.0786992 -0.0581388 0.995202 0.0211954
-0.076477 -0.0713657 0.994514 0.0239905
-0.0609493 -0.070804 0.995626 0.0171541
-0.0549491 -0.062403 0.996537 0.00696472
-0.0519632 -0.0569069 0.997026 0
-0.0520139 -0.0585734 0.996927 0
0.336999 -0.100766 0.936097 0.00280939
-0.133693 -0.0756266 0.988133 0.0180019
-0.119234 -0.0599115 0.991057 0.0118901
-0.109837 -0.0479462 0.992793 0.00698454
-0.11255 -0.0545963 0.992145 0.025879
-0.0973416 -0.0459163 0.994191 0.0154534
-0.0931441 -0.0348619 0.995042 0.00633761
-0.0877491 -0.0434376 0.995195 0.0128794
-0.0858182 -0.0444388 0.995319 0.0161911
-0.0827821 -0.065304 0.994426 0.0207769
-0.0817233 -0.0687974 0.994278 0.0200492
-0.0784792 -0.0498726 0.995667 0.0075554
-0.0781891 -0.0607743 0.995084 0.00525586
-0.0757809 -0.0563439 0.995531 0.00653937
-0.0714781 -0.0619197 0.995518 0.00809975
-0.060561 -0.0672374 0.995897 0.0183259
-0.0525665 -0.0738473 0.995883 0.00707646
0.333009 -0.0969025 0.937931 0.000278209
-0.141048 -0.0740599 0.987229 0.0206235
-0.133221 -0.0676523 0.988775 0.0193947
-0.123564 -0.0634509 0.990306 0.0183561
-0.11332 -0.0630988 0.991553 0.0226018
-0.108823 -0.0575929 0.992391 0.0275172
-0.0935465 -0.04276 0.994696 0.00141032
-0.0870916 -0.0382829 0.995464 0
-0.0834558 -0.0289449 0.996091 0.00127036
-0.0853122 -0.0412025 0.995502 0.0107301
-0.0772855 -0.0539071 0.995551 0
-0.0785217 -0.0557004 0.995355 0
-0.0761397 -0.0568917 0.995473 0
-0.0750827 -0.0534571 0.995743 0
-0.0679921 -0.044061 0.996712 0
-0.0739103 -0.0665276 0.995043 0.0226965
0.343578 -0.122315 0.931125 0.0175109
0.352978 -0.116454 0.928356 0.0142241
-0.153511 -0.0783362 0.985037 0.0310184
-0.136889 -0.0744992 0.987781 0.0288282
-0.126927 -0.0639773 0.989847 0.0205603
-0.112766 -0.0641816 0.991547 0.0144804
-0.102339 -0.05355 0.993307 0.010193
-0.0893334 -0.0368053 0.995322 0
-0.0834936 -0.0372866 0.995811 0
-0.0772635 -0.0410348 0.996166 0
-0.0760815 -0.0600556 0.995291 0
-0.0763768 -0.0645183 0.994989 0
-0.0741122 -0.0534353 0.995817 0
-0.0727176 -0.0440087 0.996381 0
-0.0665091 -0.0473377 0.996662 0
-0.0603556 -0.0508107 0.996883 0
0.347896 -0.120173 0.929799 0.0218305
0.355827 -0.125452 0.926093 0.0222251
-0.153124 -0.0818997 0.984807 0.0400262
-0.142428 -0.072111 0.987175 0.0356392
-0.126194 -0.0552445 0.990466 0.0176897
-0.112101 -0.0509679 0.992389 0.0105665
-0.100759 -0.0524448 0.993528 0
-0.0906462 -0.0524705 0.9945 0
-0.085046 -0.0529864 0.994967 0
-0.0753062 -0.0394289 0.996381 0
-0.073797 -0.0524902 0.995891 0
-0.0694789 -0.0550689 0.996062 0
-0.0694699 -0.0454518 0.996548 0
-0.0734212 -0.051973 0.995946 0
0.353676 -0.130895 0.926164 0.0242371
0.359335 -0.132491 0.923756 0.0242301
-0.168421 -0.0506675 0.984412 0.0361304
-0.151712 -0.0675416 0.986114 0.0408277
-0.139692 -0.056804 0.988564 0.0286838
-0.128623 -0.0565911 0.990078 0.0274097
-0.114136 -0.0583328 0.991751 0.012984
-0.10156 -0.0587262 0.993095 0.00703509
-0.0911377 -0.057303 0.994188 0
-0.0864533 -0.0494568 0.995028 0.00264818
-0.0700628 -0.0439009 0.996576 0
-0.0662859 -0.0401159 0.996994 0
-0.0618694 -0.0407553 0.997252 0
-0.0652844 -0.0551288 0.996343 0
-0.0636163 -0.0536573 0.996531 0
0.357023 -0.132553 0.924643 0.0302012
0.368782 -0.139464 0.918994 0.0318605
0.385727 -0.150932 0.910183 0.0331039
-0.169599 -0.0545966 0.984 0.0367815
-0.14851 -0.0380323 0.988179 0.0273469
-0.135705 -0.0507527 0.989448 0.0270884
-0.125584 -0.040715 0.991247 0.0202
-0.11277 -0.0576621 0.991947 0.00832902
-0.0989344 -0.0570821 0.993455 0.000657885
-0.0892055 -0.0491658 0.994799 0
-0.0804354 -0.0526172 0.99537 0
-0.0690591 -0.0611401 0.995737 0
-0.0700067 -0.0555235 0.996 0
-0.0692274 -0.0518942 0.99625 0
-0.0599056 -0.0486399 0.997018 0
-0.0634445 -0.0567278 0.996372 0
0.355647 -0.133285 0.925068 0.0320546
0.360573 -0.131532 0.92341 0.0324171
0.367643 -0.13343 0.920345 0.025804
-0.176596 -0.0381628 0.983543 0.021021
-0.168572 -0.0528863 0.984269 0.0359831
-0.145455 -0.0428537 0.988436 0.0250123
-0.130615 -0.0468176 0.990327 0.0242558
-0.118018 -0.0545851 0.99151 0.0175276
-0.109151 -0.0507445 0.992729 0.0107305
-0.0918417 -0.0367879 0.995094 0
-0.0913661 -0.0480695 0.994657 0
-0.0834578 -0.0551706 0.994983 0
-0.0748529 -0.071481 0.994629 0.00113065
-0.0721984 -0.0662455 0.995188 0
-0.0707117 -0.0582089 0.995797 0
0.351141 -0.120157 0.928581 0.0227164
0.363703 -0.132808 0.921999 0.0208543
-0.177163 -0.0360074 0.983523 0.0236224
-0.169998 -0.0449643 0.984418 0.0316664
-0.138548 -0.0412827 0.989495 0.0176063
-0.125263 -0.0411839 0.991268 0.0119317
-0.119474 -0.0611138 0.990955 0.0130136
-0.109057 -0.0476465 0.992893 0.00715022
-0.0960838 -0.0415797 0.994504 0.00465552
-0.0911995 -0.0433234 0.99489 0
-0.085639 -0.0523481 0.99495 0
-0.0831718 -0.0580702 0.994842 0
-0.0776945 -0.0595301 0.995198 0
-0.071834 -0.0635023 0.995393 0
0.346637 -0.115682 0.930839 0.021506
0.350079 -0.11091 0.930131 0.0118991
-0.196026 -0.0437327 0.979623 0.0225408
-0.181928 -0.0514427 0.981965 0.0229393
-0.178364 -0.0451539 0.982928 0.0215031
-0.167777 -0.0462757 0.984738 0.0310366
-0.139046 -0.0420278 0.989394 0.0166573
-0.133431 -0.0472718 0.98993 0.0187278
-0.116567 -0.0516639 0.991838 0.0101061
-0.105912 -0.0538161 0.992918 0.00476086
-0.0974035 -0.0526859 0.993849 0.0107939
-0.0898261 -0.0349877 0.995343 0
-0.0815807 -0.0414717 0.995804 0
-0.0810968 -0.0535714 0.995265 0
-0.0730516 -0.0490621 0.996121 0
-0.0703463 -0.0471725 0.996407 0
-0.0690464 -0.0402588 0.996801 0
0.341893 -0.106794 0.933651 0.0148817
0.355544 -0.112598 0.927852 0.013815
-0.195367 -0.0496568 0.979472 0.0205562
-0.186661 -0.064517 0.980304 0.0345643
-0.178215 -0.0582598 0.982265 0.0320255
-0.165955 -0.0552316 0.984585 0.0236197
-0.150606 -0.0623872 0.986623 0.033091
-0.13959 -0.0499839 0.988947 0.0234632
-0.115084 -0.0498847 0.992102 0.0182751
-0.112009 -0.0655595 0.991542 0.0249837
-0.0962749 -0.0487251 0.994161 0.00601316
-0.0868184 -0.0422488 0.995328 0
-0.0820879 -0.0385362 0.99588 0
-0.0772567 -0.0452616 0.995983 0
-0.0686749 -0.044967 0.996625 0
-0.0697571 -0.0399632 0.996763 0
-0.0698292 -0.0449417 0.996546 0
0.345156 -0.105286 0.932621 0.0202566
0.351311 -0.103184 0.930555 0.0151671
-0.196811 -0.0481339 0.979259 0.0219981
-0.188768 -0.0629775 0.98 0.0285132
-0.186006 -0.0578675 0.980843 0.0324631
-0.177357 -0.0668534 0.981873 0.0373803
-0.153051 -0.0697017 0.985757 0.0371322
-0.14598 -0.075509 0.986402 0.0330819
-0.128143 -0.0694643 0.98932 0.031967
-0.117556 -0.0622916 0.991111 0.0271179
-0.105915 -0.0602789 0.992546 0.0152472
-0.0913952 -0.0508673 0.994515 0.000953598
-0.083724 -0.0443193 0.995503 0
-0.0770529 -0.0463339 0.99595 0
-0.0751861 -0.0476245 0.996032 0
-0.0705993 -0.042196 0.996612 0
0.327334 -0.0917115 0.940448 0.00725137
0.339681 -0.0953106 0.935699 0.00438491
-0.190394 -0.0397511 0.980903 0.0136081
-0.190153 -0.0534811 0.980297 0.0276216
-0.186016 -0.0556747 0.980968 0.0319756
-0.175307 -0.0666256 0.982257 0.0401343
-0.15631 -0.0696945 0.985246 0.0353267
-0.14759 -0.083169 0.985546 0.0289567
-0.130531 -0.0634568 0.989411 0.0244892
-0.112518 -0.056276 0.992055 0.0104057
-0.103131 -0.0620527 0.99273 0.0114215
-0.0904875 -0.0540431 0.99443 0.00688573
-0.0847142 -0.0526545 0.995013 0.00401601
-0.0794832 -0.0457487 0.995786 0
-0.0752257 -0.0539427 0.995706 0
0.336964 -0.0894511 0.937259 0
-0.195137 -0.0353755 0.980138 0.0134609
-0.194758 -0.0648777 0.978703 0.0331899
-0.190858 -0.063862 0.979538 0.0381047
-0.180218 -0.0678145 0.981286 0.0367898
-0.156144 -0.0655045 0.98556 0.0322156
-0.147094 -0.072042 0.986495 0.0313048
-0.124767 -0.0592168 0.990417 0.0202761
-0.111965 -0.0524001 0.99233 0.0159668
-0.108515 -0.0640908 0.992027 0.0253571
-0.0976285 -0.0631081 0.99322 0.0181112
-0.0872115 -0.0514599 0.99486 0.00461971
-0.0760292 -0.0364171 0.99644 0
0.343278 -0.0921245 0.934705 0
-0.183193 -0.0366415 0.982394 0
-0.185286 -0.0567708 0.981044 0.011809
-0.181208 -0.0657355 0.981245 0.0248165
-0.179693 -0.0652871 0.981554 0.0357383
-0.156062 -0.0603659 0.985901 0.0328508
-0.147369 -0.0653701 0.986919 0.0302055
-0.13286 -0.0634209 0.989104 0.0315001
-0.115031 -0.051123 0.992045 0.0196495
-0.107676 -0.0475691 0.993047 0.0163197
-0.100956 -0.0494508 0.993661 0.0187094
-0.0862923 -0.0499009 0.995019 0.00203482
-0.072905 -0.0438289 0.996375 0
-0.070227 -0.040799 0.996696 0
0.337854 -0.0795595 0.93783 0
-0.188924 -0.0306266 0.981514 0
-0.183587 -0.0338516 0.98242 0
-0.182876 -0.0527593 0.981719 0.0101248
-0.181243 -0.0587514 0.981682 0.0177325
-0.180412 -0.0702542 0.981079 0.0281927
-0.15448 -0.0525162 0.986599 0.0304453
-0.145669 -0.047083 0.988212 0.0268325
-0.123676 -0.0541141 0.990846 0.0152492
-0.116819 -0.0420453 0.992263 0.00931353
-0.104429 -0.0389019 0.993771 0.00611586
-0.0974007 -0.0475335 0.99411 0.00351359
-0.0898196 -0.0474647 0.994826 0
-0.0781392 -0.0512188 0.995626 0
-0.072293 -0.0449048 0.996372 0
-0.194704 -0.0442575 0.979863 0.00546958
-0.192128 -0.0495001 0.980121 0.00947896
-0.182627 -0.0454147 0.982133 0.0145904
-0.180827 -0.0519623 0.982141 0.0236093
-0.174346 -0.0592919 0.982898 0.0244203
-0.149343 -0.0682515 0.986427 0.0217804
-0.142397 -0.0572585 0.988152 0.0219335
-0.124855 -0.0522026 0.990801 0.0162093
-0.119587 -0.0471882 0.991702 0.0161266
-0.111531 -0.0341667 0.993173 0.00942453
-0.0987071 -0.0416959 0.994243 0
-0.0903381 -0.043364 0.994967 0
-0.0815725 -0.0402118 0.995856 0
-0.209459 -0.067576 0.97548 0.0267946
-0.194812 -0.0561323 0.979233 0.0159421
-0.180155 -0.0474256 0.982494 0.0176233
-0.1796 -0.0517238 0.982379 0.0237131
-0.167688 -0.0461139 0.984761 0.0130783
-0.14259 -0.0547066 0.988269 0.00612305
-0.131165 -0.0484142 0.990178 0
-0.127728 -0.0524228 0.990423 0.0168597
-0.123624 -0.0426993 0.99141 0.0155889
-0.115896 -0.0302734 0.9928 0.00988868
-0.101881 -0.0402554 0.993982 0
-0.0914505 -0.038778 0.995054 0
-0.0837987 -0.0248558 0.996173 0
-0.206171 -0.05825 0.976781 0.0260104
-0.19391 -0.0614653 0.979092 0.0148878
-0.175983 -0.0491234 0.983167 0.00834723
-0.170947 -0.0404094 0.984451 0.00772842
-0.158782 -0.0395828 0.98652 0
-0.139891 -0.0460833 0.989094 0
-0.133892 -0.0500642 0.989731 0.00458604
-0.11988 -0.0443532 0.991797 0.00447099
-0.10874 -0.0346053 0.993468 0
-0.105576 -0.0313706 0.993916 0
-0.100414 -0.0460718 0.993878 0
-0.0939561 -0.0355439 0.994942 0
-0.214604 -0.0589474 0.974921 0.030346
-0.201906 -0.0594076 0.977602 0.024937
-0.185902 -0.0623214 0.98059 0.0125434
-0.170266 -0.0425106 0.984481 0.00115176
-0.158461 -0.0336125 0.986793 0
-0.134994 -0.0351996 0.990221 0
-0.124633 -0.0363816 0.991536 0
-0.109386 -0.0376591 0.993286 0
-0.105175 -0.0406855 0.993621 0
-0.0974717 -0.0305165 0.99477 0
-0.0959649 -0.0354953 0.994752 0
-0.21622 -0.0551996 0.974783 0.0336022
-0.198039 -0.0519198 0.978818 0.0171395
-0.185427 -0.053841 0.981182 0.01566
-0.177507 -0.0485394 0.982922 0.0143384
-0.158472 -0.0398455 0.986559 0.0107304
-0.137232 -0.039302 0.989759 0.00873417
-0.119259 -0.0361147 0.992206 0.00378917
-0.106931 -0.0332949 0.993709 0
-0.0975406 -0.0405903 0.994403 0
-0.0949805 -0.0322612 0.994956 0
0.372031 -0.113589 0.921244 0
-0.225798 -0.0585757 0.972411 0.0233726
-0.219371 -0.0445773 0.974623 0.0297329
-0.208327 -0.0463471 0.97696 0.0296971
-0.19557 -0.0522202 0.979298 0.023959
-0.172032 -0.0425312 0.984173 0.0136044
-0.153621 -0.0363777 0.98746 0.00805043
-0.140789 -0.0402235 0.989222 0.0157269
-0.111057 -0.0293012 0.993382 0
-0.101399 -0.0377881 0.994128 0
0.382422 -0.105195 0.91798 0.0137978
-0.219694 -0.0600912 0.973716 0.0214815
-0.214963 -0.0509052 0.975295 0.0306992
-0.209338 -0.0445881 0.976826 0.0288638
-0.19666 -0.0440308 0.979483 0.0217178
-0.174771 -0.0503549 0.983321 0.0190103
-0.152608 -0.0471552 0.987161 0.00400367
-0.133549 -0.0396136 0.99025 0.00577717
-0.11435 -0.0339302 0.992861 0.00991462
0.389589 -0.109338 0.914476 0.0239488
-0.225825 -0.0517131 0.972794 0.027876
-0.210095 -0.0451444 0.976638 0.0240596
-0.199972 -0.0371414 0.979097 0.01928
-0.191754 -0.0370769 0.980742 0.0223904
-0.182567 -0.0556771 0.981616 0.0299853
-0.158572 -0.0368667 0.986659 0.00848026
-0.137718 -0.034732 0.989862 0.0122111
-0.116306 -0.0275994 0.99283 0.00795877
0.386587 -0.0989276 0.916932 0.0234455
-0.230895 -0.0452635 0.971925 0.0221051
-0.21889 -0.0452353 0.9747 0.0251523
-0.205854 -0.0439751 0.977594 0.0253277
-0.194666 -0.0327084 0.980324 0.0197929
-0.188642 -0.027487 0.981661 0.0147351
-0.183168 -0.0467645 0.981969 0.0250169
-0.162172 -0.0340598 0.986174 0.0137375
-0.152847 -0.0416338 0.987373 0.0178736
-0.115802 -0.0406618 0.99244 0.0100958
0.383915 -0.0906737 0.918906 0.0229976
-0.223455 -0.0439343 0.973724 0.0143663
-0.211461 -0.0399939 0.976568 0.0176418
-0.197951 -0.0327772 0.979664 0.0149367
-0.191858 -0.0288657 0.980998 0.0113813
-0.18389 -0.0377652 0.982221 0.0158462
-0.172999 -0.0337006 0.984345 0.00806915
-0.163635 -0.0370625 0.985824 0.0156466
-0.155336 -0.0509461 0.986547 0.0208351
0.397689 -0.0843388 0.913636 0.0322521
-0.218673 -0.0473643 0.974648 0.0130304
-0.203786 -0.0360793 0.97835 0.00755271
-0.199605 -0.0267549 0.979511 0.0161271
-0.189863 -0.0228541 0.981545 0.0124811
-0.18139 -0.0254376 0.983082 0.0119378
-0.164769 -0.026171 0.985985 0.00196802
-0.156654 -0.0263909 0.987301 0.000359654
-0.150622 -0.0326576 0.988052 0.0116097
0.39759 -0.0815299 0.913934 0.0326453
0.411117 -0.0864535 0.907474 0.034961
-0.224057 -0.0267664 0.974208 0.0252414
-0.213593 -0.0320579 0.976397 0.0189741
-0.19177 -0.0248513 0.981125 0.00507767
-0.183275 -0.0276378 0.982673 0.00280968
-0.173514 -0.0265329 0.984474 0.00280972
-0.161426 -0.0186294 0.986709 0
-0.16109 -0.0331122 0.986384 0.0042779
0.386225 -0.0788936 0.919025 0.0227561
0.398416 -0.0883973 0.912935 0.0287161
-0.233374 -0.0214736 0.97215 0.020295
-0.219665 -0.0182755 0.975404 0.0112969
-0.201111 -0.00884984 0.979528 0.00696589
-0.190802 -0.0251522 0.981306 0.00577444
-0.17842 -0.0281052 0.983553 0
-0.172281 -0.0148366 0.984936 0
-0.162678 -0.0111929 0.986616 0
-0.163586 -0.0287968 0.986109 0.00586756
0.387043 -0.0676477 0.919577 0.0225303
-0.219178 -0.0209716 0.97546 0.00200288
-0.216147 -0.0144047 0.976255 0.00315968
-0.209275 -0.00775238 0.977826 0
-0.197126 -0.00481416 0.980366 0
-0.182979 -0.0134808 0.983024 0
-0.176294 -0.0085605 0.9843 0
-0.171167 -0.00263938 0.985239 0
0.384593 -0.0624453 0.920972 0.0292405
0.39682 -0.055239 0.916233 0.0298029
-0.219131 -0.00971674 0.975647 0
-0.211382 -0.00616914 0.977384 0
-0.203757 -0.00745175 0.978993 0
-0.195212 -0.013635 0.980666 0
-0.173455 -0.00208072 0.98484 0
-0.170446 -0.00131124 0.985366 0
0.375988 -0.0464043 0.925462 0.0256635
0.387407 -0.0441282 0.920852 0.0221968
-0.221492 -0.0151013 0.975045 0
-0.21505 -0.0127581 0.97652 0.00127288
-0.205978 -0.013354 0.978466 0
-0.195942 -0.0156699 0.98049 0
-0.177879 -0.0039141 0.984044 0
-0.173268 3.13964e-05 0.984875 0
0.3683 -0.0381835 0.928922 0.0181287
0.382245 -0.035715 0.923371 0.0155997
-0.225672 -0.00804072 0.97417 0
-0.215596 -0.00455213 0.976472 0
-0.206631 -0.0122667 0.978342 0
-0.196674 -0.00863024 0.980431 0
-0.180303 0.00255045 0.983608 0
-0.176798 0.00128641 0.984246 0.0047242
0.370469 -0.0234679 0.928548 0.0237273
0.383109 -0.0219002 0.923443 0.0228804
-0.224052 0.00462042 0.974566 0
-0.213719 0.00414643 0.976886 0
-0.210016 -0.00210809 0.977696 0
-0.197965 -0.00104739 0.980208 0
-0.183872 0.0075014 0.982922 2.79976e-05
-0.174435 -0.00344357 0.984663 0.00226006
0.365638 -0.0179684 0.930584 0.0283566
0.366882 -0.00835495 0.93023 0.0113151
-0.224237 0.0185417 0.974358 0
-0.217805 0.000758605 0.975992 0.000214123
-0.211383 0.00114108 0.977403 0
-0.202221 -0.00409851 0.979331 0
0.353085 0.00137721 0.93559 0.0142067
0.359091 -0.00422765 0.933293 0.00840105
-0.229646 0.0142943 0.973169 0.00434068
-0.218125 0.00613936 0.975902 0.00102985
-0.213621 0.0154192 0.976795 0
-0.200735 0.0133844 0.979554 0
0.355117 0.0131347 0.93473 0.0168171
0.37299 0.0120932 0.927757 0.025571
-0.229861 0.0266376 0.972859 0.00647045
-0.2189 0.0273779 0.975363 0
-0.210571 0.016745 0.977435 0
-0.201311 0.0164461 0.979389 0.00196889
0.347552 0.0200509 0.937446 0.0121038
0.350586 0.0152188 0.936407 0.00455485
-0.236258 0.0323168 0.971153 0.00606338
-0.229429 0.0214666 0.973089 0.00902199
-0.21868 0.00986019 0.975747 0.00942878
-0.210542 0.0203647 0.977373 0.0126893
0.343908 0.0325766 0.938438 0.00175244
0.357229 0.0341886 0.933391 0
-0.246883 0.0263747 0.968686 0.0173096
-0.233383 0.0370598 0.971678 0.0108655
-0.23008 0.0390812 0.972387 0.0161284
-0.200671 0.0387307 0.978893 0
0.344931 0.0447253 0.937562 0
0.360946 0.0535911 0.931046 0
-0.264568 0.0490634 0.963118 0.0200021
-0.247108 0.0427531 0.968044 0.0150194
-0.241259 0.0385394 0.969695 0.0188278
-0.236335 0.0502843 0.97037 0.0223627
-0.207107 0.0436369 0.977345 0.00935715
0.34221 0.0445398 0.938567 0
0.354249 0.0665299 0.932782 0
-0.2603 0.0505373 0.964204 0.017748
-0.247091 0.0466763 0.967867 0.0125737
-0.249357 0.0497072 0.967135 0.0263392
-0.223005 0.0611469 0.972898 0.00510187
-0.206845 0.0577442 0.976668 0.0161136
0.339919 0.0504051 0.939103 0
0.354089 0.0649952 0.93295 0
-0.262474 0.0505441 0.963614 0.020348
-0.239184 0.0517106 0.969596 0.00715131
-0.234384 0.0671018 0.969826 0.00604586
-0.220812 0.0815794 0.971898 0
-0.20267 0.0659925 0.977021 0.00313769
0.336879 0.0612253 0.939555 0
0.343046 0.0563479 0.937627 0.000180534
0.352844 0.0561972 0.933993 0.00107111
-0.259419 0.0554766 0.96417 0.0181498
-0.240063 0.0714196 0.968126 0.00440548
-0.235719 0.0855613 0.968048 0.0114122
-0.223346 0.0937432 0.970221 0.00419871
-0.206848 0.0799209 0.975103 0.00974571
0.338506 0.0599252 0.939054 0
0.346566 0.0605262 0.936071 0
-0.257115 0.0520466 0.964978 0.0168427
-0.235028 0.0731963 0.969229 0.00550148
-0.22806 0.0872891 0.969726 0.00263593
-0.224751 0.0952787 0.969747 0.0127506
-0.212645 0.0740697 0.974318 0.0177498
0.341471 0.0698123 0.937296 0.00923603
0.355445 0.0866737 0.93067 8.74308e-05
-0.247345 0.0594009 0.967105 0.0171146
