# .PCD v0.7 - Point Cloud Data file format
VERSION 0.7
FIELDS x y z
SIZE 4 4 4
TYPE F F F
COUNT 1 1 1
WIDTH 1318
HEIGHT 1
VIEWPOINT 0 0 0 1 0 0 0
POINTS 1318
DATA ascii
-0.063890994 -0.2732535 -0.3879815
-0.063763 -0.27322599 -0.387999
-0.067456253 -0.27303052 -0.38799477
-0.067317329 -0.27309814 -0.38796401
-0.067108668 -0.27310368 -0.38794065
-0.066885501 -0.27311048 -0.38791251
-0.066706665 -0.27311867 -0.38790584
-0.066495754 -0.273094 -0.38787812
-0.066313505 -0.27310199 -0.38781053
-0.066092998 -0.27315149 -0.3878105
-0.065457001 -0.273184 -0.38780901
-0.065108247 -0.2730985 -0.38781622
-0.064929746 -0.27310851 -0.38783351
-0.064691991 -0.27308834 -0.38787425
-0.064476334 -0.27310178 -0.38792488
-0.064318448 -0.27311599 -0.38792098
-0.064105995 -0.27309117 -0.38794503
-0.063884497 -0.273105 -0.38795701
-0.063705996 -0.27309442 -0.38796821
-0.063582495 -0.2730495 -0.38796902
-0.067462675 -0.27290031 -0.387977
-0.067306831 -0.27287588 -0.38793918
-0.06709867 -0.27288067 -0.38790599
-0.066875674 -0.272888 -0.387876
-0.066698 -0.27289298 -0.38783848
-0.066488586 -0.27290627 -0.38782024
-0.064925 -0.27299649 -0.3878125
-0.064712338 -0.27291134 -0.3878223
-0.064487703 -0.272892 -0.38787836
-0.064308777 -0.27289268 -0.38787663
-0.064097784 -0.27290544 -0.38791397
-0.063875832 -0.27291951 -0.38792932
-0.063715599 -0.27291378 -0.38792819
-0.063521005 -0.27289718 -0.3879692
-0.063394003 -0.272809 -0.38798901
-0.068022504 -0.27265298 -0.387988
-0.067894004 -0.27269483 -0.3879793
-0.067454219 -0.27271435 -0.38794756
-0.067298003 -0.27269125 -0.38791898
-0.067089498 -0.27269602 -0.38789201
-0.066867001 -0.27270198 -0.38784999
-0.066704333 -0.27271932 -0.38781902
-0.0665095 -0.27275699 -0.3878085
-0.064675003 -0.27279001 -0.38780501
-0.064494781 -0.27271855 -0.38783577
-0.064300679 -0.27270582 -0.38783932
-0.064113997 -0.27269116 -0.38787046
-0.063899502 -0.27268386 -0.38787714
-0.063697331 -0.27270666 -0.38790199
-0.063501112 -0.27272022 -0.38794708
-0.063389495 -0.272697 -0.38797
-0.068672501 -0.27247399 -0.387999
-0.068439662 -0.27247301 -0.38799366
-0.068252504 -0.27250051 -0.38798147
-0.068016998 -0.2725035 -0.38794249
-0.067886002 -0.27250797 -0.38794649
-0.067469001 -0.27248967 -0.38790917
-0.06732478 -0.27250189 -0.38789445
-0.067081004 -0.27251101 -0.38786802
-0.0668585 -0.2725175 -0.38782549
-0.066725999 -0.27259499 -0.387817
-0.0644245 -0.27254528 -0.38782948
-0.064300999 -0.27252987 -0.38782302
-0.064124249 -0.27249426 -0.38783675
-0.063889004 -0.27249244 -0.38785788
-0.063687332 -0.27248433 -0.387871
-0.063491441 -0.27249721 -0.387905
-0.063381672 -0.27251101 -0.38792634
-0.06871634 -0.2722353 -0.38799271
-0.068499498 -0.2723054 -0.38798231
-0.068305202 -0.27229738 -0.387968
-0.068008661 -0.27231768 -0.38791099
-0.06787733 -0.27232352 -0.38792181
-0.067460001 -0.27230576 -0.38789549
-0.06730625 -0.27229023 -0.38786563
-0.067070663 -0.27228934 -0.38783765
-0.066852003 -0.272369 -0.3878085
-0.064314499 -0.27236751 -0.387802
-0.064115338 -0.27230966 -0.38781765
-0.063904256 -0.27231222 -0.38783064
-0.063678995 -0.27229902 -0.38784298
-0.063473716 -0.27229598 -0.38787642
-0.06337133 -0.27228901 -0.38789901
-0.069660001 -0.27201399 -0.38799801
-0.069564998 -0.272019 -0.387997
-0.069291167 -0.27207467 -0.38799083
-0.069178 -0.272084 -0.38799798
-0.068682335 -0.27211601 -0.38798735
-0.068499222 -0.27207687 -0.38797176
-0.068310834 -0.27208981 -0.38795581
-0.068002 -0.272172 -0.387903
-0.067899004 -0.27209163 -0.38789973
-0.067451 -0.27212149 -0.38787317
-0.067316428 -0.27211043 -0.38785228
-0.067062497 -0.2721045 -0.38780999
-0.063882664 -0.27210033 -0.38780102
-0.063702002 -0.27212161 -0.38781825
-0.063481502 -0.27211675 -0.38784638
-0.063362494 -0.27210498 -0.38788301
-0.069863498 -0.27185601 -0.38799453
-0.069694251 -0.27190223 -0.38798925
-0.069560006 -0.27190852 -0.38797802
-0.069282003 -0.27189088 -0.38797653
-0.069089323 -0.27190375 -0.38799
-0.068812996 -0.27188098 -0.38799
-0.068677597 -0.2719048 -0.38797039
-0.068489842 -0.27189383 -0.38796499
-0.068284594 -0.27188659 -0.38795179
-0.067899555 -0.27188024 -0.38788733
-0.067440666 -0.2719 -0.38785198
-0.067296445 -0.27191198 -0.38783824
-0.067052998 -0.27192131 -0.38780499
-0.063681506 -0.27192849 -0.38780549
-0.063456126 -0.27191487 -0.38783297
-0.06335333 -0.27191964 -0.38786301
-0.069856338 -0.27170864 -0.38798484
-0.069685005 -0.27171835 -0.38798368
-0.069551326 -0.27172399 -0.38795832
-0.069272332 -0.27170736 -0.38797221
-0.069101855 -0.27169427 -0.38798743
-0.068880402 -0.2716772 -0.3879694
-0.068675831 -0.27169684 -0.38795134
-0.068480887 -0.27170891 -0.38794792
-0.068307199 -0.271707 -0.38793859
-0.067890331 -0.27169618 -0.3878772
-0.0674356 -0.2716938 -0.387842
-0.067340717 -0.27167743 -0.38783598
-0.067117505 -0.27169952 -0.38781801
-0.063446008 -0.27168465 -0.38782367
-0.063368499 -0.27169302 -0.38783237
-0.069901876 -0.27149588 -0.38797936
-0.069691852 -0.27148643 -0.38797241
-0.069540001 -0.27150366 -0.38794804
-0.06926401 -0.27152246 -0.38794678
-0.069109246 -0.27149975 -0.38797751
-0.068987504 -0.27150148 -0.38795501
-0.068696998 -0.27149802 -0.38793716
-0.068470329 -0.27148741 -0.38792586
-0.068298005 -0.27151561 -0.3879264
-0.0682 -0.27143201 -0.387903
-0.067924671 -0.27151 -0.38786682
-0.067794003 -0.27151635 -0.387869
-0.067445993 -0.27149498 -0.38784301
-0.067345336 -0.27150366 -0.38783702
-0.067091599 -0.27149481 -0.38781497
-0.063438997 -0.27153599 -0.38780099
-0.063346244 -0.271492 -0.38781226
-0.063086994 -0.27149966 -0.38796735
-0.070253499 -0.27136302 -0.387999
-0.069925748 -0.27130201 -0.38797203
-0.069695629 -0.27128389 -0.38795415
-0.069528997 -0.27128235 -0.38793567
-0.069260001 -0.27131099 -0.38793153
-0.069114998 -0.27130228 -0.38794786
-0.068979338 -0.27131501 -0.38792801
-0.068711251 -0.27131838 -0.38791987
-0.068492994 -0.27130252 -0.387909
-0.068367995 -0.27128762 -0.38792062
-0.068191998 -0.27128765 -0.38790402
-0.06791383 -0.27129 -0.38785449
-0.06778267 -0.27129602 -0.38785934
-0.067437001 -0.27131066 -0.38783035
-0.067336105 -0.27131978 -0.38782898
-0.063372001 -0.27124599 -0.38780099
-0.063075997 -0.27127835 -0.38795701
-0.070265003 -0.27106699 -0.38798451
-0.070054002 -0.27111468 -0.38799599
-0.069916002 -0.27111867 -0.38797018
-0.069709428 -0.27110541 -0.38795212
-0.069519997 -0.27109897 -0.38791949
-0.069267996 -0.27107966 -0.38791633
-0.069123663 -0.27109066 -0.38793334
-0.068967998 -0.27109635 -0.38793266
-0.068689443 -0.27110824 -0.38792312
-0.068483502 -0.27111915 -0.38790652
-0.068368398 -0.27111 -0.387914
-0.068183005 -0.27110398 -0.387896
-0.067904003 -0.27110675 -0.38785249
-0.067772001 -0.27107665 -0.38784865
-0.067425668 -0.27109 -0.38782167
-0.067331128 -0.27110812 -0.38782787
-0.06706167 -0.27111366 -0.38780534
-0.063066006 -0.27109599 -0.38795799
-0.070446 -0.27087 -0.387999
-0.070250005 -0.27088481 -0.387988
-0.070042662 -0.270895 -0.38798869
-0.069905333 -0.27089751 -0.38795367
-0.069687001 -0.27090681 -0.38794342
-0.069510005 -0.2709153 -0.38792598
-0.069258749 -0.27089599 -0.38790676
-0.069103427 -0.27089188 -0.38792256
-0.068955995 -0.27087632 -0.38793731
-0.068720169 -0.27088735 -0.38792816
-0.068512559 -0.27089721 -0.38790601
-0.068352997 -0.270906 -0.3879182
-0.068173669 -0.27091965 -0.38788965
-0.067894496 -0.2709235 -0.38784704
-0.067762494 -0.27089101 -0.38783801
-0.067416996 -0.27090698 -0.38780299
-0.067338333 -0.27087581 -0.38781452
-0.067156002 -0.270964 -0.38780501
-0.066997007 -0.27086002 -0.38780901
-0.063056998 -0.27091134 -0.38794732
-0.062967002 -0.27084699 -0.38799599
-0.070439994 -0.27075899 -0.38798702
-0.070236333 -0.27068901 -0.38798165
-0.070031002 -0.27067432 -0.387988
-0.069894165 -0.27067766 -0.38794386
-0.069716506 -0.27068534 -0.38793969
-0.069545999 -0.27069336 -0.38793066
-0.069249995 -0.27071202 -0.38788784
-0.069112875 -0.27071503 -0.38792902
-0.068947002 -0.270693 -0.38792199
-0.068710752 -0.27070373 -0.38792452
-0.068492249 -0.27068639 -0.387889
-0.068341829 -0.27068534 -0.38790599
-0.068163663 -0.27069899 -0.38785899
-0.067883499 -0.27070335 -0.38784036
-0.067753009 -0.27070966 -0.38783202
-0.067406997 -0.27072433 -0.38781133
-0.067328997 -0.27069199 -0.38780901
-0.063046001 -0.27068999 -0.38793668
-0.062959008 -0.27070096 -0.38799635
-0.070236169 -0.27051699 -0.38797817
-0.070021495 -0.2704905 -0.38798702
-0.069884494 -0.2704955 -0.38795075
-0.0697065 -0.27050251 -0.38795099
-0.069525406 -0.2704896 -0.38793799
-0.069238 -0.27049235 -0.387898
-0.06909322 -0.27050456 -0.38792703
-0.068937004 -0.27050999 -0.38792801
-0.068701334 -0.27051982 -0.38791597
-0.068504721 -0.27050856 -0.38788801
-0.068332747 -0.27050027 -0.38789302
-0.068152003 -0.27047867 -0.38785866
-0.067872167 -0.27048367 -0.38783917
-0.067742325 -0.2704877 -0.38782033
-0.067347243 -0.27056152 -0.38780725
-0.067131504 -0.27048802 -0.387804
-0.066978 -0.270493 -0.387806
-0.063036501 -0.27050599 -0.38793001
-0.062947333 -0.27047965 -0.38799167
-0.070235334 -0.27034634 -0.387995
-0.0700856 -0.27029061 -0.3879894
-0.069874667 -0.27031198 -0.3879455
-0.069697171 -0.27031997 -0.38794652
-0.069535598 -0.27031219 -0.38793001
-0.069227502 -0.2703115 -0.3879225
-0.069093093 -0.27027637 -0.3879233
-0.068925336 -0.27029064 -0.38792863
-0.068690002 -0.27030018 -0.38791299
-0.068482779 -0.2703099 -0.38787958
-0.068323337 -0.270318 -0.38788214
-0.068141997 -0.27029598 -0.3878625
-0.06786225 -0.27029997 -0.38783824
-0.067733005 -0.27030402 -0.38781601
-0.067336001 -0.27036101 -0.387802
-0.063027002 -0.27032232 -0.38793001
-0.062938005 -0.27029598 -0.38798499
-0.070239 -0.27007601 -0.38799301
-0.070185997 -0.27008167 -0.38799334
-0.069896497 -0.27008224 -0.3879689
-0.069685496 -0.27009985 -0.38794914
-0.069515161 -0.27010766 -0.38793203
-0.069242664 -0.27012631 -0.38793233
-0.069116428 -0.27010286 -0.38791841
-0.068943001 -0.27009466 -0.38792899
-0.068678997 -0.27007982 -0.38790151
-0.068510003 -0.27008867 -0.3878845
-0.068338893 -0.27009657 -0.38788676
-0.068132006 -0.27011368 -0.38786831
-0.067853503 -0.27011582 -0.38782132
-0.067723334 -0.27012131 -0.38780901
-0.063015997 -0.27010235 -0.38792565
-0.062927999 -0.2701135 -0.387995
-0.069884859 -0.26989257 -0.38796687
-0.069673501 -0.2698805 -0.38795483
-0.06950333 -0.26988849 -0.3879385
-0.069231004 -0.26990733 -0.38793632
-0.069125332 -0.26991454 -0.38792986
-0.068948336 -0.26992431 -0.38793084
-0.068668999 -0.26989749 -0.38791299
-0.068500005 -0.26990551 -0.38789475
-0.068326995 -0.26987743 -0.38789743
-0.068121009 -0.26989231 -0.38786331
-0.067864753 -0.26991427 -0.38782424
-0.067745805 -0.26988521 -0.38781178
-0.067292407 -0.26990861 -0.38780779
-0.063004673 -0.26988134 -0.38791236
-0.062917002 -0.26989135 -0.38797769
-0.070164993 -0.26967901 -0.38799
-0.069926605 -0.26973882 -0.38798761
-0.069707997 -0.26969531 -0.38795152
-0.069494247 -0.26970398 -0.38791877
-0.069219001 -0.26968732 -0.38794366
-0.069113776 -0.26969388 -0.38792646
-0.068936832 -0.26970449 -0.38793549
-0.068659 -0.26971415 -0.38791403
-0.068490662 -0.26972285 -0.38789248
-0.068317495 -0.26969418 -0.38789317
-0.068111494 -0.26970899 -0.38785499
-0.067873336 -0.26967731 -0.38783932
-0.067743666 -0.26967967 -0.38781217
-0.067287572 -0.26969185 -0.38780418
-0.062951244 -0.269703 -0.38794273
-0.070156001 -0.26949468 -0.38799131
-0.06992317 -0.26950434 -0.38798749
-0.06969855 -0.26951209 -0.38794744
-0.069484331 -0.26952186 -0.38793364
-0.069208995 -0.26950401 -0.387941
-0.069095626 -0.26948464 -0.38793275
-0.068924665 -0.26948485 -0.38794532
-0.068657197 -0.2695092 -0.3879104
-0.068496287 -0.26949087 -0.38789174
-0.068308562 -0.26951057 -0.38788378
-0.068102993 -0.26952466 -0.387833
-0.067863002 -0.26949501 -0.38784799
-0.067733504 -0.26949698 -0.38782224
-0.067324661 -0.2694793 -0.38780236
-0.062942006 -0.26951882 -0.38793719
-0.070292994 -0.26929897 -0.38799202
-0.070139997 -0.26920199 -0.387997
-0.069901995 -0.26928559 -0.38799119
-0.069711857 -0.26930213 -0.38796329
-0.069503382 -0.26929212 -0.38794613
-0.069202997 -0.26939401 -0.38794401
-0.069122776 -0.26930186 -0.3879295
-0.068915248 -0.26930198 -0.38794151
-0.068679325 -0.26927635 -0.38791737
-0.068499126 -0.26928973 -0.3878929
-0.068296336 -0.26929155 -0.38789153
-0.068089999 -0.26930735 -0.38786164
-0.067853004 -0.26931199 -0.38785601
-0.067723833 -0.26931468 -0.38782015
-0.067305997 -0.26929697 -0.387804
-0.062930331 -0.26929936 -0.38793501
-0.070133999 -0.26909298 -0.38799798
-0.069917664 -0.26911366 -0.38799599
-0.069720745 -0.26910698 -0.3879655
-0.069502674 -0.26908153 -0.3879517
-0.069110245 -0.26910606 -0.38791284
-0.068906166 -0.26911834 -0.38792834
-0.068670005 -0.26909399 -0.38791999
-0.068512574 -0.26911142 -0.38789502
-0.068279006 -0.2690933 -0.38788602
-0.068079002 -0.26908669 -0.38784966
-0.067841999 -0.26909199 -0.38785267
-0.067712002 -0.26909482 -0.38782683
-0.067250207 -0.26910323 -0.38780937
-0.062911406 -0.26909462 -0.3879334
-0.070125006 -0.26890934 -0.38799068
-0.069710165 -0.26892486 -0.38797951
-0.069493167 -0.26889932 -0.38795066
-0.069098338 -0.26888713 -0.38792142
-0.068894833 -0.26889849 -0.38792601
-0.068659998 -0.26891032 -0.38792133
-0.068490438 -0.26891357 -0.38788131
-0.068283252 -0.26891488 -0.38788402
-0.068069503 -0.26890349 -0.38784701
-0.067831993 -0.26890898 -0.38785601
-0.067692399 -0.26889101 -0.38783163
-0.067234665 -0.26889816 -0.38780746
-0.062919796 -0.26891619 -0.38791877
-0.069929004 -0.26873398 -0.38799602
-0.06969849 -0.26870552 -0.38798082
-0.069528498 -0.26871434 -0.38795432
-0.069394 -0.26872 -0.38794169
-0.069088623 -0.26870376 -0.38792434
-0.06889943 -0.26866773 -0.38792902
-0.068648338 -0.26869097 -0.38792369
-0.068520501 -0.26869082 -0.38789466
-0.068298168 -0.2687045 -0.38788709
-0.06805966 -0.26872101 -0.38785502
-0.067822665 -0.26872635 -0.38785502
-0.067700401 -0.2687144 -0.38783857
-0.067275502 -0.26869351 -0.38780403
-0.06290067 -0.26871133 -0.38791814
-0.069822997 -0.26848164 -0.38798931
-0.069687672 -0.26848504 -0.38796917
-0.06951683 -0.26849481 -0.38795546
-0.069382668 -0.2685 -0.38793531
-0.069107227 -0.26851919 -0.38792545
-0.06891299 -0.26849464 -0.38792899
-0.068638504 -0.26850802 -0.38792902
-0.068501197 -0.26848739 -0.38789958
-0.068286665 -0.26848441 -0.38788417
-0.068047337 -0.26850235 -0.38786864
-0.067811005 -0.268507 -0.38786232
-0.067681007 -0.26850966 -0.38783434
-0.067271665 -0.26847968 -0.38780665
-0.067190006 -0.26849699 -0.38780701
-0.062888674 -0.26849151 -0.38792753
-0.070092 -0.26828802 -0.38799399
-0.069859505 -0.26829702 -0.38799098
-0.069677249 -0.26830301 -0.3879835
-0.069504827 -0.26827535 -0.38796234
-0.069371007 -0.26828066 -0.38794398
-0.069095328 -0.26829988 -0.3879351
-0.068903111 -0.26831123 -0.38793176
-0.068629332 -0.26832533 -0.38792363
-0.068508603 -0.26830962 -0.38790101
-0.068305165 -0.26829866 -0.38787365
-0.068100408 -0.26829141 -0.38785258
-0.067803003 -0.268361 -0.38786599
-0.067701377 -0.26828074 -0.38784277
-0.067253672 -0.26830968 -0.38780883
-0.067184001 -0.26838699 -0.387808
-0.062869594 -0.26828662 -0.38791922
-0.070084006 -0.268141 -0.387997
-0.069804996 -0.26815301 -0.387997
-0.069686569 -0.26810855 -0.38798314
-0.069495 -0.26809299 -0.38797051
-0.069361001 -0.26809698 -0.38794899
-0.069083892 -0.2680802 -0.38792935
-0.068891674 -0.2680921 -0.38793314
-0.068618 -0.26810467 -0.38791367
-0.068489499 -0.26810598 -0.38790235
-0.06829489 -0.26811665 -0.38788655
-0.06812121 -0.26811463 -0.38787842
-0.067689568 -0.26809141 -0.38784784
-0.067242503 -0.26809049 -0.3878068
-0.067170501 -0.26813149 -0.3878085
-0.0628796 -0.268107 -0.38786501
-0.071064331 -0.26795232 -0.38799766
-0.070069 -0.26784801 -0.38799
-0.069701552 -0.26789868 -0.38798177
-0.069485836 -0.26790851 -0.38795602
-0.069352001 -0.26791501 -0.38793933
-0.069074668 -0.26789632 -0.38792086
-0.068898998 -0.26791519 -0.3879272
-0.068682604 -0.26786599 -0.38791943
-0.068477161 -0.26788631 -0.38791719
-0.068283111 -0.2678971 -0.38789365
-0.068093993 -0.26791152 -0.38789284
-0.067702875 -0.26791498 -0.38786474
-0.067232758 -0.26790699 -0.38780576
-0.067155004 -0.26783901 -0.38780349
-0.062859498 -0.26790267 -0.38788617
-0.070078664 -0.26768664 -0.38798165
-0.069875002 -0.26770902 -0.387995
-0.06970188 -0.26768687 -0.38797534
-0.069492146 -0.26767772 -0.38795426
-0.069340341 -0.26769504 -0.38794366
-0.069064774 -0.26771376 -0.3879239
-0.068914004 -0.26772416 -0.38791314
-0.068789005 -0.26769 -0.387918
-0.068511002 -0.26770267 -0.38791069
-0.068271443 -0.26767758 -0.38789308
-0.068082668 -0.26769117 -0.38788748
-0.067724504 -0.26770216 -0.38786113
-0.06759467 -0.26770735 -0.38784465
-0.067237251 -0.26774126 -0.38780627
-0.067194998 -0.26768851 -0.38780302
-0.062805995 -0.26772398 -0.387932
-0.062798999 -0.26761499 -0.38794401
-0.070419997 -0.26749232 -0.38799599
-0.0700785 -0.26751485 -0.38797581
-0.069866002 -0.26752567 -0.38798597
-0.069725253 -0.26749426 -0.38797349
-0.069507666 -0.26750252 -0.38794997
-0.069329001 -0.26747465 -0.38792166
-0.069060624 -0.26750275 -0.38791847
-0.068915859 -0.26749313 -0.38792086
-0.068779662 -0.26750731 -0.38791966
-0.068501331 -0.26751977 -0.38791257
-0.068293497 -0.26749399 -0.38789326
-0.068175003 -0.26749951 -0.38789052
-0.067993 -0.26747766 -0.3878797
-0.06771367 -0.26748267 -0.38785031
-0.067583673 -0.26748732 -0.38783467
-0.067238003 -0.2675027 -0.38780931
-0.067161508 -0.267508 -0.38780749
-0.062884003 -0.26749399 -0.38781899
-0.062793002 -0.267506 -0.38796249
-0.070772998 -0.26725501 -0.387997
-0.070090748 -0.26727462 -0.38797563
-0.069853999 -0.26730567 -0.38798901
-0.069716163 -0.2673113 -0.38796917
-0.069497444 -0.2673201 -0.38796011
-0.069318995 -0.26729101 -0.387941
-0.069063596 -0.26728702 -0.38791481
-0.068923444 -0.26728222 -0.38792711
-0.068767332 -0.26728868 -0.387934
-0.068489224 -0.26730046 -0.38792187
-0.068284333 -0.26731065 -0.38788548
-0.068164498 -0.26731667 -0.38790116
-0.067984499 -0.26729399 -0.38786101
-0.0677035 -0.2672995 -0.38786775
-0.067573994 -0.26730502 -0.387842
-0.067226 -0.26728335 -0.387822
-0.067138433 -0.26727927 -0.38781187
-0.06287434 -0.26731032 -0.38780937
-0.062783331 -0.26732135 -0.38794899
-0.071035996 -0.26706001 -0.387997
-0.070729807 -0.26709539 -0.3879872
-0.070402995 -0.26716298 -0.387988
-0.0703215 -0.26705801 -0.38799751
-0.07009878 -0.2670953 -0.38796377
-0.069843002 -0.26708567 -0.38797367
-0.069704503 -0.26709148 -0.38796735
-0.069496505 -0.26710913 -0.38796338
-0.069331996 -0.26708925 -0.38794276
-0.069063596 -0.26711181 -0.38793239
-0.068913333 -0.26710066 -0.38793969
-0.068756998 -0.267106 -0.38794899
-0.068520002 -0.26707867 -0.38792416
-0.068312675 -0.2670891 -0.38789967
-0.068153329 -0.26709634 -0.38789734
-0.067974001 -0.26711133 -0.387876
-0.067693494 -0.26711681 -0.38786784
-0.067562997 -0.26712266 -0.38786003
-0.067216501 -0.26709998 -0.38780901
-0.06710729 -0.26709402 -0.38781342
-0.066803001 -0.26716301 -0.38780099
-0.066797003 -0.26705199 -0.387806
-0.062773339 -0.26710033 -0.38791835
-0.071026504 -0.266877 -0.38799751
-0.070968501 -0.26684499 -0.387995
-0.070665993 -0.26689169 -0.38798401
-0.070098698 -0.26692301 -0.3879638
-0.069833994 -0.266902 -0.38796902
-0.06969475 -0.26690802 -0.38796848
-0.069514997 -0.26687884 -0.38796735
-0.069345504 -0.26688686 -0.38793752
-0.069047838 -0.26690668 -0.3879298
-0.068903781 -0.26691642 -0.38793847
-0.06874866 -0.26692131 -0.38792399
-0.068510503 -0.26689649 -0.3879295
-0.068302505 -0.26690564 -0.3879045
-0.068142332 -0.26687685 -0.38788965
-0.067961998 -0.26689133 -0.38787934
-0.06768167 -0.26689768 -0.38787568
-0.067551672 -0.266902 -0.38785467
-0.067207001 -0.26691768 -0.38781598
-0.06711138 -0.26691586 -0.38781178
-0.066789001 -0.26690501 -0.38780701
-0.062762 -0.2668803 -0.38791236
-0.070963003 -0.26673499 -0.38799301
-0.070656002 -0.26670951 -0.38799798
-0.070330001 -0.266738 -0.38799632
-0.070036002 -0.26670918 -0.38797715
-0.069824003 -0.26671931 -0.387977
-0.069684997 -0.2667245 -0.38796866
-0.06950625 -0.2666955 -0.38795474
-0.069335997 -0.26670301 -0.38793674
-0.069036163 -0.2666865 -0.38793269
-0.068892777 -0.26669687 -0.38792565
-0.068736672 -0.26670203 -0.387934
-0.068500668 -0.26671216 -0.38793001
-0.06829311 -0.2667228 -0.38790467
-0.068131499 -0.2666935 -0.3879095
-0.067953005 -0.266709 -0.387878
-0.067670666 -0.26667717 -0.38786802
-0.067540668 -0.26668236 -0.38784733
-0.067143336 -0.2667011 -0.38782832
-0.066932999 -0.26671767 -0.38780764
-0.066781506 -0.26675999 -0.38780999
-0.066596001 -0.266655 -0.387806
-0.062844001 -0.26672301 -0.38780501
-0.062751502 -0.2666975 -0.38792899
-0.071007662 -0.26651132 -0.38799265
-0.070946999 -0.26644301 -0.38799801
-0.070680998 -0.26650977 -0.38799161
-0.070366003 -0.266469 -0.387999
-0.070050605 -0.26648641 -0.38798299
-0.069886796 -0.26648158 -0.38796377
-0.069673166 -0.26650485 -0.38797569
-0.06949567 -0.26651233 -0.38797167
-0.069326006 -0.26652002 -0.38793734
-0.069026999 -0.26650375 -0.38792327
-0.068874374 -0.26648599 -0.3879106
-0.068725668 -0.26648268 -0.38791898
-0.068488993 -0.26649249 -0.38793001
-0.068291374 -0.26651224 -0.38791275
-0.06813357 -0.26649991 -0.3879067
-0.067942671 -0.26652598 -0.38788667
-0.067661256 -0.2664935 -0.38786125
-0.067530006 -0.26649898 -0.38786301
-0.067121901 -0.26647532 -0.387822
-0.062742665 -0.26651299 -0.38791302
-0.070682496 -0.26637751 -0.38799798
-0.070282504 -0.26632601 -0.387999
-0.070071667 -0.26628968 -0.38798237
-0.069896504 -0.26631251 -0.38796002
-0.069680996 -0.2662743 -0.38797158
-0.069484502 -0.26629317 -0.38796583
-0.069314502 -0.26630068 -0.38793835
-0.069042675 -0.2663193 -0.38792732
-0.068928443 -0.26631832 -0.38791743
-0.068743996 -0.26628667 -0.38791466
-0.0684864 -0.26628861 -0.38794461
-0.068308003 -0.26628283 -0.38792565
-0.06813778 -0.26629046 -0.38791001
-0.06793166 -0.26630667 -0.38788068
-0.067651004 -0.26631182 -0.3878735
-0.067520328 -0.26631734 -0.38786802
-0.067122668 -0.26629797 -0.38782182
-0.066754505 -0.26624697 -0.387806
-0.066544674 -0.266242 -0.38780466
-0.062683173 -0.26629713 -0.38794681
-0.070349 -0.26613802 -0.38799852
-0.070111819 -0.26612145 -0.38798955
-0.069979005 -0.26612666 -0.38797501
-0.069698669 -0.26610067 -0.38796803
-0.069465801 -0.2660884 -0.38794741
-0.069303334 -0.26608065 -0.38793567
-0.069031328 -0.26609865 -0.38792267
-0.068925887 -0.26610646 -0.38791689
-0.068748496 -0.26611617 -0.38792196
-0.0684596 -0.26611218 -0.38794482
-0.06829825 -0.26609951 -0.38792625
-0.068119712 -0.26609272 -0.38791671
-0.067919999 -0.266087 -0.38787332
-0.067683332 -0.26609099 -0.38787302
-0.067552663 -0.26609483 -0.38786137
-0.067097202 -0.26610318 -0.38782176
-0.066748999 -0.26613799 -0.387804
-0.066512205 -0.2660886 -0.3878102
-0.063099995 -0.26607901 -0.38780302
-0.062663004 -0.26609221 -0.38794559
-0.070091598 -0.26589578 -0.38798618
-0.069967665 -0.26590601 -0.38797602
-0.069735669 -0.26591566 -0.38796151
-0.06952025 -0.26591501 -0.38795438
-0.069293007 -0.26589924 -0.38794902
-0.069019668 -0.26587966 -0.38792399
-0.068914779 -0.26588723 -0.38790444
-0.068737164 -0.26589614 -0.38791633
-0.068457671 -0.2659075 -0.38793954
-0.068288662 -0.26591697 -0.38792363
-0.06812425 -0.26591477 -0.38791624
-0.067909494 -0.26590499 -0.38789701
-0.067674503 -0.26590848 -0.38785949
-0.06754116 -0.26587534 -0.38786468
-0.067083366 -0.26590526 -0.38783363
-0.066917248 -0.265894 -0.387813
-0.066511996 -0.26592651 -0.38782001
-0.062689252 -0.26592824 -0.3879025
-0.070849001 -0.26571533 -0.38799533
-0.070719004 -0.26566967 -0.38799766
-0.070060246 -0.26568636 -0.38798964
-0.069956332 -0.26568702 -0.38796797
-0.069723666 -0.26569599 -0.38796887
-0.069497995 -0.26570514 -0.38795507
-0.0692835 -0.26571533 -0.38794169
-0.069010004 -0.265697 -0.38792199
-0.068905495 -0.26570335 -0.387898
-0.068726167 -0.26567614 -0.38790271
-0.068456002 -0.2657024 -0.38793057
-0.068295002 -0.26568499 -0.38791782
-0.068106674 -0.26570499 -0.38791978
-0.067900665 -0.26572165 -0.387885
-0.067665003 -0.26572534 -0.38785329
-0.067530751 -0.26569349 -0.38787752
-0.067084253 -0.26568636 -0.38781926
-0.066934839 -0.26569167 -0.38781187
-0.066723496 -0.26566148 -0.38780701
-0.066459998 -0.26578301 -0.387806
-0.06268663 -0.26569736 -0.3878966
-0.070839003 -0.265533 -0.38800001
-0.070724502 -0.26549798 -0.3879995
-0.070104718 -0.26551828 -0.38799456
-0.069963664 -0.26549032 -0.38796803
-0.069712497 -0.26547614 -0.38795951
-0.069511853 -0.265495 -0.38796356
-0.069303371 -0.26548588 -0.38794386
-0.0690035 -0.26554948 -0.38789701
-0.068905801 -0.2655133 -0.38790721
-0.06871675 -0.26549277 -0.38790199
-0.068480998 -0.26550651 -0.3879275
-0.068297625 -0.26548386 -0.38792598
-0.068094879 -0.26548511 -0.38792053
-0.067887999 -0.26550165 -0.38789734
-0.067652009 -0.26550636 -0.38788632
-0.067521334 -0.26550949 -0.38787219
-0.067088142 -0.26550916 -0.38782984
-0.066925004 -0.26550901 -0.387822
-0.066713996 -0.26547933 -0.387815
-0.066472329 -0.26543966 -0.38780999
-0.062691994 -0.26548564 -0.38784301
-0.062592663 -0.26549301 -0.38797835
-0.070672996 -0.265351 -0.387995
-0.070118338 -0.26530668 -0.38799182
-0.069963165 -0.26531899 -0.38797715
-0.069702998 -0.265293 -0.38795924
-0.06952025 -0.26530048 -0.38796526
-0.069293 -0.26528424 -0.38794354
-0.068909995 -0.26529989 -0.38791314
-0.068706505 -0.2653105 -0.38791433
-0.068471007 -0.26532367 -0.38793731
-0.068310283 -0.26530626 -0.38794014
-0.068085335 -0.26530281 -0.38792148
-0.067877002 -0.2652823 -0.38789466
-0.067639999 -0.26528636 -0.38789368
-0.067510001 -0.26529032 -0.38786617
-0.06707 -0.26531121 -0.38783887
-0.066915333 -0.26532635 -0.38781801
-0.066704005 -0.26529598 -0.387815
-0.066479996 -0.26530451 -0.38781026
-0.062682003 -0.265302 -0.38784748
-0.062580667 -0.26527366 -0.38798735
-0.070081443 -0.26508844 -0.3879852
-0.069951497 -0.26509932 -0.38797653
-0.069693163 -0.26511049 -0.38796616
-0.06951084 -0.26511732 -0.38796201
-0.069306001 -0.26510742 -0.38794813
-0.068898 -0.26508024 -0.38792369
-0.068694502 -0.26509118 -0.38792884
-0.068458669 -0.26510403 -0.38794768
-0.068297997 -0.26511702 -0.38795537
-0.068087406 -0.2651121 -0.38793269
-0.067866504 -0.26509899 -0.38790798
-0.06763 -0.2651045 -0.38789499
-0.067499503 -0.26510799 -0.38788801
-0.067058332 -0.26509145 -0.38784122
-0.066932499 -0.26512372 -0.38782251
-0.066693999 -0.26511368 -0.38782063
-0.066470504 -0.26512119 -0.38780549
-0.063042998 -0.265019 -0.38782099
-0.062995493 -0.26506299 -0.38780999
-0.062672995 -0.26511833 -0.38783202
-0.062571496 -0.26508999 -0.38797149
-0.070133999 -0.264938 -0.38799599
-0.069940336 -0.26488015 -0.38796818
-0.069681503 -0.264891 -0.38796782
-0.069499001 -0.26489732 -0.38796648
-0.069327995 -0.26490751 -0.38795665
-0.069193669 -0.26491269 -0.38793933
-0.068887867 -0.26489797 -0.38793427
-0.068683997 -0.26490951 -0.38794249
-0.068446003 -0.26488468 -0.38796535
-0.068316996 -0.26488602 -0.38796532
-0.068094753 -0.26489934 -0.38795149
-0.067856006 -0.26491699 -0.38792801
-0.067621 -0.26492134 -0.38789535
-0.06748917 -0.26492482 -0.38790265
-0.067058995 -0.26491541 -0.38783979
-0.066945158 -0.26485783 -0.38781682
-0.066687003 -0.26496699 -0.387802
-0.066480003 -0.26488274 -0.38781226
-0.063083395 -0.2649118 -0.38782001
-0.062984996 -0.26488033 -0.38782668
-0.062661998 -0.26489833 -0.38782397
-0.062563337 -0.26490602 -0.38795099
-0.069929749 -0.26469675 -0.38799101
-0.069671504 -0.26470852 -0.38797751
-0.069486998 -0.26467836 -0.38798013
-0.069316171 -0.26468834 -0.38796601
-0.069181338 -0.26469401 -0.38796067
-0.068905786 -0.2647129 -0.38795164
-0.068714336 -0.26472402 -0.38793755
-0.068436995 -0.26470202 -0.38796002
-0.068307251 -0.2647025 -0.38796824
-0.06809099 -0.26468545 -0.38795221
-0.067883 -0.26467624 -0.3879295
-0.067609005 -0.26470199 -0.38790536
-0.067477494 -0.26470551 -0.38790551
-0.067063339 -0.26472434 -0.38784984
-0.066917829 -0.26470035 -0.38782847
-0.066456802 -0.2646966 -0.38781479
-0.066310599 -0.2646586 -0.38781101
-0.063050002 -0.26473722 -0.38781041
-0.062649004 -0.26467934 -0.38785663
-0.062547997 -0.26464897 -0.387986
-0.070045002 -0.264577 -0.38800001
-0.069908246 -0.26453325 -0.38798276
-0.069661498 -0.26452568 -0.38798317
-0.069476992 -0.26449573 -0.38798147
-0.06929367 -0.26451698 -0.38796631
-0.069171503 -0.26451099 -0.38796198
-0.068894222 -0.26449302 -0.38794911
-0.068702668 -0.26450488 -0.38793585
-0.068426996 -0.26451901 -0.38795933
-0.068297498 -0.26452035 -0.38797665
-0.068101339 -0.26449433 -0.38795102
-0.067896403 -0.26448798 -0.3879298
-0.067601003 -0.26455599 -0.38791201
-0.067497879 -0.26447561 -0.387918
-0.067050666 -0.26450467 -0.38787034
-0.066907324 -0.26451755 -0.38784456
-0.066661999 -0.2644915 -0.38781649
-0.066482 -0.26449701 -0.387824
-0.066346005 -0.26450324 -0.3878265
-0.066133 -0.26451498 -0.387802
-0.063032992 -0.26447901 -0.38780534
-0.062692806 -0.26451299 -0.38782281
-0.062539995 -0.264503 -0.38798648
-0.069908671 -0.264294 -0.38798401
-0.069659799 -0.2643196 -0.38798338
-0.069497667 -0.26431134 -0.38797751
-0.069256671 -0.264323 -0.38797498
-0.069162004 -0.26432732 -0.38796631
-0.068876371 -0.26428324 -0.38795561
-0.068690769 -0.26428545 -0.38794592
-0.068415001 -0.26429966 -0.38797534
-0.068286002 -0.2643005 -0.38796902
-0.068091333 -0.264312 -0.38796046
-0.0679176 -0.26430941 -0.38794798
-0.067499667 -0.26430184 -0.38791668
-0.067038499 -0.26428568 -0.38788235
-0.066906877 -0.26430601 -0.38785821
-0.066688247 -0.26428899 -0.38784051
-0.066471674 -0.26431432 -0.38783801
-0.066317715 -0.26431113 -0.38781998
-0.063063554 -0.26428109 -0.38781863
-0.062952995 -0.26425701 -0.38781199
-0.0626515 -0.26429176 -0.38781977
-0.062532 -0.26431897 -0.38795567
-0.069872335 -0.26407668 -0.38795868
-0.069685005 -0.26408431 -0.38797936
-0.069546662 -0.26408982 -0.38796833
-0.069245003 -0.26410365 -0.38798234
-0.069149338 -0.26410934 -0.38798466
-0.068880856 -0.26410571 -0.38795727
-0.068696998 -0.26410919 -0.3879658
-0.068596996 -0.26406601 -0.38795501
-0.068292283 -0.26407012 -0.38797346
-0.06807933 -0.26409233 -0.38796511
-0.067891337 -0.26410583 -0.38794851
-0.0675015 -0.26412725 -0.38791126
-0.067399003 -0.26404801 -0.38791499
-0.067029506 -0.26410276 -0.38787201
-0.0669256 -0.2640906 -0.3878448
-0.066715658 -0.26408634 -0.38784865
-0.066459663 -0.26409498 -0.38783666
-0.06632483 -0.26410046 -0.3878282
-0.066194333 -0.26410797 -0.38781199
-0.063083254 -0.2640965 -0.38781351
-0.062969998 -0.26410601 -0.38781649
-0.0626522 -0.26407483 -0.38783601
-0.062521994 -0.26409799 -0.38791701
-0.069880664 -0.26392865 -0.38798833
-0.0695365 -0.26390699 -0.38797498
-0.069302998 -0.26388058 -0.3879967
-0.069137998 -0.26388869 -0.38798666
-0.068862997 -0.26390803 -0.38796198
-0.068711497 -0.26391852 -0.38797167
-0.06858933 -0.26392034 -0.38795698
-0.068307668 -0.26389715 -0.3879683
-0.068059579 -0.26389357 -0.38796955
-0.067895792 -0.26389942 -0.3879576
-0.067798004 -0.263818 -0.387927
-0.067522667 -0.26389667 -0.38790533
-0.067391336 -0.26390234 -0.38790765
-0.067047 -0.26391765 -0.38785934
-0.066951498 -0.26391613 -0.38785934
-0.066705748 -0.2639035 -0.38785052
-0.066448003 -0.26387534 -0.38783833
-0.06631317 -0.26388082 -0.38783184
-0.066135801 -0.26386282 -0.38780957
-0.063082397 -0.26388282 -0.38781121
-0.0629666 -0.26393598 -0.38781318
-0.062651999 -0.263906 -0.3878305
-0.062509663 -0.26387799 -0.3879303
-0.069667503 -0.26375499 -0.38799101
-0.069526829 -0.263724 -0.38797882
-0.069322601 -0.2637032 -0.38799018
-0.069128007 -0.26370502 -0.38798299
-0.068866856 -0.26369756 -0.38795829
-0.068724379 -0.26368752 -0.38796711
-0.068579003 -0.26370168 -0.38792399
-0.068297774 -0.2637141 -0.38798034
-0.068092167 -0.26372534 -0.38795796
-0.067970999 -0.26369351 -0.38797149
-0.067793503 -0.26370901 -0.38791299
-0.067511 -0.26367715 -0.38790813
-0.067381002 -0.26368234 -0.38789234
-0.067034326 -0.26369834 -0.38787732
-0.066933997 -0.26370648 -0.38786599
-0.066696338 -0.26372015 -0.38785136
-0.066438496 -0.26369298 -0.38784301
-0.066303 -0.26369798 -0.38784701
-0.066106834 -0.26369765 -0.38781682
-0.065972 -0.26360899 -0.387804
-0.063351005 -0.26364303 -0.38780299
-0.063092127 -0.26369265 -0.38782659
-0.062961496 -0.26370075 -0.38781601
-0.062651001 -0.26373658 -0.38784179
-0.062532336 -0.26368067 -0.38789698
-0.069564998 -0.26357701 -0.38799599
-0.069347203 -0.26352519 -0.38797861
-0.069118336 -0.26352233 -0.38799
-0.068866745 -0.263504 -0.38797298
-0.068714499 -0.26348627 -0.38794973
-0.068566673 -0.26348135 -0.38794565
-0.068297371 -0.26350302 -0.3879824
-0.068098143 -0.26349372 -0.38794914
-0.067961335 -0.26351082 -0.38797185
-0.067783333 -0.26352569 -0.38792101
-0.067501001 -0.26349425 -0.387909
-0.067370996 -0.26349899 -0.38789803
-0.067022331 -0.26347899 -0.38788769
-0.066921674 -0.26348689 -0.38788119
-0.066684999 -0.26350102 -0.38784933
-0.066428997 -0.2635093 -0.38784364
-0.066293173 -0.2635155 -0.38784531
-0.066129804 -0.26350999 -0.38781363
-0.065948002 -0.26348865 -0.38781264
-0.063261002 -0.26349902 -0.3878085
-0.063081428 -0.26349327 -0.38781586
-0.062941797 -0.26346722 -0.38781181
-0.062672339 -0.26349968 -0.387844
-0.062538996 -0.26350933 -0.38789451
-0.069644004 -0.26331598 -0.38799298
-0.069511995 -0.26327002 -0.38798624
-0.069327503 -0.26329076 -0.38799202
-0.069130249 -0.26328403 -0.38797799
-0.068857007 -0.26332101 -0.38797799
-0.068722859 -0.26330882 -0.38795814
-0.068554997 -0.2633 -0.38798299
-0.068326399 -0.2632876 -0.38798922
-0.068109341 -0.26328343 -0.38796076
-0.067950502 -0.263291 -0.38795748
-0.06777101 -0.26330635 -0.38793433
-0.067491494 -0.26331136 -0.38791117
-0.067360997 -0.2633163 -0.38790902
-0.067012504 -0.26329601 -0.38789299
-0.066904433 -0.26329029 -0.38787541
-0.066749997 -0.26327935 -0.38785532
-0.066506505 -0.26328734 -0.38785115
-0.066281334 -0.26329583 -0.38785216
-0.066110499 -0.26330534 -0.38781449
-0.065941997 -0.26336598 -0.3878043
-0.063250333 -0.26331633 -0.38781866
-0.063092373 -0.26331598 -0.38782275
-0.062926754 -0.2633 -0.38783601
-0.062661663 -0.26328 -0.38782597
-0.062527999 -0.263289 -0.38788119
-0.069494247 -0.26310202 -0.38797724
-0.069314003 -0.26307303 -0.38798773
-0.069143005 -0.26308167 -0.38798317
-0.068845831 -0.26310119 -0.38797083
-0.068701774 -0.26311123 -0.38798121
-0.068546332 -0.26311633 -0.38797167
-0.068299599 -0.2631118 -0.38798779
-0.068099663 -0.26310134 -0.38796684
-0.0679342 -0.2630876 -0.3879756
-0.067759335 -0.263087 -0.38794032
-0.067479506 -0.26309165 -0.38791883
-0.067349002 -0.26309699 -0.38790798
-0.067004994 -0.26314998 -0.38789201
-0.066918664 -0.26310337 -0.38787234
-0.066740006 -0.26309699 -0.38786
-0.066496491 -0.26310399 -0.38786352
-0.066270836 -0.26307598 -0.387835
-0.066090204 -0.26307201 -0.38781101
-0.065949 -0.26316899 -0.38780099
-0.063280165 -0.26309517 -0.38781318
-0.063101999 -0.26311961 -0.38781637
-0.062942453 -0.26311487 -0.38784921
-0.0626515 -0.263096 -0.38783601
-0.062518753 -0.26310548 -0.38787624
-0.069484003 -0.26291916 -0.38798651
-0.069328502 -0.26292527 -0.3879855
-0.069133252 -0.26289824 -0.38798475
-0.068834506 -0.26288134 -0.38796851
-0.068698876 -0.26288226 -0.38797575
-0.068535 -0.26289633 -0.38797167
-0.068320259 -0.26292625 -0.38799125
-0.068089776 -0.262918 -0.38797644
-0.067933999 -0.26290959 -0.38797557
-0.0677495 -0.26290399 -0.38794702
-0.067460001 -0.26288763 -0.3879168
-0.067337334 -0.26287732 -0.38791502
-0.066915661 -0.26289973 -0.38788959
-0.066730998 -0.26291266 -0.38784865
-0.066533253 -0.26293802 -0.38785201
-0.066305995 -0.26289168 -0.3878375
-0.066089749 -0.26290351 -0.38780627
-0.063227333 -0.26287699 -0.38781866
-0.063055329 -0.262887 -0.38781098
-0.062931448 -0.26289475 -0.38783437
-0.062642001 -0.26291433 -0.38784
-0.062509671 -0.26292282 -0.38785914
-0.069472 -0.2627005 -0.38799602
-0.069334999 -0.262631 -0.38799399
-0.069123499 -0.262716 -0.387995
-0.068833999 -0.26271033 -0.38796532
-0.068685874 -0.26268962 -0.38797289
-0.068522662 -0.26267704 -0.38798034
-0.068283752 -0.2626515 -0.38799101
-0.068088628 -0.26270688 -0.38797325
-0.067930289 -0.26269472 -0.38796714
-0.067740336 -0.26272103 -0.387941
-0.067467794 -0.2627106 -0.387927
-0.067328006 -0.26269501 -0.38790649
-0.066904746 -0.26268044 -0.38787815
-0.066720665 -0.26269367 -0.38782701
-0.066565998 -0.26269832 -0.38784301
-0.066296548 -0.26270866 -0.38783512
-0.066079997 -0.26272053 -0.38781166
-0.065922 -0.262658 -0.38780299
-0.063983999 -0.26261401 -0.387802
-0.063217998 -0.26269299 -0.387813
-0.063047998 -0.262739 -0.387806
-0.0629135 -0.262685 -0.38784462
-0.062629662 -0.262694 -0.38785002
-0.062497169 -0.262703 -0.38788435
-0.069555499 -0.26251298 -0.3879945
-0.069330998 -0.262557 -0.38799399
-0.069157004 -0.26245701 -0.38799798
-0.068840668 -0.26251367 -0.38797
-0.068734884 -0.26252177 -0.38796821
-0.068555005 -0.2624945 -0.38798377
-0.068277001 -0.26250398 -0.38797927
-0.068106003 -0.26247731 -0.38796699
-0.06793455 -0.26248443 -0.38797146
-0.067728996 -0.26250201 -0.38792899
-0.067448668 -0.26250648 -0.38792598
-0.067317002 -0.2625117 -0.387936
-0.066894628 -0.26249725 -0.38788876
-0.066707 -0.26247469 -0.38787469
-0.066554673 -0.26247901 -0.38784668
-0.066329665 -0.26248699 -0.38784984
-0.066110335 -0.26249769 -0.38781711
-0.065961003 -0.26243401 -0.38780099
-0.063208334 -0.26251066 -0.38780999
-0.063056499 -0.262501 -0.38781574
-0.062917426 -0.26250672 -0.38785627
-0.062617667 -0.26247469 -0.38785866
-0.062485833 -0.26248333 -0.38787666
-0.069053002 -0.2622793 -0.38799334
-0.068828002 -0.26229432 -0.38798967
-0.068722881 -0.26230201 -0.38797665
-0.068545997 -0.26231083 -0.38797882
-0.068266504 -0.26232132 -0.38799202
-0.068095997 -0.26229399 -0.38797599
-0.067924827 -0.26230183 -0.38797367
-0.067717336 -0.26228201 -0.38793766
-0.067480661 -0.26228666 -0.387925
-0.067349501 -0.26229051 -0.38792399
-0.066884749 -0.26231477 -0.38789085
-0.066697501 -0.26229149 -0.3878665
-0.066544503 -0.26229602 -0.38785249
-0.066320248 -0.26230448 -0.38785052
-0.066088252 -0.26228839 -0.38783064
-0.065916136 -0.26227984 -0.38781142
-0.063276 -0.26221499 -0.387806
-0.063047498 -0.26231802 -0.38780725
-0.062900335 -0.26230875 -0.38784036
-0.062608495 -0.26229101 -0.38784
-0.062476754 -0.26229998 -0.38786525
-0.062323999 -0.26226801 -0.387986
-0.069394998 -0.26211599 -0.38799366
-0.069074005 -0.26208296 -0.38799968
-0.068816334 -0.26207504 -0.38798764
-0.068711333 -0.26208299 -0.38798103
-0.06853433 -0.26209149 -0.38797632
-0.068255328 -0.26210168 -0.38798633
-0.068077601 -0.26212639 -0.38799137
-0.067914993 -0.26211876 -0.38798201
-0.067707002 -0.26209903 -0.38794801
-0.067469999 -0.26210302 -0.38794202
-0.067339748 -0.26210749 -0.38792872
-0.0668879 -0.26210019 -0.38790339
-0.066731401 -0.26209262 -0.38787481
-0.06653399 -0.262113 -0.38786969
-0.066309832 -0.26212135 -0.38786268
-0.066101149 -0.26211056 -0.38784328
-0.065884575 -0.26209417 -0.38781613
-0.062888667 -0.26208842 -0.38784179
-0.062604003 -0.262182 -0.38781601
-0.062500879 -0.26210475 -0.38783461
-0.062317997 -0.26212069 -0.38795534
-0.069385499 -0.26193303 -0.387997
-0.069131002 -0.26194501 -0.38798749
-0.068807006 -0.26189297 -0.38798302
-0.068701833 -0.26190001 -0.3879765
-0.068510659 -0.26192102 -0.38799134
-0.068267494 -0.2619015 -0.38796973
-0.068105251 -0.26187974 -0.38798812
-0.067903429 -0.26192001 -0.38799199
-0.067696996 -0.26191667 -0.38795933
-0.067460999 -0.26192066 -0.38793302
-0.067330502 -0.2619243 -0.38792613
-0.06687957 -0.26189342 -0.3879137
-0.066731334 -0.26188684 -0.38788262
-0.066522337 -0.26189366 -0.38787735
-0.06629917 -0.261902 -0.387849
-0.066120498 -0.26190999 -0.38783848
-0.065917723 -0.26191682 -0.38781509
-0.062870398 -0.26191419 -0.38781619
-0.062500998 -0.26189387 -0.38783041
-0.062307 -0.26190099 -0.38793299
-0.068801001 -0.26178199 -0.38798401
-0.068710275 -0.26170853 -0.38798955
-0.068514161 -0.26172566 -0.38799167
-0.068278506 -0.26170051 -0.38797501
-0.068148501 -0.26170149 -0.38798749
-0.067892335 -0.261704 -0.38799667
-0.067685001 -0.26169667 -0.38796535
-0.067449003 -0.26170066 -0.38793969
-0.06731867 -0.2617045 -0.38792765
-0.066883869 -0.26171637 -0.38790151
-0.066721499 -0.2617045 -0.3878895
-0.066509999 -0.26167431 -0.38789466
-0.066287331 -0.26168236 -0.38785434
-0.066109173 -0.26169053 -0.38783446
-0.065899424 -0.26170453 -0.38781795
-0.062906802 -0.2617051 -0.38781378
-0.062504835 -0.2616975 -0.38785696
-0.062335599 -0.26166502 -0.3879008
-0.068709165 -0.26149467 -0.38798782
-0.068512209 -0.2615208 -0.38798621
-0.068268329 -0.26151764 -0.38798299
-0.068108425 -0.26152086 -0.38799557
-0.067936003 -0.26149401 -0.38799202
-0.067673333 -0.26147732 -0.38797101
-0.067437001 -0.26148066 -0.387954
-0.067306668 -0.26148552 -0.38794282
-0.066865772 -0.26150644 -0.38792512
-0.066711165 -0.26152116 -0.38790634
-0.066499993 -0.26148999 -0.38789099
-0.066277504 -0.26149926 -0.38785797
-0.066089794 -0.26148599 -0.38783258
-0.065888166 -0.26148489 -0.38781294
-0.062858224 -0.2615028 -0.38783598
-0.062534198 -0.26150936 -0.38783699
-0.062338501 -0.26149672 -0.38786551
-0.068692602 -0.26128978 -0.38799682
-0.068535507 -0.26132199 -0.387988
-0.068257667 -0.26129833 -0.38796499
-0.068102404 -0.26131481 -0.38799459
-0.067663997 -0.26129401 -0.38796949
-0.067426994 -0.261298 -0.38795999
-0.06729725 -0.2613025 -0.38793802
-0.06685333 -0.26128656 -0.38794366
-0.066699162 -0.26130182 -0.38791716
-0.066490673 -0.26130769 -0.3878943
-0.06626717 -0.26131633 -0.38787079
-0.066096596 -0.26130903 -0.38784918
-0.065889709 -0.26130658 -0.38782045
-0.065798998 -0.26127201 -0.38780299
-0.062867604 -0.26129439 -0.38783699
-0.062795669 -0.261289 -0.38783535
-0.062517755 -0.26134077 -0.38781399
-0.062328666 -0.26131281 -0.38786718
-0.0686915 -0.2611655 -0.38800001
-0.068158001 -0.26107466 -0.38798034
-0.067653 -0.26111066 -0.38798466
-0.067418002 -0.26111501 -0.38794765
-0.067286663 -0.2611185 -0.38795197
-0.066868253 -0.26110148 -0.38794547
-0.066714868 -0.26108775 -0.38791138
-0.06647867 -0.26108834 -0.38789901
-0.066255666 -0.26109633 -0.38787249
-0.066077664 -0.26110452 -0.38784483
-0.065894336 -0.26111656 -0.38782543
-0.065791003 -0.26112536 -0.38780567
-0.062837005 -0.26109803 -0.387824
-0.062786505 -0.26110601 -0.387824
-0.062465001 -0.26112401 -0.38780499
-0.062306602 -0.2610786 -0.3878662
-0.069426 -0.260941 -0.38800001
-0.068234995 -0.26089501 -0.387995
-0.068148494 -0.26089197 -0.387981
-0.067641668 -0.26089069 -0.38798168
-0.067405336 -0.2608957 -0.38796768
-0.067275159 -0.26089886 -0.38795134
-0.066858999 -0.2609185 -0.38793552
-0.066724576 -0.26090887 -0.38791132
-0.066468999 -0.26090503 -0.38789999
-0.066267751 -0.26089451 -0.38786298
-0.066099495 -0.26087475 -0.38784277
-0.065883115 -0.26089755 -0.38781935
-0.065783001 -0.26098001 -0.387806
-0.062829494 -0.260952 -0.38781703
-0.062779501 -0.26096052 -0.38780951
-0.062451001 -0.26086801 -0.387804
-0.062297799 -0.26088879 -0.38783479
-0.068660997 -0.26067537 -0.3879894
-0.068522669 -0.260649 -0.38799667
-0.068226002 -0.26071134 -0.38798901
-0.067965999 -0.260649 -0.38799801
-0.067632005 -0.26070702 -0.38798499
-0.067306668 -0.26067796 -0.38796443
-0.06684833 -0.2606993 -0.38792017
-0.066704445 -0.26071155 -0.38790241
-0.066460669 -0.26072234 -0.38787833
-0.066280499 -0.260692 -0.38785049
-0.066101499 -0.26069999 -0.38784251
-0.065899 -0.26067567 -0.38782153
-0.062283333 -0.26072732 -0.38783467
-0.068685003 -0.26054099 -0.38799199
-0.068410002 -0.260555 -0.38799801
-0.068218 -0.260566 -0.387997
-0.067899331 -0.26050451 -0.38798869
-0.067623667 -0.26052499 -0.38795602
-0.067297667 -0.26049504 -0.38794816
-0.06683699 -0.26048002 -0.3879157
-0.066705123 -0.26050088 -0.38789701
-0.066487253 -0.2604835 -0.38786
-0.066270664 -0.26050901 -0.38785532
-0.06610325 -0.26052648 -0.38784564
-0.065881431 -0.26048842 -0.38783029
-0.065756001 -0.26046699 -0.38780701
-0.062519997 -0.26056999 -0.38780099
-0.062238336 -0.26050767 -0.38783798
-0.067869127 -0.2602765 -0.38798577
-0.067612335 -0.26030564 -0.38795599
-0.067299999 -0.26032138 -0.3879419
-0.067198001 -0.26024199 -0.38793099
-0.066837005 -0.26030833 -0.38790402
-0.066736005 -0.26028118 -0.38789582
-0.066514671 -0.26028132 -0.387867
-0.066258334 -0.26028967 -0.38786435
-0.066123329 -0.260295 -0.38785851
-0.065904796 -0.2603159 -0.38784119
-0.065767199 -0.2603038 -0.38781363
-0.062227666 -0.26028764 -0.38781801
-0.068610333 -0.26010534 -0.38798967
-0.068109006 -0.26016051 -0.387997
-0.067868166 -0.26010218 -0.38799214
-0.067717999 -0.260095 -0.387986
-0.067598 -0.26004899 -0.38797051
-0.067320503 -0.26009116 -0.38794413
-0.067189999 -0.26009667 -0.38792932
-0.066844672 -0.26011202 -0.38790098
-0.06674888 -0.26011014 -0.38790625
-0.066505253 -0.26009798 -0.38786352
-0.066249505 -0.2601065 -0.3878465
-0.066103995 -0.26009017 -0.387844
-0.065915249 -0.260097 -0.38782087
-0.065761507 -0.26009849 -0.38781533
-0.068374999 -0.25989601 -0.38800001
-0.068183668 -0.25990734 -0.38798499
-0.067890994 -0.25991902 -0.38798717
-0.067783251 -0.2599225 -0.38799474
-0.067589998 -0.259902 -0.38797599
-0.06731075 -0.25990799 -0.38794449
-0.067178667 -0.2598767 -0.38792932
-0.066832662 -0.25989267 -0.38791433
-0.066732228 -0.25990155 -0.3878969
-0.066496164 -0.25991485 -0.38785565
-0.06623999 -0.25992334 -0.38784599
-0.066113003 -0.25991398 -0.38784456
-0.065898597 -0.259913 -0.38781339
-0.065777004 -0.25991398 -0.387808
-0.068444997 -0.25960201 -0.387999
-0.068128169 -0.25968581 -0.38798916
-0.067878999 -0.25969899 -0.38799
-0.067763999 -0.25968862 -0.38799161
-0.067580998 -0.25972 -0.38796934
-0.067301504 -0.259725 -0.38794199
-0.067168996 -0.25969303 -0.387936
-0.066823006 -0.25970948 -0.38791198
-0.066720776 -0.25968134 -0.3878926
-0.066484168 -0.25969517 -0.38786498
-0.066228665 -0.25970399 -0.38784599
-0.066093497 -0.25970951 -0.38783517
-0.065922327 -0.25971982 -0.38780853
-0.06851083 -0.25948766 -0.38799033
-0.068354994 -0.25949299 -0.38798398
-0.068119004 -0.2595025 -0.38798147
-0.067908667 -0.25947726 -0.38797879
-0.067749165 -0.25948516 -0.38797984
-0.067571335 -0.25950035 -0.38792565
-0.067290001 -0.259505 -0.38793567
-0.06715966 -0.25951067 -0.38792801
-0.066813998 -0.25952634 -0.38789567
-0.066711836 -0.25949848 -0.38788101
-0.066551499 -0.25951099 -0.3878575
-0.066307165 -0.25948149 -0.38783786
-0.066082172 -0.25949016 -0.38783064
-0.065910667 -0.25950086 -0.38781118
-0.068631254 -0.25927776 -0.38798499
-0.068501443 -0.25930488 -0.38798466
-0.068344504 -0.25931001 -0.38799301
-0.068109669 -0.25931981 -0.38797131
-0.067900337 -0.25929451 -0.38795248
-0.067740999 -0.25930172 -0.38795349
-0.067559332 -0.25928101 -0.38793465
-0.067279339 -0.25928617 -0.38791883
-0.067149997 -0.25929132 -0.38788798
-0.066805005 -0.259343 -0.38789001
-0.06671159 -0.25930709 -0.38788739
-0.066542663 -0.25932732 -0.38784468
-0.066298001 -0.25929898 -0.38782299
-0.066073753 -0.25930801 -0.38780847
-0.065862 -0.25935799 -0.38780299
-0.069233 -0.25904301 -0.387999
-0.068633996 -0.25907615 -0.38797465
-0.068490334 -0.25908577 -0.3879818
-0.068334997 -0.25909135 -0.38795933
-0.068098001 -0.25909999 -0.38797602
-0.067889996 -0.25911099 -0.38796198
-0.067731328 -0.259119 -0.38795331
-0.067550004 -0.25909799 -0.38793552
-0.067270502 -0.259103 -0.38790175
-0.067140505 -0.25910902 -0.38788998
-0.06671533 -0.25909382 -0.38789406
-0.066531003 -0.25910768 -0.38784698
-0.06637767 -0.25911236 -0.38783702
-0.066094503 -0.25912336 -0.38780499
-0.069225997 -0.25889567 -0.38799134
-0.069077663 -0.25885433 -0.38798466
-0.068871997 -0.25883901 -0.387995
-0.068633668 -0.25890467 -0.38796699
-0.068498291 -0.25889671 -0.38795686
-0.068325996 -0.258908 -0.387952
-0.068087496 -0.258881 -0.38795421
-0.067889005 -0.25890052 -0.38795611
-0.067730859 -0.2588883 -0.3879483
-0.067540668 -0.25891498 -0.38792703
-0.067260832 -0.25892019 -0.38790736
-0.067129999 -0.25892535 -0.38789833
-0.066695794 -0.2588903 -0.38786942
-0.066520661 -0.25888899 -0.38782564
-0.066367328 -0.2588937 -0.38782033
-0.069352001 -0.25863451 -0.3879855
-0.069083832 -0.25868216 -0.38797769
-0.068912335 -0.25869 -0.38798347
-0.068640999 -0.25870833 -0.38795963
-0.068511628 -0.25872436 -0.38794345
-0.068336748 -0.25870699 -0.38793799
-0.068079501 -0.25869852 -0.38792327
-0.067900002 -0.25868621 -0.3879284
-0.067736335 -0.25867856 -0.38792968
