# .PCD v0.7 - Point Cloud Data file format
VERSION 0.7
FIELDS x y z
SIZE 4 4 4
TYPE F F F
COUNT 1 1 1
WIDTH 1422
HEIGHT 1
VIEWPOINT 0 0 0 1 0 0 0
POINTS 1422
DATA ascii
-0.035687 0.159577 -0.23984399
-0.035391502 0.159594 -0.23983601
-0.035313334 0.15957899 -0.23983566
-0.035132334 0.15957034 -0.23983432
-0.0350115 0.159575 -0.23982
-0.034919001 0.1595705 -0.23984301
-0.034828499 0.159567 -0.2398445
-0.034560669 0.159541 -0.239838
-0.034412332 0.15955466 -0.239834
-0.034109998 0.15958667 -0.23982035
-0.033996999 0.1595905 -0.23980051
-0.033865251 0.1595825 -0.23978901
-0.0337235 0.159576 -0.239764
-0.033609249 0.15956801 -0.2397545
-0.033474833 0.15956216 -0.239742
-0.0333165 0.15955299 -0.23972701
-0.040088497 0.159696 -0.23975649
-0.039969999 0.15970133 -0.23973466
-0.039719999 0.159642 -0.239723
-0.039597999 0.159705 -0.23975399
-0.039488502 0.15970349 -0.23979849
-0.039346002 0.15972799 -0.23979101
-0.039176498 0.15971625 -0.23979926
-0.039043501 0.1597105 -0.23979349
-0.038943 0.159675 -0.239825
-0.038800001 0.15968932 -0.23984165
-0.038650751 0.159695 -0.23984399
-0.036411002 0.159714 -0.23982301
-0.035330001 0.159695 -0.239849
-0.035006002 0.159712 -0.239831
-0.034913503 0.1597075 -0.239841
-0.034825001 0.159669 -0.239843
-0.034370001 0.15964299 -0.23985
-0.034309 0.15971 -0.23985
-0.034075499 0.15973401 -0.23982701
-0.033990502 0.159729 -0.23981899
-0.033859 0.15972075 -0.23980625
-0.033716999 0.159715 -0.239788
-0.033602998 0.15970576 -0.23977599
-0.0334685 0.15969999 -0.23976468
-0.033339754 0.1596905 -0.23973775
-0.033228502 0.159686 -0.23973151
-0.033048999 0.15970699 -0.239721
-0.032958001 0.159706 -0.23973399
-0.0328275 0.1597345 -0.23973
-0.040261999 0.159872 -0.23973501
-0.040083498 0.15983149 -0.23975301
-0.039991997 0.1598275 -0.239766
-0.039857998 0.15982199 -0.23975399
-0.039712001 0.159812 -0.2397435
-0.03959275 0.1598085 -0.23977549
-0.039483499 0.15980676 -0.2398155
-0.039340999 0.159831 -0.23980901
-0.039183665 0.15984333 -0.23982401
-0.039067 0.15985966 -0.23983167
-0.038934 0.159881 -0.239848
-0.038808502 0.15983799 -0.2398335
-0.036405999 0.15981799 -0.239842
-0.034070998 0.15983699 -0.239833
-0.033985 0.15986499 -0.23983049
-0.033852749 0.15985724 -0.23982376
-0.033709999 0.1598525 -0.23982251
-0.03359675 0.15984276 -0.23979676
-0.033473 0.159831 -0.23978701
-0.033347804 0.15983659 -0.239777
-0.0332225 0.159824 -0.239749
-0.0330435 0.159812 -0.239741
-0.032953002 0.15980899 -0.239757
-0.032837667 0.159815 -0.23975599
-0.032485001 0.159887 -0.23972601
-0.040495001 0.160023 -0.23972701
-0.040257499 0.15997499 -0.239751
-0.040079501 0.15996701 -0.23972499
-0.039987497 0.15996301 -0.23973951
-0.039851248 0.15996024 -0.2397925
-0.039704502 0.159951 -0.239792
-0.039586 0.1599465 -0.23980775
-0.039476998 0.1599445 -0.23984274
-0.039336503 0.159935 -0.23982799
-0.0390305 0.1599855 -0.23984599
-0.038931001 0.15995 -0.23985
-0.038804501 0.15994149 -0.23984149
-0.034068 0.159907 -0.239849
-0.033980001 0.15997 -0.23984601
-0.033897001 0.159963 -0.23984499
-0.03375075 0.15999174 -0.23983249
-0.03359025 0.15998076 -0.23982024
-0.033482 0.159977 -0.23981401
-0.033351667 0.1599685 -0.23980482
-0.033216 0.159962 -0.23977399
-0.033083249 0.15995124 -0.23974301
-0.032946497 0.15994599 -0.23977199
-0.032817498 0.15994149 -0.23978001
-0.032673001 0.15997 -0.239748
-0.032481998 0.15995701 -0.239722
-0.040490001 0.16012549 -0.23975849
-0.040251501 0.16011101 -0.23975849
-0.040073 0.16010499 -0.23975849
-0.039980501 0.1601015 -0.239779
-0.039844248 0.160097 -0.23981701
-0.039699003 0.16008699 -0.23979399
-0.039580751 0.160082 -0.23980224
-0.03947125 0.16008151 -0.23984475
-0.039331499 0.1600695 -0.239816
-0.039200999 0.160096 -0.239821
-0.03912 0.160091 -0.239848
-0.033698998 0.160092 -0.23985
-0.033584248 0.16011801 -0.23983699
-0.033475749 0.16011401 -0.23983151
-0.033345502 0.16010566 -0.23982066
-0.033209 0.16009951 -0.23981
-0.033077251 0.16008902 -0.23976226
-0.032940499 0.1600835 -0.23979449
-0.032811247 0.16007775 -0.23979424
-0.032668002 0.160073 -0.23976651
-0.0325545 0.16009951 -0.23973051
-0.032476 0.16009299 -0.23973501
-0.032318 0.160082 -0.239722
-0.045753002 0.1602045 -0.239732
-0.040486999 0.160227 -0.23973601
-0.040246502 0.16024899 -0.239758
-0.040066 0.1602425 -0.239795
-0.039974499 0.160238 -0.239795
-0.039839998 0.16023275 -0.23979923
-0.039693497 0.16022399 -0.2398065
-0.0395745 0.1602205 -0.2398255
-0.039466999 0.16018349 -0.2398465
-0.039325498 0.16020751 -0.23983151
-0.039198 0.160164 -0.239825
-0.033612002 0.16022401 -0.239843
-0.033329599 0.16023619 -0.23982999
-0.033202998 0.160238 -0.23982701
-0.033070751 0.16022649 -0.239788
-0.0329335 0.16022199 -0.239822
-0.032805249 0.1602165 -0.23981375
-0.0326625 0.160211 -0.239775
-0.032548748 0.16020325 -0.23976925
-0.032430597 0.1602028 -0.2397652
-0.032310501 0.16025349 -0.239732
-0.025603 0.16023301 -0.23974299
-0.0457475 0.16034201 -0.23975
-0.040599 0.16036899 -0.239723
-0.040506497 0.16033225 -0.239758
-0.0402405 0.160385 -0.2397785
-0.040059999 0.16038099 -0.239805
-0.039968498 0.160376 -0.23981249
-0.039834999 0.16036999 -0.23979276
-0.039687999 0.16036099 -0.23980901
-0.039579999 0.160368 -0.23982866
-0.039321002 0.16031 -0.239843
-0.03331 0.160344 -0.23982701
-0.033199001 0.16034 -0.239829
-0.03311 0.160336 -0.23983499
-0.032972999 0.16036175 -0.23983274
-0.032842003 0.160356 -0.23983601
-0.032706 0.1603505 -0.2398075
-0.032542001 0.16034225 -0.239805
-0.032439001 0.1603355 -0.23980349
-0.032345667 0.16033767 -0.23975734
-0.032164998 0.160385 -0.23973149
-0.025539 0.16036899 -0.239811
-0.045740001 0.16047901 -0.23979101
-0.040493999 0.160457 -0.23974366
-0.040235002 0.16049001 -0.239802
-0.040057 0.16047999 -0.23978899
-0.0399625 0.16051251 -0.23982701
-0.039878 0.160511 -0.23984
-0.039730001 0.160501 -0.23981801
-0.039564498 0.16045851 -0.23984149
-0.033012502 0.16049999 -0.23984399
-0.032836501 0.160493 -0.23984149
-0.032700248 0.16048725 -0.23981576
-0.032535002 0.1604805 -0.23983675
-0.032433249 0.1604725 -0.23981224
-0.032330249 0.1604625 -0.23977
-0.025593 0.160506 -0.239723
-0.045733001 0.16061649 -0.23982349
-0.045547664 0.16061334 -0.23973601
-0.040589001 0.1606095 -0.23973399
-0.040488001 0.16061567 -0.23975401
-0.040230498 0.16059199 -0.23981351
-0.040053502 0.160584 -0.23978099
-0.039958 0.160615 -0.23983601
-0.039724 0.160639 -0.23983599
-0.0326945 0.16062501 -0.239824
-0.032541331 0.16060632 -0.23982
-0.032442398 0.1606172 -0.23980539
-0.032324247 0.16060099 -0.23978175
-0.032157 0.1605905 -0.23974201
-0.031985 0.16061699 -0.239722
-0.025584001 0.16061351 -0.23981899
-0.045532499 0.16073801 -0.239767
-0.045458 0.16073 -0.23974499
-0.040583998 0.16074601 -0.239741
-0.040489502 0.1607435 -0.23978449
-0.040225998 0.16072699 -0.239794
-0.040045999 0.160722 -0.239823
-0.039955001 0.160685 -0.23985
-0.039703999 0.16076232 -0.239824
-0.032825999 0.160799 -0.239822
-0.03268975 0.160761 -0.23981449
-0.032555997 0.16075501 -0.239804
-0.032447167 0.16074733 -0.23980866
-0.032318749 0.16073824 -0.23979175
-0.032149501 0.16073 -0.239788
-0.032022499 0.16072151 -0.23973599
-0.031937499 0.16075301 -0.23973501
-0.025580499 0.1607485 -0.239785
-0.04553467 0.16086566 -0.239796
-0.04544 0.16087499 -0.23976719
-0.040831 0.16093101 -0.239723
-0.040578 0.16088301 -0.23974949
-0.040482752 0.160881 -0.239814
-0.040221497 0.160863 -0.23978001
-0.040041 0.160825 -0.239841
-0.039715998 0.160843 -0.23983049
-0.032823 0.16087 -0.23982801
-0.032701332 0.16088766 -0.23982334
-0.032551002 0.16086 -0.23983
-0.032440998 0.16085249 -0.23983949
-0.03231125 0.16087724 -0.23983873
-0.032142498 0.1608685 -0.2398155
-0.032058001 0.160863 -0.2397735
-0.03193225 0.16085701 -0.239757
-0.031785998 0.16088501 -0.239728
-0.0255765 0.16088501 -0.23976451
-0.045545999 0.16101399 -0.239813
-0.045444503 0.161006 -0.23978066
-0.040856671 0.16102333 -0.23973501
-0.0407365 0.1610305 -0.2397525
-0.040610999 0.16102226 -0.23976099
-0.040477999 0.161016 -0.2398015
-0.040215999 0.16096801 -0.23982
-0.032049999 0.16100201 -0.239824
-0.03192525 0.16099524 -0.23978826
-0.031780001 0.16098949 -0.239767
-0.031688999 0.16101199 -0.239738
-0.025568999 0.161025 -0.239811
-0.045539498 0.16115201 -0.23983401
-0.045439169 0.16114168 -0.23978268
-0.045335501 0.16113299 -0.23972499
-0.041476998 0.16116799 -0.23972701
-0.041260999 0.161154 -0.239724
-0.040882666 0.16111533 -0.23972933
-0.040732 0.16113301 -0.239759
-0.040604502 0.16115899 -0.23978725
-0.04047225 0.16115424 -0.23981501
-0.031919003 0.16113375 -0.23981351
-0.031773999 0.161127 -0.23977801
-0.031685501 0.16111401 -0.23973601
-0.025562 0.16119599 -0.239812
-0.045534 0.16128901 -0.23983851
-0.045433331 0.16127901 -0.23979233
-0.045330003 0.16126901 -0.239723
-0.041473001 0.161236 -0.239746
-0.041435666 0.161281 -0.23974268
-0.041255999 0.161258 -0.23974201
-0.040907502 0.16124099 -0.239728
-0.04077325 0.16123751 -0.23975301
-0.040600002 0.161263 -0.23979551
-0.040497001 0.161282 -0.23983099
-0.032039002 0.161277 -0.23983499
-0.031912252 0.16127224 -0.23984
-0.031768002 0.16126549 -0.23980701
-0.031637251 0.16125125 -0.23975825
-0.031522498 0.161247 -0.23972601
-0.045528501 0.16142499 -0.23983601
-0.045428168 0.16141467 -0.239788
-0.0452905 0.16143849 -0.239731
-0.0417655 0.16142 -0.23974
-0.041523501 0.16140801 -0.23972601
-0.04143925 0.16140674 -0.23975125
-0.041249 0.1613965 -0.23977301
-0.040899999 0.1613795 -0.23976651
-0.04076675 0.16137475 -0.239785
-0.040634997 0.161367 -0.239801
-0.040555 0.16139901 -0.239814
-0.031893 0.16139734 -0.23984568
-0.031760998 0.161403 -0.23983401
-0.031644668 0.16137899 -0.239794
-0.03152075 0.1614015 -0.23974875
-0.031420998 0.161376 -0.2397325
-0.045422997 0.16153476 -0.2398085
-0.045302399 0.161549 -0.23976159
-0.045178998 0.161569 -0.23973601
-0.041761 0.161523 -0.23974399
-0.041669503 0.1615535 -0.23973399
-0.041433997 0.16154276 -0.23975475
-0.041243002 0.16153401 -0.23978901
-0.040894002 0.16151699 -0.23978201
-0.040760249 0.16151275 -0.23980999
-0.040629499 0.161503 -0.239794
-0.040529002 0.16148801 -0.23982199
-0.031755999 0.161541 -0.2398285
-0.031666003 0.1615285 -0.2397985
-0.031546749 0.16152401 -0.23977099
-0.031435002 0.16151699 -0.23977326
-0.031319998 0.161543 -0.23972701
-0.025635 0.161539 -0.239738
-0.045443501 0.16162401 -0.2398455
-0.045307666 0.16168083 -0.23978616
-0.0451735 0.16167301 -0.239757
-0.045090001 0.1617 -0.23972701
-0.042265002 0.16168299 -0.239729
-0.042020999 0.161677 -0.239722
-0.041932002 0.161669 -0.23973601
-0.0417585 0.161625 -0.23973101
-0.041664999 0.16165601 -0.239746
-0.041545998 0.16168325 -0.23974851
-0.041426502 0.1616815 -0.23979375
-0.041238502 0.16166949 -0.239779
-0.040888499 0.161653 -0.239795
-0.040769 0.16164 -0.23983432
-0.040624 0.161608 -0.239833
-0.040546 0.161604 -0.23984499
-0.031750999 0.161645 -0.239843
-0.031659998 0.161667 -0.23982599
-0.031540751 0.16166225 -0.239788
-0.031429499 0.16165501 -0.23977399
-0.031273201 0.161649 -0.23973241
-0.025630001 0.161643 -0.23976201
-0.045303669 0.16178267 -0.239787
-0.045191664 0.16182201 -0.23977865
-0.045085497 0.1618035 -0.23973501
-0.042446502 0.161837 -0.23974201
-0.042300999 0.16180725 -0.2397325
-0.042065501 0.16178101 -0.2397365
-0.041926999 0.16177249 -0.2397625
-0.041795749 0.1617675 -0.2397735
-0.041660503 0.161759 -0.23976499
-0.0415405 0.161787 -0.239766
-0.041422501 0.1617835 -0.23979449
-0.041231997 0.161807 -0.2397975
-0.040882498 0.1617915 -0.2398065
-0.040793002 0.16178951 -0.239833
-0.031745002 0.1618145 -0.23983499
-0.031534247 0.1618 -0.2398085
-0.031425748 0.16179001 -0.23974475
-0.031268399 0.1617724 -0.23973319
-0.031198001 0.161809 -0.23972701
-0.025628 0.161743 -0.239729
-0.04541 0.16186 -0.239848
-0.04532975 0.16188726 -0.23980074
-0.045186996 0.16193502 -0.239775
-0.045080997 0.161939 -0.23973051
-0.042442501 0.161938 -0.23974475
-0.042309169 0.16192833 -0.23974852
-0.0420595 0.161917 -0.2397515
-0.041920498 0.16191 -0.239776
-0.041790247 0.16190401 -0.2397805
-0.041654497 0.1618965 -0.2397815
-0.041536 0.16188949 -0.239786
-0.0414185 0.16188599 -0.23979826
-0.041226499 0.161944 -0.239802
-0.0408765 0.161928 -0.23981899
-0.04061 0.16195001 -0.239843
-0.031741001 0.161917 -0.23982801
-0.0316495 0.16194099 -0.2398195
-0.031528503 0.16193825 -0.23981699
-0.031418499 0.1619285 -0.2397805
-0.031279001 0.16195151 -0.23972949
-0.031156 0.16194549 -0.239732
-0.045323499 0.162025 -0.23982026
-0.045207333 0.16203 -0.23979767
-0.045076001 0.16204301 -0.239741
-0.044919997 0.16207933 -0.239731
-0.042429 0.16206266 -0.23974936
-0.042330001 0.16206852 -0.239765
-0.042216253 0.16206026 -0.23977774
-0.042052753 0.16205549 -0.239777
-0.041914999 0.162046 -0.23978201
-0.041784499 0.16204101 -0.23978901
-0.041647501 0.16203499 -0.239806
-0.041529499 0.162028 -0.2398085
-0.04141175 0.16202499 -0.23983049
-0.041223001 0.162046 -0.23979799
-0.040872 0.16203199 -0.239832
-0.04078 0.162099 -0.23985
-0.031645 0.162044 -0.23983701
-0.031510998 0.16206335 -0.23982567
-0.03141075 0.16206799 -0.23983526
-0.031273 0.162057 -0.23976649
-0.031163668 0.16203798 -0.23975499
-0.0452905 0.16216001 -0.239832
-0.04518925 0.162154 -0.23982173
-0.045070499 0.16214651 -0.2397795
-0.044914667 0.16219334 -0.23974633
-0.044802502 0.16219899 -0.23973501
-0.043503001 0.162228 -0.239723
-0.043151498 0.162177 -0.2397375
-0.042441335 0.16215666 -0.23976767
-0.042315334 0.16219334 -0.23978533
-0.04221075 0.16219701 -0.239787
-0.042047251 0.16219249 -0.23978299
-0.041910999 0.16218099 -0.2397655
-0.041777998 0.16217925 -0.23981149
-0.041642003 0.16217101 -0.23981351
-0.041535333 0.16215366 -0.23981868
-0.041405499 0.16216251 -0.23985
-0.041218497 0.162149 -0.23980901
-0.031531665 0.162156 -0.23983566
-0.031398334 0.162194 -0.23984401
-0.031267501 0.162194 -0.23976874
-0.031182 0.16218799 -0.23976749
-0.045284502 0.16229799 -0.23984751
-0.045183003 0.162292 -0.23983699
-0.045064501 0.16228351 -0.239788
-0.044940665 0.16228732 -0.23975401
-0.044798002 0.162303 -0.239757
-0.044431001 0.16234601 -0.23972151
-0.043461997 0.16231699 -0.23972833
-0.0433845 0.1623235 -0.23972401
-0.043247502 0.162315 -0.2397375
-0.043102749 0.16231225 -0.23974201
-0.042865999 0.162302 -0.239751
-0.042596001 0.162322 -0.239739
-0.042426247 0.16228299 -0.23980375
-0.042328667 0.16228701 -0.23979867
-0.042195003 0.162322 -0.239797
-0.042041499 0.162329 -0.239794
-0.041903999 0.16232 -0.239804
-0.041817002 0.16232049 -0.239832
-0.041666999 0.16229834 -0.23982267
-0.041552499 0.162303 -0.23982351
-0.041214 0.16225199 -0.23981901
-0.041209999 0.16232 -0.239838
-0.031515002 0.1622815 -0.239833
-0.031409334 0.16228665 -0.23983967
-0.031261001 0.16233225 -0.23978874
-0.03114 0.16232374 -0.23975374
-0.0310155 0.16231701 -0.23974201
-0.030912001 0.16234501 -0.23972601
-0.025517 0.162331 -0.23983699
-0.045279503 0.16243401 -0.239847
-0.045177497 0.162429 -0.23983976
-0.045059502 0.1624195 -0.23979101
-0.044919997 0.16241249 -0.239779
-0.044793501 0.162405 -0.239766
-0.044627666 0.16245167 -0.23973501
-0.044512 0.1624535 -0.23974201
-0.044448003 0.162449 -0.2397245
-0.043738499 0.162412 -0.23975199
-0.043646999 0.162441 -0.23973399
-0.0434375 0.16246501 -0.2397355
-0.043351002 0.16245949 -0.239748
-0.043241002 0.16245301 -0.23976651
-0.043096252 0.16245 -0.23977201
-0.042589501 0.1624265 -0.239775
-0.042420752 0.16242 -0.23981151
-0.042314999 0.16241199 -0.23980525
-0.042211663 0.16241498 -0.23981266
-0.042086001 0.162433 -0.239816
-0.041927997 0.162449 -0.23980999
-0.041632 0.162411 -0.239834
-0.041522998 0.162451 -0.239834
-0.031471997 0.16241801 -0.23984149
-0.031390332 0.16239999 -0.23984234
-0.031257 0.162435 -0.23980451
-0.031133499 0.16246274 -0.23978601
-0.031010501 0.16245401 -0.23974499
-0.03091 0.162412 -0.239722
-0.025513999 0.16246501 -0.23980001
-0.045159999 0.162553 -0.23984599
-0.045053497 0.16255701 -0.23980451
-0.044914 0.16255 -0.23979652
-0.0447875 0.162541 -0.23977199
-0.044689499 0.16253701 -0.23975199
-0.04453367 0.16258265 -0.23976
-0.044420499 0.162587 -0.23974448
-0.043995 0.162598 -0.23973501
-0.043861002 0.16259199 -0.239731
-0.0437335 0.16254899 -0.239755
-0.043613002 0.16255499 -0.23974
-0.043430999 0.16257 -0.23977301
-0.043337334 0.16258401 -0.23975366
-0.043236002 0.16258925 -0.23975751
-0.0430905 0.162587 -0.23977801
-0.042854998 0.162607 -0.239733
-0.042584501 0.1625635 -0.23978201
-0.042414501 0.16255826 -0.23983325
-0.042309247 0.16254899 -0.23981126
-0.042195499 0.16254075 -0.239822
-0.042081498 0.16253799 -0.23982951
-0.041937999 0.16256475 -0.23981474
-0.041807 0.162562 -0.23984499
-0.041542001 0.162544 -0.239843
-0.031252 0.16253926 -0.2398145
-0.0311285 0.16256601 -0.239802
-0.0310045 0.16259199 -0.23975851
-0.030902501 0.1625845 -0.23973
-0.030804999 0.162615 -0.23973
-0.02551 0.162569 -0.23980001
-0.045047998 0.16266 -0.239838
-0.044907998 0.16268726 -0.23981075
-0.044782497 0.16267949 -0.2397785
-0.044683501 0.1626745 -0.239764
-0.044557333 0.16267733 -0.239769
-0.044414252 0.162725 -0.23976475
-0.044230498 0.162709 -0.23972899
-0.0439905 0.16270101 -0.2397535
-0.043855999 0.16269599 -0.23975775
-0.043727502 0.1626855 -0.2397655
-0.043608334 0.16266833 -0.23975901
-0.043473203 0.16268221 -0.23978801
-0.043350335 0.16267835 -0.239776
-0.043242335 0.16271199 -0.23973501
-0.043085247 0.1627235 -0.2397815
-0.042848498 0.16271299 -0.239785
-0.042576998 0.1627025 -0.23982301
-0.042435002 0.162663 -0.23984601
-0.042303249 0.16268626 -0.2398245
-0.042201001 0.16266666 -0.23983233
-0.041978002 0.162637 -0.239842
-0.031246502 0.1626775 -0.23981799
-0.031125 0.162669 -0.23979275
-0.030999999 0.16269501 -0.239759
-0.030896999 0.1627225 -0.23973301
-0.030801 0.16271901 -0.239737
-0.025506001 0.162672 -0.2397975
-0.044902001 0.1628245 -0.23982175
-0.044775501 0.162817 -0.23980701
-0.0446775 0.16281199 -0.23977551
-0.044538498 0.16280074 -0.23977076
-0.044410497 0.162827 -0.2397655
-0.044224001 0.16284749 -0.2397695
-0.043984503 0.162837 -0.239757
-0.043892503 0.162834 -0.23977399
-0.043763999 0.16282851 -0.239783
-0.04363 0.16282001 -0.239775
-0.043492801 0.1628066 -0.23979101
-0.043352801 0.16281101 -0.23978861
-0.043217003 0.16280633 -0.23977368
-0.043079499 0.16282749 -0.23981901
-0.042842001 0.16285151 -0.239802
-0.042272002 0.162789 -0.23984601
-0.031240501 0.1628145 -0.23983224
-0.031118751 0.16280675 -0.23980975
-0.030996 0.16279849 -0.23976851
-0.025501 0.16277499 -0.23980699
-0.045035001 0.163002 -0.239834
-0.044911999 0.16295034 -0.23982233
-0.044796333 0.16296701 -0.23982131
-0.044671498 0.162949 -0.23979399
-0.04453275 0.16293749 -0.2397815
-0.044405501 0.16292951 -0.23978275
-0.044218 0.162985 -0.239775
-0.043977998 0.162975 -0.23978099
-0.043885998 0.1629715 -0.23979101
-0.043758247 0.16296525 -0.23978949
-0.043624498 0.162956 -0.23978749
-0.043505501 0.16295099 -0.23978752
-0.043358501 0.16294266 -0.23980349
-0.043219998 0.16293451 -0.23981699
-0.04308933 0.16292101 -0.23982866
-0.043030001 0.162965 -0.23984
-0.042837001 0.162955 -0.239831
-0.0313765 0.16295975 -0.239834
-0.031236 0.16295099 -0.23982051
-0.031113749 0.162944 -0.239815
-0.030990001 0.1629355 -0.23977301
-0.030889001 0.16292751 -0.23973501
-0.030792 0.162958 -0.239724
-0.045031998 0.16306999 -0.23984601
-0.044935502 0.1631 -0.2398285
-0.04479133 0.16308068 -0.23983265
-0.044665501 0.163086 -0.23979899
-0.044527501 0.163075 -0.2397905
-0.044399001 0.1630675 -0.23980001
-0.044215001 0.163085 -0.23975299
-0.043972 0.163113 -0.23980349
-0.043880001 0.16311 -0.23981149
-0.043752253 0.16310249 -0.23980752
-0.043619499 0.163092 -0.239775
-0.043499753 0.1630875 -0.23979875
-0.043353666 0.163078 -0.2397915
-0.0432145 0.1630705 -0.23981801
-0.043112502 0.1630695 -0.23983499
-0.042833999 0.16302299 -0.239841
-0.0313715 0.163064 -0.239848
-0.031230249 0.1630885 -0.239825
-0.031073 0.163045 -0.23979799
-0.031013668 0.16308665 -0.239776
-0.0308825 0.163066 -0.23975849
-0.030759668 0.16307133 -0.23973267
-0.025574001 0.16311701 -0.239732
-0.044930998 0.163204 -0.23985
-0.044757999 0.1632285 -0.23983601
-0.044660002 0.163222 -0.2398055
-0.044521503 0.163211 -0.239796
-0.044393498 0.16320425 -0.23981151
-0.044210501 0.1631895 -0.23976901
-0.043969002 0.163213 -0.239788
-0.043877002 0.163212 -0.239796
-0.043732334 0.16322701 -0.23982267
-0.043613501 0.163229 -0.23978201
-0.043494247 0.1632245 -0.23980026
-0.043358602 0.16320999 -0.2398216
-0.043236751 0.1632085 -0.23983076
-0.043108001 0.16317201 -0.23984499
-0.031234331 0.16321401 -0.23981766
-0.031158665 0.163233 -0.23983268
-0.03102275 0.16321425 -0.23979075
-0.030877501 0.163203 -0.23976299
-0.030740749 0.16319776 -0.23974249
-0.030610999 0.16322599 -0.239732
-0.025572 0.163187 -0.23973601
-0.044752501 0.1633645 -0.2398355
-0.0446545 0.163359 -0.23980999
-0.044515498 0.1633485 -0.23980899
-0.044388752 0.16334 -0.23980001
-0.044204999 0.1633255 -0.239775
-0.043964498 0.16331699 -0.2397905
-0.043872498 0.163314 -0.23980349
-0.043741751 0.16334349 -0.23983499
-0.043607499 0.16336599 -0.23980451
-0.043489002 0.16336074 -0.239797
-0.043285999 0.16331699 -0.239847
-0.031353336 0.16336 -0.23984468
-0.031245999 0.16336301 -0.239813
-0.031165 0.1633255 -0.239833
-0.031017251 0.16335174 -0.239797
-0.030870501 0.16334251 -0.2397895
-0.0307335 0.16333699 -0.23977426
-0.030607499 0.16332999 -0.23973501
-0.025460668 0.163369 -0.23979634
-0.044748001 0.16350001 -0.23982701
-0.044648997 0.163496 -0.23981199
-0.044509999 0.16348551 -0.23981549
-0.044383001 0.16347751 -0.239811
-0.044198498 0.16346401 -0.2397965
-0.043958999 0.163453 -0.239797
-0.0438665 0.163451 -0.23981899
-0.043751001 0.16345833 -0.23984067
-0.043601498 0.16350451 -0.23981699
-0.043481749 0.1634995 -0.23983251
-0.043253001 0.16348451 -0.23984951
-0.03101125 0.16349 -0.23981026
-0.030865001 0.16347951 -0.239793
-0.030728251 0.1634735 -0.23977174
-0.030603999 0.163431 -0.239723
-0.025474999 0.163463 -0.239814
-0.044744 0.16360199 -0.239825
-0.044643499 0.163633 -0.23981899
-0.044503998 0.16362301 -0.23982951
-0.044377249 0.16361374 -0.239812
-0.0441925 0.163601 -0.239813
-0.043953501 0.16359 -0.239804
-0.043861002 0.163588 -0.239811
-0.043732502 0.16358301 -0.23983775
-0.043597002 0.163609 -0.239832
-0.043466002 0.163624 -0.23983033
-0.043274499 0.16362301 -0.239842
-0.042812001 0.163571 -0.23984601
-0.031005751 0.16362751 -0.23981775
-0.030860499 0.163616 -0.23978001
-0.030723501 0.16361 -0.2397605
-0.025554501 0.1636325 -0.239739
-0.044741001 0.163673 -0.239843
-0.044638999 0.163736 -0.239829
-0.044541001 0.16376099 -0.23980901
-0.044401601 0.16374679 -0.23983738
-0.044187002 0.163738 -0.239816
-0.043947503 0.163728 -0.23982351
-0.043855 0.163725 -0.2398265
-0.043727003 0.16371925 -0.23983625
-0.0435935 0.16371 -0.239822
-0.043485668 0.16371466 -0.23981266
-0.043353997 0.1637315 -0.23984599
-0.031231999 0.163675 -0.23985
-0.030987 0.16375099 -0.23979767
-0.030857 0.1637505 -0.23974749
-0.03076 0.16374901 -0.2397645
-0.030676 0.163747 -0.239776
-0.02555 0.163737 -0.239746
-0.044734001 0.16384301 -0.23984601
-0.044636 0.16380499 -0.23983701
-0.044535998 0.163865 -0.23982801
-0.044395398 0.16389802 -0.23984179
-0.044182003 0.163874 -0.23980749
-0.043942999 0.16383199 -0.239829
-0.04387933 0.16387467 -0.23984033
-0.043736666 0.16384535 -0.23983334
-0.043617997 0.16385867 -0.239824
-0.0434695 0.16384 -0.23981977
-0.031113001 0.163873 -0.239848
-0.031011999 0.163845 -0.23981534
-0.0308515 0.1638885 -0.23975301
-0.030754499 0.163886 -0.239766
-0.030671999 0.163882 -0.23974749
-0.025548 0.16380399 -0.239731
-0.044532999 0.163936 -0.23984499
-0.044378601 0.1640186 -0.23982379
-0.044176001 0.16401249 -0.239825
-0.043890748 0.164 -0.23982599
-0.043759502 0.16399801 -0.23983851
-0.043628 0.16398576 -0.23983425
-0.043463752 0.163977 -0.23982526
-0.031129001 0.16398866 -0.239839
-0.0309925 0.16397101 -0.23981801
-0.030846499 0.164024 -0.23974201
-0.030748501 0.164024 -0.23977999
-0.0306665 0.16402 -0.23975
-0.044400752 0.164112 -0.2398255
-0.04417 0.164149 -0.2398375
-0.043885499 0.1641365 -0.2398265
-0.043753497 0.164134 -0.239842
-0.043622252 0.16412249 -0.23983876
-0.043458253 0.16411425 -0.23983251
-0.031166 0.164084 -0.23983701
-0.030987751 0.16410699 -0.23980501
-0.030842001 0.16412801 -0.23975401
-0.030743999 0.16412801 -0.23979899
-0.030662 0.164122 -0.239756
-0.044521 0.16424149 -0.239841
-0.044391401 0.16422479 -0.2398376
-0.044330001 0.16426601 -0.23984601
-0.044165999 0.16425 -0.239832
-0.043879502 0.16427448 -0.23983701
-0.043617252 0.16425949 -0.23984051
-0.043419998 0.164214 -0.23984
-0.043233331 0.164225 -0.23984902
-0.031025499 0.164249 -0.23982999
-0.030888248 0.16423625 -0.239778
-0.030741001 0.16422901 -0.239776
-0.030658999 0.164226 -0.23974499
-0.044515498 0.164378 -0.23984
-0.044400498 0.16437 -0.239847
-0.044163 0.164354 -0.2398285
-0.043919999 0.16441301 -0.239841
-0.043596666 0.16438466 -0.23984468
-0.043481998 0.16435701 -0.239849
-0.031019501 0.164387 -0.239838
-0.0308825 0.16437499 -0.23979025
-0.030735999 0.16436699 -0.2397635
-0.030609999 0.16436026 -0.23974524
-0.025524 0.16442201 -0.23973601
-0.044364002 0.16447 -0.239842
-0.044159502 0.1644875 -0.2397915
-0.043407001 0.164556 -0.23984399
-0.031172499 0.164565 -0.239848
-0.031013999 0.16452399 -0.23984349
-0.030877002 0.1645125 -0.23979376
-0.030731 0.16450199 -0.239757
-0.030605001 0.16449699 -0.23974724
-0.030471001 0.16452 -0.239723
-0.025519 0.164526 -0.23974401
-0.044503 0.16468699 -0.239848
-0.044154502 0.16462401 -0.23978299
-0.043469001 0.164698 -0.23984499
-0.043404002 0.164626 -0.23985
-0.0311685 0.16466776 -0.23984
-0.031008501 0.16466099 -0.239842
-0.030871499 0.16464999 -0.23979351
-0.030725501 0.16464001 -0.23975751
-0.030599499 0.164635 -0.23974849
-0.030466501 0.1646235 -0.239732
-0.044147 0.164763 -0.23982751
-0.043466002 0.164766 -0.239847
-0.031155 0.164793 -0.23983766
-0.031003501 0.16479799 -0.23984399
-0.030866001 0.16478699 -0.23979625
-0.030720999 0.164776 -0.2397415
-0.030609334 0.16476099 -0.23974533
-0.030506 0.164765 -0.23973751
-0.044141501 0.1649 -0.239833
-0.043726001 0.16485199 -0.239848
-0.043637 0.16491 -0.239847
-0.0311304 0.1649054 -0.2398366
-0.0309985 0.1649355 -0.2398345
-0.030878669 0.164913 -0.23979665
-0.030746667 0.16492666 -0.23975734
-0.030633001 0.16491151 -0.239738
-0.030548001 0.16487101 -0.23972499
-0.025505001 0.164904 -0.239742
-0.044137001 0.165004 -0.239848
-0.031370997 0.165025 -0.23984051
-0.031155501 0.16501051 -0.23983525
-0.031032 0.16503751 -0.23982349
-0.030908499 0.1650625 -0.23977
-0.0307585 0.165052 -0.23974675
-0.0306275 0.16504699 -0.23973301
-0.025503 0.16497201 -0.239722
-0.031365499 0.165162 -0.23984501
-0.03115 0.1651475 -0.23983374
-0.031027999 0.16514075 -0.23982574
-0.030905001 0.16516399 -0.239755
-0.030753249 0.16518974 -0.23974176
-0.030621499 0.165187 -0.2397525
-0.025495499 0.16514501 -0.23973601
-0.031396002 0.165335 -0.239847
-0.03114575 0.16528399 -0.239822
-0.031022999 0.16527775 -0.23981951
-0.030900501 0.16526851 -0.23977199
-0.030733332 0.16531299 -0.23972534
-0.030617001 0.16532099 -0.239732
-0.025404502 0.16528499 -0.2398095
-0.043375 0.165378 -0.23984399
-0.031512 0.165475 -0.23984499
-0.031393252 0.16543651 -0.23982576
-0.031281751 0.1654295 -0.23982099
-0.031141002 0.16542076 -0.23980975
-0.03101825 0.16541401 -0.23980874
-0.030895501 0.16540501 -0.23977
-0.030760666 0.165408 -0.23974733
-0.030613 0.165425 -0.239728
-0.025399501 0.16542149 -0.239804
-0.043437 0.165518 -0.239849
-0.031509001 0.165543 -0.239843
-0.03138775 0.16557324 -0.23982349
-0.031276498 0.165565 -0.239815
-0.031136498 0.16555625 -0.23979476
-0.03101375 0.16554974 -0.23978874
-0.030890498 0.16554099 -0.2397545
-0.03074025 0.16553199 -0.239741
-0.0306095 0.165528 -0.239732
-0.044110999 0.165686 -0.239833
-0.031383749 0.16570875 -0.23979999
-0.031271499 0.16570249 -0.23980799
-0.031131249 0.165694 -0.23979349
-0.031009249 0.1656865 -0.23977651
-0.030885 0.16567901 -0.23975199
-0.0307355 0.165668 -0.23972499
-0.030605 0.165631 -0.23973501
-0.044376001 0.165841 -0.239848
-0.044108 0.16575401 -0.23983499
-0.031498 0.165819 -0.23984499
-0.031379499 0.165813 -0.23980999
-0.031266 0.16584 -0.23981124
-0.031126499 0.16582975 -0.23978175
-0.031004751 0.165822 -0.23976424
-0.030879 0.16581601 -0.2397705
-0.025382001 0.165838 -0.23983499
-0.044372998 0.16590901 -0.23985
-0.031494997 0.16591999 -0.23983701
-0.031375501 0.165916 -0.23981202
-0.031261999 0.16594401 -0.239812
-0.031121999 0.1659655 -0.23976375
-0.031000501 0.1659575 -0.23973975
-0.030877 0.16591799 -0.239742
-0.025377501 0.16597399 -0.239815
-0.044300999 0.166109 -0.239848
-0.031683002 0.166107 -0.239847
-0.031519666 0.16607301 -0.23983668
-0.031370498 0.16605301 -0.23980451
-0.031258501 0.1660455 -0.23980175
-0.031117249 0.16610199 -0.239747
-0.030994499 0.166096 -0.23975399
-0.025376 0.16610399 -0.23974651
-0.025317 0.166077 -0.23985
-0.025147 0.16613699 -0.239829
-0.044389665 0.16622967 -0.23983634
-0.04428333 0.16620101 -0.23983967
-0.031763501 0.1662115 -0.23983601
-0.0316795 0.166208 -0.23984051
-0.031530246 0.16619951 -0.23982951
-0.031401999 0.16619051 -0.239803
-0.031279337 0.16618299 -0.23977934
-0.031114001 0.166205 -0.239748
-0.030988751 0.16623349 -0.23975974
-0.025372 0.166208 -0.239741
-0.025293 0.16618733 -0.23982334
-0.025161333 0.16622533 -0.239792
-0.045184501 0.166327 -0.23983
-0.044906002 0.16634899 -0.239834
-0.04441167 0.166347 -0.23984666
-0.044084001 0.166372 -0.23984
-0.043844 0.166361 -0.239849
-0.031801 0.16635001 -0.23982425
-0.031525251 0.1663375 -0.23982599
-0.031397499 0.166327 -0.239783
-0.031274833 0.166319 -0.23976749
-0.03110975 0.166307 -0.239742
-0.030986 0.166335 -0.2397435
-0.025368501 0.16631 -0.2397255
-0.025288999 0.16630201 -0.23981799
-0.025189999 0.16627499 -0.239816
-0.045167804 0.1664696 -0.23982039
-0.045022003 0.16648901 -0.2398075
-0.044903003 0.16644901 -0.239811
-0.044805001 0.166481 -0.23983601
-0.044673499 0.1664755 -0.239848
-0.044349998 0.16652501 -0.239849
-0.0440805 0.166473 -0.239838
-0.043840997 0.166463 -0.23983049
-0.043748997 0.16645899 -0.2398375
-0.043400001 0.166476 -0.239849
-0.032333001 0.166484 -0.239848
-0.032124002 0.16646899 -0.23984601
-0.032065999 0.1664945 -0.239804
-0.031925999 0.1664895 -0.239804
-0.031798501 0.166482 -0.23977275
-0.031670999 0.1664805 -0.239804
-0.031521253 0.166472 -0.23979875
-0.0313945 0.1664615 -0.2397505
-0.031269666 0.16645615 -0.23975867
-0.03108 0.166409 -0.23974299
-0.031020001 0.16640399 -0.23974
-0.025361501 0.16645199 -0.23977301
-0.045293331 0.16662033 -0.23982733
-0.045175504 0.16659699 -0.23978831
-0.045021251 0.16658601 -0.23975401
-0.044898503 0.16658351 -0.239786
-0.044802502 0.1665805 -0.23979799
-0.044671003 0.16657525 -0.23981574
-0.044529498 0.1665715 -0.2398285
-0.044389002 0.16659574 -0.23983526
-0.0442595 0.16665401 -0.2398255
-0.044076003 0.1666085 -0.23982251
-0.043835498 0.16659999 -0.239838
-0.043745 0.16659451 -0.239822
-0.043614 0.1666245 -0.23984751
-0.043480001 0.16661499 -0.23983601
-0.043396503 0.16657701 -0.23984
-0.034379002 0.166648 -0.239847
-0.034265801 0.16661282 -0.23981062
-0.034140665 0.166611 -0.23982601
-0.033867333 0.16659933 -0.23983133
-0.033723 0.16661701 -0.239849
-0.033608664 0.16658634 -0.239841
-0.033365998 0.16659699 -0.239843
-0.033197999 0.166658 -0.23982801
-0.0330838 0.16662259 -0.23981142
-0.032954 0.166647 -0.239843
-0.032807332 0.16661333 -0.23982267
-0.032685 0.166632 -0.239838
-0.032512002 0.166627 -0.23984499
-0.032412 0.166623 -0.239825
-0.0323015 0.16657925 -0.23979701
-0.032172501 0.16657233 -0.23981082
-0.032063998 0.166594 -0.23976301
-0.031925999 0.166586 -0.239731
-0.031753503 0.166614 -0.23972701
-0.025357999 0.16658551 -0.23973399
-0.045496002 0.16672499 -0.23985
-0.045299001 0.1667435 -0.23979351
-0.045171332 0.16673166 -0.23976649
-0.045017999 0.166686 -0.23973399
-0.044801999 0.166678 -0.23973501
-0.044670001 0.1666735 -0.2397555
-0.044528499 0.1667005 -0.23974651
-0.044400662 0.16670632 -0.23978199
-0.044257745 0.16675325 -0.239777
-0.044074498 0.1667385 -0.2397425
-0.043833502 0.16673049 -0.239777
-0.043742001 0.1667265 -0.23977199
-0.043612249 0.1667245 -0.239815
-0.043477997 0.16671601 -0.23981151
-0.043358251 0.16671149 -0.23982826
-0.0432375 0.16674 -0.23984349
-0.043130249 0.16669649 -0.23982899
-0.042885002 0.1667555 -0.23981351
-0.035409 0.166767 -0.23983601
-0.035057999 0.166749 -0.239842
-0.034780502 0.1667335 -0.23983151
-0.034642 0.166729 -0.239848
-0.034508251 0.16675499 -0.23980799
-0.034374997 0.16674951 -0.239838
-0.034251835 0.16674167 -0.239794
-0.034127999 0.16673125 -0.2397895
-0.034004498 0.16673125 -0.239831
-0.033850998 0.16671975 -0.23977026
-0.033721 0.1667155 -0.239814
-0.033637501 0.16671151 -0.23982599
-0.033492249 0.16670474 -0.23981073
-0.03333075 0.16669625 -0.2398175
-0.033230331 0.16670434 -0.23981833
-0.03310575 0.16673101 -0.23974776
-0.032952003 0.1667465 -0.2398015
-0.032819249 0.1667365 -0.239788
-0.032683998 0.16673151 -0.23978701
-0.032554001 0.16672701 -0.239797
-0.032410003 0.16672251 -0.23979101
-0.032298252 0.166712 -0.23974301
-0.032169834 0.16670465 -0.23975249
-0.0320605 0.166696 -0.23975599
-0.031920999 0.166724 -0.239723
-0.025260501 0.16676199 -0.23983601
-0.02517 0.166759 -0.23984
-0.0454925 0.16682699 -0.23983151
-0.04529525 0.16687749 -0.23976825
-0.045194 0.16686824 -0.23974875
-0.044234999 0.166852 -0.23973501
-0.043832 0.16682801 -0.239732
-0.043738998 0.16682699 -0.239748
-0.043624666 0.16684568 -0.23975165
-0.043475501 0.1668475 -0.23975649
-0.043355502 0.16684301 -0.23977076
-0.043235499 0.1668395 -0.23980525
-0.0430975 0.16682951 -0.23980266
-0.0429685 0.1668265 -0.239806
-0.042883001 0.16685501 -0.239775
-0.042684 0.16691899 -0.23982
-0.042056333 0.16688533 -0.23983832
-0.035523999 0.16688466 -0.23983501
-0.035406999 0.16686749 -0.23980501
-0.035304334 0.16687466 -0.239802
-0.035148002 0.16687424 -0.23983824
-0.035022248 0.16684875 -0.23982202
-0.034910999 0.1668435 -0.239829
-0.034777749 0.16683476 -0.23979849
-0.034640498 0.1668275 -0.239793
-0.034492001 0.16687433 -0.23974866
-0.034373999 0.1668805 -0.23975851
-0.034248333 0.16687584 -0.23976099
-0.034115333 0.16685234 -0.23975199
-0.034002252 0.1668625 -0.2397705
-0.033861998 0.16684334 -0.23974133
-0.0337185 0.1668485 -0.23976299
-0.033635501 0.16684249 -0.23976499
-0.033506334 0.16682601 -0.23974733
-0.033328 0.1668285 -0.23976876
-0.033219002 0.16682675 -0.23978201
-0.033140998 0.166851 -0.23972701
-0.032949999 0.1668795 -0.2397455
-0.032831334 0.16685998 -0.23975067
-0.032681003 0.1668645 -0.2397415
-0.032566667 0.16684866 -0.239742
-0.032409001 0.166821 -0.239738
-0.032265 0.166812 -0.23973501
-0.0321665 0.166823 -0.23972949
-0.032058001 0.166798 -0.239732
-0.02526 0.16685875 -0.2397615
-0.025147 0.166821 -0.23977
-0.045488998 0.16696 -0.239801
-0.04529075 0.16701275 -0.23974925
-0.045216501 0.16700399 -0.23973149
-0.043320999 0.16693801 -0.23972601
-0.043235 0.1669355 -0.2397445
-0.04308125 0.166944 -0.23974726
-0.042966001 0.1669575 -0.2397465
-0.042879999 0.16695601 -0.23975149
-0.042684998 0.166982 -0.23976
-0.042412002 0.167007 -0.239794
-0.042268001 0.1670025 -0.23981801
-0.042181 0.16700767 -0.23982035
-0.042053163 0.16698635 -0.23981901
-0.041908 0.167016 -0.239838
-0.041808002 0.167016 -0.239849
-0.0363065 0.16701651 -0.23983949
-0.036127999 0.167007 -0.23984499
-0.035941001 0.166997 -0.239834
-0.035765 0.166988 -0.23983601
-0.03568 0.1670135 -0.239803
-0.035552666 0.166997 -0.239796
-0.035431668 0.16701533 -0.23978765
-0.03528975 0.16699575 -0.23976099
-0.03515983 0.16698898 -0.23976399
-0.0350185 0.16698225 -0.23978801
-0.0349085 0.16697749 -0.2397825
-0.03477475 0.16696824 -0.23975849
-0.034638502 0.1669585 -0.239733
-0.03455 0.166921 -0.239738
-0.033634 0.166941 -0.239722
-0.033293001 0.16692901 -0.239749
-0.033216998 0.16692549 -0.23973551
-0.046095751 0.16713101 -0.23981826
-0.045484498 0.1670955 -0.239778
-0.045286998 0.1671145 -0.2397415
-0.042411 0.16710301 -0.23972601
-0.042266499 0.1671315 -0.23974299
-0.042198334 0.16711734 -0.239756
-0.042072669 0.16710734 -0.23975533
-0.041947749 0.16711575 -0.2397895
-0.0418065 0.1671135 -0.23979551
-0.041676 0.16710475 -0.23980349
-0.041541502 0.16709849 -0.23983
-0.04140975 0.16709174 -0.23981625
-0.036727 0.1671735 -0.23983401
-0.0365985 0.1671295 -0.2398375
-0.036471501 0.167127 -0.23981225
-0.036305502 0.16711375 -0.239792
-0.036201999 0.16711099 -0.239804
-0.0361255 0.16710749 -0.23981699
-0.035939001 0.167097 -0.23979801
-0.035764001 0.1670855 -0.23977551
-0.0356775 0.167145 -0.2397415
-0.035580501 0.1671415 -0.23973799
-0.035444498 0.16710299 -0.239751
-0.035287499 0.1670955 -0.23973151
-0.035208002 0.16709299 -0.239733
-0.034984 0.167079 -0.239739
-0.034906998 0.16707499 -0.23973501
-0.034818001 0.16707 -0.239722
-0.046167001 0.167274 -0.2398245
-0.046091501 0.16726574 -0.23979726
-0.045918502 0.1672565 -0.23980999
-0.045479998 0.16723099 -0.23976451
-0.0452835 0.167216 -0.23973675
-0.041905001 0.16721199 -0.23973501
-0.041804999 0.167211 -0.23975
-0.041659664 0.16722532 -0.23974933
-0.041540001 0.1672295 -0.23976049
-0.041406251 0.16722475 -0.23977551
-0.041266501 0.1672225 -0.239814
-0.0411845 0.16721901 -0.2398155
-0.041019998 0.1672775 -0.23981149
-0.037073001 0.167257 -0.239849
-0.037018001 0.167257 -0.239848
-0.036872 0.167252 -0.23983499
-0.03672475 0.16727376 -0.23979625
-0.036596499 0.16726249 -0.239785
-0.036468748 0.16725925 -0.23976323
-0.036335997 0.1672475 -0.239739
-0.036222499 0.16724449 -0.23975317
-0.036124498 0.16723751 -0.239737
-0.035937 0.16719501 -0.23975401
-0.0357605 0.16722 -0.239738
-0.046201002 0.16735701 -0.23981966
-0.046089001 0.16739824 -0.23974626
-0.045914002 0.167392 -0.239793
-0.045474999 0.16736701 -0.239759
-0.045306999 0.167319 -0.239721
-0.041404501 0.1673235 -0.23973399
-0.041265 0.1673525 -0.23974225
-0.041182499 0.1673495 -0.23974851
-0.041019 0.167374 -0.23975401
-0.040620498 0.16739875 -0.23982775
-0.040484998 0.16743 -0.239839
-0.037441999 0.16737899 -0.239842
-0.037354998 0.16741 -0.239842
-0.037218999 0.167404 -0.239831
-0.037110399 0.16736642 -0.2398148
-0.0369845 0.16735575 -0.239814
-0.036870502 0.1673495 -0.23979801
-0.036707334 0.16739534 -0.23975867
-0.036592998 0.167394 -0.23973501
-0.036330998 0.167383 -0.2397275
-0.0362278 0.16737339 -0.23973601
-0.046333998 0.167523 -0.239821
-0.046213832 0.1674795 -0.2397895
-0.045913 0.16749001 -0.239738
-0.041018002 0.16744 -0.239724
-0.040619001 0.16753 -0.2397595
-0.040483501 0.1675275 -0.2397925
-0.040358502 0.167519 -0.23979625
-0.040233333 0.16752668 -0.23983367
-0.039041001 0.16756301 -0.239847
-0.038424999 0.167532 -0.23984301
-0.038093999 0.16750801 -0.239815
-0.0376155 0.16752 -0.23982701
-0.03739525 0.16751225 -0.239812
-0.037247997 0.16750425 -0.23979226
-0.037118334 0.167493 -0.23976351
-0.03698175 0.1674875 -0.23976451
-0.036867499 0.1674825 -0.2397525
-0.036765002 0.167441 -0.239741
-0.046331003 0.167623 -0.239796
-0.0462218 0.16760501 -0.23974021
-0.040483002 0.167623 -0.239722
-0.040357001 0.16761699 -0.23975199
-0.040222749 0.16764675 -0.23978049
-0.039958499 0.1676355 -0.23980901
-0.039717667 0.167639 -0.23982167
-0.0396045 0.1676235 -0.239821
-0.039501 0.16765399 -0.239829
-0.03932 0.16764399 -0.23984399
-0.039253 0.167643 -0.23984499
-0.039039001 0.1676615 -0.23980099
-0.038907498 0.167656 -0.2398435
-0.0388285 0.167649 -0.23983
-0.038700666 0.16765766 -0.23983602
-0.038549498 0.1676385 -0.239822
-0.038423002 0.16763026 -0.23980424
-0.038280502 0.1676635 -0.23984149
-0.038131796 0.16762181 -0.23980579
-0.038004503 0.1676085 -0.23981901
-0.037893001 0.167642 -0.239823
-0.037611999 0.16765299 -0.239795
-0.037392251 0.16764525 -0.23977
-0.037244499 0.16763775 -0.2397555
-0.037149001 0.16762102 -0.23974133
-0.036947999 0.167587 -0.239732
-0.046326499 0.16775951 -0.23978451
-0.040197 0.167744 -0.23972601
-0.039956503 0.167766 -0.23975
-0.039716337 0.16774632 -0.23975867
-0.039600998 0.16775501 -0.2397825
-0.039449997 0.16775149 -0.23981425
-0.039318502 0.16774251 -0.23980299
-0.039201837 0.16774066 -0.23981468
-0.039035 0.167795 -0.239767
-0.038904 0.1677905 -0.2398065
-0.038824998 0.1677845 -0.239797
-0.0386815 0.16777875 -0.23979273
-0.038546003 0.16777301 -0.2397895
-0.038418997 0.167766 -0.2397795
-0.038278997 0.16776201 -0.23979175
-0.038164001 0.16775025 -0.23976776
-0.038030501 0.16774118 -0.23976384
-0.0378915 0.16773999 -0.23978451
-0.037607998 0.16778851 -0.2397655
-0.0373905 0.167744 -0.23973051
-0.037240501 0.16777276 -0.23973174
-0.037163001 0.16773801 -0.239728
-0.046321999 0.167925 -0.239748
-0.039684001 0.16785499 -0.239724
-0.039596997 0.16788951 -0.2397545
-0.039464332 0.16787298 -0.23975366
-0.039315499 0.16787499 -0.2397505
-0.039198164 0.16787483 -0.23977868
-0.039032999 0.16789401 -0.239739
-0.038902 0.16791999 -0.23974499
-0.038822502 0.167915 -0.23974201
-0.038677998 0.16791248 -0.23975925
-0.038542002 0.167907 -0.23976651
-0.038415 0.16789976 -0.23975325
-0.038276248 0.16789325 -0.23973925
-0.038168669 0.16787334 -0.23974033
-0.038025834 0.1678775 -0.23975199
-0.037887998 0.167873 -0.23974
-0.037603997 0.167923 -0.23974401
-0.046319 0.16799299 -0.23974
-0.039195165 0.16800718 -0.23973732
-0.038673498 0.16804825 -0.23974125
-0.038538001 0.16804099 -0.23973
-0.038365997 0.168035 -0.239746
-0.038272999 0.16799501 -0.23972249
-0.038180999 0.167987 -0.239723
-0.038003333 0.16800167 -0.239748
-0.03790867 0.16802268 -0.23974366
-0.046310998 0.168199 -0.23974299
-0.038621001 0.16814899 -0.239722
-0.038533501 0.16817701 -0.239722
-0.038176 0.16812301 -0.239724
-0.037958 0.16811401 -0.239733
-0.046345003 0.16830799 -0.23978099
-0.03853 0.16827901 -0.239721
-0.046378002 0.168419 -0.239822
-0.046348333 0.16852833 -0.23980099
-0.046293002 0.168677 -0.239741
-0.046288498 0.168781 -0.23975199
-0.046284001 0.168883 -0.23975401
-0.04628 0.168954 -0.239774
-0.046241 0.16905349 -0.2397655
-0.046202 0.169183 -0.2397235
-0.046197999 0.169285 -0.23972499
-0.046259999 0.16946751 -0.23978201
-0.046257 0.169569 -0.23976301
-0.046328001 0.169779 -0.239766
-0.046326 0.169847 -0.23976099
-0.029456001 0.15534651 -0.2396615
-0.029311001 0.15534 -0.2396435
-0.029163999 0.15533 -0.239656
-0.029074 0.15532801 -0.239667
-0.028943 0.15531999 -0.239675
-0.028774999 0.155314 -0.2396715
-0.028661501 0.15530699 -0.2396915
-0.028543999 0.15529934 -0.23964834
-0.028419999 0.15529101 -0.239631
-0.028338 0.155288 -0.23962
-0.027875001 0.155269 -0.239665
-0.02775 0.15526399 -0.2396625
-0.027629999 0.15525599 -0.239646
-0.0275045 0.1552435 -0.239646
-0.027371 0.15527499 -0.23964551
-0.027248001 0.15530001 -0.239654
-0.027147001 0.155295 -0.239715
-0.029976999 0.15544599 -0.239675
-0.02984825 0.15540925 -0.239663
-0.02969525 0.15541524 -0.23963724
-0.029576333 0.15537633 -0.23964834
-0.029425001 0.155415 -0.239593
-0.028988 0.15539201 -0.2396
-0.027054001 0.155361 -0.239648
-0.026962999 0.155357 -0.239694
-0.0268365 0.15541551 -0.23966449
-0.026678 0.155478 -0.239709
-0.03051275 0.155573 -0.23965825
-0.030346001 0.155533 -0.239658
-0.026797 0.155481 -0.239611
-0.0267085 0.15551299 -0.2396435
-0.026564499 0.15555599 -0.23964475
-0.026471 0.155598 -0.23965999
-0.031520002 0.15572999 -0.23971049
-0.031397 0.15572351 -0.2397145
-0.031273 0.155717 -0.239704
-0.031121999 0.155709 -0.2396975
-0.030991999 0.15570401 -0.23966201
-0.030846665 0.155671 -0.23965101
-0.030723 0.15562099 -0.2396635
-0.030614 0.15561751 -0.239687
-0.026404001 0.15566599 -0.239657
-0.026319999 0.15573201 -0.239696
-0.032255001 0.155837 -0.23971701
-0.032171 0.15583301 -0.239701
-0.032036498 0.155829 -0.23966649
-0.031893998 0.155817 -0.23965999
-0.031773999 0.1558135 -0.239636
-0.031661503 0.15580651 -0.23964399
-0.031521499 0.155798 -0.239629
-0.031385332 0.15581366 -0.23962767
-0.031273 0.15578599 -0.23964
-0.031105667 0.15579902 -0.23962633
-0.030991999 0.155773 -0.23961601
-0.026322 0.155798 -0.23960599
-0.026216 0.155864 -0.23965099
-0.032536 0.15598901 -0.239701
-0.032478001 0.155983 -0.239684
-0.032296747 0.15594101 -0.239659
-0.032171 0.1559355 -0.23961949
-0.032052334 0.15591966 -0.239619
-0.031893 0.155884 -0.23961
-0.031810001 0.155881 -0.239592
-0.026216 0.15593199 -0.239591
-0.026118498 0.15596351 -0.2396725
-0.044760998 0.15609001 -0.23969001
-0.044695001 0.156086 -0.239705
-0.044489998 0.156073 -0.23968001
-0.044248998 0.15609601 -0.23967651
-0.044128668 0.15610266 -0.23967266
-0.043985002 0.156115 -0.239687
-0.043892 0.156111 -0.239709
-0.043807 0.15610699 -0.23971701
-0.032549668 0.156103 -0.23968066
-0.032475501 0.15608451 -0.239648
-0.032337002 0.15607801 -0.239612
-0.026024999 0.156064 -0.23971701
-0.045035001 0.15624499 -0.23969901
-0.044936001 0.156241 -0.239684
-0.044799499 0.156195 -0.23964649
-0.044672001 0.15618725 -0.2396535
-0.044489998 0.156139 -0.23961499
-0.044248998 0.156196 -0.23959599
-0.044114001 0.15619099 -0.23960599
-0.043985002 0.15618099 -0.23963299
-0.043892 0.1562115 -0.23963501
-0.043753397 0.15621179 -0.2396702
-0.043586332 0.15620534 -0.23969765
-0.043495666 0.15619834 -0.23969765
-0.033503 0.156243 -0.23971801
-0.033228502 0.15622801 -0.2397175
-0.032921001 0.156214 -0.239714
-0.032706499 0.156204 -0.239694
-0.032579999 0.15619481 -0.23966579
-0.032474 0.156188 -0.23960599
-0.026025999 0.156131 -0.239646
-0.045299001 0.156326 -0.23970699
-0.045159001 0.156353 -0.2396795
-0.045033 0.1563455 -0.2396495
-0.0449345 0.156341 -0.23962
-0.044810668 0.15631968 -0.23960334
-0.044662338 0.15631066 -0.23960634
-0.043737002 0.156304 -0.239604
-0.043622833 0.15633118 -0.23961782
-0.043483503 0.15632249 -0.23964499
-0.043336749 0.15631975 -0.23968899
-0.043097999 0.156342 -0.23971701
-0.042828999 0.15632799 -0.23970699
-0.042579997 0.15638232 -0.23970567
-0.042440001 0.156371 -0.23969799
-0.042326 0.15636601 -0.239711
-0.042182997 0.15636 -0.23969999
-0.033851001 0.156331 -0.23971599
-0.033703499 0.1563545 -0.239705
-0.033601332 0.15635067 -0.23969434
-0.033472002 0.156343 -0.23967375
-0.033359498 0.1563385 -0.2396985
-0.033226497 0.15632875 -0.23967975
-0.033090003 0.156323 -0.239703
-0.032962251 0.15631674 -0.23967201
-0.032818001 0.1563125 -0.239665
-0.032704748 0.156305 -0.23965351
-0.0326025 0.15629801 -0.23963499
-0.025931999 0.1562995 -0.23964101
-0.045515999 0.15647399 -0.239709
-0.045403 0.15644501 -0.23970599
-0.045295998 0.1564275 -0.23967651
-0.0451575 0.15645349 -0.2396255
-0.045029998 0.1564815 -0.239603
-0.044932 0.156442 -0.239592
-0.043451998 0.156424 -0.23959699
-0.043334752 0.156454 -0.2396225
-0.043095998 0.1564445 -0.2396725
-0.0428265 0.15643099 -0.23966801
-0.042684 0.15642351 -0.23967001
-0.042577665 0.15648299 -0.23966433
-0.042438999 0.15647151 -0.239638
-0.042324498 0.1564685 -0.23965651
-0.042198002 0.156451 -0.23961967
-0.0420525 0.1564555 -0.2396405
-0.041930664 0.15645601 -0.23966901
-0.041783001 0.156472 -0.239703
-0.041715 0.156469 -0.239715
-0.034209501 0.156452 -0.23968151
-0.034124002 0.1564465 -0.23967451
-0.033991501 0.1564385 -0.23968425
-0.0338495 0.15643251 -0.239664
-0.033745002 0.15643667 -0.23966901
-0.033585999 0.15646949 -0.23963851
-0.033461001 0.15646733 -0.2396
-0.033357002 0.1564755 -0.239638
-0.033224251 0.1564655 -0.23961875
-0.033087499 0.1564595 -0.23964649
-0.032958999 0.15645374 -0.23963127
-0.032816 0.1564485 -0.23960349
-0.03270125 0.15644249 -0.23961975
-0.032607667 0.156424 -0.23960699
-0.02593 0.1564 -0.239592
-0.025832999 0.15646701 -0.239704
-0.045540001 0.15657674 -0.23969625
-0.045412 0.1565695 -0.239676
-0.045293003 0.15656251 -0.239636
-0.045198999 0.15655899 -0.23960099
-0.043093503 0.15657949 -0.239621
-0.042824 0.1565655 -0.2396155
-0.042680003 0.15655899 -0.239645
-0.042575669 0.15658434 -0.23962398
-0.042435501 0.156607 -0.239602
-0.042321499 0.1566035 -0.23960599
-0.042193666 0.15658668 -0.23959832
-0.042048499 0.156591 -0.23961151
-0.04191225 0.156581 -0.2396315
-0.041780502 0.156573 -0.239674
-0.041656833 0.1565685 -0.23968899
-0.041437998 0.15659 -0.23971
-0.034368001 0.1565975 -0.23970801
-0.034247249 0.15659076 -0.23966725
-0.034121498 0.156582 -0.239622
-0.033987999 0.15657476 -0.23965049
-0.033849001 0.156534 -0.239595
-0.033721667 0.15654834 -0.23961234
-0.033606999 0.1565626 -0.23962578
