-0.062211 -0.00125144 0.998062 0.00911749
-0.0620792 0.00439467 0.998062 0.00987213
-0.0643367 0.00863888 0.997891 0.0163147
-0.0677183 -0.00479128 0.997693 0.00934859
-0.0689337 0.00331691 0.997616 0.0106468
-0.0672207 0.00196195 0.997736 0.0095936
-0.0684606 0.000737538 0.997653 0.00866808
-0.071929 0.00171785 0.997408 0.0179197
-0.0675058 -0.00115941 0.997718 0.00713717
-0.0675821 0.00459223 0.997703 0.011108
-0.0708535 0.000276494 0.997487 0.0104794
-0.0544848 0.0227513 0.998255 0.0178903
-0.0779784 -0.00893357 0.996915 0.0103101
-0.0782089 -0.0151714 0.996822 0.00469079
-0.0738758 -0.0172014 0.997119 0
-0.0792185 -0.0128951 0.996774 0.0120348
-0.0852083 -0.0227611 0.996103 0.0064671
-0.0839409 -0.0256294 0.996141 0.00274868
-0.0779817 -0.0176994 0.996798 0.00517321
-0.0739895 -0.0148534 0.997148 0.00481357
-0.0739223 -0.0179418 0.997103 0.00192618
-0.0695636 -0.00562665 0.997562 0.00765375
-0.0627944 -0.000168202 0.998026 0.0057696
-0.0630869 -0.0111664 0.997946 0
-0.0646037 -0.00307327 0.997906 0.00587441
-0.0651499 0.000473352 0.997875 0.0110242
-0.0733607 -0.0164281 0.99717 0.00259864
-0.0689267 -0.00915959 0.99758 0.00599884
-0.0649418 -0.0100531 0.997838 0.00597745
-0.0594912 -0.00889399 0.998189 0
-0.0561459 -0.00296246 0.998418 0.00584871
-0.0671373 -0.00904839 0.997703 0
-0.0698524 -0.0186002 0.997384 0
-0.0691353 -0.017447 0.997455 0
-0.0584909 -0.00632039 0.998268 0.000166977
-0.0749837 -0.022302 0.996935 0.00350516
-0.05476 -0.0180639 0.998336 0
-0.0866373 -0.0291846 0.995812 0.0107546
-0.0781875 -0.0268149 0.996578 0.00457581
-0.0768228 -0.0262608 0.996699 0.00476626
-0.0781981 -0.0228968 0.996675 0.00563869
-0.0664845 -0.0206093 0.997575 0
-0.0773568 -0.023075 0.996736 0.00316956
-0.0749269 -0.0184883 0.997018 0.00307449
-0.065611 -0.0181127 0.997681 0
-0.0765499 -0.0188896 0.996887 0.00895933
-0.0675248 -0.0209248 0.997498 0
-0.0613448 -0.0171124 0.99797 0
-0.0865292 -0.0270064 0.995883 0.0153194
-0.0812993 -0.0232452 0.996419 0.0113112
-0.0674879 -0.0162894 0.997587 0.00407981
-0.0886409 -0.0288977 0.995644 0.0151713
-0.0805515 -0.0236195 0.996471 0.0108123
-0.0759273 -0.0208657 0.996895 0.00946439
-0.0851745 -0.0231424 0.996097 0.0154917
-0.0716684 -0.0251213 0.997112 0.0085558
-0.0703012 -0.024119 0.997234 0.0103199
-0.0832552 -0.0246797 0.996223 0.0128856
-0.0768639 -0.0214103 0.996812 0.0187975
-0.0585522 -0.0199718 0.998084 0.0127896
-0.0707919 -0.0212981 0.997264 0.0102728
-0.0600083 -0.018961 0.998018 0.0061821
-0.0651907 -0.0189323 0.997693 0.00812502
-0.0692632 -0.0213878 0.997369 0.00769272
-0.0670523 -0.0187573 0.997573 0.0165604
-0.075658 -0.0211299 0.99691 0.0159534
-0.0651617 -0.0154378 0.997755 0.0141528
-0.0706303 -0.0201739 0.997298 0.00707065
-0.0777443 -0.0225316 0.996719 0.0123317
-0.0759269 -0.0247203 0.996807 0.00758197
-0.081428 -0.0275371 0.996299 0.0146525
-0.0867799 -0.0256349 0.995898 0.018945
-0.059405 -0.0274394 0.997857 0.00683672
-0.0758134 -0.0321756 0.996603 0.0149312
-0.0655198 -0.0355037 0.99722 0.00785444
-0.0750602 -0.0366968 0.996503 0.0127956
-0.0674595 -0.036603 0.99705 0.00860033
-0.0707257 -0.0343687 0.996904 0.0160158
-0.0720455 -0.0329213 0.996858 0.0164987
-0.0712926 -0.03188 0.996946 0.0134155
-0.0693006 -0.0284287 0.997191 0.0196805
-0.0688519 -0.0270412 0.99726 0.0185727
-0.0687518 -0.0267394 0.997275 0.0205426
-0.0734905 -0.0340879 0.996713 0.0191695
-0.0608018 -0.0278653 0.997761 0.0183586
-0.0691771 -0.0327474 0.997067 0.0169236
-0.0738559 -0.031921 0.996758 0.0217556
-0.055305 -0.0353304 0.997844 0.0118393
-0.0472691 -0.0339716 0.998304 0.00470792
-0.0498928 -0.0377261 0.998042 0.0110499
-0.0437752 -0.0367741 0.998364 0.00710526
-0.0530489 -0.0469954 0.997486 0.00871881
-0.0498622 -0.0443071 0.997773 0.00637338
-0.0634051 -0.0489892 0.996785 0.0107464
-0.0741246 -0.0471314 0.996135 0.0153314
-0.05868 -0.0454167 0.997243 0.005059
-0.047033 -0.0482882 0.997725 0.00385871
-0.0648832 -0.0424786 0.996988 0.00416047
-0.0646039 -0.0408349 0.997075 0.00394087
-0.0481132 -0.0437927 0.997881 0.00476036
-0.048988 -0.0404195 0.997981 0.00360183
-0.0573602 -0.0481579 0.997191 0.00821633
-0.0329578 -0.04363 0.998504 0.00821669
-0.0383452 -0.0463967 0.998187 0.0102819
-0.0526849 -0.0503933 0.997339 0.0120076
-0.0519502 -0.0481556 0.997488 0.0160883
-0.0573132 -0.0510614 0.99705 0.0124676
-0.050937 -0.0536485 0.99726 0.0107649
-0.0420462 -0.0528596 0.997716 0.017008
-0.0479166 -0.0504837 0.997575 0.0176686
-0.0517915 -0.0582343 0.996959 0.0138117
-0.0494418 -0.056254 0.997192 0.0134115
-0.0435858 -0.0585776 0.997331 0.00852517
-0.0472339 -0.051787 0.99754 0.0111414
-0.0372205 -0.0502619 0.998042 0.0069296
-0.0368287 -0.0482696 0.998155 0.00664828
-0.058266 -0.00258588 0.998298 0
-0.0620984 0.000504377 0.99807 0
-0.0645563 0.00572769 0.997898 0.00625885
-0.0560728 0.000255715 0.998427 0.00126262
-0.0506073 -0.00292527 0.998714 0.00478711
-0.0482091 -0.00623938 0.998818 0.00399661
-0.0449267 -0.008123 0.998957 0
-0.0712999 -0.00361789 0.997448 0.00578287
-0.0774962 -0.00383973 0.996985 0.00481856
-0.0662471 -0.00836322 0.997768 0.00502221
-0.0710644 -0.00864146 0.997434 0.00378119
-0.0844186 -0.00328395 0.996425 0.00852054
-0.0877491 -0.000603267 0.996142 0.0141307
-0.0811885 -0.0043689 0.996689 0.0155494
-0.0825455 -0.0054645 0.996572 0.0106825
-0.0778188 -0.00847118 0.996931 0.00957705
-0.087728 -0.00246518 0.996141 0.00890028
-0.086281 -0.00291988 0.996267 0.00476197
-0.0887239 -0.00163859 0.996055 0.0129352
-0.0628581 0.00149679 0.998021 0.00366716
-0.0635808 0.0111674 0.997914 0.000570258
-0.053836 0.01105 0.998489 0.00270813
-0.0572888 0.00324473 0.998352 0.00259933
-0.0595454 0.00316062 0.998221 0
-0.035039 -0.00339171 0.99938 0.00360852
-0.0364611 -0.0101411 0.999284 0
-0.0395557 -0.00630757 0.999197 0
-0.0468538 -0.00859698 0.998865 0.00114095
-0.0490415 -0.0110163 0.998736 0.00143932
-0.0263451 -0.00456083 0.999642 0.00225514
-0.0254625 -0.00401756 0.999668 0
-0.0286694 -0.0029238 0.999585 0
-0.0314481 -0.00639429 0.999485 0
-0.0315826 0.00173032 0.9995 0
-0.0224415 -0.000567603 0.999748 0.00364571
-0.0252563 -0.0012086 0.99968 0.00417853
-0.0259672 -0.00576006 0.999646 0
-0.0180252 0.0122831 0.999762 0.00809684
-0.0175054 0.0050254 0.999834 0.0172667
-0.0222292 -0.00196678 0.999751 0.0184177
-0.0116745 0.00323844 0.999927 0.00629533
-0.0111229 0.00788886 0.999907 0.011068
-0.0126723 -0.0018519 0.999918 0.00121121
-0.0123789 0.00462891 0.999913 0.0107748
-0.0165133 -0.0245685 0.999562 0.00114446
-0.0147663 -0.0110582 0.99983 0.0103855
-0.0128997 0.0012045 0.999916 0.00700154
-0.038954 -0.044511 0.998249 0.00616148
-0.0328683 -0.0391312 0.998693 9.3618e-05
-0.0228567 -0.0193787 0.999551 0.00314794
-0.0191556 -0.0214913 0.999586 0.00202302
-0.0285137 -0.0275199 0.999215 0.00140011
-0.0327102 -0.0457037 0.998419 0.00275043
-0.0282525 -0.00970542 0.999554 0.0059339
-0.029504 -0.01139 0.9995 0.0118453
-0.0300457 -0.0175399 0.999395 0.00553528
-0.0189662 0.00242043 0.999817 0.00267876
-0.0168909 0.00318247 0.999852 0.00571259
-0.0182438 0.0087825 0.999795 0.00902058
-0.0124725 0.00961818 0.999876 0
-0.0108472 0.0124096 0.999864 0
-0.0195252 0.0138446 0.999713 0.00394791
-0.0101123 0.0165299 0.999812 0
-0.0270853 0.00783451 0.999602 0.00338335
-0.0426536 0.00348511 0.999084 0.00752619
-0.0282812 0.00962851 0.999554 0.00752711
-0.0438771 0.000970615 0.999036 0.00729184
-0.0363637 0.0146117 0.999232 0.0128444
-0.0320569 0.008345 0.999451 0.00343729
-0.0418203 0.00160932 0.999124 0
-0.041466 0.00396626 0.999132 0.00274726
-0.0413922 -0.00389258 0.999135 0
-0.0427768 -0.00284989 0.999081 0
-0.0443897 -0.00217382 0.999012 0
-0.0543547 -0.0122806 0.998446 0
-0.0538737 -0.0133236 0.998459 0
-0.0415609 -0.00624431 0.999117 0
-0.0538356 -0.00590504 0.998532 0.00372778
-0.0437516 -0.00720407 0.999017 0.000553384
-0.0439714 -0.00754351 0.999004 0
-0.0443957 0.00453443 0.999004 0
-0.0448309 0.00312957 0.99899 0.00242961
-0.0395828 0.00611367 0.999198 0.00636769
-0.0470736 0.00787551 0.99886 0.00629337
-0.047231 0.00181558 0.998882 0
-0.0518941 0.00650163 0.998631 0.00495907
-0.0455804 0.00362351 0.998954 0.0047344
-0.0592457 0.000525932 0.998243 0.00716536
-0.0592712 0.00561502 0.998226 0.0103841
-0.0531168 0.00863077 0.998551 0.00580358
-0.0633653 0.00358569 0.997984 0.0134944
-0.0502564 0.00658516 0.998715 0.00347775
-0.0590166 0.00688681 0.998233 0.00858154
-0.0588717 0.0167313 0.998125 0.0172156
-0.069244 -0.00585575 0.997583 0.0104081
-0.0659183 0.00200527 0.997823 0.00750197
-0.064559 0.000888452 0.997913 0.00882584
-0.0688668 0.000689698 0.997626 0.0131246
-0.0648859 -0.000798898 0.997892 0.0074112
-0.0664255 0.000757021 0.997791 0.00484372
-0.0648755 0.00422994 0.997884 0.011032
-0.052496 0.00415821 0.998613 0.00837943
-0.0545546 0.00812298 0.998478 0.00895476
-0.0552415 0.0251169 0.998157 0.0172094
-0.0486934 0.0254775 0.998489 0.0198584
-0.0451776 0.0215293 0.998747 0.0131616
-0.0476355 0.0106482 0.998808 0.00967494
-0.0604637 0.0100359 0.99812 0.0123381
-0.0559555 0.0194919 0.998243 0.0150591
-0.052828 0.0208352 0.998386 0.0156697
-0.04834 0.0226985 0.998573 0.0175353
-0.0721027 -0.0140154 0.997299 0.0026312
-0.0625691 0.0069072 0.998017 0.0126959
-0.059146 0.0127725 0.998168 0.0135195
-0.0585412 0.0126353 0.998205 0.0140915
-0.0762095 -0.0193317 0.996904 0.00527125
-0.0783999 -0.0204601 0.996712 0.0049198
-0.0597478 -3.53522e-05 0.998214 0.0112221
-0.0572944 0.0138042 0.998262 0.0137071
-0.0675897 -0.017721 0.997556 0.00161779
-0.0692946 -0.0178137 0.997437 0
-0.0627062 -0.0121088 0.997959 0.00117814
-0.0641635 0.000760254 0.997939 0.00923471
-0.0624322 -0.00525082 0.998035 0.00308887
-0.0543051 -0.0154772 0.998404 0
-0.0549507 -0.0101692 0.998437 0
-0.0689994 -0.00106532 0.997616 0.0118398
-0.0576906 0.000957566 0.998334 0.00838239
-0.0580861 -0.00386342 0.998304 0.00593108
-0.0621961 0.00222623 0.998061 0.0136688
-0.0580785 -0.00584027 0.998295 0.00403939
-0.0488803 -0.00140145 0.998804 0
-0.0471477 -0.00134143 0.998887 0
-0.0488303 -0.00729925 0.99878 0
-0.0442892 -0.00247424 0.999016 0
-0.0127714 0.037093 0.99923 0
-0.0603133 -0.0103806 0.998125 0.000710209
-0.0537927 -0.0055831 0.998536 0
-0.0435479 -0.00425079 0.999042 0
-0.0117299 0.0349462 0.99932 0
-0.0153945 0.0367814 0.999205 0
-0.0507915 -0.0090578 0.998668 0
-0.0469135 -0.00820259 0.998865 0
-0.0446451 -0.00532444 0.998989 0
0.00112292 0.0474776 0.998872 0.00564126
-0.00158393 0.0420926 0.999112 0.00512132
-0.0153144 0.0306747 0.999412 0
-0.0519511 -0.0113216 0.998585 0
-0.0471084 -0.00830081 0.998855 0
-0.0432705 -0.00647513 0.999042 0
0.0118249 0.0453372 0.998902 0.00023443
0.00598175 0.0418571 0.999106 0.0052867
0.00521035 0.036921 0.999305 0.000407786
0.00132167 0.0379716 0.999278 0.000209023
0.00128956 0.0344814 0.999404 0
-0.00194958 0.0393215 0.999225 0.0028563
-0.00949458 0.0332292 0.999403 0.00615429
-0.0129843 0.0262007 0.999572 0
-0.0166332 0.024146 0.99957 0
-0.0284929 0.00905867 0.999553 0
-0.0697794 -0.0242118 0.997269 0.00237223
-0.0574414 -0.0150594 0.998235 0
-0.0515996 -0.00819945 0.998634 0
-0.04415 -0.00604825 0.999007 0
0.0122451 0.0450281 0.998911 0
0.0126955 0.0462103 0.998851 9.3288e-05
0.00612366 0.0382562 0.999249 0
0.00502957 0.0408516 0.999153 0.00192294
0.00371786 0.0370027 0.999308 0
-0.0053885 0.0351357 0.999368 0.00530241
-0.00941533 0.0270401 0.99959 0
-0.0172041 0.0311308 0.999367 0.00481019
-0.0190321 0.0166185 0.999681 0.0012575
-0.0195292 0.0191088 0.999627 0
-0.0683666 -0.0167824 0.997519 0
-0.0634516 -0.018142 0.99782 0
-0.0600296 -0.0147719 0.998087 0
-0.0619648 -0.0100625 0.998028 0.0045153
-0.0543964 -0.00563341 0.998504 0.00361962
-0.0511307 -0.00770222 0.998662 0
-0.00150255 0.0263434 0.999652 0
0.0107646 0.0411721 0.999094 0
0.0165536 0.0355699 0.99923 0
0.0116702 0.0427221 0.999019 4.36733e-05
0.0124646 0.0440761 0.99895 0
0.0111182 0.0408866 0.999102 0.000185263
-0.00182755 0.0475712 0.998866 0.0103275
0.00267615 0.0377619 0.999283 0
-0.000919303 0.0376565 0.99929 0.00318899
0.000450509 0.032396 0.999475 0
0.00015225 0.0312707 0.999511 0
-0.00453944 0.0246429 0.999686 0
-0.0134565 0.0205172 0.999699 0.00103444
-0.0141841 0.0194842 0.99971 0.000415792
-0.0191881 0.018601 0.999643 0.0047596
-0.0202181 0.00355285 0.999789 0
-0.0195112 -0.000309968 0.99981 0
-0.0621156 -0.0162316 0.997937 0.00140446
-0.0599341 -0.0109667 0.998142 0.00194214
-0.0578113 -0.0117101 0.998259 0.000528448
-0.0491103 -0.0047233 0.998782 0.00190711
-0.0455102 -0.00420245 0.998955 0.00219645
-0.0383923 0.00100992 0.999262 0.000603578
-0.000955733 0.0262461 0.999655 0
0.0114612 0.0436221 0.998982 0
0.015626 0.0408892 0.999041 0
0.0115208 0.0434475 0.998989 0
0.00833816 0.0433561 0.999025 0
0.0104047 0.037554 0.99924 0
0.00746076 0.0465679 0.998887 0.0068808
0.00791402 0.0431833 0.999036 0.00264938
0.00173403 0.0428695 0.999079 0.00277697
-0.00439202 0.0380222 0.999267 0.00770051
-0.00401848 0.0368434 0.999313 0.00504271
-9.44649e-05 0.0331774 0.999449 0
-0.00180255 0.0292182 0.999571 0.000486065
-0.00701762 0.0168631 0.999833 0
-0.012009 0.016695 0.999789 0
-0.0132316 0.0179713 0.999751 0.0015968
-0.0119984 0.0145358 0.999822 0.000189721
-0.00764558 0.0127281 0.99989 0
-0.0198739 0.0120765 0.99973 0
-0.0202113 0.00455792 0.999785 0
-0.023496 -0.000336766 0.999724 0
-0.0647194 -0.0159317 0.997776 0.00152414
-0.053568 -0.0110581 0.998503 0.00243712
-0.0529726 -0.0100165 0.998546 0.00567838
-0.0508721 -0.00178079 0.998704 0.00712489
-0.0488586 -0.00194725 0.998804 0.00464859
-0.0437547 0.000302624 0.999042 0.00355689
-0.0359861 0.00335943 0.999347 0
0.0103733 0.0420702 0.999061 0.000843751
0.0115903 0.0397268 0.999143 0
0.014391 0.0342225 0.999311 0
0.0143256 0.0356903 0.99926 0
0.00560581 0.0383472 0.999249 0
0.00667233 0.0364163 0.999314 0
0.00503072 0.038975 0.999228 0
0.00497488 0.0433212 0.999049 0
-0.00173511 0.0435641 0.999049 0.00127213
-0.0085248 0.0321605 0.999446 0
-0.00900454 0.0315357 0.999462 0
-0.00781365 0.0215692 0.999737 0.000309032
-0.00451889 0.0199526 0.999791 0
-0.0179542 0.0256873 0.999509 0.00780098
-0.0154405 0.0187278 0.999705 0.00689506
-0.0205618 0.0104977 0.999734 0
-0.0290366 0.00720768 0.999552 0.00172431
-0.0590709 -0.0161426 0.998123 0.0054109
-0.0670681 -0.0168843 0.997606 0.00994655
-0.0571587 -0.0118706 0.998295 0.0112981
-0.036408 -0.000603729 0.999337 0.00511943
-0.0353842 -0.000763895 0.999374 0.0008549
-0.0366136 0.00153703 0.999328 0.00320275
-0.024671 0.00695369 0.999671 0
0.0129364 0.0349328 0.999306 0
0.0168025 0.0331352 0.99931 0
0.0154328 0.0332017 0.99933 0
0.0128713 0.0277244 0.999533 0
0.0118021 0.0242259 0.999637 0
0.00803628 0.0339211 0.999392 0
0.00966134 0.0295755 0.999516 0
0.00578596 0.0316735 0.999481 0
0.00537899 0.0357909 0.999345 0
-0.00287549 0.042305 0.999101 0.00446946
-0.010593 0.042559 0.999038 0.00641699
-0.00982788 0.0305408 0.999485 0.0029382
-0.00832847 0.0253925 0.999643 0
-0.00961648 0.0209955 0.999733 0
-0.0100395 0.020751 0.999734 0
-0.0094327 0.011305 0.999892 0
-0.0264192 0.0144221 0.999547 0.00319249
-0.0280463 0.00913884 0.999565 0.00442268
-0.0277693 -0.00235258 0.999612 0
-0.0845439 -0.0245461 0.996117 0.0202853
-0.0605221 -0.011426 0.998101 0.0166938
-0.0441838 -0.0105657 0.998968 0.012097
-0.0298147 -0.00315133 0.99955 0.00528591
-0.0229466 -0.00096206 0.999736 0
-0.0262255 0.00266585 0.999652 0.00220429
-0.0238314 0.00268714 0.999712 0
0.0137491 0.0304969 0.99944 0
0.0114742 0.0385833 0.999189 0.00254311
0.00994669 0.0309339 0.999472 0
0.0134058 0.030537 0.999444 0
0.00930279 0.0331248 0.999408 0
0.00731098 0.027151 0.999605 0
0.00468908 0.0276743 0.999606 0
0.00553519 0.0247573 0.999678 0
0.00509074 0.025024 0.999674 0
0.00305228 0.0289668 0.999576 0
-0.00682135 0.0335767 0.999413 0
-0.00905742 0.0376466 0.99925 0.00117619
-0.0103121 0.0308447 0.999471 0.00178194
-0.00986134 0.0288289 0.999536 0.000405456
-0.015 0.0316555 0.999386 0.00437564
-0.00528535 0.0114961 0.99992 0
-0.0102077 0.00879473 0.999909 0
-0.0150134 0.00934155 0.999844 6.09475e-05
-0.0258574 0.00731211 0.999639 0
-0.0308028 0.0107074 0.999468 0.00173178
-0.054037 -0.0219208 0.998298 0.0126689
-0.0509125 -0.0138007 0.998608 0.0137916
-0.0506382 -0.00719178 0.998691 0.0193572
-0.0436805 -0.00754584 0.999017 0.0164201
-0.025265 -0.00515193 0.999667 0.00308662
-0.0223592 -0.000293919 0.99975 0
-0.0183322 0.00178073 0.99983 9.25005e-05
-0.016716 0.000710746 0.99986 0
0.0108127 0.0344191 0.999349 0.00268312
0.0100603 0.0313743 0.999457 0
0.0161204 0.0272501 0.999499 0
0.0117512 0.030645 0.999461 0.00344959
0.0120905 0.0309707 0.999447 0
0.00599385 0.0290714 0.999559 0
0.00822731 0.0236393 0.999687 0
0.00297361 0.0183776 0.999827 0
0.00633803 0.0244958 0.99968 0
3.01337e-05 0.0301403 0.999546 0
-0.00471255 0.0298588 0.999543 0
-0.00789924 0.0334049 0.999411 0
-0.0117186 0.0370174 0.999246 0.000838477
-0.0135142 0.0319833 0.999397 0.00268248
-0.0112767 0.0222311 0.999689 0
-0.00930856 0.00914843 0.999915 0
-0.0122571 0.000320926 0.999925 0
-0.0630056 -0.0186357 0.997839 0.00825824
-0.060596 -0.0243053 0.997866 0.00190971
-0.0456022 -0.0195207 0.998769 0.00380521
-0.0481114 -0.014062 0.998743 0.00811679
-0.023715 -0.00675704 0.999696 0.000321726
-0.0208352 -0.00095467 0.999783 0.00110671
-0.0147519 0.00133893 0.99989 0
-0.0148028 0.00160645 0.999889 0
0.00669904 0.0274649 0.9996 0.000807582
0.0124689 0.0336751 0.999355 0.00192033
0.016591 0.0275624 0.999482 0
0.0210838 0.024885 0.999468 0
0.0208184 0.0218643 0.999544 0
0.0110118 0.028715 0.999527 0.00160787
0.0104607 0.0266002 0.999591 0
0.00880355 0.0228836 0.999699 0
0.0034024 0.0238407 0.99971 0
0.00406801 0.0286363 0.999582 0
0.00346209 0.0297965 0.99955 0
-0.0031704 0.0312818 0.999506 0
-0.00752387 0.0283296 0.99957 0
-0.0114724 0.0286322 0.999524 0
-0.0117118 0.0261123 0.99959 0
-0.0160005 0.0137346 0.999778 0
-0.0125918 0.00468631 0.99991 0.000935496
-0.0116989 0.000977657 0.999931 0
-0.0243885 0.00410426 0.999694 0
-0.0607647 -0.0159868 0.998024 0.0131177
-0.0509855 -0.0162273 0.998568 0.00632197
-0.0196618 -0.00277921 0.999803 0.00177135
-0.0172632 0.00119745 0.99985 0
0.00603117 0.00429346 0.999973 0
0.0120343 0.0274444 0.999551 0
0.0147439 0.0246735 0.999587 0
0.0138831 0.0323382 0.999381 0.000783326
0.0156086 0.0303699 0.999417 0
0.0157971 0.0333126 0.99932 0
0.0165711 0.0315821 0.999364 0
0.010257 0.0337153 0.999379 0
0.0123947 0.0313366 0.999432 0.00576553
0.0073855 0.0265472 0.99962 0
0.00593171 0.0250963 0.999667 0
0.00521875 0.0284406 0.999582 0
0.00078699 0.0299839 0.99955 0
-0.00507491 0.0348098 0.999381 0.00293614
-0.00491231 0.0258752 0.999653 0.00187813
-0.0114281 0.0195264 0.999744 0
-0.010439 0.0140227 0.999847 0
-0.00910232 0.00930295 0.999915 0
-0.0132608 0.00882849 0.999873 0
-0.0140945 0.00278108 0.999897 0
-0.0292869 0.00277847 0.999567 0
-0.0659856 -0.0148346 0.99771 0.0175094
-0.0591543 -0.0138096 0.998153 0.0136779
-0.0563123 -0.0169199 0.99827 0.00937881
-0.0203778 -0.00545851 0.999777 0.00126256
-0.0193787 -0.00336317 0.999807 0.000462325
0.00895389 0.0118748 0.999889 0
0.0144917 0.0255382 0.999569 0
0.0139082 0.0254447 0.999579 0.000780402
0.0136918 0.0315748 0.999408 0
0.0159922 0.0258788 0.999537 0
0.0167395 0.0258447 0.999526 0.000852967
0.0101312 0.0343146 0.99936 0.00509414
0.00854002 0.0358078 0.999322 0.0075064
0.0124242 0.0248582 0.999614 0
0.0108165 0.0230697 0.999675 0
0.00834905 0.0211113 0.999742 0
0.00438521 0.0229087 0.999728 0
0.00248545 0.0270628 0.999631 0
-0.00219776 0.0235106 0.999721 0
-0.00441543 0.0174272 0.999838 0
-0.00685317 0.012553 0.999898 0
-0.00941317 0.00931309 0.999912 0
-0.012168 0.00572233 0.99991 0.000894618
-0.0127147 0.00677479 0.999896 0.000293302
-0.0188967 0.00559443 0.999806 0.000421842
-0.0177446 -0.000219525 0.999843 0
-0.0205644 0.0055752 0.999773 0
-0.0736198 -0.0200196 0.997086 0.0149762
-0.0627318 -0.0157149 0.997907 0.0151864
0.0116225 0.00268549 0.999929 0
0.00566396 0.00246985 0.999981 0
0.00642449 0.00527972 0.999965 0.00157676
0.0127122 0.0217689 0.999682 0
0.00953334 0.0350835 0.999339 0.00808554
0.0108908 0.0348961 0.999332 0.00793159
0.0140072 0.0337223 0.999333 0.0086265
0.0141985 0.029076 0.999476 0.0102864
0.0107689 0.025113 0.999627 0.00894945
0.0118635 0.0239757 0.999642 0.00130283
0.0106402 0.0283529 0.999541 0.00532237
0.00846392 0.0237535 0.999682 0.00316957
0.00743568 0.0223682 0.999722 0.00654858
0.00824807 0.0165726 0.999829 0
0.00197374 0.0209008 0.99978 0
-0.00149066 0.019499 0.999809 0
-0.00644922 0.0209633 0.999759 0
-0.0059225 0.015707 0.999859 0
-0.00657595 0.0117012 0.99991 0
-0.0128407 0.006021 0.999899 0
-0.014915 0.00537713 0.999874 0
-0.0110429 0.00166156 0.999938 0
-0.0156599 0.00201481 0.999875 0
-0.0170327 0.00139732 0.999854 0
-0.0227864 0.000557759 0.99974 0
-0.0339873 -0.000721276 0.999422 0
-0.077067 -0.0275378 0.996646 0.010183
-0.0619316 -0.0203159 0.997874 0.00999044
-0.0587177 -0.0174109 0.998123 0.0148656
0.0069358 0.00506934 0.999963 0
0.0107669 0.00838945 0.999907 0
0.0111467 0.0195392 0.999747 0.00377279
0.0111003 0.0292969 0.999509 0.00628793
0.0134215 0.0336746 0.999343 0.00942833
0.0143989 0.0292631 0.999468 0.00658718
0.0141227 0.0243231 0.999604 0.00714156
0.0145389 0.0243265 0.999598 0.00196362
0.0157227 0.028223 0.999478 0
0.00947792 0.0258162 0.999622 0.0107562
0.00717743 0.0207496 0.999759 0.00531704
0.00186133 0.0185739 0.999826 0.00690282
0.0011088 0.0160663 0.99987 0.00348113
-0.00178428 0.0177005 0.999842 0
-0.00503168 0.015592 0.999866 0
-0.00577898 0.0133308 0.999894 0
-0.011422 0.0156746 0.999812 0
-0.0191897 0.0146156 0.999709 0.00580112
-0.0175199 0.00872974 0.999808 0
-0.0196556 0.00844442 0.999771 0.00295645
-0.016611 0.00633861 0.999842 0
-0.0211675 -0.000840528 0.999776 0.000189599
-0.0247633 0.00121796 0.999693 0.000753681
-0.0253355 0.000775009 0.999679 0
-0.0833889 -0.0242549 0.996222 0.0159108
-0.0750525 -0.0166526 0.997041 0.0153302
0.00926251 0.00598234 0.999939 0
0.00970786 0.00793185 0.999921 0
0.0144448 0.0177883 0.999737 0.000507613
0.00974833 0.0175684 0.999798 0.00862185
0.0122186 0.0196395 0.999732 0.00813899
0.0131123 0.0195267 0.999723 0.00055666
0.013595 0.0286647 0.999497 0.0067156
0.0149323 0.0222304 0.999641 0.00319082
0.0119698 0.0234908 0.999652 0.00177428
0.0139743 0.0205681 0.999691 0
0.00833739 0.0195069 0.999775 0
0.00747053 0.0196961 0.999778 0.00209891
-0.00161124 0.0231216 0.999731 0.0113485
-5.25128e-05 0.0132272 0.999913 0
-0.00189497 0.0149806 0.999886 0
-0.00997091 0.0157733 0.999826 0.00143136
-0.0134244 0.0139391 0.999813 0
-0.0229603 0.0140115 0.999638 0.00529756
-0.0215599 0.00521135 0.999754 0.000932199
-0.0213334 0.00616451 0.999753 0
-0.0228114 0.0071538 0.999714 0.00417304
-0.021577 0.00301201 0.999763 0
-0.0206592 -0.00523328 0.999773 0
-0.025983 0.000567699 0.999662 0.00522735
-0.0224931 -0.000685478 0.999747 0
-0.0379978 -0.00835007 0.999243 0.00406359
-0.0798783 -0.0257876 0.996471 0.0197209
-0.0712071 -0.0190684 0.997279 0.0193489
-0.0121523 -0.0102162 0.999874 0.000769948
-0.000575467 0.00927643 0.999957 0
0.0140458 0.00490496 0.999889 0
0.00906014 0.0072253 0.999933 0
0.0107851 0.0175844 0.999787 0.000685676
0.0131697 0.00905567 0.999872 0
0.0114619 0.0112414 0.999871 0.00452131
0.0121419 0.0239536 0.999639 0.00405997
0.0178384 0.0210938 0.999618 0
0.0197849 0.0148974 0.999693 0
0.0168405 0.0201539 0.999655 0
0.00985882 0.023624 0.999672 0
0.011103 0.0175142 0.999785 0
0.00733609 0.0165547 0.999836 0
0.00016935 0.0259553 0.999663 0.00367035
-0.000972204 0.0140998 0.9999 0
-0.00262058 0.013752 0.999902 0
-0.00530322 0.00234525 0.999983 0
-0.0173501 0.0119482 0.999778 0
-0.0209306 0.0137854 0.999686 0
-0.0212666 0.0064272 0.999753 0.00346169
-0.0228397 0.00359906 0.999733 0.00207482
-0.0244874 0.00466287 0.999689 0.00624692
-0.0224113 0.000485186 0.999749 0
-0.0212434 -0.00692644 0.99975 0
-0.0215201 -0.00442726 0.999759 0
-0.0282622 -0.00115519 0.9996 0
-0.062933 -0.030293 0.997558 0.00921153
-0.0562544 -0.0249483 0.998105 0.0111918
0.0124786 0.0044691 0.999912 0
0.0063144 0.00428858 0.999971 0
0.0115086 0.0101317 0.999882 0.00116364
0.0147977 0.0158582 0.999765 0.00116457
0.0126268 0.00842525 0.999885 0
0.0114313 0.00652645 0.999913 0
0.01185 0.0169437 0.999786 0.00591941
0.0153838 0.0198438 0.999685 0.00230627
0.0113113 0.021799 0.999698 0.000342665
0.0145975 0.0216347 0.999659 0
0.00601067 0.0252914 0.999662 0.00589047
0.00561052 0.0187948 0.999808 0
0.000963224 0.0157676 0.999875 0.000633948
-0.000412097 0.0151282 0.999885 0
-0.00851873 0.0135913 0.999871 0.00102043
-0.00732521 0.00950335 0.999928 0
-0.012571 0.00870895 0.999883 0
-0.0146325 0.00895298 0.999853 0
-0.0211562 0.0112485 0.999713 0
-0.0320568 0.0108159 0.999428 0.00982211
-0.0249024 0.00654044 0.999668 0.00603975
-0.0239166 -0.00531704 0.9997 0.000608732
-0.0175416 -0.0030256 0.999842 0
-0.0251663 -0.00467376 0.999672 0
-0.0579064 -0.0299167 0.997874 0.0131037
-0.0572771 -0.0274715 0.99798 0.013123
0.0127141 0.00598396 0.999901 0
0.0111759 0.00559477 0.999922 0
0.0109288 0.00598405 0.999922 0
0.0146857 0.00604684 0.999874 0
0.0113905 0.00290391 0.999931 0.000478382
0.011203 0.00403016 0.999929 0
0.01365 0.00514197 0.999894 0
0.014987 0.0144067 0.999784 0
0.0134896 0.0157404 0.999785 0
0.0130291 0.0136734 0.999822 0
0.00954882 0.013311 0.999866 0
0.00465987 0.0134424 0.999899 0
-0.000342392 0.012906 0.999917 0.00240256
-0.00417852 0.0119153 0.99992 0
-0.0156264 0.0188624 0.9997 0.00509479
-0.0177546 0.0153582 0.999724 0.00429237
-0.0192227 0.00912621 0.999774 0.0040248
-0.0204187 0.00860223 0.999754 0
-0.0225098 0.00902552 0.999706 0
-0.0273171 0.00894859 0.999587 0.00476777
-0.0266489 0.00654235 0.999623 0.00432936
-0.0257524 0.00233341 0.999666 0
-0.0625014 -0.0321423 0.997527 0.00929662
-0.0610399 -0.0289611 0.997715 0.0116062
-0.0667826 -0.0276039 0.997386 0.0147135
0.00217693 0.0029098 0.999993 0.00457432
0.0104913 0.00703294 0.99992 0
0.0149948 0.00835108 0.999853 0
0.0128878 0.0175039 0.999764 0
0.0108872 0.0120578 0.999868 0
0.0081661 0.00933941 0.999923 0
0.0100939 0.00432929 0.99994 0
0.00909266 0.00679803 0.999936 0.00389646
0.0102098 0.00849729 0.999912 0.00218698
0.0124892 0.00765327 0.999893 0
0.00932057 0.007047 0.999932 0
0.0100404 0.00742589 0.999922 0
0.0112803 0.00412567 0.999928 0
0.0100862 0.00582884 0.999932 0
-0.0023791 0.0142455 0.999896 0
-0.00223321 0.0107924 0.999939 0
-0.00824136 0.0134884 0.999875 0
-0.0144709 0.0190676 0.999713 0.00565528
-0.0201221 0.0177902 0.999639 0.00698358
-0.0230833 0.00883497 0.999694 0.00451938
-0.0275171 0.00155341 0.99962 0
-0.0289376 0.00332121 0.999576 0.00501118
-0.0291081 0.00730207 0.99955 0.00797896
-0.028466 0.00526897 0.999581 0.00279519
-0.0255062 0.00167272 0.999673 0
-0.0221708 -0.00425382 0.999745 0
-0.0601313 -0.0297452 0.997747 0.01367
-0.0627551 -0.0272662 0.997656 0.0114077
-0.0570334 -0.0255434 0.998045 0.0136927
0.00495586 0.00581091 0.999971 0.00553037
0.0106777 0.00764012 0.999914 0.00133745
0.0140361 0.0123803 0.999825 0
0.016334 0.00997263 0.999817 0
0.0125035 0.0112179 0.999859 0
0.0101768 0.0148624 0.999838 0
0.00993366 0.00593514 0.999933 2.32994e-05
0.010374 0.00800576 0.999914 0.0037404
0.012932 0.00335658 0.999911 0
0.00663126 0.00447071 0.999968 0
0.0108735 0.00665227 0.999919 0
0.00847763 0.000294452 0.999964 0
0.00612155 -0.00123047 0.999981 0
0.0113861 -0.000700891 0.999935 0
0.00527723 0.0073842 0.999959 0
-0.00661043 0.0111838 0.999916 0
-0.0097894 0.00652689 0.999931 0
-0.0197268 0.0117103 0.999737 0.00859813
-0.0305113 0.013307 0.999446 0.012193
-0.0263691 0.000912365 0.999652 0
-0.0298929 0.00162738 0.999552 0.00371935
-0.0268004 -0.000822928 0.99964 0.00412469
-0.0258007 -0.0032067 0.999662 0.00233117
-0.0226789 -0.0043494 0.999733 0
-0.0249286 -0.00509269 0.999676 0
-0.0276206 0.00210932 0.999616 0
-0.0288668 0.0014825 0.999582 0.000913839
-0.0279492 -0.00743699 0.999582 0
-0.0667395 -0.0283551 0.997368 0.0198525
-0.0603343 -0.0249394 0.997867 0.0189223
-0.058231 -0.022756 0.998044 0.019008
-0.02116 -0.0093105 0.999733 0.0149114
-0.00383096 -0.0100371 0.999942 0.00207844
0.0153485 0.00378546 0.999875 0
0.0136723 0.00879551 0.999868 0.00296558
0.0189445 0.006852 0.999797 0.000184097
0.0186343 0.00793337 0.999795 0
0.0186216 0.00662094 0.999805 0
0.0169183 0.00857137 0.99982 0
0.0104248 0.00512157 0.999933 0
0.00816082 0.00416669 0.999958 0
0.00294156 0.0101414 0.999944 0.00499262
0.00589474 0.00655146 0.999961 0.0030751
0.00388085 -0.000498416 0.999992 0.00515142
0.00630152 -0.00532416 0.999966 0
0.00291407 -0.00228926 0.999993 0
0.000360749 0.00165063 0.999999 0
-0.0109143 0.0104456 0.999886 9.19095e-05
-0.0172266 0.00940269 0.999807 0.00606121
-0.0239926 0.00444971 0.999702 0.00988957
-0.0245806 0.00465493 0.999687 0.00741461
-0.0260656 -0.00331439 0.999655 0.00518597
-0.0298931 -0.00218915 0.999551 0.00682095
-0.0222281 -0.00350074 0.999747 0.000581371
-0.0251549 -0.00597006 0.999666 0.00163117
-0.0260838 -0.00640529 0.999639 0
-0.0294565 -0.00262576 0.999563 0
-0.0307167 -0.00208559 0.999526 0
-0.0272951 -0.00444332 0.999618 0
-0.0338863 -0.00739527 0.999398 0
-0.0689712 -0.0307277 0.997145 0.0145101
-0.0760386 -0.0292874 0.996675 0.0210629
-0.0687851 -0.0289967 0.99721 0.0208856
-0.0586154 -0.0241343 0.997989 0.0201335
-0.0208605 -0.0113683 0.999718 0.0169522
-0.00226072 -0.00406622 0.999989 0.00394711
0.0197237 -0.00147313 0.999804 0
0.0154865 0.00458698 0.99987 0
0.0236949 0.00202119 0.999717 0
0.0175984 0.00457164 0.999835 0
0.0178349 0.00165764 0.99984 0
0.00760448 0.0130206 0.999886 0.00213849
0.00681465 0.00586871 0.99996 0.000913686
0.00704469 0.00634492 0.999955 0.00321091
0.00671109 0.00470316 0.999966 0.00793434
-0.00561678 0.0103773 0.99993 0.012991
-0.00210017 0.00197921 0.999996 0.00769664
0.00194901 -0.00676011 0.999975 0
-0.0020497 -0.00341218 0.999992 0
-0.0066897 0.00621198 0.999958 0.00567377
-0.0118629 0.000912358 0.999929 0
-0.02025 0.00471401 0.999784 0.00968373
-0.0209901 0.00104271 0.999779 0.00690358
-0.0272131 -0.000823086 0.999629 0.00926187
-0.0257171 -0.00594257 0.999652 0.00292186
-0.0288368 -0.000898297 0.999584 0.00603752
-0.0237068 -0.0036488 0.999712 0.00200647
-0.022686 0.00184042 0.999741 3.02399e-05
-0.0318636 0.00511912 0.999479 0.011353
-0.030671 -0.00487637 0.999518 0.00295463
-0.0307145 -0.00280019 0.999524 0.0059339
-0.0272053 -0.00553465 0.999615 0
-0.0594889 -0.0297178 0.997786 0.0140157
-0.0568095 -0.0294855 0.99795 0.0142332
-0.050867 -0.025935 0.998369 0.0154542
-0.0573089 -0.0234946 0.99808 0.0201288
0.00756291 0.00717767 0.999946 0.00356821
0.0166738 0.0034509 0.999855 0
0.0222197 0.00137778 0.999752 0
0.0194762 0.0101796 0.999758 0
0.0209825 0.00858542 0.999743 0
0.016476 0.0109373 0.999804 0.00233752
0.0182054 0.00493554 0.999822 0.000434767
0.00710836 0.0166819 0.999836 0.0114845
0.00784652 0.0113851 0.999904 0.0115402
0.00823269 0.0083534 0.999931 0.0141898
0.00668072 0.00673928 0.999955 0.0109018
0.000450641 0.00826506 0.999966 0.00771533
-0.000985264 0.00306252 0.999995 0.00774065
0.00211498 -0.000891044 0.999997 0.00222905
-0.00656525 -0.00414015 0.99997 0.00306819
-0.0123528 -0.00579909 0.999907 0.00730492
-0.0128554 -0.00574815 0.999901 0.00480099
-0.0144813 -0.00186118 0.999893 0.00315537
-0.0161071 8.5676e-05 0.99987 0.00799573
-0.0219091 -0.00567655 0.999744 0.00250128
-0.0223628 -0.00833898 0.999715 1.71299e-05
-0.0271755 -0.00215686 0.999628 0.0100318
-0.0221614 -0.00641323 0.999734 0.000836539
-0.0250951 -0.00516332 0.999672 0
-0.0244856 -0.00513409 0.999687 0
-0.0294628 -0.0113448 0.999501 0
-0.026189 -0.0162176 0.999525 0
-0.0326226 -0.0135393 0.999376 0
-0.0566104 -0.0282028 0.997998 0.0143226
-0.0553669 -0.0268441 0.998105 0.0112137
-0.04932 -0.0281414 0.998386 0.0153139
-0.0505355 -0.0219947 0.99848 0.0168178
0.00998679 0.00590547 0.999933 0.00316064
0.0194312 0.00148508 0.99981 0
0.017536 0.00609995 0.999828 0.00833632
0.0198294 0.00401039 0.999795 0.00258858
0.0215849 0.00414948 0.999758 0
0.0188941 0.00696266 0.999797 0
0.0214601 0.00920269 0.999727 0
0.0183891 0.00870501 0.999793 0.00401482
0.00934436 0.00993555 0.999907 0.00451042
0.0066944 0.0139164 0.999881 0.0135601
0.00489336 0.00604948 0.99997 0.013561
0.00437134 0.00235096 0.999988 0.00904033
0.00937725 0.00185233 0.999954 0.0022819
0.0046805 0.00209741 0.999987 0.00666704
-0.00567248 0.00141284 0.999983 0.00427372
-0.00822958 -0.00686657 0.999943 0.0104259
-0.0121251 -0.00946708 0.999882 0.00940732
-0.0107548 -0.0084141 0.999907 0.00782537
-0.0116305 -0.0128726 0.999849 0
-0.0221401 -0.00498939 0.999742 0.00322029
-0.0208436 -0.00718872 0.999757 0.0033826
-0.0213018 -0.0109744 0.999713 0.000811072
-0.0173133 -0.0162318 0.999718 0
-0.0249882 -0.0139774 0.99959 0
-0.0267608 -0.00777166 0.999612 0
-0.021892 -0.0130096 0.999676 0
-0.0273064 -0.0161401 0.999497 0
-0.0258168 -0.0185201 0.999495 0
-0.0309027 -0.0153513 0.999404 0
-0.0331551 -0.0144424 0.999346 0
-0.0507445 -0.0318418 0.998204 0.00827844
-0.0478241 -0.0306922 0.998384 0.00492973
-0.0418053 -0.0299684 0.998676 0.00826952
-0.0377493 -0.0256571 0.998958 0.00673304
0.0122266 0.00208051 0.999923 0.00265036
0.0213414 0.00241468 0.999769 0.00134664
0.0232638 0.000878419 0.999729 0
0.0187749 0.00618055 0.999805 0.000493804
0.0205068 0.00916032 0.999748 0.00258116
0.0187931 0.00607175 0.999805 0.000218107
0.0175472 0.0135374 0.999754 0.0114801
0.00939625 0.012019 0.999884 0.0126191
0.00747034 0.0119602 0.999901 0.0132312
0.00601114 0.0079165 0.999951 0.00696122
0.00711224 0.00232406 0.999972 0.00696591
-0.0016821 0.00093755 0.999998 0.0110107
-0.00294311 -0.00556023 0.99998 0.00638289
-0.0067933 -0.00285319 0.999973 0.00749838
-0.00903269 -0.00897796 0.999919 0
-0.0106706 -0.00971491 0.999896 0.00519125
-0.0175526 -0.0109759 0.999786 0.00468176
-0.0174387 -0.00794187 0.999816 0.00478952
-0.0168556 -0.00781205 0.999827 0.00332524
-0.0241886 -0.0171029 0.999561 0.0013025
-0.0231853 -0.0198133 0.999535 0
-0.0273395 -0.0117736 0.999557 0.00282484
-0.0236526 -0.0168693 0.999578 0
-0.0274812 -0.0186227 0.999449 0
-0.0338868 -0.0124091 0.999349 0
-0.045266 -0.0392509 0.998204 0.000882419
-0.0447833 -0.0359314 0.99835 0.000496603
-0.0428331 -0.0333638 0.998525 0
-0.0390892 -0.0290575 0.998813 0.00333862
0.00753723 -0.00191747 0.99997 0.00690387
0.0177739 0.00971662 0.999795 0.00918242
0.018519 -0.00102256 0.999828 0.00661562
0.0209943 -0.000685254 0.999779 0.00371016
0.0168422 -0.000352859 0.999858 0.000207588
0.0213992 0.00460016 0.99976 0
0.0122086 0.0160846 0.999796 0.0104691
0.0117021 0.0116028 0.999864 0.00585886
0.0121647 0.00879191 0.999887 0.0119774
0.0104809 0.0105613 0.999889 0.0102507
0.00940726 -0.00487693 0.999944 0
0.0035289 -0.00151298 0.999993 0.00769124
-0.00138895 0.00108418 0.999998 0.00956551
-0.00413869 6.70244e-05 0.999991 0.0150012
-0.010022 -0.00404549 0.999942 0.00679851
-0.0150257 -0.00733545 0.99986 0.00679022
-0.0219533 -0.00865961 0.999721 0.0107619
-0.0223317 -0.00579148 0.999734 0.0118069
-0.0248393 -0.0119045 0.999621 0.00900374
-0.0238953 -0.0104709 0.99966 0.00703247
-0.0275211 -0.0104492 0.999567 0.0101274
-0.0327439 -0.0109196 0.999404 0.0109909
-0.0297513 -0.00847103 0.999521 0.0081407
-0.0284888 -0.0142079 0.999493 0.00180064
-0.0268107 -0.0158299 0.999515 0
-0.0497756 -0.0429639 0.997836 0.00975984
-0.049962 -0.042182 0.99786 0.00760939
-0.0433629 -0.0371345 0.998369 3.39972e-05
-0.047525 -0.039504 0.998089 0.00463148
0.00701208 0.00185094 0.999974 0.00794436
0.0192831 8.07354e-05 0.999814 0.000899996
0.0206885 0.00299775 0.999781 0.00415929
0.019792 -0.00304524 0.999799 0.00229532
0.0164974 0.00631343 0.999844 0.0100588
0.0185041 -0.00630673 0.999809 0
0.0229443 -0.000792246 0.999736 0.000675261
0.0161955 0.0100631 0.999818 0.00957616
0.014024 0.0050602 0.999889 0.00693864
0.0109842 0.0084151 0.999904 0.0116796
0.00576964 0.005507 0.999968 0.00866663
0.00590334 0.000362927 0.999983 0
0.00278083 0.00101131 0.999996 0
-0.00540745 -0.00223633 0.999983 0.00507005
-0.00674499 -0.00847559 0.999941 0.0046249
-0.0148546 -0.00824838 0.999856 0.00864699
-0.0187836 -0.00886786 0.999784 0.00859133
-0.0168981 -0.010368 0.999803 0.00856162
-0.02359 -0.0178269 0.999563 0.00470558
-0.0224232 -0.0162057 0.999617 0.00374812
-0.0265935 -0.0159663 0.999519 0.00205622
-0.025446 -0.015982 0.999548 0
-0.0744634 -0.0471983 0.996106 0.0142738
-0.05606 -0.0433453 0.997486 0.0165063
-0.0475544 -0.0428086 0.997951 0.00886798
0.00886327 -0.0031682 0.999956 0.000852962
0.0136904 0.00227813 0.999904 0.00487014
0.0189087 -0.000856292 0.999821 0.00132745
0.0156388 0.000289671 0.999878 0.0027001
0.0183074 0.00140019 0.999831 0.00193985
0.0204964 -0.00407139 0.999782 0.00165286
0.014666 -0.00178285 0.999891 0.00578298
0.0143088 -0.00246984 0.999895 0.0057752
0.0142027 0.00254882 0.999896 0.00748081
0.00882917 0.00551197 0.999946 0.00942168
0.00432611 0.00336405 0.999985 0.0115161
0.00496772 -0.00420356 0.999979 0.00732954
0.00136589 -0.00174689 0.999998 0.00570647
0.00102429 -0.00375809 0.999992 0.00253993
-0.00907156 -0.00245985 0.999956 0.0104411
-0.0113427 -0.0122547 0.999861 0.00353232
-0.0151424 -0.0109663 0.999825 0.00557861
-0.0131575 -0.0162844 0.999781 0.00283652
-0.0254615 -0.0167647 0.999535 0.0113546
-0.0184803 -0.0227563 0.99957 0.00150348
-0.0265364 -0.0167341 0.999508 0.0037125
-0.0237677 -0.0143617 0.999614 0.00479754
-0.0261363 -0.0192877 0.999472 0
-0.0485441 -0.0475836 0.997687 0
-0.0427626 -0.0460135 0.998025 0.00169641
0.0104306 -0.000700045 0.999945 0.00710085
0.0144172 0.000544013 0.999896 0.00593066
0.0158824 -0.00462563 0.999863 0.00205602
0.0115751 0.00497116 0.999921 0.0047079
0.0159342 -0.00138191 0.999872 0.00485978
0.0135546 -0.0053307 0.999894 0.0108956
0.0150819 -0.0100764 0.999835 0.0078945
0.00948927 -0.00485272 0.999943 0.0101103
0.0127179 -0.00213001 0.999917 0.00502511
0.00889791 0.000782518 0.99996 0.00922354
0.00466462 0.00304884 0.999985 0.0111116
-0.00263211 -6.19504e-05 0.999997 0.0142867
0.00175566 -0.0065628 0.999977 0.00207961
-0.000921491 -0.00955155 0.999954 0
-0.00839201 -0.00804943 0.999932 0.0094641
-0.0102225 -0.0134767 0.999857 0.00286538
-0.0155864 -0.00735288 0.999852 0.00673494
-0.0191887 -0.011029 0.999755 0.00297957
-0.0213114 -0.014554 0.999667 0.00750801
-0.0240612 -0.0258503 0.999376 0.00837964
-0.0246084 -0.0264797 0.999346 0.00515926
-0.0232237 -0.0182087 0.999564 0.00591926
-0.0264985 -0.0181423 0.999484 0.00492762
-0.0271835 -0.0268461 0.99927 0
-0.0502251 -0.0427292 0.997823 0.000731309
-0.0447504 -0.0447897 0.997994 0
-0.0359414 -0.0432025 0.99842 0
0.0191486 -0.00546814 0.999802 0
0.0170119 0.00335883 0.99985 0.00904805
0.0113443 0.00281726 0.999932 0.00735485
0.0132401 -0.00647863 0.999891 0.00637189
0.0129944 -0.00945633 0.999871 0.00821057
0.0118412 -0.0114682 0.999864 0.0120837
0.0083643 -0.0118917 0.999894 0.00588222
0.0044515 0.00287765 0.999986 0.00839395
-0.000361388 0.00461124 0.999989 0.0127547
-0.00306311 0.00631991 0.999975 0.0107894
-0.00793385 0.00473666 0.999957 0.00837596
-0.00217528 -0.00747719 0.99997 0.00166254
-0.00893803 -0.00482416 0.999948 0.0103156
-0.010559 -0.00965778 0.999898 0.00536219
-0.0111859 -0.0176103 0.999782 0
-0.0170044 -0.0143225 0.999753 0
-0.0187493 -0.00932148 0.999781 0.00345078
-0.0217556 -0.0160092 0.999635 0.00858478
-0.0272225 -0.0193802 0.999442 0.0109426
-0.0289881 -0.0209226 0.999361 0.0123245
-0.0311356 -0.0191477 0.999332 0.00685833
-0.0298088 -0.0258557 0.999221 0
-0.03197 -0.042274 0.998594 0
-0.0378162 -0.042149 0.998395 0.000257699
-0.0317116 -0.0418699 0.99862 0
0.0131161 -0.00545702 0.999899 0.00434969
0.0113264 -0.00323803 0.999931 0.00288097
0.00954047 -0.00291639 0.99995 0.00643166
0.00954986 -0.00749441 0.999926 0.00816516
0.00386999 -0.00179179 0.999991 0.0065024
0.0045648 0.00324753 0.999984 0.00438471
-0.000178487 0.00464624 0.999989 0.00509303
-0.00916052 0.0068434 0.999935 0.0100737
-0.0101067 -0.00559616 0.999933 0.00411673
-0.0166836 -0.00705237 0.999836 0.0117092
-0.0157906 -0.0147237 0.999767 0.00568138
-0.0166682 -0.0151088 0.999747 0.00527115
-0.0160169 -0.0169805 0.999727 0.00125638
-0.0203054 -0.01388 0.999697 0.00374291
-0.0172767 -0.0171593 0.999703 0.00528971
-0.0250727 -0.0177153 0.999529 0.00875418
-0.0263381 -0.0209815 0.999433 0.00485251
-0.0260201 -0.0222947 0.999413 0.00611141
-0.0421762 -0.0424562 0.998208 0.00615656
-0.0267953 -0.0426544 0.99873 0.00206366
-0.033123 -0.0411973 0.998602 0.0067032
0.0210915 -0.00332558 0.999772 0.00828667
0.0127795 -0.00358206 0.999912 0.00583124
0.0128721 0.00209348 0.999915 0.00335434
0.00688835 -0.00144199 0.999975 0.00403571
0.000981458 -0.00203684 0.999997 0.0080272
-0.00384069 -0.000933502 0.999992 0.00880809
0.00116148 -0.000660482 0.999999 0.00371381
-0.0047797 0.00379772 0.999981 0.00591099
-0.00549009 0.00232506 0.999982 0.00821492
-0.00851901 -0.00670873 0.999941 0.00741208
-0.0151995 -0.0113116 0.99982 0.00675989
-0.0174322 -0.0122385 0.999773 0.00631628
-0.0185737 -0.0153541 0.99971 0.00546844
-0.013683 -0.0203332 0.9997 0.00341851
-0.0181188 -0.0135353 0.999744 0.00559716
-0.0212974 -0.0142232 0.999672 0.00129121
-0.0256508 -0.0115257 0.999605 0.00759621
-0.0237336 -0.0176433 0.999563 0.000398733
-0.0267761 -0.0198585 0.999444 0
-0.0294709 -0.022677 0.999308 0
-0.0334098 -0.0443591 0.998457 0.00764289
-0.0311534 -0.0384891 0.998773 0.0162263
-0.0304007 -0.038388 0.9988 0.0119847
0.0199141 -0.00450156 0.999792 0.00438921
0.0141725 -0.00346252 0.999894 0.00525823
0.00999525 -0.00337428 0.999944 0.0077336
0.0106464 0.00615744 0.999924 0.00824065
0.00976189 -0.000197091 0.999952 0.00391121
0.00491863 -0.00335427 0.999982 0.00175893
-0.0012276 -0.00258821 0.999996 0.00731582
-0.00849601 0.000969774 0.999963 0.00990174
-0.00591919 -0.0043401 0.999973 0.00312446
-0.00620147 -0.00472857 0.99997 0.00483843
-0.0143378 -0.0165565 0.99976 0.00199008
-0.0176386 -0.0140508 0.999746 0.00751084
-0.0184727 -0.0157668 0.999705 0.00317505
-0.0197232 -0.00781169 0.999775 0.00623017
-0.018601 -0.0126731 0.999747 0.00360675
-0.021288 -0.00984386 0.999725 0.00834562
-0.0204583 -0.0101888 0.999739 0.00607929
-0.0260329 -0.0144811 0.999556 0.0119318
-0.0249725 -0.0147622 0.999579 0.00564529
-0.0377953 -0.0482444 0.99812 0.0120378
-0.0398174 -0.0441964 0.998229 0.0149125
-0.0265884 -0.0449975 0.998633 0.00843843
0.0273187 -0.0126112 0.999547 0.00476933
0.0287777 -0.0137766 0.999491 0
0.0242832 -0.00835656 0.99967 0.00414384
0.0147541 -0.00225965 0.999889 0.00388815
0.0139341 0.00361895 0.999896 0.00750547
0.00804311 0.0072521 0.999941 0.00370437
0.00743629 0.00443545 0.999963 0.00441604
0.0079552 -0.00116029 0.999968 0
-0.00361013 -0.0022047 0.999991 0.0079245
-0.0068531 -0.00402624 0.999968 0.00403261
-0.0134935 -0.00132735 0.999908 0.00979874
-0.0109544 -0.0109521 0.99988 0.00511808
-0.0153029 -0.0177362 0.999726 0.00825502
-0.0149235 -0.0184162 0.999719 0.00259638
-0.0184878 -0.0108611 0.99977 0.00617168
-0.0203076 -0.00484454 0.999782 0.00708611
-0.024604 -0.00802129 0.999665 0.00849401
-0.0264532 -0.00384023 0.999643 0.0129026
-0.0251509 -0.00640816 0.999663 0.0123605
-0.0242875 -0.0129344 0.999621 0.0100898
-0.0432927 -0.0460144 0.998002 0.0141457
-0.0258119 -0.044028 0.998697 0.0103116
-0.016866 -0.0438427 0.998896 0.00659613
0.0300939 -0.0104949 0.999492 0.000679547
0.0278476 -0.00997384 0.999562 0.00237634
0.0206519 -0.000667192 0.999787 0.00883774
0.0182066 -0.00291687 0.99983 0.00753147
0.0142692 0.000527247 0.999898 0.00736141
0.00912216 0.00410461 0.99995 0.00377144
0.0101737 0.00142682 0.999947 0
0.00319657 -0.000328879 0.999995 0.00414336
-0.0068099 -0.00258859 0.999973 0.00460848
-0.00597216 -0.00353205 0.999976 0
-0.0122377 -0.00439149 0.999915 0.00446235
-0.0134404 -0.0149499 0.999798 0
-0.0158525 -0.0162281 0.999743 0.00340813
-0.0210397 -0.0119455 0.999707 0.0109812
-0.0206808 -0.00928883 0.999743 0.00495609
-0.0211508 -0.00682921 0.999753 0.00777089
-0.0234948 -0.00612792 0.999705 0.00889345
-0.0232471 -0.00721334 0.999704 0.00704669
-0.0271207 -0.00522298 0.999619 0.0153338
-0.025878 -0.0148475 0.999555 0.00673816
-0.0359109 -0.0516202 0.998021 0.00719527
-0.0294839 -0.0467601 0.998471 0.00752324
-0.0157158 -0.0473723 0.998754 0
0.0267303 -0.00372208 0.999636 0.00569253
0.0212054 0.00406613 0.999767 0.0128845
0.0165927 -0.00432745 0.999853 0.00853547
0.0170434 -0.0034224 0.999849 0.00113864
0.0171502 -0.00455242 0.999843 0
0.00938382 -0.0026825 0.999952 0.00150811
0.000265456 0.000359044 1 0.0015334
-0.0048324 0.00290174 0.999984 0.0025987
-0.00557939 0.000839842 0.999984 0
-0.00920861 -0.0061029 0.999939 0
-0.0104481 -0.0114403 0.99988 0.000904138
-0.0149451 -0.00913757 0.999847 0.006641
-0.0184403 -0.0109059 0.99977 0.00653126
-0.0196223 -0.00926871 0.999765 0.00477027
-0.027406 -0.00588911 0.999607 0.0113868
-0.0228931 -0.00896412 0.999698 0.00830553
-0.0234221 -0.0162286 0.999594 0.00653309
-0.0268484 -0.0117817 0.99957 0.0083192
-0.0407265 -0.047747 0.998029 0.0175485
-0.0456185 -0.0459294 0.997903 0.0167734
0.0286747 -0.00551495 0.999574 0.00779945
0.0313124 -0.00722577 0.999484 0.00478204
0.022418 -0.00884941 0.999709 0.00386667
0.0196636 -0.00877005 0.999768 0
0.0155546 -0.0124906 0.999801 0
0.0147474 -0.0095416 0.999846 0
0.0122014 -0.0076424 0.999896 0
0.00312876 -0.00434878 0.999986 0
0.000698586 -0.00352285 0.999994 0
-0.00714692 0.000963728 0.999974 0.00618998
-0.00366581 -0.00726558 0.999967 0
-0.00794701 -0.00937288 0.999924 0
-0.0162944 -0.00409463 0.999859 0.00756543
-0.0180653 -0.00113993 0.999836 0.00795137
-0.0196665 -0.00864876 0.999769 0.00180716
-0.0200696 -0.00780633 0.999768 0.00365165
-0.0294762 -0.00447936 0.999555 0.0144065
-0.0389823 -0.0496093 0.998008 0.01513
-0.0298439 -0.0443783 0.998569 0.0171094
0.0291778 -0.0120283 0.999502 0.0111674
0.0329931 -0.0108434 0.999397 0.00647822
0.0223379 -0.0140842 0.999651 0.00685418
0.0142376 -0.0127684 0.999817 0.002111
0.0135614 -0.0088711 0.999869 0
0.0126968 -0.00157409 0.999918 0.000944738
0.00601272 -0.0104922 0.999927 0
-0.000682349 -0.0114485 0.999934 0
-0.00207767 -0.00947286 0.999953 0
-0.00691671 -0.00300919 0.999972 0.00233007
-0.0158296 -8.44421e-05 0.999875 0.00742151
-0.0115561 -0.00780737 0.999903 0
-0.0188174 -0.00157425 0.999822 0.00670417
-0.0165593 -0.0064809 0.999842 0.00250475
-0.0242629 -0.00978374 0.999658 0.00119458
-0.0310674 -0.00785856 0.999486 0.0119588
-0.049447 -0.0484444 0.997601 0.0189337
-0.0376217 -0.0496956 0.998056 0.00942437
-0.0314333 -0.0492318 0.998293 0.0124015
0.0287322 -0.0139382 0.99949 0.00475773
0.0287574 -0.011313 0.999522 0.00386264
0.0139173 -0.00807905 0.999871 0.00261544
0.0150725 -0.0105241 0.999831 0
0.0152718 -0.0105274 0.999828 0
0.00434988 -0.00836076 0.999956 0
8.93724e-05 -0.0119925 0.999928 0
-0.00440459 -0.0156343 0.999868 0
-0.00649901 -0.0112274 0.999916 0
-0.0094557 -0.0111124 0.999894 0
-0.0157896 -0.00890165 0.999836 0.00387528
-0.0168528 -0.00849627 0.999822 0.00424219
-0.0223182 -0.00940503 0.999707 0.0024849
-0.0235019 -0.0140068 0.999626 0.00146587
-0.0381196 -0.0523045 0.997903 0.0124872
-0.0186408 -0.0475457 0.998695 0.00966554
-0.0135777 -0.0454374 0.998875 0.0098624
0.0282742 -0.0161904 0.999469 0.00453486
0.0318089 -0.0160324 0.999365 0.000611196
0.0191084 -0.0192296 0.999632 0
0.0165622 -0.0154431 0.999744 0
0.00952816 -0.00951091 0.999909 0
0.0102386 -0.0111096 0.999886 0
0.00668946 -0.0113315 0.999913 0
-0.00123024 -0.0177035 0.999843 0
-0.00734037 -0.0158206 0.999848 0
-0.00674296 -0.0165072 0.999841 0.00149382
-0.00753256 -0.0123568 0.999895 0.00265789
-0.0150199 -0.0138163 0.999792 0.00284541
-0.0149677 -0.015039 0.999775 0
-0.0211906 -0.0155437 0.999655 0
-0.0430186 -0.0501808 0.997813 0.0114548
-0.0363071 -0.0455151 0.998304 0.0166784
0.0282668 -0.0190851 0.999418 0
0.017268 -0.0176474 0.999695 0
0.0112731 -0.0139023 0.99984 0
0.00608633 -0.0175334 0.999828 0
0.0023954 -0.0137279 0.999903 0
-0.000378516 -0.0157179 0.999876 0
-0.00396191 -0.0180009 0.99983 0
-0.00807224 -0.0117284 0.999899 0.00175191
-0.00691739 -0.0100059 0.999926 0.00338643
-0.0127216 -0.00673217 0.999896 0.001112
-0.0165222 -0.00463603 0.999853 0.00643713
-0.0181885 -0.0111305 0.999773 0
