-0.146227 0.0680249 0.986909 0
-0.142171 0.0666988 0.987592 0
-0.141817 0.065726 0.987708 0
-0.148833 0.0685596 0.986483 0
-0.146084 0.071181 0.986708 0
-0.143389 0.0708608 0.987126 0
-0.144881 0.0698016 0.986984 0
-0.140261 0.0647665 0.987994 0
-0.136192 0.0688805 0.988285 0
-0.145172 0.0655708 0.987231 0
-0.139165 0.0655835 0.988095 0
-0.137059 0.063943 0.988497 0
-0.147273 0.0700095 0.986615 0
-0.146053 0.069957 0.9868 0
-0.140129 0.0655779 0.987959 0
-0.149677 0.0682615 0.986376 0
-0.144697 0.0632044 0.987455 0
-0.142409 0.0649678 0.987673 0
-0.142742 0.0562122 0.988162 0
-0.143164 0.0592487 0.987924 0
-0.145755 0.0543808 0.987825 0
-0.14161 0.0543985 0.988427 0
-0.149688 0.0534555 0.987287 0
-0.142726 0.0556517 0.988196 0
-0.153719 0.0504103 0.986828 0
-0.142854 0.0586794 0.988003 0
-0.152889 0.0528269 0.98683 0
-0.141159 0.0517502 0.988633 0
-0.153683 0.05361 0.986665 0
-0.142376 0.0485889 0.988619 0
-0.156979 0.0512563 0.986271 0.000988183
-0.165558 0.0479976 0.985031 0.00483529
-0.148953 0.0358615 0.988194 0.000865594
-0.166416 0.0398239 0.985251 0.00494402
-0.149578 0.0344053 0.988151 0.00298965
-0.157641 0.0400482 0.986684 0.00843086
-0.158213 0.0387482 0.986644 0.00984383
-0.160636 0.0335896 0.986442 0.00676242
-0.163237 0.03399 0.986001 0.00527775
-0.159658 0.0259095 0.986832 0.00419555
-0.160284 0.0180949 0.986905 0.00312518
-0.162077 0.012083 0.986704 0
-0.160956 0.00806487 0.986929 0
-0.164636 0.00726352 0.986328 0.000106865
-0.163112 -0.0024682 0.986605 0
-0.156648 -0.00664169 0.987632 0
-0.159028 -0.00375527 0.987267 0
-0.159326 -0.00401788 0.987218 0
-0.1561 -0.0145171 0.987635 0
-0.156025 -0.0193848 0.987563 0
-0.168448 -0.0630322 0.983693 0
-0.170673 -0.0620395 0.983373 0
-0.168963 -0.0629623 0.983609 0
-0.173321 -0.0649359 0.982722 0.00216326
-0.172866 -0.0621099 0.982985 0.000508206
-0.174082 -0.0579093 0.983027 0.00336288
-0.179512 -0.0618064 0.981812 0.00252231
-0.177845 -0.068699 0.981658 0
-0.189506 -0.0685922 0.979481 0.000990003
-0.181267 -0.0664054 0.981189 0.00237604
-0.187749 -0.0644407 0.980101 0
-0.180106 -0.0620472 0.981688 0.000698883
-0.188842 -0.06255 0.980013 0
-0.182478 -0.0608533 0.981325 0
-0.191586 -0.0608705 0.979587 0
-0.194994 -0.0561981 0.979193 0.00433362
-0.19699 -0.0570409 0.978745 0.00131041
-0.194161 -0.0562 0.979359 0.00135098
-0.210634 -0.051694 0.976197 0.00649818
-0.196884 -0.0529347 0.978997 0.00280278
-0.217449 -0.0505219 0.974763 0.0080484
-0.214453 -0.0467587 0.975614 0.0107564
-0.229867 -0.0433715 0.972255 0.0156785
-0.240381 -0.0357027 0.970022 0.0200603
-0.252913 -0.0386047 0.966718 0.0281175
-0.259198 -0.0415338 0.964931 0.0237757
-0.252424 -0.040209 0.966781 0.0235292
-0.25695 -0.0328521 0.965866 0.0205459
-0.246458 -0.0351514 0.968516 0.017217
-0.247362 -0.0324349 0.96838 0.0132327
-0.246842 -0.0289318 0.968624 0.0172576
-0.246021 -0.0240763 0.968966 0.0138382
-0.242655 -0.0245752 0.969801 0.0140403
-0.238706 -0.0246498 0.970779 0.00739439
-0.239588 -0.0204608 0.970659 0.00798308
-0.230389 -0.0201308 0.97289 0.00481641
-0.222965 -0.0218997 0.97458 0.00150624
-0.222013 -0.0184946 0.974868 0.00436419
-0.218313 -0.0181532 0.97571 0
-0.215801 -0.019025 0.976252 0.000704719
-0.222034 -0.0141709 0.974936 0.00297694
-0.219907 -0.0110408 0.975458 0.0079178
-0.227712 -0.00403953 0.97372 0.0107552
-0.220207 -0.000214747 0.975453 0.00821153
-0.21673 0.00288787 0.976227 0.00882506
-0.218307 0.00848916 0.975843 0.00956975
-0.218595 0.0156857 0.97569 0.00971025
-0.21078 0.012074 0.977459 0.00752721
-0.216889 0.0164632 0.976058 0.0103906
-0.205828 0.015222 0.97847 0.00637967
-0.210705 0.0126666 0.977468 0.00428027
-0.210627 0.0187541 0.977386 0.00860788
-0.210056 0.0270939 0.977314 0.00940562
-0.214733 0.0378587 0.975939 0.0133575
-0.22299 0.0544113 0.973301 0.0230421
-0.22415 0.0590556 0.972764 0.0261834
-0.217703 0.0624394 0.974016 0.0205408
-0.214755 0.0633355 0.974612 0.0163849
-0.210118 0.0652995 0.975493 0.0156281
-0.20478 0.0721098 0.976148 0.0115158
-0.198076 0.07246 0.977505 0.00824409
-0.185296 0.0740014 0.979892 0.00706405
-0.187851 0.0934279 0.977744 0.0126323
-0.191924 0.112161 0.974979 0.0148322
-0.204084 0.135121 0.969584 0.0263699
-0.180672 0.162203 0.970076 0.031377
-0.0249881 0.117302 0.992782 0.00409094
-0.04267 0.161391 0.985968 0.00569747
-0.0437175 0.14831 0.987974 0.00323665
-0.0479623 0.12742 0.990689 0.00904401
-0.0464085 0.122662 0.991363 0.00527329
-0.0467631 0.127482 0.990738 0.00278301
-0.177646 0.158827 0.971193 0.0252826
-0.173203 0.175743 0.969079 0.0327601
-0.170677 0.181129 0.968536 0.0324752
-0.146729 0.144275 0.978599 0.0185506
-0.123752 0.164135 0.978644 0.0201149
-0.119315 0.16165 0.979609 0.0210222
-0.105011 0.131274 0.985769 0.0169814
-0.0574237 0.185744 0.980919 0.0182009
-0.0514427 0.183905 0.981597 0.0163731
-0.0432864 0.188917 0.981039 0.0152129
-0.0260421 0.174547 0.984304 0.0103548
-0.0208798 0.159587 0.986963 0.00921459
-0.0444207 0.13845 0.989373 0.00376437
-0.0465013 0.133429 0.989967 0.00617914
-0.142544 0.143856 0.979279 0.0126177
-0.103906 0.136957 0.985112 0.013519
-0.101403 0.14526 0.984183 0.0187505
-0.0994584 0.143469 0.984644 0.0130097
-0.0958787 0.147783 0.984361 0.0175867
-0.0919471 0.149399 0.984493 0.0182877
-0.088803 0.160651 0.983008 0.0172
-0.0846916 0.165716 0.98253 0.0172629
-0.0932515 0.174655 0.980204 0.0182016
-0.113759 -0.152849 0.98168 0
-0.114711 -0.153569 0.981457 0
-0.121174 -0.138029 0.982988 0.000665661
-0.12222 -0.145588 0.981767 0.000325392
-0.121748 -0.153129 0.980678 0
-0.0951753 -0.154814 0.983348 0
-0.099478 -0.143825 0.984591 0
-0.102099 -0.129956 0.986249 0
-0.103376 -0.136942 0.98517 0
-0.105193 -0.130495 0.985853 0
-0.108764 -0.13883 0.984325 0.00253808
-0.109546 -0.134429 0.98485 0.000208655
-0.11172 -0.143854 0.983272 0
-0.115626 -0.14523 0.982618 0.00154484
-0.117932 -0.138179 0.983361 0
-0.0636853 -0.0967829 0.993266 0
-0.0681284 -0.11126 0.991453 0
-0.0705986 -0.118826 0.990402 0
-0.0779366 -0.137426 0.987441 0
-0.082002 -0.133824 0.987607 0
-0.0836817 -0.124137 0.98873 0
-0.0912311 -0.139103 0.986067 0
-0.0981625 -0.141972 0.984991 0
-0.0559693 -0.145279 0.987806 0
-0.0547262 -0.154771 0.986434 0
-0.0536455 -0.155338 0.986404 0
-0.0493557 -0.164894 0.985076 0
-0.0479497 -0.159143 0.986091 0
-0.0459083 -0.167123 0.984867 0.00164711
-0.018477 -0.117325 0.992922 0.00728296
-0.0192124 -0.140741 0.98986 0.00033874
-0.0200118 -0.145001 0.989229 0.00132392
-0.0234016 -0.172962 0.98465 0
-0.0247923 -0.158543 0.987041 0
-0.0262302 -0.161537 0.986518 0
-0.0269187 -0.160018 0.986747 0
-0.0383963 -0.103073 0.993932 0
-0.0422222 -0.112301 0.992777 0
-0.0545043 -0.0783714 0.995433 0.00653572
-0.0556627 -0.0765174 0.995513 0.0034811
-0.0579521 -0.0912876 0.994137 0.00671593
-0.0610692 -0.104309 0.992668 0.00426732
-0.0611432 -0.103745 0.992723 0.00272337
-0.0844149 -0.128427 0.98812 0
-0.0916587 -0.136378 0.986407 0
-0.0877985 -0.110188 0.990025 0.0174534
-0.0767663 -0.126839 0.988948 0.00988493
-0.0738651 -0.137047 0.987807 0.0119878
-0.0712326 -0.142498 0.987229 0.00851408
-0.0612405 -0.132387 0.989304 0.00223364
-0.0586693 -0.126525 0.990227 0.00295587
-0.0562923 -0.136018 0.989106 0
-0.0523852 -0.149005 0.987448 0
-0.0498477 -0.154132 0.986792 0
-0.0477564 -0.143288 0.988528 0.00110429
-0.0450083 -0.155419 0.986823 0
-0.0371144 -0.149088 0.988127 0.0100564
-0.0363804 -0.152832 0.987582 0.0140842
-0.034069 -0.152874 0.987658 0.0173713
-0.0255585 -0.128956 0.991321 0.00663965
-0.0216609 -0.12437 0.991999 0.0054774
-0.0216996 -0.115036 0.993124 0.00883266
-0.0181485 -0.106295 0.994169 0.00959673
-0.0181132 -0.107345 0.994057 0.00991635
-0.0184353 -0.115126 0.99318 0.00751399
-0.0204887 -0.130015 0.9913 0.00392964
-0.0206386 -0.144762 0.989251 0.00130674
-0.0203798 -0.152753 0.988054 0
-0.0220179 -0.142491 0.989551 0.00108059
-0.0234361 -0.157679 0.987212 0
-0.0246503 -0.162709 0.986366 0
-0.0251942 -0.145849 0.988986 0
-0.0256676 -0.163565 0.986199 0
-0.0269226 -0.162639 0.986318 0
-0.0283404 -0.124688 0.991791 0
-0.0352866 -0.125428 0.991475 0
-0.0391485 -0.0923007 0.994961 0
-0.0431383 -0.104484 0.993591 0
-0.0484096 -0.113338 0.992376 0
-0.0544313 -0.0718139 0.995932 0.00621513
-0.0564836 -0.0804947 0.995153 0.00547661
-0.0947622 -0.109093 0.989504 0.0107642
-0.0967115 -0.110442 0.989166 0.0198167
-0.0914355 -0.101849 0.990589 0.0169896
-0.0842224 -0.110636 0.990286 0.0119272
-0.0766478 -0.118507 0.989991 0.0104828
-0.0749019 -0.124351 0.989407 0.0157802
-0.0727092 -0.126062 0.989354 0.0136812
-0.065496 -0.128813 0.989504 0.00391539
-0.0614668 -0.123338 0.990459 0.00251971
-0.0381438 -0.132484 0.990451 0.00839919
-0.0360608 -0.148502 0.988255 0.010896
-0.0336607 -0.144241 0.98897 0.0135408
-0.0322292 -0.134715 0.99036 0.0165584
-0.0258774 -0.110812 0.993504 0.0104967
-0.0221 -0.120174 0.992507 0.00613902
-0.0199409 -0.109195 0.99382 0.00244343
-0.0193978 -0.0974555 0.995051 0.0121899
-0.0197993 -0.103229 0.994461 0.0139367
-0.0216275 -0.136277 0.990435 0.000633243
-0.0220485 -0.147018 0.988888 0
-0.0224299 -0.150116 0.988414 0
-0.023238 -0.161407 0.986614 0
-0.0975219 -0.0951424 0.990675 0.0127487
-0.0950045 -0.103816 0.990049 0.0152257
-0.0958176 -0.101035 0.990258 0.0202308
-0.0894564 -0.0957964 0.991373 0.0210593
-0.0318352 -0.119454 0.992329 0.013481
-0.0947162 -0.0876997 0.991634 0.00927695
-0.103563 -0.0570122 0.992988 0.000686773
-0.101302 -0.0559473 0.993281 0.0134881
-0.114186 -0.0537232 0.992006 0.00665231
-0.109141 -0.0575645 0.992358 0.00233492
-0.0904858 -0.0520272 0.994538 0
0.188982 -0.0858173 0.978224 0.0119992
-0.12255 -0.0505904 0.991172 0.00675628
-0.116893 -0.0508694 0.991841 0.00443956
-0.110378 -0.0500888 0.992627 0.00783887
-0.128335 -0.0466991 0.990631 0.00503711
-0.121083 -0.0471814 0.99152 0.0077334
-0.117031 -0.0503601 0.991851 0.00741237
-0.112928 -0.0465285 0.992513 0.0131794
0.192967 -0.0779751 0.978102 0.0100977
-0.127643 -0.0485277 0.990632 0.000176414
-0.12594 -0.0477196 0.990889 0.00451303
-0.121179 -0.0491086 0.991415 0.00557206
0.192218 -0.0785204 0.978206 0.013275
-0.135387 -0.0427241 0.989871 0.00691024
-0.125289 -0.0417821 0.99124 0
-0.138934 -0.0398734 0.989499 0.00505133
-0.132397 -0.0382243 0.990459 0.00400385
-0.152735 -0.0248964 0.987954 0.0157544
-0.142883 -0.0276853 0.989352 0.00962484
-0.140581 -0.0344138 0.989471 0.009177
-0.153076 -0.0152269 0.988097 0.0135245
-0.147019 -0.0216758 0.988896 0.00888261
-0.139732 -0.0278986 0.989796 0.00500464
-0.157557 -0.0110605 0.987448 0.00977672
-0.15133 -0.0140143 0.988384 0.0120098
-0.157286 -0.0132053 0.987465 0.00553421
-0.150592 -0.0103933 0.988541 0.00669075
-0.151041 -0.00671708 0.988505 0.000981557
-0.145498 -0.00527095 0.989344 0.00265117
-0.160454 -0.00208839 0.987041 0.00630514
-0.145738 -0.00571534 0.989307 0
-0.152382 -0.00320882 0.988317 0
-0.148181 0.000220699 0.98896 0
-0.153678 -0.0017368 0.988119 0
-0.152539 8.09404e-05 0.988297 0
-0.150376 0.00372646 0.988622 0
-0.147688 0.00116111 0.989033 0
-0.151546 0.0053986 0.988435 0
-0.146207 0.00657744 0.989232 0
-0.147322 0.00941865 0.989044 0
-0.150428 0.0168408 0.988478 0
-0.15701 0.0202813 0.987389 0.0012897
-0.152281 0.0208271 0.988118 0.000115578
-0.164542 0.0235727 0.986088 0.004747
-0.156802 0.0253745 0.987304 0.00384969
-0.173587 0.0303146 0.984352 0.00931953
-0.169937 0.0297099 0.985007 0.0122928
-0.157568 0.0274532 0.987127 0.00573143
-0.160073 0.0300997 0.986646 0.00703522
-0.155009 0.0297721 0.987464 0.00673489
-0.163817 0.0348087 0.985876 0.0055431
-0.154837 0.0296912 0.987494 0.00190743
-0.152398 0.0304571 0.98785 0.00175846
-0.163309 0.037102 0.985877 0
-0.159416 0.0377123 0.986491 0.00350114
-0.153052 0.0333689 0.987655 0
-0.166314 0.0378283 0.985347 0.000230262
-0.159813 0.0356723 0.986502 0
-0.155924 0.0337332 0.987193 0
-0.165612 0.0331789 0.985633 0
-0.160465 0.0352244 0.986413 0
-0.152857 0.0354946 0.987611 0
-0.166833 0.0364539 0.985311 0
-0.160705 0.0373667 0.986295 0.000569077
-0.156894 0.0377647 0.986893 0.00126008
-0.161182 0.0402459 0.986104 0
-0.160365 0.0447244 0.986044 0.00450874
-0.14951 0.0410991 0.987906 0.00211772
-0.159226 0.0461379 0.986163 0
-0.156083 0.0508611 0.986434 0.00106147
-0.14875 0.0465233 0.98778 0.00134866
-0.15922 0.0564491 0.985628 0.00262858
-0.153974 0.0532671 0.986638 0.000204351
-0.148293 0.0544639 0.987443 0.0017519
-0.162723 0.0622322 0.984707 0.00818592
-0.163833 0.0626115 0.984499 0.00937985
-0.156243 0.0611358 0.985825 0.00742339
-0.16127 0.0670316 0.984631 0.00713724
-0.15199 0.0600881 0.986554 0.00334616
-0.140141 0.0611651 0.988241 0.00032551
-0.155024 0.0643639 0.985812 0.00387634
-0.149842 0.0643855 0.986611 0.00202194
-0.136749 0.0601064 0.98878 0.000569343
-0.154542 0.0637586 0.985927 0.00425087
-0.144627 0.064683 0.98737 0.00046553
-0.135616 0.0646513 0.98865 0.000834545
-0.141356 0.0646268 0.987847 0
-0.135089 0.065616 0.988658 0
-0.14038 0.0609851 0.988218 0
-0.138614 0.0634862 0.98831 0
-0.131591 0.0684446 0.988938 0
-0.136392 0.0672892 0.988367 0
-0.128615 0.0677421 0.989378 0
-0.137878 0.0683679 0.988087 0
-0.130926 0.0690485 0.988985 0
-0.141544 0.0706966 0.987404 0
-0.128686 0.0676643 0.989374 0
-0.137231 0.0700727 0.988057 0
-0.133922 0.0653295 0.988836 0
-0.131528 0.0613039 0.989415 0
-0.131753 0.0593664 0.989503 0
-0.132739 0.0581863 0.989442 0
-0.125906 0.0568721 0.990411 0
-0.134227 0.056138 0.989359 0
-0.127901 0.0559473 0.990208 0
-0.126217 0.0530715 0.990582 0
-0.133884 0.0545243 0.989496 0
-0.131228 0.0534306 0.989911 0
-0.129253 0.0539171 0.990145 0
-0.139943 0.0565236 0.988545 0
-0.132961 0.0519972 0.989756 3.93612e-05
-0.131947 0.0527572 0.989852 0.00470403
-0.140836 0.0613954 0.988127 0
-0.137142 0.0507375 0.989251 0.00486325
-0.131303 0.0499378 0.990084 0.00391227
-0.13452 0.0518378 0.989554 0.0060472
-0.137832 0.0471716 0.989332 0.00467231
-0.12951 0.0464796 0.990488 0.00534333
-0.126501 0.0444648 0.990969 0.00321304
-0.144568 0.0472143 0.988368 0.00363869
-0.135199 0.0436647 0.989856 0.00745627
-0.127657 0.0416622 0.990943 0.00284813
-0.130369 0.0433061 0.990519 0.0105024
-0.13627 0.0424003 0.989764 0.00604895
-0.129727 0.0397233 0.990754 0.00798009
-0.12793 0.0412158 0.990926 0.0101812
-0.143354 0.0414579 0.988803 0.00926736
-0.138255 0.0435295 0.98944 0.0126802
-0.130834 0.0389577 0.990639 0.0100213
-0.14263 0.0398912 0.988972 0.00738624
-0.140871 0.0357661 0.989382 0.00817249
-0.136126 0.0381198 0.989958 0.0106275
-0.145078 0.035006 0.988801 0.0052253
-0.137869 0.0336469 0.989879 0.00356766
-0.130871 0.0270444 0.991031 0.000901255
-0.148201 0.0328517 0.988411 0.00602249
-0.14372 0.0322757 0.989092 0.00588281
-0.131287 0.0259215 0.991005 0.00211507
-0.131766 0.0274768 0.9909 0.0055912
-0.145656 0.0316205 0.98883 0.00655783
-0.142717 0.0287126 0.989347 0.00749738
-0.139734 0.0307567 0.989711 0.00799807
-0.132404 0.0241336 0.990902 0.00151364
-0.144653 0.0257776 0.989147 0.00449882
-0.140478 0.0255881 0.989753 0.00657569
-0.139209 0.0270193 0.989894 0.0059015
-0.135661 0.0248941 0.990442 0.00769325
-0.15138 0.0235678 0.988195 0.00372735
-0.138272 0.0189998 0.990212 0.00117752
-0.137005 0.0215098 0.990337 0.00917138
-0.148924 0.0219419 0.988605 0.00491226
-0.144459 0.0134612 0.989419 0.00351282
-0.142436 0.0196996 0.989608 0.0100871
-0.148151 0.0145364 0.988858 0
-0.144254 0.0135428 0.989448 0.00196745
-0.138545 0.0111702 0.990293 0.00580925
-0.14835 0.0092406 0.988892 0
-0.14071 0.003686 0.990044 0
-0.145748 0.0150904 0.989207 0.00928807
-0.149702 0.000854143 0.988731 0
-0.147017 0.00216633 0.989132 0
-0.149314 0.00367495 0.988783 0.00231421
-0.143001 0.00298434 0.989718 0.00369847
-0.150831 -0.00111286 0.988559 0
-0.147473 -0.00202533 0.989064 0
-0.14291 -0.00103804 0.989735 0
-0.138204 -0.0053433 0.990389 0.000572814
-0.150987 -0.00625316 0.988516 0
-0.143083 -0.00861436 0.989673 0
-0.139935 -0.00684956 0.990137 0
-0.144785 -0.000514049 0.989463 0.00494348
-0.148946 -0.00661569 0.988823 0
-0.143325 -0.00667174 0.989653 0
-0.15031 -0.0105325 0.988583 0
-0.14425 -0.0124109 0.989463 0
-0.140222 -0.0157385 0.989995 0
-0.149047 -0.0122271 0.988754 0
-0.141255 -0.016511 0.989836 0
-0.139763 -0.0184684 0.990013 0
-0.14885 -0.018243 0.988691 0
-0.137427 -0.0208213 0.990293 0
-0.135752 -0.0241101 0.990449 0
-0.147783 -0.0262358 0.988672 0
-0.141752 -0.02418 0.989607 0
-0.133948 -0.0265442 0.990633 0
-0.147508 -0.0302422 0.988598 0
-0.139562 -0.0269002 0.989848 0
-0.138537 -0.026438 0.990004 0
-0.149053 -0.0284586 0.98842 0
-0.142067 -0.0319738 0.98934 0
-0.137388 -0.0310697 0.99003 0
-0.150159 -0.0315727 0.988158 0
-0.139623 -0.0382641 0.989465 0
-0.138863 -0.0390765 0.98954 0
-0.15295 -0.0375421 0.987521 0
-0.141187 -0.0421852 0.989084 0
-0.138046 -0.0447785 0.989413 0
-0.151277 -0.0407474 0.987651 0
-0.145528 -0.039076 0.988582 0
-0.141327 -0.0434912 0.989007 0
-0.144691 -0.040813 0.988635 0
-0.139062 -0.0439126 0.98931 0
-0.139226 -0.0450853 0.989234 0
-0.142349 -0.0502537 0.98854 0
-0.140126 -0.0509301 0.988823 0
-0.139821 -0.0485268 0.988987 0
-0.145064 -0.0555413 0.987862 0
-0.13998 -0.0578384 0.988464 0
-0.139221 -0.0572589 0.988604 0
-0.145762 -0.0554965 0.987762 0
-0.14048 -0.0605498 0.98823 0
-0.137404 -0.0645386 0.98841 0
-0.140181 -0.0621217 0.988175 0
-0.136877 -0.0643607 0.988495 0
-0.134022 -0.0643974 0.988884 0
-0.141812 -0.0679374 0.98756 0
-0.132454 -0.0676379 0.988879 0
-0.139351 -0.067209 0.98796 0
-0.144154 -0.0682961 0.987196 0
-0.143605 -0.0625961 0.987653 0
-0.154713 -0.0686397 0.985572 0
-0.144073 -0.0705697 0.987048 0
-0.156755 -0.0665915 0.98539 4.49917e-05
-0.157892 -0.0697749 0.984988 0
-0.184262 -0.0566479 0.981243 0.00199129
-0.186269 -0.0532966 0.981052 0.00432234
-0.187292 -0.0554183 0.98074 0.00276474
-0.197261 -0.0516045 0.978992 0.0068756
-0.202577 -0.0461844 0.978177 0.00994961
-0.220241 -0.0450854 0.974403 0.0165456
-0.21426 -0.0422999 0.97586 0.0174451
-0.225874 -0.0373768 0.973439 0.0196623
-0.213946 -0.0390479 0.976065 0.0170418
-0.232909 -0.0351993 0.971861 0.0226764
-0.218764 -0.0360815 0.97511 0.0222179
-0.246812 -0.0369183 0.96836 0.0256429
-0.24062 -0.036573 0.96993 0.0249831
-0.246592 -0.0363857 0.968436 0.0231243
-0.236511 -0.0341005 0.97103 0.0231496
-0.239199 -0.0325055 0.970426 0.0173205
-0.230248 -0.0337618 0.972546 0.0167414
-0.236875 -0.0243546 0.971235 0.0151492
-0.230354 -0.0243515 0.972802 0.0162357
-0.233917 -0.024576 0.971946 0.0126146
-0.236836 -0.0188843 0.971366 0.0107971
-0.232899 -0.0186152 0.972323 0.0128512
-0.225475 -0.0182642 0.974078 0.0068585
-0.221583 -0.0203725 0.974929 0.00614126
-0.215325 -0.0196299 0.976345 0.00110662
-0.215376 -0.0184429 0.976357 0.00399091
-0.211968 -0.02139 0.977043 0.000369732
-0.205699 -0.0208719 0.978393 0
-0.213182 -0.0121508 0.976937 0.00464866
-0.216771 -0.00468153 0.976211 0.00981413
-0.216941 0.00273568 0.976181 0.0160014
-0.218507 0.00772491 0.975805 0.0140819
-0.211603 0.00498631 0.977343 0.0128268
-0.205777 0.00768413 0.978569 0.00876829
-0.201376 0.00852975 0.979477 0.00830548
-0.206061 0.0158257 0.978411 0.00772161
-0.204465 0.0136631 0.978779 0.0104481
-0.200239 0.0140726 0.979646 0.00326847
-0.200039 0.0141072 0.979686 0.00693079
-0.20556 0.0175996 0.978486 0.00574513
-0.199062 0.0185674 0.979811 0.00562421
-0.210857 0.0352139 0.976883 0.0172774
-0.215037 0.0479045 0.97543 0.0186166
-0.21413 0.0555996 0.975221 0.0196356
-0.217294 0.0600419 0.974258 0.0220983
-0.20839 0.0575978 0.976348 0.0148192
-0.205206 0.0565514 0.977084 0.0147621
-0.199907 0.0658075 0.977602 0.0107227
-0.202964 0.0669936 0.976892 0.0162187
-0.192044 0.0653265 0.97921 0.0106689
-0.183025 0.0640716 0.981018 0.000895469
-0.181867 0.0694745 0.980866 0.00435262
-0.18216 0.0817294 0.979866 0.00686146
-0.185818 0.0883149 0.978607 0.0112851
-0.179457 0.165737 0.969704 0.0345092
-0.0234612 0.122818 0.992152 0
-0.0260454 0.113767 0.993166 0.00455288
-0.0273633 0.121183 0.992253 0.00889226
-0.0426613 0.135566 0.989849 0.00949713
-0.0433996 0.137667 0.989527 0.00259178
-0.0445106 0.116508 0.992192 0.00123565
-0.0488571 0.124228 0.99105 0.0102513
-0.0471287 0.12587 0.990927 0.00663938
-0.04773 0.12642 0.990828 0.00469719
-0.0486477 0.142558 0.98859 0.00166477
-0.082335 0.152953 0.984798 0.00273158
-0.084751 0.154306 0.984381 0.00330314
-0.0862989 0.136359 0.986893 6.63491e-05
-0.0883223 0.154356 0.98406 0.00172075
-0.0867407 0.173882 0.980939 0.00197186
-0.182842 0.172487 0.967893 0.032546
-0.17352 0.174726 0.969207 0.0376359
-0.165103 0.168645 0.971751 0.031045
-0.15736 0.167992 0.973148 0.030026
-0.12258 0.13936 0.982626 0.00842551
-0.11783 0.138094 0.983385 0.014571
-0.104155 0.12687 0.986436 0.0131835
-0.0576556 0.179822 0.982008 0.0170958
-0.0520373 0.186659 0.981046 0.0168032
-0.0439206 0.195506 0.979719 0.0114757
-0.0348288 0.183947 0.982319 0.0187544
-0.0280775 0.160837 0.986582 0.0127192
-0.0246156 0.158569 0.987041 0.00840133
-0.0214558 0.156831 0.987392 0.0121161
-0.0205069 0.152261 0.988127 0.0115784
-0.0189163 0.1535 0.987968 0
-0.0207538 0.106043 0.994145 0
-0.0208424 0.122342 0.992269 0
-0.0234521 0.128419 0.991443 0
-0.0223838 0.139376 0.989986 0.00139929
-0.0265658 0.134678 0.990533 0.00887735
-0.029517 0.145905 0.988858 0.00985005
-0.0295793 0.14903 0.98839 0.0139629
-0.0293104 0.147223 0.988669 0.0126592
-0.0439421 0.147924 0.988022 0.00504738
-0.0442713 0.136461 0.989656 0.0054304
-0.0476198 0.118713 0.991786 0.00916666
-0.0480036 0.117141 0.991954 0.00816211
-0.0693976 0.14022 0.987685 0
-0.157335 0.160875 0.974354 0.0263439
-0.147342 0.151959 0.977343 0.0205476
-0.140185 0.135603 0.980796 0.012139
-0.125155 0.149751 0.98077 0.0148288
-0.121459 0.147832 0.981526 0.0166449
-0.117094 0.149033 0.981875 0.015588
-0.103743 0.123649 0.986888 0.0166873
-0.0997093 0.127905 0.986762 0.0122882
-0.0977626 0.132683 0.986325 0.0152254
-0.0956031 0.138876 0.985684 0.015322
-0.0917857 0.14483 0.98519 0.016334
-0.0864603 0.143531 0.985862 0.0132544
-0.0836848 0.148213 0.985408 0.0157084
-0.0772288 0.156628 0.984634 0.013933
-0.062041 0.192987 0.979238 0.0170798
-0.0514881 0.182807 0.9818 0.0165478
-0.0347787 0.192145 0.98075 0.0176243
-0.0885763 0.144631 0.985513 0.0153496
0.113471 -0.152632 0.981747 0.0279066
-0.122111 -0.145808 0.981748 0
-0.119105 -0.144694 0.982282 0
0.12606 -0.141276 0.981911 0.0183093
-0.111654 -0.124696 0.985893 0.00324205
-0.114443 -0.132217 0.984592 0
-0.116949 -0.132056 0.984319 0
-0.119229 -0.120305 0.985551 0.00267873
-0.121517 -0.143202 0.982205 0.00362407
-0.122226 -0.129852 0.983971 0
-0.118953 -0.143504 0.982475 0
0.132571 -0.133846 0.982095 0.0200896
-0.0961369 -0.141311 0.985286 0
-0.0984935 -0.139003 0.985382 0
-0.101698 -0.111056 0.988597 0.00145166
-0.102882 -0.126479 0.98662 0
-0.104392 -0.134988 0.985333 0
-0.107113 -0.130491 0.985646 0
-0.110175 -0.131892 0.985122 0.00288272
-0.110267 -0.121695 0.986424 0
-0.114093 -0.126988 0.985321 0.00042734
-0.115937 -0.136175 0.983877 0
0.137222 -0.126566 0.982421 0.0203324
-0.0647367 -0.0776062 0.99488 0
-0.0685763 -0.0938716 0.99322 0
-0.0709651 -0.117967 0.990479 0
-0.0771798 -0.140267 0.987101 0
-0.0813134 -0.130469 0.988112 0
-0.083601 -0.127871 0.988261 0
-0.0901818 -0.140064 0.986027 0
-0.0936031 -0.143147 0.985265 0
-0.0973531 -0.14053 0.985278 0
-0.0988072 -0.133198 0.986152 0
-0.0516131 -0.141588 0.988579 0
-0.0503185 -0.149907 0.987419 0
-0.0256982 -0.158547 0.987017 0
-0.0268251 -0.153671 0.987758 0
-0.0264905 -0.12277 0.992082 0
-0.0335821 -0.116328 0.992643 0
-0.0376578 -0.0945127 0.994811 0
-0.0537389 -0.0729968 0.995883 0.00458722
-0.055653 -0.0835065 0.994952 0.00302578
-0.0573551 -0.0948246 0.99384 0.00664197
-0.0602407 -0.084526 0.994599 0.00359877
-0.0617004 -0.0755225 0.995233 0.00793842
-0.0651596 -0.0712805 0.995326 0.00600904
-0.0680175 -0.0907872 0.993545 0.0010408
-0.0709761 -0.107246 0.991696 0
-0.0769385 -0.130111 0.98851 0
-0.0813427 -0.137295 0.987185 0
-0.0840287 -0.119917 0.989221 0
-0.0899751 -0.124776 0.988097 0
-0.0756611 -0.104984 0.991592 0.00941126
-0.0743442 -0.10872 0.991289 0.0155929
-0.0622746 -0.109601 0.992023 0.00964843
-0.0597622 -0.118516 0.991152 0.00458879
-0.0567774 -0.122489 0.990844 0.00426947
-0.0537348 -0.133863 0.989542 0
-0.0499254 -0.126246 0.990742 0.00123954
-0.0495022 -0.13106 0.990138 0.00745654
-0.0476663 -0.143851 0.988451 0.0106186
-0.0395063 -0.143847 0.988811 0.00682809
-0.0355651 -0.140334 0.989465 0.00938087
-0.0210316 -0.113609 0.993303 0.00375336
-0.0198574 -0.107115 0.994048 0.000888237
-0.0201073 -0.0944378 0.995328 0.00941692
-0.0200617 -0.104145 0.99436 0.0143376
-0.0199358 -0.114767 0.993192 0.00869833
-0.0199032 -0.121781 0.992357 0.00352275
-0.0207323 -0.130568 0.991223 0
-0.0212697 -0.13594 0.990489 0
-0.0211924 -0.139273 0.990027 0
-0.0235313 -0.150071 0.988395 0
-0.0240226 -0.139258 0.989965 0
-0.0259063 -0.149257 0.988459 0
-0.026977 -0.14198 0.989502 0
-0.0274606 -0.120062 0.992386 0
-0.0329259 -0.113504 0.992992 0
-0.039767 -0.0908666 0.995069 0
-0.0431249 -0.0965905 0.99439 0
-0.0504778 -0.0912051 0.994552 0.00225875
-0.054083 -0.0671313 0.996277 0.00501457
-0.0555543 -0.0763995 0.995528 0.00370034
-0.0584392 -0.0895127 0.99427 0.00471212
-0.060383 -0.0758842 0.995287 0.00358841
-0.093683 -0.098987 0.990669 0.0221069
-0.0894842 -0.0950983 0.991438 0.0230245
-0.0851896 -0.0934982 0.991968 0.0195258
-0.0746232 -0.0979847 0.992386 0.0099406
-0.0725216 -0.108516 0.991446 0.0139625
-0.0686629 -0.11436 0.991064 0.00855905
-0.0646641 -0.118686 0.990824 0.00299671
-0.0625293 -0.115847 0.991297 0.0061042
-0.0611541 -0.110101 0.992037 0.00909292
-0.0557591 -0.111382 0.992212 0.00381054
-0.0533776 -0.130141 0.990058 0
-0.0521854 -0.123574 0.990962 0.00629606
-0.0500055 -0.121387 0.991345 0.0107527
-0.0482869 -0.132217 0.990044 0.0145036
-0.0380221 -0.128252 0.991013 0.00981297
-0.0352387 -0.130496 0.990822 0.00770616
-0.0336728 -0.126682 0.991372 0.0101723
-0.0310826 -0.116789 0.99267 0.0131801
-0.0282199 -0.0952737 0.995051 0.013603
-0.0240747 -0.107533 0.99391 0.00633813
-0.0224911 -0.10948 0.993735 0.00275345
-0.0214161 -0.099094 0.994848 0.00956462
-0.0206181 -0.102197 0.99455 0.0124476
-0.0205385 -0.0996488 0.994811 0.00712814
-0.0207779 -0.122178 0.992291 0
-0.0212536 -0.126012 0.991801 0
-0.0218022 -0.137574 0.990252 0
-0.0215645 -0.139616 0.989971 0
-0.0220629 -0.154802 0.987699 0
-0.024454 -0.142068 0.989555 0
-0.0247818 -0.136032 0.990394 0
-0.0268805 -0.137651 0.990116 0
-0.0266627 -0.129446 0.991228 0
-0.0274351 -0.118631 0.992559 0
-0.0335273 -0.115678 0.992721 0
-0.0409931 -0.088236 0.995256 0.00185463
-0.0442948 -0.106236 0.993354 9.11862e-05
-0.052002 -0.0927289 0.994333 0.00533152
-0.0529962 -0.0510272 0.99729 0.00631746
-0.0917761 -0.0824002 0.992365 0.00589324
-0.0916024 -0.0935838 0.991388 0.0148203
-0.0918083 -0.0900233 0.991699 0.0175926
-0.0860592 -0.0803245 0.993047 0.022975
-0.0839763 -0.0821616 0.993075 0.0204896
-0.0727584 -0.0943361 0.992878 0.00863046
-0.0712604 -0.10415 0.992005 0.00844045
-0.0698829 -0.10525 0.991987 0.0107487
-0.0644987 -0.122742 0.990341 0.000776672
-0.0634952 -0.108918 0.992021 0.00684423
-0.0609916 -0.110589 0.991993 0.00680564
-0.0385159 -0.117119 0.992371 0.00737994
-0.0354017 -0.131322 0.990707 0.00894565
-0.0345053 -0.12803 0.99117 0.00751837
-0.0312112 -0.104672 0.994017 0.0125359
-0.027047 -0.0762048 0.996725 0.0143755
-0.0258931 -0.100943 0.994555 0.00892212
-0.022624 -0.100388 0.994691 0.00540033
-0.0204383 -0.0954763 0.995222 0.0031183
-0.0210123 -0.122814 0.992207 0
-0.0202744 -0.134593 0.990694 0
-0.0207681 -0.149143 0.988597 0
-0.0228099 -0.154232 0.987771 0
-0.0241486 -0.135827 0.990438 0
-0.0254766 -0.125103 0.991817 0
-0.0433138 -0.0988776 0.994157 0.00210766
-0.0462653 -0.112397 0.992586 0.00179
-0.0911189 -0.070259 0.993358 0.00842473
-0.089532 -0.0823506 0.992574 0.0087742
-0.0901157 -0.0838919 0.992392 0.0158339
-0.085256 -0.0776574 0.993328 0.0226128
-0.0716565 -0.0931886 0.993067 0.00837345
-0.0709798 -0.0902208 0.993389 0.0121357
-0.0385623 -0.0984144 0.994398 0.00899583
-0.0362587 -0.113442 0.992883 0.00465101
-0.0353301 -0.116789 0.992528 0.00425675
-0.0310379 -0.0806056 0.996263 0.00940283
-0.0199609 -0.125576 0.991883 0
-0.0221315 -0.145994 0.989038 0
-0.0426397 -0.0992206 0.994151 0
-0.0450582 -0.0941722 0.994536 0.00188913
0.164061 -0.0943524 0.981928 0.0166237
-0.100571 -0.0539812 0.993464 0.00231848
-0.0903488 -0.0496832 0.99467 0.00137008
-0.092547 -0.0668657 0.993461 0.00926436
-0.0372659 -0.111021 0.993119 0.00475618
-0.0356363 -0.119863 0.992151 0.00357922
-0.0325967 -0.0773119 0.996474 0.0104898
-0.0195408 -0.123422 0.992162 0
-0.0207792 -0.141583 0.989708 0
-0.043568 -0.0852715 0.995405 0
-0.0452875 -0.0837306 0.995459 0.0034087
0.177633 -0.0918135 0.979804 0.00474245
-0.10468 -0.0499025 0.993253 0.00601924
-0.09246 -0.0399574 0.994914 0.0060811
-0.0371039 -0.0998487 0.994311 0.00182592
-0.0369793 -0.104957 0.993789 0.00525012
-0.0200237 -0.10886 0.993855 0
-0.0212785 -0.112409 0.993434 0
-0.0231826 -0.127642 0.991549 0
-0.0436589 -0.0817901 0.995693 0.00390577
-0.0462412 -0.0785195 0.99584 0.00386078
0.177957 -0.0824963 0.980574 0.00670729
0.188459 -0.0838922 0.978491 0.0130554
-0.104498 -0.0427466 0.993606 0.00812152
-0.0973944 -0.0419626 0.994361 0.00933944
-0.041508 -0.0797171 0.995953 0.00795996
-0.0384871 -0.0885717 0.995326 0.00376925
-0.0373734 -0.0845669 0.995717 0.00621169
-0.0228433 -0.0968573 0.995036 0
-0.0233567 -0.109782 0.993681 0
-0.0424425 -0.0627107 0.997129 0.00729314
0.176998 -0.0822729 0.980766 0.00614449
0.186122 -0.0778075 0.979441 0.0143304
-0.120763 -0.0480431 0.991518 0.00671775
-0.112454 -0.0420724 0.992766 0.00790511
-0.109962 -0.0395288 0.993149 0.0107425
-0.0995329 -0.0446283 0.994033 0.0074809
-0.0402488 -0.0805355 0.995939 0.00780873
-0.0239189 -0.0907022 0.995591 0
-0.0440977 -0.0565179 0.997427 0.00980698
0.183778 -0.0673812 0.980656 0.0172058
-0.123053 -0.0426502 0.991483 0.00351117
-0.117146 -0.0392504 0.992339 0.00785423
-0.113244 -0.036698 0.992889 0.0142619
-0.0989124 -0.0351031 0.994477 0.0107504
-0.0237661 -0.0838145 0.996198 0
-0.0268025 -0.0831934 0.996173 0
0.187716 -0.0645399 0.980101 0.015844
-0.12855 -0.0376934 0.990986 0.00107823
-0.129189 -0.0340287 0.991036 0.0030958
-0.120827 -0.0330937 0.992122 0.0108116
-0.111335 -0.0308344 0.993304 0.0103123
0.195644 -0.0620138 0.978712 0.0109711
-0.139718 -0.0290157 0.989766 0.0112871
-0.136553 -0.0262562 0.990285 0.0127453
-0.127806 -0.0277846 0.99141 0.0143627
-0.12168 -0.0222779 0.992319 0.0126678
0.199666 -0.0589959 0.978087 0
-0.137457 -0.0204299 0.990297 0.00934987
-0.134876 -0.0210657 0.990639 0.00815364
-0.126806 -0.0229303 0.991663 0.00812498
-0.11917 -0.0159457 0.992746 0.0113917
0.19906 -0.0618269 0.978035 0
-0.147005 -0.0134502 0.989044 0.0113074
-0.142869 -0.0173764 0.989589 0.00501002
-0.140436 -0.0195358 0.989897 0.0105354
-0.12905 -0.0172498 0.991488 0.0100798
-0.119905 -0.014832 0.992675 0.0104407
0.196259 -0.0547762 0.979021 0.00375572
-0.146527 -0.0113895 0.989141 0.0061513
-0.139766 -0.0130505 0.990098 0.00396806
-0.136001 -0.0136174 0.990615 0.00423426
-0.131112 -0.0104242 0.991313 0.00766006
0.196484 -0.043165 0.979557 0.00835271
-0.144968 -0.00837195 0.989401 0.00720507
-0.144299 -0.00543669 0.989519 0.00581288
-0.137423 -0.00811079 0.990479 0.00704272
-0.135246 -0.00817301 0.990778 0.0105721
-0.133514 -0.00389515 0.991039 0.012894
0.198998 -0.0376687 0.979276 0.015237
-0.142263 -0.00176704 0.989827 0
-0.140576 -0.00490654 0.990058 0
-0.132274 -0.00354281 0.991207 0.00306031
0.201234 -0.0285186 0.979128 0.0250573
-0.149395 0.00175428 0.988776 0.00607983
-0.143416 0.00303709 0.989658 0.00391155
-0.139319 -0.00129292 0.990247 0.00880886
0.210177 -0.0269763 0.977291 0.0272546
-0.147365 0.000110543 0.989082 0
-0.145639 0.00493825 0.989325 0.00548454
-0.139909 0.00619165 0.990145 0.00624401
0.2083 -0.0222679 0.977812 0.0268746
-0.148166 0.00438475 0.988953 0.000180372
-0.142692 0.00679857 0.989744 0.00212106
-0.14008 0.00746341 0.990112 0.00553811
0.207795 -0.0193465 0.977981 0.0264791
-0.145726 0.0118564 0.989254 0.00166694
-0.144407 0.00940887 0.989474 0.00464807
-0.140985 0.0111117 0.989949 0.00645739
0.205858 -0.0149484 0.978468 0.0225857
-0.149275 0.0107722 0.988737 0.0028817
-0.14668 0.0127177 0.989102 0.00557748
-0.145508 0.0132883 0.989268 0.0127576
0.203844 -0.0138677 0.978905 0.0189552
-0.151045 0.0177316 0.988368 0.00299773
-0.145251 0.0138008 0.989299 0.00515864
-0.140875 0.0152995 0.989909 0.00565678
0.195937 -0.0170985 0.980467 0.00303599
-0.151161 0.0203734 0.988299 0.00195441
-0.148121 0.0202013 0.988763 0.00632007
-0.142014 0.0185918 0.98969 0.00882849
-0.150753 0.024758 0.988261 0.00581799
-0.143416 0.0249411 0.989348 0.00721358
-0.14061 0.0207641 0.989847 0.00979529
-0.136412 0.0185093 0.990479 0.00676427
0.199002 -0.0155312 0.979876 0
-0.155736 0.0255236 0.987469 0.0105477
-0.148756 0.027131 0.988502 0.0107906
-0.141533 0.0218389 0.989693 0.00639185
-0.135187 0.0188821 0.99064 0.00455138
0.202682 -0.015037 0.979129 0
-0.147212 0.0272618 0.988729 0.00260165
-0.14718 0.025069 0.988792 0.00533309
-0.143038 0.0235761 0.989436 0.00531064
-0.138489 0.0200665 0.990161 0.0045019
0.194366 -0.00947895 0.980883 0
-0.150666 0.0290747 0.988157 0.00405279
-0.145477 0.0283421 0.988955 0.00465802
-0.145332 0.0234497 0.989105 0.00805528
-0.151062 0.0306968 0.988048 0.00335814
-0.142853 0.0250659 0.989426 0
-0.140655 0.0262742 0.98971 0.000938233
0.183374 0.00242229 0.98304 0.0102777
-0.150251 0.0319332 0.988132 0
-0.144291 0.0353743 0.988903 0.00216282
-0.137115 0.0323468 0.990027 0
0.181155 0.00559677 0.983439 0.0104849
-0.150737 0.0340755 0.987986 0
-0.143361 0.032394 0.98914 0
-0.140352 0.029178 0.989672 0
0.180182 0.0108252 0.983574 0.0110796
-0.149812 0.0373386 0.988009 0
-0.14764 0.0348727 0.988426 0
-0.146473 0.0324091 0.988684 0.00162506
0.174205 0.0168963 0.984564 0.0207754
-0.15107 0.0394619 0.987735 0.002365
-0.147937 0.0401233 0.988182 0.0053038
-0.132098 0.0413832 0.990373 0.00286632
0.170777 0.0136568 0.985215 0.0142382
-0.14036 0.0471477 0.988977 0.00122077
-0.129153 0.0521429 0.990253 0.00207452
0.168527 0.0138938 0.985599 0.0089475
-0.140997 0.0576352 0.988331 0.00230758
-0.126897 0.0558812 0.990341 0.00206095
0.167299 0.0117323 0.985836 0.00918339
-0.13929 0.062046 0.988306 0
-0.127724 0.0598245 0.990004 0.000534028
0.164209 0.00667322 0.986403 0
-0.139184 0.0619001 0.98833 0
-0.13408 0.0622136 0.989016 0.000360541
-0.119845 0.0619328 0.990859 0
-0.116116 0.0629557 0.991238 0.00154324
0.164626 0.00680206 0.986333 0.00193687
-0.135446 0.0656505 0.988607 0
-0.122382 0.0638598 0.990427 0.000534963
-0.113378 0.0665863 0.991318 0
0.16079 0.00723323 0.986962 0
-0.126483 0.0661824 0.989758 0
-0.11964 0.0700603 0.990342 0
-0.117545 0.0690578 0.990663 0.0012801
-0.119338 0.0685062 0.990487 0.000178449
0.152417 0.0135411 0.988223 0.00543421
-0.129687 0.0718414 0.988949 0.00264356
-0.123443 0.0706455 0.989834 0.00187555
-0.118225 0.069085 0.990581 0.000132338
-0.109082 0.066948 0.991776 0
0.1494 0.0149158 0.988664 0.00681401
-0.127918 0.0686971 0.989403 0.000496672
-0.121335 0.0673255 0.990326 0
-0.11783 0.0650675 0.9909 0.00245335
-0.111419 0.0642175 0.991696 0
-0.10815 0.0630844 0.992131 0
0.149634 0.0196195 0.988547 0.00576625
-0.119649 0.0649531 0.990689 8.45216e-05
-0.111958 0.0586567 0.99198 0
-0.109162 0.0570187 0.992387 0
-0.10655 0.0579888 0.992615 0
-0.105908 0.053693 0.992925 0
-0.122053 0.0634915 0.990491 0
-0.119004 0.0612993 0.991 0
-0.1113 0.0592332 0.99202 0
-0.109727 0.0564543 0.992357 0
-0.106078 0.0551126 0.992829 0
0.143017 0.0146625 0.989612 0
-0.1235 0.0628568 0.990352 0
-0.118403 0.0609061 0.991096 0.0013861
-0.112731 0.0611244 0.991744 0.00112435
-0.11161 0.059929 0.991943 0.000816052
-0.105175 0.0573195 0.9928 0
0.152014 0.0116282 0.98831 0
-0.125996 0.0600887 0.990209 0
-0.118523 0.0620129 0.991013 0.00115861
-0.118258 0.0634111 0.990956 0.00411
-0.113043 0.0607243 0.991733 0.00526821
-0.107728 0.0565676 0.99257 0
-0.103057 0.0609653 0.992805 0.00734593
-0.0972892 0.0551252 0.993728 0.00182359
-0.118623 0.0605272 0.991093 0
-0.118659 0.0585375 0.991208 0
-0.117492 0.0573316 0.991418 0.00352231
-0.113344 0.0571919 0.991908 0.00286429
-0.110079 0.0595599 0.992137 0.00342325
-0.0981681 0.0513435 0.993844 0
-0.0951479 0.0508088 0.994166 0
-0.121957 0.0584665 0.990812 0
-0.116588 0.0545015 0.991684 0
-0.122581 0.0594489 0.990676 0.0044149
-0.122793 0.06394 0.990371 0.0111558
-0.116351 0.0583997 0.99149 0.00863018
-0.100309 0.0461958 0.993883 0
-0.0978544 0.0448285 0.994191 0
-0.12192 0.0572549 0.990887 0
-0.118769 0.0577446 0.991241 0.0025507
-0.115046 0.0572755 0.991708 0.00367846
-0.116471 0.0569801 0.991558 0.0100495
-0.10617 0.0492597 0.993127 0.00513336
-0.0986985 0.0454085 0.994081 0
-0.0966089 0.0397672 0.994528 0
-0.125778 0.0554448 0.990508 0.0015043
-0.125006 0.0553468 0.990611 0.00238945
-0.121139 0.0521321 0.991266 0.00421016
-0.116388 0.0507332 0.991907 0.00369355
-0.108381 0.046543 0.993019 0.0095705
-0.103857 0.0435847 0.993637 0.00404101
-0.0984265 0.0405514 0.994318 0
-0.128216 0.0522498 0.990369 0.000561424
-0.124187 0.0500314 0.990997 0
-0.120512 0.0477408 0.991563 0
-0.116436 0.0456441 0.992149 0
-0.116227 0.0468766 0.992116 0.00993042
-0.112667 0.0473917 0.992502 0.0100858
-0.104584 0.0448096 0.993506 0.00398965
-0.127772 0.051369 0.990472 0.00595784
-0.122527 0.044301 0.991476 0.00175005
-0.118728 0.0435441 0.991972 0.00163683
-0.115804 0.0453637 0.992236 0.00811114
-0.113063 0.0414562 0.992723 0.00143143
-0.115909 0.0490175 0.99205 0.0104515
-0.135631 0.0547975 0.989243 0.010756
-0.124972 0.0473952 0.991028 0.00547818
-0.121684 0.0429681 0.991638 0.00525926
-0.116356 0.0424342 0.992301 0.00436242
-0.1165 0.0445601 0.992191 0.00591568
-0.114066 0.0425779 0.99256 0.00936091
-0.129202 0.0492002 0.990397 0.0112202
-0.12873 0.0496899 0.990434 0.0128741
-0.129743 0.0445103 0.990548 0.0103427
-0.114616 0.0457281 0.992357 0.00795747
-0.116707 0.0492842 0.991943 0.0117536
-0.110317 0.0445203 0.992899 0.00552731
-0.13005 0.0429459 0.990577 0.0126803
-0.130864 0.0441775 0.990416 0.0139193
-0.128056 0.0432845 0.990822 0.0143699
-0.120579 0.0457881 0.991647 0.0125173
-0.114383 0.045794 0.992381 0.00950868
-0.108931 0.0367867 0.993368 0.00622053
-0.12719 0.0353493 0.991248 0.00940452
-0.127783 0.0406393 0.990969 0.0130821
-0.1233 0.0368312 0.991686 0.00576212
-0.120783 0.0419439 0.991792 0.0141746
-0.113405 0.0362742 0.992886 0.0113238
-0.106367 0.032849 0.993784 0.00358502
-0.127999 0.0397823 0.990976 0.0109497
-0.126042 0.0363507 0.991359 0.0122813
-0.116685 0.0298113 0.992721 0.00346682
-0.121569 0.0365988 0.991908 0.0163658
-0.114902 0.0343816 0.992782 0.00900331
-0.108238 0.0299672 0.993673 0.00138962
-0.134234 0.0372361 0.99025 0.0129497
-0.125978 0.031997 0.991517 0.00695302
-0.115162 0.0304954 0.992879 0.0122153
-0.111825 0.0304895 0.99326 0.00585698
-0.105441 0.0286649 0.994012 0
-0.134755 0.0341058 0.990292 0.0130785
-0.128715 0.0329274 0.991135 0.0114011
-0.119292 0.0316422 0.992355 0.0139049
-0.115693 0.0255767 0.992956 0.00541523
-0.108019 0.0218593 0.993908 0
-0.134022 0.0314631 0.990479 0.0111268
-0.130294 0.0295411 0.991035 0.0117459
-0.116485 0.0273332 0.992816 0.00756968
-0.114942 0.0252084 0.993052 0.0100451
-0.114575 0.0242369 0.993119 0.0101021
-0.131417 0.0269024 0.990962 0.00660917
-0.127313 0.0202729 0.991655 0.00535595
-0.117405 0.0179823 0.992921 0.00596737
-0.118232 0.0226444 0.992728 0.00891169
-0.114135 0.020929 0.993245 0.00875326
-0.136307 0.0256613 0.990334 0.00846835
-0.121615 0.0136396 0.992484 0.00169853
-0.120252 0.0170271 0.992597 0.00483756
-0.118369 0.0151409 0.992854 0.00625906
-0.11342 0.0126458 0.993467 0.00520539
-0.130697 0.0177914 0.991263 0.00187317
-0.121588 0.0111871 0.992518 0.00942218
-0.118945 0.0111056 0.992839 0.0073341
-0.120493 0.0142812 0.992611 0.0124737
-0.135629 0.0167557 0.990618 0.00826608
-0.119714 0.0113765 0.992743 0.00651822
-0.125006 0.0140673 0.992056 0.0160017
-0.138223 0.0112487 0.990337 0.00874963
-0.135383 0.00817283 0.99076 0.00765605
-0.12674 0.0108664 0.991876 0.0144809
-0.124521 0.00791492 0.992185 0.0136625
-0.122573 0.00676436 0.992436 0.010777
-0.144246 0.00789501 0.98951 0.00702578
-0.14265 0.0095991 0.989727 0.0107406
-0.133274 0.00959939 0.991033 0.0209411
-0.127943 0.00772091 0.991752 0.0155687
-0.122427 0.00665822 0.992455 0.0119275
-0.145346 0.00228812 0.989378 0.00360723
-0.135589 0.00092586 0.990765 0.00523209
-0.129487 0.00399109 0.991573 0.0147423
-0.118634 0.000187004 0.992938 0.00742039
-0.119674 0.00102951 0.992813 0.0108894
-0.140698 -0.00278942 0.990049 0.00144213
-0.1346 -0.0010458 0.990899 0.0047398
-0.127349 0.000693898 0.991858 0.0132474
-0.118044 -0.00618029 0.992989 0.00713432
-0.119305 -0.00349823 0.992852 0.0106162
-0.14276 -0.00406734 0.989749 0.0014731
-0.140939 -0.00547857 0.990003 0.00323608
-0.13625 -0.00797702 0.990642 0.00324758
-0.12283 -0.0084047 0.992392 0.00289233
-0.120764 -0.0102272 0.992629 0.00576399
-0.122191 -0.00497775 0.992494 0.0117581
-0.137876 -0.0108495 0.99039 0
-0.135689 -0.0118204 0.990681 1.91049e-05
-0.13951 -0.00665327 0.990198 0.0063032
-0.120541 -0.0127739 0.992626 0.00325954
-0.123909 -0.00820757 0.99226 0.0104439
-0.118158 -0.0113531 0.99293 0.0105416
-0.135396 -0.0167322 0.99065 0
-0.136126 -0.0152421 0.990574 0
-0.135636 -0.0117466 0.990689 0.00577275
-0.123193 -0.0132019 0.992295 0.00845668
-0.122302 -0.0130145 0.992408 0.0127234
-0.118053 -0.0182019 0.99284 0.0125982
-0.136821 -0.0174566 0.990442 0
-0.132264 -0.0200506 0.991012 0
-0.132115 -0.0166452 0.991095 0.00305489
-0.127077 -0.0175491 0.991738 0.0114833
-0.123882 -0.0204154 0.992087 0.0123813
-0.122678 -0.0196213 0.992253 0.0157139
-0.131627 -0.02567 0.990967 0
-0.126357 -0.0300114 0.991531 0
-0.134988 -0.0232347 0.990575 0
-0.130324 -0.0166683 0.991331 0.011285
-0.124288 -0.019669 0.992051 0.00980577
-0.123871 -0.0200289 0.992096 0.0150648
-0.135163 -0.0272663 0.990448 0
-0.133756 -0.0259899 0.990673 0
-0.136449 -0.0239695 0.990357 0.000326914
-0.122482 -0.0264096 0.992119 0
-0.120006 -0.0251619 0.992454 0.00102173
-0.120355 -0.0221013 0.992485 0.00844826
-0.135899 -0.0261352 0.990378 0
-0.135582 -0.0247479 0.990457 0
-0.134675 -0.0241535 0.990595 0
-0.120209 -0.0405183 0.991921 0
-0.11707 -0.0378464 0.992402 0
-0.113786 -0.0350811 0.992886 0
-0.134086 -0.0330557 0.990418 0
-0.133596 -0.0298272 0.990587 0
-0.13156 -0.0333562 0.990747 0
-0.122939 -0.0402009 0.9916 0
-0.118648 -0.0440858 0.991957 0.00199725
-0.121426 -0.0392841 0.991823 0.00737416
-0.134861 -0.0381739 0.990129 0
-0.134713 -0.037815 0.990163 0
-0.123006 -0.0430634 0.991471 0
-0.122942 -0.0441573 0.991431 0.00219207
-0.123629 -0.0447946 0.991317 0.00504445
-0.12317 -0.0430089 0.991453 0.00790932
-0.135786 -0.0452994 0.989702 0
-0.132819 -0.0445962 0.990136 0
-0.129281 -0.0452411 0.990575 0
-0.123135 -0.0485223 0.991203 0
-0.124822 -0.0409822 0.991332 0.00726306
-0.121638 -0.0413162 0.991714 0.00940435
-0.136782 -0.0457905 0.989542 0
-0.13647 -0.0454602 0.989601 0
-0.132546 -0.0502717 0.989901 0
-0.12027 -0.0485122 0.991555 0.00206924
-0.127279 -0.043347 0.990919 0.0134169
-0.122443 -0.0418323 0.991594 0.0130899
-0.138018 -0.0450307 0.989406 0
-0.13794 -0.045241 0.989407 0
-0.136329 -0.0489716 0.989452 0
-0.12316 -0.0502288 0.991115 6.26083e-05
-0.123039 -0.0467798 0.991299 0.00884797
-0.138007 -0.0490212 0.989217 0
-0.137165 -0.0510326 0.989233 0
-0.133038 -0.0497452 0.989862 0
-0.12084 -0.0532341 0.991244 0.00140891
-0.119917 -0.0503983 0.991504 0.00750697
-0.135315 -0.0599828 0.988985 0
-0.131399 -0.0576486 0.989652 0
-0.125446 -0.0538215 0.99064 0
-0.112497 -0.0584845 0.991929 0.0018607
-0.110707 -0.0558548 0.992282 0.00365457
-0.130788 -0.0672292 0.989128 0
-0.130403 -0.0622722 0.989504 0
-0.119015 -0.0605516 0.991044 0
-0.109931 -0.060842 0.992075 0
-0.109201 -0.0577374 0.992342 0
-0.133154 -0.0619091 0.98916 0
-0.130722 -0.0607924 0.989553 0
-0.123579 -0.0623407 0.990375 0
-0.133739 -0.0718606 0.988408 0
-0.126721 -0.0697456 0.989483 0
-0.126042 -0.0660364 0.989824 0
-0.122716 -0.0630084 0.99044 0
-0.138306 -0.0660746 0.988183 0
-0.134954 -0.0653577 0.988694 0
-0.129381 -0.0669327 0.989333 0
-0.125802 -0.0692361 0.989636 0
-0.13617 -0.066666 0.98844 0
-0.129319 -0.069792 0.989144 0
-0.130587 -0.0683295 0.989079 0
-0.127027 -0.0687962 0.989511 0
-0.138141 -0.0633491 0.988384 0
-0.134722 -0.0679225 0.988553 0
-0.130976 -0.0680448 0.989048 0
-0.127975 -0.0705842 0.989262 0
-0.138108 -0.0705283 0.987903 0
-0.134968 -0.0706799 0.988326 0
-0.131262 -0.0736635 0.988607 0
-0.126295 -0.0764655 0.989041 0
-0.142239 -0.0758238 0.986924 0
-0.130545 -0.0780338 0.988367 0
-0.123982 -0.080295 0.98903 0
-0.146145 -0.0788609 0.986115 0
-0.131641 -0.0856766 0.987588 0
-0.131613 -0.0858669 0.987575 0
-0.148644 -0.0750818 0.986036 0
-0.14123 -0.0836214 0.986439 0
-0.137057 -0.0818977 0.987172 0
-0.148715 -0.0783344 0.985773 0
-0.142368 -0.0787779 0.986674 0
-0.140458 -0.0762057 0.98715 0
-0.15324 -0.0696072 0.985734 0.000279919
-0.140797 -0.0751228 0.987184 0
-0.154417 -0.0680923 0.985657 0.000654511
-0.144726 -0.0643455 0.987377 0
-0.154369 -0.0606129 0.986152 0.00309245
-0.144706 -0.0665762 0.987232 0
-0.162492 -0.0614135 0.984797 0.00272212
-0.150017 -0.0654972 0.986512 0
-0.162792 -0.0547415 0.985141 0.00240573
-0.195599 -0.037854 0.979953 0.0147518
-0.197113 -0.0363333 0.979707 0.0151065
-0.228086 -0.0333917 0.973068 0.0262151
-0.232746 -0.0340687 0.971941 0.0264171
-0.226659 -0.0367374 0.973281 0.0205902
-0.222585 -0.0321592 0.974383 0.0168175
-0.220099 -0.0294944 0.975031 0.0152883
-0.224896 -0.0248722 0.974065 0.0141355
-0.21178 -0.0209644 0.977093 0.0123014
-0.217296 -0.0262995 0.975751 0.0103625
-0.205916 -0.0243026 0.978268 0.00893265
-0.216166 -0.0186601 0.976178 0.00627802
-0.209512 -0.0252104 0.977481 0.00485622
-0.20273 -0.0240392 0.97894 0.00608837
-0.210205 -0.016992 0.97751 0.00418525
-0.201424 -0.0164647 0.979366 0.00143418
-0.201584 -0.018501 0.979297 0
-0.196845 -0.0147867 0.980323 0
-0.200317 -0.0131223 0.979643 0
-0.193665 -0.012423 0.980989 0
-0.203303 -0.00972247 0.979068 0.00558187
-0.200912 -0.0042763 0.9796 0.00732018
-0.207619 0.000819563 0.978209 0.0120288
-0.19671 -0.00374695 0.980455 0.00643427
-0.210934 0.0090776 0.977458 0.0137371
-0.209019 0.010087 0.97786 0.0162341
-0.197618 0.00920586 0.980236 0.00694454
-0.19174 0.00583222 0.981429 0.00638417
-0.197993 0.0140607 0.980103 0.00799438
-0.193896 0.0127558 0.980939 0.00723241
-0.198922 0.0181308 0.979848 0.00728549
-0.192645 0.0199474 0.981066 0.00781277
0.165903 0.0681541 0.983784 0.0134196
-0.193983 0.0203877 0.980793 0.00263469
-0.184085 0.0192249 0.982722 0
-0.207335 0.0368368 0.977576 0.0164075
-0.195471 0.035034 0.980084 0.0116967
-0.211954 0.048895 0.976056 0.0193363
-0.200377 0.0403237 0.978889 0.0134883
0.168273 0.076736 0.982749 0.0176434
-0.212878 0.0551284 0.975522 0.0235637
-0.197377 0.0444318 0.97932 0.0146468
-0.210607 0.0562352 0.975952 0.0198634
-0.19694 0.0530367 0.97898 0.0152042
-0.198961 0.061099 0.978101 0.0144891
-0.19257 0.0541051 0.97979 0.010174
-0.19591 0.0592047 0.978833 0.0105278
-0.191434 0.0588087 0.979742 0.00868162
-0.184932 0.0606515 0.980878 0.00660292
-0.182932 0.0678932 0.980778 0.00469236
-0.169503 0.125231 0.977541 0.0254316
-0.168683 0.129768 0.977091 0.0250232
-0.174885 0.158035 0.971823 0.0367377
-0.169958 0.160717 0.972257 0.0359183
-0.0244411 0.106533 0.994009 0
-0.0243202 0.118857 0.992613 0
-0.0254713 0.0982238 0.994838 0.00281255
-0.0270108 0.103893 0.994222 0.00561544
-0.0347614 0.151806 0.987799 0.0150867
-0.0363325 0.146891 0.988485 0.0103163
-0.0399569 0.15377 0.987298 0.00741399
-0.0432109 0.144118 0.988617 0.0101943
-0.0441102 0.111961 0.992733 0.00364553
-0.0490247 0.114389 0.992226 0.00957511
-0.0515131 0.125906 0.990704 0.0113713
-0.0572449 0.135575 0.989112 0.00217695
-0.0586604 0.146932 0.987406 0.00567325
-0.0818733 0.149333 0.985391 0
-0.08377 0.139497 0.986673 0.000184568
-0.0871538 0.142086 0.98601 0.00212231
-0.172116 0.161849 0.97169 0.0356037
-0.166002 0.162529 0.97264 0.0357543
-0.159004 0.159359 0.974332 0.0364122
-0.14717 0.140912 0.979022 0.0258413
