# .PCD v0.7 - Point Cloud Data file format
VERSION 0.7
FIELDS x y z
SIZE 4 4 4
TYPE F F F
COUNT 1 1 1
WIDTH 1427
HEIGHT 1
VIEWPOINT 0 0 0 1 0 0 0
POINTS 1427
DATA ascii
-0.056844 0.1532295 -0.23255199
-0.056627501 0.15322176 -0.232528
-0.056532003 0.153218 -0.232519
-0.054842502 0.15319 -0.23258251
-0.054742001 0.153254 -0.232623
-0.057880498 0.153355 -0.23264199
-0.057707001 0.153355 -0.23259401
-0.057510503 0.15334401 -0.232595
-0.05737425 0.15340725 -0.23255074
-0.057240751 0.15340024 -0.23255675
-0.0568395 0.15338001 -0.2325305
-0.056636002 0.15336032 -0.23250334
-0.056529 0.153332 -0.23250601
-0.054835334 0.153376 -0.23258133
-0.054707665 0.15341432 -0.23261802
-0.057875499 0.153505 -0.23263
-0.0577005 0.153502 -0.232603
-0.057504497 0.153493 -0.23259699
-0.057368997 0.1535565 -0.23254399
-0.057235248 0.153549 -0.23255199
-0.056833997 0.15353051 -0.23251599
-0.056655999 0.153485 -0.232502
-0.0548275 0.153559 -0.23260051
-0.054701999 0.15353699 -0.23263167
-0.058054999 0.153661 -0.232646
-0.0578705 0.1536555 -0.23260951
-0.057695501 0.15365049 -0.2325955
-0.0574985 0.153641 -0.2326
-0.057363 0.15370375 -0.232547
-0.05722975 0.153697 -0.2325535
-0.056828998 0.153679 -0.23250499
-0.054821998 0.15370899 -0.232595
-0.054725498 0.15370201 -0.23260599
-0.058051001 0.15377399 -0.23264199
-0.058047999 0.15384801 -0.23264
-0.057864502 0.1538035 -0.23261401
-0.057689503 0.15379849 -0.23259699
-0.0574935 0.153791 -0.232586
-0.057356998 0.153852 -0.23254874
-0.057223998 0.1538455 -0.232557
-0.056823 0.153827 -0.23251149
-0.054816499 0.15385801 -0.23258701
-0.0547195 0.15385 -0.232613
-0.058043502 0.15395901 -0.2326405
-0.057858497 0.15395051 -0.232622
-0.057683498 0.153947 -0.2326
-0.057485998 0.15397467 -0.23259866
-0.05735125 0.154 -0.232554
-0.057218 0.15399274 -0.23255999
-0.056818999 0.153938 -0.232504
-0.054810502 0.154006 -0.2325885
-0.054713503 0.153998 -0.23262
-0.058038 0.154107 -0.232641
-0.057853498 0.154099 -0.23261251
-0.057677999 0.15409499 -0.232604
-0.057478502 0.15415999 -0.232603
-0.057345498 0.154149 -0.23255549
-0.057212502 0.15414199 -0.23255375
-0.0548045 0.154153 -0.23260501
-0.054706998 0.154145 -0.2326345
-0.058031999 0.154255 -0.232645
-0.057847001 0.154248 -0.23262799
-0.057672001 0.15424299 -0.232609
-0.057472497 0.15430801 -0.23260701
-0.057339501 0.15429649 -0.23256426
-0.0572065 0.1542905 -0.232555
-0.054798499 0.154301 -0.232609
-0.054701 0.154292 -0.23264101
-0.058028001 0.154366 -0.23265
-0.0578405 0.154394 -0.232646
-0.057666503 0.15439101 -0.23261
-0.057466 0.15445399 -0.232628
-0.057333 0.15444475 -0.2325695
-0.057200003 0.15443674 -0.23257525
-0.056798998 0.154458 -0.232501
-0.054792501 0.154451 -0.232604
-0.0546945 0.15444 -0.232648
-0.057834499 0.154542 -0.232647
-0.057660498 0.154539 -0.232618
-0.057459999 0.15460199 -0.23263401
-0.05733633 0.15458034 -0.23257734
-0.057215195 0.15459439 -0.23257799
-0.056794502 0.154568 -0.23251051
-0.05522 0.15459301 -0.232501
-0.0547865 0.154597 -0.23261699
-0.0546895 0.154589 -0.23264849
-0.057652667 0.154724 -0.23262267
-0.0574545 0.15474901 -0.23263851
-0.057347499 0.15474001 -0.232595
-0.057262 0.1547365 -0.23259351
-0.057146497 0.15473151 -0.23256999
-0.0567885 0.154715 -0.23252
-0.055217002 0.154667 -0.232503
-0.054780997 0.15474699 -0.23260951
-0.054683998 0.15473899 -0.23263699
-0.057645001 0.154909 -0.23263499
-0.057376999 0.15487801 -0.23262133
-0.057255998 0.1548835 -0.23260801
-0.057139501 0.15487801 -0.23259601
-0.056781501 0.15486249 -0.232539
-0.056603 0.15485699 -0.23251
-0.056527 0.154891 -0.232504
-0.054775499 0.15489501 -0.23261401
-0.0546785 0.15489 -0.232619
-0.054592498 0.154882 -0.23264149
-0.0576385 0.155057 -0.232645
-0.0573355 0.155036 -0.23260951
-0.05725025 0.15503199 -0.23260751
-0.057132497 0.15502501 -0.232613
-0.056775 0.15501 -0.232559
-0.056596 0.155003 -0.23253301
-0.056493003 0.155 -0.23251401
-0.055204 0.155 -0.23251
-0.054768503 0.15504199 -0.23263
-0.054672502 0.155036 -0.232638
-0.0545865 0.155031 -0.23264199
-0.057633501 0.155205 -0.2326465
-0.057329498 0.155184 -0.23261
-0.057244003 0.1551795 -0.2326185
-0.0571265 0.15517351 -0.232621
-0.056768499 0.155156 -0.232576
-0.056590497 0.15515099 -0.23253751
-0.056487501 0.15514851 -0.23251051
-0.055418998 0.1552 -0.2325055
-0.055197999 0.15514749 -0.23252
-0.054762997 0.155191 -0.23263249
-0.054666501 0.155184 -0.232648
-0.057629 0.155316 -0.232648
-0.057323001 0.15533251 -0.23262
-0.057238001 0.1553275 -0.23262325
-0.0571215 0.155322 -0.23261601
-0.056762502 0.155304 -0.232584
-0.056584001 0.15529901 -0.232548
-0.05648075 0.15529551 -0.23253299
-0.056334 0.155396 -0.23250701
-0.055413753 0.15530999 -0.23251849
-0.055191502 0.155295 -0.23254001
-0.054757498 0.155339 -0.232632
-0.057316497 0.155479 -0.232638
-0.057232 0.1554755 -0.232631
-0.057115503 0.15547 -0.23262
-0.0567565 0.155453 -0.23259601
-0.0565775 0.15544701 -0.23256201
-0.056473996 0.155442 -0.232556
-0.0563295 0.155505 -0.23251501
-0.056212999 0.155541 -0.23250601
-0.055407502 0.1554575 -0.23252925
-0.055184498 0.155443 -0.232555
-0.054753002 0.15545 -0.23263501
-0.054749999 0.155524 -0.23264299
-0.057310499 0.155627 -0.232649
-0.057236668 0.15561099 -0.23264067
-0.057108499 0.155618 -0.23263699
-0.056750998 0.15560099 -0.232585
-0.056571499 0.155595 -0.23257101
-0.056468502 0.15559199 -0.2325525
-0.0563225 0.155654 -0.23253199
-0.0562075 0.155651 -0.23252699
-0.055551004 0.15563034 -0.23251934
-0.055401497 0.155605 -0.23253724
-0.055178501 0.155589 -0.232568
-0.057251498 0.155773 -0.2326465
-0.056744501 0.1557495 -0.23260149
-0.056565501 0.155743 -0.232575
-0.056460332 0.15577532 -0.23257416
-0.056316502 0.155802 -0.23253849
-0.056201503 0.155799 -0.232535
-0.055684999 0.155811 -0.23250701
-0.055558749 0.155765 -0.23253399
-0.055442497 0.155757 -0.232556
-0.055347502 0.15574799 -0.232558
-0.055170998 0.15577467 -0.23257333
-0.056737497 0.15589499 -0.232629
-0.056558497 0.155889 -0.2326
-0.056452002 0.15595925 -0.2325975
-0.056310497 0.155949 -0.23255301
-0.056194499 0.155945 -0.23256001
-0.055955999 0.15593401 -0.232517
-0.055679999 0.155921 -0.23252749
-0.055552498 0.1559135 -0.232548
-0.055436499 0.15590601 -0.2325625
-0.055342503 0.15589701 -0.232548
-0.055163503 0.15596101 -0.23257899
-0.0567315 0.15604299 -0.23264301
-0.0565525 0.156037 -0.23261
-0.056465805 0.1561144 -0.23261961
-0.056304 0.156096 -0.23256901
-0.056188501 0.156093 -0.232563
-0.055950999 0.15604401 -0.232538
-0.055948 0.156119 -0.232544
-0.055673502 0.156068 -0.23255
-0.05554625 0.1560615 -0.23256125
-0.055430502 0.15605401 -0.232568
-0.055335499 0.15604401 -0.232577
-0.055157498 0.1561085 -0.232583
-0.056473166 0.15625466 -0.23264067
-0.0562975 0.1562435 -0.23258701
-0.0561825 0.15624151 -0.232573
-0.055944003 0.15623 -0.232528
-0.055667497 0.156216 -0.232548
-0.055554003 0.15619734 -0.23257001
-0.055448335 0.15621434 -0.23257834
-0.0553285 0.156192 -0.23258901
-0.0551515 0.156257 -0.232595
-0.056433 0.1564015 -0.23264149
-0.056290999 0.15639099 -0.232602
-0.056175999 0.156389 -0.232593
-0.055937499 0.15637749 -0.232544
-0.0556615 0.15636399 -0.23255199
-0.055574998 0.15636 -0.23257101
-0.055455253 0.156352 -0.23258451
-0.055322997 0.15634 -0.23259449
-0.055145502 0.156405 -0.2326075
-0.056480665 0.156565 -0.23263867
-0.056323003 0.15652966 -0.232621
-0.056169502 0.156536 -0.2326
-0.055931501 0.156525 -0.2325615
-0.055655502 0.15651301 -0.23255199
-0.055569999 0.156509 -0.232556
-0.05544975 0.1565005 -0.23258801
-0.055316001 0.156525 -0.23259699
-0.055137999 0.1565505 -0.23264
-0.056489497 0.156665 -0.232645
-0.056279 0.15668701 -0.23261401
-0.056164 0.15668599 -0.23260149
-0.0559255 0.156673 -0.23256701
-0.055651002 0.156624 -0.23256899
-0.055591334 0.15666999 -0.23257799
-0.055443499 0.15664801 -0.23259425
-0.055307999 0.156711 -0.232604
-0.055131 0.156736 -0.232648
-0.056272499 0.156835 -0.232622
-0.056158498 0.15683401 -0.23260501
-0.055919498 0.156822 -0.232565
-0.055599749 0.1568065 -0.2325865
-0.055437997 0.1567965 -0.23259275
-0.055302501 0.156859 -0.23259801
-0.055126503 0.156848 -0.23263851
-0.056267001 0.156983 -0.2326275
-0.056151502 0.15697999 -0.23262301
-0.055913001 0.156969 -0.232582
-0.055593751 0.15695301 -0.2325945
-0.05543175 0.1569445 -0.2326065
-0.055296503 0.157006 -0.23261401
-0.055121999 0.15696 -0.232645
-0.056262001 0.157095 -0.232647
-0.0561455 0.15712801 -0.23263299
-0.055906497 0.157116 -0.23260801
-0.055587251 0.15710175 -0.23261175
-0.0554168 0.1571134 -0.23262219
-0.055289499 0.15715399 -0.2326425
-0.056139 0.15727651 -0.23264301
-0.055900499 0.15726399 -0.23261251
-0.055581249 0.15724975 -0.2326165
-0.055417247 0.157276 -0.23263276
-0.055893503 0.15741099 -0.23262501
-0.055575751 0.15739726 -0.23261175
-0.055425003 0.15740134 -0.23263268
-0.055275999 0.157488 -0.232649
-0.055887997 0.157561 -0.23262599
-0.0555695 0.157546 -0.23262049
-0.055443 0.15757599 -0.23263367
-0.055881999 0.157709 -0.23262951
-0.055563249 0.15769349 -0.2326335
-0.055411335 0.15774702 -0.23264234
-0.055876002 0.157856 -0.23264101
-0.055558 0.15784201 -0.232628
-0.055380668 0.15789367 -0.23263867
-0.055872001 0.157968 -0.232637
-0.055542599 0.1580122 -0.232631
-0.055351 0.158015 -0.23263
-0.055348001 0.15809 -0.23264199
-0.055559997 0.15815167 -0.23263234
-0.055445332 0.15822034 -0.23264134
-0.055583499 0.158289 -0.2326355
-0.055413999 0.158316 -0.23265
-0.055578999 0.158401 -0.232646
-0.055489998 0.158471 -0.23265
-0.055234998 0.162955 -0.232648
-0.055257004 0.16309433 -0.23264533
-0.055153001 0.163137 -0.23264299
-0.055388998 0.163298 -0.23265
-0.055264499 0.1632555 -0.23263974
-0.055101998 0.16324401 -0.23263374
-0.0553855 0.16340899 -0.232645
-0.055259749 0.1634035 -0.23261851
-0.055143498 0.163397 -0.23262499
-0.055049002 0.163388 -0.23263401
-0.054871 0.163454 -0.232647
-0.055655502 0.16357 -0.232638
-0.055380002 0.16355801 -0.2326355
-0.055254247 0.16355249 -0.23261349
-0.0551375 0.163544 -0.2326345
-0.055042669 0.16357434 -0.23261033
-0.054866001 0.16360149 -0.232638
-0.055648997 0.16371849 -0.23264751
-0.055375502 0.163706 -0.232612
-0.055248249 0.16370049 -0.23261526
-0.055132501 0.16369399 -0.23262301
-0.0550365 0.16376001 -0.232591
-0.054861002 0.16375101 -0.23261699
-0.055643499 0.163866 -0.232638
-0.0553695 0.16385451 -0.23261401
-0.055243246 0.16384825 -0.23260376
-0.055127002 0.16384149 -0.23261499
-0.055031501 0.163908 -0.23257199
-0.054856002 0.1638985 -0.232603
-0.055638 0.164014 -0.23264399
-0.055363998 0.164003 -0.23260799
-0.055278502 0.164 -0.23259699
-0.055159252 0.16399249 -0.232602
-0.055026501 0.164056 -0.232558
-0.0548505 0.1640465 -0.23260501
-0.0556335 0.1641635 -0.2326155
-0.055358 0.164152 -0.23261201
-0.055273 0.164148 -0.232596
-0.055154249 0.16414149 -0.232592
-0.0550205 0.164205 -0.232556
-0.054844499 0.164196 -0.232603
-0.055980999 0.16436499 -0.232637
-0.055866502 0.16432551 -0.23264751
-0.055628002 0.16431101 -0.23261
-0.055352002 0.16429999 -0.2326175
-0.0552685 0.164296 -0.232573
-0.055141199 0.1643112 -0.2325674
-0.055014499 0.164352 -0.232574
-0.054839499 0.164344 -0.232594
-0.054409001 0.164358 -0.23263501
-0.0542285 0.16431101 -0.23264301
-0.056223001 0.164529 -0.232646
-0.055977501 0.16447601 -0.232627
-0.055861503 0.164473 -0.23264401
-0.055622499 0.164459 -0.23260999
-0.055305 0.1644465 -0.23258099
-0.055143248 0.16447501 -0.23254573
-0.055009 0.164501 -0.23256201
-0.054834001 0.16449299 -0.23258249
-0.054404497 0.16447 -0.2326315
-0.055970997 0.16462401 -0.23264149
-0.055855997 0.164621 -0.232637
-0.055616997 0.164608 -0.23260701
-0.055300251 0.16459501 -0.23256201
-0.055138003 0.1646225 -0.23253925
-0.055003501 0.16464999 -0.23256201
-0.054829001 0.16464099 -0.232564
-0.054350253 0.1646145 -0.23264049
-0.054143 0.16464099 -0.23264299
-0.056175504 0.16478801 -0.23263726
-0.056003332 0.16478868 -0.23262601
-0.0558515 0.16477101 -0.23261499
-0.055610999 0.164757 -0.232601
-0.055294499 0.16474299 -0.23255776
-0.055132248 0.16479 -0.23252124
-0.054998003 0.16479801 -0.2325625
-0.054824501 0.16478901 -0.23254099
-0.0543935 0.164767 -0.232623
-0.054296501 0.16476151 -0.232636
-0.054138999 0.164754 -0.232636
-0.056386001 0.16498201 -0.232646
-0.056170501 0.16493601 -0.23262876
-0.056017999 0.1649265 -0.23261724
-0.055844501 0.164919 -0.23262599
-0.055606 0.164905 -0.2325985
-0.055289749 0.16489175 -0.232544
-0.055125497 0.16495749 -0.232527
-0.054994002 0.1649465 -0.232519
-0.054819003 0.16493851 -0.23253199
-0.054387502 0.164915 -0.2326245
-0.054291502 0.16490901 -0.23262399
-0.054114331 0.16491367 -0.23264332
-0.056382 0.165093 -0.232632
-0.056165751 0.165084 -0.232611
-0.05601225 0.1650745 -0.2326135
-0.055839002 0.165067 -0.23262301
-0.055601001 0.165052 -0.232576
-0.055275001 0.1650618 -0.2325304
-0.055120252 0.16510525 -0.23251824
-0.0549885 0.165095 -0.23252
-0.054814503 0.165086 -0.232517
-0.054382503 0.1650635 -0.232611
-0.054243002 0.16505525 -0.23262575
-0.054099999 0.16504851 -0.232637
-0.053897001 0.16514599 -0.232647
-0.056376502 0.165241 -0.232636
-0.05615925 0.165233 -0.23261799
-0.056026667 0.16521366 -0.232603
-0.055872668 0.16522832 -0.232593
-0.055596001 0.16520201 -0.23255399
-0.055277999 0.16522475 -0.23252049
-0.055114999 0.16525325 -0.23251474
-0.054985002 0.165205 -0.232509
-0.054808497 0.165234 -0.2325175
-0.054378003 0.16521201 -0.23258799
-0.054238252 0.16520375 -0.23260751
-0.05409525 0.16519749 -0.232623
-0.053893 0.16525701 -0.23264101
-0.0563705 0.165391 -0.23263749
-0.056153752 0.16538151 -0.23261401
-0.056057498 0.165378 -0.2326225
-0.055887498 0.165365 -0.23258474
-0.055591501 0.16534901 -0.23253199
-0.055280603 0.16538879 -0.23250921
-0.0551465 0.16540299 -0.232512
-0.054373 0.16535901 -0.23257101
-0.054233253 0.16535151 -0.23258825
-0.054090001 0.165346 -0.23261051
-0.053888999 0.165406 -0.232609
-0.056876503 0.16549 -0.23264399
-0.056809999 0.16556101 -0.232639
-0.056364998 0.16553849 -0.232621
-0.056148246 0.16552925 -0.23260975
-0.056051999 0.1655255 -0.23261401
-0.0558815 0.16551299 -0.23258826
-0.0555855 0.165498 -0.232535
-0.055224001 0.16552 -0.232502
-0.055142999 0.165516 -0.23250601
-0.054367498 0.165509 -0.23256201
-0.054228 0.165501 -0.23258175
-0.054084253 0.1654935 -0.23260924
-0.053882502 0.16555449 -0.23261699
-0.056888331 0.16565101 -0.23263299
-0.056761503 0.16570699 -0.2326435
-0.056360498 0.16568699 -0.232602
-0.05614375 0.16567776 -0.23258376
-0.056047499 0.165674 -0.23258999
-0.055876501 0.1656615 -0.23256749
-0.055579498 0.165647 -0.232537
-0.054361999 0.165657 -0.2325605
-0.054223001 0.16564925 -0.232564
-0.05407925 0.1656435 -0.232596
-0.053877 0.165702 -0.232611
-0.053753503 0.165695 -0.232646
-0.053667001 0.165695 -0.23263401
-0.056886397 0.16581079 -0.23262081
-0.056755751 0.16585499 -0.23263751
-0.056355499 0.16583601 -0.23258799
-0.056151003 0.16581467 -0.232581
-0.056061666 0.16583566 -0.232581
-0.055871252 0.16581026 -0.23255675
-0.055574499 0.165795 -0.232537
-0.054357 0.16580549 -0.232539
-0.054217748 0.16579676 -0.23255676
-0.054074753 0.1657905 -0.23257226
-0.053873003 0.1658515 -0.23257399
-0.053661 0.165843 -0.232637
-0.056891002 0.16598821 -0.23260438
-0.056751251 0.16600424 -0.2326145
-0.056349501 0.165984 -0.23258999
-0.056170501 0.165976 -0.232573
-0.056065999 0.16597125 -0.23257551
-0.055866249 0.16595775 -0.2325425
-0.055571001 0.165906 -0.232521
-0.054352 0.16595399 -0.232528
-0.054212749 0.1659455 -0.2325415
-0.054063201 0.1659604 -0.2325618
-0.053868003 0.165999 -0.2325675
-0.053742997 0.16599201 -0.23261949
-0.053608 0.1660275 -0.2326405
-0.057014 0.166136 -0.232648
-0.056880251 0.1661575 -0.23258124
-0.056746002 0.166152 -0.23260376
-0.056344002 0.166132 -0.2325865
-0.056165002 0.166124 -0.23256099
-0.056061249 0.16611899 -0.23256075
-0.05586125 0.16610551 -0.23253199
-0.054346502 0.16610201 -0.23252
-0.0542075 0.16609399 -0.23252651
-0.054062501 0.166124 -0.2325595
-0.053864002 0.1661475 -0.232535
-0.053737499 0.16613901 -0.232605
-0.053605497 0.16613825 -0.23260701
-0.057010002 0.166246 -0.23263699
-0.056900501 0.166307 -0.232582
-0.056815747 0.16630349 -0.23258899
-0.056699 0.166298 -0.232585
-0.056339003 0.166279 -0.23257101
-0.0561595 0.16627151 -0.2325525
-0.056056499 0.16626751 -0.23254201
-0.055914 0.1662555 -0.23251501
-0.055798501 0.166253 -0.23252249
-0.054341003 0.16625001 -0.23251301
-0.054202002 0.1662415 -0.23252276
-0.054062597 0.16628799 -0.23253497
-0.0538585 0.16629601 -0.23252299
-0.053732499 0.166288 -0.232593
-0.053600002 0.16628599 -0.23260176
-0.057005003 0.166394 -0.2326145
-0.056896001 0.166455 -0.232564
-0.056810752 0.16645201 -0.23257424
-0.056694001 0.166447 -0.232559
-0.056334503 0.166428 -0.232548
-0.056155 0.16642 -0.232538
-0.056051247 0.166416 -0.23253225
-0.055908501 0.16640399 -0.23251
-0.055793002 0.16640151 -0.23250899
-0.054183334 0.16637634 -0.232508
-0.05405125 0.16645724 -0.2325225
-0.053852499 0.166444 -0.232526
-0.0537275 0.166437 -0.232584
-0.053609997 0.16642234 -0.23260033
-0.053502001 0.1664665 -0.23261699
-0.057195 0.1665515 -0.232632
-0.057000998 0.16650601 -0.232605
-0.056927666 0.16659534 -0.23254667
-0.056805499 0.16660026 -0.23256001
-0.056689002 0.16659451 -0.23254
-0.056328997 0.166576 -0.2325425
-0.056152001 0.16653199 -0.232513
-0.056045998 0.16656375 -0.23251501
-0.055903003 0.16655201 -0.2325075
-0.055789001 0.166512 -0.232501
-0.054018997 0.166604 -0.23250899
-0.053784497 0.16658825 -0.2325515
-0.053634502 0.166586 -0.232594
-0.05349825 0.16657925 -0.23260549
-0.0571905 0.16670001 -0.23260599
-0.056940749 0.16672125 -0.23255751
-0.056801248 0.16674751 -0.2325355
-0.056684002 0.166742 -0.23253199
-0.056323998 0.166724 -0.23252401
-0.05604 0.166712 -0.232521
-0.055899002 0.16666301 -0.232501
-0.053779747 0.16673675 -0.2325305
-0.053629003 0.166733 -0.232576
-0.053492747 0.16672701 -0.23259825
-0.053298999 0.16671699 -0.23263325
-0.057359502 0.16685399 -0.2326425
-0.057185501 0.166849 -0.23260051
-0.0569456 0.16688481 -0.232554
-0.0567955 0.16689551 -0.23253649
-0.056680001 0.166853 -0.232517
-0.056320999 0.166834 -0.232504
-0.056141 0.16682699 -0.232504
-0.056007002 0.166822 -0.232511
-0.0537115 0.166881 -0.232563
-0.0536245 0.16688201 -0.23255101
-0.053487752 0.16687499 -0.23257899
-0.053341001 0.16686651 -0.23260501
-0.053248003 0.166862 -0.23261401
-0.053004999 0.166886 -0.23264
-0.0573535 0.16700199 -0.23264199
-0.057180002 0.16699651 -0.23258799
-0.056947667 0.16704367 -0.232527
-0.056790251 0.16704424 -0.2325235
-0.053707 0.1670295 -0.232538
-0.0536195 0.16703001 -0.232547
-0.053482503 0.16702375 -0.23256901
-0.053335503 0.167015 -0.232593
-0.053242497 0.16701099 -0.23259901
-0.053000502 0.166997 -0.232639
-0.052907001 0.167034 -0.232647
-0.057347499 0.16715001 -0.232641
-0.057176501 0.167143 -0.232544
-0.056775004 0.16717966 -0.23250633
-0.053702999 0.16714001 -0.23251601
-0.053614501 0.167178 -0.232528
-0.053477749 0.167172 -0.23255524
-0.053331003 0.16716349 -0.232574
-0.053237997 0.1671595 -0.232577
-0.052995503 0.167145 -0.232631
-0.052878749 0.167142 -0.23263499
-0.0575285 0.167307 -0.23263499
-0.057342999 0.16729751 -0.23262151
-0.057170503 0.167293 -0.23255101
-0.056972001 0.167357 -0.232528
-0.053609498 0.167325 -0.23250701
-0.0534725 0.16731951 -0.23253649
-0.053326502 0.167311 -0.23254499
-0.053233501 0.167307 -0.2325515
-0.052991003 0.167294 -0.23260251
-0.0528735 0.167292 -0.23262399
-0.052788999 0.16739701 -0.232647
-0.057817999 0.16750801 -0.232641
-0.057522498 0.167456 -0.232637
-0.057337999 0.167446 -0.23260501
-0.057164498 0.167441 -0.23255101
-0.056966998 0.167505 -0.232517
-0.053605001 0.167438 -0.23250601
-0.053452998 0.167455 -0.23252666
-0.053321503 0.167459 -0.2325305
-0.053227998 0.16745451 -0.232549
-0.052986503 0.167441 -0.232577
-0.052862603 0.16746101 -0.23261721
-0.052762669 0.16751933 -0.23264067
-0.057823002 0.16762701 -0.232637
-0.057684999 0.167649 -0.232639
-0.057517499 0.167604 -0.23262149
-0.057333 0.167595 -0.232593
-0.057157997 0.16762598 -0.23254067
-0.056961499 0.16765299 -0.232504
-0.0534175 0.167613 -0.232512
-0.053315498 0.16760799 -0.232539
-0.053223997 0.16760251 -0.23251
-0.052980997 0.16758999 -0.232568
-0.052862 0.16762476 -0.232592
-0.052747499 0.1676545 -0.23263051
-0.057971001 0.167743 -0.232649
-0.057818402 0.16775998 -0.23262401
-0.057704329 0.16777332 -0.23262267
-0.057512999 0.16775149 -0.232593
-0.057328001 0.16774249 -0.23258099
-0.057152003 0.1678105 -0.232526
-0.053310499 0.1677565 -0.23252401
-0.053218499 0.167751 -0.232503
-0.0529765 0.167739 -0.23254651
-0.052857999 0.1677735 -0.23256375
-0.052742001 0.16780426 -0.23262599
-0.058465999 0.167987 -0.232645
-0.058187999 0.1679365 -0.23264101
-0.057963498 0.167928 -0.232645
-0.057829753 0.16791625 -0.2326175
-0.057712 0.167909 -0.23259351
-0.0575075 0.16789949 -0.23258901
-0.057323001 0.16789 -0.232563
-0.057147998 0.16792101 -0.232509
-0.053212501 0.16789949 -0.23251
-0.052968666 0.167924 -0.23255967
-0.052856803 0.16793621 -0.2325598
-0.052737251 0.167952 -0.23260699
-0.058461502 0.168098 -0.23264199
-0.0581825 0.168084 -0.232636
-0.057958998 0.1680755 -0.232618
-0.057825502 0.16806351 -0.23258549
-0.057706751 0.16805649 -0.23257774
-0.057502501 0.168047 -0.232568
-0.057317331 0.16807432 -0.232536
-0.052961498 0.16811 -0.2325625
-0.052846 0.1681065 -0.23253976
-0.052731998 0.16810051 -0.23259249
-0.058456 0.16824651 -0.232641
-0.058177501 0.16823301 -0.23262051
-0.057953998 0.16822401 -0.232604
-0.057821002 0.168212 -0.23256201
-0.057701252 0.1682055 -0.23258075
-0.057497002 0.16819599 -0.23256901
-0.057309501 0.16826101 -0.232537
-0.052956499 0.168258 -0.23254099
-0.052840751 0.168255 -0.23253399
-0.052727252 0.168249 -0.23257324
-0.058450498 0.168395 -0.23263049
-0.058171999 0.168382 -0.232622
-0.057948001 0.168373 -0.232611
-0.057815 0.16836101 -0.2325685
-0.057695497 0.16835451 -0.232577
-0.057492003 0.1683445 -0.23255649
-0.057304502 0.168409 -0.2325355
-0.057128001 0.168441 -0.232503
-0.052951999 0.16840599 -0.232522
-0.052835248 0.168403 -0.232528
-0.052721001 0.16839701 -0.23258226
-0.058758002 0.168521 -0.232647
-0.058445498 0.168543 -0.232623
-0.058165498 0.16853 -0.232636
-0.057942003 0.16852149 -0.23262
-0.057808246 0.16850899 -0.23258376
-0.057689499 0.16850249 -0.23258626
-0.057486497 0.168492 -0.23255199
-0.057297997 0.168557 -0.232545
-0.057123497 0.168552 -0.23251
-0.052868832 0.16855149 -0.23251231
-0.052715 0.1685455 -0.23259351
-0.058439501 0.16869099 -0.232637
-0.0581595 0.168678 -0.2326405
-0.057936497 0.168669 -0.23261499
-0.057802498 0.168657 -0.232591
-0.057683501 0.16865049 -0.232593
-0.057480499 0.16864 -0.232556
-0.057291999 0.16870549 -0.23255301
-0.057117999 0.16869999 -0.232508
-0.053184502 0.168641 -0.23250699
-0.0528595 0.16870075 -0.2325145
-0.052727401 0.1687022 -0.23257001
-0.058435 0.16880199 -0.232639
-0.058155 0.168789 -0.232648
-0.057930499 0.168817 -0.232623
-0.057796501 0.16880526 -0.2325985
-0.057677001 0.16879851 -0.2325995
-0.057473503 0.168789 -0.23257601
-0.057285503 0.168854 -0.2325615
-0.0571125 0.16884799 -0.232509
-0.053180002 0.168754 -0.232504
-0.052888252 0.16885149 -0.2325325
-0.052734002 0.16884416 -0.23256217
-0.058603998 0.168961 -0.232649
-0.057924502 0.168965 -0.23263249
-0.057790499 0.16895349 -0.23259875
-0.057670999 0.168947 -0.23260799
-0.057466667 0.16897333 -0.23257066
-0.057279497 0.169002 -0.232566
-0.057106502 0.16899601 -0.23250601
-0.053171337 0.16897599 -0.23250766
-0.052881751 0.16899975 -0.23255099
-0.052728165 0.16899216 -0.23256467
-0.0579185 0.16911399 -0.232629
-0.057785001 0.16910225 -0.2325955
-0.057665251 0.1690955 -0.2326135
-0.0574595 0.16916101 -0.2325805
-0.057273999 0.1691515 -0.232565
-0.057100497 0.169146 -0.23251399
-0.0528755 0.169148 -0.23256351
-0.052721668 0.16914065 -0.23257667
-0.057914 0.169227 -0.232641
-0.057778001 0.1692515 -0.2326165
-0.05765925 0.16924475 -0.2326155
-0.057453498 0.16930901 -0.232586
-0.0572685 0.16929951 -0.23256901
-0.057094499 0.169294 -0.232528
-0.056898497 0.169283 -0.232509
-0.053158499 0.169311 -0.2325085
-0.052869249 0.16929825 -0.23257351
-0.052714664 0.16929083 -0.23260467
-0.057797499 0.1694015 -0.232641
-0.057683401 0.1693874 -0.23262879
-0.057447501 0.169457 -0.232595
-0.057262503 0.16944751 -0.232575
-0.057087999 0.1694425 -0.232544
-0.056891501 0.16943249 -0.23253399
-0.056782998 0.16945601 -0.232503
-0.056623001 0.16944951 -0.23251051
-0.054078497 0.1694665 -0.23250249
-0.053963002 0.169462 -0.232512
-0.053183332 0.16944735 -0.23252
-0.052862503 0.16944651 -0.232591
-0.052739501 0.16944051 -0.232603
-0.052646998 0.16940001 -0.23265
-0.057741001 0.16951001 -0.23264199
-0.057441 0.169605 -0.23260701
-0.057255 0.16959649 -0.23261499
-0.057080001 0.16959099 -0.2325875
-0.056883499 0.1695815 -0.2325815
-0.056751501 0.16956675 -0.23251599
-0.056617752 0.169561 -0.23253399
-0.056214999 0.16954049 -0.232522
-0.055995252 0.16960551 -0.23251724
-0.055898 0.16963901 -0.232522
-0.054212503 0.169588 -0.23250601
-0.054072 0.16958074 -0.2325415
-0.053929999 0.16957426 -0.23253401
-0.053477999 0.16955075 -0.23251274
-0.053342998 0.169543 -0.232519
-0.0532014 0.16958819 -0.23254462
-0.052855749 0.16959575 -0.232611
-0.052742664 0.16957732 -0.23261434
-0.057434998 0.169719 -0.23264401
-0.057247497 0.16974699 -0.23264199
-0.0570735 0.16974151 -0.23260599
-0.056876503 0.169732 -0.232604
-0.056744497 0.16971526 -0.23255226
-0.056611251 0.169709 -0.23254874
-0.056208 0.169689 -0.232556
-0.055999998 0.169744 -0.23257233
-0.05591033 0.169765 -0.23256767
-0.055776998 0.169778 -0.232531
-0.054205999 0.169736 -0.23252201
-0.054064751 0.1697295 -0.2325785
-0.053921998 0.16972327 -0.232584
-0.053726502 0.16970849 -0.23253101
-0.053603999 0.1697 -0.232528
-0.053471502 0.169699 -0.232537
-0.053335 0.16969199 -0.232555
-0.053183999 0.16975875 -0.23257874
-0.052864671 0.16973333 -0.23263699
-0.052754998 0.16970401 -0.232637
-0.057068001 0.169853 -0.232632
-0.056869 0.16988051 -0.232638
-0.056736998 0.169866 -0.23258173
-0.056604002 0.16986001 -0.23257899
-0.056201 0.16983999 -0.232584
-0.056015499 0.16990751 -0.232627
-0.055912502 0.16990274 -0.2326165
-0.055714499 0.16988799 -0.23254374
-0.054199502 0.16988499 -0.23254099
-0.054058246 0.16987899 -0.23259275
-0.053914502 0.169873 -0.23262425
-0.053718001 0.1698585 -0.232577
-0.053596001 0.1698505 -0.23257801
-0.05346375 0.16984901 -0.232575
-0.053327501 0.169842 -0.232596
-0.053176749 0.169909 -0.23260625
-0.056730747 0.17001426 -0.23259799
-0.056596998 0.17000826 -0.2326065
-0.056193501 0.16998801 -0.232612
-0.05601 0.17005551 -0.23262599
-0.055877 0.17001501 -0.232649
-0.055726003 0.17002533 -0.23258935
-0.055647999 0.170072 -0.23257001
-0.055410001 0.170058 -0.232521
-0.054193001 0.17003399 -0.232556
-0.054052249 0.170028 -0.232594
-0.053909 0.1699855 -0.232641
-0.053709999 0.170009 -0.23263201
-0.053587999 0.17000049 -0.23262951
-0.053455997 0.16999875 -0.23261075
-0.053319998 0.16999251 -0.2326345
-0.053218 0.17002501 -0.23263399
-0.056751002 0.170127 -0.232632
-0.056676 0.17014933 -0.23263033
-0.056547001 0.170156 -0.232637
-0.056187 0.170138 -0.23263
-0.056004502 0.1702055 -0.23262599
-0.055757001 0.17015301 -0.232639
-0.055642001 0.17018649 -0.23261699
-0.055404 0.1701705 -0.232555
-0.055128999 0.170194 -0.232517
-0.054788999 0.170247 -0.232519
-0.054616001 0.170203 -0.232519
-0.054186501 0.170183 -0.232574
-0.054045998 0.170176 -0.23260351
-0.053450003 0.17011249 -0.23264849
-0.055999 0.17031699 -0.23265
-0.055395998 0.17032051 -0.23260599
-0.055123001 0.170307 -0.23254901
-0.054983664 0.17031266 -0.23253
-0.05483225 0.17032726 -0.23254575
-0.054609001 0.17035249 -0.23254901
-0.054178998 0.170333 -0.232611
-0.054082498 0.1703285 -0.23261851
-0.053972334 0.17031099 -0.232639
-0.05539 0.170432 -0.23264401
-0.0551145 0.1704585 -0.232611
-0.054988749 0.170452 -0.232592
-0.054841001 0.17045499 -0.23259568
-0.054602999 0.17046601 -0.232584
-0.054598 0.170541 -0.23262601
-0.054173 0.17044599 -0.23264199
-0.054076999 0.17044 -0.232648
-0.054819502 0.17055401 -0.2326315
-0.055813998 0.15251151 -0.232485
-0.056087002 0.1525985 -0.23247701
-0.055808499 0.15266199 -0.23246801
-0.055721 0.152694 -0.232482
-0.0556015 0.152685 -0.23249
-0.055468999 0.152675 -0.23249701
-0.055295002 0.152666 -0.23248599
-0.056321003 0.152761 -0.23249
-0.056083001 0.152751 -0.232439
-0.055803001 0.15281099 -0.232463
-0.055716999 0.152804 -0.232472
-0.055598252 0.15279825 -0.2324665
-0.055466 0.152787 -0.23247249
-0.0552915 0.15277749 -0.232474
-0.056316003 0.15290999 -0.23248
-0.056078002 0.15290099 -0.23241901
-0.055755749 0.15295875 -0.23243299
-0.055592999 0.15294799 -0.232454
-0.055460997 0.15293649 -0.232454
-0.055286497 0.152926 -0.232464
-0.056424998 0.153061 -0.23248699
-0.056311503 0.153061 -0.23244101
-0.056073003 0.153051 -0.23240101
-0.055751 0.153109 -0.23241526
-0.05558775 0.15309775 -0.23243974
-0.055456501 0.153088 -0.232425
-0.055281498 0.15307701 -0.232445
-0.056419998 0.153211 -0.232464
-0.0563065 0.153211 -0.232425
-0.056068502 0.153202 -0.232371
-0.055745751 0.153258 -0.23240249
-0.055582751 0.153247 -0.23243174
-0.055450499 0.153236 -0.23242649
-0.055275999 0.153226 -0.232439
-0.056584999 0.153409 -0.232494
-0.056452334 0.15337634 -0.23246068
-0.056302 0.15336201 -0.232401
-0.056063 0.15335 -0.2323675
-0.055740252 0.15340701 -0.2323985
-0.055577252 0.15339625 -0.23242201
-0.0554455 0.153385 -0.232419
-0.055270001 0.15337351 -0.232443
-0.056605667 0.15353499 -0.23248069
-0.056467 0.15351576 -0.232444
-0.056296997 0.153512 -0.232381
-0.056058999 0.15346199 -0.23236001
-0.0557345 0.15355474 -0.23240025
-0.055571999 0.15354401 -0.23242025
-0.055439502 0.153532 -0.23243001
-0.055264503 0.15352151 -0.23244199
-0.056612499 0.1536715 -0.23247926
-0.056461498 0.15366401 -0.23244199
-0.056291498 0.153659 -0.232383
-0.055728499 0.1537025 -0.23240851
-0.055565499 0.15369201 -0.23242724
-0.055433501 0.15368 -0.23243199
-0.055258498 0.15367 -0.23245451
-0.056607999 0.15382099 -0.23245899
-0.05647533 0.15380234 -0.23244466
-0.056323003 0.15382034 -0.23239499
-0.055722501 0.1538505 -0.23241475
-0.055559501 0.15383999 -0.23243099
-0.055427499 0.153828 -0.232435
-0.055251502 0.153817 -0.232474
-0.056816999 0.15401401 -0.232494
-0.056602251 0.1539695 -0.23245426
-0.0565065 0.15396599 -0.23245099
-0.056336749 0.153956 -0.23239824
-0.05604 0.15394351 -0.232364
-0.0557165 0.15399849 -0.232416
-0.055554252 0.153989 -0.232425
-0.0554225 0.15397801 -0.23243
-0.0552455 0.153963 -0.232483
-0.056812502 0.15412501 -0.23248601
-0.056596503 0.154117 -0.23246075
-0.056500502 0.15411299 -0.23245651
-0.056330748 0.1541045 -0.23240401
-0.0560335 0.154091 -0.23237601
-0.055710752 0.15414675 -0.23241851
-0.055548247 0.154137 -0.2324295
-0.0554155 0.15412401 -0.23245299
-0.055240497 0.154112 -0.232476
-0.056806497 0.154274 -0.23248899
-0.056590497 0.154265 -0.23246852
-0.0564945 0.15426099 -0.23246601
-0.056324501 0.15425149 -0.232418
-0.056026001 0.154274 -0.23239534
-0.055705 0.154295 -0.2324145
-0.055542 0.154284 -0.23243576
-0.055409499 0.154272 -0.232448
-0.055233501 0.15425999 -0.23249
-0.056802001 0.154384 -0.232499
-0.056621999 0.15441599 -0.23246199
-0.056518249 0.15441051 -0.232465
-0.05631825 0.15439901 -0.23243049
-0.0560195 0.154461 -0.232384
-0.055699501 0.1544435 -0.23242
-0.055549666 0.15442134 -0.23243433
-0.055435002 0.15443568 -0.23245268
-0.055227499 0.15440801 -0.232494
-0.056616001 0.15456299 -0.232472
-0.056512248 0.154558 -0.23246926
-0.056312002 0.15454575 -0.2324425
-0.056012999 0.154608 -0.2323935
-0.055707663 0.15457867 -0.23243
-0.055595335 0.154598 -0.23243134
-0.05544525 0.15457299 -0.2324535
-0.055222999 0.15451901 -0.23249499
-0.0566095 0.15470999 -0.23248599
-0.056506 0.154706 -0.23247901
-0.056363501 0.15469401 -0.232456
-0.056248501 0.15469301 -0.232438
-0.056006499 0.154754 -0.23241699
-0.055730499 0.15474001 -0.2324325
-0.055603247 0.15473349 -0.23243949
-0.055439502 0.15472001 -0.23246075
-0.055215001 0.154741 -0.232499
-0.056491002 0.15484099 -0.23248298
-0.056357503 0.1548425 -0.23246801
-0.056242 0.1548395 -0.23246101
-0.056000501 0.154902 -0.232419
-0.055723999 0.15488851 -0.23243901
-0.055597249 0.15488149 -0.23244625
-0.055433001 0.15486801 -0.23247248
-0.055210501 0.154852 -0.2324985
-0.056350499 0.154989 -0.23248249
-0.056235 0.15502435 -0.232462
-0.055994 0.1550495 -0.23243201
-0.055717498 0.155035 -0.232458
-0.055591501 0.15503 -0.23244774
-0.05542675 0.15501525 -0.23248601
-0.056343 0.155174 -0.232494
-0.056227498 0.15521 -0.232474
-0.0559875 0.155196 -0.23245999
-0.0557115 0.155185 -0.232455
-0.055585004 0.155177 -0.23246051
-0.055422001 0.15512601 -0.232499
-0.056336999 0.155322 -0.23249801
-0.056221001 0.155358 -0.232481
-0.055981502 0.15534399 -0.2324595
-0.055705503 0.155332 -0.232465
-0.055578999 0.155325 -0.23246951
-0.056217 0.155467 -0.23248699
-0.0559755 0.15549201 -0.232467
-0.055699497 0.155479 -0.2324705
-0.055572249 0.1554715 -0.23249
-0.055968501 0.1556385 -0.23248899
-0.0556935 0.155627 -0.232485
-0.055608001 0.15558501 -0.23249701
-0.055962503 0.15578701 -0.23249799
-0.055689 0.155736 -0.23249701
-0.055172 0.164774 -0.23249
-0.054981999 0.165281 -0.232493
-0.055072501 0.1654 -0.23249501
-0.054978497 0.165392 -0.232493
-0.054803997 0.165382 -0.23249301
-0.05528 0.165572 -0.23249799
-0.055091333 0.16556199 -0.23249267
-0.0549725 0.16553999 -0.232491
-0.054799497 0.1655305 -0.232463
-0.055260498 0.16570699 -0.23249498
-0.055098999 0.16569799 -0.23248652
-0.0549675 0.1656875 -0.23247799
-0.054793499 0.16567901 -0.2324695
-0.055255748 0.16585524 -0.23247676
-0.055094 0.16584624 -0.23247126
-0.054962002 0.16583499 -0.23247001
-0.054788001 0.1658265 -0.23247099
-0.055569001 0.165979 -0.232493
-0.055250749 0.1660035 -0.23245749
-0.055102002 0.16598266 -0.232457
-0.054988336 0.16599934 -0.23245299
-0.054783002 0.165975 -0.23245201
-0.055565499 0.16609199 -0.2324785
-0.055245001 0.166152 -0.2324525
-0.055120997 0.166145 -0.23245099
-0.054999501 0.16613626 -0.232435
-0.054779001 0.166123 -0.23241499
-0.055559501 0.16623899 -0.232481
-0.0552825 0.166302 -0.23245451
-0.055156499 0.1662955 -0.23243651
-0.054994497 0.16628399 -0.23242199
-0.0547725 0.166271 -0.232425
-0.055553999 0.16642401 -0.23244901
-0.0552775 0.16644949 -0.232438
-0.055151746 0.16644275 -0.232418
-0.054989252 0.1664315 -0.23240849
-0.054766998 0.166419 -0.23241851
-0.054336503 0.166398 -0.23249051
-0.054195002 0.166463 -0.23249349
-0.056148998 0.166605 -0.232499
-0.055785999 0.166586 -0.232499
-0.055547498 0.166609 -0.23243999
-0.055273 0.16659699 -0.232412
-0.05514675 0.166591 -0.23240426
-0.054984502 0.16657999 -0.23238951
-0.054762498 0.166567 -0.232401
-0.054332003 0.16654551 -0.232475
-0.054234497 0.1665405 -0.232493
-0.054110497 0.166609 -0.23248699
-0.0561455 0.16671599 -0.2324945
-0.055897001 0.16673701 -0.232489
-0.055782497 0.166697 -0.23249
-0.0555415 0.166758 -0.232444
-0.055267498 0.1667455 -0.232408
-0.055141997 0.16673949 -0.23238374
-0.05497925 0.16672824 -0.23237625
-0.054757498 0.166715 -0.232383
-0.054327 0.166694 -0.23244801
-0.054229002 0.16672568 -0.23245765
-0.054075506 0.16675515 -0.23246832
-0.056678999 0.166926 -0.23249
-0.056318 0.166908 -0.2325
-0.056138001 0.16690101 -0.23249801
-0.056045 0.16687167 -0.23249167
-0.055892497 0.16684701 -0.23247799
-0.055776998 0.16684499 -0.23249
-0.055535503 0.16690451 -0.232444
-0.055261999 0.166894 -0.23240501
-0.055137001 0.16688751 -0.232373
-0.054974001 0.16687626 -0.23236801
-0.054753002 0.16682699 -0.232382
-0.054749999 0.16690101 -0.232382
-0.054323003 0.166841 -0.23241201
-0.0542235 0.16690999 -0.232428
-0.05407083 0.1669025 -0.2324475
-0.053838998 0.16688851 -0.232458
-0.056875002 0.16708501 -0.23249701
-0.056674503 0.16703799 -0.232493
-0.056313999 0.16701999 -0.23249801
-0.0561345 0.167013 -0.23247999
-0.056030497 0.16700749 -0.232485
-0.055887498 0.166996 -0.23247099
-0.055771999 0.16699299 -0.23246899
-0.055531003 0.167054 -0.23243
-0.055257499 0.16704151 -0.2323745
-0.055172 0.16703799 -0.23236999
-0.055016998 0.166991 -0.23236001
-0.054747999 0.16697501 -0.232364
-0.054319002 0.16699049 -0.232384
-0.054219 0.16705799 -0.232408
-0.054065496 0.16705133 -0.23243332
-0.053832501 0.167036 -0.232463
-0.056925498 0.1672025 -0.2324895
-0.056816999 0.16723099 -0.23248599
-0.056668997 0.16718701 -0.23248899
-0.056309 0.16716799 -0.232484
-0.056129001 0.167161 -0.23247099
-0.056024998 0.167156 -0.23248298
-0.055882998 0.16714451 -0.23244801
-0.055767499 0.167142 -0.23244399
-0.0555255 0.167202 -0.23241201
-0.055251502 0.16719 -0.23237699
-0.054312333 0.16717499 -0.23236699
-0.054214001 0.1672065 -0.232381
-0.054073401 0.16719261 -0.23240599
-0.053998999 0.16723301 -0.232428
-0.053785335 0.16719399 -0.23246968
-0.056866501 0.16734301 -0.2324605
-0.05678175 0.16733949 -0.23246151
-0.056663498 0.167335 -0.2324805
-0.056304999 0.167316 -0.2324495
-0.056125 0.167309 -0.232445
-0.056019999 0.16730399 -0.23246475
-0.055877499 0.167292 -0.23243651
-0.0557625 0.167289 -0.23243301
-0.055521 0.167349 -0.23238599
-0.055246502 0.167337 -0.23236799
-0.054306999 0.16732299 -0.232353
-0.054209501 0.167354 -0.23235551
-0.054087497 0.167348 -0.2323685
-0.053994998 0.167345 -0.23240849
-0.053823002 0.16733351 -0.232429
-0.053698003 0.16732401 -0.23248401
-0.056860499 0.167492 -0.232473
-0.056776747 0.16748725 -0.2324435
-0.056658 0.1674825 -0.23246899
-0.0562995 0.167464 -0.232435
-0.056119502 0.16745651 -0.2324395
-0.056015 0.16745175 -0.232445
-0.055872001 0.16744 -0.23243299
-0.055755664 0.16747399 -0.23242633
-0.055515997 0.16749699 -0.23238
-0.055243 0.167448 -0.232355
-0.054204501 0.167502 -0.232353
-0.053990997 0.167492 -0.23237801
-0.053819001 0.1674805 -0.23239151
-0.053663 0.16748667 -0.232475
-0.053512 0.16750801 -0.23249499
-0.056855001 0.16763949 -0.232465
-0.056770999 0.1676355 -0.23244651
-0.056653999 0.16763 -0.23243999
-0.056294501 0.167611 -0.23243199
-0.056115001 0.167604 -0.23241201
-0.056010753 0.16759926 -0.23241799
-0.055865999 0.16762465 -0.23241334
-0.055748999 0.167659 -0.23241499
-0.055510499 0.16764501 -0.2323755
-0.053985998 0.16764 -0.2323595
-0.053814501 0.16762801 -0.23237
-0.053644001 0.16762151 -0.232454
-0.053508498 0.167619 -0.232482
-0.056921665 0.16778333 -0.232472
-0.056781799 0.1677916 -0.23244819
-0.0566485 0.16777751 -0.232429
-0.056288503 0.167759 -0.23243301
-0.056110002 0.167752 -0.23239201
-0.056005001 0.16774701 -0.232416
-0.055859499 0.16780899 -0.232403
-0.055744 0.16780651 -0.2324035
-0.055504501 0.16779301 -0.232382
-0.053809002 0.1677765 -0.232357
-0.053639501 0.16776925 -0.2324345
-0.053458001 0.16776425 -0.23248599
-0.057146002 0.167997 -0.23249801
-0.056952499 0.1679485 -0.23246351
-0.056787837 0.16793333 -0.23244767
-0.056643501 0.16792649 -0.232429
-0.0562835 0.167908 -0.23242
-0.056105003 0.1679 -0.23237899
-0.056000002 0.16789575 -0.23240399
-0.055854 0.167959 -0.232391
-0.055738501 0.16795599 -0.232391
-0.055500999 0.167905 -0.23237
-0.055498 0.167979 -0.232362
-0.053635001 0.16791649 -0.23241349
-0.053452998 0.1679115 -0.23247075
-0.053306498 0.16790301 -0.232493
-0.0571425 0.16810551 -0.232483
-0.056946501 0.168097 -0.23246899
-0.056781832 0.16808133 -0.23245053
-0.056637499 0.168074 -0.2324305
-0.056278497 0.16805649 -0.23239949
-0.056101002 0.16801199 -0.232365
-0.056015801 0.16805241 -0.23238161
-0.0558495 0.16810551 -0.23237199
-0.055733502 0.16810301 -0.23238
-0.053629998 0.16806549 -0.23239049
-0.053448498 0.1680595 -0.2324425
-0.053300999 0.168051 -0.23248801
-0.053207502 0.168047 -0.2324955
-0.057136498 0.168256 -0.23248801
-0.0569405 0.16824549 -0.232466
-0.056776505 0.16823018 -0.23244266
-0.056631498 0.16822401 -0.232438
-0.056273498 0.16820399 -0.232382
-0.056024503 0.1681935 -0.23237617
-0.055844501 0.168254 -0.23235801
-0.055728503 0.16825101 -0.23236901
-0.05362425 0.16821399 -0.23239225
-0.053489 0.168211 -0.232411
-0.053346749 0.1682035 -0.23245975
-0.053202003 0.16819701 -0.232492
-0.057131998 0.168367 -0.232492
-0.056935001 0.168393 -0.232466
-0.05677167 0.16837783 -0.23242915
-0.056626 0.16837101 -0.23243201
-0.056267999 0.16835201 -0.23237899
-0.0560054 0.1683332 -0.23236899
-0.055838503 0.168402 -0.232364
-0.055722497 0.16839951 -0.23237601
-0.053604666 0.16835 -0.232391
-0.053484499 0.1683585 -0.23238599
-0.053341251 0.1683515 -0.23245351
-0.053196497 0.168345 -0.232483
-0.056929499 0.168541 -0.23247001
-0.056765664 0.16852568 -0.2324305
-0.056620501 0.16851901 -0.23243
-0.056261502 0.16850001 -0.23239499
-0.0560368 0.16851242 -0.2323772
-0.0559012 0.16853438 -0.23238161
-0.055717498 0.168547 -0.23236251
-0.054005001 0.168569 -0.23235101
-0.053570002 0.16851 -0.232382
-0.053479001 0.168506 -0.232383
-0.053335249 0.1684995 -0.2324575
-0.053190999 0.1684925 -0.23248449
-0.056923501 0.168689 -0.23247251
-0.056772195 0.16866679 -0.23243341
-0.056642335 0.16868067 -0.23243301
-0.056255497 0.168648 -0.2324
-0.056037247 0.168676 -0.23238824
-0.055883002 0.1687035 -0.23238401
-0.0557115 0.168695 -0.232365
-0.054157 0.168724 -0.232354
-0.054001998 0.168643 -0.232354
-0.053998999 0.168717 -0.232352
-0.053565003 0.168658 -0.23236901
-0.053472999 0.1686545 -0.23239249
-0.05333025 0.16864699 -0.232444
-0.052942999 0.16866399 -0.23249701
-0.056918003 0.168837 -0.232463
-0.056784254 0.168823 -0.23243
-0.056651 0.16881701 -0.23243751
-0.056251001 0.168759 -0.232401
-0.056248002 0.168833 -0.232403
-0.056038201 0.16883901 -0.23238739
-0.055877 0.16885149 -0.23239575
-0.055705503 0.168843 -0.23236501
-0.054216336 0.16882734 -0.23237133
-0.054107502 0.16887051 -0.232371
-0.053975999 0.16883934 -0.232356
-0.053587664 0.168818 -0.23237269
-0.053467497 0.16880301 -0.232398
-0.053323999 0.16879649 -0.2324505
-0.053176999 0.168828 -0.23249801
-0.056912001 0.16898499 -0.23247001
-0.056778502 0.168971 -0.23243374
-0.056645002 0.16896501 -0.23244449
-0.056243502 0.168944 -0.23241299
-0.056023501 0.16901 -0.23240125
-0.055870749 0.16900051 -0.23239899
-0.055699497 0.168992 -0.23237249
-0.05424 0.168992 -0.232411
-0.054102 0.16898376 -0.23240376
-0.053960502 0.16897701 -0.23238824
-0.053763002 0.168963 -0.232363
-0.053610999 0.16894299 -0.23238866
-0.053490337 0.16896634 -0.23241265
-0.053318251 0.168945 -0.232454
-0.056905501 0.16913551 -0.2324865
-0.056772254 0.16912 -0.232445
-0.056638502 0.16911501 -0.23245651
-0.0562375 0.169094 -0.232429
-0.056017 0.16915751 -0.23241974
-0.055865251 0.16914751 -0.2323945
-0.0556935 0.169139 -0.232374
-0.055454001 0.1691255 -0.232355
-0.054232001 0.16914099 -0.232457
-0.054094501 0.1691325 -0.2324385
-0.053952754 0.169126 -0.232427
-0.053756498 0.16911149 -0.2323795
-0.0536335 0.169103 -0.23239651
-0.053499997 0.169103 -0.23241825
-0.053312 0.169093 -0.232467
-0.053164497 0.16916101 -0.23249599
-0.056765497 0.16926876 -0.23246925
-0.056632001 0.16926275 -0.23247826
-0.056231 0.16924199 -0.2324335
-0.056011252 0.16930701 -0.23242199
-0.05587833 0.16928701 -0.23240699
-0.055724666 0.169303 -0.23239733
-0.0554475 0.169276 -0.23236799
-0.054657001 0.16934501 -0.232352
-0.054225497 0.16928899 -0.232475
-0.054087002 0.16928151 -0.232473
-0.05394575 0.16927449 -0.23245549
-0.053750001 0.16926 -0.23239601
-0.053626999 0.16925199 -0.23241499
-0.05349325 0.16925126 -0.23244199
-0.053305503 0.16924149 -0.23247999
-0.05675 0.16940534 -0.23249233
-0.056626499 0.169375 -0.2324945
-0.056223001 0.16939151 -0.23247901
-0.0560035 0.16945626 -0.23246676
-0.055908002 0.169452 -0.23245099
-0.055738002 0.16943951 -0.2324125
-0.055441 0.169424 -0.23238999
-0.054651998 0.169457 -0.232372
-0.054219 0.169438 -0.232489
-0.054081999 0.1693925 -0.23248699
-0.053929668 0.16941033 -0.23248701
-0.053741999 0.1694085 -0.23243901
-0.053619001 0.16940051 -0.232453
-0.053485498 0.16940024 -0.232485
-0.053350002 0.1693925 -0.23248699
-0.05325 0.16935 -0.2325
-0.055902001 0.16956399 -0.232494
-0.055730999 0.16958776 -0.23243651
-0.055434503 0.169572 -0.232402
-0.055103332 0.16956967 -0.23236333
-0.054954499 0.16958651 -0.232365
-0.054823 0.169576 -0.232354
-0.054645002 0.169605 -0.23240151
-0.0537345 0.16956 -0.23248249
-0.053611502 0.169551 -0.2324865
-0.055704337 0.169725 -0.23248868
-0.055427998 0.16972101 -0.232427
-0.055110753 0.169707 -0.23239075
-0.054949749 0.16969775 -0.232379
-0.054815333 0.16972466 -0.23239465
-0.054638498 0.169754 -0.23241201
-0.05542 0.1698705 -0.232464
-0.055103499 0.16985551 -0.23242125
-0.054942749 0.16984625 -0.23239926
-0.054807499 0.169911 -0.23240751
-0.054632001 0.169903 -0.23243
-0.055413999 0.169983 -0.23249701
-0.05509625 0.1700065 -0.2324605
-0.054972999 0.169999 -0.2324235
-0.0548485 0.17002775 -0.23244649
-0.054623999 0.1700525 -0.2324695
-0.055133 0.17012 -0.23249499
-0.055005752 0.17015074 -0.2324775
-0.054857999 0.17015333 -0.232481
-0.055041 0.17026401 -0.2325
-0.056056999 0.153539 -0.232334
-0.056052998 0.15365 -0.23232999
-0.056046501 0.153797 -0.2323415
-0.0550915 0.167033 -0.232348
-0.054953333 0.16703467 -0.23234034
-0.054747 0.16704801 -0.232338
-0.055126749 0.16718274 -0.23234475
-0.054964498 0.16717149 -0.23233201
-0.054743499 0.16715901 -0.2323195
-0.055121496 0.1673305 -0.23233524
-0.054960001 0.16731875 -0.23230702
-0.054738 0.16730651 -0.232315
-0.054304998 0.16739599 -0.232343
-0.055241 0.167522 -0.232337
-0.05511675 0.16747925 -0.2323145
-0.054955252 0.167467 -0.23228474
-0.054732502 0.167454 -0.23231401
-0.054302 0.16750699 -0.2323225
-0.054082997 0.16749549 -0.23234349
-0.0552365 0.167632 -0.23232999
-0.055111501 0.16762625 -0.23230799
-0.05494925 0.16761501 -0.2322955
-0.054728501 0.1676015 -0.23227301
-0.054248001 0.16765225 -0.23232101
-0.054077499 0.167643 -0.23233575
-0.055230498 0.167781 -0.2323405
-0.055105999 0.16777551 -0.23229499
-0.054990999 0.167768 -0.2322765
-0.054897003 0.16776 -0.23227
-0.054723501 0.167751 -0.232254
-0.054242998 0.1678005 -0.23231001
-0.054072503 0.16779152 -0.23231925
-0.053981498 0.167788 -0.23233199
-0.055225499 0.16793001 -0.23233101
-0.055101249 0.167923 -0.23228075
-0.054986499 0.167916 -0.232265
-0.054891497 0.167908 -0.232265
-0.0547175 0.167899 -0.23226251
-0.0542375 0.16794874 -0.23230375
-0.054067001 0.16793948 -0.23231649
-0.053976499 0.167936 -0.232324
-0.053805001 0.167923 -0.23232999
-0.055495001 0.16809 -0.23234299
-0.05522 0.16807801 -0.232316
-0.055095248 0.16807126 -0.23228325
-0.054980502 0.168064 -0.232262
-0.054885499 0.168056 -0.232269
-0.054711998 0.168047 -0.232254
-0.054231998 0.16809699 -0.23229775
-0.054061748 0.168088 -0.2323105
-0.053970501 0.16808499 -0.2323195
-0.053800002 0.168072 -0.23230499
-0.055488497 0.168238 -0.232345
-0.0552155 0.16822501 -0.232301
-0.055103663 0.16820766 -0.23228432
-0.054998998 0.168226 -0.23227501
-0.0548805 0.168203 -0.23225799
-0.054706499 0.16819499 -0.232254
-0.05422575 0.168245 -0.23230749
-0.054056 0.16823649 -0.232318
-0.053965501 0.16823301 -0.232319
-0.053795002 0.16822 -0.232297
-0.056088001 0.16838101 -0.23235001
-0.055483498 0.16838551 -0.2323405
-0.055209503 0.168373 -0.23230299
-0.055124998 0.168369 -0.232272
-0.055005997 0.1683625 -0.23228051
-0.054875001 0.16835099 -0.232256
-0.054700501 0.16834301 -0.2322675
-0.054219503 0.16839349 -0.23231651
-0.054049749 0.16838425 -0.23231851
-0.0539595 0.16838101 -0.23232301
-0.0537895 0.168368 -0.23229
-0.053663 0.16839799 -0.232343
-0.055478498 0.168533 -0.232325
-0.055203497 0.168521 -0.232307
-0.0551195 0.16851699 -0.23227149
-0.055 0.1685105 -0.23228601
-0.054868497 0.16850001 -0.232273
-0.054693498 0.16849101 -0.23228
-0.054213502 0.16854149 -0.23232776
-0.054056332 0.16852067 -0.23232301
-0.0539525 0.168529 -0.232337
-0.0537825 0.168516 -0.23231801
-0.053659499 0.16850799 -0.232333
-0.055472501 0.168681 -0.23232901
-0.055156 0.168667 -0.232292
-0.054994751 0.16865775 -0.23227176
-0.054862499 0.1686475 -0.23227349
-0.054688498 0.168639 -0.23227701
-0.054223333 0.16867866 -0.23233932
-0.054074001 0.16868199 -0.23233101
-0.053947002 0.168677 -0.232336
-0.053776503 0.16866399 -0.23232251
-0.053653002 0.16865601 -0.2323415
-0.055467002 0.16882899 -0.232327
-0.055149999 0.168815 -0.2322945
-0.05498825 0.16880625 -0.23228651
-0.054856502 0.168796 -0.23228
-0.054681003 0.168824 -0.232273
-0.054069001 0.16879299 -0.232347
-0.053943001 0.168788 -0.232338
-0.053769998 0.16881301 -0.232342
-0.053647999 0.168768 -0.23235001
