# .PCD v0.7 - Point Cloud Data file format
VERSION 0.7
FIELDS x y z
SIZE 4 4 4
TYPE F F F
COUNT 1 1 1
WIDTH 1669
HEIGHT 1
VIEWPOINT 0 0 0 1 0 0 0
POINTS 1669
DATA ascii
-0.14955001 0.30085 -1.31085
-0.14119001 0.30186 -1.312
-0.13906001 0.30024001 -1.3114001
-0.13485999 0.30026999 -1.3115
-0.13273001 0.30147001 -1.3103
-0.19384 0.30296999 -1.3106
-0.18971001 0.30327001 -1.3119
-0.18746001 0.30285999 -1.3101
-0.15584999 0.30285001 -1.3101
-0.1538 0.30309999 -1.3112
-0.15165 0.30289 -1.3103
-0.1496 0.30314001 -1.3113
-0.14535999 0.30294999 -1.3105
-0.14326 0.30296999 -1.3106
-0.14119001 0.30322 -1.3117
-0.13909 0.30322999 -1.3117
-0.13699 0.30325001 -1.3118
-0.13276 0.30305001 -1.311
-0.19392 0.30445999 -1.3113
-0.1517 0.30566001 -1.3107001
-0.149575 0.30493 -1.31045
-0.14750001 0.30506498 -1.311
-0.1454 0.30443999 -1.3112
-0.14326 0.30423999 -1.3103
-0.13909 0.30577001 -1.3112
-0.13699 0.30451 -1.3115
-0.13489 0.30579999 -1.3113
-0.13278 0.30581999 -1.3114001
-0.13067999 0.30583 -1.3114001
-0.19812 0.30695 -1.3104
-0.17913 0.30704999 -1.3108
-0.17499 0.30734 -1.312
-0.1454 0.30700999 -1.3106
-0.14332999 0.30726001 -1.3117
-0.14119001 0.30704999 -1.3108
-0.13278 0.30711001 -1.311
-0.14329 0.30896997 -1.31025
-0.14119001 0.30834001 -1.3105
-0.13489 0.30968001 -1.3104
-0.13278 0.30970001 -1.3104
-0.13067999 0.30906498 -1.31065
-0.12859499 0.30918998 -1.3111999
-0.20039 0.31123 -1.3112
-0.13489 0.31095999 -1.3101
-0.13067999 0.31099001 -1.3102
-0.12861 0.31123 -1.3112
-0.12861 0.31246999 -1.3109
-0.20048 0.31514999 -1.3113
-0.12863 0.31759 -1.3107001
-0.12863 0.31997001 -1.3101
-0.20293 0.33181 -1.3111
-0.20310999 0.33638999 -1.312
-0.20602 0.37573498 -1.3104
-0.12903666 0.37574664 -1.3112
-0.20611 0.37604001 -1.3114001
-0.12905 0.37616 -1.3118
-0.12692 0.37617999 -1.3118
-0.16622999 0.29166999 -1.3099999
-0.15571 0.2929 -1.3092999
-0.17676 0.29565001 -1.3095
-0.16622999 0.29558 -1.3091
-0.15994 0.29565001 -1.3095
-0.18102001 0.29710001 -1.3099
-0.17893 0.29712999 -1.3099999
-0.17467 0.29697001 -1.3092999
-0.16622999 0.29686001 -1.3088
-0.16418999 0.29710999 -1.3099
-0.16209 0.29712999 -1.3099999
-0.19368 0.29842001 -1.3096
-0.19154 0.29900998 -1.30915
-0.18948001 0.29916 -1.3097501
-0.18731 0.29964 -1.3088
-0.18522 0.29833999 -1.3092999
-0.18305001 0.29949 -1.3081
-0.18095 0.29951999 -1.3083
-0.17893 0.29978001 -1.3094
-0.17676 0.29958999 -1.3085999
-0.17473 0.29984 -1.3097
-0.17264 0.29987001 -1.3098
-0.17048 0.29967999 -1.309
-0.16838001 0.29969999 -1.3091
-0.16629 0.29973 -1.3092
-0.16418999 0.29842001 -1.3096
-0.16209 0.29844001 -1.3097
-0.16 0.29980999 -1.3095
-0.15790001 0.29982999 -1.3096
-0.1558 0.29986 -1.3097
-0.15370999 0.29988 -1.3098
-0.15161 0.2999 -1.3099
-0.19585 0.30136001 -1.3098
-0.17885999 0.30096999 -1.3081
-0.17054 0.30131 -1.3096
-0.16844 0.30134001 -1.3097
-0.16629 0.30114999 -1.3089
-0.16418999 0.30116999 -1.309
-0.16204 0.30096999 -1.3081
-0.16 0.30122 -1.3092
-0.15790001 0.30125001 -1.3092999
-0.1558 0.30127001 -1.3094
-0.15370999 0.30129001 -1.3095
-0.14737 0.30113 -1.3088
-0.14532 0.30138001 -1.3099
-0.14318 0.30116999 -1.309
-0.19577 0.30248001 -1.3085001
-0.19166 0.30278999 -1.3098
-0.17048 0.30243999 -1.3083
-0.16844 0.30270001 -1.3094
-0.16425 0.30274999 -1.3097
-0.16 0.30258 -1.3089
-0.15792501 0.30334502 -1.30935
-0.14737 0.30248001 -1.3085001
-0.14108001 0.30379999 -1.3085001
-0.19585 0.30524001 -1.3089
-0.19375999 0.30528 -1.3091
-0.19161999 0.30457002 -1.30885
-0.18956 0.30408999 -1.3097
-0.18746001 0.30412 -1.3098
-0.18536 0.30416 -1.3099999
-0.17900001 0.3053 -1.3091
-0.1769 0.30533999 -1.3092999
-0.17479999 0.30537 -1.3094
-0.17054 0.30520001 -1.3087
-0.15584999 0.30410999 -1.3098
-0.15375 0.30414 -1.3099
-0.14535999 0.30548999 -1.3099
-0.14326 0.30551001 -1.3099999
-0.14112 0.3053 -1.3091
-0.13902 0.30405 -1.3095
-0.19585 0.30718499 -1.30845
-0.19375999 0.30721498 -1.30865
-0.19166 0.30660999 -1.3089
-0.18956 0.30665001 -1.3091
-0.16215 0.3066 -1.3089
-0.15375 0.30799001 -1.309
-0.15165 0.30671999 -1.3094
-0.14951 0.30651 -1.3085001
-0.14746 0.30676001 -1.3096
-0.13906001 0.30684 -1.3099
-0.13694 0.307385 -1.3092999
-0.13479 0.30641001 -1.3081
-0.13063 0.30667001 -1.3092
-0.20022 0.30949 -1.3096
-0.19803999 0.30801001 -1.3091
-0.14955001 0.30803001 -1.3092
-0.14534 0.30860502 -1.3087
-0.13906001 0.30877501 -1.3094499
-0.13276 0.30818 -1.3098
-0.19812 0.31081 -1.3094
-0.13692001 0.31048 -1.3081
-0.20031001 0.31224 -1.3099
-0.13489 0.31220001 -1.3098
-0.13278 0.31283501 -1.3096499
-0.13067999 0.31284499 -1.3097501
-0.12858 0.31347001 -1.3097
-0.13065 0.31443 -1.3083
-0.12858 0.31468001 -1.3094
-0.13699 0.31705999 -1.3085001
-0.20258 0.32554999 -1.3085999
-0.20266999 0.32910001 -1.3087
-0.20276 0.33232999 -1.3089
-0.20293 0.33688 -1.3098
-0.20588499 0.37535501 -1.3089499
-0.12897332 0.37515 -1.3089668
-0.17663001 0.29394001 -1.3078001
-0.16606 0.29365 -1.3065
-0.18506999 0.29923001 -1.307
-0.18716 0.30061001 -1.3065
-0.18298 0.30068001 -1.3068
-0.18088 0.30070999 -1.307
-0.17663001 0.30055001 -1.3063
-0.17454 0.30057999 -1.3063999
-0.17245001 0.30061001 -1.3066
-0.18514 0.30221999 -1.3074
-0.180915 0.30280501 -1.30705
-0.17882499 0.30283999 -1.30715
-0.17673001 0.30287001 -1.3073001
-0.17463499 0.30290002 -1.3074501
-0.17251 0.30344999 -1.3069
-0.17048 0.3037 -1.308
-0.16825999 0.30328 -1.3062
-0.1662 0.30278999 -1.3069501
-0.16413 0.30355999 -1.3074
-0.16204 0.30359 -1.3075
-0.16199 0.3021 -1.3068
-0.15994 0.30361 -1.3076
-0.15155999 0.30371001 -1.308
-0.18941 0.30489999 -1.3074
-0.18731 0.30493999 -1.3076
-0.18312 0.30500999 -1.3079
-0.18102001 0.30504 -1.308
-0.17257001 0.30493999 -1.3076
-0.16832 0.30478001 -1.3069
-0.16622999 0.3048 -1.307
-0.16407999 0.3046 -1.3061
-0.16204 0.30486 -1.3072
-0.15994 0.30487999 -1.3073
-0.15785 0.30491 -1.3074
-0.15573001 0.30546001 -1.3069
-0.15366 0.30495 -1.3076
-0.18731 0.30623001 -1.3073
-0.18514 0.30603999 -1.3065
-0.17251 0.30601001 -1.3063
-0.16622999 0.30737999 -1.3063999
-0.16416 0.30688 -1.30715
-0.15366 0.30623999 -1.3073
-0.15155999 0.30756 -1.3071001
-0.14737 0.30759999 -1.3073
-0.13479 0.30770001 -1.3078001
-0.19795001 0.30908 -1.3078001
-0.19585 0.30912 -1.308
-0.1936 0.3087 -1.3062
-0.17467 0.30878001 -1.3066
-0.16413 0.3087 -1.3062
-0.15575001 0.30880001 -1.3066
-0.15366 0.30882001 -1.3067
-0.15161 0.30906999 -1.3078001
-0.14947 0.30886999 -1.3069
-0.14741001 0.30912 -1.308
-0.13686 0.30875 -1.3063999
-0.19795001 0.31158999 -1.3072
-0.19577 0.31016001 -1.3067
-0.18522 0.31136 -1.3062
-0.17467 0.31005999 -1.3063
-0.15575001 0.31007001 -1.3063
-0.151585 0.31085497 -1.30685
-0.14112 0.31044999 -1.3079
-0.13900501 0.31097001 -1.3073499
-0.13692001 0.31172001 -1.3078001
-0.1327 0.31028 -1.3072
-0.20014 0.31301001 -1.3077
-0.19803999 0.31305 -1.3079
-0.19375999 0.31290001 -1.3073
-0.14737 0.31263 -1.3061
-0.13480499 0.31345499 -1.3069
-0.1327 0.31395 -1.3063
-0.20005 0.31518999 -1.3062
-0.19795001 0.31402001 -1.3066
-0.1601 0.31560001 -1.3079
-0.14955001 0.31428 -1.3077
-0.14535999 0.31432 -1.3079
-0.13482 0.31538001 -1.307
-0.1327 0.31516001 -1.3061
-0.13060001 0.31518 -1.3061
-0.12853 0.31542 -1.3071001
-0.1875 0.31737 -1.3072
-0.18536 0.31788999 -1.3067
-0.16215 0.31777 -1.3062
-0.16005 0.31659001 -1.3066
-0.13692001 0.31779 -1.3063
-0.14116 0.31917 -1.3069
-0.16436 0.32054001 -1.3075
-0.20241 0.32339501 -1.30705
-0.12854999 0.32374999 -1.3061
-0.20241 0.32734001 -1.3061
-0.12859499 0.32695001 -1.3069
-0.12862 0.33126 -1.30685
-0.20258 0.33341998 -1.3066
-0.12865999 0.33320001 -1.3079
-0.12869 0.33743 -1.3078001
-0.205715 0.374805 -1.30705
-0.12893501 0.37492502 -1.3074501
-0.185 0.30041999 -1.3056999
-0.18283001 0.30158001 -1.3046
-0.17239 0.30173999 -1.3053
-0.18291 0.30306 -1.3053
-0.18506999 0.30452001 -1.3058
-0.18291 0.30562001 -1.3047
-0.18081 0.30565 -1.3048
-0.17036 0.30581 -1.3055
-0.1682 0.30561 -1.3046
-0.16610999 0.30564001 -1.3048
-0.15978999 0.30548999 -1.3041
-0.1577 0.30551001 -1.3042001
-0.19134 0.30699 -1.3047
-0.18716 0.30706 -1.3049999
-0.18506999 0.3071 -1.3052
-0.18291 0.30691001 -1.3044
-0.18081 0.30693999 -1.3045
-0.17872 0.30697 -1.3047
-0.17663001 0.30700001 -1.3048
-0.17454 0.30704001 -1.3049001
-0.17239 0.30684 -1.3041
-0.17030001 0.30687001 -1.3042001
-0.16825999 0.30713001 -1.3053
-0.16192999 0.30698001 -1.3047
-0.15989 0.30723 -1.3058
-0.15571 0.30728 -1.306
-0.19351999 0.30974001 -1.3049001
-0.19137999 0.30903 -1.30475
-0.18925001 0.30959001 -1.3043
-0.18716 0.30898499 -1.3045499
-0.185105 0.30914 -1.30525
-0.18298 0.309055 -1.30485
-0.18088 0.309095 -1.30505
-0.17879 0.30912501 -1.30515
-0.1767 0.30915499 -1.3053501
-0.17245001 0.30963001 -1.3045
-0.17036 0.30901998 -1.30475
-0.16828999 0.30915999 -1.3053501
-0.16617 0.30844 -1.3051
-0.15986499 0.30904001 -1.30485
-0.1578 0.30982 -1.3053
-0.15361001 0.30987 -1.3055
-0.14938 0.30968001 -1.3047
-0.14733 0.30993 -1.3056999
-0.1452 0.30972001 -1.3048
-0.14309999 0.30974001 -1.3049001
-0.19351999 0.31097999 -1.3046
-0.18716 0.31086001 -1.3041
-0.1767 0.31103 -1.3049001
-0.17036 0.31088999 -1.3043
-0.16825999 0.31092 -1.3044
-0.16617 0.31095001 -1.3045
-0.15989 0.31103 -1.3049001
-0.15571 0.31108001 -1.3051
-0.15361001 0.31110001 -1.3052
-0.14941999 0.31115001 -1.3054
-0.14733 0.31117001 -1.3054
-0.14309999 0.31097001 -1.3046
-0.14105 0.31121999 -1.3056999
-0.19561 0.31215999 -1.3042001
-0.19351999 0.3134 -1.3041
-0.17251 0.31352001 -1.3046
-0.17042001 0.31355 -1.3047
-0.16832 0.31237999 -1.3051
-0.15571 0.31351 -1.3045
-0.15361001 0.31292999 -1.30475
-0.15154 0.31306499 -1.3053
-0.14947 0.31261 -1.306
-0.14737 0.31382999 -1.3058
-0.1452 0.31218001 -1.3043
-0.14309999 0.31279999 -1.3041999
-0.14101 0.31282002 -1.30425
-0.13891999 0.31224 -1.3045
-0.13684 0.31297499 -1.3048999
-0.18514 0.31597999 -1.3041
-0.17042001 0.31476 -1.3044
-0.13895001 0.31488001 -1.3049001
-0.13688999 0.31513 -1.3059
-0.20005 0.31701499 -1.30575
-0.19787 0.31621999 -1.3051
-0.1936 0.31606001 -1.3044
-0.18948001 0.31698 -1.30555
-0.18319 0.31769001 -1.3059
-0.16413 0.31727001 -1.3042001
-0.16 0.31755999 -1.3053
-0.15785 0.31735 -1.3045
-0.14735 0.31674001 -1.3046499
-0.14314 0.31727001 -1.3041
-0.14108001 0.31751999 -1.3052
-0.13897 0.31682 -1.30495
-0.13479 0.31637001 -1.3056999
-0.13268501 0.316865 -1.30515
-0.130585 0.31688499 -1.3052
-0.20005 0.31936499 -1.30515
-0.17467 0.31852999 -1.3042001
-0.15785 0.31852001 -1.3042001
-0.15366 0.31972 -1.3041
-0.15155999 0.31858999 -1.3045
-0.13686 0.31849 -1.3041
-0.13056999 0.31852999 -1.3043
-0.20005 0.32106 -1.3047
-0.1285 0.32106 -1.3047
-0.18319 0.32335001 -1.3045
-0.14741001 0.32225001 -1.3048
-0.1327 0.32269001 -1.3041999
-0.13060001 0.32271001 -1.30425
-0.12853 0.32240999 -1.3054
-0.20223001 0.32574001 -1.3044
-0.12853 0.32793 -1.3041
-0.20241 0.32938001 -1.3056
-0.12854999 0.32918 -1.3048
-0.12858 0.3335 -1.3047
-0.12884 0.37395999 -1.3041
-0.12888332 0.37439999 -1.3056999
-0.18918 0.30680001 -1.3039
-0.18918 0.30807999 -1.3036
-0.17239 0.30812001 -1.3038
-0.16606 0.30925 -1.3029
-0.16396999 0.30928001 -1.303
-0.16181999 0.30908 -1.3020999
-0.1577 0.30809 -1.3036
-0.19553 0.31071001 -1.3035001
-0.19134 0.31077999 -1.3038
-0.18925001 0.31082001 -1.304
-0.18283001 0.31108001 -1.30235
-0.180775 0.31123 -1.303
-0.17239 0.31062999 -1.3032
-0.17030001 0.31189001 -1.303
-0.16610999 0.31194001 -1.3033
-0.16402 0.31197 -1.3034
-0.16396999 0.31051001 -1.3027
-0.16192999 0.31077 -1.3038
-0.15978999 0.31178999 -1.3026
-0.15775 0.31082001 -1.304
-0.14515001 0.31072 -1.3036
-0.19561 0.31336001 -1.3039
-0.191305 0.31249499 -1.3029001
-0.18925001 0.31265002 -1.30355
-0.187125 0.312565 -1.3032501
-0.18506999 0.31272 -1.3038499
-0.18081 0.31316 -1.303
-0.17872 0.31319001 -1.3032
-0.17663001 0.31202 -1.3036
-0.17454 0.31325999 -1.3035001
-0.1682 0.31312001 -1.3029
-0.16192999 0.31200001 -1.3035001
-0.15978999 0.31299001 -1.3023
-0.15775 0.31265002 -1.30355
-0.15566 0.31207001 -1.3038
-0.19769999 0.31452999 -1.3034
-0.19561 0.31518 -1.30345
-0.19351999 0.31461 -1.3038
-0.19134 0.31562999 -1.3027
-0.18918 0.31422001 -1.3022
-0.18708999 0.31426001 -1.3023
-0.18291 0.31494001 -1.3024499
-0.17448001 0.31423 -1.3022
-0.17239 0.31426001 -1.3023
-0.17030001 0.31551 -1.3022
-0.157775 0.31518501 -1.30345
-0.15566 0.31448001 -1.3032
-0.15143 0.31551 -1.3022
-0.14938 0.31455001 -1.3035001
-0.1452 0.3152 -1.30355
-0.14309999 0.31522 -1.30365
-0.14101 0.31524 -1.30365
-0.19779 0.31718999 -1.3038
-0.19561 0.31698999 -1.303
-0.19351999 0.31703001 -1.3032
-0.19142 0.31707001 -1.3033
-0.17879 0.31705001 -1.3033
-0.17454 0.31687999 -1.3026
-0.17036 0.31694999 -1.3028001
-0.16617 0.31700999 -1.3031
-0.15571 0.31714001 -1.3036
-0.15152 0.31718001 -1.3038
-0.1452 0.31700999 -1.3031
-0.13473 0.31709999 -1.3035001
-0.19779 0.31836 -1.3035001
-0.19561 0.318735 -1.3026
-0.19351999 0.31819999 -1.3029
-0.19142 0.31823999 -1.3031
-0.18305001 0.31839001 -1.3037
-0.17879 0.318795 -1.30285
-0.17460001 0.31944001 -1.303
-0.17245001 0.31808001 -1.3024
-0.17036 0.31810999 -1.3025
-0.16825999 0.31814 -1.3027
-0.1662 0.318865 -1.3031501
-0.16407999 0.31819999 -1.3029
-0.15984 0.31801999 -1.3022
-0.15568501 0.31876498 -1.3027
-0.15361001 0.31832999 -1.3034
-0.14729001 0.31816 -1.3027
-0.1452 0.31817999 -1.3028001
-0.14314 0.31843999 -1.3039
-0.14101 0.31937 -1.3027
-0.138935 0.31893 -1.3034
-0.13682 0.31940001 -1.3028001
-0.13471499 0.31872499 -1.30255
-0.132625 0.31874502 -1.30265
-0.13056999 0.31968999 -1.304
-0.19988 0.32168999 -1.3025
-0.19787 0.32086 -1.3039
-0.19569001 0.32067001 -1.3031
-0.18731 0.32192999 -1.3035001
-0.18514 0.32172999 -1.3027
-0.18298 0.32042 -1.3020999
-0.17879 0.32104498 -1.3023
-0.17460001 0.32056001 -1.3027
-0.15989 0.32052001 -1.3026
-0.1578 0.32166001 -1.3024
-0.13891999 0.32049999 -1.3025
-0.13684 0.32119501 -1.3029001
-0.13476001 0.32133001 -1.30345
-0.13267 0.32078999 -1.3037
-0.13054 0.32056999 -1.3027
-0.19988 0.32279 -1.3023
-0.18095 0.3229 -1.3027
-0.17893 0.32317999 -1.3038
-0.1578 0.32275999 -1.3020999
-0.14523999 0.32401001 -1.3024
-0.13267 0.32411999 -1.3028001
-0.13056999 0.32471001 -1.30275
-0.12848 0.32415 -1.3029
-0.14318 0.32653999 -1.3029
-0.13899 0.32657999 -1.303
-0.13479 0.32661 -1.3032
-0.1327 0.32663 -1.3032
-0.130585 0.32703501 -1.3027
-0.18102001 0.32857001 -1.3023
-0.12854999 0.33519 -1.3032
-0.20231999 0.33614001 -1.3028001
-0.20258 0.34817001 -1.3027
-0.2054 0.37384999 -1.3037
-0.12880501 0.37354499 -1.30265
-0.16177 0.30757999 -1.3015
-0.17859 0.31091499 -1.30165
-0.17434999 0.31014001 -1.3011
-0.17231999 0.31162 -1.3019
-0.18283001 0.31288999 -1.3019
-0.17649999 0.31276 -1.3013999
-0.16809 0.31384999 -1.3006001
-0.16599999 0.31268001 -1.301
-0.16385999 0.31246999 -1.3002
-0.16177 0.3125 -1.3003
-0.15133999 0.31382 -1.3005
-0.14715999 0.31387001 -1.3006999
-0.13880999 0.31274 -1.3013
-0.18492 0.31406 -1.3015
-0.17866001 0.31417 -1.3019
-0.16814999 0.31529999 -1.3013
-0.16606 0.31533 -1.3013999
-0.16391 0.31513 -1.3006001
-0.16188 0.31538999 -1.3016
-0.15561 0.31546 -1.302
-0.15342 0.31501999 -1.3001
-0.14929 0.31529999 -1.3013
-0.18918 0.31781 -1.3013
-0.18701001 0.31761 -1.3005
-0.18066999 0.31630999 -1.3002
-0.17231999 0.31643999 -1.3008
-0.1682 0.31674001 -1.302
-0.16192999 0.31799001 -1.302
-0.15352 0.31669 -1.3018
-0.149315 0.31720001 -1.30135
-0.19762 0.31902999 -1.3013
-0.19336 0.31887999 -1.3006999
-0.18283001 0.31883001 -1.3005
-0.18074 0.31998 -1.3004
-0.17023 0.31878999 -1.3003
-0.16814999 0.31882 -1.3004
-0.15978999 0.31893 -1.3009
-0.15775 0.31920001 -1.302
-0.15143 0.31902999 -1.3013
-0.149315 0.31949002 -1.30075
-0.1472 0.31939 -1.30035
-0.14511 0.319415 -1.3004501
-0.14306 0.31911001 -1.3016
-0.19762 0.32126001 -1.3008
-0.189215 0.32074499 -1.3010499
-0.18708999 0.32010999 -1.3009
-0.185 0.32014999 -1.301
-0.18298 0.32153001 -1.3019
-0.17663001 0.32139 -1.3013
-0.17454 0.32143 -1.3015
-0.16402 0.32023001 -1.3013999
-0.15984 0.32139 -1.3013
-0.15352 0.32012001 -1.3009
-0.14304501 0.320665 -1.30075
-0.14094 0.32056499 -1.30035
-0.13888 0.32137001 -1.3012
-0.19979 0.32367 -1.301
-0.19762 0.32235 -1.3005
-0.19553 0.3224 -1.3006999
-0.19134 0.323035 -1.3008499
-0.18716 0.32255 -1.3013
-0.18506999 0.32258999 -1.3015
-0.1767 0.32273 -1.302
-0.17454 0.32253 -1.3012
-0.17245001 0.32256001 -1.3013
-0.17030001 0.322905 -1.30035
-0.1682 0.32238001 -1.3006001
-0.14729001 0.32262999 -1.3016
-0.1452 0.32266 -1.3017
-0.14308 0.32311499 -1.3011501
-0.14097001 0.32301003 -1.30075
-0.13679001 0.32249001 -1.301
-0.13467 0.32225999 -1.3001
-0.19979 0.32482001 -1.3006999
-0.19553 0.32466999 -1.3001
-0.1452 0.32493001 -1.3011
-0.14097001 0.32583001 -1.3001
-0.13888 0.32473999 -1.3004
-0.1347 0.32477999 -1.3005
-0.13264 0.32503 -1.3016
-0.19979 0.32696 -1.3002
-0.19351999 0.32605001 -1.301
-0.14523999 0.32628 -1.3018
-0.13473 0.32714999 -1.301
-0.13267 0.32741001 -1.302
-0.15989 0.32815 -1.3006999
-0.13682 0.32815 -1.3006999
-0.13264 0.32817999 -1.3008
-0.13054 0.32914999 -1.3006001
-0.13054 0.33120999 -1.3001
-0.14941999 0.33232 -1.3001
-0.1285 0.33372 -1.3016
-0.20219001 0.33906502 -1.3004999
-0.1285 0.33853 -1.3003
-0.20231999 0.341185 -1.3015
-0.12854999 0.34586 -1.3005
-0.20241 0.34687001 -1.301
-0.12861 0.35374999 -1.3004
-0.20266999 0.35694 -1.3013999
-0.12875 0.37097001 -1.3013
-0.12874667 0.37288332 -1.3006001
-0.1575 0.30588001 -1.3
-0.17422 0.31088999 -1.2989
-0.19103 0.31347999 -1.2991
-0.16594 0.31365001 -1.2998
-0.16385999 0.31367999 -1.2999001
-0.16177 0.31369999 -1.3
-0.15338001 0.31356999 -1.2994
-0.18478 0.31716999 -1.2987
-0.17643 0.31614 -1.2995
-0.19119 0.31867999 -1.2999001
-0.16802999 0.31946 -1.2982
-0.16177 0.31843001 -1.2989
-0.1576 0.31959 -1.2988
-0.15556 0.31986001 -1.2999001
-0.15133999 0.31966999 -1.2991
-0.19544999 0.32106 -1.3
-0.18066999 0.32085001 -1.2991
-0.17226 0.32074001 -1.2987
-0.17016999 0.32077 -1.2988
-0.15556 0.32097 -1.2996
-0.15342 0.32075 -1.2987
-0.15133999 0.32132 -1.29865
-0.14929 0.32104 -1.2999001
-0.14511 0.32108 -1.3
-0.19753 0.32323 -1.2993
-0.19544999 0.32326999 -1.2994
-0.19336 0.32330999 -1.2996
-0.1891 0.32203999 -1.2992001
-0.18276 0.32302001 -1.2984
-0.18066999 0.32306001 -1.2986
-0.17859 0.32308999 -1.2987
-0.17649999 0.32313001 -1.2988
-0.17441 0.32315999 -1.299
-0.17231999 0.32319 -1.2991
-0.16599999 0.32304001 -1.2984999
-0.16188 0.32334 -1.2997
-0.15976501 0.32269001 -1.29945
-0.14929 0.32212999 -1.2996
-0.14715999 0.32302999 -1.2984
-0.13885 0.32279003 -1.29985
-0.13672 0.32312 -1.2988
-0.13467 0.32337999 -1.2999001
-0.19971 0.32569 -1.2995
-0.19762 0.32517499 -1.2998
-0.19336 0.32447001 -1.2993
-0.19126999 0.32506001 -1.29935
-0.1891 0.324855 -1.2985001
-0.18276 0.32418001 -1.2981
-0.18066999 0.32420999 -1.2983
-0.17649999 0.32483 -1.29845
-0.17441 0.32541999 -1.2984
-0.16185001 0.32492501 -1.2988
-0.15976501 0.32494998 -1.2988501
-0.1577 0.32565001 -1.2993
-0.15556 0.32488 -1.29865
-0.15346999 0.32490498 -1.2987499
-0.15138 0.32438001 -1.2989
-0.14929 0.32440001 -1.299
-0.14303 0.32446 -1.2993
-0.14094 0.32448 -1.2994
-0.13672 0.32483 -1.2983999
-0.19979 0.32796001 -1.2999001
-0.19762 0.32776001 -1.2991
-0.19126999 0.32765001 -1.2987
-0.18925001 0.32692 -1.3
-0.16396999 0.3276 -1.2984999
-0.16192999 0.32788 -1.2996
-0.15764999 0.32644001 -1.2981
-0.13676 0.32664999 -1.299
-0.1347 0.32791999 -1.2997
-0.13052 0.32795 -1.2999001
-0.19336 0.32857001 -1.2983
-0.19126999 0.32861 -1.2984
-0.18925001 0.32988 -1.2993
-0.17239 0.32868999 -1.2988
-0.15978999 0.32861999 -1.2984999
-0.15775 0.32889 -1.2996
-0.13679001 0.32886001 -1.2994
-0.13260999 0.32889 -1.2996
-0.19348 0.331505 -1.2990501
-0.19134 0.33194 -1.2986
-0.18918 0.33070001 -1.2981
-0.18708999 0.33074 -1.2982
-0.18506999 0.33102 -1.2993
-0.14725 0.33184999 -1.2983
-0.13260999 0.33197999 -1.2988
-0.19979 0.33296999 -1.2987
-0.1767 0.33316001 -1.2994
-0.15152 0.33230001 -1.3
-0.14938 0.33304 -1.2989
-0.13264 0.33318999 -1.2995
-0.13053334 0.33312666 -1.2992333
-0.19988 0.33419001 -1.2994
-0.20197 0.33706 -1.2984
-0.12845001 0.33711001 -1.2986
-0.12845001 0.33893001 -1.2981
-0.1285 0.340725 -1.2997
-0.12849 0.34318 -1.29855
-0.20223001 0.34474999 -1.2995
-0.20241 0.35668001 -1.2984
-0.1287 0.37244499 -1.2988
-0.17623 0.31303 -1.2972
-0.17838 0.31444001 -1.2977
-0.17422 0.31450999 -1.298
-0.17201 0.31406999 -1.2962
-0.18463001 0.31784001 -1.2965
-0.18054 0.317 -1.298
-0.19312 0.31928 -1.2975
-0.18887 0.31801 -1.2970999
-0.18679 0.31804001 -1.2973
-0.17213 0.31916001 -1.2970001
-0.17005 0.31919 -1.2970999
-0.19312 0.32148001 -1.2970001
-0.19095001 0.32018 -1.2964
-0.16171999 0.3215 -1.2970999
-0.15546 0.32157999 -1.2974
-0.15338001 0.32161 -1.2975
-0.18901999 0.32291001 -1.298
-0.18686 0.32328498 -1.29705
-0.18478 0.32332 -1.29715
-0.17851999 0.324 -1.2974
-0.17428 0.32383001 -1.2967
-0.17219999 0.32385999 -1.2969
-0.16802999 0.32277 -1.2974
-0.16587999 0.32370999 -1.2963001
-0.16383 0.32328498 -1.29705
-0.15546 0.32269001 -1.2970999
-0.15333 0.32247999 -1.2962
-0.15129 0.32273999 -1.2973
-0.14921001 0.32275999 -1.2974
-0.14712 0.32394001 -1.2972
-0.19536 0.32528999 -1.2979
-0.18686 0.32495999 -1.2966
-0.18478 0.32499999 -1.2967
-0.18061 0.32506999 -1.2970001
-0.17851999 0.32510999 -1.2972
-0.17226 0.32521001 -1.2976
-0.16594 0.32506001 -1.2970001
-0.16385999 0.32508001 -1.2970999
-0.15546 0.32596999 -1.2963001
-0.15129 0.32499999 -1.2967
-0.14925 0.32526001 -1.2977999
-0.14712 0.32504001 -1.2969
-0.19736999 0.32602999 -1.2965
-0.19536 0.32732001 -1.2974
-0.19328 0.32736 -1.2975
-0.19119 0.32639 -1.298
-0.18901999 0.3272 -1.2969
-0.18694 0.32622999 -1.2973
-0.18485001 0.32677001 -1.2973499
-0.18061 0.32609999 -1.2968
-0.17851999 0.32613 -1.2969
-0.176465 0.32679498 -1.2974499
-0.17434999 0.32620001 -1.2972
-0.17223001 0.32661 -1.2967
-0.17011 0.326525 -1.29635
-0.16802999 0.32655501 -1.29645
-0.16594 0.32607999 -1.2967
-0.16391 0.32635 -1.2977999
-0.16181999 0.32638001 -1.2979
-0.15974 0.32641 -1.298
-0.15338001 0.32600001 -1.2964
-0.15129 0.32703 -1.2962
-0.14923 0.32666498 -1.29695
-0.14714 0.32669002 -1.2969999
-0.14507 0.32633001 -1.2977
-0.14298999 0.32635 -1.2977999
-0.14086001 0.32712999 -1.2966
-0.13878 0.32664499 -1.29685
-0.19961999 0.32893503 -1.29765
-0.19749001 0.32885501 -1.2973
-0.19536 0.32828 -1.2970999
-0.19336 0.32956001 -1.298
-0.19111 0.32911 -1.2962
-0.17649999 0.32936999 -1.2973
-0.17231999 0.32943001 -1.2975
-0.17023 0.32848001 -1.2979
-0.16809 0.32875502 -1.29695
-0.15764999 0.32938999 -1.2974
-0.14925 0.32824999 -1.2970001
-0.14717999 0.328895 -1.2974499
-0.14295 0.32807001 -1.2963001
-0.14086001 0.328585 -1.29625
-0.13878 0.32811001 -1.2965
-0.13672 0.32936001 -1.2973
-0.1346 0.32863498 -1.29645
-0.13252001 0.32914999 -1.2964
-0.13043 0.32916 -1.2965
-0.19958 0.33087999 -1.2966501
-0.19749001 0.33092499 -1.2967499
-0.19544999 0.33109498 -1.2974501
-0.18492 0.33155999 -1.2970999
-0.18276 0.33135 -1.2963001
-0.16391 0.33140001 -1.2965
-0.15974 0.33043 -1.2970001
-0.15764999 0.33045 -1.2970999
-0.15342 0.33129001 -1.2961
-0.14925 0.3303 -1.2965
-0.14715999 0.33033001 -1.2966
-0.14298999 0.33037001 -1.2968
-0.13880999 0.33144 -1.2967
-0.13672 0.33144999 -1.2967
-0.13462 0.33083001 -1.29645
-0.13255 0.33046001 -1.2970999
-0.197575 0.33313 -1.2973
-0.19549 0.333175 -1.2974
-0.19328 0.33236 -1.2963001
-0.18074 0.3326 -1.2972
-0.17866001 0.33263001 -1.2973
-0.17657 0.33364001 -1.2972
-0.16599999 0.33232999 -1.2962
-0.15346999 0.332975 -1.2966499
-0.15140501 0.33313 -1.29725
-0.14934 0.33375999 -1.2977
-0.14507 0.33234 -1.2962
-0.1409 0.332865 -1.2962
-0.13880999 0.33239999 -1.2964
-0.134655 0.33304 -1.2969
-0.13258 0.33366001 -1.2973
-0.20189001 0.33587 -1.2977
-0.19971 0.33469 -1.2972
-0.14725 0.33575001 -1.2973
-0.14094 0.33557001 -1.2965
-0.13255 0.33441001 -1.2961
-0.13049001 0.33467001 -1.2970999
-0.1577 0.33748999 -1.2963001
-0.13676 0.33746001 -1.2962
-0.132595 0.337165 -1.2969
-0.16192999 0.33945999 -1.2966
-0.20197 0.34143001 -1.2973
-0.12842 0.34121999 -1.2965
-0.20206 0.34301001 -1.2979
-0.13052 0.34209999 -1.2962
-0.20206 0.34503999 -1.2974
-0.19988 0.34562999 -1.2964
-0.12845001 0.34482998 -1.2966
-0.202105 0.34863999 -1.29695
-0.20215 0.35067001 -1.2969
-0.1285 0.35335001 -1.2964
-0.20241 0.36469999 -1.2961
-0.12861 0.36669001 -1.2968
-0.12863 0.37173665 -1.2964
-0.12865999 0.37202999 -1.2974
-0.18026 0.31369999 -1.2947
-0.17617001 0.31400999 -1.2959
-0.18032999 0.31744 -1.2948
-0.1761 0.31613001 -1.2944
-0.19295 0.31990999 -1.2953
-0.16574 0.31920499 -1.2948
-0.16362999 0.31966001 -1.2943
-0.16790999 0.32009 -1.296
-0.16583 0.32121 -1.2959
-0.16369 0.32100001 -1.295
-0.17005 0.32365 -1.296
-0.16790999 0.32343999 -1.2952
-0.1575 0.32300502 -1.29585
-0.19512001 0.32558 -1.2947
-0.19303 0.32562 -1.2948999
-0.18262 0.32530499 -1.2958
-0.17005 0.32475001 -1.2958
-0.16797 0.32477999 -1.2959
-0.15125 0.32578 -1.2955
-0.14083 0.32587999 -1.2959
-0.18895 0.32791001 -1.2957
-0.18679 0.32675001 -1.2951
-0.18463001 0.32749999 -1.2941
-0.18262 0.32681999 -1.2954
-0.18054 0.32782 -1.2953
-0.17845 0.32688999 -1.2957
-0.1763 0.32764 -1.2946
-0.17422 0.3272 -1.2948999
-0.16587999 0.32732001 -1.2953501
-0.16373999 0.32758999 -1.2944
-0.16166 0.32760999 -1.2945
-0.15755001 0.32695001 -1.2959
-0.155435 0.327335 -1.2954
-0.15338001 0.32796001 -1.2959
-0.15129 0.32799 -1.296
-0.14499 0.32732999 -1.2954
-0.14291 0.32686999 -1.2956001
-0.1952 0.32878 -1.295
-0.18679 0.32868999 -1.2946
-0.18054 0.32881001 -1.2951
-0.17636999 0.32993999 -1.2951
-0.17011 0.32896999 -1.2957
-0.1638 0.32988 -1.2948
-0.16166 0.32859999 -1.2943
-0.15963 0.32887 -1.2953
-0.15546 0.32946 -1.2954
-0.15333 0.32975999 -1.2944
-0.15125 0.32979 -1.2945
-0.14916 0.32875001 -1.2948
-0.14503001 0.32903999 -1.296
-0.14291 0.32881999 -1.2951
-0.13874 0.32938001 -1.2951
-0.19111 0.33017001 -1.296
-0.18901999 0.33124 -1.2959
-0.18694 0.33127999 -1.296
-0.18061 0.33114001 -1.2955
-0.17223001 0.33064002 -1.29565
-0.16802999 0.33006999 -1.2956001
-0.16797 0.33085001 -1.2943
-0.16587999 0.33087999 -1.2945
-0.1638 0.33186999 -1.2943
-0.16177 0.33015001 -1.2959
-0.14503001 0.33061498 -1.2955999
-0.14295 0.33115 -1.2955
-0.14086001 0.33065498 -1.29575
-0.136675 0.33104998 -1.2952499
-0.19312 0.33283001 -1.2941
-0.19111 0.33216 -1.2955
-0.17219999 0.33395001 -1.2943
-0.16802999 0.33205 -1.2951
-0.16594 0.33305001 -1.2948999
-0.15755001 0.333415 -1.2943
-0.15546 0.33294001 -1.2945
-0.15338001 0.33396 -1.2944
-0.14712 0.33206999 -1.2951
-0.14503001 0.33306 -1.295
-0.14297 0.33271998 -1.29565
-0.13878 0.33311999 -1.2952
-0.13669001 0.33313 -1.2953
-0.19954 0.33517 -1.295
-0.19745 0.33423999 -1.2954
-0.19320001 0.33504999 -1.2945
-0.19111 0.33509001 -1.2947
-0.17219999 0.33491999 -1.2941
-0.17011 0.33496001 -1.2941999
-0.15550999 0.33467001 -1.2951
-0.15342 0.33518001 -1.2951
-0.15133999 0.33472002 -1.2953
-0.14925 0.33522999 -1.2953
-0.14712 0.33594 -1.2941
-0.14505 0.33561999 -1.2948
-0.14297 0.33564001 -1.2948999
-0.14086001 0.33504498 -1.29465
-0.13879499 0.33472002 -1.2952499
-0.13670501 0.33473998 -1.29535
-0.13463999 0.33487999 -1.2959
-0.13252001 0.33513001 -1.2948999
-0.13043 0.33515 -1.2948999
-0.12834001 0.33515999 -1.295
-0.19961999 0.33728001 -1.2955
-0.19745 0.33706999 -1.2947
-0.19111 0.33603001 -1.2945
-0.18901999 0.33607 -1.2946
-0.15970999 0.33662999 -1.29485
-0.13672 0.33629 -1.2955
-0.13463999 0.33631 -1.2955
-0.13252001 0.33789 -1.2941999
-0.13043 0.33790001 -1.2941999
-0.199665 0.33873999 -1.29565
-0.19753 0.33822 -1.2954
-0.16188 0.33834001 -1.2959
-0.15976501 0.33867502 -1.2953999
-0.157675 0.338705 -1.2955
-0.15133999 0.33884001 -1.2941999
-0.13255 0.33902001 -1.2948999
-0.13045999 0.33944499 -1.29485
-0.16606 0.34171 -1.2947
-0.13674 0.34035498 -1.2948999
-0.134655 0.34037501 -1.2950001
-0.13256998 0.34086666 -1.2950667
-0.13049001 0.34095001 -1.2955
-0.16192999 0.34202999 -1.2959
-0.13049001 0.34270999 -1.295
-0.16606 0.34417 -1.2941
-0.128435 0.34667 -1.2955999
-0.12842 0.34841001 -1.2946
-0.12848 0.35179999 -1.2957
-0.20197 0.35346001 -1.2941
-0.20215 0.35984001 -1.2944
-0.20215 0.36036 -1.2941999
-0.1285 0.36041 -1.2944
-0.12854999 0.36820999 -1.2943
-0.12859499 0.37133998 -1.29495
-0.19064 0.31812999 -1.2927999
-0.16147 0.31878 -1.2931499
-0.18663999 0.32721999 -1.2929
-0.1824 0.32705 -1.2923
-0.15319 0.32602999 -1.2923
-0.18456 0.32824001 -1.2927999
-0.18248001 0.32934001 -1.2927001
-0.18047 0.32962 -1.2938
-0.178315 0.32888502 -1.2931499
-0.16999 0.32954001 -1.2934999
-0.16583 0.32854 -1.294
-0.16369 0.32833001 -1.2932
-0.15328 0.32846001 -1.2937
-0.1512 0.32848001 -1.2938
-0.18887 0.3317 -1.2937
-0.18671 0.33149001 -1.2929
-0.18463001 0.33153 -1.293
-0.18255 0.33157 -1.2932
-0.1763 0.33072001 -1.2938
-0.17422 0.33171001 -1.2937
-0.17213 0.33173999 -1.2939
-0.16993 0.33032 -1.2923
-0.16166 0.33069 -1.2937
-0.15541001 0.33173001 -1.2938
-0.1952 0.33377999 -1.2937
-0.19312 0.33383 -1.2938
-0.18878999 0.33241999 -1.2925
-0.18054 0.33282 -1.294
-0.17832001 0.33236 -1.2922
-0.1763 0.33363 -1.2931
-0.17415 0.33292502 -1.2924
-0.17207 0.33245999 -1.2926
-0.16999 0.33298498 -1.29265
-0.16793999 0.33314002 -1.2932501
-0.16583 0.33355001 -1.2927999
-0.16373999 0.33258 -1.2931
-0.16163501 0.33298001 -1.29265
-0.15953 0.33288503 -1.2922499
-0.14916 0.33375999 -1.2936
-0.14706001 0.33315998 -1.2933
-0.14495 0.33355001 -1.2927999
-0.14286999 0.33357 -1.2927999
-0.19945 0.33586001 -1.2938
-0.1972 0.33445999 -1.2923
-0.19512001 0.33451 -1.2925
-0.19303 0.33548999 -1.2924
-0.18895 0.33487999 -1.2939
-0.18679 0.33513999 -1.2929499
-0.18463001 0.33445999 -1.2923
-0.1763 0.33460999 -1.2927999
-0.17005 0.33564001 -1.293
-0.16797 0.33521003 -1.2932
-0.16587999 0.33524001 -1.29335
-0.1638 0.33574 -1.2933
-0.16166 0.33504498 -1.2926
-0.15958001 0.33460999 -1.2927999
-0.157525 0.33522499 -1.2933
-0.15541001 0.33559 -1.2927999
-0.15333 0.33561999 -1.2929
-0.15125 0.33564001 -1.293
-0.14921001 0.33592001 -1.294
-0.13874 0.33577001 -1.2934999
-0.1304 0.33583999 -1.2937
-0.1952 0.33750999 -1.2927001
-0.18887 0.33693498 -1.2923501
-0.18679 0.33653 -1.2926
-0.17845 0.33668 -1.2932
-0.17633501 0.337035 -1.2927001
-0.17422 0.336945 -1.2924
-0.16797 0.33660001 -1.2929
-0.16587999 0.337075 -1.29285
-0.1638 0.33666 -1.2931
-0.16166 0.33643001 -1.2922
-0.15541001 0.33651 -1.2926
-0.1471 0.337185 -1.2932999
-0.14499 0.33708 -1.2929
-0.14291 0.33710003 -1.2929499
-0.14083 0.33712 -1.2930501
-0.13874 0.33669001 -1.2932
-0.13665999 0.33759999 -1.2931
-0.13457 0.33717501 -1.2932501
-0.1304 0.33676001 -1.2934999
-0.19954 0.33961999 -1.2939
-0.19736999 0.33941001 -1.2931
-0.1952 0.33919999 -1.2923
-0.19103 0.33847001 -1.2927999
-0.16797 0.33836001 -1.2924
-0.15755001 0.33932999 -1.2927001
-0.155485 0.339075 -1.2934
-0.153375 0.33897501 -1.2930501
-0.15133999 0.33965999 -1.294
-0.14916 0.33877 -1.2923
-0.14708 0.33838001 -1.2925
-0.14083 0.33844 -1.2927001
-0.13878 0.33952999 -1.2934999
-0.13665999 0.33848 -1.2927999
-0.13457 0.33849001 -1.2929
-0.19954 0.34046 -1.2936
-0.19316 0.34066001 -1.29255
-0.19103 0.34057498 -1.2922499
-0.18694 0.34046999 -1.2936
-0.16587999 0.34006 -1.2921
-0.16385999 0.34123001 -1.2929
-0.16177 0.34037 -1.2933
-0.14500999 0.340635 -1.29245
-0.13874 0.34011999 -1.2923
-0.19958 0.34354001 -1.2933
-0.19111 0.34292999 -1.2927001
-0.18701001 0.34327 -1.2939
-0.16594 0.34286001 -1.2924
-0.15129 0.34200001 -1.2924
-0.19954 0.34538999 -1.2923
-0.13879499 0.34504002 -1.2925999
-0.1346 0.34455001 -1.2923
-0.13252001 0.34457001 -1.2924
-0.13043 0.34459001 -1.2925
-0.2018 0.34661999 -1.2939
-0.19954 0.34615001 -1.2921
-0.2018 0.34886 -1.2933
-0.14515001 0.35176 -1.2931
-0.14303 0.35152 -1.2922
-0.1284 0.35038999 -1.293
-0.2018 0.35225999 -1.2923
-0.12842 0.35324001 -1.2933
-0.20189001 0.35688001 -1.2921
-0.12842 0.35631999 -1.2924
-0.20206 0.35907 -1.2936
-0.12848 0.35962 -1.2936
-0.20197 0.36035001 -1.2922
-0.20206 0.36326 -1.2924
-0.12848 0.3633 -1.2926
-0.12848 0.36478502 -1.29215
-0.12853 0.36958 -1.2929
-0.12853999 0.37079 -1.2930501
-0.1759 0.31766 -1.2909
-0.17175999 0.31661999 -1.2915
-0.18226001 0.32754001 -1.2901
-0.17811 0.32663 -1.2905999
-0.16571 0.32911 -1.2918
-0.15942 0.32997 -1.2909
-0.15522 0.32978001 -1.2902
-0.18448 0.33199999 -1.2908
-0.16993 0.33127999 -1.2920001
-0.16155 0.33115 -1.2915
-0.15947001 0.33118001 -1.2917
-0.15739 0.3312 -1.2918
-0.1908 0.332625 -1.29125
-0.18872 0.33316001 -1.2913001
-0.18663999 0.33270502 -1.2915499
-0.18448 0.33298999 -1.2905999
-0.1824 0.33351499 -1.2906001
-0.18032999 0.33306 -1.2909
-0.17832001 0.33335 -1.2920001
-0.16369 0.33333001 -1.2919
-0.1972 0.33539999 -1.2920001
-0.19504 0.33519 -1.2912
-0.18463001 0.33539999 -1.2920001
-0.1824 0.33493 -1.2902
-0.18032999 0.33450499 -1.2904999
-0.178285 0.334665 -1.2911
-0.17617001 0.33504 -1.2907
-0.17412001 0.33473501 -1.2914
-0.17207 0.33535999 -1.2919
-0.16369 0.33430001 -1.2916
-0.19512001 0.33636001 -1.2920001
-0.19297667 0.3371233 -1.2912668
-0.19087 0.33664501 -1.2912
-0.18671 0.33717 -1.2914
-0.184595 0.33664 -1.2911999
-0.18248001 0.33610001 -1.291
-0.1804 0.33614001 -1.2911
-0.17825 0.33682001 -1.2901
-0.17207 0.336725 -1.2915499
-0.16993 0.336505 -1.2907
-0.16790999 0.33724001 -1.2917
-0.16576999 0.33789 -1.2905999
-0.163715 0.33761001 -1.2913001
-0.15531 0.3369 -1.2904
-0.15323 0.33603999 -1.2907
-0.15115 0.33605999 -1.2908
-0.14912 0.33678502 -1.29175
-0.13867 0.33708 -1.2911
-0.19724 0.33904499 -1.2916
-0.19512001 0.33813 -1.2915
-0.19087 0.33877999 -1.2907
-0.18884332 0.33899999 -1.2914667
-0.17838 0.33818999 -1.2918
-0.176265 0.33893502 -1.2912
-0.17415 0.33883667 -1.2908334
-0.17207 0.33846 -1.2911
-0.16999 0.33849001 -1.2912
-0.16785 0.33868 -1.2903
-0.16369 0.33958 -1.2903
-0.15953 0.33963999 -1.2905
-0.1575 0.33992001 -1.2916
-0.15541001 0.33995 -1.2917
-0.15328 0.33972001 -1.2908
-0.1512 0.33974001 -1.2909
-0.14912 0.33976001 -1.291
-0.14703999 0.33895001 -1.2913001
-0.14495 0.33855999 -1.2915
-0.14286999 0.33899668 -1.2914333
-0.14077 0.33930498 -1.2909
-0.13871001 0.33820999 -1.2918
-0.199325 0.34114999 -1.29085
-0.1972 0.34107 -1.29055
-0.19514668 0.34075665 -1.2911334
-0.19312 0.34184 -1.2917
-0.19095001 0.34163001 -1.2909
-0.18887 0.34123999 -1.2912
-0.17623 0.34053001 -1.2903
-0.17415 0.34055999 -1.2904
-0.17207 0.34060001 -1.2905
-0.16999 0.34062999 -1.2905999
-0.16797 0.34092 -1.2917
-0.16587999 0.34180999 -1.2916
-0.15958001 0.34077999 -1.2912
-0.15744001 0.34055001 -1.2904
-0.14706667 0.34083664 -1.2914666
-0.14286999 0.34072 -1.291
-0.14079 0.34116501 -1.2909501
-0.13867 0.3405 -1.2902
-0.13454001 0.34122002 -1.2911501
-0.13246 0.34167001 -1.2911
-0.19732499 0.34307501 -1.2916
-0.19512001 0.34233001 -1.2904
-0.19303 0.34317335 -1.2903666
-0.18887 0.34285998 -1.2908
-0.18679 0.34330001 -1.2908
-0.1847 0.34254 -1.2912
-0.18262 0.34257999 -1.2913001
-0.15541001 0.34327999 -1.2908
-0.14912 0.34310001 -1.2901
-0.14703999 0.34233001 -1.2904
-0.14495 0.34314999 -1.2903
-0.14291 0.343025 -1.2914
-0.14083 0.343045 -1.2915
-0.13872501 0.342935 -1.29105
-0.13662 0.342825 -1.2907
-0.13454001 0.34323999 -1.2905999
-0.13246 0.34285998 -1.2908
-0.1304 0.34312999 -1.2918
-0.19312 0.34501001 -1.2909
-0.19103 0.34505001 -1.2911
-0.18887 0.34559 -1.2901
-0.15541001 0.344475 -1.2904999
-0.15125 0.34413001 -1.2908
-0.14916 0.34415999 -1.2908
-0.13664 0.34454501 -1.2907
-0.13454001 0.34481999 -1.2902
-0.13038 0.34523499 -1.2902
-0.199495 0.34714001 -1.29135
-0.19111 0.34606999 -1.2918
-0.13669001 0.34683001 -1.2917
-0.1346 0.34757999 -1.2915
-0.13248999 0.34696999 -1.2907
-0.1304 0.34735 -1.2907
-0.12831999 0.34663001 -1.2909
-0.19954 0.34838 -1.2915
-0.14503001 0.34900999 -1.2908
-0.12831999 0.34889001 -1.2903
-0.20171 0.35071 -1.2917
-0.14295 0.35165 -1.2901
-0.14088 0.350835 -1.2909
-0.13879499 0.351495 -1.2908499
-0.13043 0.35111001 -1.2907
-0.2018 0.35365999 -1.2920001
-0.12837 0.35343999 -1.2912
-0.201755 0.35556501 -1.2909501
-0.13672 0.35510001 -1.2904
-0.12837 0.35461998 -1.2908499
-0.2018 0.3572 -1.291
-0.1284 0.35666001 -1.2913001
-0.14306 0.35947999 -1.2911
-0.20189001 0.360845 -1.291
-0.12842 0.36065 -1.2912
-0.12847251 0.36701 -1.291275
-0.12847668 0.36859334 -1.2911
-0.12849332 0.37024334 -1.2912666
-0.17984 0.31108999 -1.2891999
-0.17388999 0.32743999 -1.2897
-0.17811 0.32969001 -1.2898
-0.17386 0.32888001 -1.2888
-0.15719 0.32925999 -1.2881
-0.18656 0.33754 -1.2893
-0.18448 0.33758 -1.2894
-0.1824 0.33673999 -1.2898
-0.18026 0.33653 -1.289
-0.15319 0.33668 -1.2895
-0.15110999 0.33669999 -1.2896
-0.19287001 0.33849001 -1.2895
-0.18656 0.33836001 -1.289
-0.18448 0.33882001 -1.2890999
-0.1824 0.33886001 -1.2892001
-0.17617001 0.33855 -1.2898
-0.16773 0.33901 -1.2881
-0.16565 0.3382 -1.2884001
-0.15942 0.33829001 -1.2888
-0.18656 0.34007999 -1.2886
-0.18448 0.34011999 -1.2887
-0.17409 0.34196001 -1.289
-0.16785 0.34127 -1.2896
-0.15739 0.341555 -1.2890999
-0.15531 0.34074998 -1.2894
-0.15319 0.34009001 -1.2886
-0.14487 0.34105 -1.2887
-0.1428 0.34107 -1.2888
-0.13867 0.34136 -1.2898999
-0.136575 0.34082502 -1.28965
-0.19712 0.34362 -1.2889
-0.194995 0.34314001 -1.28865
-0.19087 0.34336001 -1.2894499
-0.18456 0.34281999 -1.289
-0.18248001 0.34286001 -1.2891999
-0.1804 0.34211001 -1.2895
-0.17832001 0.34213999 -1.2897
-0.1762 0.34245002 -1.2892001
-0.17409 0.34275001 -1.2888
-0.16987 0.34255999 -1.2881
-0.16779 0.34259999 -1.2882
-0.16576999 0.34367999 -1.2891001
-0.1595 0.343245 -1.289
-0.15739 0.34274 -1.2887
-0.15536 0.34222999 -1.29
-0.15324666 0.34288001 -1.2892666
-0.15117499 0.34255499 -1.2895999
-0.14701501 0.34339499 -1.2895999
-0.14490999 0.34289002 -1.2893
-0.1428 0.34345001 -1.2882
-0.14075001 0.34373 -1.2891999
-0.13451 0.34219 -1.2898999
-0.19508001 0.345705 -1.289
-0.19303 0.34551001 -1.2897
-0.18872 0.34432 -1.2883
-0.18671 0.34538001 -1.2891999
-0.18463001 0.34542 -1.2894
-0.18248001 0.34595001 -1.2884001
-0.17201 0.34586999 -1.2881
-0.16999 0.34503502 -1.2895
-0.16785 0.34481001 -1.2886
-0.16576999 0.34597 -1.2884001
-0.15323 0.34437999 -1.2885
-0.1512 0.34466001 -1.2896
-0.14912 0.34468001 -1.2897
-0.14490999 0.34522 -1.2887
-0.14286999 0.34549999 -1.2897
-0.14079 0.34514499 -1.2899001
-0.13867 0.34527999 -1.2889
-0.13448 0.34505999 -1.2881
-0.13243 0.34496 -1.2892001
-0.19722666 0.34699336 -1.2893332
-0.19504 0.34669 -1.2882
-0.19087 0.34751999 -1.2883
-0.18878999 0.34757 -1.2885
-0.18671 0.34612 -1.289
-0.18463001 0.34615999 -1.2891999
-0.17832001 0.3475 -1.2883
-0.17623 0.34678999 -1.2886
-0.16999 0.34615999 -1.2891999
-0.16790999 0.34656 -1.2892001
-0.16583 0.34696001 -1.2891999
-0.14283 0.34672999 -1.2883
-0.14079 0.34663999 -1.2895
-0.13867 0.34603 -1.2887
-0.13660499 0.34729001 -1.28895
-0.13454001 0.34706998 -1.2896
-0.130365 0.34696999 -1.2891999
-0.12827 0.34760001 -1.2886
-0.20153999 0.34957001 -1.29
-0.19937 0.34863999 -1.2894
-0.18671 0.34838 -1.2884001
-0.18463001 0.34913999 -1.2884001
-0.18047 0.34983 -1.2885
-0.14703999 0.34847 -1.2887
-0.14289001 0.348995 -1.2893
-0.14081 0.349015 -1.28935
-0.13868999 0.349085 -1.2883999
-0.13662 0.34990001 -1.2888
-0.13454001 0.34992 -1.2888
-0.13246 0.34962499 -1.289
-0.13037001 0.34921333 -1.2887667
-0.20153999 0.35082 -1.2896
-0.14503001 0.35163 -1.29
-0.14291 0.35010001 -1.2895
-0.14083 0.35141 -1.2891999
-0.13662 0.35053 -1.2886
-0.13457 0.35080999 -1.2896
-0.13248999 0.35082999 -1.2897
-0.13038 0.35157502 -1.2885001
-0.13874 0.354 -1.2886
-0.13454001 0.35260001 -1.2881
-0.13248999 0.35216001 -1.2893
-0.13038 0.35262999 -1.2882
-0.13878 0.35481 -1.2894
-0.13665999 0.35490501 -1.28845
-0.13457 0.35580999 -1.2882
-0.13248999 0.35583001 -1.2883
-0.13041499 0.35567501 -1.28895
-0.12834001 0.35435 -1.2898999
-0.20162 0.35723001 -1.2889
-0.12834001 0.35698998 -1.28915
-0.14086001 0.35817999 -1.2884001
-0.128355 0.35868001 -1.2891999
-0.201755 0.36133498 -1.28935
-0.12834001 0.36032999 -1.2882
-0.1284 0.362645 -1.28965
-0.12842 0.36515999 -1.29
-0.12842 0.36954999 -1.2887
-0.18212 0.33103999 -1.2871
-0.18226001 0.33711001 -1.2876
-0.18015501 0.33743 -1.2872
-0.17811 0.338 -1.2877001
-0.16351999 0.33798 -1.2876
-0.18226001 0.33965001 -1.2869999
-0.18012001 0.33943999 -1.2861
-0.17804 0.33903 -1.2864
-0.17188001 0.33895001 -1.2879
-0.16981 0.33897999 -1.288
-0.16144 0.33801001 -1.2877001
-0.15106 0.33985999 -1.2877001
-0.14894 0.33963001 -1.2869
-0.18649 0.34068999 -1.2874
-0.18434 0.34046999 -1.2866
-0.17811 0.34059 -1.2869999
-0.17603999 0.34062001 -1.2871
-0.17388999 0.34040001 -1.2862999
-0.16981 0.341115 -1.2874
-0.16773 0.34154999 -1.2874
-0.15313999 0.3407 -1.2874
-0.14899001 0.34114501 -1.2875
-0.19695 0.34389001 -1.2867
-0.18855999 0.34303001 -1.2866
-0.18441001 0.34350002 -1.2868
-0.182365 0.343665 -1.2874
-0.18019 0.34292999 -1.2862
-0.17811 0.34217 -1.2866
-0.17603999 0.34299999 -1.2865
-0.17396 0.34382001 -1.2864
-0.16981 0.34310001 -1.2869
-0.16779 0.34338999 -1.288
-0.16354999 0.34267002 -1.2869
-0.16147 0.3427 -1.2869999
-0.15729 0.34341499 -1.2865
-0.19702999 0.34490001 -1.2875
-0.19287001 0.34573999 -1.2876
-0.19072001 0.34551999 -1.2868
-0.18864 0.34557 -1.2869999
-0.18656 0.34411001 -1.2875
-0.1824 0.34494001 -1.2876
-0.18026 0.34547001 -1.2866
-0.17825 0.34575999 -1.2877001
-0.17402001 0.3452 -1.2871
-0.17195 0.34448498 -1.2874
-0.15942 0.34404001 -1.2873
-0.15729 0.34456 -1.2862
-0.15527 0.34483999 -1.2873
-0.15319 0.34487 -1.2874
-0.15106 0.34463999 -1.2865
-0.14693667 0.34485331 -1.2873
-0.1428 0.34498 -1.2878001
-0.13655999 0.34503999 -1.288
-0.19487 0.34692001 -1.2861
-0.19279 0.34621999 -1.2864
-0.1908 0.34652001 -1.2876
-0.18872 0.34656 -1.2877001
-0.18663999 0.346975 -1.2878001
-0.18441001 0.34612 -1.2861
-0.18233 0.34615999 -1.2862
-0.18026 0.34619999 -1.2864
-0.17817999 0.34624001 -1.2865
-0.17617001 0.34728 -1.2874
-0.17409 0.34731999 -1.2876
-0.17195 0.346715 -1.2868
-0.16987 0.34638 -1.2869999
-0.16779 0.34716001 -1.2869999
-0.16571 0.34718999 -1.2871
-0.15527 0.34707001 -1.2867
-0.15110666 0.34713331 -1.2868333
-0.14699 0.34742999 -1.288
-0.14485 0.34669 -1.2867
-0.14275999 0.34694999 -1.2862
-0.14071999 0.34722999 -1.2873
-0.13864 0.34688002 -1.2874
-0.132385 0.347565 -1.28695
-0.1992 0.34913999 -1.2872
-0.19702999 0.34924331 -1.2863001
-0.19495 0.34897 -1.28655
-0.19287001 0.34871 -1.2868
-0.1908 0.34904 -1.2869
-0.18872 0.34878999 -1.2871
-0.18663999 0.34883001 -1.2873
-0.15531 0.34810999 -1.2874
-0.14490999 0.34955999 -1.2875
-0.13864 0.34874001 -1.2869
-0.13448 0.34842002 -1.2872
-0.19919999 0.35074005 -1.2867666
-0.19712 0.35145 -1.2867
-0.1824 0.35056001 -1.2861
-0.14906999 0.35014001 -1.2872
-0.14699 0.35049498 -1.2871499
-0.14286999 0.35179999 -1.288
-0.14071999 0.3513 -1.2862
-0.13864 0.35131001 -1.2862
-0.136575 0.351125 -1.28685
-0.13451 0.351275 -1.2874
-0.13243 0.35095999 -1.2876
-0.19925332 0.35290667 -1.2868667
-0.19712 0.35216999 -1.2865
-0.15323 0.35278001 -1.2862
-0.14490999 0.35396001 -1.2862999
-0.14283 0.35398 -1.2864
-0.14075001 0.354 -1.2865
-0.13243 0.35235 -1.2872
-0.13034999 0.35301 -1.2871
-0.19927999 0.35473001 -1.2867
-0.19504 0.35455999 -1.2861
-0.1512 0.35596001 -1.2865
-0.14075001 0.35462001 -1.2862999
-0.13871001 0.3549 -1.2873
-0.13662 0.35492 -1.2874
-0.13451999 0.35495666 -1.2867666
-0.13244501 0.35541999 -1.28685
-0.1512 0.35753 -1.2861
-0.13037001 0.3567867 -1.2866999
-0.14703999 0.35809001 -1.2861
-0.14495 0.35811999 -1.2862
-0.14291 0.35892999 -1.2871
-0.14083 0.35843 -1.2873
-0.13039 0.35890502 -1.2869999
-0.20162 0.36149001 -1.2877001
-0.20153999 0.36236 -1.2864
-0.12834001 0.36232001 -1.2877001
-0.20162 0.36430001 -1.2869
-0.13043 0.36511001 -1.2868
-0.12834001 0.36491999 -1.2869
-0.13043 0.36634001 -1.2865
-0.2017325 0.36847001 -1.287025
-0.178625 0.36903501 -1.2869
-0.17649999 0.36894 -1.2866
-0.13045999 0.36897999 -1.2867
-0.12837 0.36899999 -1.2868
-0.17997999 0.33803999 -1.2844
-0.18219 0.34026 -1.2858
-0.18005 0.34162 -1.2845
-0.17175999 0.34057501 -1.2854
-0.15926 0.3409 -1.285
-0.19471 0.34342 -1.285
-0.18640999 0.34281 -1.2858
-0.18019 0.34371001 -1.286
-0.17804 0.34270999 -1.2854
-0.17797001 0.34323001 -1.2842
-0.1759 0.34327 -1.2844
-0.17388999 0.34277999 -1.2857
-0.17182 0.342415 -1.2859
-0.16553999 0.34343001 -1.285
-0.16340999 0.34321001 -1.2841001
-0.16134 0.343615 -1.2842
-0.18012001 0.34419999 -1.2849
-0.1759 0.34402001 -1.2842
-0.16553999 0.34417999 -1.2848001
-0.1635 0.34512666 -1.2853667
-0.16139001 0.34571999 -1.2846
-0.15932 0.34500998 -1.2849
-0.15726501 0.34554499 -1.2854
-0.15309 0.34509999 -1.2852
-0.15097 0.34485999 -1.2843
-0.14892666 0.34505665 -1.2850667
-0.14687 0.34591001 -1.2853
-0.19695 0.34764999 -1.2857
-0.19479001 0.34742999 -1.2849
-0.19271 0.34709001 -1.2852
-0.18229499 0.34716499 -1.28545
-0.18015501 0.34694499 -1.28465
-0.17811 0.3475 -1.2852
-0.17603999 0.34753001 -1.2853
-0.17396 0.34680998 -1.2855999
-0.17188001 0.34760001 -1.2855
-0.16349 0.346955 -1.2846999
-0.16141501 0.34698498 -1.2848001
-0.159345 0.34701502 -1.2849
-0.15729 0.347175 -1.2855
-0.15522 0.34606999 -1.2859
-0.15313999 0.34722501 -1.2857
-0.148965 0.34714502 -1.2853999
-0.136475 0.34775001 -1.2847
-0.19487 0.34965 -1.2853
-0.19275001 0.34924501 -1.2851
-0.18645 0.34911501 -1.2846
-0.18441001 0.34928501 -1.2852499
-0.18229499 0.349195 -1.2849
-0.17811 0.34882 -1.2848001
-0.17603999 0.34917498 -1.28485
-0.17396 0.34889999 -1.2851
-0.16978 0.34852999 -1.2849
-0.16767 0.34812 -1.2846
-0.1656 0.34940001 -1.2844
-0.16358 0.34968999 -1.2855
-0.16150001 0.34972 -1.2855999
-0.15937001 0.34948999 -1.2847
-0.15724 0.348315 -1.28415
-0.15522 0.34954 -1.285
-0.15309 0.34931001 -1.2841001
-0.14894 0.34873 -1.2844
-0.14687 0.34843999 -1.2846
-0.14483 0.34841999 -1.2857
-0.19702999 0.35052001 -1.286
-0.19487 0.35030001 -1.2852
-0.186525 0.35067999 -1.2852
-0.1761 0.35041001 -1.2855
-0.17402001 0.35044 -1.2857
-0.16565 0.35031 -1.2852
-0.16144 0.35010999 -1.2845
-0.15937001 0.35152999 -1.2842
-0.15729 0.35016999 -1.2847
-0.15527 0.350795 -1.28565
-0.153165 0.35069001 -1.2853
-0.15106 0.35093665 -1.2848001
-0.14899001 0.35166001 -1.2847
-0.14695001 0.35194999 -1.2857
-0.14485 0.35148001 -1.2853999
-0.1428 0.35199001 -1.2859
-0.13860001 0.35177001 -1.2851
-0.13649 0.35152999 -1.2842
-0.1992 0.35385001 -1.2859
-0.19699 0.35295999 -1.28475
-0.19487 0.35341001 -1.2843
-0.19287001 0.35372001 -1.2854
-0.17825 0.35374001 -1.2855
-0.16981 0.35227999 -1.2844
-0.16150001 0.35267001 -1.2848001
-0.15734001 0.35354 -1.2848001
-0.15524501 0.35290003 -1.28455
-0.15108499 0.35267001 -1.28485
-0.14903 0.35257 -1.2855
-0.14693001 0.35271999 -1.28495
-0.14487 0.35288 -1.28555
-0.14278001 0.35276499 -1.2851501
-0.1407 0.35279 -1.2852499
-0.13864 0.35268 -1.2859
-0.13655999 0.3527 -1.2859
-0.13448 0.35297501 -1.2859
-0.13240001 0.35326669 -1.2859
-0.13032 0.35354501 -1.2859
-0.1992 0.35536498 -1.2855
-0.19707499 0.35468501 -1.2853501
-0.19283 0.35451001 -1.2847
-0.16155 0.35497001 -1.2852
-0.15942 0.35413 -1.2845
-0.15739 0.35442001 -1.2855999
-0.15323 0.35448 -1.2858
-0.15110999 0.35598999 -1.2844
-0.14693001 0.35474998 -1.2844501
-0.14483 0.35404 -1.2842
-0.1428 0.35433 -1.2852
-0.14075001 0.35580999 -1.286
-0.13864 0.35556 -1.2851
-0.13652 0.35532001 -1.2842
-0.19922 0.35704249 -1.2852499
-0.19708999 0.35667667 -1.2849333
-0.19504 0.35681501 -1.28545
-0.19287001 0.35709 -1.2845
-0.17617001 0.35664999 -1.2849
-0.17195 0.35644999 -1.2842
-0.16779 0.35703 -1.2843
-0.14695001 0.35653999 -1.2844501
-0.14487 0.35705999 -1.2844
-0.14282 0.35676003 -1.2852334
-0.14071999 0.35659999 -1.2847
-0.13655999 0.35714999 -1.2847
-0.13448 0.35767999 -1.2846
-0.13240001 0.35694 -1.2849
-0.13032 0.35668999 -1.285
-0.1992 0.35923499 -1.2844
-0.18032999 0.35811001 -1.2842
-0.1512 0.35804999 -1.2859
-0.14906999 0.35883999 -1.2848001
-0.14487 0.3581 -1.2841001
-0.13659 0.35967499 -1.2850499
-0.13448 0.35901666 -1.2842667
-0.132415 0.35909 -1.284825
-0.130335 0.35887 -1.28495
-0.12827 0.35995999 -1.2852
-0.1992 0.36012 -1.2842
-0.13451 0.36032999 -1.2849
-0.13243 0.36035001 -1.285
-0.13032 0.36008999 -1.2841001
-0.20142001 0.36293331 -1.2849001
-0.130365 0.362735 -1.28485
-0.20149499 0.364575 -1.2853
-0.18262 0.36590001 -1.2849
-0.1304 0.36539999 -1.2857
-0.201538 0.36686799 -1.2851599
-0.18061 0.36621001 -1.286
-0.13038401 0.36700198 -1.2844
-0.20157999 0.36835378 -1.2852499
