# .PCD v0.7 - Point Cloud Data file format
VERSION 0.7
FIELDS x y z
SIZE 4 4 4
TYPE F F F
COUNT 1 1 1
WIDTH 1524
HEIGHT 1
VIEWPOINT 0 0 0 1 0 0 0
POINTS 1524
DATA ascii
-0.113856 0.01248 0.094374999
-0.11407 0.012169 0.094489001
-0.113305 0.011994 0.093271002
-0.113864 0.011353 0.093675002
-0.114134 0.011035 0.093865
-0.114113 0.010755 0.093658
-0.114358 0.01044 0.093814999
-0.114647 0.010119 0.094030999
-0.114889 0.0098050004 0.094182998
-0.114881 0.0095239999 0.093993999
-0.115125 0.0092099998 0.094149001
-0.115403 0.0088910004 0.094350003
-0.115408 0.0086080004 0.094180003
-0.115648 0.0082940003 0.094329
-0.115899 0.0079800002 0.094494
-0.115909 0.0076950002 0.094329
-0.115684 0.0074390001 0.093841001
-0.116198 0.0070930002 0.094366997
-0.116756 0.0067420001 0.094953999
-0.116776 0.0064559998 0.094802998
-0.116751 0.0061750002 0.094590001
-0.116723 0.005895 0.094370998
-0.116771 0.0056050001 0.094258003
-0.117355 0.0052530002 0.094881997
-0.118109 0.0045989999 0.095560998
-0.118368 0.004286 0.095739
-0.118433 0.0039949999 0.095650002
-0.118967 0.0036520001 0.096207
-0.11896 0.003369 0.096018001
-0.118928 0.003088 0.095793001
-0.118909 0.0028049999 0.095587999
-0.118679 0.002544 0.095089003
-0.119203 0.002204 0.095634997
-0.119507 0.001887 0.095875002
-0.119792 0.001573 0.096089996
-0.120016 0.001265 0.096219003
-0.120276 0.00095399999 0.096399002
-0.120582 0.00063899998 0.096643999
-0.120845 0.00032799999 0.096828997
-0.120567 6.9000002e-05 0.096262999
-0.120993 -0.00025700001 0.096672997
-0.121267 -0.00056900003 0.096873999
-0.121338 -0.00086099998 0.096793003
-0.121364 -0.00115 0.096648
-0.12137 -0.001437 0.096476004
-0.121373 -0.001724 0.096298002
-0.12164 -0.0020339999 0.096488997
-0.12194 -0.0023469999 0.096726
-0.122396 -0.0026730001 0.097181
-0.122372 -0.0029579999 0.096966997
-0.122142 -0.0032259999 0.096463002
-0.122175 -0.003517 0.096329004
-0.122703 -0.003847 0.096883997
-0.122986 -0.004158 0.097098999
-0.12327 -0.004468 0.097314
-0.12329 -0.0047570001 0.097161002
-0.123503 -0.0050610001 0.097277001
-0.123484 -0.0053480002 0.097067997
-0.123749 -0.0056560002 0.097259
-0.124039 -0.005965 0.097483002
-0.124536 -0.0062890002 0.097998999
-0.124783 -0.0065950002 0.098163001
-0.125027 -0.0068999999 0.098324001
-0.125038 -0.007189 0.098157004
-0.125056 -0.0074789999 0.098001003
-0.125084 -0.00777 0.097857997
-0.125101 -0.0080599999 0.097699001
-0.12534 -0.0083649997 0.097854003
-0.12585799 -0.0086859995 0.098401003
-0.126131 -0.0089919996 0.098603003
-0.12590399 -0.0092679998 0.098099999
-0.125626 -0.0095419995 0.097525001
-0.125847 -0.0098449998 0.097653002
-0.12611599 -0.01015 0.097848997
-0.126628 -0.010469 0.098389998
-0.126913 -0.010775 0.098609999
-0.12717301 -0.011079 0.098794997
-0.127187 -0.01137 0.098632
-0.12720899 -0.011662 0.098480001
-0.127221 -0.011953 0.098312996
-0.12743901 -0.012255 0.098438002
-0.12743001 -0.012546 0.098242
-0.12772401 -0.013142 0.098291002
-0.12805 -0.013448 0.098569997
-0.12882499 -0.013773 0.099486999
-0.12908401 -0.014074 0.099671997
-0.129069 -0.014365 0.099467002
-0.128811 -0.014647 0.098916002
-0.12876999 -0.014938 0.098672003
-0.12898999 -0.015238 0.098801002
-0.129251 -0.01554 0.098989002
-0.129531 -0.015842 0.099203996
-0.12953401 -0.016135 0.099023998
-0.12956201 -0.016429 0.098878004
-0.129852 -0.016731 0.099106997
-0.13034201 -0.017038999 0.099624
-0.130327 -0.017332001 0.099417001
-0.130337 -0.017625 0.099246003
-0.13088299 -0.017933 0.099843003
-0.131236 -0.018235 0.100164
-0.131484 -0.018533999 0.100334
-0.131467 -0.018827001 0.100124
-0.13191301 -0.019130001 0.10058
-0.131952 -0.019424001 0.10045
-0.131945 -0.019718001 0.100254
-0.13193101 -0.020012001 0.100048
-0.131943 -0.020306 0.099881001
-0.13198499 -0.020602001 0.099753998
-0.132469 -0.020903001 0.100265
-0.13270999 -0.021201 0.100426
-0.132953 -0.021498 0.100591
-0.13323601 -0.021795999 0.100813
-0.133316 -0.022090999 0.100742
-0.133533 -0.022388 0.100869
-0.133509 -0.022683 0.100648
-0.13376801 -0.022980001 0.100836
-0.134082 -0.023277 0.101103
-0.13457 -0.023573 0.101623
-0.13433699 -0.023868 0.1011
-0.13430899 -0.024164001 0.100872
-0.134275 -0.024460999 0.100636
-0.13431901 -0.024758 0.100512
-0.135065 -0.025051 0.101408
-0.135382 -0.025346 0.101681
-0.135406 -0.025642 0.101529
-0.13585301 -0.025935 0.101992
-0.135859 -0.026232 0.101812
-0.13611101 -0.026526 0.101993
-0.13635001 -0.02682 0.102153
-0.136374 -0.027116001 0.102
-0.13642199 -0.027412999 0.101883
-0.136683 -0.027705999 0.102076
-0.13671 -0.028003 0.101926
-0.136704 -0.028301001 0.10173
-0.13714799 -0.028591 0.102191
-0.137382 -0.028883999 0.102345
-0.137418 -0.029181 0.102209
-0.137641 -0.029474 0.102348
-0.137895 -0.029766001 0.102531
-0.13793001 -0.030064 0.102393
-0.1382 -0.030355001 0.102601
-0.13844299 -0.030647 0.102769
-0.138473 -0.030944999 0.102624
-0.13847899 -0.031244 0.102444
-0.138695 -0.031536002 0.102573
-0.138717 -0.031835001 0.102416
-0.139167 -0.032118998 0.102888
-0.13941599 -0.03241 0.103065
-0.139478 -0.032706998 0.102968
-0.13954 -0.033004999 0.10287
-0.13977601 -0.033295002 0.103029
-0.13977601 -0.033594999 0.102838
-0.140009 -0.033886001 0.102992
-0.140277 -0.034175001 0.103198
-0.140522 -0.034465 0.10337
-0.140558 -0.034763999 0.103234
-0.14079501 -0.035053 0.103394
-0.140793 -0.035354 0.103202
-0.140781 -0.035656001 0.102994
-0.14103299 -0.035944998 0.103176
-0.14132901 -0.036231 0.103425
-0.14159299 -0.036518998 0.103625
-0.14184199 -0.036805999 0.103804
-0.14206199 -0.037096001 0.10394
-0.142086 -0.037395999 0.103785
-0.142111 -0.037696999 0.103632
-0.14256901 -0.037971999 0.104122
-0.142612 -0.038270999 0.103995
-0.14285301 -0.038557999 0.104163
-0.142877 -0.038860001 0.104008
-0.143103 -0.039147999 0.104153
-0.143344 -0.039434001 0.104322
-0.143373 -0.039735001 0.104174
-0.143621 -0.040020999 0.104352
-0.143878 -0.040305998 0.104545
-0.144136 -0.040591002 0.104738
-0.14436799 -0.040876999 0.104894
-0.144407 -0.041177999 0.104761
-0.14465 -0.041462999 0.104933
-0.144888 -0.041747998 0.105098
-0.144926 -0.042048998 0.104963
-0.14538699 -0.042316001 0.105461
-0.146401 -0.044360001 0.10564
-0.14643399 -0.044661999 0.105497
-0.14622299 -0.044987001 0.104987
-0.146213 -0.045294002 0.104778
-0.14644 -0.045579001 0.104927
-0.14648101 -0.045882002 0.104796
-0.146732 -0.046163999 0.104981
-0.14696001 -0.046448 0.105132
-0.14719599 -0.046730999 0.105296
-0.147228 -0.047035001 0.10515
-0.14769299 -0.047293998 0.105661
-0.147747 -0.047596 0.105547
-0.14801 -0.047874998 0.105753
-0.14826199 -0.048154999 0.105941
-0.152504 -0.056283999 0.106954
-0.152601 -0.056894001 0.106711
-0.156168 -0.063216999 0.107885
-0.156378 -0.063495003 0.108014
-0.15642101 -0.063803002 0.107881
-0.156655 -0.064075999 0.108049
-0.156902 -0.064346999 0.108236
-0.156932 -0.064658001 0.108082
-0.15693399 -0.064975001 0.107886
-0.157129 -0.065255001 0.107992
-0.157346 -0.065530002 0.108132
-0.157611 -0.065797001 0.108347
-0.15997501 -0.070730999 0.108657
-0.16004799 -0.071679004 0.108165
-0.16070101 -0.071854003 0.109001
-0.160956 -0.072117001 0.109203
-0.160987 -0.072431996 0.10905
-0.161212 -0.072701998 0.109205
-0.16125301 -0.073013999 0.109068
-0.16148899 -0.073280998 0.10924
-0.161716 -0.073550001 0.109399
-0.161571 -0.073907003 0.108964
-0.161799 -0.074175999 0.109125
-0.16167299 -0.074529 0.108719
-0.16249999 -0.074653 0.109839
-0.16292401 -0.074873 0.110315
-0.162954 -0.075189002 0.110159
-0.162976 -0.075506002 0.109991
-0.162789 -0.075875998 0.109486
-0.162606 -0.076246001 0.108988
-0.16282099 -0.076517001 0.109128
-0.163082 -0.076775998 0.109342
-0.163516 -0.076990001 0.109836
-0.163743 -0.077257 0.109997
-0.163762 -0.077577002 0.109821
-0.163783 -0.077896997 0.109651
-0.163822 -0.078212 0.109508
-0.164067 -0.078474 0.109697
-0.16394 -0.078832999 0.109286
-0.164545 -0.079000004 0.110058
-0.164765 -0.079267003 0.110208
-0.16498099 -0.079535 0.110352
-0.16522799 -0.079795003 0.110545
-0.16548599 -0.080050997 0.110758
-0.165709 -0.080316998 0.110914
-0.165932 -0.080582 0.111068
-0.165958 -0.080900997 0.110904
-0.16599301 -0.081217997 0.110756
-0.166045 -0.081531003 0.110633
-0.166462 -0.081740998 0.111105
-0.166495 -0.082059003 0.110951
-0.16651499 -0.082381003 0.110777
-0.16653 -0.082704999 0.110595
-0.16676 -0.082966998 0.110762
-0.167013 -0.083223 0.110967
-0.16744301 -0.083426997 0.111461
-0.16747899 -0.083743997 0.111314
-0.167493 -0.084068999 0.111129
-0.16752 -0.08439 0.110965
-0.16773701 -0.084655002 0.111112
-0.167789 -0.084968999 0.11099
-0.168029 -0.085226998 0.111174
-0.16824999 -0.085490003 0.111327
-0.168285 -0.085809998 0.111176
-0.16849899 -0.086075 0.111319
-0.168529 -0.086396001 0.111161
-0.16893101 -0.086603001 0.111612
-0.16897701 -0.086919002 0.111479
-0.16903 -0.087233998 0.111357
-0.169268 -0.087490998 0.111541
-0.169488 -0.087752998 0.111692
-0.169734 -0.088007003 0.111889
-0.16997901 -0.088260002 0.112083
-0.17021599 -0.088515997 0.112266
-0.17025 -0.088836998 0.112112
-0.17028099 -0.089158997 0.111955
-0.170497 -0.089420997 0.112102
-0.170734 -0.089676 0.112284
-0.17094199 -0.089941002 0.112418
-0.17098001 -0.090260997 0.112271
-0.17119201 -0.090524003 0.112413
-0.171442 -0.090774 0.112617
-0.17165799 -0.091035001 0.112765
-0.17169 -0.091357 0.112607
-0.171725 -0.091678999 0.112455
-0.171776 -0.091995001 0.11233
-0.171995 -0.092254996 0.112482
-0.172033 -0.092575997 0.112335
-0.172268 -0.092830002 0.112515
-0.17268901 -0.09302 0.113005
-0.172915 -0.093276002 0.11317
-0.172975 -0.093589 0.11306
-0.17321 -0.093842 0.113241
-0.17343 -0.094099998 0.113397
-0.173452 -0.094426997 0.113223
-0.173481 -0.094751999 0.11306
-0.17371701 -0.095004 0.113243
-0.173932 -0.095261998 0.11339
-0.17415901 -0.095516004 0.11356
-0.17419 -0.095841996 0.113398
-0.17422201 -0.096166 0.113239
-0.174264 -0.096487999 0.113098
-0.174484 -0.096744001 0.113254
-0.17468201 -0.097009003 0.113375
-0.174704 -0.097337998 0.113199
-0.17493901 -0.097588003 0.113381
-0.17521399 -0.097823001 0.113632
-0.176347 -0.098408997 0.114903
-0.176597 -0.098650999 0.115112
-0.177031 -0.098821998 0.115633
-0.177091 -0.099136002 0.115521
-0.177148 -0.099451996 0.115404
-0.177543 -0.099636003 0.11586
-0.177745 -0.099895 0.11599
-0.177788 -0.100216 0.11585
-0.177821 -0.100541 0.115693
-0.178031 -0.100797 0.115835
-0.17826299 -0.101043 0.116015
-0.17831101 -0.101363 0.115882
-0.178339 -0.10169 0.115717
-0.17835601 -0.102023 0.115532
-0.17856701 -0.102278 0.115676
-0.17861199 -0.1026 0.115538
-0.17883 -0.102851 0.115696
-0.179024 -0.103113 0.115811
-0.179047 -0.103444 0.115636
-0.179107 -0.10376 0.115523
-0.179343 -0.104003 0.115712
-0.17955901 -0.104255 0.115865
-0.179591 -0.104583 0.115705
-0.18000101 -0.104753 0.116192
-0.180233 -0.104997 0.116373
-0.18026701 -0.105325 0.116215
-0.180454 -0.105587 0.11632
-0.180307 -0.105992 0.115852
-0.180492 -0.106256 0.115954
-0.180526 -0.106585 0.115795
-0.180391 -0.106987 0.115346
-0.18079799 -0.107154 0.11583
-0.180842 -0.107479 0.115688
-0.180868 -0.107812 0.115516
-0.18106 -0.108073 0.115629
-0.18110199 -0.108399 0.115484
-0.18114799 -0.108724 0.115346
-0.181539 -0.108896 0.115804
-0.18157899 -0.109224 0.115655
-0.181613 -0.109555 0.115495
-0.18182901 -0.109804 0.115651
-0.182042 -0.110054 0.115801
-0.182099 -0.110375 0.115682
-0.182155 -0.110697 0.115559
-0.182546 -0.110865 0.11602
-0.182597 -0.111189 0.115889
-0.182815 -0.111436 0.116048
-0.182849 -0.111768 0.115889
-0.18304799 -0.112023 0.116016
-0.18309399 -0.11235 0.115877
-0.183322 -0.112592 0.116053
-0.183558 -0.11283 0.116245
-0.18376499 -0.11308 0.116388
-0.18397699 -0.113329 0.116538
-0.18401 -0.113662 0.116375
-0.18405899 -0.113988 0.11624
-0.184284 -0.11423 0.116413
-0.184513 -0.114469 0.116595
-0.18455701 -0.114798 0.116451
-0.184761 -0.115049 0.116587
-0.18497901 -0.115294 0.116748
-0.18502501 -0.115622 0.116607
-0.185239 -0.115868 0.116762
-0.18527099 -0.116203 0.116597
-0.185477 -0.116452 0.116739
-0.185537 -0.116774 0.116622
-0.185764 -0.117013 0.116801
-0.185968 -0.117263 0.116938
-0.186012 -0.117593 0.116794
-0.186225 -0.117838 0.116947
-0.18644901 -0.118078 0.117121
-0.1865 -0.118405 0.116988
-0.18672401 -0.118644 0.117161
-0.186938 -0.118887 0.117319
-0.186988 -0.119215 0.117184
-0.187199 -0.11946 0.117335
-0.18740401 -0.119707 0.117476
-0.187457 -0.120034 0.117346
-0.18749 -0.120371 0.117181
-0.18767899 -0.120627 0.117292
-0.187731 -0.120955 0.117162
-0.187961 -0.121189 0.117347
-0.18818 -0.121429 0.117513
-0.188374 -0.121681 0.117634
-0.18841501 -0.122015 0.117483
-0.188475 -0.122339 0.117365
-0.18887199 -0.122482 0.117851
-0.188936 -0.122804 0.11774
-0.18914001 -0.123051 0.11788
-0.189182 -0.123385 0.117729
-0.189385 -0.123631 0.117868
-0.18943 -0.123964 0.117723
-0.189641 -0.124206 0.117876
-0.189867 -0.12444 0.118056
-0.18991201 -0.124773 0.117911
-0.18995699 -0.12510601 0.117765
-0.19016799 -0.125348 0.117919
-0.190375 -0.12559099 0.118066
-0.19042601 -0.125921 0.11793
-0.190806 -0.126067 0.118389
-0.190859 -0.126396 0.118258
-0.191066 -0.12663899 0.118405
-0.191282 -0.126876 0.118568
-0.191321 -0.127213 0.118412
-0.19137099 -0.127545 0.118274
-0.19141901 -0.127878 0.118134
-0.19160999 -0.12812901 0.118253
-0.191655 -0.128465 0.118105
-0.19187801 -0.12869699 0.118281
-0.19227199 -0.128829 0.11877
-0.192321 -0.129163 0.118629
-0.19236 -0.129502 0.118471
-0.19257399 -0.129738 0.118632
-0.192624 -0.130071 0.118494
-0.19300701 -0.130207 0.118964
-0.19322 -0.13044401 0.119123
-0.193277 -0.13077299 0.118998
-0.193322 -0.131109 0.118851
-0.193528 -0.131349 0.118998
-0.19374999 -0.131578 0.119175
-0.193964 -0.131813 0.119337
-0.19419301 -0.132039 0.119526
-0.194243 -0.13237201 0.119388
-0.194282 -0.132713 0.11923
-0.194315 -0.133057 0.11906
-0.19466799 -0.13320599 0.119477
-0.19472501 -0.133536 0.119352
-0.19478101 -0.133867 0.119224
-0.195151 -0.134004 0.119673
-0.19519 -0.134345 0.119514
-0.195233 -0.134684 0.119363
-0.195429 -0.134928 0.119493
-0.195482 -0.135262 0.119359
-0.195705 -0.135489 0.119538
-0.195913 -0.13572501 0.11969
-0.195977 -0.136051 0.119578
-0.19619299 -0.136282 0.119744
-0.196391 -0.13652401 0.119879
-0.19644099 -0.136859 0.11974
-0.19648799 -0.137198 0.119593
-0.196694 -0.13743401 0.119743
-0.196889 -0.137677 0.119872
-0.196924 -0.138023 0.119705
-0.196971 -0.138363 0.119559
-0.197026 -0.138697 0.119427
-0.197402 -0.138822 0.119892
-0.197457 -0.139156 0.119762
-0.197831 -0.13928001 0.120225
-0.19789401 -0.13960899 0.120108
-0.19811 -0.139836 0.120278
-0.198153 -0.14017899 0.120124
-0.19834501 -0.140422 0.120248
-0.198388 -0.140765 0.120094
-0.19857299 -0.141013 0.120206
-0.198622 -0.141352 0.120063
-0.198842 -0.14157701 0.120239
-0.199047 -0.14181 0.120389
-0.198954 -0.14224701 0.119978
-0.19916099 -0.142479 0.120133
-0.19937199 -0.142708 0.120293
-0.19941001 -0.143057 0.120128
-0.19960999 -0.14329299 0.120269
-0.102949 0.028999001 0.089584
-0.103566 0.028602 0.090227
-0.104164 0.028209999 0.090845004
-0.104424 0.027608 0.090843
-0.104376 0.027341001 0.090604998
-0.104075 0.027122 0.09003
-0.104358 0.026791999 0.090232
-0.104921 0.026409 0.090805002
-0.10495 0.026126999 0.090668999
-0.105227 0.025798 0.090862997
-0.10525 0.025517 0.090719
-0.105251 0.02524 0.090544999
-0.105217 0.024969 0.090324
-0.105483 0.024642 0.090503998
-0.10577 0.024312001 0.090712003
-0.106034 0.023987001 0.090888001
-0.106019 0.023712 0.090692997
-0.106544 0.02334 0.091219001
-0.106272 0.023111001 0.090680003
-0.106551 0.022783 0.090878002
-0.106856 0.022451 0.091109
-0.107144 0.022123 0.091320001
-0.10769 0.021749999 0.091876
-0.107966 0.021423999 0.092069
-0.107972 0.021144999 0.091903001
-0.10796 0.020869 0.091711
-0.107955 0.020591 0.091527
-0.107929 0.020315999 0.091316998
-0.108481 0.019665999 0.091705002
-0.109072 0.019289 0.092324004
-0.109359 0.018963 0.092533998
-0.109336 0.018688001 0.092326999
-0.109309 0.018413 0.092114002
-0.109319 0.018131999 0.091950998
-0.110166 0.017717 0.092915997
-0.110729 0.017069999 0.093323998
-0.110718 0.016791999 0.093131997
-0.110709 0.016514 0.092942998
-0.110713 0.016233001 0.092772
-0.110971 0.015913 0.092945002
-0.110968 0.015634 0.092762999
-0.110957 0.015355 0.092570998
-0.111511 0.01471 0.092967004
-0.112374 0.014302 0.093959004
-0.112675 0.013698 0.094013996
-0.112633 0.013423 0.093780003
-0.112327 0.013186 0.093186997
-0.112295 0.012909 0.092964999
-0.112795 0.012557 0.093468003
-0.113356 0.012197 0.094053
-0.113668 0.011872 0.094300002
-0.113688 0.011588 0.094149001
-0.113945 0.011271 0.094322003
-0.114216 0.010953 0.094512999
-0.114273 0.010664 0.094414003
-0.114537 0.010347 0.094595
-0.114532 0.010065 0.094411001
-0.114525 0.009784 0.094223998
-0.114797 0.0094659999 0.094416998
-0.115066 0.009149 0.094605997
-0.115077 0.0088649997 0.094443001
-0.11482 0.0086150002 0.093912996
-0.115043 0.0083029997 0.094039001
-0.115324 0.0079849996 0.094245002
-0.115599 0.0076680002 0.094443001
-0.116101 0.0073230001 0.094953001
-0.115843 0.0070710001 0.094420001
-0.115542 0.006823 0.093827002
-0.115768 0.0065120002 0.093959004
-0.116324 0.0061619999 0.094543003
-0.116379 0.0058709998 0.094439
-0.116376 0.0055869999 0.094255
-0.117196 0.0046399999 0.094846003
-0.117466 0.0043250001 0.095036998
-0.117484 0.004038 0.094883002
-0.118004 0.003696 0.095421001
-0.118304 0.0033789999 0.095655002
-0.118585 0.003064 0.095863
-0.118854 0.002751 0.096055001
-0.11912 0.0024389999 0.096243002
-0.119115 0.0021540001 0.096055999
-0.118848 0.001896 0.095507003
-0.119328 0.001562 0.095990002
-0.11962 0.0012469999 0.096216001
-0.119684 0.000956 0.096124001
-0.119951 0.00064400001 0.096313998
-0.119949 0.00035799999 0.096130997
-0.120194 4.8999998e-05 0.096290998
-0.120187 -0.000237 0.096098997
-0.120417 -0.00054400001 0.096238002
-0.120917 -0.00087699998 0.096754
-0.121203 -0.001189 0.096969999
-0.121231 -0.001478 0.096827999
-0.121472 -0.001786 0.096983999
-0.121483 -0.002073 0.096818
-0.121492 -0.002361 0.096648999
-0.121723 -0.0026680001 0.096790001
-0.121716 -0.0029539999 0.096597999
-0.121719 -0.003242 0.096422002
-0.121965 -0.00355 0.096584
-0.122261 -0.0038620001 0.096814997
-0.122324 -0.0041550002 0.096721999
-0.122562 -0.004462 0.096873999
-0.12282 -0.00477 0.097052999
-0.123323 -0.0050960002 0.097576
-0.123378 -0.005388 0.097470999
-0.12362 -0.0056940001 0.097627997
-0.12363 -0.0059830002 0.097460002
-0.12387 -0.0062890002 0.097615004
-0.124126 -0.0065950002 0.097792
-0.124429 -0.0069050002 0.098035
-0.124974 -0.0072300001 0.098619998
-0.124991 -0.00752 0.098461002
-0.124448 -0.0077729998 0.097515002
-0.124666 -0.0083659999 0.097456999
-0.12497 -0.0086749997 0.097701997
-0.125504 -0.0089969998 0.098272003
-0.12557 -0.0092900004 0.098182999
-0.125826 -0.0095950002 0.098360002
-0.12606201 -0.0098989997 0.098512001
-0.12606201 -0.010189 0.098328002
-0.12653799 -0.010505 0.098819003
-0.126563 -0.010796 0.098670997
-0.12655701 -0.011086 0.098479003
-0.12677801 -0.011388 0.098608002
-0.12678801 -0.011679 0.098439001
-0.127049 -0.011983 0.098624997
-0.12706301 -0.012275 0.098462
-0.12708101 -0.012567 0.098304003
-0.12712499 -0.012861 0.098181002
-0.127887 -0.013186 0.099079996
-0.12813701 -0.013488 0.099252
-0.128397 -0.013791 0.099437997
-0.128902 -0.014103 0.099972002
-0.128969 -0.014396 0.099882998
-0.129209 -0.014697 0.100042
-0.12920401 -0.014988 0.099849999
-0.12919401 -0.015279 0.099651001
-0.12918 -0.015571 0.099448003
-0.128931 -0.015854999 0.098908
-0.12938701 -0.016163001 0.099372998
-0.12944201 -0.016457999 0.099267997
-0.129746 -0.016759999 0.099517003
-0.130034 -0.017061001 0.099744
-0.1303 -0.017361 0.099940002
-0.13031501 -0.017655 0.099776998
-0.130293 -0.017948 0.099559002
-0.130537 -0.018247001 0.099724002
-0.13079301 -0.018547 0.099905998
-0.131051 -0.018846 0.10009
-0.13129701 -0.019145001 0.100258
-0.13128699 -0.019439001 0.100059
-0.13128801 -0.019733001 0.099873997
-0.13155299 -0.020032 0.100069
-0.131863 -0.020331001 0.100329
-0.132357 -0.020633001 0.100855
-0.13257401 -0.02093 0.100981
-0.13257299 -0.021224 0.100794
-0.13282301 -0.021521 0.100969
-0.13288 -0.021816 0.100865
-0.133136 -0.022112999 0.101048
-0.13314199 -0.022407999 0.100871
-0.133136 -0.022704 0.100676
-0.13315099 -0.022999 0.10051
-0.133633 -0.023297001 0.101022
-0.133688 -0.023592999 0.100914
-0.133964 -0.023889 0.101127
-0.13421001 -0.024185 0.101297
-0.13421801 -0.024481 0.101121
-0.13442799 -0.024776001 0.10124
-0.134454 -0.025072999 0.101089
-0.13450199 -0.025369 0.100972
-0.135215 -0.025660999 0.10182
-0.13547701 -0.025955999 0.102014
-0.135526 -0.026252 0.101898
-0.135766 -0.026546 0.10206
-0.13575999 -0.026843 0.101865
-0.135749 -0.027140001 0.101661
-0.135746 -0.027438 0.101469
-0.136003 -0.027731 0.101655
-0.13629299 -0.028023999 0.10189
-0.136536 -0.028317999 0.102057
-0.136554 -0.028616 0.101895
-0.136802 -0.028909 0.102069
-0.13708501 -0.029201001 0.102295
-0.13758101 -0.029487001 0.102833
-0.13759799 -0.029785 0.10267
-0.137592 -0.030083001 0.102472
-0.13781101 -0.030376 0.102604
-0.137843 -0.030673999 0.102464
-0.138117 -0.030965 0.102676
-0.138364 -0.031256001 0.10285
-0.138366 -0.031555001 0.102664
-0.138374 -0.031854 0.102487
-0.13885701 -0.032136999 0.103009
-0.139134 -0.032427002 0.103227
-0.139378 -0.032717001 0.103396
-0.139377 -0.033016998 0.103207
-0.139626 -0.033307001 0.103384
-0.139865 -0.033597 0.103547
-0.139882 -0.033895999 0.103384
-0.139929 -0.034194 0.103262
-0.14040899 -0.034472998 0.103782
-0.140458 -0.034770999 0.103665
-0.140687 -0.035061002 0.103813
-0.14070401 -0.035360999 0.103649
-0.14094099 -0.03565 0.10381
-0.14118201 -0.035939001 0.103976
-0.14119001 -0.036238998 0.103798
-0.141203 -0.036540002 0.103628
-0.14123701 -0.036839999 0.103487
-0.14170299 -0.037115999 0.103988
-0.141947 -0.037402999 0.104161
-0.141982 -0.037703 0.104022
-0.142208 -0.037990998 0.104167
-0.142446 -0.038279001 0.104331
-0.142469 -0.03858 0.104175
-0.142515 -0.038879 0.104052
-0.14297999 -0.039152 0.104554
-0.143012 -0.039452001 0.10441
-0.143244 -0.039739002 0.104564
-0.14324801 -0.040042002 0.10438
-0.143306 -0.040341001 0.104275
-0.14378101 -0.04061 0.104793
-0.144026 -0.040895998 0.104968
-0.14404599 -0.041198 0.104807
-0.144282 -0.041483 0.104968
-0.144527 -0.041768 0.105142
-0.144786 -0.042050999 0.105339
-0.14481799 -0.042353 0.105196
-0.14504801 -0.042638 0.105348
-0.145285 -0.042922001 0.105512
-0.146051 -0.044379 0.105702
-0.146071 -0.044682 0.10554
-0.14608499 -0.044985998 0.105368
-0.14631601 -0.04527 0.105523
-0.146355 -0.045572001 0.105389
-0.146586 -0.045855999 0.105545
-0.146817 -0.04614 0.1057
-0.146832 -0.046445001 0.105529
-0.146851 -0.046749 0.105364
-0.147101 -0.047031 0.105549
-0.147346 -0.047311999 0.105727
-0.147614 -0.047591001 0.105938
-0.147663 -0.047892999 0.105819
-0.14790601 -0.048174001 0.105994
-0.15606099 -0.063822001 0.107929
-0.156298 -0.064094 0.108101
-0.156738 -0.064328998 0.10859
-0.15696999 -0.064600997 0.108754
-0.15677699 -0.064953998 0.108252
-0.15751199 -0.066081002 0.108605
-0.15961801 -0.071391001 0.108304
-0.15969799 -0.071695 0.108228
-0.160348 -0.071869999 0.10906
-0.160585 -0.072137997 0.109233
-0.160601 -0.072456002 0.109056
-0.160413 -0.072820999 0.108553
-0.160826 -0.073048003 0.109009
-0.16089 -0.073354997 0.108907
-0.16132399 -0.073576003 0.109396
-0.161377 -0.073886 0.109277
-0.16163 -0.074147999 0.109479
-0.161883 -0.074409999 0.109679
-0.162323 -0.074626997 0.110179
-0.162558 -0.074891999 0.110354
-0.16262899 -0.075198002 0.110264
-0.162853 -0.075466 0.110418
-0.162857 -0.075787999 0.110221
-0.162864 -0.076109 0.110029
-0.162898 -0.076425001 0.109878
-0.163128 -0.076691002 0.110043
-0.163168 -0.077004999 0.109902
-0.16358601 -0.077223003 0.110371
-0.16364101 -0.077532999 0.110255
-0.164055 -0.077751003 0.110717
-0.16387901 -0.078120999 0.110228
-0.16367701 -0.078498997 0.109696
-0.16376901 -0.079126999 0.109434
-0.16420899 -0.079337001 0.109938
-0.164426 -0.079604998 0.110084
-0.164855 -0.079815999 0.110573
-0.16512901 -0.080068 0.11081
-0.16556101 -0.080275998 0.111304
-0.165612 -0.080587998 0.111181
-0.165838 -0.080852002 0.111342
-0.166071 -0.081114002 0.111515
-0.16610099 -0.081432 0.111358
-0.16632301 -0.081697002 0.111511
-0.16633999 -0.082019001 0.111333
-0.166354 -0.082341999 0.111149
-0.166557 -0.082612 0.111273
-0.166786 -0.082874 0.111439
-0.166848 -0.083183996 0.111334
-0.16706 -0.083451003 0.111472
-0.167097 -0.083768003 0.111325
-0.167151 -0.084081002 0.111207
-0.16720399 -0.084394 0.111086
-0.167255 -0.084707998 0.110961
-0.16748799 -0.084968001 0.111134
-0.168072 -0.085123003 0.111882
-0.16809499 -0.085446 0.111712
-0.16811199 -0.085770003 0.111532
-0.168145 -0.086089998 0.111378
-0.16835999 -0.086354002 0.111523
-0.168391 -0.086676002 0.111364
-0.16860899 -0.086939 0.111514
-0.168672 -0.087250002 0.111409
-0.168916 -0.087504998 0.111601
-0.16914199 -0.087765999 0.111764
-0.169181 -0.088085003 0.11162
-0.16941699 -0.088340998 0.111799
-0.16984101 -0.088537998 0.11229
-0.170085 -0.088790998 0.112483
-0.17033701 -0.089042 0.11269
-0.170553 -0.089303002 0.112837
-0.170573 -0.089629002 0.112661
-0.170601 -0.089951999 0.112498
-0.17082299 -0.090210997 0.112656
-0.170876 -0.090526 0.112534
-0.171295 -0.090719998 0.113018
-0.17134801 -0.091035001 0.112897
-0.171756 -0.091231003 0.113364
-0.17179599 -0.09155 0.113221
-0.17183 -0.091871999 0.113067
-0.17186899 -0.092192002 0.11292
-0.172096 -0.092449002 0.113087
-0.172315 -0.092707001 0.113241
-0.17254899 -0.09296 0.113421
-0.17275 -0.093225002 0.113545
-0.172599 -0.093612 0.113081
-0.172815 -0.093870997 0.113231
-0.17307 -0.094116002 0.113447
-0.173491 -0.094301999 0.113937
-0.173538 -0.094619997 0.113806
-0.17356201 -0.094947003 0.113633
-0.173584 -0.095275 0.113459
-0.17362 -0.095597997 0.113308
-0.173831 -0.095858 0.113449
-0.173847 -0.096188001 0.113263
-0.17386299 -0.096519001 0.113078
-0.174109 -0.096766002 0.113278
-0.174347 -0.097015999 0.113466
-0.174578 -0.097268 0.113642
-0.174786 -0.097528003 0.113779
-0.174843 -0.097843997 0.113661
-0.176452 -0.098249003 0.115736
-0.17668401 -0.098497003 0.115916
-0.176726 -0.098816998 0.115774
-0.17695101 -0.099068001 0.115943
-0.177173 -0.099319004 0.116105
-0.177406 -0.099565998 0.116287
-0.17761999 -0.099820003 0.116437
-0.177458 -0.10022 0.11595
-0.17744 -0.100566 0.115704
-0.177424 -0.10091 0.115465
-0.17766801 -0.101153 0.115664
-0.177919 -0.101392 0.115878
-0.178151 -0.101638 0.116059
-0.178175 -0.101967 0.115886
-0.178204 -0.102295 0.11572
-0.178427 -0.102545 0.115886
-0.178657 -0.102791 0.116064
-0.17889 -0.103036 0.116246
-0.179115 -0.103284 0.116416
-0.17916299 -0.103604 0.116283
-0.179364 -0.103862 0.116412
-0.17938399 -0.104194 0.116231
-0.17942099 -0.10452 0.116078
-0.179658 -0.104762 0.116268
-0.179869 -0.105015 0.116415
-0.179921 -0.105335 0.116288
-0.17995401 -0.105663 0.116129
-0.180153 -0.10592 0.116256
-0.18017399 -0.106254 0.116076
-0.180382 -0.106508 0.116216
-0.180428 -0.106831 0.116078
-0.180618 -0.107092 0.11619
-0.180648 -0.107423 0.116024
-0.18068001 -0.107753 0.115862
-0.180714 -0.108082 0.115703
-0.18093 -0.108332 0.115858
-0.181127 -0.10859 0.115981
-0.18117701 -0.108913 0.115849
-0.181224 -0.109238 0.115712
-0.181613 -0.109409 0.116167
-0.18165401 -0.109736 0.116021
-0.181705 -0.110059 0.115891
-0.18175 -0.110386 0.11575
-0.181962 -0.110636 0.115899
-0.182164 -0.110891 0.11603
-0.182401 -0.111129 0.116224
-0.18247101 -0.111444 0.116126
-0.182862 -0.11161 0.116587
-0.182906 -0.111937 0.116445
-0.183102 -0.112194 0.116566
-0.18313999 -0.112524 0.116413
-0.183183 -0.112852 0.116268
-0.183401 -0.113098 0.11643
-0.18362799 -0.113339 0.116606
-0.183677 -0.113664 0.116472
-0.1839 -0.113907 0.116641
-0.184287 -0.114071 0.117099
-0.184332 -0.114398 0.116958
-0.184375 -0.114727 0.116811
-0.184581 -0.114977 0.116952
-0.184617 -0.11531 0.116794
-0.184655 -0.115642 0.116639
-0.184866 -0.115889 0.116789
-0.185087 -0.116131 0.116957
-0.18513601 -0.116458 0.116821
-0.185366 -0.116695 0.117005
-0.185578 -0.116941 0.117157
-0.185635 -0.117265 0.117035
-0.186022 -0.117422 0.117496
-0.186086 -0.117742 0.117386
-0.18631101 -0.117981 0.117562
-0.186516 -0.118229 0.117703
-0.186562 -0.118557 0.117562
-0.186606 -0.118888 0.117417
-0.18680599 -0.119139 0.117548
-0.18701901 -0.119382 0.117703
-0.187061 -0.119714 0.117554
-0.187277 -0.119956 0.117715
-0.18731999 -0.120287 0.117569
-0.187528 -0.120533 0.117714
-0.187582 -0.120859 0.117588
-0.187953 -0.121018 0.118024
-0.187988 -0.121355 0.117862
-0.188032 -0.121687 0.117716
-0.188087 -0.122013 0.11759
-0.188476 -0.122161 0.118061
-0.18853199 -0.122486 0.117936
-0.188583 -0.122815 0.117802
-0.18879101 -0.123059 0.117949
-0.188999 -0.123303 0.118096
-0.18904001 -0.123638 0.117945
-0.18924101 -0.123885 0.11808
-0.18945099 -0.124127 0.118231
-0.18949001 -0.124464 0.118075
-0.18953399 -0.124797 0.117929
-0.18975399 -0.12503301 0.118098
-0.18999 -0.12526099 0.118297
-0.19021299 -0.125495 0.118472
-0.190432 -0.12572999 0.118641
-0.19047999 -0.126063 0.118499
-0.19052 -0.126399 0.118345
-0.190716 -0.126647 0.118473
-0.19090199 -0.126902 0.118581
-0.190946 -0.12723599 0.118435
-0.190997 -0.12756699 0.118299
-0.191209 -0.12780701 0.118455
-0.19143701 -0.12803601 0.11864
-0.191493 -0.128365 0.118514
-0.191696 -0.128608 0.118655
-0.1919 -0.128851 0.118797
-0.191966 -0.12917399 0.118689
-0.192194 -0.129402 0.118876
-0.192241 -0.12973601 0.118733
-0.192605 -0.129884 0.119166
-0.192652 -0.130218 0.119023
-0.19286001 -0.130457 0.119174
-0.19291499 -0.130788 0.119044
-0.19296201 -0.13112301 0.118901
-0.193323 -0.13127001 0.119331
-0.19338199 -0.131598 0.11921
-0.193608 -0.131825 0.119394
-0.193812 -0.132065 0.119538
-0.193866 -0.132397 0.119406
-0.193919 -0.13272899 0.119274
-0.19427299 -0.13287599 0.119694
-0.19431201 -0.13321701 0.119535
-0.194368 -0.13354801 0.119408
-0.19475199 -0.13367601 0.119882
-0.194819 -0.134 0.119775
-0.194858 -0.134342 0.119615
-0.194893 -0.13468599 0.11945
-0.195096 -0.13492499 0.119593
-0.19531301 -0.13515601 0.119761
-0.195365 -0.13549 0.119625
-0.19574 -0.13562 0.120086
-0.195796 -0.135952 0.119958
-0.195848 -0.13628601 0.119822
-0.196216 -0.136418 0.120273
-0.196271 -0.136751 0.120142
-0.196468 -0.13699301 0.120274
-0.196512 -0.13733301 0.120124
-0.196732 -0.137559 0.1203
-0.19694 -0.137793 0.120454
-0.196998 -0.138124 0.120328
-0.197034 -0.13846999 0.120163
-0.197069 -0.138817 0.119993
-0.197428 -0.138951 0.12043
-0.197493 -0.13927799 0.120317
-0.19770899 -0.139506 0.120485
-0.19790199 -0.13974901 0.120613
-0.197945 -0.140091 0.120459
-0.197992 -0.140431 0.120312
-0.198034 -0.140774 0.120157
-0.19825201 -0.141 0.120329
-0.198627 -0.141119 0.120798
-0.19869 -0.141449 0.120681
-0.19890399 -0.14167599 0.120847
-0.198954 -0.142015 0.120705
-0.19916099 -0.14224599 0.12086
-0.19919699 -0.14259499 0.120691
-0.199248 -0.142933 0.120553
-0.19944 -0.14317501 0.120677
-0.199479 -0.14352199 0.120515
-0.103081 0.029121 0.090636998
-0.102434 0.028973 0.089605004
-0.103055 0.028299 0.090079002
-0.103669 0.027904 0.090719
-0.103665 0.027628999 0.090540998
-0.103624 0.02736 0.090311997
-0.103594 0.027089 0.090097003
-0.103598 0.026812 0.089928001
-0.104456 0.026373001 0.090893999
-0.104777 0.026036 0.091145001
-0.105045 0.025433 0.091153003
-0.10498 0.025168 0.090892002
-0.104923 0.024901999 0.090640001
-0.105789 0.023634 0.091095001
-0.10694 0.022597 0.092109002
-0.106637 0.022373 0.091527
-0.106915 0.022046 0.091724001
-0.106898 0.021771001 0.091526002
-0.106899 0.021493001 0.091352001
-0.106884 0.021215999 0.091155998
-0.107413 0.020848 0.091688998
-0.107408 0.020570001 0.091507003
-0.107696 0.020242 0.091716997
-0.108255 0.01987 0.092290998
-0.10827 0.019588999 0.092136003
-0.10853 0.019267 0.092308998
-0.108832 0.018939 0.092540003
-0.109409 0.018286999 0.092964999
-0.10937 0.018014001 0.092735998
-0.109857 0.017378001 0.093039997
-0.109573 0.017144 0.092479996
-0.110435 0.016728999 0.093466997
-0.110838 0.016108001 0.093658999
-0.110484 0.015883001 0.093002997
-0.110447 0.015608 0.092776999
-0.110994 0.015245 0.093340002
-0.111301 0.014919 0.093579002
-0.11133 0.014634 0.093440004
-0.11134 0.014352 0.093277998
-0.111346 0.01407 0.093107998
-0.111339 0.01379 0.092921004
-0.112113 0.013397 0.093794003
-0.1124 0.013075 0.094007
-0.112653 0.012758 0.094172999
-0.112907 0.012442 0.094341002
-0.112648 0.012197 0.093811996
-0.112924 0.011877 0.094010003
-0.113465 0.011521 0.094567999
-0.114306 0.010282 0.095004998
-0.113728 0.010077 0.094036996
-0.113679 0.0098010004 0.093792997
-0.113997 0.0094769998 0.094048999
-0.114876 0.0090800002 0.095073
-0.115144 0.0087639997 0.095261
-0.114857 0.0085180001 0.094690003
-0.114832 0.0082390001 0.094476998
-0.115116 0.0079199998 0.094687
-0.115646 0.0075719999 0.095233999
-0.115907 0.0072570001 0.095413998
-0.116159 0.006943 0.095582001
-0.115927 0.0066880002 0.095083997
-0.116131 0.0063809999 0.095186003
-0.115847 0.0061300001 0.094617002
-0.116644 0.0054700002 0.095353998
-0.116933 0.0051529999 0.095572002
-0.117217 0.0048369998 0.095784001
-0.117496 0.0045210002 0.095990002
-0.117501 0.0042369999 0.095817
-0.117227 0.0039829998 0.095260002
-0.117289 0.0036909999 0.095165998
-0.118392 0.0032870001 0.096509002
-0.117847 0.003061 0.095577002
-0.118257 0.0021629999 0.095602997
-0.118618 0.001841 0.095922001
-0.118927 0.001524 0.096170001
-0.119439 0.001187 0.096699998
-0.119707 0.00087599998 0.096891001
-0.119945 0.00056700001 0.097042002
-0.119907 0.00028599999 0.096809
-0.119884 2e-06 0.096596003
-0.119893 -0.00028400001 0.096428998
-0.119933 -0.00057400001 0.096303001
-0.119955 -0.00086299999 0.096152999
-0.12042 -0.001192 0.096617997
-0.120434 -0.00148 0.096458003
-0.120731 -0.001793 0.096689001
-0.121294 -0.0021289999 0.097294003
-0.121791 -0.0024580001 0.097805999
-0.121564 -0.002725 0.097308002
-0.121301 -0.0029899999 0.096759997
-0.121558 -0.003298 0.096937999
-0.122033 -0.0036249999 0.09742
-0.122023 -0.0039110002 0.097225003
-0.121773 -0.0041789999 0.096693002
-0.121782 -0.004468 0.096523002
-0.123127 -0.0051469998 0.098044001
-0.123375 -0.0054529998 0.09821
-0.12335 -0.0057390002 0.097994
-0.123107 -0.0060089999 0.09747
-0.123138 -0.0063 0.097332001
-0.123408 -0.006608 0.097528003
-0.123433 -0.0068979999 0.097382002
-0.124135 -0.0072349999 0.098185003
-0.123903 -0.0075079999 0.097677998
-0.124438 -0.0078330003 0.098246999
-0.124979 -0.0081559997 0.098825999
-0.125202 -0.0084589999 0.098959997
-0.12493 -0.0087310001 0.098393001
-0.124949 -0.009021 0.098237
-0.125007 -0.0093139997 0.098136
-0.125523 -0.0096349996 0.098682001
-0.125544 -0.0099250004 0.098529004
-0.126041 -0.010243 0.099049002
-0.1261 -0.010536 0.098948002
-0.12635399 -0.01084 0.099124998
-0.126581 -0.011141 0.099262998
-0.12633599 -0.011419 0.098733
-0.126086 -0.011697 0.098196
-0.126582 -0.012012 0.098714001
-0.12688001 -0.012318 0.098954998
-0.127389 -0.012632 0.099491999
-0.127397 -0.012923 0.099320002
-0.127165 -0.013204 0.098807998
-0.12720101 -0.013497 0.098674998
-0.12790801 -0.013819 0.099496
-0.127947 -0.014112 0.099367999
-0.12796199 -0.014404 0.099203996
-0.12798101 -0.014697 0.099046998
-0.128251 -0.014999 0.099247999
-0.128739 -0.015309 0.099758998
-0.128985 -0.015609 0.099924996
-0.128985 -0.015900999 0.099740997
-0.12919199 -0.0162 0.099852003
-0.12921099 -0.016493 0.099694997
-0.129484 -0.016794 0.0999
-0.12948599 -0.017086999 0.099717997
-0.12946901 -0.017379999 0.099509001
-0.129719 -0.017680001 0.099680997
-0.129804 -0.017975001 0.099618003
-0.130345 -0.018282 0.100208
-0.130578 -0.018580999 0.100358
-0.130803 -0.018879 0.100495
-0.130807 -0.019172 0.100315
-0.131051 -0.019471001 0.100481
-0.13132299 -0.01977 0.100686
-0.131345 -0.020064 0.100533
-0.131349 -0.020358 0.100351
-0.13161699 -0.020656001 0.100553
-0.13170201 -0.020951999 0.100489
-0.132376 -0.021548999 0.101089
-0.13210499 -0.021841001 0.100511
-0.13232 -0.022138 0.100635
-0.132595 -0.022435 0.100845
-0.132705 -0.022731001 0.100819
-0.13371301 -0.023326 0.101904
-0.13345399 -0.02362 0.101343
-0.133637 -0.023916001 0.10142
-0.133671 -0.024212001 0.101283
-0.13394301 -0.024506999 0.101491
-0.133956 -0.024803 0.101322
-0.13416199 -0.025099 0.101434
-0.13417301 -0.025395 0.101264
-0.134205 -0.025691999 0.101122
-0.13426299 -0.025988 0.101019
-0.134956 -0.026279001 0.10184
-0.135221 -0.026573 0.102038
-0.135276 -0.026869001 0.101931
-0.135546 -0.027163001 0.102137
-0.135814 -0.027456 0.10234
-0.136283 -0.027745999 0.102836
-0.136058 -0.028046999 0.102321
-0.13602699 -0.028345 0.102087
-0.136026 -0.028643001 0.101897
-0.136287 -0.028936001 0.102091
-0.13677201 -0.029223001 0.102612
-0.137024 -0.029515 0.102792
-0.13704801 -0.029812999 0.10264
-0.13729399 -0.030105 0.102811
-0.13727801 -0.030404 0.1026
-0.137275 -0.030703001 0.102407
-0.137362 -0.030998999 0.102346
-0.13789301 -0.031282 0.102937
-0.13835201 -0.031566001 0.103422
-0.138354 -0.031865001 0.103236
-0.138557 -0.032157 0.103346
-0.13855501 -0.032455999 0.103154
-0.13835301 -0.032763999 0.102667
-0.13861001 -0.033054002 0.102857
-0.138882 -0.033342998 0.103068
-0.138909 -0.033642001 0.102917
-0.13913199 -0.033932999 0.103057
-0.139364 -0.034224 0.10321
-0.139636 -0.034511998 0.103422
-0.1397 -0.034809999 0.103327
-0.140167 -0.035087999 0.103827
-0.140202 -0.035386998 0.103689
-0.140444 -0.035675999 0.103857
-0.140673 -0.035964999 0.104007
-0.14069501 -0.036265001 0.10385
-0.140709 -0.036566 0.103679
-0.141164 -0.036843002 0.104164
-0.141204 -0.037142001 0.104033
-0.14144 -0.03743 0.104194
-0.14192501 -0.037703 0.104724
-0.14197899 -0.038001001 0.104614
-0.14201 -0.038300999 0.10447
-0.142244 -0.038589001 0.104627
-0.14225 -0.03889 0.104446
-0.142261 -0.039191999 0.104271
-0.142488 -0.039480001 0.104417
-0.14274999 -0.039765 0.104618
-0.14302 -0.040049002 0.104829
-0.143473 -0.040320002 0.105314
-0.14351401 -0.040619999 0.105185
-0.14355201 -0.040920001 0.10505
-0.144012 -0.041189 0.105547
-0.14404 -0.04149 0.105398
-0.14404701 -0.041793 0.105216
-0.144255 -0.04208 0.105337
-0.14428499 -0.042381 0.10519
-0.144538 -0.042665001 0.105378
-0.144797 -0.042947002 0.105574
-0.145015 -0.043233 0.105709
-0.14504801 -0.043535002 0.105566
-0.145778 -0.044689 0.105896
-0.14580099 -0.044992 0.105738
-0.145812 -0.045295998 0.105561
-0.145604 -0.045621999 0.105054
-0.145603 -0.045929 0.104859
-0.14582901 -0.046213001 0.105008
-0.14589401 -0.046514001 0.104911
-0.146359 -0.046774 0.105421
-0.146606 -0.047056001 0.105601
-0.146612 -0.047362 0.105417
-0.146862 -0.047642998 0.105601
-0.14735299 -0.047897998 0.106151
-0.147844 -0.048153002 0.106701
-0.15625501 -0.064034 0.10886
-0.15628999 -0.064343996 0.108717
-0.156507 -0.064618997 0.108856
-0.15673099 -0.064893 0.109008
-0.156762 -0.065203004 0.108858
-0.15737399 -0.065402001 0.109619
-0.157469 -0.066016003 0.109368
-0.15751 -0.066325001 0.109234
-0.15752301 -0.066639997 0.109053
-0.15775201 -0.066912003 0.109213
-0.15933301 -0.070726 0.109096
-0.159546 -0.070998996 0.109232
-0.159564 -0.071315996 0.109058
-0.15940601 -0.071672998 0.108604
-0.15944999 -0.071984001 0.108471
-0.15989199 -0.072205998 0.108971
-0.160312 -0.072431996 0.109437
-0.160349 -0.072745003 0.109292
-0.16036899 -0.073062003 0.109122
-0.160393 -0.073379003 0.108956
-0.160625 -0.073647 0.109123
-0.160859 -0.073913999 0.109294
-0.160731 -0.074267998 0.108884
-0.16116001 -0.074487999 0.109368
-0.16158301 -0.074708998 0.10984
-0.161635 -0.075019002 0.109721
-0.16188 -0.075282998 0.109909
-0.16213299 -0.075544 0.11011
-0.16236 -0.075810999 0.110271
-0.162407 -0.076122999 0.110142
-0.162618 -0.076393999 0.110277
-0.162654 -0.076707996 0.11013
-0.162681 -0.077026002 0.109968
-0.162719 -0.077340998 0.109824
-0.163122 -0.077561997 0.11027
-0.16333 -0.077832997 0.110399
-0.163379 -0.078144997 0.110274
-0.163443 -0.078454003 0.110172
-0.16386899 -0.078667 0.110653
-0.164102 -0.078930996 0.110825
-0.16413601 -0.079246998 0.110675
-0.16415299 -0.079567999 0.110497
-0.164372 -0.079834998 0.110645
-0.164419 -0.080149002 0.110516
-0.164846 -0.080358997 0.111001
-0.165104 -0.080614001 0.111213
-0.16554099 -0.080820002 0.111717
-0.165585 -0.081133999 0.111582
-0.16580001 -0.0814 0.111726
-0.166006 -0.081669003 0.111854
-0.16604599 -0.081983998 0.111713
-0.166077 -0.082301997 0.111558
-0.16629 -0.082569003 0.111698
-0.16632 -0.082888 0.111541
-0.16654199 -0.083150998 0.111696
-0.166574 -0.083470002 0.111541
-0.16661701 -0.083786003 0.111404
-0.16664401 -0.084105998 0.111241
-0.166669 -0.084427997 0.111074
-0.16705801 -0.084642 0.111502
-0.167106 -0.084957004 0.111373
-0.16733301 -0.085217997 0.111536
-0.167197 -0.085588999 0.111106
-0.167392 -0.085859999 0.111217
-0.167429 -0.086179003 0.111069
-0.16750801 -0.086485997 0.11099
-0.168129 -0.086626001 0.1118
-0.168347 -0.086888 0.111951
-0.168375 -0.08721 0.111789
-0.16842499 -0.087526001 0.111661
-0.168842 -0.087725997 0.11214
-0.169076 -0.087982997 0.112316
-0.16931801 -0.088237002 0.112507
-0.16935199 -0.088558003 0.112353
-0.16937999 -0.088880002 0.11219
-0.16977499 -0.089084998 0.112633
-0.169837 -0.089396 0.112527
-0.17027999 -0.089584 0.11305
-0.17033 -0.089900002 0.112923
-0.170524 -0.090167999 0.113034
-0.170544 -0.090493001 0.112858
-0.170606 -0.090806 0.112751
-0.17102 -0.090999998 0.113228
-0.17125501 -0.091254003 0.113408
-0.171288 -0.091576003 0.113253
-0.17132001 -0.091898002 0.113095
-0.171538 -0.092156999 0.113248
-0.171781 -0.092408001 0.113442
-0.171821 -0.092727996 0.113298
-0.172031 -0.092990004 0.113436
-0.172254 -0.093245998 0.113597
-0.172313 -0.093560003 0.113484
-0.172538 -0.093815997 0.113649
-0.172746 -0.094076999 0.113785
-0.172786 -0.094397001 0.113642
-0.173012 -0.094651997 0.113808
-0.173061 -0.094970003 0.113678
-0.173453 -0.095164999 0.114123
-0.17349 -0.095486999 0.113973
-0.17353 -0.095807999 0.113829
-0.17376 -0.09606 0.114003
-0.173788 -0.096386999 0.113836
-0.173813 -0.096713997 0.113667
-0.174034 -0.096969001 0.113826
-0.174283 -0.097213998 0.114032
-0.17451499 -0.097465001 0.11421
-0.17476501 -0.097708002 0.114419
-0.174869 -0.098006003 0.114381
-0.175734 -0.098353997 0.115415
-0.175954 -0.098944001 0.115361
-0.17641801 -0.099102996 0.115932
-0.176652 -0.099349998 0.116115
-0.17686801 -0.099602997 0.116269
-0.17707901 -0.099858001 0.116413
-0.17714401 -0.10017 0.116312
-0.17735 -0.100427 0.116447
-0.177193 -0.100826 0.115968
-0.177214 -0.101157 0.115789
-0.177604 -0.10134 0.116238
-0.177664 -0.101655 0.116127
-0.178073 -0.101829 0.116609
-0.178094 -0.10216 0.116431
-0.17793 -0.102566 0.115936
-0.178138 -0.102821 0.116077
-0.178361 -0.10307 0.116243
-0.17841101 -0.10339 0.116114
-0.178809 -0.103566 0.116579
-0.179028 -0.103816 0.116739
-0.17908201 -0.104134 0.116616
-0.179134 -0.104453 0.116491
-0.17917199 -0.104778 0.116339
-0.179364 -0.105039 0.116453
-0.179371 -0.105378 0.11625
-0.179406 -0.105705 0.116093
-0.179637 -0.105949 0.116274
-0.179857 -0.106197 0.116437
-0.179895 -0.106523 0.116286
-0.179904 -0.106863 0.116084
-0.17994501 -0.107189 0.115938
-0.180159 -0.10744 0.116089
-0.18037701 -0.107688 0.116248
-0.180411 -0.108017 0.11609
-0.18061601 -0.108272 0.116225
-0.180663 -0.108596 0.116089
-0.180886 -0.108842 0.116257
-0.180924 -0.10917 0.116106
-0.18113101 -0.109423 0.116245
-0.181173 -0.109749 0.1161
-0.18122099 -0.110074 0.115965
-0.181601 -0.110248 0.116405
-0.181638 -0.110577 0.116252
-0.181863 -0.110821 0.116423
-0.182071 -0.111072 0.116566
-0.182128 -0.111393 0.116445
-0.18217599 -0.111718 0.11631
-0.182391 -0.111966 0.116465
-0.18261901 -0.112207 0.116643
-0.18284801 -0.112448 0.116823
-0.183053 -0.112699 0.116961
-0.183101 -0.113024 0.116826
-0.18332499 -0.113267 0.116997
-0.183531 -0.113517 0.117137
-0.183587 -0.113839 0.117015
-0.183642 -0.114162 0.116891
-0.184016 -0.114331 0.117326
-0.184048 -0.114665 0.117163
-0.184093 -0.114993 0.117019
-0.184313 -0.115236 0.117185
-0.184521 -0.115484 0.11733
-0.184568 -0.115811 0.117192
-0.184789 -0.116053 0.11736
-0.18483099 -0.116383 0.117213
-0.185036 -0.116632 0.117352
-0.185093 -0.116955 0.117231
-0.18548401 -0.117111 0.117699
-0.185546 -0.117431 0.117585
-0.185596 -0.117758 0.117453
-0.1858 -0.118007 0.11759
-0.185817 -0.11835 0.117398
-0.186014 -0.118603 0.117524
-0.186075 -0.118924 0.11741
-0.186461 -0.119079 0.117871
-0.186499 -0.119413 0.117715
-0.18654899 -0.119741 0.117581
-0.186776 -0.119977 0.11776
-0.187001 -0.120214 0.117937
-0.18704399 -0.120545 0.11779
-0.187244 -0.120795 0.117922
-0.187465 -0.121033 0.118092
-0.187507 -0.121365 0.117944
-0.187713 -0.121611 0.118086
-0.18793599 -0.121848 0.11826
-0.187985 -0.122176 0.118124
-0.188216 -0.122408 0.118311
-0.188264 -0.122738 0.118172
-0.18847001 -0.122983 0.118317
-0.18851 -0.123318 0.118164
-0.188875 -0.123476 0.118592
-0.18892799 -0.123803 0.118463
-0.18898 -0.124132 0.118331
-0.18903001 -0.124462 0.118195
-0.189229 -0.12471 0.118326
-0.189439 -0.124952 0.118477
-0.189492 -0.12527999 0.118347
-0.189704 -0.12552001 0.118504
-0.189922 -0.12575699 0.118669
-0.19012199 -0.126003 0.118804
-0.190171 -0.126334 0.118665
-0.190219 -0.12666599 0.118526
-0.190432 -0.126904 0.118684
-0.190483 -0.12723599 0.118548
-0.19069301 -0.12747499 0.118701
-0.19073001 -0.12781399 0.118542
-0.190936 -0.128057 0.118686
-0.19115201 -0.12829299 0.11885
-0.191383 -0.12852 0.119041
-0.191434 -0.128851 0.118906
-0.191651 -0.129086 0.119073
-0.191856 -0.129327 0.119217
-0.19191401 -0.129655 0.119094
-0.192279 -0.12980101 0.119531
-0.19231901 -0.13014001 0.119375
-0.192368 -0.130473 0.119235
-0.192577 -0.130711 0.119388
-0.192809 -0.130935 0.119583
-0.192866 -0.131264 0.119457
-0.193224 -0.131411 0.119883
-0.19327299 -0.131745 0.119744
-0.193333 -0.132072 0.119624
-0.19370501 -0.13221 0.120077
-0.19374999 -0.13254599 0.119928
-0.19379599 -0.132882 0.119784
-0.193996 -0.13312399 0.119921
-0.194056 -0.133452 0.119801
-0.19426601 -0.133687 0.119957
-0.19431201 -0.13402399 0.119811
-0.19451299 -0.13426401 0.11995
-0.194711 -0.134507 0.120083
-0.19476201 -0.134841 0.119947
-0.19481499 -0.13517401 0.119812
-0.195013 -0.135416 0.119947
-0.195223 -0.13564999 0.120103
-0.195279 -0.13598201 0.119975
-0.195512 -0.13620099 0.120174
-0.195889 -0.136328 0.12064
-0.195942 -0.13666099 0.120507
-0.19598401 -0.13700201 0.120352
-0.196025 -0.137343 0.120196
-0.19607601 -0.137679 0.120058
-0.196272 -0.13792101 0.12019
-0.196475 -0.13815799 0.120333
-0.19652399 -0.138496 0.120192
-0.19673 -0.138731 0.120341
-0.196954 -0.138953 0.120526
-0.197015 -0.139283 0.120405
-0.19736899 -0.139419 0.120833
-0.197419 -0.13975599 0.120692
-0.19763499 -0.139983 0.120862
-0.197834 -0.140221 0.121
-0.197881 -0.14056 0.120854
-0.197923 -0.14090399 0.120698
-0.197971 -0.141243 0.120554
-0.19817699 -0.14147601 0.120705
-0.19822501 -0.14181601 0.12056
-0.19843701 -0.14204501 0.120722
-0.19850101 -0.14237399 0.120607
-0.198705 -0.142608 0.120755
-0.19889601 -0.142851 0.120878
-0.198945 -0.14319099 0.120735
-0.199182 -0.143401 0.120945
-0.102363 0.02916 0.090258002
-0.102015 0.028953001 0.089624003
-0.102277 0.028348999 0.089621998
-0.103418 0.027023001 0.090438001
-0.103445 0.026741 0.090300001
-0.103687 0.026419001 0.090447001
-0.103661 0.026147 0.090236999
-0.103984 0.025808999 0.090492003
-0.104312 0.025471 0.090752997
-0.104584 0.025144 0.090940997
-0.104542 0.024874 0.090709001
-0.104791 0.024552001 0.090865999
-0.105062 0.024225 0.091053002
-0.105089 0.023941999 0.090914004
-0.105375 0.023613 0.091121003
-0.105375 0.023335001 0.090944998
-0.105648 0.023009 0.091135003
-0.105645 0.022731001 0.090954997
-0.105917 0.022405 0.091142997
-0.10677 0.021979 0.092109002
-0.106768 0.021701001 0.091931999
-0.10707 0.021371 0.092160001
-0.107056 0.021095 0.091966003
-0.107016 0.020824 0.091737002
-0.107297 0.020498 0.091937996
-0.107621 0.020165 0.092197001
-0.108182 0.019792 0.092775002
-0.108171 0.019516001 0.092583999
-0.108147 0.019241 0.092376001
-0.108134 0.018964 0.092182003
-0.107859 0.01873 0.091635004
-0.108104 0.018409999 0.091789
-0.108379 0.018085999 0.091982998
-0.108945 0.017716 0.092569001
-0.109518 0.017346 0.093166001
-0.110102 0.016696 0.093602002
-0.110096 0.016417 0.093416996
-0.109513 0.016226999 0.092451997
-0.109776 0.015907001 0.092629999
-0.110345 0.01554 0.093222998
-0.110642 0.015215 0.093448997
-0.110877 0.014899 0.093589999
-0.110853 0.014623 0.093379997
