# .PCD v0.7 - Point Cloud Data file format
VERSION 0.7
FIELDS x y z
SIZE 4 4 4
TYPE F F F
COUNT 1 1 1
WIDTH 1331
HEIGHT 1
VIEWPOINT 0 0 0 1 0 0 0
POINTS 1331
DATA ascii
0.048685301 -0.043973569 0.29330835
0.048510067 -0.043691773 0.29312608
0.048190817 -0.043377329 0.29272008
0.047254164 -0.042682957 0.29144412
0.046924222 -0.042368405 0.29102063
0.046739247 -0.042086907 0.29082233
0.046270676 -0.041742709 0.29018283
0.045757145 -0.041389603 0.289473
0.045264971 -0.041042332 0.28879598
0.044788696 -0.040699616 0.28814331
0.044613224 -0.040423222 0.28795865
0.044278376 -0.040112723 0.28752562
0.043318167 -0.03919474 0.28629419
0.043012798 -0.038893133 0.28590617
0.042690344 -0.038588569 0.28549123
0.042502459 -0.03831264 0.28528607
0.042179856 -0.038009185 0.28487051
0.041547321 -0.037406836 0.28405839
0.039344642 -0.036257226 0.28087813
0.039175067 -0.035989754 0.28069979
0.038863949 -0.035694592 0.28029993
0.038661934 -0.035421465 0.2800706
0.037489984 -0.034727622 0.27840906
0.037201684 -0.03443997 0.27804378
0.036912501 -0.03415272 0.27767691
0.036490474 -0.033840869 0.27710164
0.036320601 -0.033577435 0.27692133
0.036013223 -0.03328855 0.27652526
0.035834879 -0.033024263 0.27633139
0.035399266 -0.032712832 0.27573371
0.034959409 -0.032401592 0.27512899
0.034220036 -0.031807385 0.2741389
0.033787306 -0.031270903 0.27362955
0.033615042 -0.031011032 0.273444
0.033444509 -0.03075175 0.27326107
0.033128813 -0.030467508 0.27284968
0.032948889 -0.030207349 0.2726517
0.03265363 -0.029927749 0.27227202
0.032379098 -0.029652279 0.27192479
0.031800888 -0.029098123 0.27118376
0.030959092 -0.028502973 0.27002627
0.030765837 -0.028243966 0.269806
0.030228101 -0.027929543 0.26904216
0.02901718 -0.02705734 0.26738307
0.028736576 -0.026787674 0.26702374
0.028446306 -0.026517086 0.26664889
0.028042482 -0.026229627 0.26609436
0.027761562 -0.025961826 0.26573381
0.027485676 -0.025695365 0.26538098
0.027061053 -0.025183018 0.26487595
0.026988693 -0.024723621 0.26492819
0.025619008 -0.02363193 0.26309067
0.025451209 -0.023385167 0.26290756
0.025281392 -0.023138404 0.26272115
0.024134705 -0.022314684 0.26114926
0.023857722 -0.022055758 0.26079184
0.023697713 -0.021812726 0.26062012
0.023436945 -0.021556901 0.26028812
0.023294872 -0.02131683 0.26014465
0.023030953 -0.021061517 0.25980729
0.022759151 -0.020805763 0.2594572
0.022363 -0.020535141 0.25890896
0.021153741 -0.019946009 0.25714737
0.020897044 -0.019695424 0.25682011
0.020722041 -0.01945506 0.25662282
0.020663548 -0.019228673 0.25661117
0.020522835 -0.018992741 0.25646839
0.020255527 -0.018742522 0.2561236
0.019194741 -0.018184938 0.25459346
0.018956762 -0.017940367 0.2542946
0.018805981 -0.017705791 0.25413483
0.01843759 -0.017448023 0.2536273
0.018174134 -0.017202258 0.25328714
0.01781505 -0.016947011 0.25279391
0.017545961 -0.016701901 0.2524443
0.017278811 -0.016457565 0.25209758
0.017029174 -0.016215563 0.25177866
0.016783427 -0.015974466 0.25146577
0.016533345 -0.015733451 0.25114578
0.016273467 -0.015492016 0.25080988
0.015921317 -0.015242338 0.25032592
0.015665583 -0.01500252 0.24999622
0.01541615 -0.014763824 0.24967641
0.015262764 -0.014534403 0.24951045
0.015019285 -0.014297154 0.24919987
0.014879733 -0.014069594 0.24905589
0.014743547 -0.013842545 0.24891724
0.014607677 -0.013615731 0.248779
0.014464394 -0.013388506 0.24862878
0.014220582 -0.013153191 0.24831693
0.013968844 -0.012917743 0.24799214
0.014022754 -0.012707269 0.24815866
0.012920586 -0.012191993 0.24654505
0.012571097 -0.011951688 0.24606195
0.012413581 -0.011726471 0.24588768
0.012360979 -0.01150918 0.2458823
0.011537216 -0.011236688 0.2446344
0.011402921 -0.011014709 0.24449696
0.010815173 -0.010549888 0.24370711
0.010477621 -0.010315587 0.24324134
0.010341075 -0.010095039 0.24309967
0.01002022 -0.0098630758 0.24266039
0.0097819502 -0.009636947 0.2423542
0.0090040322 -0.0087473104 0.24141078
0.0081453705 -0.0082798004 0.24017821
0.0079171844 -0.0080580395 0.23988691
0.007690114 -0.0078368159 0.23959723
0.0073748147 -0.0076117525 0.23916449
0.0072326064 -0.0073956465 0.2390119
0.006658237 -0.0069511952 0.23823638
0.0056322929 -0.0064904667 0.23672733
0.005403942 -0.0062735486 0.23643395
0.0051714992 -0.0060569593 0.23613375
0.0049416213 -0.0058409655 0.23583753
0.0047102477 -0.0056254105 0.23553871
0.0046724244 -0.0054170652 0.2355542
0.0045366543 -0.0052054073 0.23541051
0.0045065153 -0.004997333 0.23543848
0.0037473778 -0.0047670393 0.23428075
0.0036558649 -0.0041452255 0.23436199
0.0035213816 -0.0039352397 0.23421977
0.0025652393 -0.0035010038 0.23281519
0.0028216699 -0.0030944785 0.23338628
0.0027720374 -0.0028873184 0.23338199
0.0024647203 -0.0026760274 0.23295718
0.0022441293 -0.0024667187 0.2326737
0.0020221053 -0.0022578654 0.23238769
0.0018064006 -0.0020495648 0.23211183
0.0015022148 -0.0018408279 0.23169121
0.0011897802 -0.0016327384 0.23125684
0.00096673885 -0.0014260397 0.23096837
0.00032636008 -0.0012174124 0.2299971
0.0001104238 -0.0010123223 0.22971965
0.00041216609 -0.00080918195 0.23028935
0.00020681723 -0.00060428283 0.2300292
8.4505657e-05 -0.00039981454 0.22990486
-0.00012114472 -0.00019566527 0.22964393
-0.0004096147 7.800516e-06 0.22924709
-0.00062685838 0.00021090264 0.22896677
-0.00097219832 0.00061634724 0.22855188
-0.0012582195 0.0008175543 0.22815821
-0.0015549174 0.0010179757 0.22774677
-0.0017788844 0.0012185456 0.2274545
-0.0019138509 0.0014198 0.22730824
-0.0020429168 0.001620908 0.22717161
-0.0027742542 0.001812046 0.22604486
-0.0033077972 0.0020046863 0.22524261
-0.0035917882 0.0022006929 0.22485034
-0.0037147321 0.0023993449 0.22472282
-0.0039113536 0.0025961678 0.22447394
-0.0040225275 0.0027945873 0.22436561
-0.0041395272 0.002992694 0.22424762
-0.0043359166 0.00318851 0.22399876
-0.0046249256 0.003381311 0.22359706
-0.00467643 0.0035804252 0.22358672
-0.0049595414 0.0037723705 0.22319438
-0.0050884322 0.0039686467 0.22305624
-0.0052077319 0.0041650287 0.22293384
-0.0054050414 0.0043584518 0.22268257
-0.0055231657 0.0045543751 0.22256193
-0.0057127695 0.0047473614 0.22232312
-0.0059007145 0.0049400106 0.22208691
-0.0061018458 0.0051317154 0.22182874
-0.006306692 0.0053228224 0.22156428
-0.0065059271 0.0055137277 0.22130892
-0.0067179217 0.0057036141 0.22103229
-0.006934267 0.0058928211 0.22074829
-0.0078651272 0.0060465918 0.21928085
-0.0080603836 0.0062348167 0.21903102
-0.0082605723 0.00642236 0.21877286
-0.0084460005 0.0066102515 0.218539
-0.0084153479 0.0068096146 0.21866331
-0.0085210782 0.007001536 0.21856147
-0.0086337784 0.0071928957 0.21844801
-0.0089821229 0.0073700692 0.21794334
-0.0092646554 0.0075503648 0.21754763
-0.0096083842 0.0077261454 0.21704999
-0.0097250855 0.0079155723 0.21692926
-0.0099917836 0.0080949841 0.21655914
-0.010189942 0.008278342 0.21630275
-0.010459792 0.0084563475 0.21592695
-0.010506077 0.0086493548 0.21592288
-0.010697996 0.0088319601 0.21567641
-0.011019908 0.0090046441 0.21521337
-0.011137021 0.0091917887 0.21509112
-0.011477229 0.0093617532 0.21459709
-0.011677791 0.0095416876 0.21433549
-0.011941792 0.0097161466 0.21396795
-0.012129017 0.0098961564 0.21372822
-0.012239891 0.010082034 0.21361572
-0.012682454 0.010434421 0.21302184
-0.012729569 0.010624958 0.21301551
-0.013262962 0.010772552 0.21219677
-0.013089804 0.010982175 0.21255828
-0.013273937 0.011159828 0.21232273
-0.013459821 0.011336912 0.21208411
-0.013500723 0.011527286 0.21208788
-0.013676976 0.011704696 0.21186514
-0.013855445 0.011881508 0.21163857
-0.014040865 0.012057241 0.2114002
-0.014780801 0.012756238 0.21044813
-0.015107532 0.012914816 0.20997195
-0.015647545 0.013434504 0.20928065
-0.01596917 0.01359093 0.20881204
-0.016019667 0.013777583 0.20879871
-0.016192995 0.013949973 0.20857891
-0.016508134 0.014105291 0.2081205
-0.016754476 0.014267992 0.2077775
-0.016941719 0.014437227 0.20753373
-0.017322758 0.014582317 0.2069636
-0.017500589 0.014751566 0.20673525
-0.017544894 0.014937174 0.20673168
-0.017648902 0.015115217 0.2066275
-0.017821655 0.01528425 0.2064074
-0.017932743 0.015460932 0.20629112
-0.018440675 0.015585132 0.20550539
-0.01861207 0.01575277 0.20528698
-0.018845946 0.015911598 0.20496297
-0.018831579 0.016103733 0.2050579
-0.019203467 0.016242744 0.2045005
-0.019443618 0.01639914 0.20416529
-0.019676303 0.016555991 0.20384251
-0.019780774 0.016730575 0.20373629
-0.019759793 0.016923096 0.20384221
-0.019860325 0.01709811 0.20374261
-0.020021781 0.017263977 0.20353982
-0.020192152 0.017428162 0.20332181
-0.020373596 0.017590297 0.2030849
-0.020623235 0.017741632 0.20273229
-0.020789081 0.017905226 0.20252147
-0.020949649 0.018069273 0.20231946
-0.021242237 0.018212235 0.20189339
-0.021422748 0.018372202 0.20165721
-0.021595167 0.018533055 0.2014346
-0.021757871 0.018695081 0.20122835
-0.021922125 0.018856497 0.20101932
-0.022157559 0.019005803 0.20068923
-0.02251406 0.019134343 0.20015311
-0.022623163 0.019303516 0.2000373
-0.022787228 0.019463163 0.19982794
-0.02295159 0.019622393 0.19961792
-0.023114026 0.01978159 0.19941105
-0.023334626 0.019930264 0.19910501
-0.023563802 0.020076878 0.19878416
-0.023619881 0.020253694 0.19875804
-0.023795344 0.020409066 0.19852839
-0.024260299 0.020511622 0.197805
-0.024578361 0.020825449 0.19740072
-0.024746707 0.020980099 0.19718249
-0.024862476 0.021144219 0.19705388
-0.025094109 0.021286214 0.19672729
-0.025426058 0.021408478 0.19622906
-0.025346572 0.021608969 0.19643377
-0.025434449 0.021777408 0.19635244
-0.025583658 0.021933727 0.19616616
-0.02567655 0.022100819 0.19607612
-0.025776746 0.022266323 0.19597355
-0.02598724 0.022409542 0.19568202
-0.026545938 0.022666344 0.19486243
-0.026710397 0.022817206 0.19464915
-0.026814045 0.02298028 0.19454001
-0.02733306 0.023056515 0.19371828
-0.027373102 0.023231918 0.1937179
-0.027528739 0.023382854 0.1935191
-0.027690979 0.023532026 0.19330883
-0.027796783 0.023692966 0.19319536
-0.028008305 0.023830796 0.19290015
-0.028103696 0.023993457 0.19280438
-0.028439455 0.024103059 0.19229521
-0.028602405 0.024250032 0.19208294
-0.028686369 0.024414266 0.19200647
-0.028714808 0.024590878 0.19202554
-0.028810574 0.024752287 0.19192868
-0.028975969 0.024897641 0.19171183
-0.029191568 0.025031062 0.19140831
-0.029333396 0.02518101 0.19123174
-0.029475374 0.025330614 0.19105482
-0.029795431 0.025438067 0.19057056
-0.029897751 0.025596129 0.19046172
-0.029991871 0.025755964 0.19036698
-0.030142162 0.025902165 0.19017518
-0.030411329 0.026019307 0.18977787
-0.030513315 0.026176373 0.18966922
-0.030610776 0.026334366 0.18956831
-0.030699333 0.026494386 0.18948275
-0.030777138 0.026656937 0.18941574
-0.030907122 0.026806341 0.18925838
-0.031100603 0.026939496 0.188991
-0.031129507 0.02711384 0.18900844
-0.031211196 0.027274789 0.18893448
-0.031683341 0.02733543 0.18818374
-0.031836901 0.027476929 0.18798482
-0.031775586 0.027673921 0.18815847
-0.032034244 0.027787566 0.18777707
-0.032189161 0.027927814 0.18757547
-0.032337874 0.02806934 0.18738452
-0.032484841 0.028210986 0.18719645
-0.032573823 0.028367857 0.18710902
-0.032665133 0.028523954 0.1870175
-0.032803275 0.028667172 0.18684447
-0.032948624 0.028808113 0.1866588
-0.033145551 0.028934527 0.18638326
-0.033339951 0.029061133 0.18611193
-0.033485826 0.029200749 0.1859249
-0.03357695 0.02935537 0.18583313
-0.033722792 0.02949441 0.18564595
-0.033872187 0.029632106 0.18545245
-0.03402153 0.029769463 0.18525891
-0.03427396 0.029876888 0.1848854
-0.034481045 0.029996701 0.18459076
-0.03468135 0.030117931 0.18430775
-0.034935523 0.030222902 0.18393049
-0.035085812 0.030357681 0.18373443
-0.035288926 0.030476496 0.18344593
-0.035643142 0.03054986 0.18289307
-0.035835173 0.030670648 0.18262345
-0.03592759 0.030820878 0.18252791
-0.036021464 0.030970512 0.18242979
-0.0361645 0.031105025 0.18224552
-0.036447331 0.031196462 0.18181628
-0.036625542 0.031319253 0.18157004
-0.036709163 0.031470828 0.18148942
-0.036797419 0.031620827 0.18140063
-0.036926247 0.031757999 0.18124062
-0.037013624 0.031907912 0.18115324
-0.03715843 0.032039527 0.18096499
-0.037263259 0.032183498 0.18084681
-0.037408397 0.032314379 0.18065774
-0.037498098 0.032462727 0.18056597
-0.03758261 0.032612599 0.18048325
-0.037817512 0.032713491 0.18013604
-0.038005009 0.032829206 0.17987196
-0.03814061 0.032961451 0.17969902
-0.038226407 0.033109814 0.17961363
-0.038359322 0.033242412 0.17944524
-0.03859169 0.033341534 0.1791015
-0.038873464 0.033423442 0.17867045
-0.039012928 0.033552475 0.17849
-0.039097194 0.033699863 0.17840677
-0.03918108 0.033847246 0.17832416
-0.039311491 0.03397857 0.17815939
-0.039397072 0.034125008 0.17807364
-0.039530497 0.034254771 0.17790335
-0.039612155 0.034402192 0.17782441
-0.039792329 0.034515094 0.17757127
-0.039934352 0.034640905 0.17738543
-0.040115774 0.034752473 0.17712976
-0.040292557 0.034865208 0.17688212
-0.040468305 0.034977831 0.17663613
-0.040606983 0.035103273 0.17645563
-0.040741067 0.035230026 0.17628314
-0.040873814 0.035356946 0.17611291
-0.041149065 0.035431784 0.17568991
-0.041284844 0.035556715 0.17551395
-0.041459654 0.035667006 0.17526865
-0.041539297 0.035811909 0.17519206
-0.04176214 0.035903644 0.17486119
-0.041939259 0.036011759 0.17461129
-0.042029317 0.036151953 0.17451589
-0.042161711 0.03627608 0.1743452
-0.04224816 0.036417227 0.17425607
-0.042330056 0.036559947 0.17417498
-0.042638037 0.036616392 0.17369154
-0.042761747 0.03674243 0.17353578
-0.042886857 0.036867637 0.17337741
-0.042924188 0.037026469 0.17337529
-0.04305508 0.037149012 0.17320646
-0.043268617 0.037239004 0.17289019
-0.043394506 0.037362725 0.17272998
-0.043432407 0.037520774 0.17272666
-0.043516427 0.037660614 0.17264102
-0.043820269 0.037712999 0.17216286
-0.043946806 0.037835184 0.17200102
-0.044078644 0.037954938 0.17182961
-0.044292342 0.038041424 0.17151175
-0.044421129 0.038161628 0.1713455
-0.044550601 0.03828124 0.17117791
-0.044717394 0.038385313 0.17094342
-0.044836789 0.038508356 0.17079361
-0.044960182 0.038629483 0.17063653
-0.045133073 0.03872985 0.17039068
-0.045176506 0.038883496 0.17037664
-0.045339033 0.038987473 0.1701491
-0.045505274 0.03908946 0.16991474
-0.045627233 0.039209627 0.16975966
-0.045792658 0.039311133 0.16952646
-0.045871262 0.039449032 0.16944897
-0.045995742 0.039567254 0.16928902
-0.046113908 0.039687868 0.16914032
-0.046273641 0.039790351 0.16891681
-0.046354119 0.039926607 0.16883564
-0.046478182 0.040043827 0.16867602
-0.046597123 0.040162981 0.1685255
-0.04675753 0.040263724 0.16830023
-0.046917286 0.040364321 0.16807596
-0.047041219 0.040480278 0.16791609
-0.04716067 0.040597916 0.16776417
-0.047280192 0.040715232 0.16761202
-0.047360968 0.040849555 0.16752966
-0.047489554 0.040962312 0.16736096
-0.047777124 0.041003209 0.16690518
-0.047900483 0.041117389 0.16674557
-0.048020631 0.041232731 0.16659167
-0.048221659 0.04131094 0.16629149
-0.048381057 0.041407585 0.16606635
-0.048461962 0.041539852 0.16598299
-0.048540719 0.041672956 0.16590348
-0.048655283 0.041789349 0.16575912
-0.048776265 0.04190249 0.16560301
-0.048894491 0.042016618 0.16545181
-0.049089052 0.042094693 0.16516216
-0.049205255 0.042209055 0.16501436
-0.049280085 0.042342678 0.16494146
-0.0494368 0.042437352 0.16471998
-0.049553547 0.042550616 0.16457087
-0.049669057 0.042664189 0.1644239
-0.049823266 0.042758923 0.16420655
-0.049942467 0.042870089 0.16405264
-0.050058093 0.04298269 0.16390511
-0.050208721 0.04307802 0.16369385
-0.050286558 0.043208405 0.16361482
-0.050448891 0.043297332 0.16338201
-0.050605342 0.043388683 0.16315971
-0.050679009 0.043520402 0.16308802
-0.050787386 0.043634817 0.16295305
-0.05089812 0.043747809 0.16281368
-0.051010616 0.043859664 0.16267101
-0.051125307 0.043970145 0.16252424
-0.051277567 0.044061475 0.16230881
-0.051433172 0.044150695 0.16208711
-0.051547144 0.044260547 0.16194128
-0.051660586 0.044370394 0.16179632
-0.051812276 0.044460457 0.16158135
-0.051971443 0.044546273 0.16135256
-0.052089427 0.04465279 0.16119891
-0.052201293 0.044762172 0.16105635
-0.052306682 0.044874631 0.16092554
-0.052415844 0.044984877 0.16078773
-0.052567445 0.045072734 0.1605721
-0.052718308 0.045160554 0.16035764
-0.052750178 0.045310445 0.16036116
-0.052856386 0.045421179 0.16022837
-0.053004272 0.04550961 0.16001903
-0.053156238 0.045595475 0.15980205
-0.05326996 0.04570128 0.15965512
-0.053378396 0.045809619 0.15951779
-0.053481873 0.045920368 0.15938948
-0.053591501 0.046027552 0.15924977
-0.05370038 0.046134878 0.15911134
-0.053811397 0.046240773 0.15896887
-0.05391822 0.04634868 0.15883403
-0.05410134 0.046414644 0.15855862
-0.05421292 0.046519268 0.15841475
-0.054323502 0.046624172 0.15827264
-0.054427829 0.046732251 0.15814194
-0.054534774 0.046838634 0.15800633
-0.054643665 0.046943668 0.15786703
-0.054789655 0.047027729 0.15765916
-0.054861017 0.047153171 0.15758891
-0.054971404 0.047256555 0.15744653
-0.055116281 0.047340218 0.15724036
-0.055219457 0.047447063 0.15711108
-0.05532084 0.047554672 0.15698503
-0.055386897 0.047682166 0.15692423
-0.055528756 0.047766231 0.15672314
-0.055645578 0.047864251 0.15656824
-0.055828404 0.047923975 0.15629101
-0.055933479 0.048028041 0.15615758
-0.056036603 0.048132971 0.15602769
-0.056143034 0.048235737 0.15589157
-0.056284823 0.048317604 0.15568978
-0.056387927 0.048421714 0.15555961
-0.056489103 0.048526708 0.15543292
-0.05659445 0.04862899 0.1552984
-0.056701161 0.048730209 0.15516125
-0.056805618 0.048832498 0.15502819
-0.05697849 0.048893802 0.15476784
-0.057081025 0.048996579 0.15463811
-0.057152439 0.049117755 0.15456618
-0.057292715 0.049197398 0.15436605
-0.057429392 0.049278811 0.15417245
-0.057532936 0.049379885 0.15404043
-0.057640303 0.049478378 0.15390119
-0.057777155 0.049558647 0.15370689
-0.057881147 0.049658593 0.15357372
-0.05798196 0.049760237 0.15344638
-0.058050048 0.049881764 0.15338004
-0.058185719 0.049961451 0.15318745
-0.058326717 0.050037459 0.15298477
-0.058461729 0.050116781 0.15279312
-0.058561429 0.050217703 0.15266734
-0.058662899 0.050317284 0.15253818
-0.058763985 0.050416857 0.15240963
-0.058866832 0.050515059 0.15227768
-0.05896724 0.050614543 0.1521502
-0.059067689 0.050713755 0.15202257
-0.059200231 0.050792333 0.1518347
-0.059339304 0.050866362 0.15163444
-0.059435375 0.050967466 0.15151466
-0.059531551 0.051068272 0.15139461
-0.059597101 0.051188551 0.15133196
-0.059698019 0.051285896 0.15120286
-0.059832901 0.051360991 0.15100986
-0.059970021 0.051434241 0.15081251
-0.060067154 0.051533133 0.15069017
-0.06015965 0.051634822 0.15057649
-0.06022469 0.051754285 0.15051436
-0.060356352 0.051829826 0.1503268
-0.060490225 0.051903527 0.15013494
-0.060587019 0.052001372 0.15001278
-0.060687039 0.052096833 0.14988443
-0.060821176 0.052169316 0.14969169
-0.060923353 0.052262761 0.14955907
-0.061019737 0.052359819 0.14943729
-0.061111957 0.052459434 0.14932327
-0.061207548 0.052556541 0.14920281
-0.061343383 0.052626219 0.14900623
-0.061474383 0.052698765 0.14881864
-0.061537355 0.052817184 0.14875953
-0.061629523 0.052915588 0.14864515
-0.061723769 0.053012356 0.14852674
-0.06185146 0.053085923 0.14834496
-0.061949216 0.053179722 0.14821972
-0.062047098 0.053273186 0.14809415
-0.062177803 0.053343672 0.14790627
-0.062309321 0.053413212 0.14771672
-0.062371161 0.053530887 0.14765917
-0.06246293 0.053627551 0.1475448
-0.062588729 0.053700145 0.14736575
-0.062688045 0.053790987 0.14723684
-0.062782146 0.05388524 0.14711776
-0.062910587 0.053954978 0.14693332
-0.063004188 0.054049034 0.14681497
-0.063100658 0.054140821 0.1466911
-0.063259743 0.0541877 0.14644797
-0.063354805 0.054279856 0.14632653
-0.06344635 0.054374292 0.14621168
-0.063539073 0.054467663 0.14609453
-0.063633025 0.054559909 0.14597495
-0.063725546 0.054652948 0.14585799
-0.063819245 0.054744892 0.14573871
-0.063911155 0.054837901 0.14562275
-0.063999787 0.054933067 0.14551295
-0.064089879 0.055026952 0.14540029
-0.064216524 0.055093776 0.1452177
-0.064344935 0.055158913 0.1450316
-0.064436495 0.055250883 0.14491583
-0.064564675 0.055315491 0.14472991
-0.064915761 0.055214152 0.14411722
0.092420332 -0.084950306 0.34970787
0.090336211 -0.083101295 0.34698173
0.090074174 -0.082734384 0.34668893
0.090041853 -0.082449898 0.34674174
0.089803077 -0.082091838 0.34648374
0.089366294 -0.081663944 0.34592742
0.087129973 -0.080330729 0.34276026
0.086228192 -0.079474218 0.34160167
0.085774302 -0.079046242 0.34101734
0.085311092 -0.078615904 0.34041864
0.084835663 -0.078182258 0.33980116
0.084376521 -0.077755153 0.33920792
0.083942518 -0.077337615 0.33865228
0.083513677 -0.076922677 0.33810416
0.083082139 -0.076507658 0.33755162
0.082645811 -0.076091848 0.33699155
0.082203463 -0.075674862 0.33642206
0.080677681 -0.074362405 0.33441094
0.08024428 -0.073952116 0.3338536
0.07919237 -0.073072664 0.33245766
0.078545965 -0.072331078 0.33167458
0.076669648 -0.070665605 0.32922056
0.076237507 -0.070263535 0.32866222
0.075813413 -0.069864914 0.32811579
0.073979631 -0.068235219 0.32571813
0.073741652 -0.067899778 0.32545304
0.073178314 -0.067462295 0.32469299
0.0727413 -0.067065619 0.32412469
0.072314344 -0.066672951 0.32357138
0.071902893 -0.066285968 0.32304132
0.07149443 -0.065900721 0.32251555
0.070484556 -0.065073311 0.32116908
0.070101991 -0.064698666 0.32068175
0.069878675 -0.064373329 0.32043692
0.069462426 -0.063989751 0.31989774
0.069048747 -0.063607775 0.31936219
0.068661377 -0.06323456 0.31886649
0.068110898 -0.06281314 0.31812152
0.068045773 -0.062537976 0.31811714
0.06555669 -0.060528342 0.31478742
0.06519749 -0.060169946 0.31433234
0.064813666 -0.059805099 0.31383932
0.063892752 -0.059033588 0.31261778
0.063699059 -0.058725707 0.312415
0.063319355 -0.058365047 0.31192717
0.062939301 -0.058005039 0.3114385
0.062549457 -0.057643022 0.31093457
0.062156595 -0.057280932 0.3104257
0.061770074 -0.056921415 0.3099263
0.060893204 -0.056175854 0.30876726
0.060674571 -0.055865236 0.30852461
0.060274146 -0.055504918 0.30800274
0.059733268 -0.055106908 0.3072648
0.059384115 -0.05476239 0.30682102
0.059031025 -0.054417476 0.30637091
0.058666654 -0.054070219 0.3059032
0.058145154 -0.053681396 0.3051936
0.057784267 -0.053336717 0.30473065
0.057409495 -0.052989066 0.30424607
0.057192184 -0.052683949 0.30400354
0.056688305 -0.052303512 0.30331969
0.056342836 -0.051965792 0.30287939
0.055969082 -0.051621355 0.30239528
0.055616722 -0.051283244 0.30194384
0.055250496 -0.050942246 0.30147079
0.054888163 -0.050602995 0.30100346
0.054372463 -0.05022512 0.30029929
0.054016162 -0.049889058 0.29984063
0.053307693 -0.049220134 0.29892892
0.052963831 -0.04888935 0.29848868
0.052627698 -0.048561186 0.29806012
0.052290224 -0.048233356 0.29762927
0.0519334 -0.047901407 0.29716823
0.051570188 -0.047568608 0.29669705
0.051064197 -0.047201544 0.29600474
0.050733015 -0.046878222 0.2955825
0.050413333 -0.046558347 0.29517782
0.050231099 -0.046272274 0.29498568
0.050036144 -0.04598343 0.29477376
0.0487126 -0.044944283 0.29299226
0.048529815 -0.044660501 0.29279837
0.049019516 -0.044292584 0.29373714
0.048665281 -0.043968946 0.29327729
0.048484243 -0.043685835 0.29308599
0.04816322 -0.043371018 0.29267722
0.047701512 -0.043024864 0.29204971
0.047060143 -0.042398948 0.2912319
0.046735119 -0.042085987 0.29081589
0.046258308 -0.041739959 0.29016358
0.045266308 -0.041042618 0.28879806
0.044931278 -0.040730741 0.28836524
0.044471756 -0.040392525 0.28773835
0.044145364 -0.04008403 0.28731844
0.043156464 -0.039160486 0.28604206
0.042847209 -0.03885828 0.2856479
0.042678487 -0.038586091 0.28547272
0.042504765 -0.038313117 0.28528967
0.042194359 -0.03801218 0.28489313
0.041556641 -0.037408736 0.28407297
0.03966336 -0.036555003 0.28128943
0.039354004 -0.0362591 0.28089276
0.039042752 -0.03596345 0.28049287
0.038730815 -0.035668299 0.28009167
0.038665269 -0.03542212 0.28007582
0.037487518 -0.034727141 0.27840519
0.037191115 -0.034437936 0.27802724
0.036899861 -0.03415031 0.27765712
0.036472578 -0.033837475 0.27707359
0.036301333 -0.033573803 0.27689111
0.035999 -0.033285893 0.27650297
0.035820428 -0.03302158 0.27630875
0.035265204 -0.032688111 0.27552333
0.035082657 -0.032424156 0.27532247
0.034894262 -0.03215944 0.2751123
0.034224831 -0.03180825 0.27414641
0.033674397 -0.031250823 0.2734521
0.03361766 -0.031011498 0.27344811
0.033427734 -0.030748814 0.2732347
0.033096127 -0.030461825 0.27279824
0.033055834 -0.030225798 0.27282
0.032908466 -0.029971374 0.27267319
0.032628387 -0.029694619 0.27231735
0.03208334 -0.029373782 0.27154389
0.031666737 -0.029075693 0.27097237
0.030995868 -0.028736364 0.26999974
0.030803004 -0.028477291 0.26978016
0.030754166 -0.028242063 0.26978761
0.030595573 -0.027989024 0.26962191
0.030432116 -0.027735451 0.26944843
0.028747423 -0.026789373 0.26704088
0.028448589 -0.02651744 0.26665249
0.027765123 -0.02596237 0.26573944
0.027367132 -0.025677443 0.26519349
0.027055375 -0.025182175 0.26486698
0.026973542 -0.024721412 0.2649042
0.026335243 -0.024404649 0.26397651
0.025814123 -0.024106199 0.26323396
0.025525786 -0.023841975 0.26285991
0.025478786 -0.023612246 0.26286834
0.025322542 -0.023367276 0.26270348
0.025162783 -0.023122072 0.26253298
0.025005808 -0.022877509 0.26236677
0.024381081 -0.022570057 0.26145786
0.024002487 -0.022297015 0.26093927
0.023850927 -0.022054859 0.26078105
0.023718178 -0.021815404 0.26065263
0.023582233 -0.021575725 0.26051906
0.023422191 -0.021333152 0.2603471
0.023131441 -0.021074265 0.25996715
0.022854364 -0.02081771 0.25960869
0.021101246 -0.019719932 0.25714543
0.020938501 -0.019480748 0.25696778
0.020674558 -0.019229963 0.25662872
0.020642782 -0.019006645 0.25665969
0.020494996 -0.018769953 0.25650561
0.020229952 -0.018520225 0.25616434
0.019301699 -0.018196898 0.2547642
0.018943874 -0.017938942 0.25427404
0.018694647 -0.017693648 0.253957
0.018541593 -0.017459223 0.25379348
0.018283213 -0.017213853 0.25346148
0.017818829 -0.016947405 0.25279996
0.017653288 -0.016713016 0.25261593
0.017596465 -0.016490022 0.25260577
0.016782517 -0.015974373 0.25146431
0.016427621 -0.015723089 0.25097647
0.016167929 -0.015481815 0.25064081
0.015913729 -0.015241615 0.25031376
0.015669506 -0.015002888 0.2500025
0.015525781 -0.014773965 0.2498522
0.015275961 -0.014535603 0.24953163
0.014930004 -0.014289144 0.24905662
0.014686331 -0.014052511 0.24874549
0.014856504 -0.013852364 0.24909858
0.014724917 -0.013625761 0.24896729
0.014585171 -0.01339867 0.24882282
0.014433277 -0.013170793 0.24865875
0.014181155 -0.012935016 0.24833345
0.012920422 -0.01219198 0.24654478
0.01256767 -0.011951429 0.24605644
0.01231759 -0.011719332 0.24573313
0.01163277 -0.011243527 0.24478836
0.011398315 -0.011014387 0.24448954
0.010829336 -0.010550842 0.24372995
0.010578861 -0.010322262 0.24340467
0.010343933 -0.010095223 0.24310429
0.010015485 -0.0098627768 0.24265274
0.0097754486 -0.0096365465 0.24234371
0.0096201347 -0.0094159329 0.24217133
0.0092917113 -0.0091853989 0.24171911
0.0084768534 -0.0085076848 0.24063642
0.0078302957 -0.0080535384 0.23974627
0.0075997054 -0.0078322617 0.23945086
0.00727301 -0.007606769 0.23899961
0.0072060619 -0.0073943851 0.23896889
0.0069612982 -0.0071738269 0.23864999
0.0065598362 -0.0069467989 0.23807685
0.005621288 -0.00628233 0.23678666
0.0052889651 -0.0060615372 0.23632444
0.0051420256 -0.0058484888 0.23616298
0.0049082623 -0.0056325612 0.23586036
0.0048697456 -0.0054239072 0.23587483
0.004736681 -0.005212056 0.23573564
0.0026611821 -0.0035030891 0.23297155
0.0030458707 -0.0033051581 0.23367517
0.0029123658 -0.0030961873 0.23353419
0.0027825469 -0.0028875011 0.23339912
0.0024763832 -0.0026762134 0.23297623
0.0022497925 -0.0024668009 0.23268294
0.0021138333 -0.0022590626 0.23253748
0.0018128627 -0.0020496398 0.23212239
0.0015128212 -0.0018409357 0.23170854
0.0012870549 -0.0016335839 0.23141585
0.00098078966 -0.0014261415 0.23099135
0.00076184631 -0.0012199305 0.2307094
0.00054409425 -0.0010141981 0.23042923
0.00041777964 -0.00080919801 0.23029855
0.00029408385 -0.00060440571 0.23017207
0.0001062699 -0.00039981338 0.22994052
-1.0382477e-05 -0.00019549759 0.22982539
-0.00021650392 8.3753348e-06 0.22956359
-0.00043054571 0.00021177437 0.22928862
-0.000644819 0.00041470956 0.22901312
-0.00094297185 0.00061656279 0.22859982
-0.0014076963 0.00081623305 0.2279129
-0.0017186342 0.0010162879 0.227478
-0.001860779 0.0012175811 0.22732002
-0.0019955935 0.0014187171 0.22717397
-0.0028007119 0.0016097522 0.22592634
-0.0032973564 0.0020048709 0.22525978
-0.0035067957 0.0022023201 0.22499014
-0.0037094955 0.002399453 0.22473143
-0.0038281363 0.0025980072 0.22461092
-0.0040284526 0.0027944476 0.22435586
-0.0041494705 0.0029924449 0.22423124
-0.0044243759 0.0031861619 0.22385301
-0.0044717025 0.0033856048 0.22384962
-0.0045895749 0.0035829882 0.22372992
-0.0047923331 0.0037775533 0.22347017
-0.0049188775 0.0039741537 0.22333598
-0.0052030003 0.0041651889 0.22294165
-0.0053222268 0.0043613873 0.2228193
-0.0055233571 0.0045543676 0.22256161
-0.0057240617 0.0047469274 0.22230446
-0.0059159654 0.0049394015 0.22206171
-0.0061927522 0.0051279496 0.22167845
-0.0063076066 0.0053227828 0.22156276
-0.0065841894 0.005510252 0.22117946
-0.0067204959 0.0057034958 0.22102803
-0.0069394824 0.0058925739 0.22073965
-0.0079468265 0.0060425964 0.21914557
-0.0081387721 0.0062308647 0.21890117
-0.0082511017 0.0068186359 0.21893565
-0.0083662709 0.0070102722 0.21881826
-0.0085522011 0.0071976222 0.21858338
-0.0089067006 0.007374553 0.21806854
-0.0094868708 0.0075368183 0.21717864
-0.0096051246 0.0077263475 0.2170554
-0.009647293 0.0079205493 0.21705852
-0.0097629689 0.0081099691 0.21693946
-0.010038817 0.0082884682 0.21655403
-0.010236955 0.0084716165 0.21629758
-0.010430191 0.0086546689 0.21604913
-0.010693776 0.0088322628 0.21568345
-0.010869967 0.0090156021 0.21546301
-0.011057225 0.0091977408 0.21522403
-0.011248705 0.0093791494 0.21497785
-0.011520033 0.0095539363 0.21459842
-0.011717007 0.0097339433 0.21434271
-0.012049771 0.0099025518 0.21386038
-0.012167186 0.010088011 0.21373701
-0.012348102 0.010267955 0.21350759
-0.012679711 0.010434655 0.21302643
-0.01301495 0.010600183 0.2125389
-0.013261385 0.010772691 0.2121994
-0.013084994 0.010982607 0.21256632
-0.013268523 0.011160322 0.21233179
-0.013315707 0.011350309 0.21232513
-0.013503751 0.011527 0.21208282
-0.013608888 0.011711235 0.21197909
-0.013858159 0.011881243 0.21163402
-0.014041603 0.012057168 0.21139896
-0.014223983 0.012232795 0.21116553
-0.014408515 0.012407799 0.21092835
-0.014590451 0.012582663 0.21069537
-0.014778926 0.012756437 0.21045128
-0.015105288 0.012915055 0.2099757
-0.015226893 0.013095016 0.20984343
-0.015652694 0.01343393 0.20927201
-0.01590362 0.013598339 0.20892215
-0.016020581 0.013777479 0.20879717
-0.016262336 0.013941918 0.20846234
-0.016504001 0.014105778 0.20812745
-0.016607406 0.014285532 0.2080249
-0.016789239 0.014455649 0.20779032
-0.017042885 0.01461657 0.20743471
-0.017360486 0.01476893 0.20697117
-0.017540753 0.014937694 0.20673865
-0.017644145 0.015115822 0.20663552
-0.017819516 0.015284527 0.206411
-0.018001476 0.015451982 0.20617522
-0.018437499 0.015585549 0.20551074
-0.018606519 0.015753508 0.20529634
-0.018845152 0.015911708 0.20496431
-0.018832488 0.016103609 0.20505637
-0.019009067 0.016269583 0.20482886
-0.019182954 0.016435537 0.20460576
-0.019613333 0.016564885 0.20394894
-0.019588389 0.016758045 0.2040616
-0.01969406 0.016932586 0.2039534
-0.019800771 0.017106801 0.20384338
-0.020029953 0.01726277 0.20352599
-0.020203996 0.017426396 0.20330176
-0.020453779 0.017578214 0.20294909
-0.020695414 0.01773064 0.20260999
-0.02078894 0.017905246 0.20252171
-0.020870566 0.018081564 0.20245355
-0.021101641 0.018234311 0.20213187
-0.021411132 0.018374044 0.20167692
-0.021593291 0.018533355 0.20143779
-0.02182439 0.018684316 0.2011154
-0.021988582 0.018845638 0.20090644
-0.022220137 0.018995479 0.20058289
-0.022453208 0.019144481 0.20025656
-0.02256595 0.01931314 0.20013459
-0.022728464 0.019473145 0.19992788
-0.022889744 0.019632997 0.19972315
-0.02323669 0.019760368 0.19920227
-0.023461591 0.019908095 0.19888882
-0.023569236 0.020075919 0.1987749
-0.023681348 0.02024276 0.1986533
-0.023789203 0.020410167 0.19853887
-0.024584292 0.020824354 0.1973906
-0.02470265 0.020988287 0.19725768
-0.024929058 0.021131735 0.1969402
-0.025094878 0.021286068 0.19672598
-0.025189988 0.021453505 0.19663243
-0.025341382 0.021609968 0.19644263
-0.025432054 0.021777872 0.19635653
-0.025583997 0.02193366 0.19616559
-0.025681149 0.022099916 0.19606826
-0.02584023 0.022253698 0.19586487
-0.026364706 0.022333873 0.19503568
-0.026527682 0.022485552 0.19482513
-0.026687704 0.022637462 0.19461951
-0.026730999 0.022812977 0.19461383
-0.027251059 0.022889825 0.19379063
-0.027348135 0.023053372 0.19369243
-0.027434973 0.023218911 0.19361173
-0.027522644 0.023384146 0.19352956
-0.027677119 0.023534987 0.19333263
-0.027901096 0.023670521 0.19301617
-0.028060818 0.023819411 0.19280991
-0.028159715 0.023981221 0.19270808
-0.028436918 0.024103617 0.19229956
-0.028598975 0.024250792 0.19208884
-0.02879346 0.024390345 0.19182219
-0.02876856 0.02457878 0.19193301
-0.028813327 0.024751665 0.19192395
-0.029035775 0.024883986 0.1916088
-0.02919307 0.025030714 0.19140571
-0.029332306 0.025181264 0.19123362
-0.029473715 0.025331002 0.19105768
-0.029624464 0.025478233 0.1908655
-0.029834185 0.025611168 0.19057143
-0.029988958 0.025756659 0.19037202
-0.030084928 0.025915897 0.19027402
-0.030339209 0.026036732 0.18990247
-0.030440455 0.026194097 0.18979514
-0.030541284 0.026351385 0.18968846
-0.030637512 0.026509626 0.18958966
-0.030778427 0.026656615 0.18941352
-0.030919289 0.026803304 0.18923733
-0.031115085 0.026935855 0.18896592
-0.031199142 0.027096208 0.18888785
-0.031276487 0.027258147 0.18882136
-0.031521909 0.027376853 0.18846352
-0.03161877 0.027533267 0.18836303
-0.031723108 0.027687561 0.18824948
-0.031870753 0.027830338 0.18806073
-0.032177821 0.0279308 0.18759516
-0.032274462 0.028086144 0.18749462
-0.032427069 0.028226394 0.18729679
-0.032523375 0.028381394 0.18719669
-0.032615427 0.028537378 0.1871039
-0.032753251 0.028680764 0.18693146
-0.032999672 0.028794158 0.18657002
-0.033139635 0.028936157 0.18639356
-0.033286009 0.029076064 0.18620582
-0.033435255 0.029214829 0.18601297
-0.033532742 0.029367752 0.18591014
-0.033723373 0.029494243 0.18564494
-0.033868082 0.029633271 0.1854596
-0.0340189 0.029770218 0.18526348
-0.034222301 0.029891714 0.18497552
-0.034473881 0.029998768 0.18460326
-0.034667447 0.030121971 0.18433203
-0.034814555 0.030258235 0.18414174
-0.034965642 0.030392984 0.18394437
-0.035223335 0.030495875 0.18356057
-0.035638493 0.030551244 0.18290119
-0.035734054 0.030700874 0.18280029
-0.035975035 0.030806622 0.18244492
-0.036067631 0.030956553 0.18234898
-0.036313899 0.031059602 0.18198395
-0.036452692 0.031194827 0.18180689
-0.036530793 0.031348381 0.18173605
-0.036654148 0.031487841 0.18158585
-0.036689956 0.031654242 0.18158905
-0.036774077 0.031805579 0.18150753
-0.036964625 0.031923313 0.1812392
-0.037063882 0.032069411 0.18113095
-0.03726409 0.032183237 0.18084535
-0.037451021 0.032300759 0.18058287
-0.037487809 0.032466039 0.18058404
-0.037578508 0.032613929 0.18049048
-0.037869152 0.032696728 0.18004522
-0.038061522 0.032810755 0.17977254
-0.038197089 0.032942913 0.17959963
-0.038275573 0.033093594 0.17952709
-0.038404651 0.033227377 0.17936541
-0.038538896 0.033359136 0.17919451
-0.038672853 0.033490688 0.17902401
-0.038813744 0.033619583 0.17884117
-0.039090924 0.033701994 0.17841783
-0.039227709 0.033831373 0.17824189
-0.039313797 0.03397778 0.1781553
-0.039402105 0.034123279 0.17806476
-0.039731935 0.034185134 0.17754754
-0.039861854 0.034315445 0.1773832
-0.039991546 0.034445532 0.17721914
-0.040029511 0.034607507 0.17721716
-0.0401587 0.034737334 0.17705382
-0.040341966 0.034847692 0.17679469
-0.040475581 0.034975242 0.17662326
-0.040658135 0.035084959 0.17636505
-0.040744647 0.03522874 0.1762768
-0.04082657 0.035374023 0.17619662
-0.041146751 0.035432626 0.175694
-0.041328236 0.035540879 0.175437
-0.041457668 0.035667732 0.17527217
-0.041581374 0.035796396 0.17511739
-0.041758176 0.035905115 0.17486823
-0.041893184 0.036028907 0.17469312
-0.042028889 0.036152113 0.17451665
-0.042160612 0.036276493 0.17434715
-0.042246848 0.036417719 0.1742584
-0.042331629 0.036559355 0.17417219
-0.042680897 0.036600064 0.17361528
-0.042849962 0.03670866 0.17337875
-0.042886563 0.036867753 0.17337793
-0.042970411 0.037008613 0.17329296
-0.043054901 0.037149083 0.17320679
-0.043270439 0.037238296 0.17288694
-0.043305106 0.037397746 0.17288943
-0.043429781 0.037521806 0.17273134
-0.043513197 0.037661891 0.17264679
-0.043774545 0.037731163 0.1722445
-0.043941911 0.037837133 0.17200977
-0.044073705 0.03795692 0.17183845
-0.044249211 0.038058788 0.17158885
-0.044420887 0.038161729 0.17134595
-0.044545278 0.038283404 0.17118743
-0.044669967 0.038404662 0.17102829
-0.04479298 0.038526312 0.17087203
-0.045004118 0.038611401 0.17055786
-0.045133166 0.038729809 0.1703905
-0.045218766 0.038865946 0.17030092
-0.045296822 0.039005075 0.17022479
-0.045460861 0.03910806 0.1699944
-0.045623057 0.039211381 0.16976716
-0.045746922 0.039330456 0.16960853
-0.045825433 0.039468482 0.16953126
-0.046032466 0.039551601 0.16922307
-0.04615403 0.039670706 0.16906823
-0.046274792 0.039789855 0.16891474
-0.046397105 0.039908048 0.16875835
-0.046478078 0.040043872 0.16867621
-0.046596553 0.040163223 0.16852653
-0.046757124 0.040263899 0.16830096
-0.046919987 0.040363133 0.16807111
-0.04700087 0.040498063 0.16798879
-0.047123451 0.040614389 0.16783126
-0.047284663 0.040713243 0.16760397
-0.04740924 0.040828016 0.16744259
-0.047534876 0.040942002 0.16727918
-0.047777582 0.041003004 0.16690435
-0.047941573 0.041098826 0.16667138
-0.048105773 0.041194104 0.16643786
-0.048222348 0.041310616 0.16629024
-0.048339196 0.041426737 0.16614203
-0.048460089 0.041540708 0.16598639
-0.048536975 0.041674685 0.16591026
-0.048657499 0.041788325 0.16575509
-0.048773807 0.041903634 0.16560747
-0.048930172 0.041999962 0.16538718
-0.049084734 0.042096715 0.16516998
-0.049161103 0.04222982 0.16509439
-0.04931609 0.042325675 0.16487618
-0.049433701 0.042438816 0.1647256
-0.049551934 0.04255138 0.1645738
-0.049668603 0.042664412 0.16442473
-0.04978342 0.042778037 0.16427891
-0.049941063 0.042870767 0.16405518
-0.05005604 0.042983681 0.16390884
-0.050171271 0.0430962 0.16376194
-0.050286993 0.043208193 0.16361403
-0.050444197 0.043299627 0.16339055
-0.050524611 0.04342832 0.16330668
-0.050676115 0.043521825 0.1630933
-0.050787564 0.043634728 0.16295272
-0.05089812 0.043747809 0.16281368
-0.051009014 0.043860465 0.16267394
-0.051122993 0.043971304 0.16252846
-0.051238608 0.04408104 0.16237989
-0.051434472 0.04415004 0.16208474
-0.051587585 0.04424008 0.16186744
-0.051701341 0.044349689 0.16172187
-0.051812928 0.044460129 0.16158016
-0.051929977 0.044567496 0.16142836
-0.052086055 0.044654522 0.16120507
-0.052238785 0.044742838 0.16098776
-0.052310921 0.044872433 0.16091777
-0.052419472 0.044982988 0.16078109
-0.052568823 0.045072019 0.16056956
-0.052680925 0.04518012 0.16042615
-0.052787486 0.04529085 0.16029277
-0.052897599 0.045399453 0.16015279
-0.053006444 0.045508467 0.16001505
-0.05315635 0.045595415 0.15980184
-0.053268243 0.045702193 0.15965827
-0.053377837 0.045809921 0.15951882
-0.053481355 0.045920648 0.15939043
-0.053590849 0.046027906 0.15925097
-0.053696848 0.046136785 0.15911783
-0.053809434 0.046241842 0.15897249
-0.053919829 0.046347801 0.15883106
-0.054102648 0.046413928 0.15855621
-0.054214261 0.046518538 0.15841229
-0.054324254 0.046623766 0.15827125
-0.054430366 0.046730857 0.15813726
-0.054540094 0.046835683 0.15799652
-0.054645896 0.046942424 0.1578629
-0.054754127 0.047047559 0.15772472
-0.054860856 0.047153257 0.15758921
-0.055003799 0.04723835 0.15738672
-0.055078685 0.047361411 0.15730982
-0.05521889 0.04744738 0.15711214
-0.05532049 0.047554869 0.15698569
-0.05542402 0.047661021 0.15685557
-0.055530339 0.047765318 0.15672021
-0.05568343 0.047842536 0.15649818
-0.055866588 0.047901999 0.1562203
-0.055938177 0.048025321 0.15614888
-0.056041926 0.04812989 0.15601783
-0.056181971 0.048213098 0.15581939
-0.056287486 0.048316054 0.15568484
-0.056390345 0.048420295 0.15555513
-0.056492276 0.048524842 0.15542704
-0.05659565 0.048628282 0.15529618
-0.056700025 0.048730884 0.15516336
-0.056803804 0.048833571 0.15503156
-0.056977604 0.048894331 0.1547695
-0.057083555 0.048995066 0.1546334
-0.057187404 0.0490968 0.15450113
-0.057291601 0.049198072 0.15436812
-0.057428967 0.049279071 0.15417324
-0.057533536 0.049379516 0.15403931
-0.057639819 0.049478676 0.1539021
-0.057742652 0.049579665 0.15377121
-0.057845782 0.049680207 0.15363967
-0.057981294 0.049760647 0.15344763
-0.058082826 0.049861591 0.15331885
-0.058188193 0.049959924 0.15318283
-0.05833083 0.050034914 0.15297709
-0.058466226 0.050113983 0.15278473
-0.058566816 0.050214346 0.15265729
-0.05866906 0.050313435 0.15252666
-0.058769263 0.050413541 0.15239975
-0.058870677 0.050512638 0.15227048
-0.058967926 0.050614115 0.15214893
-0.059065577 0.050715093 0.15202652
-0.05916601 0.050814062 0.15189882
-0.059339888 0.050865985 0.15163334
-0.059437912 0.050965838 0.15150991
-0.059501361 0.05108764 0.15145126
-0.059597753 0.05118813 0.15133074
-0.059700292 0.051284421 0.1511986
-0.059870549 0.05133662 0.15093914
-0.059973072 0.051432259 0.15080677
-0.060069107 0.051531862 0.1506865
-0.060160939 0.05163398 0.15057406
-0.060225777 0.051753569 0.15051231
-0.060356341 0.051829834 0.15032682
-0.060489696 0.051903881 0.15013593
-0.060586289 0.052001853 0.15001415
-0.060687218 0.052096717 0.1498841
-0.060819421 0.052170496 0.14969499
-0.060923301 0.052262798 0.14955917
-0.061021186 0.052358851 0.14943455
-0.061114386 0.052457791 0.14931868
-0.061208393 0.052555975 0.14920121
-0.061310455 0.052648477 0.14906843
-0.061441172 0.052721281 0.14888141
-0.061536077 0.05281806 0.14876194
-0.061629791 0.052915409 0.14864464
-0.061692551 0.053033713 0.14858583
-0.061818685 0.053108405 0.148407
-0.06194577 0.053182099 0.14822625
-0.06204439 0.05327506 0.14809927
-0.062145069 0.053366341 0.14796831
-0.062307522 0.053414464 0.14772013
-0.06237248 0.05352997 0.14765666
-0.062463235 0.053627342 0.14754422
-0.062587939 0.0537007 0.14736725
-0.062689416 0.053790018 0.14723425
-0.06281817 0.053859849 0.14704932
-0.062913179 0.053953145 0.1469284
-0.063005731 0.054047946 0.14681205
-0.063129388 0.054120392 0.14663644
-0.063227072 0.054211006 0.14651014
-0.063353352 0.054280903 0.1463293
-0.063446134 0.054374445 0.1462121
-0.063539922 0.054467048 0.14609292
-0.063635275 0.054558281 0.14597066
-0.063728087 0.054651104 0.14585315
-0.063821822 0.054743018 0.14573379
-0.063912861 0.054836657 0.14561948
-0.064000249 0.054932736 0.14551206
-0.064088568 0.055027913 0.14540279
-0.064216964 0.055093449 0.14521687
-0.064345703 0.055158351 0.14503014
-0.064438 0.055249769 0.14491296
-0.064567387 0.055313483 0.14472473
-0.064916223 0.055213809 0.14411634
0.092426926 -0.084952705 0.34971777
0.091953039 -0.084505998 0.34910768
0.090079412 -0.082736254 0.34669679
0.09001793 -0.08244136 0.34670573
0.089772962 -0.082081124 0.34643841
0.08953815 -0.081724875 0.34618622
0.087102883 -0.080321185 0.34271944
0.086217925 -0.079470627 0.34158617
0.085324563 -0.07862059 0.34043896
0.084850661 -0.078187451 0.33982381
0.084389158 -0.077759512 0.33922699
0.083952241 -0.077340961 0.33866698
0.083514154 -0.076922841 0.33810487
0.083079264 -0.076506682 0.3375473
0.082642891 -0.076090857 0.33698714
0.082194954 -0.075671971 0.33640921
0.081134476 -0.074781425 0.33500335
0.080680005 -0.074363187 0.33441445
0.080239974 -0.073950678 0.33384708
0.07919994 -0.073075168 0.33246911
0.07877931 -0.072671868 0.3319301
0.078356728 -0.072268754 0.33138782
0.077261694 -0.07112062 0.33002108
0.076045178 -0.070201345 0.32837033
0.075634882 -0.06980741 0.32784477
0.073980071 -0.06823536 0.32571879
0.073749214 -0.06790217 0.32546455
0.07316824 -0.067459129 0.32467771
0.072723418 -0.067060009 0.32409751
0.072288431 -0.066664852 0.32353196
0.071886763 -0.066280939 0.32301676
0.071500883 -0.065902725 0.32252535
0.071088314 -0.065517001 0.32199299
0.070511527 -0.065081604 0.32121018
0.070111312 -0.06470152 0.32069597
0.069878384 -0.064373255 0.32043648
0.069461018 -0.063989326 0.3198956
0.069049112 -0.063607894 0.31936276
0.068652198 -0.063231789 0.31885248
0.068044499 -0.062537596 0.3181152
0.065562159 -0.060529944 0.31479579
0.065188713 -0.060167383 0.31431893
0.064795204 -0.059799738 0.31381106
0.063873813 -0.059028134 0.31258878
0.063500203 -0.058668721 0.31211048
0.063292384 -0.058357347 0.31188583
0.062920094 -0.057999581 0.31140909
0.062542506 -0.057641055 0.3109239
0.062151443 -0.057279479 0.3104178
0.061766591 -0.056920443 0.30992094
0.060890634 -0.056175143 0.3087633
0.060668852 -0.055863656 0.30851585
0.059749685 -0.055111408 0.30729002
0.059389617 -0.054763883 0.30682945
0.059020139 -0.054414522 0.30635417
0.058498114 -0.054024648 0.30564409
0.05813916 -0.053679787 0.30518439
0.057783455 -0.053336505 0.3047294
0.057418626 -0.052991502 0.3042601
0.057200801 -0.052686237 0.3040168
0.056689344 -0.052303787 0.3033213
0.056341078 -0.051965326 0.30287668
0.055970039 -0.051621605 0.30239674
0.055618819 -0.051283788 0.30194709
0.055253174 -0.050942943 0.3014749
0.054890618 -0.050603624 0.30100724
0.054377057 -0.050226301 0.30030635
0.054169394 -0.049928181 0.30007705
0.053824421 -0.04959552 0.29963571
0.053320397 -0.049223345 0.29894853
0.052967932 -0.048890378 0.29849502
0.052632514 -0.048562393 0.29806757
0.052302625 -0.048236445 0.29764843
0.052104071 -0.047943689 0.29743204
0.051588986 -0.047573242 0.29672611
0.051080052 -0.047205433 0.29602927
0.050743219 -0.046880707 0.2955983
0.050571144 -0.046596631 0.29542205
0.050241217 -0.046274714 0.29500136
0.048689157 -0.044938747 0.29295594
0.049015272 -0.044291601 0.29373059
0.048514508 -0.043692794 0.29313299
0.048188966 -0.043376904 0.29271722
0.046802588 -0.042341068 0.2908316
0.046291288 -0.041747291 0.29021487
0.045778695 -0.041394364 0.28950652
0.045279592 -0.041045543 0.28881872
0.044800881 -0.040702276 0.28816226
0.044637673 -0.040428527 0.28799671
0.044444576 -0.040148571 0.28778452
0.043168083 -0.039162945 0.28606018
0.042861383 -0.038861264 0.28567001
0.042693671 -0.038589269 0.28549641
0.042507157 -0.03831362 0.2852934
0.042328611 -0.038039923 0.2851027
0.039532308 -0.036528606 0.2810846
0.039225169 -0.036233317 0.28069133
0.039049599 -0.035964809 0.28050357
0.038737901 -0.035669696 0.28010276
0.038539391 -0.035397425 0.27987882
0.037492707 -0.034728147 0.27841333
0.037192952 -0.034438286 0.2780301
0.037027579 -0.034174696 0.27785724
0.036602993 -0.033862203 0.27727798
0.036309313 -0.033575308 0.27690363
0.0360034 -0.033286713 0.27650985
0.035824392 -0.033022318 0.27631494
0.035519745 -0.032735046 0.27592278
0.035091605 -0.032425795 0.2753365
0.035019044 -0.03218212 0.27530822
0.034225851 -0.031808436 0.27414802
0.034066677 -0.031550232 0.2739833
0.033619184 -0.031011764 0.27345052
0.033558201 -0.030771665 0.27343988
0.033250075 -0.030488588 0.27304044
0.033075869 -0.030229256 0.27285153
0.032787815 -0.029950719 0.27248326
0.032371379 -0.029650969 0.27191263
0.031669229 -0.029076109 0.27097631
0.030423446 -0.028188091 0.26926601
0.030362565 -0.027951308 0.2692543
0.029016839 -0.02705729 0.26738253
0.028734269 -0.026787313 0.26702008
0.028446769 -0.026517157 0.26664963
0.028040351 -0.026229301 0.26609099
0.027882731 -0.025980305 0.26592538
0.027613953 -0.025714753 0.26558387
0.027067631 -0.025183996 0.26488638
0.026916975 -0.024937483 0.26473126
0.025940124 -0.024124229 0.26343364
0.025772845 -0.023876997 0.26325154
0.025390048 -0.023599785 0.26272762
0.025453076 -0.023385428 0.26291052
0.025290146 -0.023139611 0.26273504
0.025136909 -0.022895383 0.26257485
0.02413317 -0.022314478 0.26114681
0.023981826 -0.022072174 0.26098901
0.023844613 -0.021831958 0.26085356
0.02358442 -0.021576008 0.26052254
0.023429368 -0.021334074 0.26035851
0.023148296 -0.021076402 0.25999394
0.022881141 -0.020821068 0.2596513
0.02238225 -0.020537531 0.25893959
0.020546779 -0.019214977 0.25642499
0.020536106 -0.018994279 0.25648955
0.020280687 -0.018745406 0.25616372
0.020122062 -0.018508011 0.25599217
