# .PCD v0.7 - Point Cloud Data file format
VERSION 0.7
FIELDS x y z
SIZE 4 4 4
TYPE F F F
COUNT 1 1 1
WIDTH 1346
HEIGHT 1
VIEWPOINT 0 0 0 1 0 0 0
POINTS 1346
DATA ascii
-0.026210001 -0.25274301 -0.33342499
-0.026063288 -0.2527307 -0.33353144
-0.025856201 -0.252691 -0.33351681
-0.025728 -0.25264001 -0.333464
-0.038036998 -0.25243601 -0.33358201
-0.037905499 -0.25245351 -0.333554
-0.037760001 -0.25249699 -0.33351168
-0.037491001 -0.252543 -0.333498
-0.03727125 -0.25255451 -0.3334755
-0.037142999 -0.2525478 -0.33344579
-0.0254435 -0.25247699 -0.33348298
-0.025253 -0.25245699 -0.333565
-0.038221002 -0.25225899 -0.333592
-0.0380865 -0.25230211 -0.33355451
-0.037894335 -0.25227401 -0.33350399
-0.037746668 -0.25228068 -0.33344364
-0.025433332 -0.25229433 -0.33341265
-0.025246335 -0.25230703 -0.33347499
-0.025114601 -0.25230622 -0.33354521
-0.024948502 -0.25230363 -0.33354166
-0.024758499 -0.25223851 -0.33353251
-0.02458 -0.25224549 -0.33354199
-0.038284373 -0.25210661 -0.33356512
-0.038081732 -0.25213054 -0.33351737
-0.037920337 -0.25208101 -0.33346102
-0.037737001 -0.25213799 -0.33341101
-0.025077665 -0.25214666 -0.33343866
-0.024942402 -0.25215963 -0.33344761
-0.024752 -0.25209051 -0.3334465
-0.024572499 -0.2520965 -0.33346701
-0.023879334 -0.25207618 -0.33354399
-0.023692502 -0.25208622 -0.333536
-0.023523498 -0.25205201 -0.33348101
-0.038495399 -0.2518816 -0.33356577
-0.038306143 -0.25191203 -0.3335267
-0.038105365 -0.25190017 -0.33346584
-0.037932251 -0.25194776 -0.33341801
-0.023910251 -0.25192326 -0.33343601
-0.023720112 -0.25190109 -0.33346388
-0.023524001 -0.2519218 -0.3334316
-0.039269 -0.251636 -0.333592
-0.039122 -0.25164965 -0.333581
-0.038714997 -0.251706 -0.33355099
-0.0384975 -0.25170949 -0.33345747
-0.038330331 -0.25172898 -0.33343565
-0.042089 -0.25140801 -0.333597
-0.041899502 -0.25141549 -0.33357599
-0.041646998 -0.25142899 -0.33355701
-0.041561998 -0.25143901 -0.33359
-0.040727001 -0.251477 -0.33356401
-0.040021501 -0.25148898 -0.33354998
-0.039949499 -0.25149125 -0.33351177
-0.039725997 -0.25150099 -0.33352
-0.039491251 -0.25151351 -0.33349201
-0.03931525 -0.25151801 -0.33346903
-0.0391386 -0.25153822 -0.3334662
-0.043196999 -0.25126001 -0.333543
-0.042902578 -0.25128266 -0.33349904
-0.042696398 -0.251304 -0.33348081
-0.042551 -0.2513355 -0.33349299
-0.042289671 -0.25134867 -0.33349201
-0.042111501 -0.25132224 -0.3334935
-0.041899003 -0.2513355 -0.33348352
-0.041646998 -0.251349 -0.33346501
-0.041506998 -0.25135702 -0.33347499
-0.041359 -0.25135899 -0.333444
-0.041092999 -0.25136518 -0.33347839
-0.040883664 -0.25139299 -0.33351168
-0.040725 -0.25139901 -0.333498
-0.040020999 -0.251369 -0.33341199
-0.043862998 -0.25102699 -0.33352101
-0.04374367 -0.25105765 -0.33354965
-0.0435495 -0.2510685 -0.333487
-0.043359 -0.25110501 -0.33344901
-0.043196 -0.25118199 -0.33345699
-0.044252999 -0.25085899 -0.33353999
-0.044049248 -0.25087476 -0.33352876
-0.043840665 -0.25092733 -0.33342335
-0.043712001 -0.250956 -0.333464
-0.044264004 -0.25069952 -0.33351123
-0.044166338 -0.25071535 -0.33341432
-0.044525336 -0.25045732 -0.33359101
-0.044273496 -0.25050315 -0.3334665
-0.020734999 -0.25059399 -0.333455
-0.044480998 -0.25029668 -0.33357167
-0.044255998 -0.25029567 -0.33347082
-0.044128999 -0.25026399 -0.33341497
-0.020570667 -0.25032434 -0.3334547
-0.044464003 -0.25008735 -0.33356634
-0.044282332 -0.25008866 -0.33350232
-0.04415467 -0.25009015 -0.33343652
-0.020562001 -0.25018099 -0.333406
-0.044495668 -0.24987465 -0.33355451
-0.044266332 -0.249879 -0.33348501
-0.044137999 -0.24988116 -0.3334285
-0.044481501 -0.2497015 -0.33355102
-0.044249665 -0.24967034 -0.333478
-0.044121336 -0.24967283 -0.33342183
-0.045228999 -0.24941599 -0.33358499
-0.044845998 -0.249447 -0.33358601
-0.044706747 -0.24945 -0.33356726
-0.044468332 -0.2495255 -0.3335295
-0.044235498 -0.2494975 -0.333478
-0.044109002 -0.24953601 -0.3334415
-0.019678 -0.24946301 -0.33342099
-0.045455001 -0.249263 -0.333527
-0.045255665 -0.24929468 -0.33351865
-0.045091998 -0.24930826 -0.33347797
-0.044910002 -0.24933517 -0.33348069
-0.044708502 -0.249369 -0.33343726
-0.044512 -0.24937201 -0.33341199
-0.019548001 -0.249323 -0.33342201
-0.045887664 -0.24905498 -0.33354852
-0.045467332 -0.24916334 -0.33344364
-0.045269001 -0.24919251 -0.3334395
-0.046324998 -0.248806 -0.333563
-0.046052333 -0.24888067 -0.33349934
-0.045907449 -0.24890698 -0.33345866
-0.046321999 -0.24869251 -0.33346403
-0.019035 -0.248722 -0.33343601
-0.018941 -0.248658 -0.33348501
-0.046560999 -0.248446 -0.33358899
-0.046309665 -0.24851601 -0.33343032
-0.018885 -0.24852026 -0.33349901
-0.046549994 -0.24830599 -0.33358034
-0.046291664 -0.24831033 -0.33344433
-0.018829999 -0.24834301 -0.333444
-0.018759001 -0.2482855 -0.333561
-0.046533 -0.24809802 -0.33357432
-0.046273667 -0.24810468 -0.33346367
-0.018753499 -0.2481375 -0.33345503
-0.046514999 -0.24789067 -0.33358565
-0.046258003 -0.24789433 -0.33344302
-0.0185715 -0.24787849 -0.33355901
-0.046679001 -0.24760599 -0.33358201
-0.046493001 -0.247611 -0.333572
-0.046240333 -0.24768734 -0.33344766
-0.018562334 -0.24769832 -0.33347765
-0.046891998 -0.247448 -0.33357599
-0.046709999 -0.24748565 -0.33354297
-0.046489999 -0.24750051 -0.33347702
-0.046229001 -0.247549 -0.333442
-0.018547667 -0.24748565 -0.33343497
-0.047080334 -0.24724901 -0.3335577
-0.046928 -0.24729866 -0.33349848
-0.046733402 -0.2473274 -0.33344939
-0.046486001 -0.247391 -0.33340999
-0.018470999 -0.247316 -0.33347797
-0.018398 -0.247219 -0.33355001
-0.047227748 -0.24706124 -0.33355901
-0.047086164 -0.2470805 -0.33347651
-0.046961002 -0.24711549 -0.33341599
-0.018357802 -0.24706662 -0.33354077
-0.047286499 -0.24689651 -0.33351526
-0.047158502 -0.24689999 -0.33342803
-0.018329199 -0.24688581 -0.33353001
-0.047470003 -0.24669775 -0.33357549
-0.047332603 -0.24673 -0.33347979
-0.047192998 -0.24679101 -0.33341101
-0.018312665 -0.24673033 -0.33352065
-0.047504112 -0.24650232 -0.33353078
-0.047360502 -0.24653551 -0.33342001
-0.018274667 -0.24652034 -0.3334693
-0.047490671 -0.24629068 -0.33346969
-0.047304332 -0.24624901 -0.33341232
-0.018291499 -0.24630749 -0.3334915
-0.04747178 -0.24608487 -0.33349821
-0.047272831 -0.24608999 -0.33343282
-0.047132999 -0.246066 -0.333415
-0.018306667 -0.24609832 -0.33354267
-0.047483832 -0.24587883 -0.33354631
-0.047300115 -0.24588124 -0.33346456
-0.047123998 -0.24596199 -0.333413
-0.018410999 -0.245803 -0.33340201
-0.047465999 -0.24567217 -0.3335565
-0.047328833 -0.245673 -0.333505
-0.047189999 -0.24567668 -0.33341932
-0.018401001 -0.245738 -0.333471
-0.047452997 -0.24549726 -0.33353949
-0.047316249 -0.24549775 -0.33347648
-0.018533001 -0.245441 -0.333433
-0.047456861 -0.24531159 -0.33352083
-0.047326751 -0.2453395 -0.33345503
-0.0185485 -0.245303 -0.3334735
-0.047485862 -0.24512158 -0.33351997
-0.047357596 -0.2450978 -0.33343703
-0.018646667 -0.24508834 -0.33349231
-0.0185345 -0.24516501 -0.33351851
-0.047514781 -0.24490088 -0.33354044
-0.047382001 -0.24490166 -0.33342668
-0.018712001 -0.24480399 -0.333442
-0.047499113 -0.24469113 -0.33352
-0.047369 -0.244726 -0.333406
-0.047493201 -0.24447432 -0.33351091
-0.047504667 -0.24427252 -0.333536
-0.047389999 -0.24427649 -0.33340198
-0.047488999 -0.24409975 -0.33355999
-0.047371 -0.24407034 -0.33343497
-0.047447998 -0.24393034 -0.33358702
-0.047323596 -0.24391742 -0.33343738
-0.047286123 -0.24371751 -0.33348024
-0.047271002 -0.243545 -0.33354297
-0.047151498 -0.24348651 -0.33346552
-0.047104836 -0.24334101 -0.33351067
-0.046947498 -0.24329126 -0.33343899
-0.047072999 -0.243183 -0.33359799
-0.046898123 -0.24313086 -0.33350301
-0.046712998 -0.24305965 -0.33344901
-0.046427999 -0.24301 -0.33340099
-0.046865501 -0.242955 -0.333581
-0.046674281 -0.2429347 -0.33350331
-0.046458002 -0.24288361 -0.33345979
-0.046294998 -0.24281199 -0.33341801
-0.046550501 -0.24275976 -0.33355898
-0.046334997 -0.2426725 -0.33350614
-0.046257332 -0.24247165 -0.33356199
-0.046080999 -0.24247 -0.333408
-0.045446001 -0.241457 -0.33343801
-0.045431498 -0.24135649 -0.33352399
-0.0453155 -0.24129967 -0.33346018
-0.045196 -0.24126101 -0.333413
-0.045247 -0.24116568 -0.333529
-0.0451825 -0.2411605 -0.333489
-0.044811502 -0.24090001 -0.33352801
-0.044676501 -0.24086875 -0.33347902
-0.044530001 -0.240803 -0.33343601
-0.044457331 -0.24071467 -0.33351067
-0.044291664 -0.24065466 -0.33349502
-0.044125333 -0.24062534 -0.33344531
-0.044088751 -0.240558 -0.3335405
-0.043928999 -0.24053933 -0.33349362
-0.043728247 -0.24050075 -0.333487
-0.043444999 -0.2404425 -0.33347398
-0.043476999 -0.240374 -0.333599
-0.043332338 -0.24035935 -0.33355367
-0.043145001 -0.24036101 -0.3335
-0.042911999 -0.24026914 -0.33346802
-0.042656001 -0.240205 -0.33347201
-0.042891502 -0.240165 -0.33357251
-0.042641997 -0.24010199 -0.33355099
-0.042447668 -0.24007066 -0.33349335
-0.042277999 -0.24004349 -0.33347398
-0.042040497 -0.240031 -0.33341551
-0.042264 -0.239939 -0.33354801
-0.042035997 -0.23993833 -0.33349633
-0.041914776 -0.23989722 -0.33350202
-0.041760664 -0.23985666 -0.3334693
-0.041854002 -0.23976 -0.33358899
-0.041688751 -0.23974951 -0.33349901
-0.041595999 -0.239703 -0.33344901
-0.037455998 -0.23849601 -0.33345401
-0.037297335 -0.23844667 -0.33345929
-0.037095666 -0.23840801 -0.33346
-0.036975998 -0.238417 -0.33342201
-0.037441 -0.23839401 -0.33355701
-0.037299998 -0.23836499 -0.33355999
-0.037084002 -0.23833966 -0.33354732
-0.036902599 -0.238324 -0.33351839
-0.036747999 -0.238326 -0.33346897
-0.036589 -0.238269 -0.33350301
-0.036316 -0.23824599 -0.33346501
-0.036069334 -0.23825701 -0.33340934
-0.035853665 -0.238204 -0.33345735
-0.035668999 -0.238212 -0.33343801
-0.035496999 -0.238216 -0.33342999
-0.034929 -0.23825601 -0.33343798
-0.034648001 -0.238203 -0.333478
-0.034324002 -0.23823901 -0.33346334
-0.034079 -0.2382265 -0.3334325
-0.033989001 -0.23823 -0.33340901
-0.033686001 -0.2382465 -0.33343399
-0.036304001 -0.238176 -0.33356699
-0.036087498 -0.23818749 -0.33350101
-0.035922997 -0.23815382 -0.33354002
-0.035724498 -0.23814151 -0.333534
-0.034890834 -0.2381535 -0.33352932
-0.034738671 -0.23814933 -0.33353999
-0.034366999 -0.238144 -0.33356401
-0.034107666 -0.23815466 -0.33357367
-0.033973001 -0.23816299 -0.33356401
-0.033674002 -0.23817649 -0.333527
-0.0335075 -0.2381825 -0.33350402
-0.033366501 -0.238157 -0.33350199
-0.0331125 -0.2381345 -0.3334645
-0.032890499 -0.23808101 -0.333588
-0.032701001 -0.238087 -0.33350801
-0.032512002 -0.23811866 -0.33348668
-0.033502001 -0.253003 -0.333395
-0.030691501 -0.25301901 -0.33337152
-0.030273251 -0.25305974 -0.33334553
-0.030121999 -0.25304866 -0.33332434
-0.029894 -0.253061 -0.33333001
-0.029693333 -0.25309667 -0.33333698
-0.029550999 -0.253079 -0.333314
-0.029215001 -0.253102 -0.33335099
-0.029077999 -0.25312299 -0.333336
-0.028857749 -0.25309575 -0.33329099
-0.02868 -0.25310373 -0.33329248
-0.028543999 -0.25311399 -0.33333701
-0.028356001 -0.25308868 -0.33329502
-0.028094202 -0.25307801 -0.33327219
-0.02795 -0.25304401 -0.33325499
-0.027183 -0.25302401 -0.33339301
-0.034678001 -0.25286701 -0.33337501
-0.034468666 -0.25285599 -0.33335331
-0.034256 -0.25288102 -0.33332601
-0.034150779 -0.25289333 -0.33332002
-0.033931669 -0.25290632 -0.33333898
-0.033724833 -0.25291452 -0.33332637
-0.033514429 -0.25289857 -0.33328825
-0.033277001 -0.25289899 -0.33330899
-0.0330978 -0.2528902 -0.3332828
-0.032876249 -0.25285825 -0.33325851
-0.032699499 -0.25286075 -0.33328351
-0.032515001 -0.25288451 -0.3333315
-0.032327749 -0.25286701 -0.3333185
-0.032132 -0.25286001 -0.33331099
-0.031980999 -0.252868 -0.33323899
-0.031741001 -0.25284851 -0.33326799
-0.031521499 -0.25286049 -0.33331048
-0.031305 -0.25287217 -0.33331832
-0.0311535 -0.25288326 -0.33332148
-0.030878665 -0.25291303 -0.33327803
-0.030690499 -0.25293899 -0.3332845
-0.030557999 -0.25293899 -0.33320999
-0.030251499 -0.25296098 -0.33322352
-0.0301455 -0.25296599 -0.33324149
-0.029677499 -0.252992 -0.33322948
-0.029550999 -0.25299799 -0.33320999
-0.028541001 -0.25299901 -0.33323199
-0.0270814 -0.25292319 -0.3332774
-0.026907284 -0.25291827 -0.33331159
-0.026721502 -0.25287348 -0.33329675
-0.026527001 -0.25285798 -0.333372
-0.036410999 -0.25262901 -0.33337301
-0.036098 -0.25264633 -0.33331367
-0.035921 -0.25266001 -0.33334953
-0.035508595 -0.25266477 -0.3333258
-0.0352838 -0.25267321 -0.3333126
-0.0351835 -0.25265902 -0.33330899
-0.034884334 -0.25271115 -0.33331382
-0.034716498 -0.25271764 -0.33331165
-0.034509201 -0.25271481 -0.33327842
-0.034247 -0.25269651 -0.33322701
-0.034140833 -0.25271049 -0.33323565
-0.033924498 -0.25272 -0.333224
-0.0337185 -0.252765 -0.33323801
-0.03349375 -0.25275698 -0.33322299
-0.033270001 -0.25275049 -0.333224
-0.033181001 -0.25275749 -0.33322501
-0.032513 -0.25276852 -0.33322048
-0.032305669 -0.25276968 -0.33321431
-0.032129001 -0.25278801 -0.333267
-0.026509335 -0.25275502 -0.33327332
-0.026314199 -0.25271001 -0.33329239
-0.026151 -0.252664 -0.33337599
-0.037487999 -0.25242701 -0.33340001
-0.037269998 -0.25243652 -0.333352
-0.037094202 -0.25245938 -0.333352
-0.036918502 -0.25249273 -0.3333365
-0.036680501 -0.25249702 -0.33330101
-0.036408998 -0.25251299 -0.33325899
-0.036097713 -0.25252026 -0.33326226
-0.035916999 -0.25254676 -0.3332645
-0.035572 -0.25252801 -0.33324099
-0.035311002 -0.2525025 -0.33322564
-0.035177 -0.2525095 -0.33321899
-0.034843002 -0.252561 -0.33320501
-0.034664001 -0.25257099 -0.33322299
-0.034396999 -0.25259 -0.33321601
-0.026068285 -0.25255871 -0.33323798
-0.025849501 -0.25250575 -0.33328253
-0.025723001 -0.25248766 -0.333354
-0.037478331 -0.25228402 -0.33336601
-0.037261833 -0.2522895 -0.33328798
-0.037107911 -0.25229982 -0.33325672
-0.036935333 -0.25235403 -0.33324668
-0.036676999 -0.25238299 -0.333213
-0.025830666 -0.252372 -0.33323398
-0.025742 -0.25228798 -0.33324701
-0.037732001 -0.252067 -0.333397
-0.0374665 -0.2521055 -0.33332199
-0.037247997 -0.25207618 -0.33323434
-0.037124 -0.25208715 -0.33322373
-0.025725 -0.25214052 -0.3332175
-0.025423501 -0.252112 -0.33333999
-0.025236333 -0.252085 -0.33334902
-0.025112333 -0.25204399 -0.33336699
-0.024939999 -0.25205901 -0.33337677
-0.0379255 -0.25183949 -0.3333765
-0.037723664 -0.25192299 -0.33334365
-0.037455332 -0.25192764 -0.33327469
-0.037276998 -0.25193599 -0.333211
-0.025415001 -0.25192535 -0.33322668
-0.0252275 -0.2518985 -0.33324999
-0.025073001 -0.25189 -0.333305
-0.024930557 -0.25189346 -0.33330142
-0.024742668 -0.25190634 -0.333359
-0.024564333 -0.25191033 -0.33335635
-0.023906 -0.251809 -0.33335698
-0.023472 -0.251831 -0.33338901
-0.038297668 -0.251627 -0.33334133
-0.038103834 -0.25168374 -0.33333531
-0.037920501 -0.25168917 -0.3332715
-0.0377145 -0.2517395 -0.333249
-0.025220999 -0.25178999 -0.333217
-0.025055999 -0.25173068 -0.33324665
-0.0249335 -0.25172698 -0.33323026
-0.024731001 -0.25168633 -0.33326566
-0.024552001 -0.25169101 -0.33326501
-0.0239015 -0.25169677 -0.33328649
-0.023732802 -0.25171357 -0.3332876
-0.023497 -0.25172701 -0.33328
-0.039267 -0.25140101 -0.33332399
-0.03909675 -0.25143474 -0.33334601
-0.038714666 -0.251506 -0.33330533
-0.038493 -0.2515175 -0.33328435
-0.038310997 -0.25152302 -0.33324349
-0.038124666 -0.251531 -0.33322868
-0.025009001 -0.25158799 -0.33320701
-0.042640001 -0.25120899 -0.333372
-0.042550001 -0.25121701 -0.33335799
-0.042289004 -0.25123 -0.33334634
-0.042137001 -0.25123301 -0.333345
-0.041899502 -0.25125551 -0.3333765
-0.041646 -0.25127101 -0.33338699
-0.041506499 -0.251277 -0.3333815
-0.041357502 -0.251243 -0.333327
-0.041117717 -0.25125399 -0.33333588
-0.040884499 -0.25127184 -0.33334532
-0.040725999 -0.25127798 -0.33332998
-0.04053 -0.25125 -0.333287
-0.04002 -0.25125098 -0.33327201
-0.039948002 -0.2512925 -0.33327666
-0.039724667 -0.25130299 -0.33328399
-0.039491251 -0.25135401 -0.33329201
-0.039330002 -0.25134632 -0.33327132
-0.039117333 -0.25133732 -0.333253
-0.021963 -0.251335 -0.333215
-0.043359 -0.25102499 -0.33335701
-0.0431935 -0.251066 -0.33335102
-0.042915285 -0.25108987 -0.33327055
-0.042683501 -0.25109577 -0.3332715
-0.042547002 -0.25110251 -0.33326101
-0.042285997 -0.25111467 -0.333249
-0.042111252 -0.25112376 -0.3332485
-0.041926999 -0.25114831 -0.33325303
-0.041648 -0.25118899 -0.33324501
-0.041506998 -0.25119701 -0.33326948
-0.041356001 -0.25112501 -0.33320799
-0.041079331 -0.25114432 -0.333217
-0.040833998 -0.25115448 -0.33321649
-0.040529002 -0.25117201 -0.33320901
-0.040125001 -0.25119799 -0.33320501
-0.043853998 -0.25080499 -0.333381
-0.043769002 -0.25085101 -0.33334032
-0.043549001 -0.25090951 -0.33329099
-0.043355502 -0.25091201 -0.33326399
-0.043191999 -0.25095001 -0.33322099
-0.042872 -0.25097701 -0.33322299
-0.044002999 -0.25068951 -0.33337399
-0.043849498 -0.25069451 -0.33331001
-0.043740802 -0.25071222 -0.33324343
-0.044150665 -0.250505 -0.33339033
-0.043914001 -0.25051501 -0.3333075
-0.043733835 -0.25051799 -0.33324283
-0.020864001 -0.25050351 -0.33332849
-0.0207648 -0.25049961 -0.33335423
-0.044139002 -0.25036699 -0.33340001
-0.043897167 -0.25030783 -0.33330652
-0.043716669 -0.25031051 -0.33324185
-0.020869572 -0.250283 -0.33322486
-0.020748001 -0.25029698 -0.33327666
-0.0438946 -0.25011581 -0.33334282
-0.043712713 -0.25009444 -0.33326572
-0.0434855 -0.25006902 -0.33320299
-0.020876445 -0.25009465 -0.33322999
-0.020732166 -0.25008532 -0.33325267
-0.0205555 -0.2500715 -0.33337098
-0.043938 -0.24989234 -0.33337569
-0.043715108 -0.24989742 -0.33328423
-0.043467499 -0.249862 -0.333215
-0.020695001 -0.249945 -0.33323699
-0.0205475 -0.24992651 -0.33331001
-0.043920998 -0.24968399 -0.33336902
-0.043697778 -0.24969132 -0.33329156
-0.043452334 -0.24969167 -0.33323467
-0.044106998 -0.24946001 -0.33337152
-0.043908499 -0.24950901 -0.33334199
-0.043691874 -0.24949038 -0.33327749
-0.043441001 -0.24955299 -0.33322999
-0.019847 -0.24942701 -0.33324599
-0.019763 -0.24944851 -0.33336198
-0.0448968 -0.24923959 -0.33337018
-0.044706125 -0.24925488 -0.33332875
-0.044454601 -0.24928179 -0.33328438
-0.044232327 -0.24930601 -0.33328333
-0.044104747 -0.24934724 -0.33326674
-0.043902501 -0.2493625 -0.333251
-0.019708 -0.24937549 -0.3332535
-0.019547001 -0.249247 -0.33334801
-0.045434669 -0.24906398 -0.33336365
-0.045265 -0.249082 -0.33335799
-0.045086171 -0.24912232 -0.33333135
-0.04491267 -0.249109 -0.33328956
-0.044718601 -0.24913001 -0.33324423
-0.019546 -0.24916901 -0.33325601
-0.019342 -0.249047 -0.33335301
-0.045870665 -0.248807 -0.33335066
-0.045465752 -0.24891074 -0.33326399
-0.045307748 -0.2489315 -0.33323699
-0.045094002 -0.24895 -0.3332223
-0.044922333 -0.24898465 -0.33320966
-0.019272 -0.24890769 -0.33329165
-0.046047002 -0.24869549 -0.33335102
-0.045891374 -0.24869801 -0.3333064
-0.019234 -0.24876501 -0.33322099
-0.019109 -0.24869199 -0.33331251
-0.046034664 -0.24851866 -0.33332068
-0.045886002 -0.24852854 -0.33328107
-0.0458 -0.248456 -0.33323199
-0.019028001 -0.24853599 -0.33330798
-0.018928999 -0.24844 -0.333399
-0.046016667 -0.24831234 -0.33333001
-0.045886446 -0.24831301 -0.33328575
-0.045788001 -0.24831867 -0.33323666
-0.019039668 -0.24823733 -0.33321866
-0.0188975 -0.24828051 -0.33334124
-0.046006002 -0.248174 -0.33331999
-0.045893267 -0.24809872 -0.33328274
-0.045770332 -0.24811201 -0.33324766
-0.019107999 -0.24807176 -0.33323926
-0.018905001 -0.24808499 -0.333307
-0.018748 -0.248028 -0.33339301
-0.04589282 -0.24790373 -0.33330238
-0.04576325 -0.24788749 -0.3332665
-0.019172 -0.247996 -0.33320099
-0.018876201 -0.2479146 -0.33326599
-0.018754249 -0.24786475 -0.33332425
-0.045894668 -0.24769068 -0.33332166
-0.045758333 -0.24769716 -0.33328986
-0.018751001 -0.24771367 -0.33325669
-0.046225503 -0.247438 -0.333361
-0.045878336 -0.24748246 -0.33331054
-0.04574183 -0.24748884 -0.33328018
-0.018715335 -0.24752933 -0.33327135
-0.046664 -0.247242 -0.33335
-0.046481997 -0.24728149 -0.33332899
-0.046219997 -0.24729151 -0.33325899
-0.045837499 -0.24733651 -0.33320248
-0.045759 -0.24734101 -0.33321401
-0.018698666 -0.247319 -0.33326069
-0.018528 -0.24720199 -0.33338201
-0.046896748 -0.24706475 -0.33335224
-0.046713162 -0.24709433 -0.33329117
-0.046475999 -0.2471365 -0.33323601
-0.046215001 -0.247183 -0.333202
-0.0186875 -0.24714151 -0.33321398
-0.018522 -0.2470935 -0.333327
-0.047062665 -0.24688767 -0.33337235
-0.0469095 -0.24690199 -0.33328649
-0.046759002 -0.24691251 -0.33324099
-0.018510999 -0.246915 -0.33326933
-0.047270998 -0.246645 -0.333399
-0.047097251 -0.24671277 -0.3333244
-0.046901498 -0.24675851 -0.33322451
-0.018496668 -0.24670132 -0.33322069
-0.0183655 -0.246682 -0.333372
-0.047285002 -0.24648401 -0.33336049
-0.047105122 -0.24650863 -0.333269
-0.018479332 -0.24649167 -0.33322266
-0.018350333 -0.246509 -0.33339265
-0.047281336 -0.24634068 -0.33336464
-0.047116 -0.24630482 -0.333336
-0.046903666 -0.2463118 -0.33329713
-0.046709668 -0.24632566 -0.33326134
-0.018460667 -0.24628365 -0.33325133
-0.018339001 -0.24636801 -0.33338201
-0.047076501 -0.24611849 -0.33338726
-0.046896998 -0.24611324 -0.33331478
-0.046719752 -0.24609751 -0.33324099
-0.018443333 -0.24607332 -0.33324668
-0.047069199 -0.2458792 -0.33338839
-0.046911001 -0.24589498 -0.33332369
-0.046731498 -0.24590451 -0.33324334
-0.018475333 -0.24588601 -0.333307
-0.04706217 -0.24568467 -0.33337769
-0.046894997 -0.24568667 -0.3333053
-0.046715003 -0.24569666 -0.33323666
-0.018564999 -0.24571268 -0.33328298
-0.047080629 -0.24548049 -0.33333826
-0.046881497 -0.24547517 -0.33324751
-0.04676 -0.245552 -0.33320799
-0.018610001 -0.245535 -0.33327448
-0.018562667 -0.24550666 -0.33335933
-0.047259502 -0.245287 -0.33339047
-0.0471306 -0.24531379 -0.3333216
-0.046969999 -0.24530967 -0.33323669
-0.0187106 -0.24527061 -0.33326501
-0.018587001 -0.2453295 -0.33336699
-0.047247332 -0.245112 -0.33335435
-0.047108997 -0.24511766 -0.33326602
-0.0469875 -0.245158 -0.33322102
-0.018746333 -0.24507301 -0.33326003
-0.047275335 -0.24490118 -0.33335102
-0.04711625 -0.24492499 -0.33325401
-0.018821999 -0.244859 -0.33322799
-0.018727001 -0.24490249 -0.33333999
-0.047274288 -0.24468228 -0.33333531
-0.047122668 -0.24469467 -0.33321133
-0.018808 -0.2447595 -0.33331448
-0.047290001 -0.2444915 -0.33333775
-0.047154002 -0.2444835 -0.33322701
-0.047314432 -0.24427542 -0.33336383
-0.047185332 -0.24427401 -0.333249
-0.047287002 -0.244102 -0.33336249
-0.047171 -0.244101 -0.33325601
-0.047238667 -0.24393 -0.33337101
-0.047128998 -0.24391375 -0.33327574
-0.047226001 -0.24379399 -0.33339801
-0.047086835 -0.24372716 -0.33330348
-0.046903498 -0.24363349 -0.33322299
-0.047043249 -0.24354026 -0.33334976
-0.046898 -0.2435182 -0.33328518
-0.046733331 -0.24348967 -0.33323234
-0.046547998 -0.24343331 -0.33322033
-0.046850748 -0.24334575 -0.33335149
-0.046701834 -0.24333133 -0.33329448
-0.046513829 -0.24327582 -0.33326581
-0.046343498 -0.24325499 -0.333231
-0.046683501 -0.2431615 -0.33336449
-0.046494499 -0.24310575 -0.33334801
-0.046324667 -0.24308433 -0.33330402
-0.046142668 -0.24308665 -0.33323464
-0.046537999 -0.242999 -0.33339399
-0.046305999 -0.2429145 -0.333379
-0.046122998 -0.24288201 -0.33328
-0.046103667 -0.24267566 -0.33331868
-0.046089001 -0.242539 -0.33336601
-0.045821 -0.24240699 -0.33320799
-0.045812503 -0.2423055 -0.33322099
-0.045475502 -0.241694 -0.33327401
-0.045396999 -0.24166 -0.333224
-0.020955 -0.24165 -0.333224
-0.045458 -0.24155951 -0.333372
-0.045321889 -0.241511 -0.33327532
-0.021105999 -0.24153532 -0.33326149
-0.045248799 -0.24136519 -0.33334342
-0.044839997 -0.24106734 -0.33329567
-0.044718999 -0.241023 -0.33326367
-0.044643 -0.24093799 -0.33335701
-0.044490598 -0.24088421 -0.33330801
-0.044293799 -0.2408258 -0.33325481
-0.044245664 -0.24072365 -0.333354
-0.044115625 -0.24070787 -0.33331451
-0.043939501 -0.24066176 -0.33329752
-0.043752998 -0.24063399 -0.33327448
-0.043694999 -0.24057101 -0.33335301
-0.043463748 -0.24054301 -0.33331299
-0.043333333 -0.24051733 -0.333316
-0.043074198 -0.24047939 -0.33327842
-0.0429128 -0.2404584 -0.3332648
-0.042691 -0.2404415 -0.33322799
-0.042844001 -0.240336 -0.33336499
-0.0426725 -0.240307 -0.333352
-0.042476665 -0.24027433 -0.33331302
-0.042306501 -0.2402475 -0.33329499
-0.042071998 -0.24026875 -0.33322999
-0.041952498 -0.240238 -0.33322549
-0.042291999 -0.240145 -0.33337799
-0.04205475 -0.240132 -0.3333225
-0.04189878 -0.24010301 -0.33329901
-0.041701335 -0.24006367 -0.33323234
-0.041657999 -0.23991981 -0.33333862
-0.041444 -0.23984601 -0.33320799
-0.04143 -0.23974499 -0.33330101
-0.041313335 -0.23966634 -0.33327934
-0.041286498 -0.239576 -0.3333655
-0.041129194 -0.2395272 -0.33326823
-0.040472001 -0.23926599 -0.333224
-0.040374 -0.2392 -0.333206
-0.040197998 -0.239142 -0.33322999
-0.037484001 -0.238667 -0.333233
-0.037319001 -0.23862401 -0.33323824
-0.037062332 -0.238618 -0.333217
-0.037473999 -0.238599 -0.333305
-0.037326999 -0.23853749 -0.33336049
-0.037111834 -0.23851202 -0.33334231
-0.036933623 -0.23849675 -0.33332109
-0.036696248 -0.23846877 -0.33327949
-0.036348 -0.23845001 -0.33323699
-0.035886999 -0.23840933 -0.33321169
-0.035700001 -0.238419 -0.33322001
-0.035528 -0.238424 -0.333222
-0.034681 -0.23841 -0.333233
-0.034407999 -0.23842201 -0.33328599
-0.03424 -0.238426 -0.333224
-0.036605999 -0.238371 -0.33337399
-0.036332503 -0.23834699 -0.333345
-0.036086004 -0.23835884 -0.33327967
-0.035904109 -0.23831479 -0.33332321
-0.035684999 -0.23831651 -0.333325
-0.035512999 -0.2383205 -0.33331901
-0.035241 -0.23833901 -0.33327901
-0.0348849 -0.23834109 -0.33331999
-0.034666501 -0.238306 -0.33332199
-0.034281999 -0.238333 -0.33334801
-0.0340655 -0.23833017 -0.33329937
-0.033702999 -0.23831451 -0.33325899
-0.033529751 -0.23828676 -0.33329749
-0.033270668 -0.23824401 -0.33328235
-0.033050001 -0.238203 -0.33328399
-0.032947 -0.23821433 -0.33324066
-0.032731 -0.238223 -0.333233
-0.032478001 -0.238231 -0.33321401
-0.032933664 -0.23814666 -0.33336267
-0.032717999 -0.23815501 -0.33333299
-0.032460999 -0.23816399 -0.333386
-0.032336 -0.23817 -0.33327252
-0.032113001 -0.23817967 -0.33324534
-0.031665001 -0.2381085 -0.33321202
-0.029287498 -0.25301349 -0.333193
-0.02908 -0.25303701 -0.33319399
-0.028015001 -0.25303599 -0.33318299
-0.031569 -0.252808 -0.33318201
-0.030825 -0.25285599 -0.33317801
-0.030691501 -0.252857 -0.33317199
-0.030554 -0.252866 -0.33317801
-0.030300716 -0.25285628 -0.33311155
-0.030112857 -0.25287014 -0.33313113
-0.029894 -0.25290069 -0.33312801
-0.029677 -0.25287125 -0.333085
-0.0295485 -0.25288001 -0.333096
-0.029283999 -0.25289774 -0.33309475
-0.029079501 -0.252918 -0.33306301
-0.028855333 -0.25289881 -0.3330825
-0.028669199 -0.25291958 -0.33308202
-0.028539501 -0.25288099 -0.33311501
-0.028352499 -0.25289398 -0.33310801
-0.028068425 -0.25289857 -0.33308473
-0.027948 -0.25288734 -0.33309165
-0.027723402 -0.25287938 -0.33309779
-0.027418502 -0.252882 -0.33313298
-0.027106 -0.25283152 -0.33315802
-0.0269465 -0.25281101 -0.33317602
-0.034111999 -0.25260401 -0.33318299
-0.033918999 -0.252608 -0.333159
-0.03371425 -0.252653 -0.3331615
-0.033549666 -0.25264868 -0.33317235
-0.03333075 -0.252653 -0.3331725
-0.033078 -0.25267833 -0.33316368
-0.032861199 -0.25268641 -0.33314461
-0.03269675 -0.25270528 -0.33313176
-0.032510001 -0.25265101 -0.33311349
-0.032303333 -0.25265285 -0.33310267
-0.032127 -0.25266799 -0.333139
-0.031976666 -0.25271499 -0.33312234
-0.031739499 -0.252689 -0.33308601
-0.03152325 -0.25269499 -0.3330805
-0.031305999 -0.25270733 -0.33309099
-0.0311525 -0.25272274 -0.33313853
-0.030870399 -0.25271958 -0.33307621
-0.030688498 -0.25274 -0.33306199
-0.030550499 -0.25275302 -0.33309349
-0.030284336 -0.25272834 -0.33302864
-0.030116668 -0.25273699 -0.33301365
-0.029888 -0.25275099 -0.333038
-0.029211 -0.252785 -0.33300099
-0.028107502 -0.25279599 -0.33302251
-0.027613999 -0.25275299 -0.33300999
-0.027416 -0.25276601 -0.33302
-0.027111199 -0.25274339 -0.33306059
-0.026901001 -0.25270659 -0.3330878
-0.026708599 -0.25269324 -0.33311522
-0.026539998 -0.25264299 -0.33312932
-0.026386 -0.25263599 -0.33315599
-0.0360655 -0.2524235 -0.3331615
-0.035913501 -0.25243199 -0.33317351
-0.035569999 -0.25244999 -0.33317301
-0.0348818 -0.25247139 -0.33315921
-0.0347168 -0.25247541 -0.33314461
-0.034569997 -0.25250134 -0.33315268
-0.034299202 -0.25249982 -0.33314961
-0.034136426 -0.25250658 -0.33315256
-0.033913501 -0.25249851 -0.33310801
-0.033706501 -0.25250548 -0.3330895
-0.033526164 -0.25247815 -0.33308282
-0.033301778 -0.25248823 -0.33307731
-0.033094835 -0.25250283 -0.33306849
-0.032868199 -0.25250977 -0.33306557
-0.032690503 -0.25255626 -0.33304101
-0.03250375 -0.2525025 -0.33302501
-0.032295998 -0.25250468 -0.33302203
-0.032121502 -0.25251651 -0.33303398
-0.031970002 -0.25256601 -0.33302501
-0.026763 -0.25259799 -0.33303899
-0.026522499 -0.2525405 -0.33303201
-0.026282875 -0.25250289 -0.33309102
-0.0261105 -0.25245452 -0.33317551
-0.026000001 -0.252451 -0.33319601
-0.037028 -0.25222701 -0.33318999
-0.036887001 -0.25225633 -0.33317468
-0.036672503 -0.25227052 -0.33313799
-0.036402501 -0.25236249 -0.333161
-0.036398999 -0.252251 -0.33308101
-0.036085498 -0.25230733 -0.33307633
-0.035908837 -0.25228068 -0.33305648
-0.035567001 -0.252336 -0.33307701
-0.035305556 -0.25231087 -0.33306777
-0.035171002 -0.25231865 -0.333069
-0.034856666 -0.25231168 -0.33305368
-0.034700498 -0.25230449 -0.33303499
-0.034561999 -0.25231451 -0.33303499
-0.03430875 -0.252327 -0.3330265
-0.034123335 -0.25234234 -0.33304265
-0.033909 -0.25238499 -0.33302701
-0.0337005 -0.252397 -0.33304501
-0.033518001 -0.25233251 -0.33301848
-0.033286002 -0.25234199 -0.33301401
-0.033162002 -0.25235099 -0.33300701
-0.032894 -0.25237799 -0.33300799
-0.026203001 -0.25235099 -0.33304399
-0.026109362 -0.25228179 -0.33308166
-0.025943199 -0.25229701 -0.3331596
-0.037035003 -0.25207001 -0.33316761
-0.036899 -0.25208715 -0.33312532
-0.036662001 -0.25209066 -0.33307767
-0.036390003 -0.25210503 -0.33302835
-0.036109999 -0.25217101 -0.33301663
-0.026132332 -0.25210667 -0.3330172
-0.025919499 -0.25209552 -0.33309266
-0.025787 -0.2520785 -0.333188
-0.037236497 -0.25189751 -0.33318299
-0.037089888 -0.25189546 -0.33313698
-0.036873601 -0.2518864 -0.3330524
-0.036650002 -0.2519125 -0.333029
-0.026078777 -0.25188985 -0.33303422
-0.025904501 -0.25188318 -0.333056
-0.0257325 -0.2519033 -0.33313563
-0.037710998 -0.25162601 -0.33316699
-0.037445333 -0.251706 -0.33314398
-0.037266333 -0.25171435 -0.33308831
-0.037099749 -0.25172654 -0.33305851
-0.036963332 -0.25174764 -0.33301866
-0.026092499 -0.25173324 -0.3330346
-0.02591214 -0.25168958 -0.33302873
-0.025718668 -0.251688 -0.33307499
-0.025403999 -0.25174552 -0.33317399
-0.025276333 -0.25166634 -0.33315334
-0.025132999 -0.2516855 -0.33318001
-0.02489325 -0.2516385 -0.33318099
-0.023638001 -0.251665 -0.333175
-0.023553001 -0.25167 -0.33315101
-0.02328 -0.25164899 -0.33312601
-0.038309 -0.25144699 -0.3331725
-0.0380826 -0.25147119 -0.33315042
-0.0379145 -0.25150001 -0.33312249
-0.037707999 -0.25151101 -0.33306199
-0.037439998 -0.25155601 -0.33303401
-0.037259001 -0.25156701 -0.333009
-0.026062001 -0.2515825 -0.33300549
-0.025709501 -0.25154352 -0.33302802
-0.025300749 -0.2515285 -0.3330695
-0.025076801 -0.25149003 -0.3330884
-0.024916857 -0.25150588 -0.33312541
-0.024724999 -0.25149751 -0.33311701
-0.024545001 -0.251544 -0.333195
-0.0239025 -0.25157499 -0.33311301
-0.023720667 -0.25157735 -0.33304897
-0.023515001 -0.25158501 -0.3330285
-0.039488502 -0.251239 -0.33318949
-0.039312001 -0.25124502 -0.33318001
-0.039115999 -0.25125933 -0.33317602
-0.038708668 -0.25127831 -0.33311066
-0.0384974 -0.251302 -0.3330878
-0.038306251 -0.25133249 -0.33307499
-0.038094498 -0.25134075 -0.33304426
-0.037910998 -0.251387 -0.33303049
-0.022085249 -0.25131527 -0.3330555
-0.021918999 -0.25125697 -0.33308366
-0.04281 -0.25104299 -0.33318099
-0.042282667 -0.25100133 -0.33315364
-0.042109501 -0.25100702 -0.333125
-0.041869 -0.25104764 -0.33313799
-0.041644998 -0.25107449 -0.33314198
-0.041504249 -0.25108299 -0.33317399
-0.041354001 -0.25104901 -0.33313599
-0.041120999 -0.25108021 -0.33315659
-0.0409225 -0.25107527 -0.3331365
-0.040752601 -0.251068 -0.33313721
-0.040524997 -0.25105798 -0.33311599
-0.040069751 -0.2510905 -0.33311248
-0.03994425 -0.2511 -0.333092
-0.039719999 -0.25111198 -0.333119
-0.039483 -0.25108984 -0.33308086
-0.039317399 -0.25110841 -0.3330684
-0.039113499 -0.25114515 -0.333074
-0.021813 -0.25118801 -0.333069
-0.021745 -0.25113001 -0.333085
-0.043350998 -0.25080001 -0.33318701
-0.043186501 -0.2508395 -0.33316898
-0.0429065 -0.25089699 -0.33312902
-0.042695429 -0.2508947 -0.33310932
-0.042539999 -0.25091633 -0.33313
-0.042319253 -0.2508885 -0.3330825
-0.042135332 -0.25089452 -0.33306098
-0.041896001 -0.25094151 -0.33302349
-0.041644 -0.25095701 -0.33301699
-0.041483 -0.25094032 -0.33303067
-0.041354999 -0.25096801 -0.33301601
-0.041090727 -0.25092685 -0.33306846
-0.040936999 -0.25095034 -0.33305034
-0.040752999 -0.25089824 -0.33303851
-0.040523 -0.250945 -0.333013
-0.021555001 -0.25092399 -0.333022
-0.043540999 -0.25072464 -0.33317831
-0.043345001 -0.25069201 -0.33315
-0.043178998 -0.2506955 -0.33310199
-0.042913333 -0.25068146 -0.33305466
-0.042707376 -0.25069577 -0.33302888
-0.042528998 -0.25069767 -0.33302131
-0.042299002 -0.25075635 -0.33301401
-0.042114504 -0.25077048 -0.33301774
-0.043523997 -0.250516 -0.333175
-0.043331999 -0.25051633 -0.33311832
-0.043166336 -0.25052032 -0.33307835
-0.042899497 -0.25050426 -0.333022
-0.042732254 -0.25049323 -0.33301824
-0.0209875 -0.25044149 -0.33318001
-0.043506999 -0.25031 -0.33318165
-0.043314997 -0.25030902 -0.33312199
-0.043150336 -0.25031066 -0.33305833
-0.042910997 -0.25031224 -0.333009
-0.04276 -0.25029999 -0.333004
-0.020978 -0.250339 -0.333195
-0.043494001 -0.25017199 -0.333195
-0.043295998 -0.25010502 -0.33315131
-0.043131333 -0.25010499 -0.33308801
-0.042869445 -0.25012568 -0.33302578
-0.042745668 -0.250128 -0.33300966
-0.043476999 -0.249964 -0.33319899
-0.043277998 -0.24989833 -0.33316866
-0.043112997 -0.24990034 -0.33311066
-0.042867284 -0.24992971 -0.33305088
-0.042723574 -0.24990371 -0.33302587
-0.02087743 -0.24990299 -0.33314711
-0.020731336 -0.24989033 -0.33315167
-0.020546 -0.24981099 -0.333184
-0.043261003 -0.24969099 -0.33317134
-0.043094333 -0.249695 -0.33313733
-0.042860497 -0.24971317 -0.33305952
-0.042707559 -0.24971665 -0.33303276
-0.020894 -0.24977151 -0.33304697
-0.020732749 -0.24976949 -0.33304474
-0.020543501 -0.24969649 -0.333078
-0.043602001 -0.249405 -0.33319101
-0.043435998 -0.2494435 -0.33317202
-0.043246333 -0.249479 -0.33312336
-0.04308033 -0.249483 -0.33308467
-0.042856332 -0.24954867 -0.33304235
-0.04271375 -0.24955899 -0.33301723
-0.020359 -0.24958999 -0.33302501
-0.044101 -0.249235 -0.333184
-0.043898001 -0.24924999 -0.33317101
-0.043714248 -0.24929625 -0.33314401
-0.043515 -0.24929523 -0.33308601
-0.04324 -0.24933399 -0.33303401
-0.019845001 -0.24927501 -0.33308667
-0.019744858 -0.24926984 -0.33312002
-0.044670999 -0.24906968 -0.33319366
-0.044448398 -0.24908881 -0.33313698
-0.044225331 -0.24908334 -0.33311331
-0.044105597 -0.2491 -0.3330662
-0.043895997 -0.24913651 -0.333058
-0.043711998 -0.24918249 -0.33303499
-0.043593999 -0.249185 -0.33304301
-0.019836999 -0.24913099 -0.333022
-0.019707 -0.24910481 -0.33303541
-0.019544 -0.2490555 -0.333148
-0.045280751 -0.2488395 -0.33316624
-0.045061335 -0.24885301 -0.33314368
-0.044889662 -0.2488891 -0.33312455
-0.044726774 -0.24892221 -0.33309114
-0.044533167 -0.24893649 -0.33305782
-0.044220001 -0.248936 -0.33300599
-0.019537501 -0.24890849 -0.333056
-0.019338001 -0.2488565 -0.33316898
-0.045476001 -0.24867433 -0.33314666
-0.045307875 -0.24868576 -0.33310786
-0.045098167 -0.24868049 -0.33304965
-0.044900715 -0.24873315 -0.33302456
-0.019281499 -0.24867976 -0.333094
-0.0454625 -0.24850151 -0.33313599
-0.045330498 -0.24850151 -0.33308199
-0.045144502 -0.24850324 -0.33303499
-0.019247251 -0.24850325 -0.33303648
-0.019100752 -0.2484695 -0.33315599
-0.045449663 -0.24832635 -0.333112
-0.045315832 -0.24832816 -0.33308518
-0.045154251 -0.24834676 -0.33303025
-0.019263398 -0.24831359 -0.33305103
-0.019081 -0.24832433 -0.33315733
-0.045433 -0.24811834 -0.33310401
-0.045298997 -0.24812116 -0.33308449
-0.045158669 -0.24812333 -0.33303601
-0.019472999 -0.24810368 -0.33303067
-0.019278999 -0.24812166 -0.33314568
-0.019187 -0.24816799 -0.33317798
-0.045414668 -0.247912 -0.33312535
-0.045280665 -0.24791501 -0.33310282
-0.045096163 -0.24791618 -0.33303183
-0.019461 -0.24796499 -0.33303699
-0.019263668 -0.24790967 -0.333112
-0.019120499 -0.24789101 -0.33316249
-0.018982001 -0.247861 -0.333168
-0.045403 -0.247775 -0.333132
-0.045296498 -0.24769886 -0.33310664
-0.045079332 -0.24770884 -0.33302933
-0.044941001 -0.247646 -0.333004
-0.019257 -0.24776401 -0.33302999
-0.019110335 -0.24771135 -0.33309302
-0.018928999 -0.24772215 -0.33314314
-0.018790999 -0.247659 -0.33317599
-0.04531743 -0.24751015 -0.33312631
-0.045095749 -0.24749362 -0.33305222
-0.019055 -0.24753501 -0.33303201
-0.018913666 -0.24751 -0.33311132
-0.018779334 -0.24751967 -0.33318269
-0.04589 -0.247279 -0.33315176
-0.045726333 -0.24729466 -0.33314931
-0.045325249 -0.24732201 -0.33307001
-0.045119498 -0.247345 -0.33304149
-0.018879 -0.24731651 -0.33307424
-0.018763332 -0.24730933 -0.33316335
-0.046470001 -0.24702799 -0.333186
-0.046209998 -0.24707501 -0.33314002
-0.045876432 -0.247137 -0.33306101
-0.045729499 -0.24716026 -0.33305851
-0.018848 -0.247155 -0.33301201
-0.018733501 -0.24707949 -0.33310723
-0.046673503 -0.24686275 -0.33316225
-0.046464 -0.246884 -0.33310068
-0.046207 -0.24696501 -0.33304799
-0.018687751 -0.24686998 -0.33308727
-0.046894997 -0.2466515 -0.3331835
-0.046691999 -0.246701 -0.33312026
-0.046452999 -0.24670649 -0.33304399
-0.01866 -0.24667533 -0.333038
-0.047014002 -0.246508 -0.333197
-0.046885338 -0.24651249 -0.33316216
-0.046679333 -0.24652715 -0.33309484
-0.046434999 -0.246463 -0.333011
-0.018645 -0.246502 -0.33305201
-0.046604998 -0.2464 -0.33318701
-0.046490002 -0.2463166 -0.33312699
-0.018629665 -0.24632899 -0.33307335
-0.046511799 -0.24613681 -0.33313817
-0.046395998 -0.24605399 -0.33309501
-0.018640665 -0.24611866 -0.33308867
-0.046566665 -0.24591534 -0.33316633
-0.046384003 -0.24591632 -0.33310032
-0.018653333 -0.24590735 -0.33308366
-0.018591501 -0.245951 -0.33318102
-0.046548665 -0.24570866 -0.33317733
-0.046366334 -0.24571033 -0.33311501
-0.0461035 -0.245685 -0.33301598
-0.018839333 -0.24564034 -0.33301666
-0.018668201 -0.24568459 -0.33310941
-0.046689801 -0.24547219 -0.3331674
-0.046535999 -0.245497 -0.33311
-0.046352338 -0.24549901 -0.33306202
-0.019068999 -0.245461 -0.33300301
-0.018927833 -0.24547601 -0.33306918
-0.018747 -0.24548519 -0.33311251
-0.04685533 -0.24528635 -0.33318067
-0.0466788 -0.24528821 -0.33310461
-0.046522666 -0.24528499 -0.33304265
-0.046344001 -0.24535801 -0.33301201
-0.019064 -0.24539199 -0.33300099
-0.018898999 -0.245285 -0.3331328
-0.018774999 -0.24534801 -0.33317199
-0.046876427 -0.24511273 -0.33315042
-0.046689399 -0.24511799 -0.33306798
-0.018905999 -0.2451138 -0.33308899
-0.0470495 -0.244875 -0.3331925
-0.046898119 -0.244921 -0.33312559
-0.046697166 -0.24492018 -0.33303216
-0.019029001 -0.244973 -0.33300599
-0.018888799 -0.2449334 -0.33311778
-0.047036331 -0.24470067 -0.33316836
-0.04691517 -0.24470234 -0.33309248
-0.046767998 -0.24472174 -0.33302426
-0.019007001 -0.244729 -0.33303201
-0.01892725 -0.24468951 -0.333132
-0.047054198 -0.24447501 -0.33316058
-0.046899665 -0.24449332 -0.33306649
-0.046774998 -0.24452749 -0.33300298
-0.018987 -0.2445225 -0.333078
-0.0470572 -0.2442936 -0.33315578
-0.046899714 -0.24427472 -0.33306557
-0.047072668 -0.24407034 -0.3331863
-0.046906441 -0.24407691 -0.33308244
-0.046741001 -0.244113 -0.333004
-0.019142 -0.244058 -0.33300501
-0.047061 -0.24393301 -0.333195
-0.046897627 -0.24388075 -0.33313549
-0.046702832 -0.24385382 -0.33304766
-0.0465215 -0.243856 -0.33302402
-0.0191285 -0.24395549 -0.33307499
-0.046898667 -0.24371232 -0.333186
-0.046697665 -0.24367255 -0.33312622
-0.046504665 -0.24368601 -0.33307266
-0.046326 -0.24365067 -0.33304402
-0.019252 -0.24367249 -0.33305448
-0.046681002 -0.243535 -0.333193
-0.046522334 -0.24352567 -0.33316833
-0.046369333 -0.24349166 -0.333132
-0.046185669 -0.24349467 -0.33309099
-0.045920998 -0.2434725 -0.333018
-0.046354 -0.243356 -0.333188
-0.046164334 -0.24329066 -0.33315703
-0.045905005 -0.24330133 -0.33305964
-0.045885999 -0.24309534 -0.33308467
-0.045867 -0.24288933 -0.33311734
-0.045848999 -0.242682 -0.33313134
-0.020106001 -0.242604 -0.33300799
-0.019975999 -0.242752 -0.33301699
-0.0458325 -0.242511 -0.33317101
-0.045552 -0.24241 -0.333002
-0.0202595 -0.24248724 -0.33302549
-0.0201445 -0.24249999 -0.33308774
-0.045539666 -0.24227333 -0.33302534
-0.045480832 -0.24206866 -0.33305332
-0.045463003 -0.24189824 -0.3331185
-0.045340165 -0.24189901 -0.33302465
-0.020815 -0.24193101 -0.333013
-0.045436334 -0.24177267 -0.33316532
-0.045309752 -0.24172138 -0.33310774
-0.021219 -0.24162801 -0.33307701
-0.021086 -0.24165934 -0.33310533
-0.020966001 -0.241717 -0.33313999
-0.045253996 -0.24157535 -0.33317032
-0.044886 -0.241404 -0.333011
-0.021298334 -0.24153365 -0.33311501
-0.021159999 -0.24156301 -0.33319801
-0.044867665 -0.24126934 -0.333132
-0.044733003 -0.24123825 -0.33307499
-0.044590998 -0.24120601 -0.33300599
-0.044702332 -0.24111366 -0.33314934
-0.0445356 -0.2410578 -0.33310881
-0.044325002 -0.2410268 -0.33303279
-0.044280428 -0.24091871 -0.33312359
-0.0441029 -0.24088141 -0.3330887
-0.043881997 -0.24083 -0.33305848
-0.043738998 -0.24083801 -0.333009
-0.044052001 -0.240759 -0.33320001
-0.043886501 -0.24074626 -0.33316448
-0.043724 -0.2407365 -0.33311301
-0.043491501 -0.24071033 -0.33309716
-0.043308333 -0.24070032 -0.33309701
-0.043076754 -0.2406705 -0.33311623
-0.042934332 -0.24067567 -0.33307752
-0.0427185 -0.2406455 -0.333069
-0.042523 -0.240614 -0.333031
-0.043184999 -0.240596 -0.333175
-0.042874001 -0.240538 -0.33316499
-0.042704999 -0.24054401 -0.33315399
-0.042504001 -0.24047868 -0.33314401
-0.042338666 -0.24048467 -0.33309934
-0.042072501 -0.24047351 -0.33306301
-0.041947998 -0.24047551 -0.33305001
-0.042321 -0.240348 -0.33319601
-0.042059001 -0.24037234 -0.33314431
-0.041902002 -0.24032019 -0.33313933
-0.041730002 -0.24026734 -0.33304968
-0.041685667 -0.24015565 -0.33311799
-0.041474 -0.24005 -0.33300799
-0.041459501 -0.2399475 -0.33310598
-0.041344669 -0.23986967 -0.33305466
-0.041265801 -0.23975179 -0.33310223
-0.041138999 -0.23966774 -0.33310997
-0.025010001 -0.23968901 -0.333002
-0.024955001 -0.239695 -0.33311599
-0.041035499 -0.2395525 -0.33316898
-0.040867332 -0.23952599 -0.333076
-0.040608 -0.239401 -0.333031
-0.025681 -0.239516 -0.33310699
-0.040686999 -0.239397 -0.33309999
-0.040542498 -0.2393325 -0.33308101
-0.040274668 -0.239251 -0.33305931
-0.040088497 -0.23921549 -0.33300501
-0.040073253 -0.23914824 -0.333119
-0.039864 -0.23913199 -0.33308032
-0.037463501 -0.2388065 -0.33302802
-0.0374505 -0.238738 -0.3331365
-0.037263498 -0.23871249 -0.33313501
-0.037076999 -0.23872034 -0.33312002
-0.036910128 -0.23870637 -0.33311123
-0.036700334 -0.23866498 -0.33307564
-0.036384001 -0.23872633 -0.33303499
-0.036115002 -0.23863602 -0.33305383
-0.035914663 -0.23861635 -0.33304402
-0.035728998 -0.238626 -0.333038
-0.035556 -0.238629 -0.33304799
-0.035284001 -0.238649 -0.33301499
-0.034911666 -0.23860331 -0.333018
-0.034712002 -0.238616 -0.33301899
-0.036711499 -0.23857149 -0.3331725
-0.036361501 -0.23855349 -0.33316302
-0.036098998 -0.238511 -0.33314085
-0.035925251 -0.23851039 -0.33312026
-0.035715498 -0.2385225 -0.333112
-0.035542499 -0.238527 -0.33312699
-0.035265666 -0.23851101 -0.33311769
-0.035006002 -0.23859601 -0.333042
-0.034921501 -0.23849888 -0.33310664
-0.034695499 -0.2385115 -0.333143
-0.034428 -0.2385235 -0.33311099
-0.034254 -0.238492 -0.33308801
-0.034100197 -0.23846039 -0.33311719
-0.033727497 -0.23845249 -0.33305699
-0.033241998 -0.238409 -0.33302999
-0.0337165 -0.23838249 -0.333141
-0.033478498 -0.23837599 -0.3331255
-0.033229999 -0.23833901 -0.33313701
-0.033039 -0.2383095 -0.33313403
-0.03294275 -0.23832025 -0.33308452
-0.032747999 -0.23829301 -0.33305901
-0.032515001 -0.23828425 -0.33307749
-0.032307334 -0.23823865 -0.33309102
-0.032089502 -0.23824951 -0.33301997
-0.031916 -0.23819301 -0.3330805
-0.031631999 -0.238144 -0.33313501
-0.031516332 -0.238096 -0.333024
-0.031314999 -0.2380895 -0.33305848
-0.031099334 -0.23802166 -0.33309135
-0.029075 -0.25280401 -0.33298001
-0.028721999 -0.252823 -0.33298299
-0.031128 -0.25260401 -0.332977
-0.030819001 -0.25262699 -0.33299199
-0.030685499 -0.2526255 -0.332964
-0.030548001 -0.25263599 -0.33297899
-0.030281669 -0.25265232 -0.33297536
-0.030114001 -0.25266033 -0.33295903
-0.029886 -0.252673 -0.33296001
-0.0296715 -0.25268015 -0.3329255
-0.029543668 -0.25268665 -0.33292469
-0.029291999 -0.2526904 -0.33292419
-0.029071499 -0.25269049 -0.33288902
-0.02884925 -0.25270849 -0.33294052
-0.028670499 -0.25267601 -0.33289483
-0.028536668 -0.25268233 -0.33290133
-0.028348668 -0.25269631 -0.332908
-0.028071836 -0.25268432 -0.332912
-0.027943499 -0.252693 -0.33291602
-0.027730333 -0.25268933 -0.33293334
-0.027413499 -0.25264949 -0.33292001
-0.027093999 -0.25263903 -0.3329837
-0.026975 -0.25264901 -0.33299699
-0.032684498 -0.25244701 -0.33299851
-0.032116 -0.25240701 -0.33298099
-0.031966001 -0.252453 -0.33294702
-0.031732999 -0.25249967 -0.33295098
-0.031515501 -0.25250718 -0.33295348
-0.031300668 -0.25251633 -0.33293355
-0.031152999 -0.2525126 -0.33293879
-0.030854331 -0.25247601 -0.33288482
-0.0306795 -0.25247616 -0.33287203
-0.030542666 -0.25248501 -0.33287168
-0.030275669 -0.25250399 -0.33287975
-0.030114751 -0.25251886 -0.33286414
-0.02988 -0.25252366 -0.33287001
-0.0296655 -0.25253001 -0.3328315
-0.029538 -0.252536 -0.332818
-0.0292725 -0.25255799 -0.33284301
-0.0291325 -0.25253299 -0.33282548
-0.028858334 -0.25256968 -0.33283564
-0.028618 -0.252529 -0.332816
-0.02853 -0.252536 -0.33282399
-0.028343 -0.252547 -0.33280399
-0.028087249 -0.25255024 -0.33281499
-0.027941 -0.252579 -0.33281901
-0.027695999 -0.25255376 -0.33284
-0.027407 -0.25250149 -0.33283201
-0.027088666 -0.25248721 -0.33286899
-0.026908334 -0.25250497 -0.33290902
-0.0267125 -0.2524865 -0.33294326
-0.026503002 -0.252444 -0.33297467
-0.026380001 -0.25240701 -0.332966
-0.035563 -0.25222301 -0.332993
-0.034903999 -0.25225601 -0.33298001
-0.034557 -0.252204 -0.33297601
-0.034303002 -0.2522175 -0.33297598
-0.034118667 -0.25222933 -0.33297065
-0.033904999 -0.2522735 -0.33295301
-0.03369575 -0.252285 -0.3329775
-0.033514999 -0.25225753 -0.33297351
-0.033293597 -0.25229722 -0.33298239
-0.033067998 -0.2522696 -0.33295438
-0.032841802 -0.25228876 -0.332941
-0.032676168 -0.25230134 -0.33293682
-0.032494169 -0.25231999 -0.33294085
-0.032287445 -0.2523208 -0.33292547
-0.032111 -0.252296 -0.332919
-0.031958498 -0.25230598 -0.33287901
-0.031721335 -0.25228167 -0.33285499
-0.031515002 -0.25229979 -0.33283642
-0.03128878 -0.25229794 -0.33283845
-0.031138333 -0.25230667 -0.33282915
-0.030888001 -0.25232899 -0.33281901
-0.030626001 -0.25233099 -0.33280101
-0.027074287 -0.25229296 -0.33281371
-0.026896 -0.25228798 -0.33282325
-0.026703 -0.25230268 -0.33285367
-0.026519999 -0.25230521 -0.33291399
-0.026315 -0.252285 -0.33297279
-0.036059164 -0.25210065 -0.33297449
-0.03590025 -0.25209624 -0.33295751
-0.035554666 -0.25207803 -0.33293501
-0.035295784 -0.25208834 -0.33293688
-0.035161331 -0.25209633 -0.33293566
-0.03486 -0.25211331 -0.33293468
-0.034692664 -0.25211933 -0.33292234
-0.034551002 -0.25209549 -0.33292699
-0.034294497 -0.25207248 -0.33292434
-0.03410989 -0.25208622 -0.33292532
-0.033893663 -0.252094 -0.33290303
-0.033685666 -0.25210449 -0.332908
-0.0335075 -0.25211135 -0.33290416
-0.033292875 -0.25213137 -0.33291849
-0.033123497 -0.25209874 -0.33289999
-0.032904003 -0.25208166 -0.33288118
-0.032695878 -0.25207725 -0.33286211
-0.032480832 -0.25210384 -0.33286867
-0.032297857 -0.25211373 -0.3328473
-0.032138202 -0.25209841 -0.33284897
-0.03194667 -0.25212935 -0.33284101
-0.031705335 -0.25207034 -0.332829
-0.031532999 -0.25207299 -0.33280334
-0.031309001 -0.25208449 -0.33280301
-0.027153 -0.25219399 -0.33280301
-0.026818 -0.25208333 -0.332827
-0.026685668 -0.25209484 -0.33285666
-0.026495501 -0.25211051 -0.33290732
-0.026319798 -0.25211641 -0.33296421
-0.026064999 -0.25205475 -0.33299249
