# .PCD v0.7 - Point Cloud Data file format
VERSION 0.7
FIELDS x y z
SIZE 4 4 4
TYPE F F F
COUNT 1 1 1
WIDTH 1526
HEIGHT 1
VIEWPOINT 0 0 0 1 0 0 0
POINTS 1526
DATA ascii
-0.129503 0.064025 0.104905
-0.12967101 0.063842997 0.105109
-0.129678 0.063639998 0.10506
-0.129759 0.063447997 0.105128
-0.129852 0.063257001 0.105214
-0.129857 0.063052997 0.105161
-0.12994599 0.062862001 0.105242
-0.13002799 0.06267 0.105311
-0.130117 0.062477998 0.10539
-0.130115 0.062274002 0.105328
-0.119402 0.080788001 0.095228001
-0.119601 0.080582999 0.095472999
-0.119795 0.080379002 0.095707998
-0.119891 0.080173001 0.095794998
-0.120006 0.079967998 0.095909998
-0.120202 0.079764999 0.096150003
-0.120393 0.079562001 0.096381001
-0.120407 0.079356 0.096341997
-0.120598 0.079153001 0.096574999
-0.120791 0.078951001 0.096809998
-0.120889 0.078746997 0.096900001
-0.120997 0.078543998 0.097006001
-0.12109 0.078340001 0.097088002
-0.121286 0.078139 0.097328
-0.121385 0.077936001 0.09742
-0.121491 0.077734001 0.097521998
-0.121669 0.077532999 0.097735003
-0.121677 0.077327996 0.097687997
-0.121767 0.077124998 0.097764999
-0.121872 0.076922998 0.097865999
-0.122256 0.076526001 0.098336004
-0.122363 0.076119997 0.098379999
-0.122545 0.075921997 0.0986
-0.122645 0.075721003 0.098692998
-0.12283 0.075522996 0.098918997
-0.12294 0.075323001 0.099027999
-0.123033 0.075122997 0.099110998
-0.123129 0.074922003 0.099198997
-0.123318 0.074726 0.099430002
-0.123513 0.074326999 0.099610001
-0.123603 0.074127004 0.099688999
-0.123783 0.073932 0.099907003
-0.123802 0.073728003 0.099877
-0.123991 0.073533997 0.100108
-0.124185 0.073340997 0.100347
-0.124277 0.073142 0.10043
-0.124377 0.072944 0.100524
-0.124556 0.072751001 0.100741
-0.124559 0.072547004 0.100685
-0.124649 0.072347999 0.100765
-0.124749 0.072149999 0.100859
-0.124935 0.071958996 0.101087
-0.125027 0.071760997 0.10117
-0.12520801 0.071570002 0.10139
-0.12522499 0.071367003 0.101356
-0.125395 0.071176 0.101559
-0.12540001 0.070972003 0.101507
-0.12548 0.070773996 0.101573
-0.125586 0.070578001 0.101677
-0.12577701 0.070389003 0.101912
-0.125958 0.070200004 0.102134
-0.125972 0.069996998 0.102096
-0.126149 0.069807999 0.10231
-0.126248 0.069613002 0.102404
-0.12634 0.069417 0.102488
-0.12643699 0.069222003 0.102578
-0.126619 0.069034003 0.102801
-0.126706 0.068838999 0.102877
-0.126803 0.068644002 0.102968
-0.126885 0.068448 0.103035
-0.126985 0.068254001 0.103131
-0.127078 0.068058997 0.103216
-0.127178 0.067865998 0.103311
-0.12735499 0.067680001 0.103527
-0.127358 0.067477003 0.103473
-0.127525 0.067290001 0.103673
-0.12753201 0.067087002 0.103625
-0.127627 0.066894002 0.103713
-0.12780599 0.066710003 0.103932
-0.127894 0.066515997 0.10401
-0.12790599 0.066312999 0.103968
-0.128076 0.066128999 0.104174
-0.128085 0.065926999 0.104129
-0.12826 0.065742999 0.104342
-0.12826601 0.065540001 0.104291
-0.12843101 0.065356001 0.104489
-0.128444 0.065154001 0.104451
-0.128618 0.064971998 0.104662
-0.12862501 0.064769 0.104614
-0.128791 0.064585999 0.104814
-0.12879901 0.064383999 0.104767
-0.12897401 0.064202003 0.10498
-0.12898099 0.064000003 0.104931
-0.129069 0.063808002 0.10501
-0.129149 0.063615002 0.105075
-0.12915701 0.063412003 0.105028
-0.129324 0.063230999 0.10523
-0.12932999 0.063028 0.10518
-0.129421 0.062836997 0.105262
-0.1295 0.062643997 0.105327
-0.129509 0.062440999 0.105281
-0.129594 0.062249999 0.105355
-0.119283 0.080355003 0.095563002
-0.119399 0.080150001 0.095678002
-0.11959 0.079944998 0.095911004
-0.1196 0.079738997 0.095864996
-0.119789 0.079535998 0.096095003
-0.119891 0.079331003 0.096190996
-0.120002 0.079126999 0.096299998
-0.120189 0.078924 0.096525997
-0.120383 0.078722 0.096762002
-0.120483 0.078518003 0.096855
-0.12059 0.078314997 0.096959002
-0.120683 0.078111 0.097042002
-0.120874 0.077909999 0.097274996
-0.121072 0.077710003 0.097519003
-0.121268 0.077509999 0.097758003
-0.121285 0.077304997 0.097724997
-0.121465 0.077105999 0.097940996
-0.121475 0.076899998 0.097896002
-0.121656 0.076701 0.098113999
-0.121762 0.076499999 0.098217003
-0.121864 0.076297998 0.098312996
-0.121954 0.076095998 0.098392002
-0.122049 0.075894997 0.098476999
-0.122234 0.075696997 0.098701
-0.122251 0.075493 0.098667003
-0.122437 0.075296 0.098894998
-0.122621 0.075098999 0.099117003
-0.122634 0.074895002 0.099078
-0.122818 0.074699 0.099301003
-0.123006 0.074502997 0.099529997
-0.123114 0.074304 0.099636003
-0.1232 0.074104004 0.099710003
-0.123301 0.073904 0.099804997
-0.1234 0.073705003 0.099896997
-0.123585 0.073510997 0.100123
-0.123597 0.073307 0.100082
-0.123778 0.073113002 0.100302
-0.123962 0.072920002 0.100527
-0.123976 0.072715998 0.100487
-0.124157 0.072524004 0.100708
-0.124249 0.072324999 0.10079
-0.12435 0.072127998 0.100886
-0.124533 0.071935996 0.101109
-0.124627 0.071737997 0.101195
-0.124808 0.071547002 0.101415
-0.124822 0.071344003 0.101377
-0.124999 0.071153 0.101592
-0.12500501 0.070949003 0.10154
-0.12500601 0.070744999 0.101483
-0.125185 0.070555001 0.1017
-0.12527201 0.070357002 0.101775
-0.125374 0.070161998 0.101873
-0.125551 0.069972001 0.102087
-0.12583999 0.069588996 0.102416
-0.125847 0.069385998 0.102367
-0.12602299 0.069196999 0.102582
-0.12603299 0.068994001 0.102537
-0.126213 0.068806998 0.102757
-0.12639201 0.068619996 0.102975
-0.126405 0.068416998 0.102937
-0.12658 0.068230003 0.103148
-0.12668 0.068037003 0.103244
-0.126763 0.067841001 0.103313
-0.12685999 0.067647003 0.103404
-0.126941 0.067451999 0.103471
-0.12704401 0.067258999 0.103571
-0.127132 0.067064002 0.103649
-0.127225 0.066871002 0.103735
-0.12730899 0.066675998 0.103806
-0.127408 0.066482998 0.1039
-0.127491 0.066289 0.10397
-0.12758499 0.066096 0.104058
-0.127666 0.065900996 0.104124
-0.127765 0.065709002 0.104218
-0.12777001 0.065505996 0.104166
-0.12794501 0.065323003 0.104381
-0.128038 0.065130003 0.104466
-0.128214 0.064948 0.104681
-0.128223 0.064746 0.104636
-0.12830999 0.064553 0.104712
-0.12839 0.064359002 0.104777
-0.128488 0.064167999 0.104871
-0.12857001 0.063974999 0.104939
-0.128667 0.063784003 0.105032
-0.128749 0.063591003 0.1051
-0.128757 0.063389003 0.105053
-0.128846 0.063197002 0.105132
-0.128931 0.063005 0.105206
-0.129022 0.062813997 0.105289
-0.12909999 0.062620997 0.105351
-0.12919199 0.062430002 0.105436
-0.12919299 0.062226001 0.105379
-0.118676 0.080126002 0.095375001
-0.118878 0.079921998 0.095624
-0.118984 0.079717003 0.095725
-0.119177 0.079512998 0.095959999
-0.119272 0.079308003 0.096045002
-0.119464 0.079104997 0.096279003
-0.119575 0.078901 0.096387997
-0.119671 0.078697003 0.096474998
-0.119869 0.078495003 0.096717998
-0.120066 0.078293003 0.096959002
-0.120071 0.078087002 0.096906997
-0.120259 0.077886 0.097134002
-0.12045 0.077685997 0.097368002
-0.120562 0.077482998 0.097479999
-0.120761 0.077284001 0.097724997
-0.120862 0.077081002 0.097819
-0.120858 0.076876 0.097753003
-0.121041 0.076676004 0.097974002
-0.121051 0.076471001 0.097929001
-0.121241 0.076273002 0.098162003
-0.121341 0.076071002 0.098254003
-0.121524 0.075873002 0.098476
-0.121534 0.075668 0.098431997
-0.121723 0.075470999 0.098661996
-0.121918 0.075273998 0.098902002
-0.122108 0.075078003 0.099134997
-0.122214 0.074878 0.099237002
-0.122222 0.074672997 0.099188998
-0.122405 0.074477002 0.099412002
-0.122498 0.074276999 0.099495001
-0.122598 0.074077003 0.099588998
-0.12269 0.073876999 0.099670999
-0.122874 0.073683001 0.099895
-0.12306 0.073489003 0.100122
-0.123076 0.073284999 0.100087
-0.123256 0.073091 0.100304
-0.12327 0.072887003 0.100266
-0.123454 0.072694004 0.100491
-0.123635 0.072500996 0.100711
-0.12365 0.072297998 0.100675
-0.123832 0.072105996 0.100896
-0.123926 0.071907997 0.100981
-0.124025 0.071709998 0.101075
-0.124121 0.071512997 0.101163
-0.124303 0.071322002 0.101385
-0.124392 0.071124002 0.101464
-0.124489 0.070927002 0.101554
-0.124488 0.070722997 0.101492
-0.124577 0.070525996 0.10157
-0.124675 0.070329003 0.101662
-0.124855 0.070139997 0.101881
-0.124959 0.069944002 0.101983
-0.125515 0.068971999 0.102547
-0.1257 0.068784997 0.102774
-0.12571201 0.068581998 0.102733
-0.125888 0.068395004 0.102948
-0.125975 0.0682 0.103023
-0.12607799 0.068006001 0.103124
-0.126252 0.067819998 0.103334
-0.12626401 0.067616999 0.103293
-0.126434 0.067431003 0.103498
-0.126443 0.067227997 0.103452
-0.12661199 0.067042001 0.103656
-0.12662201 0.066839002 0.103611
-0.126801 0.066655003 0.103831
-0.12681 0.066451997 0.103785
-0.126973 0.066266 0.103979
-0.12697899 0.066063002 0.103929
-0.127075 0.065870002 0.104019
-0.127168 0.065677002 0.104105
-0.12725601 0.065484002 0.104183
-0.127428 0.065301001 0.104391
-0.12743799 0.065098003 0.104346
-0.12761401 0.064916 0.104562
-0.127616 0.064712003 0.104506
-0.127698 0.064519003 0.104574
-0.12779699 0.064327002 0.104669
-0.127974 0.064145997 0.104887
-0.12805501 0.063952997 0.104954
-0.128066 0.063750997 0.104911
-0.12815499 0.063559003 0.10499
-0.12824 0.063367002 0.105064
-0.128333 0.063175 0.10515
-0.128416 0.062982999 0.10522
-0.128509 0.062792003 0.105306
-0.128512 0.062588997 0.105252
-0.12867901 0.062408 0.105453
-0.12867799 0.062204 0.105392
-0.12867799 0.061999999 0.105333
-0.12876301 0.061809 0.105406
-0.118464 0.079691999 0.095581003
-0.118649 0.079488002 0.095803998
-0.118755 0.079282999 0.095904998
-0.118951 0.079080001 0.096146002
-0.118961 0.078873999 0.096098997
-0.119147 0.078671001 0.096323997
-0.119238 0.078466997 0.096404001
-0.119348 0.078263 0.096510999
-0.119546 0.078061 0.096754998
-0.119645 0.077858001 0.096846998
-0.119837 0.077656999 0.097080998
-0.119947 0.077454001 0.097189002
-0.12014 0.077253997 0.097424001
-0.120242 0.077050999 0.097521
-0.120432 0.076852001 0.097753003
-0.120437 0.076646 0.097700998
-0.120626 0.076447003 0.097929999
-0.12082 0.076249003 0.098168999
-0.121014 0.076050997 0.098406002
-0.121022 0.075846002 0.098357998
-0.121109 0.075644001 0.098433003
-0.121199 0.075443 0.098511003
-0.121302 0.075241998 0.098609
-0.121488 0.075044997 0.098834999
-0.1216 0.074845001 0.098948002
-0.12179 0.074648999 0.099179998
-0.121888 0.074449003 0.099270999
-0.122069 0.074253 0.099490002
-0.122079 0.074049003 0.099445999
-0.122177 0.073849 0.099537
-0.122273 0.073648997 0.099624
-0.122461 0.073454998 0.099854998
-0.122651 0.073261 0.100087
-0.122662 0.073057003 0.100045
-0.122846 0.072862998 0.100269
-0.123032 0.072671004 0.100496
-0.123137 0.072472997 0.100599
-0.12323 0.072273999 0.100682
-0.123408 0.072081998 0.100898
-0.123423 0.071878001 0.100862
-0.123606 0.071686998 0.101085
-0.123695 0.071488999 0.101162
-0.123792 0.071291 0.101253
-0.123881 0.071093999 0.10133
-0.123977 0.070896 0.101419
-0.124071 0.070698999 0.101505
-0.124074 0.070495002 0.101449
-0.124246 0.070304997 0.101656
-0.124347 0.070107996 0.101753
-0.124439 0.069912001 0.101837
-0.124623 0.069723003 0.102061
-0.125007 0.069145001 0.102479
-0.125278 0.068557002 0.10272
-0.125377 0.068363003 0.102814
-0.12547 0.068167999 0.102898
-0.12564901 0.067980997 0.103117
-0.125737 0.067786001 0.103195
-0.12584101 0.067593001 0.103296
-0.125928 0.067397997 0.103372
-0.126026 0.067203999 0.103465
-0.12619901 0.067019001 0.103675
-0.126202 0.066814996 0.10362
-0.126284 0.06662 0.103688
-0.12638199 0.066427 0.103781
-0.126479 0.066234 0.103872
-0.126561 0.066040002 0.10394
-0.126652 0.065846004 0.104024
-0.12665699 0.065642998 0.103972
-0.126836 0.065459996 0.10419
-0.126928 0.065266997 0.104274
-0.127023 0.065075003 0.104364
-0.127106 0.064880997 0.104434
-0.12719899 0.064689003 0.10452
-0.127281 0.064494997 0.104588
-0.127379 0.064304002 0.104681
-0.127462 0.064111002 0.104751
-0.12755699 0.063919 0.10484
-0.12764201 0.063726 0.104914
-0.12774 0.063536003 0.105007
-0.12782601 0.063343003 0.105083
-0.127918 0.063152 0.105166
-0.127919 0.062948003 0.105108
-0.127996 0.062755004 0.10517
-0.128086 0.062564 0.105251
-0.128088 0.06236 0.105194
-0.128251 0.062178999 0.10539
-0.128253 0.061974999 0.105333
-0.12833899 0.061783999 0.105409
-0.117997 0.079460002 0.095504001
-0.1182 0.079256997 0.095755003
-0.118395 0.079053 0.095992997
-0.118498 0.078849003 0.096089996
-0.118596 0.078644 0.096180998
-0.118691 0.078440003 0.096265003
-0.118886 0.078238003 0.096504003
-0.11908 0.078036003 0.09674
-0.11909 0.077830002 0.096695997
-0.119283 0.077629 0.096932001
-0.119381 0.077426001 0.097020999
-0.119483 0.077223003 0.097117998
-0.119677 0.077023 0.097355001
-0.119872 0.076824002 0.097594999
-0.119883 0.076618001 0.097549997
-0.120067 0.076419003 0.097773001
-0.120167 0.076217003 0.097866997
-0.120374 0.076018997 0.098123997
-0.120568 0.075820997 0.098362997
-0.120653 0.075618997 0.098433003
-0.120753 0.075418003 0.098526999
-0.120755 0.075213 0.098468997
-0.120846 0.075011 0.098549999
-0.121034 0.074814998 0.098779999
-0.121136 0.074614003 0.098876998
-0.121241 0.074414 0.098977998
-0.121429 0.074217997 0.099206999
-0.121619 0.074023001 0.099440999
-0.121629 0.073818997 0.099395998
-0.121803 0.073623002 0.099605002
-0.121905 0.073423997 0.099702001
-0.122096 0.073229998 0.099936001
-0.122193 0.073031001 0.100027
-0.122294 0.072832003 0.100123
-0.122483 0.072640002 0.100354
-0.122582 0.072440997 0.100446
-0.12276 0.072247997 0.100662
-0.122952 0.071851999 0.100839
-0.122968 0.071649 0.100803
-0.123154 0.071456999 0.101032
-0.12334 0.071267001 0.10126
-0.123427 0.071069002 0.101335
-0.123431 0.070863999 0.101281
-0.123515 0.070666 0.101352
-0.123609 0.070468999 0.101437
-0.123705 0.070271999 0.101525
-0.123801 0.070076004 0.101615
-0.123895 0.069879003 0.101701
-0.123989 0.069683 0.101787
-0.124166 0.069494002 0.102001
-0.124821 0.068531998 0.102719
-0.124833 0.068328999 0.102678
-0.12501401 0.068143003 0.102901
-0.12519 0.067956001 0.103114
-0.125201 0.067753002 0.103071
-0.125376 0.067566998 0.103283
-0.12539101 0.067364 0.103247
-0.12557299 0.067179002 0.103471
-0.125668 0.066985004 0.103559
-0.12575001 0.06679 0.103627
-0.12584201 0.066597 0.103711
-0.125926 0.066402003 0.103783
-0.125935 0.066198997 0.103737
-0.12602299 0.066004999 0.103813
-0.12619799 0.065820999 0.104027
-0.12628099 0.065627001 0.104096
-0.126296 0.065425001 0.10406
-0.126471 0.065242 0.104274
-0.12648299 0.065039001 0.104234
-0.126651 0.064856 0.104435
-0.12665699 0.064653002 0.104386
-0.126826 0.064470001 0.104589
-0.12692501 0.064278997 0.104685
-0.126927 0.064075001 0.104629
-0.127101 0.063894004 0.104841
-0.127105 0.063689999 0.104787
-0.127188 0.063496999 0.104858
-0.127277 0.063304998 0.104937
-0.127281 0.063101999 0.104884
-0.12744799 0.062921003 0.105086
-0.127454 0.062716998 0.105035
-0.127542 0.062526003 0.105113
-0.12763301 0.062334001 0.105196
-0.127636 0.062130999 0.105141
-0.12772 0.061939001 0.105214
-0.117716 0.07903 0.095665
-0.117825 0.078826003 0.095771998
-0.118023 0.078622997 0.096014
-0.118222 0.078419998 0.096258998
-0.118324 0.078216001 0.096354999
-0.118431 0.078011997 0.096458003
-0.11862 0.077811003 0.096688002
-0.118712 0.077606998 0.096767999
-0.118818 0.077404 0.096871004
-0.118919 0.077201001 0.096965
-0.11911 0.077 0.097198002
-0.119301 0.076801002 0.097430997
-0.119314 0.076595001 0.097390004
-0.119498 0.076396003 0.097612999
-0.119599 0.076192997 0.097709
-0.119791 0.075994998 0.097943
-0.119997 0.075796999 0.098200001
-0.120109 0.075595997 0.098311
-0.120298 0.075398996 0.098541997
-0.120387 0.075198002 0.098618001
-0.120389 0.074992001 0.098562002
-0.120562 0.074795 0.098768003
-0.120574 0.074589998 0.098725997
-0.120768 0.074394003 0.098964997
-0.120952 0.074198 0.099188
-0.120965 0.073994003 0.099149004
-0.121147 0.073798001 0.099368997
-0.121254 0.073599003 0.099473998
-0.121443 0.073404998 0.099705003
-0.121534 0.073205002 0.099785998
-0.121716 0.073011003 0.100008
-0.121736 0.072806999 0.099978
-0.121921 0.072613999 0.100204
-0.122101 0.072420999 0.100422
-0.122121 0.072217003 0.100392
-0.122297 0.072024003 0.100605
-0.122386 0.071826003 0.100682
-0.122686 0.071438 0.101026
-0.122775 0.07124 0.101105
-0.122872 0.071042001 0.101195
-0.122964 0.070845 0.101277
-0.123062 0.070648 0.101369
-0.123152 0.07045 0.101449
-0.123327 0.070260003 0.10166
-0.123343 0.070056997 0.101625
-0.123435 0.069859996 0.101708
-0.123613 0.069670998 0.101924
-0.123698 0.069473997 0.101996
-0.123804 0.069279 0.1021
-0.124272 0.068503998 0.102588
-0.124364 0.068309002 0.102672
-0.124541 0.068122 0.102886
-0.12455 0.067919001 0.10284
-0.124728 0.067731999 0.103058
-0.124741 0.067529999 0.103019
-0.124915 0.067342997 0.103229
-0.125089 0.067157999 0.103441
-0.125103 0.066955 0.103403
-0.125282 0.066770002 0.103622
-0.125294 0.066568002 0.103581
-0.125467 0.066382997 0.103791
-0.12556399 0.066189997 0.103882
-0.125644 0.065995 0.103948
-0.125653 0.065792002 0.103902
-0.125741 0.065598004 0.10398
-0.125827 0.065403998 0.104053
-0.12592 0.065211996 0.104139
-0.126004 0.065017998 0.10421
-0.126096 0.064824998 0.104295
-0.126182 0.064631999 0.10437
-0.12627999 0.064439997 0.104462
-0.126454 0.064258002 0.104675
-0.126463 0.064055003 0.104629
-0.126632 0.063873 0.104833
-0.126636 0.063670002 0.10478
-0.12671401 0.063476004 0.104842
-0.12681299 0.063285999 0.104938
-0.126816 0.063082002 0.104883
-0.126987 0.062900998 0.105092
-0.126994 0.062697999 0.105041
-0.12708201 0.062507004 0.105121
-0.12717099 0.062314998 0.105201
-0.127259 0.062123999 0.105278
-0.12725399 0.061919 0.105211
-0.117413 0.078592002 0.095705003
-0.117529 0.078387998 0.095822997
-0.117736 0.078185998 0.096078001
-0.117927 0.077983998 0.096311003
-0.11803 0.077780001 0.096409
-0.118133 0.077575997 0.096506998
-0.118324 0.077375002 0.096739002
-0.118513 0.077174 0.096969001
-0.118612 0.076971002 0.097060002
-0.118721 0.076768003 0.097167
-0.118906 0.076568 0.097391002
-0.118917 0.076362997 0.097347997
-0.119013 0.076159999 0.097434998
-0.119199 0.075961001 0.097661003
-0.119296 0.075759001 0.097749002
-0.119496 0.075561002 0.097997002
-0.119698 0.075364001 0.098246999
-0.119895 0.075167 0.09849
-0.119991 0.074965999 0.098578997
-0.120091 0.074764997 0.098670997
-0.120188 0.074564002 0.098761
-0.120378 0.074368 0.098994002
-0.12047 0.074166998 0.099074997
-0.12057 0.073967002 0.099169001
-0.120756 0.073771998 0.099395998
-0.120863 0.073573001 0.099500999
-0.120958 0.073372997 0.099587999
-0.121143 0.073178999 0.099812999
-0.121155 0.072973996 0.099771999
-0.121332 0.072779998 0.099985003
-0.121434 0.072581999 0.100082
-0.121622 0.072388999 0.100312
-0.121717 0.072190002 0.1004
-0.121808 0.071990997 0.10048
-0.121909 0.071792997 0.100576
-0.121999 0.071594998 0.100656
-0.122182 0.071402997 0.100878
-0.122291 0.071206003 0.100987
-0.12238 0.071007997 0.101065
-0.122475 0.070811003 0.101153
-0.122655 0.07062 0.101371
-0.122665 0.070416003 0.101326
-0.122849 0.070226997 0.101552
-0.122936 0.070028998 0.101627
-0.123036 0.069833003 0.101723
-0.123041 0.069628999 0.10167
-0.123221 0.06944 0.101889
-0.123318 0.069243997 0.101979
-0.123423 0.069049001 0.102083
-0.123696 0.068664998 0.102387
-0.123789 0.068469003 0.102472
-0.123967 0.068282001 0.102689
-0.123979 0.068079002 0.102647
-0.124152 0.067892 0.102857
-0.124239 0.067695998 0.102932
-0.124342 0.067501999 0.103032
-0.124428 0.067307003 0.103107
-0.124525 0.067112997 0.103198
-0.124622 0.066918999 0.10329
-0.124804 0.066734999 0.103514
-0.124895 0.066540003 0.103595
-0.124991 0.066347003 0.103685
-0.12507799 0.066152997 0.103761
-0.12525 0.065967999 0.10397
-0.125264 0.065765999 0.103931
-0.125357 0.065572999 0.104016
-0.125439 0.065378003 0.104085
-0.125532 0.065186001 0.104171
-0.125533 0.064981997 0.104112
-0.12570401 0.064797997 0.10432
-0.12571201 0.064594999 0.104273
-0.12588599 0.064413004 0.104484
-0.125891 0.064209998 0.104432
-0.126067 0.064028002 0.104648
-0.126159 0.063836001 0.104733
-0.12625 0.063643999 0.104815
-0.126247 0.063440003 0.104751
-0.126251 0.063235998 0.104696
-0.126425 0.063055001 0.10491
-0.126513 0.062863 0.104987
-0.126605 0.062671997 0.105072
-0.12668701 0.062479001 0.105141
-0.126779 0.062288001 0.105225
-0.12678 0.062084001 0.105167
-0.126858 0.061891001 0.105229
-0.117005 0.078157 0.095771998
-0.117306 0.077958003 0.096173003
-0.117412 0.077753998 0.096275002
-0.117606 0.077551998 0.096511997
-0.117698 0.077348001 0.096593
-0.117799 0.077145003 0.096686997
-0.117898 0.076940998 0.096777998
-0.118089 0.076741003 0.097011998
-0.11828 0.076540999 0.097245
-0.118393 0.076338999 0.097358003
-0.118492 0.076136 0.097448997
-0.118594 0.075934 0.097545996
-0.118778 0.075735003 0.097768001
-0.118967 0.075537004 0.097998999
-0.118982 0.075332001 0.097961999
-0.119176 0.075134002 0.098200001
-0.119274 0.074933 0.098291002
-0.119465 0.074735999 0.098523997
-0.119657 0.074539997 0.098760001
-0.119767 0.074340001 0.098870002
-0.119862 0.074138999 0.098954998
-0.119958 0.073939003 0.099044003
-0.120051 0.073738001 0.099126004
-0.12024 0.073542997 0.099358
-0.120344 0.073344 0.099457003
-0.12053 0.073149003 0.099684998
-0.120621 0.072949998 0.099766001
-0.120723 0.072751001 0.099863999
-0.120815 0.072550997 0.099945001
-0.120907 0.072352 0.100027
-0.121011 0.072154 0.100128
-0.121201 0.071961001 0.100362
-0.121388 0.071768999 0.100591
-0.121396 0.071565002 0.100543
-0.121582 0.071373001 0.100771
-0.121761 0.071181998 0.100988
-0.121772 0.070978001 0.100944
-0.121952 0.070786998 0.101163
-0.122047 0.070588998 0.101251
-0.122149 0.070393004 0.101349
-0.122238 0.070194997 0.101427
-0.122335 0.069999002 0.101517
-0.122427 0.069802001 0.101601
-0.122521 0.069605 0.101687
-0.122702 0.069416001 0.101906
-0.122784 0.069219001 0.101974
-0.1228 0.069016002 0.10194
-0.122897 0.06882 0.102029
-0.123076 0.068631999 0.102249
-0.123174 0.068435997 0.10234
-0.123354 0.068249002 0.10256
-0.123456 0.068054996 0.102658
-0.123632 0.067868002 0.102872
-0.123641 0.067663997 0.102827
-0.123817 0.067478001 0.103041
-0.123824 0.067273997 0.102992
-0.124003 0.067088999 0.10321
-0.12401 0.066885002 0.103162
-0.124185 0.066699997 0.103375
-0.124286 0.066506997 0.103473
-0.124375 0.066312 0.103552
-0.124469 0.066119 0.103638
-0.124643 0.065934002 0.103849
-0.124651 0.065730996 0.103803
-0.124828 0.065548003 0.104019
-0.124836 0.065343998 0.103972
-0.12501 0.065160997 0.104184
-0.12501401 0.064957 0.10413
-0.125183 0.064773999 0.104334
-0.125195 0.064571001 0.104293
-0.125369 0.064388998 0.104506
-0.125379 0.064185999 0.10446
-0.12554599 0.064003997 0.104662
-0.12555701 0.063800998 0.10462
-0.125724 0.063619003 0.104822
-0.12572999 0.063415997 0.104771
-0.12582199 0.063224003 0.104855
-0.125901 0.063031003 0.10492
-0.125908 0.062826999 0.10487
-0.125993 0.062634997 0.104944
-0.126085 0.062444001 0.105029
-0.126177 0.062252 0.105113
-0.126256 0.062059 0.105177
-0.126341 0.061866999 0.10525
-0.126331 0.061662 0.105175
-0.116742 0.077923998 0.095859997
-0.116938 0.077721998 0.096098997
-0.11705 0.077518001 0.096211001
-0.117242 0.077316999 0.096445002
-0.11734 0.077113003 0.096534997
-0.117531 0.076912001 0.096767999
-0.117558 0.076706998 0.096749
-0.117847 0.076509997 0.097131997
-0.118029 0.076310001 0.097351998
-0.118038 0.076104 0.097305
-0.118222 0.075905003 0.097528003
-0.118238 0.075699002 0.097492002
-0.118429 0.075501002 0.097724997
-0.118618 0.075303003 0.097955003
-0.118718 0.075101003 0.098049998
-0.11883 0.074900001 0.098162003
-0.119011 0.074703 0.098379001
-0.119015 0.074496999 0.098324999
-0.119206 0.074300997 0.098559
-0.119402 0.074105002 0.098801002
-0.119493 0.073904 0.098880999
-0.119593 0.073703997 0.098975003
-0.119681 0.073503003 0.099050999
-0.119874 0.073308997 0.099288002
-0.119979 0.073109001 0.09939
-0.120177 0.072916001 0.099637002
-0.120282 0.072717004 0.099738002
-0.120459 0.072522998 0.099950999
-0.120462 0.072318003 0.099895
-0.120636 0.072123997 0.100105
-0.120651 0.07192 0.100068
-0.120846 0.071727999 0.100308
-0.121035 0.071535997 0.100541
-0.121224 0.071345001 0.100774
-0.121237 0.071140997 0.100734
-0.121418 0.070949003 0.100955
-0.121601 0.070758 0.101178
-0.121794 0.070363998 0.101356
-0.1218 0.070160002 0.101306
-0.121979 0.069969997 0.101523
-0.122073 0.069773003 0.101609
-0.122173 0.069577001 0.101705
-0.122257 0.069379002 0.101775
-0.122356 0.069182999 0.101868
-0.122447 0.068986997 0.101951
-0.122541 0.068791002 0.102035
-0.122628 0.068594001 0.102111
-0.122726 0.068398997 0.102203
-0.122914 0.068212003 0.102435
-0.123099 0.068025999 0.102663
-0.123108 0.067822002 0.102617
-0.123282 0.067635 0.102828
-0.123288 0.067431003 0.102777
-0.123464 0.067244999 0.102993
-0.123472 0.067041002 0.102945
-0.123648 0.066855997 0.103159
-0.12366 0.066652 0.103118
-0.123836 0.066467002 0.103332
-0.123935 0.066274002 0.103426
-0.124112 0.066088997 0.103643
-0.124122 0.065885998 0.103598
-0.124293 0.065701999 0.103805
-0.124301 0.065498002 0.103758
-0.124466 0.065314002 0.103956
-0.124478 0.065110996 0.103915
-0.12457 0.064917997 0.103998
-0.124653 0.064723 0.104069
-0.124749 0.064530998 0.104158
-0.124845 0.064338997 0.104249
-0.12501299 0.064156003 0.104452
-0.12502401 0.063952997 0.104409
-0.125192 0.063771002 0.104612
-0.125204 0.063568003 0.104571
-0.12537099 0.063386001 0.104773
-0.125379 0.063183002 0.104725
-0.125459 0.062988997 0.10479
-0.125551 0.062798001 0.104875
-0.125554 0.062593997 0.10482
-0.125723 0.062413 0.105025
-0.125725 0.062208999 0.104969
-0.125809 0.062017001 0.105041
-0.12580501 0.061811998 0.104974
-0.116448 0.077497996 0.09606
-0.116641 0.077297002 0.096294999
-0.11675 0.077092998 0.096403003
-0.116847 0.076889001 0.096491002
-0.116941 0.076686002 0.096574001
-0.117047 0.076481998 0.096676998
-0.117246 0.076283 0.096920997
-0.117432 0.076082997 0.097148001
-0.117541 0.075880997 0.097254001
-0.117735 0.075681999 0.097493
-0.117831 0.075479999 0.097580001
-0.118023 0.075281002 0.097815
-0.118134 0.07508 0.097925
-0.118328 0.074882999 0.098163001
-0.118419 0.074680999 0.098243997
-0.11852 0.074479997 0.098338
-0.118618 0.074279003 0.09843
-0.118809 0.074083 0.098664001
-0.119004 0.073886998 0.098903999
-0.119111 0.073687002 0.099009
-0.119204 0.073486999 0.099091001
-0.119302 0.073287003 0.099183001
-0.119395 0.073086999 0.099266
-0.119584 0.072892003 0.099496998
-0.119687 0.072692998 0.099597
-0.119786 0.072494 0.099688999
-0.119967 0.072300002 0.099909
-0.120067 0.072102003 0.100004
-0.120158 0.071901999 0.100083
-0.120261 0.071704 0.100183
-0.12045 0.071511999 0.100415
-0.120547 0.071314 0.100505
-0.120727 0.071121998 0.100724
-0.120833 0.070924997 0.100827
-0.120933 0.070727997 0.100922
-0.121114 0.070537001 0.101142
-0.121121 0.070331998 0.101093
-0.121301 0.070142001 0.101313
-0.121399 0.069945 0.101405
-0.121581 0.069756001 0.101627
-0.121685 0.069559999 0.101728
-0.121767 0.069362 0.101796
-0.121864 0.069165997 0.101886
-0.121952 0.068968996 0.101962
-0.122052 0.068774 0.102058
-0.122054 0.068568997 0.102001
-0.12223 0.068380997 0.102214
-0.122323 0.068185002 0.102299
-0.12251 0.067998998 0.10253
-0.122614 0.067805 0.102632
-0.122698 0.067608997 0.102704
-0.122796 0.067414001 0.102795
-0.122977 0.067227997 0.103018
-0.122986 0.067024998 0.102972
-0.123153 0.066838004 0.103172
-0.123161 0.066633999 0.103124
-0.123254 0.066440001 0.10321
-0.123341 0.066244997 0.103285
-0.123441 0.066051997 0.103381
-0.123626 0.065867998 0.103609
-0.123799 0.065683998 0.10382
-0.123804 0.065480001 0.103768
-0.123898 0.065287001 0.103855
-0.123984 0.065093003 0.103929
-0.124078 0.064900003 0.104016
-0.124158 0.064705998 0.104081
-0.124258 0.064514004 0.104178
-0.124347 0.064320996 0.104257
-0.124439 0.064127997 0.104342
-0.124523 0.063934997 0.104412
-0.124622 0.063743003 0.104507
-0.124709 0.063550003 0.104583
-0.124716 0.063346997 0.104534
-0.124887 0.063166 0.104743
-0.124966 0.062972002 0.104806
-0.125062 0.062780999 0.104897
-0.125066 0.062577002 0.104844
-0.125154 0.062385 0.104922
-0.125149 0.062180001 0.104854
-0.116132 0.077269003 0.096166
-0.116247 0.077065997 0.096281998
-0.11644 0.076865003 0.096516997
-0.116448 0.076658003 0.096469998
-0.116628 0.076457001 0.096685
-0.116732 0.076254003 0.096784003
-0.116838 0.076050997 0.096887
-0.117031 0.075851999 0.097122997
-0.117139 0.075649001 0.097227998
-0.117327 0.075451002 0.097456999
-0.117518 0.075251997 0.097690001
-0.117626 0.075051002 0.097796999
-0.117721 0.074849002 0.097882003
-0.117914 0.074652001 0.098118998
-0.118008 0.074450001 0.098203003
-0.118109 0.074248999 0.098297998
-0.118199 0.074046999 0.098376997
-0.118388 0.073850997 0.098608002
-0.118587 0.073656 0.098855004
-0.118604 0.073450997 0.098820001
-0.11879 0.073256001 0.099046998
-0.118891 0.073055997 0.099142998
-0.119076 0.072861001 0.099367999
-0.119163 0.072660998 0.099441998
-0.119354 0.072467998 0.099676996
-0.119372 0.072263002 0.099645004
-0.119564 0.072070003 0.099881001
-0.119743 0.071877003 0.100098
-0.119846 0.071679004 0.100198
-0.119935 0.071479999 0.100275
-0.120042 0.071281999 0.10038
-0.120233 0.071091004 0.100616
-0.120327 0.070892997 0.100701
-0.120509 0.070701003 0.100923
-0.12052 0.070496999 0.100881
-0.120699 0.070306003 0.101097
-0.120712 0.070101999 0.101057
-0.120893 0.069912001 0.101278
-0.120984 0.069715001 0.101358
-0.121164 0.069525003 0.101578
-0.121351 0.069335997 0.101808
-0.121378 0.069133997 0.10179
-0.121553 0.068944998 0.102002
-0.121648 0.068749003 0.10209
-0.121646 0.068544 0.102027
-0.121731 0.068347 0.102098
-0.121829 0.068152003 0.102191
-0.122011 0.067965001 0.102414
-0.122102 0.067768998 0.102496
-0.122201 0.067574002 0.10259
-0.122379 0.067387998 0.102807
-0.122389 0.067184001 0.102763
-0.122562 0.066997997 0.102972
-0.122662 0.066803999 0.103068
-0.122746 0.066607997 0.103139
-0.122844 0.066414997 0.103232
-0.12285 0.066211 0.103181
-0.123025 0.066026002 0.103393
-0.123122 0.065831997 0.103486
-0.123208 0.065637998 0.10356
-0.123306 0.065444998 0.103653
-0.123389 0.065250002 0.103722
-0.123481 0.065056004 0.103806
-0.123487 0.064852998 0.103755
-0.123668 0.064669997 0.103979
-0.123757 0.064476997 0.104057
-0.12385 0.064283997 0.104143
-0.123935 0.064089999 0.104216
-0.124033 0.063897997 0.104309
-0.12412 0.063704997 0.104386
-0.124214 0.063513003 0.104472
-0.124302 0.063321002 0.10455
-0.124394 0.063129 0.104635
-0.124475 0.062935002 0.104702
-0.12448 0.062730998 0.10465
-0.124646 0.062550001 0.10485
-0.124651 0.062346 0.104798
-0.124737 0.062153999 0.104874
-0.124734 0.061949 0.104808
-0.115857 0.076835997 0.096368998
-0.115959 0.076632001 0.096464999
-0.116054 0.076429002 0.096551001
-0.116239 0.076228 0.096775003
-0.11625 0.076021999 0.096731
-0.11644 0.075822003 0.096961997
-0.116537 0.075618997 0.097051002
-0.116639 0.075415999 0.097148001
-0.116832 0.075218 0.097383
-0.117029 0.07502 0.097626999
-0.117226 0.074823 0.097869001
-0.117318 0.074620999 0.097951002
-0.117422 0.074418999 0.098049998
-0.117506 0.074216999 0.098118998
-0.117522 0.074011996 0.098084003
-0.117719 0.073816001 0.098327003
-0.117906 0.073619999 0.098555997
-0.118011 0.073418997 0.098656997
-0.118109 0.073219001 0.098747
-0.118301 0.073023997 0.098984003
-0.118487 0.072829001 0.099210002
-0.118592 0.072630003 0.099312
-0.11869 0.07243 0.099404
-0.118875 0.072237 0.099629
-0.118978 0.072038002 0.099728003
-0.11907 0.071837999 0.099809997
-0.119254 0.071644999 0.100035
-0.119446 0.071454003 0.100271
-0.11947 0.071249999 0.100248
-0.119648 0.071057998 0.100464
-0.119745 0.070859 0.100553
-0.11984 0.070661001 0.100641
-0.12003 0.070471004 0.100875
-0.120209 0.070280001 0.101092
-0.120217 0.070076004 0.101045
-0.120399 0.069885999 0.101267
-0.12041 0.069681004 0.101224
-0.120591 0.069491997 0.101444
-0.120682 0.069294997 0.101525
-0.12088 0.069107004 0.101773
-0.120987 0.068911999 0.101878
-0.121162 0.068723001 0.10209
-0.121164 0.068519004 0.102033
-0.121335 0.068329997 0.10224
-0.121345 0.068126 0.102196
-0.121527 0.067938998 0.102418
-0.121537 0.067735001 0.102373
-0.121712 0.067547999 0.102586
-0.121724 0.067345001 0.102544
-0.121893 0.067157 0.102748
-0.121991 0.066963002 0.102841
-0.122077 0.066767 0.102915
-0.122182 0.066574 0.103018
-0.122357 0.066388004 0.103231
-0.12236 0.066183999 0.103176
-0.122453 0.065990001 0.10326
-0.12254 0.065794997 0.103337
-0.122639 0.065601997 0.103431
-0.122726 0.065407999 0.103507
-0.12282 0.065214001 0.103593
-0.122907 0.065020002 0.10367
-0.123002 0.064827003 0.103759
-0.123183 0.064644001 0.103981
-0.123266 0.064450003 0.104051
-0.12336 0.064258002 0.104138
-0.123365 0.064053997 0.104085
-0.123544 0.063872002 0.104306
-0.123552 0.063669004 0.104258
-0.123721 0.063486002 0.104463
-0.123724 0.063281998 0.104408
-0.123724 0.063078001 0.104348
-0.123896 0.062895998 0.104557
-0.123982 0.062703997 0.104632
-0.12408 0.062513001 0.104725
-0.124082 0.062307999 0.104669
-0.124162 0.062114999 0.104735
-0.124253 0.061923001 0.104817
-0.115517 0.076401003 0.096395999
-0.115614 0.076196998 0.096483998
-0.115807 0.075997002 0.096720003
-0.116002 0.075797997 0.096960001
-0.116013 0.075590998 0.096915998
-0.116204 0.075392 0.097149
-0.1163 0.07519 0.097236
-0.116406 0.074988 0.097338997
-0.116598 0.074790001 0.097574003
-0.116694 0.074587002 0.097662002
-0.116878 0.074390002 0.097883999
-0.116895 0.074184 0.097850002
-0.117083 0.073987 0.098079003
-0.117182 0.073785998 0.098172002
-0.117279 0.073585004 0.09826
-0.117465 0.073389001 0.098486997
-0.117656 0.073193997 0.098722003
-0.117768 0.072994001 0.098834001
-0.11787 0.072793998 0.098931
-0.118061 0.0726 0.099165998
-0.118245 0.072406001 0.09939
-0.118259 0.072200999 0.099352002
-0.118439 0.072007 0.099569
-0.118541 0.071808003 0.099666998
-0.118643 0.071608998 0.099763997
-0.118827 0.071415998 0.099987999
-0.119012 0.071223997 0.100214
-0.119031 0.07102 0.100183
-0.119221 0.070827998 0.100418
-0.119401 0.070637003 0.100636
-0.119502 0.070439003 0.100732
-0.119595 0.070240997 0.100816
-0.119776 0.070051 0.101037
-0.119788 0.069847003 0.100996
-0.119973 0.069656998 0.101222
-0.120153 0.069467001 0.101441
-0.120164 0.069262996 0.101399
-0.12035 0.069073997 0.101627
-0.120447 0.068878002 0.101718
-0.120545 0.068682 0.10181
-0.120719 0.068493001 0.10202
-0.120725 0.068288997 0.101969
-0.120899 0.068100996 0.10218
-0.12091 0.067896999 0.102137
-0.121092 0.067709997 0.10236
-0.121103 0.067506 0.102317
-0.12127 0.067318 0.102517
-0.12137 0.067124002 0.102613
-0.121471 0.066928998 0.102709
-0.121555 0.066733003 0.102781
-0.121652 0.066538997 0.102872
-0.12174 0.066344 0.102949
-0.121835 0.066150002 0.103037
-0.12192 0.065954 0.103109
-0.122019 0.065761 0.103203
-0.122199 0.065577 0.103425
-0.122205 0.065373003 0.103374
-0.122381 0.065188996 0.103588
-0.122388 0.064985 0.103539
-0.122567 0.064801998 0.103759
-0.122571 0.064598002 0.103705
-0.122742 0.064414002 0.103914
-0.122747 0.064209998 0.103861
-0.122832 0.064015999 0.103934
-0.122925 0.063823998 0.104019
-0.123014 0.06363 0.104099
-0.12311 0.063437998 0.104189
-0.123191 0.063244 0.104256
-0.123195 0.063040003 0.104202
-0.123364 0.062858 0.104407
-0.123377 0.062655002 0.104367
-0.123543 0.062474001 0.104567
-0.123544 0.062268998 0.104509
-0.123631 0.062075999 0.104585
-0.115352 0.075764 0.096672997
-0.115536 0.075563997 0.096896
-0.115632 0.075360999 0.096983001
-0.115743 0.075158998 0.097093001
-0.115854 0.074956998 0.097203001
-0.116041 0.074758999 0.097430997
-0.116227 0.074561 0.097657003
-0.116245 0.074354999 0.097623996
-0.116434 0.074157998 0.097855002
-0.116624 0.073960997 0.098086998
-0.11673 0.073760003 0.098190002
-0.11682 0.073558003 0.098268002
-0.11692 0.073357001 0.098361
-0.117009 0.073155999 0.098439001
-0.117111 0.072956003 0.098536
-0.117305 0.072760999 0.098774999
-0.117498 0.072567001 0.099012002
-0.117595 0.072366998 0.099102996
-0.117699 0.072167002 0.099202
-0.117885 0.071974002 0.099430002
-0.117972 0.071773 0.099504001
-0.118164 0.071580999 0.099739999
-0.118275 0.071382999 0.099852003
-0.118366 0.071184002 0.099932
-0.118469 0.070984997 0.100032
-0.118661 0.070794001 0.100268
-0.118765 0.070596002 0.100369
-0.118945 0.070404999 0.100588
-0.119124 0.070214003 0.100805
-0.11914 0.070009999 0.10077
-0.119324 0.069819003 0.100995
-0.119507 0.069628999 0.101219
-0.119524 0.069426 0.101185
-0.119705 0.069236003 0.101406
-0.119791 0.069039002 0.101479
-0.119893 0.068843 0.101577
-0.119989 0.068645999 0.101666
-0.120087 0.068449996 0.101759
-0.120261 0.068260998 0.101968
-0.12027 0.068057001 0.101923
-0.120449 0.067869999 0.102141
-0.120551 0.067675002 0.102239
-0.120639 0.067478999 0.102316
-0.120734 0.067282997 0.102405
-0.120739 0.067079 0.102353
-0.120915 0.066891998 0.102566
-0.121012 0.066697001 0.102657
-0.1211 0.066501997 0.102734
-0.121196 0.066307999 0.102824
-0.121286 0.066113003 0.102904
-0.121381 0.065917999 0.102992
-0.121553 0.065733001 0.103201
-0.121557 0.065528996 0.103147
-0.121563 0.065324001 0.103095
-0.121742 0.065140001 0.103316
-0.121921 0.064957 0.103535
-0.121928 0.064753003 0.103486
-0.1221 0.064568996 0.103694
-0.122106 0.064365 0.103644
-0.122111 0.064161003 0.103591
-0.122285 0.063978001 0.103804
-0.122462 0.063795999 0.10402
-0.122473 0.063593 0.103978
-0.12265 0.063410997 0.104195
-0.122729 0.063216999 0.104258
-0.122737 0.063013002 0.104211
-0.122829 0.062821001 0.104295
-0.122913 0.062627003 0.104366
-0.123007 0.062435001 0.104453
-0.123006 0.062229998 0.104392
-0.115059 0.075337 0.096859999
-0.115246 0.075138003 0.097085997
-0.11526 0.074931003 0.097047001
-0.115458 0.074732997 0.097291999
-0.11556 0.074530996 0.097387001
-0.115743 0.074332997 0.097609997
-0.115846 0.074132003 0.097707003
-0.115943 0.073930003 0.097796001
-0.116133 0.073733002 0.098029003
-0.116322 0.073537 0.098259002
-0.116337 0.073330998 0.098223001
-0.11652 0.073135003 0.098444
-0.116625 0.072935 0.098545998
-0.116722 0.072733998 0.098636001
-0.116911 0.07254 0.098866999
-0.117101 0.072345003 0.099100001
-0.11721 0.072145998 0.099206999
-0.117299 0.071946003 0.099284001
-0.117401 0.071746998 0.099381998
-0.117499 0.071547002 0.099473
-0.117687 0.071355 0.099703997
-0.117873 0.071162 0.099931002
-0.117889 0.070956998 0.099895999
-0.118068 0.070765004 0.100113
-0.118172 0.070566997 0.100213
-0.118271 0.070368998 0.100306
-0.118457 0.070178002 0.100534
-0.118641 0.069987997 0.10076
-0.118655 0.069783002 0.100721
-0.118837 0.069592997 0.100944
-0.118929 0.069394998 0.101026
-0.119028 0.069197997 0.10112
-0.119214 0.069008999 0.101348
-0.11931 0.068813004 0.101437
-0.119411 0.068617001 0.101534
-0.119588 0.068428002 0.101748
-0.119594 0.068223 0.101697
-0.119685 0.068026997 0.101779
-0.119785 0.067831002 0.101874
-0.119959 0.067643002 0.102085
-0.120059 0.067447998 0.10218
-0.12015 0.067252003 0.102261
-0.120247 0.067056999 0.102352
-0.120341 0.066862002 0.102439
-0.120425 0.066666 0.102509
-0.120522 0.066471003 0.102601
-0.120699 0.066284999 0.102817
-0.12071 0.066081002 0.102774
-0.120891 0.065897003 0.102996
-0.120895 0.065692 0.102942
-0.121066 0.065507002 0.103148
-0.121075 0.065302998 0.103102
-0.12125 0.065118998 0.103316
-0.121351 0.064925998 0.103413
-0.121438 0.064731002 0.103489
-0.121616 0.064548001 0.103707
-0.121625 0.064345002 0.103662
-0.121709 0.064149998 0.103733
-0.121804 0.063956998 0.103821
-0.121808 0.063753001 0.103768
-0.121984 0.063570999 0.103983
-0.122069 0.063377 0.104056
-0.122166 0.063184999 0.104147
-0.122245 0.062991001 0.104212
-0.122253 0.062786996 0.104164
-0.122418 0.062605001 0.104362
-0.122419 0.062399998 0.104303
-0.114868 0.074706003 0.096988998
-0.115061 0.074507996 0.097226001
-0.115253 0.074309997 0.097461998
-0.115269 0.074104004 0.097424999
-0.115459 0.073905997 0.097657003
-0.115648 0.073710002 0.097888999
-0.11575 0.073508002 0.097984001
-0.115939 0.073311999 0.098215997
-0.115957 0.073106997 0.098183997
-0.116138 0.072911002 0.098402001
-0.116324 0.072714999 0.098628998
-0.11634 0.072509997 0.098591998
-0.116533 0.072315 0.098830998
-0.11673 0.072122 0.099073999
-0.11683 0.071921997 0.099168003
-0.116918 0.071722001 0.099243999
-0.117018 0.071521997 0.099338003
-0.117112 0.071323 0.099422999
-0.117296 0.07113 0.099647999
-0.117403 0.070932001 0.099753998
-0.117593 0.070739999 0.099987
-0.117687 0.070541002 0.100072
-0.117786 0.070343003 0.100165
-0.117884 0.070145003 0.100257
-0.118068 0.069954 0.100482
-0.118257 0.069764003 0.100714
-0.118362 0.069567002 0.100818
-0.118454 0.069369003 0.100899
-0.118639 0.069179997 0.101127
-0.118746 0.068984002 0.101233
-0.118844 0.068787001 0.101324
-0.119024 0.068598002 0.101544
-0.119024 0.068392999 0.101483
-0.119104 0.068195 0.101548
-0.119202 0.067998998 0.101639
-0.1193 0.067803003 0.101732
-0.119394 0.067607 0.101818
-0.119487 0.067410998 0.101903
-0.119666 0.067224003 0.102121
-0.119676 0.067019001 0.102077
-0.119848 0.066831999 0.102284
-0.11994 0.066636004 0.102367
-0.119943 0.066431001 0.102312
-0.120127 0.066246003 0.102538
-0.120231 0.066051997 0.10264
-0.120324 0.065857999 0.102726
-0.120501 0.065673001 0.102941
-0.120506 0.065467998 0.10289
-0.120596 0.065273002 0.10297
-0.12068 0.065077998 0.10304
-0.120777 0.064884 0.103132
-0.120873 0.064691 0.103222
-0.121055 0.064507999 0.103446
-0.121059 0.064303003 0.103392
-0.121234 0.064120002 0.103606
-0.12133 0.063927002 0.103696
-0.121415 0.063732997 0.103768
-0.121422 0.063529 0.103719
-0.121595 0.063346997 0.10393
-0.121595 0.063142002 0.10387
-0.121672 0.062946998 0.103931
-0.12177 0.062755004 0.104023
-0.121852 0.062560998 0.104093
-0.121946 0.062369 0.10418
-0.114731 0.074070998 0.097419001
-0.114744 0.073864996 0.097377002
-0.114935 0.073668003 0.097612001
-0.115127 0.073471002 0.097847
-0.115225 0.073270001 0.097938001
-0.115415 0.073073998 0.098169997
-0.115525 0.072872996 0.098278999
-0.115715 0.072678 0.098512001
-0.115719 0.072471999 0.098458
-0.115907 0.072277002 0.098687001
-0.116007 0.072076999 0.098782003
-0.116201 0.071883 0.099022001
-0.116303 0.071684003 0.099119
-0.116398 0.071483999 0.099205002
-0.116577 0.071290001 0.099421002
-0.116682 0.071091004 0.099523999
-0.116778 0.070891999 0.099611998
-0.116962 0.070699997 0.099835999
-0.11707 0.070501998 0.099944003
-0.117259 0.070311002 0.100175
-0.11736 0.070113003 0.100272
-0.117549 0.069922 0.100505
-0.117652 0.069724999 0.100604
-0.117749 0.069527 0.100693
-0.117926 0.069337003 0.100908
-0.11793 0.069131002 0.100855
-0.118027 0.068934001 0.100945
-0.118219 0.068746001 0.101183
-0.118403 0.068557002 0.101408
-0.118411 0.068351999 0.101361
-0.11858 0.068163 0.101562
-0.118679 0.067966998 0.101656
-0.118683 0.067762002 0.101603
-0.118773 0.067565002 0.101682
-0.118859 0.067368001 0.101756
-0.118961 0.067172997 0.101855
-0.119144 0.066986002 0.102079
-0.119244 0.066790998 0.102174
-0.11933 0.066595003 0.102248
-0.119425 0.066399999 0.102336
-0.119508 0.066202998 0.102406
-0.119609 0.066009 0.102502
-0.119699 0.065814003 0.102583
-0.119794 0.065618999 0.102671
-0.119876 0.065422997 0.102738
-0.11997 0.065228999 0.102826
-0.119974 0.065024003 0.102771
-0.120155 0.064839996 0.102994
-0.120243 0.064645998 0.103071
-0.12034 0.064452 0.103162
-0.120347 0.064246997 0.103113
-0.120522 0.064064004 0.103326
-0.120617 0.063871004 0.103415
-0.120702 0.063676 0.103487
-0.12079 0.063482001 0.103565
-0.120889 0.06329 0.103659
-0.120974 0.063096002 0.103733
-0.121068 0.062903002 0.10382
-0.121152 0.062710002 0.103891
-0.121251 0.062518001 0.103986
-0.114568 0.07344 0.097537003
-0.114666 0.073238999 0.097626999
-0.11485 0.073041998 0.097851001
-0.114868 0.072835997 0.097818002
-0.115061 0.072640002 0.098054998
-0.115262 0.072446004 0.098305002
-0.115549 0.072256997 0.098687001
-0.115562 0.072051004 0.098646998
-0.115744 0.071856998 0.098866999
-0.115751 0.071650997 0.098819003
-0.115942 0.071456999 0.099053003
-0.116136 0.071263999 0.099293001
-0.116232 0.071065001 0.099381
-0.116333 0.070866004 0.099476002
-0.116519 0.070674002 0.099703997
-0.116611 0.070473999 0.099785998
-0.116714 0.070276 0.099886
-0.116903 0.070084997 0.100118
-0.117004 0.069886997 0.100214
-0.117191 0.069696002 0.100444
-0.117295 0.069499001 0.100545
-0.117389 0.069301002 0.10063
-0.11756 0.069109999 0.100836
-0.117571 0.068906002 0.100791
-0.117756 0.068715997 0.101018
-0.117849 0.068519004 0.101103
-0.117953 0.068323001 0.101204
-0.118045 0.068126 0.101288
-0.118136 0.067929 0.101368
-0.118234 0.067732997 0.10146
-0.118318 0.067534998 0.101532
-0.118411 0.067339003 0.101616
-0.118494 0.067142002 0.101684
-0.118596 0.066946 0.101783
-0.118698 0.066751003 0.101882
-0.118885 0.066565998 0.102113
-0.118969 0.066368997 0.102182
-0.118975 0.066164002 0.102133
-0.119147 0.065977998 0.102341
-0.119159 0.065773003 0.102299
-0.119331 0.065586999 0.102507
-0.119345 0.065383002 0.102469
-0.119525 0.065199003 0.102688
-0.119619 0.065003999 0.102775
-0.1197 0.064808004 0.102842
-0.1198 0.064614996 0.102937
-0.119895 0.064420998 0.103026
-0.119992 0.064227998 0.103118
-0.120164 0.064043999 0.103326
-0.120168 0.063839003 0.103272
-0.12025 0.063643999 0.103341
-0.120344 0.063451 0.103427
-0.114414 0.072608002 0.097916998
-0.114513 0.072407 0.098008998
-0.114705 0.072212003 0.098246001
-0.114896 0.072016999 0.098480999
-0.115011 0.071818002 0.098598003
-0.115199 0.071624003 0.098826997
-0.11529 0.071423002 0.098908
-0.115486 0.071230002 0.099150002
-0.115598 0.071032003 0.099262998
-0.115782 0.070839003 0.099486999
-0.115966 0.070646003 0.099711999
-0.115984 0.070441 0.099679001
-0.116169 0.070249997 0.099905998
-0.116263 0.070051 0.099990003
-0.116364 0.069853 0.100088
-0.116556 0.069661997 0.100324
-0.116742 0.069472 0.100553
-0.116835 0.069274001 0.100636
-0.116939 0.069077 0.100737
-0.11703 0.068879001 0.100818
-0.117211 0.068690002 0.101039
-0.117222 0.068484999 0.100997
-0.117393 0.068295002 0.101202
-0.117401 0.068089999 0.101153
-0.117494 0.067892998 0.101237
-0.117592 0.067697003 0.10133
-0.117768 0.067507997 0.101543
-0.11777 0.067302004 0.101486
-0.117864 0.067106001 0.101572
-0.117963 0.066909999 0.101665
-0.118057 0.066714004 0.101752
-0.118237 0.066528 0.101972
-0.118326 0.066331998 0.10205
-0.118423 0.066137001 0.102141
-0.118427 0.065931 0.102087
-0.1186 0.065745004 0.102297
-0.11861 0.065540001 0.102252
-0.118794 0.065356001 0.102478
-0.118891 0.065160997 0.10257
-0.11897 0.064965002 0.102634
-0.119063 0.064769998 0.102718
-0.119072 0.064566001 0.102672
-0.119256 0.064383 0.1029
-0.119433 0.064199001 0.103116
-0.119437 0.063993998 0.103062
-0.119528 0.0638 0.103144
-0.119626 0.063607 0.103237
-0.119803 0.063423999 0.103454
-0.119804 0.063219003 0.103395
-0.114415 0.071778998 0.098307997
-0.114602 0.071584001 0.098536998
-0.114606 0.071377002 0.098483004
-0.114787 0.071183003 0.098701
-0.114978 0.070990004 0.098936997
-0.11508 0.07079 0.099033996
-0.115284 0.070598997 0.099289
-0.11548 0.070407003 0.099532001
-0.115583 0.070208997 0.099632002
-0.11577 0.070017003 0.099861003
-0.115876 0.069819003 0.099964999
-0.115973 0.069620997 0.100054
-0.116159 0.069430001 0.100282
-0.116253 0.069232002 0.100368
-0.116341 0.069032997 0.100443
-0.11644 0.068836004 0.100537
-0.116528 0.068637997 0.100614
-0.11663 0.068441004 0.100711
-0.116806 0.068250999 0.100925
-0.116817 0.068046004 0.100881
-0.11699 0.067855999 0.101089
-0.117006 0.067652002 0.101055
-0.11719 0.067464001 0.101279
-0.117285 0.067267001 0.101367
-0.117363 0.067069001 0.101429
-0.117469 0.066873997 0.101533
-0.117563 0.066678002 0.10162
-0.117662 0.066482 0.101713
-0.117841 0.066295996 0.101932
-0.117844 0.066090003 0.101876
-0.118013 0.065903001 0.10208
-0.118023 0.065697998 0.102034
-0.118202 0.065513 0.102254
-0.118217 0.065309003 0.102217
-0.118388 0.065122001 0.102423
-0.118487 0.064928003 0.102518
-0.118489 0.064723 0.10246
-0.118667 0.064538002 0.102677
-0.118674 0.064332999 0.102628
-0.118853 0.064149998 0.102847
-0.119034 0.063761003 0.10301
-0.119213 0.063372001 0.10317
-0.114479 0.070758 0.098878004
-0.11449 0.070551999 0.098834001
-0.114773 0.070366003 0.099212997
-0.114973 0.070175 0.099462003
-0.115082 0.069977 0.099570997
-0.115274 0.069785997 0.099808
-0.115468 0.069595002 0.100048
-0.11556 0.069397002 0.10013
-0.11566 0.069199003 0.100224
-0.115744 0.068999998 0.100294
-0.115756 0.068795003 0.100253
-0.11594 0.068604998 0.100478
-0.11612 0.068415001 0.100697
-0.116222 0.068218 0.100795
-0.116311 0.068020001 0.100873
-0.116415 0.067823999 0.100974
-0.116497 0.067625999 0.101042
-0.116505 0.067419998 0.100993
-0.116595 0.067222998 0.101074
-0.116772 0.067034997 0.101288
