# .PCD v0.7 - Point Cloud Data file format
VERSION 0.7
FIELDS x y z
SIZE 4 4 4
TYPE F F F
COUNT 1 1 1
WIDTH 1371
HEIGHT 1
VIEWPOINT 0 0 0 1 0 0 0
POINTS 1371
DATA ascii
-0.097332001 -0.036522999 -0.242809
-0.097329997 -0.036447 -0.242799
-0.097327001 -0.036368001 -0.24278
-0.097324997 -0.036290001 -0.242762
-0.097322002 -0.036214001 -0.242762
-0.097318999 -0.036139999 -0.24277399
-0.097314999 -0.036065999 -0.24278501
-0.097312003 -0.035987999 -0.24278501
-0.097309001 -0.035912 -0.242777
-0.097306997 -0.035836 -0.242769
-0.097304001 -0.035758 -0.24276701
-0.097300999 -0.035682999 -0.24275699
-0.097297996 -0.035604998 -0.24275
-0.097295001 -0.035528999 -0.24274801
-0.097291 -0.035456002 -0.242772
-0.097286999 -0.035381999 -0.24280199
-0.097283997 -0.035308 -0.24281099
-0.097281002 -0.035232 -0.242809
-0.097277999 -0.035156 -0.242807
-0.097274996 -0.035078 -0.242801
-0.097272001 -0.035002001 -0.24279299
-0.097268999 -0.034926001 -0.242788
-0.097267002 -0.034848001 -0.242782
-0.097263999 -0.034773 -0.24277601
-0.097260997 -0.034697 -0.24277601
-0.097258002 -0.034621 -0.24277399
-0.097254999 -0.034543 -0.24276499
-0.097253002 -0.034465 -0.242755
-0.09725 -0.034389999 -0.242745
-0.097246997 -0.034311999 -0.242733
-0.097245 -0.034235999 -0.242725
-0.097241998 -0.034159999 -0.24271999
-0.097239003 -0.034081999 -0.242722
-0.097235002 -0.034008 -0.24273001
-0.097231999 -0.033934001 -0.24274801
-0.097227998 -0.033859 -0.24276499
-0.097223997 -0.033783 -0.242773
-0.097221002 -0.033707 -0.242777
-0.097217999 -0.033631001 -0.242773
-0.097214997 -0.033555001 -0.242771
-0.097213 -0.033477999 -0.242763
-0.097211003 -0.033399999 -0.24273799
-0.097208001 -0.033323001 -0.24271999
-0.097204998 -0.033248 -0.24272799
-0.097202003 -0.033172 -0.24273799
-0.097199 -0.033096999 -0.242731
-0.097195998 -0.033018999 -0.24271899
-0.097194001 -0.032942999 -0.242709
-0.097190998 -0.032867 -0.242707
-0.097186998 -0.032791 -0.242715
-0.097184002 -0.032715 -0.242718
-0.097181 -0.032639001 -0.24271201
-0.097179003 -0.032561 -0.24270201
-0.097176 -0.032487001 -0.242706
-0.097171001 -0.032412998 -0.242732
-0.097167999 -0.032336999 -0.24274901
-0.097163998 -0.032262001 -0.24275699
-0.097161002 -0.032186002 -0.24276701
-0.097158 -0.032109998 -0.24276499
-0.097154997 -0.032033999 -0.242759
-0.097152002 -0.031959001 -0.242754
-0.097149998 -0.031881001 -0.242744
-0.097147003 -0.031805001 -0.24273799
-0.097144 -0.031729002 -0.242736
-0.097140998 -0.031652998 -0.24272899
-0.097139001 -0.031576 -0.242713
-0.097135998 -0.031498 -0.24270099
-0.097134002 -0.031422 -0.242695
-0.097130999 -0.031346001 -0.242689
-0.097127996 -0.031268999 -0.242677
-0.097126 -0.031192999 -0.242668
-0.097122997 -0.031117 -0.24266601
-0.097119004 -0.031041 -0.24267
-0.097116001 -0.030965 -0.242682
-0.097112 -0.030892 -0.242709
-0.097107999 -0.030816 -0.24272899
-0.097103998 -0.03074 -0.242731
-0.097102001 -0.030664001 -0.242725
-0.097098999 -0.030587999 -0.242713
-0.097097002 -0.030510999 -0.2427
-0.097094998 -0.030432999 -0.242678
-0.097093001 -0.030355001 -0.24266
-0.097089998 -0.03028 -0.242652
-0.097088002 -0.030201999 -0.242632
-0.097085997 -0.030127 -0.242615
-0.097081997 -0.030051 -0.24261899
-0.097079001 -0.029975999 -0.242635
-0.097075 -0.029899999 -0.242641
-0.097071998 -0.029824 -0.242641
-0.097069003 -0.029748 -0.24264
-0.097066 -0.029672001 -0.242636
-0.097062998 -0.029596001 -0.242642
-0.097058997 -0.029522 -0.242654
-0.097056001 -0.029446 -0.24266499
-0.097052999 -0.029371999 -0.24267299
-0.097048998 -0.029293999 -0.24267299
-0.097047001 -0.029217999 -0.242669
-0.097043999 -0.029142 -0.242667
-0.097041003 -0.029066 -0.242662
-0.097038999 -0.028989 -0.242636
-0.097037002 -0.028911 -0.24260999
-0.097034 -0.028836999 -0.242612
-0.097030997 -0.028760999 -0.24261799
-0.097028002 -0.028685 -0.242617
-0.097025 -0.028609 -0.24261101
-0.097021997 -0.028532 -0.242599
-0.09702 -0.028456001 -0.242589
-0.097016998 -0.028379999 -0.242585
-0.097014003 -0.028303999 -0.24259201
-0.097011 -0.028228 -0.242594
-0.097007997 -0.028152 -0.242588
-0.097005002 -0.028076001 -0.24258199
-0.097001001 -0.028000001 -0.242596
-0.096997 -0.027926 -0.24261899
-0.096993998 -0.027851 -0.242631
-0.096991003 -0.027773 -0.24262901
-0.096988 -0.0277 -0.24262699
-0.096984997 -0.027621999 -0.24262799
-0.096982002 -0.027546 -0.24261799
-0.096979998 -0.02747 -0.242606
-0.096977003 -0.027393 -0.242586
-0.096975997 -0.027317001 -0.24255399
-0.096974 -0.027240001 -0.24252699
-0.096972004 -0.027163999 -0.24251699
-0.096968003 -0.027088 -0.242525
-0.096965 -0.027012 -0.24252699
-0.096961997 -0.026936 -0.242525
-0.096959002 -0.026860001 -0.242524
-0.096956 -0.026784001 -0.24251799
-0.096952997 -0.026709 -0.242514
-0.096951 -0.026633 -0.242512
-0.096946999 -0.026557 -0.24251699
-0.096942998 -0.026481999 -0.242541
-0.096938998 -0.026408 -0.24256299
-0.096934997 -0.026331 -0.242575
-0.096932001 -0.026255 -0.24258099
-0.096929997 -0.026179999 -0.242568
-0.096928 -0.026103999 -0.242548
-0.096926004 -0.026027 -0.24252599
-0.096923999 -0.025951 -0.242504
-0.096920997 -0.025875 -0.242496
-0.096918002 -0.025800001 -0.24249101
-0.096915998 -0.025722001 -0.242479
-0.096913002 -0.025645999 -0.24247099
-0.09691 -0.025572 -0.242475
-0.096905999 -0.025496 -0.242488
-0.096902996 -0.025420001 -0.242484
-0.096901 -0.025343999 -0.242468
-0.096897997 -0.025268 -0.242466
-0.096895002 -0.025192 -0.24247199
-0.096891001 -0.025116 -0.242489
-0.096887 -0.025041999 -0.24249899
-0.096883997 -0.024966 -0.242507
-0.096879996 -0.024891 -0.242523
-0.096877001 -0.024815001 -0.242523
-0.096873999 -0.024737 -0.24251799
-0.096871004 -0.024662999 -0.242522
-0.096868001 -0.024588 -0.24252
-0.096865997 -0.024512 -0.24251001
-0.096864 -0.024434 -0.242484
-0.096862003 -0.024359001 -0.242459
-0.096859999 -0.024282999 -0.242447
-0.096856996 -0.024204999 -0.242439
-0.096855 -0.02413 -0.24242499
-0.096851997 -0.024056001 -0.242412
-0.09685 -0.023978001 -0.24240001
-0.096846998 -0.023903999 -0.242404
-0.096842997 -0.023828 -0.242406
-0.096841 -0.023753 -0.242402
-0.096837997 -0.023677001 -0.242401
-0.096835002 -0.023600999 -0.242395
-0.096831001 -0.023523999 -0.242411
-0.096826002 -0.02345 -0.24245299
-0.096822001 -0.023375001 -0.24247
-0.096818998 -0.023298999 -0.242466
-0.096816003 -0.023223 -0.242468
-0.096813001 -0.023147 -0.242468
-0.096810997 -0.023072001 -0.242458
-0.096809 -0.022995999 -0.24243499
-0.096807003 -0.022921 -0.242415
-0.096804 -0.022843 -0.242403
-0.096802004 -0.022769 -0.242393
-0.096799001 -0.022691 -0.24238899
-0.096795999 -0.022616999 -0.242392
-0.096793003 -0.022542 -0.242384
-0.096790001 -0.022466 -0.242378
-0.096786998 -0.022390001 -0.24237999
-0.096784003 -0.022314001 -0.242373
-0.096781999 -0.022237999 -0.242365
-0.096778996 -0.022162 -0.24236301
-0.096776001 -0.022086 -0.24236301
-0.096772 -0.022012001 -0.24237099
-0.096768998 -0.021935999 -0.242386
-0.096764997 -0.02186 -0.24240001
-0.096762002 -0.021783 -0.242404
-0.096758999 -0.021708 -0.242392
-0.096755996 -0.021632001 -0.242385
-0.096753001 -0.021555999 -0.242393
-0.096749999 -0.021482 -0.242385
-0.096748002 -0.021407001 -0.24236301
-0.096745998 -0.021329001 -0.242355
-0.096741997 -0.021255 -0.242364
-0.096739002 -0.021178 -0.242374
-0.096735999 -0.021102 -0.242376
-0.096732996 -0.021027001 -0.242366
-0.096731 -0.020950999 -0.24235401
-0.096727997 -0.020874999 -0.242341
-0.096726 -0.0208 -0.242331
-0.096722998 -0.020726001 -0.24233501
-0.096718997 -0.020648999 -0.242339
-0.096716002 -0.020574 -0.24234
-0.096712001 -0.020497 -0.24236
-0.096708 -0.020421 -0.242382
-0.096704997 -0.020346999 -0.242384
-0.096703 -0.020271 -0.242368
-0.096699998 -0.020195 -0.24235301
-0.096697003 -0.020119 -0.242355
-0.096694 -0.020043001 -0.242355
-0.096692003 -0.019967999 -0.24234501
-0.096689001 -0.019892 -0.24233
-0.096686997 -0.019817 -0.242312
-0.096685 -0.019741001 -0.242302
-0.096680999 -0.019664999 -0.242314
-0.096676998 -0.01959 -0.242328
-0.096674003 -0.019514 -0.242329
-0.096671 -0.019438 -0.242329
-0.096667998 -0.019362001 -0.24232499
-0.096666001 -0.019286999 -0.242309
-0.096663997 -0.019211 -0.242301
-0.096660003 -0.019137001 -0.24231
-0.096657 -0.019060999 -0.24232
-0.096652001 -0.018983999 -0.242342
-0.096648999 -0.018908 -0.242356
-0.096644998 -0.018832 -0.242364
-0.096642002 -0.018756 -0.242367
-0.096639 -0.018680001 -0.24236301
-0.096637003 -0.018603999 -0.24235301
-0.096634999 -0.018529 -0.242319
-0.096634001 -0.018456001 -0.242282
-0.096630998 -0.018379999 -0.242276
-0.096628003 -0.018304 -0.24229001
-0.096624002 -0.018228 -0.24229801
-0.096620999 -0.018152 -0.242295
-0.096619003 -0.018076001 -0.242291
-0.096615002 -0.018002 -0.24229901
-0.096611999 -0.017924 -0.24230701
-0.096608996 -0.01785 -0.242295
-0.096607 -0.017774001 -0.242284
-0.096603997 -0.017697999 -0.24228799
-0.096600004 -0.017622 -0.24229801
-0.096596003 -0.017546 -0.242314
-0.096592002 -0.017469 -0.24233
-0.096588999 -0.017393 -0.24233501
-0.096585996 -0.017317001 -0.242341
-0.096583001 -0.017243 -0.242339
-0.096580997 -0.017168 -0.24231499
-0.096579 -0.017092001 -0.24228799
-0.096578002 -0.017016999 -0.24226201
-0.096575998 -0.016942 -0.24223
-0.096574001 -0.016868001 -0.24221399
-0.09657 -0.016791999 -0.242229
-0.096565999 -0.016716 -0.242247
-0.096562997 -0.016639 -0.24225301
-0.096560001 -0.016563 -0.242257
-0.096556999 -0.016487001 -0.242257
-0.096554004 -0.016411999 -0.24225201
-0.096551001 -0.016336 -0.24225
-0.096547998 -0.01626 -0.242254
-0.096545003 -0.016184 -0.24225201
-0.096541002 -0.016109999 -0.242258
-0.096537001 -0.016031001 -0.242281
-0.096533 -0.015957 -0.24230701
-0.096529 -0.015877999 -0.242319
-0.096525997 -0.015805 -0.24231701
-0.096524 -0.015729001 -0.242313
-0.096520998 -0.015652999 -0.242312
-0.096519001 -0.015577 -0.242286
-0.096518002 -0.015502 -0.242248
-0.096515 -0.015429 -0.24223401
-0.096511997 -0.015353 -0.242235
-0.096510001 -0.015277 -0.24222501
-0.096506998 -0.015201 -0.242219
-0.096502997 -0.015125 -0.242231
-0.096500002 -0.015049 -0.242235
-0.096497998 -0.014975 -0.242218
-0.096496001 -0.0149 -0.242194
-0.096492998 -0.014824 -0.24219599
-0.096490003 -0.014748 -0.242202
-0.096486002 -0.014671 -0.242211
-0.096482001 -0.014595 -0.242231
-0.096478 -0.014519 -0.24225301
-0.096473999 -0.014442 -0.242273
-0.096470997 -0.014364 -0.24227899
-0.096468002 -0.01429 -0.242267
-0.096465997 -0.014215 -0.242248
-0.096464001 -0.014139 -0.24223401
-0.096461996 -0.014066 -0.242204
-0.096460998 -0.013991 -0.24217001
-0.096458003 -0.013915 -0.24216899
-0.096454002 -0.013838 -0.242183
-0.096450999 -0.013762 -0.242193
-0.096446998 -0.013686 -0.242199
-0.096444003 -0.01361 -0.242202
-0.096441001 -0.013534 -0.242202
-0.096437998 -0.01346 -0.242202
-0.096435003 -0.013382 -0.242202
-0.096432 -0.013308 -0.242208
-0.096427999 -0.01323 -0.242213
-0.096424997 -0.013154 -0.242221
-0.096421003 -0.013078 -0.242239
-0.096417002 -0.013001 -0.24225099
-0.096414 -0.012926 -0.242247
-0.096412003 -0.01285 -0.242238
-0.096409 -0.012776 -0.24223199
-0.096405998 -0.0127 -0.242228
-0.096404001 -0.012624 -0.242218
-0.096400999 -0.012549 -0.24221
-0.096398003 -0.012473 -0.24220701
-0.096395001 -0.012397 -0.242203
-0.096392997 -0.012323 -0.24218901
-0.096391 -0.012247 -0.242173
-0.096387997 -0.012172 -0.242162
-0.096385002 -0.012096 -0.24216001
-0.096382 -0.01202 -0.24216001
-0.096380003 -0.011946 -0.242156
-0.096377 -0.01187 -0.242153
-0.096373998 -0.011794 -0.242149
-0.096371002 -0.011718 -0.242149
-0.096367002 -0.011642 -0.24215899
-0.096363001 -0.011564 -0.24218901
-0.096359998 -0.011488 -0.24218901
-0.096357003 -0.011412 -0.24219
-0.096353002 -0.011336 -0.242192
-0.096350998 -0.01126 -0.242184
-0.096349001 -0.011186 -0.24217001
-0.096346997 -0.011111 -0.242145
-0.096345 -0.011037 -0.242119
-0.096341997 -0.010962 -0.242111
-0.096339002 -0.010885 -0.242121
-0.096335001 -0.010809 -0.24213
-0.096332997 -0.010733 -0.24212401
-0.096330002 -0.010658 -0.242116
-0.096327998 -0.010582 -0.242102
-0.096325003 -0.010506 -0.24209601
-0.096322 -0.010432 -0.242103
-0.096317999 -0.010354 -0.242111
-0.096314996 -0.010278 -0.24211501
-0.096312001 -0.010202 -0.24211299
-0.096308 -0.010126 -0.242127
-0.096303999 -0.010047 -0.242156
-0.096299998 -0.0099710003 -0.242164
-0.096297003 -0.0098949997 -0.24216799
-0.096294001 -0.009819 -0.242162
-0.096291997 -0.0097430004 -0.24215201
-0.096289001 -0.0096699996 -0.24214099
-0.096286997 -0.0095939999 -0.242121
-0.096285 -0.0095210001 -0.24209701
-0.096281998 -0.0094450004 -0.24209499
-0.096279003 -0.0093689999 -0.2421
-0.096276 -0.0092930002 -0.24210399
-0.096271999 -0.0092139998 -0.24211
-0.096270002 -0.009141 -0.242098
-0.096267998 -0.0090650003 -0.242084
-0.096265003 -0.0089889998 -0.24208701
-0.096261002 -0.0089130001 -0.242093
-0.096258 -0.0088369995 -0.242091
-0.096254997 -0.0087609999 -0.242093
-0.096251003 -0.0086829998 -0.242117
-0.096245997 -0.0086040003 -0.24214999
-0.096242003 -0.008525 -0.242176
-0.096238002 -0.0084490003 -0.242182
-0.096235998 -0.0083729997 -0.242176
-0.096233003 -0.0082980003 -0.242172
-0.09623 -0.0082219997 -0.242162
-0.096229002 -0.0081479996 -0.242135
-0.096226998 -0.0080749998 -0.242101
-0.096225001 -0.0080019999 -0.242079
-0.096221998 -0.0079260003 -0.24207801
-0.096219003 -0.0078499997 -0.242082
-0.096216001 -0.0077740001 -0.24207801
-0.096212998 -0.0076979999 -0.24207801
-0.096210003 -0.0076219998 -0.24207801
-0.096207 -0.0075440002 -0.242075
-0.096203998 -0.0074700001 -0.242075
-0.096201003 -0.007394 -0.24207699
-0.096198 -0.0073159998 -0.242079
-0.096194997 -0.0072400002 -0.242079
-0.096189998 -0.0071620001 -0.24210601
-0.096185997 -0.0070830001 -0.242134
-0.096183002 -0.007007 -0.24214201
-0.096179001 -0.0069289999 -0.24214999
-0.096175998 -0.0068529998 -0.24215201
-0.096173003 -0.0067770001 -0.242144
-0.096170999 -0.0067030001 -0.242135
-0.096169002 -0.0066300002 -0.242103
-0.096167997 -0.0065569999 -0.242071
-0.096165001 -0.0064810002 -0.24207
-0.096161 -0.0064030001 -0.24207801
-0.096157998 -0.006327 -0.24208
-0.096155003 -0.0062509999 -0.24208599
-0.096152 -0.0061750002 -0.242088
-0.096148998 -0.0060990001 -0.24207599
-0.096147001 -0.006023 -0.24206699
-0.096143998 -0.0059489999 -0.242063
-0.096141003 -0.0058729998 -0.242053
-0.096138999 -0.0057979999 -0.242047
-0.096134998 -0.005719 -0.24206001
-0.096129999 -0.0056409999 -0.24209
-0.096125998 -0.005562 -0.24212199
-0.096121997 -0.0054839998 -0.24213199
-0.096119002 -0.0054080002 -0.24212401
-0.096118003 -0.0053349999 -0.2421
-0.096115001 -0.0052590002 -0.242089
-0.096112996 -0.0051859999 -0.242065
-0.096112996 -0.0051150001 -0.242015
-0.096111 -0.005041 -0.241992
-0.096107997 -0.0049649999 -0.241992
-0.096105002 -0.0048890002 -0.241982
-0.096102998 -0.0048139999 -0.241978
-0.096098997 -0.004737 -0.24198601
-0.096095003 -0.0046589999 -0.242001
-0.096092001 -0.0045810002 -0.242015
-0.096088998 -0.0045050001 -0.242011
-0.096086003 -0.004429 -0.24200501
-0.096083 -0.0043549999 -0.242001
-0.096079998 -0.0042770002 -0.241998
-0.096077003 -0.0042010001 -0.242002
-0.096072003 -0.004123 -0.24202999
-0.096068002 -0.0040440001 -0.242054
-0.096065 -0.0039659999 -0.24206001
-0.096061997 -0.0038900001 -0.242062
-0.096059002 -0.0038139999 -0.24205901
-0.096055999 -0.0037380001 -0.24205901
-0.096054003 -0.003663 -0.242039
-0.096054003 -0.0035939999 -0.241982
-0.096051998 -0.003521 -0.241962
-0.096047997 -0.0034449999 -0.24196801
-0.096045002 -0.003366 -0.241974
-0.096042 -0.0032909999 -0.24196801
-0.096040003 -0.003215 -0.241955
-0.096037 -0.0031409999 -0.24194901
-0.096033998 -0.0030650001 -0.241947
-0.096031003 -0.0029889999 -0.241943
-0.096028 -0.002911 -0.241947
-0.096023999 -0.0028329999 -0.24195801
-0.096020997 -0.002757 -0.241962
-0.096017003 -0.0026789999 -0.241982
-0.096013002 -0.0026 -0.242
-0.096009001 -0.0025220001 -0.242008
-0.096005999 -0.002446 -0.24201401
-0.096004002 -0.0023699999 -0.24200501
-0.096001998 -0.002297 -0.241981
-0.096000001 -0.0022239999 -0.241947
-0.095997997 -0.0021500001 -0.241928
-0.095996 -0.002076 -0.241918
-0.095992997 -0.0020000001 -0.241914
-0.095990002 -0.001925 -0.24191201
-0.095987 -0.001846 -0.241918
-0.095982999 -0.00177 -0.241927
-0.095980003 -0.001692 -0.241927
-0.095977999 -0.001619 -0.241917
-0.095974997 -0.001543 -0.241909
-0.095972002 -0.001467 -0.24190301
-0.095968999 -0.001391 -0.2419
-0.095965996 -0.001313 -0.24190199
-0.095963001 -0.001237 -0.24191
-0.095958002 -0.001159 -0.241932
-0.095954001 -0.0010779999 -0.241954
-0.095950998 -0.0010019999 -0.241954
-0.095949002 -0.00092600001 -0.241943
-0.095945999 -0.00085299998 -0.24192899
-0.095944002 -0.00077699998 -0.241917
-0.095941998 -0.000703 -0.241901
-0.095940001 -0.00063000002 -0.24187601
-0.095937997 -0.00055599998 -0.24185599
-0.095935002 -0.000481 -0.24185599
-0.095931999 -0.000405 -0.24185
-0.095930003 -0.00033099999 -0.24183699
-0.095927 -0.00025499999 -0.241825
-0.095925003 -0.000179 -0.24181899
-0.095922001 -0.000104 -0.241817
-0.095918998 -2.9999999e-05 -0.241808
-0.095917001 4.6000001e-05 -0.2418
-0.095913 0.000124 -0.241804
-0.095909998 0.00019999999 -0.24180999
-0.095905997 0.00027799999 -0.241822
-0.095902003 0.000359 -0.241844
-0.095899001 0.00043499999 -0.241851
-0.095895998 0.00051099999 -0.241845
-0.095893003 0.00058599998 -0.241835
-0.095890999 0.00066000002 -0.24182101
-0.095889002 0.00073600002 -0.241808
-0.095886 0.00080899999 -0.24179199
-0.095884003 0.00088299997 -0.24177
-0.095881999 0.00095900003 -0.241762
-0.095879003 0.001035 -0.241763
-0.095876001 0.001111 -0.241763
-0.095872998 0.001187 -0.241761
-0.095870003 0.001263 -0.241761
-0.095866002 0.001341 -0.241767
-0.095863 0.001417 -0.24177
-0.095859997 0.001495 -0.24177399
-0.095857002 0.001571 -0.241772
-0.095853999 0.001646 -0.24176399
-0.095850997 0.001725 -0.241772
-0.095845997 0.001805 -0.24180999
-0.095840998 0.001886 -0.241836
-0.095838003 0.0019640001 -0.24183699
-0.095835999 0.0020369999 -0.24182101
-0.095833004 0.002111 -0.24181101
-0.095830001 0.0021889999 -0.24181101
-0.095827997 0.002263 -0.24180201
-0.095826 0.0023360001 -0.24177399
-0.095825002 0.0024079999 -0.24174801
-0.095821999 0.002481 -0.24173
-0.095820002 0.0025569999 -0.241725
-0.095817 0.002633 -0.241723
-0.095813997 0.0027089999 -0.24170899
-0.095811002 0.002785 -0.241707
-0.095807001 0.0028629999 -0.24172699
-0.095803 0.002941 -0.241742
-0.095799997 0.0030169999 -0.24174
-0.095798001 0.003093 -0.241734
-0.095794998 0.0031689999 -0.241732
-0.095790997 0.0032490001 -0.241744
-0.095787004 0.003327 -0.241762
-0.095784001 0.0034030001 -0.241763
-0.095780998 0.0034789999 -0.241753
-0.095778003 0.0035550001 -0.241751
-0.095775001 0.003633 -0.241753
-0.095771998 0.0037090001 -0.241753
-0.095770001 0.0037829999 -0.241742
-0.095767997 0.003854 -0.24171001
-0.095766999 0.0039249999 -0.24168
-0.095764004 0.004001 -0.24167299
-0.095761001 0.0040770001 -0.24167299
-0.095758997 0.0041510002 -0.241659
-0.095756002 0.0042269998 -0.241651
-0.095752001 0.004307 -0.241667
-0.095748998 0.0043850001 -0.24168
-0.095746003 0.0044590002 -0.241666
-0.095743999 0.0045329998 -0.24165601
-0.095740996 0.0046080002 -0.241652
-0.095738001 0.0046839998 -0.241649
-0.095734 0.0047650002 -0.241669
-0.095729001 0.0048469999 -0.241707
-0.095725998 0.004923 -0.24170899
-0.095723003 0.0050010001 -0.241705
-0.095720001 0.0050750002 -0.241697
-0.095716998 0.0051529999 -0.241697
-0.095715001 0.005225 -0.241676
-0.095715001 0.0052939998 -0.24162801
-0.095712997 0.0053650001 -0.241605
-0.095710002 0.0054429998 -0.241607
-0.095706001 0.0055209999 -0.241615
-0.095702998 0.005599 -0.241625
-0.095698997 0.0056750001 -0.241633
-0.095696002 0.0057509998 -0.24162699
-0.095693998 0.0058269999 -0.24162
-0.095691003 0.005905 -0.241622
-0.095687002 0.0059810001 -0.241624
-0.097976997 -0.042451002 -0.243003
-0.097974002 -0.042374998 -0.24300399
-0.097971998 -0.042296998 -0.24298801
-0.097970001 -0.042218 -0.24295799
-0.097966999 -0.04214 -0.242946
-0.097965002 -0.042064 -0.242944
-0.097961001 -0.041990001 -0.242953
-0.097957999 -0.041914001 -0.24295101
-0.097956002 -0.041834 -0.24293301
-0.097952999 -0.041758999 -0.242929
-0.097949997 -0.041684002 -0.242937
-0.097947001 -0.041607 -0.24293201
-0.097943999 -0.041531 -0.242924
-0.097940996 -0.041455001 -0.24293201
-0.097937003 -0.041379999 -0.24293999
-0.097934 -0.041305002 -0.242938
-0.097930998 -0.041230001 -0.242945
-0.097928002 -0.041154999 -0.242943
-0.097925998 -0.041076999 -0.24293301
-0.097921997 -0.041001 -0.24294101
-0.097919002 -0.040927 -0.242945
-0.097916998 -0.040847 -0.242916
-0.097916 -0.040766001 -0.24288
-0.097912997 -0.040690001 -0.242874
-0.097910002 -0.040614001 -0.242874
-0.097906999 -0.040537 -0.24286
-0.097905003 -0.040459 -0.242853
-0.097902 -0.040383 -0.242847
-0.097898997 -0.040307 -0.242845
-0.097896002 -0.040231001 -0.24284901
-0.097893 -0.040155001 -0.242847
-0.097889997 -0.040079001 -0.24285001
-0.097886004 -0.040006999 -0.242862
-0.097882003 -0.039930999 -0.242874
-0.097879 -0.039856002 -0.24288601
-0.097874999 -0.039781999 -0.242901
-0.097871996 -0.039705999 -0.242901
-0.097869001 -0.03963 -0.242897
-0.097866997 -0.039553002 -0.24288701
-0.097864002 -0.039476998 -0.24287499
-0.097860999 -0.039399002 -0.242874
-0.097857997 -0.039324999 -0.242878
-0.097855002 -0.039248999 -0.242872
-0.097851999 -0.039173 -0.242874
-0.097847998 -0.039099 -0.24289399
-0.097845003 -0.039021999 -0.24290501
-0.097842 -0.038947001 -0.242901
-0.097838998 -0.038871001 -0.242899
-0.097837001 -0.038793001 -0.242881
-0.097833999 -0.038715001 -0.242865
-0.097831003 -0.038639002 -0.24286801
-0.097828001 -0.038564999 -0.242878
-0.097824 -0.038488999 -0.242884
-0.097820997 -0.038415 -0.242892
-0.097816996 -0.038339 -0.2429
-0.097815 -0.038263001 -0.242897
-0.097811997 -0.038185 -0.24288499
-0.097809002 -0.038109001 -0.242881
-0.097805999 -0.038033001 -0.24288499
-0.097804002 -0.037955999 -0.242871
-0.097801998 -0.037877999 -0.24284799
-0.097799003 -0.037799001 -0.242826
-0.097796999 -0.037723001 -0.24281199
-0.097795002 -0.037641998 -0.24278
-0.097792998 -0.037565999 -0.242768
-0.097790003 -0.037489999 -0.242773
-0.097786002 -0.037413999 -0.242777
-0.097782999 -0.037338 -0.24277499
-0.097781003 -0.037262 -0.242769
-0.097778 -0.037186 -0.242771
-0.097773999 -0.037110001 -0.24277601
-0.097770996 -0.037036002 -0.242792
-0.097765997 -0.036963001 -0.24282201
-0.097763002 -0.036887001 -0.242828
-0.097759999 -0.036811002 -0.242823
-0.097756997 -0.036734998 -0.24282099
-0.097754002 -0.036658999 -0.24282899
-0.097750999 -0.036582999 -0.242825
-0.097747996 -0.036506001 -0.242815
-0.097745001 -0.036430001 -0.24281199
-0.097742997 -0.036352001 -0.24280401
-0.097741 -0.036274999 -0.242782
-0.097737998 -0.036199 -0.24277399
-0.097733997 -0.036123 -0.242782
-0.097731002 -0.036047999 -0.24279299
-0.097727999 -0.035973001 -0.242789
-0.097726002 -0.035895001 -0.242777
-0.097723 -0.035819001 -0.24276499
-0.097719997 -0.035741001 -0.24275699
-0.097718 -0.035664 -0.242744
-0.097714998 -0.035585999 -0.242732
-0.097712003 -0.035512 -0.242736
-0.097708002 -0.035436999 -0.242762
-0.097704001 -0.035363 -0.24278399
-0.097700998 -0.035289001 -0.242789
-0.097698003 -0.035211001 -0.242787
-0.097695 -0.035137001 -0.242791
-0.097691 -0.035061002 -0.24280301
-0.097686999 -0.034986001 -0.242817
-0.097684003 -0.034910999 -0.242818
-0.097681999 -0.034832999 -0.24280401
-0.097678997 -0.034756999 -0.242796
-0.097676001 -0.034681 -0.242798
-0.097672999 -0.034605 -0.242799
-0.097671002 -0.034527998 -0.242781
-0.097668 -0.034449998 -0.242763
-0.097664997 -0.034373999 -0.242763
-0.097662002 -0.034297999 -0.242761
-0.097659998 -0.034219999 -0.242751
-0.097657003 -0.034145001 -0.24274001
-0.097654 -0.034067001 -0.242734
-0.097650997 -0.033991002 -0.24274001
-0.097646996 -0.033916 -0.242754
-0.097644001 -0.033842001 -0.242771
-0.09764 -0.033766001 -0.242781
-0.097636998 -0.033690002 -0.242783
-0.097634003 -0.033615999 -0.24279299
-0.097630002 -0.033539999 -0.242797
-0.097627997 -0.033461999 -0.242778
-0.097626001 -0.033385001 -0.24276
-0.097622998 -0.033307001 -0.242746
-0.097621001 -0.033231001 -0.24273799
-0.097617999 -0.033155002 -0.242742
-0.097613998 -0.033078998 -0.242743
-0.097612001 -0.033002999 -0.24273901
-0.097608998 -0.032926001 -0.242723
-0.097607002 -0.032850001 -0.242713
-0.097603999 -0.032774001 -0.242709
-0.097600996 -0.032698002 -0.24271201
-0.097598001 -0.032621998 -0.242714
-0.097594 -0.032545999 -0.242716
-0.097590998 -0.032472 -0.24272799
-0.097586997 -0.032396998 -0.24275599
-0.097583003 -0.032320999 -0.242769
-0.097580001 -0.032246999 -0.24276701
-0.097576998 -0.032168999 -0.242761
-0.097574003 -0.032093 -0.242763
-0.097571 -0.032019001 -0.242772
-0.097567998 -0.031941 -0.242764
-0.097566001 -0.031863999 -0.242732
-0.097563997 -0.031785998 -0.24270999
-0.097561002 -0.031711001 -0.24270999
-0.097557999 -0.031633999 -0.242718
-0.097554997 -0.031558 -0.24272101
-0.097552001 -0.031482 -0.24271899
-0.097548999 -0.031406999 -0.24271099
-0.097545996 -0.031330999 -0.242705
-0.097543001 -0.031252999 -0.2427
-0.097540997 -0.031176999 -0.24269199
-0.097538002 -0.031101 -0.242686
-0.097534999 -0.031025 -0.24268401
-0.097531997 -0.030949 -0.24269
-0.097528003 -0.030874999 -0.242709
-0.097524002 -0.030799 -0.242723
-0.097521 -0.030723 -0.24272899
-0.097517997 -0.030647 -0.242723
-0.097516 -0.030571001 -0.242709
-0.097512998 -0.030493001 -0.242696
-0.097511001 -0.030417999 -0.24268401
-0.097507998 -0.030342 -0.242682
-0.097505003 -0.030263999 -0.242682
-0.097502001 -0.030188 -0.24267
-0.097499996 -0.030112 -0.242661
-0.097497001 -0.030037001 -0.242659
-0.097493999 -0.029960999 -0.24265701
-0.097491004 -0.029885 -0.24265499
-0.097487003 -0.029809 -0.242663
-0.097484 -0.029733 -0.24266
-0.097482003 -0.029657001 -0.242652
-0.097479001 -0.029580999 -0.24265
-0.097475998 -0.029505 -0.242652
-0.097471997 -0.029429 -0.242663
-0.097468004 -0.029354 -0.242679
-0.097465001 -0.029278001 -0.24268501
-0.097461998 -0.029201999 -0.24268299
-0.097459003 -0.029127 -0.242681
-0.097456999 -0.029051 -0.24267399
-0.097453997 -0.028973 -0.24265601
-0.097452 -0.028898001 -0.24264
-0.097448997 -0.028821999 -0.24263801
-0.097446002 -0.028746 -0.24264
-0.097442999 -0.02867 -0.24263699
-0.097439997 -0.028594 -0.242635
-0.097437002 -0.028518001 -0.242631
-0.097434998 -0.028441999 -0.242623
-0.097432002 -0.028364001 -0.242613
-0.097429 -0.028289 -0.242604
-0.097427003 -0.028213 -0.242596
-0.097424001 -0.028137 -0.24259201
-0.097420998 -0.028061001 -0.242596
-0.097415999 -0.027984001 -0.24262001
-0.097411998 -0.02791 -0.242643
-0.097409002 -0.027836001 -0.242649
-0.097406 -0.027758 -0.24264701
-0.097402997 -0.027683999 -0.242649
-0.097400002 -0.027605999 -0.24264801
-0.097397998 -0.02753 -0.24262799
-0.097396001 -0.027453 -0.242604
-0.097392999 -0.027377 -0.242594
-0.097390004 -0.027301 -0.242594
-0.097387999 -0.027224001 -0.242577
-0.097386003 -0.027148001 -0.24256299
-0.097383 -0.027074 -0.242561
-0.097379997 -0.026996 -0.242553
-0.097378001 -0.026921 -0.242543
-0.097374998 -0.026845001 -0.24253599
-0.097372003 -0.026768999 -0.242524
-0.097369999 -0.026693 -0.242514
-0.097367004 -0.026617 -0.242516
-0.097363003 -0.026541 -0.242531
-0.097359002 -0.026466999 -0.242551
-0.097355001 -0.026391 -0.24256299
-0.097351998 -0.026316 -0.24256501
-0.097349003 -0.026240001 -0.242571
-0.097346 -0.026164001 -0.242578
-0.097342998 -0.026087999 -0.242578
-0.097340003 -0.026013 -0.242568
-0.097337998 -0.025937 -0.24254601
-0.097336002 -0.02586 -0.242524
-0.097332999 -0.025784001 -0.242521
-0.097329997 -0.025707999 -0.242523
-0.097327001 -0.025632 -0.242521
-0.097323999 -0.025558 -0.242525
-0.097319998 -0.025482001 -0.24253599
-0.097317003 -0.025405999 -0.24253599
-0.097314999 -0.025327999 -0.242524
-0.097312003 -0.025251999 -0.24251001
-0.097309001 -0.025178 -0.24251001
-0.097305998 -0.025102001 -0.242513
-0.097303003 -0.025025999 -0.242521
-0.097299002 -0.02495 -0.242535
-0.097296 -0.024876 -0.24254499
-0.097291999 -0.024799 -0.24255501
-0.097289003 -0.024723001 -0.242562
-0.097286001 -0.024648 -0.24255
-0.097283997 -0.024569999 -0.242524
-0.097282998 -0.024495 -0.24249201
-0.097281002 -0.024419 -0.242477
-0.097277999 -0.024343999 -0.24247099
-0.097274996 -0.024267999 -0.24247099
-0.097272001 -0.024192 -0.242467
-0.097269997 -0.024116 -0.24245299
-0.097267002 -0.024040001 -0.24244601
-0.097263999 -0.023964001 -0.242452
-0.097259998 -0.023887999 -0.242456
-0.097257003 -0.023812 -0.24246
-0.097254001 -0.023738001 -0.242468
-0.097250998 -0.023662001 -0.242469
-0.097248003 -0.023585999 -0.242465
-0.097244002 -0.02351 -0.24248099
-0.097239003 -0.023435 -0.242513
-0.097236 -0.023359001 -0.24252699
-0.097232997 -0.023282999 -0.242516
-0.097231001 -0.023207 -0.242506
-0.097227 -0.023131 -0.24251001
-0.097223997 -0.023055 -0.242514
-0.097222 -0.022980001 -0.242497
-0.097222 -0.022905 -0.242439
-0.097220004 -0.022828 -0.242405
-0.097217999 -0.022752 -0.242395
-0.097214997 -0.022676 -0.242393
-0.097212002 -0.022600001 -0.242396
-0.097208001 -0.022526 -0.242406
-0.097204998 -0.02245 -0.242414
-0.097202003 -0.022374 -0.242414
-0.097199 -0.022298001 -0.242411
-0.097195998 -0.022221999 -0.242403
-0.097193003 -0.022146 -0.242395
-0.09719 -0.022072 -0.24240699
-0.097185999 -0.021996001 -0.24242701
-0.097181998 -0.021919999 -0.24244
-0.097179003 -0.021844 -0.242442
-0.097176 -0.02177 -0.242442
-0.097172998 -0.021694001 -0.242442
-0.097171001 -0.021617999 -0.24242599
-0.097168997 -0.021540999 -0.24239901
-0.097167 -0.021465 -0.24237899
-0.097163998 -0.021391001 -0.24238101
-0.097161002 -0.021313 -0.24238101
-0.097158 -0.021238999 -0.242376
-0.097154997 -0.021163 -0.24236999
-0.097152002 -0.021088 -0.242366
-0.097149998 -0.021012001 -0.242358
-0.097147003 -0.020935999 -0.242356
-0.097144 -0.02086 -0.242359
-0.097140998 -0.020784 -0.24236099
-0.097138003 -0.020710001 -0.242359
-0.097135 -0.020633999 -0.242359
-0.097130999 -0.020558 -0.242368
-0.097126998 -0.020481 -0.242388
-0.097124003 -0.020405 -0.242394
-0.097121 -0.020331001 -0.242394
-0.097117998 -0.020254999 -0.24239799
-0.097115003 -0.020179 -0.242397
-0.097112 -0.020103 -0.242395
-0.097110003 -0.020028001 -0.242377
-0.097107999 -0.019952999 -0.242341
-0.097106002 -0.019877 -0.24233399
-0.097102001 -0.019801 -0.242348
-0.097098999 -0.019725 -0.24235
-0.097096004 -0.019649001 -0.24233399
-0.097093999 -0.019575 -0.24232399
-0.097090997 -0.019499 -0.242321
-0.097088002 -0.019423001 -0.24231701
-0.097084999 -0.019347999 -0.24231499
-0.097081997 -0.019272 -0.24231701
-0.097079001 -0.019195 -0.242323
-0.097075 -0.019121001 -0.242338
-0.097070999 -0.019045001 -0.24235401
-0.097066998 -0.018968999 -0.24236999
-0.097064003 -0.018891999 -0.242378
-0.097060002 -0.018816 -0.242388
-0.097057 -0.01874 -0.242395
-0.097055003 -0.018664001 -0.24238101
-0.097053997 -0.018588999 -0.24234299
-0.097052 -0.018514 -0.242319
-0.097048998 -0.018440001 -0.24232
-0.097046003 -0.018363999 -0.242322
-0.097043 -0.018288 -0.24231599
-0.097039998 -0.018212 -0.24230801
-0.097037002 -0.018136 -0.24231
-0.097033001 -0.018060001 -0.24232499
-0.097029999 -0.017986 -0.24232499
-0.097028002 -0.017907999 -0.24231701
-0.097025 -0.017834 -0.24231701
-0.097020999 -0.017758001 -0.24232399
-0.097018003 -0.017681999 -0.242328
-0.097014003 -0.017605999 -0.242342
-0.097010002 -0.017529 -0.242364
-0.097006001 -0.017453 -0.24237999
-0.097002998 -0.017377 -0.24237899
-0.097001001 -0.017301001 -0.242369
-0.096997999 -0.017228 -0.242357
-0.096996002 -0.017152 -0.242351
-0.096992999 -0.017076001 -0.242337
-0.096992001 -0.017000999 -0.24230599
-0.096989997 -0.016926 -0.24228001
-0.096987002 -0.016852001 -0.242276
-0.096983999 -0.016774001 -0.242282
-0.096980996 -0.0167 -0.242287
-0.096978001 -0.016624 -0.242283
-0.096974999 -0.016548 -0.242277
-0.096972004 -0.016472001 -0.242275
-0.096969001 -0.016395999 -0.24227899
-0.096965998 -0.016319999 -0.242282
-0.096963003 -0.016244 -0.24228001
-0.096959002 -0.016168 -0.24228799
-0.096956 -0.016093001 -0.242304
-0.096951 -0.016015001 -0.24232601
-0.096947998 -0.015938999 -0.242341
-0.096943997 -0.015862999 -0.24234299
-0.096941002 -0.015787 -0.242347
-0.096938998 -0.015713001 -0.242341
-0.096936002 -0.015636999 -0.24232601
-0.096933998 -0.015562 -0.24230801
-0.096932001 -0.015486 -0.242282
-0.096929997 -0.015413 -0.242266
-0.096928 -0.015337 -0.24225201
-0.096924998 -0.015261 -0.24224301
-0.096922003 -0.015185 -0.242249
-0.096919 -0.015109 -0.24225099
-0.096915998 -0.015033 -0.242239
-0.096913002 -0.01496 -0.242238
-0.09691 -0.014881 -0.24224199
-0.096906997 -0.014808 -0.24224199
-0.096904002 -0.014732 -0.24224199
-0.096901 -0.014656 -0.24224199
-0.096896999 -0.014579 -0.242263
-0.096891999 -0.014501 -0.242295
-0.096888997 -0.014424 -0.24230701
-0.096886002 -0.014348 -0.242305
-0.096882001 -0.014272 -0.24230701
-0.096879996 -0.014198 -0.24230599
-0.096878 -0.014123 -0.242276
-0.096877001 -0.01405 -0.24223
-0.096874997 -0.013975 -0.24221601
-0.096872002 -0.013898 -0.242219
-0.096868999 -0.013823 -0.242219
-0.096865997 -0.013747 -0.242219
-0.096863002 -0.013671 -0.242221
-0.096859001 -0.013595 -0.24222299
-0.096855998 -0.013519 -0.242228
-0.096853003 -0.013442 -0.24223401
-0.09685 -0.013366 -0.242238
-0.096845999 -0.01329 -0.242238
-0.096844003 -0.013214 -0.242236
-0.096840002 -0.013138 -0.242241
-0.096836001 -0.013062 -0.242263
-0.096832 -0.012986 -0.24227899
-0.096828997 -0.01291 -0.242283
-0.096826002 -0.012834 -0.242275
-0.096823998 -0.012758 -0.242258
-0.096822001 -0.012684 -0.242248
-0.096818998 -0.012609 -0.24224401
-0.096817002 -0.012533 -0.24222
-0.096816003 -0.01246 -0.242175
-0.096813999 -0.012387 -0.24215101
-0.096810997 -0.012311 -0.24215101
-0.096807003 -0.012232 -0.24216899
-0.096803002 -0.012156 -0.24219
-0.096799999 -0.01208 -0.2422
-0.096796997 -0.012004 -0.2422
-0.096794002 -0.011928 -0.24218801
-0.096791998 -0.011852 -0.24218
-0.096789002 -0.011778 -0.24217901
-0.096785001 -0.0117 -0.242183
-0.096781 -0.011624 -0.242209
-0.096777 -0.011547 -0.242235
-0.096772999 -0.011469 -0.24224301
-0.096770003 -0.011393 -0.242245
-0.096767001 -0.011317 -0.242248
-0.096763998 -0.011241 -0.242246
-0.096762002 -0.011168 -0.24223
-0.096759997 -0.011092 -0.2422
-0.096758999 -0.011019 -0.24216899
-0.096757002 -0.010943 -0.242153
-0.096754 -0.01087 -0.24214099
-0.096750997 -0.010794 -0.242137
-0.096748002 -0.010718 -0.242144
-0.096744999 -0.010642 -0.242148
-0.096741997 -0.010566 -0.242144
-0.096739002 -0.01049 -0.242138
-0.096735999 -0.010414 -0.242136
-0.096734002 -0.010338 -0.242125
-0.096731 -0.010265 -0.242117
-0.096727997 -0.010186 -0.242127
-0.096722998 -0.01011 -0.242155
-0.096717998 -0.010031 -0.24218699
-0.096715003 -0.0099529997 -0.24219801
-0.096712001 -0.0098789996 -0.24219801
-0.096708998 -0.0098010004 -0.2422
-0.096706003 -0.0097270003 -0.242192
-0.096704997 -0.0096540004 -0.24215101
-0.096703999 -0.0095809996 -0.242119
-0.096701004 -0.009505 -0.24211299
-0.096698001 -0.0094290003 -0.242103
-0.096695997 -0.0093560005 -0.242092
-0.096693002 -0.0092799999 -0.24209
-0.096689999 -0.0092040002 -0.24209
-0.096686997 -0.0091279997 -0.24209
-0.096683003 -0.0090500005 -0.2421
-0.096679002 -0.0089729996 -0.242119
-0.096675999 -0.008897 -0.242127
-0.096672997 -0.0088189999 -0.242129
-0.096669003 -0.0087430002 -0.242135
-0.096665002 -0.0086650001 -0.242155
-0.096660003 -0.0085859997 -0.24218901
-0.096657 -0.0085100001 -0.24219801
-0.096653998 -0.0084340004 -0.24219599
-0.096651003 -0.0083579998 -0.242194
-0.096648 -0.0082820002 -0.24219599
-0.096646003 -0.0082059996 -0.242182
-0.096643999 -0.0081329998 -0.242149
-0.096642002 -0.0080589997 -0.24213301
-0.096639998 -0.0079840003 -0.242119
-0.096637003 -0.0079079997 -0.242103
-0.096634999 -0.0078339996 -0.242098
-0.096631996 -0.0077579999 -0.2421
-0.096628003 -0.0076799998 -0.24210399
-0.096625 -0.0076040002 -0.242112
-0.096621998 -0.007528 -0.242116
-0.096619003 -0.0074519999 -0.242109
-0.096616 -0.0073759998 -0.24210501
-0.096612997 -0.0073000002 -0.24210501
-0.096610002 -0.0072240001 -0.242111
-0.096605003 -0.0071459999 -0.242135
-0.096601002 -0.007067 -0.242164
-0.096597999 -0.0069909999 -0.242164
-0.096594997 -0.006916 -0.24215201
-0.096592002 -0.0068399999 -0.24215201
-0.096589997 -0.0067639998 -0.242144
-0.096588001 -0.006691 -0.242109
-0.096588001 -0.0066220001 -0.242055
-0.096584998 -0.006544 -0.242055
-0.096580997 -0.0064650001 -0.242081
-0.096578002 -0.0063900002 -0.242074
-0.096574999 -0.0063160001 -0.24207
-0.096571997 -0.00624 -0.242072
-0.096569002 -0.0061619999 -0.242072
-0.096566997 -0.0060879998 -0.242063
-0.096564002 -0.0060100001 -0.242061
-0.096560001 -0.005934 -0.242061
-0.096557997 -0.0058599999 -0.24205101
-0.096555002 -0.0057839998 -0.242047
-0.096551001 -0.0057060001 -0.242066
-0.096546002 -0.0056250002 -0.24211
-0.096542001 -0.0055470001 -0.242128
-0.096538998 -0.005471 -0.242128
-0.096536003 -0.0053949999 -0.242118
-0.096533999 -0.0053209998 -0.24210601
-0.096531004 -0.0052459999 -0.242101
-0.096529 -0.0051699998 -0.24208499
-0.096527003 -0.0050969999 -0.242055
-0.096524999 -0.0050229998 -0.24204101
-0.096522003 -0.0049470002 -0.242036
-0.096519001 -0.0048710001 -0.242034
-0.096515998 -0.004795 -0.242036
-0.096513003 -0.0047189998 -0.242036
-0.096510001 -0.0046430002 -0.242028
-0.096507996 -0.0045679999 -0.24202099
-0.096504003 -0.0044900002 -0.242027
-0.096501 -0.0044140001 -0.242029
-0.096497998 -0.00434 -0.24202301
-0.096496001 -0.0042619999 -0.242017
-0.096491002 -0.004183 -0.24203999
-0.096486002 -0.004102 -0.242094
-0.096482001 -0.0040239999 -0.24210601
-0.096478999 -0.0039479998 -0.2421
-0.096476004 -0.0038719999 -0.242098
-0.096473999 -0.0037990001 -0.24208599
-0.096472003 -0.0037229999 -0.242063
-0.096469998 -0.0036520001 -0.242035
-0.096469 -0.003576 -0.242009
-0.096465997 -0.0035029999 -0.241998
-0.096463002 -0.003427 -0.24199399
-0.09646 -0.0033509999 -0.241998
-0.096458003 -0.003275 -0.24198601
-0.096455 -0.0031989999 -0.241978
-0.096451998 -0.003123 -0.241979
-0.096449003 -0.0030469999 -0.24197499
-0.096446 -0.002972 -0.241973
-0.096442997 -0.0028949999 -0.241981
-0.096438996 -0.002817 -0.241991
-0.096435003 -0.0027389999 -0.242008
-0.096431002 -0.00266 -0.24203201
-0.096427001 -0.0025820001 -0.242038
-0.096424997 -0.002507 -0.24202999
-0.096422002 -0.0024309999 -0.242016
-0.096419998 -0.002357 -0.241999
-0.096418001 -0.0022839999 -0.24198499
-0.096415997 -0.0022100001 -0.241963
-0.096414 -0.002135 -0.241947
-0.096410997 -0.0020590001 -0.241942
-0.096408002 -0.001983 -0.241946
-0.096404999 -0.001907 -0.24194001
-0.096401997 -0.001831 -0.241942
-0.096398003 -0.001753 -0.24195001
-0.096395001 -0.001677 -0.24194901
-0.096392997 -0.001603 -0.241935
-0.096391 -0.00153 -0.24191099
-0.096389003 -0.001454 -0.241905
-0.096385002 -0.001376 -0.241915
-0.096382 -0.001298 -0.24192201
-0.096377999 -0.001219 -0.24193799
-0.096372001 -0.0011380001 -0.241978
-0.096368998 -0.00106 -0.241988
-0.096366003 -0.00098400004 -0.24198601
-0.096363001 -0.00090799999 -0.24198
-0.096360996 -0.00083500001 -0.241963
-0.096359 -0.00076099997 -0.241943
-0.096358001 -0.00069000002 -0.241901
-0.096357003 -0.000619 -0.24187
-0.096354 -0.000543 -0.241864
-0.096350998 -0.00046499999 -0.241868
-0.096348003 -0.00038899999 -0.24186601
-0.096345 -0.000313 -0.24186
-0.096343003 -0.00023999999 -0.241851
-0.096340001 -0.000164 -0.24183699
-0.096337996 -9.0000001e-05 -0.241823
-0.096335001 -1.4e-05 -0.24182101
-0.096331999 6.4e-05 -0.24182799
-0.096327998 0.00014 -0.241834
-0.096325003 0.000218 -0.241832
-0.096321002 0.00029600001 -0.24185801
-0.096316002 0.00037699999 -0.241888
-0.096313 0.000455 -0.24189
-0.096309997 0.00052900001 -0.24188501
-0.096308 0.000604 -0.24187499
-0.096304998 0.00067799998 -0.241859
-0.096303999 0.00075100001 -0.241833
-0.096302003 0.000825 -0.241806
-0.096299998 0.00089800003 -0.241788
-0.096298002 0.00097200001 -0.241778
-0.096294001 0.00105 -0.24178199
-0.09629 0.001129 -0.241799
-0.096286997 0.001207 -0.24180301
-0.096285 0.00128 -0.24179301
-0.096281998 0.001356 -0.241791
-0.096277997 0.001434 -0.241791
-0.096275002 0.00151 -0.24179199
-0.096271999 0.001586 -0.24179401
-0.096268997 0.001662 -0.24179401
-0.096265003 0.001742 -0.241806
-0.096259996 0.001823 -0.241842
-0.096257001 0.001901 -0.241854
-0.096253999 0.0019769999 -0.241846
-0.096252002 0.002051 -0.24183699
-0.096248999 0.0021269999 -0.241825
-0.096247002 0.0022 -0.24180301
-0.096244998 0.0022720001 -0.24178
-0.096243002 0.0023469999 -0.241772
-0.096239999 0.0024230001 -0.24177399
-0.096236996 0.002501 -0.24177399
-0.096234001 0.0025770001 -0.24177
-0.096230999 0.0026529999 -0.241767
-0.096228004 0.0027290001 -0.241767
-0.096225001 0.0028049999 -0.24175701
-0.096222997 0.002878 -0.241743
-0.096220002 0.0029539999 -0.241744
-0.096216999 0.00303 -0.241744
-0.096213996 0.0031079999 -0.24174599
-0.096210003 0.003184 -0.241752
-0.096206002 0.0032649999 -0.241772
-0.096202001 0.0033450001 -0.24179199
-0.096198998 0.003421 -0.241798
-0.096196003 0.0034970001 -0.241791
-0.096193999 0.003571 -0.241777
-0.096190996 0.0036460001 -0.241759
-0.096189998 0.0037179999 -0.24173599
-0.096188001 0.003789 -0.24171001
-0.096184999 0.0038650001 -0.24169999
-0.096183002 0.003941 -0.241696
-0.096179999 0.0040170001 -0.241694
-0.096175998 0.0040950002 -0.24170899
-0.096171997 0.0041729999 -0.241721
-0.096170001 0.004249 -0.24171101
-0.096167997 0.0043219998 -0.241689
-0.096166 0.0043959999 -0.24167199
-0.096162997 0.0044720001 -0.24167
-0.096160002 0.0045480002 -0.24167
-0.096156001 0.0046259998 -0.24168199
-0.096152 0.0047070002 -0.24170201
-0.096147999 0.0047849999 -0.24171799
-0.096143998 0.004863 -0.241724
-0.096142001 0.0049370001 -0.241713
-0.096138999 0.0050130002 -0.241707
-0.096135996 0.0050880001 -0.241707
-0.096133001 0.0051640002 -0.24170101
-0.096130997 0.0052399999 -0.24169201
-0.096128002 0.005316 -0.241686
-0.096125998 0.0053869998 -0.241662
-0.096124001 0.0054609999 -0.241642
-0.096121997 0.005537 -0.241639
-0.096118003 0.0056130001 -0.241643
-0.096115001 0.0056889998 -0.241641
-0.096112996 0.0057640001 -0.24162699
-0.096110001 0.0058380002 -0.24161801
-0.096106999 0.0059159999 -0.24161801
-0.096104003 0.005992 -0.24162
-0.098825 -0.041790001 -0.242926
-0.098821998 -0.041712001 -0.24292199
-0.098820001 -0.041636001 -0.24291401
-0.098816998 -0.041560002 -0.242917
-0.098812997 -0.041487999 -0.24293301
-0.098807998 -0.041414998 -0.242973
-0.098803997 -0.041343998 -0.243007
-0.098801002 -0.041266002 -0.242998
-0.098798998 -0.041189 -0.242982
-0.098796003 -0.041113 -0.24297801
-0.098793 -0.041037001 -0.242972
-0.098791003 -0.040957 -0.242954
-0.098788999 -0.040878002 -0.242927
-0.098787002 -0.040798999 -0.242899
-0.098784 -0.040723 -0.24289501
-0.098779999 -0.040649001 -0.242911
-0.098777004 -0.040575001 -0.24291299
-0.098774999 -0.040497001 -0.24290401
-0.098771997 -0.040421002 -0.242902
-0.098769002 -0.040344998 -0.242898
-0.098765999 -0.040267002 -0.24288601
-0.098764002 -0.040190998 -0.24288
-0.098760001 -0.040114999 -0.242891
-0.098756 -0.040043 -0.24291299
-0.098751999 -0.039969999 -0.242939
-0.098747998 -0.039894 -0.242947
-0.098746002 -0.039818 -0.242946
-0.098742001 -0.039744001 -0.242954
-0.098738998 -0.039668001 -0.242956
-0.098736003 -0.039592002 -0.242946
-0.098733999 -0.039515 -0.242934
-0.098731004 -0.039437 -0.242925
-0.098728999 -0.039359 -0.242915
-0.098725997 -0.039283 -0.242909
-0.098722003 -0.039209001 -0.24292099
-0.098719001 -0.039133001 -0.24293099
-0.098715998 -0.039057001 -0.24293
-0.098713003 -0.038981002 -0.242926
-0.098710001 -0.038904998 -0.24292
-0.098706998 -0.038828999 -0.242918
-0.098704003 -0.038752001 -0.24291
-0.098701999 -0.038676001 -0.24290299
-0.098699003 -0.038598001 -0.242893
-0.098696001 -0.038522001 -0.24289501
-0.098692 -0.038447998 -0.242915
-0.098687999 -0.038373001 -0.24293099
-0.098684996 -0.038299002 -0.24294201
-0.098682001 -0.038222998 -0.242946
-0.098678999 -0.038146999 -0.242944
-0.098676004 -0.038068999 -0.24293201
-0.098673999 -0.03799 -0.24290401
-0.098673001 -0.037911002 -0.242863
-0.098670997 -0.037833001 -0.242847
-0.098667003 -0.037757002 -0.242853
-0.098664001 -0.037680998 -0.242851
-0.098661996 -0.037604 -0.24283899
-0.098659001 -0.037528001 -0.24283201
-0.098656997 -0.037450001 -0.24282201
-0.098654002 -0.037374001 -0.242814
-0.098650999 -0.037296999 -0.242808
-0.098647997 -0.037221 -0.2428
-0.098645002 -0.037145 -0.242801
-0.098641999 -0.037069 -0.242807
-0.098637998 -0.036993999 -0.242823
-0.098633997 -0.036922 -0.242853
-0.098630004 -0.036846999 -0.24287599
-0.098627001 -0.036773 -0.242878
-0.098623998 -0.036695 -0.242874
-0.098621003 -0.036619999 -0.24286801
-0.098618001 -0.036543999 -0.242864
-0.098615997 -0.036465999 -0.24285699
-0.098613001 -0.036387999 -0.24284101
-0.098609999 -0.036311999 -0.242837
-0.098608002 -0.036237001 -0.242833
-0.098604999 -0.036161002 -0.24283101
-0.098601997 -0.036083002 -0.24282201
-0.098599002 -0.036006998 -0.242814
-0.098596998 -0.035928998 -0.24280401
-0.098594002 -0.035852998 -0.24280199
-0.098591 -0.035776999 -0.24280401
-0.098586999 -0.035700999 -0.242807
-0.098583996 -0.035625 -0.24281099
-0.098581001 -0.035551 -0.242819
-0.098577 -0.035477001 -0.242835
-0.098572999 -0.035402 -0.242855
-0.098569997 -0.035326 -0.242864
-0.098567002 -0.035250001 -0.242864
-0.098563999 -0.035174999 -0.24285799
-0.098560996 -0.035096999 -0.24285001
-0.098559 -0.035021 -0.242837
-0.098555997 -0.034942999 -0.24282899
-0.098553002 -0.034867 -0.24282899
-0.098549999 -0.034791 -0.24283101
-0.098546997 -0.034715001 -0.24283101
-0.098544002 -0.034639001 -0.242834
-0.098540999 -0.034564 -0.242828
-0.098537996 -0.034485999 -0.24281199
-0.098536 -0.034407999 -0.242792
-0.098534003 -0.034331001 -0.24278
-0.098531 -0.034255002 -0.242772
-0.098527998 -0.034178998 -0.242771
-0.098523997 -0.034102999 -0.24278501
-0.098520003 -0.034030002 -0.242815
-0.098516002 -0.033955999 -0.24283899
-0.098513 -0.033879999 -0.242844
-0.098509997 -0.033803999 -0.242844
-0.098507002 -0.033728 -0.242834
-0.098504998 -0.03365 -0.24281999
-0.098502003 -0.033574 -0.242818
-0.098499 -0.033498 -0.242815
-0.098495997 -0.033420999 -0.242805
-0.098494001 -0.033342998 -0.242787
-0.098491997 -0.033264998 -0.242769
-0.098489001 -0.033190001 -0.242755
-0.098485999 -0.033114001 -0.242754
-0.098483004 -0.033036001 -0.24274801
-0.098480999 -0.032960001 -0.24274001
-0.098477997 -0.032884002 -0.24274001
-0.098475002 -0.032807998 -0.24273799
-0.098471999 -0.032731999 -0.242737
-0.098468997 -0.032655999 -0.242737
-0.098465003 -0.032579999 -0.242743
-0.098462 -0.032506 -0.242761
-0.098457001 -0.032432001 -0.24278501
-0.098453999 -0.032357 -0.242806
-0.098449998 -0.032281 -0.24282201
-0.098447002 -0.032205001 -0.242816
-0.098444998 -0.032127999 -0.24279401
-0.098443002 -0.032049999 -0.24276599
-0.098440997 -0.031973001 -0.242741
-0.098439001 -0.031895 -0.242727
-0.098435998 -0.031819001 -0.242725
-0.098433003 -0.031743001 -0.242731
-0.098429002 -0.031668998 -0.242744
-0.098425999 -0.031592999 -0.24274801
-0.098422997 -0.031516999 -0.24274001
-0.098420002 -0.031440999 -0.242732
-0.098416999 -0.031362999 -0.242732
-0.098413996 -0.031289 -0.242737
-0.098411001 -0.031213 -0.24274699
-0.098407 -0.031137001 -0.242753
-0.098403998 -0.031063 -0.242761
-0.098399997 -0.030987 -0.24277499
-0.098397002 -0.03091 -0.24278
-0.098393999 -0.030835001 -0.24277399
-0.098390996 -0.030758999 -0.24277399
-0.098388001 -0.030683 -0.24277399
-0.098384999 -0.030607 -0.242768
-0.098383002 -0.030529 -0.24274699
-0.098382004 -0.030452 -0.242713
-0.098379999 -0.030373 -0.242687
-0.098376997 -0.030297 -0.24268299
-0.098374002 -0.030221 -0.24268501
-0.098370999 -0.030146999 -0.242686
-0.098367997 -0.030071 -0.24268401
-0.098365001 -0.029995 -0.242686
-0.098361999 -0.029919 -0.242686
-0.098357998 -0.029843001 -0.242689
-0.098356001 -0.029766999 -0.24268501
-0.098352998 -0.029689999 -0.242669
-0.098350003 -0.029614 -0.24266499
-0.098347001 -0.029539 -0.242679
-0.098343 -0.029463001 -0.24269401
-0.098339997 -0.029386999 -0.242688
-0.098338 -0.029310999 -0.242682
-0.098334998 -0.029235 -0.24268
-0.098332003 -0.02916 -0.24268
-0.098328002 -0.029083 -0.242689
-0.098324999 -0.029008999 -0.242695
-0.098321997 -0.028934 -0.242687
-0.09832 -0.028856 -0.24267501
