-0.0518335 -0.0281259 0.99826 0
-0.0510095 -0.0276585 0.998315 0
-0.0520746 -0.0279354 0.998252 0
-0.0529325 -0.0268952 0.998236 0
-0.0537166 -0.0270006 0.998191 0
-0.0541871 -0.0272273 0.99816 0
-0.0559018 -0.0277832 0.99805 0
-0.0542866 -0.0278635 0.998137 0
-0.0562614 -0.0279066 0.998026 0
-0.0558378 -0.0281414 0.998043 0
-0.052849 -0.0282725 0.998202 0
-0.053698 -0.0280449 0.998163 0
-0.0531786 -0.0282508 0.998185 0
-0.0528338 -0.0283061 0.998202 0
-0.0545554 -0.0281457 0.998114 0
-0.0544842 -0.0286498 0.998104 0.000895504
-0.0556624 -0.028682 0.998038 0.00169702
-0.0572687 -0.0290555 0.997936 0.0045139
-0.0563574 -0.0286957 0.997998 0.00289753
-0.0565973 -0.0291009 0.997973 0.00541592
-0.0579471 -0.0294939 0.997884 0.00652184
-0.0604724 -0.0294157 0.997736 0.00737981
-0.0624312 -0.029384 0.997617 0.0077791
-0.0616072 -0.0294951 0.997665 0.00827415
-0.0599829 -0.0295102 0.997763 0.00900767
-0.0581662 -0.0289106 0.997888 0.0068429
-0.0583009 -0.0283614 0.997896 0.00635332
-0.059534 -0.028619 0.997816 0.00549942
-0.0576073 -0.0279352 0.997948 0.00451907
-0.0609312 -0.0284215 0.997737 0.00272518
-0.0607357 -0.0286581 0.997742 0.000762702
-0.0596661 -0.0284451 0.997813 0.00072808
-0.0599823 -0.0286067 0.997789 0.00189501
-0.0599618 -0.0288214 0.997784 0
-0.0600366 -0.02891 0.997777 0
-0.0592221 -0.0287312 0.997831 0
-0.0595296 -0.0288796 0.997809 0.000167897
-0.0587937 -0.0292614 0.997841 0.0021698
-0.0608019 -0.029581 0.997711 0
-0.0594206 -0.0296883 0.997791 0.0014106
-0.0603581 -0.029401 0.997744 0
-0.0609873 -0.0294733 0.997703 0.00272131
-0.0603396 -0.02952 0.997741 0.00333248
-0.0618849 -0.0293825 0.997651 0.00406516
-0.0635652 -0.0289237 0.997558 0.00523119
-0.0610761 -0.0288809 0.997715 0.00656994
-0.0609488 -0.0287376 0.997727 0.00601029
-0.0620836 -0.0282927 0.99767 0.00574732
-0.0630551 -0.0282291 0.997611 0.00336107
-0.0610509 -0.0282091 0.997736 0.0032378
-0.0630151 -0.0287971 0.997597 0.00577005
-0.0610383 -0.0289401 0.997716 0.00548623
-0.0604835 -0.0282878 0.997768 0.00344383
-0.0613821 -0.0278872 0.997725 0.000959612
-0.0610898 -0.0279865 0.99774 0.00274436
-0.0597671 -0.0274701 0.997834 1.77384e-05
-0.0571276 -0.0277336 0.997982 0
-0.055629 -0.0282055 0.998053 0
-0.0548763 -0.0282554 0.998093 0
-0.0564851 -0.0283156 0.998002 0
-0.0563281 -0.0284682 0.998006 0
-0.0542852 -0.0282213 0.998127 0
-0.0558772 -0.0280256 0.998044 0
-0.0557575 -0.0280079 0.998051 0
-0.0559097 -0.0281329 0.998039 0
-0.0554481 -0.027883 0.998072 0.00110997
-0.0539583 -0.0280121 0.99815 0.00334662
-0.0572263 -0.0279819 0.997969 0.00639015
-0.0596135 -0.0277725 0.997835 0.00740166
-0.0604394 -0.0276496 0.997789 0.00551458
-0.0569236 -0.0266865 0.998022 0.00193101
-0.0592193 -0.0273291 0.997871 0.00609931
-0.0583487 -0.0271585 0.997927 0.00489073
-0.0590997 -0.026825 0.997892 0.0055389
-0.0610564 -0.0281075 0.997738 0.0113103
-0.061083 -0.0286767 0.997721 0.0142586
-0.0603138 -0.0284609 0.997774 0.0123154
-0.0611698 -0.0281214 0.997731 0.012624
-0.0616365 -0.0279504 0.997707 0.0100656
-0.0602249 -0.0285505 0.997777 0.00927504
-0.0623513 -0.0286862 0.997642 0.00866549
-0.0575653 -0.0281244 0.997946 0.00656148
-0.0564798 -0.0281014 0.998008 0.0052419
-0.054225 -0.0276276 0.998146 0.0025187
-0.0572658 -0.0273158 0.997985 0.00610372
-0.0576867 -0.0272145 0.997964 0.00465095
-0.058576 -0.0274083 0.997907 0.00374266
-0.0593817 -0.0268594 0.997874 0.002616
-0.0587802 -0.0259575 0.997933 0.00228619
-0.057825 -0.0257946 0.997994 0.00112472
-0.0561813 -0.026181 0.998077 0
-0.0557445 -0.0256601 0.998115 0
-0.05578 -0.0250719 0.998128 0
-0.0569148 -0.0252268 0.99806 0
-0.0558953 -0.0251211 0.998121 0.000860554
-0.05517 -0.0252559 0.998158 0
-0.056191 -0.0252353 0.998101 0
-0.0576574 -0.0254057 0.998013 0.000422736
-0.0595556 -0.0252889 0.997905 0.00290632
-0.0575029 -0.0247293 0.998039 0.00124412
-0.0568455 -0.0244708 0.998083 0
-0.0575066 -0.0240282 0.998056 0
-0.0608226 -0.0242484 0.997854 0.00486307
-0.0613779 -0.0233269 0.997842 0.00576384
-0.0594919 -0.0225794 0.997973 0.00212787
-0.0585165 -0.0229797 0.998022 1.78552e-05
-0.0546727 -0.0223133 0.998255 0
-0.0556416 -0.0220211 0.998208 0
-0.0560838 -0.0219347 0.998185 0
-0.056256 -0.021788 0.998179 0
-0.0566972 -0.0215576 0.998159 0
-0.0534618 -0.0215121 0.998338 0
-0.0530229 -0.0223348 0.998343 0
-0.0549562 -0.0225118 0.998235 0
-0.0523732 -0.0228839 0.998365 0
-0.0527411 -0.0236095 0.998329 0.00119856
-0.0519038 -0.0230071 0.998387 0
-0.0518981 -0.0224019 0.998401 0
-0.0492616 -0.0217222 0.99855 0
-0.0502929 -0.0216265 0.9985 0.000642962
-0.0487316 -0.0214543 0.998582 0
-0.0505646 -0.0213626 0.998492 0.000581964
-0.0517454 -0.021365 0.998432 0.000947675
-0.051007 -0.021324 0.998471 7.20995e-05
-0.0497094 -0.021406 0.998534 0.000434572
-0.0526633 -0.0220089 0.99837 0.00299949
-0.0510278 -0.0220249 0.998454 0.00317711
-0.0533321 -0.0220381 0.998334 0.00938118
-0.0513851 -0.0217568 0.998442 0.00572141
-0.0512626 -0.0207292 0.99847 0.00475619
-0.0530435 -0.0212656 0.998366 0.00704726
-0.05208 -0.020707 0.998428 0.0071499
-0.0532393 -0.0211173 0.998358 0.00913951
-0.0530601 -0.0205941 0.998379 0.00823327
-0.0522854 -0.0210762 0.99841 0.00770391
-0.0522532 -0.0213756 0.998405 0.00755397
-0.050001 -0.0209738 0.998529 0.00363593
-0.0480755 -0.0210266 0.998622 0.00258103
-0.0497469 -0.0217569 0.998525 0.00269287
-0.0502999 -0.021909 0.998494 0.00363096
-0.0496864 -0.0213055 0.998538 0.0017489
-0.048219 -0.0206008 0.998624 0
-0.0510647 -0.0207681 0.998479 0
-0.0479119 -0.0208784 0.998633 0
-0.048162 -0.0205583 0.998628 0
-0.0509754 -0.0210855 0.998477 0
-0.0544454 -0.0213582 0.998288 0.000334548
-0.0575139 -0.0210274 0.998123 0.00339918
-0.0544629 -0.0209916 0.998295 0.00171211
-0.0545668 -0.021028 0.998289 0.00124854
-0.0538487 -0.0208 0.998332 0.000487183
-0.0556981 -0.021154 0.998224 0.00365706
-0.0562664 -0.0218859 0.998176 0.00479544
-0.0567871 -0.0217523 0.998149 0.00539099
-0.056155 -0.0219398 0.998181 0.00557728
-0.0549986 -0.0219962 0.998244 0.00379555
-0.0541862 -0.0220754 0.998287 0.0064038
-0.0542965 -0.0219647 0.998283 0.00428888
-0.0533576 -0.0216488 0.998341 0.00301203
-0.0534896 -0.0216801 0.998333 0.0035899
-0.0546903 -0.0218186 0.998265 0.00433641
-0.0545117 -0.0214699 0.998282 0.00464582
-0.055981 -0.0214278 0.998202 0.00398892
-0.0569185 -0.021476 0.998148 0.00453762
-0.0583851 -0.0215916 0.998061 0.00342115
-0.059281 -0.0219103 0.998001 0.00435618
-0.0584481 -0.021956 0.998049 0.00219047
-0.0575935 -0.0220305 0.998097 0.000944393
-0.0576554 -0.0221164 0.998092 0.000474526
-0.0585802 -0.0226538 0.998026 0.00418699
-0.0586317 -0.0228991 0.998017 0.00426974
-0.0560917 -0.0226147 0.998169 0
-0.0536309 -0.0226735 0.998303 0
-0.0531819 -0.0226017 0.998329 0
-0.05346 -0.0225001 0.998316 0
-0.0537236 -0.0227859 0.998296 0
-0.0549943 -0.0231134 0.998219 0
-0.0549172 -0.023753 0.998208 0
-0.0555117 -0.0240297 0.998169 0
-0.0549701 -0.0241328 0.998196 0
-0.0576292 -0.0243656 0.998041 0
-0.057736 -0.0243634 0.998035 0
-0.0594813 -0.0243739 0.997932 0
-0.0586097 -0.0246782 0.997976 0
-0.0580711 -0.0250804 0.997997 0
-0.0581416 -0.0250465 0.997994 0
-0.057431 -0.0254782 0.998024 0
-0.0582362 -0.025641 0.997974 0
-0.0612429 -0.0258304 0.997789 0
-0.0583356 -0.0256106 0.997968 0
-0.0582704 -0.0257512 0.997969 0
-0.0554418 -0.0259947 0.998124 0
-0.0563545 -0.026575 0.998057 0
-0.05646 -0.0269093 0.998042 0
-0.056035 -0.0269844 0.998064 0
-0.0531645 -0.0273267 0.998212 0
-0.052443 -0.0273888 0.998248 0
-0.0507588 -0.0273131 0.998337 0
-0.0532359 -0.0274671 0.998204 0
-0.0552696 -0.0277305 0.998086 0
-0.0562964 -0.0275077 0.998035 0
-0.0547912 -0.0272898 0.998125 0
-0.0536131 -0.0272453 0.99819 0
-0.0522754 -0.0270601 0.998266 0
-0.0557698 -0.0272692 0.998071 0
-0.0526642 -0.0273139 0.998239 0
-0.0519478 -0.0273965 0.998274 0
-0.0530611 -0.0274448 0.998214 0
-0.0513961 -0.027196 0.998308 0
-0.0526474 -0.026992 0.998248 0
-0.0529879 -0.0269766 0.998231 0
-0.0516922 -0.0266008 0.998309 0
-0.0509907 -0.0266405 0.998344 0
-0.0485923 -0.0266162 0.998464 0
-0.0499767 -0.0271089 0.998382 0
-0.0511165 -0.0270745 0.998326 0
-0.0507472 -0.0271109 0.998344 0
-0.0474555 -0.0271724 0.998504 0
-0.0473285 -0.0271251 0.998511 0
-0.0475228 -0.027068 0.998503 0
-0.0475996 -0.0267368 0.998509 0
-0.0465363 -0.0265698 0.998563 0
-0.0458432 -0.0262143 0.998605 0
-0.0420141 -0.0262289 0.998773 0
-0.0421097 -0.0261224 0.998771 0
-0.0447339 -0.0260934 0.998658 0
-0.0399875 -0.026129 0.998858 0
-0.0430019 -0.0260012 0.998737 0.000240358
-0.0439489 -0.0260148 0.998695 0.000229688
-0.0462839 -0.0261317 0.998586 0.00200623
-0.0472484 -0.0261207 0.998542 0.00236164
-0.0479505 -0.0258808 0.998514 0.00269045
-0.0475112 -0.025873 0.998536 0.00429342
-0.0504117 -0.0262087 0.998385 0.00932348
-0.0502994 -0.0262826 0.998388 0.0100911
-0.0501048 -0.0264446 0.998394 0.00783198
-0.0505405 -0.0265597 0.998369 0.00656057
-0.0525797 -0.0263835 0.998268 0.00867812
-0.0526911 -0.0262252 0.998266 0.00622749
-0.0538051 -0.0265088 0.9982 0.00931035
-0.0518498 -0.0263862 0.998306 0.00672981
-0.0519955 -0.0260428 0.998308 0.00223981
-0.0514838 -0.0261886 0.99833 0.0051449
-0.0520978 -0.0260566 0.998302 0.00412043
-0.0540268 -0.0263314 0.998192 0.00483158
-0.0540119 -0.0264037 0.998191 0.00623438
-0.0520138 -0.0262249 0.998302 0.00522154
-0.052387 -0.0266604 0.998271 0.00749706
-0.0509046 -0.0264646 0.998353 0.00668412
-0.0528065 -0.0266403 0.998249 0.00600484
-0.0539746 -0.0267935 0.998183 0.0088182
-0.0525906 -0.0268351 0.998256 0.00864875
-0.0491761 -0.026484 0.998439 0.00406117
-0.0470922 -0.0266524 0.998535 0.00274277
-0.0487173 -0.0265667 0.998459 0
-0.0502598 -0.0266615 0.99838 0
-0.0495426 -0.0268356 0.998411 0
-0.0507003 -0.0269396 0.998351 0
-0.0504509 -0.0268473 0.998366 0.000420552
-0.0490719 -0.0266475 0.99844 0.00146217
-0.0495807 -0.0263256 0.998423 0.000400975
-0.0520261 -0.0263316 0.998299 0.000792438
-0.0522734 -0.0262724 0.998287 0.0013211
-0.0533184 -0.0263032 0.998231 0
-0.0526396 -0.0264266 0.998264 0.00104296
-0.0520478 -0.0263336 0.998297 0
-0.0502141 -0.0260886 0.998398 0
-0.0510126 -0.0261286 0.998356 0
-0.0513691 -0.025846 0.998345 0
-0.0512689 -0.0260093 0.998346 0
-0.048666 -0.0258816 0.99848 0
-0.0498046 -0.0259867 0.998421 0
-0.0502417 -0.0261757 0.998394 0
-0.0476703 -0.0263712 0.998515 0
-0.048435 -0.026474 0.998475 0
-0.0479401 -0.0264922 0.998499 0
-0.051673 -0.0266963 0.998307 0
-0.0518189 -0.0266841 0.9983 0
-0.0513335 -0.0267927 0.998322 0
-0.0502266 -0.0265085 0.998386 0
-0.0520294 -0.0264428 0.998295 0
-0.0528671 -0.0264755 0.998251 0
-0.0508363 -0.0263993 0.998358 0
-0.0470456 -0.0265268 0.99854 0
-0.0471632 -0.0266349 0.998532 0
-0.0515647 -0.0266713 0.998313 0
-0.050278 -0.0267267 0.998378 0
-0.0520373 -0.0269169 0.998282 0
-0.049008 -0.0270975 0.998431 0
-0.0462385 -0.0271927 0.99856 0
-0.045409 -0.0271856 0.998598 0
-0.0454049 -0.0273557 0.998594 0
-0.0468187 -0.0273685 0.998528 0
-0.0450013 -0.0275155 0.998608 0
-0.0455819 -0.0276043 0.998579 0
-0.0448043 -0.0275632 0.998615 0
-0.0429848 -0.0277346 0.998691 0
-0.0436318 -0.027723 0.998663 0
-0.0456026 -0.0277634 0.998574 0
-0.0450237 -0.0275656 0.998605 0
-0.0476684 -0.0274925 0.998485 0
-0.0495508 -0.0273189 0.998398 0
-0.0487162 -0.0273915 0.998437 0
-0.0485417 -0.0273859 0.998446 0
-0.045692 -0.0276319 0.998573 0
-0.0449573 -0.0277306 0.998604 0
-0.0452009 -0.0277274 0.998593 0
-0.046911 -0.0276391 0.998517 0
-0.0472187 -0.0276058 0.998503 0
-0.0467959 -0.0275702 0.998524 0
-0.0471354 -0.0277127 0.998504 0
-0.0469463 -0.0278623 0.998509 0
-0.0448321 -0.0281487 0.998598 0
-0.0467509 -0.028399 0.998503 0
-0.049005 -0.0285289 0.998391 0
-0.0507412 -0.028516 0.998305 0
-0.0493343 -0.0285866 0.998373 0
-0.0493357 -0.0286012 0.998373 0.00109199
-0.0502856 -0.0287179 0.998322 0.00307886
-0.050775 -0.0285896 0.998301 0.000989898
-0.0498136 -0.0286813 0.998347 0.00194343
-0.0488456 -0.028756 0.998392 0.00106283
-0.0473208 -0.0287538 0.998466 0
-0.049143 -0.0289421 0.998372 0.000955958
-0.0509968 -0.029177 0.998273 0.00242205
-0.0497768 -0.0290468 0.998338 0.000862499
-0.0518241 -0.0288808 0.998239 0
-0.051755 -0.0290173 0.998238 0
-0.0548664 -0.0289622 0.998074 0
-0.0539892 -0.0290591 0.998119 0.000595386
-0.0501144 -0.0290729 0.99832 0
-0.0491955 -0.0291163 0.998365 0
-0.0466957 -0.0291116 0.998485 0
-0.047973 -0.0294155 0.998415 0
-0.0499911 -0.0296122 0.998311 0
-0.0484486 -0.0295711 0.998388 0
-0.0482733 -0.0297376 0.998391 0
-0.0469243 -0.0298023 0.998454 0
-0.0480586 -0.0298315 0.998399 0
-0.0498395 -0.0297625 0.998314 0
-0.0517166 -0.0297475 0.998219 0
-0.0513292 -0.0300142 0.998231 0.00237373
-0.050929 -0.0302052 0.998245 0.00450777
-0.0513318 -0.0305043 0.998216 0.00628466
-0.0536976 -0.0306056 0.998088 0.00448238
-0.0517652 -0.0305276 0.998193 0.00243178
-0.0515427 -0.0305729 0.998203 0.00332532
-0.0519108 -0.0306562 0.998181 0.0044587
-0.0548725 -0.0308502 0.998017 0.00682808
-0.0538559 -0.0309692 0.998068 0.00631884
-0.0545097 -0.0311241 0.998028 0.00653613
-0.0536665 -0.0311981 0.998071 0.00524819
-0.0544362 -0.0313995 0.998023 0.00573105
-0.0544345 -0.0317466 0.998013 0.00752705
-0.0584733 -0.0318544 0.997781 0.00695905
-0.0610848 -0.0317521 0.997627 0.00464715
-0.0601248 -0.0316214 0.99769 0.000703467
-0.0570836 -0.0317878 0.997863 0.00282533
-0.0573201 -0.0319496 0.997845 0.00434062
-0.0564727 -0.0317034 0.997901 0.000846493
-0.0576666 -0.0318834 0.997827 0
-0.0562541 -0.0321871 0.997898 0.000953757
-0.0538204 -0.0323155 0.998028 0
-0.0533355 -0.0325652 0.998046 0
-0.0544112 -0.0327493 0.997981 0
-0.0552541 -0.0328462 0.997932 0
-0.0568221 -0.0330414 0.997837 0
-0.0552734 -0.0332519 0.997917 0.000201866
-0.0536163 -0.0334244 0.998002 0
-0.0538825 -0.0336005 0.997982 0
-0.0546889 -0.0337413 0.997933 0
-0.0563664 -0.0339677 0.997832 0.000582892
-0.054439 -0.034195 0.997931 0.000384564
-0.0538292 -0.0344422 0.997956 0.00121773
-0.0514605 -0.034478 0.99808 0
-0.0536332 -0.0345611 0.997962 0.000261101
-0.0530477 -0.034578 0.997993 0
-0.0535202 -0.0346322 0.997966 0
-0.0532811 -0.0348039 0.997973 0
-0.0532318 -0.0349537 0.99797 0
-0.0525375 -0.0351573 0.998 0
-0.0530808 -0.0355022 0.997959 0
-0.0523076 -0.0358209 0.997988 0
-0.0527986 -0.0361093 0.997952 0
-0.052227 -0.0363428 0.997974 0
-0.0542517 -0.0365343 0.997859 0
-0.0562426 -0.0367256 0.997741 0
-0.0557766 -0.0369301 0.99776 0
-0.0553694 -0.0371893 0.997773 0
-0.0538254 -0.0374573 0.997848 0
-0.0555661 -0.0376336 0.997746 0
-0.0542457 -0.0378302 0.997811 0
-0.0542537 -0.0379885 0.997804 0
-0.0557744 -0.0380931 0.997716 0
-0.0567107 -0.0382406 0.997658 0.00155785
-0.055818 -0.0383786 0.997703 0.00297959
-0.0540705 -0.0383491 0.9978 0.00235827
-0.0548011 -0.0381738 0.997767 0
-0.0513595 -0.0381943 0.99795 0
-0.0496188 -0.0382394 0.998036 0
-0.0500503 -0.0383407 0.998011 0.000856324
-0.0517994 -0.038351 0.997921 0
-0.0537446 -0.0384049 0.997816 0
-0.0508675 -0.0385097 0.997963 0
-0.0498996 -0.0385814 0.998009 0
-0.049478 -0.0386779 0.998026 0
-0.0496736 -0.0387855 0.998012 0
-0.048856 -0.0389246 0.998047 0
-0.0503363 -0.0390755 0.997968 0
-0.0485489 -0.0392566 0.998049 0
-0.0482005 -0.0393999 0.99806 0
-0.0493596 -0.0395444 0.997998 0
-0.0528397 -0.0396934 0.997814 0
-0.0523672 -0.0397372 0.997837 0
-0.0513443 -0.0397167 0.997891 0
-0.0501925 -0.0396478 0.997952 0
-0.0494908 -0.0395101 0.997993 0
-0.0488539 -0.0392889 0.998033 0
-0.0496069 -0.0390958 0.998003 0
-0.0498479 -0.0389456 0.997997 0
-0.0500757 -0.038828 0.99799 0
-0.0503381 -0.0387394 0.997981 0
-0.0510883 -0.0386486 0.997946 0
-0.0505247 -0.0385452 0.997979 0
-0.0492774 -0.0384023 0.998047 0
-0.0499905 -0.0385395 0.998006 0
-0.0510528 -0.0387364 0.997944 0
-0.0506987 -0.0388394 0.997958 0
-0.0503561 -0.0388712 0.997975 0
-0.0511953 -0.0389708 0.997928 0
-0.0505741 -0.03899 0.997959 0
-0.0527066 -0.0391383 0.997843 0
-0.0531259 -0.0391627 0.99782 0
-0.054471 -0.0391828 0.997746 0
-0.0558465 -0.0391545 0.997671 0
-0.0557182 -0.0390657 0.997682 0.000757262
-0.0547532 -0.0386428 0.997752 0
-0.0559986 -0.0386485 0.997683 0.00284916
-0.0554017 -0.038381 0.997726 0.00355263
-0.055956 -0.0385543 0.997689 0.00595627
-0.0564722 -0.038554 0.99766 0.0073046
-0.0561451 -0.0383572 0.997685 0.00585496
-0.0562845 -0.0382378 0.997682 0.0055516
-0.0579178 -0.0384049 0.997582 0.00421536
-0.0579778 -0.0384672 0.997576 0.00456855
-0.0572335 -0.0386746 0.997612 0.00621798
-0.0571225 -0.0385306 0.997623 0.0049775
-0.0566068 -0.038638 0.997649 0.00621628
-0.0601801 -0.0397107 0.997397 0.0099362
-0.0566991 -0.0382369 0.997659 0.000871335
-0.0583261 -0.0389144 0.997539 0.00316376
-0.0594854 -0.0396515 0.997441 0.00751938
-0.0595734 -0.0395355 0.997441 0.00713942
-0.0574291 -0.0385333 0.997606 0.00243869
-0.0581264 -0.0384711 0.997568 0.00417095
-0.0568376 -0.0376952 0.997672 0.00348687
-0.0568177 -0.0370309 0.997698 0.00285087
-0.0547788 -0.0359378 0.997852 0.00152668
-0.0548068 -0.0351796 0.997877 0.000172517
-0.0553917 -0.0349912 0.997851 0.000792202
-0.0539642 -0.0343113 0.997953 0
-0.0551706 -0.0341819 0.997892 0
-0.054487 -0.0338003 0.997942 0
-0.0546779 -0.0335287 0.997941 0
-0.0555919 -0.0336735 0.997886 0
-0.0547225 -0.0337325 0.997932 0.0028483
-0.0556383 -0.0182701 0.998284 0.00552988
-0.0554339 -0.0182394 0.998296 0.00570512
-0.0558579 -0.0193882 0.998251 0.00622515
-0.0564275 -0.0193702 0.998219 0.00592277
-0.0558199 -0.0188329 0.998263 0.00480392
-0.05704 -0.0200764 0.99817 0.00555642
-0.055619 -0.0172491 0.998303 0.00226914
-0.0549651 -0.0156679 0.998365 0
-0.0561992 -0.0169803 0.998275 0.00155287
-0.0562799 -0.0165554 0.998278 0.000442616
-0.0559456 -0.0187061 0.998259 0
-0.0553458 -0.0172728 0.998318 0.00131365
-0.056429 -0.0182479 0.99824 0.00194946
-0.0564286 -0.0174191 0.998255 0.00102887
-0.0550049 -0.0165631 0.998349 0
-0.0550557 -0.0162313 0.998351 0
-0.0546123 -0.0178926 0.998347 0
-0.0555415 -0.0163993 0.998322 0
-0.0563867 -0.0158556 0.998283 0
-0.0552936 -0.0145847 0.998364 0
-0.0541239 -0.0152646 0.998418 0
-0.0564795 -0.0180629 0.99824 0.00352428
-0.0564594 -0.0183581 0.998236 0.0044612
-0.0554459 -0.0171509 0.998314 0.000498106
-0.0540078 -0.016995 0.998396 0
-0.0538665 -0.0156768 0.998425 0
-0.0541261 -0.0171409 0.998387 0.000254048
-0.0557337 -0.0169157 0.998302 0
-0.0569014 -0.0175172 0.998226 0
-0.0551721 -0.0167288 0.998337 0
-0.0558381 -0.0164146 0.998305 0
-0.0539803 -0.0153362 0.998424 0
-0.0529427 -0.0151136 0.998483 0
-0.0535592 -0.0153696 0.998446 0
-0.0531982 -0.0159196 0.998457 0
-0.0546452 -0.0159802 0.998378 0
-0.056315 -0.0165146 0.998276 0
-0.0565854 -0.0168793 0.998255 0
-0.0586412 -0.0168445 0.998137 0
-0.0575466 -0.0159759 0.998215 0
-0.0585491 -0.0155451 0.998164 0
-0.0596091 -0.0166862 0.998082 0
-0.0587307 -0.0167285 0.998134 0
-0.0603419 -0.0174064 0.998026 0.00249411
-0.0605064 -0.0184316 0.997998 0.00588312
-0.0595412 -0.0190211 0.998045 0.00558271
-0.0593073 -0.0194756 0.99805 0.00609226
-0.0607734 -0.0198597 0.997954 0.00974372
-0.0602988 -0.0196202 0.997988 0.0097576
-0.0583202 -0.0199647 0.998098 0.0082216
-0.0566738 -0.019662 0.998199 0.00650319
-0.0587693 -0.0196061 0.998079 0.00640701
-0.0582933 -0.0196088 0.998107 0.00349087
-0.0564857 -0.0188206 0.998226 0.0011689
-0.0552135 -0.0179825 0.998313 0
-0.0501465 -0.0177215 0.998585 0
-0.049128 -0.0173186 0.998642 0
-0.0477917 -0.0165231 0.998721 0
-0.0509331 -0.0174088 0.99855 0
-0.0492079 -0.0163842 0.998654 0
-0.0478658 -0.0169105 0.998711 0
-0.0468598 -0.0172283 0.998753 0
-0.0476421 -0.0164914 0.998728 0
-0.0473245 -0.0155323 0.998759 0
-0.0465714 -0.0159614 0.998787 0
-0.0466917 -0.0168414 0.998767 0
-0.0474626 -0.0161217 0.998743 0
-0.0465133 -0.0158288 0.998792 0
-0.0460035 -0.01578 0.998817 0
-0.0466517 -0.0166307 0.998773 0
-0.0461976 -0.0168739 0.99879 0
-0.0459287 -0.0182808 0.998777 0
-0.0483645 -0.0187882 0.998653 0
-0.050592 -0.0204106 0.998511 0.00445632
-0.0518627 -0.0204431 0.998445 0.00390239
-0.0497545 -0.0201905 0.998557 0.00297321
-0.0514076 -0.0195102 0.998487 0.00125376
-0.0499051 -0.0195566 0.998563 0
-0.0502777 -0.019963 0.998536 0
-0.0511739 -0.0202044 0.998485 0
-0.0507003 -0.0199177 0.998515 0
-0.0479565 -0.0191199 0.998666 0
-0.0466797 -0.0191125 0.998727 0
-0.0492171 -0.0191787 0.998604 0
-0.0476269 -0.0185198 0.998693 0
-0.0508333 -0.0189208 0.998528 0
-0.0500594 -0.0189829 0.998566 0
-0.0503736 -0.0197955 0.998534 0.00100149
-0.048888 -0.0190476 0.998623 0
-0.0486292 -0.0191343 0.998634 0
-0.0484298 -0.0191602 0.998643 0
-0.0476826 -0.0190533 0.998681 0
-0.0491422 -0.0188502 0.998614 0
-0.0492391 -0.0188082 0.99861 0
-0.0510843 -0.0181107 0.99853 0
-0.0523876 -0.0180556 0.998464 0
-0.0512808 -0.0186225 0.998511 0
-0.0504966 -0.0185658 0.998552 0
-0.0515965 -0.01848 0.998497 0
-0.0538198 -0.0177246 0.998393 0
-0.0550081 -0.0174219 0.998334 0
-0.0562931 -0.0183152 0.998246 0.00111446
-0.0559873 -0.0187688 0.998255 0.00146915
-0.0572863 -0.0196041 0.998165 0.00549384
-0.0582479 -0.01917 0.998118 0.00642511
-0.0591048 -0.0206281 0.998039 0.00854295
-0.0577514 -0.0211383 0.998107 0.00768939
-0.0564977 -0.0208242 0.998186 0.00622302
-0.0523633 -0.0204588 0.998419 0.00247113
-0.0555818 -0.0210347 0.998233 0.00686445
-0.0564956 -0.0215121 0.998171 0.00786002
-0.0562376 -0.022376 0.998167 0.00911444
-0.0585956 -0.0228696 0.99802 0.0100875
-0.0598136 -0.022589 0.997954 0.00979855
-0.0608734 -0.0230877 0.997878 0.01043
-0.0643154 -0.0238624 0.997644 0.0136786
-0.0628722 -0.0235125 0.997745 0.0124672
-0.0591012 -0.0228581 0.99799 0.00804932
-0.0569736 -0.0234468 0.9981 0.00448728
-0.0558133 -0.0231857 0.998172 0.00383496
-0.0546902 -0.0229321 0.99824 0.00158704
-0.0541298 -0.0231017 0.998267 0
-0.0563154 -0.0231547 0.998145 0
-0.0575729 -0.0235749 0.998063 9.1294e-06
-0.0566546 -0.0235877 0.998115 0
-0.0581321 -0.024192 0.998016 0.000380255
-0.0584495 -0.0243761 0.997993 0
-0.0611926 -0.0245502 0.997824 0.00280845
-0.0587711 -0.02437 0.997974 0.00331136
-0.0591496 -0.0246698 0.997944 0.00252605
-0.0581345 -0.0240919 0.998018 3.03422e-05
-0.0577873 -0.0237006 0.998048 0
-0.0566858 -0.0238156 0.998108 0
-0.0543963 -0.0236627 0.998239 0.00153654
-0.0536065 -0.0233599 0.998289 0.00170202
-0.054645 -0.023584 0.998227 0.00232331
-0.0556626 -0.0236751 0.998169 0.00265961
-0.0561316 -0.0241143 0.998132 0.00624242
-0.0553245 -0.0239328 0.998182 0.00546434
-0.0516604 -0.0239114 0.998378 0.00495511
-0.0533753 -0.0233285 0.998302 0.00477698
-0.0567336 -0.0236904 0.998108 0.00798987
-0.0561187 -0.0224471 0.998172 0.00501698
-0.0528775 -0.0222469 0.998353 0.00384963
-0.0501486 -0.0230135 0.998477 0.000583729
-0.0484302 -0.0236869 0.998546 0.00253988
-0.0497917 -0.0236334 0.99848 0.00317478
-0.0532477 -0.0240077 0.998293 0.00460593
-0.054048 -0.0246771 0.998233 0.00753791
-0.0512204 -0.0243822 0.99839 0.00592569
-0.0490955 -0.0245422 0.998492 0.00350883
-0.0489118 -0.0245014 0.998503 0.00254939
-0.0491421 -0.0240469 0.998502 0.00115112
-0.0481566 -0.0237626 0.998557 0
-0.0479159 -0.0234635 0.998576 0
-0.050613 -0.0237283 0.998436 0
-0.0492848 -0.0236567 0.998505 0
-0.0487915 -0.0231141 0.998542 0
-0.0518129 -0.0245885 0.998354 0
-0.0503597 -0.0251295 0.998415 6.79067e-05
-0.0463371 -0.0252568 0.998607 9.57426e-06
-0.0463274 -0.0255976 0.998598 0.000247403
-0.0493882 -0.026028 0.99844 0.00017079
-0.0463908 -0.0260502 0.998584 0
-0.046053 -0.0261715 0.998596 0
-0.0437932 -0.0259863 0.998703 0
-0.0468493 -0.0265821 0.998548 0
-0.0475242 -0.0261589 0.998528 0
-0.0508795 -0.0262829 0.998359 0
-0.0494728 -0.0261456 0.998433 0
-0.0510318 -0.0266731 0.998341 0
-0.052003 -0.0263377 0.9983 0
-0.0524573 -0.0269248 0.99826 0
-0.0541111 -0.0271885 0.998165 0
-0.0522161 -0.0267981 0.998276 0
-0.049619 -0.0261046 0.998427 0
-0.0494177 -0.0261647 0.998435 0
-0.0487646 -0.0260587 0.99847 0
-0.0468145 -0.025599 0.998576 0
-0.0488054 -0.0252323 0.99849 0
-0.0482053 -0.0260271 0.998498 0
-0.0477791 -0.0263785 0.99851 0
-0.050286 -0.0265924 0.998381 0
-0.0524002 -0.0262766 0.99828 0
-0.0537121 -0.0262847 0.99821 0
-0.0521946 -0.0263579 0.998289 0
-0.0547844 -0.0269052 0.998136 0.00110186
-0.0578416 -0.0277143 0.997941 0.00446629
-0.0563266 -0.0281652 0.998015 0.00374773
-0.0596128 -0.0287361 0.997808 0.00839804
-0.0592609 -0.0281334 0.997846 0.00525836
-0.0587973 -0.0274019 0.997894 0.00332043
-0.0594763 -0.0277477 0.997844 0.0033197
-0.0606607 -0.0276794 0.997775 0.00303449
-0.0620562 -0.028019 0.997679 0.00745006
-0.0634381 -0.0285097 0.997578 0.0121051
-0.0611099 -0.0283517 0.997728 0.0127839
-0.0600094 -0.0282808 0.997797 0.0110966
-0.0629927 -0.0285248 0.997606 0.01232
-0.063031 -0.0287469 0.997597 0.00953107
-0.0594811 -0.0285267 0.997822 0.00638423
-0.0584905 -0.0287018 0.997875 0.00788959
-0.0581706 -0.0288945 0.997888 0.00852246
-0.0592819 -0.0289897 0.99782 0.00556023
-0.060101 -0.0294952 0.997756 0.00645978
-0.0612838 -0.0288742 0.997703 0.0044028
-0.05849 -0.0296306 0.997848 0.00630225
-0.0571104 -0.0296732 0.997927 0.00555092
-0.0587516 -0.0295126 0.997836 0.00675084
-0.0575705 -0.0296731 0.9979 0.00423083
-0.0563578 -0.0296051 0.997972 0.00450541
-0.0549056 -0.0294336 0.998058 0.00182323
-0.0568061 -0.029337 0.997954 0.00377274
-0.0568437 -0.0293697 0.997951 0.00488737
-0.0583984 -0.0288783 0.997876 0.00434886
-0.0595644 -0.0288911 0.997806 0.00311372
-0.0578157 -0.0285808 0.997918 0.00253411
-0.0575796 -0.0281189 0.997945 0.00259234
-0.0601842 -0.0288148 0.997771 0.00539875
-0.0621778 -0.0282159 0.997666 0.00560575
-0.0606986 -0.0276757 0.997772 0.00252457
-0.0591456 -0.0285406 0.997841 0.00483721
-0.0588353 -0.0279185 0.997877 0.00212945
-0.0603962 -0.0275459 0.997794 0
-0.0605954 -0.0274239 0.997786 0
-0.061632 -0.0266438 0.997743 0
-0.0621568 -0.0270712 0.997699 0
-0.0595354 -0.0270844 0.997859 0
-0.0586351 -0.02724 0.997908 0
-0.0574565 -0.0279415 0.997957 0
-0.0554824 -0.0282222 0.998061 0
-0.0558456 -0.0285316 0.998032 0
-0.0578307 -0.0288701 0.997909 0.00315734
-0.0610943 -0.0290703 0.997709 0.00682359
-0.0635685 -0.0287495 0.997563 0.00764061
-0.0633967 -0.0286811 0.997576 0.0097224
-0.0605027 -0.0280618 0.997773 0.00733738
-0.0584939 -0.0279053 0.997898 0.00809925
-0.0565 -0.0280816 0.998008 0.00820069
-0.0552403 -0.0282067 0.998075 0.00912401
-0.0557194 -0.0274637 0.998069 0.00650131
-0.0552234 -0.0274993 0.998095 0.0054869
-0.0551518 -0.0273127 0.998104 0.0045818
-0.054433 -0.0276352 0.998135 0.00795393
-0.0589528 -0.0279258 0.99787 0.0109763
-0.0610899 -0.028561 0.997724 0.0115919
-0.0609837 -0.0287315 0.997725 0.011648
-0.0612475 -0.0287065 0.99771 0.0115183
-0.0588461 -0.0282963 0.997866 0.0082646
-0.0604735 -0.0286821 0.997758 0.00890116
-0.0586356 -0.0285978 0.99787 0.0068984
-0.0569541 -0.0285602 0.997968 0.00667607
-0.0534662 -0.0280162 0.998177 0.00414353
-0.0540148 -0.0276685 0.998157 0.00164739
-0.0546914 -0.0280181 0.99811 0
-0.0561333 -0.0275054 0.998044 0
-0.0576371 -0.026801 0.997978 0
-0.057074 -0.0266881 0.998013 0
-0.0534573 -0.0259605 0.998233 0
-0.0532806 -0.0256203 0.998251 0
-0.0544792 -0.0258944 0.998179 0
-0.056592 -0.0261022 0.998056 0
-0.058557 -0.02628 0.997938 0
-0.0567926 -0.026032 0.998047 0
-0.056125 -0.02559 0.998096 0
-0.0577141 -0.0253641 0.998011 0
-0.0566112 -0.025482 0.998071 0
-0.0580066 -0.0261823 0.997973 0
-0.0569668 -0.0257318 0.998044 0.000879429
-0.0571617 -0.0256656 0.998035 0.000403926
-0.057275 -0.0256527 0.998029 0.000802159
-0.0565251 -0.0249129 0.99809 0
-0.0576665 -0.0247484 0.998029 0
-0.05762 -0.0243382 0.998042 0.00018883
-0.0587062 -0.0236116 0.997996 0
-0.0597865 -0.0237591 0.997928 0.00151953
-0.0593718 -0.0231403 0.997968 0.000949425
-0.0608982 -0.022806 0.997883 0.0018819
-0.0608452 -0.0228518 0.997886 0.00238017
-0.0613735 -0.0232682 0.997844 0.00366199
-0.0623561 -0.0234326 0.997779 0.00571336
-0.0606611 -0.023886 0.997873 0.00505998
-0.0607152 -0.0237477 0.997873 0.00489464
-0.0606964 -0.0239428 0.997869 0.00690574
-0.0584808 -0.0236412 0.998009 0.00469998
-0.0576674 -0.0240393 0.998046 0.00416182
-0.0555515 -0.0234702 0.99818 0
-0.0527267 -0.0229984 0.998344 0.00182744
-0.0511538 -0.0227945 0.998431 0.00167645
-0.0503513 -0.0223543 0.998481 0
-0.0513256 -0.0223816 0.998431 0.000257124
-0.0528138 -0.0217342 0.998368 0.00232514
-0.052852 -0.0218023 0.998364 0.0029296
-0.0518207 -0.0218739 0.998417 0.00126212
-0.0501494 -0.0223239 0.998492 0.00305369
-0.0497401 -0.0225888 0.998507 0.00328836
-0.0505372 -0.0227981 0.998462 0.00270788
-0.053253 -0.0231495 0.998313 0.00474642
-0.0537019 -0.0225261 0.998303 0.00377559
-0.0519674 -0.0226453 0.998392 0.00504003
-0.0496171 -0.0231508 0.9985 0.00360302
-0.0505922 -0.0229164 0.998456 0.00208805
-0.0508982 -0.0228734 0.998442 0.00397144
-0.0531232 -0.0230841 0.998321 0.00641468
-0.0543463 -0.0232795 0.998251 0.00763742
-0.0537023 -0.0232217 0.998287 0.00860071
-0.0548048 -0.0229476 0.998233 0.00916483
-0.053573 -0.0224437 0.998312 0.00769751
-0.0540389 -0.022055 0.998295 0.00739158
-0.0528899 -0.0216479 0.998366 0.00704437
-0.0529928 -0.0213808 0.998366 0.00709495
-0.0554565 -0.0218669 0.998222 0.0097136
-0.0553325 -0.0212714 0.998241 0.00815933
-0.0549376 -0.0208288 0.998272 0.00691899
-0.0566705 -0.0213671 0.998164 0.0107977
-0.0534057 -0.0215872 0.99834 0.0111726
-0.0514054 -0.0211367 0.998454 0.00882549
-0.0524156 -0.0212728 0.998399 0.00728971
-0.0528034 -0.0207303 0.99839 0.00557991
-0.0525429 -0.020532 0.998408 0.00590118
-0.0525556 -0.0207606 0.998402 0.00577186
-0.0522757 -0.0211185 0.998409 0.00774639
-0.0522075 -0.0211801 0.998412 0.00720648
-0.0541068 -0.0209184 0.998316 0.00761948
-0.0547766 -0.0209956 0.998278 0.00734183
-0.0563812 -0.0213994 0.99818 0.00920234
-0.0539287 -0.0216918 0.998309 0.00878894
-0.0550892 -0.0219486 0.99824 0.00921749
-0.0574803 -0.022363 0.998096 0.010914
-0.0591189 -0.0225682 0.997996 0.0103943
-0.05692 -0.0218935 0.998139 0.00726078
-0.0567108 -0.0216567 0.998156 0.00727068
-0.0563892 -0.0215546 0.998176 0.00558247
-0.0577735 -0.0213796 0.998101 0.00738814
-0.0579527 -0.0212947 0.998092 0.00587195
-0.0591391 -0.0216446 0.998015 0.00615775
-0.0607023 -0.0221518 0.99791 0.0096248
-0.0597059 -0.0226977 0.997958 0.0102294
-0.0601651 -0.0227737 0.997929 0.00867473
-0.0584233 -0.0228602 0.99803 0.00695334
-0.0560475 -0.0223263 0.998178 0.00202214
-0.0546244 -0.0225015 0.998253 0.000133421
-0.0526605 -0.0227023 0.998354 0.00054835
-0.0541289 -0.023229 0.998264 0.00239917
-0.0566252 -0.0235869 0.998117 0.00521117
-0.0572408 -0.0234004 0.998086 0.00366085
-0.0598259 -0.023512 0.997932 0.00421816
-0.0617257 -0.0235615 0.997815 0.00484804
-0.0620392 -0.0238411 0.997789 0.00714655
-0.0605136 -0.0241636 0.997875 0.00655804
-0.0586415 -0.0240241 0.99799 0.00684649
-0.0564341 -0.0238741 0.998121 0.00229011
-0.0538738 -0.0238518 0.998263 0
-0.053839 -0.0236809 0.998269 0
-0.0546776 -0.0238551 0.998219 0
-0.0557155 -0.0244321 0.998148 0
-0.0564133 -0.0244724 0.998108 0
-0.0553523 -0.024678 0.998162 0
-0.0554821 -0.0247022 0.998154 0
-0.0574892 -0.0246975 0.998041 0
-0.0593898 -0.0252088 0.997917 0
-0.0607949 -0.0255674 0.997823 0
-0.0554763 -0.0254511 0.998136 0
-0.0532841 -0.0255565 0.998252 0
-0.0529546 -0.0256388 0.998268 0
-0.054071 -0.0260167 0.998198 0
-0.0531113 -0.0261124 0.998247 0
-0.0529552 -0.0266078 0.998242 0
-0.0547701 -0.0271638 0.998129 0
-0.0540944 -0.0268262 0.998175 0
-0.0531516 -0.0270416 0.99822 0
-0.0515405 -0.0268965 0.998309 0
-0.0484475 -0.0268203 0.998466 0
-0.0469092 -0.0268893 0.998537 0
-0.0506898 -0.0270869 0.998347 0
-0.0510057 -0.0271651 0.998329 0
-0.0525901 -0.0271387 0.998247 0
-0.0512083 -0.02711 0.99832 0
-0.0509588 -0.027347 0.998326 0
-0.0499493 -0.0274874 0.998373 0
-0.0510971 -0.0276636 0.99831 0
-0.0493364 -0.0275884 0.998401 0
-0.0495094 -0.0275174 0.998395 0
-0.0480156 -0.0273389 0.998472 0
-0.0459038 -0.0272101 0.998575 0
-0.0491236 -0.0272938 0.99842 0
-0.049956 -0.0272582 0.998379 0
-0.0495437 -0.0269384 0.998409 0
-0.0495917 -0.0271712 0.9984 0
-0.0502637 -0.0274114 0.99836 0.00259882
-0.0485667 -0.0264812 0.998469 0
-0.0476285 -0.0259964 0.998527 0
-0.0478152 -0.0258277 0.998522 0
-0.0484153 -0.0258459 0.998493 0
-0.0444643 -0.0257192 0.99868 0
-0.044153 -0.0256375 0.998696 0
-0.0465494 -0.02572 0.998585 0
-0.0457385 -0.0257766 0.998621 0
-0.0500872 -0.0263275 0.998398 0.00278943
-0.0448348 -0.0263924 0.998646 0.00207158
-0.0439449 -0.0266047 0.99868 0.00268698
-0.045485 -0.0263712 0.998617 0.00263949
-0.0467845 -0.0267072 0.998548 0.00350436
-0.0480801 -0.0270345 0.998478 0.00639931
-0.0475954 -0.0272696 0.998494 0.00841221
-0.0463317 -0.0268919 0.998564 0.00483356
-0.0468416 -0.0268693 0.998541 0.00209487
-0.0461752 -0.026379 0.998585 0.000833933
-0.0478838 -0.0264439 0.998503 0.000885419
-0.0504396 -0.0268182 0.998367 0.00715449
-0.0497482 -0.0265793 0.998408 0.00463075
-0.0513182 -0.0270868 0.998315 0.00856344
-0.0505445 -0.0268505 0.998361 0.0059271
-0.0508933 -0.0267075 0.998347 0.00605086
-0.0521457 -0.026658 0.998284 0.00316866
-0.0518507 -0.0266531 0.998299 0.00241227
-0.0525667 -0.0264126 0.998268 0.00162931
-0.0520818 -0.0264479 0.998293 0.00186096
-0.0503679 -0.026523 0.998379 0.000496419
-0.0488414 -0.0264898 0.998455 0
-0.0504952 -0.0270679 0.998357 0.00228715
-0.0515022 -0.0264944 0.998321 0.00207052
-0.0503109 -0.0265123 0.998382 0.000301761
-0.0518135 -0.0265774 0.998303 0.000305035
-0.0489052 -0.0266791 0.998447 0
-0.0493229 -0.0268654 0.998421 0
-0.0519222 -0.0268466 0.99829 0.000175146
-0.0522561 -0.0268297 0.998273 0
-0.0529735 -0.0273096 0.998222 0.0026228
-0.0540155 -0.0274138 0.998164 0.00263275
-0.0526565 -0.027317 0.998239 0.000633048
-0.0518919 -0.0269153 0.99829 0
-0.0537659 -0.0269232 0.998191 0
-0.0561774 -0.0268044 0.998061 0.000947606
-0.0563264 -0.0269394 0.998049 0.00196105
-0.0529952 -0.0267856 0.998235 0.00220092
-0.0514988 -0.0269051 0.998311 0.00145502
-0.0545588 -0.0273445 0.998136 0.00367095
-0.0549552 -0.0268475 0.998128 0.000961592
-0.0553583 -0.0268145 0.998106 0.00152625
-0.0538528 -0.0273038 0.998176 0.00450608
-0.0515754 -0.0269926 0.998304 0.00270057
-0.04966 -0.0268008 0.998407 0
-0.0505231 -0.0268011 0.998363 5.40245e-05
-0.0508434 -0.0271091 0.998339 0
-0.0525477 -0.0271052 0.99825 0
-0.0559933 -0.0268443 0.99807 0
-0.0569042 -0.0268029 0.99802 0
-0.0541513 -0.0269544 0.998169 0
-0.0510643 -0.0269043 0.998333 0
-0.0508617 -0.0269707 0.998342 0
-0.0512003 -0.0268909 0.998326 0
-0.053099 -0.0270218 0.998224 0
-0.0534372 -0.0269657 0.998207 0.0002737
-0.0543407 -0.0267289 0.998165 0
-0.0526271 -0.0266834 0.998258 0
-0.0511322 -0.0268517 0.998331 0
-0.0523079 -0.0269598 0.998267 0
-0.0507334 -0.0268865 0.99835 0
-0.0513209 -0.0271844 0.998312 0
-0.0526448 -0.0270789 0.998246 0
-0.0501963 -0.0271984 0.998369 0
-0.0486985 -0.0274308 0.998437 0
-0.0489271 -0.0274348 0.998426 0
-0.0508215 -0.0275444 0.998328 0
-0.0499729 -0.0275154 0.998371 0
-0.048692 -0.0275362 0.998434 0
-0.0481302 -0.027472 0.998463 0
-0.0492514 -0.0274753 0.998408 0
-0.0516725 -0.0274979 0.998285 0
-0.0491092 -0.0273329 0.998419 0
-0.0452952 -0.0272469 0.998602 0
-0.0465771 -0.0272322 0.998543 0
-0.0492532 -0.027344 0.998412 0
-0.0499511 -0.0273441 0.998377 0
-0.0513314 -0.027479 0.998304 0
-0.0475318 -0.0275474 0.99849 0
-0.0454213 -0.0277647 0.998582 0
-0.046527 -0.0279966 0.998525 0
-0.0490917 -0.0280275 0.998401 0
-0.0510318 -0.0280924 0.998302 0
-0.0498813 -0.0281576 0.998358 0
-0.0486753 -0.0284961 0.998408 0.00261063
-0.0480674 -0.0287186 0.998431 0.0025267
-0.0491737 -0.0287203 0.998377 0.0014711
-0.0494571 -0.0286373 0.998366 0.000474588
-0.0497054 -0.0289792 0.998343 0.00223758
-0.0492834 -0.0289553 0.998365 0.00289478
-0.0476369 -0.0289091 0.998446 0.00211483
-0.0469992 -0.0286192 0.998485 0
-0.049117 -0.0286159 0.998383 0
-0.0488271 -0.0285702 0.998399 0
-0.0465956 -0.0285173 0.998507 0.000936751
-0.0456096 -0.0284708 0.998554 0
-0.0485844 -0.02865 0.998408 0.000506689
-0.0484538 -0.0285802 0.998416 0
-0.048969 -0.0287787 0.998386 0
-0.0490991 -0.0289366 0.998375 0.000505154
-0.0464078 -0.0288721 0.998505 0
-0.0494073 -0.029015 0.998357 0
-0.0485261 -0.0291571 0.998396 0
-0.0509153 -0.029257 0.998274 0.000801319
-0.0516459 -0.0293328 0.998235 0.00185857
-0.0476737 -0.0292098 0.998436 0
-0.0465214 -0.0292301 0.99849 0
-0.0454646 -0.0291674 0.99854 0
-0.0455644 -0.0291671 0.998536 0
-0.0482759 -0.0293991 0.998401 0
-0.050308 -0.0295347 0.998297 0.00112114
-0.0536383 -0.029803 0.998116 0.00429421
-0.0549245 -0.0298668 0.998044 0.00485374
-0.0558829 -0.0298295 0.997992 0.00370773
-0.0547631 -0.0299737 0.998049 0.00524526
-0.0553952 -0.0302819 0.998005 0.00870618
-0.0536829 -0.030502 0.998092 0.0103076
-0.0543955 -0.0304647 0.998055 0.00872185
-0.0544948 -0.0305993 0.998045 0.00911274
-0.0546473 -0.0306491 0.998035 0.00772792
-0.0564641 -0.0308441 0.997928 0.00988455
-0.056031 -0.0308927 0.997951 0.00894628
-0.056876 -0.0310224 0.997899 0.0100249
-0.0564521 -0.0313315 0.997914 0.0143235
-0.0562384 -0.0314565 0.997922 0.01513
-0.0583818 -0.0313268 0.997803 0.0122696
-0.057963 -0.031528 0.997821 0.0137381
-0.058866 -0.0313398 0.997774 0.0102444
-0.0594346 -0.0313636 0.997739 0.0111732
-0.0562926 -0.0311691 0.997928 0.00789359
-0.0561258 -0.031071 0.99794 0.00512596
-0.0566752 -0.0311263 0.997907 0.00376149
-0.0576464 -0.0314753 0.997841 0.00675192
-0.0600868 -0.0317562 0.997688 0.00890598
-0.0607928 -0.0318733 0.997641 0.00870462
-0.0626501 -0.0322401 0.997515 0.010984
-0.0618777 -0.0327253 0.997547 0.0137317
-0.061168 -0.0329447 0.997584 0.0140684
-0.0595248 -0.0331213 0.997677 0.0126891
-0.0598803 -0.0330411 0.997659 0.00950934
-0.0604081 -0.0331699 0.997622 0.00916088
-0.0595653 -0.0334599 0.997664 0.00951382
-0.058634 -0.0335346 0.997716 0.00749275
-0.0602176 -0.0338466 0.997611 0.00850849
-0.061631 -0.0341787 0.997514 0.00909201
-0.0609197 -0.0343492 0.997551 0.00834936
-0.0599006 -0.0343823 0.997612 0.00621103
-0.058069 -0.0345321 0.997715 0.00621926
-0.0567193 -0.0346472 0.997789 0.00658878
-0.0533479 -0.0343259 0.997986 0.000775635
-0.0517193 -0.0343887 0.998069 5.98133e-05
-0.050164 -0.0345146 0.998144 0
-0.0503299 -0.0346729 0.998131 0
-0.0493395 -0.0348446 0.998174 0
-0.0505417 -0.0351184 0.998104 0
-0.0513842 -0.0354346 0.99805 0
-0.0534876 -0.035775 0.997927 0
-0.0555618 -0.0360659 0.997804 0
-0.0525676 -0.0363405 0.997956 0
-0.0530243 -0.0366164 0.997922 0
-0.0532827 -0.0369025 0.997897 0
-0.052527 -0.0371375 0.997929 0
-0.0516453 -0.0373969 0.997965 0
-0.0547921 -0.0375443 0.997792 0
-0.0558663 -0.0377451 0.997725 0
-0.0542499 -0.0379259 0.997807 0
-0.0556005 -0.0380443 0.997728 0
-0.0553356 -0.0381095 0.99774 0
-0.0552865 -0.0381509 0.997741 0
-0.0530849 -0.0381441 0.997861 0
-0.0530984 -0.0380901 0.997863 0
-0.0531178 -0.038115 0.997861 0
-0.0501172 -0.0381474 0.998015 0
-0.0498814 -0.0381812 0.998025 0
-0.0518395 -0.0381921 0.997925 0
-0.0547018 -0.0383062 0.997768 0.00120338
-0.055522 -0.0386602 0.997709 0.00482951
-0.055309 -0.0390515 0.997705 0.00856279
-0.0524736 -0.0388685 0.997866 0.00376063
-0.0502892 -0.0388095 0.99798 0.000605349
-0.0503399 -0.0390096 0.99797 0.00120342
-0.0487354 -0.0390866 0.998047 0
-0.0522014 -0.0391502 0.997869 0
-0.0544136 -0.0392577 0.997746 0
-0.0531448 -0.0393171 0.997813 0
-0.051989 -0.0393524 0.997872 0
-0.0516919 -0.0393443 0.997888 0
-0.0479185 -0.0392958 0.998078 0
-0.0493677 -0.039287 0.998008 0
-0.0505244 -0.0392875 0.99795 0
-0.0512033 -0.0391807 0.997919 0
-0.0522094 -0.0390226 0.997873 0
-0.0532233 -0.0388511 0.997827 0
-0.0531711 -0.0387555 0.997833 0
-0.0541001 -0.0386788 0.997786 0
-0.0527562 -0.0386138 0.997861 0
-0.0529692 -0.0387236 0.997845 0
-0.0525747 -0.038853 0.997861 0
-0.0511459 -0.0389662 0.997931 0
-0.0519477 -0.0391238 0.997883 0
-0.0504665 -0.039271 0.997953 0
-0.0518772 -0.0393855 0.997876 0
-0.0516223 -0.0393764 0.99789 0
-0.0522434 -0.0394462 0.997855 0
-0.0529392 -0.0394299 0.997819 0
-0.0539447 -0.0394615 0.997764 0
-0.0535491 -0.0394896 0.997784 0
-0.0552914 -0.0393436 0.997695 0
-0.0570382 -0.0396206 0.997586 0.00469535
-0.0579303 -0.0396165 0.997534 0.00622621
-0.0575088 -0.0394252 0.997566 0.00706387
-0.0580493 -0.0389555 0.997553 0.00512717
-0.0583696 -0.0387927 0.997541 0.00582957
-0.0587749 -0.0387316 0.99752 0.00769481
-0.0592014 -0.0384429 0.997505 0.00582483
-0.0569738 -0.0378903 0.997656 0.00130419
-0.056455 -0.0378436 0.997688 0.00167324
-0.0565329 -0.0377659 0.997686 0.00127997
-0.0571184 -0.0381771 0.997637 0.00415913
-0.0586678 -0.0384565 0.997537 0.00657346
-0.058313 -0.038284 0.997564 0.00521791
-0.0589172 -0.0384967 0.99752 0.0073117
-0.0586934 -0.0385041 0.997533 0.0074656
-0.0577247 -0.0378107 0.997616 0.00273891
-0.0588613 -0.0381289 0.997538 0.00526643
-0.0596163 -0.0384451 0.997481 0.00875748
-0.0595094 -0.038178 0.997497 0.00811052
-0.0587204 -0.037722 0.997562 0.00506154
-0.0601002 -0.0380604 0.997467 0.00826085
-0.0603371 -0.037618 0.997469 0.00729907
-0.0601434 -0.037028 0.997503 0.0047725
-0.0601423 -0.0365923 0.997519 0.00435682
-0.0595903 -0.035988 0.997574 0.00260097
-0.0591547 -0.0355483 0.997616 0.00181148
-0.0572886 -0.0349145 0.997747 0
-0.0584489 -0.0348235 0.997683 0.00106852
-0.0580168 -0.0343777 0.997724 0
-0.058899 -0.0344058 0.997671 0.00107628
-0.0584556 -0.0341058 0.997707 0
-0.0568372 -0.0337382 0.997813 0
-0.056796 -0.0335384 0.997822 6.07046e-05
-0.0568846 -0.0334555 0.99782 0
-0.0577852 -0.0189958 0.998148 0.00635104
-0.0585529 -0.0197184 0.99809 0.00902673
-0.0572695 -0.0182475 0.998192 0.00773089
-0.0556718 -0.0172817 0.9983 0.0061152
-0.0562796 -0.0171551 0.998268 0.00725933
-0.0568936 -0.0176765 0.998224 0.00655458
-0.057264 -0.0188217 0.998182 0.00738306
-0.0576423 -0.0193983 0.998149 0.00467221
-0.0575653 -0.0182129 0.998176 0.005589
-0.0574283 -0.0206174 0.998137 0.00276932
-0.0572104 -0.0199611 0.998163 0.00210802
-0.0566348 -0.0183565 0.998226 0.00053728
-0.057695 -0.0183944 0.998165 0
-0.0570302 -0.0182577 0.998205 0.000390554
-0.0576011 -0.0177086 0.998183 0
-0.0575711 -0.0187663 0.998165 0
-0.0570772 -0.0180048 0.998207 0
-0.0567898 -0.0179111 0.998226 0
-0.0570417 -0.0182113 0.998206 0
-0.0573513 -0.0179926 0.998192 0
-0.0580445 -0.0193309 0.998127 0.000431099
-0.058675 -0.0192381 0.998092 0.00239428
-0.0576844 -0.0180617 0.998172 0.000720199
-0.0583675 -0.0179677 0.998134 0.00173962
-0.0590818 -0.0192795 0.998067 0.00449354
-0.0587612 -0.0191663 0.998088 0.00583918
-0.0602322 -0.0200336 0.997983 0.00894068
-0.059949 -0.0201746 0.997998 0.00950284
-0.0599649 -0.0187213 0.998025 0.0056019
-0.0564066 -0.0171889 0.99826 0
-0.0555531 -0.0163089 0.998323 0
-0.0561763 -0.0162204 0.998289 0
-0.0549141 -0.0157647 0.998367 0
-0.0549964 -0.0149211 0.998375 0
-0.0556452 -0.0152471 0.998334 0
-0.0558776 -0.0170686 0.998292 0
-0.0569706 -0.0172739 0.998226 0
-0.0557198 -0.0178658 0.998287 0
-0.0562681 -0.0178749 0.998256 0
-0.0535789 -0.0173145 0.998414 0
-0.0552136 -0.0177904 0.998316 0
-0.057006 -0.0177042 0.998217 0
-0.0566638 -0.0172696 0.998244 0
-0.0573742 -0.0180141 0.99819 0
-0.0587268 -0.018825 0.998097 0
-0.0601224 -0.0202007 0.997987 0.00164865
-0.0598492 -0.0196404 0.998014 0.000978325
-0.0600356 -0.0195761 0.998004 0.00193684
-0.0608478 -0.0197645 0.997951 0.00444942
-0.058818 -0.0183268 0.9981 0.000494129
-0.0576738 -0.018566 0.998163 0
-0.056945 -0.0189262 0.998198 1.93717e-05
-0.0585175 -0.0198935 0.998088 0.00311848
-0.0597727 -0.0203241 0.998005 0.00533687
-0.0578177 -0.0196993 0.998133 0.00348984
-0.0593945 -0.0196631 0.998041 0.00396599
-0.0558951 -0.0180391 0.998274 0
-0.0565801 -0.0190247 0.998217 0.0011816
-0.0598055 -0.0189552 0.99803 0.0026627
-0.0574755 -0.0184409 0.998177 0
-0.0556318 -0.0177602 0.998293 0
-0.0529622 -0.0171061 0.99845 0
-0.0521048 -0.0158343 0.998516 0
-0.0493168 -0.0155968 0.998661 0
-0.0493423 -0.0167605 0.998641 0
-0.0494342 -0.0176062 0.998622 0
-0.0506532 -0.0179857 0.998554 0
-0.0485486 -0.017833 0.998662 0
-0.046772 -0.0181345 0.998741 0
-0.0489808 -0.01861 0.998626 0
-0.0504666 -0.0188764 0.998547 0
-0.0491645 -0.0175884 0.998636 0
-0.0510874 -0.0187251 0.998519 0
-0.0535532 -0.0192819 0.998379 0.000647572
-0.0535875 -0.0193338 0.998376 0.00367698
-0.0535426 -0.0191708 0.998382 0.00280958
-0.050889 -0.0189888 0.998524 0.000906774
-0.0501116 -0.0191069 0.998561 0
-0.0513738 -0.0199143 0.998481 0
-0.0523533 -0.0200534 0.998427 0.00198519
-0.0521643 -0.0201318 0.998436 0.00163024
-0.0516965 -0.0200924 0.998461 0.00100361
-0.0510434 -0.0197929 0.9985 0.000695927
-0.0512898 -0.0202532 0.998478 0.00206713
-0.047261 -0.0193902 0.998694 0
-0.0464148 -0.0193873 0.998734 0
-0.0490614 -0.0194256 0.998607 0
-0.0519334 -0.0202307 0.998446 0.00344821
-0.0491018 -0.0195432 0.998603 0
-0.0496979 -0.019237 0.998579 0
-0.0489754 -0.019041 0.998618 0
-0.0481267 -0.0193797 0.998653 0
-0.0468047 -0.0199014 0.998706 0.000272652
-0.0489603 -0.0203732 0.998593 0.00425391
-0.05089 -0.0197978 0.998508 0.00315344
-0.050754 -0.0191782 0.998527 0.00270516
-0.0517499 -0.0191899 0.998476 0.00201546
-0.0535154 -0.019691 0.998373 0.00430022
-0.0529982 -0.019704 0.9984 0.00357361
-0.0562358 -0.020064 0.998216 0.00538074
-0.0569308 -0.0197467 0.998183 0.00414359
-0.0568322 -0.0204678 0.998174 0.00474265
-0.0543089 -0.0208997 0.998305 0.00341832
-0.0570581 -0.0211103 0.998148 0.0062244
-0.0564384 -0.0218669 0.998167 0.00807491
-0.0534793 -0.0214904 0.998338 0.00638508
-0.0533137 -0.0221066 0.998333 0.00840464
-0.0537724 -0.0217433 0.998316 0.00418013
-0.055762 -0.0220946 0.9982 0.00769916
-0.0561464 -0.0228175 0.998162 0.00981813
-0.0552347 -0.0217791 0.998236 0.00638966
-0.0546701 -0.021558 0.998272 0.00392304
-0.0550918 -0.0213413 0.998253 0.00476511
-0.0548249 -0.0209077 0.998277 0.00306506
-0.0563563 -0.0206526 0.998197 0.000480086
-0.0573567 -0.0210996 0.998131 0.00402833
-0.0563775 -0.021802 0.998171 0.0047139
-0.0559632 -0.0224575 0.99818 0.00435426
-0.0536977 -0.0226796 0.9983 0.00298488
-0.0538223 -0.0223721 0.9983 0
-0.0547383 -0.0230865 0.998234 0.000585789
-0.0533359 -0.0226151 0.998321 0
-0.0550337 -0.0230452 0.998219 0
-0.0563284 -0.0238426 0.998128 0
-0.0548492 -0.0236668 0.998214 0
-0.0540521 -0.0230569 0.998272 0
-0.052055 -0.0228893 0.998382 0
-0.0526385 -0.0229185 0.998351 0
-0.0554236 -0.0238526 0.998178 0
-0.0545936 -0.0241084 0.998218 0
-0.0542506 -0.0239055 0.998241 0
-0.0531901 -0.0243391 0.998288 3.72366e-05
-0.0522935 -0.0246132 0.998328 0.0041358
-0.0537044 -0.0249436 0.998245 0.0060679
-0.0539104 -0.0247877 0.998238 0.00392199
-0.0580362 -0.0256712 0.997984 0.00909183
-0.0597963 -0.0252982 0.99789 0.00973212
-0.0601473 -0.0245879 0.997887 0.0122082
-0.0591229 -0.0243274 0.997954 0.0106581
-0.0576972 -0.0241849 0.998041 0.00938974
-0.0540883 -0.0244635 0.998236 0.010559
-0.0563485 -0.0248978 0.998101 0.0109301
-0.0530925 -0.0245892 0.998287 0.00964344
-0.055086 -0.0244343 0.998183 0.00913111
-0.0531824 -0.0242698 0.99829 0.00801116
-0.0536449 -0.0237647 0.998277 0.00678643
-0.0526889 -0.0230367 0.998345 0.00443114
-0.0512289 -0.0231283 0.998419 0.00495324
-0.0513955 -0.0230001 0.998414 0.00263067
-0.0485028 -0.0225924 0.998568 0.000405134
-0.0492771 -0.0220827 0.998541 0
-0.0485903 -0.0223307 0.998569 0
-0.0504339 -0.0224119 0.998476 0
-0.0503392 -0.0226943 0.998474 0.000791436
-0.049432 -0.0229299 0.998514 0
-0.0491119 -0.0236981 0.998512 0.000758119
-0.0482834 -0.0241259 0.998542 0
-0.0478007 -0.0244259 0.998558 0
-0.0472459 -0.0246219 0.99858 0
-0.0498407 -0.0249531 0.998445 0.00174751
-0.0493315 -0.0262887 0.998436 0.00658198
-0.0471906 -0.0265279 0.998534 0.00497656
-0.0480017 -0.0261173 0.998506 0.00303758
-0.0470625 -0.0263981 0.998543 0.00320133
-0.0518913 -0.0268628 0.998291 0.00371195
-0.053021 -0.0272241 0.998222 0.00364314
-0.0499012 -0.0269019 0.998392 0.00106439
-0.0483767 -0.0271068 0.998461 0.00331571
-0.047267 -0.0267118 0.998525 0.00123145
-0.0474627 -0.0267569 0.998515 0
-0.0490388 -0.0259966 0.998459 0
-0.0521263 -0.0255984 0.998312 0
-0.0494167 -0.0246736 0.998473 0
-0.0494684 -0.0252445 0.998457 0
-0.0462095 -0.0245837 0.998629 0
-0.0476402 -0.0245443 0.998563 0
-0.0483888 -0.0243791 0.998531 0
-0.0501444 -0.0245855 0.998439 0
-0.0508282 -0.0248199 0.998399 0
-0.0524911 -0.0253024 0.998301 0
