# .PCD v0.7 - Point Cloud Data file format
VERSION 0.7
FIELDS x y z
SIZE 4 4 4
TYPE F F F
COUNT 1 1 1
WIDTH 1370
HEIGHT 1
VIEWPOINT 0 0 0 1 0 0 0
POINTS 1370
DATA ascii
-0.067739002 0.14307466 -0.22619633
-0.067569494 0.143103 -0.22618499
-0.067258999 0.14311674 -0.22614488
-0.067111671 0.143115 -0.22610499
-0.066965334 0.14310767 -0.22612934
-0.066427 0.14308633 -0.22605467
-0.066260166 0.14307301 -0.22604384
-0.066110395 0.14308061 -0.2260128
-0.062912337 0.14310682 -0.22604285
-0.062725 0.14309382 -0.22608668
-0.062514119 0.14309064 -0.22616938
-0.067558996 0.143351 -0.22619601
-0.067265287 0.14328842 -0.22615744
-0.067102998 0.14332832 -0.22611666
-0.066957667 0.14332034 -0.226119
-0.066418998 0.143299 -0.22605699
-0.066252165 0.14328533 -0.22603583
-0.066173665 0.14328367 -0.22600865
-0.065996669 0.14327233 -0.226009
-0.062897004 0.14331999 -0.2260154
-0.062716998 0.14330749 -0.22607319
-0.062495895 0.14329445 -0.22616622
-0.067724004 0.143465 -0.226198
-0.067553662 0.143493 -0.22618966
-0.067265145 0.14347129 -0.22615615
-0.067147501 0.143508 -0.22613126
-0.0669505 0.143498 -0.22612399
-0.06641034 0.14351134 -0.22605401
-0.066243999 0.143498 -0.22603483
-0.066165663 0.14349668 -0.22600633
-0.065988332 0.14348467 -0.22600599
-0.062898248 0.1434985 -0.22601776
-0.062708996 0.143521 -0.22606601
-0.062498 0.14349926 -0.22617212
-0.062343001 0.14351624 -0.22619751
-0.067740671 0.14376433 -0.22618668
-0.067546338 0.14370666 -0.22616868
-0.067267336 0.14369583 -0.22614999
-0.067140497 0.14368616 -0.22612767
-0.066943668 0.14367533 -0.226117
-0.066403002 0.1436895 -0.22606501
-0.066259138 0.1437227 -0.22603871
-0.06615667 0.143709 -0.226016
-0.065982997 0.143628 -0.22600099
-0.062876664 0.14369732 -0.22601001
-0.062701494 0.14369801 -0.22608
-0.062522165 0.14372332 -0.22615266
-0.062393669 0.14371599 -0.22618401
-0.067740992 0.14391661 -0.22617979
-0.067538328 0.14392 -0.22615367
-0.067260005 0.14390899 -0.22612734
-0.067132831 0.14389917 -0.22611432
-0.066935666 0.14388867 -0.22611199
-0.066269621 0.14391887 -0.22602899
-0.066148661 0.14392167 -0.226007
-0.062882833 0.14388834 -0.22601934
-0.062695496 0.14387584 -0.2260595
-0.062516242 0.14390251 -0.22613075
-0.062386997 0.143894 -0.22617799
-0.06787467 0.14407933 -0.22619499
-0.067751005 0.1440886 -0.22618739
-0.067532495 0.144098 -0.226143
-0.067250997 0.14412135 -0.22614019
-0.067124665 0.14411201 -0.22611384
-0.066927999 0.14410199 -0.22609501
-0.066331193 0.14408842 -0.22603659
-0.066196501 0.14410099 -0.2260205
-0.062678799 0.1440752 -0.22604179
-0.062509835 0.14408065 -0.22611415
-0.062360249 0.144088 -0.22616699
-0.068077669 0.14430167 -0.22618634
-0.067866504 0.144291 -0.22619751
-0.067735337 0.1442865 -0.22617668
-0.067524999 0.14427534 -0.22614968
-0.067244999 0.144299 -0.22612
-0.067106403 0.14431 -0.2261076
-0.066919334 0.14431365 -0.22609834
-0.066323996 0.14427319 -0.2260336
-0.066190332 0.14427833 -0.22601366
-0.062631004 0.14430033 -0.22604167
-0.062503666 0.1442945 -0.22607034
-0.062318433 0.14429185 -0.22616814
-0.068071999 0.14444301 -0.226193
-0.067910396 0.144492 -0.22619501
-0.067727335 0.14449966 -0.22616684
-0.067516334 0.14448734 -0.22615933
-0.067237832 0.14447652 -0.22612034
-0.067120597 0.144482 -0.226109
-0.066911332 0.14452767 -0.22609067
-0.066301331 0.14449917 -0.22601832
-0.066180497 0.144526 -0.22600299
-0.062648244 0.14449801 -0.22602549
-0.062494993 0.14450733 -0.22607601
-0.062311143 0.14450528 -0.22614156
-0.0620986 0.1444954 -0.22618821
-0.068060666 0.14472733 -0.22619002
-0.067891493 0.14475475 -0.22619301
-0.067719333 0.14471233 -0.22615834
-0.067508332 0.14470066 -0.22614498
-0.067230336 0.1446895 -0.226107
-0.067103006 0.1446795 -0.22609733
-0.066904999 0.14470449 -0.226073
-0.066293165 0.14471166 -0.22601783
-0.066174001 0.14470333 -0.22601034
-0.062615998 0.14472733 -0.22601134
-0.062486839 0.14472067 -0.22606683
-0.062284555 0.14470755 -0.22612503
-0.062105626 0.14470437 -0.22618212
-0.068053998 0.144904 -0.226183
-0.067886248 0.14489651 -0.22618599
-0.067703396 0.1449104 -0.22615018
-0.067499667 0.14491402 -0.22614168
-0.067248665 0.14490567 -0.226097
-0.067128882 0.14489567 -0.22608869
-0.066899002 0.14488266 -0.22605835
-0.066270992 0.14490901 -0.22601819
-0.066165335 0.14491667 -0.22600932
-0.062609501 0.144905 -0.226008
-0.062479749 0.1448985 -0.22606824
-0.062276226 0.14492112 -0.22612
-0.062105112 0.14490968 -0.22616111
-0.068047337 0.14508267 -0.226175
-0.067880169 0.14507517 -0.22617082
-0.067713797 0.14508298 -0.22615321
-0.067492336 0.14512633 -0.226128
-0.067240335 0.14511834 -0.226097
-0.067120776 0.145109 -0.2260801
-0.066889994 0.14509533 -0.22606234
-0.066353999 0.14500301 -0.226008
-0.062603503 0.14504799 -0.226007
-0.062474001 0.14507683 -0.226041
-0.062283397 0.1450928 -0.22611579
-0.062107097 0.14512399 -0.22615841
-0.061976001 0.145188 -0.226199
-0.068039335 0.14529566 -0.226164
-0.067872167 0.14528716 -0.22616184
-0.067697667 0.14528067 -0.22614683
-0.067485005 0.14530501 -0.226136
-0.067233503 0.14529499 -0.22608551
-0.067112781 0.14532156 -0.22607377
-0.066882335 0.14530933 -0.22605331
-0.062467169 0.14529 -0.22601099
-0.062298495 0.14527951 -0.22607465
-0.062125444 0.14529155 -0.22612879
-0.061972499 0.14529499 -0.22618651
-0.068423003 0.145532 -0.226193
-0.068247497 0.14556 -0.226189
-0.068107493 0.14551418 -0.22617382
-0.067863837 0.14550033 -0.22616017
-0.067690007 0.14549382 -0.22613066
-0.067478336 0.14548235 -0.22612767
-0.067226671 0.14547266 -0.22608466
-0.067106336 0.14549901 -0.22606766
-0.066874333 0.14552234 -0.22604366
-0.062450398 0.14550301 -0.2260102
-0.062291667 0.145493 -0.22604001
-0.06211016 0.14548075 -0.22611916
-0.061965335 0.14547335 -0.22618167
-0.068417333 0.14567433 -0.22619133
-0.068241499 0.145702 -0.22619399
-0.068085 0.1457106 -0.2261616
-0.067855999 0.14571284 -0.22614884
-0.067681663 0.14570667 -0.22612365
-0.067470662 0.14569433 -0.22611468
-0.067219332 0.14568533 -0.226068
-0.067099437 0.14567643 -0.22605902
-0.066867501 0.145698 -0.22604001
-0.062409498 0.145679 -0.2260185
-0.062283169 0.145706 -0.22604799
-0.062102664 0.14569366 -0.22609709
-0.061938751 0.14570475 -0.22617149
-0.068409331 0.14588635 -0.22617768
-0.068274505 0.14588134 -0.22619367
-0.068108805 0.14588359 -0.22616939
-0.067848496 0.14592566 -0.22612782
-0.067674004 0.14591967 -0.22611134
-0.067462333 0.14590733 -0.22610934
-0.06721133 0.14589833 -0.22605832
-0.067091554 0.14588946 -0.22605255
-0.066860668 0.14587568 -0.22603701
-0.062257249 0.14590001 -0.226028
-0.062095087 0.14590725 -0.22608157
-0.061913837 0.1458995 -0.22615318
-0.068674505 0.14615101 -0.2261935
-0.068402499 0.146064 -0.22617501
-0.068285428 0.14610413 -0.22618571
-0.068085998 0.14608116 -0.22615634
-0.067884505 0.14610401 -0.226138
-0.067698285 0.14611287 -0.22610685
-0.067455001 0.14612032 -0.226089
-0.067203335 0.14611167 -0.22604734
-0.067108579 0.14609371 -0.22604415
-0.066910997 0.1461062 -0.2260174
-0.062230997 0.14609399 -0.226016
-0.062087078 0.14612009 -0.22606957
-0.061905503 0.14611232 -0.2261465
-0.068575002 0.146391 -0.226199
-0.068302996 0.14630845 -0.22618191
-0.068078332 0.146294 -0.22614266
-0.067877673 0.146282 -0.22612934
-0.06771487 0.14628564 -0.22610199
-0.067448497 0.14629799 -0.22607949
-0.067144118 0.14631966 -0.22603866
-0.066882499 0.14628525 -0.22601101
-0.062227 0.1462 -0.22600199
-0.062081251 0.14629799 -0.22604811
-0.061912291 0.14633642 -0.22612444
-0.068708003 0.14650774 -0.22619274
-0.068515003 0.14653033 -0.22619767
-0.068295106 0.1465219 -0.2261721
-0.068145998 0.14651233 -0.22616167
-0.067931667 0.14649801 -0.22612232
-0.067696996 0.14648911 -0.22608556
-0.067441665 0.146475 -0.22607499
-0.067129575 0.14651144 -0.22603531
-0.066835999 0.14655 -0.22600201
-0.0622175 0.146449 -0.226006
-0.062095247 0.14646888 -0.22602862
-0.061925828 0.14650367 -0.22610599
-0.0617695 0.14649901 -0.22618949
-0.068701334 0.14668466 -0.22618516
-0.068542749 0.14669125 -0.22619775
-0.06828817 0.14669883 -0.22616948
-0.068138339 0.146725 -0.22614999
-0.067923829 0.14671166 -0.2261125
-0.067700125 0.14669324 -0.22607476
-0.067475751 0.14670725 -0.22606376
-0.067136995 0.14668411 -0.226019
-0.062102165 0.14669167 -0.22601734
-0.061919332 0.14668132 -0.22609101
-0.061762664 0.14667635 -0.22619002
-0.068693168 0.14689766 -0.22618683
-0.068473995 0.14688267 -0.22619067
-0.068324007 0.14687817 -0.22615451
-0.068171397 0.14688459 -0.2261472
-0.067915663 0.14692383 -0.226108
-0.067723669 0.14691682 -0.22607899
-0.067510493 0.14690417 -0.22605567
-0.067129001 0.14689675 -0.2260125
-0.062085111 0.14690466 -0.22601244
-0.061911445 0.14689468 -0.2260811
-0.061754663 0.14689033 -0.22618067
-0.06888967 0.14711867 -0.22618766
-0.068684667 0.14711066 -0.2261855
-0.068506829 0.14709817 -0.22618167
-0.068315834 0.14709117 -0.22615217
-0.068157166 0.14708216 -0.22614217
-0.067909256 0.14710051 -0.22609702
-0.067717001 0.14709449 -0.22607851
-0.067501999 0.14711682 -0.22605766
-0.06711489 0.14709933 -0.22601011
-0.06206625 0.14709876 -0.22600375
-0.061903555 0.1471079 -0.22607245
-0.061709803 0.14711539 -0.22617559
-0.068882495 0.147296 -0.22618601
-0.068677001 0.14732316 -0.22617118
-0.0684985 0.14731084 -0.22617449
-0.068307839 0.14730383 -0.226143
-0.068149336 0.147295 -0.22613032
-0.067902498 0.14727867 -0.22609232
-0.067709833 0.1472725 -0.22607632
-0.067477196 0.14731482 -0.22605899
-0.067107007 0.14729229 -0.22600798
-0.06189578 0.14732069 -0.22606103
-0.061715998 0.1472975 -0.22617626
-0.06887567 0.14747334 -0.22618835
-0.068670243 0.1475005 -0.22616701
-0.068490498 0.14752334 -0.22617418
-0.068299331 0.147517 -0.22614534
-0.068140835 0.14750783 -0.22613434
-0.067894168 0.14749134 -0.22609268
-0.067702331 0.14748484 -0.22606301
-0.067505002 0.14748621 -0.22604699
-0.06710425 0.14753425 -0.22600701
-0.06185475 0.14749876 -0.226063
-0.061676197 0.14751221 -0.22616979
-0.068868004 0.14768633 -0.22617333
-0.068663165 0.14767815 -0.22616351
-0.0684845 0.147701 -0.22615525
-0.068282999 0.1477152 -0.22613041
-0.068133168 0.1477205 -0.22612166
-0.067886166 0.1477045 -0.22608449
-0.067692839 0.14769767 -0.22607766
-0.067565672 0.14768733 -0.22602433
-0.067396335 0.14768066 -0.22603834
-0.062059 0.147613 -0.22601201
-0.06184883 0.14767633 -0.22604685
-0.061688602 0.1476846 -0.22615039
-0.069294997 0.147993 -0.226198
-0.069085002 0.14795101 -0.22619
-0.068860002 0.14789833 -0.22615899
-0.068655498 0.14789082 -0.22615565
-0.068477668 0.14787833 -0.22615433
-0.068295598 0.1478858 -0.2261188
-0.068126753 0.1478985 -0.226105
-0.067878328 0.14791699 -0.22607
-0.067685992 0.14791083 -0.22605167
-0.067556329 0.14790066 -0.22604667
-0.067387998 0.14789434 -0.22603166
-0.067037001 0.147806 -0.22600099
-0.061864663 0.1478655 -0.22604115
-0.061690144 0.14789356 -0.22613402
-0.069119498 0.14811149 -0.22619624
-0.068851665 0.14811166 -0.22616632
-0.068657003 0.14808999 -0.22615162
-0.06848786 0.14810327 -0.22614117
-0.068278 0.14808434 -0.22612466
-0.068119504 0.14807518 -0.22611384
-0.067858003 0.1481148 -0.22607419
-0.067677833 0.14812317 -0.22604632
-0.067548335 0.148113 -0.22603767
-0.067380004 0.14810567 -0.22601867
-0.067078002 0.148021 -0.22600199
-0.061869998 0.14810334 -0.22601199
-0.061707444 0.14809801 -0.22611481
-0.069280997 0.148349 -0.226198
-0.069127448 0.14827177 -0.22618477
-0.068843335 0.14832433 -0.226166
-0.068686001 0.14831834 -0.22614801
-0.068505011 0.14830767 -0.22614111
-0.068269499 0.14829718 -0.22612816
-0.06811133 0.14828901 -0.22611333
-0.067895502 0.14827301 -0.22606924
-0.067696601 0.1483084 -0.22604981
-0.067540668 0.14832534 -0.22603001
-0.067371666 0.14831834 -0.22602566
-0.061699338 0.14831099 -0.22610889
-0.069275998 0.14849032 -0.226189
-0.069119215 0.14848445 -0.22618379
-0.068837501 0.14850101 -0.22614449
-0.068679005 0.148496 -0.226146
-0.068496883 0.14852034 -0.22613923
-0.068261839 0.1485095 -0.22610985
-0.068103336 0.14850016 -0.22610068
-0.06791833 0.14848667 -0.22606467
-0.067707665 0.14847833 -0.22604865
-0.0675335 0.14850301 -0.2260285
-0.067364499 0.148496 -0.226026
-0.0618545 0.1484935 -0.226016
-0.061716858 0.148515 -0.22610486
-0.061598502 0.148555 -0.22616649
-0.069267668 0.14870365 -0.22619067
-0.069111004 0.14869733 -0.22618167
-0.068830661 0.14867868 -0.22613765
-0.068673 0.14867266 -0.22613066
-0.068477571 0.14871188 -0.22612928
-0.068253502 0.14872183 -0.226107
-0.068095669 0.14871281 -0.22608751
-0.067910664 0.1487 -0.226053
-0.067699224 0.148691 -0.22604789
-0.067526333 0.14868067 -0.22603267
-0.067358337 0.14867367 -0.22601199
-0.061847001 0.14867167 -0.22602534
-0.061728254 0.1487035 -0.2261
-0.061593503 0.148698 -0.226166
-0.069260001 0.14891499 -0.22617699
-0.069102556 0.14890935 -0.22617954
-0.068821996 0.14889133 -0.22614498
-0.068663992 0.14888532 -0.22613168
-0.068526 0.14887717 -0.22612034
-0.068317197 0.14889459 -0.22610478
-0.068100832 0.14891499 -0.22608866
-0.067902334 0.14891233 -0.22604799
-0.067691445 0.14890355 -0.22603467
-0.067517996 0.14889334 -0.22603166
-0.067349672 0.14888634 -0.22602002
-0.061853752 0.148901 -0.22602624
-0.061720997 0.14888184 -0.22610666
-0.061586004 0.14887466 -0.22617434
-0.069251336 0.14912735 -0.22617935
-0.06909433 0.14912233 -0.22617489
-0.068814002 0.14910467 -0.22613935
-0.068655998 0.14909866 -0.22612667
-0.068517335 0.14909017 -0.22612466
-0.068339668 0.14908017 -0.22609933
-0.068126872 0.14908013 -0.22609624
-0.067894004 0.14912499 -0.226043
-0.067726664 0.14911717 -0.22605251
-0.067552835 0.14911 -0.22602266
-0.067341663 0.14909834 -0.22600633
-0.061829668 0.14909767 -0.22603633
-0.061712667 0.14909483 -0.22610568
-0.061576996 0.14908867 -0.22618866
-0.069512002 0.149211 -0.226199
-0.069244504 0.149305 -0.22618
-0.069087669 0.14930016 -0.22616935
-0.068805665 0.14931734 -0.22612965
-0.068648003 0.14931135 -0.226128
-0.06850934 0.14930284 -0.22611566
-0.068330832 0.14929284 -0.22610867
-0.068110555 0.14928289 -0.22608821
-0.067887001 0.14930201 -0.2260465
-0.067719996 0.1492945 -0.226042
-0.067544334 0.14932267 -0.22602235
-0.06182133 0.14931001 -0.22603233
-0.061704334 0.149308 -0.22610401
-0.061568003 0.14930134 -0.22619466
-0.069499001 0.14953101 -0.226198
-0.069237672 0.14948267 -0.22618067
-0.069080554 0.14947723 -0.22617701
-0.068702996 0.1495124 -0.22613141
-0.068501502 0.14951499 -0.22610682
-0.068322003 0.14950566 -0.22611468
-0.068102449 0.14949499 -0.2260831
-0.067880996 0.149479 -0.22603567
-0.067722395 0.1494576 -0.226037
-0.067523666 0.14948635 -0.22601867
-0.067322001 0.14959399 -0.22600199
-0.061813999 0.14952266 -0.22601999
-0.061695334 0.14952134 -0.22611833
-0.061561003 0.14948 -0.22619399
-0.069491997 0.14970833 -0.22619568
-0.069229335 0.14969534 -0.22617567
-0.069072448 0.14968956 -0.22616833
-0.068727598 0.14968321 -0.2261426
-0.068484597 0.14971259 -0.2261128
-0.068313837 0.14971817 -0.22611266
-0.068094 0.14970766 -0.22608644
-0.067872003 0.14969166 -0.22604866
-0.067704834 0.14968382 -0.2260385
-0.067530997 0.14967734 -0.22600967
-0.067319997 0.149666 -0.22600301
-0.061804999 0.14970049 -0.22604799
-0.061687749 0.14969951 -0.22613199
-0.069484673 0.14992066 -0.22617535
-0.069220997 0.14990868 -0.22617202
-0.069064327 0.14990264 -0.22616301
-0.068704166 0.14988166 -0.22613598
-0.0684954 0.1498846 -0.22612341
-0.068306498 0.14989549 -0.22611475
-0.06808544 0.14992033 -0.22608601
-0.067864336 0.14990433 -0.22603066
-0.067696668 0.14989601 -0.22603583
-0.067522667 0.1498905 -0.22601068
-0.061842334 0.14987701 -0.22603101
-0.061709501 0.14988637 -0.226116
-0.061547998 0.1498 -0.226199
-0.069477499 0.150098 -0.22618851
-0.069213331 0.15012102 -0.226162
-0.069063127 0.15010637 -0.22616538
-0.068998002 0.150185 -0.226164
-0.068695836 0.150094 -0.22613448
-0.068477668 0.15008284 -0.22613551
-0.068300836 0.15007217 -0.22609432
-0.068079002 0.15009783 -0.22607817
-0.067856006 0.15011732 -0.22602433
-0.067688502 0.15010951 -0.22602485
-0.067530662 0.150057 -0.22600333
-0.061856002 0.15009034 -0.22601967
-0.061710998 0.15009077 -0.22611433
-0.069469996 0.15027533 -0.226192
-0.069205001 0.150299 -0.226188
-0.069076248 0.15029299 -0.226162
-0.068992332 0.15032767 -0.22616868
-0.068687998 0.15030666 -0.22612365
-0.068470173 0.15029584 -0.22612183
-0.068293504 0.15028517 -0.22607635
-0.068081371 0.150267 -0.22607026
-0.067899339 0.15030999 -0.22604634
-0.067680165 0.15032183 -0.22602482
-0.061899502 0.15031762 -0.22601311
-0.061702557 0.15030478 -0.22611734
-0.069460005 0.15052401 -0.22619149
-0.069201 0.150406 -0.22618499
-0.069101878 0.150481 -0.22615738
-0.068985999 0.15050399 -0.22615701
-0.068696201 0.1505058 -0.22612341
-0.06848143 0.15051945 -0.22611471
-0.068284333 0.15049784 -0.22608835
-0.068099 0.15049034 -0.22606766
-0.067918502 0.15047699 -0.226043
-0.067673497 0.15049949 -0.22602099
-0.061864838 0.15051983 -0.22601517
-0.061693337 0.15051767 -0.22613178
-0.069453336 0.15070067 -0.22618566
-0.069104776 0.15068433 -0.22615467
-0.068979666 0.15068066 -0.22614832
-0.068751998 0.150699 -0.226118
-0.068500444 0.15072277 -0.22610699
-0.068276502 0.15071 -0.226081
-0.06809067 0.15070234 -0.22606815
-0.067910157 0.15068984 -0.22604133
-0.067658998 0.15066199 -0.22600821
-0.061909497 0.15070176 -0.22601549
-0.061686162 0.15069634 -0.22613502
-0.069773003 0.15093 -0.226199
-0.069444992 0.150914 -0.22619267
-0.06909655 0.1508971 -0.2261481
-0.068971001 0.150894 -0.22614799
-0.068745337 0.15087666 -0.22611301
-0.068493664 0.15090117 -0.22610217
-0.068286724 0.15093456 -0.22607972
-0.068082161 0.15091585 -0.22606717
-0.067939252 0.150923 -0.22603974
-0.067637496 0.15088825 -0.22600199
-0.061902002 0.15087907 -0.22602718
-0.061719 0.15087466 -0.22612651
-0.061598502 0.150837 -0.2261955
-0.06981767 0.151077 -0.22619534
-0.069770999 0.151002 -0.22619499
-0.069436997 0.15112734 -0.22618167
-0.069088444 0.15111056 -0.22614646
-0.068962336 0.15110733 -0.22615866
-0.068737 0.15108965 -0.22611167
-0.068532497 0.15108149 -0.22609814
-0.068305664 0.151103 -0.22607882
-0.068066999 0.1511144 -0.2260572
-0.067893662 0.151116 -0.22603334
-0.061878197 0.1510841 -0.22603638
-0.061710168 0.15108816 -0.22613616
-0.069809668 0.15128933 -0.226189
-0.069682501 0.15132 -0.22619475
-0.069429502 0.15130499 -0.22618601
-0.06909012 0.15131448 -0.22614661
-0.068965495 0.15133774 -0.22614649
-0.068728335 0.15130199 -0.22611535
-0.068524331 0.15129416 -0.22608848
-0.068311498 0.15127151 -0.22607487
-0.068096824 0.15129517 -0.2260545
-0.067963004 0.151298 -0.2260475
-0.061885249 0.15130508 -0.22602558
-0.061701998 0.15130116 -0.22613184
-0.069803506 0.151466 -0.226181
-0.069700494 0.151498 -0.2261935
-0.069492802 0.15150079 -0.22619121
-0.069112249 0.151501 -0.226151
-0.0689715 0.15149724 -0.22613551
-0.068720333 0.15151466 -0.22611232
-0.068515994 0.15150666 -0.22609501
-0.068338826 0.15149416 -0.22607549
-0.068105668 0.15148467 -0.2260451
-0.067956991 0.15147467 -0.22603166
-0.067675002 0.151599 -0.22600099
-0.061892807 0.1515124 -0.22602351
-0.06171925 0.15152249 -0.22611637
-0.069743671 0.15170999 -0.22618733
-0.069502831 0.15170117 -0.22618568
-0.069106005 0.15167816 -0.22613752
-0.068964168 0.151675 -0.22613768
-0.068713002 0.15172733 -0.22609
-0.068507999 0.15171917 -0.22608851
-0.068330832 0.1517065 -0.22607183
-0.068097666 0.15169699 -0.22604111
-0.067948334 0.15168732 -0.22603364
-0.067670494 0.15170601 -0.22600299
-0.06189533 0.15169834 -0.22603083
-0.06172888 0.15171811 -0.22611438
-0.069728121 0.15192412 -0.22619303
-0.069495007 0.15191366 -0.22617467
-0.069098003 0.15189083 -0.22613351
-0.068956167 0.15188731 -0.22613399
-0.068705998 0.15190449 -0.226081
-0.068500996 0.15189651 -0.22608575
-0.068322994 0.15191966 -0.22606118
-0.068089105 0.15191033 -0.22604111
-0.067940332 0.15190066 -0.226026
-0.061888114 0.15187666 -0.2260371
-0.061702855 0.15188971 -0.2261243
-0.069895662 0.152124 -0.226192
-0.069722831 0.15210132 -0.22617634
-0.069518335 0.15208167 -0.22617434
-0.069397494 0.15215451 -0.22615701
-0.069089495 0.15210384 -0.22612502
-0.068947665 0.1521005 -0.22613283
-0.06869933 0.152082 -0.22608401
-0.068494335 0.15207416 -0.22608118
-0.068315752 0.15209675 -0.22606276
-0.068105146 0.15211387 -0.22604187
-0.067957401 0.15212961 -0.22602901
-0.061879668 0.15208945 -0.22603634
-0.061705224 0.15208299 -0.22612256
-0.070249669 0.15230601 -0.22618432
-0.070141755 0.15230225 -0.22619325
-0.069896147 0.15229972 -0.22619414
-0.069716007 0.15227868 -0.22617298
-0.069570005 0.15227567 -0.22616267
-0.069391996 0.15229601 -0.226154
-0.069081835 0.152316 -0.22611569
-0.068940505 0.1523125 -0.22610898
-0.068690337 0.15229501 -0.22609566
-0.068487495 0.15228616 -0.2260495
-0.06830883 0.15227418 -0.22606616
-0.068115748 0.1523025 -0.22604099
-0.067950398 0.15231401 -0.22602279
-0.061871216 0.15230322 -0.22603863
-0.061697111 0.15229635 -0.22611867
-0.070282996 0.15252051 -0.226191
-0.069875337 0.15247816 -0.22618566
-0.069707781 0.15249133 -0.22616833
-0.069561996 0.15248834 -0.22616135
-0.069384664 0.15247367 -0.22616066
-0.069064803 0.15251382 -0.22611138
-0.068932503 0.15252434 -0.22610568
-0.068682335 0.15250634 -0.22608866
-0.068479165 0.15249781 -0.22604716
-0.068301328 0.15248583 -0.22604668
-0.068109997 0.1524785 -0.22602768
-0.067957602 0.15248379 -0.22601099
-0.061862547 0.15251623 -0.22604489
-0.06168811 0.15250987 -0.22613043
-0.070053995 0.15276 -0.2261845
-0.069869399 0.15272859 -0.22618321
-0.069699772 0.15270409 -0.22615989
-0.069554664 0.15270101 -0.226143
-0.069376998 0.15268667 -0.22614498
-0.069077596 0.1526842 -0.22609802
-0.068925247 0.15270224 -0.22610274
-0.068675667 0.15271866 -0.22605467
-0.0684705 0.15271117 -0.22605284
-0.068292834 0.15269901 -0.22604851
-0.068112001 0.1526774 -0.22601239
-0.06794475 0.15264651 -0.22600625
-0.061870001 0.15270363 -0.22603975
-0.061691303 0.15273109 -0.22613177
-0.0702608 0.15288961 -0.22618718
-0.07010521 0.1528834 -0.22618599
-0.069903396 0.152886 -0.22617801
-0.069711 0.15292454 -0.22615728
-0.069546334 0.15291333 -0.22613668
-0.069369338 0.152899 -0.22613633
-0.069060341 0.15288299 -0.22609568
-0.068918668 0.15288 -0.226097
-0.068668999 0.152896 -0.226054
-0.068463169 0.152923 -0.22603284
-0.068284832 0.15291166 -0.22604215
-0.068104193 0.15289 -0.22600301
-0.061902713 0.15289442 -0.226036
-0.06171786 0.15289757 -0.22610416
-0.061599001 0.15293901 -0.226175
-0.070656665 0.153109 -0.22619033
-0.070261501 0.15308867 -0.226184
-0.070088498 0.15308134 -0.22617532
-0.069922335 0.15307133 -0.22617215
-0.069700204 0.1531166 -0.22614948
-0.069537997 0.15312667 -0.226142
-0.069362 0.153111 -0.22611535
-0.06905216 0.15309583 -0.2260925
-0.068910666 0.1530925 -0.22609203
-0.068661332 0.15307365 -0.22605835
-0.068456247 0.15310074 -0.22603101
-0.068276666 0.15312433 -0.22603416
-0.068132997 0.15311867 -0.22600734
-0.061879147 0.15307657 -0.22604787
-0.061730333 0.15308022 -0.22608723
-0.061593667 0.15308033 -0.22617634
-0.070272431 0.153312 -0.22617599
-0.070080169 0.15329432 -0.22617166
-0.069914825 0.15328267 -0.22614868
-0.069715701 0.1532878 -0.22614312
-0.069530502 0.153304 -0.226143
-0.06935367 0.15332367 -0.22610833
-0.06909167 0.15331067 -0.22608368
-0.068933994 0.15330523 -0.22608379
-0.068652667 0.15328699 -0.22606732
-0.068458803 0.15326479 -0.2260344
-0.068296395 0.15331081 -0.22602001
-0.0681265 0.15329599 -0.22600299
-0.061858166 0.15329866 -0.226036
-0.061722443 0.153293 -0.22607602
-0.061584998 0.15329432 -0.22617666
-0.070640996 0.1534995 -0.22619399
-0.070301749 0.15350799 -0.22616638
-0.070089713 0.15351816 -0.22618017
-0.069906339 0.15349649 -0.226152
-0.069697164 0.15348594 -0.22613674
-0.069524668 0.15347999 -0.22612433
-0.069347501 0.153501 -0.226105
-0.069083333 0.15352333 -0.22608535
-0.068926558 0.15351734 -0.22606723
-0.068645336 0.15349866 -0.226045
-0.068488002 0.15349267 -0.22602798
-0.068307996 0.15347224 -0.22601338
-0.061850499 0.15351234 -0.22602282
-0.061714113 0.15350634 -0.22607234
-0.061575998 0.15350834 -0.22619434
-0.070712164 0.15368085 -0.22618614
-0.070326746 0.153697 -0.22617374
-0.070107333 0.15372133 -0.226165
-0.069898166 0.15370966 -0.22614752
-0.069697812 0.1536921 -0.22612199
-0.069536999 0.15371126 -0.22611775
-0.069340333 0.153678 -0.22610332
-0.069077 0.15370101 -0.22606599
-0.068920337 0.153694 -0.22605382
-0.068637006 0.15371166 -0.22603834
-0.068480007 0.15370433 -0.22601366
-0.068300493 0.15369433 -0.22600918
-0.061842334 0.15372516 -0.22601818
-0.061705887 0.15371977 -0.22607523
-0.061568003 0.15372233 -0.22618367
-0.07070417 0.15389334 -0.22618151
-0.070319831 0.15387399 -0.22616833
-0.070101328 0.15389799 -0.22615033
-0.069890328 0.15392166 -0.22613181
-0.069711335 0.15391178 -0.22610466
-0.069550835 0.153906 -0.22611199
-0.069333002 0.15389067 -0.22607733
-0.069070995 0.153877 -0.22604366
-0.068913445 0.15387146 -0.22604831
-0.068630666 0.15392368 -0.22600602
-0.068472661 0.15391767 -0.22600399
-0.061835498 0.15390174 -0.22601426
-0.061698999 0.15389766 -0.22607367
-0.061562002 0.153898 -0.22616249
-0.07103733 0.15412568 -0.22619267
-0.070953004 0.15412067 -0.22619735
-0.070695996 0.15410601 -0.226179
-0.070312493 0.15408567 -0.22615051
-0.070094332 0.15407522 -0.22615089
-0.069884002 0.15409824 -0.2261225
-0.069703892 0.1541241 -0.22609088
-0.069542833 0.15411833 -0.22610682
-0.069326006 0.15410167 -0.22605033
-0.069063336 0.15408967 -0.226035
-0.068906114 0.15408343 -0.22602803
-0.068625003 0.154065 -0.22600301
-0.068466999 0.15405899 -0.22600199
-0.061804336 0.15407933 -0.22601567
-0.061692562 0.154075 -0.22605798
-0.061556 0.154076 -0.22614932
-0.071212001 0.154348 -0.22619601
-0.071074754 0.1543055 -0.22618051
-0.070948005 0.1542975 -0.22616851
-0.070688337 0.1543185 -0.22616667
-0.070304669 0.15429832 -0.22613849
-0.070131168 0.15429033 -0.22614402
-0.069917552 0.15427777 -0.22610956
-0.069697671 0.15430033 -0.22607215
-0.069536746 0.154295 -0.226087
-0.069317997 0.15431434 -0.22604601
-0.069055334 0.15430133 -0.22602266
-0.068898335 0.15429579 -0.22601525
-0.061657 0.15428518 -0.22604401
-0.061525501 0.1543065 -0.2261575
-0.071231246 0.1545085 -0.226192
-0.071068332 0.15448301 -0.22617167
-0.070941001 0.15447433 -0.22616501
-0.070665799 0.15451641 -0.22615139
-0.070296496 0.15451168 -0.22613449
-0.070124499 0.15450233 -0.22611034
-0.069909886 0.15449055 -0.22609687
-0.069690786 0.15447767 -0.22607467
-0.069531165 0.154471 -0.22606051
-0.069309674 0.15452766 -0.22604632
-0.069047667 0.154514 -0.226013
-0.068890221 0.15450832 -0.22601254
-0.06161667 0.15449865 -0.22604467
-0.061497662 0.15450166 -0.22614968
-0.072223 0.154754 -0.226199
-0.071952 0.154745 -0.226191
-0.071733996 0.15469649 -0.2261925
-0.071554333 0.15472133 -0.22619168
-0.071275502 0.15468626 -0.22617474
-0.071095496 0.15470524 -0.22614989
-0.070933998 0.15468667 -0.22613867
-0.070753001 0.154677 -0.22613998
-0.070597 0.15470301 -0.22612101
-0.070289828 0.154723 -0.22610182
-0.070116334 0.15471451 -0.226106
-0.06990245 0.15470254 -0.2260779
-0.069683 0.15469046 -0.22606045
-0.069523163 0.15468417 -0.22604918
-0.069303498 0.15470299 -0.2260275
-0.069040999 0.154691 -0.226008
-0.06162475 0.15471199 -0.226035
-0.06148966 0.15471484 -0.22613899
-0.072214998 0.154967 -0.226198
-0.071901165 0.154908 -0.22618532
-0.071727335 0.15487367 -0.226174
-0.071548998 0.154898 -0.22615901
-0.071292996 0.15491666 -0.226151
-0.071100116 0.1549091 -0.2261308
-0.070927329 0.15489866 -0.22609667
-0.070745327 0.154889 -0.226125
-0.070591331 0.15487933 -0.22609933
-0.070283502 0.15489975 -0.22608475
-0.070108831 0.154927 -0.22608833
-0.069894888 0.15491456 -0.22606134
-0.069676436 0.15490167 -0.2260219
-0.069516502 0.15489532 -0.22601683
-0.069297336 0.15488066 -0.22600901
-0.061602999 0.154854 -0.226042
-0.061509855 0.15492715 -0.22610354
-0.072889 0.155145 -0.226199
-0.072718002 0.15513401 -0.2262
-0.072210662 0.15510766 -0.22617333
-0.071873881 0.15509468 -0.22617
-0.071720667 0.15508467 -0.22614366
-0.071542673 0.155074 -0.22614266
-0.071285665 0.15512834 -0.22613132
-0.071103752 0.15511276 -0.2261215
-0.07093925 0.15513024 -0.22610225
-0.070738338 0.15510033 -0.22610933
-0.070583999 0.15509133 -0.22607434
-0.07027667 0.1550765 -0.2260835
-0.070102751 0.155103 -0.22606626
-0.069877625 0.15511787 -0.226046
-0.069675125 0.15510562 -0.22601312
-0.069500603 0.15509358 -0.22600861
-0.069292001 0.155022 -0.226004
-0.061515715 0.15509014 -0.22609186
-0.072884999 0.15531166 -0.22619666
-0.07271333 0.15527634 -0.22618367
-0.072545998 0.155339 -0.2262
-0.072204001 0.15528449 -0.22616151
-0.0722 0.15538999 -0.226154
-0.071865767 0.15530688 -0.22616056
-0.071713001 0.15529732 -0.22613601
-0.071534336 0.15528633 -0.22614001
-0.071279496 0.155305 -0.2261095
-0.071130998 0.1553005 -0.226107
-0.070953168 0.15532567 -0.22608466
-0.070731007 0.15531266 -0.22607966
-0.070576333 0.15530367 -0.22606234
-0.070269503 0.15528867 -0.22606151
-0.070096664 0.15528034 -0.22605485
-0.069892995 0.15528914 -0.22603285
-0.069696002 0.15528266 -0.22600967
-0.069461003 0.15525 -0.22600099
-0.061508443 0.15528154 -0.22607487
-0.073042005 0.155544 -0.22619951
-0.072877862 0.15550944 -0.22618927
-0.072706006 0.15548767 -0.22616
-0.072541334 0.15547867 -0.22617334
-0.072196499 0.155496 -0.22614649
-0.071875997 0.15550928 -0.2261347
-0.071742609 0.1555254 -0.22612318
-0.071527332 0.15549833 -0.226119
-0.071272999 0.15548132 -0.22610666
-0.071125001 0.15547651 -0.22609283
-0.070946753 0.1555025 -0.22607201
-0.070723668 0.15552467 -0.22606398
-0.070568331 0.15551567 -0.22604935
-0.070263006 0.15550001 -0.22602417
-0.070089333 0.15549184 -0.22603334
-0.069875002 0.15548033 -0.22601213
-0.061462168 0.15549517 -0.22607599
-0.061323501 0.15553001 -0.226179
-0.073404998 0.155742 -0.22619601
-0.073260501 0.15573299 -0.22619501
-0.073069796 0.155736 -0.22618958
-0.072907336 0.15571317 -0.22618033
-0.072747163 0.15570483 -0.2261585
-0.072533995 0.15569033 -0.22615534
-0.072188996 0.155674 -0.22614999
-0.071882248 0.15569726 -0.22612175
-0.071744837 0.15572451 -0.22610717
-0.071519665 0.15571065 -0.22610199
-0.071265668 0.15569334 -0.22607966
-0.0711165 0.15568949 -0.22608681
-0.070940338 0.15567917 -0.22605984
-0.070718005 0.1557005 -0.2260395
-0.070563003 0.1556915 -0.2260215
-0.070254833 0.15571217 -0.226017
-0.070081674 0.15570366 -0.22601567
-0.069858998 0.155619 -0.226006
-0.069799997 0.155619 -0.22600199
-0.061455172 0.155707 -0.22604866
-0.061316997 0.155707 -0.22616534
-0.073960997 0.155982 -0.226199
-0.073638327 0.15589082 -0.22617932
-0.073494203 0.155902 -0.22619021
-0.073291376 0.155885 -0.2261795
-0.073073253 0.155898 -0.226155
-0.072900504 0.15592432 -0.226147
-0.072739668 0.15591617 -0.22613917
-0.072526336 0.155903 -0.22613633
-0.072182 0.15588599 -0.22612868
-0.071876161 0.15587334 -0.22609885
-0.07173875 0.15590051 -0.226096
-0.071512334 0.15592234 -0.22608101
-0.071258001 0.15590566 -0.22606333
-0.07110966 0.15590084 -0.22605717
-0.070933171 0.15589133 -0.22604066
-0.070712 0.15587766 -0.226018
-0.070552997 0.15594 -0.226017
-0.070202999 0.15584999 -0.226014
-0.070076495 0.155845 -0.22600651
-0.061438996 0.15590639 -0.2260468
-0.061308663 0.15592067 -0.22616768
-0.074639 0.1560978 -0.22619
-0.074556999 0.156152 -0.226198
-0.074315503 0.15610251 -0.2261885
-0.073956333 0.15612333 -0.22617966
-0.07368467 0.15610732 -0.22616732
-0.073510833 0.15610084 -0.22617251
-0.073347166 0.15609117 -0.22615634
-0.073110335 0.15607755 -0.22613767
-0.072894752 0.15610099 -0.22612351
-0.0727228 0.15611321 -0.22612002
-0.072519332 0.156114 -0.22610734
-0.072174668 0.15609767 -0.22610034
-0.071869001 0.15608484 -0.22607417
-0.071732998 0.156077 -0.22606868
-0.0715065 0.15609801 -0.22605601
-0.071251668 0.15611666 -0.22602232
-0.071102329 0.156112 -0.22603351
-0.070934795 0.15608861 -0.22601481
-0.070706002 0.156019 -0.226015
-0.070547335 0.15608168 -0.22601967
-0.070110999 0.156059 -0.22600199
-0.061350502 0.1560975 -0.226096
-0.074810006 0.15630966 -0.22619434
-0.074636668 0.156296 -0.2261705
-0.074515842 0.15628983 -0.2261775
-0.074309669 0.15627867 -0.22616465
-0.073950998 0.156299 -0.2261565
-0.073693603 0.15631299 -0.22614519
-0.073527873 0.15632062 -0.22613388
-0.073340498 0.15630201 -0.22612633
-0.073103338 0.15628877 -0.22611101
-0.072889 0.15627682 -0.22610033
-0.072737202 0.15628381 -0.22609361
-0.072512001 0.156326 -0.22608499
-0.072168 0.15630867 -0.22607134
-0.071861833 0.156297 -0.22604883
-0.07172633 0.1562885 -0.22603466
-0.071500331 0.15627567 -0.22604601
-0.071245499 0.156294 -0.22600901
-0.071142666 0.156326 -0.22601731
-0.070963003 0.15624601 -0.226007
-0.061344832 0.1562735 -0.22607149
-0.075618997 0.15656 -0.2262
-0.075333998 0.15655001 -0.2262
-0.075149 0.156542 -0.226198
-0.074804001 0.156486 -0.22617599
-0.074654579 0.15651885 -0.226138
-0.074508503 0.15650134 -0.22615214
-0.074302338 0.15648967 -0.22614433
-0.073944993 0.15647601 -0.22613199
-0.073689424 0.15651214 -0.22612
-0.073529333 0.15652268 -0.22610024
-0.07333333 0.15651368 -0.226098
-0.073096111 0.15650067 -0.22608754
-0.072881669 0.156489 -0.2260785
-0.072720997 0.15648034 -0.2260635
-0.072506502 0.15650201 -0.226064
-0.072163001 0.15648401 -0.226034
-0.071847998 0.15649322 -0.22602721
-0.071718499 0.15650032 -0.22602266
-0.071492665 0.15648668 -0.22602068
-0.061328601 0.1564718 -0.22605363
-0.086663 0.156725 -0.22619399
-0.075614668 0.15670033 -0.22617967
-0.075493999 0.15673199 -0.22619
-0.075284995 0.15668784 -0.22618134
-0.075092331 0.1566785 -0.22618133
-0.074676432 0.15670185 -0.22611885
-0.074515425 0.15672286 -0.22612044
-0.074295007 0.156702 -0.22612135
-0.073937334 0.15668733 -0.22611165
-0.073697999 0.15668337 -0.22611263
-0.073523998 0.156698 -0.22606964
-0.073326834 0.15672399 -0.22605848
-0.07308922 0.15671201 -0.22605811
-0.072875001 0.156699 -0.22604132
-0.072714001 0.15669169 -0.22603583
-0.072501004 0.15667801 -0.22602999
-0.071814001 0.156646 -0.226004
-0.071758002 0.156716 -0.22601934
-0.071488 0.156628 -0.22600099
-0.061284333 0.15669633 -0.22603767
-0.087063 0.156993 -0.226197
-0.086909398 0.1569286 -0.22618961
-0.086695209 0.15691741 -0.22617379
-0.086475998 0.15692499 -0.2261845
-0.086278751 0.15689875 -0.226183
-0.086072661 0.156919 -0.22619332
-0.085851997 0.15693299 -0.22619399
-0.076640002 0.15696999 -0.226198
-0.076522335 0.156964 -0.22619899
-0.076279998 0.156947 -0.226198
-0.075916 0.1568975 -0.2261835
-0.075689331 0.15693468 -0.22617099
-0.075488664 0.15690701 -0.22615467
-0.075277835 0.15689933 -0.22615534
-0.075086169 0.15688883 -0.22614102
-0.074730597 0.156883 -0.22611339
-0.074527659 0.15692466 -0.22608799
-0.074288666 0.15691267 -0.22608767
-0.073930331 0.15689866 -0.22608466
-0.073684663 0.15688522 -0.22607711
-0.073517554 0.15687455 -0.22605556
-0.073321253 0.1568995 -0.22603449
-0.073125333 0.15692534 -0.22603516
-0.072911873 0.15690376 -0.22601375
-0.072724998 0.15685633 -0.22601201
-0.072495505 0.15685301 -0.22600299
-0.0612785 0.156873 -0.226013
-0.087231502 0.1571075 -0.2261685
-0.087060004 0.157097 -0.22617801
-0.086912833 0.15712383 -0.22614866
-0.086698502 0.15711434 -0.22614449
-0.086470671 0.15710001 -0.22615235
-0.086251497 0.1570895 -0.2261485
-0.086081505 0.15708351 -0.226165
-0.085889004 0.15707466 -0.22616683
-0.085733995 0.157102 -0.226198
-0.085512996 0.15712367 -0.226173
-0.085319802 0.157131 -0.22618201
-0.076701105 0.15713656 -0.22618257
-0.076517552 0.15710343 -0.22617558
-0.076275341 0.157086 -0.22616601
-0.07591033 0.15707266 -0.22615068
-0.075686105 0.15710622 -0.2261361
-0.075511254 0.15713599 -0.22611651
-0.075271659 0.15710934 -0.22611034
-0.075079501 0.15709917 -0.22610502
-0.074709333 0.15707816 -0.22607768
-0.074522339 0.15709983 -0.226053
-0.074281 0.15712367 -0.226062
-0.07392367 0.15710934 -0.22605233
-0.073677666 0.15709634 -0.22605355
-0.073530719 0.15707555 -0.22602129
-0.07331533 0.15707649 -0.22601132
-0.073134005 0.15709133 -0.22601633
-0.072824001 0.157049 -0.22600099
-0.087557666 0.15729834 -0.22618733
-0.087226003 0.15728267 -0.226138
-0.087054335 0.15727134 -0.22614068
-0.086906999 0.15729949 -0.22612825
-0.08669167 0.15732451 -0.2261135
-0.086465001 0.157308 -0.22609366
-0.086254001 0.157286 -0.2261146
-0.086093426 0.15730357 -0.22611585
-0.085881837 0.1572855 -0.22614332
-0.085729003 0.15727668 -0.226162
-0.085506998 0.157299 -0.22615901
-0.085296199 0.1573122 -0.22614738
-0.085165001 0.15735701 -0.22618251
-0.084857337 0.15735532 -0.22619367
-0.07750567 0.15733933 -0.22618999
-0.077027999 0.157304 -0.22618151
-0.076703504 0.15732424 -0.22615175
-0.076511554 0.15731388 -0.226133
-0.076269664 0.15729634 -0.226119
-0.075903334 0.15728366 -0.22612101
-0.075717747 0.15728287 -0.22612399
-0.075523198 0.1573166 -0.22608741
-0.075264663 0.1573205 -0.22608049
-0.075072668 0.15731101 -0.22607082
-0.074702166 0.15728916 -0.22604667
-0.074516557 0.15727578 -0.22602977
-0.074276999 0.157297 -0.226013
-0.073917001 0.15732034 -0.22601734
-0.073683798 0.15726522 -0.2260184
-0.073540002 0.15722699 -0.2260025
-0.087802 0.15756151 -0.22618499
-0.087700002 0.157556 -0.226189
-0.087551333 0.15750732 -0.226143
-0.087219335 0.157493 -0.22610767
-0.087048002 0.15748133 -0.22610168
-0.086901337 0.15747416 -0.22609866
-0.086686745 0.15749975 -0.22607774
-0.086456992 0.15752 -0.22608699
-0.086281002 0.15751167 -0.22608201
-0.086110555 0.15750456 -0.22609466
-0.085874327 0.15749633 -0.22612901
-0.085721999 0.15748733 -0.226134
-0.085500337 0.15747499 -0.22615099
-0.085308805 0.1574814 -0.22611959
-0.085159495 0.157497 -0.226174
-0.084859252 0.15750325 -0.22617425
-0.084722005 0.15754832 -0.22618483
-0.078574501 0.1575235 -0.226198
-0.078348003 0.157547 -0.22619601
-0.078112662 0.15751833 -0.226191
-0.077840194 0.1575392 -0.22618699
-0.077689499 0.157528 -0.22618902
-0.077520333 0.15750332 -0.22616184
-0.077023 0.15747868 -0.22614168
-0.076697625 0.15750024 -0.22612926
-0.076504774 0.15752424 -0.22610246
-0.076261997 0.15750867 -0.22610401
-0.075896658 0.15749432 -0.22609067
-0.075705223 0.15748356 -0.22608621
-0.075541601 0.1574862 -0.22605959
-0.075249992 0.15751581 -0.22603619
-0.075066 0.15752101 -0.22603816
-0.074770994 0.15750568 -0.22602034
-0.074458249 0.15746799 -0.22601999
-0.087975003 0.157747 -0.226189
-0.087746501 0.15769801 -0.22616249
-0.087545 0.15771668 -0.226106
-0.087212332 0.15770234 -0.22608
-0.087041669 0.15769131 -0.22606467
-0.086894833 0.15768401 -0.22606499
-0.086681493 0.15767334 -0.22604018
-0.086452 0.157694 -0.22605151
-0.086273998 0.15772299 -0.226059
-0.086103775 0.15771468 -0.22606479
-0.085868172 0.15770616 -0.22607966
-0.085714996 0.15769701 -0.22610199
-0.085494667 0.157685 -0.22610199
-0.085292995 0.15767783 -0.22610299
-0.085153997 0.15767367 -0.226144
-0.084872998 0.15769601 -0.22613549
-0.084707417 0.15772407 -0.22616041
-0.084445499 0.15774649 -0.226179
-0.078854002 0.15775301 -0.226198
-0.078776002 0.157787 -0.2262
-0.078569002 0.15769868 -0.22616899
-0.078342669 0.15768933 -0.22618999
-0.078121163 0.15768318 -0.22617535
-0.077900574 0.15769114 -0.22617443
-0.077675857 0.15771 -0.22616541
-0.077513494 0.15771499 -0.22613369
-0.077015996 0.15769 -0.22610401
-0.076692753 0.15767467 -0.22608726
-0.076498993 0.15770034 -0.22607632
-0.076254994 0.15771967 -0.22606833
-0.075890005 0.15770532 -0.22605433
-0.075698882 0.15769455 -0.22604722
-0.075523831 0.15768184 -0.22602582
-0.0752628 0.157685 -0.22600639
-0.075059995 0.1576965 -0.22601926
-0.088325001 0.157977 -0.226197
-0.088143997 0.157969 -0.226192
-0.087970339 0.157886 -0.22616732
-0.087740995 0.15787266 -0.22613283
-0.087537326 0.157928 -0.22609234
-0.087206006 0.15791132 -0.226041
-0.087035 0.15790033 -0.22602899
-0.086889997 0.15785751 -0.22601649
-0.086698994 0.1578685 -0.22602499
-0.08644601 0.15786999 -0.226023
-0.086268 0.1578975 -0.22603151
-0.086098 0.15791489 -0.22601987
-0.085861832 0.15791617 -0.22604567
-0.085709333 0.15790568 -0.22605433
-0.085487001 0.15789567 -0.226081
-0.085285492 0.15788834 -0.22608499
-0.085147671 0.157883 -0.22610833
-0.084866337 0.15787134 -0.22611634
-0.084701747 0.15789975 -0.22613513
-0.084439993 0.157921 -0.22615035
-0.083911002 0.157969 -0.2261945
-0.083544336 0.15787834 -0.22619466
-0.083322003 0.157938 -0.22619399
-0.080074996 0.157957 -0.2261945
-0.079518497 0.157924 -0.22619599
-0.0792422 0.1578918 -0.2261906
-0.079054333 0.15791567 -0.22619499
-0.078881398 0.15791601 -0.22618279
-0.078722753 0.15793264 -0.22617513
-0.078561671 0.15790968 -0.226142
-0.078335337 0.15790068 -0.22616899
-0.078115836 0.15789182 -0.22611384
-0.077924669 0.157884 -0.22615401
-0.077715188 0.15787874 -0.22613579
-0.077506669 0.1579255 -0.22610633
-0.077009 0.15790068 -0.22607867
-0.076685928 0.15788558 -0.22605525
-0.076493666 0.15787534 -0.22604267
-0.076250002 0.157894 -0.2260315
-0.075883001 0.15791599 -0.22602667
-0.075698629 0.15789701 -0.22601938
-0.075458005 0.15785649 -0.226009
-0.075204 0.157812 -0.226004
-0.075107001 0.15784299 -0.2260125
-0.088453658 0.15814817 -0.22619367
-0.088283598 0.15813001 -0.22616959
-0.088140331 0.15810966 -0.22615968
-0.08796367 0.15809499 -0.226137
-0.087734498 0.1580825 -0.22609748
-0.087532997 0.15810201 -0.226045
-0.087201998 0.158053 -0.22601099
-0.087028503 0.158077 -0.22601551
-0.086718 0.158029 -0.226008
-0.086439006 0.15808067 -0.22600633
-0.086264998 0.158002 -0.226015
-0.086049497 0.15809849 -0.22600299
-0.08584699 0.1581118 -0.2260206
-0.08570233 0.15811633 -0.22602899
-0.085479997 0.15810667 -0.226054
-0.085278995 0.15809901 -0.22604835
-0.085140325 0.15809333 -0.22608466
-0.084859997 0.15808167 -0.22607267
-0.084696501 0.15807457 -0.22610134
-0.084434003 0.158097 -0.22613651
-0.083906673 0.15810834 -0.22616999
-0.083707564 0.15810122 -0.22618188
-0.083482802 0.1581004 -0.22617619
-0.083280198 0.15809241 -0.22618461
-0.083132997 0.15814 -0.226188
-0.082853667 0.15812699 -0.22619234
-0.082754001 0.15816867 -0.22619534
-0.082419001 0.158176 -0.226193
-0.081202 0.15818401 -0.226184
-0.080946997 0.15818 -0.22619
-0.080608003 0.15815701 -0.226197
-0.080501005 0.158116 -0.22618899
-0.080068 0.158134 -0.22619399
-0.079694174 0.158162 -0.22619152
-0.079512335 0.15810032 -0.22617601
-0.079297625 0.15808263 -0.22617738
-0.07908386 0.15809157 -0.22616601
-0.078892797 0.15808441 -0.22615139
-0.078710832 0.15810017 -0.22615218
-0.078554332 0.158122 -0.22612433
-0.078329675 0.15811001 -0.22611733
-0.078106843 0.15810551 -0.22612268
-0.077918328 0.15809418 -0.22611701
-0.077701002 0.15808241 -0.22610617
-0.077500999 0.15810125 -0.226072
-0.077004001 0.158077 -0.22604999
-0.077 0.158181 -0.22603101
-0.076694191 0.15809071 -0.22602892
-0.0764746 0.1580434 -0.22601441
-0.076244332 0.15807 -0.22601266
-0.075879 0.15805601 -0.226004
-0.088536501 0.1583215 -0.22618476
-0.08830075 0.15831876 -0.226151
-0.088133998 0.15831967 -0.22612333
-0.087956332 0.15830632 -0.22610533
-0.087727167 0.15829283 -0.22607417
-0.087526999 0.15827601 -0.22602133
-0.085809 0.158264 -0.226004
-0.085697003 0.15825699 -0.226017
-0.085473664 0.158316 -0.22601767
-0.08524999 0.15829051 -0.226026
-0.085133664 0.15830334 -0.22605433
-0.084854335 0.15829067 -0.22603033
-0.084688835 0.15828584 -0.22608519
-0.084429003 0.15827133 -0.22609265
-0.083899163 0.15831985 -0.22615583
-0.083701216 0.15831089 -0.22614156
-0.083530664 0.158299 -0.22613268
-0.08330822 0.15829067 -0.22616345
-0.083095804 0.15829641 -0.22616979
-0.082902804 0.1582866 -0.2261844
-0.082712337 0.15829699 -0.22618951
-0.082415 0.15831734 -0.22617233
-0.082076497 0.15833449 -0.22615699
-0.081516996 0.158308 -0.2261865
-0.08134225 0.15830125 -0.226188
-0.081196666 0.15832467 -0.22617133
-0.08094167 0.15832067 -0.22617768
-0.080672331 0.15832599 -0.22618045
-0.080495 0.15829234 -0.22617035
-0.080327004 0.15828699 -0.22618668
-0.080063336 0.15827434 -0.22617634
-0.079687908 0.15831181 -0.22617349
-0.079506002 0.15831099 -0.22613966
-0.079322837 0.15830433 -0.226147
-0.07910344 0.15829366 -0.22614034
-0.078878663 0.15828067 -0.22611451
-0.07870511 0.15827532 -0.22612545
-0.078548998 0.1582965 -0.22608951
-0.078321666 0.15832199 -0.22610833
-0.078099497 0.15831667 -0.22610565
-0.077911332 0.15830483 -0.22608633
-0.077694587 0.15829276 -0.22606416
-0.077495672 0.15827617 -0.22604501
-0.076996997 0.15828601 -0.226015
-0.076752998 0.15824001 -0.226004
-0.088679001 0.15856101 -0.226199
-0.088530563 0.15847945 -0.22616069
-0.088318288 0.15848972 -0.22613131
-0.088127337 0.15852867 -0.22608566
-0.087949663 0.15851568 -0.22607701
-0.087720163 0.15850349 -0.22604583
-0.087522 0.158418 -0.22600301
-0.085689999 0.15846799 -0.22600199
-0.085469 0.158457 -0.226006
-0.085222997 0.158447 -0.22600099
-0.085126996 0.15851466 -0.22602266
-0.084682427 0.1584955 -0.22605102
-0.084421664 0.158481 -0.22606301
-0.083875798 0.15851519 -0.22612119
-0.083693892 0.15852121 -0.22611989
-0.083523333 0.15851067 -0.22611701
-0.08330112 0.15850145 -0.22613843
-0.083080836 0.15849334 -0.22615433
-0.082887329 0.15848233 -0.22615717
-0.082706556 0.15847212 -0.22616376
-0.082408004 0.15852833 -0.22614932
-0.082070336 0.15851067 -0.226144
-0.081913747 0.15854451 -0.22618949
-0.081730001 0.15851028 -0.22619116
-0.081511326 0.15848367 -0.22616601
-0.081335999 0.15847717 -0.226175
-0.081190005 0.15850049 -0.2261575
-0.080936 0.15849599 -0.2261565
-0.080701664 0.15851599 -0.22615089
-0.080542833 0.1585045 -0.22613116
-0.080320336 0.15849666 -0.226147
-0.080055661 0.15848666 -0.22616465
-0.0797043 0.1584826 -0.22614881
-0.079499669 0.15852065 -0.22610134
-0.079315834 0.1585145 -0.22611432
-0.079096556 0.15850401 -0.226108
-0.078872167 0.158491 -0.22607781
-0.078698777 0.15848601 -0.22608812
-0.078544326 0.15847068 -0.22604734
-0.078317001 0.15849599 -0.2260595
-0.078093499 0.15852582 -0.22605701
-0.077904336 0.15851633 -0.22606166
-0.077687666 0.15850349 -0.22604035
-0.077476799 0.15847261 -0.22602138
-0.088674001 0.15870066 -0.22618198
-0.08852344 0.15868978 -0.22613178
-0.088300116 0.15867856 -0.22609656
-0.088122502 0.158703 -0.226052
-0.087943338 0.15872467 -0.22603333
-0.087688752 0.15869424 -0.22601125
-0.085121997 0.158654 -0.226007
-0.084704995 0.15863568 -0.22601233
-0.084414996 0.15869166 -0.22603202
-0.0839044 0.15868481 -0.22610119
-0.083687663 0.1586975 -0.2261015
-0.083515666 0.15872133 -0.226098
-0.083294332 0.1587119 -0.22611001
-0.083074167 0.15870383 -0.22611965
-0.082879998 0.15869349 -0.22612934
-0.082699671 0.15868266 -0.22613311
-0.082401998 0.15867101 -0.22615699
-0.082399003 0.158741 -0.226151
-0.082061671 0.158723 -0.22614501
-0.081907004 0.15872151 -0.22617851
-0.081721783 0.15871157 -0.22617143
-0.081503667 0.15869533 -0.22615033
-0.081328668 0.15868866 -0.22615467
-0.081184 0.158677 -0.226143
-0.08093033 0.15867199 -0.226126
-0.080695227 0.15872566 -0.22611165
-0.080536 0.15871499 -0.22610082
-0.080314666 0.15870468 -0.22609667
-0.080049329 0.15869568 -0.22611767
-0.079686664 0.15867843 -0.22612785
-0.0794935 0.158696 -0.2260845
-0.079309165 0.15872534 -0.226089
-0.07913667 0.15871666 -0.2260765
-0.078909002 0.15870389 -0.22605501
-0.078692339 0.158695 -0.22604643
-0.078536995 0.158682 -0.226027
-0.078311332 0.15867199 -0.226036
-0.078088254 0.158701 -0.22602199
-0.077888601 0.1587116 -0.226036
-0.0776968 0.1587089 -0.22602391
-0.077538997 0.15870567 -0.226009
-0.088667668 0.15891166 -0.22614567
-0.088517554 0.15889867 -0.22608556
-0.088293888 0.15888745 -0.2260562
-0.088114999 0.15888067 -0.226054
-0.084411003 0.158831 -0.22600199
-0.083966665 0.15888299 -0.22605331
-0.083710335 0.15887357 -0.22608028
-0.083509997 0.15889651 -0.22607401
-0.083313428 0.15891314 -0.22607784
-0.083099127 0.15892462 -0.22609875
-0.08287333 0.15890349 -0.22610085
-0.08269234 0.15889356 -0.22611158
-0.082394332 0.15888067 -0.22613566
-0.082053497 0.158903 -0.2261685
-0.081900999 0.158898 -0.226163
-0.08171434 0.15892245 -0.22614901
-0.081496 0.15890767 -0.22613733
-0.081322335 0.15889917 -0.226119
-0.081176333 0.158889 -0.226133
-0.080922998 0.15888299 -0.22610633
-0.080689169 0.15890166 -0.22608985
-0.080528669 0.15892617 -0.22607918
-0.080307335 0.15891601 -0.22607233
-0.080042668 0.15890633 -0.22608399
-0.079695798 0.1588842 -0.22610489
-0.079530999 0.15889099 -0.22608559
-0.079303004 0.15890124 -0.22606774
-0.079121605 0.1589126 -0.2260448
-0.078901775 0.15891489 -0.22602889
