# .PCD v0.7 - Point Cloud Data file format
VERSION 0.7
FIELDS x y z
SIZE 4 4 4
TYPE F F F
COUNT 1 1 1
WIDTH 1384
HEIGHT 1
VIEWPOINT 0 0 0 1 0 0 0
POINTS 1384
DATA ascii
-0.047867 0.10351 -0.235201
-0.045678999 0.1034 -0.235302
-0.045423999 0.1034965 -0.23521501
-0.045344003 0.103489 -0.235231
-0.045165502 0.1034845 -0.235238
-0.044897001 0.103435 -0.23528799
-0.044648599 0.103483 -0.23529398
-0.044515889 0.10351434 -0.23526788
-0.044349998 0.10348467 -0.23537134
-0.033969 0.103546 -0.23540001
-0.0337338 0.10349379 -0.2353698
-0.033556998 0.10349 -0.23531899
-0.033317331 0.103513 -0.235339
-0.033084165 0.10350216 -0.23532701
-0.032915164 0.10349184 -0.23526667
-0.032478001 0.1035035 -0.23524702
-0.032227002 0.103496 -0.235268
-0.0320848 0.1035078 -0.2352694
-0.0319185 0.10351267 -0.23525466
-0.031789664 0.103512 -0.23523267
-0.031477999 0.103438 -0.23521066
-0.051677663 0.10371267 -0.23531365
-0.051537596 0.10371441 -0.23522441
-0.04543075 0.103704 -0.23521873
-0.045291666 0.10367683 -0.23525484
-0.045154002 0.103676 -0.23532599
-0.044881001 0.10374 -0.235355
-0.044628747 0.10372651 -0.23536125
-0.044470999 0.10373275 -0.23530924
-0.044342 0.10371033 -0.23536201
-0.034513999 0.103729 -0.235396
-0.034274332 0.103769 -0.23539734
-0.034087799 0.103723 -0.23539159
-0.033927001 0.103712 -0.23538379
-0.033712223 0.10369078 -0.23537233
-0.033549666 0.10368001 -0.23531701
-0.033309497 0.103703 -0.23534501
-0.033077501 0.103692 -0.23531525
-0.0329055 0.10371983 -0.23527968
-0.032544669 0.10369834 -0.23525034
-0.032307997 0.10368633 -0.23525651
-0.0320962 0.1036906 -0.23524781
-0.031911749 0.103702 -0.23524451
-0.031785 0.103662 -0.23521499
-0.031392999 0.103673 -0.23520499
-0.051667999 0.1039025 -0.23535
-0.051519752 0.103889 -0.23525025
-0.051399998 0.103993 -0.235211
-0.045612 0.103888 -0.23526901
-0.04547067 0.10389084 -0.23525383
-0.045274399 0.1038878 -0.23525059
-0.045146 0.10390133 -0.235305
-0.044877667 0.103889 -0.23531501
-0.044641249 0.103873 -0.235232
-0.044408001 0.103933 -0.235201
-0.044336997 0.10389701 -0.235309
-0.043958001 0.103996 -0.23538201
-0.034511 0.103805 -0.23539799
-0.034297664 0.10392201 -0.23539199
-0.034090497 0.1038985 -0.23539349
-0.033902202 0.1039086 -0.23536758
-0.033703551 0.10391811 -0.2353639
-0.03353833 0.10390899 -0.23536134
-0.033302996 0.10389266 -0.23532666
-0.033070832 0.10388017 -0.23529768
-0.032898501 0.10390826 -0.23527676
-0.032536499 0.103889 -0.2352625
-0.0322995 0.10391283 -0.23525266
-0.032079 0.10390151 -0.23524784
-0.031904165 0.10389099 -0.23524334
-0.031775333 0.10389 -0.23522167
-0.051659331 0.104092 -0.23538667
-0.051510829 0.10407782 -0.23527585
-0.051395498 0.104106 -0.235219
-0.045887001 0.104013 -0.23521
-0.045628499 0.104151 -0.2352275
-0.045231 0.104054 -0.235282
-0.045138001 0.104055 -0.235349
-0.044868998 0.104042 -0.235377
-0.044627998 0.10410266 -0.23532051
-0.044501502 0.10411832 -0.23526748
-0.044357598 0.10410039 -0.23527758
-0.043960001 0.104066 -0.235282
-0.034775 0.104122 -0.235396
-0.034500003 0.104107 -0.23538299
-0.034276832 0.104098 -0.23538683
-0.034084003 0.1040875 -0.2353788
-0.033912398 0.104092 -0.23537859
-0.033696834 0.104107 -0.23535466
-0.033532001 0.1040975 -0.23534
-0.033295002 0.104118 -0.235312
-0.033062667 0.10410699 -0.23528583
-0.032892 0.10409717 -0.23525649
-0.032529999 0.10407799 -0.23525
-0.032292001 0.10410275 -0.2352495
-0.032063 0.10411219 -0.23523
-0.031895667 0.10411801 -0.235237
-0.031766664 0.104117 -0.23521702
-0.031374998 0.104128 -0.23520601
-0.051500335 0.10430501 -0.23531467
-0.051351 0.10430779 -0.23523322
-0.045600999 0.104226 -0.23523501
-0.045317002 0.104205 -0.23522
-0.044643 0.10429449 -0.2353695
-0.044519 0.1043063 -0.2352787
-0.044356167 0.10431217 -0.23527984
-0.034695499 0.104313 -0.235395
-0.034543 0.1043015 -0.2353815
-0.034260999 0.1043082 -0.235365
-0.034075834 0.10431349 -0.23536567
-0.033895835 0.10430183 -0.23536734
-0.033689111 0.104296 -0.23536222
-0.033524666 0.10428634 -0.23534566
-0.033287503 0.10430799 -0.23531699
-0.033055499 0.1042965 -0.23528101
-0.0328748 0.1043088 -0.23526581
-0.032520998 0.10430467 -0.23524965
-0.032373 0.10429267 -0.23523766
-0.032119751 0.10429338 -0.23523813
-0.031888999 0.104307 -0.23522601
-0.031761002 0.104267 -0.235204
-0.051491499 0.104495 -0.23533949
-0.051332831 0.10451866 -0.23525684
-0.045777999 0.104537 -0.235204
-0.045465499 0.1045935 -0.235211
-0.045123 0.104578 -0.23524199
-0.044847999 0.10457 -0.23537301
-0.0446385 0.1044445 -0.23533699
-0.044537004 0.10444966 -0.23529649
-0.044349499 0.10450025 -0.23526749
-0.034724332 0.10450234 -0.23539017
-0.034535669 0.10449117 -0.23537499
-0.034271203 0.1044922 -0.23537159
-0.034068752 0.1045035 -0.23535898
-0.033887997 0.104492 -0.2353735
-0.033672623 0.10451375 -0.23535149
-0.033516336 0.104514 -0.23533134
-0.03328 0.104498 -0.23532133
-0.033048 0.10448601 -0.23528318
-0.032883603 0.1044932 -0.23528199
-0.032514997 0.1044935 -0.23522201
-0.032364998 0.104519 -0.235223
-0.032100003 0.10451066 -0.23523954
-0.031881832 0.10449583 -0.23522365
-0.031752001 0.104495 -0.23520966
-0.051483333 0.10468366 -0.23535782
-0.051324502 0.1047075 -0.23527402
-0.045661248 0.10468125 -0.23522399
-0.045473501 0.10468925 -0.23521776
-0.045116998 0.104728 -0.235231
-0.044847999 0.104716 -0.23525667
-0.0346875 0.10468933 -0.23537333
-0.0345174 0.1047022 -0.23537159
-0.034254503 0.10470235 -0.23536001
-0.034061164 0.10469333 -0.23536217
-0.033881169 0.1046815 -0.23535901
-0.033683714 0.10469728 -0.23534416
-0.033508502 0.10470299 -0.235332
-0.033272669 0.10472333 -0.23529132
-0.033083335 0.104716 -0.23527734
-0.032910999 0.1047051 -0.235259
-0.032507334 0.104683 -0.23522766
-0.032358497 0.104708 -0.2352075
-0.032093167 0.10469983 -0.23522866
-0.031874247 0.1046855 -0.23521924
-0.031746998 0.104647 -0.235203
-0.051424336 0.104911 -0.23537934
-0.051316168 0.10489682 -0.23529935
-0.051177997 0.10488533 -0.23520966
-0.045110334 0.10487967 -0.23525299
-0.0448405 0.1049055 -0.23526201
-0.044625498 0.104893 -0.235237
-0.044520598 0.1049384 -0.23521718
-0.044320669 0.10496467 -0.23524733
-0.043925501 0.104936 -0.23529801
-0.03468078 0.10487845 -0.23536412
-0.034530796 0.10488521 -0.235364
-0.034247249 0.1048915 -0.2353555
-0.03405283 0.10491884 -0.23535348
-0.033872668 0.10490817 -0.23535067
-0.033686429 0.10489171 -0.23534258
-0.033540599 0.104909 -0.23530941
-0.033265501 0.104913 -0.2352775
-0.033076502 0.10490499 -0.23527101
-0.032903332 0.10489533 -0.23525517
-0.032499667 0.10490967 -0.23521133
-0.03235 0.10489833 -0.23522933
-0.032111857 0.10487928 -0.23521672
-0.031945996 0.1048926 -0.2352072
-0.051417999 0.105063 -0.23539799
-0.051298402 0.1051084 -0.2353148
-0.051167998 0.10511333 -0.23523366
-0.045417 0.105197 -0.23522399
-0.045125004 0.10513734 -0.23536366
-0.044829 0.10509799 -0.23534301
-0.044617999 0.10508267 -0.23524433
-0.044522714 0.10506672 -0.23525329
-0.044329002 0.105065 -0.23523051
-0.042852499 0.105149 -0.2353905
-0.034925498 0.105156 -0.235394
-0.034671776 0.105106 -0.23536699
-0.034512833 0.1050965 -0.23535317
-0.034283664 0.105084 -0.235357
-0.034155 0.10509221 -0.23535581
-0.033909835 0.10509967 -0.23534067
-0.033693753 0.1050925 -0.23534
-0.033532601 0.10510661 -0.23531659
-0.033258002 0.10510167 -0.23528166
-0.033069331 0.105093 -0.23526366
-0.032896556 0.105083 -0.23525135
-0.0324925 0.105099 -0.23520699
-0.032343 0.105087 -0.23521501
-0.032122169 0.10511849 -0.23520385
-0.031994 0.105032 -0.235202
-0.0513076 0.1052912 -0.23533881
-0.051131997 0.10531167 -0.23522668
-0.045674 0.10525099 -0.2352515
-0.04549389 0.10526966 -0.23524624
-0.045137253 0.1052985 -0.23529351
-0.044829998 0.105242 -0.235211
-0.035342 0.105369 -0.235393
-0.035009999 0.105351 -0.235386
-0.0349195 0.105308 -0.235393
-0.034665 0.10529434 -0.23535
-0.034495402 0.1053068 -0.23534259
-0.034274999 0.10531133 -0.23534799
-0.034137666 0.10530332 -0.23533635
-0.033903107 0.10528889 -0.2353299
-0.033686999 0.1052815 -0.23531967
-0.033544999 0.1052892 -0.23530701
-0.033252001 0.1052905 -0.23526201
-0.033060666 0.105321 -0.23526067
-0.032887999 0.10530999 -0.23523855
-0.032484997 0.10528833 -0.23520899
-0.032114498 0.1053085 -0.23520401
-0.0512814 0.1054876 -0.23535618
-0.05111067 0.1054865 -0.23523401
-0.04526633 0.10548767 -0.23522167
-0.045123599 0.1054696 -0.23524579
-0.0448175 0.10550851 -0.235245
-0.044601999 0.105532 -0.235211
-0.044410001 0.105595 -0.23522
-0.044343002 0.10555699 -0.2352435
-0.043903999 0.105574 -0.23522
-0.0434645 0.105407 -0.23539701
-0.043389998 0.105407 -0.23539799
-0.035441998 0.105528 -0.23539101
-0.035336334 0.105519 -0.23538832
-0.035045251 0.10552225 -0.23537675
-0.034912337 0.10549667 -0.23538633
-0.034689002 0.10548451 -0.23533249
-0.034541372 0.10548663 -0.23534173
-0.034267999 0.1055 -0.23534299
-0.034130998 0.1054915 -0.23532499
-0.033894442 0.10551545 -0.23532547
-0.033678669 0.10550766 -0.23531182
-0.033528332 0.10549983 -0.23528683
-0.033245664 0.10547801 -0.23524134
-0.033053502 0.10551099 -0.23525199
-0.032922249 0.1055025 -0.23525199
-0.032796502 0.105496 -0.235229
-0.032475334 0.10551634 -0.23521633
-0.0323295 0.105465 -0.235202
-0.0512385 0.105687 -0.23534051
-0.051101163 0.10571283 -0.23524733
-0.045254 0.105646 -0.235368
-0.0451276 0.1057158 -0.23533562
-0.044804499 0.1057035 -0.23536649
-0.044546597 0.10568319 -0.23524818
-0.0443375 0.1057075 -0.23522601
-0.043476395 0.1057562 -0.23537941
-0.043355402 0.1057206 -0.23536141
-0.043133002 0.105619 -0.23537999
-0.03544575 0.10569975 -0.23539151
-0.035366997 0.10569967 -0.23539333
-0.035135332 0.10571034 -0.23537934
-0.0349418 0.10571001 -0.23536201
-0.034679499 0.10571284 -0.23534365
-0.034523562 0.10570323 -0.23532401
-0.034260999 0.10568934 -0.23533399
-0.034123499 0.1056815 -0.23532169
-0.033931747 0.105707 -0.23532149
-0.033713497 0.10569882 -0.23531367
-0.033520248 0.10568975 -0.2352975
-0.03323533 0.10570734 -0.23526366
-0.033046003 0.10569933 -0.23525067
-0.032915 0.1056915 -0.23525052
-0.032788664 0.10568633 -0.23524366
-0.032469999 0.105667 -0.235212
-0.051230997 0.10587633 -0.23535
-0.051092997 0.105902 -0.23526251
-0.045074001 0.105859 -0.235201
-0.044801001 0.105852 -0.235314
-0.044799499 0.1059615 -0.235249
-0.04459 0.105836 -0.235209
-0.0438875 0.105917 -0.235295
-0.0434875 0.10590067 -0.23536982
-0.043342002 0.1058945 -0.23537076
-0.043117002 0.105997 -0.235393
-0.035496999 0.10591183 -0.23538668
-0.035355203 0.105917 -0.2353816
-0.035114665 0.105887 -0.235376
-0.034952801 0.1058928 -0.23536161
-0.034671754 0.105902 -0.23534748
-0.034503572 0.10590757 -0.23532929
-0.034252997 0.105915 -0.23531234
-0.034115165 0.1059075 -0.23530965
-0.033924669 0.10589632 -0.23531534
-0.033706445 0.10588844 -0.23530878
-0.033513501 0.105879 -0.23528932
-0.0332275 0.105897 -0.235265
-0.033039 0.105888 -0.235249
-0.032906998 0.10591766 -0.23522998
-0.032781001 0.10591301 -0.23522234
-0.051222 0.10606501 -0.23537201
-0.051085334 0.106091 -0.23526834
-0.044796001 0.106074 -0.235231
-0.043880332 0.10610566 -0.23528767
-0.043481 0.10608912 -0.23535268
-0.043335166 0.10608283 -0.23535849
-0.043114997 0.1061085 -0.23535001
-0.042943999 0.106101 -0.23537201
-0.042287 0.1061795 -0.23537651
-0.042071331 0.106143 -0.23538233
-0.041951999 0.106163 -0.23539101
-0.035419501 0.106098 -0.235393
-0.035296146 0.106104 -0.23539372
-0.035105668 0.10611468 -0.2353795
-0.034935165 0.10610483 -0.23536851
-0.034665167 0.10609017 -0.2353345
-0.034518 0.10609324 -0.235339
-0.034245498 0.106105 -0.23532
-0.034107998 0.10609649 -0.23530151
-0.033907998 0.1061074 -0.2353102
-0.033698782 0.10611422 -0.23528534
-0.033505168 0.10610517 -0.23527116
-0.033222001 0.10608467 -0.23523165
-0.033032332 0.10607734 -0.23523234
-0.032900002 0.1061065 -0.23521875
-0.032774501 0.106101 -0.235209
-0.051067196 0.10630341 -0.23529279
-0.050947502 0.106345 -0.23521301
-0.043875001 0.10629199 -0.23524299
-0.043472778 0.10631445 -0.23533733
-0.043327332 0.10630783 -0.23533966
-0.043109 0.106296 -0.23532332
-0.042894665 0.1062865 -0.23536001
-0.042206001 0.106288 -0.235369
-0.042079497 0.10631832 -0.23535599
-0.041949663 0.10631099 -0.23531467
-0.036371 0.106334 -0.235396
-0.035429399 0.1063026 -0.23538402
-0.035308499 0.10628737 -0.23538426
-0.03509875 0.106303 -0.23536551
-0.034928001 0.106295 -0.2353695
-0.034656171 0.10631817 -0.2353375
-0.034500003 0.10630912 -0.2353242
-0.034238335 0.106295 -0.235313
-0.034101333 0.10628583 -0.23529233
-0.033918802 0.1062904 -0.2352988
-0.033691831 0.10630333 -0.23527318
-0.033498999 0.10629275 -0.2352505
-0.033214003 0.10631099 -0.23521201
-0.033023667 0.10630533 -0.23523301
-0.03289425 0.10625775 -0.23521976
-0.051075798 0.1064872 -0.23532601
-0.050941497 0.1064955 -0.235221
-0.043868672 0.10648034 -0.23522533
-0.043468665 0.10649967 -0.23527266
-0.043322749 0.10649449 -0.23528425
-0.043101002 0.106521 -0.23530334
-0.042895596 0.1064984 -0.23534779
-0.042275 0.1064815 -0.235387
-0.042116001 0.10650733 -0.23531966
-0.041946501 0.1064945 -0.235227
-0.036502 0.106569 -0.235364
-0.036330748 0.106502 -0.23538776
-0.035465334 0.10651699 -0.23537189
-0.035292108 0.10650355 -0.23536256
-0.035091832 0.10649234 -0.23535766
-0.034920666 0.10648433 -0.23536682
-0.034649998 0.10650626 -0.235314
-0.034493502 0.106498 -0.23530017
-0.034229998 0.10652167 -0.23530467
-0.034092333 0.10651383 -0.23529433
-0.033902168 0.10650133 -0.235292
-0.033684891 0.10649223 -0.23526423
-0.033491667 0.10648233 -0.23524417
-0.0332065 0.106501 -0.235221
-0.033016 0.106495 -0.23523399
-0.051050801 0.106682 -0.23533139
-0.050909501 0.10670375 -0.23523624
-0.043493669 0.10669067 -0.23527034
-0.043342665 0.10668334 -0.23527524
-0.043094501 0.106709 -0.2352955
-0.042893004 0.10671567 -0.235346
-0.042748999 0.106733 -0.23537099
-0.042344671 0.10671166 -0.23535933
-0.042107668 0.10669711 -0.23533501
-0.041933 0.10669034 -0.23535132
-0.036495667 0.10672 -0.23536867
-0.036303598 0.1067088 -0.23537162
-0.036100499 0.10671575 -0.23538801
-0.0359465 0.10673 -0.235392
-0.035488997 0.106707 -0.23535776
-0.035313375 0.106695 -0.23535299
-0.035083834 0.10671866 -0.23533864
-0.034912836 0.10671066 -0.23534368
-0.034642499 0.1066955 -0.23531435
-0.034486335 0.10668678 -0.2352989
-0.034224 0.1067095 -0.23527601
-0.034085248 0.10670225 -0.23528349
-0.033895247 0.1066905 -0.23528151
-0.033685997 0.10670988 -0.23526074
-0.033499572 0.106721 -0.23523986
-0.033201002 0.106615 -0.23523
-0.033085201 0.1067012 -0.2352092
-0.051006664 0.106922 -0.23533767
-0.050887197 0.1069114 -0.23524921
-0.043486167 0.10691617 -0.23524867
-0.043333892 0.10691033 -0.23527421
-0.043087333 0.106898 -0.23527901
-0.042873502 0.1068885 -0.23530866
-0.042745668 0.10688233 -0.23533167
-0.04258633 0.106874 -0.23532666
-0.0423395 0.1068985 -0.23530801
-0.042085711 0.10690428 -0.23537444
-0.036486998 0.106912 -0.23538849
-0.0362835 0.106897 -0.23536199
-0.036062401 0.1069074 -0.235369
-0.035939336 0.10691933 -0.23539066
-0.035758663 0.10691167 -0.23537965
-0.035482168 0.1068965 -0.23534584
-0.035306338 0.10688376 -0.23534517
-0.035076499 0.10690801 -0.23533626
-0.03490575 0.10689901 -0.23533399
-0.03465325 0.10690349 -0.23529977
-0.034539249 0.10692762 -0.23527975
-0.0343065 0.10690217 -0.23527418
-0.034079168 0.10689083 -0.235263
-0.033888664 0.10687933 -0.23526549
-0.033706501 0.1069105 -0.23525974
-0.033515166 0.106901 -0.23523967
-0.033190999 0.10691734 -0.23520966
-0.032997999 0.106987 -0.235203
-0.050911497 0.10710549 -0.23532116
-0.043464001 0.10709 -0.23522735
-0.043329168 0.10709599 -0.23522367
-0.043081999 0.1070845 -0.23523951
-0.042866003 0.1071145 -0.23528117
-0.042736337 0.10710967 -0.23533432
-0.042578667 0.1071 -0.23530133
-0.042332336 0.10708734 -0.23530932
-0.042101875 0.10708676 -0.23535576
-0.0419145 0.1071105 -0.235394
-0.036945499 0.10715801 -0.235396
-0.036764003 0.1071485 -0.235377
-0.036481336 0.107099 -0.23536099
-0.036275502 0.10708666 -0.23536801
-0.036073603 0.10709 -0.23536181
-0.0359325 0.1071075 -0.23538199
-0.035752498 0.1071 -0.2353635
-0.035464801 0.1071082 -0.23534021
-0.035317902 0.107105 -0.23533829
-0.035101749 0.10710812 -0.23532763
-0.034899332 0.1070885 -0.23531485
-0.034663498 0.1071115 -0.23528701
-0.034538332 0.10710934 -0.23529099
-0.0342995 0.10709099 -0.23525825
-0.034071002 0.10711733 -0.23524667
-0.033880334 0.10710599 -0.23525368
-0.0337 0.10709849 -0.23524134
-0.033508003 0.10709089 -0.23523688
-0.0331835 0.107106 -0.235204
-0.032993503 0.107101 -0.2352125
-0.050860334 0.107292 -0.23530783
-0.043423336 0.10728899 -0.23522699
-0.043362502 0.1073045 -0.23520951
-0.042860251 0.1073015 -0.23525152
-0.042732 0.107296 -0.235283
-0.042567998 0.1072925 -0.23536199
-0.042323332 0.107315 -0.23531
-0.042096999 0.10729062 -0.23529223
-0.041931249 0.10731649 -0.23535249
-0.041715998 0.107366 -0.23540001
-0.041417502 0.107311 -0.23539901
-0.04132 0.107342 -0.235387
-0.041062001 0.10733 -0.23539101
-0.040342502 0.107332 -0.23539349
-0.040088665 0.10730734 -0.23537201
-0.036757998 0.107302 -0.235387
-0.036473498 0.107289 -0.235369
-0.036281802 0.1072986 -0.23534921
-0.036076855 0.107313 -0.23535456
-0.035926331 0.10729634 -0.23536201
-0.035744667 0.10729 -0.23536934
-0.035476603 0.1072914 -0.23534219
-0.035324167 0.10730284 -0.23531801
-0.035093285 0.10730387 -0.23531902
-0.034890663 0.10731567 -0.23531435
-0.034657001 0.10730001 -0.235273
-0.034531109 0.10729823 -0.2352861
-0.034311198 0.10726561 -0.23525199
-0.0340918 0.10731499 -0.23523378
-0.03387275 0.10729525 -0.23525074
-0.033693749 0.10728651 -0.23522325
-0.033500552 0.10731699 -0.23521233
-0.050841201 0.107505 -0.23534279
-0.050705999 0.10750666 -0.23522633
-0.043279003 0.10745933 -0.23520267
-0.042833749 0.10746825 -0.23521949
-0.042725667 0.10748234 -0.23525532
-0.042564671 0.107477 -0.235285
-0.042319 0.107499 -0.23524299
-0.042120501 0.107491 -0.23529199
-0.0419388 0.1075082 -0.23532638
-0.041712001 0.10751467 -0.235367
-0.041411001 0.10749934 -0.235385
-0.041340169 0.1074945 -0.2353785
-0.041056 0.107482 -0.235396
-0.040964 0.107554 -0.235393
-0.040335 0.1075585 -0.235375
-0.040109999 0.10751133 -0.23537667
-0.036751334 0.10749033 -0.23537099
-0.036466002 0.10747901 -0.23537667
-0.0363275 0.1075065 -0.23533401
-0.036097832 0.10749283 -0.2353425
-0.035917997 0.107522 -0.23534299
-0.035735667 0.10751799 -0.23537099
-0.035458665 0.10750366 -0.23534451
-0.035316776 0.10749201 -0.23532112
-0.035108875 0.10748838 -0.2353211
-0.034883998 0.1075035 -0.23529899
-0.034649499 0.10749 -0.235273
-0.034517288 0.10750186 -0.23526084
-0.034373332 0.107512 -0.235249
-0.034102995 0.10749856 -0.23523355
-0.033866335 0.1074845 -0.23523682
-0.033686165 0.10747734 -0.2352265
-0.033549 0.10749666 -0.23521066
-0.0507196 0.1077088 -0.23530059
-0.042803999 0.10767449 -0.23522
-0.042738251 0.10772876 -0.23523426
-0.042557999 0.10770067 -0.23523434
-0.042312667 0.107687 -0.23522902
-0.042114496 0.10767782 -0.23526067
-0.041951202 0.1076884 -0.23528981
-0.041706502 0.107701 -0.2353235
-0.041404333 0.107724 -0.23533666
-0.041305125 0.10772913 -0.23537287
-0.04109117 0.10771183 -0.23537867
-0.040917333 0.10770401 -0.2353645
-0.040596332 0.107691 -0.23539101
-0.040088251 0.10770001 -0.235367
-0.038265001 0.107798 -0.23540001
-0.037018001 0.107732 -0.23539899
-0.036741 0.107719 -0.235392
-0.036456998 0.10770699 -0.23537733
-0.036320001 0.107696 -0.235339
-0.036116716 0.10767387 -0.23535685
-0.035953749 0.107714 -0.23534
-0.035728499 0.107708 -0.235359
-0.035451248 0.10769349 -0.23534349
-0.035308335 0.10771922 -0.23531233
-0.035090111 0.107705 -0.23531301
-0.034877669 0.10769284 -0.23527867
-0.034642667 0.10767933 -0.23526435
-0.034523752 0.107685 -0.23525426
-0.034367003 0.1076995 -0.23523301
-0.034115199 0.1076808 -0.235231
-0.033892751 0.10772288 -0.23522401
-0.033723999 0.107706 -0.23522933
-0.033518333 0.10769767 -0.23520632
-0.050646003 0.10788617 -0.23529249
-0.050527997 0.10789675 -0.23522276
-0.042753503 0.10789874 -0.23521575
-0.042551 0.1078895 -0.23523399
-0.042304665 0.10791299 -0.23521
-0.042107332 0.1079035 -0.23522966
-0.041936748 0.10786074 -0.2352645
-0.041699667 0.10788966 -0.23530866
-0.041316751 0.10790975 -0.23535776
-0.041085497 0.1078985 -0.2353445
-0.04091125 0.1078915 -0.23533699
-0.040773001 0.107927 -0.235378
-0.040529836 0.10791317 -0.23536198
-0.040319502 0.1079385 -0.23538199
-0.040125001 0.10789099 -0.23537464
-0.039352998 0.107928 -0.23538101
-0.039035 0.107911 -0.235396
-0.038311165 0.107912 -0.23537983
-0.038102001 0.107941 -0.23538999
-0.037457664 0.107914 -0.23539233
-0.037320334 0.1079201 -0.23538402
-0.037086431 0.10790885 -0.23538099
-0.036917999 0.10788 -0.23538333
-0.036734499 0.1079085 -0.23538199
-0.036449999 0.107897 -0.23537001
-0.036311001 0.107923 -0.23534
-0.036127668 0.10791283 -0.23534884
-0.035946164 0.1079035 -0.23533867
-0.035721999 0.10789534 -0.23535033
-0.035469502 0.10786299 -0.23533025
-0.035325874 0.10790925 -0.23528923
-0.035125751 0.10789575 -0.23530449
-0.034901377 0.10791261 -0.23527889
-0.034634002 0.10790633 -0.23526101
-0.034509555 0.10790222 -0.23524478
-0.034360666 0.10788833 -0.23521499
-0.034136999 0.1078795 -0.23522884
-0.033897996 0.10790283 -0.23520966
-0.033716999 0.1078945 -0.235219
-0.033487499 0.107887 -0.2352045
-0.050678 0.108047 -0.23538101
-0.050524004 0.1081152 -0.23526791
-0.0427 0.108164 -0.23524
-0.042540669 0.10808334 -0.23528767
-0.042296499 0.1081035 -0.235231
-0.042144001 0.108056 -0.235209
-0.041691333 0.108115 -0.23529567
-0.041311245 0.10809642 -0.23532341
-0.041079 0.10808616 -0.23532982
-0.040903497 0.10808083 -0.23534365
-0.040727399 0.10809 -0.23536721
-0.04052325 0.10810125 -0.23534726
-0.040314503 0.108088 -0.23537001
-0.040124498 0.10812749 -0.23536575
-0.039524 0.10805351 -0.2353895
-0.039277747 0.10805525 -0.23537275
-0.038932003 0.108095 -0.23538351
-0.038296167 0.10807683 -0.23538785
-0.038139332 0.10809483 -0.23538232
-0.037905499 0.108125 -0.23539799
-0.037644498 0.10811 -0.235383
-0.037537333 0.10812066 -0.23538633
-0.037319221 0.10810445 -0.23536032
-0.037090886 0.10811567 -0.23537578
-0.036909334 0.108107 -0.23537634
-0.036729332 0.10809466 -0.23533632
-0.036442999 0.108086 -0.23535831
-0.036305003 0.108112 -0.23532149
-0.036121 0.108101 -0.2353325
-0.035940252 0.108092 -0.23532124
-0.035713669 0.108123 -0.23533601
-0.035484668 0.10811133 -0.23531501
-0.035319082 0.10809775 -0.2352764
-0.035119165 0.10808484 -0.23529051
-0.034917284 0.10809613 -0.23527415
-0.034628 0.108094 -0.23523751
-0.034502834 0.10809133 -0.23523332
-0.034351334 0.10811633 -0.23522134
-0.034128498 0.10810599 -0.23521399
-0.033938501 0.10807651 -0.235208
-0.033768665 0.10813567 -0.23520833
-0.033482999 0.108 -0.235209
-0.050486568 0.10829443 -0.23532198
-0.050332334 0.10834666 -0.23522033
-0.042693663 0.10831533 -0.23524332
-0.042535331 0.10830567 -0.23522234
-0.042291999 0.108217 -0.235221
-0.041685499 0.1083025 -0.23527101
-0.041297454 0.10831363 -0.23527862
-0.041071337 0.10831233 -0.23530616
-0.040895503 0.10830733 -0.23532601
-0.040711001 0.10829983 -0.23533316
-0.040528398 0.10827661 -0.2353414
-0.040307332 0.108277 -0.23536099
-0.040107999 0.108306 -0.23533766
-0.039747998 0.108291 -0.2353905
-0.03945725 0.108354 -0.23539099
-0.039328668 0.10833216 -0.23538785
-0.039196998 0.108298 -0.23539133
-0.038924333 0.108284 -0.23538433
-0.038734503 0.108318 -0.23539799
-0.038445 0.108343 -0.235396
-0.038318999 0.10833099 -0.235386
-0.038122803 0.10830639 -0.23537859
-0.037921287 0.10832628 -0.2353927
-0.037671797 0.1083164 -0.2353812
-0.037491556 0.10829422 -0.23537377
-0.037328906 0.10828754 -0.23532735
-0.037127249 0.108308 -0.23536751
-0.036951251 0.10829425 -0.2353425
-0.036721669 0.10832 -0.23530699
-0.036435667 0.10831133 -0.23532467
-0.0363 0.10829733 -0.23526566
-0.036114499 0.10828984 -0.23531634
-0.0359325 0.10828134 -0.23531915
-0.035706997 0.1083115 -0.23531699
-0.0354775 0.1083005 -0.235305
-0.03530322 0.10829833 -0.23526089
-0.035110831 0.10831183 -0.23527686
-0.034897774 0.10830066 -0.23526046
-0.034625001 0.108206 -0.235202
-0.03448325 0.10825875 -0.23520675
-0.033976503 0.108288 -0.23520499
-0.033705 0.108235 -0.235203
-0.05042525 0.10846975 -0.235338
-0.050312575 0.10849529 -0.23525615
-0.04253 0.108457 -0.23520701
-0.041679334 0.10849033 -0.23523867
-0.04130733 0.10849633 -0.23526199
-0.041065753 0.10849924 -0.2352635
-0.040890001 0.1084935 -0.235292
-0.040694799 0.1085088 -0.23529819
-0.040518202 0.1085346 -0.2353504
-0.040298332 0.10850433 -0.23536168
-0.04010189 0.10849301 -0.23531657
-0.039740998 0.10848 -0.23538899
-0.039506502 0.108507 -0.23538551
-0.03930733 0.10849484 -0.23537649
-0.03911275 0.10852987 -0.23537473
-0.038914997 0.10851201 -0.23539066
-0.038727667 0.10850667 -0.23539199
-0.038439002 0.108495 -0.235394
-0.038289778 0.10848022 -0.23536645
-0.0381332 0.1084896 -0.23538141
-0.037889834 0.10850366 -0.23538865
-0.037673999 0.10849001 -0.23537424
-0.037475877 0.10851113 -0.23536038
-0.037312414 0.10850885 -0.23534514
-0.037122168 0.10849484 -0.23532815
-0.036944166 0.108484 -0.23533218
-0.036714502 0.108509 -0.23529901
-0.0364285 0.108502 -0.23532799
-0.036293998 0.108486 -0.2352435
-0.036106832 0.10851566 -0.23529382
-0.035924334 0.10850783 -0.23530483
-0.035700668 0.10849934 -0.235295
-0.035471667 0.108487 -0.23527133
-0.035312179 0.108483 -0.23525181
-0.035104502 0.1084985 -0.2352495
-0.034891501 0.10848833 -0.23523484
-0.050404999 0.108643 -0.235379
-0.050292447 0.10870567 -0.23533688
-0.050090499 0.1087245 -0.23522499
-0.049988002 0.108756 -0.235202
-0.0416735 0.108677 -0.23520699
-0.041324332 0.10869667 -0.235223
-0.041104887 0.10868888 -0.23524645
-0.040884834 0.10868049 -0.23524751
-0.040709201 0.108689 -0.23526518
-0.040501751 0.10870525 -0.23530275
-0.040291499 0.1086935 -0.235356
-0.040094998 0.10871755 -0.23527567
-0.039733004 0.10870668 -0.23536634
-0.039476 0.1087116 -0.23538139
-0.039316546 0.10869172 -0.23537226
-0.039096165 0.108707 -0.23534115
-0.038909003 0.1087 -0.235374
-0.038721003 0.1086955 -0.23538399
-0.038430337 0.10872233 -0.23538832
-0.038283333 0.10870355 -0.23531246
-0.038117167 0.10869983 -0.23535685
-0.037927166 0.10869316 -0.23536366
-0.037710112 0.1086831 -0.235369
-0.03748614 0.10869414 -0.23534571
-0.037305746 0.10869724 -0.23533337
-0.037115004 0.10872 -0.23529367
-0.036936998 0.10870983 -0.23530434
-0.036708001 0.108697 -0.235282
-0.036422666 0.10868766 -0.23528533
-0.036285669 0.10867599 -0.23525733
-0.0361 0.108704 -0.23527876
-0.035918001 0.10869575 -0.235282
-0.035694003 0.108689 -0.23528799
-0.035463002 0.10871434 -0.23527034
-0.035297666 0.10870125 -0.23523007
-0.035098664 0.1086865 -0.23522367
-0.034928832 0.10868016 -0.23522399
-0.050225999 0.108856 -0.23537999
-0.050078332 0.10891833 -0.23530532
-0.049911797 0.1089208 -0.23524439
-0.041305751 0.10886525 -0.2352175
-0.041074749 0.1088925 -0.23520924
-0.040924001 0.108827 -0.235203
-0.040691663 0.10889917 -0.23524918
-0.040496502 0.1088905 -0.23525934
-0.040286999 0.108879 -0.235295
-0.040105402 0.10889961 -0.2352716
-0.039999999 0.108941 -0.235268
-0.039728001 0.108892 -0.235323
-0.039464999 0.10891884 -0.2353235
-0.039316252 0.10890967 -0.23532735
-0.039101124 0.10888726 -0.23532611
-0.03892725 0.108907 -0.23532975
-0.038714666 0.10888367 -0.23536067
-0.038424 0.1089105 -0.23536551
-0.038278166 0.1088895 -0.235267
-0.038111165 0.10892317 -0.23529865
-0.037919499 0.10891917 -0.23533766
-0.037702445 0.10890878 -0.23534767
-0.037469666 0.10889823 -0.2353379
-0.037299499 0.10888525 -0.2353081
-0.037107497 0.1089095 -0.235293
-0.03692925 0.10889925 -0.23530501
-0.036701001 0.1088865 -0.23527201
-0.036414001 0.108915 -0.235285
-0.036277335 0.10890334 -0.23524965
-0.036093164 0.10889367 -0.2352695
-0.035910834 0.10888568 -0.23527582
-0.035687331 0.10887634 -0.23527233
-0.035457 0.108902 -0.23524401
-0.035281446 0.10890234 -0.23522078
-0.035099797 0.1088986 -0.23521081
-0.034965001 0.108832 -0.23521601
-0.034788001 0.108898 -0.235202
-0.050068501 0.1091115 -0.2353635
-0.049885996 0.10909624 -0.23528799
-0.049625002 0.109192 -0.23520499
-0.04109 0.109065 -0.235203
-0.040669668 0.10907367 -0.23522067
-0.040487666 0.10911816 -0.2352605
-0.040280666 0.109102 -0.235245
-0.040125336 0.1090945 -0.23522967
-0.039995998 0.10909101 -0.23523499
-0.039721001 0.10908133 -0.23531599
-0.03945775 0.109108 -0.23531651
-0.039310377 0.10909688 -0.235301
-0.0391188 0.1091072 -0.23529699
-0.038943999 0.10911516 -0.23531032
-0.03870767 0.109108 -0.23532133
-0.038417 0.109099 -0.23535602
-0.038269222 0.10908233 -0.23530155
-0.038104501 0.1091125 -0.235292
-0.037913252 0.109107 -0.2353135
-0.037696332 0.10909683 -0.23532166
-0.037454627 0.10911463 -0.23531489
-0.037291501 0.10911167 -0.23529042
-0.037099499 0.10910001 -0.23530467
-0.036922663 0.10908783 -0.2352915
-0.036693003 0.109078 -0.23528868
-0.036406502 0.109105 -0.23528901
-0.036271498 0.10909 -0.235219
-0.036076002 0.1091038 -0.23524821
-0.035902333 0.1091125 -0.23526601
-0.035679001 0.10910367 -0.23526132
-0.035450332 0.10909133 -0.23523033
-0.035315372 0.109073 -0.23521863
-0.049958002 0.109297 -0.23537965
-0.049723603 0.1092924 -0.23527101
-0.040541001 0.109309 -0.23522949
-0.040132001 0.10929633 -0.23521668
-0.03999 0.109279 -0.23521301
-0.039713997 0.10930567 -0.23527567
-0.039451335 0.10929633 -0.2352985
-0.039303914 0.10928475 -0.23527777
-0.039128803 0.1092902 -0.23529419
-0.038938001 0.10930275 -0.23528349
-0.038700499 0.10929801 -0.23532251
-0.038411334 0.10932233 -0.23529933
-0.038261112 0.10930823 -0.23528245
-0.038097668 0.10930034 -0.235273
-0.037906498 0.10929549 -0.23530084
-0.037700877 0.10927638 -0.23531099
-0.037509166 0.10930267 -0.23530066
-0.037308 0.10930121 -0.23527201
-0.037083399 0.1093104 -0.2352834
-0.036914833 0.10931417 -0.23527248
-0.036685001 0.10930333 -0.23526967
-0.036401499 0.109255 -0.23527199
-0.036297001 0.10930301 -0.23523501
-0.036103752 0.1092905 -0.23523326
-0.035897002 0.1092995 -0.23523426
-0.035672501 0.1092925 -0.23524499
-0.035440497 0.109355 -0.235212
-0.035349 0.109236 -0.23521399
-0.049695339 0.10950617 -0.23531498
-0.040622 0.109462 -0.23520899
-0.040534999 0.1094605 -0.235228
-0.039708003 0.1094935 -0.23525199
-0.039444834 0.10952017 -0.23525782
-0.03929675 0.10951 -0.23524819
-0.039113835 0.10949866 -0.23525751
-0.038932834 0.10948867 -0.23524068
-0.038696002 0.109482 -0.235259
-0.038404502 0.1095105 -0.23528799
-0.03825533 0.10949501 -0.23525633
-0.038090251 0.1094905 -0.23527326
-0.037899505 0.10952 -0.23526184
-0.037725165 0.10951417 -0.2352915
-0.037516553 0.10950245 -0.23527312
-0.037308719 0.10948478 -0.23525827
-0.037113335 0.1095015 -0.23524566
-0.03690825 0.10950225 -0.235254
-0.036679 0.10949101 -0.235241
-0.036339 0.1094978 -0.235219
-0.03607117 0.10949782 -0.23523502
-0.035890166 0.10948816 -0.23521817
-0.035666 0.10947999 -0.23522432
-0.049603 0.109649 -0.235278
-0.049536999 0.1097215 -0.23523051
-0.040610999 0.109728 -0.235222
-0.039704002 0.1096425 -0.235213
-0.039437748 0.10970899 -0.2352505
-0.039290003 0.10969912 -0.23523676
-0.039106671 0.10972334 -0.23522265
-0.038924169 0.10971566 -0.23523368
-0.038688 0.109709 -0.23524266
-0.038401 0.109622 -0.235263
-0.038292892 0.10968812 -0.23524679
-0.038112376 0.10968863 -0.23525052
-0.037892748 0.109709 -0.2352515
-0.037719 0.1097025 -0.23527201
-0.037499573 0.10970571 -0.23524401
-0.037312541 0.10970964 -0.23522972
-0.037118223 0.10970311 -0.23522955
-0.036901835 0.10969017 -0.23523217
-0.036671665 0.10968067 -0.23523998
-0.036387 0.1097045 -0.23520401
-0.036039002 0.109703 -0.23521724
-0.035881832 0.109714 -0.23520549
-0.035657998 0.109707 -0.23520868
-0.035431001 0.10962 -0.235201
-0.04952886 0.10989685 -0.235274
-0.039437402 0.1098822 -0.23523161
-0.039291844 0.10989408 -0.23522884
-0.038917501 0.10990401 -0.2352165
-0.038681 0.1098975 -0.23523599
-0.038298715 0.10990328 -0.23521529
-0.038114127 0.10989563 -0.23522738
-0.037886668 0.1098965 -0.23522733
-0.037712667 0.10989067 -0.23525
-0.037511751 0.10989013 -0.23524538
-0.037318666 0.10989599 -0.23523855
-0.037111331 0.109892 -0.23521733
-0.036903601 0.1099172 -0.23521098
-0.036665499 0.109869 -0.23521701
-0.036378998 0.10989667 -0.235213
-0.049499124 0.11009462 -0.23531063
-0.049394 0.110124 -0.23521399
-0.039453998 0.110049 -0.235211
-0.039359752 0.11006249 -0.23521675
-0.038865 0.110015 -0.23520499
-0.0386765 0.110047 -0.2352035
-0.038259998 0.11006249 -0.2352085
-0.038108665 0.11008067 -0.23520666
-0.03788 0.11008525 -0.23521301
-0.037704833 0.11011616 -0.235228
-0.037495445 0.11010566 -0.23522554
-0.037317224 0.11008089 -0.23521768
-0.037128288 0.11007215 -0.23521113
-0.0368395 0.110104 -0.23520601
-0.049462751 0.11029275 -0.2353135
-0.049385335 0.11031634 -0.23524134
-0.037699498 0.11026751 -0.235212
-0.037516996 0.11028133 -0.23520668
-0.037365999 0.110253 -0.235218
-0.037176002 0.110237 -0.235202
-0.049441248 0.11046524 -0.235349
-0.049351498 0.11050525 -0.23526126
-0.049419001 0.110638 -0.23539799
-0.049301911 0.11069945 -0.23527862
-0.049254857 0.11089943 -0.23531972
-0.049163669 0.11090934 -0.23523933
-0.049230002 0.111037 -0.235374
-0.049112752 0.11109801 -0.23527148
-0.04908175 0.11127225 -0.23533349
-0.048959002 0.1113175 -0.23523101
-0.048906498 0.11150825 -0.23527999
-0.048857 0.111659 -0.235305
-0.048740998 0.111725 -0.23524101
-0.048701335 0.111881 -0.23530467
-0.048583001 0.111942 -0.23520599
-0.048529752 0.11209776 -0.2352815
-0.048349001 0.112161 -0.235212
-0.048475999 0.112254 -0.23535
-0.048304666 0.11231467 -0.23525099
-0.048184998 0.112378 -0.23520499
-0.048257995 0.112473 -0.235346
-0.048133001 0.1125024 -0.2352716
-0.047970999 0.112596 -0.235201
-0.048072997 0.11263833 -0.23534267
-0.047962002 0.1127175 -0.23528999
-0.047952 0.112842 -0.23539101
-0.0477276 0.11290701 -0.2352626
-0.04769367 0.113078 -0.23535167
-0.047488 0.113184 -0.235228
-0.047480501 0.11330201 -0.235282
-0.047474001 0.113422 -0.23532601
-0.047263 0.113554 -0.23520599
-0.047258001 0.113635 -0.235256
-0.047128499 0.113774 -0.23522601
-0.047100998 0.113851 -0.235249
-0.046508998 0.114547 -0.235229
-0.046274334 0.11474899 -0.23523401
-0.046253603 0.11486821 -0.23530659
-0.046102334 0.11494233 -0.23526935
-0.046069 0.1150295 -0.23537099
-0.045906145 0.11508671 -0.235274
-0.045717001 0.115146 -0.23522
-0.04569675 0.11530238 -0.23533201
-0.045538001 0.115336 -0.235248
-0.045466665 0.11547833 -0.235295
-0.045345999 0.1155545 -0.235231
-0.045428 0.115609 -0.235348
-0.045295749 0.11571176 -0.235301
-0.045200001 0.115737 -0.235241
-0.045248002 0.115828 -0.23535199
-0.045094773 0.11587911 -0.23527023
-0.044967003 0.11595351 -0.235237
-0.044923749 0.11607375 -0.23530674
-0.04476 0.116169 -0.23524401
-0.044668 0.116242 -0.235221
-0.044387497 0.116501 -0.23526099
-0.04417 0.116599 -0.23520599
-0.044100143 0.11672357 -0.23527415
-0.043940999 0.1167385 -0.2352255
-0.044015002 0.116834 -0.23531801
-0.043901335 0.11682134 -0.23527901
-0.043125998 0.117396 -0.235257
-0.043023001 0.117468 -0.23528799
-0.042957004 0.11751533 -0.23527201
-0.042858001 0.117617 -0.235293
-0.042668998 0.117674 -0.235221
-0.041907001 0.118092 -0.235208
-0.041707501 0.118159 -0.23522151
-0.041576002 0.118238 -0.235273
-0.041294999 0.118371 -0.235219
-0.040962003 0.1185855 -0.23524201
-0.040898502 0.118669 -0.23531701
-0.040710669 0.118734 -0.235291
-0.040490001 0.1187955 -0.235239
-0.040660001 0.1188145 -0.23533
-0.040483497 0.118881 -0.235302
-0.040300503 0.118905 -0.23526201
-0.040103 0.119006 -0.23522651
-0.034182001 0.081586003 -0.235172
-0.033907667 0.081579663 -0.23509933
-0.033739999 0.081575997 -0.235048
-0.033268999 0.081541002 -0.235075
-0.033048 0.081532001 -0.2350935
-0.032856334 0.081538342 -0.235126
-0.032708336 0.081557997 -0.235139
-0.032315999 0.081555001 -0.235165
-0.035533335 0.081744999 -0.235191
-0.035265338 0.081703335 -0.23515968
-0.035069 0.081680998 -0.23514575
-0.034879502 0.081709497 -0.23509867
-0.034699667 0.081703499 -0.23507933
-0.034506444 0.081693329 -0.23509067
-0.03418 0.081706494 -0.23510501
-0.033907998 0.081663333 -0.23502134
-0.033048499 0.081615001 -0.2350225
-0.032871 0.081636503 -0.23504201
-0.032695003 0.081669502 -0.23503199
-0.032302998 0.081699006 -0.2350724
-0.032125797 0.081714407 -0.23512319
-0.031848751 0.081727497 -0.235076
-0.031677 0.081717752 -0.23508075
-0.031455398 0.081707798 -0.2351304
-0.031300999 0.081722997 -0.235148
-0.031105001 0.081787497 -0.2351355
-0.036059499 0.081925005 -0.23518199
-0.035876002 0.081892334 -0.23515101
-0.035657663 0.081911005 -0.23508
-0.035533 0.081884719 -0.23508298
-0.035294749 0.081854001 -0.2350515
-0.035068501 0.081803501 -0.235055
-0.034486599 0.081880406 -0.23502679
-0.03418 0.081830002 -0.23501401
-0.031446666 0.081822999 -0.23503333
-0.031302001 0.081807002 -0.235066
-0.0311055 0.081870496 -0.235062
-0.030974001 0.081900999 -0.235055
-0.030693831 0.0819325 -0.23512
-0.030517001 0.081984997 -0.235154
-0.030366 0.081967503 -0.2351975
-0.03629975 0.082149252 -0.23516901
-0.036100551 0.08208511 -0.23510188
-0.035890248 0.082041249 -0.23504852
-0.034506999 0.082004003 -0.23501401
-0.030694999 0.082044005 -0.23501951
-0.030478999 0.082083754 -0.235075
-0.030318499 0.082087837 -0.235089
-0.030101001 0.082157671 -0.23515101
-0.029851001 0.082179002 -0.235062
-0.036908001 0.082353003 -0.23519599
-0.036727998 0.082346998 -0.235164
-0.036435995 0.082307994 -0.23514567
-0.0363115 0.082291007 -0.23509
-0.036141001 0.082245998 -0.2350255
-0.030222001 0.082202002 -0.235002
-0.030130999 0.082269996 -0.235052
-0.029525001 0.082322001 -0.235006
-0.029321499 0.082298502 -0.23504451
-0.029126201 0.082331404 -0.23506999
-0.037448 0.082539 -0.235199
-0.037310999 0.082532004 -0.235157
-0.037129499 0.082481995 -0.2351615
-0.03694867 0.082514666 -0.23510568
-0.036726665 0.082506992 -0.235072
-0.036457799 0.082476795 -0.23508379
-0.036357999 0.082471751 -0.23502199
-0.02902 0.082437001 -0.235007
-0.028844999 0.082462996 -0.23505199
-0.028491 0.082519598 -0.23512161
-0.02833 0.082535997 -0.23512849
-0.028107001 0.082598999 -0.23516101
-0.037907999 0.082791001 -0.235172
-0.037727498 0.082744502 -0.23516101
-0.037446 0.082699001 -0.23511267
-0.037309002 0.082691662 -0.23507035
-0.037126664 0.082680665 -0.23505814
-0.036931332 0.082697667 -0.23502667
-0.036493 0.082650997 -0.23502
-0.028432 0.082630999 -0.23502401
-0.028310001 0.082620002 -0.235028
-0.028106499 0.082720503 -0.235063
-0.027822001 0.082740001 -0.235066
-0.027691498 0.082734004 -0.23504099
-0.027491599 0.082750402 -0.23509601
-0.027317001 0.082788005 -0.23506901
-0.038084 0.082955003 -0.235158
-0.037952751 0.0829105 -0.23513301
-0.037725501 0.082902506 -0.235081
-0.037442498 0.082895502 -0.235026
-0.037306 0.082849003 -0.235009
-0.026860999 0.082913004 -0.23507933
-0.026710249 0.082938001 -0.23511875
-0.026532 0.082966 -0.23515099
-0.038295001 0.083145663 -0.23517168
-0.038122669 0.083111838 -0.23512584
-0.037948333 0.083106004 -0.23505948
-0.037723001 0.083020002 -0.23503099
-0.026614999 0.083058 -0.235001
-0.026458198 0.083073191 -0.23507819
-0.026296001 0.083093144 -0.23510215
-0.026108667 0.083142005 -0.23513602
-0.039253 0.083397999 -0.23519251
-0.039113998 0.083393 -0.23518001
-0.038925998 0.083347254 -0.235175
-0.038710568 0.083318286 -0.23516499
-0.038476501 0.083324008 -0.23516281
-0.038316797 0.083292708 -0.23512971
-0.038117498 0.083304755 -0.23508024
-0.037992001 0.083263002 -0.235017
-0.026094999 0.083251499 -0.235036
-0.025913199 0.0832958 -0.23508701
-0.025754333 0.083352 -0.23511934
-0.039423 0.083566003 -0.235176
-0.039274666 0.083516993 -0.23514701
-0.039111499 0.083509497 -0.23512998
-0.038922749 0.0835035 -0.235112
-0.038706999 0.083493493 -0.235085
-0.038465001 0.083509877 -0.23508638
-0.038301334 0.083508827 -0.23507148
-0.038121 0.083483003 -0.23504201
-0.025735501 0.083460495 -0.2350345
-0.025238499 0.083462253 -0.23507275
-0.025072001 0.083515666 -0.23509432
-0.024842 0.083555996 -0.23512401
-0.039705999 0.083733998 -0.235158
-0.0394205 0.083684504 -0.235129
-0.039270442 0.08371155 -0.23507479
-0.039106999 0.083705001 -0.23506033
-0.038918499 0.083698668 -0.23503833
-0.038704 0.0836422 -0.23502281
-0.038469002 0.083688505 -0.23502417
-0.038298249 0.083664253 -0.23501675
-0.024843 0.083637998 -0.235034
-0.024691334 0.083646663 -0.23511301
-0.024508201 0.083733603 -0.2351176
-0.024372 0.083751999 -0.235193
-0.039885998 0.083928496 -0.235165
-0.039701667 0.083887003 -0.23512965
-0.039416 0.08387766 -0.23506899
-0.0392785 0.083887503 -0.235019
-0.039145 0.083900496 -0.23501301
-0.038959999 0.083853997 -0.235009
-0.024461001 0.083845496 -0.23502401
-0.024346501 0.083873995 -0.2350585
-0.039918598 0.084105805 -0.23514561
-0.039695665 0.084118009 -0.23507033
-0.039410502 0.084070504 -0.23502
-0.040693499 0.084356502 -0.23515999
-0.040433001 0.084303498 -0.23518433
-0.040283002 0.084331371 -0.23517737
-0.040093198 0.084295206 -0.23517461
-0.039932799 0.084292009 -0.2351044
-0.039690502 0.084312007 -0.235017
-0.02344225 0.084311754 -0.23508926
-0.023282625 0.084337376 -0.23514113
-0.023159999 0.084367 -0.235168
-0.041243002 0.084536999 -0.2351715
-0.041087247 0.084528252 -0.2351785
-0.040959001 0.084525496 -0.23515999
-0.040689498 0.084509499 -0.235128
-0.040455997 0.084499501 -0.23512399
-0.04029464 0.084498271 -0.23512326
-0.040096 0.084511995 -0.23511566
-0.039917003 0.084507339 -0.23505467
-0.0231195 0.084449001 -0.23505899
-0.022893667 0.08448267 -0.23508267
-0.041532334 0.084722333 -0.23517267
-0.041312497 0.084695004 -0.23514825
-0.041074801 0.084706202 -0.235127
-0.040954001 0.084718339 -0.23510633
-0.040684 0.084703662 -0.23507302
-0.040451001 0.084691674 -0.23507465
-0.040305071 0.08468771 -0.23507164
-0.040090751 0.084705003 -0.2350665
-0.039959498 0.084701002 -0.235021
-0.041856498 0.08495 -0.235194
-0.041717596 0.084922798 -0.23518321
-0.041542169 0.084903002 -0.23511817
-0.041307498 0.084888667 -0.23509616
-0.041085999 0.084891997 -0.23508021
-0.040949002 0.084910005 -0.235062
-0.040678501 0.084894501 -0.235044
-0.040444333 0.084922336 -0.23502834
-0.040328626 0.084886618 -0.23502463
-0.040124714 0.084878147 -0.23502314
-0.041880328 0.085116327 -0.23517966
-0.041722 0.085101001 -0.23513475
-0.041536499 0.08509475 -0.23508324
-0.041300997 0.085118003 -0.23504882
-0.041071832 0.085106842 -0.23503299
-0.040943 0.085102327 -0.23502366
-0.040671334 0.085084327 -0.23503034
-0.040438998 0.085075997 -0.23500299
-0.042588003 0.085296497 -0.235181
-0.04226467 0.085314669 -0.23516767
-0.042094141 0.085326567 -0.23516843
-0.041890502 0.085296176 -0.23513468
-0.041716669 0.085293502 -0.23508567
-0.041530166 0.085286163 -0.23505168
-0.041320335 0.085298002 -0.235026
-0.041079666 0.085285001 -0.23500834
-0.040667001 0.085235998 -0.23500399
-0.043023001 0.085584998 -0.235199
-0.042891797 0.085516796 -0.23517899
-0.042769331 0.085496664 -0.235173
-0.042582333 0.085487664 -0.23514134
-0.042260002 0.085508004 -0.235102
-0.042102333 0.085498177 -0.23511584
-0.041885749 0.085489497 -0.2350755
-0.041701201 0.085507408 -0.23504141
-0.041545749 0.085496746 -0.23501
-0.041363999 0.085466504 -0.23501399
-0.021413 0.085419998 -0.235009
-0.021294666 0.085483998 -0.235062
-0.021156 0.085554004 -0.235011
-0.043069664 0.085713662 -0.23517901
-0.042894498 0.085692495 -0.23515373
-0.042763002 0.085687995 -0.235139
-0.042575002 0.085717 -0.23510499
-0.042254169 0.085699834 -0.23506284
-0.042097554 0.085690767 -0.235063
-0.041880336 0.085681669 -0.23502983
-0.041752502 0.085641995 -0.235015
-0.043410003 0.085947499 -0.235182
-0.043090165 0.085893989 -0.235144
-0.042888835 0.085883498 -0.23511766
-0.042757999 0.085880004 -0.23509467
-0.042569499 0.085908502 -0.235062
-0.042257335 0.085879326 -0.23501234
-0.042091999 0.085882001 -0.23502065
-0.041916501 0.085891746 -0.235015
-0.043458 0.086116336 -0.23516066
-0.0430688 0.086107597 -0.23509519
-0.042881668 0.086113162 -0.235076
-0.042750668 0.086108334 -0.23506235
-0.042563334 0.086098999 -0.23503466
-0.041997001 0.086069003 -0.23500399
-0.043667331 0.086353339 -0.23517799
-0.043519001 0.086277492 -0.23515125
-0.043398999 0.086329505 -0.23510599
-0.043117248 0.086277753 -0.2350705
-0.0429 0.086311594 -0.23505381
-0.042745002 0.086298004 -0.23503
-0.0425575 0.086289003 -0.235008
-0.043677755 0.086496249 -0.235147
-0.043552 0.086490497 -0.235118
-0.043392997 0.086522005 -0.23507433
-0.043148 0.086507671 -0.23505001
-0.042910777 0.086495325 -0.23503645
-0.042738002 0.086488001 -0.23502032
-0.044225 0.086787 -0.23519599
-0.044176999 0.086785004 -0.23519599
-0.043878 0.086769998 -0.23518801
-0.043671165 0.086685836 -0.23512799
-0.043546334 0.08668033 -0.23508167
-0.0433865 0.086711496 -0.23505801
-0.043141499 0.086696997 -0.23503101
-0.042903431 0.086700141 -0.23502085
-0.042729001 0.086714 -0.235016
-0.044221498 0.086900994 -0.235173
-0.044119999 0.086896002 -0.23517717
-0.043873996 0.08692234 -0.23514567
-0.043663833 0.086914159 -0.235092
-0.043538999 0.086908668 -0.23505168
-0.043379996 0.086901002 -0.23503667
-0.043134999 0.086887002 -0.23501766
-0.042946599 0.086891197 -0.23501301
-0.042723998 0.086865999 -0.235008
-0.044253599 0.087108597 -0.2351656
-0.044114336 0.087087341 -0.23513556
-0.043867998 0.087112993 -0.23511699
-0.043657497 0.087103501 -0.23507124
-0.043532498 0.087098002 -0.23503551
-0.043373503 0.0870905 -0.23502201
-0.043126334 0.087113328 -0.23501134
-0.042909998 0.087081499 -0.235006
-0.040357001 0.087185003 -0.235002
-0.038830001 0.087173998 -0.23500501
-0.038738001 0.087168999 -0.235009
-0.038524501 0.087155499 -0.2350125
-0.038263001 0.087119333 -0.23501867
-0.038038332 0.087151341 -0.23501001
-0.037925001 0.087196 -0.23501401
-0.036547001 0.087192997 -0.23500501
-0.036316 0.087182999 -0.23501
-0.0442468 0.087306201 -0.23514299
-0.044106331 0.087315217 -0.23511702
-0.043862 0.087303996 -0.23508601
-0.043651503 0.087294005 -0.23504382
-0.043525998 0.087288 -0.23501535
-0.043366 0.087278664 -0.23501401
-0.0427045 0.087355003 -0.235006
-0.042514998 0.087379999 -0.23500299
-0.042120501 0.087318003 -0.235001
-0.040584002 0.087347001 -0.235007
-0.040055335 0.087365001 -0.23501766
-0.039947502 0.087346502 -0.235015
-0.039012499 0.087295003 -0.23501399
-0.038823996 0.087323338 -0.23502199
-0.038697399 0.087333001 -0.23502481
-0.038517501 0.087305166 -0.23503582
-0.038284302 0.087302901 -0.23503061
-0.03810991 0.087288454 -0.23503208
-0.037876751 0.087303504 -0.23502876
-0.037553001 0.087399997 -0.23501
-0.037266999 0.087387003 -0.235019
-0.036874715 0.087295152 -0.235011
-0.036723997 0.087276332 -0.23502733
-0.036541 0.087305002 -0.23503301
-0.036262751 0.087291747 -0.23502825
-0.03611014 0.087339282 -0.235019
-0.035956334 0.087357335 -0.23500998
-0.0446105 0.087528005 -0.23519301
-0.0442755 0.087475501 -0.23513375
-0.044113856 0.087510429 -0.23510328
-0.043855499 0.087493002 -0.23506799
-0.043652602 0.087507203 -0.23502278
-0.043537997 0.087534003 -0.23500699
-0.043361001 0.08743 -0.23500299
-0.042870998 0.087549999 -0.235009
-0.042698503 0.087504998 -0.235011
-0.042510502 0.087494999 -0.235009
-0.042206001 0.087590002 -0.23500501
-0.0421625 0.087548003 -0.23500401
-0.041017 0.087596998 -0.23500399
-0.040914752 0.087536745 -0.23501199
-0.040577665 0.087497674 -0.23501933
-0.040295251 0.087491877 -0.23503289
-0.040114 0.087507375 -0.23502311
-0.039895996 0.087494247 -0.23502225
-0.039752666 0.087523662 -0.23501401
-0.039564498 0.087554999 -0.23500499
-0.039276 0.087502666 -0.23502634
-0.039079223 0.087502666 -0.23502177
-0.038876999 0.087491602 -0.23503499
-0.038680252 0.087502748 -0.23506951
-0.03850875 0.087491497 -0.23507001
-0.038284089 0.087513633 -0.23506056
-0.038110301 0.087499008 -0.23506442
-0.037900623 0.087502122 -0.23505074
-0.037731666 0.087483995 -0.23502468
-0.037547499 0.087511502 -0.23503301
-0.037261501 0.087498501 -0.235048
-0.0371245 0.08749 -0.235017
-0.036919143 0.087501422 -0.23504543
-0.036747001 0.087517396 -0.235064
-0.036533002 0.087493993 -0.23504567
-0.036254667 0.087479167 -0.235047
-0.036110666 0.087506674 -0.23503317
-0.035892669 0.087491505 -0.23502849
-0.035668202 0.087533996 -0.2350134
-0.035367999 0.087582 -0.235002
-0.034984 0.087557003 -0.235008
-0.034699999 0.087537996 -0.23501
-0.044604331 0.08771833 -0.23516767
-0.044292003 0.087704338 -0.23512368
