0.143958 -0.0370992 0.988888 0.0275339
-0.0450815 0.00833726 0.998949 0
-0.0492527 0.000875837 0.998786 0
-0.0551961 -0.00657853 0.998454 0.00764902
-0.0620944 0.00279882 0.998066 0.0235419
-0.0579746 0.0123051 0.998242 0.0122253
-0.0634863 -0.0012372 0.997982 0.0291307
-0.0655329 -0.0111699 0.997788 0.0278798
-0.0628043 -0.00292989 0.998022 0.0115014
-0.0643959 -0.0175805 0.99777 0.00628386
-0.0602613 -0.0201013 0.99798 0.0173134
-0.0603666 -0.000794443 0.998176 0.0213179
-0.0601129 0.00288019 0.998187 0.0144101
-0.0569651 -0.00283221 0.998372 0.00770441
-0.0530722 -0.0185966 0.998417 0.00601765
-0.051191 -0.0248856 0.998379 0
-0.0566695 -0.0045075 0.998383 0
-0.0525317 0.0128159 0.998537 0
-0.0517395 0.00627104 0.998641 0
-0.0472421 0.0378537 0.998166 0
-0.0507677 0.0217474 0.998474 0
-0.0487192 0.0427081 0.997899 0
0.132014 -0.0347564 0.990638 0.0310948
0.144518 -0.0428911 0.988572 0.0351342
-0.0501193 -0.000840359 0.998743 0
-0.0476629 0.011597 0.998796 0
-0.0523807 0.000297497 0.998627 0
-0.0555246 0.00660939 0.998435 0.00270038
-0.0624713 -0.00628175 0.998027 0.0204389
-0.056214 0.00740935 0.998391 0.00881036
-0.0630045 -0.00313808 0.998008 0.0232454
-0.0624131 -0.0126291 0.99797 0.0160474
-0.064709 -0.0101989 0.997852 0.0124462
-0.0603612 -0.00940285 0.998132 0.0160736
-0.0555911 0.000224571 0.998454 0.0123383
-0.0527027 0.00710051 0.998585 0.00718077
-0.0518599 0.00646171 0.998633 0
-0.051694 0.00607855 0.998644 0
-0.0567097 -0.00245977 0.998388 0
-0.0544162 0.00547759 0.998503 0
-0.0516452 0.0161204 0.998535 0
-0.0497359 0.0126519 0.998682 0
-0.0528052 0.0318077 0.998098 0
0.124685 -0.0236902 0.991913 0.0154031
0.137892 -0.0278586 0.990055 0.0166717
-0.0477783 0.0165303 0.998721 0
-0.0530072 0.00371895 0.998587 0
-0.0574474 -0.0139058 0.998252 0.00682615
-0.0576104 -0.00624082 0.99832 0.0155773
-0.05737 -0.0165732 0.998215 0.0107539
-0.0604589 -0.0165152 0.998034 0.0173788
-0.0608443 -0.0141744 0.998047 0.00158256
-0.0650379 -0.0181186 0.997718 0.0102598
-0.0582879 -0.00338893 0.998294 0.00814735
-0.0533901 -0.00507429 0.998561 0.00344073
-0.0496677 0.00612288 0.998747 0.000983428
-0.0511522 0.0094523 0.998646 0
-0.0496171 -0.00871116 0.99873 0
-0.0551231 -0.013339 0.99839 0
-0.0552106 -0.00395785 0.998467 0
-0.0500072 0.0136938 0.998655 0
-0.049205 0.0151305 0.998674 0
0.130131 -0.0304914 0.991028 0.0235481
0.146075 -0.0247379 0.988964 0.0205633
-0.0498352 0.0115388 0.998691 0
-0.0504123 0.0102381 0.998676 0
-0.0526855 -0.00629252 0.998591 0.00315939
-0.0591011 0.00281035 0.998248 0.00819434
-0.0542557 -0.0013382 0.998526 0.00860397
-0.0567431 -0.00988694 0.99834 0.00879042
-0.0589083 -0.00717599 0.998238 0
-0.0585692 -0.0134251 0.998193 0
-0.0635389 -0.00267584 0.997976 0.00839344
-0.0551512 0.0101664 0.998426 0.00647879
-0.0515039 0.0124082 0.998596 0
-0.0512845 0.0178214 0.998525 0
-0.0548159 0.0227652 0.998237 0
-0.0521043 0.0131081 0.998556 0
-0.0510497 0.00785215 0.998665 0
-0.0518859 0.00534648 0.998639 0
-0.0513936 0.0130766 0.998593 0
-0.0534576 0.00459456 0.99856 0
0.131025 -0.0205484 0.991166 0.0161577
0.143559 -0.0222565 0.989392 0.016233
-0.0486953 -0.00340348 0.998808 0
-0.0474177 -0.00326668 0.99887 0
-0.056515 0.000337964 0.998402 0.0176611
-0.0518074 0.00688472 0.998633 0
-0.0533631 -0.000105837 0.998575 0
-0.0552408 -0.0130972 0.998387 0.00336633
-0.0598515 -0.0148335 0.998097 0.00101189
-0.0619439 -0.0163468 0.997946 0.00584498
-0.0579797 -0.00657635 0.998296 0.00776081
-0.0565136 0.0250515 0.998088 0.00284036
-0.0585383 0.020401 0.998077 0.00399564
-0.0543339 0.0248701 0.998213 0
-0.051607 0.031266 0.998178 0
-0.0510304 0.0194264 0.998508 0
-0.048338 0.038481 0.99809 0
-0.0500311 0.0402441 0.997936 0
-0.0532665 0.0155505 0.998459 0
-0.0531251 0.0102783 0.998535 0
-0.0560461 0.0142337 0.998327 0
0.130303 -0.00444004 0.991464 0.00611606
0.13658 -0.00601656 0.990611 0.00842196
0.138787 -0.00830257 0.990287 0.0096773
-0.0442165 0.0200916 0.99882 0
-0.0477882 0.00936102 0.998814 0
-0.0476972 0.00210497 0.99886 0
-0.0452535 -0.0118428 0.998905 0
-0.0505886 -0.00921034 0.998677 0
-0.0646678 -0.0330519 0.997359 0.0159721
-0.0593481 -0.0128132 0.998155 0.00650192
-0.0574072 -0.015852 0.998225 0.00699372
-0.0551768 0.0148692 0.998366 0.0082895
-0.0585617 0.0147945 0.998174 0.00933539
-0.0579556 0.0128088 0.998237 0.00193335
-0.0532898 0.0136026 0.998486 0
-0.0550557 0.0269859 0.998119 0
-0.0502378 0.0347499 0.998133 0
-0.0505714 0.0431019 0.99779 0
-0.0485907 0.0351429 0.9982 0
-0.0541046 0.0104141 0.998481 0
-0.0549255 0.0113711 0.998426 0
-0.0562326 0.00355673 0.998411 0
0.121704 -0.011355 0.992501 0.00218491
0.13466 -0.00878546 0.990853 0.00668315
0.142483 -0.00217392 0.989795 0.00109091
-0.0413721 0.00364799 0.999137 0
-0.0422812 0.00981505 0.999058 0
-0.0437748 0.00168573 0.99904 0
-0.0444779 0.0015623 0.999009 0
-0.0424473 -0.00721517 0.999073 0
-0.0488501 -0.015849 0.99868 0
-0.0559558 -0.00574968 0.998417 0.00570903
-0.0548516 -0.0210027 0.998274 0.0118286
-0.0535522 -0.0121302 0.998491 0.00425655
-0.0584122 0.0107064 0.998235 0.00910715
-0.055536 -0.00197099 0.998455 0.0102373
-0.0560867 0.0154107 0.998307 0
-0.0583216 0.00971465 0.998251 0
-0.0517997 0.0242061 0.998364 0
-0.0553649 0.036253 0.997808 0
-0.0531284 0.04116 0.997739 0
-0.0531011 0.0262335 0.998245 0
-0.0517358 0.00986279 0.998612 0
-0.0537725 0.00760792 0.998524 0
-0.0557616 0.000754707 0.998444 0
-0.0657363 -0.00994057 0.997788 0
0.129558 -0.00822779 0.991538 0.00169504
0.134876 -0.00670848 0.99084 0.00326606
0.150182 -0.0106708 0.988601 0.0156207
-0.0429072 0.00877713 0.999041 0
-0.0458425 -0.00293507 0.998944 0
-0.0415893 0.007077 0.99911 0
-0.0406652 -0.00557076 0.999157 0
-0.0451579 -0.00501223 0.998967 0
-0.051467 0.00110785 0.998674 0
-0.054508 -0.003028 0.998509 0.0111621
-0.0561506 -0.00928371 0.998379 0.00834236
-0.0582493 -0.0024576 0.998299 0.0141367
-0.0550183 0.0076456 0.998456 0.00748649
-0.0587509 0.00574928 0.998256 0.0064653
-0.0533498 0.00834646 0.998541 0
-0.0528978 0.0250526 0.998286 0
-0.0560108 0.0287485 0.998016 0
-0.0540076 0.0265424 0.998188 0
-0.0533428 0.0224571 0.998324 0
-0.0531501 0.0166805 0.998447 0
-0.0607051 0.0106847 0.998099 0
-0.0597474 0.00852968 0.998177 0
0.128878 -0.012061 0.991587 0.00787144
0.142576 -0.0131609 0.989696 0.0137753
0.150006 -0.0133139 0.988595 0.0188332
-0.0411782 0.0093235 0.999108 0
-0.0414026 -0.0033419 0.999137 0
-0.042129 0.00449733 0.999102 0
-0.0449326 -0.00762387 0.998961 0.00215497
-0.052818 -0.00488374 0.998592 0
-0.0545292 0.00404915 0.998504 0.0029192
-0.0547314 0.00448615 0.998491 0
-0.0547302 0.00480329 0.99849 0
-0.0581919 0.00598961 0.998287 0.0044193
-0.0579037 0.00701384 0.998298 0.00612775
-0.0513502 0.0269143 0.998318 0
-0.0524793 0.014149 0.998522 0
-0.0527903 0.0284882 0.998199 0
-0.0545321 0.0249471 0.9982 0
-0.0520803 0.0168399 0.998501 0
-0.0565158 0.0196589 0.998208 0
-0.0588603 0.0238601 0.997981 0
-0.060834 0.0133379 0.998059 0
-0.0628652 0.0201966 0.997818 0
-0.0678084 -0.0163541 0.997564 0.00471713
0.1341 0.00189897 0.990966 0
0.146735 -0.00837816 0.98914 0.00898114
0.154275 -0.0193101 0.987839 0.012652
-0.0378004 0.00580141 0.999268 0
-0.0408165 0.0001917 0.999167 0
-0.0430465 -0.0102581 0.99902 0
-0.0410108 -0.000630735 0.999159 0
-0.047142 0.0132649 0.9988 0
-0.048532 0.00410751 0.998813 0
-0.051734 0.00337378 0.998655 0
-0.0486101 0.0117399 0.998749 0
-0.056957 0.00617278 0.998358 0
-0.0522027 0.0158677 0.99851 0
-0.0485802 0.028256 0.99842 0
-0.0541586 0.0197191 0.998338 0
-0.0554754 0.00849917 0.998424 0
-0.0541888 0.0147705 0.998421 0
-0.0548069 0.0242988 0.998201 0
-0.0565687 0.0185441 0.998226 0
-0.0556785 0.0142266 0.998347 0
-0.0649222 0.0046607 0.997879 0
-0.0671894 0.0192835 0.997554 0
-0.0673211 0.0156142 0.997609 0.00377591
0.130315 -0.0157212 0.991348 0
0.133461 -0.0230268 0.990786 0.00171313
0.147465 -0.0340063 0.988483 0.00807846
-0.0450226 0.00577189 0.998969 0
-0.0414393 0.0138315 0.999045 0
-0.0471387 0.00947304 0.998843 0
-0.0470421 0.00693437 0.998869 0
-0.0473359 0.00255038 0.998876 0
-0.0522455 0.00663243 0.998612 0
-0.0514306 0.00855723 0.99864 0
-0.0529629 0.0171926 0.998448 0
-0.0507178 0.0292293 0.998285 0
-0.0516144 0.034959 0.998055 0
-0.0580097 -0.00745336 0.998288 0
-0.0490175 0.00321418 0.998793 0
-0.0553 0.00723571 0.998444 0
-0.0526092 0.0262304 0.998271 0
-0.0582763 0.0205848 0.998088 0
-0.067848 0.0144071 0.997592 0.00821941
-0.0657126 0.00440025 0.997829 0.00246294
-0.0671029 0.00822211 0.997712 0.0113365
0.136728 -0.0223964 0.990355 0
0.147353 -0.0310735 0.988596 0
-0.0454224 0.00804211 0.998936 0
-0.0515247 0.00761072 0.998643 0
-0.0525873 0.00436211 0.998607 0
-0.0560209 -0.00797363 0.998398 0
-0.0560729 0.00700574 0.998402 0
-0.0555764 0.0188831 0.998276 0
-0.0562193 0.0274302 0.998042 0
-0.0553867 0.0249975 0.998152 0
-0.054065 0.00579899 0.998521 0
-0.0500298 0.0165734 0.99861 0
-0.0523752 0.0192206 0.998442 0
-0.0547261 0.0397629 0.997709 0
-0.0551931 0.0427209 0.997561 0
-0.0600015 0.0166279 0.99806 0
-0.0607854 0.0278129 0.997763 0
-0.0633585 0.0154883 0.997871 0.00836241
0.136224 -0.0235278 0.990399 0
0.148282 -0.0341733 0.988355 0
-0.0495669 -0.00673843 0.998748 0
-0.0556543 0.0110888 0.998389 0
-0.0542563 0.0223749 0.998276 0
-0.0576872 0.0236551 0.998054 0
-0.0569012 0.0175527 0.998225 0
-0.0559996 0.00119118 0.99843 0
-0.0540707 0.008483 0.998501 0
-0.0541385 0.032114 0.998017 0
-0.0571751 0.0319348 0.997853 0
-0.0563825 0.0271561 0.99804 0
-0.0530324 0.0314951 0.998096 0
-0.0590656 0.0261149 0.997912 0
-0.0583759 0.0380887 0.997568 0
0.146262 -0.0299203 0.988793 0
-0.0496864 -0.00443808 0.998755 0
-0.0560577 0.00497559 0.998415 0
-0.0512483 0.0137835 0.998591 0
-0.0558064 0.015452 0.998322 0
-0.0518041 0.00873248 0.998619 0
-0.0504193 -0.000568156 0.998728 0
-0.0543998 0.01152 0.998453 0
-0.052732 0.0150535 0.998495 0
-0.0569841 0.0253331 0.998054 0
-0.0564597 0.021597 0.998171 0
-0.0560613 0.0222326 0.99818 0
-0.0545764 0.0220749 0.998266 0
-0.0599872 0.027898 0.997809 0
-0.0598903 0.0280381 0.997811 0
-0.0657827 0.0182271 0.997667 0
0.139017 -0.0325685 0.989754 0.00847699
-0.0486868 -0.00129251 0.998813 0
-0.0566704 0.0252223 0.998074 0
-0.0566086 0.0285092 0.997989 0
-0.052441 0.00719519 0.998598 0
-0.0505515 0.00979983 0.998673 0
-0.0524173 0.0188729 0.998447 0
-0.0532917 0.00559712 0.998563 0
-0.05374 0.031511 0.998058 0
-0.054651 0.0305318 0.998039 0
-0.0533579 0.0321895 0.998056 0
-0.054167 0.020846 0.998314 0
-0.0613412 0.0203452 0.997909 0
-0.0606713 0.0207996 0.997941 0
-0.0596064 0.0242429 0.997928 0
-0.0622101 -0.000729665 0.998063 0
0.133635 -0.0186808 0.990854 0
-0.0506304 0.0026135 0.998714 0
-0.048603 0.0193885 0.99863 0
-0.0529938 0.0138794 0.998498 0
-0.0533328 0.00416621 0.998568 0
-0.0533362 0.0158114 0.998451 0
-0.0545063 0.0222106 0.998266 0
-0.0512695 0.0104684 0.99863 0
-0.0495936 0.037746 0.998056 0
-0.0504726 0.0328584 0.998185 0
-0.052552 0.0272604 0.998246 0
-0.0561175 0.0249132 0.998113 0
-0.0585553 0.033723 0.997714 0
-0.0607611 0.0279026 0.997762 0
-0.0611412 0.0242958 0.997833 0
-0.0585986 0.00783002 0.998251 0
0.130589 -0.0308874 0.990955 0
0.14162 -0.0360618 0.989264 0.00162117
-0.048425 0.00741891 0.998799 0
-0.0506074 0.00707111 0.998694 0
-0.0510303 -0.00021137 0.998697 0
-0.0525627 0.0112233 0.998555 0
-0.0520357 0.0214679 0.998414 0
-0.0498553 0.0129533 0.998672 0
-0.0475243 0.0321683 0.998352 0
-0.0491107 0.0333356 0.998237 0
-0.0493277 0.042631 0.997872 0
-0.0563016 0.0364405 0.997749 0
-0.0591413 0.0235615 0.997972 0
-0.061888 0.0148143 0.997973 0
-0.064643 -0.000726467 0.997908 0
-0.0648251 0.00866766 0.997859 0
-0.0659362 -0.0134984 0.997733 0.00486015
0.13584 -0.0444146 0.989735 0.00016954
0.143627 -0.0394007 0.988847 0.00167573
-0.0529171 0.00580224 0.998582 0
-0.0537733 0.00592149 0.998536 0
-0.0523431 -0.0043818 0.99862 0
-0.0531008 0.01465 0.998482 0
-0.0500289 0.0308151 0.998272 0
-0.0480343 0.0353667 0.998219 0
-0.0545042 0.0287329 0.9981 0
-0.0551594 0.0284878 0.998071 0
-0.0507082 0.0276997 0.998329 0
-0.0558362 0.0317264 0.997936 0
-0.0636721 -0.00300365 0.997966 0
-0.061442 0.000546978 0.998111 0
-0.0641733 0.00304928 0.997934 0
-0.0580851 -0.00330226 0.998306 0
0.134384 -0.0460505 0.989859 0
0.139651 -0.0463791 0.989114 0.00932402
-0.0511254 0.014403 0.998588 0
-0.0512465 0.00734449 0.998659 0
-0.0555031 0.0176222 0.998303 0
-0.0540013 0.00972435 0.998493 0
-0.0521517 0.0142095 0.998538 0
-0.0534222 0.032987 0.998027 0
-0.0515284 0.020654 0.998458 0
-0.0557303 0.0296643 0.998005 0
-0.0585293 0.00418995 0.998277 0
-0.060873 -0.00692728 0.998122 0
-0.0604172 0.00334834 0.998168 0
-0.0579259 0.0134652 0.99823 0
0.127929 -0.0556757 0.990219 0.00989635
0.135186 -0.0574613 0.989153 0.00827185
-0.0565234 -0.0275004 0.998022 0
-0.0536156 0.00327181 0.998556 0
-0.0479112 0.00655357 0.99883 0
-0.0503181 -0.00718527 0.998707 0
-0.0496907 -0.00413803 0.998756 0
-0.0544564 0.00329573 0.998511 0
-0.0585044 0.016601 0.998149 0
-0.0612267 0.014335 0.998021 0
-0.0591023 0.0047081 0.998241 0
-0.0592451 0.00076544 0.998243 0
-0.058332 0.00167391 0.998296 0
-0.058728 0.00742067 0.998246 0
-0.0553902 0.0105942 0.998409 0
0.12074 -0.0623244 0.990726 0.0073986
0.132904 -0.0645434 0.989025 0.00550087
-0.055509 -0.00969737 0.998411 0
-0.0517322 -0.0150121 0.998548 0
-0.0523776 -0.0189815 0.998447 0
-0.0521728 -0.0130263 0.998553 0
-0.0518214 -0.0116051 0.998589 0
-0.0537717 -0.00541847 0.998539 0
-0.0597017 -0.011698 0.998148 0
-0.0600772 0.00342147 0.998188 0.000895716
-0.061235 -0.00164564 0.998122 0.00848805
-0.0621144 0.00513591 0.998056 0.00460032
-0.0633449 -0.0115939 0.997924 0
-0.065615 -0.019388 0.997657 0.00659239
0.11747 -0.0618791 0.991147 0.00906938
0.124747 -0.0577802 0.990505 0.00616586
-0.0509356 -0.00516431 0.998689 0
-0.0513059 -0.000922726 0.998683 0
-0.0527194 -0.00749229 0.998581 0
-0.0543151 -0.0333118 0.997968 0
-0.0527592 -0.0302623 0.998149 0
-0.0526998 -0.0242072 0.998317 0
-0.0541018 -0.0126059 0.998456 0
-0.0526381 -0.0227288 0.998355 0
-0.0603035 -0.0264048 0.997831 0.00524882
-0.066061 -0.0169617 0.997671 0.0147382
-0.0686286 -0.0221463 0.997396 0.01813
-0.0670738 -0.0165432 0.997611 0.006398
-0.0672594 -0.0154445 0.997616 0.00124529
-0.0658841 -0.000151245 0.997827 0
-0.0594048 0.00719246 0.998208 0.00513049
-0.0581102 0.00178731 0.998309 0
0.115967 -0.051381 0.991923 0
0.123563 -0.0522116 0.990962 0
-0.0513255 -0.0214987 0.998451 0
-0.0544101 -0.00771976 0.998489 0
-0.0542216 -0.0403177 0.997715 0
-0.0552432 -0.0398597 0.997677 0
-0.0557054 -0.0167509 0.998307 0
-0.0557631 -0.0136054 0.998351 0
-0.0565143 -0.0283794 0.997998 0
-0.0652266 -0.0237013 0.997589 0.00945464
-0.069698 -0.0232928 0.997296 0.0122547
-0.0770571 -0.0363026 0.996366 0.0268827
-0.0655953 -0.00764915 0.997817 0.00111315
-0.0624457 -0.0230674 0.997782 0
-0.0637551 -0.00438517 0.997956 0.000119053
-0.0597664 0.000763544 0.998212 0.00378607
0.114621 -0.0557646 0.991843 0.00495044
0.126352 -0.0555644 0.990428 0.00733285
-0.0573607 -0.0157875 0.998229 0.004316
-0.0556832 -0.0364757 0.997782 0.00135176
-0.0592548 -0.032397 0.997717 0.00221045
-0.0583269 -0.0164023 0.998163 0
-0.053878 -0.0339648 0.99797 0
-0.0532524 -0.0257125 0.99825 0
-0.0560285 -0.0306068 0.99796 0
-0.0647405 -0.0402595 0.99709 0.00933715
-0.0682703 -0.0413949 0.996808 0.0236568
-0.0725246 -0.0382154 0.996634 0.0300842
-0.0710888 -0.0286229 0.997059 0.0168995
-0.0713778 -0.0295991 0.99701 0.0151121
-0.0617047 -0.00630617 0.998075 0
-0.0610939 -0.00502244 0.998119 0
-0.0613528 -0.00369532 0.998109 0
0.113982 -0.0500906 0.992219 0.0124132
0.125618 -0.0575418 0.990409 0.0209464
-0.0628108 -0.0298358 0.997579 0.0116698
-0.0641466 -0.0392449 0.997168 0.017009
-0.0621418 -0.0278132 0.99768 0.00541428
-0.058357 -0.0201634 0.998092 0.000440629
-0.0518491 -0.0258873 0.998319 0
-0.0492945 -0.0255074 0.998459 0
-0.0542868 -0.011645 0.998457 0
-0.0643013 -0.0384719 0.997189 0.007216
-0.068712 -0.0607596 0.995785 0.0319101
-0.0700201 -0.0518728 0.996196 0.0198026
-0.069354 -0.0489883 0.996388 0.0222194
-0.0735964 -0.0504695 0.99601 0.0183914
-0.0630638 -0.0125014 0.997931 0
-0.0576535 -0.0142025 0.998236 0
-0.0578586 -0.00403251 0.998317 0
0.106101 -0.0392261 0.993581 0.0182807
0.11639 -0.0423019 0.992302 0.0197496
-0.0606468 -0.00816643 0.998126 0.00178682
-0.0628975 -0.0195142 0.997829 0.00544982
-0.0616806 -0.0257869 0.997763 0.000846377
-0.0555018 -0.0103416 0.998405 0
-0.0519762 -0.0211839 0.998424 0
-0.0506764 -0.00830753 0.998681 0
-0.0553488 -0.0131879 0.99838 0
-0.0561311 -0.018025 0.998261 0
-0.0684244 -0.0407523 0.996824 0.00547347
-0.0755585 -0.0591034 0.995388 0.0268595
-0.0677669 -0.0491608 0.996489 0.00524896
-0.0662291 -0.0447612 0.9968 0.00603246
-0.0684427 -0.0254172 0.997331 0.00264766
-0.0647235 -0.0219913 0.997661 0.000178098
-0.0526859 -0.0135305 0.998519 0
0.114519 -0.0280598 0.993025 0.0210773
-0.0574929 -0.0131333 0.998259 0
-0.0661402 -0.0322482 0.997289 0.0163348
-0.0628733 -0.0246552 0.997717 0.00263066
-0.0635507 -0.0174993 0.997825 0.00676369
-0.0605483 -0.00612562 0.998146 0
-0.0558045 -0.0240296 0.998152 0
-0.0557854 -0.0177907 0.998284 0
-0.054326 -0.00910941 0.998482 0
-0.0537341 -0.013461 0.998465 0
-0.0534692 -0.00932689 0.998526 0
-0.0632174 -0.0324139 0.997473 0
-0.0688469 -0.0615365 0.995728 0.00730407
-0.0632211 -0.022999 0.997734 0
-0.064853 -0.0377312 0.997181 0
-0.0663941 -0.0224509 0.997541 0
-0.0598181 -0.0296651 0.997768 0
-0.0588931 -0.0223749 0.998013 0
-0.0533183 0.025736 0.998246 0
0.114898 -0.0333043 0.992819 0.014297
0.129997 -0.0297197 0.991069 0.0272389
-0.057351 -0.0302029 0.997897 0
-0.0539119 -0.024611 0.998242 0
-0.0628084 -0.0202439 0.99782 0
-0.0604939 -0.0166693 0.998029 0
-0.0605397 -0.0266483 0.99781 0.00233611
-0.0564601 -0.0159316 0.998278 0.001625
-0.0547665 -0.00869523 0.998461 0
-0.053196 -0.0208204 0.998367 0
-0.0530017 -0.0209503 0.998375 0
-0.0486711 -0.0248864 0.998505 0
-0.0506634 -0.0218256 0.998477 0
-0.0631879 -0.049432 0.996777 0.00194927
-0.0682621 -0.0516614 0.996329 0.0143482
-0.0648819 -0.0425788 0.996984 0.00775044
-0.0620936 -0.0371788 0.997378 0
-0.0609362 -0.0374713 0.997438 0
-0.056112 -0.0409365 0.997585 0
-0.0550938 -0.0109794 0.998421 0
-0.0559697 -0.0169601 0.998288 0
-0.0573138 -0.0183204 0.998188 0
0.121776 -0.0246673 0.992251 0.0158906
0.140908 -0.0230991 0.989753 0.0122325
-0.0562458 -0.0399271 0.997618 0.000828663
-0.0629137 -0.0247103 0.997713 0
-0.0617287 -0.0204577 0.997883 0
-0.0599831 -0.00776682 0.998169 0
-0.0575913 -0.0249672 0.998028 0.00849779
-0.0570936 -0.0318608 0.99786 0.00799902
-0.0519777 -0.00632827 0.998628 0
-0.0520309 -0.0224007 0.998394 0
-0.0517938 -0.0246565 0.998353 0
-0.0561332 -0.0532192 0.997004 0
-0.0594832 -0.0544299 0.996744 0
-0.0682946 -0.0605998 0.995823 0.00624282
-0.0645777 -0.0548422 0.996405 0.0108836
-0.0662111 -0.0496534 0.996569 0.024982
-0.0616528 -0.0454331 0.997063 0.0102482
-0.0624407 -0.0391345 0.997281 0.00670439
-0.0605111 -0.0500418 0.996912 0
-0.058126 -0.034382 0.997717 0
-0.0570725 -0.0297406 0.997927 0
-0.0586036 -0.0252068 0.997963 0
-0.0587805 -0.0311773 0.997784 0
0.135476 -0.0331536 0.990226 0.0140656
0.147611 -0.0299691 0.988591 0.013279
-0.0649239 -0.0510899 0.996582 0
-0.0572067 -0.0317216 0.997858 0
-0.056493 -0.00279394 0.998399 0
-0.0534426 -0.0283257 0.998169 0
-0.0573679 -0.0329402 0.99781 0
-0.0566722 -0.0299298 0.997944 0
-0.0543952 -0.0430484 0.997591 0
-0.0548544 -0.037459 0.997791 0
-0.0561721 -0.0547649 0.996918 0
-0.0600711 -0.0603572 0.996368 0
-0.0620669 -0.0585544 0.996353 0.00398336
-0.0632835 -0.0469984 0.996888 0.023232
-0.0607526 -0.0477105 0.997012 0.00680469
-0.0645363 -0.0485792 0.996732 0.0117612
-0.0575395 -0.0444386 0.997354 0
-0.0562481 -0.0404826 0.997596 0
-0.0585689 -0.0385624 0.997538 0
0.137389 -0.0359541 0.989864 0.0153533
0.139307 -0.0258467 0.989912 0.00931944
-0.0559508 -0.0465641 0.997347 0
-0.0604878 -0.0491597 0.996958 0
-0.0571172 -0.0256758 0.998037 0
-0.0569893 -0.0264435 0.998024 0
-0.0550621 -0.0334963 0.997921 0
-0.0618791 -0.0480725 0.996925 0.00604962
-0.0616312 -0.0390989 0.997333 0
-0.0608444 -0.0477861 0.997003 0
-0.0610716 -0.0650126 0.996014 0
-0.0629207 -0.0865436 0.994259 0.0027532
-0.0639804 -0.0676249 0.995657 0
-0.0622286 -0.052379 0.996687 0.00826427
-0.0667521 -0.0549148 0.996257 0.0352054
-0.0649278 -0.064197 0.995823 0.0370718
-0.0627729 -0.0523565 0.996654 0.0182421
-0.058953 -0.038059 0.997535 0.00307219
-0.0539861 -0.0416676 0.997672 0
-0.0591779 -0.0497374 0.997008 0
-0.0603031 -0.0413788 0.997322 0
0.150623 -0.0288937 0.988169 0.0171151
0.15906 -0.0228202 0.987005 0.0163088
-0.0533919 -0.0471625 0.997459 0
-0.0555691 -0.0363393 0.997793 0
-0.054368 -0.0426933 0.997608 0
-0.0619014 -0.0521181 0.996721 0.00244605
-0.0609694 -0.0491049 0.996931 0.00717858
-0.0552495 -0.0395791 0.997688 0
-0.0529267 -0.0329776 0.998054 0
-0.0573858 -0.0537949 0.996902 0
-0.0597582 -0.0445308 0.997219 0
-0.056936 -0.0552226 0.996849 0
-0.0599639 -0.0783598 0.99512 0.0139294
-0.0612059 -0.0769509 0.995154 0.0056569
-0.0620629 -0.0786212 0.994971 0.000776266
-0.0658218 -0.0706832 0.995325 0.0195452
-0.0655009 -0.0768105 0.994892 0.0288671
-0.0612892 -0.0438878 0.997155 0.0222814
-0.0609225 -0.054854 0.996634 0.00228088
-0.0561307 -0.0308658 0.997946 0
0.147869 -0.0201878 0.988801 0.0122481
0.168145 -0.00707309 0.985737 0.0090081
-0.0549813 -0.0515448 0.997156 0
-0.0545683 -0.0452857 0.997483 0
-0.0580292 -0.0700807 0.995852 0.00582833
-0.0614114 -0.0602862 0.99629 0.0107001
-0.0612035 -0.0591451 0.996371 0.00555695
-0.0584707 -0.055459 0.996747 0
-0.061322 -0.0608418 0.996262 0
-0.0563203 -0.0600213 0.996607 0
-0.0540842 -0.0621219 0.996602 0
-0.0543641 -0.0663029 0.996318 0.00508402
-0.0572599 -0.0745703 0.99557 0
-0.0591388 -0.0781684 0.995185 0.00625521
-0.0649687 -0.0730311 0.995211 0.0219371
-0.0656436 -0.0752626 0.995001 0.0266177
-0.0584915 -0.064284 0.996216 0.0147143
-0.0588253 -0.0596742 0.996483 0.00281481
-0.0543257 -0.0365806 0.997853 0
0.16086 -0.0118547 0.986906 0.00252048
0.185345 -0.0166159 0.982533 0.0029244
0.203971 -0.0142582 0.978873 0.0128124
-0.0548818 -0.0309608 0.998013 0
-0.0530432 -0.0316497 0.998091 0
-0.0528943 -0.0521221 0.997239 0
-0.0538371 -0.0589782 0.996807 0.00138375
-0.0566301 -0.0714601 0.995835 0.00185126
-0.0618747 -0.0655909 0.995926 0.0121946
-0.0639015 -0.0697054 0.995519 0.00807646
-0.0677237 -0.0662139 0.995504 0.00385456
-0.0626283 -0.0685156 0.995682 0.00259283
-0.0569345 -0.0638554 0.996334 0.0030419
-0.0493228 -0.0616876 0.996876 0
-0.0555941 -0.0586776 0.996728 0
-0.0557068 -0.058042 0.996759 0.00225234
-0.0558343 -0.0555261 0.996895 0.00274036
-0.0566938 -0.0633181 0.996382 0.00893454
-0.0512241 -0.053412 0.997258 0.00424915
-0.0564285 -0.0621072 0.996473 0.0116759
-0.0557873 -0.043923 0.997476 0
0.171816 -0.020262 0.984921 0.00521598
0.19626 -0.0210799 0.980325 0.00181301
0.211367 -0.0135717 0.977313 0.00948389
-0.0546679 -0.0514062 0.997181 0
-0.0553406 -0.0533312 0.997042 0
-0.0513684 -0.0575018 0.997023 0
-0.057315 -0.07642 0.995427 0.00375055
-0.0573948 -0.0580738 0.996661 0.00644537
-0.0621859 -0.0696506 0.995631 0.00931816
-0.0661032 -0.0816171 0.994469 0.0124437
-0.064527 -0.0688032 0.995541 0.0118984
-0.0613347 -0.0633189 0.996107 0.0069963
-0.060932 -0.06957 0.995714 0.00814362
-0.0551887 -0.0700254 0.996017 0.0021608
-0.0538631 -0.0600042 0.996744 0.000571902
-0.0544185 -0.0619014 0.996598 0.00467593
-0.0564845 -0.0620043 0.996476 0.0108574
-0.0571916 -0.0625099 0.996404 0.0148266
-0.052974 -0.0673693 0.996321 0.000237847
-0.0535513 -0.0564019 0.996971 0
-0.0564857 -0.0379264 0.997683 0
0.18505 -0.0172768 0.982577 0.0020838
0.209558 -0.0204291 0.977583 0.00914036
0.228902 -0.0106 0.973392 0.0142146
-0.0523438 -0.0489923 0.997427 0
-0.0534529 -0.0460858 0.997506 0
-0.051348 -0.054072 0.997216 0
-0.0519224 -0.0453178 0.997622 0
-0.0561917 -0.0616175 0.996517 0
-0.0550612 -0.0641507 0.99642 0.00646739
-0.0573118 -0.0754289 0.995503 0.00635415
-0.0627492 -0.0808845 0.994746 0.0138406
-0.0648361 -0.0657684 0.995726 0.00302083
-0.0630869 -0.068562 0.99565 0.0141446
-0.0579672 -0.0721563 0.995707 0.00485926
-0.0603486 -0.0759481 0.995284 0.0235519
-0.0551937 -0.0719362 0.995881 0.0190221
-0.0530178 -0.0751398 0.995763 0.0216073
-0.053825 -0.0762718 0.995633 0.00885952
-0.0579257 -0.0578195 0.996645 0.0123088
-0.0509735 -0.0430571 0.997771 0
-0.0510358 -0.047558 0.997564 0
0.209444 -0.0272707 0.97744 0.0112436
0.235311 -0.0312591 0.971417 0.0241987
0.263122 -0.0162486 0.964626 0.0252384
-0.0437693 -0.0354883 0.998411 0
-0.0458705 -0.0542588 0.997473 0
-0.0512883 -0.0516114 0.997349 0
-0.050661 -0.0536407 0.997274 0
-0.0553493 -0.0509158 0.997168 0
-0.0533957 -0.0544814 0.997086 0
-0.0545956 -0.0611429 0.996635 0
-0.0565569 -0.0712847 0.995851 0.00693315
-0.0613482 -0.0866908 0.994345 0.00745193
-0.0622301 -0.0814954 0.994729 0.0114238
-0.0654728 -0.0789538 0.994726 0.0186124
-0.0541074 -0.0708989 0.996015 0.00861456
-0.0568466 -0.0707863 0.99587 0.0200483
-0.061801 -0.06632 0.995883 0.0336354
-0.0595461 -0.05416 0.996755 0.0239187
-0.0520073 -0.0674955 0.996363 0.00897979
-0.0552882 -0.0678242 0.996164 0.00119819
-0.0541238 -0.0726536 0.995888 0.000706362
-0.0501036 -0.0499319 0.997495 0
0.25904 -0.0332186 0.965295 0.0371183
0.284985 -0.0240451 0.95823 0.0367313
-0.0440658 -0.0370634 0.998341 0
-0.0431447 -0.0334202 0.99851 0
-0.0481385 -0.063765 0.996803 0
-0.0499312 -0.0565697 0.997149 0
-0.0490045 -0.0594747 0.997026 0
-0.052723 -0.0564281 0.997014 0
-0.0532794 -0.0496357 0.997345 0
-0.053777 -0.0610803 0.996683 0
-0.0551124 -0.0622121 0.99654 0
-0.0555891 -0.071202 0.995912 0.00517411
-0.0606687 -0.0786784 0.995052 0.0107499
-0.0528511 -0.0801407 0.995381 0.000797709
-0.0528782 -0.0744111 0.995825 0.00198246
-0.0582008 -0.0676098 0.996013 0.0190015
-0.0603952 -0.0685788 0.995816 0.0243046
-0.0580332 -0.0727281 0.995662 0.0225581
-0.0540141 -0.0735879 0.995825 0.0138583
-0.0495164 -0.03399 0.998195 0
0.27323 -0.0371763 0.96123 0.0374368
0.285086 -0.0251121 0.958173 0.0317156
-0.0497066 -0.0270218 0.998398 0
-0.0493088 -0.0351968 0.998163 0
-0.0505238 -0.04694 0.997619 0
-0.048888 -0.0467571 0.997709 0
-0.048501 -0.0661907 0.996628 0
-0.0523506 -0.068677 0.996265 0
-0.0520519 -0.0686233 0.996284 0
-0.0526252 -0.0734859 0.995907 0
-0.0502467 -0.0654159 0.996592 0
-0.0517815 -0.0463022 0.997584 0
-0.0526039 -0.0475489 0.997483 0
-0.053658 -0.0566372 0.996952 0
-0.0528299 -0.0588784 0.996866 0
-0.0529655 -0.0683998 0.996251 0
-0.054116 -0.0795687 0.995359 0.0050063
-0.0564855 -0.0851941 0.994762 0.0129908
-0.0566492 -0.0849516 0.994773 0.0163933
-0.0564036 -0.0646198 0.996315 0.0154239
-0.0561174 -0.0717093 0.995846 0.0180888
-0.0515655 -0.0751966 0.995835 0.00655752
0.279652 -0.0368223 0.959395 0.0356792
0.29019 -0.0327278 0.956409 0.0298791
-0.0480615 -0.0447706 0.99784 0
-0.0511068 -0.0505662 0.997412 0
-0.0485215 -0.0412207 0.997971 0
-0.0472285 -0.0461587 0.997817 0
-0.0531552 -0.06477 0.996484 0
-0.0541523 -0.0620553 0.996603 0
-0.0539717 -0.0799486 0.995337 0
-0.0518231 -0.0790881 0.99552 0
-0.0539073 -0.0696131 0.996116 0
-0.0522283 -0.042056 0.997749 0
-0.0532461 -0.0549049 0.997071 0
-0.0509189 -0.0539325 0.997245 0
-0.0510366 -0.052829 0.997299 0
-0.0528861 -0.068818 0.996226 0
-0.0498011 -0.0756373 0.995891 0.00765862
-0.0481792 -0.0661008 0.996649 0
-0.0507694 -0.0727499 0.996057 0.0087279
-0.0526103 -0.058002 0.996929 0.00862015
-0.0548473 -0.0664329 0.996282 0.0096067
-0.0539298 -0.0876027 0.994695 0.00974957
0.294685 -0.0395209 0.954777 0.0347019
0.310198 -0.042307 0.94973 0.0325983
0.325062 -0.0433243 0.9447 0.030425
-0.0579756 -0.0138288 0.998222 0
-0.0504221 -0.0373521 0.998029 0
-0.0512478 -0.0476821 0.997547 0
-0.0507759 -0.0629767 0.996723 0
-0.0529297 -0.0603761 0.996771 0
-0.0524106 -0.0625636 0.996664 0
-0.0523061 -0.0685251 0.996277 0
-0.0552347 -0.0644008 0.996394 0
-0.0495688 -0.068167 0.996442 0
-0.0525029 -0.0736995 0.995897 0
-0.0509045 -0.0647911 0.9966 0
-0.0531408 -0.0649996 0.996469 0
-0.0502887 -0.0475539 0.997602 0
-0.0512515 -0.0549303 0.997174 0
-0.0479563 -0.0467626 0.997754 0
-0.0477359 -0.0548395 0.997353 0
-0.0424323 -0.0543822 0.997618 0
-0.0460665 -0.05866 0.997215 0
-0.0476207 -0.0627156 0.996895 0
-0.0480532 -0.0731388 0.996163 0
-0.0490088 -0.0755177 0.995939 0.000235541
0.335017 -0.0672876 0.939806 0.0359679
0.34956 -0.0630098 0.934793 0.0369075
-0.0590221 -0.0358006 0.997615 0
-0.0574683 -0.0302357 0.997889 0
-0.05343 -0.0423241 0.997674 0
-0.0506008 -0.0559674 0.99715 0
-0.0500557 -0.0484488 0.997571 0
-0.051681 -0.0563525 0.997072 0
-0.0526808 -0.0564391 0.997015 0
-0.0541496 -0.0524217 0.997156 0
-0.0537014 -0.0701303 0.996091 0
-0.0565106 -0.0967646 0.993702 0
-0.0510903 -0.0778861 0.995652 0
-0.0527013 -0.0732541 0.99592 0
-0.0549644 -0.0773723 0.995486 0
-0.0564608 -0.0570639 0.996773 0
-0.0551334 -0.048142 0.997318 0
-0.0500056 -0.0459445 0.997692 0
-0.0495305 -0.0313919 0.998279 0
-0.0471956 -0.048601 0.997703 0
-0.0445715 -0.0706198 0.996507 0
-0.0487823 -0.0618114 0.996895 0
-0.047057 -0.0652182 0.996761 0
-0.0444124 -0.0558119 0.997453 0
0.333137 -0.065679 0.940588 0.0321723
0.341744 -0.0661025 0.937465 0.023142
-0.0571699 -0.0189539 0.998185 0
-0.0610253 -0.0423183 0.997239 0
-0.0571362 -0.0356803 0.997729 0
-0.0560924 -0.0440136 0.997455 0
-0.0580812 -0.0616496 0.996406 0
-0.05506 -0.056753 0.996869 0
-0.0536938 -0.064733 0.996457 0
-0.0543554 -0.0716328 0.995949 0
-0.0540043 -0.0729659 0.995871 0
-0.0502871 -0.0892769 0.994737 0
-0.050177 -0.0840257 0.995199 0
-0.0523414 -0.0829497 0.995178 0
-0.0546436 -0.0731938 0.99582 0
-0.0563427 -0.0707808 0.995899 0
-0.0515894 -0.0510608 0.997362 0
-0.050728 -0.039131 0.997946 0
-0.048135 -0.0366627 0.998168 0
-0.0466172 -0.0431415 0.997981 0
-0.0502085 -0.0508664 0.997443 0
-0.0487749 -0.0709883 0.996284 0
-0.0444737 -0.0634544 0.996993 0
-0.0481784 -0.0664843 0.996624 0
0.3328 -0.0715066 0.940282 0.0319707
0.36297 -0.0653163 0.929509 0.0286729
-0.0638417 -0.0613082 0.996075 0
-0.063034 -0.0529643 0.996605 0
-0.0613247 -0.0623771 0.996167 0
-0.0597023 -0.016635 0.998078 0
-0.0566765 -0.0325772 0.997861 0
-0.0564088 -0.0304367 0.997944 0
-0.0607033 -0.0477472 0.997013 0
-0.0601445 -0.0575281 0.996531 0
-0.057062 -0.0544861 0.996883 0
-0.0529247 -0.0742767 0.995832 0
-0.0531331 -0.082495 0.995174 0
-0.0548604 -0.0814497 0.995166 0
-0.0530394 -0.0697884 0.996151 0
-0.0527176 -0.0600192 0.996804 0
-0.053523 -0.0691442 0.99617 0
-0.0528998 -0.0681248 0.996273 0
-0.0509022 -0.0504882 0.997427 0
-0.0500583 -0.0454923 0.99771 0
-0.0494313 -0.0497293 0.997539 0
-0.0513594 -0.0558959 0.997115 0
-0.0489735 -0.0400105 0.997998 0
-0.0485126 -0.0585323 0.997106 0
0.333578 -0.0726469 0.939919 0.0321867
0.367693 -0.0757044 0.926861 0.0344546
-0.0592925 -0.0564868 0.996641 0
-0.0634006 -0.0614001 0.996098 0
-0.0610651 -0.0583624 0.996426 0
-0.0619187 -0.0406948 0.997251 0
-0.0571217 -0.0241704 0.998075 0
-0.0592075 -0.0176909 0.998089 0
-0.0582304 -0.0363047 0.997643 0
-0.0622223 -0.0555601 0.996515 0
-0.0586012 -0.0347603 0.997676 0
-0.0561508 -0.0589946 0.996678 0
-0.0520353 -0.0730011 0.995973 0
-0.0519939 -0.0733031 0.995953 0
-0.0524098 -0.0614927 0.996731 0
-0.0538221 -0.0742288 0.995788 0
-0.0513058 -0.0690342 0.996294 0
-0.0542066 -0.0578363 0.996853 0
-0.0525621 -0.048551 0.997437 0
-0.0521003 -0.051108 0.997333 0
-0.048106 -0.038993 0.998081 0
-0.0463381 -0.0429845 0.998001 0
-0.0487635 -0.0729413 0.996143 0
0.341781 -0.0687422 0.937262 0.0305284
0.382196 -0.0751931 0.921017 0.038306
-0.0611066 -0.0403114 0.997317 0
-0.0588558 -0.0264031 0.997917 0
-0.0566044 -0.0404285 0.997578 0
-0.0551696 -0.0280906 0.998082 0
-0.0567595 -0.043572 0.997437 0
-0.0593882 -0.0542545 0.99676 0
-0.0551529 -0.0459517 0.99742 0
-0.0576384 -0.0354365 0.997708 0
-0.0531752 -0.0270846 0.998218 0
-0.0562699 -0.0508076 0.997122 0
-0.053823 -0.0518239 0.997205 0
-0.0560244 -0.0486462 0.997244 0
-0.0578924 -0.0693454 0.995912 0
-0.0552119 -0.0603262 0.996651 0
-0.0519012 -0.0649707 0.996536 0.00520325
-0.0511476 -0.0734034 0.99599 0.00445742
-0.0522006 -0.0776562 0.995613 0
-0.0541451 -0.0756201 0.995666 0
-0.0549619 -0.0591021 0.996738 0
-0.0518917 -0.0655471 0.996499 0
-0.0515996 -0.0686583 0.996305 0
-0.0548825 -0.064551 0.996404 0
-0.0538029 -0.0666831 0.996323 0
0.35433 -0.0728127 0.932281 0.031887
0.384289 -0.0736683 0.920269 0.03584
-0.0638819 -0.0561776 0.996375 0
-0.0594589 -0.0389046 0.997472 0
-0.0575073 -0.0359694 0.997697 0
-0.0576035 -0.0419757 0.997457 0
-0.0549793 -0.0357914 0.997846 0
-0.0574937 -0.0236477 0.998066 0
-0.0552567 -0.0250324 0.998158 0
-0.0561921 -0.0401563 0.997612 0
-0.0583981 -0.0555429 0.996747 0
-0.0546424 -0.0553921 0.996968 0
-0.0564304 -0.0356335 0.99777 0
-0.0546015 -0.0513607 0.997186 0
-0.0537849 -0.0629747 0.996565 0
-0.0588415 -0.053451 0.996835 0
-0.0583522 -0.0485746 0.997114 0
-0.055898 -0.0670637 0.996182 0.00288805
-0.0545784 -0.0761985 0.995598 0.00780238
-0.0528207 -0.0679251 0.996291 0.00171652
-0.0508264 -0.060453 0.996876 0
-0.0538864 -0.0752611 0.995707 0
-0.053551 -0.0671916 0.996302 0
-0.0527313 -0.0713806 0.996054 0
-0.0540829 -0.0676002 0.996246 0
0.40622 -0.075401 0.910659 0.0460483
-0.0641209 -0.0732701 0.995249 0
-0.0634221 -0.0562072 0.996403 0
-0.0593133 -0.0478683 0.997091 0
-0.0561497 -0.0371946 0.997729 0
-0.0555508 -0.0426655 0.997544 0
-0.0517606 -0.0252422 0.99834 0
-0.0523344 -0.0260434 0.99829 0
-0.0561974 -0.0139761 0.998322 0
-0.0558528 -0.032945 0.997895 0
-0.0601015 -0.0586447 0.996468 0
-0.0584192 -0.052311 0.996921 0
-0.0581208 -0.0444484 0.99732 0
-0.0556435 -0.0526743 0.99706 0
-0.0545478 -0.0563789 0.996918 0
-0.0530258 -0.0548467 0.997086 0
-0.0597553 -0.070289 0.995735 0.00156625
-0.0628616 -0.0802192 0.994793 0.0194946
-0.0624959 -0.0645319 0.995957 0.0192671
-0.0637844 -0.0655504 0.995809 0.021423
-0.0577194 -0.073579 0.995618 0.00640209
-0.053416 -0.0734856 0.995865 0.000621736
-0.0562369 -0.0754676 0.995561 0.00486796
0.420165 -0.0866355 0.903303 0.0497635
0.436542 -0.0930746 0.894857 0.0541173
-0.0635243 -0.0663619 0.995771 0
-0.0581887 -0.0483122 0.997136 0
-0.0584269 -0.0469152 0.997189 0
-0.057849 -0.0460358 0.997263 0
-0.0532369 -0.0279718 0.99819 0
-0.0541234 -0.0309699 0.998054 0
-0.0583874 -0.0275549 0.997914 0
-0.0567349 -0.0301212 0.997935 0
-0.060647 -0.0383166 0.997424 0
-0.0539205 -0.0414683 0.997684 0
-0.0581037 -0.0507008 0.997022 0
-0.0606594 -0.042717 0.997244 0
-0.0588655 -0.0675445 0.995978 0
-0.0592063 -0.0621692 0.996308 0.000843588
-0.0618135 -0.0669997 0.995836 0.0136943
-0.064574 -0.0737782 0.995182 0.0171924
-0.0664887 -0.0803413 0.994547 0.0241234
-0.0620309 -0.0451602 0.997052 0.0157254
-0.0597632 -0.0558504 0.996649 0.00539933
-0.0596078 -0.0658536 0.996047 0
-0.0558637 -0.0624745 0.996482 0
0.419627 -0.0904291 0.903181 0.0538133
0.445633 -0.100092 0.889603 0.0567272
-0.0647953 -0.0636907 0.995864 0
-0.0605864 -0.0570525 0.996531 0
-0.0631214 -0.0456102 0.996963 0
-0.0580847 -0.0409084 0.997473 0
-0.0513984 -0.03707 0.99799 0
-0.0483221 -0.017353 0.998681 0
-0.0532298 -0.0276025 0.998201 0
-0.0547995 -0.0363869 0.997834 0
-0.052834 -0.0363795 0.99794 0
-0.0534406 -0.0353659 0.997945 0
-0.0561497 -0.0399859 0.997621 0
-0.0653113 -0.0581031 0.996172 0.00171654
-0.0633721 -0.083721 0.994472 7.94576e-05
-0.0620212 -0.0751303 0.995243 0
-0.0631904 -0.090851 0.993858 0.021678
-0.0673243 -0.0957476 0.993126 0.0310761
-0.0661156 -0.0625991 0.995846 0.00662738
0.475853 -0.114274 0.87207 0.0558081
-0.0605082 -0.0781797 0.995101 0
-0.0602167 -0.0715945 0.995614 0
-0.0628854 -0.0703385 0.995539 0
-0.0620195 -0.0606915 0.996228 0
-0.0594925 -0.0493991 0.997006 0
-0.060645 -0.0511116 0.99685 0
-0.0528684 -0.0436002 0.997649 0
-0.0502 -0.0257938 0.998406 0
-0.0512396 -0.0234559 0.998411 0
-0.0569265 -0.0246646 0.998074 0
-0.0611082 -0.0509874 0.996828 0
-0.0542641 -0.0358995 0.997881 0
-0.0571912 -0.0505857 0.997081 0
-0.0622123 -0.0820351 0.994686 0
-0.0655535 -0.0838365 0.994321 0
-0.0673662 -0.0949149 0.993203 0.0055996
-0.0671815 -0.0751144 0.994909 0.0102804
-0.0675827 -0.0735833 0.994996 0.0188714
0.477075 -0.122905 0.870227 0.0599295
0.480619 -0.113821 0.869511 0.0529301
-0.061889 -0.0759218 0.995191 0
-0.0595459 -0.06421 0.996158 0
-0.0605866 -0.065142 0.996035 0
-0.0627853 -0.0580596 0.996337 0
-0.0626124 -0.0647315 0.995937 0
-0.0601927 -0.0610518 0.996318 0
-0.0570179 -0.0435948 0.997421 0
-0.056414 -0.0444728 0.997416 0
-0.0568245 -0.0212046 0.998159 0
-0.0582082 -0.0335508 0.997741 0
-0.0591428 -0.0388634 0.997493 0
-0.0630584 -0.0478548 0.996862 0
-0.0621545 -0.0600286 0.99626 0
-0.0619723 -0.078642 0.994975 0
-0.0640718 -0.0958734 0.993329 0
-0.0619914 -0.0824252 0.994667 0
-0.0594046 -0.0812479 0.994922 0
0.446314 -0.118804 0.886955 0.0511866
0.483401 -0.1158 0.867706 0.051269
-0.0647669 -0.0598196 0.996106 0
-0.0633842 -0.0597663 0.996198 0
-0.0653467 -0.0566426 0.996254 0.0030722
-0.065481 -0.0597613 0.996063 0
-0.0647002 -0.0688886 0.995524 0
-0.0639864 -0.0544904 0.996462 0
-0.0600005 -0.0545284 0.996708 0
-0.058478 -0.0476548 0.997151 0
-0.0585765 -0.0438486 0.997319 0
-0.0611782 -0.0392201 0.997356 0
-0.0621254 -0.0355492 0.997435 0
-0.0643459 -0.0513861 0.996604 0
-0.0617744 -0.0616656 0.996183 0
-0.0637728 -0.0708476 0.995447 0
0.468541 -0.0967773 0.878125 0.0427609
-0.0656989 -0.0356394 0.997203 0
-0.0699872 -0.0387831 0.996794 0
-0.0679611 -0.049206 0.996474 0
-0.0661609 -0.0478647 0.99666 0
-0.0661293 -0.04553 0.996772 0
-0.0660998 -0.0579937 0.996126 0
-0.0713911 -0.0635671 0.995421 0.00820976
-0.0630154 -0.0520167 0.996656 0
-0.0598239 -0.0591682 0.996454 0
-0.0601762 -0.0530065 0.996779 0
-0.057886 -0.0578947 0.996643 0
-0.0617295 -0.0342657 0.997505 0
-0.0621906 -0.0429661 0.997139 0
-0.0637694 -0.0558489 0.996401 0
-0.0632021 -0.0732568 0.995308 0
0.4766 -0.101335 0.87326 0.0436689
-0.0704593 -0.0384334 0.996774 0
-0.0709977 -0.0477308 0.996334 0
-0.0698967 -0.0473018 0.996432 0
-0.0696286 -0.0557323 0.996015 0
-0.0674572 -0.0359748 0.997073 0
-0.0705568 -0.0474319 0.996379 0
-0.072865 -0.0540744 0.995875 0.00752676
-0.0702923 -0.0663814 0.995315 0.00912243
-0.0651051 -0.055002 0.996361 0
-0.06242 -0.0481552 0.996888 0
-0.0587167 -0.052179 0.99691 0
-0.0615873 -0.0578742 0.996422 0
-0.0631257 -0.0509802 0.996703 0
-0.0615397 -0.0406726 0.997276 0
-0.0656688 -0.0695081 0.995418 0
0.484285 -0.102738 0.868857 0.048692
-0.0767152 -0.0354944 0.996421 0
-0.0706076 -0.0371486 0.996812 0
-0.067982 -0.0238782 0.997401 0
-0.07398 -0.0439863 0.996289 0
-0.0715545 -0.0501607 0.996175 0
-0.0736541 -0.0459471 0.996225 0
-0.0713424 -0.0463339 0.996375 0
-0.072668 -0.059216 0.995597 0
-0.0707738 -0.0622712 0.995547 0.000788865
-0.067665 -0.0526489 0.996318 0
-0.0649373 -0.053263 0.996467 0
-0.0625751 -0.0410964 0.997194 0
-0.0601209 -0.0562546 0.996605 0
-0.0635017 -0.0578325 0.996305 0
0.472769 -0.101075 0.875371 0.0440171
-0.0811524 -0.042883 0.995779 0
-0.0789235 -0.0242515 0.996586 0
-0.0754911 -0.0370961 0.996456 0
-0.0698563 -0.019877 0.997359 0
-0.0734738 -0.0244543 0.996997 0
-0.0719334 -0.0308762 0.996931 0
-0.0726578 -0.0420279 0.996471 0
-0.0731065 -0.0449958 0.996309 0
-0.0792527 -0.0599816 0.995048 0.0124175
-0.0742194 -0.0546497 0.995743 0.00255961
-0.0710857 -0.0750131 0.994646 0.00809568
-0.0715113 -0.059636 0.995655 0.00160439
-0.0711123 -0.0714632 0.994905 0.00152311
-0.0647679 -0.0607027 0.996052 0
-0.0664505 -0.0643337 0.995714 0
-0.0649209 -0.077109 0.994907 0
0.473744 -0.0994808 0.875026 0.0447547
-0.0928369 -0.0388887 0.994922 0
-0.0811493 -0.0319134 0.996191 0
-0.0729037 -0.0115201 0.997272 0
-0.0734662 -0.0215828 0.997064 0
-0.072901 -0.0228042 0.997078 0
-0.0770956 -0.036096 0.99637 0
-0.070806 -0.0332159 0.996937 0
-0.0755818 -0.037591 0.996431 0
-0.0717652 -0.046475 0.996338 0
-0.0744533 -0.0544699 0.995736 0.00922358
-0.0740426 -0.0597109 0.995466 0.00791221
-0.0746008 -0.0720077 0.99461 0.0147946
-0.0708415 -0.0741877 0.994725 0.00990905
-0.0678816 -0.0659855 0.995509 0
-0.0636158 -0.0648378 0.995866 0
-0.0657923 -0.0759329 0.99494 0.000271883
0.455927 -0.0861398 0.885839 0.0328602
-0.0920325 -0.0444541 0.994763 0
-0.0734194 -0.0160698 0.997172 0
-0.0745273 -0.0107736 0.997161 0
-0.0757381 -0.0215837 0.996894 0
-0.0759696 -0.0330966 0.996561 0
-0.0727522 -0.0383071 0.996614 0
-0.07007 -0.0373389 0.996843 0
-0.0696818 -0.0443542 0.996583 0.00117175
-0.0745466 -0.0609619 0.995352 0.00946555
-0.0756352 -0.0568004 0.995516 0.015046
-0.0717377 -0.0600067 0.995617 0.00990353
-0.0739271 -0.0807994 0.993985 0.0151559
-0.0724085 -0.0783034 0.994297 0.0111749
0.450888 -0.106178 0.886243 0.0318295
-0.0758634 -0.0066353 0.997096 0
-0.073063 -0.0129895 0.997243 0
-0.0732011 -0.0149996 0.997204 0
-0.0762225 -0.0233211 0.996818 0
-0.0708004 -0.0186463 0.997316 0
-0.0667313 -0.0239272 0.997484 0.00171172
-0.0731764 -0.033823 0.996745 0.00388292
-0.0715323 -0.0502272 0.996173 0
-0.0741884 -0.0679019 0.99493 0.00690405
-0.0764488 -0.0733213 0.994374 0.0118281
-0.0815961 -0.0921574 0.992396 0.0241758
-0.0812418 -0.109364 0.990676 0.0288379
0.460987 -0.108069 0.880802 0.0409138
-0.0848429 -0.0391186 0.995626 0
-0.0795064 -0.0277639 0.996448 0
-0.0735786 -0.0107218 0.997232 0
-0.0736402 -0.0147196 0.997176 0
-0.0757984 -0.0238075 0.996839 0
-0.0727066 -0.0158168 0.997228 0
-0.0783473 -0.0256031 0.996597 0.00596598
-0.0809865 -0.0408631 0.995877 0.0192153
-0.0726587 -0.0393807 0.996579 0.00720267
-0.0742633 -0.0620468 0.995307 0
-0.0759365 -0.076727 0.994156 0.00667098
-0.0773455 -0.0875047 0.993157 0.0155891
-0.0785194 -0.0962205 0.992258 0.0232151
-0.0874816 -0.110698 0.989996 0.0432567
0.453652 -0.111877 0.884129 0.0363473
0.468315 -0.11754 0.875708 0.0330163
-0.091019 -0.0506721 0.994559 0.00701668
-0.0846151 -0.0393578 0.995636 0
-0.0775837 -0.0220123 0.996743 0
-0.077262 -0.0203606 0.996803 0
-0.0795552 -0.0427001 0.995915 0
-0.0785552 -0.0362364 0.996251 0
-0.0813521 -0.0307671 0.99621 0.00599369
-0.0824072 -0.0372234 0.995903 0.0160234
-0.0773967 -0.0397972 0.996206 0.0127475
-0.0750194 -0.0597944 0.995388 0.0149526
-0.0824199 -0.0791414 0.99345 0.0173562
-0.0828756 -0.0908073 0.992414 0.0197564
-0.085165 -0.0925674 0.992058 0.0363574
-0.0871151 -0.0966981 0.991494 0.0405277
0.480277 -0.135111 0.866648 0.0435787
-0.0876433 -0.0517033 0.994809 0.00293752
-0.0891678 -0.0467642 0.994918 0.00757795
-0.0812902 -0.0468926 0.995587 0
-0.0817748 -0.0424285 0.995747 0.00117671
-0.0793081 -0.0430385 0.995921 0
-0.0788365 -0.0351399 0.996268 0
-0.082132 -0.0315059 0.996123 0.00521484
-0.0821124 -0.0600043 0.994815 0.0221467
-0.0832802 -0.0605701 0.994684 0.0282133
-0.077027 -0.0514435 0.995701 0.00832082
-0.0796145 -0.0664294 0.99461 0.00793242
-0.0812342 -0.0708894 0.994171 0.00873781
-0.0821952 -0.0821516 0.993225 0.024358
-0.0822055 -0.0753403 0.993764 0.0237548
-0.0809981 -0.0841388 0.993157 0.0184767
0.476745 -0.132323 0.869025 0.0453174
-0.0890698 -0.0614582 0.994127 0.0170188
-0.0881386 -0.0523553 0.994731 0.0164018
-0.0820592 -0.0654241 0.994478 0.00907231
-0.0832739 -0.0560389 0.99495 0.0038854
-0.0805556 -0.0398682 0.995952 0
-0.0778271 -0.0496334 0.995731 0.00231162
-0.0799794 -0.0583485 0.995087 0.0183982
-0.0817918 -0.0560774 0.995071 0.00772162
-0.0802308 -0.0550366 0.995256 0.000947109
-0.075898 -0.0663978 0.994902 0
-0.0744018 -0.0620849 0.995294 0
-0.081159 -0.0800218 0.993484 0.0172541
-0.0771418 -0.0687661 0.994646 0.0103144
-0.0813091 -0.0877463 0.992819 0.0278458
-0.0809919 -0.0856327 0.993029 0.0241313
0.459615 -0.116197 0.880484 0.0339471
-0.0828899 -0.0641462 0.994492 0.0163065
-0.0795973 -0.0540032 0.995363 0.00981314
-0.0846672 -0.0539469 0.994948 0.015103
-0.0834307 -0.0657923 0.994339 0.0127797
-0.078366 -0.0604482 0.99509 0.000731784
-0.0840389 -0.0679171 0.994145 0.0128339
-0.0801822 -0.0599189 0.994978 0.00754087
-0.0801368 -0.064803 0.994675 0
-0.0762783 -0.0649289 0.99497 0
-0.07402 -0.0698005 0.994811 0
-0.0767933 -0.0799563 0.993836 0.00673168
-0.0783839 -0.0834416 0.993425 0.0166693
-0.0844989 -0.0887537 0.992463 0.0273501
-0.0789782 -0.0828795 0.993425 0.0163386
0.457284 -0.119182 0.881299 0.0366614
0.445333 -0.112206 0.888306 0.0317966
-0.0764867 -0.0455591 0.996029 0.00536067
-0.0771133 -0.0534755 0.995587 0.00869136
-0.0801798 -0.0596131 0.994996 0.00999246
-0.0775924 -0.0628677 0.995001 0.011076
-0.0823942 -0.0770205 0.993619 0.00801886
-0.0803115 -0.0618277 0.99485 0.0085901
-0.0796682 -0.0468627 0.995719 0
-0.0785413 -0.0584686 0.995195 0
-0.0744702 -0.0491263 0.996012 0
-0.0733488 -0.0444579 0.996315 0
-0.0773663 -0.0499345 0.995752 0
-0.0751684 -0.0637063 0.995134 0.00394386
-0.077575 -0.0566805 0.995374 0.00765052
0.446767 -0.123312 0.886111 0.033072
-0.0760792 -0.055988 0.995529 0.0109285
-0.0685322 -0.0365585 0.996979 0
-0.0748643 -0.0492306 0.995978 0
-0.0746133 -0.05921 0.995453 0
-0.0774537 -0.0659826 0.99481 0
-0.0813805 -0.0703803 0.994195 0
-0.0752514 -0.0506932 0.995875 0
-0.0756394 -0.0622745 0.995189 0
-0.0748331 -0.0419341 0.996314 0
-0.0744733 -0.0533787 0.995793 0
-0.0740688 -0.0450918 0.996233 0
-0.0793935 -0.0508908 0.995543 0.00496238
-0.0777741 -0.0528643 0.995568 0.0036831
-0.078606 -0.0554849 0.99536 0.00951686
-0.063629 -0.0409568 0.997133 0
-0.067541 -0.0448048 0.99671 0
-0.0688865 -0.0467406 0.996529 0
-0.0737082 -0.0591105 0.995526 0
-0.0746339 -0.0576443 0.995544 0
-0.0688509 -0.0495053 0.996398 0
-0.0692252 -0.0594849 0.995826 0
-0.0761433 -0.0467059 0.996002 0
-0.0775983 -0.0465725 0.995896 0
-0.0767348 -0.037604 0.996342 0
-0.0799798 -0.0446293 0.995797 0.00877918
-0.0807543 -0.0536212 0.995291 0.015836
-0.0810951 -0.0699984 0.994245 0.018843
0.441763 -0.13153 0.887438 0.0250857
-0.0626431 -0.0508165 0.996741 0
-0.0649387 -0.0473817 0.996764 0
-0.0721882 -0.0435691 0.996439 0
-0.0713411 -0.0647428 0.995349 0
-0.0725383 -0.0617221 0.995454 0
-0.0732875 -0.0461291 0.996243 0
-0.0687258 -0.0512469 0.996318 0
-0.0792879 -0.0428768 0.995929 0
-0.0752763 -0.0392582 0.99639 0
-0.0727483 -0.0307387 0.996877 0
-0.0788908 -0.0513323 0.995561 0.0080325
-0.0799474 -0.0616378 0.994892 0.0158155
-0.082433 -0.0641013 0.994533 0.0277539
0.431296 -0.117775 0.89449 0.0174731
-0.0623092 -0.0354164 0.997428 0
-0.065703 -0.0432336 0.996902 0
-0.0699703 -0.0441993 0.996569 0
-0.0705794 -0.0475235 0.996373 0
-0.0768491 -0.0516726 0.995703 0
-0.0741287 -0.0444274 0.996259 0
-0.0755145 -0.0326589 0.99661 0
-0.0741098 -0.0428224 0.99633 0
-0.0728101 -0.0423383 0.996447 0
-0.0739155 -0.0383444 0.996527 0.0134057
-0.0747919 -0.0508581 0.995901 0.0134378
-0.0791257 -0.0579594 0.995178 0.027986
-0.0785906 -0.0521412 0.995543 0.0324197
0.422716 -0.126513 0.897388 0.016853
-0.0597219 -0.0458423 0.997162 0
-0.0637259 -0.0347434 0.997362 0
-0.0672705 -0.0465116 0.99665 0
-0.0749013 -0.0414366 0.99633 0
-0.0776935 -0.0450722 0.995958 0
-0.0777011 -0.0319482 0.996465 0
-0.0744309 -0.0494434 0.996 0.00836843
-0.0778657 -0.0327339 0.996426 0.00906594
-0.0721522 -0.0421891 0.996501 0.0163958
-0.0734787 -0.0427766 0.996379 0.00687509
-0.0774785 -0.052409 0.995616 0.0254424
-0.0805697 -0.0454224 0.995713 0.0321291
-0.0796493 -0.039759 0.99603 0.0244777
-0.07463 -0.0298765 0.996764 0
-0.0712547 -0.0373559 0.996758 0
-0.0686659 -0.0389728 0.996878 0
-0.0681897 -0.0369233 0.996989 0.00330204
-0.0703598 -0.0420923 0.996633 0.000371193
-0.0698751 -0.0395156 0.996773 0
-0.0752466 -0.0358348 0.996521 0.000980754
-0.0782266 -0.03284 0.996395 0.00717895
-0.0726074 -0.0200311 0.997159 0.0108083
-0.0746442 -0.0365064 0.996542 0.0241931
-0.082902 -0.0505129 0.995277 0.0272333
-0.0769295 -0.0314446 0.996541 0.0311548
-0.0770881 -0.0458833 0.995968 0.0258514
-0.0853478 -0.0364648 0.995684 0.0450716
-0.0808782 -0.0323797 0.996198 0
-0.0728683 -0.0251594 0.997024 0.000722313
-0.0688669 -0.0354619 0.996995 0
-0.0652456 -0.0277886 0.997482 0.00429922
-0.0724632 -0.0207387 0.997155 0
-0.068669 -0.0336672 0.997071 0
-0.0705003 -0.0388319 0.996756 0.00413243
-0.0707806 -0.0344779 0.996896 0.00406519
