# .PCD v0.7 - Point Cloud Data file format
VERSION 0.7
FIELDS x y z
SIZE 4 4 4
TYPE F F F
COUNT 1 1 1
WIDTH 1324
HEIGHT 1
VIEWPOINT 0 0 0 1 0 0 0
POINTS 1324
DATA ascii
-0.071889333 -0.24790351 -0.39267266
-0.071713336 -0.24790834 -0.39268252
-0.071476333 -0.247923 -0.39267752
-0.0713282 -0.24791601 -0.3926478
-0.059107501 -0.247881 -0.39266551
-0.078805663 -0.24768633 -0.39276966
-0.078662783 -0.24769634 -0.39277336
-0.078534164 -0.24771066 -0.39275336
-0.078340337 -0.24771966 -0.39275801
-0.078143001 -0.24770424 -0.39277074
-0.076873004 -0.24772067 -0.39279136
-0.076730393 -0.2477148 -0.39276642
-0.076489553 -0.24767788 -0.39273727
-0.076303892 -0.24768655 -0.39273536
-0.076092668 -0.24769484 -0.39276919
-0.075958997 -0.247701 -0.39277065
-0.074888997 -0.24772966 -0.39277467
-0.07469283 -0.24769516 -0.39273867
-0.074477166 -0.24771385 -0.39269832
-0.074217997 -0.24772201 -0.39270201
-0.074022673 -0.247724 -0.39271367
-0.073897794 -0.24771801 -0.39274561
-0.073708251 -0.24770251 -0.39277723
-0.073413506 -0.2477245 -0.39278299
-0.073079832 -0.24771951 -0.3927567
-0.072889499 -0.24771301 -0.39270416
-0.072619498 -0.247694 -0.39265549
-0.072463505 -0.24767101 -0.3926208
-0.072364494 -0.24770901 -0.39263099
-0.072109662 -0.24768265 -0.392627
-0.071876332 -0.247687 -0.39270934
-0.071699165 -0.24769081 -0.39273933
-0.071463503 -0.24770735 -0.39270151
-0.071308337 -0.24771535 -0.39267218
-0.071184501 -0.247684 -0.39262399
-0.059099 -0.24770349 -0.39265475
-0.078976497 -0.24749801 -0.39279401
-0.078706995 -0.24748871 -0.39275068
-0.078542002 -0.24748738 -0.39273837
-0.078331001 -0.24750866 -0.39272568
-0.078111328 -0.24751 -0.39276245
-0.077979997 -0.24744301 -0.39279801
-0.076705493 -0.24751584 -0.39278218
-0.07647983 -0.24749982 -0.39274618
-0.076280996 -0.24749243 -0.39275903
-0.076081328 -0.24748117 -0.39277151
-0.075946994 -0.247486 -0.39278302
-0.074682504 -0.24754849 -0.392791
-0.074447997 -0.24754433 -0.3927637
-0.074206501 -0.247541 -0.39274901
-0.074057996 -0.24749 -0.39274099
-0.073901251 -0.24753325 -0.39276177
-0.073698334 -0.2475235 -0.39278886
-0.072831497 -0.2475335 -0.39277399
-0.072608002 -0.24751334 -0.39270166
-0.072468713 -0.247504 -0.392672
-0.072352998 -0.247527 -0.392681
-0.072097003 -0.247501 -0.3926875
-0.071864501 -0.24747284 -0.39272401
-0.071679398 -0.24749 -0.39276701
-0.071460396 -0.24750462 -0.39274961
-0.071308292 -0.24748543 -0.392746
-0.071110427 -0.24750842 -0.392647
-0.070951998 -0.24744549 -0.39261103
-0.059090331 -0.2475255 -0.39264166
-0.078967333 -0.24732034 -0.39278999
-0.078699425 -0.24729015 -0.39273167
-0.078538448 -0.24728411 -0.39271501
-0.078319997 -0.24729668 -0.39271131
-0.078101672 -0.247299 -0.39273214
-0.077973336 -0.247301 -0.39278531
-0.076460801 -0.2473634 -0.3927772
-0.076310001 -0.24733716 -0.39277753
-0.076097399 -0.24729478 -0.39277783
-0.075937003 -0.247308 -0.39278948
-0.074000999 -0.247364 -0.39277801
-0.073652998 -0.24738 -0.392793
-0.072477289 -0.24733457 -0.39274356
-0.072359398 -0.24729422 -0.3927592
-0.072085328 -0.24731965 -0.39273068
-0.071853749 -0.247293 -0.39275026
-0.071718 -0.24732934 -0.39277232
-0.071283497 -0.24735101 -0.39278901
-0.071104601 -0.24730161 -0.39274058
-0.070942 -0.24729933 -0.39266321
-0.059077669 -0.24730982 -0.39266515
-0.078959003 -0.247177 -0.39279601
-0.07870888 -0.247117 -0.39274025
-0.078520425 -0.24709201 -0.39272231
-0.078308664 -0.24708267 -0.39272133
-0.078090504 -0.24708617 -0.39273083
-0.077960506 -0.24705249 -0.39279151
-0.076108664 -0.24719334 -0.392791
-0.072074004 -0.247171 -0.39279699
-0.071895003 -0.247181 -0.39279699
-0.071753502 -0.24718501 -0.39278799
-0.071057998 -0.247143 -0.392793
-0.070904501 -0.24709702 -0.39275497
-0.070677198 -0.2470874 -0.39263883
-0.070571497 -0.24706849 -0.39261901
-0.059065834 -0.24709415 -0.39267218
-0.078688443 -0.24691179 -0.39275759
-0.078523993 -0.24691688 -0.39274865
-0.078298002 -0.246904 -0.392737
-0.078079 -0.2468725 -0.39274016
-0.077951007 -0.24687533 -0.39278135
-0.070646599 -0.24689481 -0.39274201
-0.070486836 -0.24689168 -0.39269033
-0.070331164 -0.24690433 -0.39265284
-0.069781996 -0.24686 -0.39262
-0.069487408 -0.24687822 -0.39263982
-0.069285877 -0.24688025 -0.39266112
-0.0691 -0.24684466 -0.39264634
-0.068953998 -0.24683499 -0.392616
-0.059053835 -0.24687785 -0.39268434
-0.078652665 -0.24672185 -0.39278135
-0.078505374 -0.24671924 -0.39277899
-0.078287669 -0.24672401 -0.39276266
-0.078068502 -0.24669325 -0.39275673
-0.077941 -0.24669701 -0.392793
-0.070404001 -0.24675 -0.39275199
-0.070316248 -0.24671799 -0.39276126
-0.069770999 -0.24671201 -0.39269435
-0.069486335 -0.24670312 -0.39272511
-0.069299504 -0.246719 -0.392755
-0.069060333 -0.24672067 -0.39273301
-0.068941332 -0.24668367 -0.39271399
-0.059091002 -0.246701 -0.39264199
-0.058998 -0.24669799 -0.392721
-0.078277007 -0.246544 -0.39279151
-0.078061 -0.24658349 -0.39278799
-0.069758996 -0.24656001 -0.39278701
-0.069468498 -0.24658149 -0.39279598
-0.069022 -0.24659801 -0.39278999
-0.06893 -0.24653301 -0.39279601
-0.068516575 -0.24645172 -0.39263573
-0.059080999 -0.24652167 -0.39265099
-0.058988333 -0.24651833 -0.39273134
-0.068484858 -0.24631242 -0.39272842
-0.068322435 -0.24626814 -0.39267945
-0.059113335 -0.24630551 -0.39264166
-0.058976665 -0.24630201 -0.39274132
-0.068418004 -0.2462 -0.39279601
-0.068269499 -0.24613899 -0.39278102
-0.068108499 -0.2460795 -0.39269325
-0.067976996 -0.246014 -0.39262199
-0.059100498 -0.24608916 -0.39266333
-0.058963999 -0.24608566 -0.39276531
-0.068097249 -0.24592999 -0.3927615
-0.067938 -0.24587201 -0.39264598
-0.059089251 -0.24590676 -0.39270151
-0.068041675 -0.24571766 -0.39275733
-0.067922801 -0.24571319 -0.39267164
-0.067777 -0.245672 -0.39260301
-0.059273999 -0.24565899 -0.39260799
-0.059078831 -0.24572583 -0.392719
-0.068031996 -0.24557 -0.39279601
-0.067900665 -0.24550916 -0.392717
-0.067744002 -0.24550976 -0.39264876
-0.0594205 -0.245463 -0.392618
-0.059264001 -0.245511 -0.39265266
-0.059065338 -0.24550749 -0.39276087
-0.067878202 -0.24530521 -0.392773
-0.067707501 -0.24530785 -0.39271352
-0.067544751 -0.24529925 -0.3926605
-0.0594575 -0.24527818 -0.39265981
-0.059248667 -0.24528867 -0.39272702
-0.059099 -0.24535801 -0.392784
-0.067832999 -0.245149 -0.39279601
-0.067671247 -0.245107 -0.39277324
-0.067499168 -0.24509816 -0.39273182
-0.067323752 -0.24510823 -0.392636
-0.059701335 -0.24507999 -0.39261734
-0.059495501 -0.24509349 -0.39269698
-0.059315499 -0.24509875 -0.3927635
-0.067454502 -0.24489926 -0.39277926
-0.067285173 -0.2449085 -0.39268115
-0.067139335 -0.24487467 -0.39262268
-0.061503001 -0.24483401 -0.39261201
-0.060075499 -0.24483 -0.39261049
-0.059884798 -0.24488859 -0.39264801
-0.059705827 -0.24490549 -0.3926872
-0.059485 -0.2449445 -0.39275903
-0.059386998 -0.24498001 -0.392791
-0.0672618 -0.2447048 -0.39272842
-0.067114674 -0.24470334 -0.39266953
-0.063408494 -0.244708 -0.39261448
-0.063309751 -0.244629 -0.39261574
-0.063034996 -0.24462201 -0.39260301
-0.061879333 -0.24469233 -0.39262334
-0.061762001 -0.24467599 -0.39263797
-0.061492667 -0.24468566 -0.39265466
-0.061290335 -0.24466784 -0.39263248
-0.061197001 -0.24463201 -0.39265299
-0.060936999 -0.244644 -0.39261001
-0.060676001 -0.244662 -0.392609
-0.060500335 -0.244662 -0.39262131
-0.060300399 -0.24468741 -0.3926394
-0.060106006 -0.24467935 -0.39268064
-0.059888203 -0.244693 -0.39273238
-0.059694 -0.244754 -0.39277199
-0.067209996 -0.244544 -0.392782
-0.067092001 -0.24449721 -0.3927446
-0.066803999 -0.244507 -0.39263901
-0.066799 -0.244432 -0.392667
-0.06348075 -0.24453726 -0.3926495
-0.063313 -0.24449539 -0.39268562
-0.06310425 -0.24450549 -0.392667
-0.062762 -0.24455599 -0.39262399
-0.062447 -0.24449515 -0.392663
-0.062354002 -0.24450333 -0.392663
-0.062094837 -0.2445135 -0.39267662
-0.061880168 -0.24451733 -0.39270082
-0.061747998 -0.24448749 -0.39273101
-0.061478499 -0.24449751 -0.39274597
-0.061278246 -0.24448863 -0.39273089
-0.061184663 -0.24448067 -0.39273235
-0.060927503 -0.2445305 -0.39267802
-0.060663 -0.24450767 -0.39270964
-0.060486998 -0.24450867 -0.39272773
-0.060315799 -0.24450222 -0.3927516
-0.060137499 -0.24452651 -0.392764
-0.066740997 -0.24428625 -0.39271951
-0.066509165 -0.2442825 -0.39264819
-0.065857999 -0.244201 -0.392602
-0.065690003 -0.244203 -0.39264899
-0.065445006 -0.24424851 -0.3926315
-0.06530825 -0.24424024 -0.39264172
-0.065109998 -0.2442355 -0.39261752
-0.064244002 -0.244211 -0.39260501
-0.063492998 -0.2443305 -0.39273602
-0.063301243 -0.24434488 -0.39276388
-0.063092001 -0.2443535 -0.39275301
-0.062432002 -0.24430425 -0.39276949
-0.062332001 -0.24432766 -0.39276335
-0.062167 -0.2443215 -0.392775
-0.061926197 -0.24433658 -0.39276919
-0.061739001 -0.24437401 -0.39279199
-0.061326999 -0.244397 -0.39279199
-0.06651067 -0.24411815 -0.39273334
-0.066249333 -0.24410433 -0.39267233
-0.06611722 -0.24411233 -0.39266655
-0.065906599 -0.24410501 -0.3926616
-0.065723002 -0.24408874 -0.39269876
-0.065433502 -0.24409801 -0.39270499
-0.065277435 -0.24409556 -0.39270926
-0.065082595 -0.2440984 -0.39270401
-0.064666994 -0.24410166 -0.39266932
-0.064497001 -0.24411123 -0.39267045
-0.064322993 -0.24410899 -0.39266121
-0.066235997 -0.24395099 -0.39276901
-0.066082999 -0.24394324 -0.39276099
-0.065882996 -0.24393001 -0.392766
-0.065712005 -0.24393851 -0.39276451
-0.065424003 -0.243983 -0.392782
-0.065303504 -0.24399351 -0.39276451
-0.065169998 -0.24399801 -0.39279401
-0.0644425 -0.243958 -0.3927795
-0.064369 -0.243964 -0.392764
-0.063631505 -0.26645398 -0.3925975
-0.063588999 -0.265636 -0.39259499
-0.063299 -0.26565799 -0.39259201
-0.063292995 -0.265551 -0.39259401
-0.063253999 -0.26480499 -0.39259699
-0.064294003 -0.26461199 -0.392598
-0.063249007 -0.264698 -0.3925885
-0.064288005 -0.264505 -0.39259401
-0.063429996 -0.26443601 -0.3926
-0.063383996 -0.26444301 -0.392591
-0.063427001 -0.264364 -0.39259899
-0.063326672 -0.26430264 -0.39259031
-0.064271003 -0.26418501 -0.3926
-0.063502997 -0.264002 -0.392593
-0.063217334 -0.26409468 -0.39258003
-0.063778996 -0.263845 -0.39259499
-0.063497007 -0.26389599 -0.39259702
-0.063349999 -0.26380399 -0.39259899
-0.063775003 -0.26377499 -0.39259499
-0.063344002 -0.263697 -0.39259201
-0.064288497 -0.26343799 -0.39259899
-0.063334495 -0.26352 -0.3925975
-0.064225003 -0.26329702 -0.392589
-0.063327 -0.263376 -0.392591
-0.063175663 -0.26331234 -0.39258233
-0.064162999 -0.26304799 -0.392589
-0.063442007 -0.26307949 -0.39258799
-0.063355997 -0.26305151 -0.39259648
-0.063163996 -0.26310036 -0.39259401
-0.064259201 -0.26289022 -0.39259583
-0.064155005 -0.26290667 -0.39259502
-0.063445002 -0.26290202 -0.392591
-0.063297004 -0.26280901 -0.392593
-0.063151002 -0.262851 -0.39259699
-0.062982999 -0.26296401 -0.39259201
-0.064168833 -0.26269314 -0.39258766
-0.063437 -0.262759 -0.3925955
-0.063291997 -0.262703 -0.392591
-0.063142665 -0.262674 -0.39257899
-0.064237997 -0.26247832 -0.39259601
-0.064163201 -0.26249421 -0.39258841
-0.063973002 -0.26241499 -0.392584
-0.063419998 -0.26244 -0.39259601
-0.063132495 -0.26249599 -0.39258999
-0.063965 -0.26227367 -0.39258233
-0.063413337 -0.26229799 -0.39258233
-0.06331525 -0.26226974 -0.39259598
-0.063124999 -0.26235399 -0.39259499
-0.064116001 -0.26216099 -0.3925885
-0.063956998 -0.26213101 -0.392593
-0.063403994 -0.26212001 -0.39257401
-0.063377 -0.2620855 -0.39259201
-0.062940001 -0.262146 -0.39259049
-0.062922999 -0.26182699 -0.39259899
-0.062917501 -0.2617195 -0.39259899
-0.064129665 -0.26148596 -0.39259467
-0.063655667 -0.26150069 -0.39258799
-0.063351408 -0.26150221 -0.39258498
-0.063080505 -0.26150101 -0.39258951
-0.064121999 -0.26134399 -0.39259899
-0.063319169 -0.26129183 -0.39259481
-0.063071668 -0.26132235 -0.392573
-0.063349999 -0.26109001 -0.3925803
-0.063060008 -0.26111034 -0.3925887
-0.0628765 -0.26093799 -0.39259648
-0.064070664 -0.26068068 -0.39259601
-0.063184999 -0.26067799 -0.3926
-0.063221 -0.26045799 -0.392598
-0.063176006 -0.260501 -0.392589
-0.063216999 -0.26038599 -0.392593
-0.063096002 -0.26039702 -0.39259899
-0.062748 -0.260124 -0.39259899
-0.063807003 -0.25929001 -0.392598
-0.062738754 -0.2591275 -0.39259273
-0.062927999 -0.25862399 -0.392598
-0.063764498 -0.25847399 -0.3925955
-0.062921673 -0.25848135 -0.39258203
-0.063758999 -0.258367 -0.39258799
-0.062912002 -0.258304 -0.392593
-0.064006664 -0.25807533 -0.39258865
-0.063929796 -0.25806278 -0.392593
-0.062900007 -0.25808999 -0.392598
-0.062697999 -0.25808433 -0.39259198
-0.063943334 -0.25789899 -0.39258698
-0.063460998 -0.257808 -0.3926
-0.062889501 -0.25787899 -0.39258599
-0.06267599 -0.25792018 -0.39256933
-0.063935496 -0.25775632 -0.392593
-0.063456997 -0.257736 -0.39259601
-0.063023999 -0.25762299 -0.3926
-0.06288033 -0.25770032 -0.3925837
-0.062644497 -0.25772476 -0.392573
-0.062537998 -0.25767648 -0.3925685
-0.063867003 -0.257438 -0.392598
-0.063442998 -0.25745201 -0.39258301
-0.062870994 -0.257523 -0.39259148
-0.0626444 -0.25748 -0.39257103
-0.062529661 -0.25749901 -0.39255068
-0.063699998 -0.257231 -0.39258701
-0.063435666 -0.25731 -0.39258099
-0.063065752 -0.25729626 -0.392598
-0.062857665 -0.2572743 -0.39258668
-0.062664501 -0.25729775 -0.39257747
-0.062514998 -0.25726628 -0.39256796
-0.06216 -0.257305 -0.39259899
-0.063897803 -0.25705439 -0.39259118
-0.063692331 -0.25708899 -0.39258599
-0.063423663 -0.25709733 -0.392593
-0.063086778 -0.25711578 -0.39258617
-0.062922999 -0.25709376 -0.39257523
-0.062675998 -0.25710201 -0.39256102
-0.062495496 -0.25708398 -0.39254901
-0.062144998 -0.25702101 -0.39258799
-0.064134501 -0.25690049 -0.39259127
-0.063918121 -0.25690272 -0.39257801
-0.063682325 -0.25687599 -0.39256132
-0.063414 -0.25688434 -0.39256063
-0.063081436 -0.25690132 -0.39257491
-0.062914163 -0.25691566 -0.39256585
-0.062667333 -0.25692466 -0.39255264
-0.062509 -0.25691086 -0.39254883
-0.062138665 -0.25687933 -0.39257467
-0.061962999 -0.2568658 -0.39259499
-0.064417332 -0.25669265 -0.39259234
-0.064096831 -0.256708 -0.39258966
-0.063909583 -0.256726 -0.39256147
-0.063674003 -0.25669903 -0.39253598
-0.063405 -0.25670701 -0.39255702
-0.063071221 -0.25668865 -0.39255011
-0.062904172 -0.25670317 -0.39254215
-0.062656999 -0.25671133 -0.39253166
-0.062498499 -0.25672725 -0.392542
-0.062396999 -0.25665399 -0.39255199
-0.062127002 -0.256666 -0.39258701
-0.06191491 -0.25667682 -0.3925907
-0.064406335 -0.2564787 -0.39258298
-0.064097002 -0.25649363 -0.392582
-0.063898422 -0.2565124 -0.39255965
-0.063664667 -0.25652134 -0.39252901
-0.063396335 -0.25652865 -0.39254436
-0.06306044 -0.25647533 -0.39254102
-0.062893167 -0.25648999 -0.39253652
-0.062646665 -0.25649834 -0.39251265
-0.06251967 -0.25650266 -0.39252499
-0.062390998 -0.25651267 -0.39252302
-0.062121004 -0.25652468 -0.39255333
-0.061900225 -0.25646222 -0.392575
-0.064882003 -0.25632069 -0.39258599
-0.064672001 -0.25632432 -0.39257869
-0.064398497 -0.256302 -0.39255202
-0.064075671 -0.25628167 -0.39255881
-0.063888252 -0.25629973 -0.39254084
-0.063653328 -0.25630835 -0.39253297
-0.063386001 -0.25631598 -0.3925263
-0.063051671 -0.25629833 -0.39253387
-0.062882669 -0.25627747 -0.39252254
-0.062635668 -0.256286 -0.39250329
-0.062509172 -0.25629017 -0.39251152
-0.062380668 -0.25629964 -0.39250836
-0.062111001 -0.25631168 -0.39253435
-0.06189933 -0.25630477 -0.39254221
-0.065063283 -0.25606671 -0.39259115
-0.064871669 -0.25610831 -0.39256167
-0.064663336 -0.25611234 -0.39252499
-0.064390667 -0.25612533 -0.39252201
-0.064055204 -0.2560842 -0.3925426
-0.063893989 -0.25609368 -0.39252001
-0.063705005 -0.25607839 -0.39251882
-0.063376002 -0.25610366 -0.39249864
-0.063066334 -0.25611901 -0.392517
-0.062947504 -0.25611719 -0.39252415
-0.062669247 -0.25607151 -0.39247575
-0.062499333 -0.25607702 -0.39248535
-0.06237033 -0.25608668 -0.39248666
-0.062100004 -0.25609866 -0.39252636
-0.061881255 -0.25611541 -0.39253542
-0.061540999 -0.256089 -0.392591
-0.065246001 -0.25586599 -0.39259401
-0.06505511 -0.2558738 -0.39256832
-0.064861 -0.25589466 -0.39255133
-0.064651996 -0.25589865 -0.39252964
-0.064378999 -0.25591135 -0.39252901
-0.064086497 -0.25592524 -0.39252076
-0.06389945 -0.25588024 -0.39251387
-0.063710831 -0.25587931 -0.39250281
-0.063365668 -0.2558907 -0.39247799
-0.063056998 -0.25590649 -0.39248002
-0.062962167 -0.25591549 -0.39251101
-0.06272199 -0.25591379 -0.39247739
-0.062491 -0.2559 -0.39245877
-0.06236067 -0.25587401 -0.392465
-0.062088668 -0.25588533 -0.39252532
-0.061894886 -0.25590166 -0.39253703
-0.061795998 -0.25590369 -0.39253163
-0.061531335 -0.25591132 -0.392593
-0.061268501 -0.2558935 -0.3925865
-0.061162502 -0.2558935 -0.39258251
-0.066462003 -0.25566399 -0.392598
-0.065847501 -0.255665 -0.39258
-0.065794498 -0.255665 -0.39258099
-0.065282002 -0.25571933 -0.39259532
-0.065124713 -0.25571012 -0.39256161
-0.064909399 -0.25568959 -0.39254099
-0.064641669 -0.25568733 -0.39251003
-0.064368002 -0.25569901 -0.39252767
-0.064103 -0.25571069 -0.39251599
-0.063922897 -0.25571331 -0.39250588
-0.063702747 -0.25570324 -0.39247599
-0.063355662 -0.25567901 -0.39245701
-0.0630465 -0.25569418 -0.39245799
-0.062951498 -0.25570235 -0.3924965
-0.062695168 -0.25571617 -0.39245149
-0.062482167 -0.25572303 -0.39245048
-0.0623505 -0.25569651 -0.39247599
-0.062079668 -0.255674 -0.39248064
-0.061885223 -0.25568944 -0.39250332
-0.061785668 -0.25569099 -0.39250931
-0.061521333 -0.25569868 -0.39256737
-0.061260499 -0.255752 -0.39258897
-0.061122604 -0.25573158 -0.39258379
-0.0664775 -0.255503 -0.39258549
-0.065865338 -0.25548467 -0.39257982
-0.065704323 -0.25549066 -0.392584
-0.065271668 -0.25550768 -0.39257833
-0.065103218 -0.25551763 -0.39255622
-0.064929605 -0.25551581 -0.39253381
-0.064631671 -0.25547433 -0.39248934
-0.06435933 -0.25548699 -0.39247465
-0.064092666 -0.25549734 -0.39249864
-0.063902587 -0.25551584 -0.39248705
-0.063694499 -0.25552514 -0.39245769
-0.063346997 -0.25550151 -0.392441
-0.063035838 -0.25548151 -0.39245367
-0.062942006 -0.25549084 -0.39246216
-0.0627295 -0.25552076 -0.39243275
-0.062502749 -0.25550073 -0.39243326
-0.062343001 -0.25552034 -0.39243433
-0.062071502 -0.25549698 -0.39245999
-0.061875217 -0.25547767 -0.39247409
-0.061776001 -0.25547934 -0.39248332
-0.061511334 -0.25548598 -0.39254034
-0.061246 -0.255467 -0.39258701
-0.061142664 -0.25550297 -0.39257133
-0.068189003 -0.25520799 -0.39259899
-0.067886502 -0.25526699 -0.39259398
-0.067710206 -0.25526923 -0.3925882
-0.067372002 -0.25525799 -0.392598
-0.067127667 -0.25529602 -0.39259768
-0.066841669 -0.25529066 -0.39259836
-0.066626996 -0.25530365 -0.39259031
-0.066490673 -0.25530598 -0.3925823
-0.066318497 -0.25528026 -0.39257324
-0.065863498 -0.25528282 -0.39256099
-0.065694839 -0.25527799 -0.3925525
-0.065261662 -0.25529501 -0.39255333
-0.065093443 -0.25530541 -0.392524
-0.064905502 -0.25531885 -0.3925145
-0.064623505 -0.25529748 -0.392465
-0.064349331 -0.25527498 -0.39245299
-0.064082004 -0.25528532 -0.392483
-0.063892998 -0.2553041 -0.39245436
-0.063684002 -0.25531334 -0.39244214
-0.063337997 -0.25532469 -0.39243934
-0.063027754 -0.25530452 -0.39242351
-0.062932335 -0.25527832 -0.3924292
-0.062763497 -0.25532401 -0.39241749
-0.062453799 -0.25531259 -0.39241341
-0.062332671 -0.25530767 -0.39241335
-0.062062997 -0.25531965 -0.39243901
-0.061866835 -0.25529999 -0.39245132
-0.061766997 -0.25530148 -0.3924745
-0.061501667 -0.25527367 -0.39250967
-0.061237667 -0.25528967 -0.39256299
-0.061091837 -0.25529119 -0.39257884
-0.068513334 -0.255072 -0.39259365
-0.068274498 -0.25509849 -0.392582
-0.068140253 -0.25510326 -0.39258748
-0.067900002 -0.25506902 -0.39257252
-0.067703567 -0.25510001 -0.39255872
-0.067366339 -0.25511733 -0.39256266
-0.067175001 -0.25512552 -0.392598
-0.066830665 -0.25507733 -0.39259169
-0.06666217 -0.25508782 -0.39258167
-0.066479832 -0.25509283 -0.39257899
-0.066309333 -0.25510317 -0.39256433
-0.066019662 -0.25511301 -0.39257398
-0.065879375 -0.25511751 -0.39255151
-0.065686747 -0.2551015 -0.39251876
-0.065252997 -0.25508332 -0.39250669
-0.065083891 -0.25509354 -0.39248884
-0.064895332 -0.25510702 -0.39249384
-0.064614333 -0.25512066 -0.39245638
-0.064339995 -0.25509799 -0.39244401
-0.064071998 -0.25507265 -0.39246598
-0.06389036 -0.25509739 -0.39243862
-0.063763253 -0.25507975 -0.39242825
-0.063594997 -0.25510368 -0.39242503
-0.063326992 -0.25511166 -0.39242068
-0.063043997 -0.25512734 -0.39241168
-0.06295386 -0.25511315 -0.39241701
-0.062750332 -0.25507599 -0.39241067
-0.062052336 -0.25510633 -0.39242068
-0.061858337 -0.25512278 -0.39244181
-0.061757669 -0.255124 -0.39247167
-0.061493501 -0.255097 -0.39248601
-0.061228003 -0.255077 -0.39253902
-0.061082169 -0.25507915 -0.39254519
-0.060988501 -0.25504601 -0.39259851
-0.0688335 -0.254861 -0.39259052
-0.068621501 -0.25487 -0.39257401
-0.068491168 -0.25490752 -0.39257085
-0.068312161 -0.25491765 -0.39256617
-0.06813167 -0.2549265 -0.39256847
-0.067904994 -0.25488621 -0.392555
-0.067692555 -0.25488722 -0.392555
-0.067355998 -0.2549043 -0.39254937
-0.067117006 -0.254888 -0.39256901
-0.066822499 -0.25490099 -0.392564
-0.066680126 -0.25488237 -0.39255977
-0.066469997 -0.25488117 -0.39254728
-0.066298999 -0.25489083 -0.39255336
-0.066010006 -0.25490102 -0.39254603
-0.065862887 -0.25491488 -0.39253318
-0.065718748 -0.25494027 -0.39252275
-0.065595999 -0.254893 -0.39250249
-0.065244496 -0.25490648 -0.39248598
-0.065094568 -0.25489056 -0.39247945
-0.06491375 -0.25488201 -0.3924695
-0.064604335 -0.254908 -0.39243269
-0.064332001 -0.25492066 -0.39242235
-0.064064503 -0.25489649 -0.39242202
-0.063928001 -0.25490925 -0.39241827
-0.063769996 -0.25495699 -0.3924095
-0.062950753 -0.25493574 -0.39240426
-0.061857834 -0.25493419 -0.39241466
-0.061774001 -0.25491273 -0.3924185
-0.061484333 -0.25491932 -0.39247668
-0.061219998 -0.25490052 -0.39250749
-0.061072748 -0.25490075 -0.39254451
-0.060955502 -0.25487024 -0.39258397
-0.068866745 -0.25467148 -0.39257112
-0.06868986 -0.25470084 -0.39257544
-0.068481505 -0.25469652 -0.39253882
-0.068301998 -0.25470617 -0.39254352
-0.068122007 -0.25471535 -0.39253783
-0.067914404 -0.25471282 -0.39254501
-0.067682557 -0.25467488 -0.39253187
-0.067345999 -0.25469267 -0.39251968
-0.067076445 -0.25470668 -0.39255768
-0.066814333 -0.25472465 -0.39253798
-0.066707164 -0.25471732 -0.39254513
-0.066475667 -0.25468099 -0.39251566
-0.066289671 -0.25467816 -0.39251435
-0.066003002 -0.25475901 -0.39253199
-0.065887593 -0.25469822 -0.39251229
-0.065759748 -0.25468975 -0.392506
-0.065587334 -0.2547147 -0.39248931
-0.065236665 -0.25472999 -0.39245167
-0.065100752 -0.25470299 -0.39246804
-0.064904749 -0.25468788 -0.39244363
-0.064594664 -0.25469568 -0.39240333
-0.0643235 -0.25474399 -0.39241248
-0.064058006 -0.25475499 -0.39240551
-0.063950002 -0.25479999 -0.392405
-0.062907502 -0.25478202 -0.39240599
-0.061476003 -0.25470734 -0.39242032
-0.061210334 -0.25472301 -0.39251003
-0.061063167 -0.25472316 -0.39254984
-0.060953397 -0.2547144 -0.39256519
-0.060766999 -0.25467101 -0.39259699
-0.069821998 -0.254421 -0.3926
-0.069624998 -0.2545 -0.39259499
-0.069482602 -0.2544902 -0.39257979
-0.069002002 -0.25445399 -0.392589
-0.068878442 -0.25448924 -0.39256743
-0.068690002 -0.25448611 -0.39256784
-0.068489291 -0.25447273 -0.39253014
-0.068291835 -0.25449297 -0.39252484
-0.068111666 -0.25450203 -0.39251915
-0.06789583 -0.25451651 -0.39253235
-0.067689799 -0.25450483 -0.39250821
-0.067597002 -0.25446701 -0.39249399
-0.067334332 -0.25447932 -0.39252833
-0.067103669 -0.25449267 -0.39251351
-0.066899665 -0.25450465 -0.39252019
-0.06671267 -0.25451565 -0.39253068
-0.066509373 -0.25451675 -0.39251676
-0.066280752 -0.25450176 -0.39250499
-0.065909892 -0.25448427 -0.39248043
-0.065764003 -0.25449601 -0.39248499
-0.065578669 -0.2545037 -0.39244303
-0.065225668 -0.25451767 -0.39244601
-0.065092333 -0.25452685 -0.39245382
-0.064964995 -0.25451499 -0.39245442
-0.064793669 -0.25447932 -0.39240468
-0.064585 -0.25451851 -0.39241052
-0.061465666 -0.25449499 -0.392405
-0.061203502 -0.25454551 -0.39246798
-0.061074998 -0.2545014 -0.39249086
-0.060937334 -0.25451499 -0.39257368
-0.060760003 -0.25452831 -0.3925887
-0.070173003 -0.25425199 -0.39259899
-0.069853432 -0.25425556 -0.39258689
-0.069685206 -0.2542426 -0.3925882
-0.06948217 -0.25429115 -0.39255667
-0.069348663 -0.25430033 -0.39258134
-0.068907425 -0.25431523 -0.39256468
-0.068709753 -0.25429901 -0.39255849
-0.06850528 -0.25429043 -0.39251688
-0.068281673 -0.25428048 -0.39250219
-0.068101168 -0.25428933 -0.39250454
-0.067885667 -0.25430402 -0.39250997
-0.067703664 -0.25431916 -0.3924965
-0.06758967 -0.25432435 -0.39249167
-0.067325503 -0.2543025 -0.39252001
-0.067093 -0.25428069 -0.39249516
-0.066983663 -0.25428534 -0.392524
-0.066733666 -0.25430265 -0.39249387
-0.066533834 -0.25431183 -0.39250299
-0.066313557 -0.25432301 -0.39248401
-0.065890573 -0.25429228 -0.39247784
-0.065753996 -0.25428334 -0.39246252
-0.065566666 -0.25429067 -0.39245331
-0.065216668 -0.25430501 -0.392409
-0.065081336 -0.25431314 -0.39245018
-0.064950831 -0.25431651 -0.39244249
-0.064786002 -0.254338 -0.39240599
-0.061093338 -0.25429878 -0.39246634
-0.060929667 -0.25430402 -0.39250401
-0.060749996 -0.25431499 -0.39255866
-0.070420504 -0.2540625 -0.39259151
-0.070163503 -0.25407499 -0.39259249
-0.069883116 -0.25410533 -0.39258498
-0.069679141 -0.25409386 -0.39257613
-0.069488712 -0.25406742 -0.39256945
-0.069337994 -0.25408801 -0.39257666
-0.068905152 -0.25411293 -0.39255154
-0.068725623 -0.25411299 -0.39252549
-0.068497382 -0.25411972 -0.39250499
-0.068263203 -0.25408441 -0.3924838
-0.068090498 -0.25407782 -0.39249751
-0.067875504 -0.25409234 -0.39248732
-0.067692831 -0.25410736 -0.39249113
-0.067578666 -0.25411233 -0.39249134
-0.067318 -0.25412667 -0.39248466
-0.067074403 -0.25408319 -0.3924914
-0.066972673 -0.25407198 -0.39252234
-0.066722445 -0.25408947 -0.39249718
-0.066523336 -0.2540985 -0.39249119
-0.066303559 -0.25411034 -0.39246333
-0.065899126 -0.25411889 -0.39246836
-0.065748997 -0.25408441 -0.39245638
-0.065556996 -0.25407866 -0.39242768
-0.0652055 -0.25409299 -0.39240348
-0.065063193 -0.254116 -0.3924118
-0.064940833 -0.25410366 -0.39241719
-0.0611265 -0.25408366 -0.39245883
-0.06094455 -0.2540907 -0.39247277
-0.060716163 -0.25410399 -0.39255118
-0.070410997 -0.25388667 -0.39258802
-0.07015533 -0.25389966 -0.392575
-0.069879904 -0.25392491 -0.39257848
-0.069736578 -0.25390884 -0.39256972
-0.069506668 -0.25390035 -0.39254549
-0.069328666 -0.25387633 -0.39254367
-0.068903089 -0.25389409 -0.39254627
-0.068723559 -0.25390911 -0.39251488
-0.068512857 -0.25392658 -0.3924906
-0.068308286 -0.25390372 -0.3924807
-0.068081498 -0.25390097 -0.39248699
-0.067855999 -0.25389519 -0.39248681
-0.067682996 -0.25389516 -0.39246285
-0.067566998 -0.25389868 -0.39249668
-0.067309 -0.25391534 -0.39243698
-0.067083403 -0.25391141 -0.3924666
-0.066963501 -0.253894 -0.39251101
-0.066711888 -0.2538771 -0.39248055
-0.06651333 -0.25388667 -0.39246666
-0.066292562 -0.25389746 -0.39245802
-0.06588167 -0.2539171 -0.39244503
-0.065731406 -0.25391561 -0.392418
-0.065548003 -0.25390148 -0.39241952
-0.065015331 -0.25389031 -0.39240369
-0.064925335 -0.25393966 -0.39240766
-0.06143567 -0.25392666 -0.39240733
-0.061116666 -0.25387198 -0.39242148
-0.060932774 -0.25387698 -0.39248288
-0.060690425 -0.25390157 -0.392553
-0.060596 -0.25385901 -0.3925865
-0.070402503 -0.2537095 -0.39257401
-0.070398003 -0.25360501 -0.39254799
-0.070145003 -0.25368667 -0.39255896
-0.069877446 -0.25370368 -0.39257997
-0.069726557 -0.25371644 -0.39256236
-0.069497555 -0.253723 -0.39254278
-0.069318995 -0.253699 -0.3925465
-0.068892501 -0.25368127 -0.39253411
-0.068713225 -0.25369701 -0.39249757
-0.068520337 -0.25370368 -0.39248201
-0.068298779 -0.25371188 -0.39246675
-0.068072833 -0.25372368 -0.39247432
-0.0678555 -0.25370216 -0.39247501
-0.067671336 -0.25368187 -0.39246798
-0.067557663 -0.25368732 -0.39245901
-0.067297332 -0.25370166 -0.392445
-0.067065664 -0.25371417 -0.39244851
-0.066957004 -0.25371933 -0.3924613
-0.066703498 -0.25370035 -0.392463
-0.066502661 -0.25367436 -0.39245367
-0.066305712 -0.253694 -0.39245155
-0.066199005 -0.2536535 -0.39241248
-0.065871 -0.25370467 -0.39243209
-0.0657285 -0.25375301 -0.39240348
-0.065538667 -0.25372434 -0.39241567
-0.061427999 -0.253784 -0.392409
-0.061106749 -0.25369298 -0.39243576
-0.060925167 -0.25370017 -0.39244881
-0.060695667 -0.25367901 -0.39251116
-0.060587671 -0.25368235 -0.39256799
-0.070753001 -0.25349826 -0.39258748
-0.070391506 -0.2534965 -0.39257801
-0.070133992 -0.25347468 -0.39256135
-0.069860376 -0.25349963 -0.39258763
-0.069715329 -0.25350311 -0.39256534
-0.069511577 -0.2535187 -0.39255446
-0.069343999 -0.25350338 -0.39254659
-0.068875775 -0.25349289 -0.3925176
-0.068701893 -0.25348356 -0.39249721
-0.068510167 -0.25349134 -0.39245847
-0.068315007 -0.25350717 -0.39245361
-0.068095751 -0.25350124 -0.39245263
-0.067869 -0.25352049 -0.39247298
-0.067677498 -0.25347984 -0.39247784
-0.067546338 -0.25347498 -0.39245868
-0.067286335 -0.25348964 -0.39244267
-0.067054003 -0.2535015 -0.39245582
-0.066947006 -0.25350633 -0.39243868
-0.066694885 -0.25352323 -0.39244741
-0.06649375 -0.25349724 -0.39244676
-0.066305399 -0.25348601 -0.39242637
-0.065869503 -0.25351432 -0.39242414
-0.065794006 -0.25346401 -0.39242399
-0.065527663 -0.2535117 -0.3924087
-0.061097499 -0.25351599 -0.39243349
-0.060915548 -0.25352266 -0.39245287
-0.060686253 -0.253501 -0.39251202
-0.060548335 -0.25351533 -0.39258566
-0.070715569 -0.25329414 -0.39259028
-0.070381336 -0.25331834 -0.392593
-0.070124 -0.253297 -0.392564
-0.069810994 -0.25328431 -0.39257631
-0.069704108 -0.25329077 -0.39256224
-0.069518335 -0.25329486 -0.39256668
-0.069342829 -0.25330567 -0.39253518
-0.068880171 -0.25332034 -0.39252281
-0.068683378 -0.25328064 -0.39249399
-0.068498164 -0.25327864 -0.39247298
-0.068322174 -0.25328282 -0.39246133
-0.068096325 -0.25329736 -0.39245132
-0.067879327 -0.253304 -0.39249301
-0.067708246 -0.25331575 -0.39246574
-0.067536995 -0.253297 -0.392461
-0.067274667 -0.25327566 -0.392454
-0.067053005 -0.25330278 -0.39243463
-0.066950753 -0.25327575 -0.39245373
-0.066683657 -0.25331056 -0.39244676
-0.066484831 -0.25331983 -0.39243567
-0.066313207 -0.25331458 -0.39242545
-0.066179 -0.25326401 -0.39240199
-0.065882504 -0.25327551 -0.39240849
-0.065788999 -0.25335801 -0.392409
-0.065518498 -0.25333351 -0.39240599
-0.061086167 -0.25330266 -0.39243567
-0.060903449 -0.25330809 -0.392472
-0.06067783 -0.25332364 -0.39249516
-0.06056967 -0.25332698 -0.39255202
-0.070688404 -0.25309122 -0.39259464
-0.070370667 -0.25310633 -0.39257833
-0.070114672 -0.25311935 -0.39256868
-0.069803998 -0.25314099 -0.39257801
-0.0697034 -0.25307709 -0.39256689
-0.069506496 -0.25308168 -0.39257118
-0.069331832 -0.25309286 -0.39253533
-0.068877101 -0.2531206 -0.39252272
-0.068714887 -0.25310379 -0.39248407
-0.068489 -0.25310099 -0.39247096
-0.068302602 -0.25308418 -0.39246801
-0.068111427 -0.25309369 -0.39244914
-0.0679188 -0.25307518 -0.39247498
-0.06768766 -0.25311258 -0.39245641
-0.067526996 -0.25311968 -0.39247265
-0.067264497 -0.25309801 -0.39246899
-0.067076504 -0.25310701 -0.39243451
-0.066956334 -0.25308016 -0.39246002
-0.066673003 -0.2530978 -0.39244011
-0.066497751 -0.25312552 -0.3924225
-0.066294335 -0.25311685 -0.39242718
-0.065887667 -0.25308535 -0.39241967
-0.061023001 -0.25308999 -0.39242068
-0.060893662 -0.25309634 -0.3924441
-0.06066617 -0.25310966 -0.3925035
-0.060512498 -0.25311199 -0.392584
-0.070708498 -0.2529135 -0.3925845
-0.070358999 -0.252893 -0.39258334
-0.070102997 -0.25290599 -0.39257336
-0.069698997 -0.25291383 -0.39257568
-0.069497749 -0.252904 -0.39256376
-0.069320001 -0.25287917 -0.39254832
-0.06887389 -0.25289923 -0.39253086
-0.068700917 -0.25291449 -0.39248776
-0.068479665 -0.25292367 -0.3924695
-0.068310998 -0.25291181 -0.39247841
-0.068109401 -0.252884 -0.39246279
-0.067921333 -0.25287533 -0.39247498
-0.067716502 -0.25289682 -0.39246249
-0.067555837 -0.25290501 -0.39246917
-0.067254998 -0.25292033 -0.39246964
-0.067066662 -0.25292933 -0.39243969
-0.066947244 -0.25290325 -0.39245951
-0.066680565 -0.25289443 -0.39243484
-0.066493995 -0.25289336 -0.39241752
-0.066292398 -0.25291798 -0.39241698
-0.065882005 -0.25296769 -0.39240667
-0.060877856 -0.25290442 -0.39241645
-0.060656667 -0.25289765 -0.39247188
-0.060502168 -0.25289932 -0.39256683
-0.071007006 -0.25271699 -0.392593
-0.070647664 -0.25269032 -0.39259532
-0.070346996 -0.25268 -0.39259601
-0.07009133 -0.25269267 -0.39258566
-0.069700584 -0.2527211 -0.39257339
-0.069488667 -0.25272718 -0.39256218
-0.069310755 -0.25270149 -0.39254776
-0.068862781 -0.25268599 -0.39253056
-0.068720996 -0.25270045 -0.39248967
-0.068509892 -0.25270879 -0.39248836
-0.068291672 -0.25271448 -0.39247167
-0.068118796 -0.25271338 -0.39246142
-0.067911997 -0.25269902 -0.39247203
-0.067705497 -0.25268468 -0.39245319
-0.067544676 -0.25269184 -0.392472
-0.067244671 -0.25270799 -0.39245567
-0.067055337 -0.25271702 -0.39244199
-0.066938005 -0.25272533 -0.39245048
-0.066677198 -0.25268441 -0.3924284
-0.066513337 -0.25267932 -0.39241752
-0.066317998 -0.25275999 -0.39240301
-0.065867998 -0.25270668 -0.392409
-0.060828 -0.252745 -0.39240599
-0.060646664 -0.25268552 -0.39244398
-0.060493831 -0.25268796 -0.39250815
-0.060350001 -0.25265101 -0.39257801
-0.070998996 -0.25257501 -0.3926
-0.070680998 -0.25252321 -0.39259601
-0.070338503 -0.2525025 -0.39258
-0.070080668 -0.25247934 -0.39258066
-0.069809005 -0.252462 -0.39259702
-0.069708198 -0.25251389 -0.39256811
-0.069507621 -0.25250599 -0.3925519
-0.069301672 -0.25252417 -0.3925387
-0.068852141 -0.25249344 -0.3925356
-0.068719104 -0.25247899 -0.39249307
-0.06849888 -0.252496 -0.39248738
-0.068280831 -0.25250199 -0.39246583
-0.068099834 -0.25251585 -0.39244249
-0.067902662 -0.25252083 -0.39246765
-0.067684002 -0.25248483 -0.39246759
-0.067533337 -0.25247851 -0.39247382
-0.067233674 -0.25249532 -0.39244732
-0.067044325 -0.25250366 -0.39244166
-0.066927828 -0.25251332 -0.39243254
-0.066680402 -0.2525138 -0.39242038
-0.066533998 -0.25250199 -0.3924185
-0.066326 -0.25251618 -0.39240235
-0.060632396 -0.2524876 -0.39242321
-0.060483832 -0.25247598 -0.39248347
-0.060341667 -0.25247398 -0.39255932
-0.070981994 -0.25225499 -0.39259949
-0.07067617 -0.25230971 -0.39258865
-0.070330001 -0.25232601 -0.39257169
-0.070071504 -0.252303 -0.392571
-0.069831997 -0.25227866 -0.39259067
-0.069725275 -0.25228551 -0.39256242
-0.069507115 -0.25230178 -0.3925539
-0.069290496 -0.25231218 -0.39253852
-0.068871796 -0.2523146 -0.39253861
-0.068712607 -0.25228623 -0.39250678
-0.068498753 -0.25229123 -0.39249328
-0.068287425 -0.25227758 -0.39247683
-0.068087339 -0.25230134 -0.39247251
-0.067890503 -0.25230747 -0.39248869
-0.067694604 -0.25231299 -0.39249021
-0.067523755 -0.25230074 -0.39248276
-0.067221336 -0.25228 -0.39247966
-0.067033663 -0.25229165 -0.39243332
-0.066916667 -0.25230083 -0.39243364
-0.06663499 -0.25231767 -0.392409
-0.066526748 -0.252361 -0.39241022
-0.066393003 -0.25239801 -0.39240399
-0.060607001 -0.25233299 -0.392407
-0.060474999 -0.25229827 -0.39247626
-0.060332499 -0.252296 -0.392551
-0.070952751 -0.25206196 -0.39259151
-0.070665337 -0.25209716 -0.39258417
-0.070317328 -0.2521123 -0.39259502
-0.070061997 -0.25212565 -0.39257202
-0.069839999 -0.25209898 -0.39257699
-0.069720335 -0.25207835 -0.39257142
-0.069496334 -0.25208923 -0.39254522
-0.069279164 -0.25209883 -0.39254132
-0.0688565 -0.25211781 -0.39252865
-0.068723604 -0.2521134 -0.39251369
-0.068520755 -0.25210398 -0.39250502
-0.068301998 -0.25207433 -0.39247578
-0.068076335 -0.25208867 -0.39246953
-0.067879498 -0.25209418 -0.39248529
-0.067673832 -0.25211415 -0.39248982
-0.067514837 -0.25212383 -0.39247283
-0.067212 -0.25210398 -0.39246899
-0.067022331 -0.25207797 -0.39243135
-0.066905506 -0.25208732 -0.39242747
-0.06664633 -0.25215101 -0.39240667
-0.066555999 -0.25203899 -0.39240599
-0.060509332 -0.25212014 -0.392443
-0.060279328 -0.25212082 -0.39254799
-0.070892997 -0.25190398 -0.39259169
-0.070653498 -0.25188383 -0.39259365
-0.070565999 -0.25185299 -0.3925865
-0.070306666 -0.25189868 -0.39258668
-0.070050992 -0.25191233 -0.39257166
-0.069833003 -0.25199199 -0.392593
-0.069710992 -0.25190088 -0.392571
-0.069509722 -0.25188586 -0.39255342
-0.069300629 -0.251874 -0.39253801
-0.068845332 -0.25190416 -0.39253017
-0.068702586 -0.25191519 -0.3925201
-0.068511501 -0.2519255 -0.392508
-0.06831 -0.25190219 -0.39249521
-0.068084285 -0.25187343 -0.39247844
-0.067869164 -0.25188249 -0.39246568
-0.067662999 -0.25190231 -0.39247882
-0.067503504 -0.25191084 -0.39247182
-0.067203999 -0.25196201 -0.3924765
-0.067075662 -0.25188532 -0.39243832
-0.06689433 -0.25187436 -0.39243069
-0.066550501 -0.25193202 -0.39240551
-0.060455833 -0.25190833 -0.39244267
-0.06026933 -0.25190833 -0.3925215
-0.06013 -0.2518765 -0.39258099
-0.071952 -0.251607 -0.392591
-0.071131006 -0.25167701 -0.392598
-0.070851505 -0.25179851 -0.39259499
-0.070557997 -0.25171101 -0.39258701
-0.070294999 -0.25168535 -0.39258933
-0.070039004 -0.25169834 -0.3925837
-0.069678664 -0.25172484 -0.39256701
-0.069516748 -0.25169775 -0.39258149
-0.069288276 -0.25168988 -0.39255342
-0.068832837 -0.25168982 -0.392555
-0.068691246 -0.25170216 -0.39252415
-0.06850034 -0.25171319 -0.39250699
-0.068326168 -0.25171584 -0.3925083
-0.068114288 -0.251708 -0.39249355
-0.067922503 -0.251701 -0.392474
-0.067699999 -0.25170329 -0.39249516
-0.067507572 -0.25168672 -0.39246729
-0.067098334 -0.25171834 -0.3924365
-0.066885501 -0.251697 -0.39242601
-0.060403999 -0.25176701 -0.392443
-0.060258497 -0.25169533 -0.39251468
-0.060093749 -0.25168127 -0.39258149
-0.071947999 -0.251535 -0.39259699
-0.070610002 -0.25159901 -0.39259899
-0.070283666 -0.25147268 -0.39259502
-0.070027664 -0.25148568 -0.39258865
-0.069683 -0.25150326 -0.39258584
-0.069498792 -0.25150523 -0.39259142
-0.069316998 -0.251524 -0.39256355
-0.069200002 -0.251461 -0.39256501
-0.068835258 -0.25149375 -0.39254874
-0.06871251 -0.25148597 -0.39253876
-0.068515003 -0.25148937 -0.39252427
-0.0683145 -0.25150266 -0.39251566
-0.068116143 -0.251524 -0.39251956
-0.067946993 -0.25150841 -0.39248341
-0.067738667 -0.25150082 -0.39249551
-0.067517333 -0.25148267 -0.39246887
-0.067182332 -0.25150201 -0.39243269
-0.066914782 -0.25151631 -0.392425
-0.066528 -0.25150499 -0.39240599
-0.060270429 -0.25149414 -0.39245942
-0.060058501 -0.25148681 -0.39256218
-0.070852995 -0.25126702 -0.39259949
-0.070652001 -0.25131568 -0.39259267
-0.07001733 -0.2512733 -0.39257166
-0.06970986 -0.25129816 -0.39257815
-0.069510572 -0.25129586 -0.39258471
-0.069325 -0.25130966 -0.39256001
-0.06919267 -0.25131965 -0.39256799
-0.068837501 -0.251297 -0.392544
-0.068709798 -0.25128651 -0.3925361
-0.06851355 -0.25128466 -0.39252511
-0.068303339 -0.25128916 -0.39251533
-0.068124332 -0.25129917 -0.39250985
-0.067945994 -0.25130969 -0.39247084
-0.067737594 -0.25130719 -0.39250177
-0.067498744 -0.25128025 -0.39244664
-0.067171663 -0.25128934 -0.39242101
-0.066905372 -0.25131273 -0.39241311
-0.066521004 -0.25136399 -0.39240301
-0.060318332 -0.25131667 -0.39243034
-0.060138602 -0.2512868 -0.39251122
-0.059994668 -0.25127366 -0.39257899
-0.071870998 -0.25106701 -0.39258966
-0.070866667 -0.25104031 -0.39259633
-0.070698 -0.25108281 -0.39258319
-0.070580997 -0.25103199 -0.392593
-0.070265666 -0.25111833 -0.39258167
-0.070007995 -0.25109601 -0.39256752
-0.069711365 -0.25108773 -0.39255562
-0.069520667 -0.2510919 -0.39257276
-0.069313832 -0.25109649 -0.39255667
-0.069182664 -0.25110799 -0.39254498
-0.068828009 -0.25111869 -0.39254603
-0.068718702 -0.2511144 -0.39254242
-0.068492427 -0.25109243 -0.39252329
-0.06829267 -0.25107667 -0.39250448
-0.068113498 -0.2510865 -0.3925035
-0.067934997 -0.25109699 -0.39246598
-0.067717999 -0.25110951 -0.39249602
-0.067508571 -0.25110787 -0.39245614
-0.067159332 -0.25107536 -0.39243969
-0.066893011 -0.25109124 -0.39241102
-0.066416994 -0.251156 -0.39241099
-0.060281001 -0.25119999 -0.392425
-0.0601492 -0.25111619 -0.392483
-0.059985999 -0.25109699 -0.39256799
-0.071875833 -0.2509003 -0.39257848
-0.071295336 -0.25090101 -0.39259467
-0.07087183 -0.25087467 -0.39257684
-0.070665002 -0.25086874 -0.39257973
-0.070544668 -0.25089267 -0.39257917
-0.070254661 -0.25090602 -0.39257467
-0.070003003 -0.25099 -0.392564
-0.069996998 -0.25088298 -0.39256349
-0.069706358 -0.25089356 -0.39254102
-0.069510661 -0.25088021 -0.39255145
-0.069302671 -0.25088432 -0.39255464
-0.069171004 -0.25089401 -0.39255598
-0.06881734 -0.25090697 -0.39253435
-0.068699501 -0.25091669 -0.39253417
-0.068503872 -0.25091973 -0.39253014
-0.068282999 -0.25089949 -0.3925055
-0.068094 -0.25088841 -0.39250401
-0.067923501 -0.25088397 -0.39247251
-0.067707829 -0.25089833 -0.39247799
-0.067487448 -0.25091478 -0.3924678
-0.067149997 -0.250898 -0.39244902
-0.066881672 -0.25087798 -0.39241588
-0.060131162 -0.25091985 -0.39245
-0.059977997 -0.25091901 -0.39254233
-0.071930148 -0.25069416 -0.3925837
-0.071453333 -0.25065967 -0.39259234
-0.071255997 -0.25071535 -0.39258099
-0.0711338 -0.25070399 -0.39258939
-0.070862748 -0.25069749 -0.39257303
-0.070677802 -0.25068578 -0.39256841
-0.070534497 -0.25068069 -0.39256048
-0.070244335 -0.2506927 -0.39256099
-0.069988668 -0.25070634 -0.39254132
-0.0697072 -0.25070992 -0.39254695
-0.069501497 -0.25070265 -0.39254633
-0.069283597 -0.25068578 -0.3925502
-0.069159329 -0.25068066 -0.39255866
-0.068806 -0.25069365 -0.39253566
-0.068688415 -0.25070292 -0.39253297
-0.068483777 -0.25071645 -0.39252555
-0.068273664 -0.25072166 -0.39250997
-0.068103202 -0.2507166 -0.392497
-0.067904197 -0.2506856 -0.39246979
-0.067696497 -0.2506845 -0.39247647
-0.067486875 -0.2507104 -0.39245713
-0.067397997 -0.25063601 -0.39244199
-0.067140996 -0.25071999 -0.39244136
-0.066886798 -0.2507062 -0.39242101
-0.066798002 -0.250669 -0.39242101
-0.060120504 -0.25070632 -0.39243832
-0.059967667 -0.250707 -0.39251867
-0.072079003 -0.25050151 -0.3925975
-0.071895503 -0.25048402 -0.3925935
-0.071659997 -0.25041401 -0.39259699
-0.071503997 -0.25056401 -0.39259499
-0.071279399 -0.25048441 -0.39258879
-0.07111416 -0.25050449 -0.39259133
-0.070853837 -0.25052035 -0.39256349
-0.070698 -0.25051302 -0.3925598
-0.070525005 -0.25050253 -0.39256352
-0.070234001 -0.25048065 -0.39254367
-0.069979005 -0.25049433 -0.39252067
-0.069688834 -0.25051302 -0.39252827
-0.069491439 -0.25052464 -0.39255598
-0.069292404 -0.25051421 -0.3925488
-0.069150999 -0.25050402 -0.3925375
-0.068699941 -0.25048745 -0.39254972
-0.06851133 -0.25050232 -0.39253166
-0.068306558 -0.25050789 -0.39251253
-0.06808383 -0.2505185 -0.39249781
-0.067912802 -0.25051442 -0.39247221
-0.067677997 -0.25048837 -0.39245698
-0.067504667 -0.25048849 -0.392436
-0.067391336 -0.25049433 -0.39242199
-0.067130663 -0.25050834 -0.39241502
-0.066903003 -0.25059199 -0.392407
-0.066791505 -0.25052601 -0.39240649
-0.060063999 -0.25049433 -0.39244533
-0.059958 -0.25049534 -0.39248168
-0.059784997 -0.25049767 -0.39258668
-0.07207033 -0.25032535 -0.39258566
-0.071898252 -0.25032225 -0.39257222
-0.071653999 -0.25027335 -0.39258203
-0.071401998 -0.250211 -0.392598
-0.071278669 -0.25028583 -0.39257333
-0.071103334 -0.25029218 -0.39258
-0.070843495 -0.25030833 -0.39254716
-0.070689008 -0.25032964 -0.39254799
-0.07052815 -0.2503157 -0.39254668
-0.0702255 -0.25030398 -0.39253098
-0.069968998 -0.25028333 -0.39249301
-0.069678329 -0.2503005 -0.3925145
-0.069480218 -0.25031132 -0.39255744
-0.069273002 -0.25031585 -0.39254665
-0.069141001 -0.25032631 -0.39254865
-0.06870573 -0.25027874 -0.39255467
-0.068532214 -0.250287 -0.39252502
-0.068295553 -0.2502948 -0.39250576
-0.068073831 -0.25030681 -0.39247215
-0.067894831 -0.25031668 -0.39244318
-0.067687795 -0.25031519 -0.39244261
-0.067494996 -0.25027683 -0.39240918
-0.067121506 -0.25033098 -0.392407
-0.066784002 -0.25038299 -0.39240199
-0.060058001 -0.25035399 -0.39241099
-0.059950005 -0.25028467 -0.39243165
-0.059775665 -0.25028631 -0.39254901
-0.072603002 -0.25016299 -0.392593
-0.072556198 -0.25006399 -0.39259282
-0.072238661 -0.25010332 -0.39258265
-0.072060667 -0.2501137 -0.39255801
-0.071919166 -0.25011751 -0.39254701
-0.071736202 -0.25011361 -0.39255458
-0.071523339 -0.25008902 -0.39257565
-0.071298853 -0.25009272 -0.39256874
-0.071093507 -0.25008053 -0.39256099
-0.070871003 -0.25009266 -0.39253834
-0.070763834 -0.25009683 -0.39255431
-0.07053411 -0.25011265 -0.39253843
-0.070216663 -0.25012764 -0.39251336
-0.069959 -0.25010598 -0.39250201
-0.069681101 -0.2500937 -0.39251631
-0.069528624 -0.25008762 -0.39254341
-0.06930656 -0.25010142 -0.39255163
-0.069128998 -0.25011167 -0.39256701
-0.068711445 -0.25010601 -0.39254567
-0.068521552 -0.25007474 -0.39251557
-0.068310715 -0.2500923 -0.3924906
-0.068096869 -0.25008351 -0.39245838
-0.067927994 -0.25010368 -0.3924377
-0.067670338 -0.25012031 -0.39240733
-0.059941001 -0.25010699 -0.39241251
-0.059765335 -0.25007233 -0.39254335
-0.072536223 -0.24988011 -0.39258024
-0.072228335 -0.24989033 -0.39256898
-0.072050005 -0.24990134 -0.39253899
-0.071909003 -0.24990582 -0.39253297
-0.071711339 -0.24991582 -0.39254597
-0.071504667 -0.24992566 -0.39255986
-0.071314365 -0.24992175 -0.39254764
-0.071084999 -0.24990325 -0.39254153
-0.070861667 -0.24988098 -0.39250466
-0.070753336 -0.2498845 -0.39254084
-0.070522673 -0.24989979 -0.3925432
-0.070205003 -0.24991399 -0.39251733
-0.069949664 -0.24992765 -0.39250502
-0.069671996 -0.24989188 -0.39254615
-0.069524005 -0.24989063 -0.39257136
-0.06926886 -0.24989744 -0.39257959
-0.069117665 -0.24989833 -0.39257231
-0.068693586 -0.24991684 -0.39254513
-0.068512835 -0.24989735 -0.39250398
-0.068310395 -0.2498842 -0.39247498
-0.068098225 -0.24987899 -0.39244235
-0.067917667 -0.249892 -0.39241767
-0.067708001 -0.24997 -0.392405
-0.067442 -0.249925 -0.39240199
-0.059930999 -0.24992834 -0.39242336
-0.059706252 -0.2498955 -0.39255053
-0.072950996 -0.249643 -0.392593
-0.072633997 -0.24969199 -0.39259052
-0.072527334 -0.24970299 -0.39256969
-0.072218336 -0.24967867 -0.39254937
-0.072039671 -0.24968934 -0.39252934
-0.071897335 -0.24969184 -0.39253899
-0.071699835 -0.24970268 -0.39255083
-0.071492501 -0.2497115 -0.39257431
-0.071292669 -0.24971813 -0.39255142
-0.071075834 -0.24972685 -0.39253464
-0.070850998 -0.2497035 -0.392526
-0.070748799 -0.24968581 -0.39254099
-0.070512667 -0.24968778 -0.39251962
-0.070194662 -0.24970134 -0.39250699
-0.069937997 -0.24971433 -0.39250934
-0.069672875 -0.24971648 -0.39258373
-0.069576003 -0.249734 -0.39259499
-0.069282994 -0.249707 -0.39258999
-0.069149494 -0.24967985 -0.39258865
-0.068682835 -0.24970458 -0.39253792
-0.06850411 -0.24972075 -0.39249271
-0.068319604 -0.24971378 -0.39246759
-0.068108007 -0.24970779 -0.3924306
-0.067995504 -0.249639 -0.392409
-0.059922501 -0.24975049 -0.39241803
-0.059697669 -0.24971867 -0.39253435
-0.072948001 -0.24957301 -0.392589
-0.072661594 -0.2495002 -0.39258417
-0.072518326 -0.24952589 -0.39256522
-0.0722095 -0.24950099 -0.39253801
-0.072026998 -0.24947535 -0.39254868
-0.071885839 -0.24947834 -0.39254165
-0.071687333 -0.24948798 -0.39257702
-0.071480334 -0.2494965 -0.39259315
-0.071324162 -0.24950151 -0.39256433
-0.071107335 -0.24951124 -0.39255294
-0.070842676 -0.24952601 -0.39250931
-0.070728607 -0.24951561 -0.39252502
-0.07050211 -0.24947542 -0.39250389
-0.070184663 -0.24948967 -0.39248466
-0.069925331 -0.24949832 -0.39253736
-0.069614999 -0.249589 -0.3926
-0.069273002 -0.24952799 -0.392598
-0.069131397 -0.24948239 -0.39257398
-0.068672754 -0.24949245 -0.39251027
-0.068493888 -0.24950886 -0.39247054
-0.068302006 -0.24951684 -0.392434
-0.068135798 -0.24953501 -0.39241999
-0.067987993 -0.249497 -0.3924115
-0.059687834 -0.24950601 -0.39250579
-0.072932668 -0.24928868 -0.39259633
-0.07266067 -0.24930067 -0.39258632
-0.072506547 -0.249312 -0.39257723
-0.072204001 -0.249394 -0.392542
-0.07210651 -0.249291 -0.39256975
-0.071874753 -0.24929926 -0.39257801
-0.071703337 -0.24932033 -0.39257833
-0.071552999 -0.2493155 -0.39259699
-0.071312666 -0.24928749 -0.39256883
-0.071096219 -0.24929768 -0.39254799
-0.070832007 -0.24931367 -0.39250365
-0.070725657 -0.24931918 -0.39249536
-0.070493497 -0.24929886 -0.39248884
-0.070174336 -0.24927734 -0.39246932
-0.069912665 -0.24928398 -0.39256501
-0.069262668 -0.24931534 -0.3925837
-0.069140002 -0.2493114 -0.39256841
-0.068685107 -0.24927868 -0.39249122
-0.068511754 -0.24929418 -0.39245674
