0.0418127 -0.027719 0.998741 0
0.0409774 -0.0284198 0.998756 0
0.0447701 -0.0280598 0.998603 0
0.0457769 -0.0276133 0.99857 0
0.0455675 -0.028008 0.998569 0
0.0437388 -0.0289301 0.998624 0
0.0426587 -0.0299145 0.998642 0
0.0426977 -0.0298205 0.998643 0
0.0449451 -0.0291417 0.998564 0
0.046514 -0.0285856 0.998509 0
0.0472196 -0.0286449 0.998474 0
0.0425446 -0.0286465 0.998684 0
0.0422662 -0.0292963 0.998677 0
0.0427304 -0.029855 0.99864 0
0.0366385 -0.0309581 0.998849 0
0.039003 -0.0305202 0.998773 0
0.0365263 -0.0293044 0.998903 0
0.0374356 -0.0292487 0.998871 0
0.0363875 -0.029997 0.998887 0
0.0351212 -0.0299453 0.998934 0
0.032201 -0.0317793 0.998976 0.00604751
0.0321812 -0.0318044 0.998976 0.00566362
0.0316818 -0.0323705 0.998974 0.00592544
0.0310167 -0.03249 0.998991 0.00796117
0.0305581 -0.033066 0.998986 0.00808073
0.0308129 -0.032489 0.998997 0.00932388
0.0325469 -0.031967 0.998959 0.0069322
0.0334447 -0.0315692 0.998942 0.00286861
0.0340154 -0.0321458 0.998904 0.00458484
0.0371233 -0.0324478 0.998784 0.00583352
0.0395904 -0.032359 0.998692 0.000718078
0.0416313 -0.032448 0.998606 0.000281961
0.0434621 -0.0321531 0.998538 0
0.0414441 -0.0327068 0.998605 0
0.0452531 -0.0325754 0.998444 0
0.0440513 -0.0319006 0.99852 0
0.0432388 -0.0332006 0.998513 0.00182767
0.0404196 -0.0344274 0.99859 0.00288129
0.0417729 -0.0332871 0.998572 0.00124783
0.0446659 -0.0336526 0.998435 0
0.0467606 -0.0339851 0.998328 0
0.0472758 -0.0342915 0.998293 0
0.0454877 -0.0345524 0.998367 0
0.0408606 -0.0344794 0.99857 0
0.0430551 -0.0344146 0.99848 0
0.0441806 -0.034822 0.998416 0
0.0448653 -0.0346588 0.998392 0
0.0429266 -0.0350515 0.998463 0
0.0425026 -0.0350293 0.998482 0
0.0447613 -0.0355231 0.998366 0
0.0449306 -0.0361994 0.998334 0
0.0454386 -0.0354727 0.998337 0
0.0430181 -0.0349621 0.998462 0
0.0381563 -0.035468 0.998642 0.000671302
0.0369004 -0.0357914 0.998678 0.00238625
0.0355334 -0.0360278 0.998719 0.00351789
0.0369651 -0.037051 0.99863 0.00708686
0.036601 -0.0378467 0.998613 0.0138006
0.0375823 -0.0381158 0.998566 0.0156686
0.0353481 -0.0386084 0.998629 0.0178774
0.0386963 -0.0383341 0.998515 0.0171578
0.0344882 -0.0389018 0.998648 0.0201225
0.0352325 -0.0376372 0.99867 0.0182116
0.0341382 -0.0383663 0.99868 0.0185771
0.0362149 -0.0383928 0.998606 0.0174848
0.0367396 -0.0382132 0.998594 0.0157781
0.0391119 -0.0371202 0.998545 0.0131967
0.0409549 -0.0370117 0.998475 0.0125898
0.0364681 -0.036703 0.998661 0.0118614
0.0363377 -0.0362082 0.998683 0.0126657
0.0347357 -0.0355076 0.998766 0.0116893
0.0367726 -0.0343097 0.998734 0.00750158
0.0380729 -0.0343604 0.998684 0.00763305
0.0394676 -0.0347761 0.998616 0.0114716
0.0384512 -0.0347136 0.998657 0.011321
0.0378825 -0.0349334 0.998671 0.012547
0.0384044 -0.0349551 0.998651 0.0117707
0.0398032 -0.0349505 0.998596 0.00871644
0.0409361 -0.0337324 0.998592 0.00738318
0.0409089 -0.0331528 0.998613 0.00560179
0.0411628 -0.0330712 0.998605 0.00528496
0.0411856 -0.0328858 0.99861 0.00597478
0.0397251 -0.0319214 0.998701 0.00334939
0.0412017 -0.0321096 0.998635 0.00437477
0.0362882 -0.0331338 0.998792 0.00760444
0.0361767 -0.0325727 0.998814 0.00753851
0.0363795 -0.0323853 0.998813 0.00831589
0.0360896 -0.0322501 0.998828 0.00916733
0.0371552 -0.0315573 0.998811 0.00690589
0.0371695 -0.030816 0.998834 0.00569219
0.0383957 -0.0306561 0.998792 0.00365745
0.0366218 -0.0302735 0.998871 0.00722468
0.0353829 -0.0301233 0.99892 0.00811337
0.0378405 -0.0283361 0.998882 0.00170204
0.0373355 -0.0279829 0.998911 0
0.0364769 -0.0279444 0.998944 0
0.0402121 -0.0270627 0.998825 0
0.0380981 -0.0273076 0.998901 0
0.0413112 -0.0268936 0.998784 0
0.0446819 -0.0258141 0.998668 0
0.045254 -0.0254646 0.998651 0
0.0461162 -0.0258949 0.9986 0
0.0441736 -0.0256313 0.998695 0
0.0451857 -0.0250574 0.998664 0
0.0476073 -0.0245361 0.998565 0
0.04503 -0.0242574 0.998691 0
0.0476637 -0.0243191 0.998567 0
0.0480727 -0.0240239 0.998555 0
0.0453799 -0.0237237 0.998688 0
0.0448447 -0.0243574 0.998697 0
0.0459998 -0.0238981 0.998656 0
0.0428175 -0.0246576 0.998779 0
0.0411426 -0.0248351 0.998845 0
0.0407022 -0.0257528 0.998839 0.000465383
0.0427167 -0.0250104 0.998774 0
0.0428895 -0.0242375 0.998786 0
0.045547 -0.0241125 0.998671 0
0.0442076 -0.0232887 0.998751 0
0.0449982 -0.0226896 0.998729 0
0.0460669 -0.0230044 0.998673 0
0.0465699 -0.0228834 0.998653 0
0.0477471 -0.0223441 0.99861 0
0.0487232 -0.0216026 0.998579 0
0.0505815 -0.0211538 0.998496 0
0.049951 -0.0201634 0.998548 0
0.0507235 -0.0206047 0.9985 0
0.0494936 -0.0202653 0.998569 0
0.0499571 -0.0202695 0.998546 0
0.051049 -0.019827 0.998499 0
0.0538949 -0.0196535 0.998353 0
0.0531056 -0.0206556 0.998375 0
0.0542396 -0.0206808 0.998314 0
0.0535116 -0.0209544 0.998347 0
0.0514173 -0.020955 0.998457 0
0.0523185 -0.0205723 0.998419 0
0.054555 -0.0201742 0.998307 0
0.0526002 -0.0205621 0.998404 0
0.0531138 -0.0200158 0.998388 0
0.0497188 -0.0201103 0.998561 0
0.0498998 -0.0201845 0.99855 0
0.0498855 -0.0194292 0.998566 0
0.046902 -0.0195053 0.998709 0
0.0461744 -0.0200444 0.998732 0
0.0465082 -0.0200736 0.998716 0
0.0457562 -0.0200814 0.998751 0
0.0455347 -0.0204766 0.998753 0
0.0441393 -0.0209079 0.998807 0
0.0461798 -0.020487 0.998723 0
0.0443312 -0.0198826 0.998819 0
0.044266 -0.0196915 0.998826 0.00050727
0.0484383 -0.018808 0.998649 0
0.0457336 -0.0184281 0.998784 0
0.0454357 -0.0182251 0.998801 0
0.0459668 -0.0181037 0.998779 0
0.0425275 -0.017797 0.998937 0
0.0447931 -0.0183484 0.998828 0
0.0436456 -0.0183468 0.998879 0
0.0458681 -0.0188605 0.998769 0.00101295
0.043793 -0.0188244 0.998863 0.00207402
0.0416119 -0.0182882 0.998967 0.00613261
0.041174 -0.0184374 0.998982 0.00807777
0.0411689 -0.0189901 0.998972 0.00755443
0.0404848 -0.0192981 0.998994 0.00826952
0.0431217 -0.0188514 0.998892 0.00924015
0.0453096 -0.0188491 0.998795 0.00616024
0.045398 -0.0185309 0.998797 0.00307797
0.0449804 -0.0181893 0.998822 0
0.0477653 -0.0182158 0.998692 0
0.0473756 -0.0182112 0.998711 0
0.0501226 -0.0183992 0.998574 0
0.0508472 -0.0184307 0.998536 0
0.0512729 -0.0190067 0.998504 0
0.0507681 -0.0186882 0.998536 0
0.0485006 -0.0188017 0.998646 0
0.0522752 -0.0188022 0.998456 0
0.0506914 -0.019192 0.99853 0
0.0519849 -0.0193544 0.99846 0
0.0535883 -0.0190901 0.998381 0
0.0531011 -0.0193792 0.998401 0
0.0520966 -0.0196699 0.998448 0
0.0517424 -0.019883 0.998462 0
0.0486461 -0.0201768 0.998612 0
0.0481965 -0.0201584 0.998634 0
0.049761 -0.0203767 0.998553 0
0.0515238 -0.0206403 0.998458 0
0.0545686 -0.0209274 0.998291 0
0.0540445 -0.0210773 0.998316 0
0.0523442 -0.021299 0.998402 0
0.0523884 -0.0215116 0.998395 0
0.0506821 -0.021701 0.998479 0
0.0485587 -0.0223432 0.99857 0
0.0504783 -0.0222933 0.998476 0
0.0503142 -0.0224633 0.998481 0
0.050149 -0.0227214 0.998483 0
0.0458397 -0.0226967 0.998691 0
0.0431462 -0.0231268 0.998801 0
0.0415625 -0.0234455 0.998861 0
0.0375312 -0.0239108 0.999009 0
0.0365838 -0.0240931 0.99904 0
0.0388939 -0.0243483 0.998947 0
0.0376342 -0.0248703 0.998982 0
0.0399285 -0.025114 0.998887 0.00185247
0.0419946 -0.0255623 0.998791 0
0.0386076 -0.0255325 0.998928 0
0.0410347 -0.0255698 0.99883 0
0.0414375 -0.0254851 0.998816 0
0.0450363 -0.0254554 0.998661 0
0.0452889 -0.0257101 0.998643 0
0.0433045 -0.0263637 0.998714 0
0.0392761 -0.0264883 0.998877 0
0.037558 -0.0269922 0.99893 0
0.0404959 -0.0275024 0.998801 0
0.0442422 -0.0275814 0.99864 0
0.0398675 -0.0281607 0.998808 0.00400035
0.0393834 -0.029039 0.998802 0.00705449
0.0377114 -0.0289247 0.99887 0.00751618
0.0348362 -0.0297887 0.998949 0.011222
0.0340377 -0.0300718 0.998968 0.0138586
0.0318456 -0.0300729 0.99904 0.0140747
0.0315013 -0.0300471 0.999052 0.0128528
0.0338435 -0.0295426 0.99899 0.0103985
0.0337806 -0.0294516 0.998995 0.0105246
0.0359602 -0.0292669 0.998925 0.00766799
0.0328992 -0.0301482 0.999004 0.0126818
0.0313304 -0.0304031 0.999047 0.0136956
0.0326675 -0.0305262 0.999 0.0158402
0.0298233 -0.0304947 0.99909 0.0154933
0.0315819 -0.0301853 0.999045 0.0141301
0.0329331 -0.0304895 0.998992 0.0138377
0.0344027 -0.0290494 0.998986 0.00562091
0.0374777 -0.0282307 0.998899 0.000724847
0.0367973 -0.0283671 0.99892 0
0.0370598 -0.0286716 0.998902 0.00067251
0.0381091 -0.0283801 0.998871 0
0.0401361 -0.0284086 0.99879 0
0.0387787 -0.0282893 0.998847 0
0.0426774 -0.028496 0.998682 0
0.0419209 -0.0283038 0.99872 0
0.0460384 -0.0280361 0.998546 0
0.0490766 -0.0277921 0.998408 0
0.0446545 -0.0283995 0.998599 0
0.0413451 -0.0289047 0.998727 0
0.0446565 -0.0285949 0.998593 0
0.0453197 -0.0287961 0.998557 0
0.0440206 -0.0292881 0.998601 0
0.0428106 -0.0292531 0.998655 0
0.0397526 -0.0294622 0.998775 0
0.0374669 -0.0294926 0.998863 0.000626619
0.0329727 -0.0299774 0.999007 0.00581065
0.0366317 -0.030105 0.998875 0.00727002
0.0353706 -0.0298948 0.998927 0.0077715
0.0335847 -0.0300252 0.998985 0.00862644
0.03354 -0.0299237 0.998989 0.00681831
0.0336114 -0.0301629 0.99898 0.00761763
0.0331708 -0.0300708 0.998997 0.00877477
0.0334821 -0.0306854 0.998968 0.0130166
0.032293 -0.0308062 0.999004 0.014103
0.0334475 -0.0309475 0.998961 0.012793
0.0361991 -0.0307385 0.998872 0.00904101
0.0367674 -0.0306598 0.998853 0.00914824
0.0389899 -0.0306726 0.998769 0.00600452
0.0329582 -0.0311173 0.998972 0.0100845
0.0299693 -0.0315455 0.999053 0.0140184
0.0317771 -0.0317266 0.998991 0.0143723
0.0305467 -0.0314302 0.999039 0.0115831
0.0361209 -0.0314394 0.998853 0.0102825
0.0356387 -0.0321278 0.998848 0.013646
0.0336314 -0.0320855 0.998919 0.0113597
0.0308042 -0.0327603 0.998988 0.0151546
0.0315383 -0.0323532 0.998979 0.0111732
0.0334237 -0.0327457 0.998905 0.0139484
0.0375532 -0.0325331 0.998765 0.0127068
0.0399786 -0.0322567 0.99868 0.00949512
0.0405091 -0.0323873 0.998654 0.00781885
0.0394358 -0.03229 0.9987 0.00637683
0.0409453 -0.0320623 0.998647 0.00402792
0.0431947 -0.0320987 0.998551 0.00338783
0.0436467 -0.0321631 0.998529 0.00363052
0.0456152 -0.032289 0.998437 2.2431e-05
0.0458663 -0.0322298 0.998428 0
0.0484833 -0.0321002 0.998308 0
0.0498356 -0.032152 0.99824 0
0.049371 -0.0323613 0.998256 0
0.0477087 -0.0324531 0.998334 0
0.0458189 -0.0329535 0.998406 0
0.044798 -0.0328611 0.998455 0
0.046221 -0.0331223 0.998382 0
0.0469567 -0.0331923 0.998345 0
0.0501007 -0.0333609 0.998187 0
0.0505976 -0.033534 0.998156 0
0.0485175 -0.0337737 0.998251 0
0.046793 -0.0336408 0.998338 0
0.0454161 -0.0341311 0.998385 0.00282305
0.0443069 -0.0340981 0.998436 0.00290726
0.0467217 -0.0339383 0.998331 0.00108135
0.0441778 -0.0337377 0.998454 0
0.0462789 -0.0340065 0.99835 0
0.048535 -0.0337118 0.998252 0
0.0500799 -0.0339012 0.99817 0
0.0474098 -0.0339236 0.998299 0
0.0441815 -0.0340192 0.998444 0
0.0451629 -0.0340245 0.9984 0
0.0467959 -0.0340429 0.998324 0
0.0483767 -0.0339735 0.998251 0
0.0449946 -0.0345413 0.99839 0
0.0423781 -0.0348004 0.998495 0.00077716
0.0403127 -0.03569 0.99855 0.00595886
0.0427359 -0.0357615 0.998446 0.00739125
0.0430356 -0.0355025 0.998443 0.00368092
0.0433469 -0.0358259 0.998417 0.00273256
0.0419792 -0.036212 0.998462 0.00277983
0.040055 -0.0362229 0.998541 0
0.0406633 -0.0356032 0.998538 0
0.0422773 -0.0357147 0.998467 0
0.0427058 -0.0361194 0.998435 0.00129473
0.0445608 -0.0358306 0.998364 0
0.0426541 -0.0358716 0.998446 0
0.0439001 -0.0355917 0.998402 0
0.0426238 -0.0357191 0.998452 0
0.0434865 -0.0363711 0.998392 0.00167327
0.0428331 -0.036149 0.998428 0.00319862
0.0448752 -0.0362392 0.998335 0.00285322
0.0462211 -0.0359658 0.998284 0
0.0473482 -0.0358536 0.998235 0
0.0462517 -0.035926 0.998284 0
0.0454273 -0.0359319 0.998321 0
0.0437998 -0.0361322 0.998387 0
0.0445498 -0.036214 0.998351 0
0.0470898 -0.0360665 0.998239 0
0.0453219 -0.0362349 0.998315 0
0.0465403 -0.0363198 0.998256 0
0.0463676 -0.0365925 0.998254 0
0.0452755 -0.0366844 0.998301 0
0.0428044 -0.0368903 0.998402 0
0.0420599 -0.0369457 0.998432 0
0.0446734 -0.036971 0.998317 0
0.0454803 -0.0371533 0.998274 0
0.0453505 -0.0372853 0.998275 0
0.0467224 -0.0373804 0.998208 0
0.0463459 -0.0374662 0.998223 0
0.0464681 -0.0378729 0.998202 0.00115378
0.0467585 -0.0380784 0.99818 0.000941596
0.0477385 -0.0384376 0.99812 0.00348609
0.0477864 -0.0389676 0.998097 0.00633552
0.0463077 -0.03894 0.998168 0.00466925
0.0443826 -0.0393616 0.998239 0.00856255
0.0460932 -0.0392816 0.998164 0.00792212
0.0506623 -0.0386668 0.997967 0.00101446
0.0501179 -0.0395378 0.99796 0.00737868
0.0494528 -0.0390718 0.998012 0.00375143
0.0466738 -0.0393369 0.998135 0.00501279
0.0480736 -0.0394211 0.998066 0.00499944
0.048776 -0.0400684 0.998006 0.00887885
0.0501151 -0.0396846 0.997955 0.00551767
0.0488969 -0.0398291 0.998009 0.00664897
0.0495693 -0.0399013 0.997973 0.0054128
0.0502191 -0.039694 0.997949 0.00379564
0.0519662 -0.0393724 0.997872 0
0.0507786 -0.0395493 0.997927 0.00167486
0.0506735 -0.0395656 0.997931 0.00141766
0.0477013 -0.0399464 0.998063 0.00522755
0.0495485 -0.0399286 0.997973 0.00433788
0.0495054 -0.0401668 0.997966 0.00521952
0.0489038 -0.0398303 0.998009 0.0039551
0.0501527 -0.0397282 0.997951 0.000971841
0.0492537 -0.0399849 0.997986 0.00114631
0.0495586 -0.040196 0.997962 0.00148556
0.046645 -0.0401522 0.998104 0.000403593
0.048568 -0.0398109 0.998026 0
0.0498658 -0.0397445 0.997965 0
0.0521254 -0.0397175 0.99785 0
0.0484278 -0.0396132 0.998041 0
0.0491106 -0.0397309 0.998003 0
0.0483946 -0.039832 0.998034 0
0.0487071 -0.0397812 0.998021 0
0.0469203 -0.0398894 0.998102 0
0.0500672 -0.0399722 0.997946 0
0.0478875 -0.0400455 0.99805 0
0.0477784 -0.0400429 0.998055 0
0.0486769 -0.0399318 0.998016 0
0.0478004 -0.0397952 0.998064 0
0.0497021 -0.0398184 0.99797 0
0.0501601 -0.0399545 0.997942 0
0.0510647 -0.0400424 0.997892 0
0.0517429 -0.0400463 0.997857 0
0.04896 -0.0401119 0.997995 0
0.0501203 -0.0403352 0.997928 0
0.0510022 -0.0403355 0.997884 0
0.0503768 -0.0406884 0.997901 0.00327232
0.0495632 -0.0407666 0.997939 0.00367097
0.0526361 -0.0407833 0.997781 0.00330448
0.0531502 -0.0411795 0.997737 0.00534267
0.0546897 -0.0408905 0.997666 0.000888883
0.0552661 -0.041055 0.997627 0.00030035
0.0541968 -0.0413336 0.997674 0.00271077
0.0534366 -0.0411558 0.997723 0.001694
0.05214 -0.0411838 0.99779 0.00117968
0.0553594 -0.0417369 0.997594 0.00144081
0.0548843 -0.0419962 0.997609 0.00308668
0.0569712 -0.0422048 0.997483 0.00182436
0.0548707 -0.0419747 0.997611 0.00118964
0.0527281 -0.0418644 0.997731 0.00125432
0.0526502 -0.042021 0.997728 0.000855837
0.0534163 -0.0421044 0.997684 0
0.0533583 -0.0426266 0.997665 0.00157487
0.0549487 -0.0431686 0.997556 0.00254198
0.0545128 -0.0429666 0.997588 0
0.0535418 -0.043004 0.997639 0
0.0513361 -0.0432982 0.997742 0.00330138
0.0523657 -0.0440824 0.997654 0.00608866
0.0522905 -0.0440293 0.997661 0.00491663
0.0517447 -0.0443723 0.997674 0.00728418
0.0515509 -0.0444931 0.997679 0.00680227
0.0522397 -0.0443495 0.997649 0.0050971
0.0529755 -0.044744 0.997593 0.00542709
0.0499728 -0.0443392 0.997766 0.00609796
0.0499018 -0.0448021 0.997749 0.00781872
0.0490781 -0.0450415 0.997779 0.00878377
0.0492349 -0.045094 0.997769 0.00786067
0.0506533 -0.0456001 0.997675 0.00710208
0.0498411 -0.0454118 0.997724 0.00663727
0.0495058 -0.0456806 0.997729 0.00722167
0.0498465 -0.0456446 0.997713 0.0058714
0.0477803 -0.045364 0.997827 0.0050565
0.0504334 -0.0455798 0.997687 0.000756095
0.0493002 -0.0459505 0.997726 0.00239362
0.0488172 -0.046277 0.997735 0.00314258
0.0493543 -0.0460313 0.99772 0.000831318
0.0484708 -0.0464037 0.997746 0.0026549
0.0504655 -0.0470407 0.997617 0.00167735
0.0512635 -0.0471017 0.997574 0
0.0522521 -0.0473244 0.997512 0
0.0517665 -0.0471277 0.997547 0
0.0511302 -0.0469817 0.997586 0
0.0508187 -0.0471377 0.997595 0
0.0500496 -0.0470876 0.997636 0
0.0486347 -0.047414 0.997691 0.00240334
0.0491623 -0.0473578 0.997667 0.00152813
0.0321783 -0.0198004 0.999286 0.00237711
0.0336966 -0.0180365 0.999269 0.00150357
0.0336601 -0.0163704 0.999299 0.000273179
0.0324017 -0.0199971 0.999275 0.00369422
0.0343435 -0.018196 0.999244 0.000660023
0.0326963 -0.0205056 0.999255 0.00579417
0.032951 -0.0210803 0.999235 0.00493067
0.0325982 -0.0212662 0.999242 0.00628908
0.0305442 -0.0245677 0.999231 0.0091168
0.0309297 -0.0250709 0.999207 0.00820437
0.0305311 -0.0264089 0.999185 0.00804545
0.0310254 -0.0255593 0.999192 0.00783039
0.0332734 -0.0250991 0.999131 0.00697417
0.031901 -0.0238639 0.999206 0.00549813
0.0314919 -0.0246708 0.9992 0.00662246
0.0333131 -0.0230958 0.999178 0.0049481
0.0323892 -0.0235397 0.999198 0.005413
0.032644 -0.023745 0.999185 0.00548058
0.0324837 -0.0232747 0.999201 0.00531935
0.0368339 -0.0201028 0.999119 0.00188474
0.0381136 -0.0189286 0.999094 0.000491593
0.037813 -0.0202595 0.999079 0
0.0377191 -0.0212998 0.999061 0.00311865
0.0372685 -0.021645 0.999071 0.00195089
0.0390782 -0.0209575 0.999016 0.00167287
0.040967 -0.019532 0.99897 0
0.0407647 -0.0194536 0.998979 0
0.0403843 -0.0193867 0.998996 0
0.0414734 -0.0195367 0.998949 0
0.038721 -0.0211457 0.999026 0.000643374
0.0380513 -0.0214984 0.999045 0
0.0393771 -0.0202052 0.99902 0
0.0386841 -0.0221875 0.999005 0.00487393
0.0393649 -0.021469 0.998994 0.00338613
0.0385271 -0.02259 0.999002 0.00225131
0.0380516 -0.0217527 0.999039 0.00449067
0.0366351 -0.0214035 0.999099 0.00175739
0.0379532 -0.0201209 0.999077 0.000599207
0.0365288 -0.0211547 0.999109 0.0019056
0.0379114 -0.0204619 0.999072 0
0.0390599 -0.0201759 0.999033 0
0.0378312 -0.021989 0.999042 0.00157396
0.0379517 -0.0221627 0.999034 0.00163558
0.0378453 -0.02078 0.999067 0
0.0377024 -0.0206895 0.999075 0
0.0374562 -0.020712 0.999084 0
0.0350254 -0.0213136 0.999159 0
0.0344679 -0.0218396 0.999167 0
0.0356522 -0.0205148 0.999154 0
0.0364301 -0.0212589 0.99911 0
0.0378254 -0.0219957 0.999042 0
0.0363327 -0.0218376 0.999101 0.00091898
0.0343835 -0.0221485 0.999163 0.00229412
0.0334927 -0.0252036 0.999121 0.00717743
0.0337783 -0.0255609 0.999102 0.00653352
0.0348362 -0.0246946 0.999088 0.00615071
0.0355019 -0.0250004 0.999057 0.00594816
0.0358364 -0.0251142 0.999042 0.00450338
0.035132 -0.0235065 0.999106 0.003364
0.0361413 -0.0256266 0.999018 0.00597716
0.035983 -0.0252262 0.999034 0.00794323
0.0359822 -0.0253332 0.999031 0.00635345
0.0364415 -0.026002 0.998997 0.004391
0.0368601 -0.026182 0.998977 0.00635907
0.033799 -0.0276038 0.999047 0.00728498
0.0377137 -0.0270751 0.998922 0.00559704
0.0375355 -0.0257721 0.998963 0.0043563
0.0385461 -0.0256958 0.998926 0.00378856
0.0386487 -0.0263144 0.998906 0.00289265
0.0384434 -0.024998 0.998948 0.000939108
0.0380941 -0.0245339 0.998973 0.00179926
0.038949 -0.0238885 0.998956 0
0.0383389 -0.0240383 0.998976 0
0.0375465 -0.0242172 0.999001 0.00264183
0.0378695 -0.0239654 0.998995 0.00298626
0.03943 -0.0242267 0.998929 0.00473133
0.0390061 -0.0236502 0.998959 0.0033518
0.0392018 -0.0238842 0.998946 0.00180346
0.0398301 -0.0236396 0.998927 0.00464954
0.0399708 -0.0242942 0.998905 0.00452485
0.0403 -0.0248547 0.998878 0.00447416
0.0406437 -0.0241451 0.998882 0
0.0415718 -0.0240422 0.998846 0
0.0416046 -0.0242007 0.998841 0
0.0397314 -0.0247259 0.998904 0
0.0386709 -0.0243334 0.998956 0
0.0372777 -0.0248452 0.998996 0
0.0387664 -0.0253383 0.998927 0
0.039726 -0.0248202 0.998902 0
0.0395295 -0.024882 0.998909 0
0.0398623 -0.0245107 0.998905 0
0.042958 -0.0244503 0.998778 0
0.0438713 -0.0240599 0.998747 0
0.0414238 -0.0244637 0.998842 0
0.0401663 -0.0247516 0.998886 0
0.0377908 -0.0258844 0.99895 0
0.0384758 -0.0256205 0.998931 0
0.040808 -0.0257007 0.998836 0
0.0402948 -0.0261301 0.998846 0
0.0415005 -0.0258703 0.998804 0
0.0410714 -0.0265148 0.998804 0
0.0426291 -0.0258925 0.998755 0
0.0436672 -0.0260586 0.998706 0
0.0447539 -0.0257437 0.998666 0
0.0446656 -0.0254441 0.998678 0
0.0410867 -0.0267338 0.998798 0
0.0432177 -0.0271537 0.998697 0.000851914
0.0426278 -0.0278054 0.998704 0.00097868
0.0428962 -0.0272616 0.998708 0.000242452
0.0442785 -0.0271186 0.998651 0
0.0457208 -0.0275642 0.998574 0
0.0447526 -0.0282376 0.998599 0
0.0428409 -0.0289481 0.998662 0
0.0437664 -0.0288377 0.998625 0
0.0439454 -0.0286688 0.998622 0
0.0416294 -0.0297155 0.998691 0
0.0417921 -0.0297389 0.998684 0
0.0410882 -0.030529 0.998689 0.000955559
0.0414908 -0.030567 0.998671 0.00206855
0.0413184 -0.0307121 0.998674 0.00315519
0.0407497 -0.0308998 0.998691 0.00277976
0.0413661 -0.0317753 0.998639 0.00330285
0.041414 -0.0324249 0.998616 0.00557649
0.044513 -0.03236 0.998485 0.00277881
0.0442822 -0.0315275 0.998521 0.0013307
0.0426363 -0.0314988 0.998594 0.00245589
0.042025 -0.0312183 0.998629 0.00325853
0.0424677 -0.0320061 0.998585 0.00454039
0.0400715 -0.0329164 0.998654 0.00699143
0.0404161 -0.0333341 0.998627 0.0107445
0.0379791 -0.0339382 0.998702 0.015186
0.0383822 -0.0337179 0.998694 0.0148656
0.0361794 -0.0340855 0.998764 0.0164761
0.0380154 -0.033842 0.998704 0.0147103
0.0369706 -0.0340458 0.998736 0.0153978
0.0373528 -0.0337941 0.998731 0.0135909
0.0379584 -0.0331329 0.99873 0.0106834
0.0367358 -0.0336292 0.998759 0.0125731
0.0400469 -0.0334234 0.998639 0.0122556
0.04056 -0.0321121 0.998661 0.00955608
0.0409807 -0.0307921 0.998685 0.0050165
0.0415953 -0.0304929 0.998669 0.00603682
0.0404708 -0.0296716 0.99874 0.00385981
0.0419419 -0.0285669 0.998712 0.000390756
0.0401439 -0.0286985 0.998782 0.000324606
0.0409169 -0.0288131 0.998747 0
0.0412554 -0.0285964 0.998739 0
0.0391687 -0.0291534 0.998807 0
0.0387125 -0.0293328 0.99882 0.0017771
0.0381496 -0.0286777 0.99886 0.000933823
0.0396116 -0.027136 0.998847 0
0.0398174 -0.0269025 0.998845 0
0.0386776 -0.0268983 0.99889 0
0.0374771 -0.0269187 0.998935 0
0.0374693 -0.0269021 0.998936 0
0.0380215 -0.026955 0.998913 0
0.0375083 -0.0263889 0.998948 0
0.036798 -0.0264043 0.998974 0
0.036071 -0.026887 0.998987 0
0.0387602 -0.0264935 0.998897 0
0.0386518 -0.0261347 0.998911 0
0.0394423 -0.0254057 0.998899 0
0.0409895 -0.0245176 0.998859 0
0.0402729 -0.0239759 0.998901 0
0.0413786 -0.0233987 0.99887 0
0.0414034 -0.0241381 0.998851 0
0.0397898 -0.0249223 0.998897 0
0.0424007 -0.0247779 0.998793 0
0.0403626 -0.0255513 0.998858 0
0.0407297 -0.0257299 0.998839 0.000668847
0.0400474 -0.0260233 0.998859 0
0.0422724 -0.0258353 0.998772 0
0.0423815 -0.0254137 0.998778 0
0.0393336 -0.0252526 0.998907 0.000731648
0.0412015 -0.0255535 0.998824 0.000478223
0.0413248 -0.0264024 0.998797 0.00316614
0.0419425 -0.0259123 0.998784 0.002313
0.0420568 -0.0262721 0.99877 0.00454737
0.0416645 -0.0272462 0.99876 0.00706009
0.042226 -0.026298 0.998762 0.00364647
0.0428 -0.0257166 0.998753 0.00293414
0.0419711 -0.0260474 0.998779 0.00484308
0.0401572 -0.0269126 0.998831 0.0059222
0.0427066 -0.0259954 0.998749 0.00292186
0.0410975 -0.0261557 0.998813 0.000857862
0.0425103 -0.0249882 0.998783 0
0.0404719 -0.024635 0.998877 0
0.0417478 -0.024352 0.998831 0
0.0426859 -0.0246368 0.998785 0
0.0421272 -0.0247913 0.998805 0
0.0400973 -0.0253109 0.998875 0
0.0388542 -0.0259867 0.998907 0
0.0386331 -0.0261971 0.99891 0
0.0389906 -0.0261201 0.998898 0
0.0391587 -0.0261977 0.99889 0
0.0395999 -0.0264647 0.998865 0
0.0378863 -0.026604 0.998928 0
0.0369706 -0.027396 0.998941 0
0.0365938 -0.0274802 0.998952 0
0.0380015 -0.0264712 0.998927 0
0.037584 -0.0266479 0.998938 0
0.0391671 -0.0269268 0.99887 0
0.0415706 -0.0273513 0.998761 0
0.0382397 -0.0277027 0.998884 0
0.0374264 -0.0278202 0.998912 0.00412464
0.0399985 -0.0280799 0.998805 0.00447448
0.0400578 -0.0278254 0.99881 0.00453234
0.0364752 -0.0277532 0.998949 0.00658179
0.0362577 -0.0283621 0.99894 0.00755836
0.03767 -0.0273483 0.998916 0.00374878
0.0374316 -0.0264551 0.998949 0.00111988
0.0360238 -0.0271612 0.998982 0.00407394
0.0353601 -0.0267738 0.999016 0.00498637
0.0361999 -0.0275799 0.998964 0.00548346
0.0354443 -0.0280764 0.998977 0.00629858
0.0343168 -0.0286318 0.999001 0.00517412
0.0329493 -0.02839 0.999054 0.00756163
0.0302085 -0.0288847 0.999126 0.00830324
0.0321083 -0.0281551 0.999088 0.00515571
0.0331297 -0.0277187 0.999067 0.000883771
0.0354967 -0.0280318 0.998977 7.00393e-05
0.0367911 -0.0285322 0.998915 0
0.0369551 -0.0288973 0.998899 0
0.0363216 -0.0299185 0.998892 0
0.0387771 -0.0298976 0.998801 0
0.0386873 -0.030016 0.9988 0
0.0387953 -0.0306932 0.998776 0.000504415
0.0390214 -0.0306645 0.998768 0.000976549
0.0400179 -0.0313252 0.998708 0.00191802
0.0398785 -0.0311808 0.998718 0.00100791
0.0424656 -0.031054 0.998615 0.00166994
0.0444662 -0.0302369 0.998553 0
0.0453408 -0.0307853 0.998497 0
0.0460406 -0.0312078 0.998452 0
0.0469292 -0.0310111 0.998417 0
0.0470359 -0.0316667 0.998391 0
0.0487085 -0.0320891 0.998297 0
0.0503647 -0.0318243 0.998224 0
0.0480698 -0.032515 0.998315 0
0.045929 -0.0325739 0.998413 0
0.0443884 -0.0331956 0.998463 0
0.0427905 -0.0342593 0.998496 0.00117018
0.042092 -0.0339928 0.998535 0.00334222
0.0426831 -0.0329331 0.998546 0.000205509
0.0424941 -0.0325337 0.998567 0
0.0409366 -0.0334396 0.998602 0
0.0403465 -0.0341455 0.998602 0.00336896
0.0397846 -0.0340143 0.998629 0.00435666
0.0404746 -0.034062 0.9986 0.00463915
0.0397532 -0.032874 0.998669 0.00048148
0.0381146 -0.0337948 0.998702 0.00400253
0.0363365 -0.0340442 0.99876 0.00639989
0.0391971 -0.0341187 0.998649 0.0039004
0.0412355 -0.034839 0.998542 0.00216653
0.0403851 -0.0353393 0.998559 0.00388601
0.040952 -0.0347549 0.998557 0.00281883
0.0413817 -0.0344328 0.99855 0.000259085
0.0423178 -0.034811 0.998498 0.00296288
0.0422559 -0.0344738 0.998512 0.00103334
0.0427703 -0.0343169 0.998495 0.00196727
0.039043 -0.0342507 0.99865 0
0.0383401 -0.0341676 0.99868 0
0.0422628 -0.033695 0.998538 0
0.0449317 -0.033632 0.998424 0
0.0457971 -0.0334138 0.998392 0
0.0437399 -0.033457 0.998483 0
0.041447 -0.0336813 0.998573 0
0.0408434 -0.0332995 0.998611 0
0.0403997 -0.0333407 0.998627 0
0.0402684 -0.0332562 0.998635 0
0.0389448 -0.0328139 0.998702 0
0.0377805 -0.0328814 0.998745 0
0.0397745 -0.0333464 0.998652 0
0.039407 -0.0333704 0.998666 0.00248726
0.0402524 -0.0328364 0.99865 0.00190618
0.0384904 -0.0329487 0.998716 0.00242477
0.0365729 -0.033513 0.998769 0.00300368
0.0375447 -0.0328918 0.998753 0.0030049
0.0379448 -0.0331233 0.998731 0.00404348
0.0362915 -0.0338521 0.998768 0.00902237
0.0354391 -0.0337539 0.998802 0.00984785
0.0347871 -0.0342436 0.998808 0.0108701
0.0325186 -0.0344528 0.998877 0.0108492
0.032567 -0.033173 0.998919 0.0101533
0.0322974 -0.0324111 0.998953 0.0111023
0.0348131 -0.0320758 0.998879 0.00899748
0.0357639 -0.0316185 0.99886 0.00700313
0.0350978 -0.0310472 0.998902 0.00458334
0.0342506 -0.0312429 0.998925 0.00514546
0.0347222 -0.0291377 0.998972 0.00267374
0.0348111 -0.0292833 0.998965 0.00330752
0.034939 -0.0285355 0.998982 0.00141772
0.0364204 -0.0278598 0.998948 0
0.0348915 -0.028214 0.998993 0.000719228
0.0372522 -0.0276517 0.998923 0
0.0390506 -0.0275326 0.998858 0
0.0401488 -0.0277026 0.99881 0
0.0388911 -0.0279363 0.998853 0
0.0391772 -0.0272837 0.99886 0
0.0387343 -0.0273304 0.998876 0
0.0400125 -0.027183 0.998829 0
0.0410672 -0.0266183 0.998802 0
0.040898 -0.0260296 0.998824 0
0.0408685 -0.0251782 0.998847 0
0.0387708 -0.0248429 0.998939 0
0.0384311 -0.026106 0.99892 0
0.0403408 -0.0252082 0.998868 0
0.0403482 -0.0247319 0.99888 0
0.0373501 -0.0252235 0.998984 0
0.0360647 -0.0248973 0.999039 0
0.0358458 -0.0250146 0.999044 0
0.0400159 -0.0242422 0.998905 0
0.0416715 -0.0238844 0.998846 0
0.039608 -0.0242788 0.99892 0
0.0391194 -0.0240257 0.998946 0
0.0407592 -0.0234924 0.998893 0
0.0425303 -0.0229543 0.998831 0
0.0416047 -0.0233254 0.998862 0
0.0418281 -0.0224767 0.998872 0
0.0414687 -0.0221691 0.998894 0
0.0433602 -0.0212985 0.998832 0
0.0455382 -0.020466 0.998753 0
0.0461344 -0.0203096 0.998729 0
0.044048 -0.0206952 0.998815 0
0.0426592 -0.0205866 0.998878 0
0.0417697 -0.0201226 0.998925 0
0.0440316 -0.0198219 0.998833 0
0.0444445 -0.0196402 0.998819 0
0.0425613 -0.019889 0.998896 0
0.0451319 -0.0195165 0.99879 0
0.0413485 -0.0196146 0.998952 0
0.0438299 -0.0197746 0.998843 0
0.0450167 -0.0194251 0.998797 0
0.0442341 -0.0196274 0.998828 0
0.0430135 -0.0194664 0.998885 0
0.0436154 -0.019842 0.998851 0
0.0416782 -0.0199932 0.998931 0
0.0447168 -0.0191997 0.998815 0
0.0431474 -0.0195726 0.998877 0
0.0421408 -0.0198091 0.998915 0
0.0453543 -0.0196957 0.998777 0
0.0450358 -0.0193042 0.998799 0
0.0451945 -0.0189478 0.998798 0
0.0465294 -0.0191569 0.998733 0
0.0461798 -0.0181903 0.998767 0
0.0479571 -0.0185267 0.998678 0
0.0445478 -0.0184165 0.998837 0
0.0431687 -0.0185325 0.998896 0
0.0438286 -0.0184716 0.998868 0
0.0457298 -0.0185644 0.998781 0
0.046749 -0.0176256 0.998751 0
0.047249 -0.0174166 0.998731 0
0.0469939 -0.0166476 0.998756 0
0.0467502 -0.0177085 0.99875 0
0.0487284 -0.0172832 0.998663 0
0.0469462 -0.0176779 0.998741 0
0.0432583 -0.0177443 0.998906 0
0.0432082 -0.0174967 0.998913 0
0.0412724 -0.0181582 0.998983 0.000193651
0.0434662 -0.0176873 0.998898 0.000537261
0.0462797 -0.0180001 0.998766 0
0.0498007 -0.0185674 0.998587 0
0.0497214 -0.0186901 0.998588 0
0.0503075 -0.0187335 0.998558 0
0.0493548 -0.0191905 0.998597 0
0.0470207 -0.0186957 0.998719 0
0.044754 -0.018767 0.998822 0
0.0431682 -0.0195869 0.998876 0
0.0413545 -0.0202917 0.998938 0
0.0447392 -0.020222 0.998794 0
0.0434522 -0.0211555 0.998832 0
0.0414527 -0.0216938 0.998905 0
0.0413316 -0.0211741 0.998921 0
0.0417513 -0.0221798 0.998882 0
0.0414112 -0.0222623 0.998894 0
0.0432063 -0.0222002 0.99882 0
0.0447522 -0.0222268 0.998751 0
0.0440364 -0.0224068 0.998779 0
0.043923 -0.0219277 0.998794 0
0.0436773 -0.0215949 0.998812 0
0.0424423 -0.022316 0.99885 0
0.043636 -0.0225988 0.998792 0
0.0427726 -0.0224775 0.998832 0
0.0443388 -0.0227764 0.998757 0
0.0426231 -0.0225693 0.998836 0
0.0413677 -0.0228853 0.998882 0
0.0408716 -0.0229052 0.998902 0
0.0392878 -0.0235026 0.998951 0
0.0389404 -0.023715 0.99896 0
0.0380589 -0.0238281 0.998991 0
0.0387897 -0.0239221 0.998961 0
0.0395312 -0.0241234 0.998927 0
0.0407325 -0.0241178 0.998879 0
0.0388938 -0.02459 0.998941 0
0.0380964 -0.0247387 0.998968 0
0.0347438 -0.0253529 0.999075 0
0.0345011 -0.0257001 0.999074 0
0.0364963 -0.0254417 0.99901 0
0.0371038 -0.0258873 0.998976 0
0.034607 -0.0262867 0.999055 0
0.0341411 -0.0265363 0.999065 0
0.0349191 -0.0266397 0.999035 0
0.0343898 -0.0269062 0.999046 0
0.0342355 -0.027159 0.999045 0.000582831
0.0341077 -0.0272163 0.999048 0.00075779
0.0334889 -0.0271139 0.999071 0
0.0330283 -0.0274556 0.999077 0.000741437
0.035906 -0.0271255 0.998987 0
0.0343047 -0.027381 0.999036 0.00245744
0.0344394 -0.0276431 0.999024 0.00271923
0.0339489 -0.0272238 0.999053 0
0.0351168 -0.026897 0.999021 0
0.0365097 -0.0269463 0.99897 0
0.0364472 -0.0272473 0.998964 0
0.0384387 -0.0270124 0.998896 0
0.0371901 -0.0272372 0.998937 0
0.0373184 -0.0273225 0.99893 0
0.036619 -0.0275499 0.998949 0
0.0372193 -0.0277586 0.998922 0
0.0402054 -0.0272796 0.998819 0
0.0387608 -0.027448 0.998872 0
0.0352406 -0.0280428 0.998985 0
0.0354759 -0.0283892 0.998967 0.00127234
0.0358158 -0.0289173 0.99894 0.00273836
0.0363688 -0.0291536 0.998913 0.00375671
0.0337791 -0.0297958 0.998985 0.00628038
0.0346177 -0.0303446 0.99894 0.00791328
0.031416 -0.031051 0.999024 0.0115844
0.034003 -0.0307961 0.998947 0.0104854
0.0349691 -0.0303321 0.998928 0.00885041
0.0359092 -0.0302129 0.998898 0.00637391
0.0334094 -0.0300799 0.998989 0.00367941
0.0316869 -0.0298095 0.999053 0.00132548
0.0310409 -0.0298224 0.999073 0.0014106
0.0344238 -0.0295198 0.998971 0
0.0353917 -0.0292289 0.998946 0
0.0360346 -0.0292644 0.998922 0
0.0365259 -0.029083 0.998909 0
0.0341713 -0.028792 0.999001 0
0.0348408 -0.0285567 0.998985 0
0.0339706 -0.0286623 0.999012 0
0.0332843 -0.0289747 0.999026 0
0.0326618 -0.029149 0.999041 0
0.0332153 -0.0292438 0.99902 0
0.0349136 -0.0292857 0.998961 0
0.0373199 -0.0290282 0.998882 0
0.0369438 -0.0292595 0.998889 0
0.0363935 -0.0295629 0.9989 0.00129443
0.0371926 -0.0292833 0.998879 0
0.0374681 -0.0295519 0.998861 0.000495754
0.0378135 -0.0297351 0.998842 0.000107704
0.0370132 -0.0300107 0.998864 0.00250082
0.0348157 -0.0310068 0.998913 0.00743046
0.0334088 -0.0310704 0.998959 0.00893726
0.0321901 -0.0308959 0.999004 0.00831131
0.0305031 -0.0313213 0.999044 0.0103211
0.0313704 -0.0310038 0.999027 0.00860719
0.0299164 -0.0312034 0.999065 0.00926876
0.025378 -0.0318049 0.999172 0.0126651
0.0258562 -0.0313422 0.999174 0.0117124
0.0268679 -0.0311773 0.999153 0.0104365
0.0293973 -0.0311737 0.999081 0.00926038
0.0290088 -0.0314645 0.999084 0.0101567
0.0310924 -0.0308531 0.99904 0.00588898
0.0272546 -0.0312794 0.999139 0.00655288
0.0280354 -0.0313665 0.999115 0.005701
0.028722 -0.0314864 0.999091 0.00524669
0.0288098 -0.0312086 0.999098 0.00507296
0.0295772 -0.0308582 0.999086 0.00237981
0.0301027 -0.0312562 0.999058 0.00394372
0.0309384 -0.0317073 0.999018 0.00315766
0.030987 -0.0318153 0.999013 0.00337416
0.0340881 -0.0316615 0.998917 0.00328841
0.0328311 -0.0320158 0.998948 0.00387521
0.0314362 -0.0327552 0.998969 0.00850616
0.0307244 -0.0335817 0.998964 0.0106415
0.0317658 -0.0329056 0.998953 0.00740543
0.0358191 -0.0326244 0.998826 0.0053328
0.0358894 -0.033236 0.998803 0.00822594
0.033546 -0.0337646 0.998867 0.0104154
0.0386329 -0.0335108 0.998691 0.0116199
0.0390142 -0.0332055 0.998687 0.00545408
0.0393418 -0.0334337 0.998666 0.00500167
0.0409333 -0.0335981 0.998597 0.0043763
0.0406066 -0.0338252 0.998603 0.00641142
0.041256 -0.0337977 0.998577 0.00519438
0.0419728 -0.0337523 0.998548 0.00661673
0.0440399 -0.0335208 0.998467 0.00517989
0.0425979 -0.0338247 0.99852 0.00683738
0.0416901 -0.0341361 0.998547 0.00645358
0.0428339 -0.0341389 0.998499 0.00494888
0.0412145 -0.0342837 0.998562 0.00645028
0.0454046 -0.033801 0.998397 0.00219652
0.0465118 -0.033177 0.998367 0
0.0464668 -0.0331049 0.998371 0.000529783
0.0476488 -0.0332254 0.998311 0
0.0488848 -0.0330169 0.998259 0
0.0479697 -0.0334575 0.998288 0
0.0482634 -0.0335678 0.99827 0
0.0503387 -0.0332029 0.99818 0
0.0475035 -0.033066 0.998324 0
0.0472922 -0.033416 0.998322 0
0.0463406 -0.0335455 0.998362 0
0.0440154 -0.0343245 0.998441 0
0.0435238 -0.0343024 0.998463 0
0.0437804 -0.0344538 0.998447 0
0.0438232 -0.0349435 0.998428 0
0.0414396 -0.035201 0.998521 0
0.0393897 -0.0352912 0.998601 0
0.0403246 -0.0352559 0.998564 0
0.0376456 -0.0357688 0.998651 0.00122949
0.0363263 -0.0360632 0.998689 0.00206187
0.0360396 -0.0355736 0.998717 0.00038698
0.0384478 -0.0356181 0.998626 0.000590012
0.0387916 -0.0356011 0.998613 0
0.0413234 -0.0354581 0.998516 0
0.0402049 -0.0355749 0.998558 0
0.0381124 -0.0357311 0.998634 0.000584046
0.0398224 -0.0354633 0.998577 0
0.0405704 -0.0352729 0.998554 0
0.0438841 -0.035155 0.998418 0
0.044228 -0.0353261 0.998397 0
0.0445252 -0.0356608 0.998372 0
0.0464092 -0.0352731 0.9983 0
0.0460795 -0.0351024 0.998321 0
0.0465232 -0.0353454 0.998292 0
0.0491566 -0.0354332 0.998162 0
0.0469511 -0.0358429 0.998254 0
0.0473387 -0.0358294 0.998236 0
0.0452306 -0.0359561 0.998329 0
0.0467146 -0.0358938 0.998263 0
0.0462464 -0.0360173 0.998281 0
0.0474737 -0.0360845 0.998221 0
0.0469762 -0.0361897 0.99824 0
0.0457486 -0.0361234 0.9983 0
0.0453188 -0.0363008 0.998313 0
0.0455875 -0.0364311 0.998296 0
0.0438264 -0.0366392 0.998367 0
0.0415516 -0.0370882 0.998448 0.000702415
0.0393645 -0.0374987 0.998521 0.00338281
0.0419064 -0.037568 0.998415 0.00337372
0.0425724 -0.0375369 0.998388 0.00206128
0.044111 -0.0371044 0.998337 0
0.0447971 -0.0370994 0.998307 0
0.04519 -0.0370404 0.998291 0
0.0431078 -0.0371823 0.998378 0
0.0445799 -0.0372686 0.99831 0
0.0437501 -0.0374333 0.998341 0
0.045249 -0.0375929 0.998268 0
0.0457084 -0.0379773 0.998233 0.00187737
0.0440028 -0.0379197 0.998312 0.000302583
0.0443767 -0.0378822 0.998296 0
0.0473972 -0.0379431 0.998155 0
0.0464346 -0.0379735 0.998199 0
0.0446819 -0.0380572 0.998276 0
0.0449659 -0.038229 0.998257 0
0.0462978 -0.0381547 0.998199 0
0.0458199 -0.0381983 0.998219 0
0.0451914 -0.0378654 0.99826 0
0.0470328 -0.0380597 0.998168 0
0.0454913 -0.0383029 0.99823 0
0.0428815 -0.0385043 0.998338 0
0.0440467 -0.038636 0.998282 0
0.0453229 -0.0386595 0.998224 0
0.0429725 -0.038846 0.998321 0.000196892
0.0457849 -0.0388726 0.998195 0
0.0461496 -0.0387504 0.998183 0
0.0450649 -0.0386272 0.998237 0
0.0487448 -0.0385535 0.998067 0
0.0491697 -0.0385307 0.998047 0
0.0466614 -0.038582 0.998165 0
0.0475214 -0.0386162 0.998124 0
0.0475095 -0.038628 0.998124 0
0.0477568 -0.0386896 0.998109 0
0.0482277 -0.038835 0.998081 0
0.0476444 -0.0388752 0.998108 0
0.0482103 -0.0390353 0.998074 0
0.0463523 -0.0391296 0.998158 0
0.0475872 -0.0390252 0.998104 0
0.0488203 -0.0391203 0.998041 0
0.0477795 -0.0391479 0.998091 0
0.046944 -0.0391337 0.998131 0.000313398
0.0459384 -0.0392628 0.998172 0.00253344
0.0440166 -0.0398347 0.998236 0.00673291
0.0425352 -0.0395985 0.99831 0.00544362
0.0458169 -0.0392993 0.998177 0.00187305
0.0478533 -0.0391505 0.998087 0.000231825
0.049384 -0.0392946 0.998007 0
0.0486777 -0.039431 0.998036 0.000329974
0.0520887 -0.0394141 0.997864 0
0.0518896 -0.0394798 0.997872 0
0.0501531 -0.0398776 0.997945 0
0.0481322 -0.0400283 0.998039 0
0.0491633 -0.0405426 0.997968 0
0.048462 -0.0407464 0.997994 0
0.0493931 -0.0409093 0.997941 0
0.0501797 -0.0412436 0.997888 0
0.0518841 -0.0415273 0.997789 0
0.0505428 -0.0415663 0.997857 0
0.0514323 -0.0418061 0.997801 0
0.0513233 -0.0418807 0.997804 0
0.0515028 -0.0420535 0.997787 0
0.050432 -0.0422728 0.997832 0
0.050875 -0.0424699 0.997802 0
0.0495743 -0.0427608 0.997855 0.000268827
0.0483714 -0.0429288 0.997906 0
0.0476753 -0.0433153 0.997923 0.000362985
0.0479111 -0.0435232 0.997903 0.00092872
0.0496329 -0.0438871 0.997803 0.00170573
0.0493148 -0.0441236 0.997808 0.00186308
0.0469697 -0.0438951 0.997931 0.000415841
0.0454377 -0.0439239 0.998001 0.000768948
0.0451526 -0.0440973 0.998006 0.00113225
0.0449475 -0.0440164 0.998019 0
0.043857 -0.0442724 0.998056 0.00100685
0.0425934 -0.0445353 0.998099 0.00251176
0.0434337 -0.0442398 0.998076 0.000554548
0.0443059 -0.0444482 0.998029 0.00048433
0.0430113 -0.0447675 0.998071 0.000946263
0.0439394 -0.0445737 0.998039 0
0.0432084 -0.044821 0.99806 0.000392392
0.0425513 -0.0454056 0.998062 0.00168887
0.0441864 -0.045238 0.997999 8.2021e-05
0.044067 -0.046008 0.997969 0.00207293
0.0443669 -0.0465517 0.99793 0.003237
0.0444628 -0.0469622 0.997907 0.0053548
0.0443743 -0.047587 0.997881 0.00630388
0.0452546 -0.0478514 0.997829 0.00558711
0.0263537 -0.00680432 0.999629 0.00492454
0.0266169 -0.00709401 0.99962 0.00257231
0.0258785 -0.00977349 0.999617 0.00477901
0.0250942 -0.00724241 0.999659 0.00156303
0.02714 -0.00774558 0.999602 0
0.0278972 -0.00714802 0.999585 0
0.0283514 -0.00589295 0.999581 0
0.028572 -0.00490834 0.99958 0
0.0299919 -0.0047707 0.999539 0
0.0294194 -0.00479274 0.999556 0
0.0291752 -0.00435355 0.999565 0
0.0271951 -0.00422242 0.999621 0
0.0279409 -0.00540858 0.999595 0
0.0264902 -0.00752298 0.999621 0.000320055
0.0265599 -0.00721469 0.999621 0
0.0276175 -0.00662423 0.999597 0
0.0268997 -0.00819632 0.999605 0
0.0271577 -0.00804069 0.999599 0
0.0286413 -0.00778674 0.999559 0
0.0282148 -0.00793849 0.99957 0
0.0291991 -0.00949974 0.999528 0
0.02847 -0.0104541 0.99954 0
0.0294678 -0.0105915 0.99951 0
0.0292677 -0.0103237 0.999518 0
0.0294158 -0.010391 0.999513 0
0.0277237 -0.0102403 0.999563 0
0.0275742 -0.0108103 0.999561 0
0.0287972 -0.0112456 0.999522 0
0.02949 -0.012446 0.999488 0
0.029387 -0.013027 0.999483 0
0.0297842 -0.013486 0.999465 0
0.0307826 -0.013865 0.99943 0
0.0279106 -0.0139999 0.999512 0
0.027112 -0.0146361 0.999525 0
0.0300246 -0.0160718 0.99942 0
0.0291855 -0.014922 0.999463 0
0.0291825 -0.0155943 0.999452 0
0.0269026 -0.0144238 0.999534 0
0.0271236 -0.0153024 0.999515 0
0.0286823 -0.0163277 0.999455 0
0.0308891 -0.0163319 0.999389 0
0.0304746 -0.0170296 0.99939 0
0.0312954 -0.0168927 0.999367 0
0.0353834 -0.0157169 0.99925 0
0.0348192 -0.0159283 0.999267 0
0.0326289 -0.016479 0.999332 0
0.0346926 -0.0166476 0.999259 0
0.0328295 -0.017166 0.999314 0.000553063
0.0345467 -0.0170145 0.999258 0
0.0353753 -0.0167595 0.999234 0
0.0337766 -0.0170024 0.999285 0
0.0347746 -0.0169644 0.999251 0
0.0364585 -0.0179253 0.999174 0
0.035496 -0.0177843 0.999212 0
0.0371398 -0.0176682 0.999154 0
0.0367689 -0.0174873 0.999171 0
0.0378748 -0.0169495 0.999139 0
0.0374871 -0.0170548 0.999152 0
0.0347237 -0.0180054 0.999235 0
0.0337961 -0.0186548 0.999255 0
0.0336826 -0.0189817 0.999252 0.000591155
0.033971 -0.0179006 0.999263 0
0.0329469 -0.0172647 0.999308 0
0.0330705 -0.016811 0.999312 0
0.0322751 -0.0175881 0.999324 0
0.0346234 -0.0180487 0.999237 0
0.0357618 -0.0177656 0.999202 0
0.0322177 -0.0185303 0.999309 0
0.0331765 -0.018389 0.99928 0
0.0329813 -0.0182605 0.999289 0.000640343
0.0323951 -0.0185495 0.999303 0
0.0327629 -0.0192389 0.999278 0.00137108
0.0300214 -0.019578 0.999358 0.000651273
0.0298408 -0.0201528 0.999352 0
0.028346 -0.0208004 0.999382 0
0.0303718 -0.021498 0.999307 0.000518386
0.0323282 -0.0226107 0.999222 0.00167067
0.0317691 -0.0229539 0.999232 0.00358641
0.0342307 -0.0224555 0.999162 0
0.033296 -0.021847 0.999207 0
0.0329546 -0.0224621 0.999204 0
0.0332747 -0.022526 0.999192 0
0.0324693 -0.0229819 0.999208 0
0.0347098 -0.0233003 0.999126 0
0.0330857 -0.0235272 0.999176 0
0.0331392 -0.0236168 0.999172 0
0.0340403 -0.0232523 0.99915 0
0.034973 -0.0228322 0.999127 0
0.0331221 -0.0240043 0.999163 0
0.0319162 -0.0245877 0.999188 0
0.0306914 -0.0253537 0.999207 0
0.0350185 -0.0253221 0.999066 0
0.0332369 -0.0263146 0.999101 0
0.0298383 -0.0274625 0.999177 0
0.0281286 -0.0279609 0.999213 0
0.0267133 -0.0275107 0.999264 0
0.0289116 -0.0273444 0.999208 0
0.0305868 -0.0278941 0.999143 0.00085722
0.0300116 -0.0275099 0.999171 0
0.0293193 -0.0271931 0.9992 0
0.0288107 -0.0276496 0.999202 0
0.0291274 -0.0275485 0.999196 9.77862e-05
0.0304432 -0.0276376 0.999154 0.00324603
0.0288739 -0.0281889 0.999186 0.00306167
0.0276133 -0.0283915 0.999215 0.00260579
0.0273067 -0.0285981 0.999218 0.00200808
0.0246795 -0.0293175 0.999265 0.00595386
0.0258614 -0.029542 0.999229 0.00896447
0.0257515 -0.0292709 0.99924 0.00556834
0.0266158 -0.0285824 0.999237 0.0053016
0.0276781 -0.0282793 0.999217 0.00440466
0.0277724 -0.0281663 0.999217 0.00415944
0.0291216 -0.0284494 0.999171 0.00272868
0.0308137 -0.0283887 0.999122 0.00214266
0.0314085 -0.0276222 0.999125 0.00134416
0.031109 -0.0293952 0.999084 0.00583168
0.0264337 -0.0309827 0.99917 0.0101471
0.0272476 -0.0293467 0.999198 0.00632598
0.0275426 -0.0286134 0.999211 0.00458694
0.0285436 -0.0285579 0.999185 0.0054964
0.0250307 -0.0286592 0.999276 0.00474746
0.0259835 -0.029116 0.999238 0.00665659
0.0239219 -0.0300148 0.999263 0.0105636
0.0245855 -0.0299005 0.99925 0.00957781
0.0240729 -0.0307509 0.999237 0.0092579
0.0243894 -0.0304222 0.99924 0.00841948
0.0249366 -0.0298606 0.999243 0.00754401
0.024089 -0.0298263 0.999265 0.00746979
0.0258805 -0.0284981 0.999259 0.00319034
0.0288348 -0.027339 0.99921 0.0013984
0.0261387 -0.0278568 0.99927 0
0.0240854 -0.0276721 0.999327 0.000609056
0.0259149 -0.0278061 0.999277 0.00205184
0.0262946 -0.0280913 0.999259 0.00205092
0.0263641 -0.0281194 0.999257 0.0017629
0.0243186 -0.0283085 0.999303 0.00428648
0.0238974 -0.0296465 0.999275 0.00783405
0.0229656 -0.0297891 0.999292 0.00898961
0.0218652 -0.0291815 0.999335 0.0059882
0.0218197 -0.030652 0.999292 0.0107971
0.0206173 -0.0312365 0.999299 0.0127051
0.0221948 -0.0301713 0.999298 0.0081669
0.0216935 -0.0312881 0.999275 0.00990953
0.0201292 -0.0318061 0.999291 0.0104592
0.0243286 -0.0309419 0.999225 0.00767547
0.0245201 -0.0306913 0.999228 0.00638524
0.025952 -0.0303041 0.999204 0.00277877
0.0249562 -0.0299101 0.999241 0.00159438
0.0257272 -0.0315417 0.999171 0.00365165
0.0258685 -0.0310155 0.999184 0.0034267
0.0269617 -0.0304796 0.999172 0
0.0244199 -0.0311809 0.999215 0.0014883
0.0242005 -0.0313805 0.999215 0.00141073
0.0266153 -0.0309005 0.999168 0.000676245
0.0250793 -0.0308387 0.99921 0.00230107
0.0252932 -0.0310373 0.999198 0.0010019
0.025976 -0.0302383 0.999205 0
0.0251201 -0.0302047 0.999228 0
0.0244704 -0.0308943 0.999223 0
0.0272519 -0.0304843 0.999164 0
0.0272648 -0.0304737 0.999164 0
0.0278355 -0.0302865 0.999154 0
0.0246572 -0.0311553 0.99921 0.00203681
0.0291279 -0.0304764 0.999111 0
0.0276247 -0.0296246 0.999179 0
0.0286548 -0.0298545 0.999143 2.26222e-05
0.0272708 -0.0311965 0.999141 0.00337595
0.028185 -0.0312753 0.999113 0.0016667
0.0294692 -0.0295963 0.999127 0
0.0274368 -0.0293499 0.999193 0.000202082
0.0317346 -0.0287073 0.999084 0
0.0333371 -0.0286493 0.999033 0
0.0344486 -0.0289641 0.998987 0
0.0332258 -0.028455 0.999043 0.00243279
0.0302565 -0.0298274 0.999097 0.00853413
0.027084 -0.0297119 0.999192 0.00985949
0.0302218 -0.0293801 0.999111 0.00790482
0.0316508 -0.029244 0.999071 0.00964701
0.027295 -0.0277861 0.999241 0.00618538
0.028162 -0.0278294 0.999216 0.00812492
0.025821 -0.0272373 0.999295 0.00425601
0.0211495 -0.027166 0.999407 0.00762285
0.0239138 -0.0264438 0.999364 0.00527665
0.0226653 -0.0263185 0.999397 0.00414799
0.02595 -0.0255289 0.999337 0.00360548
0.0259125 -0.0260953 0.999324 0.00438385
0.0237132 -0.0254779 0.999394 0.00340377
0.0272931 -0.0253882 0.999305 0.00218793
0.0271051 -0.0261734 0.99929 0.00394944
0.0274154 -0.0260488 0.999285 0.00594293
0.0280667 -0.0255582 0.999279 0.00467632
0.026934 -0.02436 0.99934 0.00294045
0.0293639 -0.0238139 0.999285 0
0.0303085 -0.0236689 0.99926 0
0.0317047 -0.0238986 0.999211 0
0.0314926 -0.0236113 0.999225 0
0.0286217 -0.0230239 0.999325 0
0.0316344 -0.0228078 0.999239 0
0.0326597 -0.0234953 0.99919 0
0.0322644 -0.0235213 0.999203 0
0.0322399 -0.0241435 0.999188 0
0.028991 -0.0244242 0.999281 0.00198052
0.029786 -0.0244679 0.999257 0.00253551
0.0319605 -0.0240389 0.9992 0.00155915
0.0330767 -0.0239875 0.999165 0.00318345
0.0322714 -0.0242625 0.999185 0.00106497
0.0293026 -0.0248307 0.999262 0.0039444
0.0271958 -0.0244725 0.999331 0.0050681
0.0308734 -0.0245913 0.999221 0.00406942
0.0307744 -0.0250518 0.999212 0.00455113
0.0318361 -0.0243003 0.999198 0
0.0328042 -0.0243049 0.999166 0
0.0294008 -0.0254477 0.999244 0
0.0291525 -0.0256296 0.999246 0
0.0297144 -0.0266349 0.999203 0
0.0307572 -0.0261595 0.999184 0
0.0309095 -0.0264115 0.999173 0
0.0295034 -0.0268343 0.999204 0
0.0296367 -0.0273328 0.999187 0
0.0283982 -0.0280681 0.999203 0
0.0275272 -0.0285212 0.999214 0
0.025262 -0.0283864 0.999278 0
0.0240753 -0.0286973 0.999298 0.00175921
0.0235189 -0.0286998 0.999311 0.00420478
0.0255534 -0.0288387 0.999257 0.00366947
0.0252444 -0.029165 0.999256 0.00479586
0.0257376 -0.0284895 0.999263 0.00447707
0.0277105 -0.0294253 0.999183 0.00394314
0.026697 -0.029225 0.999216 0.00291951
0.0286388 -0.0283484 0.999188 0
0.0304547 -0.0288717 0.999119 0
0.0281938 -0.0293827 0.999171 0
0.0270166 -0.0301202 0.999181 0.000839258
0.024096 -0.0300538 0.999258 0.00548052
0.0242087 -0.0301749 0.999251 0.00448485
0.0279159 -0.0296079 0.999172 0.00264501
0.0289244 -0.0297706 0.999138 0.000610027
0.0262538 -0.0304119 0.999193 0.00341572
0.0257111 -0.030664 0.999199 0.00515794
0.028725 -0.0294052 0.999155 0
0.0323633 -0.0300053 0.999026 0
0.0333391 -0.0307287 0.998972 0
0.0328059 -0.0309866 0.998981 0
0.0308621 -0.0313602 0.999032 0
0.0288931 -0.0314713 0.999087 0
0.0296209 -0.032778 0.999024 0.00433758
0.0334574 -0.0321103 0.998924 0.00260775
0.0301986 -0.0329232 0.999002 0.00660483
0.0303294 -0.0316581 0.999039 0.00290866
0.0305704 -0.0314486 0.999038 0
0.0300515 -0.0321803 0.99903 0.00106838
0.030144 -0.0325675 0.999015 0.00188301
0.0298549 -0.0324969 0.999026 0.00096599
0.0295559 -0.0331794 0.999012 0.00175858
0.0279523 -0.0339792 0.999032 0.00389687
0.0284342 -0.0343445 0.999006 0.00363115
0.0296752 -0.0335518 0.998996 0.00131261
0.0312689 -0.033183 0.99896 0
0.0325892 -0.0329066 0.998927 0
0.0330915 -0.0335126 0.99889 0
0.0311894 -0.0340807 0.998932 0.00231523
0.0320369 -0.0342596 0.998899 0
0.0297621 -0.0338227 0.998985 0.000283633
0.0283683 -0.0342547 0.99901 0.00177958
0.0298203 -0.0337664 0.998985 0
0.0310096 -0.0336391 0.998953 1.81583e-05
0.0318006 -0.0333329 0.998938 0
0.0339749 -0.0327516 0.998886 0
0.036522 -0.0323836 0.998808 0
0.0313532 -0.0332864 0.998954 0
0.0321606 -0.0340054 0.998904 0
0.0328189 -0.0335501 0.998898 0
0.0368475 -0.0334291 0.998762 0
0.0386235 -0.0330534 0.998707 0
0.0393748 -0.0336892 0.998656 0
0.039241 -0.0332971 0.998675 0
0.0384691 -0.0332814 0.998705 0.00221846
0.0385664 -0.0329041 0.998714 0.00168541
0.0364477 -0.0331177 0.998787 0.00336598
