# .PCD v0.7 - Point Cloud Data file format
VERSION 0.7
FIELDS x y z
SIZE 4 4 4
TYPE F F F
COUNT 1 1 1
WIDTH 1409
HEIGHT 1
VIEWPOINT 0 0 0 1 0 0 0
POINTS 1409
DATA ascii
-0.061919998 0.058047 0.091173999
-0.061485998 0.058189999 0.091038004
-0.061551999 0.058026999 0.091091998
-0.056788001 0.044507999 0.079861999
-0.060982 0.058166001 0.091169
-0.060991999 0.057999 0.091136999
-0.056168001 0.044470999 0.079813004
-0.056334 0.043951001 0.079912998
-0.060562 0.031856 0.082823999
-0.060573999 0.031675 0.082790002
-0.060674001 0.058145002 0.091187999
-0.060736999 0.057982001 0.091236003
-0.056028001 0.044296 0.080040999
-0.056102999 0.044126999 0.080107003
-0.059893999 0.032844 0.082588002
-0.060074002 0.031597 0.082498997
-0.060082 0.058120999 0.091116004
-0.060206998 0.057960998 0.091259003
-0.055413 0.044261999 0.079930998
-0.055484001 0.044091001 0.079989001
-0.055486999 0.043908998 0.079940997
-0.059822001 0.057941001 0.091266997
-0.059831001 0.057774 0.091232002
-0.055544 0.042502999 0.080216996
-0.055821002 0.041639 0.080387004
-0.059365001 0.057918001 0.091302
-0.054641001 0.044231001 0.080084004
-0.059007999 0.05773 0.091379002
-0.053877 0.043634001 0.079951003
-0.058192998 0.057686999 0.091518998
-0.053408999 0.043806002 0.080153003
-0.053415999 0.043623999 0.080109999
-0.053626001 0.042929001 0.080227003
-0.053698 0.042759001 0.080287002
-0.053762 0.042587999 0.080334
-0.057714999 0.057824001 0.091398001
-0.057842001 0.057663999 0.091545001
-0.052967999 0.043767001 0.080038004
-0.052976001 0.043584999 0.079995997
-0.053118002 0.043244999 0.080114
-0.053195 0.042892002 0.080127999
-0.053335 0.042734001 0.080294997
-0.057192001 0.057968002 0.091453999
-0.0572 0.057801001 0.091417998
-0.057263002 0.057638001 0.091467001
-0.052464001 0.043930002 0.080127999
-0.052469999 0.043747999 0.080085002
-0.052535001 0.043575998 0.080132
-0.052602999 0.043405 0.080186002
-0.052606001 0.043221999 0.080137998
-0.052609999 0.04304 0.080090001
-0.052549001 0.042845 0.079939999
-0.052618999 0.042674001 0.079998001
-0.056706998 0.031470001 0.082955003
-0.056687001 0.058107998 0.091309004
-0.056813002 0.057948999 0.091453001
-0.056825999 0.057782002 0.091426
-0.052152999 0.043922 0.080233999
-0.052158002 0.043738998 0.080187999
-0.052159 0.043556001 0.080136999
-0.052248999 0.042838998 0.080063999
-0.052258 0.042656999 0.080023997
-0.053009 0.041517001 0.080836996
-0.056354001 0.031270999 0.082941003
-0.056347001 0.058090001 0.091436997
-0.056407999 0.057927001 0.091481999
-0.056417 0.05776 0.091447003
-0.056428999 0.057592999 0.091417
-0.051901001 0.042828001 0.080182999
-0.051909 0.042645998 0.080141
-0.052749999 0.041524999 0.081096999
-0.055822 0.031213 0.082764998
-0.055831 0.058060002 0.091458
-0.055893999 0.057895999 0.091505997
-0.055906001 0.05773 0.091476001
-0.051033001 0.043651 0.079916
-0.052039001 0.041455001 0.080807999
-0.055503 0.058044001 0.091490999
-0.055626001 0.057884999 0.091632999
-0.055635002 0.057718001 0.091597997
-0.050900999 0.043853998 0.080311999
-0.051679 0.041434001 0.080792002
-0.055020999 0.057854999 0.091563001
-0.050140999 0.042550001 0.080229998
-0.054260999 0.057813998 0.091709003
-0.054265998 0.057647001 0.091669001
-0.049334001 0.043931998 0.080124997
-0.049465001 0.043772001 0.080277003
-0.049692001 0.042713001 0.080312997
-0.049702998 0.042532001 0.080278002
-0.048912998 0.043905001 0.080153003
-0.049051002 0.043745998 0.080316
-0.048992999 0.043552 0.080170996
-0.049162999 0.042849001 0.080224998
-0.049162999 0.042665999 0.080170996
-0.049233001 0.042495001 0.080228001
-0.053387001 0.057769001 0.091756999
-0.051991001 0.033171002 0.083134003
-0.051502999 0.033489 0.083111003
-0.051585998 0.033326 0.083190002
-0.051665001 0.033163 0.083263002
-0.051677998 0.032981999 0.083228998
-0.048051 0.041241001 0.080881998
-0.050884001 0.033433001 0.08292
-0.050956 0.033268001 0.082980998
-0.051027 0.033101998 0.083042003
-0.047883999 0.041250002 0.081182003
-0.050756998 0.033280998 0.083232999
-0.050700001 0.033080999 0.083086997
-0.050709002 0.032898001 0.083048999
-0.051084001 0.05782 0.091899
-0.051158 0.057658002 0.091963999
-0.046999998 0.041542999 0.080899
-0.046999 0.041359 0.080843002
-0.047063001 0.041189 0.080891997
-0.046560001 0.041494001 0.080697
-0.046631999 0.041324001 0.080757998
-0.046824999 0.041179001 0.081009001
-0.045017999 0.043166999 0.080265999
-0.045293 0.042300001 0.080431998
-0.044723999 0.043347999 0.080557004
-0.044794999 0.043177001 0.080614999
-0.044808 0.042996 0.080582
-0.044875 0.042824998 0.080634996
-0.044883002 0.042459998 0.080541
-0.026178 0.087201998 0.065842003
-0.044248 0.043327 0.080572002
-0.044259999 0.042962998 0.080484003
-0.044256002 0.042778999 0.080424003
-0.044256002 0.042594999 0.080370001
-0.044319998 0.042422999 0.080417998
-0.045003999 0.041085999 0.081069998
-0.02575 0.087361999 0.065885998
-0.043825999 0.043481 0.080626003
-0.044505998 0.041041002 0.080948003
-0.044064999 0.041032001 0.081082001
-0.045807 0.031272002 0.083571002
-0.022991 0.087412 0.065958001
-0.023162 0.087201998 0.066156998
-0.046020001 0.057379998 0.092311002
-0.046032 0.057213999 0.092279002
-0.041085001 0.042962998 0.080557004
-0.041216001 0.042803001 0.080710001
-0.041223001 0.042621002 0.080666997
-0.041294001 0.042451002 0.080724999
-0.041305002 0.042270001 0.080688998
-0.041382998 0.042101 0.080757998
-0.045249 0.031217 0.083472997
-0.022659 0.087394997 0.065970004
-0.022740999 0.087200999 0.066039003
-0.022829 0.087004997 0.066115998
-0.040819 0.042957 0.080674
-0.040885001 0.042785998 0.080724999
-0.040819999 0.042591002 0.080568999
-0.040959001 0.042433001 0.080734
-0.040972002 0.042252 0.080701001
-0.041324001 0.041033 0.080882996
-0.040219001 0.043109 0.080664001
-0.040222999 0.042927001 0.080615997
-0.040293001 0.042755999 0.080673002
-0.040978 0.041051 0.081220001
-0.040998001 0.040872 0.081197999
-0.039910998 0.043090001 0.080674998
-0.04005 0.042381998 0.080679998
-0.040050998 0.042197999 0.080627002
-0.040548 0.041007999 0.081037
-0.040702 0.040855002 0.081228003
-0.044369001 0.057300001 0.092505001
-0.044441 0.057138 0.092566997
-0.039347999 0.043058999 0.080673002
-0.039283998 0.042863999 0.080518
-0.039352 0.042691998 0.080569997
-0.042851001 0.033048999 0.083651997
-0.042911999 0.032880999 0.083695002
-0.042856 0.032680999 0.083550997
-0.020810001 0.086499996 0.066404998
-0.042328 0.032830998 0.083531998
-0.042463999 0.032683998 0.083695002
-0.042599 0.032536 0.083857998
-0.041852001 0.032605 0.083397999
-0.041990001 0.032458 0.083564997
-0.042001002 0.032276999 0.083530001
-0.041577999 0.032435998 0.083578996
-0.036136001 0.045356002 0.080342002
-0.014993 0.094571002 0.063947
-0.017564001 0.087099001 0.066445999
-0.039193999 0.057016999 0.092846997
-0.039198998 0.056851 0.092805997
-0.034775 0.041063 0.081431001
-0.034852002 0.040894002 0.081499003
-0.034860998 0.040713001 0.081459999
-0.034474 0.040869001 0.081390999
-0.034481999 0.040686999 0.081349
-0.015274 0.086607002 0.066459
-0.015299 0.086421996 0.066441998
-0.015474 0.086212002 0.066647999
-0.015636999 0.086005002 0.066835999
-0.033762001 0.040631 0.081211999
-0.034003001 0.039023001 0.081110001
-0.034088999 0.038856 0.081192002
-0.034177002 0.038690999 0.081276998
-0.01512 0.086395003 0.066593997
-0.015217 0.086198002 0.066684999
-0.015221 0.086016998 0.066637002
-0.033496 0.040617999 0.081235997
-0.033505999 0.040436 0.081197999
-0.033767 0.039016001 0.081180997
-0.014033 0.086994998 0.066023
-0.014197 0.086786002 0.066212997
-0.01477 0.086149 0.066901997
-0.016468 0.081557997 0.068149
-0.013838 0.086948 0.066243999
-0.014017 0.086736999 0.066454999
-0.013389 0.087098002 0.066395998
-0.01356 0.086888 0.066595003
-0.013807 0.086666003 0.066909
-0.013983 0.086456999 0.067116
-0.014223 0.086236998 0.067417003
-0.015644999 0.081872001 0.068309002
-0.0098569999 0.094731003 0.063917004
-0.0099459998 0.094531 0.063993998
-0.0099609997 0.094347 0.063963003
-0.010051 0.094146997 0.064042002
-0.013271 0.086662002 0.066765003
-0.01522 0.081669003 0.068277001
-0.01523 0.081487 0.068237998
-0.031605002 0.041060999 0.081394002
-0.0093289996 0.094741002 0.063712999
-0.0094889998 0.094525002 0.063894004
-0.0095009999 0.094342001 0.063859001
-0.0091279997 0.095007002 0.064291999
-0.0094579998 0.094754003 0.064721003
-0.0096279997 0.094536997 0.064916
-0.0086690001 0.094443001 0.064181998
-0.0086749997 0.094260998 0.064138003
-0.0086449999 0.094690003 0.064898998
-0.0086479997 0.094509996 0.064851001
-0.033541001 0.030429 0.084080003
-0.033557002 0.030249 0.084050998
-0.032476 0.031798001 0.084184997
-0.028321 0.041218001 0.081221998
-0.028328 0.041035999 0.081178002
-0.028399 0.040865 0.081237003
-0.028480001 0.040697001 0.081312001
-0.027844001 0.041368999 0.081197001
-0.02792 0.041198999 0.081263997
-0.027997 0.041030001 0.081331
-0.028000001 0.040847 0.081283003
-0.028006 0.040663999 0.081238002
-0.006048 0.094499998 0.06425
-0.0060640001 0.094315 0.064222001
-0.006234 0.094098002 0.064416997
-0.0064070001 0.093879998 0.064617001
-0.0095509999 0.085698999 0.067020997
-0.027539 0.041010998 0.081387997
-0.027623 0.040842999 0.081465997
-0.0053900001 0.094508998 0.064043
-0.0061320001 0.094166003 0.065075003
-0.0062250001 0.093966 0.065158002
-0.0086899996 0.086638004 0.066774003
-0.0087799998 0.086442001 0.066854
-0.0089790002 0.086047001 0.067042999
-0.0090720002 0.085850999 0.067128003
-0.0091530001 0.085657001 0.067194998
-0.010827 0.081432998 0.068512999
-0.010901 0.081242003 0.068570003
-0.010981 0.081050999 0.068636
-0.0052100001 0.094253004 0.064363003
-0.0081940005 0.086626999 0.066684
-0.0082830004 0.086430997 0.066762
-0.0085589997 0.086024001 0.067065001
-0.0088050002 0.085803002 0.067374997
-0.0080690002 0.086386003 0.067008004
-0.0081700003 0.086188003 0.067105003
-0.0081890002 0.086005002 0.067079999
-0.0082879998 0.085808001 0.067174003
-0.0083699999 0.085612997 0.067241997
-0.0074189999 0.086562999 0.066891998
-0.007582 0.086355001 0.067079999
-0.007677 0.086158 0.067166999
-0.0078400001 0.085951 0.067354999
-0.0079349997 0.085754998 0.067442
-0.003729 0.094788998 0.064204
-0.0038040001 0.094591998 0.064259
-0.0039889999 0.094190001 0.064424999
-0.007065 0.086730003 0.066933997
-0.0072240001 0.086521998 0.067116998
-0.0072389999 0.086338997 0.067086004
-0.0072659999 0.086153999 0.067073002
-0.007435 0.085945003 0.067268997
-0.0076060002 0.085736997 0.067469999
-0.0031620001 0.094777003 0.064140998
-0.0033189999 0.094562002 0.064319
-0.0033199999 0.094380997 0.064266004
-0.0033189999 0.094200999 0.064212002
-0.003481 0.093984999 0.064396001
-0.028622 0.031615999 0.084503002
-0.028627001 0.031433001 0.084457003
-0.028684 0.031264 0.084495001
-0.002879 0.094908997 0.064387001
-0.0029740001 0.094708003 0.064473003
-0.0030720001 0.094506003 0.064562999
-0.003244 0.094287001 0.064762004
-0.0032639999 0.094103001 0.064737998
-0.028214 0.031223999 0.084404998
-0.0022789999 0.094934002 0.064103998
-0.0023660001 0.094733998 0.064177997
-0.0031039999 0.094209999 0.065150999
-0.007557 0.081684001 0.068279997
-0.0077849999 0.081472002 0.068566002
-0.007797 0.081289999 0.068530001
-0.0078830002 0.081096999 0.068605997
-0.002146 0.095187001 0.064763002
-0.00233 0.094966002 0.064978004
-0.002511 0.094385996 0.065085001
-0.002506 0.094207004 0.065025002
-0.007373 0.081436001 0.068713002
-0.0073719998 0.081254996 0.068659
-0.0021240001 0.094547004 0.065164
-0.0022150001 0.094347 0.065242998
-0.0023030001 0.094148003 0.06532
-0.0050599999 0.086044997 0.067153998
-0.005231 0.085836001 0.067354001
-0.0067520002 0.081629999 0.068443999
-0.007059 0.081408001 0.068847001
-0.0072889999 0.081197001 0.069136001
-0.0074519999 0.080995001 0.069325998
-0.0043939999 0.086418003 0.066988997
-0.0046390002 0.086197004 0.067296997
-0.004741 0.085998997 0.067396
-0.004836 0.085803002 0.067483999
-0.004861 0.085617997 0.067465998
-0.0050249998 0.085410997 0.067656003
-0.006449 0.081767 0.068763003
-0.0065279999 0.081575997 0.068828002
-0.0065330002 0.081394002 0.068782002
-0.0067670001 0.081182003 0.069077
-0.022515001 0.041822001 0.081588
-0.022515999 0.041639 0.081534997
-0.022595 0.041469999 0.081606999
-0.022542 0.041276999 0.081469998
-0.022621 0.041108001 0.081540003
-0.022637 0.040927 0.081510998
-0.022714 0.040757999 0.081579998
-0.022781 0.040587001 0.081632003
-0.022781 0.040403999 0.081579
-0.022853 0.040233999 0.081638001
-0.004222 0.086181998 0.067222998
-0.0043219998 0.085984997 0.067317002
-0.0044120001 0.085790001 0.067397997
-0.0045030001 0.085593998 0.067479998
-0.022141 0.041609999 0.081519999
-0.022151999 0.041429002 0.081482999
-0.022231 0.04126 0.081554003
-0.022315999 0.041092001 0.081634998
-0.022403 0.040925 0.081719004
-0.022488 0.040757999 0.081799001
-0.022559 0.040587999 0.081858002
-0.022627 0.040417001 0.081912003
-0.022634 0.040235002 0.081868999
-0.0038419999 0.086143002 0.067381002
-0.0039320001 0.085947998 0.067460001
-0.0039420002 0.085764997 0.067422003
-0.0040259999 0.085570998 0.067493998
-0.0040279999 0.085390002 0.067443997
-0.021749999 0.041235 0.081560999
-0.021771001 0.041056 0.081542
-0.021857001 0.040888 0.081624001
-0.021939 0.040720001 0.081699997
-0.0038300001 0.085874997 0.067927003
-0.0039280001 0.085679002 0.068020001
-0.003945 0.085496001 0.067992002
0.00078499998 0.094613001 0.064094
0.001329 0.094774 0.064131998
-0.001346 0.086253002 0.067143001
-0.001834 0.085449003 0.067653
-0.021085 0.037027001 0.082855001
-0.001401 0.085248001 0.067571998
0.003756 0.094420001 0.064464003
-0.000223 0.086067997 0.068090998
-0.00023000001 0.085887 0.068048999
-0.00039900001 0.085679002 0.068246
-0.00025899999 0.085522003 0.067985997
0.001022 0.086883999 0.067244001
0.001019 0.086703002 0.067194998
-0.017178999 0.041714001 0.081795998
-0.021049 0.031186 0.084619999
-0.021121999 0.031021001 0.084682003
0.0043609999 0.094682001 0.064930998
0.0042599998 0.094479002 0.065026999
0.001423 0.086519003 0.067025997
0.001343 0.086324997 0.067089997
-0.016807999 0.041685998 0.081721
-0.021060999 0.031075001 0.085105002
0.0042750002 0.093624003 0.065573998
0.0020109999 0.086869001 0.067051001
0.002073 0.086699001 0.066905998
0.001752 0.086462997 0.067327999
0.001269 0.085478999 0.067776002
0.0068370001 0.098624997 0.063676
0.006755 0.098424003 0.063743003
0.004623 0.093606003 0.065586001
0.001389 0.085603997 0.068177
0.0075409999 0.098816998 0.063528001
0.007369 0.098594002 0.063726
0.007367 0.098412998 0.063676
0.0072110002 0.098194003 0.063850001
0.0050900001 0.093561001 0.065729998
0.0020049999 0.085767999 0.068155997
0.002138 0.085428998 0.067854002
0.0079140002 0.099343002 0.063656002
0.007735 0.099118002 0.063863002
0.0077300002 0.098936997 0.063818
0.0076350002 0.098733 0.063902996
0.0075420002 0.098530002 0.063986003
0.0075309998 0.098347001 0.063948996
0.0074450001 0.098145999 0.064020999
0.0022710001 0.085554004 0.068230003
0.0022420001 0.085368998 0.068219997
0.008138 0.098893002 0.063956998
0.0081390003 0.098713003 0.063902996
0.008045 0.098509997 0.063987002
0.0080300001 0.098325998 0.063956998
0.003337 0.086167999 0.067558996
0.001218 0.080789 0.069216996
-0.014652 0.040853001 0.081744999
0.0085310005 0.098861001 0.064002998
0.0080399998 0.098558001 0.064663999
0.0078790002 0.098338 0.064845003
0.00173 0.080955997 0.069140002
0.001569 0.080753997 0.069325998
0.001411 0.080551997 0.069509
-0.012159 0.046723999 0.080312997
0.0075909998 0.094375998 0.064829998
0.0021500001 0.080939002 0.069200002
0.00193 0.080729 0.069473997
0.001931 0.080548003 0.069420002
0.001862 0.080358997 0.069468997
-0.011737 0.046895999 0.080426
-0.011644 0.046700999 0.080228001
0.0081639998 0.094361 0.064732999
0.0044269999 0.085689999 0.067896999
0.0043390002 0.085495003 0.067974001
0.0027350001 0.080917999 0.069082998
0.0025790001 0.080716997 0.069261
0.0023469999 0.080504999 0.069554001
0.002348 0.080325 0.069499999
0.003186 0.081077002 0.069151998
0.0037690001 0.080813996 0.069508001
0.003855 0.080645002 0.069326997
-0.0078019998 0.047017999 0.080089003
0.0060279998 0.077665001 0.069976002
0.005874 0.077466004 0.070152998
-0.006604 0.046957001 0.080261998
-0.006666 0.046782002 0.080306001
-0.006668 0.046599999 0.080256
-0.006672 0.046417002 0.080209002
-0.0063749999 0.046193998 0.079690002
0.0065120002 0.077455997 0.069950998
0.0063519999 0.077257 0.070138
-0.0061070002 0.04693 0.080271997
-0.0061070002 0.046746999 0.080219001
-0.0061750002 0.046572998 0.080271997
-0.006116 0.046381999 0.080124997
0.0067509999 0.077425003 0.070093997
0.0066769999 0.077235997 0.070152
-0.0058610002 0.046553001 0.080302998
-0.0060459999 0.046211999 0.080486
0.0070989998 0.077207997 0.070280001
-0.0052140001 0.045961998 0.079922996
0.0073589999 0.077166997 0.070518002
0.0071859998 0.076967001 0.070722997
-0.0050980002 0.046160001 0.080449998
-0.0049569998 0.045774002 0.080122001
0.007677 0.076953001 0.070629001
-0.0046870001 0.045954 0.080422997
-0.0044749998 0.045742001 0.080038004
-0.010964 0.030524001 0.085483998
-0.010909 0.030324001 0.085340999
0.0084300004 0.077129997 0.070368998
-0.0043520001 0.045954 0.080747001
-0.0099299997 0.030356999 0.084693998
-0.0099370005 0.030173 0.084651001
-0.010006 0.030006999 0.084706999
0.0086700004 0.077109002 0.070504002
-0.0095579997 0.030512 0.084679
-0.0096920002 0.030363999 0.084840998
-0.0098259998 0.030215999 0.085000999
0.010195 0.079006001 0.069549002
0.009106 0.077068001 0.070643999
0.0082559995 0.074082002 0.071066998
-0.0032609999 0.045871999 0.080383003
-0.0031069999 0.045667998 0.080087997
-0.0095619997 0.030254999 0.085427001
0.010604 0.078815997 0.069408
0.0093599996 0.077041 0.070788004
-0.0035260001 0.046301 0.081451997
-0.0027679999 0.045650002 0.080104001
-0.0092460001 0.030427 0.085534997
-0.0092590004 0.030246001 0.085501
0.01007 0.076854996 0.070514001
-0.0021609999 0.045802001 0.080089003
-0.0087759998 0.030610001 0.085736997
0.010472 0.076834999 0.070522003
0.0093 0.073638 0.071373999
0.0092160003 0.073449001 0.071447998
-0.00176 0.045961998 0.080150001
-0.001773 0.045779999 0.080117002
0.015745999 0.088041998 0.066408999
0.015752001 0.087861001 0.066348001
0.013773 0.083173998 0.067994997
0.01197 0.078933999 0.069504999
0.026079999 0.11431 0.059068002
0.015993999 0.088519998 0.066909999
0.015757 0.087932996 0.067098998
0.015766 0.087754004 0.067033999
0.015294 0.087126002 0.067570001
0.01392 0.083463997 0.068595
0.013844 0.083270997 0.068654001
0.01252 0.078919999 0.069399998
0.026435999 0.114458 0.059181001
0.026428999 0.114276 0.059138
0.021052999 0.098580003 0.062747002
0.016140001 0.087729998 0.067068003
0.015613 0.086911999 0.067633003
0.014079 0.082682997 0.068737
0.013915 0.082296997 0.068873003
0.013911 0.082115002 0.068827003
0.012766 0.078879997 0.069628
0.02644 0.114781 0.060132001
0.02627 0.114542 0.060320999
0.026263 0.114361 0.060279001
0.020974001 0.099299997 0.063941002
0.020614 0.098486997 0.064253002
0.020514 0.098282002 0.064345002
0.011932 0.076705001 0.071125001
0.027213 0.114566 0.059397001
0.02637 0.114092 0.060543001
0.021467 0.098967001 0.063598
0.020848 0.098089002 0.064286001
0.012438 0.076707996 0.070860997
0.027845999 0.114572 0.059277002
0.021906 0.098912999 0.063758001
0.016434001 0.083847001 0.067698002
0.01429 0.079007 0.069551997
0.027604001 0.11468 0.060298
0.028052 0.11466 0.059610002
0.028055999 0.114482 0.059551001
0.022204001 0.098862998 0.063909002
0.022120001 0.098661996 0.063978001
0.022036999 0.098459996 0.064047001
0.021956 0.09826 0.064111002
0.016115 0.083347999 0.068659
0.016021 0.083152004 0.068746001
0.015852001 0.082946002 0.068942003
0.014631 0.078974999 0.069642998
0.022952 0.098362997 0.063405
0.022856001 0.098158002 0.063492
0.018324001 0.087770998 0.067368001
0.018313 0.087589003 0.067330003
0.016659999 0.083330996 0.068607002
0.016492 0.083125003 0.068802997
0.016326001 0.082919002 0.068995997
0.028422 0.114242 0.060389001
0.017461 0.084454998 0.068397
0.016928 0.083287001 0.068867996
0.016837001 0.083091997 0.068949997
0.016749 0.082897998 0.069026999
-0.0041049998 0.030107999 0.085398003
-0.0040549999 0.02991 0.085263997
-0.0039459998 0.029694 0.085033998
0.019401999 0.088316001 0.067234002
0.019326 0.088120997 0.067293003
0.017961999 0.084449001 0.068300001
0.017794 0.084241003 0.068494998
0.01726 0.083072998 0.068967
0.017105 0.082868002 0.069145001
0.017122 0.082690001 0.069067001
0.029841 0.114208 0.059604999
0.019704999 0.088082001 0.067423999
0.019625001 0.087886997 0.067488
0.018617 0.083912998 0.067863002
0.019717 0.087095998 0.067667998
0.018510999 0.083999 0.068603002
0.016664 0.078667998 0.069859996
0.017038001 0.078805998 0.070160002
0.015472 0.073921002 0.071117997
0.001387 0.039834999 0.082634002
0.019053999 0.083172999 0.068947002
0.017574999 0.078803003 0.069923997
0.016202999 0.076471999 0.071335003
0.013572 0.068828002 0.073113002
0.013212 0.068447001 0.073550999
0.013057 0.068258002 0.073732004
0.013048 0.068076 0.073691003
0.001754 0.039994001 0.082707003
0.019856 0.083379999 0.068645999
0.019755 0.083182998 0.068742998
0.019508 0.082965001 0.069054
0.019353 0.082759999 0.069231004
0.015331 0.071797997 0.072159998
0.015177 0.071604997 0.072339997
0.015097 0.071418002 0.072406001
0.015023 0.071231 0.072463997
0.014295 0.069550999 0.073082998
0.014207 0.069363996 0.073163003
0.014126 0.069178 0.073232003
0.014049 0.068991996 0.073296003
0.013907 0.068802997 0.073457003
0.01376 0.068613999 0.073625997
0.014056 0.068447001 0.073126003
0.013654 0.067519002 0.073466003
0.0023310001 0.040157001 0.082736
0.015452 0.071209997 0.072371997
0.014652 0.069525003 0.073099002
0.014559 0.069338001 0.073184997
0.014539 0.069155 0.073161997
0.014461 0.068968996 0.073228002
0.014463 0.068787999 0.073172003
0.020375 0.082925998 0.068981998
0.020292001 0.082731999 0.069052003
0.019034 0.078754999 0.069807
0.018954 0.078562997 0.069872998
0.016821999 0.073439002 0.071626
0.016138 0.071930997 0.072229996
0.01599 0.071737997 0.072397999
0.015989 0.071557 0.072347
0.014996 0.069314003 0.073206
0.014909 0.069127999 0.073284
0.014843 0.068397 0.073170997
0.014762 0.068210997 0.073239997
-0.000917 0.030003 0.085982002
0.023042999 0.087797001 0.067064002
0.023043999 0.087615997 0.067009002
0.020672999 0.082874998 0.069238998
0.019444 0.078722 0.069899
0.018262999 0.076410003 0.071024999
0.017890999 0.074376002 0.070997
0.016580001 0.071539998 0.072167002
0.016581999 0.071359001 0.072109997
0.014753 0.067254998 0.073700003
0.014736 0.067073002 0.073673002
0.014644 0.066886999 0.073758997
0.014569 0.066702999 0.073818997
3.9999999e-05 0.029654 0.085146002
-2.8e-05 0.029487001 0.085199997
0.027564 0.098258004 0.063927002
0.023634 0.087807998 0.066866003
0.023477999 0.087598003 0.067041002
0.023399999 0.087220997 0.067050003
0.021901 0.084247001 0.068467997
0.02211 0.083737001 0.067998998
0.022113999 0.083555996 0.067939997
0.02138 0.083079003 0.068920001
0.021606 0.082933001 0.068531998
0.019832 0.078698002 0.07
0.017550001 0.073562004 0.07198
0.01761 0.073204003 0.071782999
0.016869999 0.071511999 0.072416998
0.016871 0.071330003 0.072361998
0.032958999 0.113534 0.060927998
0.027872 0.098188996 0.064198002
0.027516 0.097919002 0.064662002
0.023956999 0.087754004 0.067116998
0.023965999 0.087573998 0.067051999
0.023224 0.086534999 0.067879997
0.022218 0.084195003 0.068729997
0.022208 0.084013 0.068691
0.022034001 0.083803996 0.068894997
0.021947 0.083609998 0.068971999
0.021861 0.083416 0.069045
0.021856001 0.083233997 0.068999998
0.021764999 0.083039001 0.069082998
0.021753 0.082856998 0.069046997
0.021589 0.082650997 0.069237001
0.020285999 0.078670003 0.070060998
0.03427 0.114339 0.059912
0.034272999 0.114161 0.059857
0.034345001 0.114007 0.059700999
0.034143999 0.113757 0.059935
0.027829001 0.097672001 0.064862996
0.027904 0.097511001 0.064700998
0.027802 0.097305 0.064796999
0.024458 0.087912999 0.067149997
0.024527 0.087745003 0.066996001
0.024518 0.087562002 0.066955999
0.021991 0.082433 0.069311
0.020895001 0.078659996 0.069877997
0.018486001 0.073326997 0.071993001
0.018477 0.073145002 0.071953997
0.03483 0.114382 0.059684001
0.034734 0.114169 0.059769001
0.034641001 0.113957 0.059849001
0.034634002 0.113775 0.059806
0.034628998 0.113594 0.059762001
0.028651999 0.098305002 0.064406998
0.028641 0.098122001 0.064369
0.028105 0.097626001 0.065043002
0.028100001 0.097445004 0.064997002
0.034356002 0.114067 0.060876001
0.034253001 0.113852 0.060970999
0.034074999 0.113611 0.061170999
0.028971 0.097732 0.064312004
0.025245 0.08788 0.067112997
0.025165001 0.087683998 0.067179002
0.023528 0.083056003 0.068320997
0.022876 0.082774997 0.069233999
0.022710999 0.082569003 0.069426
0.021477001 0.078780003 0.070200004
0.035071 0.114289 0.060679
0.034984 0.11408 0.060750999
0.034795001 0.113835 0.060968
0.029237 0.097823001 0.064762004
0.029065 0.097599998 0.064958997
0.028964 0.097395003 0.065053001
0.024859 0.086424999 0.068104997
0.023843 0.083724 0.068866
0.023765 0.083531 0.068928003
0.023414001 0.082753003 0.069237001
0.023324 0.082558997 0.069316998
0.023169 0.082355 0.069494002
0.023172 0.082175002 0.069435999
0.023166001 0.081992999 0.069390997
0.022081001 0.078584999 0.070051
0.035432 0.114433 0.060800001
0.035351001 0.114226 0.060862999
0.035351001 0.114047 0.060811002
0.036084998 0.114127 0.059714001
0.035904001 0.113884 0.059919
0.035904001 0.113705 0.059866998
0.029433001 0.097750999 0.065070003
0.025826 0.087952003 0.067705996
0.025091 0.086374 0.068365
0.024232 0.083701 0.068893999
0.024071001 0.083494 0.069080003
0.024067 0.083313003 0.069031999
0.023905 0.083107002 0.069219999
0.023884 0.082923003 0.069197997
0.023704 0.082714997 0.069412
0.023619 0.082520999 0.069484003
0.02355 0.082330003 0.069533996
0.023557 0.082151003 0.069471002
0.022343 0.078546003 0.070267998
0.035944 0.114586 0.060867999
0.035852998 0.114376 0.060945999
0.035858002 0.114199 0.060885999
0.035774 0.113991 0.060954001
0.035682999 0.113781 0.06103
0.024653001 0.083841003 0.069098003
0.024249 0.082694001 0.069379002
0.024255 0.082514003 0.069316
0.023071 0.078364998 0.069908999
0.020230999 0.072270997 0.072458997
0.020225 0.072089002 0.072415002
0.020211 0.071906 0.072383001
0.020121001 0.071718 0.072465003
0.030678 0.098154001 0.064699002
0.026975 0.087592997 0.067258
0.025149999 0.084021002 0.068998002
0.025132 0.083837003 0.068971001
0.025041999 0.083641998 0.069050997
0.024966 0.083448999 0.069110997
0.024808999 0.083244003 0.069289997
0.024804 0.083062999 0.069243997
0.024715999 0.082868002 0.069321997
0.024553999 0.082663 0.069509
0.024545999 0.082480997 0.069467999
0.023372 0.078518003 0.070099004
0.023283999 0.078326002 0.070178002
0.021887001 0.075992003 0.071626
0.020603999 0.071888 0.072383001
0.020583 0.071704999 0.072361998
0.027295001 0.087572001 0.067303002
0.025301 0.083430998 0.069135003
0.024777999 0.082627997 0.069697
0.024767 0.082446001 0.069660001
0.025255 0.082157001 0.068830997
0.023701999 0.078498997 0.070129998
0.022125 0.075963996 0.071794003
0.022123 0.075782999 0.071745001
0.021025 0.072058 0.072329
0.020942001 0.071869999 0.072402
0.020715 0.071672 0.072691001
0.027753999 0.087536 0.067426004
0.027307 0.086369 0.067767002
0.025978001 0.083612002 0.068989001
0.025583999 0.083007999 0.069412999
0.024141001 0.078465 0.070284002
0.022488 0.075923003 0.072062999
0.022469999 0.075740002 0.072036996
0.021521 0.071851 0.072346002
0.021232 0.071648002 0.072728001
0.031491 0.097266003 0.065136001
0.028192 0.087526001 0.067318998
0.027278 0.086456001 0.068401001
0.023003999 0.075914003 0.071837001
0.022915 0.075723998 0.071915999
0.021997999 0.072198004 0.072283
0.021973999 0.072015002 0.072265998
0.021885 0.071826003 0.072347
0.021867 0.071643002 0.072322004
0.021712 0.071450002 0.072500996
0.0050769998 0.029784 0.085689001
0.033906002 0.102069 0.063644998
0.033911999 0.101891 0.063583001
0.028689999 0.087687001 0.067394003
0.028612001 0.087491997 0.067456
0.027853999 0.086450003 0.068308003
0.025079001 0.078611001 0.070247002
0.022823 0.073656999 0.072240002
0.022905 0.073482998 0.072062999
0.022831 0.073294997 0.072122
0.022388 0.071988001 0.072416
0.022368001 0.071805 0.072392002
0.02221 0.071611002 0.072577
0.022057001 0.071419001 0.072754003
0.020296 0.066777997 0.074083
0.038460001 0.114281 0.060918
0.038734 0.114021 0.060424
0.029067 0.087655999 0.067456998
0.028197 0.086593002 0.068474002
0.027251 0.083904997 0.069131002
0.02548 0.078584999 0.070275001
0.025467999 0.078401998 0.070239998
0.023816001 0.075677998 0.071964003
0.022646001 0.071768999 0.072604999
0.022554001 0.071580999 0.072690003
0.038885999 0.114259 0.060941
0.038904 0.114088 0.060862999
0.039175998 0.114005 0.060423002
0.039083 0.113436 0.060399
0.032731 0.097176999 0.065332003
0.032635 0.096974 0.065419003
0.029693 0.087673001 0.067185998
0.027758 0.084078997 0.069086999
0.027669 0.083884001 0.069164999
0.026001999 0.078758001 0.070208997
0.025852 0.078557998 0.070378996
0.024258999 0.075659998 0.071961999
0.040001001 0.114101 0.059948001
0.039097 0.113603 0.061182
0.035337001 0.102029 0.063530996
0.030148 0.087641999 0.067239001
0.029174 0.086198002 0.068301998
0.028339 0.084068999 0.068953
0.026337 0.078893997 0.070492998
0.026402 0.078722 0.070344001
0.026476 0.078550003 0.070179
0.024736 0.075632997 0.071980998
0.024643 0.075443 0.072067998
0.029395999 0.086332001 0.068631001
0.028725 0.083870001 0.068934999
0.027859 0.082289003 0.069793001
0.027853001 0.082107998 0.069750004
0.02678 0.078703001 0.070390999
0.025049999 0.075428002 0.072071001
0.025048999 0.075246997 0.072021
0.024975 0.075057998 0.072079003
0.030067001 0.086147003 0.068388
0.029053001 0.083627 0.069197997
0.028369 0.082255997 0.069840997
0.028369 0.082075998 0.069789
0.027314 0.078674003 0.070401996
0.02557 0.075397 0.072104
0.025482001 0.075207002 0.072182998
0.025403 0.075018004 0.072247997
0.025441 0.073753998 0.071819998
0.025281001 0.073013 0.071846999
0.040509999 0.114302 0.061246
0.040525001 0.11413 0.061172001
0.040544 0.113958 0.061094001
0.040461 0.11375 0.061159
0.040359002 0.113536 0.061253
0.030356999 0.086116999 0.068488002
0.028662 0.082408004 0.069990002
0.027651001 0.078470998 0.070380002
0.025929 0.075558998 0.072154999
0.025927 0.075378001 0.072104998
0.025168 0.073135003 0.072605997
0.025034999 0.071854003 0.072434999
0.024946 0.071666002 0.072513998
0.022531001 0.065716997 0.074459001
0.022293 0.065164 0.074660003
0.022283001 0.064981997 0.074621998
0.022208 0.064797997 0.074683003
0.022125 0.064613998 0.074755996
0.041044999 0.114106 0.061183002
0.041058999 0.113933 0.061110999
0.041421 0.113703 0.060492001
0.041421 0.113524 0.060439002
0.035834 0.097992003 0.064416997
0.036107 0.0977 0.063915998
0.029924 0.083582997 0.069219001
0.02816 0.078445002 0.070405997
0.028156999 0.078263 0.070357002
0.026668999 0.075737 0.071888998
0.025994999 0.073679999 0.072315
0.025923001 0.073491998 0.072370999
0.025859 0.073305003 0.072412997
0.025474001 0.072003998 0.072619997
0.025402 0.071817003 0.072674997
0.012454 0.039416999 0.082948998
0.041657999 0.114358 0.060885999
0.041498002 0.114123 0.06106
0.041506998 0.113948 0.060995001
0.041327 0.113706 0.061198998
0.041221999 0.11349 0.061296999
0.041832998 0.113347 0.060322002
0.032195002 0.087695003 0.06752
0.032203 0.087516002 0.067456
0.031132 0.086056001 0.068662003
0.030276 0.083563998 0.069239996
0.030192999 0.08337 0.069310002
0.028522 0.078427002 0.070412003
0.028529 0.078245997 0.070349
0.027108001 0.075907998 0.071833
0.026865 0.075700998 0.072144002
0.026705001 0.074961998 0.072169997
0.026335999 0.073478997 0.072300002
0.026272999 0.073292002 0.072342001
0.025404001 0.071769997 0.073221996
0.012806 0.039581999 0.083025001
0.012726 0.039413001 0.083097003
0.036336001 0.09804 0.065017
0.032598 0.087834001 0.067732997
0.032675002 0.087668002 0.067566998
0.031436 0.085817002 0.068916
0.028918 0.078390002 0.070583001
0.027324 0.074042998 0.071742997
0.026784001 0.073812 0.072499998
0.026611 0.073615 0.072706997
0.03616 0.096963003 0.065647997
0.033039 0.087448999 0.067625999
0.031870998 0.085791998 0.068922997
0.030854 0.082736 0.069581002
0.030833 0.082552999 0.069558002
0.03067 0.082346998 0.069746003
0.030595001 0.082154997 0.069805004
0.029434999 0.078556001 0.070522003
0.029518999 0.078386001 0.070344001
0.027942 0.075668 0.071955003
0.026668999 0.071565002 0.072696
0.026524 0.071373001 0.072861999
0.026521999 0.071190998 0.072811
0.026450001 0.071004003 0.072866999
0.013512 0.039388999 0.083355002
0.013492 0.039209001 0.083332002
0.042585999 0.113595 0.061407
0.037395 0.09804 0.064774998
0.036600001 0.096938998 0.065667003
0.033321999 0.087756999 0.067980997
0.033470999 0.087424003 0.067654997
0.032384999 0.085781999 0.068833001
0.031300001 0.082713999 0.069590002
0.030956 0.082119003 0.069940001
0.030960999 0.081938997 0.069881
0.030892 0.081748001 0.069931
0.028209001 0.075444996 0.072178997
0.027834 0.074141003 0.072369002
0.039184 0.101244 0.063722
0.034037001 0.087415002 0.067527004
0.039728001 0.101792 0.063763
0.039739002 0.101615 0.063694
0.039740998 0.101436 0.063639
0.039719999 0.10125 0.063616998
0.032552999 0.083442003 0.069340996
0.044569001 0.113712 0.060688
0.044562999 0.113531 0.060644999
0.044392001 0.113292 0.060835999
0.044456001 0.113742 0.061280999
0.044362999 0.11353 0.061363
0.040387999 0.100992 0.063757002
0.045547999 0.114463 0.060625002
0.044652 0.113786 0.061794002
0.044656001 0.11361 0.061737001
0.044906002 0.113342 0.061276998
0.045054 0.113581 0.061758999
0.039163999 0.096784003 0.06583
0.038017001 0.091325998 0.066898003
0.036463998 0.087765001 0.068227001
0.036618002 0.087433003 0.067895003
0.035560001 0.086154997 0.069135003
0.035546001 0.085973002 0.069101997
0.032749001 0.078689002 0.071238004
0.032735001 0.078506 0.071206003
0.032655999 0.078316003 0.071271002
0.040521 0.097188003 0.065461002
0.036876999 0.087737001 0.068255
0.036959 0.087392002 0.068028003
0.034375001 0.082258999 0.070469998
0.031541001 0.074681997 0.072576001
0.031470001 0.074493997 0.072630003
0.031403001 0.074307002 0.072678
0.031334002 0.074119002 0.072727002
0.030408001 0.071868002 0.073481001
0.030556001 0.071699001 0.073206
0.030610999 0.071521997 0.073069997
0.037248999 0.087557003 0.068126
0.030564999 0.072024003 0.073779002
0.030562 0.071842998 0.073732004
0.030634999 0.071668997 0.073569
0.030634001 0.071488 0.073517002
0.030552 0.0713 0.073587999
0.040982999 0.097200997 0.066200003
0.040977001 0.097020999 0.066156
0.040888 0.096818998 0.066234
0.037764002 0.087860003 0.068379
0.037689 0.087665997 0.068434998
0.037627999 0.087474003 0.068472996
0.037861999 0.087338001 0.068076
0.036885999 0.085896 0.069142997
0.036171 0.083249003 0.069458999
0.036157001 0.082704 0.069320999
0.035255 0.081841998 0.070445001
0.034366999 0.078466997 0.070812002
0.03435 0.078282997 0.070785001
0.031135 0.071621001 0.073739998
0.031137001 0.071258999 0.073631003
0.030986 0.071066998 0.073804997
0.030978 0.070885003 0.073763996
0.0309 0.070698999 0.073829003
0.030897001 0.070518002 0.07378
0.030897001 0.070336998 0.073726997
0.037973002 0.087654002 0.068411998
0.038201001 0.087517001 0.068023004
0.037156999 0.085701004 0.069085002
0.036412999 0.082866997 0.069392003
0.036495 0.082699001 0.069215998
0.036502 0.082519002 0.069153003
0.035526998 0.081827 0.070439003
0.031806 0.072359003 0.073344998
0.031252 0.071230002 0.073861003
0.031234 0.071047999 0.073834002
0.031146999 0.070860997 0.073912002
0.031142 0.07068 0.073866002
0.031217 0.070504002 0.073701002
0.031221 0.070322998 0.073641002
0.042695001 0.097542003 0.065122999
0.042695001 0.097361997 0.065070003
0.042773001 0.097200997 0.064905003
0.037703 0.085654996 0.069261998
0.036766 0.083154 0.069959
0.036685001 0.082960002 0.070026003
0.036350999 0.081284001 0.070046
0.036495999 0.081124 0.069778003
0.035275999 0.078420997 0.070848003
0.035190001 0.078230001 0.070923001
0.033154 0.074022003 0.072798997
0.032462999 0.072512999 0.073412001
0.032306999 0.072319001 0.073592998
0.032288 0.072136998 0.073568001
0.032494999 0.071973003 0.073204003
0.032352999 0.071781002 0.073365003
0.032141998 0.071583003 0.073628001
0.032063998 0.071396001 0.073693
0.032202002 0.071226001 0.073431998
0.031877 0.070657998 0.073762
0.031863999 0.070476003 0.073729001
0.042812999 0.097662002 0.065466002
0.042637002 0.097437002 0.065668002
0.037149999 0.083154 0.069861002
0.037062999 0.082960002 0.069937997
0.036385 0.081592001 0.070570998
0.035585999 0.078590997 0.070912004
0.035576999 0.078409001 0.070872001
0.033573002 0.074382998 0.072751999
0.03351 0.074196003 0.072793998
0.033447001 0.074009001 0.072834998
0.033162002 0.07344 0.073104002
0.033073999 0.073251002 0.073182002
0.033002 0.073063999 0.073237002
0.032912001 0.072512999 0.073214002
0.032896999 0.072330996 0.073183998
0.032806002 0.072143003 0.073266998
0.032586999 0.071943998 0.073542997
0.032737002 0.071774997 0.073264003
0.033029001 0.071617 0.072772004
0.032871999 0.071423002 0.072956003
0.032278001 0.070652999 0.073636003
0.028741 0.061080001 0.076232001
0.048866998 0.112962 0.061390001
0.043147001 0.097612999 0.065626003
0.042982001 0.097392 0.065814003
0.036731001 0.081556 0.070716999
0.035861 0.078727998 0.071217
0.035845 0.078544997 0.071186997
0.035983 0.078382 0.070928998
0.033838999 0.074523002 0.073071003
0.0337 0.074329004 0.073227003
0.033716001 0.074150003 0.073150001
0.033481002 0.073586002 0.073344
0.033376001 0.073395997 0.073448002
0.033349 0.073031999 0.073381998
0.033356 0.072672002 0.073266998
0.033048999 0.072463997 0.073674001
0.032786999 0.072081 0.073962003
0.032783002 0.071900003 0.073916003
0.032721002 0.071714997 0.073954999
0.032736 0.071535997 0.073880002
0.032805 0.071359999 0.073723003
0.032616999 0.070441 0.073742002
0.02905 0.061418999 0.076544002
0.029036 0.061237 0.076511003
0.029092001 0.061055999 0.076373003
0.047919001 0.108901 0.062318999
0.047830999 0.108693 0.062392
0.047823999 0.108512 0.062350001
0.043223999 0.096786 0.065935999
0.043129999 0.096583001 0.066021003
0.037315998 0.081559002 0.070494004
0.037241999 0.081367999 0.070551999
0.036423001 0.078363001 0.070922002
0.034350999 0.074690998 0.073008999
0.034286998 0.074323997 0.072999001
0.033357002 0.072072998 0.073758997
0.033349 0.071891002 0.073719002
0.03328 0.071704999 0.073770002
0.033279002 0.071524002 0.073717996
0.033342 0.071347997 0.073569998
0.033188 0.071154997 0.073748998
0.029508 0.061398 0.076508999
0.029639 0.061216999 0.076255001
0.049315002 0.113117 0.06216
0.04837 0.109049 0.062412001
0.048198 0.108635 0.062553003
0.043228 0.096643999 0.066627003
0.036892999 0.078519002 0.070987999
0.036869001 0.078335002 0.070970997
0.033682 0.071493 0.073831998
0.033744998 0.071318001 0.073683999
0.033661999 0.07113 0.073756002
0.033581 0.070942998 0.073824003
0.033502001 0.070757002 0.073890001
0.033498999 0.070574999 0.073841996
0.033496998 0.070394002 0.073792003
0.033500999 0.070212997 0.073732004
0.030277999 0.062100999 0.076277003
0.03028 0.061919998 0.076220997
0.030206 0.061737001 0.076279998
0.030191001 0.061554998 0.076249003
0.017543999 0.029091001 0.086044997
0.030796999 0.062619999 0.076407999
0.030712999 0.062437002 0.076481
0.030637 0.061891999 0.076436996
0.030631 0.06171 0.076393999
0.050356999 0.113309 0.061994001
0.03782 0.078296997 0.070876002
0.031235 0.062779002 0.076380998
0.031252 0.062597997 0.076302998
0.031249 0.062417001 0.076252997
0.031168001 0.062233999 0.076324999
0.031160001 0.062052 0.076283
0.031082001 0.061870001 0.076348998
0.052308999 0.115403 0.060481001
0.052211002 0.115189 0.060566999
0.047200002 0.101385 0.064173996
0.038445 0.078287996 0.070772998
0.038350999 0.078094997 0.070859
0.035687 0.072196998 0.073197998
0.035677001 0.072015002 0.07316
0.035585001 0.071644999 0.073192
0.035572998 0.071462996 0.073158003
0.035487 0.071275003 0.073233001
0.0319 0.062215999 0.076054998
0.031475998 0.062029999 0.076647997
0.030145001 0.058223002 0.077564001
0.052857 0.115671 0.060130998
0.052669 0.115423 0.060346
0.052476 0.115174 0.060566999
0.052212998 0.114721 0.060835999
0.04778 0.101638 0.063770004
0.047704 0.101257 0.063773997
0.041954 0.086562999 0.068249002
0.041804999 0.086355001 0.068415001
0.038711 0.078271002 0.070770003
0.038546 0.078069001 0.070961997
0.036956999 0.075350001 0.072590999
0.036772002 0.073521003 0.072338998
0.030480999 0.058566 0.077560998
0.030407 0.058385 0.07762
0.053406999 0.115658 0.060114
0.053224999 0.115413 0.060320001
0.053034998 0.115165 0.060536999
0.053025998 0.114983 0.060497999
0.046799999 0.097246997 0.064808004
0.042481001 0.086723 0.068318002
0.042397 0.086525999 0.068387002
0.042328998 0.086332999 0.068434998
0.042328998 0.086152002 0.068383001
0.041882999 0.085349001 0.068827003
0.041390002 0.083999 0.069185004
0.039544001 0.079557002 0.070702001
0.039542999 0.079375997 0.070648998
0.039484002 0.079186998 0.070684999
0.039136998 0.078417003 0.070988998
0.039115001 0.078233004 0.070968002
0.031082001 0.058541998 0.077463001
0.031012001 0.058362 0.077517003
0.026067 0.046852998 0.081693999
0.025993999 0.046679001 0.081754997
0.053552002 0.115556 0.060451001
0.052836999 0.115116 0.061414
0.047865 0.100831 0.064819001
0.041774999 0.084163003 0.069232002
0.041699 0.083968997 0.069293
0.041684002 0.083786003 0.069261
0.04166 0.083600998 0.069243997
0.039827 0.079526 0.070848003
0.039827999 0.079345003 0.070795
0.039524999 0.078580998 0.071033001
0.039418999 0.078386001 0.071138002
0.026299 0.046484999 0.081820004
0.026293 0.046303 0.081776999
0.026219999 0.046130002 0.081837997
0.022831 0.037705999 0.084542997
0.054025002 0.115892 0.060563002
0.053320002 0.115098 0.061407
0.047447 0.097153999 0.065117002
0.046224002 0.095590003 0.066524997
0.043990999 0.088794999 0.067942999
0.043127 0.086461999 0.068577997
0.041425999 0.081655003 0.069767997
0.040456999 0.079524003 0.070621997
0.040449001 0.079341002 0.070582002
0.040298998 0.07914 0.070749998
0.040236 0.078768998 0.070738003
0.040086001 0.078569002 0.070909001
0.039992001 0.078374997 0.070997
0.026676999 0.045922998 0.081814997
0.026541 0.045756999 0.081974998
0.026535001 0.045575 0.081929997
0.026598999 0.045384999 0.081776999
0.022824001 0.038139001 0.085415997
0.022832001 0.037955001 0.085350998
0.022836 0.037772 0.085290998
0.022816001 0.037227001 0.085161
0.043680001 0.086634003 0.068521999
0.043678001 0.086452998 0.068471998
0.043607999 0.086259 0.068521
0.042950999 0.085418001 0.069278002
0.042946 0.085236996 0.069232002
0.043007001 0.085066997 0.069089003
0.041733999 0.081606001 0.070018001
0.040925 0.079860002 0.070742004
0.040847 0.079488002 0.070752002
0.040546 0.078543 0.070933998
0.040461998 0.078350998 0.071006998
0.040376 0.078157999 0.071082003
0.034079999 0.062833004 0.076204002
0.051695999 0.108693 0.063285999
0.043350998 0.085233003 0.069153003
0.041267999 0.079844996 0.070753999
0.041209001 0.079655997 0.070788004
0.041216999 0.079475999 0.070722997
0.039011002 0.073420003 0.072316997
0.041706 0.079806998 0.070913002
0.041382998 0.078316003 0.070969
0.041299999 0.078124002 0.071039997
0.039438002 0.073385999 0.072494
0.038546 0.072036996 0.073461004
0.038300999 0.071836002 0.073775999
0.042100001 0.079612002 0.070749998
0.041949 0.079410002 0.070922002
0.041733999 0.078295 0.070923999
0.041703001 0.078110002 0.070915997
0.039866 0.073551998 0.072385997
0.038952999 0.071837999 0.073278002
0.038931001 0.071654998 0.073257998
0.038848002 0.071466997 0.073329002
0.035707999 0.062954001 0.075629003
0.035556 0.062770002 0.075806998
0.045515001 0.086378001 0.068406001
0.045441002 0.086184002 0.068461999
0.043618999 0.081354 0.069829002
0.042677999 0.079406999 0.070694
0.04259 0.079213999 0.070772
0.042302001 0.078270003 0.070936002
0.039671998 0.072007 0.073115997
0.039570998 0.071817003 0.073214002
0.039482001 0.071627997 0.073294997
0.039399002 0.071439996 0.073366001
0.045883 0.086186998 0.068357997
0.043903001 0.081511997 0.070012003
0.043821 0.081317998 0.070079997
0.042955 0.079565004 0.070887998
0.042943001 0.079382002 0.070851997
0.042661998 0.078440003 0.071006998
0.042560998 0.078244999 0.071102999
0.040775999 0.074960999 0.072866
0.040855002 0.073521003 0.072323002
0.039861001 0.07198 0.073389001
0.039845001 0.071797997 0.073361002
0.047203001 0.088835001 0.067992002
0.046427999 0.086156003 0.068389997
0.045752998 0.085129999 0.069119997
0.044417001 0.082560003 0.070407003
0.044328 0.082364999 0.070485003
0.044877 0.082271002 0.069620997
0.044876002 0.082089998 0.069568001
0.044796001 0.081896 0.069634996
0.044527002 0.081312001 0.069872998
0.043497 0.079352997 0.070871003
0.043494999 0.079171002 0.070822001
0.041430999 0.074942 0.072733998
0.051573999 0.100919 0.065443002
0.051197998 0.097225003 0.064934999
0.049716 0.095413998 0.066666
0.047671001 0.088835999 0.067861997
0.045233 0.08207 0.069601998
0.045145001 0.081874996 0.069678999
0.044907998 0.081294999 0.069871001
0.043949999 0.078984 0.070656002
0.043813001 0.078783996 0.070807002
0.041712001 0.074914999 0.07288
0.041639 0.074726999 0.072935998
0.052818999 0.100782 0.064116001
0.052650999 0.100555 0.064305998
0.0515 0.097364999 0.065127999
0.050202999 0.095420003 0.066537999
0.050193999 0.095238 0.066499002
0.050724 0.094825998 0.065568998
0.047262002 0.086494997 0.068414003
0.047185998 0.086300001 0.068472996
0.046652999 0.085119002 0.068939999
0.045637 0.081872001 0.069541
0.044109002 0.078391001 0.070854001
0.041005 0.071175002 0.073477
0.041065 0.070997998 0.073334999
0.040973 0.070808999 0.073418997
0.053564001 0.101163 0.063964002
0.053564999 0.100983 0.063909002
0.053477 0.100778 0.063983999
0.052134 0.097354002 0.065030001
0.050857 0.095412001 0.066412002
0.050855 0.095232002 0.066362001
0.047866002 0.086653002 0.068411
0.047713 0.086443998 0.068584003
0.047145002 0.085256003 0.069103003
0.047200002 0.085084997 0.068968996
0.041547999 0.071323 0.073565997
0.041467 0.071135998 0.073633999
0.041313 0.070942 0.073812999
0.041313 0.070761003 0.073760003
0.056271002 0.10799 0.062307999
0.056038 0.107556 0.062537
0.053846002 0.101324 0.064057998
0.051058002 0.095374003 0.066570997
0.060414001 0.117997 0.059829
0.059415001 0.11726 0.061136998
0.057020999 0.107839 0.062031999
0.057034001 0.107663 0.061960999
0.048670001 0.086236 0.068452001
0.047665998 0.083525002 0.069191001
0.047068 0.081978999 0.069650002
0.059997998 0.118051 0.060986001
0.057358 0.107644 0.061969001
0.049789999 0.088719003 0.067976996
0.049688 0.088518001 0.068075001
0.049676999 0.088335998 0.068037003
0.049598001 0.088138998 0.068099998
0.047261 0.083022997 0.070168003
0.047093 0.082635 0.070312001
0.046992999 0.082258001 0.070354
0.057507001 0.108052 0.062656
0.057064001 0.107014 0.063027002
0.052529 0.095325999 0.066527002
0.050191 0.088500999 0.068095997
0.050198998 0.088321999 0.068031996
0.050117001 0.088124998 0.068099
0.049945999 0.087911002 0.068296999
0.048595998 0.085132003 0.069544002
0.046174001 0.078073002 0.071172997
0.051878002 0.092717998 0.067357004
0.050503001 0.088821001 0.068314999
0.050411001 0.088621996 0.068397
0.050319001 0.088423997 0.068479002
0.050312001 0.088242002 0.068438001
0.050152998 0.088030003 0.068617001
0.050145999 0.087848999 0.068575002
0.046436999 0.078031003 0.071362004
0.050487999 0.087895997 0.068094
0.04972 0.086124003 0.068746999
0.046473999 0.078016996 0.071327999
0.038419999 0.05796 0.077747002
0.038417 0.057778001 0.077698
0.038334001 0.057597999 0.077771001
0.038314 0.057415999 0.077748001
0.050439 0.088425003 0.068331003
0.050354 0.088228002 0.068402998
0.050268002 0.088030003 0.068476997
0.050172001 0.087830998 0.068565004
0.046558999 0.078025997 0.071207002
0.046487 0.077653997 0.071208999
0.038341999 0.057778001 0.077820003
0.038334999 0.057595 0.077776998
0.037907001 0.055966001 0.077954002
0.050498001 0.088623002 0.068294004
0.050501999 0.088443004 0.068235002
0.050360002 0.088234 0.068391003
0.046503998 0.078204997 0.071338996
0.046562999 0.078031003 0.071198002
0.046484999 0.077659003 0.071208999
0.050437 0.088428997 0.068333
0.050280001 0.088218004 0.068511002
0.046482 0.078019999 0.071319997
0.046475999 0.077656999 0.071222998
0.052317001 0.096028 0.067694001
0.050501999 0.088621996 0.068294004
0.050423998 0.088426001 0.068356
