# .PCD v0.7 - Point Cloud Data file format
VERSION 0.7
FIELDS x y z
SIZE 4 4 4
TYPE F F F
COUNT 1 1 1
WIDTH 1378
HEIGHT 1
VIEWPOINT 0 0 0 1 0 0 0
POINTS 1378
DATA ascii
-0.068892889 0.16909355 -0.22345679
-0.068707168 0.16905433 -0.22340851
-0.067237668 0.16909568 -0.22350998
-0.088101335 0.16931733 -0.22352523
-0.087885328 0.1692915 -0.22343618
-0.087742142 0.16926871 -0.22341613
-0.086878501 0.16926751 -0.22343999
-0.086736232 0.16929713 -0.22348635
-0.086514004 0.16937201 -0.22359399
-0.069820665 0.16930032 -0.223579
-0.069721334 0.16928917 -0.22355366
-0.069518402 0.16928621 -0.22352102
-0.069236003 0.169321 -0.22349666
-0.069104165 0.16931784 -0.22349215
-0.068884112 0.16930515 -0.22346555
-0.0686974 0.16932979 -0.22341299
-0.067232005 0.16929768 -0.22345333
-0.088094428 0.16950344 -0.22350729
-0.087919198 0.16949961 -0.2234244
-0.086703502 0.16946 -0.22342475
-0.086511672 0.16950166 -0.223536
-0.070009999 0.169586 -0.22358
-0.069815002 0.16950299 -0.22352965
-0.069715828 0.16949201 -0.22350468
-0.069513805 0.1694618 -0.22347319
-0.069272004 0.16952926 -0.22346525
-0.069097333 0.16952401 -0.22346485
-0.068916164 0.16951698 -0.22346534
-0.068730555 0.16948622 -0.2234261
-0.067223668 0.16950934 -0.22346734
-0.088143997 0.16968499 -0.22353899
-0.087995 0.169716 -0.22344701
-0.086507671 0.169697 -0.22344935
-0.070005998 0.169719 -0.22353967
-0.069809332 0.16970599 -0.22348399
-0.06970983 0.16969515 -0.22346365
-0.069583997 0.169645 -0.2234095
-0.069309503 0.16970216 -0.22343583
-0.069091499 0.16972767 -0.223424
-0.068909161 0.16972451 -0.223445
-0.068789668 0.169715 -0.22342335
-0.067215331 0.16971934 -0.22346367
-0.088126667 0.16987683 -0.22352417
-0.087987334 0.16992401 -0.22343867
-0.070001498 0.16988799 -0.223497
-0.06987033 0.16991033 -0.22344066
-0.069729999 0.169833 -0.223432
-0.069392003 0.169808 -0.223401
-0.069086999 0.169864 -0.223405
-0.068894602 0.16991539 -0.22341561
-0.068765499 0.16990325 -0.22340825
-0.067210495 0.1698875 -0.2234185
-0.067083001 0.16992335 -0.22357833
-0.08811783 0.17008783 -0.2235385
-0.087980494 0.17009601 -0.223433
-0.086119503 0.17013174 -0.22353999
-0.071517996 0.170147 -0.2236
-0.069995999 0.17012067 -0.22342066
-0.067201003 0.17013299 -0.223418
-0.067111 0.17008233 -0.223536
-0.088109501 0.1702975 -0.22354849
-0.087974332 0.17026967 -0.22343232
-0.08607275 0.17029475 -0.22347949
-0.085905999 0.170385 -0.22356451
-0.071888 0.170376 -0.223583
-0.0717315 0.17033151 -0.22356251
-0.071509004 0.17028959 -0.22353148
-0.071263336 0.17033218 -0.22352417
-0.071116336 0.17032902 -0.22354032
-0.070690997 0.170386 -0.22356901
-0.070525803 0.1703468 -0.22356479
-0.070335999 0.17029534 -0.22355767
-0.067286 0.170312 -0.223414
-0.067189336 0.17029166 -0.223538
-0.088091202 0.17049238 -0.22355179
-0.087965995 0.170479 -0.22343467
-0.086048998 0.170439 -0.22340199
-0.085895404 0.17049661 -0.22347382
-0.085660003 0.17054351 -0.22355433
-0.0855195 0.170525 -0.22356419
-0.085253999 0.170559 -0.22356901
-0.075305499 0.1705945 -0.22357801
-0.075064003 0.17058399 -0.223582
-0.073697001 0.17055768 -0.22355634
-0.073290788 0.17049454 -0.22352499
-0.073117666 0.17048533 -0.22351599
-0.072882503 0.1705195 -0.22355351
-0.072698496 0.17052884 -0.22355634
-0.072505124 0.17056438 -0.22353324
-0.072081 0.170515 -0.22354369
-0.071934499 0.17050667 -0.22351684
-0.071729667 0.17049032 -0.22346567
-0.071525797 0.17044619 -0.2234474
-0.071263 0.17045751 -0.2234275
-0.071115002 0.17048749 -0.2234315
-0.070692003 0.17051001 -0.22346033
-0.070543863 0.1704797 -0.22345941
-0.0703355 0.170452 -0.2234465
-0.067296743 0.17051299 -0.22345826
-0.067181997 0.17044 -0.22357801
-0.088041998 0.170711 -0.22353999
-0.087957002 0.17068934 -0.22344632
-0.08585 0.17064001 -0.223424
-0.085657328 0.17070499 -0.22347634
-0.08549501 0.17069812 -0.22349188
-0.085252665 0.17068668 -0.22350299
-0.085079998 0.170689 -0.22353899
-0.084932335 0.17068417 -0.22355749
-0.084726252 0.17073026 -0.2235745
-0.084504001 0.17073999 -0.22359399
-0.077259995 0.17072566 -0.223575
-0.077073254 0.17071101 -0.22357225
-0.076889001 0.17073101 -0.22353899
-0.076704144 0.17074271 -0.22354543
-0.076523721 0.17073199 -0.22355242
-0.076315001 0.17074749 -0.22357026
-0.076097995 0.17076899 -0.22357701
-0.075912997 0.170761 -0.223574
-0.075482704 0.1706977 -0.2235343
-0.075304501 0.17072134 -0.22348869
-0.075063668 0.17071067 -0.22349401
-0.074664883 0.17070112 -0.22354454
-0.074514806 0.17070401 -0.2235276
-0.074299999 0.17071851 -0.223542
-0.074040502 0.17070951 -0.22354451
-0.073845252 0.1707015 -0.22352201
-0.073695228 0.17071846 -0.22346646
-0.073310748 0.17063901 -0.223437
-0.073114999 0.1706465 -0.22343101
-0.072883248 0.17064126 -0.22344151
-0.072697148 0.17066458 -0.22345889
-0.072504997 0.17068875 -0.22343613
-0.072079502 0.1706755 -0.2234465
-0.071932249 0.17066801 -0.2234315
-0.067314602 0.17070739 -0.22353899
-0.088031672 0.17092566 -0.22357701
-0.087913796 0.17091039 -0.22344618
-0.085656002 0.17083301 -0.22340401
-0.08547575 0.1708425 -0.2234205
-0.085249498 0.1708505 -0.2234315
-0.085077502 0.1708495 -0.2234565
-0.084930174 0.17087616 -0.22345133
-0.084685005 0.1708905 -0.22348273
-0.084502496 0.1708975 -0.2235
-0.08427 0.170939 -0.22357599
-0.084141999 0.17097501 -0.22357766
-0.077931002 0.170993 -0.22358349
-0.077610001 0.170975 -0.223579
-0.077287503 0.170875 -0.22348051
-0.07707233 0.17086899 -0.22346799
-0.076887503 0.1708895 -0.22343525
-0.076686502 0.17090589 -0.22343776
-0.076516882 0.17089511 -0.22343938
-0.076313995 0.17090501 -0.22346467
-0.076097555 0.1708941 -0.22348489
-0.075911999 0.17088632 -0.22348432
-0.075536191 0.17086039 -0.22344701
-0.075303003 0.170849 -0.223417
-0.075062998 0.170838 -0.22341
-0.074664496 0.17085649 -0.22342567
-0.074503504 0.17084801 -0.22343001
-0.074299499 0.1708445 -0.223452
-0.074038997 0.17086832 -0.22344367
-0.073844001 0.17085899 -0.22341999
-0.073702998 0.170848 -0.22340199
-0.067522332 0.17092033 -0.22343433
-0.067309998 0.17091501 -0.22357799
-0.08789634 0.17110699 -0.22346549
-0.084702007 0.17102234 -0.22341032
-0.084500998 0.171058 -0.22341301
-0.084267743 0.1710985 -0.22348949
-0.084125169 0.17112534 -0.22350617
-0.083903998 0.17115849 -0.2235525
-0.082546003 0.17119899 -0.223581
-0.081220999 0.171139 -0.22358
-0.08106 0.17115599 -0.22357599
-0.080942497 0.1711635 -0.22356051
-0.080697499 0.17114949 -0.22356349
-0.080528498 0.17113349 -0.22356249
-0.079317331 0.17117266 -0.223575
-0.079110995 0.17114949 -0.22358
-0.078657746 0.17112726 -0.22357401
-0.078492187 0.17108911 -0.22356263
-0.078247502 0.17110601 -0.22357249
-0.078070335 0.17113233 -0.223535
-0.077928491 0.1711245 -0.22353768
-0.077701777 0.17111367 -0.22352645
-0.077369332 0.17107899 -0.22342734
-0.076095663 0.171022 -0.223415
-0.075911 0.171013 -0.223405
-0.06769 0.17113499 -0.223401
-0.067518599 0.17108819 -0.22351542
-0.067249998 0.17100801 -0.22359601
-0.087878205 0.1713078 -0.2235032
-0.087767497 0.171334 -0.22340551
-0.084263504 0.17129651 -0.22341651
-0.084112599 0.17130861 -0.22343901
-0.083901323 0.17132068 -0.22347467
-0.083668999 0.171324 -0.22355866
-0.083506256 0.17132077 -0.2235564
-0.083301716 0.17132056 -0.22355071
-0.083093002 0.1713074 -0.22356999
-0.082861334 0.17128867 -0.22357666
-0.082649998 0.17127667 -0.22357966
-0.08248271 0.1713189 -0.22354981
-0.082296669 0.17132901 -0.223561
-0.082128204 0.17133419 -0.2235696
-0.081983998 0.17130899 -0.22355199
-0.081656501 0.1713375 -0.22356699
-0.081468165 0.17128567 -0.22355099
-0.081299551 0.17127611 -0.22353776
-0.081079289 0.17131187 -0.22350729
-0.080938995 0.17132799 -0.22350299
-0.080693997 0.17131333 -0.22350132
-0.080508582 0.17130683 -0.22350353
-0.080162667 0.17130132 -0.22356331
-0.079658501 0.17131451 -0.223581
-0.07948114 0.17131686 -0.22355284
-0.07932733 0.17132652 -0.22352201
-0.079107337 0.17131434 -0.22352402
-0.078654163 0.17129134 -0.22351283
-0.078494661 0.17128235 -0.22350459
-0.07824333 0.17127268 -0.22352235
-0.078066997 0.17132665 -0.22344333
-0.077924669 0.17132032 -0.2234555
-0.077711426 0.171289 -0.22343986
-0.067701243 0.17129974 -0.22343799
-0.067572996 0.171258 -0.22353101
-0.087835997 0.171496 -0.223511
-0.087759338 0.17151232 -0.22343199
-0.084073998 0.171454 -0.223401
-0.083897002 0.1714865 -0.223428
-0.083665997 0.17151634 -0.22346
-0.083510898 0.17150432 -0.22345223
-0.083311222 0.17150076 -0.22349
-0.083080001 0.17149299 -0.22350836
-0.082857333 0.17148566 -0.22350334
-0.082646005 0.17147267 -0.22350435
-0.082478121 0.17152755 -0.2234619
-0.082292497 0.17152631 -0.22348915
-0.082116336 0.17151482 -0.22348416
-0.081981003 0.17150433 -0.22346699
-0.081653997 0.17149667 -0.22347933
-0.081464998 0.17147999 -0.22345716
-0.081295773 0.17147234 -0.22346012
-0.081067495 0.17152834 -0.22343718
-0.080934338 0.17152567 -0.223435
-0.080688 0.17151566 -0.22345434
-0.080503419 0.17150658 -0.22344917
-0.080158666 0.17149734 -0.22349034
-0.079654835 0.17147833 -0.22352451
-0.079485334 0.17149022 -0.22349657
-0.079321824 0.17152782 -0.22347333
-0.079101332 0.171516 -0.22347732
-0.07864783 0.17149432 -0.2234755
-0.078506202 0.1714797 -0.22346981
-0.078303196 0.17148961 -0.2234582
-0.078061499 0.17149699 -0.2234185
-0.077922001 0.17145149 -0.22340751
-0.067873001 0.17151776 -0.22343825
-0.067726254 0.17149651 -0.22355527
-0.08782766 0.171674 -0.22353934
-0.087685712 0.17172058 -0.22345901
-0.087578997 0.171774 -0.223405
-0.083660334 0.171719 -0.22341967
-0.083504997 0.17169701 -0.22341473
-0.083305784 0.17170168 -0.22344245
-0.083074003 0.17169465 -0.22347049
-0.082852669 0.17168401 -0.22344001
-0.08264 0.171674 -0.22346
-0.082465127 0.17172074 -0.22341987
-0.082296602 0.17171238 -0.22343162
-0.082111329 0.1717155 -0.22343116
-0.081974998 0.17170601 -0.22342502
-0.081649333 0.17169534 -0.22341733
-0.081453398 0.1716682 -0.22342579
-0.081288666 0.17167835 -0.22343932
-0.081061751 0.17170049 -0.22341801
-0.080682002 0.171719 -0.22342432
-0.08052671 0.17168298 -0.22342455
-0.080153666 0.17169802 -0.22343801
-0.079701334 0.17168367 -0.22348033
-0.079517275 0.17167836 -0.22346282
-0.079315752 0.17170051 -0.22346351
-0.079094999 0.17172001 -0.22344701
-0.078640334 0.171703 -0.22346967
-0.078510441 0.17169279 -0.22345334
-0.078313001 0.17168133 -0.22343516
-0.068049669 0.17171933 -0.22344966
-0.067902669 0.171681 -0.223529
-0.087664202 0.1718854 -0.22353701
-0.087533794 0.17193019 -0.2234472
-0.083653495 0.17189249 -0.22342151
-0.08349476 0.17192863 -0.22344138
-0.083323285 0.171909 -0.223479
-0.083099499 0.17191151 -0.22346437
-0.082843333 0.17189567 -0.22345567
-0.082631335 0.171884 -0.223469
-0.082490794 0.17188179 -0.22341481
-0.082295001 0.17193167 -0.22341233
-0.082080252 0.17194149 -0.223441
-0.081966668 0.17191534 -0.22342665
-0.081639998 0.17190801 -0.22344333
-0.081422001 0.17192149 -0.22341301
-0.081304431 0.17187771 -0.22343786
-0.081087328 0.17187317 -0.22341315
-0.080921002 0.171903 -0.22340401
-0.080675498 0.1718915 -0.223417
-0.080576003 0.17188799 -0.223409
-0.080392495 0.1719525 -0.22343099
-0.080145665 0.17190599 -0.22343433
-0.079694003 0.17188966 -0.22346699
-0.079501584 0.17187969 -0.22345765
-0.079308666 0.17187516 -0.22346817
-0.079087004 0.17189851 -0.223472
-0.078630336 0.1719165 -0.22349851
-0.078501999 0.171903 -0.22345842
-0.078304335 0.17189349 -0.223451
-0.068276003 0.171939 -0.22347499
-0.068097994 0.17187218 -0.2235208
-0.067925997 0.171812 -0.22359601
-0.087614998 0.17202 -0.22359399
-0.087504201 0.17208299 -0.223543
-0.084045999 0.172152 -0.22341999
-0.083871499 0.1721155 -0.22344899
-0.083642997 0.17207901 -0.22349633
-0.083484836 0.17210484 -0.223507
-0.083333999 0.17210326 -0.22353151
-0.083088435 0.17210057 -0.22351371
-0.082832001 0.17211433 -0.22351666
-0.082620673 0.17210133 -0.22351633
-0.082488835 0.172085 -0.22346216
-0.082322001 0.17208911 -0.22346324
-0.0820935 0.17210725 -0.2234875
-0.081956998 0.1720995 -0.22348601
-0.081630498 0.1720915 -0.22349501
-0.081440501 0.1721065 -0.22345734
-0.081311166 0.17210467 -0.22347732
-0.081121005 0.17208128 -0.22345498
-0.080946006 0.17209961 -0.223447
-0.080667004 0.1721015 -0.22342801
-0.080502667 0.17211634 -0.22341518
-0.080387503 0.1720925 -0.223434
-0.080137335 0.17211534 -0.22343467
-0.079685666 0.17209934 -0.22346801
-0.07950037 0.17208709 -0.22348127
-0.07931257 0.17210186 -0.22351114
-0.079077326 0.17208134 -0.223526
-0.078646004 0.172102 -0.22353899
-0.078509443 0.17210001 -0.22352232
-0.078293331 0.1721105 -0.2235
-0.078038 0.17208965 -0.22342233
-0.077944003 0.172152 -0.22341201
-0.068619505 0.1721445 -0.22354001
-0.068502285 0.17210557 -0.223492
-0.068325005 0.17204534 -0.22353633
-0.068175003 0.17202599 -0.22359499
-0.087021001 0.17230999 -0.223465
-0.086842 0.172369 -0.223465
-0.085190997 0.172346 -0.22344001
-0.084872499 0.17233899 -0.2234655
-0.084668338 0.17232434 -0.22342832
-0.084556505 0.1722845 -0.223432
-0.084222496 0.17227951 -0.22347501
-0.084082253 0.17226875 -0.22347599
-0.083859995 0.17227399 -0.223564
-0.083632998 0.172232 -0.223573
-0.083476335 0.17222267 -0.22358501
-0.083291002 0.172217 -0.223591
-0.083138496 0.1722025 -0.22357599
-0.082823001 0.17226601 -0.223588
-0.082612 0.172253 -0.223583
-0.082477503 0.1722745 -0.223554
-0.082300834 0.17226733 -0.22354233
-0.082100332 0.172243 -0.22352999
-0.081947997 0.1722485 -0.223544
-0.081622005 0.17223951 -0.22354701
-0.081438005 0.17228699 -0.22356232
-0.081334002 0.17228098 -0.22355801
-0.081128746 0.17228375 -0.2235595
-0.080944002 0.17227401 -0.22353101
-0.080655664 0.172289 -0.22350432
-0.080510378 0.17228614 -0.22346888
-0.080378659 0.17227066 -0.22346067
-0.080128506 0.172297 -0.22347599
-0.079676002 0.1722835 -0.22352499
-0.079501286 0.17229585 -0.22355485
-0.079341248 0.17226025 -0.22357525
-0.078457996 0.172236 -0.22357899
-0.078203 0.17225499 -0.22355901
-0.078068495 0.17231901 -0.223537
-0.077886 0.17229883 -0.22347067
-0.077719994 0.17233233 -0.22342832
-0.077564999 0.172343 -0.223406
-0.077063002 0.17239299 -0.223409
-0.069038004 0.172315 -0.223423
-0.068945006 0.1722825 -0.223432
-0.086756997 0.172425 -0.22341099
-0.086562999 0.17241199 -0.223416
-0.085924998 0.1724925 -0.223443
-0.085640997 0.17250501 -0.223414
-0.085487999 0.17247298 -0.22343381
-0.085101001 0.17241949 -0.2234755
-0.084846325 0.17244466 -0.22354834
-0.084687993 0.17245176 -0.2235485
-0.084573001 0.172409 -0.22354299
-0.080478996 0.1724485 -0.223556
-0.080367997 0.172428 -0.223563
-0.080123 0.172405 -0.22350401
-0.079668 0.1724 -0.2236
-0.079498999 0.17253201 -0.223592
-0.078195997 0.17240199 -0.223593
-0.077874497 0.1724575 -0.223581
-0.077680998 0.17246966 -0.22355366
-0.077556498 0.1724605 -0.22349
-0.077316001 0.172471 -0.223417
-0.077054001 0.172483 -0.22351401
-0.076899327 0.17249234 -0.22347234
-0.076684006 0.1724852 -0.22346739
-0.076536402 0.17248401 -0.2234432
-0.076250501 0.1725125 -0.22348024
-0.076040998 0.172453 -0.223424
-0.073041998 0.172563 -0.223405
-0.076684996 0.17261 -0.223548
-0.072487503 0.17261299 -0.22343799
-0.070336334 0.13273235 -0.223388
-0.070477001 0.13293749 -0.223381
-0.070305444 0.13289489 -0.22335733
-0.070079625 0.13291411 -0.22337361
-0.070471339 0.13311167 -0.22336499
-0.070299111 0.13310643 -0.22332065
-0.070099443 0.13309222 -0.22334412
-0.069970496 0.13307834 -0.22336417
-0.07046333 0.13331966 -0.22336066
-0.070291668 0.13331455 -0.223307
-0.070092335 0.133302 -0.223324
-0.069949709 0.133297 -0.22334485
-0.070492603 0.1335412 -0.22336039
-0.070284225 0.13352445 -0.22328721
-0.07008478 0.13350989 -0.22331254
-0.06992434 0.13349366 -0.22334167
-0.070495501 0.1337 -0.22336225
-0.070294395 0.13369161 -0.2232798
-0.070098363 0.13372518 -0.22330728
-0.069915667 0.13369945 -0.22335178
-0.070478395 0.13388519 -0.22337739
-0.070309669 0.13386984 -0.22331317
-0.070096582 0.13392258 -0.22334808
-0.06993816 0.13390766 -0.22336535
-0.070435002 0.13400701 -0.223389
-0.070300162 0.13407284 -0.22335267
-0.070083447 0.13411045 -0.22338367
-0.069955997 0.13411666 -0.22337933
-0.069661997 0.13402601 -0.2234
-0.070249006 0.13424 -0.223387
-0.070171997 0.1342355 -0.223377
-0.069968 0.1343116 -0.22338441
-0.068396002 0.16213 -0.2234
-0.068861499 0.16225199 -0.223388
-0.068392999 0.1622 -0.2234
-0.0684705 0.16244501 -0.22339199
-0.068339005 0.16251299 -0.22339749
-0.0682915 0.1626505 -0.223396
-0.068282999 0.16289334 -0.22338432
-0.068187334 0.16288733 -0.22338568
-0.068302333 0.16310434 -0.22339165
-0.068131246 0.163059 -0.22338375
-0.068819001 0.163335 -0.223395
-0.068351999 0.16328099 -0.22338501
-0.068130597 0.16331939 -0.22339442
-0.068299994 0.16352434 -0.22339468
-0.068113506 0.1635135 -0.22338633
-0.067985997 0.163542 -0.2233845
-0.068508506 0.16370299 -0.223398
-0.068285003 0.163717 -0.2233744
-0.068106666 0.16372032 -0.22336167
-0.067979999 0.163715 -0.22336501
-0.068741001 0.163958 -0.2234
-0.06851387 0.16388813 -0.22339275
-0.068296 0.16388461 -0.22336178
-0.068099499 0.16392751 -0.22333884
-0.067919336 0.16392267 -0.22336197
-0.068762831 0.16410051 -0.223391
-0.068495445 0.16408734 -0.22338343
-0.06828016 0.16407932 -0.22336216
-0.068093248 0.16410075 -0.22333099
-0.067931004 0.16408567 -0.22335966
-0.068752006 0.16438049 -0.223391
-0.068487801 0.164268 -0.22338578
-0.068303496 0.1642995 -0.22336638
-0.068086326 0.16427666 -0.22333767
-0.067960002 0.16427167 -0.22333901
-0.068741798 0.1645052 -0.2233886
-0.068477333 0.164505 -0.223388
-0.068305768 0.16450177 -0.22337455
-0.068076663 0.16448934 -0.22336583
-0.067923248 0.16448376 -0.2233735
-0.068738997 0.1646955 -0.223399
-0.068471998 0.164645 -0.223395
-0.068254501 0.16471116 -0.22338252
-0.068068333 0.16469951 -0.22336601
-0.0679425 0.16466099 -0.22338149
-0.068204336 0.16491866 -0.22337998
-0.068085246 0.16489375 -0.22337401
-0.068100005 0.16512167 -0.22337212
-0.068271004 0.165345 -0.2234
-0.068141751 0.1652995 -0.22337875
-0.067962602 0.16534039 -0.22337839
-0.068264499 0.165518 -0.22339049
-0.0681355 0.16547383 -0.22336918
-0.067941599 0.16551781 -0.22335081
-0.068292201 0.1657064 -0.2233834
-0.068128332 0.16568084 -0.22335131
-0.067950405 0.1656868 -0.22335401
-0.067796499 0.165672 -0.22339949
-0.068663999 0.16595149 -0.223396
-0.068420999 0.16594 -0.223398
-0.068293668 0.16590168 -0.22337651
-0.068120502 0.16588999 -0.2233455
-0.067936003 0.165879 -0.22333284
-0.067787498 0.165916 -0.2233935
-0.068692662 0.16612834 -0.22339201
-0.06841433 0.16611433 -0.22339468
-0.068285339 0.16611083 -0.22337717
-0.0681125 0.16609965 -0.223343
-0.067928337 0.16608782 -0.22332285
-0.067781001 0.16609134 -0.22339399
-0.068683192 0.166282 -0.2233946
-0.068406999 0.16632266 -0.223388
-0.068278 0.16631867 -0.2233635
-0.068104498 0.16630916 -0.22333968
-0.067920171 0.16629784 -0.22332549
-0.067772336 0.16630132 -0.22339301
-0.068675205 0.1664912 -0.22339001
-0.068401001 0.166462 -0.223389
-0.068284497 0.16651784 -0.223369
-0.068096496 0.16651817 -0.22333501
-0.067911826 0.16650783 -0.22332601
-0.067764997 0.16650967 -0.22338267
-0.068653338 0.16668665 -0.223396
-0.068317495 0.16667925 -0.22337662
-0.068080001 0.16671199 -0.22332339
-0.067903668 0.16671751 -0.2233265
-0.067758001 0.16671699 -0.22336499
-0.068682998 0.16683 -0.22339
-0.068255663 0.16688015 -0.22337417
-0.068092801 0.1668804 -0.2233206
-0.067896001 0.16692634 -0.22331917
-0.067723751 0.16694075 -0.22335675
-0.068470001 0.16702899 -0.223398
-0.068290897 0.16708988 -0.22337477
-0.068075664 0.16707565 -0.22331817
-0.067888997 0.16710174 -0.223322
-0.067743003 0.167101 -0.223359
-0.068663664 0.16732 -0.22339801
-0.068459667 0.167307 -0.22338898
-0.068308286 0.16728899 -0.22336601
-0.068100251 0.16729499 -0.22331363
-0.067882165 0.16727699 -0.22332267
-0.067736 0.16727634 -0.22336666
-0.06862966 0.16752617 -0.22338967
-0.068451665 0.16751701 -0.22338901
-0.068317831 0.16751017 -0.22337133
-0.068102553 0.16749889 -0.22332965
-0.067874663 0.16748416 -0.22330816
-0.067727663 0.16748601 -0.223363
-0.068649501 0.167704 -0.223387
-0.068504795 0.16771579 -0.2233876
-0.068309501 0.16772015 -0.22337581
-0.068094775 0.1677081 -0.22332512
-0.067868501 0.16768967 -0.22327518
-0.067721002 0.16769366 -0.22334267
-0.068645 0.16780899 -0.223399
-0.068589665 0.16787367 -0.22339167
-0.068301834 0.16792934 -0.22336882
-0.068132833 0.167919 -0.2233175
-0.067905888 0.16790245 -0.22327733
-0.067660995 0.16789933 -0.223351
-0.068631001 0.16815899 -0.2234
-0.068504252 0.16811499 -0.223391
-0.068296 0.1681015 -0.223351
-0.068125837 0.16812484 -0.22329266
-0.067899108 0.16810822 -0.22325367
-0.067654833 0.16810352 -0.22331201
-0.068626337 0.16829699 -0.223381
-0.068499997 0.16829726 -0.2233775
-0.06829083 0.16827166 -0.22332083
-0.068110995 0.168318 -0.22327399
-0.067891449 0.16831623 -0.22324099
-0.067699336 0.16831468 -0.22328234
-0.067595668 0.16830735 -0.22330433
-0.068629995 0.16852476 -0.2233775
-0.068493113 0.16849756 -0.22337501
-0.068282999 0.16848052 -0.22331114
-0.068121396 0.16848521 -0.2232666
-0.067926325 0.16852485 -0.22322567
-0.06769333 0.16851835 -0.22324334
-0.067528404 0.16853419 -0.22332799
-0.068622246 0.168734 -0.223373
-0.06848567 0.16870479 -0.22335911
-0.06827566 0.16868782 -0.2232995
-0.068106994 0.16867684 -0.223239
-0.067920499 0.16869751 -0.22320801
-0.067688495 0.168688 -0.223205
-0.0675226 0.16873661 -0.223285
-0.068622798 0.16891238 -0.22337019
-0.068501852 0.16890271 -0.22333714
-0.068302251 0.16890351 -0.22327188
-0.068121001 0.16886824 -0.223233
-0.067430668 0.16892634 -0.22324334
-0.067342497 0.1689045 -0.22337
-0.087637 0.16916001 -0.2233865
-0.087586999 0.16912167 -0.22338499
-0.087146997 0.16916899 -0.223387
-0.068677001 0.16912 -0.223391
-0.068531752 0.16911662 -0.22333987
-0.06830623 0.16910401 -0.22326258
-0.068133675 0.16909432 -0.22321534
-0.067421004 0.16910949 -0.22330201
-0.067336671 0.16907801 -0.22335966
-0.087649807 0.1693178 -0.2233624
-0.087581001 0.169324 -0.22334367
-0.087143332 0.16930234 -0.22335066
-0.086944252 0.16931298 -0.22337174
-0.068678245 0.16923076 -0.2233915
-0.068531252 0.16930036 -0.22333813
-0.068298668 0.169312 -0.22324777
-0.067414336 0.169284 -0.22330166
-0.067328997 0.16928768 -0.22335066
-0.087839 0.16952351 -0.2233825
-0.087697744 0.16949117 -0.22335142
-0.087574996 0.16952634 -0.22330134
-0.087138332 0.169502 -0.22329266
-0.086918332 0.16949517 -0.2233185
-0.086756006 0.1695192 -0.22337921
-0.068645999 0.16953868 -0.22338933
-0.06853275 0.1694835 -0.223333
-0.068302371 0.16951185 -0.22324301
-0.067442998 0.169507 -0.223269
-0.067319334 0.16950101 -0.22337766
-0.087872334 0.16969867 -0.22337484
-0.087698266 0.1696848 -0.2233219
-0.087568998 0.169728 -0.223258
-0.087133341 0.16970168 -0.22323
-0.086913668 0.16969334 -0.22325468
-0.086728007 0.1696921 -0.22333744
-0.069581002 0.169746 -0.223388
-0.068673223 0.16970354 -0.22338854
-0.068517551 0.1696839 -0.22332832
-0.068318203 0.16971619 -0.2232428
-0.067402005 0.169662 -0.2232575
-0.067335248 0.16971825 -0.22330201
-0.08786466 0.16990601 -0.22336499
-0.087685496 0.16988182 -0.22329016
-0.087563999 0.169898 -0.22323
-0.086894996 0.16984999 -0.22322066
-0.086723439 0.16989011 -0.22326857
-0.086505331 0.16988967 -0.22334234
-0.069802999 0.169972 -0.2234
-0.069700606 0.16990599 -0.22338399
-0.06957867 0.169879 -0.22334166
-0.069287002 0.1699208 -0.22336559
-0.069100998 0.16995199 -0.22336434
-0.068944998 0.16999499 -0.22337499
-0.068659499 0.16992 -0.22337775
-0.068509884 0.16989143 -0.22331834
-0.068343997 0.16987351 -0.22324975
-0.067328706 0.16992101 -0.22330745
-0.087857164 0.17011249 -0.22335465
-0.087678075 0.17008758 -0.22327717
-0.087557666 0.17006965 -0.22322434
-0.086666003 0.170019 -0.223216
-0.086505502 0.170046 -0.22322351
-0.069802001 0.170039 -0.22337499
-0.069724746 0.17010711 -0.22334388
-0.069573 0.17008202 -0.22329867
-0.069299661 0.17010267 -0.2233095
-0.069074713 0.170112 -0.22332229
-0.068898499 0.17012782 -0.22334099
-0.068689004 0.1701176 -0.22334231
-0.068503335 0.17009744 -0.2232919
-0.068359002 0.17008233 -0.22323966
-0.067320429 0.17011401 -0.22332272
-0.087850161 0.17031866 -0.22333749
-0.08767572 0.17029281 -0.22329499
-0.087575503 0.170278 -0.22321549
-0.086140499 0.1703335 -0.223378
-0.069991671 0.17031999 -0.223354
-0.069729 0.17029779 -0.22327521
-0.069568001 0.17028166 -0.22323465
-0.069313399 0.17027979 -0.22323342
-0.069077499 0.17032616 -0.22322799
-0.068895496 0.17032249 -0.22324501
-0.068684496 0.17031634 -0.22327442
-0.068490505 0.1702906 -0.22324775
-0.068351336 0.17028999 -0.22322901
-0.067624003 0.170332 -0.22321901
-0.067521334 0.170323 -0.22322166
-0.067372501 0.17030451 -0.223343
-0.087834798 0.17051199 -0.22333498
-0.0876849 0.17050833 -0.22328933
-0.087593667 0.17048733 -0.22321267
-0.086103 0.17050961 -0.2233094
-0.085960001 0.170569 -0.223381
-0.071499802 0.17055839 -0.22337639
-0.071261495 0.17055325 -0.22337425
-0.071115002 0.170581 -0.223362
-0.070510499 0.17055699 -0.22339199
-0.070334002 0.170551 -0.223398
-0.069986999 0.17051899 -0.22328667
-0.069734283 0.17047887 -0.22321701
-0.069026001 0.170462 -0.223205
-0.068848997 0.170454 -0.223203
-0.06871061 0.1704758 -0.22321002
-0.068430498 0.17046499 -0.22321051
-0.068347 0.17042799 -0.223216
-0.06761767 0.17047501 -0.22323799
-0.067511499 0.17050651 -0.22327849
-0.067364499 0.170453 -0.223388
-0.087874673 0.17067367 -0.22337367
-0.087698728 0.17071217 -0.22329155
-0.087589003 0.170625 -0.223204
-0.086069003 0.17067575 -0.2232475
-0.085915402 0.17070881 -0.22331779
-0.073271997 0.17072199 -0.22337398
-0.073114999 0.17074101 -0.22336701
-0.072867334 0.170756 -0.22336768
-0.072711997 0.17077401 -0.2233735
-0.072503999 0.17078249 -0.2233735
-0.072079003 0.17077 -0.223382
-0.071930498 0.17076549 -0.2233855
-0.071727335 0.17068298 -0.22335933
-0.071516693 0.1707131 -0.22328719
-0.071259335 0.17071484 -0.22329283
-0.071113326 0.17070867 -0.22328599
-0.070690997 0.17069767 -0.22332734
-0.070535451 0.17068487 -0.22331211
-0.070332326 0.17067833 -0.22332866
-0.069982998 0.17068601 -0.22323701
-0.067890003 0.170762 -0.223207
-0.067679569 0.17069958 -0.22325042
-0.067501001 0.17069133 -0.22334267
-0.087867998 0.170816 -0.223396
-0.087697543 0.1709033 -0.22329907
-0.087560661 0.170902 -0.22320366
-0.085874751 0.17087701 -0.22326949
-0.08565525 0.17090349 -0.22335626
-0.085505001 0.17093059 -0.2233676
-0.085248001 0.170947 -0.223386
-0.085077003 0.17094401 -0.223388
-0.077201001 0.170994 -0.223377
-0.077071503 0.170993 -0.223378
-0.076886505 0.1709855 -0.22338301
-0.076756001 0.170977 -0.223377
-0.076541997 0.17096201 -0.223373
-0.075480193 0.1709578 -0.22337401
-0.075302251 0.1709445 -0.22336102
-0.0750615 0.1709315 -0.2233505
-0.074663334 0.17095234 -0.22337
-0.074502498 0.17094299 -0.2233645
-0.074299 0.170939 -0.223396
-0.074037999 0.170993 -0.223359
-0.073842496 0.17095801 -0.22337949
-0.073691502 0.17091763 -0.22335102
-0.073287666 0.17087401 -0.22327754
-0.0731306 0.17091899 -0.22325119
-0.072896168 0.17089383 -0.22327234
-0.072696887 0.17091466 -0.22327521
-0.072503164 0.17090966 -0.22329307
-0.072077334 0.17089665 -0.22330801
-0.071929172 0.17089318 -0.22331135
-0.071724676 0.17087699 -0.22325633
-0.071548 0.17088266 -0.22322333
-0.071257502 0.1708425 -0.223223
-0.070688501 0.1708575 -0.2232385
-0.070533201 0.1708378 -0.223225
-0.070331 0.170803 -0.223242
-0.068061002 0.17097899 -0.22320201
-0.067932002 0.17090452 -0.22321267
-0.067743666 0.17090534 -0.22327198
-0.067596003 0.17087799 -0.22335801
-0.087693639 0.17109527 -0.22331391
-0.087537803 0.17112438 -0.22321579
-0.085843995 0.171057 -0.223212
-0.08564651 0.17107987 -0.223263
-0.085489228 0.17108445 -0.22329643
-0.085246004 0.17107566 -0.22332032
-0.085074998 0.17107134 -0.22332267
-0.084918141 0.17109029 -0.22336087
-0.084699661 0.1711251 -0.22337386
-0.084498502 0.171158 -0.2233765
-0.077112108 0.17112488 -0.22332613
-0.076885007 0.171113 -0.22330968
-0.076691106 0.17110699 -0.22333357
-0.076517217 0.17109489 -0.22332877
-0.076311499 0.171097 -0.22335683
-0.076095335 0.17111667 -0.22335218
-0.075908005 0.171114 -0.223382
-0.075496338 0.17111388 -0.22329845
-0.075300336 0.17110367 -0.22326833
-0.075059675 0.17109267 -0.22326434
-0.074661776 0.17108023 -0.22329956
-0.074493147 0.17108786 -0.22328444
-0.074296497 0.17110001 -0.2233095
-0.074036665 0.17112233 -0.22329234
-0.07384067 0.17111735 -0.22328401
-0.073700994 0.17109336 -0.22324775
-0.073370002 0.171011 -0.22323699
-0.072656997 0.17106467 -0.22321267
-0.072490998 0.17103767 -0.223225
-0.072073504 0.1710615 -0.223251
-0.071975999 0.171021 -0.22323599
-0.068318501 0.17116 -0.22320899
-0.068098001 0.17112249 -0.22322266
-0.067921825 0.17111999 -0.22324686
-0.067747332 0.171077 -0.22331633
-0.087680876 0.17127414 -0.2233405
-0.087543428 0.17132558 -0.22324899
-0.085649997 0.17122 -0.22321001
-0.085483499 0.17122699 -0.22321075
-0.085243501 0.1712375 -0.22324601
-0.085070997 0.17126966 -0.22325401
-0.084922493 0.17129867 -0.22326583
-0.084707998 0.1712981 -0.22331372
-0.084546663 0.17132501 -0.22332101
-0.084261 0.171395 -0.223381
-0.084164001 0.171388 -0.223389
-0.077654496 0.1713665 -0.22338951
-0.077365331 0.17127633 -0.22334833
-0.077108666 0.17131934 -0.22323921
-0.076890208 0.17129579 -0.22323461
-0.07668113 0.17129087 -0.22323476
-0.076511249 0.17128138 -0.22324625
-0.076308332 0.17129117 -0.223267
-0.076092668 0.17127767 -0.22327155
-0.075906001 0.17127268 -0.22329366
-0.075496793 0.1712694 -0.22322878
-0.075298503 0.171233 -0.2232075
-0.075057 0.171221 -0.223204
-0.07464575 0.17122374 -0.223224
-0.074516006 0.17124432 -0.22321767
-0.074294999 0.171259 -0.223214
-0.074033 0.17128751 -0.223231
-0.07384 0.171242 -0.22320101
-0.073760003 0.17123701 -0.22320101
-0.068328202 0.17130819 -0.22321323
-0.068089999 0.1713005 -0.22324425
-0.067911752 0.1713035 -0.22330326
-0.067763999 0.171239 -0.22338101
-0.087668665 0.17149515 -0.22336733
-0.087554574 0.17149372 -0.22329757
-0.084937334 0.17144267 -0.22321767
-0.084715553 0.17150623 -0.22324011
-0.084532604 0.1715066 -0.2232486
-0.084259667 0.17152333 -0.22331767
-0.084125206 0.17153299 -0.22335601
-0.083894998 0.17158499 -0.223391
-0.078059003 0.17159501 -0.22338501
-0.077919997 0.1715505 -0.22336873
-0.077707745 0.17149276 -0.22333676
-0.077600002 0.17155901 -0.223313
-0.077360667 0.17147399 -0.22328334
-0.077014998 0.171453 -0.22321001
-0.076627001 0.17142899 -0.223207
-0.076499499 0.1714225 -0.223206
-0.076306 0.17142001 -0.223204
-0.076061331 0.17143066 -0.22322267
-0.075905003 0.17140099 -0.22321901
-0.068303004 0.17147721 -0.22322734
-0.068081498 0.17148034 -0.22327417
-0.067953497 0.1714495 -0.223325
-0.087638997 0.171639 -0.223397
-0.087533742 0.17167675 -0.22332136
-0.084853999 0.171736 -0.223204
-0.084702335 0.17170034 -0.22322465
-0.084525406 0.17171159 -0.22323139
-0.084253997 0.17172234 -0.22326533
-0.084113501 0.17171283 -0.22327115
-0.08389201 0.17171599 -0.22334267
-0.083505005 0.17173651 -0.223389
-0.082243003 0.171785 -0.223386
-0.081485003 0.17174999 -0.22339401
-0.080928005 0.17172833 -0.223396
-0.080455795 0.17174521 -0.22338942
-0.078056 0.17169699 -0.2233665
-0.077913828 0.17172085 -0.223351
-0.077737503 0.17170365 -0.22327983
-0.077596664 0.17169267 -0.22327702
-0.077356666 0.17167033 -0.22320901
-0.068605997 0.17177001 -0.22320101
-0.068472996 0.171763 -0.22321349
-0.068305001 0.17168288 -0.22325313
-0.068141006 0.17170501 -0.22336166
-0.087499 0.17185165 -0.22336601
-0.087045997 0.171955 -0.22321799
-0.085046001 0.171955 -0.223208
-0.084889799 0.1718974 -0.2232372
-0.084694318 0.17187823 -0.22325134
-0.084538601 0.1718826 -0.2232482
-0.084246501 0.1718995 -0.223286
-0.084104747 0.17189275 -0.22330825
-0.083882995 0.17192733 -0.22336434
-0.083501004 0.17184301 -0.22339299
-0.082437001 0.17189899 -0.223398
-0.082239002 0.17188999 -0.22338951
-0.082149997 0.171886 -0.223396
-0.081467248 0.17186823 -0.22338325
-0.081202 0.171874 -0.223395
-0.081006996 0.171939 -0.223398
-0.080672003 0.171992 -0.223398
-0.080506139 0.17192359 -0.22338544
-0.080398999 0.17184301 -0.22339401
-0.078047998 0.171875 -0.22338933
-0.077897601 0.17191221 -0.22333018
-0.077729501 0.17191166 -0.2232765
-0.07758867 0.171902 -0.22327866
-0.077348672 0.17187899 -0.22320999
-0.068921 0.171996 -0.223204
-0.068684995 0.17193902 -0.22324574
-0.06850557 0.17188799 -0.22328158
-0.068340331 0.17187367 -0.22335167
-0.087037504 0.17210349 -0.223281
-0.086862676 0.172122 -0.223234
-0.086687803 0.1721494 -0.223223
-0.085612997 0.17219 -0.223203
-0.085458003 0.17218301 -0.223206
-0.085266002 0.17215233 -0.22323935
-0.085037671 0.17210466 -0.22326966
-0.084890001 0.17210215 -0.22329651
-0.084682561 0.17209767 -0.22331977
-0.084517173 0.17208867 -0.22331966
-0.084235668 0.17208467 -0.22335333
-0.084104799 0.17206021 -0.223352
-0.080518998 0.17205299 -0.22337499
-0.077898748 0.17207424 -0.22337899
-0.077720501 0.17209275 -0.2233215
-0.077578671 0.172116 -0.22330968
-0.077339664 0.17209166 -0.22322933
-0.0765725 0.172194 -0.223214
-0.076389998 0.172186 -0.223207
-0.076104 0.1721755 -0.223214
-0.075924002 0.17217049 -0.22322801
-0.069309004 0.172153 -0.223215
-0.069096245 0.17211324 -0.22325601
-0.068911247 0.17211899 -0.2233115
-0.068719603 0.17208959 -0.22331861
-0.068534002 0.17200767 -0.22338332
-0.087027997 0.172226 -0.223389
-0.086851999 0.172278 -0.223332
-0.086692668 0.17229782 -0.22331367
-0.0864788 0.172299 -0.2232722
-0.086067498 0.1723325 -0.223281
-0.085940003 0.17232449 -0.2232655
-0.085684329 0.17230934 -0.22326584
-0.085501336 0.17230384 -0.22329549
-0.0853725 0.1723015 -0.223334
-0.085084997 0.172279 -0.22332866
-0.084880002 0.1722545 -0.223372
-0.084673673 0.17224801 -0.22338367
-0.084456325 0.17229533 -0.22333233
-0.077699669 0.17222834 -0.22336601
-0.077569999 0.17226601 -0.223372
-0.077326 0.17231636 -0.22332633
-0.077133 0.1723045 -0.22329649
-0.07689967 0.1723005 -0.22330952
-0.076705508 0.17229724 -0.22329463
-0.076540671 0.17231034 -0.22329168
-0.076305829 0.17230399 -0.22328667
-0.076095499 0.17229225 -0.22328976
-0.075916499 0.17228499 -0.22329199
-0.0755006 0.1723104 -0.22327819
-0.075293146 0.17231141 -0.22327842
-0.075011998 0.1723125 -0.223268
-0.074645504 0.17229101 -0.22324276
-0.074534252 0.1723225 -0.22324799
-0.074320503 0.1723925 -0.223316
-0.073992506 0.1723305 -0.223222
-0.073720336 0.17235868 -0.22323434
-0.072871 0.17238399 -0.22320101
-0.070421003 0.17234001 -0.223223
-0.070272997 0.172336 -0.223215
-0.069669329 0.172296 -0.22323866
-0.069541499 0.17227951 -0.22326699
-0.069302 0.172236 -0.223295
-0.0691 0.17225933 -0.22335367
-0.068856999 0.17226699 -0.2233665
-0.068773001 0.172225 -0.223354
-0.086648002 0.17240849 -0.223378
-0.086057998 0.172455 -0.223381
-0.085886002 0.17244799 -0.223399
-0.085735999 0.17245901 -0.22337566
-0.085561 0.17244667 -0.223369
-0.085365504 0.17244551 -0.2233665
-0.077142999 0.17246 -0.22338501
-0.076485001 0.172428 -0.223378
-0.076319665 0.17244667 -0.22337432
-0.076130502 0.172438 -0.22331199
-0.075924329 0.17242567 -0.22335899
-0.075429 0.172436 -0.223297
-0.075006001 0.17242301 -0.22330099
-0.074638002 0.17240551 -0.22330001
-0.074553996 0.17240299 -0.22330301
-0.073713996 0.17244034 -0.22330232
-0.073558003 0.172417 -0.22322799
-0.073268659 0.17248033 -0.22328182
-0.073094502 0.17250299 -0.22325599
-0.072861999 0.172506 -0.223299
-0.072686203 0.17247601 -0.2232542
-0.072502576 0.17250501 -0.22328445
-0.072355002 0.1724675 -0.223252
-0.072016999 0.17249399 -0.22326399
-0.071870498 0.17248601 -0.22324151
-0.071659997 0.17254999 -0.22325601
-0.073132999 0.17261501 -0.22327501
-0.067802995 0.16848001 -0.22319201
-0.067799002 0.16858301 -0.223185
-0.067868002 0.168797 -0.22319099
-0.067767501 0.16873825 -0.22317651
-0.068057999 0.16891199 -0.2231895
-0.067914501 0.16890033 -0.2231655
-0.067734666 0.168926 -0.22315384
-0.067578003 0.16891767 -0.22317566
-0.068052329 0.16908532 -0.22317934
-0.067917801 0.1690878 -0.22315121
-0.067727998 0.16910051 -0.2231535
-0.067569338 0.16912766 -0.22318667
-0.06808567 0.16929619 -0.22317632
-0.067901336 0.16927965 -0.22313333
-0.067721002 0.16927551 -0.22315334
-0.067564502 0.1692985 -0.223157
-0.068203002 0.16958 -0.22319099
-0.068078332 0.16950385 -0.22316699
-0.067893662 0.16948782 -0.22312333
-0.067713164 0.16948467 -0.22314917
-0.067557499 0.169442 -0.22318
-0.06811244 0.16971588 -0.22317454
-0.067884669 0.16970001 -0.22314084
-0.067705669 0.16969199 -0.22313716
-0.067548007 0.16968668 -0.22317767
-0.087127663 0.16990133 -0.22318234
-0.086921997 0.16993767 -0.22318
-0.068274997 0.16993099 -0.223198
-0.068104893 0.16992389 -0.22316265
-0.067876503 0.16990934 -0.2231385
-0.067697994 0.16990083 -0.22313149
-0.067539997 0.16989534 -0.22317266
-0.087122001 0.17010398 -0.22314067
-0.086903833 0.17009167 -0.22313882
-0.086728871 0.17008664 -0.22313701
-0.086503997 0.17014 -0.223168
-0.068270005 0.17007001 -0.22319366
-0.068085998 0.17011157 -0.22315215
-0.067869663 0.17011599 -0.22311616
-0.06768816 0.17011447 -0.22315884
-0.067532003 0.170105 -0.22317301
-0.087549999 0.1703075 -0.22319099
-0.087115325 0.17030668 -0.22310799
-0.086897336 0.170295 -0.22310515
-0.086715117 0.17028366 -0.22312011
-0.086502336 0.170269 -0.22309999
-0.06921 0.170389 -0.22317401
-0.068554997 0.170366 -0.223193
-0.068262003 0.17027932 -0.22319134
-0.068101875 0.17028175 -0.22316037
-0.067851402 0.17031261 -0.22312422
-0.067706749 0.17030948 -0.22316775
-0.087543003 0.17048033 -0.22319101
-0.087108336 0.17051201 -0.22308767
-0.086891331 0.17049734 -0.22306782
-0.086710222 0.1704829 -0.22306156
-0.086495005 0.17047466 -0.22308366
-0.069689497 0.170561 -0.223188
-0.069563001 0.17048101 -0.22317199
-0.06929183 0.17049666 -0.22315247
-0.069082201 0.1705382 -0.22315481
-0.068898797 0.17053621 -0.22318001
-0.068683401 0.17054039 -0.22319081
-0.068529665 0.17051712 -0.22318046
-0.068291202 0.1705012 -0.2231698
-0.068094127 0.17047462 -0.22316362
-0.067885995 0.17049499 -0.22314835
-0.067724496 0.170507 -0.22319001
-0.087555595 0.17070299 -0.2231842
-0.087101005 0.17071867 -0.22307467
-0.08688467 0.17070049 -0.22303748
-0.086703897 0.17068499 -0.22302845
-0.086489342 0.17067599 -0.22304201
-0.086136997 0.1707145 -0.223149
-0.069981001 0.170783 -0.223195
-0.069718778 0.17069823 -0.22316132
-0.069557332 0.17068334 -0.22312766
-0.069303595 0.1706796 -0.22311282
-0.069086 0.17073643 -0.22310928
-0.06888517 0.17072366 -0.223134
-0.068701781 0.1707179 -0.22315532
-0.068513006 0.17070568 -0.22314884
-0.068292834 0.17069782 -0.223168
-0.068116836 0.17069532 -0.22317217
-0.067951992 0.17067559 -0.22317679
-0.067796007 0.17064801 -0.22318199
-0.087544329 0.17089833 -0.223188
-0.087092996 0.17092501 -0.22307168
-0.086877339 0.17090583 -0.22301984
-0.086696878 0.17089161 -0.22301385
-0.086482339 0.17088 -0.22301634
-0.086088665 0.17088182 -0.22311985
-0.085956499 0.17091799 -0.22316849
-0.072837003 0.170982 -0.22319899
-0.071486168 0.17093968 -0.22317916
-0.07125625 0.17093951 -0.22317076
-0.071111672 0.17089833 -0.223168
-0.070688002 0.17095301 -0.22318301
-0.070533 0.17092501 -0.223176
-0.070330001 0.17093165 -0.22316734
-0.069979668 0.17091066 -0.223121
-0.069713898 0.17089778 -0.22310035
-0.069552332 0.170883 -0.22306699
-0.069366001 0.17087199 -0.223067
-0.069106549 0.17092633 -0.22305189
-0.068880171 0.17092317 -0.22307698
-0.068695337 0.17092222 -0.22312713
-0.068505667 0.1709125 -0.22313549
-0.068283334 0.17091049 -0.22319017
-0.068117 0.170893 -0.22318821
-0.087572999 0.171041 -0.223198
-0.087086 0.1710995 -0.223077
-0.086868845 0.17111583 -0.22303332
-0.086687997 0.1711008 -0.22302444
-0.086476997 0.17102 -0.223021
-0.086081006 0.17108817 -0.22311032
-0.085923001 0.17110574 -0.22316027
-0.085703999 0.171149 -0.223189
-0.073609002 0.17115501 -0.22319099
-0.073313497 0.17110117 -0.2231655
-0.073154338 0.17112385 -0.2231345
-0.072878838 0.17111534 -0.2231425
-0.072712161 0.17112982 -0.22316383
-0.072504342 0.17112167 -0.22316998
-0.072072998 0.171157 -0.223197
-0.0719188 0.17109279 -0.22316781
-0.071721248 0.17110175 -0.2231445
-0.071503222 0.17111522 -0.2231058
-0.071254164 0.17109932 -0.22308517
-0.071107 0.171097 -0.22309934
-0.070686005 0.17108066 -0.22310834
-0.070523702 0.17108421 -0.2231133
-0.070326999 0.17112465 -0.22307201
-0.069973998 0.171112 -0.22306834
-0.069708891 0.17109834 -0.22304688
-0.069546998 0.17108333 -0.22301532
-0.069359004 0.17107899 -0.22305401
-0.069046602 0.1711176 -0.22302981
-0.068874165 0.17112549 -0.22303498
-0.0686955 0.17111889 -0.22310275
-0.068489455 0.17111808 -0.22315289
-0.068253249 0.17110075 -0.22318776
-0.087078668 0.171275 -0.22309066
-0.0868605 0.17132485 -0.22304016
-0.086679548 0.17130966 -0.22303002
-0.086073838 0.17129451 -0.22309451
-0.085890837 0.17129065 -0.22313465
-0.085679002 0.17129819 -0.2231752
-0.085530251 0.17130274 -0.22317588
-0.085242003 0.171333 -0.223193
-0.085068002 0.171399 -0.223195
-0.076835997 0.171369 -0.223194
-0.076750003 0.171367 -0.223196
-0.076536 0.17135 -0.22318999
-0.0754885 0.17135575 -0.22318649
-0.075295754 0.17133275 -0.22317575
-0.075055502 0.1713205 -0.22316501
-0.074669801 0.17131081 -0.223177
-0.074478336 0.17135035 -0.22316933
-0.074294001 0.1713535 -0.223153
-0.074033998 0.171376 -0.223132
-0.073838502 0.1713385 -0.2231515
-0.07367862 0.17130199 -0.22314562
-0.073324002 0.17129733 -0.22308402
-0.073150672 0.17131834 -0.22304751
-0.072874837 0.17131233 -0.2230655
-0.072690554 0.17130154 -0.22308768
-0.072498254 0.1712926 -0.22307985
-0.072071999 0.17128266 -0.22311167
-0.071924165 0.171277 -0.22310115
-0.071717672 0.17132668 -0.22303367
-0.071490712 0.17129186 -0.22303672
-0.071272746 0.17128299 -0.2230265
-0.071104005 0.17126051 -0.2230325
-0.07068067 0.17128134 -0.22305934
-0.070531748 0.17127849 -0.22304501
-0.070320666 0.17132767 -0.223037
-0.069968335 0.171314 -0.22303033
-0.069662668 0.171251 -0.223013
-0.069355004 0.171213 -0.22302
-0.068853669 0.17128666 -0.22303033
-0.068674289 0.17128813 -0.22311185
-0.068526857 0.17128727 -0.22315557
-0.068223998 0.171258 -0.22319999
-0.087069668 0.17148666 -0.22311068
-0.086852252 0.17150225 -0.22306424
-0.086670555 0.17152001 -0.22304688
-0.0864565 0.17153901 -0.2230155
-0.086067498 0.17149685 -0.2230625
-0.085887335 0.17148583 -0.22305667
-0.085669838 0.17148149 -0.22311015
-0.085510083 0.17147459 -0.22312193
-0.085238002 0.171468 -0.22317033
-0.085065499 0.17149949 -0.22317499
-0.08489833 0.171551 -0.22318833
-0.084648997 0.171588 -0.22319099
-0.084595002 0.171583 -0.223185
-0.07711488 0.17152612 -0.22317201
-0.076877497 0.17150366 -0.22314532
-0.076690368 0.17150761 -0.2231715
-0.076512285 0.17150442 -0.22315986
-0.076305248 0.17151549 -0.22314626
-0.076113142 0.17150815 -0.22315572
-0.075902663 0.17152934 -0.22315633
-0.075488105 0.17150688 -0.22314745
-0.075291507 0.17149915 -0.223131
-0.075051665 0.17148368 -0.22310434
-0.074681826 0.17147367 -0.22314334
-0.074529797 0.17149648 -0.22311959
-0.07429 0.17151801 -0.22309701
-0.074031003 0.171506 -0.22308867
-0.073835 0.17150199 -0.22308302
-0.073695123 0.17148063 -0.22306137
-0.073600002 0.171552 -0.223057
-0.073320001 0.17146274 -0.2230345
-0.073191002 0.171453 -0.22300901
-0.0728788 0.171499 -0.223013
-0.072678722 0.17148043 -0.22303143
-0.072512195 0.171437 -0.22302082
-0.072068334 0.17147768 -0.22303133
-0.071922496 0.1714035 -0.22302949
-0.070675001 0.17148368 -0.22301666
-0.070536338 0.17147167 -0.22300534
-0.070314005 0.1715 -0.22302949
-0.069635496 0.17153999 -0.223012
-0.069529995 0.171535 -0.22300601
-0.068906829 0.17147416 -0.22302417
-0.068674892 0.17147666 -0.22310311
-0.068512112 0.17147711 -0.2231621
-0.087058663 0.17170233 -0.22315998
-0.086852603 0.1716682 -0.2230992
-0.086681426 0.17170629 -0.22308601
-0.086449333 0.17171466 -0.22303267
-0.086061329 0.17169867 -0.22302566
-0.085934997 0.17162199 -0.22303
-0.085664667 0.17168015 -0.22305566
-0.085505329 0.17167251 -0.22306226
-0.085230999 0.171672 -0.22314467
-0.085058667 0.171672 -0.22317635
-0.084939003 0.17166975 -0.22318876
-0.077097446 0.17172122 -0.22314745
-0.076870166 0.17170916 -0.22312899
-0.076677889 0.17169943 -0.22312744
-0.076505214 0.17168278 -0.22309712
-0.076301835 0.17167814 -0.22308485
-0.076120399 0.1716806 -0.22309461
-0.075957999 0.17168 -0.22312419
-0.075481109 0.17171276 -0.22313142
-0.075284168 0.1717055 -0.22311616
-0.075043671 0.17169233 -0.22310166
-0.074676998 0.17167182 -0.223083
-0.074523114 0.17170501 -0.22305012
-0.074285001 0.171719 -0.22305299
-0.07402467 0.17170934 -0.22305299
-0.073830001 0.17170133 -0.22302967
-0.073719501 0.17169301 -0.22302151
-0.073596001 0.171685 -0.22302699
-0.070308663 0.171672 -0.22300799
-0.069676436 0.17174128 -0.22302715
-0.069522001 0.17171268 -0.22302432
-0.069335997 0.17170198 -0.223028
-0.069114208 0.1717048 -0.2230362
-0.068895996 0.17169 -0.22305945
-0.068671376 0.17168438 -0.22314587
-0.06851086 0.17167115 -0.22318499
-0.087052003 0.171846 -0.223189
-0.086874664 0.17190166 -0.22316301
-0.086705588 0.17187729 -0.22312889
-0.086518005 0.1719045 -0.22310625
-0.086051829 0.17191066 -0.22305083
-0.085881598 0.1719134 -0.22303982
-0.085657828 0.171884 -0.22302999
-0.085509554 0.17187943 -0.2230511
-0.085293397 0.17189398 -0.22312701
-0.085051499 0.171849 -0.2231905
-0.084959999 0.171813 -0.22319899
-0.077107593 0.17189221 -0.22316758
-0.076895624 0.17193086 -0.22314174
-0.076670781 0.17190456 -0.22310887
-0.076497667 0.17189045 -0.22308932
-0.076292664 0.17188983 -0.22310235
-0.076120831 0.171876 -0.22309349
-0.075940832 0.17187317 -0.22311933
-0.075511493 0.17192233 -0.223132
-0.075315334 0.17191765 -0.22313078
-0.075036339 0.17189968 -0.22309066
-0.074669503 0.171878 -0.22307016
-0.07452558 0.17188986 -0.22305843
-0.074277006 0.17192532 -0.22303867
-0.074017003 0.17191799 -0.22305201
-0.07382267 0.17190801 -0.223014
-0.073711328 0.171902 -0.22302417
-0.073588669 0.17189167 -0.22301368
-0.070656002 0.17197099 -0.223013
-0.070551999 0.171964 -0.22301801
-0.070300505 0.1718805 -0.22300451
-0.069946006 0.171904 -0.22301599
-0.069677167 0.17190067 -0.223051
-0.069514006 0.171892 -0.22305551
-0.069325 0.17192034 -0.22308366
-0.069111332 0.17191184 -0.223104
-0.06893 0.171876 -0.223116
-0.068736002 0.17186661 -0.22315541
-0.086727247 0.17205051 -0.2231755
-0.086508334 0.17208584 -0.22315717
-0.086057007 0.17208166 -0.223103
-0.085873671 0.17211084 -0.22312935
-0.085649595 0.17209619 -0.22313718
-0.085523494 0.17209426 -0.22313638
-0.085331671 0.172051 -0.22316933
-0.077127837 0.17207383 -0.22316599
-0.076901004 0.17209584 -0.22313733
-0.076660663 0.17208934 -0.22316985
-0.076527402 0.172096 -0.2231504
-0.076309994 0.17210001 -0.22316135
-0.076111004 0.172061 -0.22315575
-0.075932756 0.17205051 -0.2231435
-0.0755025 0.17210326 -0.22316951
-0.075306498 0.17209785 -0.22316617
-0.075025328 0.17211801 -0.22315033
-0.074657664 0.17209832 -0.22313684
-0.074505545 0.17208669 -0.22310822
-0.074266493 0.17211249 -0.22311249
-0.074008003 0.1720985 -0.22308901
-0.073812 0.17212367 -0.22306001
-0.073700838 0.17211866 -0.22306448
-0.073578 0.17210799 -0.223056
-0.073303394 0.17210379 -0.22303601
-0.073105998 0.17212534 -0.22302735
-0.072708331 0.17215334 -0.22302334
-0.072522998 0.1721925 -0.22302949
-0.072376996 0.17218401 -0.223021
-0.071069002 0.172194 -0.223001
-0.070648335 0.17211767 -0.22305368
-0.070499875 0.17211249 -0.22303462
-0.070289664 0.17209834 -0.22305967
-0.069936 0.172089 -0.223076
-0.06966722 0.17208545 -0.22311367
-0.069503002 0.17207901 -0.22312801
-0.069316 0.17207099 -0.223151
-0.086078003 0.172208 -0.22316299
-0.085949004 0.17220449 -0.22317201
-0.077081002 0.172216 -0.223177
-0.076986998 0.172212 -0.22317199
-0.075443998 0.172206 -0.223171
-0.075301006 0.172205 -0.22318849
-0.074442334 0.17225833 -0.22318201
-0.074257001 0.1722635 -0.223185
-0.073900998 0.17224601 -0.2231535
-0.073691502 0.17227051 -0.223138
-0.073566496 0.17229751 -0.22314399
-0.073286504 0.17227025 -0.22307575
-0.073107995 0.17230801 -0.22313349
-0.072882503 0.17225701 -0.22307399
-0.072724372 0.17229187 -0.22309375
-0.072514623 0.17231026 -0.22310889
-0.072366998 0.17230651 -0.223124
-0.072035499 0.1722835 -0.22305599
-0.071886249 0.1723135 -0.22304974
-0.071677327 0.17231001 -0.22307734
-0.071498603 0.1723022 -0.2230192
-0.071303003 0.17232366 -0.22301801
-0.07111375 0.17230575 -0.2230335
-0.070636496 0.1723085 -0.22315499
