# .PCD v0.7 - Point Cloud Data file format
VERSION 0.7
FIELDS x y z
SIZE 4 4 4
TYPE F F F
COUNT 1 1 1
WIDTH 1458
HEIGHT 1
VIEWPOINT 0 0 0 1 0 0 0
POINTS 1458
DATA ascii
-0.068807997 0.16922601 -0.223432
-0.068805002 0.16929799 -0.22343899
-0.068801999 0.169368 -0.22343899
-0.068798997 0.169438 -0.223445
-0.068796001 0.169508 -0.223452
-0.068793997 0.169578 -0.22344001
-0.068792 0.169645 -0.22342201
-0.068790004 0.169715 -0.223423
-0.068787001 0.16978499 -0.223425
-0.068784997 0.169853 -0.223417
-0.068782002 0.16992299 -0.223408
-0.068779998 0.169991 -0.22340401
-0.068778001 0.17005999 -0.22339199
-0.068777002 0.17012601 -0.223363
-0.068775997 0.170191 -0.223331
-0.068774 0.170256 -0.223316
-0.068772003 0.170324 -0.223288
-0.068772003 0.170387 -0.223253
-0.068770997 0.170452 -0.223221
-0.068769 0.17051999 -0.223205
-0.068767004 0.17058501 -0.223186
-0.068765998 0.170653 -0.22316401
-0.068763003 0.17072099 -0.223153
-0.068760999 0.170788 -0.223143
-0.06876 0.170854 -0.223121
-0.068758003 0.170921 -0.22309799
-0.068756998 0.170987 -0.22307999
-0.068755001 0.17105401 -0.223065
-0.068751998 0.171124 -0.223059
-0.068750001 0.17119201 -0.223057
-0.068746999 0.171262 -0.223058
-0.068743996 0.171332 -0.223058
-0.068742 0.17140201 -0.223052
-0.068737999 0.17147399 -0.223066
-0.068733998 0.17154901 -0.223097
-0.068729997 0.17162099 -0.22311699
-0.068727002 0.171694 -0.22312699
-0.068723999 0.171762 -0.22312699
-0.068720996 0.17183401 -0.223132
-0.068715997 0.171913 -0.223184
-0.068708003 0.171997 -0.223268
-0.068704002 0.17207099 -0.223294
-0.068700999 0.172143 -0.22331201
-0.070161998 0.13198601 -0.22396401
-0.070161 0.132061 -0.22392
-0.070161998 0.132139 -0.223831
-0.070162997 0.132221 -0.22373299
-0.070161998 0.132294 -0.223695
-0.070161998 0.132369 -0.223647
-0.070161998 0.13244499 -0.22357699
-0.070161 0.13251901 -0.223544
-0.070159003 0.13259 -0.223528
-0.070156999 0.132662 -0.223506
-0.070156001 0.132735 -0.223471
-0.070155002 0.13281 -0.223423
-0.070155002 0.132883 -0.223377
-0.070152998 0.132956 -0.223349
-0.070151001 0.133026 -0.223342
-0.070147999 0.13309599 -0.223334
-0.070146002 0.133167 -0.22332001
-0.070143998 0.133237 -0.223309
-0.070142001 0.133307 -0.223299
-0.070138998 0.133377 -0.223297
-0.070136003 0.13344499 -0.2233
-0.070133999 0.133514 -0.223288
-0.070132002 0.13358399 -0.22328199
-0.070129 0.133652 -0.223288
-0.070125997 0.13372 -0.223297
-0.070122004 0.133789 -0.223313
-0.070119001 0.133857 -0.22332899
-0.070115 0.13392401 -0.223352
-0.070111997 0.13399 -0.223372
-0.070109002 0.134058 -0.223379
-0.070106 0.13412599 -0.223387
-0.070101999 0.134195 -0.223399
-0.070100002 0.13426299 -0.22340401
-0.070096001 0.134331 -0.223414
-0.070092998 0.134399 -0.223436
-0.070088997 0.13446601 -0.223453
-0.070086002 0.134534 -0.223463
-0.070083 0.134602 -0.223481
-0.070079997 0.13467 -0.223492
-0.070077002 0.134738 -0.22349399
-0.070073999 0.134808 -0.223496
-0.070070997 0.134875 -0.223515
-0.070067003 0.134941 -0.22353899
-0.070063002 0.13501 -0.223557
-0.07006 0.135078 -0.22356801
-0.070056997 0.13514601 -0.22357
-0.070054002 0.135214 -0.22358599
-0.070050001 0.135281 -0.22361501
-0.070046999 0.13534901 -0.223629
-0.070044003 0.135419 -0.223629
-0.070041001 0.13548701 -0.223638
-0.070037 0.135556 -0.223654
-0.070033997 0.13562199 -0.22367001
-0.070029996 0.13569 -0.223691
-0.070027001 0.135759 -0.223709
-0.070023999 0.13582499 -0.223726
-0.070019998 0.135894 -0.223746
-0.070015997 0.13596199 -0.223764
-0.070013002 0.13602801 -0.223781
-0.070009999 0.136098 -0.22378699
-0.070006996 0.13616601 -0.223791
-0.070004001 0.136237 -0.22379801
-0.070000999 0.136305 -0.22380801
-0.069998004 0.136373 -0.22382399
-0.069994003 0.13644101 -0.223837
-0.069991 0.13651 -0.22385301
-0.069987997 0.13657799 -0.223867
-0.069985002 0.136646 -0.22387201
-0.069982 0.13671599 -0.223874
-0.069978997 0.136784 -0.22388799
-0.069975004 0.13685299 -0.223906
-0.069972001 0.136921 -0.223915
-0.069968998 0.13699099 -0.223919
-0.069966003 0.137059 -0.223921
-0.069963001 0.13712899 -0.223928
-0.069959998 0.137197 -0.22394399
-0.069957003 0.137266 -0.223956
-0.069953002 0.137334 -0.223979
-0.069949999 0.1374 -0.223993
-0.069946997 0.137472 -0.22399101
-0.069944002 0.13754 -0.223988
-0.069940999 0.13761 -0.223998
-0.069939002 0.137678 -0.223998
-0.069936 0.137748 -0.223993
-0.069932997 0.13781901 -0.22400901
-0.069929004 0.137885 -0.224031
-0.069926001 0.137955 -0.22403599
-0.069922999 0.138025 -0.224032
-0.069921002 0.13809501 -0.22402599
-0.069917999 0.138165 -0.22402699
-0.069914997 0.13823301 -0.224033
-0.069912001 0.138301 -0.22404499
-0.069908999 0.13837101 -0.224052
-0.069907002 0.138441 -0.224042
-0.069904998 0.138511 -0.224032
-0.069900997 0.138579 -0.22404701
-0.069898002 0.138649 -0.224059
-0.069894999 0.138717 -0.224059
-0.069893003 0.138789 -0.22405
-0.069890998 0.138859 -0.22404
-0.069889002 0.138928 -0.22402599
-0.069885999 0.138998 -0.224022
-0.069882996 0.13906799 -0.224031
-0.069880001 0.139137 -0.224043
-0.069876999 0.13920701 -0.224049
-0.069874004 0.139275 -0.224044
-0.069871999 0.13934501 -0.224044
-0.069868997 0.139415 -0.22404601
-0.069866002 0.139485 -0.22404499
-0.069863997 0.13955399 -0.224039
-0.069862001 0.139626 -0.224013
-0.069861002 0.139697 -0.223986
-0.069858 0.13976499 -0.223994
-0.069854997 0.139833 -0.22400001
-0.069852002 0.13990299 -0.224003
-0.069848999 0.139973 -0.224007
-0.069847003 0.14004301 -0.223993
-0.069844998 0.14011499 -0.223979
-0.069842003 0.140183 -0.22398201
-0.069839001 0.14025301 -0.22398999
-0.069835998 0.140321 -0.223992
-0.069834001 0.140393 -0.223977
-0.069830999 0.140462 -0.22397301
-0.069828004 0.140531 -0.223983
-0.069825999 0.14060099 -0.223984
-0.069822997 0.140671 -0.223986
-0.069820002 0.14073899 -0.22398999
-0.069817998 0.14081 -0.223979
-0.069815002 0.14088 -0.223969
-0.069812 0.140948 -0.223975
-0.069810003 0.141018 -0.22397999
-0.069807 0.14108799 -0.22397999
-0.069803998 0.141156 -0.22397999
-0.069802001 0.14122599 -0.22397099
-0.069799997 0.141298 -0.223951
-0.069798 0.141367 -0.223943
-0.069794998 0.14143801 -0.223951
-0.069792002 0.141506 -0.22395401
-0.069789 0.14157601 -0.22396
-0.069784999 0.141644 -0.223974
-0.069781996 0.14171401 -0.223979
-0.06978 0.141784 -0.22397099
-0.069776997 0.141854 -0.22397099
-0.069774002 0.141922 -0.223984
-0.069770999 0.141992 -0.223992
-0.069769002 0.14206199 -0.223984
-0.069766998 0.142132 -0.22397301
-0.069764003 0.142202 -0.223975
-0.069761001 0.14227 -0.223983
-0.069757998 0.14234 -0.223984
-0.069755003 0.14241 -0.223984
-0.069752 0.14248 -0.223984
-0.069750004 0.14255001 -0.223977
-0.069748998 0.142619 -0.223951
-0.069746003 0.142689 -0.22395299
-0.069742002 0.142757 -0.223976
-0.069738999 0.142827 -0.223978
-0.069737002 0.14289699 -0.223976
-0.069734 0.142965 -0.223976
-0.069730997 0.14303701 -0.22397301
-0.069729 0.143105 -0.223967
-0.069727004 0.143177 -0.223957
-0.069724001 0.143245 -0.223958
-0.069720998 0.143315 -0.223956
-0.069719002 0.14338601 -0.22393601
-0.069716997 0.143454 -0.223929
-0.069714002 0.14352401 -0.22393499
-0.069711 0.143594 -0.223939
-0.069707997 0.14366201 -0.223942
-0.069706 0.14373399 -0.22392599
-0.069705002 0.143803 -0.223906
-0.069701999 0.14387301 -0.22390699
-0.069698997 0.143943 -0.223905
-0.069697 0.144013 -0.223891
-0.069695003 0.14408299 -0.223882
-0.069692999 0.144153 -0.22387201
-0.069691002 0.14422201 -0.223858
-0.069688 0.144292 -0.223856
-0.069684997 0.14436001 -0.223867
-0.069682002 0.14443 -0.223869
-0.069678999 0.1445 -0.223865
-0.069677003 0.14456999 -0.223864
-0.069674 0.14464 -0.22386
-0.069672003 0.14470799 -0.223856
-0.069669001 0.144778 -0.223867
-0.069665998 0.144848 -0.223873
-0.069664001 0.14491799 -0.223859
-0.069660999 0.144988 -0.223848
-0.069657996 0.14505599 -0.22385401
-0.069655001 0.145126 -0.22386201
-0.069651999 0.14519601 -0.223865
-0.069649003 0.145266 -0.223877
-0.069646001 0.14533401 -0.223887
-0.069643997 0.145404 -0.223882
-0.069641002 0.145474 -0.22387999
-0.069637999 0.145542 -0.223886
-0.069634996 0.145612 -0.22389799
-0.069632001 0.14568201 -0.223901
-0.069629997 0.145752 -0.223883
-0.069628 0.145822 -0.223875
-0.069624998 0.14589 -0.22387999
-0.069622003 0.14596 -0.223874
-0.069619998 0.14602999 -0.223868
-0.069617003 0.1461 -0.223873
-0.069614001 0.14617001 -0.223877
-0.069611996 0.146238 -0.22387099
-0.069609001 0.14630701 -0.223868
-0.069606997 0.146377 -0.22386201
-0.069605 0.146447 -0.223846
-0.069601998 0.14651699 -0.22385301
-0.069597997 0.146585 -0.223869
-0.069596 0.14665499 -0.223867
-0.069592997 0.146725 -0.22386201
-0.069590002 0.146795 -0.223864
-0.069587998 0.146865 -0.22385199
-0.069586001 0.146934 -0.223839
-0.069582999 0.14700501 -0.223841
-0.069580004 0.147073 -0.22384299
-0.069577999 0.14714199 -0.223842
-0.069574997 0.147213 -0.22385199
-0.069571003 0.14728101 -0.223866
-0.069568001 0.147351 -0.223876
-0.069564998 0.147421 -0.223873
-0.069564 0.14749099 -0.223855
-0.069560997 0.14756 -0.223847
-0.069558002 0.14762799 -0.22385199
-0.069554999 0.147699 -0.22386
-0.069551997 0.147769 -0.22387201
-0.069549002 0.14783899 -0.223869
-0.069546998 0.147908 -0.223855
-0.069545001 0.14797799 -0.223847
-0.069542997 0.148048 -0.223832
-0.069541 0.14811499 -0.223818
-0.069539003 0.148185 -0.22381
-0.069536 0.14825501 -0.22381701
-0.069532998 0.148325 -0.223821
-0.069531001 0.148395 -0.22380701
-0.069527999 0.14846499 -0.2238
-0.069526002 0.148533 -0.2238
-0.069522999 0.14860301 -0.223794
-0.069521002 0.148673 -0.223793
-0.069518 0.148743 -0.22379901
-0.069514997 0.148811 -0.223801
-0.069512002 0.148881 -0.223793
-0.069509998 0.14895 -0.22378001
-0.069508001 0.14902 -0.22376999
-0.069505997 0.14909001 -0.22375999
-0.069503002 0.14916 -0.223759
-0.069500998 0.14922699 -0.22375099
-0.069499001 0.149297 -0.223739
-0.069495998 0.149367 -0.22373401
-0.069494002 0.149437 -0.22372
-0.069491997 0.149507 -0.22371399
-0.069489002 0.149575 -0.223719
-0.069486998 0.149644 -0.223709
-0.069485001 0.14971399 -0.223695
-0.069482997 0.149784 -0.223676
-0.069481 0.14985301 -0.223662
-0.069477998 0.149921 -0.22367001
-0.069475003 0.14999101 -0.223671
-0.069472998 0.150061 -0.223653
-0.069471002 0.150131 -0.223639
-0.069468997 0.150198 -0.223638
-0.069464996 0.150269 -0.22365201
-0.069462001 0.15033901 -0.22365201
-0.069459997 0.150408 -0.22364099
-0.069458 0.15047801 -0.22364099
-0.069454998 0.150546 -0.22364099
-0.069452003 0.15061601 -0.22363999
-0.069449 0.150686 -0.223644
-0.069445997 0.150755 -0.22365201
-0.069444001 0.15082499 -0.223653
-0.069440998 0.150894 -0.223639
-0.069439001 0.15096401 -0.223637
-0.069435999 0.151034 -0.223643
-0.069433004 0.15110201 -0.22364201
-0.069430999 0.151172 -0.22363
-0.069427997 0.151242 -0.22363999
-0.069424003 0.15131 -0.22366101
-0.069421001 0.151381 -0.223667
-0.069418997 0.15145101 -0.223665
-0.069415003 0.151521 -0.223676
-0.069412 0.151591 -0.22368
-0.069411002 0.151658 -0.223658
-0.069408998 0.151728 -0.22363301
-0.069407001 0.151797 -0.223625
-0.069403999 0.151867 -0.22362299
-0.069401003 0.151935 -0.22363
-0.069398001 0.152006 -0.223644
-0.069394998 0.15207601 -0.223654
-0.069392003 0.152146 -0.223655
-0.069389001 0.152216 -0.223657
-0.069386996 0.152284 -0.223645
-0.069385 0.152353 -0.223628
-0.069383003 0.15242299 -0.223626
-0.06938 0.152493 -0.223634
-0.069375999 0.15256301 -0.22363999
-0.069374003 0.152631 -0.22364099
-0.069371 0.15270101 -0.223639
-0.069367997 0.152771 -0.223645
-0.069365002 0.152842 -0.22364999
-0.069362 0.15291201 -0.223654
-0.069358997 0.15298 -0.223672
-0.069356002 0.15305001 -0.22367699
-0.069353998 0.15312 -0.223665
-0.069351003 0.15319 -0.223663
-0.069348998 0.15325999 -0.223658
-0.069347002 0.153327 -0.223646
-0.069343999 0.15339699 -0.22363199
-0.069343001 0.153464 -0.223617
-0.069339998 0.153534 -0.22361501
-0.069335997 0.153605 -0.22363099
-0.069333002 0.153675 -0.223638
-0.069329999 0.153745 -0.22364201
-0.069328003 0.153815 -0.22364201
-0.069325 0.153883 -0.22364099
-0.069323003 0.153953 -0.223629
-0.069320999 0.15402199 -0.223621
-0.069317997 0.154092 -0.223629
-0.069314003 0.154163 -0.223636
-0.069311999 0.15423 -0.223628
-0.069310002 0.1543 -0.22362199
-0.069306999 0.15436999 -0.22363301
-0.069302998 0.154441 -0.223643
-0.069300003 0.154511 -0.223649
-0.069297001 0.154581 -0.22365201
-0.069294997 0.154651 -0.223656
-0.069292001 0.154719 -0.22366001
-0.069288999 0.154789 -0.223663
-0.069284998 0.15485901 -0.22367699
-0.069282003 0.154929 -0.223683
-0.069279999 0.154999 -0.223672
-0.069278002 0.15506899 -0.223666
-0.069274999 0.155137 -0.22367001
-0.069271997 0.15520699 -0.22368
-0.069269001 0.155277 -0.223683
-0.069265999 0.155347 -0.22367699
-0.069264002 0.155417 -0.22367699
-0.069261998 0.155485 -0.223666
-0.069260001 0.155554 -0.223648
-0.069256999 0.155624 -0.223648
-0.069254003 0.15569399 -0.22366101
-0.069251001 0.155765 -0.22366901
-0.069247998 0.155835 -0.223667
-0.069246002 0.155902 -0.22366001
-0.069243997 0.155972 -0.22363199
-0.069242001 0.156039 -0.223616
-0.069238998 0.15611 -0.223629
-0.069236003 0.15617999 -0.223635
-0.069233999 0.156249 -0.22361501
-0.069232002 0.156317 -0.22360601
-0.069228999 0.156389 -0.22361401
-0.069224998 0.156459 -0.223628
-0.069222003 0.156528 -0.223639
-0.069219001 0.1566 -0.223643
-0.069215998 0.15667 -0.223655
-0.069213003 0.15673999 -0.22366901
-0.06921 0.15681 -0.22367799
-0.069208004 0.15687799 -0.223662
-0.069205999 0.156947 -0.223634
-0.069204003 0.157015 -0.22363301
-0.069201 0.157087 -0.223639
-0.069199003 0.15715501 -0.22362299
-0.069196999 0.157222 -0.2236
-0.069193996 0.15729199 -0.22360601
-0.069191001 0.157363 -0.223616
-0.069188997 0.157432 -0.223601
-0.069187 0.1575 -0.223583
-0.069185004 0.15757 -0.223575
-0.069182001 0.15764 -0.22357599
-0.069179997 0.157709 -0.22356801
-0.069178 0.157777 -0.223552
-0.069174998 0.157847 -0.223557
-0.069172002 0.15791699 -0.22356699
-0.069169 0.157987 -0.22356901
-0.069167003 0.158057 -0.223562
-0.069164 0.15812699 -0.22356001
-0.069160998 0.158197 -0.223564
-0.069159001 0.15826499 -0.22355901
-0.069155999 0.158335 -0.223545
-0.069154002 0.158402 -0.223533
-0.069150999 0.158475 -0.223545
-0.069146998 0.158545 -0.22356801
-0.069144003 0.15861499 -0.22357801
-0.069141001 0.158685 -0.22358
-0.069138996 0.158755 -0.223579
-0.069136001 0.158825 -0.223581
-0.069132 0.158895 -0.223591
-0.069128998 0.158966 -0.2236
-0.069127001 0.159035 -0.22359399
-0.069124997 0.15910301 -0.22358599
-0.069122002 0.15917499 -0.22359
-0.069118999 0.159243 -0.223589
-0.069117002 0.15931299 -0.22357699
-0.069114998 0.159381 -0.223566
-0.069112003 0.15944999 -0.22356001
-0.069109 0.159521 -0.223566
-0.069105998 0.159591 -0.22357
-0.069104001 0.159661 -0.22356901
-0.069100998 0.15973 -0.223563
-0.069099002 0.159798 -0.22355101
-0.069098003 0.159867 -0.223526
-0.069095999 0.159935 -0.223506
-0.069094002 0.16000301 -0.22350501
-0.069091 0.16007499 -0.223507
-0.069087997 0.160143 -0.22350299
-0.069085002 0.16021299 -0.22350501
-0.069082998 0.160283 -0.22350401
-0.069080003 0.160353 -0.223506
-0.069077 0.160423 -0.22351
-0.069073997 0.160493 -0.223519
-0.069071002 0.16056301 -0.22351301
-0.069068998 0.160633 -0.22350299
-0.069066003 0.160703 -0.22351
-0.069062002 0.16077299 -0.223534
-0.069058999 0.16084599 -0.223548
-0.069055997 0.160915 -0.22353999
-0.069054998 0.160983 -0.22352301
-0.069053002 0.16105101 -0.223509
-0.069049999 0.16112 -0.2235
-0.069048002 0.16119 -0.223498
-0.069044001 0.16126101 -0.22351401
-0.069040999 0.161331 -0.22352
-0.069039002 0.16140001 -0.223509
-0.069036998 0.161468 -0.223499
-0.069034003 0.161538 -0.223497
-0.069031999 0.161608 -0.22349399
-0.069029003 0.161678 -0.22348601
-0.069026999 0.161746 -0.223482
-0.069023997 0.161815 -0.22347701
-0.069021001 0.16188601 -0.223481
-0.069018997 0.161955 -0.223479
-0.069016002 0.162025 -0.223474
-0.069013 0.162095 -0.223478
-0.069011003 0.162165 -0.22347599
-0.069008999 0.162233 -0.223463
-0.069006003 0.162303 -0.223461
-0.069003001 0.16237301 -0.22346701
-0.068999998 0.162443 -0.223474
-0.068997003 0.162513 -0.223474
-0.068994999 0.16258299 -0.223474
-0.068990998 0.16265599 -0.223498
-0.068988003 0.162726 -0.22350501
-0.068985999 0.162793 -0.22349299
-0.068983003 0.162865 -0.22349501
-0.068979003 0.162936 -0.22351
-0.068976998 0.16300499 -0.2235
-0.068976 0.16307101 -0.22346599
-0.068974003 0.16314 -0.22345901
-0.068970002 0.163213 -0.22347499
-0.068967 0.16328099 -0.223473
-0.068966001 0.16335 -0.22345801
-0.068962 0.16342001 -0.22346599
-0.068957999 0.16349301 -0.22349
-0.068956003 0.163563 -0.223492
-0.068953998 0.16363101 -0.223473
-0.068953 0.163698 -0.22343899
-0.068949997 0.16376799 -0.223437
-0.068945996 0.16384 -0.223464
-0.068943001 0.16391 -0.22346801
-0.068940997 0.163978 -0.223454
-0.068938002 0.164048 -0.22345699
-0.068934999 0.16412 -0.22346701
-0.068933003 0.164188 -0.223461
-0.068930998 0.164258 -0.22345001
-0.068928003 0.164326 -0.223442
-0.068925999 0.164395 -0.22344001
-0.068922997 0.16446599 -0.223445
-0.068920001 0.164538 -0.223451
-0.068916999 0.164608 -0.22345699
-0.068912998 0.16467801 -0.223469
-0.068910003 0.16474999 -0.22347599
-0.068907999 0.164818 -0.223464
-0.068906002 0.164885 -0.223444
-0.068902999 0.164958 -0.22345901
-0.068898 0.165033 -0.223501
-0.068894997 0.165105 -0.22351301
-0.068893 0.165172 -0.22349501
-0.068890996 0.16524 -0.22348
-0.068888001 0.16531 -0.22348601
-0.068884999 0.16538 -0.22349399
-0.068882003 0.165452 -0.223501
-0.068879999 0.16552 -0.223483
-0.068879001 0.16558699 -0.223453
-0.068875998 0.165657 -0.22346
-0.068871997 0.16573 -0.22348
-0.068869002 0.16580001 -0.223478
-0.068866998 0.16587 -0.223479
-0.068864003 0.16594 -0.223481
-0.068861999 0.166007 -0.223471
-0.068859003 0.166077 -0.223464
-0.068856001 0.16614699 -0.223464
-0.068853997 0.166217 -0.223462
-0.068852 0.16628499 -0.223451
-0.068848997 0.166355 -0.223445
-0.068847001 0.166425 -0.223443
-0.068843998 0.166495 -0.223441
-0.068839997 0.166567 -0.22345801
-0.068836004 0.166639 -0.223482
-0.068833001 0.16670901 -0.223488
-0.068830997 0.166779 -0.223487
-0.068828002 0.166849 -0.22348499
-0.068825997 0.16691899 -0.223481
-0.068823002 0.166989 -0.223481
-0.06882 0.167059 -0.22348
-0.068818003 0.167127 -0.22346801
-0.068815999 0.16719399 -0.223451
-0.068814002 0.167264 -0.223441
-0.068810999 0.16733401 -0.223453
-0.068806998 0.16740701 -0.223463
-0.068806 0.167474 -0.22344799
-0.068804003 0.167542 -0.22342999
-0.068800002 0.167614 -0.223444
-0.068797 0.167686 -0.22345901
-0.068793997 0.16775601 -0.22345901
-0.068791002 0.167826 -0.223461
-0.068788998 0.167896 -0.22346
-0.068786003 0.16796599 -0.22345801
-0.068783 0.168036 -0.22345801
-0.068779998 0.168106 -0.22346
-0.068778001 0.168174 -0.22345699
-0.068775997 0.168244 -0.223441
-0.068774 0.168312 -0.223434
-0.068770997 0.16838101 -0.223426
-0.068769 0.168449 -0.223416
-0.068765998 0.16851901 -0.223417
-0.068763003 0.16859099 -0.223423
-0.068760999 0.168661 -0.223423
-0.068758003 0.168731 -0.223423
-0.068755999 0.168799 -0.223416
-0.068752997 0.168869 -0.22341201
-0.068750001 0.16893899 -0.22341
-0.068747997 0.169009 -0.223409
-0.068745002 0.16907901 -0.223405
-0.068742998 0.169146 -0.223397
-0.068740003 0.16921601 -0.223396
-0.068737 0.16928799 -0.223408
-0.068733998 0.169359 -0.22341999
-0.068729997 0.169431 -0.223426
-0.068728 0.16950101 -0.223425
-0.068726003 0.169568 -0.22341099
-0.068723999 0.169636 -0.22339299
-0.068722002 0.16970401 -0.223388
-0.068718001 0.16977599 -0.223396
-0.068714999 0.169846 -0.22340401
-0.068713002 0.16991401 -0.223391
-0.068712004 0.169981 -0.223369
-0.068709001 0.170049 -0.223362
-0.068706997 0.170119 -0.223352
-0.068705 0.170186 -0.223336
-0.068704002 0.170252 -0.223315
-0.068703003 0.17031699 -0.223279
-0.068701997 0.17038 -0.223242
-0.068700999 0.17044599 -0.223212
-0.068699002 0.170513 -0.223196
-0.068696998 0.170581 -0.223187
-0.068695001 0.17064901 -0.223171
-0.068692997 0.170716 -0.22315399
-0.068691 0.17078599 -0.22315
-0.068687998 0.170856 -0.223152
-0.068686001 0.17092399 -0.223143
-0.068683997 0.17098901 -0.223125
-0.068682 0.171059 -0.223115
-0.068678997 0.171129 -0.223114
-0.068677001 0.171197 -0.22311001
-0.068673998 0.171267 -0.223114
-0.068671003 0.17133699 -0.22310901
-0.068668999 0.171404 -0.223095
-0.068667002 0.17147499 -0.223097
-0.068663001 0.171547 -0.223112
-0.068659 0.171619 -0.22313
-0.068655998 0.171692 -0.22314601
-0.068651997 0.171764 -0.223162
-0.068648003 0.171841 -0.223196
-0.068641998 0.171918 -0.22324599
-0.068635002 0.172004 -0.223336
-0.068622001 0.172106 -0.22352
-0.068617001 0.17218301 -0.22356001
-0.070116997 0.131984 -0.223975
-0.070115998 0.13205899 -0.22392701
-0.070115998 0.132135 -0.22386301
-0.070118003 0.13221499 -0.22377101
-0.070116997 0.13228799 -0.22373199
-0.070115998 0.13236301 -0.22368
-0.070116997 0.132441 -0.22360399
-0.070115 0.132514 -0.223572
-0.070114002 0.132586 -0.22354899
-0.070113003 0.132659 -0.22351301
-0.070110999 0.132732 -0.223479
-0.070110999 0.132807 -0.223433
-0.070110001 0.132882 -0.223388
-0.070107996 0.132953 -0.223362
-0.070106 0.13302299 -0.223352
-0.070102997 0.133093 -0.22335
-0.070101 0.13316099 -0.223353
-0.070097998 0.133231 -0.22334699
-0.070096001 0.133303 -0.223327
-0.070093997 0.13337199 -0.22332001
-0.070091002 0.133441 -0.22332799
-0.070088997 0.13350999 -0.22332001
-0.070087001 0.13358 -0.223307
-0.070083998 0.13365 -0.223307
-0.070081003 0.133718 -0.223317
-0.070077002 0.13378499 -0.22333799
-0.070073001 0.13385101 -0.223362
-0.070069999 0.133919 -0.22337399
-0.070067003 0.13398699 -0.223379
-0.070064001 0.134056 -0.223387
-0.070060998 0.134124 -0.22340199
-0.070058003 0.134194 -0.22340401
-0.070055999 0.134262 -0.22340199
-0.070051998 0.13433 -0.223415
-0.070049003 0.134399 -0.223437
-0.070045002 0.13446499 -0.223455
-0.070041999 0.134533 -0.22347
-0.070038997 0.134601 -0.223478
-0.070036002 0.13466901 -0.223482
-0.070032999 0.134739 -0.223487
-0.070029996 0.134808 -0.22349501
-0.070026003 0.134874 -0.22351301
-0.070023 0.134942 -0.22353201
-0.070019998 0.13500901 -0.223546
-0.070015997 0.135077 -0.223562
-0.070013002 0.13514499 -0.22357699
-0.070009001 0.135214 -0.223593
-0.070005998 0.13528 -0.22361501
-0.070001997 0.13534801 -0.22363
-0.07 0.135416 -0.223636
-0.069995999 0.13548499 -0.223644
-0.069992997 0.135553 -0.223667
-0.069989003 0.13562 -0.22368699
-0.069986001 0.13568801 -0.223699
-0.069982998 0.135756 -0.22371601
-0.069978997 0.13582399 -0.22373
-0.069976002 0.135893 -0.22374199
-0.069972001 0.135959 -0.223767
-0.069968998 0.13602801 -0.22378699
-0.069964997 0.136096 -0.223801
-0.069962002 0.13616399 -0.223812
-0.069959 0.136234 -0.223814
-0.069955997 0.13630199 -0.223822
-0.069953002 0.13637 -0.22383501
-0.069949999 0.13644101 -0.223839
-0.069946997 0.136509 -0.22384501
-0.069944002 0.136577 -0.223858
-0.069940999 0.136645 -0.22387201
-0.069936998 0.136713 -0.223884
-0.069934003 0.136784 -0.223895
-0.069931 0.136852 -0.22390699
-0.069927998 0.13692001 -0.223915
-0.069925003 0.136988 -0.223922
-0.069922 0.137058 -0.22391801
-0.069918998 0.137128 -0.22392599
-0.069914997 0.13719501 -0.22395299
-0.069912001 0.137263 -0.223969
-0.069908999 0.13733099 -0.223979
-0.069905996 0.137401 -0.223988
-0.069903001 0.13746899 -0.22398999
-0.069899999 0.13754 -0.22400001
-0.069895998 0.13760801 -0.22401901
-0.069893003 0.137676 -0.224023
-0.069890998 0.13774601 -0.224021
-0.069888003 0.137816 -0.22402599
-0.069885001 0.13788401 -0.224024
-0.069882996 0.137954 -0.22402
-0.069880001 0.138024 -0.224025
-0.069876999 0.138092 -0.224033
-0.069872998 0.138162 -0.224043
-0.069870003 0.13823099 -0.22405399
-0.069867 0.138301 -0.22406
-0.069865003 0.13836899 -0.22405601
-0.069862999 0.13844 -0.22404
-0.069859996 0.13851 -0.224031
-0.069857001 0.138578 -0.224041
-0.069853999 0.138648 -0.224051
-0.069851004 0.138716 -0.22405601
-0.069848001 0.138786 -0.22406
-0.069845997 0.13885599 -0.22405
-0.069844 0.138926 -0.224039
-0.069840997 0.138998 -0.224033
-0.069839001 0.139066 -0.224033
-0.069835998 0.139136 -0.224038
-0.069833003 0.13920601 -0.22404601
-0.069829002 0.139274 -0.224058
-0.069826998 0.13934401 -0.22406299
-0.069824003 0.139412 -0.224061
-0.069821998 0.13948201 -0.224051
-0.069819003 0.139552 -0.224052
-0.069816001 0.139622 -0.224048
-0.069815002 0.13969301 -0.224024
-0.069812998 0.13976499 -0.223998
-0.069811001 0.139834 -0.22399101
-0.069807999 0.13990299 -0.22399899
-0.069805004 0.139973 -0.224007
-0.069802001 0.14004201 -0.22400001
-0.069799997 0.140112 -0.223994
-0.069797002 0.14018001 -0.224002
-0.069793999 0.14025 -0.223997
-0.069792002 0.14032 -0.22399101
-0.069789 0.14038999 -0.22398899
-0.069787003 0.14046 -0.223988
-0.069784001 0.14053001 -0.223992
-0.069780998 0.1406 -0.223988
-0.069779001 0.14067 -0.223985
-0.069775999 0.140738 -0.22398899
-0.069774002 0.140808 -0.223979
-0.069770999 0.14087901 -0.22396401
-0.069769002 0.140949 -0.223966
-0.069766 0.141017 -0.223974
-0.069761999 0.141086 -0.22398899
-0.069758996 0.141156 -0.22399101
-0.069757 0.141225 -0.223975
-0.069756001 0.141297 -0.22395501
-0.069752999 0.14136501 -0.223958
-0.069748998 0.141435 -0.223976
-0.069746003 0.14150301 -0.22397999
-0.069743998 0.141573 -0.22397099
-0.069742002 0.141645 -0.223965
-0.069738999 0.14171299 -0.223965
-0.069737002 0.141783 -0.223958
-0.069734 0.141853 -0.22395401
-0.069730997 0.141921 -0.223968
-0.069727004 0.141991 -0.223985
-0.069724999 0.142061 -0.223977
-0.069723003 0.142131 -0.223961
-0.06972 0.14220101 -0.22396401
-0.069716997 0.142269 -0.223978
-0.069714002 0.14233901 -0.223984
-0.069711 0.142409 -0.223978
-0.069707997 0.142479 -0.22398099
-0.069705002 0.142547 -0.22399101
-0.069702998 0.142617 -0.22399101
-0.069700003 0.14268699 -0.223988
-0.069697998 0.142757 -0.22398201
-0.069695003 0.142827 -0.22397199
-0.069692999 0.14289699 -0.22397301
-0.069689997 0.142966 -0.22397099
-0.069687001 0.14303599 -0.223965
-0.069684997 0.143104 -0.22397199
-0.069682002 0.14317399 -0.223976
-0.069678999 0.143244 -0.223968
-0.069677003 0.143314 -0.223961
-0.069674999 0.14338399 -0.223949
-0.069673002 0.143453 -0.223931
-0.069669999 0.14352299 -0.22393399
-0.069666997 0.143594 -0.22394399
-0.069664001 0.14366201 -0.223942
-0.069661997 0.143731 -0.22393499
-0.069660001 0.143801 -0.223921
-0.069657996 0.14387301 -0.22390901
-0.069655001 0.143942 -0.223901
-0.069652997 0.14401001 -0.223892
-0.069651 0.14408199 -0.22387999
-0.069649003 0.144152 -0.22386999
-0.069646001 0.14422099 -0.22386099
-0.069643997 0.144289 -0.22386301
-0.069641002 0.14436001 -0.223869
-0.069637999 0.14443 -0.223874
-0.069634996 0.1445 -0.22387201
-0.069633 0.14456899 -0.22386201
-0.069629997 0.144639 -0.223859
-0.069627002 0.14470699 -0.22386099
-0.069624998 0.144777 -0.223865
-0.069620997 0.14484701 -0.22387201
-0.069619 0.144917 -0.223868
-0.069617003 0.14498501 -0.22386201
-0.069613002 0.145055 -0.223875
-0.06961 0.145125 -0.22387899
-0.069608003 0.14519501 -0.223869
-0.069605 0.145263 -0.22387899
-0.069600999 0.14533401 -0.22389799
-0.069599003 0.145402 -0.22389799
-0.069596 0.145474 -0.223892
-0.069592997 0.145542 -0.223901
-0.069590002 0.145612 -0.22390901
-0.069587998 0.14568201 -0.223903
-0.069585003 0.145751 -0.22389001
-0.069582999 0.14582101 -0.22389001
-0.069580004 0.145889 -0.223884
-0.069577999 0.145959 -0.223873
-0.069574997 0.146029 -0.223877
-0.069572002 0.146099 -0.22388101
-0.069569997 0.14616901 -0.22387999
-0.069567002 0.146237 -0.22387201
-0.069564998 0.14630701 -0.223866
-0.069562003 0.146376 -0.22386301
-0.069559999 0.146446 -0.22385301
-0.069557004 0.146516 -0.223859
-0.069554001 0.146584 -0.223868
-0.069550999 0.14665399 -0.223866
-0.069549002 0.146724 -0.22386201
-0.069545999 0.14679401 -0.223864
-0.069544002 0.146864 -0.223859
-0.069541 0.14693201 -0.223855
-0.069537997 0.147002 -0.223867
-0.069535002 0.147072 -0.22386999
-0.069532998 0.14714199 -0.223864
-0.069528997 0.147212 -0.223874
-0.069526002 0.14727999 -0.22387899
-0.069522999 0.147351 -0.223885
-0.069519997 0.147421 -0.223895
-0.069518 0.147488 -0.223886
-0.069516003 0.14756 -0.223874
-0.069513001 0.14762799 -0.22386999
-0.069510996 0.147698 -0.223873
-0.069508001 0.14776801 -0.223877
-0.069504999 0.147838 -0.223867
-0.069503002 0.147908 -0.22385401
-0.069500998 0.147975 -0.223846
-0.069499001 0.148047 -0.223836
-0.069496997 0.14811499 -0.223827
-0.069494002 0.148185 -0.22382499
-0.069490999 0.14825501 -0.22382499
-0.069489002 0.148325 -0.22381701
-0.069486998 0.148394 -0.223804
-0.069484003 0.148462 -0.223812
-0.069481 0.148532 -0.223812
-0.069479004 0.14860199 -0.22379901
-0.069476001 0.148672 -0.223801
-0.069472998 0.14874201 -0.223809
-0.069471002 0.14881 -0.223804
-0.069468997 0.14888 -0.223786
-0.069466002 0.148949 -0.223776
-0.069463998 0.149019 -0.223775
-0.069461003 0.14908899 -0.223773
-0.069458999 0.149157 -0.22376899
-0.069456004 0.14922699 -0.22376201
-0.069453999 0.149297 -0.223754
-0.069452003 0.14936601 -0.223736
-0.069449998 0.149436 -0.223717
-0.069448002 0.149506 -0.22371501
-0.069444999 0.149574 -0.22372501
-0.069441997 0.149644 -0.22372
-0.06944 0.14971299 -0.22370601
-0.069438003 0.149783 -0.22368801
-0.069435999 0.14985301 -0.22366901
-0.069434002 0.149921 -0.223673
-0.069430999 0.14999101 -0.223671
-0.069429003 0.15006 -0.223658
-0.069426998 0.15013 -0.223648
-0.069424003 0.150198 -0.223646
-0.069421001 0.150268 -0.223647
-0.069418997 0.15033799 -0.22363301
-0.069417 0.150407 -0.223625
-0.069413997 0.15047701 -0.223635
-0.069411002 0.150546 -0.22364201
-0.069408 0.15061501 -0.223638
-0.069404997 0.150685 -0.223638
-0.069403 0.15075301 -0.223639
-0.069399998 0.150823 -0.223639
-0.069397002 0.150893 -0.223639
-0.069394998 0.15096299 -0.223638
-0.069390997 0.151034 -0.22365201
-0.069388002 0.15110201 -0.223656
-0.069386996 0.151171 -0.223637
-0.069384001 0.151241 -0.223639
-0.06938 0.15131 -0.22366101
-0.069376998 0.15138 -0.223662
-0.069375001 0.15144899 -0.22365201
-0.069371998 0.151519 -0.223656
-0.069369003 0.15158901 -0.223657
-0.069366999 0.151657 -0.223647
-0.069363996 0.15172701 -0.223647
-0.069362 0.151797 -0.22364999
-0.069358997 0.151867 -0.223638
-0.069357 0.151935 -0.223628
-0.069353998 0.152005 -0.223635
-0.069351003 0.15207499 -0.223649
-0.069348 0.152145 -0.22366101
-0.069344997 0.152215 -0.22366101
-0.069343001 0.152283 -0.22364999
-0.069340996 0.152353 -0.223636
-0.069338001 0.15242299 -0.223636
-0.069334999 0.152493 -0.223635
-0.069333002 0.15256201 -0.22363099
-0.069329999 0.15263 -0.223635
-0.069326997 0.15270001 -0.223636
-0.069324002 0.152771 -0.22364201
-0.069320999 0.152841 -0.22364999
-0.069317997 0.15291101 -0.223657
-0.069315001 0.152979 -0.22366901
-0.069311999 0.15304901 -0.223673
-0.069310002 0.153119 -0.223664
-0.069306999 0.153189 -0.223656
-0.069305003 0.153257 -0.22364999
-0.069302 0.153326 -0.223643
-0.069301002 0.153396 -0.223627
-0.069298998 0.15346301 -0.22360501
-0.069296002 0.153534 -0.22361401
-0.069292001 0.153604 -0.22363999
-0.069288999 0.15367401 -0.22363999
-0.069287002 0.153744 -0.223636
-0.069284 0.153814 -0.223639
-0.069280997 0.153882 -0.223635
-0.069279 0.153951 -0.22361501
-0.069277003 0.15402099 -0.22360399
-0.069274001 0.154089 -0.22361401
-0.069270998 0.154162 -0.223628
-0.069268003 0.15423 -0.223635
-0.069265001 0.1543 -0.22363301
-0.069261998 0.15436999 -0.223635
-0.069259003 0.15444 -0.22363999
-0.069256999 0.15451001 -0.22363999
-0.069254003 0.154578 -0.223634
-0.069251001 0.15464801 -0.223643
-0.069247998 0.154718 -0.22365899
-0.069243997 0.154788 -0.223667
-0.069241002 0.15485799 -0.22367699
-0.069238 0.154928 -0.22368
-0.069236003 0.154998 -0.223674
-0.069233999 0.155068 -0.22366799
-0.069231004 0.155136 -0.22366901
-0.069228001 0.15520599 -0.223671
-0.069224998 0.155276 -0.22366901
-0.069223002 0.15534601 -0.22367001
-0.069219999 0.155416 -0.223674
-0.069216996 0.155486 -0.223674
-0.069215 0.15555599 -0.22366901
-0.069213003 0.155623 -0.223653
-0.06921 0.15569299 -0.22365101
-0.069206998 0.155764 -0.223658
-0.069205001 0.15583099 -0.22364999
-0.069202997 0.155901 -0.223636
-0.069201 0.15597101 -0.223621
-0.069197997 0.156041 -0.223617
-0.069195002 0.15610901 -0.223625
-0.069192998 0.156179 -0.22362199
-0.069190003 0.156248 -0.223612
-0.069187999 0.156316 -0.22360601
-0.069185004 0.156388 -0.223616
-0.069181003 0.156459 -0.22363301
-0.069178 0.15652899 -0.223643
-0.069174998 0.156599 -0.223645
-0.069172002 0.15666901 -0.223658
-0.069168001 0.156739 -0.223672
-0.069165997 0.156809 -0.22366799
-0.069164 0.156877 -0.223657
-0.069160998 0.156947 -0.223649
-0.069159001 0.15701699 -0.223647
-0.069156997 0.157086 -0.223634
-0.069155 0.15715399 -0.22360601
-0.069154002 0.157221 -0.22358599
-0.069150001 0.15729199 -0.223599
-0.069146998 0.157362 -0.22361501
-0.069145001 0.15743101 -0.223601
-0.069142997 0.157501 -0.22359
-0.069140002 0.15756901 -0.223584
-0.069137998 0.157639 -0.22356801
-0.069136001 0.15770601 -0.22355901
-0.069133997 0.157776 -0.223553
-0.069131002 0.157846 -0.223555
-0.069127999 0.15791599 -0.223566
-0.069124997 0.157987 -0.22357
-0.069122002 0.15805601 -0.223566
-0.069119997 0.158126 -0.223562
-0.069117002 0.158196 -0.223561
-0.069114 0.158264 -0.223563
-0.069112003 0.158334 -0.223553
-0.069109999 0.158402 -0.223538
-0.069107004 0.158474 -0.223546
-0.069103003 0.158544 -0.22356801
-0.0691 0.15861399 -0.22357699
-0.069096997 0.158684 -0.223573
-0.069095001 0.15875401 -0.223575
-0.069091998 0.158824 -0.22358
-0.069089003 0.158894 -0.22358599
-0.069086 0.15896399 -0.223584
-0.069084004 0.159032 -0.223579
-0.069081001 0.15910199 -0.223579
-0.069077998 0.159174 -0.22358701
-0.069075003 0.159242 -0.22358701
-0.069072001 0.15931199 -0.223584
-0.069069996 0.159382 -0.223584
-0.069067001 0.15945201 -0.223584
-0.069063999 0.159522 -0.22358701
-0.069061004 0.159592 -0.22358499
-0.069058999 0.15966 -0.223571
-0.069058001 0.15972701 -0.223548
-0.069057003 0.159795 -0.22352199
-0.069054998 0.15986399 -0.223506
-0.069052003 0.159934 -0.223509
-0.069049001 0.160004 -0.223515
-0.069045998 0.160074 -0.223511
-0.069044001 0.160142 -0.223502
-0.069040999 0.160212 -0.223502
-0.069038004 0.160282 -0.22351
-0.069035999 0.16035201 -0.223509
-0.069032997 0.160422 -0.22350501
-0.069030002 0.160492 -0.223511
-0.069026999 0.16056199 -0.22351199
-0.069025002 0.160632 -0.223508
-0.069022 0.16070201 -0.22351
-0.069018997 0.160772 -0.22352199
-0.069014996 0.160842 -0.223535
-0.069013 0.16091201 -0.223529
-0.069009997 0.160982 -0.223527
-0.069007002 0.161052 -0.223526
-0.069004998 0.16112199 -0.22352199
-0.069002002 0.161192 -0.223524
-0.068999 0.16126201 -0.22352301
-0.068997003 0.16133 -0.22351301
-0.068994999 0.161397 -0.22349501
-0.068993002 0.161467 -0.22348399
-0.068990998 0.16153701 -0.223482
-0.068988003 0.161607 -0.22348
-0.068985999 0.16167501 -0.223469
-0.068984002 0.161742 -0.223461
-0.068980999 0.161815 -0.223469
-0.068976998 0.16188499 -0.22349
-0.068974003 0.161957 -0.223496
-0.068971999 0.162025 -0.22348399
-0.068970002 0.162092 -0.223471
-0.068967998 0.16216201 -0.223453
-0.068966001 0.16223 -0.223443
-0.068962 0.162302 -0.223451
-0.068958998 0.16237199 -0.223462
-0.068956003 0.162442 -0.223472
-0.068953 0.162514 -0.22348
-0.068949997 0.16258501 -0.223487
-0.068947002 0.162655 -0.22349501
-0.068944 0.162725 -0.22349299
-0.068942003 0.162792 -0.223488
-0.068939 0.162864 -0.223488
-0.068935998 0.162935 -0.223498
-0.068933003 0.16300499 -0.2235
-0.068930998 0.163072 -0.22347499
-0.06893 0.16314 -0.22345699
-0.068925999 0.16321 -0.22346599
-0.068924002 0.16328 -0.223462
-0.068921998 0.163349 -0.22345001
-0.068917997 0.16342001 -0.223462
-0.068915002 0.16349199 -0.223481
-0.068911999 0.163562 -0.223481
-0.068910003 0.16362999 -0.223461
-0.068908997 0.16369499 -0.223426
-0.068907 0.163764 -0.223416
-0.068902999 0.163837 -0.223436
-0.068899997 0.16390701 -0.223447
-0.068897001 0.163977 -0.223453
-0.068893999 0.164049 -0.223455
-0.068892002 0.16411699 -0.22344799
-0.068889998 0.164185 -0.22343799
-0.068887003 0.164257 -0.223442
-0.068884 0.164327 -0.22344799
-0.068880998 0.164397 -0.223447
-0.068878002 0.16446701 -0.223445
-0.068875998 0.164537 -0.22344901
-0.068871997 0.164607 -0.223462
-0.068869002 0.16467901 -0.223472
-0.068866 0.164749 -0.223478
-0.068862997 0.164819 -0.223473
-0.068861 0.164887 -0.223463
-0.068857998 0.164959 -0.22347701
-0.068853997 0.165032 -0.22349501
-0.068851002 0.16510201 -0.22350401
-0.068848997 0.165172 -0.223498
-0.068847001 0.16523901 -0.22348
-0.068843998 0.165309 -0.223471
-0.068841003 0.165379 -0.223479
-0.068838 0.16545101 -0.22349299
-0.068836004 0.165519 -0.22348399
-0.068833999 0.16558699 -0.223462
-0.068830997 0.165657 -0.22346599
-0.068828002 0.165729 -0.22348499
-0.068824999 0.16579901 -0.223479
-0.068823002 0.165867 -0.223471
-0.06882 0.165939 -0.223473
-0.068816997 0.166007 -0.22347
-0.068815999 0.16607399 -0.223454
-0.068814002 0.166144 -0.223435
-0.068810999 0.166214 -0.223441
-0.068807997 0.16628399 -0.223445
-0.068805002 0.166354 -0.22343899
-0.068802997 0.16642199 -0.223434
-0.068800002 0.166494 -0.22343799
-0.068796001 0.166566 -0.223462
-0.068792 0.166639 -0.22348499
-0.068790004 0.16670799 -0.223479
-0.068787999 0.166776 -0.22346701
-0.068784997 0.16684601 -0.22345801
-0.068783 0.166916 -0.223456
-0.068778999 0.166986 -0.22346599
-0.068775997 0.16705801 -0.22347
-0.068774 0.167126 -0.22345901
-0.068773001 0.167193 -0.223437
-0.068769999 0.167261 -0.22343101
-0.068767004 0.16733301 -0.22344799
-0.068763003 0.16740599 -0.22346
-0.068760999 0.167476 -0.223456
-0.068759002 0.16754299 -0.223445
-0.068755999 0.167613 -0.223443
-0.068752997 0.167685 -0.22344901
-0.068750001 0.16775499 -0.223454
-0.068746999 0.167825 -0.223454
-0.068745002 0.167895 -0.223456
-0.068742 0.16796499 -0.22345801
-0.068738997 0.168035 -0.223455
-0.068736002 0.16810501 -0.22345699
-0.068733998 0.168173 -0.223453
-0.068732001 0.16824301 -0.22343799
-0.068728998 0.168311 -0.223434
-0.068726003 0.168383 -0.22344001
-0.068723999 0.16845299 -0.223435
-0.068722002 0.16852 -0.223423
-0.068719 0.16858999 -0.223419
-0.068715997 0.16866 -0.223424
-0.068714 0.16873001 -0.223426
-0.068710998 0.168798 -0.223414
-0.068709001 0.16886801 -0.22341301
-0.068705 0.16893999 -0.223427
-0.068703003 0.16901 -0.22342101
-0.068700999 0.16907801 -0.22341201
-0.068699002 0.169146 -0.22340199
-0.068696 0.16921499 -0.223396
-0.068692997 0.16928799 -0.223408
-0.068689004 0.16936 -0.22342101
-0.068686999 0.16943 -0.22342101
-0.068683997 0.169498 -0.22341099
-0.068682 0.16956501 -0.223398
-0.068680003 0.169635 -0.223388
-0.068677999 0.16970301 -0.223386
-0.068673998 0.16977499 -0.22339299
-0.068672001 0.169845 -0.223395
-0.068669997 0.16991299 -0.22338299
-0.068668 0.16998 -0.22336
-0.068666004 0.170046 -0.223342
-0.068663999 0.17011601 -0.223336
-0.068660997 0.170186 -0.223333
-0.068659 0.17025299 -0.223317
-0.068659 0.170316 -0.223278
-0.068659 0.170379 -0.22323
-0.068657003 0.17044701 -0.22321101
-0.068654999 0.170514 -0.22320101
-0.068653002 0.170582 -0.22319099
-0.068650998 0.17065001 -0.22317199
-0.068649001 0.170715 -0.223148
-0.068646997 0.170783 -0.223143
-0.068644002 0.170853 -0.22314499
-0.068641998 0.17092299 -0.223139
-0.068639003 0.170993 -0.223141
-0.068636 0.17106301 -0.223152
-0.068632998 0.171133 -0.22315
-0.068631001 0.171203 -0.223148
-0.068627998 0.17127299 -0.223153
-0.068625003 0.171343 -0.223143
-0.068622999 0.171408 -0.223129
-0.068621002 0.171478 -0.22312599
-0.068617001 0.171553 -0.22315399
-0.068613 0.171625 -0.223176
-0.068609998 0.171698 -0.22318199
-0.068605997 0.17177001 -0.22320101
-0.068600997 0.171849 -0.22324701
-0.068595 0.17192601 -0.223295
-0.068588004 0.17201 -0.223379
-0.068580002 0.17209999 -0.22348601
-0.068572998 0.17218199 -0.22355001
-0.069985002 0.131459 -0.22598299
-0.069982 0.13152801 -0.225999
-0.069978997 0.131598 -0.22600199
-0.070061997 0.13198499 -0.22392599
-0.07006 0.132055 -0.223914
-0.070059001 0.132128 -0.223877
-0.07006 0.132208 -0.22378901
-0.07006 0.132284 -0.223727
-0.070059001 0.132357 -0.223685
-0.07006 0.13243601 -0.22361501
-0.070059001 0.13250899 -0.223574
-0.070056997 0.13258 -0.223554
-0.070055999 0.13265499 -0.223516
-0.070055 0.13272899 -0.223478
-0.070054002 0.13280199 -0.223435
-0.070052996 0.13287701 -0.22339299
-0.070051998 0.132948 -0.223363
-0.070049003 0.13302 -0.22335
-0.070046999 0.13308699 -0.22334801
-0.070044003 0.133157 -0.22334801
-0.070041999 0.13322701 -0.22334699
-0.070038997 0.133297 -0.22333699
-0.070037 0.133367 -0.223333
-0.070033997 0.133435 -0.22333799
-0.070031002 0.133505 -0.223332
-0.070028998 0.13357501 -0.223318
-0.070027001 0.133644 -0.223314
-0.070023999 0.13371301 -0.22331899
-0.070021003 0.133781 -0.223335
-0.070017003 0.13384899 -0.223351
-0.070014 0.133917 -0.22335599
-0.070010997 0.133985 -0.223364
-0.070008002 0.13405401 -0.22338
-0.070005 0.13412 -0.223391
-0.070001997 0.13418999 -0.223387
-0.07 0.13426 -0.22338299
-0.069995999 0.13432799 -0.22339401
-0.069992997 0.134394 -0.223414
-0.069989003 0.134463 -0.223433
-0.069986001 0.13452899 -0.223451
-0.069982998 0.134599 -0.22345699
-0.069980003 0.13466699 -0.223462
-0.069977 0.134737 -0.223462
-0.069973998 0.13480499 -0.22346801
-0.069971003 0.134874 -0.223483
-0.069968 0.13494 -0.22350299
-0.069963999 0.13500699 -0.22352301
-0.069960997 0.135075 -0.22353999
-0.069957003 0.135143 -0.22355799
-0.069953002 0.13521001 -0.22358
-0.069949999 0.135278 -0.223599
-0.069946997 0.135344 -0.22361299
-0.069943003 0.13541301 -0.223625
-0.069940001 0.135481 -0.22363999
-0.069936 0.13554899 -0.223662
-0.069932997 0.135616 -0.223676
-0.069930002 0.135684 -0.223691
-0.069926001 0.13575201 -0.223711
-0.069922999 0.135821 -0.22372501
-0.069918998 0.13588899 -0.223738
-0.069916002 0.13595501 -0.22376201
-0.069912001 0.136024 -0.223784
-0.069908999 0.13609201 -0.223793
-0.069905996 0.136162 -0.22379699
-0.069903001 0.13623001 -0.223801
-0.069899999 0.1363 -0.22380599
-0.069897003 0.13636699 -0.22382
-0.069894001 0.136437 -0.223832
-0.069890998 0.13650499 -0.223831
-0.069888003 0.136575 -0.223837
-0.069885001 0.13664301 -0.223855
-0.069881 0.13671 -0.22387201
-0.069877997 0.13677999 -0.223886
-0.069875002 0.136848 -0.223892
-0.069871999 0.13691799 -0.223893
-0.069868997 0.136986 -0.22389901
-0.069866002 0.13705599 -0.22389901
-0.069862999 0.137124 -0.22390801
-0.069858998 0.137191 -0.223938
-0.069856003 0.13725901 -0.223958
-0.069853 0.137329 -0.223965
-0.069849998 0.137398 -0.223975
-0.069845997 0.137466 -0.223983
-0.069843002 0.13753401 -0.223996
-0.069839999 0.137604 -0.22400799
-0.069836996 0.137674 -0.224006
-0.069835 0.137742 -0.22400901
-0.069830999 0.137812 -0.22401901
-0.069829002 0.13788 -0.22401901
-0.069825999 0.137952 -0.22400799
-0.069822997 0.13801999 -0.224014
-0.069820002 0.138088 -0.22402801
-0.069816999 0.13815799 -0.224033
-0.069815002 0.138228 -0.224029
-0.069812 0.138298 -0.224033
-0.069808997 0.138367 -0.224042
-0.069806002 0.138436 -0.224034
-0.069803998 0.13850801 -0.224014
-0.069802001 0.138576 -0.224016
-0.069798 0.13864601 -0.224033
-0.069794998 0.138714 -0.22403701
-0.069793001 0.13878199 -0.224041
-0.069789998 0.138854 -0.224038
-0.069788001 0.138924 -0.22402801
-0.069784999 0.13899399 -0.22402801
-0.069781996 0.139062 -0.224033
-0.069779001 0.13913199 -0.224033
-0.069775999 0.1392 -0.224041
-0.069773003 0.13926999 -0.224052
-0.069770001 0.13934 -0.22405601
-0.069767997 0.13941 -0.22404601
-0.069766 0.13947999 -0.224033
-0.069762997 0.13955 -0.22403499
-0.069760002 0.13961799 -0.22403499
-0.069758996 0.139689 -0.22400799
-0.069757 0.139761 -0.223984
-0.069755003 0.13982999 -0.223976
-0.069752 0.139901 -0.22398201
-0.069748998 0.13996901 -0.223993
-0.069744997 0.140039 -0.224003
-0.069743 0.14010701 -0.224007
-0.069739997 0.140177 -0.22401001
-0.069737002 0.140247 -0.224004
-0.069734998 0.14031599 -0.223988
-0.069733001 0.140386 -0.223983
-0.069729999 0.14045601 -0.223985
-0.069727004 0.140526 -0.223983
-0.069724999 0.140596 -0.223974
-0.069723003 0.14066599 -0.22397
-0.06972 0.140736 -0.223978
-0.069716997 0.14080399 -0.22397099
-0.069715001 0.140875 -0.22395501
-0.069711998 0.140945 -0.223957
-0.069710001 0.14101399 -0.22396199
-0.069706 0.141084 -0.22397
-0.069702998 0.14115199 -0.223978
-0.069701001 0.141222 -0.22397
-0.069698997 0.14129101 -0.22396301
-0.069696002 0.141362 -0.22397099
-0.069692999 0.14143001 -0.223979
-0.069689997 0.1415 -0.22397999
-0.069688 0.141569 -0.223966
-0.069686003 0.14164101 -0.223952
-0.069683 0.141711 -0.223947
-0.069681004 0.141781 -0.223937
-0.069678001 0.14185099 -0.223933
-0.069674999 0.141919 -0.22395401
-0.069670998 0.141987 -0.223978
-0.069668002 0.142057 -0.22397199
-0.069666997 0.142129 -0.223951
-0.069664001 0.142197 -0.223947
-0.069660999 0.142267 -0.223961
-0.069657996 0.142335 -0.223968
-0.069655001 0.142405 -0.223966
-0.069651999 0.14247499 -0.223968
-0.069649003 0.142543 -0.223978
-0.069646001 0.14261299 -0.223983
-0.069643997 0.142683 -0.223983
-0.069641002 0.14275301 -0.223977
-0.069638997 0.142823 -0.22396401
-0.069637001 0.142893 -0.22396
-0.069633998 0.14296301 -0.22396199
-0.069631003 0.143033 -0.223959
-0.069628999 0.14309999 -0.223957
-0.069626004 0.143171 -0.223961
-0.069623001 0.14324 -0.22396
-0.069620997 0.14331 -0.223952
-0.069619 0.14338 -0.22394
-0.069615997 0.14345001 -0.223929
-0.069613002 0.14352 -0.22393499
-0.069610998 0.14359 -0.223937
-0.069608003 0.143658 -0.223928
-0.069605999 0.143729 -0.22391599
-0.069604002 0.14379901 -0.22390801
-0.069600999 0.143869 -0.22389799
-0.069599003 0.143939 -0.223893
-0.069596998 0.144007 -0.22388899
-0.069595002 0.144078 -0.22387099
-0.069592997 0.14414801 -0.22385
-0.069591001 0.144217 -0.223842
-0.069587 0.144288 -0.22385
-0.069583997 0.144356 -0.223859
-0.069582 0.144426 -0.22386301
-0.069578998 0.14449599 -0.223859
-0.069576003 0.144566 -0.223856
-0.069573998 0.14463501 -0.22385401
-0.069572002 0.144703 -0.22384401
-0.069568999 0.14477301 -0.223851
-0.069564998 0.144844 -0.223865
-0.069562003 0.144914 -0.223865
-0.069559999 0.144981 -0.22386201
-0.069557004 0.145051 -0.223864
-0.069554001 0.14512099 -0.223864
-0.069551997 0.145191 -0.22386
-0.069549002 0.14526001 -0.22387099
-0.069545001 0.14533 -0.223885
-0.069542997 0.14539801 -0.223887
-0.069540001 0.14546999 -0.223886
-0.069536999 0.145538 -0.22389001
-0.069533996 0.14560799 -0.223892
-0.069532 0.145678 -0.223887
-0.069528997 0.145748 -0.223883
-0.069526002 0.145816 -0.223885
-0.069523998 0.14588501 -0.22387201
-0.069522001 0.14595699 -0.22386
-0.069518998 0.146025 -0.223868
-0.069516003 0.14609499 -0.223875
-0.069513001 0.146165 -0.223873
-0.069510996 0.14623301 -0.22386099
-0.069509 0.14630499 -0.223846
-0.069507003 0.14637201 -0.223842
-0.069504 0.146442 -0.22384401
-0.069500998 0.146512 -0.22384501
-0.069499001 0.14658201 -0.22384299
-0.069495998 0.146652 -0.22384299
-0.069493003 0.14672001 -0.223851
-0.069490001 0.146791 -0.22386
-0.069486998 0.14686 -0.22385199
-0.069485001 0.14692999 -0.22384401
-0.069481999 0.146998 -0.223855
-0.069479004 0.14706901 -0.223867
-0.069476001 0.147139 -0.223867
-0.069472998 0.147209 -0.22386999
-0.069470003 0.147277 -0.223868
-0.069467999 0.147347 -0.22386999
-0.069463998 0.14741699 -0.223883
-0.069462001 0.147485 -0.22387899
-0.069458999 0.14755601 -0.223869
-0.069457002 0.147624 -0.22386201
-0.069454998 0.14769401 -0.223856
-0.069452003 0.147764 -0.22385199
-0.069449998 0.147834 -0.223851
-0.069447003 0.14790399 -0.22384299
-0.069444999 0.147974 -0.223837
-0.069443002 0.14804301 -0.223823
-0.069440998 0.148111 -0.223812
-0.069438003 0.14818101 -0.223812
-0.069435 0.148251 -0.22381
-0.069433004 0.148321 -0.223801
-0.069430001 0.14839 -0.22379699
-0.069426998 0.148459 -0.223809
-0.069425002 0.14852899 -0.22380801
-0.069422998 0.148598 -0.22379
-0.069420002 0.14866801 -0.223786
-0.069417 0.148738 -0.223791
-0.069415003 0.14880601 -0.223783
-0.069412999 0.148876 -0.22377101
-0.069410004 0.148946 -0.223768
-0.069407001 0.14901599 -0.223774
-0.069404997 0.149086 -0.223772
-0.069402002 0.14915299 -0.223763
-0.069399998 0.149223 -0.223749
-0.069398001 0.14929301 -0.223737
-0.069395997 0.149362 -0.22372
-0.069394998 0.149432 -0.22369599
-0.069392003 0.14950199 -0.22369599
-0.069389001 0.14957 -0.223701
-0.069386996 0.14963999 -0.223693
-0.069384001 0.14971 -0.223695
