# .PCD v0.7 - Point Cloud Data file format
VERSION 0.7
FIELDS x y z
SIZE 4 4 4
TYPE F F F
COUNT 1 1 1
WIDTH 1331
HEIGHT 1
VIEWPOINT 0 0 0 1 0 0 0
POINTS 1331
DATA ascii
-0.073738001 0.090999506 -0.22786482
-0.069275998 0.090921 -0.227869
-0.068877995 0.090974003 -0.22787802
-0.068650499 0.090998501 -0.227854
-0.068491995 0.090987749 -0.22784373
-0.068298601 0.090996191 -0.2278178
-0.068099 0.090999663 -0.22780734
-0.067966998 0.090990834 -0.22778082
-0.067655668 0.090982668 -0.22778066
-0.067416221 0.09098988 -0.22777444
-0.067243248 0.090990998 -0.2277405
-0.067127004 0.090985999 -0.22775501
-0.066956997 0.091008998 -0.227715
-0.061438002 0.090992503 -0.22772901
-0.061307497 0.090985 -0.22774151
-0.061184 0.090981998 -0.22782001
-0.075089 0.091205001 -0.22788
-0.074954748 0.091160998 -0.22785299
-0.074754797 0.091175601 -0.22786638
-0.074594498 0.091180332 -0.22784467
-0.074428782 0.091172107 -0.2278581
-0.074295834 0.091159664 -0.22782566
-0.074049503 0.091186002 -0.22784699
-0.073872 0.091181993 -0.227851
-0.073730499 0.091178 -0.2278755
-0.073523 0.091199003 -0.22788
-0.073315501 0.091147006 -0.22787499
-0.068870999 0.091151997 -0.227878
-0.068620004 0.091158748 -0.22786275
-0.068484336 0.091167502 -0.22786283
-0.0683138 0.091169 -0.22782961
-0.068092495 0.091178 -0.227801
-0.067959003 0.091169998 -0.227795
-0.067648001 0.091161996 -0.227789
-0.0674152 0.091174603 -0.22779961
-0.06725575 0.091180757 -0.22777013
-0.067119338 0.091164328 -0.22776701
-0.066950999 0.091153003 -0.227724
-0.0614345 0.091098502 -0.2277195
-0.061302997 0.091126502 -0.227723
-0.061138749 0.091176502 -0.22781125
-0.075085506 0.091311 -0.227874
-0.074947499 0.091339834 -0.22785516
-0.074766196 0.091346398 -0.227863
-0.074587502 0.091358505 -0.227852
-0.07442183 0.091349833 -0.22785717
-0.074288502 0.091338001 -0.22782876
-0.074042998 0.091363333 -0.22784133
-0.073865332 0.091359667 -0.22784765
-0.073731601 0.091369197 -0.22785978
-0.068590999 0.091316998 -0.227855
-0.06847775 0.091345504 -0.22785926
-0.068283603 0.091353998 -0.22783859
-0.068084329 0.091358997 -0.22783132
-0.067951493 0.09134867 -0.22780901
-0.067640334 0.091340668 -0.22780401
-0.067417674 0.091363005 -0.22781867
-0.067255832 0.091351002 -0.22778548
-0.067112505 0.091343001 -0.2277665
-0.066942006 0.091366671 -0.22773732
-0.066668496 0.091390498 -0.22771549
-0.066427 0.091412 -0.227709
-0.066384494 0.09138 -0.227707
-0.061172999 0.091334499 -0.227753
-0.060980998 0.091384396 -0.22784039
-0.074940503 0.091517255 -0.2278575
-0.074727744 0.091527 -0.22786725
-0.0745795 0.091537662 -0.22786583
-0.074423715 0.091518573 -0.22787102
-0.074281 0.091516338 -0.22784567
-0.074035496 0.091541998 -0.22785699
-0.0738585 0.091536999 -0.22783899
-0.073718503 0.091497496 -0.22787049
-0.068472505 0.0914535 -0.22787601
-0.068298399 0.091527596 -0.22785702
-0.068076499 0.091536999 -0.227852
-0.067943245 0.091529496 -0.22783075
-0.067632496 0.091519997 -0.227818
-0.067409441 0.091543011 -0.22784121
-0.067248002 0.091529548 -0.22779611
-0.067105331 0.091520667 -0.22776566
-0.066936001 0.091544002 -0.22771251
-0.066662505 0.091535002 -0.22773299
-0.0664225 0.091519997 -0.22771001
-0.066378504 0.091522999 -0.227717
-0.061170999 0.09144 -0.22772001
-0.060968496 0.091544248 -0.22779199
-0.060826 0.091544002 -0.22786051
-0.075072996 0.091629997 -0.227879
-0.074985661 0.091698326 -0.22786568
-0.074786499 0.091728002 -0.227879
-0.074597798 0.091710001 -0.2278702
-0.074391998 0.091689244 -0.22787701
-0.074267805 0.091715403 -0.22785339
-0.074028008 0.091720663 -0.227863
-0.073851496 0.091681004 -0.22787
-0.068268403 0.0917124 -0.22786279
-0.068069004 0.091716342 -0.22785068
-0.067935504 0.091708504 -0.22784799
-0.067625001 0.091699667 -0.22782867
-0.067401834 0.091722667 -0.22785766
-0.067239672 0.091711164 -0.22782482
-0.067096502 0.0917015 -0.22780401
-0.066926993 0.091724999 -0.227754
-0.066654675 0.091713667 -0.22774599
-0.066477001 0.091774002 -0.227717
-0.066381998 0.091709293 -0.22771844
-0.060963005 0.091720007 -0.22775768
-0.060781997 0.091734394 -0.22783402
-0.075061999 0.091916002 -0.22787701
-0.074979 0.091875494 -0.227861
-0.074780494 0.091870002 -0.22788
-0.074270204 0.091888607 -0.2278634
-0.074022003 0.091863997 -0.22787701
-0.068331003 0.091802001 -0.227872
-0.068139754 0.091897495 -0.22785001
-0.0679285 0.091887005 -0.22784974
-0.067616999 0.091878995 -0.22785351
-0.067394227 0.091900997 -0.2278661
-0.067232445 0.091889329 -0.22783178
-0.067088999 0.091881663 -0.22781433
-0.066918999 0.091905497 -0.22778299
-0.0666475 0.091892004 -0.2277485
-0.066471994 0.091881998 -0.22773701
-0.066353142 0.091891289 -0.22771999
-0.060957998 0.091895506 -0.22771899
-0.060767248 0.091896743 -0.22780925
-0.060626999 0.091934003 -0.22786599
-0.075726002 0.092096001 -0.22787499
-0.074973002 0.0920185 -0.227865
-0.074245751 0.092068747 -0.227873
-0.068147197 0.092077598 -0.2278678
-0.067921497 0.092065334 -0.22784734
-0.067609668 0.092058666 -0.22785799
-0.067387663 0.092079006 -0.22785933
-0.067225166 0.092068337 -0.22783266
-0.067081004 0.092060998 -0.227834
-0.066910997 0.092085339 -0.22780067
-0.066639997 0.092070334 -0.22775434
-0.06646467 0.092061669 -0.22774567
-0.066359371 0.092065126 -0.22773364
-0.060929999 0.0920555 -0.22771275
-0.060762167 0.092072159 -0.22777067
-0.060621995 0.092074998 -0.22784799
-0.075797997 0.092312999 -0.227878
-0.074277997 0.092162997 -0.22787599
-0.068150997 0.092244335 -0.22787166
-0.067913756 0.092245504 -0.2278665
-0.0676025 0.092236996 -0.22786799
-0.067380562 0.092257231 -0.22786066
-0.067218453 0.092245787 -0.22783096
-0.067074001 0.092240006 -0.22782999
-0.066903502 0.092263997 -0.22780499
-0.0666335 0.092248999 -0.22775099
-0.066457495 0.092240497 -0.22775
-0.06633871 0.092248999 -0.22773413
-0.066041999 0.092322998 -0.22770301
-0.060755499 0.092249744 -0.227762
-0.060616001 0.0922525 -0.227834
-0.075714 0.092380002 -0.227878
-0.068196505 0.092402503 -0.22787701
-0.067906499 0.092423499 -0.22786976
-0.067859001 0.092492998 -0.22788
-0.067594998 0.092416339 -0.22787267
-0.067374334 0.092401661 -0.22787733
-0.067226142 0.092432 -0.22785115
-0.067066997 0.092418998 -0.2278375
-0.066897005 0.092442669 -0.227805
-0.066625327 0.092429332 -0.22777832
-0.06645 0.092420332 -0.22776568
-0.06634488 0.092422754 -0.22774562
-0.066180497 0.092436001 -0.227708
-0.060750168 0.092426158 -0.22773252
-0.060610667 0.092429332 -0.227798
-0.067943998 0.092569999 -0.227879
-0.067589 0.092559002 -0.22788
-0.067419998 0.092546999 -0.227879
-0.067211747 0.092596002 -0.22784962
-0.067078754 0.092616245 -0.22784875
-0.066889495 0.092621997 -0.2278145
-0.066616505 0.092610002 -0.22780201
-0.066442505 0.092600003 -0.2277765
-0.066323146 0.092608437 -0.22776358
-0.066173337 0.092615664 -0.227718
-0.066029504 0.092643 -0.227706
-0.060696498 0.092603505 -0.2277215
-0.060604997 0.092605002 -0.22776899
-0.076122001 0.092753999 -0.22787599
-0.067578003 0.092845 -0.22787701
-0.067227751 0.092785507 -0.22785574
-0.067092001 0.092778996 -0.227862
-0.066881664 0.092801332 -0.227823
-0.066609666 0.092788666 -0.22780299
-0.066435337 0.092778333 -0.22777633
-0.066330001 0.092781 -0.22776112
-0.066166997 0.092793003 -0.227705
-0.066026002 0.092750996 -0.22770201
-0.060599331 0.092781663 -0.22774298
-0.075689003 0.093020998 -0.22787701
-0.067573994 0.092951998 -0.22787499
-0.067400999 0.093047 -0.22787701
-0.067220993 0.092963494 -0.22785467
-0.067084998 0.092957668 -0.2278675
-0.066874504 0.092979997 -0.227825
-0.066603005 0.092967004 -0.22780299
-0.066428497 0.092956498 -0.227768
-0.066316001 0.092976123 -0.22775689
-0.066159002 0.092972003 -0.22771268
-0.066016994 0.092964999 -0.22771199
-0.060594499 0.092956498 -0.2277045
-0.060363002 0.092959002 -0.22786599
-0.060252 0.093053997 -0.22786599
-0.076172002 0.093185 -0.227879
-0.075943328 0.093167998 -0.22786868
-0.075684331 0.093162328 -0.22786766
-0.075589001 0.093229003 -0.22788
-0.067397997 0.093117997 -0.22787499
-0.067213997 0.093142003 -0.22785476
-0.067077994 0.093136996 -0.2278665
-0.066866994 0.09315934 -0.22783633
-0.066526398 0.093128003 -0.22779801
-0.066322878 0.093157254 -0.22777274
-0.066152498 0.093151003 -0.2277195
-0.066009499 0.093144998 -0.22772199
-0.060357999 0.093135677 -0.22783534
-0.06022967 0.093172006 -0.22784834
-0.076526999 0.093346 -0.227879
-0.076441497 0.093376994 -0.22786549
-0.076196 0.093326174 -0.22787333
-0.076025665 0.093316339 -0.22786568
-0.075891003 0.093345001 -0.22786599
-0.075717002 0.093342498 -0.22787499
-0.075585999 0.093299001 -0.227878
-0.067206167 0.093322001 -0.22786884
-0.06707117 0.093315333 -0.22786617
-0.066861004 0.093336999 -0.2278225
-0.066588506 0.093323 -0.22780201
-0.066321455 0.093338825 -0.22777838
-0.066144668 0.093330003 -0.22773068
-0.066002004 0.09332367 -0.227732
-0.065737002 0.093387 -0.227709
-0.06035167 0.093346663 -0.22779234
-0.060214337 0.093336336 -0.22782983
-0.060116 0.09341 -0.227879
-0.076518998 0.093560003 -0.227878
-0.07621666 0.093505673 -0.227865
-0.07604266 0.093510002 -0.22787465
-0.075883664 0.093523674 -0.22787298
-0.075718202 0.093534805 -0.22786579
-0.075575002 0.093584999 -0.22787701
-0.067550004 0.093557999 -0.227874
-0.067199253 0.093501002 -0.22787175
-0.067055404 0.093514599 -0.2278574
-0.066854 0.093515337 -0.227823
-0.066582002 0.093501665 -0.227798
-0.066332109 0.093511894 -0.22776835
-0.0661375 0.093507998 -0.227727
-0.065994501 0.093502998 -0.2277405
-0.065758325 0.093527995 -0.22771268
-0.065650001 0.093554497 -0.2277135
-0.065465003 0.093434997 -0.22770099
-0.060346998 0.093520999 -0.22774401
-0.060209498 0.093510747 -0.2277815
-0.060114 0.093514994 -0.227844
-0.076709002 0.093676999 -0.227872
-0.076516002 0.093630001 -0.227874
-0.076426998 0.093734503 -0.22787699
-0.076195143 0.093671434 -0.22785673
-0.076048829 0.093674995 -0.22786333
-0.075892337 0.093690336 -0.227872
-0.075703502 0.093698494 -0.22787398
-0.067546502 0.093663998 -0.2278585
-0.067373 0.093762003 -0.22787701
-0.067192502 0.093678504 -0.22786565
-0.067065999 0.093683802 -0.2278382
-0.066848502 0.093691006 -0.22779301
-0.066575497 0.093679994 -0.2277925
-0.066323549 0.093687221 -0.22777645
-0.066172197 0.093706205 -0.22775039
-0.065986998 0.093681671 -0.22774799
-0.065757401 0.093684807 -0.22770879
-0.065597251 0.093695 -0.22771451
-0.06538 0.093716003 -0.22770201
-0.065332003 0.093716003 -0.22770999
-0.060342498 0.093661502 -0.22772551
-0.060204502 0.093686998 -0.22775383
-0.060079597 0.0937052 -0.22783661
-0.076723747 0.093874 -0.22787026
-0.076604001 0.093885005 -0.227864
-0.076398335 0.093886338 -0.22787201
-0.076203667 0.093860663 -0.22785334
-0.076033607 0.093873993 -0.227864
-0.075869665 0.093879335 -0.22787249
-0.075738505 0.093842 -0.227874
-0.075513497 0.093938001 -0.227878
-0.067367002 0.093904004 -0.22788
-0.067185253 0.093856752 -0.22786826
-0.067029253 0.093867749 -0.22786151
-0.066840336 0.093871675 -0.227818
-0.066568337 0.093858995 -0.22779667
-0.066341855 0.093869574 -0.227797
-0.066175997 0.093871996 -0.22776501
-0.065980002 0.093860999 -0.22774899
-0.065756999 0.093885504 -0.22772901
-0.065590501 0.093872666 -0.22770733
-0.065411001 0.093862504 -0.22770698
-0.065325327 0.093858667 -0.22772233
-0.060190003 0.093851 -0.22771601
-0.060068998 0.093865246 -0.22779274
-0.076731205 0.094053201 -0.227851
-0.076573506 0.094044499 -0.227871
-0.076398149 0.094061278 -0.22785644
-0.076204754 0.094028249 -0.22783799
-0.076057829 0.094056509 -0.22786067
-0.075863242 0.094056748 -0.22786175
-0.075727999 0.094091997 -0.227879
-0.075525999 0.094034337 -0.22787599
-0.067529 0.094094999 -0.22787401
-0.067361332 0.094048001 -0.22787666
-0.067178339 0.094036005 -0.22786851
-0.067042254 0.094063506 -0.227851
-0.066833004 0.094050497 -0.227824
-0.066559501 0.094041005 -0.22782899
-0.066326663 0.094062105 -0.22778422
-0.066168837 0.094050832 -0.22776717
-0.065973006 0.094039671 -0.227754
-0.065749496 0.094065502 -0.22773224
-0.065630496 0.094054498 -0.22771701
-0.065403752 0.094041005 -0.22771101
-0.065318495 0.094038002 -0.22772199
-0.060016625 0.094033502 -0.22777562
-0.059856001 0.094116002 -0.227865
-0.076742001 0.094225205 -0.22785501
-0.076592498 0.094237506 -0.2278235
-0.076415002 0.094229169 -0.22784267
-0.076219 0.094215505 -0.22782899
-0.076053999 0.094236508 -0.22784975
-0.075856835 0.09423434 -0.22785233
-0.075690195 0.094247401 -0.2278688
-0.075550325 0.094226003 -0.22787298
-0.067791499 0.094241999 -0.22786799
-0.067524999 0.094201997 -0.227873
-0.0673545 0.094226003 -0.227871
-0.067175798 0.094235003 -0.22786181
-0.067035504 0.094241999 -0.22784768
-0.066826664 0.094228327 -0.22781201
-0.066553667 0.094217338 -0.22781134
-0.066319168 0.094241329 -0.22779584
-0.06616275 0.094227754 -0.22775024
-0.065965503 0.094219498 -0.22776601
-0.065743171 0.094242007 -0.22771966
-0.065575667 0.094231836 -0.22772616
-0.065360002 0.094217338 -0.22771335
-0.065311335 0.094215997 -0.22771834
-0.059971001 0.094206005 -0.22775035
-0.059854001 0.094219998 -0.22782299
-0.076727994 0.094420336 -0.227805
-0.076586001 0.094414331 -0.22781266
-0.076408446 0.094405897 -0.22782932
-0.076212168 0.094393335 -0.22782618
-0.076066427 0.094407856 -0.22783773
-0.075850502 0.094410501 -0.22783625
-0.075676501 0.094410002 -0.22785425
-0.075511336 0.094413005 -0.22786534
-0.067786999 0.094347998 -0.227869
-0.067514002 0.094488002 -0.22788
-0.067347325 0.094405331 -0.22787333
-0.06722828 0.094416432 -0.22786285
-0.067065336 0.094423331 -0.22784935
-0.066818997 0.094407 -0.22782101
-0.066547006 0.094394997 -0.2278025
-0.066312 0.094420224 -0.22779799
-0.066155165 0.094407655 -0.2277595
-0.065958329 0.094397999 -0.22776566
-0.065775499 0.094420001 -0.227732
-0.065611333 0.094413333 -0.22771515
-0.065353498 0.094395995 -0.227704
-0.065304004 0.094428338 -0.227704
-0.059942 0.094323002 -0.227723
-0.059850004 0.094392665 -0.22776033
-0.05973075 0.094416 -0.22785048
-0.076764494 0.094600499 -0.227828
-0.076626256 0.09459725 -0.2278325
-0.076401502 0.094584167 -0.22783084
-0.076199993 0.094590798 -0.2278146
-0.076049782 0.094598994 -0.22782046
-0.075844005 0.094588168 -0.22783218
-0.075669669 0.09458717 -0.22785498
-0.075489834 0.094576992 -0.22785167
-0.067863002 0.094641 -0.227879
-0.067777 0.094599999 -0.22787699
-0.067509502 0.094595 -0.227872
-0.067341499 0.094581001 -0.227852
-0.067195252 0.094607502 -0.2278585
-0.067058779 0.094600886 -0.22783624
-0.066812001 0.094585665 -0.22781533
-0.066539995 0.094574332 -0.227808
-0.066305839 0.094597332 -0.22778232
-0.066148505 0.094586 -0.227761
-0.065952003 0.094575003 -0.22774899
-0.06576933 0.094598658 -0.22772099
-0.065648839 0.094595999 -0.22772349
-0.065474004 0.094563 -0.22770351
-0.065298997 0.094571002 -0.22770099
-0.059847001 0.094530001 -0.22770999
-0.059701998 0.094604164 -0.22777916
-0.059519667 0.094651997 -0.22785167
-0.077090502 0.094763994 -0.22787449
-0.076757662 0.094778001 -0.22782333
-0.076619498 0.094774842 -0.22783084
-0.076405875 0.094750501 -0.22779612
-0.076223336 0.094772838 -0.22780716
-0.076044172 0.094774 -0.22779267
-0.075837746 0.094764501 -0.22781725
-0.075663999 0.094763249 -0.227832
-0.075472601 0.094775602 -0.2278498
-0.075148337 0.094773501 -0.227872
-0.074948996 0.094799995 -0.2278755
-0.074865662 0.094759665 -0.22786301
-0.067918338 0.094785661 -0.22786634
-0.067812994 0.094815753 -0.22786525
-0.067503005 0.09477333 -0.22786967
-0.067333996 0.09476167 -0.22787066
-0.067236252 0.094763249 -0.22786503
-0.0670515 0.094779827 -0.22784115
-0.066805005 0.094765 -0.22782099
-0.066532001 0.094787002 -0.22779034
-0.066298999 0.094776005 -0.22777888
-0.066141993 0.094763666 -0.22774948
-0.065944999 0.094754331 -0.22774899
-0.065762505 0.094776005 -0.227716
-0.065642752 0.094773002 -0.22770551
-0.0655085 0.094760999 -0.22770199
-0.059648998 0.094776005 -0.227716
-0.059501749 0.094780006 -0.22781801
-0.059367999 0.094778001 -0.22787049
-0.077082999 0.094978005 -0.22786951
-0.0767515 0.094955996 -0.227817
-0.076613255 0.094952002 -0.227824
-0.076427251 0.094938003 -0.22777951
-0.076222375 0.094953373 -0.22779888
-0.076037779 0.094951555 -0.22778434
-0.075831831 0.094941162 -0.22779535
-0.075657338 0.094940163 -0.22782169
-0.075485997 0.094945401 -0.2278318
-0.075142249 0.094950497 -0.22785877
-0.074943498 0.094943002 -0.22787601
-0.074858502 0.094937995 -0.22786251
-0.074486002 0.094922006 -0.22786951
-0.068099998 0.094866998 -0.227879
-0.067941502 0.094966002 -0.2278645
-0.06780725 0.094958253 -0.227863
-0.067382336 0.094956674 -0.22787599
-0.067168333 0.094962336 -0.22784932
-0.067044549 0.09495955 -0.22784522
-0.066798665 0.094943009 -0.227809
-0.066525504 0.094964996 -0.227788
-0.066302799 0.094946995 -0.22777359
-0.066156 0.094951592 -0.2277524
-0.065937333 0.094967 -0.22773401
-0.065756001 0.094955333 -0.22771533
-0.065642998 0.094967604 -0.2277064
-0.059645001 0.094883002 -0.22770099
-0.059497166 0.094953835 -0.22776733
-0.059363335 0.094953336 -0.22783233
-0.077248 0.095127001 -0.227856
-0.077078499 0.095118001 -0.227845
-0.076745003 0.095131338 -0.22779201
-0.076606832 0.095128499 -0.227807
-0.076421164 0.095113665 -0.22776501
-0.076237857 0.095125437 -0.22779259
-0.076045409 0.095123008 -0.22778261
-0.075870253 0.095119491 -0.22778225
-0.075677201 0.095123202 -0.22779179
-0.075479597 0.095129207 -0.22781642
-0.075419001 0.095210999 -0.227805
-0.075135835 0.095127337 -0.22784667
-0.074975498 0.095122844 -0.22786766
-0.074825004 0.095132999 -0.22786051
-0.067937002 0.095073998 -0.22787701
-0.067778498 0.09515325 -0.22785224
-0.067447752 0.095109001 -0.22786501
-0.067244001 0.09515442 -0.22786488
-0.067053199 0.095131397 -0.22784381
-0.066848338 0.095136337 -0.22780734
-0.066518664 0.095144004 -0.22778232
-0.06631083 0.0951325 -0.22777033
-0.066163339 0.095125005 -0.22775666
-0.065930501 0.095145002 -0.22773001
-0.065749004 0.095132999 -0.22771251
-0.065628499 0.095131002 -0.2277115
-0.059446 0.095129997 -0.227759
-0.059355997 0.095132999 -0.227835
-0.077519 0.095394 -0.227871
-0.07729467 0.095308661 -0.227844
-0.077073 0.095292665 -0.227817
-0.076739505 0.095307 -0.22777301
-0.076600745 0.095305003 -0.22778751
-0.0764044 0.095313802 -0.22777259
-0.07621967 0.09531644 -0.22777469
-0.07606066 0.095308669 -0.22776766
-0.075908832 0.095298499 -0.22776699
-0.075687446 0.095294215 -0.2277921
-0.0755115 0.095321 -0.2277865
-0.0754155 0.095316 -0.22779399
-0.075130254 0.095303498 -0.227823
-0.0749695 0.095299497 -0.22785026
-0.074791498 0.095327847 -0.22785665
-0.074622996 0.095340252 -0.22786824
-0.06779325 0.095317997 -0.22787327
-0.067482501 0.095308006 -0.227855
-0.067223594 0.0953127 -0.22786181
-0.067069337 0.095317669 -0.2278375
-0.066869497 0.095305003 -0.22781551
-0.066512004 0.095321998 -0.22777799
-0.066303998 0.095310509 -0.22776677
-0.066156998 0.095302664 -0.22774768
-0.065923996 0.095324002 -0.22772799
-0.065745004 0.095238999 -0.22770301
-0.065614201 0.095294401 -0.22770801
-0.059440669 0.095306665 -0.22772999
-0.059350669 0.095308997 -0.22780667
-0.077515498 0.0955 -0.2278665
-0.07728675 0.095487006 -0.227856
-0.077064998 0.095506668 -0.22781067
-0.076732002 0.095486335 -0.22778165
-0.076594494 0.095481664 -0.22777534
-0.076414801 0.095484994 -0.22776802
-0.076213337 0.095492661 -0.22776084
-0.076053753 0.095486499 -0.227763
-0.075902 0.095475003 -0.22776251
-0.075721502 0.095507167 -0.22777317
-0.075551331 0.095500834 -0.227769
-0.07540933 0.095493339 -0.22778666
-0.075123332 0.095480502 -0.22781517
-0.074963003 0.095476665 -0.22784217
-0.074785747 0.095503747 -0.22783275
-0.074594997 0.095499001 -0.22786249
-0.074464001 0.095492005 -0.22786799
-0.067786328 0.095495999 -0.22787118
-0.067475326 0.095486999 -0.22785799
-0.067238301 0.095486 -0.22785881
-0.06706275 0.095496498 -0.22783025
-0.066947997 0.095488995 -0.22781301
-0.066778004 0.095477998 -0.22780201
-0.066505 0.095501333 -0.227778
-0.066298328 0.095487498 -0.22774716
-0.066176571 0.095472284 -0.22773828
-0.065917499 0.095502004 -0.2277175
-0.059433497 0.095484003 -0.22771999
-0.0593445 0.095486999 -0.22779149
-0.077508003 0.095678665 -0.22787465
-0.077280335 0.095664829 -0.22784783
-0.077058002 0.0956835 -0.22780749
-0.076725498 0.095663995 -0.227771
-0.076587498 0.095659994 -0.22777399
-0.07639917 0.09568283 -0.22775167
-0.076215759 0.095661625 -0.22774775
-0.076060005 0.095674142 -0.22775556
-0.075895496 0.095653832 -0.22775368
-0.075714499 0.09568575 -0.22777101
-0.075544499 0.095678493 -0.227762
-0.075403005 0.095670506 -0.227768
-0.075117253 0.095657244 -0.22779351
-0.074947797 0.095674597 -0.2278316
-0.074779332 0.095681004 -0.22781801
-0.074588999 0.095675163 -0.22784333
-0.074418165 0.095669501 -0.22786166
-0.074316502 0.095628999 -0.22787601
-0.074092001 0.095683999 -0.22787601
-0.068066999 0.095725 -0.22787
-0.067910999 0.095720001 -0.227879
-0.067781001 0.095671505 -0.227841
-0.067468494 0.095666006 -0.22785249
-0.067220904 0.095670596 -0.22785191
-0.067067713 0.095685005 -0.22782673
-0.066940002 0.095668666 -0.227827
-0.066771001 0.095657669 -0.22779767
-0.066497996 0.095679 -0.22777151
-0.066291004 0.095666505 -0.227745
-0.066188 0.095662996 -0.22774525
-0.065967597 0.095696799 -0.2277092
-0.059425998 0.095665328 -0.22773266
-0.059337664 0.095665328 -0.22778267
-0.07729166 0.09583167 -0.22784601
-0.077093497 0.095863998 -0.22780651
-0.076718666 0.095841326 -0.22776902
-0.076581165 0.095837168 -0.22776566
-0.076392993 0.09586025 -0.227742
-0.076233499 0.095850497 -0.22775149
-0.076071836 0.095841326 -0.22774099
-0.075888328 0.095865667 -0.22773467
-0.07570833 0.09586183 -0.22775583
-0.075539336 0.095854007 -0.22773667
-0.075397007 0.095847003 -0.22775598
-0.075166337 0.095838003 -0.22779067
-0.074994124 0.095840625 -0.22780627
-0.074772254 0.095858745 -0.22781575
-0.074582748 0.095852256 -0.22782549
-0.074412003 0.095845997 -0.22784375
-0.074286669 0.095852673 -0.22786565
-0.07410983 0.095865667 -0.22786433
-0.073863 0.095927998 -0.22787599
-0.068061329 0.095867001 -0.22786433
-0.067906 0.095861338 -0.22787134
-0.067773826 0.095850833 -0.22784017
-0.067462333 0.095844001 -0.22784467
-0.067248143 0.095849574 -0.22784355
-0.067077667 0.095853329 -0.2278225
-0.066933498 0.095846996 -0.227819
-0.066765502 0.095834002 -0.22777951
-0.066492669 0.095855661 -0.227744
-0.066284165 0.09584567 -0.22774683
-0.066181332 0.095842332 -0.22774136
-0.065951668 0.095848672 -0.22770934
-0.059419498 0.095844001 -0.227723
-0.059331499 0.095843002 -0.227768
-0.077319674 0.096026003 -0.22784732
-0.077146605 0.096025005 -0.22781198
-0.076712504 0.096018001 -0.22775701
-0.076563798 0.096036002 -0.227761
-0.076385669 0.096038841 -0.22774418
-0.076226674 0.096028499 -0.22774701
-0.076065749 0.096016869 -0.227713
-0.075867668 0.096029669 -0.22771633
-0.075702749 0.096038498 -0.22773474
-0.075531997 0.096032493 -0.22773425
-0.075389996 0.096026003 -0.227755
-0.075159669 0.096047997 -0.22775768
-0.074977115 0.096044883 -0.22779877
-0.074767165 0.096034169 -0.22778833
-0.074576326 0.096029669 -0.22781466
-0.074405842 0.096022993 -0.22783048
-0.074239336 0.096016221 -0.22785078
-0.074103758 0.096041992 -0.2278465
-0.073860005 0.096032999 -0.2278605
-0.068324 0.096100003 -0.22788
-0.068054006 0.096046999 -0.22786999
-0.067899495 0.096038997 -0.2278665
-0.067766003 0.096031502 -0.22785474
-0.0674555 0.096022002 -0.227837
-0.067233332 0.096042991 -0.22783944
-0.067071326 0.096030995 -0.22781022
-0.066926666 0.09602534 -0.22781901
-0.06675867 0.096011333 -0.22776799
-0.066485494 0.096035004 -0.22774601
-0.06627775 0.096023001 -0.22773427
-0.066174753 0.096019 -0.2277275
-0.066042997 0.095969997 -0.22770099
-0.059412669 0.096023671 -0.22772901
-0.059323329 0.096024662 -0.227786
-0.077312998 0.096202493 -0.22783601
-0.077164754 0.096208006 -0.227815
-0.0770365 0.096253 -0.22779
-0.076705664 0.096195996 -0.22775199
-0.076576605 0.096207008 -0.22775599
-0.07638 0.096214749 -0.22772101
-0.076220497 0.096205756 -0.22773775
-0.076047331 0.096205831 -0.22771282
-0.075883999 0.096207194 -0.22772601
-0.07569617 0.09621533 -0.22772585
-0.0755255 0.096209832 -0.22773118
-0.075383998 0.096200995 -0.227735
-0.0751535 0.096225001 -0.227744
-0.074970998 0.096221663 -0.22778849
-0.07476075 0.096211247 -0.2277765
-0.074570253 0.096206248 -0.2277995
-0.074400246 0.096198499 -0.2278015
-0.074232839 0.096194506 -0.22784536
-0.074097663 0.096218497 -0.22783066
-0.073852994 0.096210331 -0.22784968
-0.073569998 0.096276999 -0.22787499
-0.06804733 0.096224338 -0.22786433
-0.067892335 0.09621767 -0.22785933
-0.067759492 0.096209168 -0.22784467
-0.067449331 0.096199334 -0.227826
-0.067226671 0.096221663 -0.22783302
-0.067065001 0.096208997 -0.22779553
-0.066920996 0.096202001 -0.22779
-0.066750668 0.096225671 -0.22775935
-0.066478997 0.096212 -0.22773634
-0.066287756 0.096184507 -0.22772875
-0.06618537 0.096206881 -0.22772537
-0.059404001 0.096206002 -0.2277545
-0.059315503 0.096206002 -0.22780201
-0.077306338 0.096379668 -0.22783132
-0.077199504 0.096406996 -0.22781
-0.077030495 0.096395999 -0.22779649
-0.076697998 0.096409 -0.22774033
-0.076550595 0.096390396 -0.22774458
-0.076373503 0.096391164 -0.22770917
-0.076214001 0.096382499 -0.22772767
-0.076008327 0.096419998 -0.227718
-0.075911999 0.096402004 -0.227715
-0.075689748 0.096393004 -0.22771201
-0.075519249 0.096386999 -0.2277185
-0.075378001 0.096377 -0.227713
-0.075146668 0.096403666 -0.22774267
-0.074964784 0.096398659 -0.22777134
-0.074765801 0.096373402 -0.227754
-0.074608602 0.096387208 -0.227796
-0.074424997 0.096386001 -0.22779137
-0.074226558 0.096371114 -0.22782987
-0.074091248 0.096394993 -0.22781599
-0.073846504 0.096387997 -0.22784699
-0.073668003 0.096386001 -0.22786701
-0.073566496 0.096384004 -0.22787851
-0.06831 0.096458003 -0.227879
-0.068042003 0.096366003 -0.227851
-0.067937665 0.096409328 -0.22784233
-0.067753255 0.096386246 -0.22783275
-0.067442499 0.096377999 -0.2278185
-0.067219786 0.096400328 -0.22782789
-0.067058332 0.096386999 -0.22779267
-0.066914335 0.096380331 -0.22779234
-0.066743501 0.096404999 -0.22776499
-0.066471994 0.096390501 -0.2277375
-0.066296503 0.096380994 -0.22772101
-0.066177145 0.096391141 -0.22771828
-0.059488669 0.096384011 -0.22771066
-0.0593515 0.096387506 -0.22780333
-0.077299505 0.096559003 -0.227833
-0.077192001 0.096585669 -0.227827
-0.077024005 0.096573673 -0.227787
-0.076690495 0.096588001 -0.2277495
-0.076563001 0.096563607 -0.22775158
-0.076366246 0.096570507 -0.2277185
-0.076207496 0.096559502 -0.22771551
-0.075997248 0.096567251 -0.22771126
-0.07590533 0.096578993 -0.22770834
-0.075640999 0.096533999 -0.22771201
-0.075490505 0.096545003 -0.227707
-0.0751395 0.096581995 -0.227741
-0.074958831 0.09657383 -0.22774534
-0.074801505 0.096565001 -0.227726
-0.074648254 0.096564502 -0.227777
-0.074429169 0.096554331 -0.22777967
-0.074237287 0.096573137 -0.22780557
-0.074103124 0.096583128 -0.22779912
-0.07384067 0.096565008 -0.22782399
-0.073661 0.096565001 -0.22786133
-0.073527202 0.096575804 -0.22787721
-0.068476997 0.096608996 -0.22787
-0.068309836 0.096563667 -0.22787184
-0.067956664 0.096577324 -0.22784416
-0.067746833 0.096564174 -0.22782183
-0.067436002 0.09655533 -0.22781067
-0.067213498 0.096577503 -0.22781701
-0.067051835 0.096565001 -0.22778518
-0.066907495 0.096558496 -0.22778201
-0.066737004 0.096583001 -0.22775368
-0.06646467 0.096571662 -0.22774701
-0.066290326 0.096558996 -0.22771434
-0.066183999 0.096564248 -0.22771437
-0.059512664 0.096578665 -0.22773135
-0.059357669 0.096558996 -0.227826
-0.077468999 0.096678004 -0.22787599
-0.077291332 0.096738666 -0.22784866
-0.077185005 0.096764997 -0.227823
-0.077017501 0.096749999 -0.22778401
-0.076684006 0.096764661 -0.22773899
-0.076570749 0.096745245 -0.22774526
-0.076440006 0.096767001 -0.227718
-0.076251432 0.096721418 -0.22771287
-0.075972497 0.096762002 -0.227707
-0.075897999 0.096758001 -0.22771451
-0.075461 0.096703999 -0.227704
-0.075134002 0.096756659 -0.227714
-0.074974142 0.096741714 -0.22773299
-0.074827798 0.096758999 -0.2277308
-0.074641667 0.096742332 -0.22776599
-0.074433632 0.096722871 -0.22776437
-0.074262403 0.096768603 -0.22779498
-0.074103832 0.096750833 -0.22777651
-0.073835 0.09674 -0.22779849
-0.073655002 0.096741498 -0.227852
-0.073513255 0.096738495 -0.22786951
-0.073305666 0.096760668 -0.22787166
-0.073094003 0.096817002 -0.227874
-0.068650499 0.096795 -0.22787601
-0.068471335 0.096751668 -0.22787434
-0.068305165 0.096742176 -0.22786683
-0.068138994 0.096731998 -0.22785901
-0.067950748 0.096753746 -0.22782424
-0.067740247 0.096742496 -0.22781876
-0.067428499 0.0967355 -0.227816
-0.067207664 0.096754439 -0.22779576
-0.067044891 0.096743114 -0.22777812
-0.066901006 0.096735992 -0.22777466
-0.06673 0.096760496 -0.22774801
-0.066459 0.096746996 -0.227727
-0.066283494 0.096736997 -0.22770751
-0.066147499 0.096733004 -0.22771475
-0.059668001 0.096822001 -0.227718
-0.059520837 0.096749835 -0.22775717
-0.059378665 0.096752666 -0.22783299
-0.0772845 0.096917003 -0.22784799
-0.077178001 0.096942998 -0.22782767
-0.077010669 0.096928664 -0.22777767
-0.0766325 0.096942499 -0.22773549
-0.076443002 0.096932001 -0.227725
-0.076287329 0.096933335 -0.22770166
-0.075969003 0.096868001 -0.227706
-0.075893998 0.096862003 -0.227707
-0.075129002 0.096900001 -0.227709
-0.074982747 0.096930251 -0.22772649
-0.074830249 0.0969235 -0.22772676
-0.074635506 0.096918747 -0.22775351
-0.074456669 0.096944503 -0.22773917
-0.074269556 0.09693934 -0.22777121
-0.074097119 0.096928775 -0.22777078
-0.073828004 0.096918009 -0.22779034
-0.073648669 0.096918665 -0.22782965
-0.073507838 0.096914165 -0.2278405
-0.073298998 0.096937999 -0.227863
-0.073090002 0.096921995 -0.2278645
-0.073036 0.096955001 -0.227872
-0.072804667 0.096947998 -0.22785932
-0.072717667 0.096945666 -0.22786398
-0.068643004 0.096974999 -0.22787701
-0.068464503 0.096930996 -0.22787601
-0.0682965 0.096920334 -0.22786067
-0.068131335 0.096945666 -0.22784533
-0.067944333 0.096931837 -0.22781549
-0.067733496 0.096920826 -0.22780918
-0.06742233 0.096912332 -0.22780101
-0.067200996 0.096932672 -0.22778867
-0.067038335 0.096921332 -0.22776817
-0.066893995 0.096948333 -0.22775233
-0.066724665 0.096936665 -0.22772366
-0.066452332 0.096925341 -0.22771299
-0.066277996 0.096880004 -0.227706
-0.059662499 0.096933 -0.22773701
-0.05951225 0.096932754 -0.22779123
-0.077277996 0.097095005 -0.227845
-0.077170506 0.097122997 -0.22783799
-0.077003494 0.097107999 -0.2277865
-0.076624505 0.097123168 -0.22775383
-0.076435998 0.097111166 -0.22773051
-0.076268993 0.097100161 -0.22770751
-0.076136999 0.097162001 -0.22770099
-0.075883001 0.097148001 -0.227706
-0.074967332 0.097059332 -0.22771101
-0.074840002 0.097052328 -0.22771168
-0.074629501 0.097094499 -0.22772968
-0.074436337 0.097107671 -0.22772533
-0.074263163 0.097115837 -0.22775835
-0.074091166 0.09710484 -0.22775017
-0.073821999 0.097094506 -0.227777
-0.0736425 0.097093999 -0.2278105
-0.073500328 0.097126 -0.22782183
-0.073292665 0.097113669 -0.22784601
-0.073123254 0.097115748 -0.22785938
-0.073031671 0.097095668 -0.22785467
-0.072840504 0.097130001 -0.22785874
-0.072710499 0.097125001 -0.22786701
-0.068637997 0.097116999 -0.22786665
-0.068457671 0.097108997 -0.22786899
-0.068310715 0.097089 -0.22784784
-0.068171747 0.097125493 -0.22783449
-0.067963667 0.097100668 -0.22781567
-0.067753598 0.097106203 -0.22779441
-0.067415662 0.09712366 -0.22777067
-0.06720075 0.097103119 -0.22779301
-0.067042604 0.097107306 -0.22776191
-0.0668865 0.097128004 -0.2277475
-0.066717505 0.097116001 -0.22772801
-0.066444002 0.097139001 -0.22770099
-0.05969983 0.097113669 -0.22774048
-0.059513599 0.097102799 -0.227827
-0.0772705 0.097274005 -0.2278475
-0.077163331 0.097300328 -0.22783667
-0.076996334 0.097286671 -0.227789
-0.076616749 0.097303495 -0.22777024
-0.076428249 0.097290501 -0.22773625
-0.076262251 0.097277999 -0.227707
-0.074609004 0.097258002 -0.22770534
-0.074400999 0.097295336 -0.22771168
-0.074256778 0.097293228 -0.22774921
-0.074084669 0.097282559 -0.22774233
-0.073815666 0.097271658 -0.227759
-0.073635332 0.097273 -0.22781368
-0.073494501 0.097302005 -0.2278
-0.073285997 0.097292006 -0.22783899
-0.073144749 0.097291 -0.22786525
-0.073019333 0.097278006 -0.22785366
-0.072825402 0.0972922 -0.22785299
-0.072669201 0.0973178 -0.22787161
-0.068631001 0.097296 -0.227871
-0.068452001 0.097285002 -0.22784549
-0.068318501 0.097279504 -0.22784175
-0.06816534 0.097303174 -0.22782819
-0.068008006 0.097292997 -0.22781567
-0.067809336 0.09728083 -0.2277865
-0.067677334 0.097272992 -0.22778
-0.067408502 0.097302005 -0.227768
-0.067213997 0.097291 -0.22778
-0.067053117 0.097278245 -0.22775212
-0.066881001 0.097303666 -0.22772501
-0.066711672 0.097292662 -0.22770733
-0.066441998 0.097208999 -0.22770099
-0.059824999 0.097331002 -0.227709
-0.05969125 0.097296752 -0.22776949
-0.059543498 0.097300999 -0.2278505
-0.077264331 0.097451665 -0.22783767
-0.077156998 0.097477496 -0.22782451
-0.0769905 0.097463995 -0.22777
-0.076610833 0.097479157 -0.22774987
-0.076422162 0.097467333 -0.227726
-0.076255001 0.097456254 -0.22770625
-0.074250832 0.097469665 -0.22773083
-0.074078165 0.097460002 -0.227732
-0.073808335 0.097484328 -0.22774732
-0.073628999 0.097484671 -0.22778733
-0.073488504 0.097479336 -0.22777967
-0.073280662 0.097468339 -0.22781335
-0.073138997 0.097466499 -0.22784102
-0.073013663 0.097453445 -0.22782622
-0.0728366 0.097464398 -0.22784421
-0.072654754 0.097481005 -0.22786099
-0.072527997 0.097514004 -0.22786599
-0.072331995 0.097467005 -0.22786999
-0.071992002 0.097557999 -0.22788
-0.070364997 0.097483002 -0.22787701
-0.070004001 0.097535998 -0.227879
-0.068625003 0.09747199 -0.22785433
-0.068445005 0.097463667 -0.22783667
-0.068312339 0.097456507 -0.22783132
-0.0681585 0.097481996 -0.227824
-0.068002 0.097469002 -0.22779599
-0.067802504 0.097459495 -0.22778501
-0.067668997 0.097486667 -0.22777069
-0.067401335 0.097482659 -0.22777866
-0.067207336 0.097468831 -0.22776668
-0.067076437 0.097458556 -0.22774935
-0.066923201 0.097464204 -0.22773281
-0.059818331 0.097478002 -0.227722
-0.059682172 0.097481668 -0.22781152
-0.059537999 0.097410999 -0.22786801
-0.077256002 0.09766499 -0.227834
-0.077150002 0.097656332 -0.22782801
-0.076982997 0.097642004 -0.22777335
-0.076604001 0.097657248 -0.22774801
-0.076415755 0.097644001 -0.22771201
-0.0762465 0.097671002 -0.22771375
-0.076118499 0.097625002 -0.227704
-0.074226856 0.09763401 -0.22771542
-0.074089162 0.097615175 -0.22771783
-0.073802002 0.097661003 -0.2277305
-0.073622495 0.097659998 -0.22776601
-0.073482253 0.097654998 -0.22776449
-0.073275 0.097644001 -0.227789
-0.073133245 0.09764275 -0.22781925
-0.073006779 0.09766411 -0.22779833
-0.072821498 0.097660668 -0.22781883
-0.072648667 0.097656839 -0.22783951
-0.072495252 0.097671248 -0.22785351
-0.072277717 0.097651564 -0.22785816
-0.072093002 0.097701997 -0.22786801
-0.07193467 0.097676337 -0.22787534
-0.070453495 0.097668 -0.2278775
-0.069999501 0.097644001 -0.227873
-0.069663003 0.097736001 -0.22788
-0.069495 0.097730003 -0.22787701
-0.069302998 0.097654007 -0.22787468
-0.069013663 0.097634673 -0.22786868
-0.068618499 0.097649999 -0.227845
-0.0684385 0.097642004 -0.227835
-0.068297006 0.097655192 -0.22782142
-0.068152003 0.09765967 -0.22781599
-0.067995332 0.097647332 -0.22778766
-0.067795664 0.097638004 -0.22778051
-0.0676625 0.097663999 -0.22775801
-0.067395002 0.097659998 -0.227763
-0.06720075 0.097647004 -0.227761
-0.067081198 0.097627804 -0.22773281
-0.066907667 0.097662836 -0.227723
-0.059809498 0.097661003 -0.22775701
-0.059673499 0.097664498 -0.22783925
-0.077248 0.097845003 -0.227852
-0.077142499 0.097836502 -0.227836
-0.076975495 0.097821996 -0.22778501
-0.076598004 0.097833335 -0.22772683
-0.076456003 0.097828329 -0.22773965
-0.076247394 0.097827807 -0.22770841
-0.074205503 0.097822502 -0.22771801
-0.074113995 0.097819999 -0.227716
-0.073795669 0.097838007 -0.22771667
-0.073565669 0.097836167 -0.22775233
-0.073353 0.097824663 -0.22775452
-0.073127493 0.097818166 -0.22779317
-0.073000833 0.097840667 -0.22777916
-0.0728155 0.097837001 -0.22779825
-0.07264325 0.097832248 -0.2278115
-0.072463505 0.097827002 -0.2278225
-0.072252996 0.097818665 -0.22785731
-0.072087668 0.097844668 -0.22785567
-0.071919203 0.097825803 -0.2278538
-0.071819998 0.097911 -0.22786701
-0.071545668 0.097825341 -0.22787333
-0.071006 0.097874001 -0.227879
-0.070533 0.097850002 -0.22787701
-0.069992498 0.097822994 -0.227879
-0.069660999 0.097805001 -0.227865
-0.069558598 0.097846009 -0.22786419
-0.069005668 0.097848333 -0.22785568
-0.068611331 0.097829334 -0.22784567
-0.068433002 0.097817332 -0.22780667
-0.068306804 0.0978266 -0.22781022
-0.068145499 0.097836755 -0.2278015
-0.067988999 0.097824499 -0.22776899
-0.067780003 0.0978356 -0.22775722
-0.067655675 0.097842671 -0.227759
-0.067388333 0.097838335 -0.22775634
-0.067194499 0.097824 -0.22774667
-0.067088835 0.097815998 -0.22774333
-0.066888332 0.097827338 -0.227706
-0.059842166 0.097839497 -0.227744
-0.059682999 0.097797669 -0.22784634
-0.07724034 0.098025002 -0.22786601
-0.077135004 0.098017 -0.22785266
-0.076969333 0.097997338 -0.227768
-0.076591507 0.098010495 -0.22772026
-0.076401502 0.098002501 -0.22772124
-0.076226398 0.098012798 -0.22771421
-0.076099999 0.098088004 -0.22770099
-0.074169002 0.097928002 -0.227714
-0.074108496 0.097963005 -0.2277115
-0.073790997 0.09798 -0.227709
-0.073559999 0.098011494 -0.22772999
-0.073347755 0.097999498 -0.227727
-0.073116399 0.098013997 -0.2277654
-0.07299456 0.098017447 -0.22776665
-0.072809823 0.098012 -0.22777283
-0.072637171 0.098009668 -0.22779684
-0.07245817 0.098001838 -0.22779234
-0.07224711 0.097995333 -0.22783968
-0.072081499 0.098021999 -0.227846
-0.071977004 0.098014995 -0.227817
-0.071815997 0.098018005 -0.22785601
-0.071539499 0.098003998 -0.227864
-0.071273997 0.097994 -0.22787449
-0.071012244 0.098035745 -0.22787601
-0.070784666 0.098003328 -0.22786701
-0.070651993 0.098073497 -0.2278765
-0.070497662 0.098016672 -0.22787701
-0.070341997 0.098057002 -0.227879
-0.0699865 0.098000005 -0.22785899
-0.06956923 0.098017663 -0.22785722
-0.069221884 0.098006107 -0.2278631
-0.068999998 0.098025501 -0.227833
-0.068604998 0.098009005 -0.22783801
-0.068426996 0.097994 -0.2277855
-0.068291672 0.098025173 -0.22779401
-0.068139166 0.098014832 -0.22778885
-0.067983329 0.098001666 -0.22775267
-0.067791395 0.098008394 -0.2277544
-0.067648999 0.098021999 -0.227753
-0.0673825 0.098014995 -0.22773799
-0.067188002 0.098002002 -0.2277355
-0.067082748 0.097993001 -0.22772326
-0.066857003 0.097946003 -0.22770301
-0.059833746 0.098022252 -0.22777276
-0.059704334 0.097993337 -0.227863
-0.077234 0.098168999 -0.22787701
-0.077127501 0.098195001 -0.22786149
-0.076960996 0.098179996 -0.227797
-0.076583169 0.098191671 -0.22774416
-0.0763935 0.098181993 -0.22773784
-0.076233402 0.0981846 -0.2277104
-0.073605999 0.098153502 -0.22771099
-0.073371001 0.098131336 -0.22771567
-0.073159143 0.098191433 -0.22773743
-0.072988667 0.098194003 -0.22774734
-0.072804257 0.098188251 -0.227744
-0.072631247 0.098185495 -0.2277755
-0.072440803 0.098199204 -0.2277678
-0.072265804 0.098193005 -0.22780399
-0.07212583 0.098201662 -0.2278275
-0.071970664 0.098191671 -0.22779866
-0.071810998 0.098194003 -0.22782533
-0.071532331 0.098182 -0.22785966
-0.071235754 0.098189503 -0.22787249
-0.071018673 0.098205663 -0.227865
-0.070807002 0.098194659 -0.22785999
-0.070692495 0.098177999 -0.227855
-0.070476666 0.098204829 -0.22786166
-0.07029634 0.098195501 -0.22785951
-0.069980331 0.098176338 -0.22784233
-0.069604754 0.098196752 -0.22784451
-0.069478005 0.098193005 -0.2278575
-0.069216497 0.098181665 -0.2278325
-0.068993993 0.098201334 -0.227808
-0.068599336 0.098183669 -0.22780733
-0.068420336 0.098173328 -0.22777967
-0.068285495 0.098202497 -0.22777775
-0.068132743 0.098192751 -0.22777849
-0.067976996 0.098178998 -0.22773901
-0.067775331 0.098206341 -0.22773685
-0.067644 0.098196328 -0.22771633
-0.067377999 0.098155499 -0.22771701
-0.067175664 0.098129995 -0.22771132
-0.067104995 0.098136 -0.22771001
-0.059863001 0.098203853 -0.22777271
-0.077119999 0.098375 -0.22786599
-0.07695467 0.098357342 -0.22778468
-0.076575503 0.09837275 -0.22775775
-0.076385997 0.098362505 -0.22774625
-0.076212391 0.098369792 -0.22771361
-0.073138997 0.0983392 -0.22771461
-0.072946802 0.098370805 -0.2277278
-0.072798498 0.098364502 -0.22772564
-0.072625838 0.098360993 -0.22774284
-0.072457202 0.0983686 -0.227741
-0.072273992 0.0983622 -0.22777519
-0.072120503 0.098376751 -0.22779725
-0.071964502 0.098369002 -0.22778749
-0.071805 0.098369502 -0.227799
-0.071527004 0.098358005 -0.227834
-0.071198501 0.098382503 -0.22784849
-0.07101316 0.09837117 -0.22784792
-0.070815168 0.098361671 -0.22785234
-0.070642337 0.098356165 -0.22784384
-0.070469998 0.098383248 -0.22785725
-0.070290245 0.098371997 -0.22784001
-0.069974005 0.098354995 -0.227827
-0.069598839 0.09837433 -0.22782534
-0.069472335 0.098370336 -0.22783934
-0.06921 0.098359339 -0.22782435
-0.068988502 0.098377004 -0.22778299
-0.068594001 0.098359004 -0.22777551
-0.068411998 0.098387338 -0.22777565
-0.068279497 0.098379999 -0.22776
-0.068127833 0.098367997 -0.22774349
-0.067970663 0.098356672 -0.22772534
-0.067769751 0.098382004 -0.22771224
-0.067637503 0.098375 -0.227707
-0.059992999 0.098413996 -0.227706
-0.059843857 0.098371997 -0.22780429
-0.076946497 0.098536998 -0.22780401
-0.076568328 0.098551162 -0.22775917
-0.076379001 0.098540999 -0.22774817
-0.076218799 0.0985438 -0.2277236
-0.072915003 0.098514996 -0.227717
-0.072835997 0.098508 -0.227707
-0.072580002 0.098499 -0.227713
-0.072429396 0.098550007 -0.22771439
-0.072260998 0.098559 -0.22774899
-0.072114833 0.098552167 -0.22776566
-0.071958996 0.098544665 -0.22776432
-0.071799666 0.098545671 -0.22777633
-0.071521997 0.098531663 -0.22778867
-0.071192995 0.098558001 -0.22781874
-0.071007624 0.098546624 -0.22781712
-0.070809253 0.098538242 -0.22782925
-0.07063625 0.098533005 -0.227828
-0.070464335 0.098558836 -0.22782885
-0.070284329 0.098549165 -0.22782032
-0.069968 0.098531 -0.22780834
-0.069591999 0.098552749 -0.22781625
-0.069465995 0.098546997 -0.22782001
-0.069194853 0.098551713 -0.227807
-0.068981998 0.098554999 -0.22777234
-0.068588667 0.098533668 -0.22774334
-0.068406001 0.098563999 -0.22775501
-0.068273753 0.09855549 -0.22773951
-0.068121254 0.098545 -0.22772974
-0.067964494 0.098534003 -0.22771201
-0.067810997 0.098490998 -0.227705
-0.067633003 0.098483004 -0.227708
-0.060151 0.098571002 -0.22770201
-0.060014997 0.098561667 -0.22772385
-0.059863605 0.0985246 -0.22780421
-0.076937996 0.098720998 -0.22784133
-0.076561496 0.098730259 -0.22775599
-0.076372504 0.098718248 -0.2277365
-0.076204173 0.098743327 -0.22772186
-0.07248833 0.09871266 -0.22771834
-0.072255254 0.098734751 -0.22772174
-0.072109498 0.098728009 -0.22774574
-0.071953505 0.098719999 -0.22773001
-0.071794003 0.098721504 -0.2277545
-0.071515329 0.098742999 -0.22776301
-0.071188003 0.098733164 -0.22778316
-0.07100258 0.09872175 -0.22778235
-0.070803992 0.098713003 -0.22779866
-0.070630334 0.098710001 -0.22780317
-0.070458248 0.098736502 -0.227814
-0.070278749 0.098724999 -0.22779599
-0.069960661 0.098743342 -0.22778666
-0.069586828 0.098728001 -0.22778983
-0.069460332 0.098723002 -0.22779699
-0.069204628 0.09872362 -0.22779
-0.068975002 0.098734006 -0.22776899
-0.068581499 0.098713994 -0.227751
-0.068401501 0.098706 -0.22774151
-0.068285711 0.098745711 -0.22773014
-0.068124607 0.098709598 -0.22772422
-0.067960002 0.098641999 -0.227705
-0.060141999 0.098788999 -0.227714
-0.06000625 0.098745003 -0.22775601
-0.059884399 0.098701194 -0.2278332
-0.076929495 0.098902002 -0.227861
-0.076554164 0.098909341 -0.22776265
-0.07641267 0.098903 -0.22776534
-0.076249003 0.098908857 -0.22772099
-0.072242804 0.098896801 -0.22770579
-0.072122335 0.098857008 -0.22771733
-0.071949005 0.098859996 -0.22770801
-0.071787663 0.098898672 -0.22773235
-0.071510501 0.098915994 -0.22771651
-0.071181752 0.098909006 -0.2277645
-0.071022503 0.098898329 -0.22775717
-0.070827998 0.098916002 -0.22776113
-0.070623666 0.098919839 -0.22777016
-0.070452668 0.098911829 -0.22778368
-0.070273168 0.098901175 -0.22777002
-0.069954999 0.098920003 -0.227768
-0.069580495 0.098904245 -0.22776851
-0.069453999 0.098900005 -0.2277775
-0.069182374 0.098917 -0.22777063
-0.068969667 0.098909341 -0.22774167
-0.068574332 0.098892331 -0.22774565
-0.068322003 0.098908 -0.227724
-0.068148248 0.0989035 -0.22771125
-0.060135998 0.098900497 -0.227752
-0.05999925 0.098892502 -0.22777975
-0.059902001 0.098900497 -0.22786
-0.076923504 0.099046998 -0.22787499
-0.076561004 0.099081337 -0.22779667
-0.076436333 0.099097997 -0.22778399
-0.076219253 0.099096507 -0.22774437
-0.0760585 0.099128 -0.22772199
-0.071782 0.099074498 -0.227716
-0.071502499 0.099130005 -0.227707
-0.071175836 0.099086493 -0.2277475
-0.071015671 0.099077113 -0.22775276
-0.070843711 0.099087708 -0.22774801
-0.070618004 0.099095501 -0.227744
-0.070447251 0.099087998 -0.22775826
-0.070266753 0.099078745 -0.22775999
-0.069948338 0.099097006 -0.22775365
-0.069574833 0.099081337 -0.22774784
-0.069449 0.099075668 -0.22774732
-0.069194712 0.099088855 -0.22775285
-0.068963498 0.099087 -0.227725
-0.068567336 0.099104337 -0.22771667
-0.068364747 0.099077001 -0.227709
-0.068194665 0.099037997 -0.22770865
-0.060126666 0.099087335 -0.22779368
-0.059990168 0.099077664 -0.22782002
-0.076581001 0.099275999 -0.22783132
-0.076444663 0.099269502 -0.22780748
-0.076232716 0.099272139 -0.22776373
-0.0760535 0.099270999 -0.22772101
-0.071170002 0.099262491 -0.227723
-0.071002878 0.099278376 -0.22772214
-0.070836253 0.099271119 -0.22772962
-0.07063029 0.099282719 -0.22772287
-0.070441 0.099264659 -0.22774269
-0.07026083 0.099255331 -0.22773735
-0.069941998 0.0992755 -0.22774151
-0.069568753 0.099256746 -0.22772524
-0.069442004 0.09928634 -0.22771834
-0.069196142 0.099269144 -0.22772042
-0.069022 0.099282205 -0.22771439
-0.060529001 0.099307999 -0.22771899
-0.060391501 0.099269003 -0.227717
-0.060064003 0.099265754 -0.22783776
-0.076572999 0.099457502 -0.227852
-0.076436251 0.099451497 -0.22783101
-0.076214008 0.099433668 -0.22778815
-0.076035433 0.099461712 -0.2277433
-0.071102999 0.099403001 -0.22772551
-0.071043 0.099448398 -0.22772118
-0.070861503 0.099457003 -0.22770625
-0.070650667 0.099413998 -0.227708
-0.070460007 0.099450804 -0.22772178
-0.070245609 0.099453196 -0.22772019
-0.069939002 0.099377997 -0.22771101
-0.069571599 0.0994206 -0.22771183
-0.069436997 0.099428996 -0.227707
-0.069242001 0.099425003 -0.22770301
-0.069114 0.099453002 -0.22770751
-0.060569495 0.099457659 -0.22774549
-0.060381334 0.099456005 -0.227771
-0.060109999 0.099421002 -0.227865
-0.076566502 0.099602997 -0.227869
-0.076414667 0.099582337 -0.22784199
-0.076240838 0.099621169 -0.22784114
-0.076050662 0.099635839 -0.22777398
-0.075882666 0.099632002 -0.227717
-0.071073502 0.099576503 -0.2277015
-0.070473999 0.099550337 -0.227708
-0.070293002 0.099540003 -0.22770301
-0.0606995 0.099637002 -0.22771099
-0.060560502 0.0996425 -0.22778299
-0.060371999 0.099641494 -0.2278105
-0.076190501 0.099801004 -0.22786051
-0.076032378 0.099808745 -0.22779751
-0.075886004 0.0998035 -0.22774084
-0.075778499 0.099826999 -0.22770199
-0.060690667 0.099822007 -0.227744
-0.060552746 0.099792749 -0.22782399
-0.060380001 0.099778332 -0.22784667
-0.076034166 0.099978171 -0.227836
-0.075877748 0.099985495 -0.22776401
-0.075772494 0.099970996 -0.22771299
-0.060682498 0.100004 -0.22776851
-0.060554601 0.099960603 -0.22784659
-0.075987995 0.1001085 -0.22784349
-0.075891249 0.10017949 -0.22780561
-0.075764 0.10015533 -0.22774465
-0.0606765 0.10015 -0.22777501
-0.060552668 0.10014633 -0.22786534
-0.075878598 0.10034621 -0.22783621
-0.075726002 0.10036733 -0.227745
-0.060728002 0.10034879 -0.22778919
-0.06058 0.100267 -0.227865
-0.075852998 0.100532 -0.22783534
-0.075713001 0.10052679 -0.22776341
-0.060812 0.1005175 -0.22778851
-0.075834334 0.100701 -0.22785933
-0.075687401 0.10071401 -0.22777779
-0.075541496 0.10073225 -0.22771375
-0.061031498 0.100739 -0.227714
-0.060927 0.10070034 -0.22774632
-0.060805 0.100634 -0.22785001
-0.075687498 0.100879 -0.22782899
-0.075512253 0.10089775 -0.227743
-0.061049499 0.10089 -0.22775249
