# .PCD v0.7 - Point Cloud Data file format
VERSION 0.7
FIELDS x y z
SIZE 4 4 4
TYPE F F F
COUNT 1 1 1
WIDTH 1557
HEIGHT 1
VIEWPOINT 0 0 0 1 0 0 0
POINTS 1557
DATA ascii
-0.15234099 0.135903 -0.231538
-0.152337 0.135975 -0.23154201
-0.152334 0.13604499 -0.23155101
-0.15233199 0.136117 -0.23154899
-0.152329 0.136189 -0.231543
-0.152326 0.136261 -0.23154999
-0.15232299 0.13633101 -0.231558
-0.15232 0.13640299 -0.231562
-0.152317 0.136473 -0.231556
-0.15231501 0.136546 -0.231537
-0.15231401 0.136618 -0.23151299
-0.152311 0.13668901 -0.23150299
-0.152308 0.13676099 -0.23150399
-0.15230501 0.136832 -0.231516
-0.152302 0.136904 -0.231526
-0.152299 0.136976 -0.231518
-0.15229701 0.13704699 -0.23150501
-0.15229499 0.137119 -0.231497
-0.152292 0.137189 -0.231499
-0.152289 0.137261 -0.231508
-0.15228599 0.13733301 -0.231512
-0.152283 0.137403 -0.23151
-0.15228 0.137475 -0.231512
-0.15227699 0.137547 -0.231507
-0.152275 0.137619 -0.23149499
-0.152272 0.13769101 -0.231493
-0.15226901 0.137761 -0.231498
-0.15226699 0.137833 -0.23149399
-0.152265 0.137904 -0.231482
-0.152263 0.13797601 -0.231463
-0.15226001 0.13804799 -0.23145901
-0.152257 0.13812 -0.231463
-0.152254 0.138192 -0.231471
-0.15225101 0.138262 -0.23147801
-0.152248 0.13833401 -0.23147801
-0.152245 0.13840599 -0.23147
-0.152243 0.138476 -0.231463
-0.15223999 0.138548 -0.231461
-0.152237 0.13862 -0.231461
-0.152235 0.13869201 -0.23145901
-0.15223201 0.13876399 -0.231462
-0.152229 0.138834 -0.231464
-0.152226 0.138906 -0.231464
-0.152224 0.13897701 -0.231457
-0.15222099 0.13904899 -0.231447
-0.152219 0.139121 -0.231437
-0.152217 0.139191 -0.231427
-0.15221401 0.13926201 -0.231416
-0.15221301 0.13933399 -0.231396
-0.15221 0.139405 -0.23138
-0.152207 0.139478 -0.23139299
-0.15220299 0.139548 -0.23142099
-0.1522 0.13962001 -0.23142301
-0.152197 0.13969199 -0.231417
-0.15219399 0.139762 -0.231428
-0.152191 0.139834 -0.231434
-0.152189 0.139906 -0.23141401
-0.152187 0.13997699 -0.231397
-0.15218499 0.140047 -0.23138499
-0.152183 0.140119 -0.231373
-0.15218 0.140191 -0.23136801
-0.15217701 0.14026301 -0.23137601
-0.152174 0.14033499 -0.231382
-0.152171 0.140405 -0.23138601
-0.15216801 0.140475 -0.23139299
-0.152165 0.14054701 -0.231391
-0.152163 0.14061899 -0.231379
-0.152161 0.140691 -0.23136801
-0.15215801 0.140762 -0.231362
-0.152155 0.140834 -0.23135599
-0.152153 0.14090399 -0.231352
-0.15215001 0.140976 -0.231355
-0.152147 0.141048 -0.231361
-0.152144 0.141118 -0.23136701
-0.152141 0.14119001 -0.231374
-0.15213799 0.14126199 -0.23137601
-0.152135 0.141332 -0.231378
-0.152132 0.141404 -0.231374
-0.15212999 0.14147601 -0.231369
-0.152127 0.141546 -0.23136701
-0.152124 0.141618 -0.231365
-0.15212101 0.14169 -0.23137
-0.152118 0.141762 -0.23138399
-0.152115 0.14183199 -0.23139
-0.15211201 0.141904 -0.23139
-0.15211 0.141976 -0.231379
-0.152107 0.142046 -0.23136701
-0.152105 0.14211801 -0.23135699
-0.15210199 0.142189 -0.231352
-0.152099 0.14226 -0.23136
-0.152096 0.142332 -0.231362
-0.15209401 0.14240301 -0.231352
-0.152091 0.14247499 -0.23134699
-0.152089 0.142545 -0.231345
-0.152086 0.142617 -0.23134699
-0.15208299 0.142689 -0.23134799
-0.15208 0.142759 -0.231354
-0.15207601 0.142832 -0.23137
-0.152073 0.142904 -0.23138399
-0.15207 0.142974 -0.231383
-0.152068 0.14304499 -0.231373
-0.15206601 0.143117 -0.231359
-0.152063 0.143189 -0.231352
-0.15206 0.143259 -0.231352
-0.15205801 0.14333101 -0.231354
-0.152054 0.14340299 -0.23135801
-0.152052 0.143473 -0.231359
-0.15204901 0.143545 -0.231353
-0.15204699 0.143617 -0.231341
-0.152045 0.14368799 -0.231328
-0.152043 0.143758 -0.231308
-0.15204 0.14383 -0.23130199
-0.15203699 0.143902 -0.23131099
-0.152034 0.14397199 -0.231325
-0.15203001 0.144044 -0.231337
-0.152027 0.144116 -0.23133899
-0.152025 0.144188 -0.231328
-0.152023 0.14425801 -0.23131
-0.15202101 0.144329 -0.23129401
-0.152018 0.144401 -0.231305
-0.152014 0.144474 -0.23132101
-0.15201201 0.14454401 -0.231317
-0.152009 0.14461499 -0.231305
-0.152007 0.144687 -0.23129401
-0.152005 0.144757 -0.231288
-0.15200201 0.14482901 -0.23129
-0.151999 0.14490101 -0.231287
-0.151997 0.14497 -0.231277
-0.151994 0.145042 -0.231277
-0.15199099 0.145115 -0.231286
-0.151988 0.145184 -0.231282
-0.151986 0.145256 -0.23127399
-0.15198299 0.145328 -0.23127
-0.15198 0.14539801 -0.231273
-0.151977 0.14546999 -0.23127501
-0.15197399 0.145542 -0.231273
-0.151972 0.145612 -0.23126
-0.151971 0.14568301 -0.23123799
-0.151969 0.14575499 -0.231214
-0.151967 0.145824 -0.231203
-0.15196399 0.145896 -0.231205
-0.15196 0.145969 -0.23121899
-0.15195701 0.14604101 -0.231233
-0.151954 0.146111 -0.231244
-0.151951 0.146183 -0.231244
-0.151948 0.146255 -0.231232
-0.15194701 0.14632399 -0.231215
-0.151944 0.146396 -0.23120099
-0.151941 0.146468 -0.231203
-0.15193801 0.146538 -0.231213
-0.15193599 0.14661001 -0.231204
-0.151934 0.14668 -0.23118401
-0.151931 0.146752 -0.231194
-0.15192699 0.146824 -0.231207
-0.151925 0.146896 -0.231199
-0.151923 0.146965 -0.23117501
-0.151921 0.147037 -0.231162
-0.15191799 0.147109 -0.23117
-0.151915 0.14717899 -0.231172
-0.151913 0.147251 -0.23116399
-0.15191001 0.147323 -0.231161
-0.151907 0.147393 -0.231163
-0.151904 0.14746501 -0.23116501
-0.15190101 0.14753699 -0.23116399
-0.151899 0.147607 -0.231162
-0.151896 0.147679 -0.23116399
-0.151893 0.14775001 -0.23115399
-0.15189201 0.14782 -0.231133
-0.151889 0.147892 -0.231123
-0.151886 0.147962 -0.23112901
-0.15188301 0.14803401 -0.23113599
-0.15188099 0.14810599 -0.23113
-0.151878 0.148177 -0.23112001
-0.151875 0.148247 -0.231123
-0.15187199 0.14831901 -0.23112699
-0.15187 0.14839099 -0.231123
-0.151867 0.148461 -0.231123
-0.15186501 0.148533 -0.231114
-0.151862 0.148605 -0.23110799
-0.151859 0.14867499 -0.231116
-0.15185601 0.148747 -0.231121
-0.151853 0.148819 -0.231113
-0.151851 0.148891 -0.231095
-0.151849 0.14895999 -0.23108
-0.151847 0.14903 -0.23107
-0.15184399 0.149102 -0.23107401
-0.151842 0.149174 -0.231066
-0.15184 0.149243 -0.231047
-0.15183701 0.149315 -0.23104499
-0.151834 0.149387 -0.231049
-0.151832 0.14945699 -0.231042
-0.151829 0.149529 -0.23105
-0.151824 0.149602 -0.231076
-0.151821 0.149674 -0.23108
-0.15182 0.14974301 -0.23104499
-0.15182 0.149812 -0.230995
-0.15181801 0.14988101 -0.230976
-0.151815 0.14995401 -0.230992
-0.151811 0.15002599 -0.23101
-0.15180799 0.150098 -0.231016
-0.151804 0.15017 -0.231029
-0.15180101 0.150242 -0.231031
-0.15179899 0.150314 -0.231025
-0.151797 0.15038399 -0.231011
-0.151795 0.150453 -0.230988
-0.151794 0.15052301 -0.230964
-0.15179101 0.15059499 -0.23095199
-0.15178899 0.150666 -0.230947
-0.151786 0.150736 -0.23094501
-0.151783 0.15080801 -0.230955
-0.151779 0.15088101 -0.230974
-0.151776 0.15095299 -0.23098201
-0.151774 0.151025 -0.230968
-0.15177099 0.151095 -0.230966
-0.151768 0.15116701 -0.230975
-0.151765 0.15123899 -0.230965
-0.15176301 0.151308 -0.23095299
-0.151761 0.15138 -0.230946
-0.151759 0.15144999 -0.23093
-0.151756 0.151522 -0.23092601
-0.15175299 0.151594 -0.23093501
-0.15175 0.151664 -0.230939
-0.151747 0.15173601 -0.23093501
-0.15174501 0.151807 -0.23092499
-0.15174299 0.151877 -0.230914
-0.151741 0.15194701 -0.230896
-0.151738 0.152018 -0.23089001
-0.15173601 0.15209 -0.23088901
-0.151733 0.15216 -0.230883
-0.15173 0.15223201 -0.23088101
-0.151728 0.15230399 -0.23088001
-0.15172499 0.152374 -0.23087201
-0.151723 0.152446 -0.23086999
-0.15172 0.15251601 -0.23086999
-0.15171701 0.15258799 -0.230869
-0.151714 0.15266 -0.230865
-0.151711 0.15273 -0.230867
-0.15170901 0.15280201 -0.230864
-0.15170699 0.15287299 -0.230848
-0.151705 0.152941 -0.23082399
-0.151704 0.15301199 -0.230799
-0.151702 0.153082 -0.23077901
-0.1517 0.15315101 -0.23076899
-0.15169699 0.15322299 -0.23077001
-0.151694 0.153295 -0.230776
-0.151691 0.153365 -0.23077001
-0.15168899 0.15343501 -0.23075099
-0.151687 0.153506 -0.230735
-0.151685 0.153576 -0.23072501
-0.151682 0.153648 -0.230719
-0.15167999 0.15372001 -0.230722
-0.151677 0.15379 -0.23071
-0.151676 0.153859 -0.230684
-0.151674 0.153929 -0.230671
-0.15167201 0.153998 -0.230657
-0.15166999 0.15407 -0.230637
-0.151667 0.15414 -0.230634
-0.151664 0.154212 -0.230636
-0.15166201 0.15428101 -0.23062401
-0.15166 0.154351 -0.23060501
-0.151658 0.154423 -0.230597
-0.151655 0.154495 -0.23060299
-0.15165199 0.15456501 -0.23059399
-0.151651 0.154634 -0.23056
-0.15165 0.15470099 -0.230536
-0.151647 0.154773 -0.230533
-0.151645 0.154843 -0.23052099
-0.15164299 0.15491199 -0.23049501
-0.15164199 0.154982 -0.230478
-0.151639 0.155054 -0.23047601
-0.151636 0.15512601 -0.23048
-0.15163299 0.15519799 -0.230488
-0.15163 0.15527 -0.23049299
-0.151627 0.15534 -0.230481
-0.15162601 0.15540899 -0.230461
-0.15162399 0.155479 -0.230444
-0.151621 0.155549 -0.230432
-0.151619 0.15562101 -0.230428
-0.15161601 0.15569 -0.23042899
-0.151614 0.155762 -0.230423
-0.151611 0.15583199 -0.23041099
-0.151609 0.155902 -0.230398
-0.15160701 0.15597101 -0.230378
-0.15160599 0.156041 -0.23035
-0.151604 0.15611 -0.230335
-0.151601 0.15618201 -0.230331
-0.151599 0.156252 -0.23031899
-0.15159699 0.156321 -0.230306
-0.151594 0.15639301 -0.23030201
-0.151592 0.156463 -0.230298
-0.15159 0.156533 -0.230285
-0.15158799 0.156602 -0.230267
-0.151586 0.156672 -0.230251
-0.151585 0.15674099 -0.230222
-0.151583 0.156809 -0.230198
-0.15158001 0.156881 -0.23019999
-0.15157799 0.15695301 -0.230195
-0.151576 0.157022 -0.230179
-0.151574 0.15709201 -0.230165
-0.151572 0.157162 -0.23015
-0.15156899 0.157231 -0.23013601
-0.151568 0.15730099 -0.23011801
-0.151566 0.15737 -0.230093
-0.151564 0.157438 -0.23007099
-0.15156201 0.157508 -0.230065
-0.15155999 0.157579 -0.230056
-0.151558 0.157647 -0.230032
-0.151556 0.157719 -0.23002601
-0.15155201 0.157791 -0.230031
-0.15154999 0.15786099 -0.230033
-0.151547 0.157933 -0.230037
-0.151544 0.158002 -0.230028
-0.15154199 0.15807401 -0.23001
-0.15154 0.158144 -0.230002
-0.151538 0.158214 -0.229995
-0.151535 0.15828601 -0.229993
-0.15153199 0.158356 -0.229993
-0.151529 0.158428 -0.229993
-0.151526 0.1585 -0.230002
-0.15152299 0.158572 -0.23000599
-0.15152 0.15864199 -0.230004
-0.151517 0.158714 -0.230009
-0.15151399 0.158788 -0.23001701
-0.151511 0.158858 -0.230019
-0.151508 0.15893 -0.230023
-0.15150499 0.15900201 -0.230028
-0.151502 0.15907399 -0.23003
-0.151499 0.159146 -0.23003399
-0.15149599 0.159218 -0.23003501
-0.151493 0.15929 -0.230041
-0.15149 0.159362 -0.23005299
-0.15148599 0.159435 -0.23006099
-0.151483 0.159509 -0.23007099
-0.15147901 0.15958101 -0.23009001
-0.151476 0.159655 -0.230102
-0.151473 0.15972701 -0.23011
-0.15146901 0.159802 -0.23013
-0.151465 0.159876 -0.230151
-0.15146101 0.159951 -0.23017301
-0.151457 0.160025 -0.230197
-0.151453 0.160098 -0.23020899
-0.15144999 0.160172 -0.23021901
-0.151447 0.160244 -0.23022801
-0.151443 0.16031601 -0.23023801
-0.151438 0.160395 -0.23028401
-0.15143199 0.160474 -0.23033801
-0.151428 0.160549 -0.23037601
-0.15142401 0.160625 -0.230398
-0.151419 0.16069999 -0.23043101
-0.15141401 0.160779 -0.230471
-0.151407 0.160861 -0.230555
-0.151397 0.160952 -0.23068801
-0.151389 0.161038 -0.230794
-0.151381 0.16112199 -0.23088799
-0.151375 0.161203 -0.23095401
-0.152586 0.122494 -0.232391
-0.152585 0.122571 -0.23235101
-0.152587 0.122656 -0.232244
-0.15258899 0.122744 -0.232122
-0.15259001 0.122826 -0.232042
-0.15259001 0.122906 -0.23197401
-0.15259001 0.122986 -0.231896
-0.15258899 0.123062 -0.23186401
-0.152587 0.123139 -0.23183399
-0.152587 0.123216 -0.231777
-0.152586 0.123293 -0.231737
-0.152584 0.123368 -0.231709
-0.152582 0.123442 -0.231691
-0.15257999 0.123515 -0.231677
-0.152578 0.123587 -0.231664
-0.152576 0.123661 -0.231646
-0.152574 0.123734 -0.23163401
-0.15257099 0.123808 -0.231618
-0.15256999 0.123881 -0.23159499
-0.152568 0.123955 -0.231575
-0.152565 0.124029 -0.231567
-0.15256301 0.1241 -0.231556
-0.15256099 0.124176 -0.231526
-0.15256 0.124251 -0.23149601
-0.152558 0.124323 -0.231484
-0.152555 0.124395 -0.231483
-0.15255301 0.124468 -0.23146901
-0.15255 0.124542 -0.231451
-0.152548 0.124614 -0.23143899
-0.152546 0.124687 -0.231428
-0.15254299 0.124759 -0.23142
-0.152541 0.124831 -0.23141401
-0.152539 0.124903 -0.23140199
-0.152536 0.124975 -0.23140299
-0.15253299 0.125047 -0.231405
-0.15253 0.125118 -0.231399
-0.152528 0.12519 -0.23139
-0.15252499 0.12526201 -0.23138399
-0.152523 0.12533399 -0.23138
-0.15252 0.125406 -0.231374
-0.15251701 0.125478 -0.231373
-0.152514 0.12554801 -0.23138499
-0.152511 0.125618 -0.23139501
-0.15250801 0.125688 -0.2314
-0.152505 0.12575801 -0.231408
-0.152502 0.12582999 -0.23141199
-0.15249901 0.125902 -0.231408
-0.152496 0.125972 -0.231407
-0.152493 0.12604401 -0.231411
-0.15249 0.126114 -0.23141301
-0.15248699 0.126186 -0.23142201
-0.152484 0.126258 -0.23142201
-0.152482 0.12633 -0.23141401
-0.15247899 0.12639999 -0.231415
-0.152476 0.12647 -0.23143101
-0.152472 0.12653901 -0.231447
-0.15246899 0.12661099 -0.231457
-0.152466 0.126681 -0.231466
-0.152463 0.12675101 -0.231474
-0.15245999 0.126821 -0.23148
-0.152456 0.126894 -0.23148701
-0.15245301 0.126964 -0.23149499
-0.15245 0.12703399 -0.231501
-0.152447 0.127106 -0.231502
-0.152445 0.127178 -0.2315
-0.15244099 0.127248 -0.231512
-0.152438 0.12731799 -0.231528
-0.152435 0.127388 -0.23153099
-0.15243199 0.12746 -0.231529
-0.152429 0.12753201 -0.231535
-0.152426 0.127602 -0.23154201
-0.15242299 0.127672 -0.231548
-0.15242 0.127744 -0.231546
-0.152417 0.127817 -0.231552
-0.15241399 0.127885 -0.231565
-0.15241 0.127957 -0.231573
-0.152408 0.128029 -0.23156901
-0.15240499 0.12809899 -0.231574
-0.152402 0.128169 -0.23158599
-0.15239801 0.128241 -0.231592
-0.152395 0.12831099 -0.231603
-0.152392 0.12838 -0.23162299
-0.15238801 0.128452 -0.231629
-0.15238599 0.12852401 -0.231619
-0.152384 0.12859499 -0.23161
-0.15238 0.128666 -0.23162
-0.15237699 0.128736 -0.231636
-0.152374 0.12880801 -0.23164099
-0.152372 0.12888201 -0.231629
-0.15236899 0.128952 -0.23162299
-0.152366 0.129022 -0.231637
-0.152362 0.129094 -0.23165201
-0.15235899 0.129162 -0.231668
-0.152355 0.129235 -0.231682
-0.15235201 0.12930501 -0.231683
-0.152349 0.12937699 -0.231683
-0.152347 0.12944899 -0.231677
-0.152344 0.12952 -0.23166899
-0.15234099 0.129592 -0.23167799
-0.152338 0.12966301 -0.231694
-0.152334 0.129731 -0.23171601
-0.15233099 0.129802 -0.231731
-0.152328 0.12987401 -0.23173299
-0.152325 0.129945 -0.231729
-0.15232199 0.130017 -0.23172399
-0.15232 0.130089 -0.23172399
-0.152317 0.130161 -0.231728
-0.15231401 0.13023099 -0.23173
-0.152311 0.130303 -0.231729
-0.152308 0.130375 -0.23172501
-0.15230601 0.130447 -0.231721
-0.152303 0.130519 -0.231719
-0.1523 0.13059101 -0.231714
-0.152298 0.13066299 -0.23171
-0.15229499 0.130733 -0.23171601
-0.152292 0.130805 -0.231721
-0.152289 0.130877 -0.231719
-0.15228599 0.13094901 -0.23171701
-0.152283 0.13102099 -0.23171499
-0.15228 0.131091 -0.231718
-0.15227699 0.131161 -0.23173
-0.152274 0.13123301 -0.231738
-0.152271 0.13130499 -0.231737
-0.15226901 0.131377 -0.231721
-0.15226699 0.13145 -0.23170701
-0.152264 0.13152 -0.231704
-0.152261 0.13159201 -0.23170599
-0.15225799 0.131662 -0.23171601
-0.152255 0.131734 -0.23172399
-0.152252 0.131806 -0.231729
-0.15224899 0.13187601 -0.231729
-0.152247 0.13194799 -0.231723
-0.152244 0.13202 -0.231718
-0.15224101 0.132092 -0.23171601
-0.15223899 0.132164 -0.231712
-0.152236 0.132236 -0.23170599
-0.152234 0.13230801 -0.231699
-0.15223099 0.13237999 -0.231699
-0.152228 0.132452 -0.231701
-0.152225 0.132524 -0.231701
-0.15222199 0.132594 -0.231704
-0.15222 0.13266701 -0.23169599
-0.152217 0.13273899 -0.23168001
-0.152215 0.13281099 -0.23167901
-0.152211 0.132881 -0.23168901
-0.152208 0.132953 -0.23169699
-0.15220501 0.13302299 -0.231701
-0.15220299 0.133095 -0.23169599
-0.1522 0.133169 -0.23168799
-0.152198 0.133239 -0.231684
-0.15219501 0.133311 -0.231685
-0.152192 0.13338301 -0.231681
-0.15219 0.13345399 -0.231665
-0.152188 0.13352799 -0.231647
-0.15218499 0.1336 -0.23164199
-0.152183 0.133672 -0.23164
-0.15218 0.133743 -0.23163199
-0.152178 0.13381501 -0.23162501
-0.15217499 0.133885 -0.231629
-0.152172 0.133957 -0.231639
-0.15216801 0.134028 -0.231649
-0.152165 0.13410001 -0.23165201
-0.152163 0.13417099 -0.231644
-0.152161 0.134243 -0.23163401
-0.15215801 0.134315 -0.231629
-0.152155 0.134385 -0.23163299
-0.152152 0.13445701 -0.231639
-0.15214901 0.13452899 -0.231635
-0.152147 0.134601 -0.23163401
-0.152144 0.134673 -0.23163199
-0.152142 0.134745 -0.23161601
-0.15214001 0.13481601 -0.231603
-0.152137 0.13488799 -0.23160499
-0.152133 0.13496099 -0.231617
-0.15212999 0.135031 -0.23162299
-0.152128 0.135102 -0.231618
-0.152125 0.13517401 -0.231608
-0.152123 0.13524599 -0.23159599
-0.15212101 0.135318 -0.23158699
-0.152118 0.13539 -0.231583
-0.152115 0.135462 -0.231583
-0.15211201 0.135533 -0.231583
-0.15211 0.135603 -0.231582
-0.152107 0.13567699 -0.231576
-0.152105 0.135749 -0.231564
-0.15210199 0.135819 -0.23156901
-0.152098 0.13588899 -0.231591
-0.152095 0.13596199 -0.23159499
-0.15209299 0.136033 -0.231581
-0.15209 0.136105 -0.23157001
-0.152088 0.136177 -0.231566
-0.15208501 0.13624901 -0.231572
-0.152082 0.136319 -0.23156901
-0.15208 0.136393 -0.23155899
-0.152077 0.136463 -0.23156101
-0.15207399 0.136535 -0.23156101
-0.152072 0.13660599 -0.231552
-0.152069 0.136678 -0.231546
-0.15206601 0.13675 -0.231548
-0.15206499 0.136822 -0.23152301
-0.152064 0.136894 -0.231471
-0.152061 0.136966 -0.231471
-0.15205599 0.137035 -0.231521
-0.152053 0.137108 -0.231536
-0.152051 0.137179 -0.23152199
-0.15204801 0.13724899 -0.23152401
-0.152045 0.137321 -0.231529
-0.152042 0.137393 -0.231525
-0.15203901 0.137465 -0.231521
-0.15203699 0.137537 -0.23151299
-0.152034 0.13760699 -0.231508
-0.152031 0.137679 -0.231512
-0.15202899 0.137751 -0.231512
-0.152026 0.137823 -0.231501
-0.152024 0.137894 -0.231489
-0.15202101 0.137964 -0.23149499
-0.152018 0.138037 -0.231507
-0.152015 0.138109 -0.231506
-0.15201201 0.13818 -0.23150399
-0.152009 0.13824999 -0.231508
-0.152006 0.13832299 -0.231511
-0.15200301 0.138394 -0.231509
-0.15200099 0.138464 -0.231507
-0.151998 0.13853601 -0.231507
-0.151995 0.13860799 -0.23151
-0.15199199 0.138679 -0.23152
-0.151989 0.138751 -0.23152401
-0.151987 0.138822 -0.23150299
-0.151985 0.138896 -0.231479
-0.15198199 0.13896599 -0.231481
-0.151979 0.139038 -0.231489
-0.151976 0.13911 -0.231488
-0.15197399 0.13917901 -0.23147801
-0.151971 0.13925099 -0.231474
-0.151969 0.139323 -0.231463
-0.151967 0.139394 -0.23144101
-0.15196501 0.139466 -0.23143101
-0.151962 0.139538 -0.231438
-0.151959 0.139608 -0.231442
-0.15195601 0.13968 -0.23143999
-0.151954 0.139752 -0.231434
-0.151951 0.139824 -0.23143101
-0.151948 0.13989399 -0.231433
-0.15194499 0.139966 -0.231437
-0.151942 0.140038 -0.231436
-0.15194 0.140108 -0.231426
-0.15193801 0.14018001 -0.231418
-0.151935 0.140251 -0.23141
-0.151932 0.140323 -0.23141301
-0.15192901 0.140394 -0.23142301
-0.151926 0.14046501 -0.231419
-0.151924 0.14053699 -0.23141401
-0.151921 0.140609 -0.23142
-0.15191799 0.14068 -0.231426
-0.151915 0.140751 -0.231426
-0.151912 0.14082301 -0.231425
-0.15191001 0.14089499 -0.231415
-0.151907 0.140965 -0.231409
-0.151904 0.141037 -0.23141199
-0.15190101 0.141109 -0.23141401
-0.151898 0.141179 -0.231416
-0.151896 0.141251 -0.23141199
-0.151893 0.141323 -0.231409
-0.15188999 0.141395 -0.231409
-0.151888 0.14146499 -0.231407
-0.151885 0.141536 -0.231398
-0.15188199 0.141609 -0.23140401
-0.151879 0.141679 -0.23141199
-0.151876 0.14175101 -0.231411
-0.15187301 0.14182299 -0.231417
-0.15187 0.141893 -0.231419
-0.151868 0.141965 -0.231411
-0.15186501 0.14203601 -0.23140199
-0.15186299 0.14210799 -0.23139399
-0.15186 0.14218 -0.231392
-0.151857 0.14225 -0.23139299
-0.15185501 0.142322 -0.231389
-0.151852 0.14239401 -0.231391
-0.151849 0.142464 -0.231401
-0.15184601 0.142536 -0.231406
-0.151843 0.142608 -0.23140199
-0.15184 0.14268 -0.23140401
-0.15183701 0.14274999 -0.231407
-0.15183499 0.142822 -0.231399
-0.151833 0.142893 -0.231383
-0.15183 0.14296301 -0.231371
-0.15182699 0.14303499 -0.231374
-0.151824 0.143107 -0.231378
-0.151821 0.143179 -0.23138
-0.15181901 0.14324901 -0.231383
-0.151816 0.14332099 -0.231387
-0.151813 0.14339299 -0.231373
-0.151811 0.143463 -0.231359
-0.15180799 0.143535 -0.231372
-0.151805 0.14360701 -0.23138
-0.151802 0.143677 -0.23136801
-0.15180101 0.143748 -0.231345
-0.15179799 0.14382 -0.23134699
-0.151794 0.143893 -0.231369
-0.15179101 0.14396299 -0.231373
-0.15178899 0.144034 -0.231354
-0.151787 0.144106 -0.231334
-0.151784 0.14417601 -0.231344
-0.15177999 0.14424799 -0.231363
-0.151777 0.14432 -0.231365
-0.151775 0.144392 -0.231365
-0.15177201 0.144464 -0.231359
-0.15177 0.14453401 -0.23134799
-0.151768 0.144605 -0.23133001
-0.151765 0.144677 -0.231324
-0.15176301 0.144747 -0.231325
-0.15176 0.14481901 -0.23132101
-0.151757 0.14489099 -0.23132101
-0.15175401 0.144963 -0.231328
-0.151752 0.145033 -0.23131999
-0.151749 0.145105 -0.23131
-0.151746 0.14517701 -0.231308
-0.15174399 0.145247 -0.231307
-0.151741 0.145319 -0.231305
-0.151738 0.14539 -0.231299
-0.15173601 0.14545999 -0.23129401
-0.151733 0.145532 -0.23129199
-0.151731 0.145604 -0.23128401
-0.151729 0.14567301 -0.231263
-0.15172701 0.14574499 -0.231251
-0.151724 0.145815 -0.23125499
-0.151721 0.145887 -0.23126499
-0.15171701 0.14596 -0.23127399
-0.151715 0.14603101 -0.23126601
-0.151713 0.146101 -0.23125599
-0.15171 0.146173 -0.23125701
-0.15170699 0.146245 -0.23125701
-0.151704 0.14631499 -0.231251
-0.151702 0.146387 -0.231243
-0.1517 0.146458 -0.23122799
-0.15169699 0.14652801 -0.23122799
-0.151694 0.14659999 -0.231236
-0.151691 0.146672 -0.231233
-0.15168899 0.146744 -0.231225
-0.151686 0.146814 -0.23121899
-0.151684 0.14688601 -0.231216
-0.15168101 0.14695799 -0.231214
-0.151678 0.147028 -0.23120999
-0.151676 0.147099 -0.231204
-0.151673 0.14717101 -0.231203
-0.15167101 0.147241 -0.231195
-0.151669 0.147313 -0.231177
-0.151667 0.14738201 -0.231158
-0.151665 0.14745399 -0.23114599
-0.15166099 0.147526 -0.231162
-0.151657 0.147599 -0.23118
-0.15165401 0.147671 -0.231185
-0.15165199 0.147741 -0.231185
-0.151649 0.14781301 -0.23118301
-0.151646 0.14788499 -0.231178
-0.15164401 0.147954 -0.23116
-0.15164199 0.148026 -0.231144
-0.151639 0.148096 -0.23115499
-0.15163501 0.148168 -0.231171
-0.151632 0.14824 -0.23117299
-0.15163 0.148312 -0.23116501
-0.151627 0.14838199 -0.23116399
-0.15162399 0.148454 -0.23116399
-0.151622 0.148526 -0.231162
-0.151619 0.148596 -0.23115499
-0.15161701 0.14866699 -0.231141
-0.15161499 0.148739 -0.231131
-0.151612 0.148809 -0.231134
-0.151609 0.148881 -0.231142
-0.15160599 0.14895301 -0.231144
-0.151603 0.149023 -0.23113801
-0.151601 0.149095 -0.23112901
-0.151599 0.149167 -0.231121
-0.151595 0.149239 -0.23112699
-0.151592 0.14930899 -0.23113599
-0.15159 0.149381 -0.231132
-0.15158699 0.149452 -0.23112001
-0.151586 0.14952201 -0.23109999
-0.151583 0.14959399 -0.231087
-0.15158001 0.149664 -0.23109899
-0.151577 0.149736 -0.231105
-0.151575 0.14980701 -0.23108
-0.151573 0.149877 -0.231062
-0.15157101 0.149949 -0.23106
-0.151568 0.150019 -0.231059
-0.151565 0.15009101 -0.23106299
-0.15156201 0.15016299 -0.231067
-0.151559 0.150235 -0.231077
-0.151556 0.150307 -0.23108
-0.151553 0.15037701 -0.231068
-0.15155201 0.150446 -0.23105
-0.151549 0.150518 -0.231041
-0.151546 0.15059 -0.231039
-0.151544 0.150662 -0.23103499
-0.15154099 0.150732 -0.23103
-0.151539 0.150804 -0.23103
-0.151536 0.150874 -0.23102
-0.15153401 0.15094499 -0.23100799
-0.151531 0.151017 -0.23100699
-0.151529 0.151087 -0.23099899
-0.151527 0.15115701 -0.23098101
-0.15152501 0.151228 -0.230966
-0.151522 0.151298 -0.23096
-0.151519 0.15137 -0.23096199
-0.151517 0.15144201 -0.23096301
-0.15151399 0.151512 -0.23095299
-0.151513 0.151583 -0.230929
-0.15151 0.15165301 -0.230931
-0.15150601 0.151728 -0.23095
-0.151504 0.151797 -0.230938
-0.151502 0.151867 -0.230914
-0.151499 0.151939 -0.23091701
-0.15149599 0.15201101 -0.23092701
-0.151493 0.15208299 -0.23093501
-0.15149 0.152155 -0.23092701
-0.15148801 0.152225 -0.230912
-0.15148599 0.15229601 -0.23090599
-0.151483 0.152366 -0.23090599
-0.15148 0.152438 -0.23090699
-0.15147801 0.15251 -0.230903
-0.151475 0.15257999 -0.230891
-0.151473 0.15265 -0.230876
-0.151471 0.152721 -0.230868
-0.15146799 0.15279099 -0.23085999
-0.151466 0.152863 -0.23085099
-0.151463 0.152933 -0.230849
-0.15146101 0.153005 -0.230845
-0.15145899 0.153074 -0.23083401
-0.151456 0.153146 -0.230822
-0.151454 0.153216 -0.23081
-0.151452 0.153285 -0.23078801
-0.15145101 0.153357 -0.23077101
-0.15144899 0.15342601 -0.230755
-0.151447 0.153496 -0.230739
-0.151444 0.153568 -0.23073
-0.15144201 0.15363801 -0.23072401
-0.151439 0.15370999 -0.230722
-0.151436 0.153779 -0.230717
-0.151434 0.153851 -0.230709
-0.15143199 0.15392099 -0.23069499
-0.15143 0.153991 -0.230682
-0.151427 0.154062 -0.230676
-0.151425 0.15413401 -0.230672
-0.15142199 0.154204 -0.230663
-0.15142 0.154274 -0.23064899
-0.151418 0.15434299 -0.23063301
-0.151416 0.154415 -0.230628
-0.15141299 0.154487 -0.23063201
-0.15141 0.154559 -0.23063
-0.151408 0.15462901 -0.23062
-0.15140601 0.154699 -0.23060501
-0.15140399 0.15476801 -0.230589
-0.151401 0.15484001 -0.230579
-0.151399 0.15491 -0.230574
-0.15139601 0.154982 -0.230564
-0.15139399 0.15505099 -0.230554
-0.151392 0.155121 -0.230543
-0.15139 0.15519001 -0.230519
-0.151389 0.15526 -0.230499
-0.15138599 0.15533 -0.230488
-0.151384 0.15540101 -0.230482
-0.151382 0.155471 -0.23047
-0.15138 0.155541 -0.230455
-0.15137801 0.15561 -0.230433
-0.15137701 0.15568 -0.230407
-0.151374 0.15574899 -0.230398
-0.151371 0.15582199 -0.230404
-0.15136801 0.155894 -0.230416
-0.151365 0.155966 -0.230417
-0.151363 0.15603501 -0.230405
-0.151361 0.156105 -0.230391
-0.15135799 0.156177 -0.230382
-0.151356 0.15624601 -0.230362
-0.151355 0.156316 -0.230334
-0.151353 0.15638299 -0.230313
-0.151351 0.156453 -0.230297
-0.15134899 0.156525 -0.230281
-0.151346 0.15659501 -0.230288
-0.151343 0.15666901 -0.23029999
-0.15133999 0.156739 -0.230294
-0.151338 0.156808 -0.23028
-0.151336 0.15687799 -0.23026299
-0.151335 0.156947 -0.230233
-0.151334 0.157015 -0.23020799
-0.15133099 0.157086 -0.230196
-0.151329 0.15715601 -0.230188
-0.151327 0.157226 -0.23017301
-0.151325 0.157295 -0.23015299
-0.15132301 0.15736499 -0.23014501
-0.15132 0.157437 -0.23014399
-0.151318 0.157507 -0.23012801
-0.151316 0.15757599 -0.230114
-0.15131301 0.157648 -0.23011801
-0.15131 0.157718 -0.230115
-0.151309 0.157786 -0.230085
-0.151307 0.157855 -0.230064
-0.151305 0.15792701 -0.230058
-0.15130199 0.157997 -0.23005401
-0.151299 0.158069 -0.23005401
-0.151296 0.158141 -0.23006099
-0.15129399 0.158213 -0.230059
-0.151291 0.158283 -0.230057
-0.151288 0.158352 -0.23005
-0.15128601 0.158424 -0.230046
-0.151282 0.15849701 -0.230058
-0.151279 0.158571 -0.23007201
-0.15127601 0.15864301 -0.23008101
-0.151273 0.158713 -0.230083
-0.15127 0.158785 -0.230077
-0.15126801 0.15885501 -0.230066
-0.151265 0.15892699 -0.230066
-0.151262 0.158999 -0.230076
-0.15125901 0.159071 -0.230074
-0.15125699 0.159141 -0.230069
-0.151253 0.159215 -0.230085
-0.15124901 0.159289 -0.230113
-0.151245 0.159364 -0.230133
-0.151242 0.159436 -0.230134
-0.15123899 0.159508 -0.23014399
-0.151235 0.159583 -0.230168
-0.15123101 0.159657 -0.230178
-0.151228 0.15972701 -0.230185
-0.151224 0.15980101 -0.23020101
-0.15121999 0.159876 -0.23022699
-0.151216 0.15995 -0.23024701
-0.15121301 0.16002201 -0.230249
-0.15121 0.16009399 -0.23025601
-0.151207 0.16016801 -0.23027
-0.15120301 0.160243 -0.23029
-0.151199 0.160317 -0.230308
-0.151195 0.160392 -0.23033699
-0.151189 0.16047101 -0.23038299
-0.15118501 0.160546 -0.230419
-0.15118 0.160622 -0.230453
-0.15117501 0.16069899 -0.23049299
-0.15117 0.160778 -0.230543
-0.151162 0.160864 -0.230643
-0.151152 0.160953 -0.23076899
-0.151144 0.161037 -0.23086099
-0.15113799 0.161117 -0.23092499
-0.151131 0.161202 -0.231016
-0.152347 0.122554 -0.232297
-0.152348 0.122637 -0.23222101
-0.152348 0.122719 -0.232143
-0.152349 0.122799 -0.232068
-0.152349 0.122879 -0.23199201
-0.152349 0.12296 -0.23193599
-0.152348 0.123039 -0.231876
-0.152348 0.123116 -0.231824
-0.152346 0.123193 -0.23178799
-0.152345 0.123268 -0.23175099
-0.152344 0.123343 -0.231721
-0.15234201 0.123417 -0.23169699
-0.15233999 0.123492 -0.231681
-0.152338 0.123564 -0.231664
-0.152336 0.123639 -0.231644
-0.152334 0.123713 -0.23162401
-0.15233199 0.123786 -0.2316
-0.15233 0.12386 -0.231581
-0.152328 0.123933 -0.231563
-0.152326 0.124007 -0.231543
-0.15232401 0.124081 -0.231527
-0.15232199 0.124154 -0.231516
-0.152319 0.124226 -0.231506
-0.152317 0.1243 -0.23149
-0.15231501 0.124373 -0.23147599
-0.15231299 0.124445 -0.231463
-0.152311 0.124519 -0.231447
-0.152309 0.124592 -0.231429
-0.15230601 0.124666 -0.231419
-0.152303 0.124736 -0.231418
-0.152301 0.12481 -0.231408
-0.152299 0.124881 -0.23139
-0.15229701 0.124957 -0.23137499
-0.15229499 0.125029 -0.231365
-0.152292 0.125098 -0.231363
-0.152289 0.12517001 -0.231365
-0.15228599 0.125241 -0.231372
-0.152283 0.125312 -0.23136801
-0.152281 0.125384 -0.23136
-0.15227801 0.12545601 -0.231361
-0.152275 0.12552799 -0.231365
-0.152272 0.125598 -0.231371
-0.15226901 0.12567 -0.231369
-0.15226699 0.125742 -0.23136
-0.152265 0.12581401 -0.231346
-0.152262 0.12588599 -0.23134799
-0.15225799 0.125954 -0.231369
-0.152254 0.12602501 -0.231389
-0.15225101 0.126095 -0.23139299
-0.15224899 0.126167 -0.23139
-0.152246 0.126238 -0.23139
-0.152243 0.12630901 -0.23139399
-0.15223999 0.12638099 -0.231398
-0.152237 0.126451 -0.23140299
-0.152233 0.12652101 -0.231415
-0.15222999 0.126591 -0.23143101
-0.152227 0.126661 -0.231444
-0.152224 0.12673301 -0.23143999
-0.15222099 0.126803 -0.23143999
-0.152217 0.126874 -0.231461
-0.15221401 0.12694401 -0.231475
-0.15221199 0.12701599 -0.23146699
-0.152209 0.12709001 -0.231455
-0.152207 0.127161 -0.231452
-0.15220299 0.12723 -0.231464
-0.1522 0.12729999 -0.23147801
-0.152197 0.12737 -0.23148701
-0.15219399 0.127442 -0.23149499
-0.152191 0.12751199 -0.231499
-0.152188 0.127584 -0.23150299
-0.15218399 0.127654 -0.23151
-0.152181 0.12772501 -0.231516
-0.152178 0.12779699 -0.231526
-0.15217499 0.127867 -0.23154099
-0.152171 0.12793501 -0.231553
-0.15216801 0.12800699 -0.231557
-0.152165 0.128079 -0.23156001
-0.152162 0.12815 -0.231572
-0.15215801 0.12822001 -0.23159
-0.152155 0.12829 -0.231598
-0.152152 0.12836 -0.231601
-0.15215001 0.12843201 -0.23159701
-0.152147 0.12850399 -0.231593
-0.152144 0.128576 -0.23159
-0.152142 0.128648 -0.23158801
-0.15213799 0.128718 -0.231598
-0.152135 0.12879001 -0.231602
-0.152133 0.12886199 -0.231601
-0.15212999 0.128934 -0.231599
-0.152127 0.129004 -0.231611
-0.152123 0.12907299 -0.231638
-0.152119 0.129143 -0.231656
-0.152116 0.129215 -0.23166201
-0.15211301 0.12928499 -0.231667
-0.15211 0.129357 -0.231665
-0.152107 0.129429 -0.231665
-0.15210401 0.129499 -0.23166899
-0.152101 0.12957101 -0.231672
-0.152099 0.12964299 -0.231664
-0.152096 0.129715 -0.231666
-0.15209299 0.129787 -0.23166899
-0.15209 0.129857 -0.23166899
-0.152087 0.12992901 -0.231673
-0.15208399 0.129999 -0.231683
-0.152081 0.130069 -0.23168799
-0.152079 0.130143 -0.231682
-0.15207601 0.130215 -0.23167001
-0.15207399 0.130288 -0.231658
-0.152071 0.130358 -0.231659
-0.152068 0.130429 -0.23166899
-0.15206499 0.130501 -0.23167101
-0.152062 0.130573 -0.231674
-0.152059 0.130643 -0.231686
-0.15205599 0.130713 -0.231694
-0.152053 0.130785 -0.23169699
-0.15205 0.13085701 -0.231695
-0.15204699 0.13092899 -0.231693
-0.152044 0.131001 -0.231695
-0.152042 0.131071 -0.231694
-0.15203901 0.131143 -0.231692
-0.152036 0.13121501 -0.23169599
-0.152033 0.131285 -0.231701
-0.15203001 0.131357 -0.231699
-0.152027 0.131429 -0.23169699
-0.152025 0.131501 -0.231693
-0.152022 0.13157301 -0.23169801
-0.15201899 0.131643 -0.2317
-0.152016 0.131717 -0.231692
-0.152014 0.131788 -0.23168699
-0.15201101 0.13185801 -0.23168699
-0.152008 0.13193201 -0.231681
-0.152006 0.132002 -0.231681
-0.15200201 0.132074 -0.23169
-0.151999 0.132144 -0.231692
-0.151997 0.13221601 -0.23169
-0.151994 0.13228799 -0.23168699
-0.15199199 0.13236 -0.23167901
-0.151989 0.132434 -0.231673
-0.151987 0.132506 -0.231665
-0.15198401 0.132576 -0.231668
-0.15198 0.13264801 -0.23167799
-0.151977 0.132718 -0.231684
-0.15197501 0.132792 -0.23167001
-0.15197399 0.132865 -0.231637
-0.151972 0.132936 -0.23162501
-0.151968 0.133007 -0.23164099
-0.15196501 0.13307901 -0.231646
-0.151962 0.13315099 -0.23164
-0.151959 0.133221 -0.23164999
-0.15195601 0.13329101 -0.231659
-0.151953 0.13336299 -0.231657
-0.15195 0.133435 -0.231657
-0.151948 0.133509 -0.231645
-0.15194599 0.13358 -0.23163
-0.151943 0.13365 -0.231628
-0.15194 0.13372201 -0.23163401
-0.15193699 0.13379399 -0.23163401
-0.151935 0.133866 -0.23163299
-0.151932 0.133938 -0.231627
-0.15193 0.13401 -0.231619
-0.15192699 0.134082 -0.23161601
-0.151924 0.134152 -0.231618
-0.151921 0.134224 -0.231618
-0.15191901 0.134295 -0.23160601
-0.151917 0.134367 -0.231599
-0.151913 0.13443901 -0.23160701
-0.15191101 0.13451099 -0.23160701
-0.151908 0.134583 -0.231602
-0.151905 0.134653 -0.23160601
-0.15190201 0.134725 -0.23161
-0.151899 0.13479701 -0.23161
-0.151896 0.134867 -0.231611
-0.151894 0.134941 -0.231601
-0.15189099 0.135011 -0.23159701
-0.151889 0.135083 -0.231592
-0.151887 0.13515601 -0.23157801
-0.151884 0.135226 -0.231576
-0.15188099 0.135298 -0.231584
-0.151878 0.13537 -0.231585
-0.151876 0.135442 -0.231567
-0.15187401 0.13551401 -0.231553
-0.151871 0.13558599 -0.231558
-0.151868 0.135658 -0.231564
-0.15186501 0.135728 -0.23156001
-0.151862 0.13579901 -0.231554
-0.15186 0.13587099 -0.231553
-0.151857 0.135943 -0.231547
-0.15185399 0.136015 -0.231545
-0.151852 0.136087 -0.231544
-0.15185 0.136159 -0.231528
-0.151847 0.13623001 -0.231516
-0.15184399 0.13630199 -0.231516
-0.151841 0.136373 -0.231525
-0.151838 0.136445 -0.23153301
-0.15183499 0.13651501 -0.231543
-0.151832 0.13658699 -0.231546
-0.151829 0.136659 -0.23153999
-0.15182699 0.136731 -0.231534
-0.151825 0.136802 -0.231512
-0.151825 0.136875 -0.231457
-0.151823 0.136948 -0.231433
-0.15181801 0.137017 -0.231479
-0.151813 0.137088 -0.23152
-0.151811 0.13716 -0.23152
-0.15180799 0.13722999 -0.231516
-0.151806 0.13730399 -0.231506
-0.151803 0.137374 -0.231501
-0.15180001 0.137445 -0.231499
-0.15179799 0.13751701 -0.23149499
-0.151795 0.13758899 -0.23149
-0.151793 0.137661 -0.231484
-0.15178999 0.137733 -0.23147801
-0.151787 0.137805 -0.23147599
-0.151784 0.13787501 -0.23148499
-0.15178099 0.13794699 -0.23148701
-0.151778 0.138019 -0.231491
-0.151776 0.138089 -0.231488
-0.15177301 0.138161 -0.23148599
-0.15177 0.13823301 -0.23149399
-0.151767 0.138303 -0.23149499
-0.151765 0.138376 -0.231475
-0.15176301 0.138446 -0.231465
-0.15176 0.13851801 -0.23146699
-0.151757 0.13858999 -0.23146001
-0.15175501 0.138662 -0.23145799
-0.151752 0.138734 -0.231454
-0.15175 0.138806 -0.231445
-0.151747 0.13887601 -0.231447
-0.15174399 0.13894799 -0.231453
-0.151741 0.13902 -0.231447
-0.151739 0.139091 -0.231436
-0.15173601 0.13916101 -0.231438
-0.151733 0.13923299 -0.231446
-0.15173 0.139305 -0.23144101
-0.151728 0.139375 -0.231435
-0.15172499 0.139447 -0.231433
-0.151722 0.13951901 -0.231427
-0.15172 0.13959099 -0.23142201
-0.15171701 0.139663 -0.231426
-0.151714 0.139733 -0.231428
-0.151712 0.13980401 -0.231417
-0.15171 0.13987599 -0.231401
-0.15170699 0.139948 -0.231391
-0.151704 0.14002 -0.231391
-0.151702 0.14009 -0.23138601
-0.15169901 0.14016099 -0.231378
-0.15169699 0.140233 -0.231374
-0.151694 0.140305 -0.231369
-0.151691 0.140377 -0.231371
-0.15168799 0.14044701 -0.23138499
-0.151685 0.14052001 -0.23139501
-0.151682 0.14059 -0.231396
-0.15167899 0.140662 -0.231396
-0.151676 0.140734 -0.23140199
-0.151673 0.14080399 -0.231401
-0.15167101 0.140875 -0.231391
-0.151668 0.140947 -0.231381
-0.151666 0.141019 -0.23138
-0.15166201 0.14108901 -0.231396
-0.151659 0.14116199 -0.23140199
-0.151657 0.141233 -0.231388
-0.15165401 0.141305 -0.231381
-0.15165199 0.141377 -0.231383
-0.151649 0.14144699 -0.23137499
-0.151646 0.141519 -0.231372
-0.15164299 0.141591 -0.23138
-0.15164 0.141661 -0.231388
-0.151637 0.14173301 -0.23138601
-0.15163501 0.14180499 -0.231379
-0.151632 0.141875 -0.231373
-0.15163 0.141947 -0.231373
-0.151627 0.14201801 -0.23137
-0.15162399 0.14208999 -0.23136599
-0.151622 0.14216 -0.23136599
-0.151619 0.142232 -0.23136599
-0.15161601 0.142304 -0.231365
-0.151613 0.14237601 -0.231361
-0.15161 0.142446 -0.23136701
-0.15160701 0.142518 -0.231378
-0.151604 0.142588 -0.23138
-0.151602 0.14266001 -0.231374
-0.151599 0.14273199 -0.231362
-0.15159699 0.142804 -0.231351
-0.151594 0.142876 -0.231353
-0.151591 0.142946 -0.231359
-0.15158901 0.14301801 -0.231352
-0.151586 0.143089 -0.231342
-0.151583 0.143161 -0.231352
-0.15158001 0.143232 -0.231364
-0.151577 0.14330401 -0.231363
-0.151574 0.14337599 -0.231363
-0.15157101 0.143445 -0.231359
-0.15156899 0.143517 -0.231352
-0.151567 0.143589 -0.23133799
-0.151564 0.143659 -0.231334
-0.15156101 0.143731 -0.231343
-0.151558 0.143803 -0.231341
-0.151556 0.143875 -0.23133101
-0.151553 0.14394499 -0.231335
-0.15154999 0.144017 -0.231342
-0.151547 0.144089 -0.231342
-0.151544 0.144159 -0.231336
-0.15154199 0.14422999 -0.23132899
-0.151539 0.144302 -0.23132899
-0.151536 0.144374 -0.23132899
-0.15153401 0.144446 -0.231315
-0.15153199 0.14451601 -0.2313
-0.15153 0.144587 -0.23129401
-0.151527 0.144659 -0.23129401
-0.15152401 0.144729 -0.23129299
-0.151521 0.144802 -0.23130099
-0.151517 0.14487401 -0.23131301
-0.15151501 0.14494599 -0.23131301
-0.151512 0.145015 -0.231304
-0.15151 0.145087 -0.23129401
-0.151508 0.14515901 -0.231286
-0.15150601 0.145229 -0.231269
-0.151503 0.1453 -0.231263
-0.1515 0.145373 -0.231269
-0.15149701 0.14544301 -0.231272
-0.151494 0.14551499 -0.231272
-0.151492 0.145586 -0.23127
-0.151489 0.145658 -0.23126
-0.15148699 0.14572801 -0.231245
-0.151485 0.14579999 -0.231233
-0.151482 0.14587 -0.23123901
-0.15147901 0.145942 -0.23123799
-0.15147699 0.14601301 -0.231232
-0.151474 0.14608499 -0.231234
-0.151471 0.146155 -0.231233
-0.15146799 0.146227 -0.231231
-0.151465 0.146299 -0.231233
-0.151462 0.14637101 -0.231235
-0.15145899 0.146441 -0.231244
-0.151456 0.146513 -0.231242
-0.151454 0.146585 -0.23122799
-0.151452 0.14665499 -0.231215
-0.15144999 0.146726 -0.23120099
-0.151448 0.146796 -0.231189
-0.151446 0.14686801 -0.23118
-0.151443 0.14693999 -0.23118
-0.15143999 0.14701 -0.23118401
-0.151437 0.147082 -0.231176
-0.151435 0.147154 -0.231171
-0.15143199 0.14722399 -0.231177
-0.151429 0.147296 -0.231177
-0.151426 0.147367 -0.231168
-0.15142401 0.147439 -0.23116399
-0.151421 0.14750899 -0.23116399
-0.151419 0.147581 -0.23115601
-0.151416 0.147653 -0.23114701
-0.15141299 0.147723 -0.23115499
-0.15141 0.14779501 -0.231169
-0.151407 0.14786699 -0.231162
-0.15140501 0.147937 -0.231152
-0.151402 0.148009 -0.231148
-0.151399 0.148081 -0.231148
-0.15139601 0.14815301 -0.231151
-0.15139399 0.148222 -0.231139
-0.151392 0.148294 -0.231133
-0.151388 0.148366 -0.231144
-0.15138599 0.14843599 -0.231144
-0.151383 0.148508 -0.23113801
-0.15138 0.14858 -0.231132
-0.15137801 0.14865001 -0.231135
-0.151375 0.14872199 -0.231139
-0.151372 0.148794 -0.231133
-0.151371 0.148863 -0.23110799
-0.15136901 0.14893501 -0.231086
-0.151366 0.149005 -0.23108201
-0.151363 0.149077 -0.231087
-0.151361 0.149148 -0.231077
-0.15135799 0.14921799 -0.231069
-0.151355 0.14929099 -0.231088
-0.151351 0.149363 -0.231098
-0.15134899 0.149435 -0.23109201
-0.151347 0.14950401 -0.23108201
-0.151344 0.14957599 -0.231071
-0.15134101 0.149648 -0.23107301
-0.15133899 0.149718 -0.231075
-0.151337 0.14979 -0.23105399
-0.151335 0.149859 -0.23102801
-0.15133201 0.149931 -0.23102599
-0.15132999 0.150001 -0.231023
-0.151327 0.15007301 -0.231021
-0.151324 0.15014499 -0.23102701
-0.15132099 0.150217 -0.231021
-0.151319 0.150286 -0.231012
-0.151316 0.150359 -0.231024
-0.15131301 0.15043101 -0.23102599
-0.15131 0.15050299 -0.23101901
-0.151308 0.150572 -0.231015
-0.151305 0.150644 -0.231005
-0.15130299 0.150714 -0.230993
-0.151301 0.150786 -0.23098201
-0.151299 0.150855 -0.230968
-0.151296 0.15092701 -0.23097201
-0.15129299 0.15099899 -0.23098101
-0.15129 0.151071 -0.230975
-0.151288 0.151141 -0.230969
-0.15128499 0.15121301 -0.23097
-0.151282 0.151283 -0.230966
-0.15128 0.151355 -0.230958
-0.15127701 0.151427 -0.23095
-0.15127499 0.15149599 -0.23094501
-0.151272 0.151568 -0.23094299
-0.15127 0.151638 -0.230933
-0.15126801 0.15171 -0.23091599
-0.15126599 0.151779 -0.23090801
-0.151262 0.151852 -0.230914
-0.15125901 0.151924 -0.23091701
-0.15125699 0.151995 -0.230913
-0.151254 0.15206499 -0.230905
-0.151252 0.152137 -0.23089901
-0.15124901 0.152207 -0.2309
-0.151246 0.152279 -0.2309
-0.151244 0.15235101 -0.23089001
-0.151241 0.15242299 -0.230885
-0.15123899 0.152493 -0.230883
-0.151236 0.152564 -0.23088101
-0.151233 0.15263399 -0.230876
-0.15123101 0.152706 -0.230864
-0.151228 0.152778 -0.230864
-0.151226 0.15284801 -0.23085999
-0.151224 0.152918 -0.230845
-0.15122201 0.152989 -0.230823
-0.15121999 0.15305901 -0.23080701
-0.151218 0.153128 -0.230792
-0.151216 0.1532 -0.23077799
-0.151214 0.15327001 -0.230768
-0.15121201 0.153339 -0.230755
-0.151209 0.153411 -0.230749
-0.151206 0.153483 -0.23074301
-0.151205 0.15355299 -0.230726
-0.15120199 0.153622 -0.230722
-0.151199 0.153694 -0.23072
-0.151197 0.15376399 -0.230703
-0.151196 0.153833 -0.230681
-0.15119299 0.153905 -0.23066901
-0.15119 0.153975 -0.230674
-0.151187 0.154047 -0.23067801
-0.15118501 0.154119 -0.230672
-0.15118299 0.15418901 -0.230656
-0.151181 0.15425999 -0.230645
-0.151178 0.15433 -0.23063301
-0.15117601 0.15440001 -0.230617
-0.15117399 0.154469 -0.230602
-0.151172 0.154541 -0.230592
-0.15117 0.15461101 -0.23057801
-0.151168 0.154681 -0.23056699
-0.15116499 0.154752 -0.23056699
-0.151162 0.154824 -0.230561
-0.15116 0.15489399 -0.230544
-0.151159 0.154963 -0.230524
-0.15115701 0.15503301 -0.230508
-0.151154 0.155103 -0.23050299
-0.151152 0.155175 -0.23049501
-0.15115 0.15524399 -0.23047499
-0.15114801 0.155314 -0.230464
-0.151145 0.155386 -0.23046599
-0.151142 0.155458 -0.23047601
-0.15113901 0.15553001 -0.23047601
-0.15113699 0.1556 -0.230461
-0.151135 0.155669 -0.23043901
-0.151133 0.155737 -0.23041999
-0.151131 0.155808 -0.230406
-0.15112799 0.15588 -0.230408
-0.151126 0.15594999 -0.2304
-0.151124 0.15602 -0.230387
-0.151122 0.15608899 -0.230371
-0.15112001 0.156159 -0.230354
-0.151118 0.15622801 -0.23032799
-0.151117 0.156298 -0.23030201
-0.151114 0.156368 -0.23030099
-0.15111101 0.15644 -0.230303
-0.151109 0.15651201 -0.230295
-0.151107 0.156581 -0.230279
-0.151105 0.15665101 -0.23026
-0.151103 0.15672 -0.230242
-0.15110099 0.15679 -0.230232
-0.151098 0.15686201 -0.23022901
-0.151096 0.156932 -0.230221
-0.151094 0.157001 -0.230197
-0.15109199 0.157069 -0.230178
-0.151089 0.157141 -0.23018201
-0.151086 0.157213 -0.230188
-0.15108401 0.157285 -0.230187
-0.15108199 0.157354 -0.230167
-0.151081 0.15742201 -0.230133
-0.151079 0.157489 -0.230106
-0.151077 0.157561 -0.230102
-0.15107401 0.15763301 -0.23010799
-0.151071 0.15770499 -0.230111
-0.151068 0.157775 -0.23010901
-0.15106601 0.157847 -0.23009899
-0.15106399 0.15791599 -0.230086
-0.151062 0.157984 -0.230064
-0.15106 0.158053 -0.23004401
-0.151057 0.158125 -0.23004501
-0.15105399 0.1582 -0.23006099
-0.151051 0.15827 -0.230059
-0.151049 0.15833899 -0.23005
-0.15104599 0.158411 -0.230048
-0.151043 0.158483 -0.23005199
-0.151039 0.158556 -0.230064
-0.15103599 0.158628 -0.230075
-0.151034 0.15869799 -0.230067
-0.151032 0.158769 -0.23005299
-0.15102901 0.158839 -0.23005401
-0.151026 0.158913 -0.230058
-0.151024 0.158981 -0.230042
-0.151021 0.159053 -0.230038
-0.151017 0.159127 -0.230065
-0.151013 0.15920199 -0.23008899
-0.15100899 0.15927599 -0.230105
-0.151006 0.159346 -0.230105
-0.151004 0.159418 -0.23010001
-0.15099999 0.15949 -0.230112
-0.150996 0.159567 -0.230148
-0.15099099 0.15964399 -0.230178
-0.150987 0.159716 -0.23019999
-0.150984 0.15978999 -0.230213
-0.15098099 0.15986 -0.230207
-0.150979 0.159932 -0.230203
-0.150975 0.160006 -0.230223
-0.150971 0.160081 -0.23025399
-0.150966 0.16015799 -0.230286
-0.150962 0.16023199 -0.23030201
-0.150959 0.160304 -0.230314
-0.15095501 0.16037899 -0.230334
-0.15095 0.160458 -0.23038
-0.15094499 0.16053499 -0.230427
-0.15094 0.160611 -0.230461
-0.15093499 0.160688 -0.230499
-0.15093 0.160767 -0.23054899
-0.150923 0.16084699 -0.230611
-0.15091699 0.160928 -0.23067901
-0.15090799 0.161017 -0.230803
-0.15090001 0.1611 -0.230887
-0.150894 0.161182 -0.230951
-0.152142 0.122443 -0.232408
-0.152142 0.122525 -0.23233201
-0.15214799 0.122621 -0.23213799
-0.15214901 0.122707 -0.23203801
-0.15214901 0.122785 -0.23197401
-0.15214901 0.122864 -0.231915
-0.15214901 0.122946 -0.231847
-0.15214901 0.123025 -0.231785
-0.15214799 0.1231 -0.231749
-0.152146 0.123175 -0.23171701
-0.152145 0.12325 -0.231682
-0.152143 0.123326 -0.231658
-0.152141 0.123401 -0.23163401
-0.15214001 0.123477 -0.23160399
-0.15213799 0.12355 -0.231582
-0.152136 0.123624 -0.23156101
-0.152134 0.123697 -0.231545
-0.152132 0.123771 -0.231525
-0.15212999 0.123846 -0.231497
-0.152128 0.123919 -0.23147599
-0.152126 0.123993 -0.23146001
-0.152124 0.124067 -0.231444
-0.15212201 0.12414 -0.231428
-0.15211999 0.124214 -0.23141301
-0.152117 0.124286 -0.23140299
-0.152115 0.124357 -0.23139299
-0.15211301 0.124431 -0.23137601
-0.15211099 0.124506 -0.23134799
-0.15211 0.12458 -0.231326
-0.152107 0.124652 -0.23132201
-0.15210401 0.124722 -0.231323
-0.152101 0.124796 -0.231319
-0.152099 0.124867 -0.231309
-0.152097 0.124939 -0.231297
-0.15209401 0.12501299 -0.231286
-0.15209199 0.125083 -0.23129
-0.152089 0.125155 -0.23129
-0.152087 0.12522601 -0.231277
-0.15208399 0.12529799 -0.23127501
-0.152081 0.125368 -0.231281
-0.152078 0.12544 -0.231279
-0.15207499 0.125512 -0.23127601
-0.152073 0.12558401 -0.23127601
-0.152069 0.125654 -0.231282
-0.15206701 0.125726 -0.231281
-0.152064 0.12579601 -0.231281
-0.152061 0.12586799 -0.231287
-0.15205801 0.125938 -0.231287
-0.152055 0.12601 -0.231288
-0.152052 0.12608001 -0.231296
-0.15204901 0.126151 -0.23131
-0.15204599 0.126221 -0.231319
-0.152043 0.126293 -0.231319
-0.15204 0.12636501 -0.231319
-0.15203699 0.126435 -0.23132201
-0.152034 0.126505 -0.23133001
-0.152031 0.12657499 -0.23134001
-0.15202799 0.126647 -0.231344
-0.152025 0.126719 -0.231345
-0.152022 0.126789 -0.231341
-0.15201899 0.12686101 -0.231343
-0.152016 0.126931 -0.231354
-0.15201201 0.127002 -0.23137
-0.152009 0.12707201 -0.23138399
-0.152006 0.127142 -0.231387
-0.15200301 0.127214 -0.231387
-0.152 0.127286 -0.231391
-0.151997 0.12735599 -0.231399
-0.151994 0.127426 -0.231408
-0.15199099 0.127496 -0.23141401
-0.151988 0.12756699 -0.23142201
-0.151985 0.127639 -0.231427
-0.15198199 0.127709 -0.23143101
-0.151979 0.127781 -0.231435
-0.151976 0.12785099 -0.23143899
-0.15197299 0.127923 -0.23143999
-0.15197 0.127995 -0.231442
-0.151967 0.128065 -0.23144799
-0.15196399 0.128135 -0.231461
-0.15196 0.128205 -0.23146901
-0.15195701 0.12827501 -0.23147701
-0.151954 0.12834799 -0.231492
-0.15195 0.128416 -0.231506
-0.15194701 0.128488 -0.231516
-0.151944 0.12855799 -0.231518
-0.151942 0.12863 -0.23151299
-0.151939 0.128702 -0.23151299
-0.15193599 0.128774 -0.23151501
-0.151933 0.128846 -0.231516
-0.15193 0.128916 -0.231518
-0.15192699 0.128986 -0.231526
-0.151923 0.12905701 -0.231544
-0.15192001 0.12912899 -0.23155101
-0.151917 0.129199 -0.231555
-0.151915 0.129271 -0.231555
-0.151912 0.129342 -0.231544
-0.15191001 0.129416 -0.23153
-0.151907 0.12948599 -0.231536
-0.151904 0.129556 -0.23154999
-0.15189999 0.129627 -0.231565
-0.151897 0.129697 -0.23157699
-0.151894 0.129769 -0.23157901
-0.15189099 0.129841 -0.23157801
-0.151888 0.129913 -0.231574
-0.151886 0.129985 -0.23157001
-0.15188301 0.130055 -0.231575
-0.15188 0.130127 -0.231585
-0.151876 0.130197 -0.23159499
-0.15187301 0.13026901 -0.23159499
-0.151871 0.13034099 -0.23158599
-0.151869 0.130413 -0.23158
-0.151866 0.130485 -0.231582
-0.15186299 0.130555 -0.231589
-0.15186 0.13062701 -0.231593
-0.151857 0.130697 -0.23159499
-0.15185399 0.130769 -0.23159499
-0.151851 0.130841 -0.231594
-0.151848 0.13091099 -0.2316
-0.15184499 0.130983 -0.231602
-0.151842 0.131055 -0.231603
-0.151839 0.131125 -0.23160701
