0.0038776 -0.101034 0.994875 0.00162085
0.00110521 -0.103002 0.994681 0
0.00215484 -0.105177 0.994451 0
0.00674574 -0.105062 0.994443 0
0.00980583 -0.104662 0.99446 0
0.0111614 -0.105511 0.994356 0
0.0131114 -0.102813 0.994614 0
0.0125098 -0.106763 0.994206 0
0.0126694 -0.110512 0.993794 0
0.0139082 -0.112129 0.993596 0
0.00985215 -0.111199 0.993749 0
0.0080149 -0.114213 0.993424 0
0.0116315 -0.114222 0.993387 0
0.00933736 -0.115444 0.99327 0
0.0134524 -0.117535 0.992978 0
0.014866 -0.118055 0.992896 0
0.0174322 -0.119296 0.992706 0
0.0173595 -0.11938 0.992697 0
0.0199073 -0.12078 0.99248 0
0.0175924 -0.119716 0.992652 0
0.0167588 -0.12244 0.992334 0
0.0192994 -0.123556 0.99215 0
0.016948 -0.124453 0.992081 0
0.0129748 -0.124085 0.992187 0
0.00925382 -0.12348 0.992304 0
0.00643675 -0.121724 0.992543 0
0.00536629 -0.118104 0.992987 0
0.00502802 -0.118012 0.992999 0.00200523
0.00262509 -0.119501 0.992831 0.0030237
0.00549427 -0.116785 0.993142 0.00439616
0.00905308 -0.114845 0.993342 0.0046826
0.00694593 -0.11418 0.993436 0.00247341
0.0060978 -0.115131 0.993332 0.00188096
0.00725289 -0.118705 0.992903 0.000153065
0.0064666 -0.116823 0.993132 0
0.0072936 -0.122966 0.992384 0
0.00755372 -0.1237 0.992291 0
0.00616566 -0.121451 0.992578 0
0.00692106 -0.122252 0.992475 0
0.00711585 -0.119208 0.992844 0
0.00825524 -0.118786 0.992886 0
0.0135757 -0.114986 0.993274 0
0.0163995 -0.116296 0.993079 0
0.0121681 -0.11553 0.993229 0
0.0127183 -0.115786 0.993193 0
0.00986354 -0.111784 0.993684 0
0.00868613 -0.105083 0.994425 0
0.00704193 -0.103974 0.994555 0.000880616
0.00604778 -0.105811 0.994368 0
0.00425299 -0.109229 0.994007 0
0.00351808 -0.104219 0.994548 0
0.00112802 -0.10136 0.994849 0.00168955
0.000470107 -0.101026 0.994884 0
0.00254757 -0.0983885 0.995145 0.000246787
0.00306499 -0.0962964 0.995348 0.000944617
0.00274898 -0.0955478 0.995421 0.000109846
0.000316233 -0.094741 0.995502 0
0.0010911 -0.0886618 0.996061 0
0.00159398 -0.0898442 0.995955 0.000357582
0.00551319 -0.0898096 0.995944 0
0.00952319 -0.0851684 0.996321 0.000948296
0.006723 -0.0830138 0.996526 0.00232055
0.00955328 -0.0866921 0.996189 0
0.0119619 -0.0826866 0.996504 0
0.011459 -0.0801142 0.99672 0.00175451
0.0112717 -0.0817844 0.996586 0.00363015
0.0125235 -0.0811297 0.996625 0.00178997
0.0116521 -0.0793703 0.996777 0.00382439
0.00830644 -0.08129 0.996656 0.0019312
0.00684293 -0.0825073 0.996567 0.00476441
0.00337175 -0.0802027 0.996773 0.00619622
0.000885994 -0.0815531 0.996669 0.00744704
9.99159e-05 -0.0801688 0.996781 0.00558495
0.00072318 -0.0796477 0.996823 0.00475019
0.00154654 -0.076224 0.99709 0.00661132
0.0013736 -0.0738655 0.997267 0.00720091
0.00454041 -0.0733143 0.997299 0.00551201
0.00774822 -0.0734753 0.997267 0.00607453
0.00824741 -0.0743238 0.9972 0.00550495
0.0100148 -0.070189 0.997483 0.0052463
0.0130773 -0.0676868 0.997621 0.00373749
0.0137005 -0.0651141 0.997784 0.00343045
0.0122849 -0.0597648 0.998137 0.00440115
0.0101254 -0.0561573 0.998371 0.00628419
0.00935278 -0.0519629 0.998605 0.0054815
0.00699217 -0.0496343 0.998743 0.0062099
0.00524305 -0.0430509 0.999059 0.00796893
0.00601086 -0.0398459 0.999188 0.00765308
0.00809241 -0.0374538 0.999266 0.00577737
0.00926147 -0.0414958 0.999096 0.00539189
0.0087403 -0.0367179 0.999287 0.00806579
0.00510725 -0.025746 0.999655 0.0133987
0.00358656 -0.0251122 0.999678 0.0155411
0.00168598 -0.0208277 0.999782 0.0137694
-0.0003966 -0.0135817 0.999908 0.0184167
-0.000560926 -0.0115495 0.999933 0.0174504
0.00138313 -0.00485885 0.999987 0.0150985
0.00262194 -0.00753079 0.999968 0.0134156
0.00301494 -0.00313801 0.999991 0.0158468
0.00275881 0.00306565 0.999991 0.0193302
0.00691446 -0.00104779 0.999976 0.0133016
0.0063309 0.00593184 0.999962 0.00857936
0.00642469 0.0167887 0.999838 0.0125827
0.00896874 0.0181087 0.999796 0.0118346
0.00719172 0.0270926 0.999607 0.016303
0.0062098 0.0343126 0.999392 0.0182175
0.00757826 0.0298079 0.999527 0.0136971
0.00867002 0.0271771 0.999593 0.00865946
0.00926056 0.0344719 0.999363 0.0086661
0.00917322 0.034933 0.999348 0.0104184
0.00960717 0.0425685 0.999047 0.0104595
0.0108376 0.043563 0.998992 0.00875327
0.0122281 0.0564389 0.998331 0.00774402
-0.0318854 -0.125711 0.991554 0.0174868
-0.0308838 -0.116997 0.992652 0.0146567
-0.0316236 -0.104065 0.994068 0.0174542
-0.0322052 -0.0922827 0.995212 0.0161814
-0.0317844 -0.0871916 0.995684 0.0158527
-0.0336963 -0.0857021 0.995751 0.0174644
-0.0330458 -0.0876487 0.995603 0.019265
-0.0307862 -0.0753606 0.996681 0.0159999
-0.0304696 -0.0783757 0.996458 0.0148391
-0.0292457 -0.0741881 0.996815 0.0111979
-0.0288606 -0.0678576 0.997277 0.0146827
-0.0274077 -0.0653024 0.997489 0.0102565
-0.0281508 -0.0677604 0.997304 0.0118189
-0.0252183 -0.0712773 0.997138 0.00496041
-0.0240049 -0.0625853 0.997751 0.00458956
-0.0231488 -0.0591333 0.997982 0.00823116
-0.0241625 -0.0503165 0.998441 0.00965525
-0.0247032 -0.0504438 0.998421 0.0086684
-0.0245312 -0.0506968 0.998413 0.00780632
-0.025244 -0.0459923 0.998623 0.00744936
-0.0231554 -0.0457765 0.998683 0.00179221
-0.0235699 -0.0432593 0.998786 0.00466907
-0.024006 -0.0383767 0.998975 0.00428138
-0.0242458 -0.033682 0.999138 0.00388441
-0.0247222 -0.0278561 0.999306 0.00317949
-0.0272168 -0.0286845 0.999218 0.00213005
-0.0267921 -0.0263668 0.999293 0.00158023
-0.0268848 -0.0245232 0.999338 0.00221324
-0.0256217 -0.0254752 0.999347 0.0011726
-0.0231362 -0.0233656 0.999459 0.00119844
-0.0229763 -0.0241347 0.999445 0.0018004
-0.0184445 -0.0207447 0.999615 0
-0.0156197 -0.0193398 0.999691 0
-0.0110061 -0.018481 0.999769 0
-0.0114368 -0.0156603 0.999812 0
-0.0081583 -0.0144074 0.999863 0
-0.00988761 -0.0122581 0.999876 0
-0.0111677 -0.00856939 0.999901 0.00117228
-0.0134671 -0.00443921 0.999899 0.00334959
-0.0137921 -0.0019774 0.999903 0.00382615
-0.010362 -0.00393346 0.999938 0.00359252
-0.00884236 8.78547e-05 0.999961 0.0071509
-0.00908546 5.70845e-05 0.999959 0.00675006
-0.00815156 -0.0024624 0.999964 0.00278384
-0.00700524 -0.00341883 0.99997 0.00294133
-0.00599998 -0.000256489 0.999982 0.00697301
-0.00196576 -0.00142557 0.999997 0.00370065
-0.00110399 -0.000651979 0.999999 0.00615829
-0.00310784 0.00412062 0.999987 0.00638862
-0.00335567 0.00369195 0.999988 0.00428474
-0.00276594 0.00475056 0.999985 0.00451545
-0.00373704 0.00482752 0.999981 0.00548498
-0.000602899 0.00475685 0.999989 0.00347794
-0.000614604 0.00372877 0.999993 0.00228542
-0.000260597 0.00529907 0.999986 0.00237001
-0.00489993 0.00918113 0.999946 0.000410211
-0.00619372 0.0110212 0.99992 0
-0.00463262 0.0105896 0.999933 0
-0.00414377 0.00908839 0.99995 0
-0.00561806 0.0105463 0.999929 0
-0.00822728 0.0107977 0.999908 0
-0.0105299 0.00682295 0.999921 0
-0.0126818 0.0084194 0.999884 0.00144943
-0.0124898 0.0119268 0.999851 0.00167249
-0.00366314 0.0106485 0.999937 0
-0.00242469 0.010726 0.99994 0
0.0016101 0.00866438 0.999961 0
0.000513288 0.0109131 0.99994 0
-0.00261762 0.0102341 0.999944 0
-0.00639988 0.00749012 0.999951 0
-0.0164475 0.0142629 0.999763 0
-0.0146069 0.0201605 0.99969 0
-0.0160366 0.0242561 0.999577 0
-0.0115602 0.0226686 0.999676 0
-0.00793539 0.0233194 0.999697 0
-0.0101108 0.0264851 0.999598 0
-0.00661265 0.026101 0.999637 0
-0.00810578 0.0279774 0.999576 0
-0.00628523 0.031225 0.999493 0
-0.00265118 0.0330302 0.999451 0
-0.00548171 0.0337935 0.999414 0
-0.00339738 0.0317366 0.99949 0
-0.00828674 0.030052 0.999514 0
-0.00852438 0.0313485 0.999472 0
-0.00799293 0.0334947 0.999407 0
0.00268413 0.0292647 0.999568 0
0.00836032 0.0260916 0.999625 0
0.0121931 0.022248 0.999678 0
0.0137114 0.0222684 0.999658 0
0.0146925 0.0246579 0.999588 0
0.0159397 0.0219174 0.999633 0
0.0183007 0.0206774 0.999619 0
0.0108193 0.0237756 0.999659 0
0.00270869 0.0236269 0.999717 0.000159854
0.00283726 0.0255763 0.999669 0
0.00532629 0.0217681 0.999749 0
0.00798255 0.0207372 0.999753 0
0.0107337 0.0218633 0.999703 0
0.00747744 0.025471 0.999648 0.00163787
0.00915322 0.0293715 0.999527 0
0.00895774 0.027422 0.999584 0
0.0103674 0.0214834 0.999715 0
0.0119766 0.0167583 0.999788 0
0.00677127 0.0212513 0.999751 0
0.00676752 0.0219521 0.999736 0
0.00670671 0.0183058 0.99981 0
0.00720436 0.0161045 0.999844 0
0.00981506 0.0132365 0.999864 0
0.01168 0.0141857 0.999831 0
0.0138835 0.0123266 0.999828 0
0.0130281 0.0126657 0.999835 0
0.0107465 0.0109883 0.999882 0
0.00681127 0.00784492 0.999946 0
0.00538878 0.00566209 0.999969 0
0.00109836 0.0073557 0.999972 0
-0.00491341 0.00586041 0.999971 0
-0.00540114 0.00683106 0.999962 0
-0.00166838 0.00551273 0.999983 0
0.00388698 0.00131502 0.999992 0
0.0105029 0.000215545 0.999945 0
0.0099541 -0.00222249 0.999948 0
0.00377601 -0.00244208 0.99999 0
0.00169883 -0.00201298 0.999997 0
0.00478936 -0.0043242 0.999979 0
0.0100203 -0.00689075 0.999926 0
0.00804499 -0.00704976 0.999943 0
0.00623331 -0.00998709 0.999931 0
0.00266492 -0.0144154 0.999893 0
-0.000131968 -0.0157233 0.999876 0
0.00274614 -0.0155557 0.999875 0
0.00445422 -0.0180208 0.999828 0
0.00435943 -0.0161552 0.99986 0
-0.000535926 -0.0129711 0.999916 0.00386289
-0.00480595 -0.0141274 0.999889 0.00648916
-0.00216485 -0.0178659 0.999838 0.00496559
-0.00208001 -0.0143455 0.999895 0.00775867
-0.00490386 -0.0159422 0.999861 0.00838427
-0.00578877 -0.0181191 0.999819 0.00564813
-0.00679561 -0.0190069 0.999796 0.00597027
-0.00927837 -0.0184959 0.999786 0.00643966
-0.00768085 -0.0152773 0.999854 0.00564394
-0.00611717 -0.0116482 0.999913 0.0105893
-0.00567598 -0.0125056 0.999906 0.0139896
-0.00666643 -0.0133681 0.999888 0.0131662
-0.00323814 -0.0209352 0.999776 0.00826938
0.00133893 -0.0214392 0.999769 0.00616296
-0.00119492 -0.0194588 0.99981 0.00808854
-0.00164218 -0.0191041 0.999816 0.00495294
-0.00516017 -0.0170453 0.999841 0.0073293
-0.00686009 -0.0155229 0.999856 0.00694436
-0.0134463 -0.0143184 0.999807 0.00976412
-0.0169815 -0.0174199 0.999704 0.00972152
-0.0200293 -0.0225684 0.999545 0.00904613
-0.0172199 -0.0204733 0.999642 0.00826082
-0.00934529 -0.0205251 0.999746 0.00345855
-0.00640017 -0.0225389 0.999725 0.000601909
-0.00704975 -0.0264277 0.999626 0
-0.0077946 -0.029488 0.999535 0.0015085
-0.00695059 -0.0278551 0.999588 0.0012657
-0.00402617 -0.0293921 0.99956 0
-0.0126248 -0.0324595 0.999393 0
-0.0148193 -0.0317155 0.999387 0
-0.0166453 -0.0332646 0.999308 8.39753e-05
-0.0155141 -0.0327558 0.999343 0.000161563
-0.0118841 -0.0293723 0.999498 0.00248473
-0.00811968 -0.0338554 0.999394 2.03382e-05
-0.00343581 -0.0389166 0.999237 0
-0.00109805 -0.0420106 0.999117 0
0.00382357 -0.0438683 0.99903 0
0.00719029 -0.0478038 0.998831 0
0.00472146 -0.04565 0.998946 0
0.00302569 -0.0462115 0.998927 0
-0.00310066 -0.046512 0.998913 0
-0.00178012 -0.0432609 0.999062 0
-0.00328398 -0.0428434 0.999076 0
-0.00322692 -0.0412043 0.999146 0
-0.000608889 -0.0409152 0.999162 0
-0.00234736 -0.0378656 0.99928 0
-0.00344456 -0.036908 0.999313 0
-0.00905555 -0.0368215 0.999281 0.00186432
-0.00721523 -0.0382206 0.999243 0.00171251
-0.00312314 -0.0391467 0.999229 0
-0.00560695 -0.0350533 0.99937 0.000979495
-0.0120798 -0.0349463 0.999316 0.0018125
-0.0104118 -0.0346988 0.999344 0
-0.00834327 -0.0355451 0.999333 0
-0.00829347 -0.0357939 0.999325 0
-0.00826578 -0.0325968 0.999434 0.00317046
-0.0106153 -0.0312132 0.999456 0.00642752
-0.0104587 -0.0362245 0.999289 0.00675465
-0.0057177 -0.0364367 0.99932 0.000330247
-0.00462849 -0.0389701 0.99923 0
-0.00636356 -0.0400462 0.999178 0.000181009
-0.00546845 -0.0400376 0.999183 0
-0.00821782 -0.0395071 0.999185 0
-0.00705867 -0.0427758 0.99906 0
-0.00729472 -0.0383682 0.999237 0
-0.00735138 -0.0386222 0.999227 0
-0.01024 -0.0385555 0.999204 0.0032777
-0.0114426 -0.0349204 0.999325 0.00328642
-0.00789208 -0.0345652 0.999371 0.000987703
-0.00846721 -0.0359171 0.999319 0.00269271
-0.00643794 -0.0334684 0.999419 0.00163887
-0.00878118 -0.0348687 0.999353 0
-0.00431688 -0.0383656 0.999254 0
-0.00811928 -0.0332431 0.999414 0
-0.0117158 -0.0314091 0.999438 0
-0.0157314 -0.0290243 0.999455 0
-0.00992883 -0.0292665 0.999522 0
-0.00759877 -0.0313167 0.999481 0
-0.0129645 -0.026763 0.999558 0.00357441
-0.0112947 -0.0255022 0.999611 0.00533427
-0.013393 -0.0242459 0.999616 0.0081571
-0.0151813 -0.0248944 0.999575 0.0108564
-0.0130488 -0.0254144 0.999592 0.00738813
-0.0138849 -0.0269837 0.999539 0.00428414
-0.0144591 -0.0248812 0.999586 0.000857018
-0.0186556 -0.0228416 0.999565 0.0024439
-0.0161815 -0.0274702 0.999492 0
-0.0142272 -0.0314413 0.999404 0
-0.0157584 -0.0314083 0.999382 0
-0.0180608 -0.0349794 0.999225 0
-0.0187347 -0.0357558 0.999185 0.00076614
-0.0176599 -0.0363459 0.999183 0.00162929
-0.0156677 -0.0365602 0.999209 0.000517648
-0.0165886 -0.0341632 0.999279 0.00288286
-0.0192395 -0.0287061 0.999403 0.00601018
-0.0186233 -0.0327976 0.999288 0.00480947
-0.0192669 -0.0320538 0.9993 0.00481164
-0.026369 -0.0254971 0.999327 0.00859935
-0.0260657 -0.0308913 0.999183 0.006667
-0.0297097 -0.0302066 0.999102 0.0119372
-0.021115 -0.0288316 0.999361 0.00950092
-0.0125432 -0.0374153 0.999221 0.00226262
-0.0115098 -0.0348961 0.999325 0.00487033
-0.00990081 -0.0312946 0.999461 0.00817647
-0.00716231 -0.0330606 0.999428 0.00795373
-0.00639804 -0.0348416 0.999372 0.00924791
0.000353897 -0.035645 0.999364 0.00799021
0.00031629 -0.0373846 0.999301 0.00760727
-0.00599932 -0.0370735 0.999295 0.0104372
-0.00771074 -0.037484 0.999268 0.0111588
-0.00956642 -0.0352818 0.999332 0.0123476
-0.0122691 -0.0355842 0.999291 0.0154843
-0.00946431 -0.0315386 0.999458 0.0204608
-0.00412227 -0.0340933 0.99941 0.0190842
-0.000807991 -0.0367056 0.999326 0.0170067
-0.000352574 -0.0336616 0.999433 0.0208964
-0.000407674 -0.036663 0.999328 0.0184417
-0.00806658 -0.0327338 0.999432 0.0240015
-0.00537448 -0.0285021 0.999579 0.0205664
-0.00894364 -0.0289781 0.99954 0.0202697
-0.00721867 -0.03193 0.999464 0.016462
-0.00120699 -0.0325827 0.999468 0.0135711
-0.00208521 -0.0310583 0.999515 0.0149033
-0.0075581 -0.0313239 0.999481 0.0191891
-0.00978514 -0.0292353 0.999525 0.0191912
-0.00784039 -0.0288237 0.999554 0.0148277
-0.00409102 -0.0322713 0.999471 0.0112528
-0.00159058 -0.0338565 0.999425 0.0133042
-0.00146696 -0.034195 0.999414 0.0116795
0.00459134 -0.0380068 0.999267 0.00392859
-0.000985464 -0.0374604 0.999298 0.00721793
-0.00417516 -0.0361633 0.999337 0.0085319
-0.00447308 -0.0319909 0.999478 0.00897714
-0.00614244 -0.0364956 0.999315 0.0058298
-0.00625859 -0.0370391 0.999294 0.00768269
-0.00533447 -0.0370879 0.999298 0.0090498
0.00228631 -0.0412824 0.999145 0.00798403
0.00556141 -0.0429303 0.999063 0.00537812
0.00624035 -0.0415368 0.999117 0.00886775
0.00868662 -0.0435844 0.999012 0.00849064
0.0122944 -0.0415777 0.99906 0.00422478
0.00978923 -0.0418311 0.999077 0.00302341
0.0103303 -0.0450469 0.998931 0
0.0125283 -0.0433676 0.998981 5.80633e-05
0.00975973 -0.040788 0.99912 0.00167837
0.00540173 -0.0463728 0.99891 0.00304227
0.00447319 -0.043303 0.999052 0.00397588
0.00341362 -0.0411338 0.999148 0.00358661
0.00344247 -0.0443038 0.999012 0.00331907
0.00266438 -0.0397082 0.999208 0.00750102
0.00289964 -0.0359092 0.999351 0.00594159
0.00315148 -0.0415998 0.999129 0.00240582
0.00179018 -0.0375159 0.999294 0.0035435
-0.000568216 -0.0370069 0.999315 0.00504761
-0.00134089 -0.042167 0.99911 0.00576
-0.00327916 -0.041627 0.999128 0.00531728
-0.00256064 -0.0368332 0.999318 0.00566156
0.00534633 -0.0446235 0.99899 0.000157198
0.0091572 -0.044302 0.998976 0
0.0125466 -0.0447461 0.99892 0
0.0107216 -0.0451798 0.998921 0
0.00375639 -0.0393248 0.999219 0.00570645
0.00280954 -0.0359828 0.999348 0.00868913
0.00633964 -0.0421601 0.999091 0.00604026
0.00538365 -0.0426947 0.999074 0.0051629
0.00188836 -0.0409052 0.999161 0.00609168
0.00330409 -0.0450911 0.998977 0.00276324
0.00506626 -0.0471717 0.998874 0.00231341
0.000661976 -0.0412024 0.999151 0.00695847
0.000128445 -0.0435254 0.999052 0.00806031
0.00289589 -0.0464064 0.998918 0.00321702
0.000918597 -0.0420312 0.999116 0.00678609
0.00435287 -0.043883 0.999027 0.00445543
0.00677761 -0.0479735 0.998826 0.00139163
0.00923733 -0.0508608 0.998663 0
0.00808666 -0.0519257 0.998618 0
0.00205061 -0.0512504 0.998684 0
-0.00214424 -0.048107 0.99884 0
-0.000774785 -0.0478959 0.998852 0
-0.00383553 -0.0481301 0.998834 0.00243222
2.7664e-06 -0.0448288 0.998995 0.00032566
0.00337804 -0.0510371 0.998691 0
0.00535339 -0.0570593 0.998356 0
0.00803497 -0.0502503 0.998704 0
0.0103797 -0.0528022 0.998551 0
0.0111824 -0.0530795 0.998528 0
0.00985513 -0.0486067 0.998769 0
0.00970693 -0.0486795 0.998767 0
0.00699994 -0.0485097 0.998798 0
0.00763348 -0.0475972 0.998837 0
0.00638745 -0.0504779 0.998705 0
0.00915774 -0.0584228 0.99825 0
0.0112977 -0.0592613 0.998179 0
0.010497 -0.057233 0.998306 0
0.00936901 -0.0601022 0.998148 0
0.00635226 -0.0563479 0.998391 0
0.00710927 -0.0563199 0.998388 0
0.0096559 -0.0578567 0.998278 0
0.01169 -0.0579943 0.998249 0
0.00866681 -0.0555349 0.998419 0
0.00743607 -0.0544686 0.998488 0
0.00296157 -0.0495815 0.998766 0.0013895
0.0056036 -0.046468 0.998904 0.0050157
0.00801082 -0.0469776 0.998864 0.00209722
0.00852925 -0.0415218 0.999101 0.00340577
0.0125327 -0.0406317 0.999096 0.00122286
0.01114 -0.0377334 0.999226 0.00336683
0.0127741 -0.0394905 0.999138 0
0.0197299 -0.041896 0.998927 0
0.0210233 -0.0500154 0.998527 0
0.0148357 -0.0485608 0.99871 0
0.0137546 -0.0498193 0.998664 0
0.0148872 -0.0562382 0.998306 0
0.0113113 -0.0521266 0.998576 0
0.0113262 -0.0509274 0.998638 0
0.00948978 -0.0494418 0.998732 0
0.00990766 -0.048946 0.998752 0
0.0125641 -0.053301 0.9985 0
0.0147575 -0.0575453 0.998234 0
0.0146761 -0.0579272 0.998213 0
0.0171786 -0.0554304 0.998315 0
0.0171554 -0.0562259 0.998271 0
0.0154008 -0.0559421 0.998315 0
0.0118351 -0.0555733 0.998384 0
0.0096526 -0.0569165 0.998332 0
0.0122699 -0.0551041 0.998405 0
0.016132 -0.0570353 0.998242 0
0.012916 -0.0560967 0.998342 0
0.00961582 -0.0549395 0.998443 0
0.0154782 -0.0597367 0.998094 0
0.0174826 -0.0587552 0.998119 0
0.0147002 -0.0545513 0.998403 0
0.0159269 -0.0522847 0.998505 0
0.0165679 -0.0521599 0.998501 0
0.0162987 -0.0540924 0.998403 0
0.0151532 -0.0522107 0.998521 0
0.011612 -0.0510903 0.998627 0
0.0105238 -0.0543215 0.998468 0
0.00676505 -0.0522735 0.99861 0
0.00421605 -0.0532436 0.998573 0.000395527
-0.000153636 -0.0509092 0.998703 0.00736604
0.00141741 -0.0498377 0.998756 0.00695269
0.00571711 -0.0507179 0.998697 0.0046348
0.0053366 -0.0573981 0.998337 0.0026633
0.00516101 -0.053833 0.998537 0.00632011
-0.00199545 -0.0560744 0.998425 0.0100635
-6.60417e-05 -0.0589424 0.998261 0.00826781
0.00346278 -0.0606434 0.998154 0.00639866
0.00251073 -0.0647564 0.997898 0.00753496
-0.00192192 -0.0682254 0.997668 0.010377
-0.00200775 -0.0733679 0.997303 0.007591
-0.00383119 -0.073427 0.997293 0.00644804
-0.00657809 -0.0764015 0.997055 0.00725944
-0.00325114 -0.0781667 0.996935 0.00953165
0.000980526 -0.0768904 0.997039 0.00747407
0.00463643 -0.0808203 0.996718 0.00691782
0.00830964 -0.0822565 0.996577 0.00329827
0.00562654 -0.0794128 0.996826 0.0078681
0.00885916 -0.0772331 0.996974 0.0102842
0.00858898 -0.076861 0.997005 0.00651627
0.0131564 -0.0815891 0.996579 0.00373853
0.00989772 -0.0772077 0.996966 0.00686124
0.0086 -0.0754534 0.997112 0.00746662
0.00663721 -0.0790762 0.996846 0.00723459
0.003464 -0.0781515 0.996935 0.00662278
-0.000301049 -0.0771151 0.997022 0.00908508
0.00517828 -0.0817226 0.996642 0.00497612
0.00803379 -0.0837852 0.996451 0.00383956
0.00924252 -0.0858984 0.996261 0.00167092
0.00995494 -0.0816096 0.996615 0
0.0131634 -0.0814164 0.996593 0.00116497
0.0143493 -0.0848283 0.996292 0.00125827
0.0193599 -0.0904575 0.995712 0
0.018903 -0.0881078 0.995932 0
0.016918 -0.0840997 0.996314 0
0.00973084 -0.0814869 0.996627 0.00370386
0.00771571 -0.084874 0.996362 0.000714816
0.00687017 -0.0855347 0.996312 0
0.00489152 -0.0840134 0.996453 0
0.00774272 -0.0917604 0.995751 0
0.00665276 -0.0962142 0.995338 0
0.00467412 -0.0953271 0.995435 0
0.0110018 -0.104109 0.994505 0
0.00854971 -0.104869 0.994449 0
0.0113765 -0.107286 0.994163 0
0.00605714 -0.10645 0.9943 0
0.00427991 -0.106992 0.994251 0
0.00620291 -0.107704 0.994164 0
0.0120173 -0.110857 0.993764 0
0.00983866 -0.111614 0.993703 0
0.00371787 -0.105806 0.99438 0.000769585
0.00620399 -0.111126 0.993787 0
0.00238838 -0.110289 0.993897 0
0.00429312 -0.114866 0.993372 0
0.00228777 -0.115311 0.993327 0
0.00285049 -0.114084 0.993467 0
0.00542861 -0.113861 0.993482 0
0.00630576 -0.115937 0.993237 0
0.0093077 -0.117095 0.993077 0
0.00649863 -0.120049 0.992747 0
0.00611049 -0.124105 0.99225 0
0.00579113 -0.123947 0.992272 0
0.00310054 -0.118654 0.992931 0
0.00544477 -0.120718 0.992672 0
0.00332072 -0.120263 0.992737 0
-0.000303598 -0.119399 0.992846 0
-0.00230923 -0.119657 0.992813 0
0.000777467 -0.121727 0.992563 0
0.00083259 -0.118907 0.992905 0.000773312
0.00120756 -0.119161 0.992874 0.00171272
0.00207025 -0.118724 0.992925 0.00347477
0.00266215 -0.117439 0.993076 0.00349357
0.00417267 -0.113294 0.993553 0.00185513
0.00341036 -0.113084 0.99358 0.00511007
0.00357024 -0.11532 0.993322 0.00791176
0.0039101 -0.118088 0.992995 0.0052235
0.00208271 -0.120645 0.992694 0.00197041
-0.00516909 -0.119009 0.99288 0.00490368
-0.00354575 -0.116316 0.993206 0.00915543
0.000762333 -0.120166 0.992754 0.00857494
0.00525998 -0.125054 0.992136 0.00433043
0.00490932 -0.124487 0.992209 0.00351848
0.00589537 -0.130674 0.991408 0
0.00793518 -0.129548 0.991541 0
0.00287094 -0.126224 0.991998 0.00324136
0.00112827 -0.123841 0.992301 0.00225243
0.000109702 -0.122704 0.992443 0.000922244
0.00272203 -0.123527 0.992338 0
0.00212515 -0.123725 0.992314 0
0.000309736 -0.11981 0.992797 0
0.00123144 -0.118635 0.992937 0
0.00756482 -0.118216 0.992959 0
0.00674972 -0.112729 0.993603 0
0.00248027 -0.108184 0.994128 0
0.0058933 -0.11169 0.993726 0
0.00364703 -0.113139 0.993572 0
0.00365092 -0.108293 0.994112 0
0.00678278 -0.106464 0.994293 0
0.00625938 -0.104263 0.99453 0
0.003781 -0.101916 0.994786 0
0.0021378 -0.100039 0.994981 0
0.00299545 -0.0984556 0.995137 0
-0.00218161 -0.0951426 0.995461 0
0.00164705 -0.0908291 0.995865 0
2.31878e-05 -0.0885717 0.99607 0
-0.000122212 -0.0871087 0.996199 0
0.00289021 -0.0879427 0.996121 0
0.000313124 -0.0899612 0.995945 0
-0.000278984 -0.0866983 0.996235 0
-0.000594125 -0.0878962 0.996129 0
-0.000758065 -0.0877695 0.996141 1.29195e-05
0.00165826 -0.0876599 0.996149 0
0.00233494 -0.085257 0.996356 0.00281581
0.00146617 -0.0832322 0.996529 0.00345463
0.00123588 -0.0877403 0.996143 0
0.00157785 -0.0859118 0.996301 0
0.00314461 -0.0823251 0.996601 0
0.00216501 -0.0845299 0.996419 0
0.00113233 -0.0813037 0.996689 0
0.00311082 -0.0790191 0.996868 0
0.00341876 -0.0804899 0.99675 0
0.00600993 -0.0775663 0.996969 0
0.00128934 -0.0768441 0.997042 0.00136634
0.00300997 -0.0799219 0.996797 0.00353223
-0.00067667 -0.0740954 0.997251 0.00170523
0.00191473 -0.0715038 0.997438 0
0.000469907 -0.0658122 0.997832 0.00246305
-0.000401681 -0.0612587 0.998122 0.000441402
0.00166668 -0.0593999 0.998233 0.000227143
0.000801246 -0.0602656 0.998182 0
-0.000989826 -0.0543566 0.998521 0.00270107
0.000128393 -0.0503458 0.998732 0.00198263
-0.000267562 -0.0505762 0.99872 0.00405545
-0.00167176 -0.045959 0.998942 0.00552468
0.000830577 -0.0468534 0.998901 0.00311764
0.00422307 -0.0458913 0.998938 0.00192011
0.00258543 -0.0466632 0.998907 0.00202346
0.00380559 -0.0406505 0.999166 0.00362049
0.005156 -0.0394595 0.999208 0.000482034
0.00535785 -0.0373923 0.999286 0.00228815
0.0043128 -0.0305427 0.999524 0.00404106
0.00386038 -0.0226281 0.999736 0.00703742
0.00558682 -0.0209226 0.999766 0.00587371
0.00254981 -0.0107799 0.999939 0.00689499
0.0035592 -0.0151017 0.99988 0.0049196
0.00443096 -0.0110056 0.99993 0.00390272
0.00478327 -0.00410693 0.99998 0.00757542
0.00515487 -0.00392073 0.999979 0.00528552
0.00405625 0.00458026 0.999981 0.00693958
0.00623953 0.00914971 0.999939 0.00810283
0.00529348 0.0215319 0.999754 0.0104553
0.00524555 0.0197458 0.999791 0.0080503
0.00711754 0.0211466 0.999751 0.00853814
0.00882111 0.0193408 0.999774 0.00543517
0.00564021 0.0264053 0.999635 0.00633457
0.0042957 0.0349902 0.999378 0.0099825
0.00362738 0.0355739 0.999361 0.00643996
0.00437257 0.0484778 0.998815 0.00881566
0.00490725 0.0496214 0.998756 0.00792106
0.00613968 0.0539999 0.998522 0.00534203
-0.0357182 -0.119231 0.992224 0.0137225
-0.0377928 -0.110537 0.993153 0.0174924
-0.031832 -0.104184 0.994049 0.013684
-0.030424 -0.0955913 0.994956 0.0121305
-0.031017 -0.0937313 0.995114 0.012696
-0.0297218 -0.0948487 0.995048 0.00897051
-0.0330822 -0.0944347 0.994981 0.0123773
-0.0312677 -0.0901939 0.995433 0.00849769
-0.0298112 -0.0798184 0.996364 0.0048559
-0.030212 -0.0780121 0.996495 0.00406759
-0.0319245 -0.0681749 0.997162 0.00513855
-0.0307291 -0.0647712 0.997427 0.00370044
-0.0276734 -0.0624072 0.997667 0.00218696
-0.0280806 -0.0559988 0.998036 0.00394141
-0.0282621 -0.0492521 0.998386 0.00444939
-0.0272634 -0.0476981 0.99849 0.00167792
-0.0306352 -0.0419548 0.99865 0.00700225
-0.0325808 -0.0413585 0.998613 0.00750949
-0.0306379 -0.043753 0.998572 0.00488068
-0.0311352 -0.0434694 0.998569 0.00603123
-0.0297831 -0.0403623 0.998741 0.00571626
-0.0306777 -0.0351165 0.998912 0.00861833
-0.0322641 -0.0325288 0.99895 0.0088002
-0.030358 -0.0325903 0.999008 0.00456852
-0.0313216 -0.0281594 0.999113 0.00882281
-0.0302328 -0.0306838 0.999072 0.00592496
-0.0314872 -0.0275822 0.999124 0.00442555
-0.0307712 -0.0250331 0.999213 0.00489541
-0.0313409 -0.0209815 0.999288 0.00597961
-0.0309165 -0.0191563 0.999338 0.00697012
-0.0331604 -0.0146294 0.999343 0.00838254
-0.032116 -0.0158011 0.999359 0.00589807
-0.0320925 -0.0136986 0.999391 0.00606495
-0.0319273 -0.0122493 0.999415 0.00413668
-0.0295849 -0.0144687 0.999458 0.00188625
-0.0304979 -0.00957433 0.999489 0.0052888
-0.0279938 -0.00373105 0.999601 0.0091021
-0.0239192 -0.00373356 0.999707 0.00698404
-0.022356 -0.00323293 0.999745 0.00663734
-0.0204976 -0.00211969 0.999788 0.00619539
-0.0197827 -0.00201741 0.999802 0.00652843
-0.0212593 -0.000938691 0.999774 0.00836293
-0.0192504 0.000309706 0.999815 0.00834986
-0.0186723 0.00110046 0.999825 0.00651446
-0.0187214 0.000441129 0.999825 0.007141
-0.0182726 0.001959 0.999831 0.00508575
-0.0166158 0.00267479 0.999858 0.00386517
-0.0130166 0.00338237 0.99991 0.00186584
-0.0148214 0.00708727 0.999865 0.00307811
-0.0145276 0.00628158 0.999875 0.00433057
-0.016132 0.00606364 0.999852 0.0044045
-0.0179766 0.00642887 0.999818 0.00230914
-0.0189614 0.00550022 0.999805 0.00199286
-0.0210371 0.00821164 0.999745 0.00341562
-0.0154588 0.00114876 0.99988 0
-0.0149214 0.00256331 0.999885 0
-0.0118812 0.00697792 0.999905 0
-0.0119313 0.00917858 0.999887 0
-0.0165869 0.0102412 0.99981 0
-0.0124018 0.0090368 0.999882 0
-0.0131813 0.00965587 0.999866 0
-0.00951111 0.00671071 0.999932 0
-0.00613556 0.00697913 0.999957 0
-0.0127826 0.00948182 0.999873 0
-0.0162344 0.0127324 0.999787 0
-0.0147485 0.0140262 0.999793 0
-0.0114567 0.00816408 0.999901 0
-0.0140526 0.00888834 0.999862 0
-0.0172727 0.00807368 0.999818 0
-0.0226509 0.0154773 0.999624 0.00122229
-0.0192993 0.0152817 0.999697 0
-0.0177479 0.0173794 0.999691 0
-0.0144874 0.01987 0.999698 0
-0.0112159 0.0176503 0.999781 0
-0.0110417 0.0205355 0.999728 0
-0.00719981 0.0179313 0.999813 0
-0.0106933 0.019552 0.999752 0
-0.0143454 0.0221392 0.999652 0
-0.0169094 0.0284687 0.999452 0
-0.0182568 0.0356074 0.999199 0.00227809
-0.0140643 0.0371712 0.99921 0
-0.0129183 0.0336549 0.99935 0
-0.0117448 0.0302069 0.999475 0
-0.00816921 0.0320534 0.999453 0
-0.00707883 0.031887 0.999466 0
-0.00594228 0.0319192 0.999473 0
-0.00626163 0.0349105 0.999371 0
-0.00633459 0.0330968 0.999432 0
-0.00918304 0.0306621 0.999488 0
-0.00780929 0.0319898 0.999458 0
-0.00568113 0.0328158 0.999445 0
-0.00158133 0.0294723 0.999564 0
-0.00517283 0.0328434 0.999447 0
-0.00276123 0.0261627 0.999654 0
-0.0017069 0.0234029 0.999725 0
-0.00288187 0.0254139 0.999673 0
-0.00399516 0.0224519 0.99974 0
-0.0071707 0.0204902 0.999764 0
-0.00620859 0.0186435 0.999807 0
-0.00856681 0.0195149 0.999773 0
-0.0101648 0.0192943 0.999762 0
-0.0114752 0.0161821 0.999803 0
-0.00985118 0.0151375 0.999837 0
-0.0104576 0.0183493 0.999777 0
-0.00634115 0.0178411 0.999821 0
-0.00601443 0.0180636 0.999819 0
-0.00273469 0.0172967 0.999847 0
-0.00301661 0.0156284 0.999873 0
-0.00194228 0.0129418 0.999914 0
-0.000268126 0.0141966 0.999899 0
0.000570617 0.011638 0.999932 0
-0.000710424 0.0113553 0.999935 0
0.00121719 0.00757152 0.999971 0
-0.00306888 0.00933959 0.999952 0
-0.00378219 0.00730885 0.999966 0
-0.00317477 0.00337959 0.999989 0
8.71263e-05 0.00351047 0.999994 0
0.00271081 0.0030433 0.999992 0
0.00133263 0.0029026 0.999995 0
-0.00288492 0.00284853 0.999992 0
-0.00645789 0.0041637 0.99997 0
-0.00755952 0.00288311 0.999967 0.00101253
-0.00579661 0.0023966 0.99998 0.00371345
-0.00680444 0.0045302 0.999967 0.00484264
-0.00474241 -0.00111669 0.999988 0.00339898
-0.00504299 -0.00567031 0.999971 0.00228853
-0.000768138 -0.00484577 0.999988 0
0.00470954 -0.0100263 0.999939 0
0.00208556 -0.0104685 0.999943 0.000649849
0.00160273 -0.00897098 0.999959 0.00265922
-0.0017849 -0.0110606 0.999937 0.0034335
-0.00337873 -0.0145872 0.999888 0.00366911
-0.00770886 -0.0105658 0.999914 0.00497855
-0.0137979 -0.010889 0.999846 0.00645432
-0.013002 -0.0148478 0.999805 0.00478982
-0.0137253 -0.0138283 0.99981 0
-0.010486 -0.0202297 0.99974 0
-0.00672526 -0.0199751 0.999778 0
-0.00364051 -0.015266 0.999877 0
-0.00356749 -0.0153786 0.999875 0
-0.00509198 -0.0177763 0.999829 0
-0.00715346 -0.0195409 0.999783 0
-0.0067673 -0.0192005 0.999793 0
-0.00783462 -0.018027 0.999807 0
-0.00619523 -0.0163988 0.999846 0
-0.00946341 -0.0171199 0.999809 0
-0.00667571 -0.0177331 0.99982 0
-0.002534 -0.0205215 0.999786 0
-0.00491958 -0.0180179 0.999826 0
-0.00461428 -0.0141586 0.999889 0
-0.00712774 -0.0125448 0.999896 0.00407999
-0.00832494 -0.0187902 0.999789 0.00586789
-0.00921007 -0.0197541 0.999762 0.0056405
-0.00942719 -0.0188761 0.999777 0.00228546
-0.0102155 -0.0240339 0.999659 0.00108759
-0.0139028 -0.0217207 0.999667 0.000642025
-0.0194707 -0.0232235 0.999541 0.00128908
-0.0157469 -0.0329036 0.999334 0
-0.0136305 -0.0317716 0.999402 0
-0.013205 -0.0316417 0.999412 0
-0.0114745 -0.0333236 0.999379 0
-0.00803405 -0.0346438 0.999367 0
-0.00394895 -0.032247 0.999472 0
-0.00226581 -0.0279904 0.999606 0
-0.00202174 -0.0322827 0.999477 0
-0.00221501 -0.0375022 0.999294 0
-0.00483818 -0.0381886 0.999259 0
0.00268831 -0.0428099 0.99908 0
0.00536342 -0.042915 0.999064 0
0.00977667 -0.0465481 0.998868 0
0.00884128 -0.0480562 0.998806 0
0.00679477 -0.0474855 0.998849 0
0.00387125 -0.0456681 0.998949 0
0.000592678 -0.0472465 0.998883 0
-0.00447171 -0.0482665 0.998824 0
-0.0108379 -0.0450485 0.998926 0.000644982
-0.0120406 -0.0429104 0.999006 0.00180203
-0.0161109 -0.0428292 0.998953 0.00269982
-0.0135316 -0.0424555 0.999007 0
-0.0130619 -0.0439367 0.998949 0
-0.013842 -0.0464208 0.998826 0
-0.0157764 -0.0456166 0.998834 0
-0.0148332 -0.0439421 0.998924 0
-0.0151893 -0.0447837 0.998881 0
-0.00934703 -0.0403127 0.999143 0
-0.00642061 -0.0385836 0.999235 0
-0.00586846 -0.0436221 0.999031 0
-0.00602193 -0.0451565 0.998962 0
-0.0108499 -0.0423779 0.999043 0
-0.0137386 -0.044664 0.998908 0
-0.0122879 -0.0427209 0.999012 0
-0.00826327 -0.0435875 0.999015 0
-0.00867727 -0.0401187 0.999157 0.000552413
-0.00794533 -0.0377954 0.999254 0.00345134
-0.0070558 -0.0368356 0.999296 0.00203601
-0.00638931 -0.038837 0.999225 0.00170343
-0.00567202 -0.0427313 0.999071 0.000645021
-0.00788849 -0.040973 0.999129 0.000561325
-0.00850056 -0.0429487 0.999041 0.000376084
-0.0162865 -0.0417607 0.998995 0.0051069
-0.0190738 -0.0415598 0.998954 0.00554563
-0.0190068 -0.0432167 0.998885 0.00571379
-0.0182038 -0.0432567 0.998898 0.00524391
-0.0138295 -0.0448093 0.9989 0.00188645
-0.0125989 -0.0433434 0.998981 0.00212285
-0.0200848 -0.0399166 0.999001 0.00410002
-0.0186319 -0.0397129 0.999037 0.00453423
-0.0153777 -0.0417929 0.999008 0.00372955
-0.0145925 -0.0384071 0.999156 0.00329761
-0.0154522 -0.0370095 0.999195 0.0037354
-0.0168753 -0.0386159 0.999112 0.00413068
-0.0173268 -0.0352289 0.999229 0.000147557
-0.015887 -0.0361992 0.999218 0
-0.0186953 -0.0335991 0.99926 0.00151137
-0.0250601 -0.0297838 0.999242 0.00634787
-0.0226894 -0.0316113 0.999243 0.0046764
-0.0203168 -0.0333449 0.999237 0.00498331
-0.0193567 -0.0316282 0.999312 0.00280754
-0.0185868 -0.0291749 0.999402 0.00320424
-0.0211379 -0.0294201 0.999344 0.00514509
-0.0208044 -0.0287956 0.999369 0.00533174
-0.0217664 -0.0306606 0.999293 0.00398397
-0.0236507 -0.0336204 0.999155 0.00756292
-0.0264748 -0.030873 0.999173 0.00796685
-0.0279835 -0.0293919 0.999176 0.00862912
-0.0239069 -0.0334286 0.999155 0.00377461
-0.0216092 -0.0336654 0.9992 0.00330615
-0.0236825 -0.032584 0.999188 0.00437965
-0.01989 -0.0367377 0.999127 0.00360316
-0.0230486 -0.0316432 0.999233 0.00811778
-0.021621 -0.0350465 0.999152 0.00605373
-0.0193589 -0.0372886 0.999117 0.00631329
-0.0176431 -0.0379135 0.999125 0.0051608
-0.020447 -0.0377891 0.999077 0.00616767
-0.0232937 -0.0367649 0.999052 0.0104166
-0.0182456 -0.0373168 0.999137 0.00726297
-0.0146402 -0.038085 0.999167 0.00466816
-0.0148582 -0.0370854 0.999202 0.00307671
-0.0103283 -0.0356584 0.999311 0.0027044
-0.0127597 -0.0345287 0.999322 0.0114728
-0.0101648 -0.0359768 0.999301 0.00943316
-0.0151843 -0.0313811 0.999392 0.0117531
-0.0124907 -0.031724 0.999419 0.010238
-0.012139 -0.0334304 0.999367 0.00914937
-0.0154698 -0.0367921 0.999203 0.00638529
-0.0149768 -0.0376786 0.999178 0.00700706
-0.0179846 -0.0327099 0.999303 0.0116988
-0.0127876 -0.0343838 0.999327 0.00968357
-0.0115893 -0.0340843 0.999352 0.0135286
-0.00677182 -0.0329784 0.999433 0.0113378
-0.00624704 -0.0318563 0.999473 0.0148845
-0.00902851 -0.0300943 0.999506 0.0169148
-0.00705928 -0.0295841 0.999537 0.0148315
-0.00442602 -0.0296447 0.999551 0.0133113
-0.00418624 -0.0292837 0.999562 0.0125197
-0.0111927 -0.030001 0.999487 0.0124287
-0.0148347 -0.0299723 0.999441 0.0122818
-0.0169843 -0.0304408 0.999392 0.0160391
-0.0171613 -0.0288824 0.999435 0.0146647
-0.0139488 -0.034403 0.999311 0.00993214
-0.0116381 -0.0358946 0.999288 0.00993663
-0.0130295 -0.0354024 0.999288 0.00946086
-0.0136932 -0.0333726 0.999349 0.0108693
-0.015074 -0.0342511 0.9993 0.0132979
-0.015132 -0.0304175 0.999423 0.0155905
-0.010906 -0.0367116 0.999266 0.0109892
-0.00880903 -0.039195 0.999193 0.00507504
-0.00754694 -0.0437719 0.999013 0.0019039
-0.00984081 -0.0452141 0.998929 0.000599095
-0.00877592 -0.0429698 0.999038 0.00130685
-0.00822947 -0.0428235 0.999049 0.00400366
-0.00550404 -0.04323 0.99905 0.00338685
-0.00511083 -0.0410832 0.999143 0.00264129
-0.00115381 -0.0431675 0.999067 0
-0.00171987 -0.0422905 0.999104 0.00184841
-0.00232178 -0.0393516 0.999223 0.00249925
0.00115341 -0.0404149 0.999182 0.000672299
-5.01769e-05 -0.0400409 0.999198 0.00146281
-0.00487257 -0.0423715 0.99909 0.00224173
-0.0111592 -0.0427555 0.999023 0.00639772
-0.00907033 -0.0435572 0.99901 0.00380696
-0.0139128 -0.0418256 0.999028 0.00419652
-0.0148906 -0.0398023 0.999097 0.00631091
-0.0130953 -0.038384 0.999177 0.00395309
-0.00854218 -0.0353183 0.99934 0.00337266
-0.00459879 -0.0355882 0.999356 0.00223491
-0.00539701 -0.0317321 0.999482 0.00407593
-0.00685827 -0.0283517 0.999574 0.00695631
-0.00899192 -0.0273166 0.999586 0.0109366
-0.0113656 -0.029639 0.999496 0.00843641
-0.0112861 -0.0347126 0.999334 0.00350467
-0.00894303 -0.0384895 0.999219 0.000576728
-0.00897769 -0.0417367 0.999088 0
-0.0048384 -0.0403931 0.999172 0
-0.00518082 -0.0387537 0.999235 0.000996951
-0.00530269 -0.0393467 0.999212 0.00330755
-0.00498772 -0.0361179 0.999335 0.00457707
-0.000273353 -0.0420868 0.999114 0
0.00164017 -0.0462994 0.998926 0
0.00182279 -0.0439865 0.99903 0
-0.00162957 -0.0381823 0.999269 0.001887
-0.00726476 -0.0358699 0.99933 0.00775546
-0.00617388 -0.0367981 0.999304 0.00601678
-0.00559026 -0.0314466 0.99949 0.00294896
-0.00356776 -0.0349191 0.999384 0
-0.00389567 -0.037533 0.999288 0
-0.00337499 -0.0335598 0.999431 0
-0.000977146 -0.0328606 0.99946 0
0.0032902 -0.0392263 0.999225 0
0.00284203 -0.0381564 0.999268 0
0.00468851 -0.0426803 0.999078 0
0.00818781 -0.0468826 0.998867 0
0.00469802 -0.040055 0.999186 0
0.00145352 -0.0418551 0.999123 0
-0.00224997 -0.0427787 0.999082 1.1727e-05
-0.00154145 -0.0415055 0.999137 0
-0.00140024 -0.0456304 0.998957 0
0.00162512 -0.0486582 0.998814 0
0.000418237 -0.0413034 0.999147 0
0.00382158 -0.0418277 0.999118 0.00130341
0.00444538 -0.0444979 0.999 0.00149969
0.00239351 -0.0459477 0.998941 0
0.000626562 -0.050247 0.998737 0
0.00538115 -0.0581899 0.998291 0
0.00678576 -0.0575785 0.998318 0
0.00505345 -0.0587328 0.998261 0
0.00298701 -0.0530002 0.99859 0
0.000654124 -0.0504489 0.998726 0
0.0021051 -0.0568464 0.998381 0
0.00291219 -0.0594879 0.998225 0
0.00731287 -0.0574436 0.998322 0
0.0128356 -0.0593587 0.998154 0
0.0101488 -0.0558789 0.998386 0
0.00720901 -0.0496849 0.998739 0.0025699
0.00850889 -0.0511743 0.998653 0
0.0111941 -0.0492735 0.998723 0
0.0108763 -0.0457873 0.998892 0
0.0129011 -0.050134 0.998659 0
0.0132575 -0.0489389 0.998714 0
0.0145706 -0.0492379 0.998681 0
0.0153026 -0.0531584 0.998469 0
0.015024 -0.0496327 0.998655 0
0.0123966 -0.0522987 0.998555 0
0.0124247 -0.0531969 0.998507 0
0.0112292 -0.0511893 0.998626 0
0.0149928 -0.0501673 0.998628 0
0.0113107 -0.050235 0.998673 0
0.00675888 -0.0474986 0.998848 0
0.000372222 -0.0436865 0.999045 0
-0.00233081 -0.0445657 0.999004 0
-0.00306104 -0.0426001 0.999088 0
-0.00142737 -0.0474433 0.998873 0
0.0029404 -0.0486808 0.99881 0
0.00567336 -0.0531373 0.998571 0
0.00972038 -0.057153 0.998318 0
0.010376 -0.0561045 0.998371 0
0.00921155 -0.0552294 0.998431 0
0.0105326 -0.0575071 0.99829 0
0.0142066 -0.0624606 0.997946 0
0.0122577 -0.0547875 0.998423 0
0.0137581 -0.05564 0.998356 0
0.0114007 -0.0555851 0.998389 0
0.0152686 -0.0535843 0.998447 0
0.0111626 -0.0511482 0.998629 0
0.00673722 -0.0497157 0.998741 0
0.00487188 -0.0473536 0.998866 0
0.00028368 -0.0494129 0.998778 0
-0.000510632 -0.0477475 0.998859 0
-0.00586753 -0.0443058 0.999001 0.00333663
-0.00509584 -0.0457608 0.998939 0.00449354
-0.00410886 -0.0485637 0.998812 0.0053476
-0.00183762 -0.0483976 0.998826 0.00408209
-0.00442378 -0.0539716 0.998533 0.00392701
-0.00631929 -0.0613411 0.998097 0.0030588
-0.00969082 -0.0599329 0.998155 0.0051768
-0.00876238 -0.0612521 0.998084 0.00473658
-0.00265431 -0.065777 0.997831 0
-0.00222657 -0.0677931 0.997697 0.00157251
0.000972893 -0.0708027 0.99749 0.000683127
0.000327144 -0.071973 0.997406 0.00311623
-0.0011012 -0.0734348 0.997299 0
-0.00191342 -0.0771539 0.997017 0
-0.00482841 -0.0784581 0.996906 0.000319602
-0.0013364 -0.079027 0.996872 0.000463406
-0.00479725 -0.0767733 0.997037 0.00641342
-0.0060299 -0.0829126 0.996539 0.00633969
-0.00643672 -0.0834379 0.996492 0.00481213
-0.00566298 -0.0845545 0.996403 0.00269891
-0.00147955 -0.0883814 0.996086 0
0.0026589 -0.0876069 0.996152 0
0.00647113 -0.0876093 0.996134 0
0.00644938 -0.0845523 0.996398 0
0.00340059 -0.0804964 0.996749 0
0.00303446 -0.0770126 0.997025 0.0017703
0.00299458 -0.0777294 0.99697 0
0.00179921 -0.0775677 0.996985 0.00178595
-0.00118652 -0.0750981 0.997175 0.0047932
0.00412245 -0.0804637 0.996749 0
0.00130068 -0.0812433 0.996693 0.00188078
0.00302108 -0.0820699 0.996622 0
0.00196073 -0.0803444 0.996765 0
0.000378796 -0.0788771 0.996884 0.000522924
-0.000990767 -0.0809002 0.996722 0
0.00231225 -0.0860732 0.996286 0
0.00518404 -0.083269 0.996514 0
0.00698922 -0.0839608 0.996445 0
0.00766201 -0.0835724 0.996472 0
0.00902191 -0.0865021 0.996211 0
0.00871005 -0.0889309 0.996 0
0.0061914 -0.0847998 0.996379 0
0.00519011 -0.0895245 0.995971 0
0.00382401 -0.0905983 0.99588 0
0.00319768 -0.0908954 0.995855 0
0.00300833 -0.0975413 0.995227 0
-0.00172481 -0.0977531 0.995209 0
-0.00344404 -0.101297 0.99485 0.00141867
-0.0020334 -0.100217 0.994964 0.000293689
0.00296231 -0.104479 0.994523 0
0.00290678 -0.102821 0.994696 0
0.00138297 -0.105437 0.994425 0
0.00426166 -0.107479 0.994198 0
0.00546718 -0.107751 0.994163 0
0.00728169 -0.109019 0.994013 0
0.00690266 -0.115715 0.993258 0
0.00954242 -0.11702 0.993084 0
0.00596363 -0.115875 0.993246 0
0.0037475 -0.115309 0.993323 0
0.00193051 -0.112752 0.993621 0
0.00194972 -0.114326 0.993441 0
0.00142595 -0.114357 0.993439 0
0.00260195 -0.117605 0.993057 0
-0.00104049 -0.115857 0.993265 0
-0.00252219 -0.121186 0.992627 0
-0.00196749 -0.119439 0.99284 0
-0.00428238 -0.117533 0.99306 0
-0.00367267 -0.116192 0.99322 0
-0.00397593 -0.113066 0.99358 0
-0.00247556 -0.117056 0.993122 0
-0.00137488 -0.12087 0.992667 0
-0.00312996 -0.119513 0.992828 0
-0.00490683 -0.117107 0.993107 0
-0.00200477 -0.120457 0.992716 0
-0.00208007 -0.120014 0.99277 0
0.00297046 -0.123268 0.992369 0
0.00293628 -0.123033 0.992398 0
0.00175523 -0.121022 0.992648 0
-0.00111551 -0.118517 0.992951 0.003276
-0.00179969 -0.118998 0.992893 0.00442263
0.000655602 -0.119459 0.992839 0.0056085
0.0052516 -0.11987 0.992776 0.00472677
0.00696543 -0.121239 0.992599 0.000792372
0.00448311 -0.120348 0.992722 0.000243374
0.00839434 -0.123091 0.99236 0
0.00508514 -0.126349 0.991973 0
0.0043049 -0.128241 0.991734 0
-0.00156606 -0.128051 0.991766 0
-0.00397547 -0.123772 0.992303 0
-0.00130633 -0.124768 0.992185 0
-0.0018622 -0.120971 0.992654 0
-0.00377474 -0.116257 0.993212 0
-0.00222495 -0.114965 0.993367 0
-0.00156133 -0.111246 0.993792 0
-0.00481343 -0.10927 0.994 0.00161636
-0.00369297 -0.109672 0.993961 0
-0.00584912 -0.108101 0.994123 0
-0.00565905 -0.107779 0.994159 0
0.000563606 -0.108024 0.994148 0
0.00241583 -0.10478 0.994492 0
0.00363074 -0.108306 0.994111 0
0.00191288 -0.106509 0.99431 0
0.00135247 -0.101179 0.994867 0
0.00107881 -0.100208 0.994966 0
0.00132202 -0.0991434 0.995072 0
0.000542705 -0.0945694 0.995518 0.00501019
0.00058953 -0.0927141 0.995693 0.00480897
0.0025369 -0.0927819 0.995683 0
-0.000231337 -0.0918339 0.995774 0
0.00036419 -0.0934887 0.99562 0
0.00117678 -0.0926529 0.995698 0
-0.00138597 -0.0889005 0.99604 0
-0.00358706 -0.0869549 0.996206 0.00157927
-0.00496853 -0.0869369 0.996201 0.0027892
-0.00358913 -0.0852645 0.996352 0.000411959
-0.00590451 -0.0782675 0.996915 0.00269583
-0.0045912 -0.0848097 0.996387 0
-0.00580738 -0.0803764 0.996748 0
-0.00300064 -0.0810652 0.996704 0
0.00114573 -0.0848895 0.99639 0
0.00420956 -0.0886815 0.996051 0
0.00371032 -0.0894312 0.995986 0
0.00367465 -0.0896281 0.995968 0
-0.00102173 -0.0886013 0.996067 0
-0.000184137 -0.0851447 0.996369 0
-0.000277471 -0.0846761 0.996409 0
-0.000982378 -0.0817736 0.996651 0
-0.00244759 -0.0821511 0.996617 0
-0.00133583 -0.0773208 0.997005 0
-0.00351933 -0.0730622 0.997321 0
-0.00226255 -0.0701195 0.997536 0
-0.00217393 -0.0714155 0.997444 0
-0.00282476 -0.0719707 0.997403 0
-0.00015474 -0.0643391 0.997928 0
0.00348371 -0.0551953 0.99847 0
0.00920304 -0.0561941 0.998378 0
0.0102858 -0.0600491 0.998142 0
0.00912771 -0.0564116 0.998366 0
0.0107972 -0.0588059 0.998211 0
0.00914117 -0.0583335 0.998255 0
0.00815601 -0.0526751 0.998578 0
0.00621413 -0.0500916 0.998725 0
0.00766401 -0.0545183 0.998483 0
0.0100427 -0.0551951 0.998425 0
0.00873985 -0.0549071 0.998453 0
0.0112813 -0.0517866 0.998594 0
0.0091066 -0.0474958 0.99883 0
0.00912514 -0.0396504 0.999172 0
0.0103231 -0.0354364 0.999319 0
0.00863511 -0.0310415 0.999481 0
0.00697821 -0.0225592 0.999721 0
0.0087555 -0.0242898 0.999667 0
0.00721035 -0.01734 0.999824 0
0.00788129 -0.0104455 0.999914 0
0.00464831 -0.00131833 0.999988 0
0.000972778 0.00961771 0.999953 0
0.000454268 0.0103647 0.999946 0.000659057
0.00342304 0.00565618 0.999978 0
0.00306945 0.0115513 0.999929 0
0.00391845 0.0167287 0.999852 0
0.00323885 0.0230936 0.999728 0
-0.00248644 0.044818 0.998992 0.00752661
0.000662207 0.0467252 0.998908 0.0051358
0.00266989 0.0524793 0.998618 0.00594923
-0.0406339 -0.115688 0.992454 0.00628564
-0.0365749 -0.113667 0.992845 0.00316781
-0.0410433 -0.0997572 0.994165 0.0105052
-0.0399526 -0.101486 0.994034 0.0116077
-0.0386471 -0.0893568 0.99525 0.0110813
-0.0372239 -0.0837644 0.99579 0.00914217
-0.0382012 -0.0776117 0.996252 0.0095489
-0.0375855 -0.0756086 0.996429 0.00499623
-0.03559 -0.074826 0.996561 0.00650444
-0.0333081 -0.0712659 0.996901 0.0057393
-0.0316561 -0.0626601 0.997533 0
-0.0293446 -0.0595218 0.997796 0.000144436
-0.0307828 -0.0530872 0.998115 0.00118313
-0.0307512 -0.0488335 0.998333 0.00579164
-0.030888 -0.0447217 0.998522 0.00916238
-0.0328905 -0.0411812 0.99861 0.0105701
-0.0324435 -0.0393423 0.998699 0.00845459
-0.0332657 -0.0415404 0.998583 0.00737543
-0.0329252 -0.0383509 0.998722 0.00501822
-0.0330523 -0.0317617 0.998949 0.00248373
-0.0324347 -0.0289438 0.999055 0
-0.0334598 -0.0285713 0.999032 0
-0.0329072 -0.0279655 0.999067 0.000245676
-0.0339751 -0.023953 0.999136 0.00149654
-0.0339608 -0.0208817 0.999205 0.00313257
-0.0349104 -0.0170291 0.999245 0.00610161
-0.0364809 -0.0111627 0.999272 0.00745575
-0.0340038 -0.0117164 0.999353 0.00626732
-0.0358562 -0.0095862 0.999311 0.00878309
-0.0347909 -0.0106438 0.999338 0.00759195
-0.0352736 -0.00808395 0.999345 0.00953391
-0.0326859 -0.0095478 0.99942 0.00866828
-0.0346344 -0.00930786 0.999357 0.00943051
-0.0330688 -0.00995595 0.999403 0.00975734
-0.0302522 -0.0107305 0.999485 0.00675446
-0.0336984 -0.00677325 0.999409 0.00949271
-0.0305229 -0.00793165 0.999503 0.0092524
-0.0310237 -0.00664045 0.999497 0.0070938
-0.0310956 -0.00346871 0.99951 0.00740508
-0.0312545 -0.0051111 0.999498 0.0083559
-0.0302997 -0.00130515 0.99954 0.00955855
-0.0282714 -0.00151067 0.999599 0.00937825
-0.0268569 -0.00171624 0.999638 0.0102498
-0.0248659 -0.00113356 0.99969 0.00763702
-0.0263186 -0.00158394 0.999652 0.00560066
-0.0279968 -0.00201085 0.999606 0.00507743
-0.0261402 -0.00122268 0.999658 0.0052295
-0.0295965 0.00706219 0.999537 0.00690922
-0.0334787 0.00411463 0.999431 0.00532461
-0.0355271 0.00625353 0.999349 0.00536377
-0.0308617 0.00853933 0.999487 0.00401059
-0.0306688 0.00736821 0.999502 0.00398502
-0.0266801 0.00779903 0.999614 0.00266119
-0.0255226 0.00775547 0.999644 0
-0.0249765 0.00854928 0.999651 0.00163327
-0.0225194 0.00628329 0.999727 0
-0.0204472 0.00908298 0.99975 0
-0.0209932 0.00733774 0.999753 0
-0.0195397 0.00819133 0.999776 0
-0.0232134 0.00974159 0.999683 0
-0.0230975 0.0139407 0.999636 0
-0.0247275 0.0148029 0.999585 0
-0.0267824 0.0170518 0.999496 0
-0.0256644 0.0161071 0.999541 0
-0.0229053 0.0154497 0.999618 0
-0.0193279 0.0162187 0.999682 0
-0.0185592 0.0154139 0.999709 0
-0.0195482 0.0146511 0.999702 0
-0.0190258 0.015796 0.999694 0
-0.0179806 0.0162056 0.999707 0
-0.0189189 0.0160794 0.999692 0
-0.0212608 0.0241193 0.999483 0
-0.018214 0.0241044 0.999543 0
-0.0202378 0.0259018 0.99946 0
-0.0191006 0.0241054 0.999527 0
-0.0212546 0.0231561 0.999506 0
-0.0223767 0.0223185 0.999501 0
-0.0185746 0.0252755 0.999508 0
-0.0176892 0.0261024 0.999503 0
-0.0111631 0.0263228 0.999591 0
-0.00924902 0.024285 0.999662 0
-0.011717 0.0232792 0.99966 0
-0.013928 0.0265508 0.99955 0
-0.0166212 0.0260303 0.999523 0
-0.0158042 0.0267426 0.999517 0
-0.0172456 0.0320703 0.999337 0
-0.0204568 0.0339461 0.999214 0
-0.0158529 0.0292108 0.999448 0
-0.0145044 0.0284677 0.999489 0
-0.0117897 0.0286782 0.999519 0
-0.00976145 0.0268956 0.999591 0
-0.00964826 0.0292846 0.999525 0
-0.0102252 0.0298479 0.999502 0
-0.0114456 0.0308222 0.999459 0
-0.0158333 0.0319255 0.999365 0
-0.0185376 0.0308276 0.999353 0
-0.0209588 0.0329463 0.999237 0.00436225
-0.0257557 0.0326653 0.999134 0.00496145
-0.0304211 0.0366021 0.998867 0.00795633
-0.0306203 0.0348472 0.998923 0.0041829
-0.0327605 0.0302637 0.999005 0.00366821
-0.0268125 0.0268139 0.999281 0
-0.0238348 0.0248649 0.999407 0
-0.0192711 0.0180225 0.999652 0
-0.022082 0.0192965 0.99957 0
-0.0204194 0.0166635 0.999653 0
-0.0209121 0.0158128 0.999656 0
-0.027472 0.0171125 0.999476 0.0036127
-0.0243175 0.0161376 0.999574 0.000801429
-0.0259861 0.0125648 0.999583 9.5804e-05
-0.024162 0.00928107 0.999665 0
-0.0212407 0.0108917 0.999715 0
-0.0172373 0.00924479 0.999809 0
-0.0159325 0.009407 0.999829 0
-0.014922 0.00787053 0.999858 0
-0.0129821 0.00445012 0.999906 0
-0.0156647 0.00494 0.999865 0
-0.0168994 0.00697306 0.999833 0
