0.175437 -0.0532486 0.98305 0.0290412
0.197093 -0.0470015 0.979258 0.0277376
0.207492 -0.0469164 0.977111 0.0205586
0.212523 -0.0542245 0.97565 0.0145889
0.216917 -0.0411003 0.975325 0.0174284
0.22745 -0.0296835 0.973337 0.0204647
-0.171111 -0.00349467 0.985245 0.0111522
-0.154097 0.00122087 0.988055 0.0102822
-0.15371 0.00132482 0.988115 0.0101775
-0.145268 -0.00593986 0.989375 0.0187038
-0.126731 -0.0177645 0.991778 0.020954
-0.103802 -0.00789309 0.994567 0.00218752
-0.0882751 -0.00626525 0.996076 0.0102171
-0.0846085 0.0060674 0.996396 0
-0.07993 0.00984841 0.996752 0
0.175327 -0.0438693 0.983532 0.0263002
0.193992 -0.0478476 0.979836 0.0303892
0.197859 -0.0454681 0.979175 0.0304349
0.20258 -0.0262207 0.978915 0.00759498
0.203321 -0.0251041 0.97879 0.00214503
0.221294 -0.0140814 0.975105 0.0138757
-0.174775 -0.0271022 0.984235 0.0177225
-0.158393 -0.0149121 0.987263 0.0221643
-0.148668 -0.0125355 0.988808 0.0114803
-0.142431 -0.0244854 0.989502 0.0209081
-0.122748 -0.0237879 0.992153 0.0161906
-0.102253 -0.0231345 0.994489 0.00664144
-0.0925969 -0.00712593 0.995678 0
-0.0890969 0.0202664 0.995817 0
-0.092613 0.0200513 0.9955 0.00265553
0.192499 -0.0540559 0.979807 0.0190272
0.197921 -0.0657762 0.978009 0.0212452
0.208228 -0.0473223 0.976935 0.0198983
0.209557 -0.0250478 0.977476 0.00708188
0.22423 -0.0154887 0.974413 0.0040593
-0.162315 -0.0225751 0.986481 0.0125583
-0.152066 -0.0290054 0.987945 0.005164
-0.146015 -0.0272869 0.988906 0.0162877
-0.132267 -0.0210221 0.990991 0.0115934
-0.123154 -0.0453913 0.991349 0.0178564
-0.102902 -0.0167769 0.99455 0
-0.0982582 0.0066443 0.995139 0
-0.0941632 0.0118942 0.995486 0
-0.0896392 0.020412 0.995765 0
-0.0803393 0.0147088 0.996659 0
0.183793 -0.0778251 0.979879 0.0322744
0.196046 -0.0604591 0.978729 0.0292358
0.204164 -0.0453507 0.977886 0.0108953
0.219547 -0.0328524 0.975049 0.00406316
0.222085 -0.0139221 0.974928 0.00523777
0.229191 -0.0364466 0.972699 0
-0.172217 -0.043037 0.984118 0.0251669
-0.162172 -0.0288222 0.986342 0.019373
-0.155261 -0.0204942 0.987661 0.0189159
-0.14297 -0.0380232 0.988996 0.018404
-0.12026 -0.0458973 0.991681 0.00617447
-0.110033 -0.0161195 0.993797 0
-0.0991801 -0.0041404 0.995061 0
-0.0861801 0.0120682 0.996207 0
0.177774 -0.0628911 0.98206 0.00463673
0.195914 -0.0370247 0.979922 0.00192919
0.209332 -0.0412335 0.976975 0.00371617
0.218354 -0.0452251 0.974821 0
0.219659 -0.0395101 0.974776 0
0.232028 -0.0254957 0.972375 0
-0.185935 -0.0443696 0.98156 0.0425206
-0.166035 -0.043624 0.985155 0.0312958
-0.154082 -0.0394835 0.987269 0.0271403
-0.143961 -0.0582579 0.987867 0.0241741
-0.121504 -0.0633373 0.990568 0.0044612
-0.107829 -0.0398994 0.993368 0.00322743
0.179573 -0.0684181 0.981363 0.0132174
0.195071 -0.043709 0.979815 0.00129982
0.207096 -0.0468392 0.977199 0
0.215431 -0.0526233 0.9751 0.0032481
0.223281 -0.0464923 0.973645 0.0138012
0.230171 -0.0317717 0.972632 0
-0.173241 -0.0495999 0.98363 0.0241844
-0.174381 -0.0651511 0.982521 0.0347026
-0.155473 -0.0539252 0.986367 0.0291394
-0.148488 -0.0558672 0.987335 0.0339952
-0.123919 -0.0686694 0.989913 0.0156782
-0.112081 -0.0753766 0.990836 0.00760679
0.182482 -0.0705239 0.980677 0.0115584
0.191588 -0.0654468 0.979291 0.0018093
0.193964 -0.0640576 0.978915 0.00426758
0.20779 -0.0561164 0.976563 0.00870332
0.21565 -0.0342966 0.975868 0.003828
0.231791 -0.0335278 0.972188 0.0128263
0.241824 -0.036868 0.96962 0.00678342
-0.205789 -0.0538782 0.977112 0.0361639
-0.164882 -0.0596872 0.984506 0.024352
-0.163614 -0.0650249 0.984379 0.031065
-0.142174 -0.0595285 0.98805 0.0239068
-0.123143 -0.0805406 0.989115 0.016142
-0.116932 -0.0850505 0.989491 0.0170548
0.185651 -0.0588304 0.980853 0.00856765
0.194892 -0.0725867 0.978135 0.00486673
0.190749 -0.0615631 0.979707 0.0191637
0.207202 -0.0589193 0.976522 0.0295389
0.22864 -0.0289161 0.973082 0.00979486
0.238241 -0.0413424 0.970326 0.00939233
0.239794 -0.0621694 0.968831 0.0144975
0.252157 -0.0653588 0.965477 0.0185357
0.259214 -0.0661876 0.963549 0.0250435
-0.203829 -0.0623452 0.977019 0.0339097
-0.191572 -0.0557799 0.979892 0.0317974
-0.176286 -0.0630782 0.982316 0.0244713
-0.168675 -0.0742277 0.982873 0.028234
-0.148158 -0.0693034 0.986532 0.0243774
-0.149406 -0.0782926 0.985671 0.0232458
-0.12913 -0.0758026 0.988726 0.0205212
0.191726 -0.0664455 0.979197 0.00666647
0.214544 -0.0394761 0.975916 0.0176393
0.229989 -0.0427365 0.972255 0.0123271
0.239627 -0.054186 0.969352 0.00804412
0.244315 -0.0594319 0.967873 0.0130075
0.246356 -0.0614571 0.967229 0
0.250851 -0.0700129 0.96549 0.0171374
-0.186234 -0.0731199 0.979781 0.0220303
-0.184377 -0.0625167 0.980865 0.0184703
-0.172364 -0.063981 0.982953 0.0245312
-0.161928 -0.0742419 0.984006 0.0204223
-0.159406 -0.0800513 0.983962 0.0236262
-0.152377 -0.083293 0.984806 0.0209359
0.200353 -0.0644049 0.977605 0.0166458
0.213086 -0.0754639 0.974115 0.0114691
0.2245 -0.0581047 0.97274 0.000423161
0.229365 -0.0594526 0.971523 0.00466554
0.238001 -0.0601994 0.969397 0
0.247212 -0.0737139 0.966154 0.0099244
0.250339 -0.0795191 0.964887 0.0228974
-0.188762 -0.0704024 0.979496 0.0168256
-0.185887 -0.079327 0.979364 0.0227763
-0.173713 -0.0671282 0.982506 0.0268101
-0.155372 -0.0701959 0.985359 0.018458
-0.153289 -0.0767396 0.985197 0.0206585
-0.160657 -0.0904863 0.982854 0.0277103
0.219303 -0.0963754 0.970885 0.0115115
0.230197 -0.0787479 0.969953 0.00833045
0.23097 -0.0512441 0.97161 0
0.237176 -0.0670552 0.96915 0.00738438
0.249943 -0.0762309 0.965255 0.00535257
0.249801 -0.0801417 0.964975 0.00647659
-0.195545 -0.0472044 0.979558 0.00978748
-0.181266 -0.052255 0.982045 0.0159929
-0.169517 -0.0523002 0.984139 0.00979948
-0.159022 -0.0586899 0.985529 0.0186437
-0.142684 -0.0557478 0.988197 0.0139342
-0.146013 -0.0654002 0.987119 0.0207842
0.228488 -0.0713065 0.970932 0.0103142
0.233585 -0.0630938 0.970287 0
0.241568 -0.0742483 0.967539 0
0.250686 -0.0918668 0.9637 0.010623
0.248195 -0.0976527 0.963775 0.00869726
0.264468 -0.114848 0.957532 0.0232907
-0.191954 -0.0532415 0.979959 0.00335563
-0.183369 -0.0468454 0.981927 0.00526448
-0.183106 -0.0454712 0.982041 0.00778702
-0.165339 -0.0423721 0.985326 0.00587661
-0.153811 -0.0611785 0.986205 0.0133152
0.224396 -0.0667207 0.972211 0.00643599
0.234851 -0.0692369 0.969563 0
0.24087 -0.0688863 0.96811 0
0.249377 -0.0912903 0.964094 0.00366271
0.259669 -0.101738 0.960324 0.0148041
0.260369 -0.100198 0.960296 0.00979771
-0.208712 -0.0632192 0.975932 0.00139306
-0.192996 -0.0575667 0.979509 0.00590523
-0.192034 -0.0701479 0.978878 0.00651399
-0.17347 -0.058496 0.9831 0.00430678
-0.175384 -0.0658879 0.982293 0.0161042
-0.151358 -0.0746034 0.98566 0.00121295
0.226802 -0.087821 0.969974 0
0.232482 -0.0963182 0.96782 0
0.24986 -0.113268 0.961634 0.0108124
0.259059 -0.112982 0.959231 0.0147543
0.261271 -0.107871 0.959219 0.00407256
-0.214895 -0.0888564 0.972587 0
-0.206293 -0.0688031 0.976068 0.0133721
-0.190878 -0.074162 0.978808 0.0105451
-0.181165 -0.0749072 0.980596 0.00530446
-0.16372 -0.074514 0.983689 0
-0.162646 -0.0854812 0.982975 0
0.227184 -0.116059 0.966911 0.0032346
0.240669 -0.135311 0.961129 0.0132166
0.238065 -0.125425 0.963116 0.00601614
0.247716 -0.123271 0.960958 0.0188327
0.259029 -0.113883 0.959132 0.00597189
-0.24354 -0.0940446 0.965321 0.0197814
-0.213651 -0.0871291 0.973017 0.000231056
-0.198697 -0.0777374 0.976973 0.0081983
-0.184128 -0.0684062 0.980519 0
-0.181483 -0.0731386 0.980671 0.00502768
-0.17323 -0.0855954 0.981155 0
0.233485 -0.136714 0.962701 0.0198217
0.250566 -0.131356 0.959147 0.0195288
0.251731 -0.119428 0.9604 0.0128515
0.258404 -0.132153 0.956955 0.0148637
-0.236083 -0.08812 0.967729 0.0165707
-0.223634 -0.0965135 0.969883 0.00795182
-0.209568 -0.102858 0.972369 0.00934218
-0.185296 -0.0888349 0.978659 0
-0.186132 -0.0782117 0.979407 0.0097036
-0.17322 -0.0906601 0.980702 0
0.23755 -0.141917 0.960952 0.0343427
0.254763 -0.13885 0.956983 0.0237071
0.253532 -0.13913 0.957269 0.0154663
0.257959 -0.138744 0.956142 0.00522952
0.26446 -0.132558 0.955243 0.0146583
-0.227539 -0.0987434 0.968749 0.0156384
-0.230409 -0.105579 0.967349 0.0102052
-0.200341 -0.100228 0.974586 0.00891071
-0.203668 -0.106205 0.973263 0.0104992
-0.191569 -0.0933911 0.977026 0.00220697
0.249238 -0.155952 0.955803 0.0300545
0.259429 -0.175918 0.949605 0.0391422
0.271154 -0.161133 0.948953 0.0365437
0.274438 -0.156368 0.948806 0.0346241
0.277465 -0.150034 0.948948 0.0375781
0.289778 -0.137644 0.947145 0.0356755
-0.236599 -0.0966782 0.966786 0.00392988
-0.220812 -0.105951 0.969544 0.00943376
-0.216278 -0.114747 0.969565 0.0125481
-0.192509 -0.101667 0.976014 0.00129659
-0.18405 -0.103403 0.977463 0
0.247044 -0.153609 0.956751 0.020703
0.254518 -0.157857 0.954097 0.0354541
0.252926 -0.154409 0.955084 0.0350502
0.270202 -0.155602 0.950147 0.0495428
0.278402 -0.155374 0.947814 0.047642
0.300215 -0.151717 0.941729 0.0430444
-0.262459 -0.106678 0.959028 0.0146357
-0.247918 -0.0988669 0.963723 0.0147863
-0.228635 -0.113755 0.966843 0.0147554
-0.220679 -0.121206 0.967786 0.0111552
-0.195172 -0.0985428 0.975806 0
0.248554 -0.145616 0.95761 0.0251575
0.252313 -0.144387 0.956813 0.0291255
0.265924 -0.14255 0.953396 0.0324065
0.275268 -0.129782 0.952567 0.0377445
0.290844 -0.144059 0.945863 0.0420827
0.296893 -0.133409 0.945546 0.0170272
-0.275988 -0.127296 0.952694 0.0143752
-0.272927 -0.124985 0.953882 0.0177515
-0.257121 -0.129775 0.957626 0.008836
-0.235417 -0.126606 0.963613 0.00968298
-0.217587 -0.117117 0.968989 0.0035757
-0.206712 -0.115572 0.971552 0.0054691
0.253898 -0.128385 0.958673 0.0120348
0.257627 -0.128956 0.9576 0.0152733
0.257624 -0.12481 0.958151 0.0155612
0.259875 -0.101147 0.96033 0.00307709
0.276441 -0.113353 0.954322 0.0110387
0.301012 -0.11365 0.946824 0.00914175
-0.280696 -0.13634 0.950064 0.0136679
-0.266405 -0.135236 0.954327 0.00832836
-0.248719 -0.137951 0.958701 0.00406589
-0.231337 -0.14756 0.961618 0.000996699
-0.227559 -0.147028 0.9626 0.00495217
0.258952 -0.131612 0.956882 0.0258794
0.261406 -0.119147 0.957847 0.0205635
0.267405 -0.106392 0.957693 0.0129376
0.277312 -0.106436 0.954866 0.00443077
0.296901 -0.107357 0.948854 0.0102673
0.297626 -0.109549 0.948376 0.00588414
-0.272063 -0.146802 0.951016 0.00896365
-0.256899 -0.126557 0.958116 0.00811962
-0.244329 -0.139044 0.959672 0.00352452
-0.230122 -0.144492 0.962375 0
0.262131 -0.0962759 0.960218 0.00100484
0.27798 -0.102823 0.955068 0
0.296702 -0.117774 0.94768 0
0.302326 -0.105863 0.947308 0
0.307435 -0.108471 0.945366 0
-0.282201 -0.154916 0.946765 0.0076523
-0.263193 -0.138927 0.954688 0.0062494
-0.263045 -0.128012 0.956253 0.00992812
-0.249765 -0.139151 0.958256 0.00494027
-0.227427 -0.147357 0.962581 0
0.264402 -0.108317 0.95831 0
0.276468 -0.109354 0.954781 0.00151349
0.292329 -0.109112 0.950073 0
0.294359 -0.107361 0.949645 0
0.300187 -0.103593 0.948238 0
0.300953 -0.104829 0.94786 0
-0.268941 -0.149142 0.95154 0
-0.260666 -0.155968 0.952747 0.0081751
-0.240412 -0.116707 0.963629 0
-0.227598 -0.135175 0.964327 0
0.27938 -0.102432 0.954701 0
0.297586 -0.103117 0.94911 0
0.294411 -0.103338 0.950075 0
0.293351 -0.108328 0.949847 0
0.296429 -0.113553 0.948281 0
-0.292917 -0.154048 0.943647 0
-0.283316 -0.149641 0.94728 0
-0.27536 -0.155944 0.948609 0
-0.267884 -0.161473 0.949823 0.00885537
-0.253728 -0.135403 0.957752 0
0.280286 -0.130317 0.951029 0.0143736
0.287902 -0.1184 0.950313 0.00803383
0.293808 -0.118913 0.948439 0.00829605
0.289968 -0.120171 0.949462 0.00325219
0.293968 -0.131987 0.946658 0.00855551
-0.286753 -0.145502 0.946891 0
-0.282337 -0.140284 0.949003 0
-0.271745 -0.146319 0.951181 0
-0.261415 -0.151169 0.953315 0.000971977
-0.258771 -0.148728 0.95442 0.00285962
0.27877 -0.127471 0.951861 0.00893113
0.288729 -0.138479 0.947343 0.0176986
0.29002 -0.140545 0.946644 0.0201084
0.289222 -0.126412 0.948878 0.0111161
0.292855 -0.129054 0.947407 0.0101362
0.307502 -0.147014 0.940122 0.0273526
-0.287271 -0.15539 0.945161 0
-0.279211 -0.142868 0.949542 0
-0.275399 -0.142869 0.950654 0
-0.269542 -0.151624 0.950977 0
0.278793 -0.132125 0.951219 0.00218562
0.283645 -0.128486 0.950282 0
0.283726 -0.137427 0.949006 0.00451889
0.301748 -0.155556 0.940612 0.0255776
-0.280719 -0.135443 0.950185 0
-0.277229 -0.142762 0.950139 0
-0.271501 -0.146804 0.951176 0
0.277039 -0.122326 0.95304 0
0.279006 -0.132159 0.951152 0.00826542
0.282449 -0.139001 0.949158 0.00395639
0.299801 -0.140715 0.943567 0.00690537
-0.298394 -0.135888 0.94472 0
-0.273484 -0.146453 0.950662 0
-0.269859 -0.13104 0.953942 0
-0.264714 -0.131625 0.955302 0
0.268956 -0.128752 0.954508 0
0.273259 -0.13434 0.952514 0
0.277983 -0.136011 0.950908 0.000892936
0.300826 -0.13725 0.943751 0.0125065
0.307368 -0.144044 0.940625 0.00760829
-0.29617 -0.130088 0.946235 0
-0.275055 -0.135994 0.951762 0
-0.26796 -0.133847 0.954087 0
-0.267574 -0.136671 0.953795 0
0.267637 -0.132108 0.95442 0.00752565
0.272098 -0.129659 0.953494 0
0.28445 -0.142773 0.948 0.0160563
0.295539 -0.139896 0.945032 0.0003782
0.307473 -0.13686 0.941663 0.00459442
-0.29356 -0.147578 0.94448 0.00732531
-0.283481 -0.140522 0.948627 0
-0.277884 -0.148208 0.949112 0
-0.277539 -0.14447 0.94979 0
-0.274883 -0.150076 0.949693 0
0.277565 -0.123917 0.952682 0.0017171
0.297678 -0.142681 0.943944 0.00527368
0.312163 -0.139041 0.939799 0.0106309
0.322806 -0.128223 0.937739 0
-0.296005 -0.134206 0.945711 0.00520333
-0.285236 -0.132066 0.949315 0
-0.289339 -0.14541 0.946118 0.00440414
-0.280027 -0.14902 0.948355 0.0093903
-0.284519 -0.154221 0.946185 0.011621
0.298744 -0.143944 0.943415 0.0126087
0.301072 -0.13815 0.943541 5.19368e-06
0.313564 -0.146428 0.938209 0.00764585
0.307369 -0.152718 0.939256 0.0046301
-0.319455 -0.150588 0.93556 0.0162162
-0.299573 -0.13684 0.944209 0.0117197
-0.289055 -0.140489 0.946948 0.0114064
-0.281845 -0.144034 0.948587 0.00835177
-0.278826 -0.146644 0.949079 0.0171698
0.298159 -0.150005 0.942656 0.0284293
0.304637 -0.154934 0.939783 0.0268908
0.303686 -0.153518 0.940323 0.019612
0.315876 -0.153204 0.93635 0.0134943
-0.324491 -0.162385 0.931846 0.0190603
-0.311064 -0.15549 0.937583 0.0136932
-0.299798 -0.146752 0.942648 0.0134834
-0.297032 -0.154125 0.942347 0.0204356
0.29425 -0.159483 0.942328 0.0303474
0.301565 -0.169207 0.938311 0.0433717
0.308167 -0.166927 0.936573 0.0384148
0.315108 -0.159137 0.935619 0.0268391
-0.312471 -0.151477 0.937772 0.0136011
-0.297022 -0.145627 0.943701 0.00285795
-0.299163 -0.153093 0.941841 0.00828758
0.323344 -0.170432 0.930807 0.0496692
0.315766 -0.160179 0.935219 0.0330423
0.314438 -0.149737 0.937394 0.0199322
-0.318638 -0.13558 0.93813 0.00940651
-0.304344 -0.137044 0.942653 0.00242103
-0.303737 -0.134911 0.943156 0
-0.299283 -0.147561 0.942685 0.0116797
0.331234 -0.145936 0.932195 0.0325457
0.329034 -0.151378 0.932106 0.028363
-0.322273 -0.13649 0.936755 0
-0.319942 -0.138461 0.937265 0
-0.306698 -0.139188 0.941575 0
-0.301645 -0.125161 0.945169 0
0.345961 -0.125288 0.929846 0.0295281
0.335568 -0.142769 0.931134 0.0330788
-0.319015 -0.157855 0.934511 0
-0.307677 -0.150008 0.939592 0
-0.305317 -0.148484 0.940603 0
-0.301031 -0.156419 0.940699 0
0.334095 -0.119021 0.934994 0.0305397
0.323057 -0.122401 0.938431 0.0280574
0.329859 -0.114986 0.937001 0.0210269
-0.309804 -0.1493 0.939005 0
-0.310903 -0.15569 0.937603 0
-0.30102 -0.148333 0.942011 0
0.326659 -0.11403 0.938239 0.0250101
0.328352 -0.0958368 0.939681 0
-0.324713 -0.151279 0.933636 0
-0.314441 -0.143294 0.938399 0
0.332303 -0.0904452 0.938826 0.00370078
0.33964 -0.0905312 0.936189 0
-0.322314 -0.162635 0.932558 0
-0.313806 -0.160316 0.935855 0
0.345032 -0.0832637 0.93489 0.00392882
0.348018 -0.0764426 0.934366 0
-0.328953 -0.15376 0.931745 0
-0.331647 -0.155371 0.930521 0
0.356292 -0.0585057 0.932541 0
-0.331249 -0.148242 0.931825 0
-0.330869 -0.150166 0.931652 0
0.358199 -0.0572775 0.931887 0
0.354652 -0.0604859 0.93304 0
-0.347526 -0.128202 0.928865 0
-0.34394 -0.132683 0.92957 0
-0.327542 -0.138329 0.934656 0
0.364754 -0.0589962 0.929233 0.00950868
0.366583 -0.0527335 0.92889 0.00627785
-0.340138 -0.128383 0.931571 0
-0.337578 -0.13548 0.931497 0
-0.3282 -0.135982 0.934769 0
0.358866 -0.0390065 0.932574 0
0.379077 -0.0487529 0.92408 0.0138251
-0.355359 -0.125651 0.926246 0
-0.343453 -0.130062 0.93012 0
-0.340978 -0.126694 0.931495 0
-0.328299 -0.116435 0.93737 0
0.362255 -0.0208104 0.931847 0
0.371991 -0.0202598 0.928015 0
-0.350475 -0.114617 0.929532 0
-0.361516 -0.118611 0.924791 0.0043099
-0.337532 -0.121882 0.93339 0
-0.329709 -0.120617 0.936346 0
0.355272 -0.0124346 0.93468 0.0123006
0.361369 -0.016199 0.932282 0.00304719
-0.358803 -0.117848 0.925944 0.0101912
-0.360944 -0.120486 0.924772 0.0150967
-0.333457 -0.107573 0.936608 0.00161649
0.364757 -0.00421405 0.931093 0.0146881
0.369702 -0.0174519 0.928986 0.0266993
-0.367185 -0.1255 0.921643 0.0100841
-0.344381 -0.12005 0.931123 0.00358686
-0.344338 -0.113621 0.931945 0.0104343
-0.34058 -0.112379 0.933476 0.00850979
0.359184 -0.00659241 0.933243 0.0261472
0.375817 -0.0072228 0.926666 0.0234997
-0.374226 -0.117751 0.919831 0.0148274
-0.36823 -0.110599 0.923133 0.0186375
-0.352427 -0.10583 0.929836 0.0111749
-0.342521 -0.0958856 0.934605 0.00190282
0.360042 -0.0146784 0.932821 0.0448727
0.349904 -0.0040573 0.936777 0.0183459
-0.361755 -0.0929555 0.927628 0.00360322
-0.358482 -0.0911227 0.929079 0.00378895
-0.358368 -0.0840937 0.929785 0.00534096
-0.337414 -0.0803526 0.937921 0.00213013
-0.336206 -0.0855369 0.937896 0.00864032
0.344598 0.00848434 0.938712 0.0331172
0.348471 0.0101855 0.937264 0.0265031
-0.353177 -0.0776802 0.932326 0
-0.343097 -0.0616949 0.937272 0
-0.333429 -0.0732678 0.939924 2.89158e-05
-0.335374 -0.0718336 0.939342 0.00348004
0.342036 0.00985354 0.939635 0.0265874
0.342905 0.0183867 0.93919 0.0236403
-0.355084 -0.0708206 0.932148 0
-0.348724 -0.0599925 0.935303 0
-0.337477 -0.051144 0.939943 0
-0.333609 -0.0667963 0.940342 0.00227803
0.326318 0.0276971 0.944854 0.00697509
0.328021 0.0213679 0.944429 0.00449846
-0.346288 -0.0559442 0.936459 0
-0.338085 -0.0390993 0.940303 0
-0.342698 -0.058306 0.937635 0.00480702
-0.320152 -0.0443564 0.946327 0
0.318771 0.0265268 0.947461 0.00537559
0.307407 0.0166778 0.951432 0
0.322747 0.0148732 0.946368 0
-0.347278 -0.0621373 0.935701 0
-0.334159 -0.0490977 0.941237 0
-0.321822 -0.0313326 0.946282 0
0.33102 0.0414421 0.942713 0.0122548
0.33301 0.0294046 0.942465 0.00730971
-0.349024 -0.0549555 0.935501 0
-0.333492 -0.0406046 0.941878 0
-0.326793 -0.0269633 0.944711 0
0.335441 0.0303017 0.941574 0.007289
0.339633 0.0258158 0.940204 0.0201572
-0.339727 -0.0545231 0.938942 0
-0.332113 -0.049776 0.941925 0
-0.329613 -0.041516 0.943203 0
0.33245 0.0395863 0.94229 0.0144708
0.342498 0.0470909 0.938338 0.0164001
-0.338598 -0.0528495 0.939446 0
-0.334536 -0.0513404 0.940983 0.00214546
-0.331656 -0.0454332 0.942306 0.00180552
0.320099 0.0702489 0.944776 0.0176805
0.322882 0.0736203 0.943572 0.0127436
0.333816 0.0698447 0.940047 0.00633237
-0.322878 -0.0493882 0.945151 0
-0.334327 -0.0449943 0.941383 0.00334767
-0.320845 -0.0456158 0.946033 0.00224085
0.321355 0.0644008 0.944766 0.0349345
0.323472 0.055131 0.94463 0.0277331
-0.341289 -0.0503913 0.938607 0.00739663
-0.333272 -0.0571978 0.941094 0.00681513
-0.322953 -0.0450377 0.945343 0.00559792
0.321005 0.0657749 0.944791 0.0376686
0.327125 0.0713776 0.942282 0.028556
-0.333323 -0.0526506 0.941341 0.00602135
-0.332959 -0.0529606 0.941453 0.0113651
-0.329925 -0.0405778 0.943135 0.00595904
0.317523 0.0758997 0.945208 0.0452454
0.321979 0.0815677 0.943227 0.0392528
0.324662 0.0753486 0.942824 0.0434714
-0.358007 -0.0558084 0.932049 0.0268551
-0.33047 -0.0295154 0.943355 0.0122323
-0.332612 -0.0419969 0.942128 0.0107123
0.309604 0.0726062 0.948089 0.0412965
0.329244 0.0978622 0.93916 0.0633979
0.339549 0.0925228 0.936027 0.053533
-0.3459 -0.0427388 0.937297 0.0221811
-0.325588 -0.0121485 0.945434 0.00622248
-0.330345 -0.028628 0.943426 0.00859346
0.293296 0.0552037 0.954427 0.0656648
0.295405 0.0561846 0.953719 0.0577651
0.306773 0.0848286 0.947995 0.060126
0.313928 0.0861219 0.945533 0.0611427
0.319404 0.113153 0.940839 0.0382622
0.323974 0.102432 0.940505 0.0680545
-0.353263 -0.0125465 0.93544 0.0251148
-0.330212 -0.0178171 0.943739 0.00963715
-0.336362 -0.016248 0.941593 0.0165713
0.291297 0.0387194 0.955849 0.0734936
0.292456 0.0403402 0.955428 0.070422
0.304264 0.0812921 0.949113 0.0693449
0.304628 0.101491 0.947049 0.0538428
0.320155 0.122888 0.939361 0.0652566
0.325697 0.123213 0.937411 0.0542581
-0.342211 0.0007356 0.939623 0.0161006
-0.319436 0.00401184 0.947599 0
-0.335121 0.00426203 0.942166 0.0120808
0.294332 0.0321328 0.955163 0.0731212
0.300869 0.0685472 0.951199 0.0738139
0.31293 0.107015 0.943728 0.0682082
0.327254 0.137455 0.934886 0.0853273
-0.334742 0.0124583 0.942227 0.00443656
-0.32879 0.0191567 0.944209 0.0020969
-0.340745 0.0055368 0.940139 0.0187119
0.288298 0.0614601 0.955566 0.0672517
0.294124 0.0596629 0.953903 0.0746149
0.308747 0.0710771 0.948485 0.0824732
0.313346 0.088703 0.945487 0.0777484
-0.34641 0.0264271 0.937711 0.013172
-0.348509 0.0381391 0.936529 0.013136
-0.3512 0.0165309 0.936154 0.0264537
-0.33762 0.0356271 0.940608 0.0184497
0.283948 0.0651877 0.956621 0.0556914
0.291596 0.0740191 0.953673 0.0715468
-0.346053 0.0388534 0.93741 0.0069513
-0.362486 0.0463886 0.930834 0.0247242
-0.348843 0.0215258 0.936934 0.0252131
-0.335592 0.0122855 0.941927 0.026256
0.281917 0.0881245 0.955383 0.0367092
0.288371 0.0878093 0.953484 0.0396049
0.293772 0.0700586 0.953305 0.0682467
-0.34591 0.02511 0.937932 0.0183602
-0.338225 0.0215271 0.940819 0.0227369
-0.328137 0.0169562 0.944478 0.0244437
-0.333015 0.0295657 0.942458 0.0306776
0.261758 0.0466196 0.964007 0.013369
0.279615 0.100399 0.954848 0.0231331
0.288197 0.0852188 0.953772 0.0346544
-0.339622 0.00135302 0.940561 0.0213622
-0.331132 0.0229649 0.943305 0.0258519
-0.322502 0.0164148 0.946426 0.0289034
-0.322309 0.0206981 0.946408 0.0280493
0.272856 0.16453 0.947882 0.014549
0.275112 0.148332 0.9499 0.00909725
0.265418 0.121478 0.95645 0.012366
0.264729 0.0872824 0.960365 0.015491
0.270115 0.0958754 0.958043 0
0.274553 0.0963677 0.956731 0.00840583
-0.34004 0.0100446 0.940357 0.0204623
-0.322274 0.0107088 0.946586 0.0268915
-0.320293 -0.000440951 0.947318 0.0319046
-0.318276 0.00532349 0.947983 0.0303813
-0.299149 0.0203333 0.95399 0.0207846
0.273048 0.138847 0.951928 0.00677568
0.270912 0.139491 0.952444 0.0047148
-0.324982 0.014795 0.945605 0.0202344
-0.314865 0.00607588 0.949117 0.0267762
-0.318601 0.0274092 0.947492 0.0359643
-0.291166 0.0455415 0.955588 0.0170777
-0.279005 0.0391619 0.959491 0.00751893
-0.307707 0.0611433 0.949515 0.0218416
-0.299725 0.0546917 0.952457 0.0238885
-0.278651 0.0770238 0.957299 0.00206179
-0.271542 0.112872 0.955785 0
-0.272364 0.121822 0.954451 0
-0.28046 0.103455 0.954274 0.000996331
-0.270726 0.121231 0.954992 0
-0.268507 0.120265 0.955741 0
-0.261764 0.109682 0.958879 0
-0.253901 0.122201 0.95948 0
-0.26275 0.120384 0.957324 0
-0.256427 0.132612 0.957423 0
-0.251934 0.152643 0.95563 0
-0.234364 0.155508 0.95963 0
-0.228913 0.15155 0.961578 0
-0.229542 0.12203 0.965618 0.00704552
-0.222117 0.119577 0.96766 0.0178842
-0.252695 0.154243 0.955172 0
-0.250407 0.158616 0.955059 0
-0.235738 0.153775 0.959573 0
-0.229043 0.158269 0.960464 0
-0.221618 0.143553 0.964509 0
-0.220695 0.124194 0.967404 0.0188611
-0.197154 0.137942 0.970619 0.0178615
-0.177074 0.153594 0.972139 0.0224628
-0.18674 0.131444 0.973576 0.0286738
-0.186511 0.12894 0.973955 0.0241305
-0.17228 0.160201 0.971934 0.0244722
-0.160586 0.221232 0.961909 0.0230577
-0.154548 0.259128 0.953398 0.011455
-0.162408 0.234227 0.95852 0.025537
-0.15375 0.221025 0.963073 0.028515
-0.21317 0.133871 0.9678 0.00978354
-0.17751 0.144885 0.973395 0.0199085
-0.175707 0.135598 0.975059 0.0130024
-0.170891 0.147922 0.974123 0.0111149
0.306836 -0.304029 0.901897 0.0232286
0.292143 -0.27622 0.915617 0.0121465
0.300029 -0.311907 0.901497 0.0253495
0.304385 -0.305296 0.9023 0.0236779
0.324968 -0.348422 0.879203 0.0322472
0.328921 -0.338631 0.881556 0.0293418
-0.1642 -0.218361 0.961955 0.0206585
-0.151332 -0.188523 0.970339 0.0221054
-0.143696 -0.178725 0.973349 0.0142364
0.321579 -0.317312 0.892132 0.0351071
0.332622 -0.34549 0.877496 0.0299194
-0.246574 -0.0834836 0.965521 0.0126946
-0.220293 -0.0308098 0.974947 0.00234191
-0.228785 -0.147075 0.962303 0.0210636
-0.217987 -0.124842 0.967934 0.0134754
-0.181306 -0.196041 0.963689 0.0323755
-0.163181 -0.193216 0.967491 0.0255513
-0.149323 -0.18298 0.97171 0.0207086
-0.145318 -0.175441 0.973706 0.0228371
-0.13181 -0.214972 0.967684 0.0259127
0.32805 -0.335065 0.883241 0.0273571
-0.297244 -0.0903738 0.950515 0.0248902
-0.2911 -0.123898 0.948636 0.0250418
-0.275729 -0.107166 0.955243 0.0182968
-0.258055 -0.115875 0.959156 0.00488137
-0.228123 -0.0662764 0.971374 0
-0.227204 -0.1139 0.967164 0.0242431
-0.223647 -0.103509 0.969158 0.0163793
-0.208312 -0.108656 0.972008 0.0175218
-0.318886 -0.0628669 0.945706 0.030707
-0.307218 -0.11349 0.944848 0.0325311
-0.286022 -0.0982688 0.953171 0.0215725
-0.277196 -0.112311 0.954227 0.0227506
-0.274577 -0.107762 0.955507 0.0183597
0.347906 -0.258866 0.901083 0.027089
-0.341546 -0.0902598 0.935521 0.0285455
-0.322613 -0.0623016 0.944478 0.0269296
-0.304229 -0.0517111 0.951194 0.0307849
0.346403 -0.238866 0.907165 0.0195629
0.353349 -0.25258 0.900748 0.0247611
0.36064 -0.235796 0.902407 0.0166309
-0.343381 -0.0417935 0.938266 0.0221053
-0.335732 -0.0510425 0.940574 0.0264568
-0.317754 -0.0562837 0.946501 0.0239735
0.346942 -0.245054 0.905307 0.0262067
0.351681 -0.256631 0.900256 0.0249621
0.357913 -0.228514 0.905362 0.0279543
0.360335 -0.194703 0.912277 0.0189985
-0.362335 0.000377579 0.932048 0.0218589
-0.355189 -0.00270188 0.93479 0.0208767
-0.348214 -0.0421528 0.936467 0.0282154
-0.335305 -0.0448745 0.94104 0.0260779
-0.333856 -0.0408729 0.941737 0.0262989
0.343835 -0.239108 0.908077 0.0288645
0.347721 -0.218576 0.911765 0.0232569
0.362691 -0.234368 0.901957 0.0311505
0.363106 -0.182996 0.913601 0.0244995
0.365306 -0.201088 0.908909 0.0151049
-0.368839 0.00951981 0.929444 0.0185905
-0.361338 -0.015393 0.932308 0.0241586
-0.340444 -0.0150185 0.940145 0.0261975
0.349115 -0.202472 0.914945 0.0240339
0.357163 -0.172583 0.91796 0.0250062
0.373115 -0.192854 0.90752 0.0329777
0.387585 -0.201237 0.899601 0.0322541
-0.363322 0.0198791 0.931452 0.0231034
-0.373335 -0.00669453 0.927672 0.0259847
-0.354164 0.00531716 0.935168 0.0179701
-0.338407 0.000375833 0.941 0.025658
0.358275 -0.179468 0.916204 0.0313212
0.37739 -0.192119 0.905907 0.033608
0.397752 -0.194017 0.896745 0.0320881
0.403091 -0.187403 0.895767 0.032998
-0.362097 0.0229114 0.931859 0.0234401
-0.359997 0.0391573 0.932131 0.0287448
-0.347444 0.0598821 0.935787 0.0230102
0.375203 -0.18189 0.908922 0.0278955
0.397875 -0.203081 0.894681 0.0360014
0.402444 -0.191962 0.895092 0.0364991
-0.372452 0.0569008 0.926305 0.0166173
-0.366329 0.0384913 0.929689 0.0213562
-0.362468 0.04459 0.930929 0.0291002
-0.343952 0.0454691 0.937886 0.0221945
0.383957 -0.179514 0.905732 0.0326169
0.385225 -0.177455 0.9056 0.0325924
0.403915 -0.18366 0.896171 0.0461909
-0.361562 0.0810286 0.92882 0.0148479
-0.358551 0.0755926 0.930444 0.0166813
-0.360429 0.0603103 0.930835 0.0237769
-0.363962 0.059498 0.929511 0.0257882
0.386219 -0.163776 0.907751 0.0306647
0.383848 -0.155393 0.910227 0.0253827
0.40947 -0.173914 0.895594 0.0433352
-0.381421 0.0678144 0.92191 0.0270688
-0.374922 0.0827721 0.923354 0.0300466
-0.376308 0.0661444 0.924131 0.0361977
-0.353622 0.0891967 0.931126 0.0247182
0.376171 -0.120224 0.918717 0.0253663
0.376013 -0.11456 0.919505 0.0263694
0.385065 -0.126611 0.914163 0.0284655
-0.36731 0.0902998 0.925705 0.0238514
-0.355249 0.088246 0.930597 0.019187
-0.365766 0.0821996 0.92707 0.0305823
0.378025 -0.106059 0.9197 0.0281051
0.383633 -0.1067 0.917301 0.0238869
-0.373543 0.0995281 0.922258 0.0205714
-0.371483 0.108456 0.922083 0.026988
-0.377603 0.0873844 0.921835 0.0336867
0.375893 -0.095823 0.921695 0.0227886
0.372089 -0.0833689 0.924446 0.0146342
-0.368036 0.119112 0.922151 0.0178841
-0.359738 0.126954 0.924376 0.02087
-0.342543 0.11306 0.932675 0.0146315
-0.330594 0.114418 0.936812 0.00947862
0.363201 -0.0809098 0.928191 0.0170046
0.359619 -0.0693665 0.930517 0
-0.387759 0.127513 0.912898 0.0279627
-0.355625 0.146485 0.923078 0.0123292
-0.34299 0.123982 0.931121 0.0148686
-0.335048 0.111766 0.935549 0.00942467
0.344938 -0.0503769 0.937273 0.000228906
0.362077 -0.0643419 0.929925 0.0150406
-0.385463 0.133295 0.913045 0.0253074
-0.33035 0.150593 0.931768 0.000484986
-0.319977 0.14291 0.936585 0.000604061
-0.316748 0.147182 0.937021 0
0.354054 -0.0486124 0.933961 0.00798469
0.354952 -0.0525929 0.933404 0
-0.336479 0.146165 0.930278 0
-0.319279 0.147592 0.936097 0
-0.319302 0.13863 0.937458 0.00132616
0.351205 -0.0357993 0.935614 0
0.352572 -0.0420212 0.934841 0
0.362236 -0.0559825 0.930404 0.0168963
-0.353686 0.147353 0.923685 0.0166626
-0.325835 0.139007 0.935152 0.00666027
-0.309988 0.137866 0.940691 0.00389478
-0.310127 0.136323 0.940871 0.00490727
0.345893 -0.0530635 0.936772 0
0.356555 -0.0559196 0.932599 0
0.366188 -0.0575747 0.928758 0.024824
-0.336118 0.150354 0.929741 0.0130624
-0.34116 0.151226 0.927761 0.0180263
-0.33733 0.136068 0.931501 0.0226343
-0.339738 0.137761 0.930376 0.0256088
-0.331182 0.139681 0.933171 0.0246151
0.351753 -0.0566161 0.934379 0
0.351934 -0.0690673 0.933473 0.0108296
0.37919 -0.0665019 0.922926 0.0328775
-0.338738 0.159944 0.927186 0.0209454
-0.334474 0.143665 0.93139 0.0184061
-0.34954 0.135866 0.927018 0.0279505
0.365051 -0.076564 0.927834 0.0231595
0.365756 -0.0753809 0.927653 0.0219911
0.380015 -0.0720789 0.922168 0.029445
-0.329882 0.156494 0.93096 0.00871212
-0.337311 0.141084 0.930761 0.0130112
0.344671 -0.0610537 0.936736 0.0081882
0.354751 -0.0595107 0.933065 0.00487002
0.357217 -0.0597316 0.93211 0.00152762
-0.339158 0.167923 0.92562 0.00943661
-0.327481 0.150859 0.932737 0.0056718
0.345357 -0.0605452 0.936516 0.0157286
0.333933 -0.0661056 0.940276 0.00250525
0.354509 -0.0519096 0.93361 0
-0.320388 0.167503 0.932359 0
-0.316713 0.178386 0.931596 0
-0.33274 0.170246 0.927524 0.00329694
-0.319156 0.161638 0.933816 0.0069587
0.349838 -0.0630069 0.934689 0.030661
0.355273 -0.0616212 0.932729 0.0235898
0.367547 -0.0608315 0.928013 0.0182813
0.375359 -0.060719 0.924888 0.0208575
-0.324104 0.16815 0.930958 0
-0.321142 0.175049 0.930713 0
-0.327922 0.16383 0.930391 0.00161284
-0.323091 0.161635 0.932463 0.0151604
0.356702 -0.0573797 0.932454 0.0337236
0.374907 -0.0538429 0.925497 0.044626
0.38558 -0.0545514 0.92106 0.0425379
-0.320809 0.168624 0.932012 0
-0.323185 0.189159 0.927238 0
-0.329671 0.173313 0.928052 0.00860655
0.327798 -0.0163492 0.944606 0.0223235
0.343403 -0.0295736 0.938722 0.0373634
0.353099 -0.0270321 0.935195 0.026961
0.374218 -0.0519304 0.925885 0.0402854
-0.33835 0.17927 0.923787 0.015883
-0.334545 0.165897 0.927663 0.0223352
-0.319545 0.160709 0.933844 0.0136072
0.322726 -0.00222927 0.94649 0.0143094
0.327887 -0.00702751 0.944691 0.0174675
0.338871 -0.0115533 0.940762 0.0237609
-0.337825 0.180235 0.923791 0.0206827
-0.336991 0.171183 0.925815 0.0273436
-0.333224 0.17345 0.926756 0.0251344
0.321282 0.0147281 0.946869 0.0158772
0.321633 0.0130283 0.946775 0.00822948
0.330448 0.0183232 0.943646 0.0167731
-0.327502 0.176664 0.928188 0.021144
-0.331643 0.186442 0.924798 0.022337
-0.317511 0.189407 0.929146 0.024936
0.32754 0.027702 0.944431 0.0247558
0.341646 0.00613733 0.939808 0.0376729
-0.332095 0.197124 0.922418 0.0229446
-0.324992 0.183159 0.927811 0.028072
-0.332491 0.187005 0.92438 0.0394856
-0.331745 0.188718 0.9243 0.0416432
0.307978 0.0320254 0.950854 0.0351036
0.328378 0.0212843 0.944307 0.0476312
0.335093 0.0140353 0.94208 0.0373527
-0.333925 0.193684 0.922486 0.0361012
-0.322489 0.204142 0.924298 0.0301305
-0.331746 0.191715 0.923683 0.035258
0.301221 0.0170137 0.953402 0.0483421
0.320584 0.0250213 0.946889 0.0374802
0.330726 0.0160634 0.94359 0.0388681
-0.346621 0.192448 0.918051 0.0432592
-0.334395 0.19147 0.922778 0.036544
-0.320232 0.187717 0.928555 0.0389655
-0.31363 0.194922 0.929323 0.0240571
0.279067 0.0181211 0.960101 0.0413468
0.292956 0.014995 0.956008 0.0447918
0.296355 0.0166063 0.954934 0.0361757
-0.340757 0.190416 0.920666 0.041
-0.329301 0.201737 0.922422 0.0291611
-0.30668 0.207386 0.928945 0.0177548
-0.289298 0.215456 0.932676 0.00140811
0.26117 0.0407894 0.964431 0.0193023
0.263485 0.0359237 0.963994 0.0273871
0.270893 0.025471 0.962272 0.0327839
0.271596 0.0352694 0.961765 0.0198083
0.266952 0.0333036 0.963134 0.0138656
-0.32107 0.229499 0.918827 0.0163395
-0.291455 0.219309 0.931106 0.000319513
-0.289667 0.219431 0.931635 0.00295897
-0.278153 0.225742 0.933633 0
0.255968 0.0373694 0.965963 0.0215348
0.254988 0.0341909 0.96634 0.0238114
0.258568 0.0222729 0.965736 0.0247318
0.252107 0.0361285 0.967025 0.00877573
-0.317128 0.212862 0.924186 0.0125829
-0.306367 0.222506 0.925543 0.0154237
-0.279949 0.218863 0.934734 0
-0.271765 0.212849 0.93853 0
-0.265417 0.220087 0.938678 0
0.239151 0.0382996 0.970227 0.0161371
0.241845 0.0342921 0.969709 0.00529349
0.248931 0.0338534 0.967929 0.0145848
0.253052 0.03276 0.966898 0.00428095
0.251829 0.0443282 0.966756 0
-0.31059 0.223626 0.923864 0.00892311
-0.284883 0.234567 0.929419 0
-0.276589 0.237635 0.931143 0
-0.265893 0.234686 0.934999 0
0.236583 0.0387058 0.97084 0.0255344
0.243874 0.0353967 0.969161 0.0157738
0.241596 0.0440497 0.969377 0
0.249797 0.0555864 0.966702 0
0.258368 0.0592447 0.964228 0
-0.287815 0.26574 0.920079 0
-0.280856 0.266658 0.921962 0
-0.274676 0.255535 0.92696 0
-0.261766 0.26839 0.927063 0
-0.253948 0.273408 0.927771 0
0.235336 0.0430116 0.970962 0.0129171
0.237501 0.0429802 0.970436 0.00271752
0.249039 0.0544845 0.96696 0
0.251163 0.0548244 0.966391 0
0.255626 0.057127 0.965086 0
-0.286496 0.271956 0.918673 0
-0.281234 0.275636 0.919202 0
-0.25588 0.276343 0.926369 0
-0.254314 0.268793 0.929018 0
0.230509 0.0620446 0.97109 0.015532
0.232457 0.054595 0.971073 0.0143953
0.247843 0.0566989 0.96714 0
0.256377 0.0587051 0.964792 0
0.253096 0.0512696 0.966082 0
-0.257132 0.270341 0.927792 0
-0.24921 0.265555 0.93133 0
-0.235829 0.264091 0.935222 0
-0.234122 0.267798 0.934597 0
0.207995 0.0590254 0.976347 0.0222683
0.22807 0.0594647 0.971827 0.0151169
0.228544 0.0640965 0.971421 0.0196965
0.235512 0.0579686 0.970141 0.0179347
0.239169 0.0595115 0.969152 0
0.243083 0.0468909 0.968871 0.00561368
0.242496 0.0488551 0.968921 0.0124183
0.245702 0.055204 0.967772 0
-0.263558 0.270864 0.925835 0
-0.250144 0.250878 0.935141 0
-0.255204 0.254158 0.932885 0
-0.241738 0.253049 0.936765 0
-0.237218 0.25847 0.93644 0
0.206889 0.0583911 0.97662 0.0324872
0.227372 0.0691212 0.971352 0.0248491
0.229878 0.0612868 0.971288 0.0194701
0.232969 0.0614905 0.970538 0.0141941
0.238705 0.0557569 0.96949 0.0139975
0.248947 0.0515897 0.967142 0.0226767
0.253722 0.0467842 0.966145 0.0235432
-0.251532 0.256407 0.933267 0
-0.256801 0.260097 0.930807 0
-0.242336 0.275614 0.93022 0
-0.24041 0.277348 0.930205 0
0.220794 0.0606337 0.973434 0.0273745
0.232374 0.0616818 0.970669 0.0217252
0.237371 0.0675201 0.96907 0.0115192
0.241689 0.0671701 0.968026 0.0215675
0.247084 0.0467289 0.967867 0.028395
-0.261632 0.243351 0.933986 0.00343633
-0.256789 0.24737 0.934274 0.0100104
-0.241248 0.256829 0.935862 0
-0.244735 0.275793 0.929539 0
-0.229624 0.291062 0.928739 0
-0.216925 0.279753 0.935244 0
0.207607 0.0518356 0.976838 0.0266476
0.221746 0.0639732 0.973004 0.0242074
0.227825 0.06291 0.971668 0.0281685
0.233622 0.0669013 0.970023 0.0110032
0.250284 0.0526659 0.966739 0.0284258
-0.251 0.264993 0.931009 0.00164384
-0.242636 0.271137 0.931457 0
-0.238588 0.26485 0.934307 0
-0.225302 0.257106 0.939753 0
-0.223812 0.258942 0.939605 0
-0.221189 0.233906 0.946765 0
0.189128 0.0588836 0.980185 0.0123113
0.198729 0.0659369 0.977834 0.00796738
0.207504 0.0544687 0.976717 0.0188385
0.211741 0.073097 0.974588 0.0135409
0.219513 0.0727199 0.972896 0.00478702
-0.244068 0.256302 0.935275 0
-0.255415 0.244872 0.935308 0.00296388
-0.235996 0.228963 0.944395 0.00316717
-0.228862 0.235208 0.944616 0
-0.216798 0.218417 0.951469 0
-0.189794 0.209335 0.959248 0
0.183847 0.0653404 0.980781 0.0112128
0.188682 0.0835293 0.978479 0
0.194177 0.0837754 0.977383 0
0.20182 0.084571 0.975765 0.00250299
0.206846 0.0757844 0.975434 0.0140456
-0.237098 0.221719 0.945846 0.001706
-0.219273 0.219133 0.950736 0
-0.214512 0.207836 0.954352 0.00859253
-0.198071 0.199055 0.959763 0.00231362
-0.192499 0.205485 0.959542 0.00179134
0.173251 0.08349 0.981333 0.0110882
0.180762 0.0687767 0.981119 0.0119442
0.188756 0.0903095 0.977863 0.00878681
0.185442 0.0891671 0.978601 0.00160873
0.196129 0.0898431 0.976454 0.00869161
-0.232894 0.205902 0.950455 0.0109135
-0.22094 0.194572 0.955682 0.00338923
-0.211914 0.184309 0.959751 0.0106167
-0.185345 0.20564 0.960916 0
-0.172441 0.211561 0.962032 0
0.171562 0.0856468 0.981443 0.0171817
0.172511 0.08508 0.981326 0.0219996
0.178849 0.0868492 0.980036 0.0125413
0.186843 0.0810041 0.979044 0.0169791
0.197421 0.0714491 0.977712 0.020895
-0.220199 0.212272 0.952078 0.000637615
-0.218162 0.202707 0.954628 0.00671302
-0.207988 0.201234 0.957207 0.0113112
-0.179199 0.202907 0.962661 0
-0.177759 0.214399 0.960435 0.00528517
0.17395 0.086718 0.980929 0.0159913
0.167982 0.081783 0.982392 0.0154902
0.175831 0.0763002 0.981459 0.018538
0.178376 0.0746241 0.981128 0.010711
0.182399 0.0651007 0.981067 0.0155379
-0.224864 0.215693 0.950217 0.00503695
-0.210849 0.220398 0.952348 0.0049785
-0.212066 0.203769 0.955775 0.0182223
-0.185979 0.215853 0.958551 0.00605444
-0.164552 0.208165 0.964152 0.000568947
-0.157471 0.229836 0.960405 0
0.175041 0.0837076 0.980996 0.0201618
0.175452 0.0766932 0.981496 0.0125901
0.174458 0.0831303 0.981149 0
0.178494 0.0688403 0.98153 0.0137216
0.19326 0.0636684 0.97908 0.022363
-0.199583 0.225249 0.95364 0.0021917
-0.180358 0.226676 0.957125 0
-0.167072 0.238213 0.956735 0
-0.154009 0.243614 0.957566 0
-0.146516 0.246296 0.958056 0
0.175136 0.105333 0.978893 0.0024022
0.181703 0.092507 0.978993 0.000747615
0.171088 0.0603922 0.983403 0.0222743
0.173281 0.0711611 0.982298 0.0213165
0.17979 0.0677304 0.981371 0.01902
0.195047 0.0602575 0.978941 0.0315486
-0.189111 0.235012 0.953418 0.00819901
-0.166421 0.232196 0.958326 0
-0.151741 0.224023 0.962698 0
-0.148614 0.234281 0.960743 0
-0.151757 0.220824 0.963435 0
0.176897 0.0940079 0.979729 0.00603454
0.162476 0.0792787 0.983522 0.00680458
0.167017 0.0573776 0.984283 0.00216778
0.17805 0.0708484 0.981468 0.00594931
0.181211 0.0570103 0.98179 0.0118024
-0.199604 0.230432 0.952397 0.0151668
-0.166678 0.242294 0.955778 0
-0.165514 0.233945 0.958058 0
-0.154166 0.205169 0.966508 0.00122654
-0.155366 0.203843 0.966597 0
-0.149316 0.183089 0.971691 0
-0.136052 0.191588 0.972 0
0.162388 0.100129 0.981633 0
0.16434 0.0823072 0.982964 0
0.164312 0.0726742 0.983728 0
0.166911 0.0635883 0.983919 0
0.169639 0.0653072 0.98334 0
0.17611 0.0520271 0.982995 0.0112859
0.185797 0.0400909 0.98177 0.0240188
-0.175162 0.230935 0.957072 0
-0.162323 0.20421 0.965375 0
-0.158383 0.201824 0.966531 0.00516318
-0.149047 0.201754 0.968029 0
-0.145886 0.182069 0.972403 0
-0.134005 0.166441 0.976903 0.00474496
-0.123647 0.174712 0.976825 0
0.162563 0.0803893 0.983418 0
0.166762 0.0769691 0.982988 0
0.160255 0.0979403 0.982205 0
0.153174 0.0838764 0.984633 0.00192018
0.155409 0.0711328 0.985286 0.00324814
0.160817 0.0712463 0.984409 0.00408508
0.176132 0.0459282 0.983295 0.018255
0.17548 0.0415207 0.983607 0.0203185
0.192449 0.0363689 0.980633 0.0243845
-0.158541 0.214101 0.96386 0
-0.160932 0.217915 0.962608 0
-0.153867 0.203345 0.966941 0
-0.149388 0.17983 0.972288 0
-0.141546 0.155034 0.977716 0
-0.126343 0.148914 0.980746 0
-0.119695 0.150864 0.981281 0
-0.107185 0.190641 0.975791 0
-0.084011 0.204381 0.97528 0
-0.0813539 0.203206 0.97575 0
0.159319 0.0728113 0.984538 0
0.164729 0.0756216 0.983436 0
0.164968 0.0752953 0.983421 0
0.160357 0.0646032 0.984943 0.00872453
0.158434 0.0634082 0.985332 0.00559116
0.16493 0.0738571 0.983536 0.0178145
0.17848 0.0537026 0.982477 0.0337912
0.182116 0.0492521 0.982043 0.0310849
-0.16466 0.207859 0.9642 0
-0.159646 0.197896 0.967135 0
-0.145972 0.178051 0.973134 0
-0.141416 0.126719 0.981806 0
-0.129289 0.128526 0.983242 0.00626512
-0.123784 0.135123 0.983066 0
-0.104954 0.170321 0.979783 0
-0.0964571 0.181903 0.978574 0
-0.0929187 0.186954 0.977964 0
0.143028 0.0494613 0.988482 0.0106749
0.163001 0.0493628 0.98539 0.0129278
0.164501 0.0494463 0.985137 0.0128544
0.168801 0.0484944 0.984456 0.0333212
-0.15086 0.185753 0.970947 0
-0.148364 0.15172 0.977225 0
-0.12804 0.14669 0.980861 0
-0.122224 0.157695 0.979895 0
-0.111871 0.171083 0.978885 0
-0.102608 0.170808 0.979947 0
-0.0895837 0.181094 0.979377 0
-0.0850572 0.185377 0.978979 0
-0.0821202 0.182591 0.979753 0
-0.0732393 0.184881 0.980028 0
-0.0719385 0.169563 0.98289 0.00120589
0.137868 0.0499124 0.989192 0
0.142718 0.0557563 0.988192 0.0096872
0.151512 0.066601 0.986209 0.0126192
0.180421 0.0430945 0.982645 0.0381349
-0.161501 0.182657 0.969822 0
-0.149535 0.161139 0.975538 0
-0.131144 0.176047 0.975607 0
-0.128036 0.178131 0.975641 0
-0.111668 0.168211 0.979406 0
-0.115842 0.168088 0.978942 0
-0.102822 0.157149 0.982208 0
-0.0982919 0.165164 0.981356 0
-0.0865315 0.19133 0.977704 0
-0.0863977 0.174817 0.980803 0
-0.0853205 0.163977 0.982768 0.00445591
-0.0800683 0.171013 0.98201 0.000175471
0.146662 0.0750474 0.986336 0.00599183
0.143985 0.0578908 0.987885 0.00472455
0.147816 0.0512847 0.987684 0.00258353
0.152842 0.070864 0.985707 0.00136967
0.156426 0.0655728 0.985511 0.0116582
0.170321 0.0368947 0.984698 0.0398637
-0.151777 0.156504 0.975946 0
-0.142136 0.165372 0.975935 0
-0.12557 0.166129 0.978076 0
-0.115039 0.166553 0.979299 0
-0.11125 0.159275 0.980946 0
-0.104355 0.159378 0.981687 0
-0.0969936 0.160775 0.982214 0
-0.0973215 0.155357 0.983053 0
-0.0988983 0.144851 0.984499 0.0115537
-0.0791028 0.157163 0.9844 0.00691362
-0.0755582 0.152251 0.985449 0
-0.0702569 0.147379 0.986582 0.00586089
0.139378 0.0459945 0.98917 0.0134706
0.141144 0.0426698 0.989069 0.0187923
0.148205 0.0427627 0.988032 0.0153344
0.150854 0.0358738 0.987905 0.00639835
0.158656 0.0551703 0.985791 0.0140214
0.164251 0.0568382 0.98478 0.0150445
0.184849 0.0366131 0.982085 0.0307447
-0.15464 0.139231 0.978111 0
-0.131878 0.147301 0.98026 0
-0.130303 0.147557 0.980433 0
-0.118507 0.155929 0.980634 0
-0.121468 0.159599 0.97968 0
-0.104001 0.144888 0.983967 0
-0.106961 0.140466 0.984291 0
-0.10032 0.143814 0.984507 0
-0.0888226 0.152258 0.984342 0
-0.0889878 0.144602 0.98548 0
-0.0842699 0.134559 0.987316 0.00716722
-0.0784961 0.14194 0.986758 0.00571836
-0.0643899 0.13908 0.988186 0.00578734
-0.0597486 0.160182 0.985278 0
-0.0403095 0.116987 0.992315 0
0.108006 0.0680248 0.99182 0.0116252
0.120529 0.0410406 0.991861 0
0.128275 0.0335826 0.99117 0.0132337
0.136462 0.0318832 0.990132 0.012973
0.142221 0.0143571 0.989731 0.0226536
0.14255 0.0210141 0.989564 0.020466
0.15972 0.0308294 0.986681 0.0275945
0.164672 0.0292641 0.985914 0.0156172
0.178465 0.0400774 0.98313 0.0246699
-0.116514 0.145486 0.982476 0
-0.108155 0.155893 0.981835 0
-0.111516 0.14738 0.982773 0
-0.0980227 0.145625 0.984472 0
-0.101626 0.147219 0.983869 0.00342826
-0.0926275 0.141708 0.985565 0.00213917
-0.0942285 0.139721 0.985697 0.00429525
-0.0885396 0.135066 0.986873 0.00355533
-0.0833246 0.131436 0.987817 0.00497262
-0.0818839 0.131361 0.987947 0.0142438
-0.0672295 0.138367 0.988096 0.000757348
-0.0638919 0.135275 0.988746 0
-0.0436823 0.128043 0.990806 0
-0.0359554 0.140001 0.989498 0
0.103362 0.0776436 0.991609 0
0.114282 0.0730643 0.990758 0.0036122
0.117618 0.0588301 0.991315 0.00692346
0.119232 0.0175777 0.992711 0.0225132
0.131281 0.0451288 0.990318 0.0035287
0.138547 0.016486 0.990219 0.0235412
0.138049 0.0253569 0.990101 0.0259707
0.158474 0.0339466 0.986779 0.026485
0.160148 0.0316873 0.986584 0.0156843
0.162645 0.0439588 0.985705 0.0150061
-0.117246 0.149911 0.981723 0
-0.123106 0.143038 0.982031 0
-0.12098 0.141065 0.98258 0.00543721
-0.101365 0.158383 0.982161 0
-0.0934156 0.165852 0.981716 0
-0.0974623 0.158482 0.98254 0
-0.0965592 0.122856 0.987716 0
-0.100323 0.116589 0.9881 0.00831865
-0.08412 0.133301 0.987499 0.00279115
-0.0811176 0.145929 0.985964 0.00823548
-0.076423 0.137425 0.98756 0.0046528
-0.0679308 0.131513 0.988984 0.000495532
-0.0422494 0.130303 0.990574 0
-0.0366932 0.128091 0.991083 0
-0.0377258 0.111502 0.993048 0
-0.033031 0.122072 0.991971 0
0.100373 0.0662158 0.992744 0
0.113464 0.0584412 0.991822 0.00304898
0.114626 0.0328358 0.992866 0.00691143
0.121753 0.0406663 0.991727 0.0165293
0.143737 0.0257789 0.98928 0.0265291
0.143425 0.00489019 0.989649 0.0331467
0.15559 0.025375 0.987496 0.0184985
0.157363 0.0311607 0.987049 0.00621269
-0.119127 0.143854 0.982403 0
-0.108427 0.14227 0.983871 0
-0.0890768 0.143039 0.9857 0
-0.0885447 0.14494 0.985471 0
-0.0917662 0.117684 0.988802 0
-0.0941383 0.113585 0.989058 0.00581114
-0.0886777 0.129832 0.987563 0
-0.0818264 0.144804 0.986071 0
-0.0743854 0.138724 0.987534 0
-0.069365 0.132758 0.988718 0
-0.0449358 0.124643 0.991184 0
-0.0414006 0.121067 0.991781 0
-0.0388271 0.11721 0.992348 0
-0.035968 0.126131 0.991361 0
-0.0329905 0.131795 0.990728 0
-0.0372566 0.0740616 0.996557 0.00633874
0.0930545 0.0462667 0.994586 0.00215095
0.0917452 0.0464378 0.994699 0.0030171
0.10467 0.014331 0.994404 0.0158051
0.105288 0.0111579 0.994379 0.0204485
0.125696 0.0144667 0.991963 0.0276197
0.139005 0.0120566 0.990218 0.017805
0.146276 -0.00479156 0.989232 0.0269633
0.156497 0.0111345 0.987616 0.0208649
0.147858 0.0183761 0.988838 0.0136398
-0.123806 0.145117 0.981638 0
-0.109687 0.141491 0.983844 0
-0.0977294 0.146894 0.984312 0
-0.0932598 0.134666 0.986493 0
-0.0931676 0.114058 0.989096 0
-0.0892239 0.104826 0.99048 0
-0.0916355 0.126272 0.987754 0.00257486
-0.0792659 0.147367 0.985901 0
-0.0780213 0.133062 0.988032 0
-0.0641286 0.130328 0.989395 0
-0.0460076 0.109807 0.992887 0
-0.0475455 0.129572 0.990429 0
-0.0435154 0.120014 0.991818 0
-0.0318381 0.129471 0.991072 0
-0.0379111 0.118555 0.992224 0
-0.0358093 0.0805361 0.996108 0
-0.037747 0.0756634 0.996419 0.00820612
-0.049174 0.0661648 0.996596 0.016306
-0.0428273 0.0563443 0.997492 0.0306514
-0.035583 0.0656488 0.997208 0.0414064
0.0943719 0.0156018 0.995415 0.0162258
0.0961397 0.0272912 0.994994 0.0105998
0.107723 0.0181563 0.994015 0.0153185
0.111454 0.0187201 0.993593 0.0212681
0.118676 0.00945821 0.992888 0.0206231
0.132755 -0.00313137 0.991144 0.0229875
0.135246 -0.00288676 0.990808 0.0217122
0.147396 -0.00608083 0.989059 0.0219274
0.144801 0.0126771 0.98938 0.0014868
-0.12849 0.146092 0.980891 0
-0.108136 0.154088 0.982122 0
-0.105011 0.130418 0.985882 0
-0.102956 0.114255 0.988102 0
-0.0885879 0.112356 0.989711 0
-0.0896513 0.11801 0.988957 0.000522307
-0.0772997 0.151234 0.985471 0
-0.0799485 0.144818 0.986223 0
-0.0720304 0.127286 0.989247 0
-0.0465545 0.115469 0.99222 0
-0.0392681 0.13055 0.990664 0
-0.0424548 0.140256 0.989205 0
-0.0426652 0.135089 0.989914 0
-0.0368586 0.0928472 0.994998 0
-0.0323188 0.0788761 0.99636 0
-0.0418502 0.0689312 0.996743 0.00943133
-0.0389184 0.0545614 0.997752 0.017186
-0.0424461 0.0388287 0.998344 0.0379912
-0.0352031 0.0515025 0.998052 0.0415118
-0.0428142 0.0520966 0.997724 0.0315401
-0.0270543 0.0493235 0.998416 0.012706
-0.00886653 0.0677284 0.997664 0
0.0889235 0.0188422 0.99586 0.0132211
0.0940907 0.0129544 0.995479 0.0132425
0.0996958 0.017218 0.994869 0.0162803
0.111686 0.0247041 0.993436 0.010959
0.117612 -0.00192806 0.993058 0.0268299
0.129111 0.00221489 0.991628 0.0367794
0.137494 0.0104525 0.990448 0.0353182
0.139443 0.00902239 0.990189 0.017965
0.142468 -0.00106213 0.989799 0.0277703
-0.121913 0.154464 0.980448 0.00134801
-0.115158 0.142881 0.983018 0
-0.105489 0.113225 0.987954 0
-0.102327 0.111566 0.988475 0
-0.0951285 0.110685 0.989292 0
-0.0984249 0.105307 0.989557 0.00665109
-0.084892 0.127983 0.988137 0
-0.0837188 0.13704 0.987021 0
