# .PCD v0.7 - Point Cloud Data file format
VERSION 0.7
FIELDS x y z
SIZE 4 4 4
TYPE F F F
COUNT 1 1 1
WIDTH 1371
HEIGHT 1
VIEWPOINT 0 0 0 1 0 0 0
POINTS 1371
DATA ascii
-0.14030541 -0.2887015 -0.39569712
-0.1576836 -0.28851238 -0.39577961
-0.1575065 -0.28848302 -0.39575851
-0.15730561 -0.2885128 -0.3957234
-0.15706675 -0.2884815 -0.39569598
-0.15688334 -0.28850636 -0.39566982
-0.15670866 -0.28851935 -0.39564183
-0.15652744 -0.28852499 -0.39562178
-0.15636601 -0.28840101 -0.39561701
-0.156177 -0.288472 -0.395614
-0.15590701 -0.28841099 -0.39561099
-0.14110048 -0.28850183 -0.39564216
-0.14092134 -0.28850666 -0.39567235
-0.14074649 -0.28852299 -0.39568484
-0.14046851 -0.28850102 -0.39573401
-0.14029308 -0.28848425 -0.39571381
-0.15760399 -0.288398 -0.395787
-0.1575162 -0.28830922 -0.39579082
-0.157361 -0.288284 -0.39576635
-0.15709934 -0.28828382 -0.39573619
-0.15686999 -0.28829151 -0.39571032
-0.15669532 -0.28830451 -0.39568233
-0.15651433 -0.28830957 -0.39565563
-0.156359 -0.288293 -0.39564449
-0.156168 -0.28832799 -0.39563799
-0.15588728 -0.28828698 -0.39562994
-0.15563001 -0.28820199 -0.39560699
-0.14146601 -0.28825599 -0.39560801
-0.14108899 -0.28828487 -0.39564982
-0.140909 -0.28828999 -0.39569402
-0.14073384 -0.28830665 -0.39571416
-0.140457 -0.28831968 -0.39576498
-0.140294 -0.28830841 -0.39574388
-0.1401965 -0.2882365 -0.39576352
-0.157352 -0.28814101 -0.39579999
-0.15711866 -0.28811565 -0.39577234
-0.15687656 -0.28807572 -0.39576012
-0.156682 -0.28808966 -0.3957223
-0.15650077 -0.288095 -0.39570332
-0.15634799 -0.28811401 -0.39567065
-0.15615533 -0.288113 -0.39566565
-0.15593566 -0.28811869 -0.39565
-0.155711 -0.28809351 -0.39564201
-0.15545475 -0.28807074 -0.39561552
-0.155238 -0.28801301 -0.39560598
-0.1418685 -0.28805602 -0.395601
-0.14145701 -0.28811133 -0.39563599
-0.14131099 -0.288095 -0.39562452
-0.14107975 -0.28810298 -0.39564452
-0.14088801 -0.28808862 -0.39572302
-0.14072166 -0.28808948 -0.39573064
-0.14044499 -0.28810298 -0.39578032
-0.14029855 -0.28812164 -0.39576733
-0.14018901 -0.288129 -0.39579701
-0.15690699 -0.28790972 -0.39578241
-0.15666915 -0.28787431 -0.39575484
-0.15648766 -0.28787965 -0.3957392
-0.156335 -0.287898 -0.39570436
-0.15614167 -0.28789833 -0.39570633
-0.15592267 -0.28790367 -0.39568767
-0.15570016 -0.28791299 -0.39566684
-0.15544981 -0.28791299 -0.39565021
-0.15529001 -0.28790474 -0.39562801
-0.15511401 -0.28787282 -0.39562869
-0.15483934 -0.28788999 -0.39562932
-0.14185767 -0.28787532 -0.39562264
-0.14172532 -0.2878845 -0.39563403
-0.141445 -0.28789499 -0.39565969
-0.14130034 -0.28791499 -0.39565334
-0.14106883 -0.28792319 -0.39567497
-0.1408972 -0.28791299 -0.39571139
-0.140701 -0.28788719 -0.39575562
-0.140433 -0.28788501 -0.39578965
-0.14028665 -0.28790444 -0.39578301
-0.15697999 -0.28778201 -0.39579901
-0.15664466 -0.28770635 -0.39577964
-0.15647684 -0.28770033 -0.39576879
-0.15632133 -0.28768399 -0.39575633
-0.15612866 -0.28768334 -0.39574799
-0.15590934 -0.28768852 -0.39572763
-0.15570539 -0.2877126 -0.39570463
-0.15545586 -0.28770044 -0.39568743
-0.155279 -0.28772551 -0.39566299
-0.15510325 -0.28769374 -0.395659
-0.15482634 -0.28767535 -0.39566335
-0.15449412 -0.2876775 -0.39562076
-0.15431646 -0.28768647 -0.39561391
-0.15416351 -0.28767848 -0.39561099
-0.15393233 -0.287673 -0.39561138
-0.153432 -0.28763899 -0.39560848
-0.15172701 -0.287635 -0.395601
-0.14184749 -0.28769398 -0.39564049
-0.1417155 -0.28770399 -0.39564049
-0.141433 -0.28767768 -0.39567199
-0.141288 -0.28769866 -0.39567366
-0.14105599 -0.28770599 -0.39569616
-0.14087583 -0.2877115 -0.39574495
-0.140709 -0.28771257 -0.39576399
-0.14027624 -0.287723 -0.39579803
-0.1564565 -0.28757498 -0.39578876
-0.15631101 -0.28750399 -0.395776
-0.1561175 -0.28750399 -0.39578098
-0.1558882 -0.28748861 -0.39575401
-0.15576066 -0.28748301 -0.39576831
-0.15551533 -0.2874898 -0.39573118
-0.15530923 -0.28750688 -0.39569813
-0.15509234 -0.28751448 -0.395686
-0.154816 -0.28749499 -0.395684
-0.15448186 -0.28749242 -0.39566359
-0.15430157 -0.2874876 -0.39564446
-0.15411083 -0.28750017 -0.39564535
-0.15389316 -0.28750667 -0.39564183
-0.15344849 -0.28749299 -0.39561027
-0.15331 -0.28740099 -0.39560801
-0.1531965 -0.28744501 -0.39560699
-0.1528455 -0.28746 -0.39560652
-0.15171999 -0.28749099 -0.39560333
-0.15147801 -0.28742701 -0.395601
-0.142105 -0.287433 -0.39560899
-0.14183734 -0.28751299 -0.39565167
-0.14170568 -0.28752279 -0.39564499
-0.14142251 -0.28749698 -0.39568251
-0.141276 -0.28748032 -0.39569101
-0.14105299 -0.28750357 -0.39571381
-0.14089383 -0.28749251 -0.39575782
-0.1406915 -0.2875835 -0.39579651
-0.156304 -0.28739601 -0.39579901
-0.156111 -0.28739601 -0.39579201
-0.155872 -0.28733134 -0.39578533
-0.155752 -0.287341 -0.39579299
-0.15548919 -0.28728938 -0.39575961
-0.15529601 -0.287292 -0.39573333
-0.15512125 -0.2873165 -0.39572549
-0.15490125 -0.2873075 -0.39571577
-0.1548 -0.28724399 -0.395735
-0.15448852 -0.28731862 -0.39569035
-0.15428199 -0.28727964 -0.39567983
-0.1540975 -0.28728464 -0.39568767
-0.15396699 -0.28728768 -0.395677
-0.15379301 -0.28729466 -0.39567304
-0.1534375 -0.28731367 -0.39564049
-0.15332898 -0.28728876 -0.39563325
-0.15313633 -0.28728935 -0.39561
-0.15288433 -0.28727666 -0.39562067
-0.15246634 -0.28725198 -0.39561263
-0.15237799 -0.28722501 -0.395601
-0.151896 -0.28725699 -0.39560699
-0.15166919 -0.28726241 -0.39564243
-0.15147267 -0.28728324 -0.39562601
-0.15128125 -0.28726202 -0.39562175
-0.150956 -0.28724301 -0.39560801
-0.143434 -0.28720099 -0.395603
-0.14338499 -0.287209 -0.395614
-0.14247198 -0.287285 -0.39560637
-0.14228401 -0.28720701 -0.395601
-0.142101 -0.287361 -0.39560699
-0.14182501 -0.28729701 -0.39567602
-0.14169234 -0.28730631 -0.39568719
-0.14141166 -0.28731668 -0.39570901
-0.141266 -0.287301 -0.39569348
-0.141076 -0.28730899 -0.39573699
-0.14091641 -0.28728861 -0.39575821
-0.15550742 -0.28711498 -0.39578658
-0.15527287 -0.28708625 -0.39576373
-0.15514867 -0.28708202 -0.395758
-0.15498501 -0.28708532 -0.39575031
-0.15479134 -0.28709999 -0.39575732
-0.15447649 -0.28712171 -0.39572686
-0.15430921 -0.28710189 -0.39571655
-0.15410879 -0.28709716 -0.39571181
-0.15395701 -0.28710899 -0.39569598
-0.15378034 -0.28707933 -0.39571133
-0.1534375 -0.28711724 -0.39568377
-0.15333825 -0.28709722 -0.39566597
-0.15310001 -0.28712249 -0.3956475
-0.15287375 -0.28709701 -0.39564949
-0.15244751 -0.28708449 -0.3956295
-0.15234201 -0.2870895 -0.39561585
-0.15214351 -0.287067 -0.39561749
-0.15192361 -0.28709719 -0.3956272
-0.15164974 -0.28709751 -0.39568025
-0.1514748 -0.2871106 -0.3956452
-0.151366 -0.28709432 -0.39563701
-0.151195 -0.28709134 -0.39562169
-0.15094799 -0.28709832 -0.39561638
-0.150775 -0.28711 -0.39560768
-0.14350501 -0.28708899 -0.395605
-0.143381 -0.28713799 -0.395612
-0.1427305 -0.28708124 -0.3956145
-0.14248176 -0.28710526 -0.39561865
-0.14232914 -0.28711587 -0.39562464
-0.14208749 -0.28710699 -0.39561
-0.141812 -0.28707933 -0.395704
-0.141679 -0.2870895 -0.39572486
-0.141403 -0.28717199 -0.39573199
-0.1413122 -0.28709641 -0.39572501
-0.14106666 -0.28712699 -0.39573899
-0.1409345 -0.28712717 -0.39576399
-0.140755 -0.2871415 -0.39579499
-0.15548551 -0.2869865 -0.395796
-0.15527366 -0.28692016 -0.3957895
-0.154975 -0.28690499 -0.39576
-0.15478051 -0.28692049 -0.395787
-0.15448733 -0.28689632 -0.39576164
-0.15431775 -0.28690809 -0.39573696
-0.15411346 -0.28692284 -0.39573753
-0.15394634 -0.286928 -0.39571634
-0.15377 -0.286899 -0.3957305
-0.15343566 -0.28688234 -0.39571932
-0.1533321 -0.28689024 -0.395711
-0.15308717 -0.28690666 -0.39567366
-0.1528635 -0.286917 -0.395661
-0.15243675 -0.28690451 -0.39565548
-0.15232441 -0.28688979 -0.3956452
-0.15213233 -0.28688699 -0.3956503
-0.15192132 -0.28689483 -0.39564398
-0.15168534 -0.28691468 -0.39568201
-0.15152067 -0.28692144 -0.39564735
-0.15136567 -0.28692484 -0.39564368
-0.15118401 -0.28687468 -0.39561734
-0.15093701 -0.286881 -0.39561567
-0.15071717 -0.28689483 -0.39561632
-0.150319 -0.28684801 -0.395614
-0.14982 -0.286906 -0.39560699
-0.149627 -0.28684899 -0.395614
-0.143576 -0.28697699 -0.395601
-0.14337 -0.28692001 -0.39561033
-0.14269699 -0.28688434 -0.39562353
-0.14248 -0.28689718 -0.3956382
-0.14231189 -0.28690958 -0.39564344
-0.14207667 -0.28692698 -0.39563799
-0.14180249 -0.286899 -0.39570701
-0.14166018 -0.28688699 -0.39572257
-0.14131533 -0.286892 -0.39573833
-0.14105333 -0.28691033 -0.39577767
-0.140922 -0.28691003 -0.39578819
-0.154966 -0.28676152 -0.39578399
-0.15447484 -0.28668031 -0.39578617
-0.15430483 -0.28669193 -0.39576697
-0.15410122 -0.28670666 -0.39575374
-0.153933 -0.28671199 -0.39575633
-0.15375866 -0.28671935 -0.39576635
-0.15342501 -0.28670201 -0.39574599
-0.15331338 -0.28668404 -0.39573133
-0.1531135 -0.28670874 -0.39571598
-0.15289941 -0.28669843 -0.39569846
-0.152797 -0.286634 -0.39572501
-0.15244174 -0.28674275 -0.39566875
-0.15234485 -0.28670627 -0.39568028
-0.152123 -0.28670698 -0.39565998
-0.15190917 -0.28667852 -0.39566016
-0.15167333 -0.28669798 -0.39569464
-0.15150867 -0.28670487 -0.3956638
-0.15135367 -0.28670785 -0.39566162
-0.151173 -0.28669399 -0.3956385
-0.15092701 -0.28670099 -0.39562398
-0.15070485 -0.28667834 -0.39563665
-0.15051366 -0.28663865 -0.39561298
-0.15031099 -0.28670299 -0.39561999
-0.1501168 -0.286704 -0.39560661
-0.1499 -0.28672349 -0.39561448
-0.149619 -0.28670299 -0.39562201
-0.14941001 -0.28667399 -0.39560768
-0.14907867 -0.28669852 -0.39561582
-0.148876 -0.28666201 -0.39560902
-0.14874825 -0.2866945 -0.39561749
-0.143407 -0.28669399 -0.39562234
-0.14332299 -0.286688 -0.39561999
-0.1431555 -0.28668201 -0.39560401
-0.1426855 -0.2867035 -0.39566123
-0.14248757 -0.28669026 -0.39567059
-0.14231664 -0.28668299 -0.39566663
-0.14206533 -0.28670934 -0.39563799
-0.14171387 -0.28671438 -0.39573002
-0.1412892 -0.28669119 -0.39575762
-0.141041 -0.28669301 -0.39579001
-0.15442699 -0.28650001 -0.395789
-0.15426862 -0.28649727 -0.39578551
-0.15408868 -0.28649056 -0.39577997
-0.15392067 -0.28649601 -0.39577332
-0.15374666 -0.28650302 -0.39577734
-0.15341432 -0.28652266 -0.39576936
-0.15331744 -0.28650871 -0.39576259
-0.153138 -0.28647366 -0.39575568
-0.15293516 -0.28647932 -0.39573717
-0.15278833 -0.28648934 -0.39574036
-0.15244268 -0.28650901 -0.39569163
-0.15233321 -0.28651202 -0.39570844
-0.15211201 -0.28652701 -0.39568636
-0.151899 -0.28649849 -0.39567274
-0.15166099 -0.28648201 -0.39571035
-0.15149577 -0.28648961 -0.39569622
-0.15134101 -0.28649268 -0.39569184
-0.15116267 -0.28651401 -0.39566231
-0.15091634 -0.28652063 -0.39564833
-0.15069425 -0.28649899 -0.39566049
-0.15051875 -0.286506 -0.39563799
-0.150299 -0.286486 -0.39563668
-0.15009816 -0.28650233 -0.39562583
-0.14993401 -0.28652322 -0.39562273
-0.149684 -0.28650361 -0.39562899
-0.14940199 -0.28652999 -0.39561799
-0.14926501 -0.28647 -0.39561376
-0.14906649 -0.28648219 -0.39563534
-0.14890684 -0.28648248 -0.39562401
-0.14871466 -0.28649783 -0.39563897
-0.148434 -0.28647399 -0.39561099
-0.147415 -0.28641599 -0.39560801
-0.147349 -0.28644368 -0.39561868
-0.145473 -0.28644201 -0.39560401
-0.145326 -0.28645152 -0.39561251
-0.144623 -0.28641099 -0.39560801
-0.143814 -0.2864885 -0.39561099
-0.14355099 -0.286506 -0.395612
-0.14330946 -0.28648913 -0.3956255
-0.14314499 -0.286502 -0.39562666
-0.142905 -0.28650567 -0.39562598
-0.1426755 -0.28652284 -0.39567649
-0.14249101 -0.28649902 -0.39570251
-0.14230192 -0.28648859 -0.39570203
-0.14205165 -0.28649232 -0.395686
-0.14170238 -0.28651488 -0.39575675
-0.1416 -0.28644001 -0.39575499
-0.14130799 -0.28651279 -0.39577901
-0.1542335 -0.28630248 -0.39578301
-0.15409149 -0.28629801 -0.39579466
-0.153998 -0.28627801 -0.395796
-0.15373701 -0.2863225 -0.39578152
-0.153404 -0.28634298 -0.39578348
-0.153292 -0.28632438 -0.3957819
-0.153127 -0.28629452 -0.39579099
-0.15292549 -0.28629848 -0.39574498
-0.15277566 -0.286273 -0.39576265
-0.152429 -0.28629267 -0.39573765
-0.15232055 -0.28629589 -0.39573368
-0.152099 -0.28630999 -0.39571568
-0.15188833 -0.28631815 -0.39569965
-0.151651 -0.28630099 -0.39572948
-0.15147437 -0.28628209 -0.39571387
-0.15132441 -0.28629082 -0.39570501
-0.15114999 -0.28629765 -0.39569533
-0.15090333 -0.286304 -0.395679
-0.15068418 -0.28631815 -0.39567533
-0.15050784 -0.28632548 -0.39566252
-0.15028849 -0.28630599 -0.39565802
-0.15008566 -0.28628567 -0.39564982
-0.14996566 -0.28628701 -0.39563534
-0.149739 -0.28631449 -0.39565602
-0.14959401 -0.28626999 -0.39566201
-0.14931761 -0.28630599 -0.39563417
-0.149056 -0.28630251 -0.39565277
-0.14889675 -0.28630227 -0.39564252
-0.14870217 -0.28628135 -0.39566052
-0.148424 -0.28629366 -0.39562833
-0.14826301 -0.28624299 -0.39560899
-0.14805749 -0.28628051 -0.39560926
-0.1474354 -0.28628618 -0.39560598
-0.14730024 -0.28629014 -0.39562696
-0.146997 -0.28622201 -0.39561501
-0.14673901 -0.286266 -0.395603
-0.146475 -0.28624499 -0.39560601
-0.146346 -0.28625101 -0.39560199
-0.1456355 -0.28625199 -0.3956275
-0.14544566 -0.28634599 -0.39560735
-0.14533737 -0.28629476 -0.39562464
-0.14487267 -0.28627732 -0.39561534
-0.1446165 -0.28630301 -0.395621
-0.14445201 -0.2863065 -0.3956145
-0.14430699 -0.28624651 -0.395623
-0.14394149 -0.28632253 -0.39560622
-0.14354034 -0.28632501 -0.39563599
-0.14329588 -0.28629887 -0.39564049
-0.1431582 -0.2862688 -0.3956328
-0.14289233 -0.28628901 -0.39565197
-0.14266333 -0.28630549 -0.39568734
-0.14248182 -0.28631786 -0.39569533
-0.14231151 -0.2863113 -0.39570534
-0.142039 -0.28627533 -0.39570633
-0.14172234 -0.286286 -0.39577332
-0.1415935 -0.28633201 -0.39577597
-0.141358 -0.286376 -0.395796
-0.15419799 -0.28615898 -0.39579701
-0.1532345 -0.28614101 -0.39579201
-0.153119 -0.2861495 -0.39579201
-0.152914 -0.286118 -0.39577699
-0.15276501 -0.286093 -0.39579248
-0.15241666 -0.28607669 -0.39576435
-0.15230802 -0.28607908 -0.39575621
-0.152087 -0.28609401 -0.39572835
-0.15187567 -0.28610152 -0.3957285
-0.15164 -0.28612101 -0.39575863
-0.15149951 -0.28611517 -0.39571819
-0.15133733 -0.2861062 -0.39572033
-0.15113866 -0.28608134 -0.39569068
-0.15089101 -0.28608799 -0.39569366
-0.15067184 -0.28610134 -0.395695
-0.15049534 -0.28611016 -0.39569148
-0.150278 -0.28612664 -0.39568469
-0.15007475 -0.28610575 -0.39567798
-0.149955 -0.286107 -0.39566499
-0.149773 -0.28607699 -0.39568266
-0.14958365 -0.28609002 -0.39568365
-0.1493066 -0.2861186 -0.39565879
-0.14906757 -0.28610915 -0.39566299
-0.14888667 -0.28612167 -0.39564884
-0.14869174 -0.28610051 -0.39567673
-0.14841168 -0.28607699 -0.39564398
-0.14825433 -0.28609899 -0.39562133
-0.14805439 -0.28610045 -0.39563099
-0.14773834 -0.286116 -0.39561769
-0.147468 -0.28612599 -0.39561534
-0.14732477 -0.28610879 -0.39562452
-0.14715633 -0.286026 -0.39560732
-0.14698966 -0.28607801 -0.39561602
-0.14672799 -0.28608501 -0.39563167
-0.14646666 -0.28609967 -0.39562166
-0.1463138 -0.28609473 -0.39562076
-0.14613199 -0.28605151 -0.39560848
-0.145896 -0.28605899 -0.395605
-0.14562801 -0.28610799 -0.395632
-0.14545333 -0.28608 -0.39561102
-0.14533332 -0.28608677 -0.39562362
-0.14491199 -0.2861214 -0.39561781
-0.14468186 -0.28610614 -0.39564541
-0.14444201 -0.28612497 -0.39562035
-0.14427015 -0.2860913 -0.39563915
-0.144142 -0.28606457 -0.39561701
-0.14397299 -0.28608668 -0.39562735
-0.14379133 -0.28609034 -0.39563999
-0.143528 -0.28610864 -0.39565536
-0.14332011 -0.28611398 -0.39566088
-0.14315501 -0.2861025 -0.39564604
-0.142883 -0.28610748 -0.395648
-0.14265133 -0.28608781 -0.3957043
-0.14246984 -0.28610083 -0.39570367
-0.14229156 -0.28610942 -0.39570141
-0.142029 -0.28609401 -0.39572048
-0.14168875 -0.2860885 -0.39578798
-0.14157601 -0.286006 -0.39579701
-0.15290201 -0.28590199 -0.395794
-0.15240601 -0.285896 -0.39578101
-0.15228914 -0.28588441 -0.39577585
-0.15207399 -0.28587767 -0.39577135
-0.1518625 -0.28588548 -0.39576086
-0.151628 -0.285905 -0.39577103
-0.15149884 -0.28591034 -0.39574468
-0.15133534 -0.28591469 -0.39575124
-0.1511285 -0.2859005 -0.39570701
-0.15088099 -0.28590801 -0.39570701
-0.15065916 -0.28588483 -0.39572036
-0.15048333 -0.28589335 -0.39570451
-0.15026499 -0.28591064 -0.39571264
-0.15006568 -0.285925 -0.39566883
-0.14994599 -0.285927 -0.39565536
-0.149762 -0.28589699 -0.39570802
-0.149571 -0.28587368 -0.39571235
-0.149363 -0.28588101 -0.39570498
-0.14911044 -0.28591087 -0.39568213
-0.14890413 -0.285896 -0.3956846
-0.148682 -0.28592017 -0.39568803
-0.148403 -0.28593299 -0.39566499
-0.14828074 -0.28587699 -0.39565927
-0.14805424 -0.28590199 -0.39565399
-0.1479945 -0.28584749 -0.39565399
-0.147725 -0.28590101 -0.39565969
-0.14745501 -0.28591001 -0.39565
-0.14731084 -0.28591704 -0.39564773
-0.147157 -0.28589398 -0.39562798
-0.14697951 -0.28589749 -0.39563602
-0.14671749 -0.2859045 -0.395648
-0.14645399 -0.28588301 -0.3956503
-0.14630225 -0.28589207 -0.39564231
-0.14612351 -0.28590751 -0.39562818
-0.145888 -0.28591299 -0.39561936
-0.14561801 -0.28592598 -0.39564368
-0.14544299 -0.28589898 -0.3956255
-0.14531471 -0.28589129 -0.39562884
-0.145174 -0.28588399 -0.39561436
-0.144968 -0.28581399 -0.395603
-0.14474915 -0.28589466 -0.39564785
-0.14451134 -0.28590634 -0.39565799
-0.14427139 -0.28591526 -0.39566201
-0.14413801 -0.28589827 -0.39563075
-0.143962 -0.28590599 -0.39565349
-0.14377932 -0.28587401 -0.39565501
-0.143516 -0.28589031 -0.39566767
-0.14329901 -0.28590667 -0.39567199
-0.14314549 -0.28592101 -0.39565217
-0.14287134 -0.285927 -0.39568999
-0.14268601 -0.28590399 -0.39572102
-0.14250289 -0.28588021 -0.39571956
-0.14227942 -0.28589231 -0.39571401
-0.14201933 -0.28591368 -0.39572468
-0.14165799 -0.285927 -0.39578801
-0.14157 -0.285896 -0.395787
-0.152845 -0.285761 -0.395796
-0.152288 -0.28572533 -0.39579567
-0.152063 -0.28569701 -0.3957935
-0.1518525 -0.285705 -0.39577198
-0.151618 -0.285725 -0.39578751
-0.15148632 -0.28569418 -0.39576551
-0.15132354 -0.28569779 -0.39575499
-0.15111734 -0.285721 -0.39574334
-0.15087067 -0.28572735 -0.39572433
-0.15064849 -0.28570449 -0.39574599
-0.15047018 -0.28567651 -0.39573798
-0.15025266 -0.28569299 -0.39573333
-0.15005349 -0.28570768 -0.39568651
-0.14993201 -0.28570965 -0.395702
-0.14975201 -0.28571633 -0.39572001
-0.1495605 -0.2856935 -0.39573002
-0.149353 -0.28570101 -0.39571899
-0.14911599 -0.28568351 -0.39570549
-0.14890222 -0.28568888 -0.39570957
-0.14866917 -0.28570333 -0.39571285
-0.14832619 -0.28571039 -0.39569122
-0.14806199 -0.28570399 -0.39567298
-0.14798599 -0.285703 -0.39567551
-0.14771233 -0.28568232 -0.39568368
-0.14744265 -0.28569266 -0.3956683
-0.14729799 -0.28569999 -0.39567494
-0.14714633 -0.28571266 -0.39565098
-0.14696835 -0.28571701 -0.39566866
-0.14670734 -0.285723 -0.39566836
-0.14644399 -0.28570199 -0.395668
-0.1462808 -0.28569108 -0.39566761
-0.146111 -0.28569132 -0.39564815
-0.14587434 -0.28569698 -0.3956573
-0.14560534 -0.28571001 -0.39566699
-0.14543299 -0.28571799 -0.39563799
-0.14531961 -0.28571439 -0.39564064
-0.145164 -0.28570199 -0.39562201
-0.144962 -0.28570652 -0.39562148
-0.14473701 -0.28567749 -0.39566267
-0.14449984 -0.28568885 -0.39565635
-0.14425544 -0.28570747 -0.39565414
-0.14412881 -0.2857177 -0.39562249
-0.14395301 -0.28572434 -0.39565036
-0.1437705 -0.28569299 -0.395643
-0.14350401 -0.2856743 -0.39567432
-0.14328776 -0.28568977 -0.39567021
-0.14313351 -0.28570399 -0.39566252
-0.14286 -0.28570899 -0.39569464
-0.14267699 -0.28572202 -0.395715
-0.14249283 -0.28569934 -0.39573085
-0.14227387 -0.28570139 -0.39573836
-0.1420832 -0.28567722 -0.39572501
-0.14173201 -0.28562999 -0.395794
-0.15185967 -0.28557232 -0.39579368
-0.151434 -0.28547999 -0.39579368
-0.15129557 -0.28549215 -0.39578575
-0.151104 -0.28550398 -0.39578867
-0.150858 -0.28550899 -0.39575163
-0.15068366 -0.28552201 -0.3957653
-0.15051714 -0.28550985 -0.39574787
-0.15024 -0.28547701 -0.39575967
-0.15004781 -0.28550658 -0.3957372
-0.149939 -0.28547549 -0.39574951
-0.14973901 -0.28549966 -0.3957487
-0.14954901 -0.28551301 -0.39577568
-0.14934301 -0.28552034 -0.39573565
-0.14910574 -0.28550249 -0.39571977
-0.14889272 -0.28549215 -0.3956967
-0.14865649 -0.28548667 -0.39573869
-0.14829966 -0.28551033 -0.39569762
-0.14805101 -0.28552333 -0.39570165
-0.147975 -0.285523 -0.39570335
-0.1477015 -0.28550199 -0.39570701
-0.14742899 -0.28547502 -0.39571032
-0.14728451 -0.28548405 -0.39571819
-0.14713265 -0.28549686 -0.395697
-0.14695567 -0.28549901 -0.39569035
-0.14669566 -0.28550532 -0.39566365
-0.14643401 -0.28552133 -0.39567634
-0.14629062 -0.28551561 -0.39567721
-0.14608639 -0.2854898 -0.39566761
-0.145863 -0.28548035 -0.39566267
-0.1455075 -0.28549698 -0.39565599
-0.14530089 -0.28550732 -0.39566028
-0.14515366 -0.28552198 -0.39563835
-0.14495234 -0.28552601 -0.39562133
-0.144728 -0.285496 -0.39565825
-0.14447321 -0.28548682 -0.39564842
-0.14424975 -0.28549823 -0.39565364
-0.14412914 -0.28548869 -0.39561599
-0.14394166 -0.28550699 -0.39564601
-0.14376067 -0.28551102 -0.39564466
-0.1434945 -0.28549299 -0.39567602
-0.14329341 -0.28551382 -0.39568219
-0.14314038 -0.28547701 -0.39567176
-0.142848 -0.28549302 -0.39570966
-0.14266567 -0.28550398 -0.39571834
-0.14252849 -0.28551483 -0.39572096
-0.14231682 -0.28551835 -0.39573452
-0.142189 -0.285505 -0.39571452
-0.14199634 -0.28547898 -0.39573231
-0.141726 -0.28552097 -0.39579302
-0.1512745 -0.28533649 -0.3957985
-0.151096 -0.28536001 -0.39579701
-0.150847 -0.28533 -0.395785
-0.15067101 -0.28530601 -0.39578867
-0.150483 -0.28532314 -0.39577085
-0.1502295 -0.28529701 -0.39577651
-0.15006234 -0.28527534 -0.39577731
-0.14994851 -0.2852765 -0.39576817
-0.14972568 -0.28528333 -0.39579001
-0.14953667 -0.28529599 -0.39579436
-0.14933033 -0.28530267 -0.39575699
-0.149095 -0.28532216 -0.39574233
-0.14890935 -0.28532767 -0.39574015
-0.14871579 -0.28530639 -0.39575157
-0.148598 -0.285238 -0.39576051
-0.14828683 -0.28529385 -0.39572468
-0.148038 -0.28530699 -0.395735
-0.14796299 -0.28530699 -0.39572299
-0.14768934 -0.28532299 -0.395769
-0.14741799 -0.28529602 -0.395742
-0.14729968 -0.28530049 -0.39575663
-0.1471449 -0.28527898 -0.39572012
-0.14694299 -0.28528333 -0.39572465
-0.14668234 -0.28529033 -0.39570966
-0.146421 -0.2853047 -0.39569965
-0.1462841 -0.28531998 -0.3956992
-0.14612928 -0.2853066 -0.39568156
-0.145852 -0.28530002 -0.39568201
-0.14549567 -0.28527999 -0.39566946
-0.14528936 -0.28529045 -0.39566422
-0.145142 -0.28530535 -0.39563432
-0.14494 -0.28530869 -0.39563632
-0.14471783 -0.28531551 -0.39566517
-0.14456399 -0.28532499 -0.395643
-0.1443025 -0.28530201 -0.39566168
-0.14414001 -0.28527287 -0.39563459
-0.14393033 -0.28528899 -0.39564535
-0.14374833 -0.28529432 -0.39566365
-0.14348499 -0.28531101 -0.39568034
-0.14330617 -0.28532267 -0.39570186
-0.14313716 -0.28530467 -0.39567617
-0.14283668 -0.28527534 -0.39570034
-0.14265366 -0.28528735 -0.395731
-0.142517 -0.28529683 -0.39572832
-0.14229858 -0.28530791 -0.39573729
-0.14217834 -0.28532401 -0.395735
-0.14198649 -0.28529701 -0.395733
-0.1504795 -0.28513402 -0.39578101
-0.15026249 -0.28509375 -0.39579651
-0.150052 -0.28509501 -0.395789
-0.14993849 -0.28509599 -0.39577973
-0.149717 -0.28510201 -0.39578101
-0.14952533 -0.28507933 -0.39579201
-0.14931799 -0.28508601 -0.39577833
-0.14908367 -0.28510484 -0.39574316
-0.14891051 -0.28511167 -0.39576367
-0.148735 -0.28511482 -0.39574015
-0.14858949 -0.28509399 -0.39577699
-0.14835501 -0.28510201 -0.39576298
-0.14811067 -0.28508866 -0.39574537
-0.14795101 -0.28508902 -0.39573166
-0.147678 -0.28510532 -0.39576301
-0.14740734 -0.28511563 -0.39576435
-0.14728934 -0.28511909 -0.39576942
-0.14713566 -0.28509834 -0.39571819
-0.14693299 -0.28510201 -0.395733
-0.1466725 -0.28510901 -0.39570799
-0.146409 -0.285088 -0.39571437
-0.14628078 -0.2850939 -0.39571756
-0.14611399 -0.28511089 -0.39569721
-0.145843 -0.285119 -0.39567265
-0.14551432 -0.28511068 -0.39570034
-0.14528625 -0.28509188 -0.39567727
-0.14513034 -0.28508902 -0.395643
-0.14492799 -0.28509167 -0.39564767
-0.14470616 -0.28509817 -0.39566433
-0.14455099 -0.28510901 -0.39567634
-0.14429267 -0.28511998 -0.39566934
-0.14412333 -0.28510198 -0.39565668
-0.14391799 -0.28507301 -0.39565802
-0.143736 -0.28507733 -0.395679
-0.143473 -0.28509435 -0.39569101
-0.14329451 -0.28510582 -0.39570415
-0.14312822 -0.28512356 -0.39566824
-0.14282751 -0.28509399 -0.39568901
-0.142643 -0.28510702 -0.395751
-0.1425045 -0.28508016 -0.39574799
-0.14228675 -0.28509107 -0.39574686
-0.14216466 -0.28510764 -0.39578065
-0.141977 -0.28511569 -0.39572701
-0.15004399 -0.28495049 -0.39579499
-0.14992079 -0.2849296 -0.39578921
-0.14970851 -0.284958 -0.39579099
-0.14930901 -0.28490499 -0.39577001
-0.14907217 -0.28488746 -0.39574468
-0.1488995 -0.28489432 -0.39575431
-0.14872284 -0.28489766 -0.39575699
-0.14857967 -0.28491268 -0.39578399
-0.14834534 -0.284922 -0.395762
-0.14810126 -0.2849085 -0.39574376
-0.14794099 -0.28490901 -0.39573801
-0.14766866 -0.284888 -0.39572033
-0.14740101 -0.284971 -0.395753
-0.14729963 -0.28489491 -0.39576188
-0.14712521 -0.28491756 -0.39573088
-0.14692301 -0.28492132 -0.39574003
-0.14666332 -0.2849277 -0.39570966
-0.146401 -0.284944 -0.395733
-0.1462819 -0.28487712 -0.39572889
-0.14611526 -0.28490201 -0.39570612
-0.145873 -0.2848835 -0.39568901
-0.14556099 -0.28491402 -0.39571366
-0.14530554 -0.28492048 -0.39569929
-0.14511999 -0.28490651 -0.39565498
-0.14491634 -0.28487468 -0.39566365
-0.14469467 -0.2848812 -0.39567015
-0.14453934 -0.28489101 -0.39567769
-0.14428088 -0.28490335 -0.39567512
-0.14411366 -0.28491977 -0.3956548
-0.1439085 -0.28489202 -0.395666
-0.14372599 -0.28489599 -0.395697
-0.143461 -0.284877 -0.39570701
-0.14328332 -0.28488833 -0.39569882
-0.14311656 -0.28490603 -0.39567435
-0.14281799 -0.28491268 -0.39569235
-0.14263333 -0.28492466 -0.395749
-0.1424945 -0.284899 -0.39575651
-0.142296 -0.28489989 -0.39576149
-0.1421708 -0.284872 -0.39577141
-0.141966 -0.28489831 -0.39572564
-0.14996301 -0.284769 -0.395794
-0.149693 -0.284668 -0.39579701
-0.14930001 -0.2847605 -0.395787
-0.1490615 -0.28470752 -0.39576676
-0.14890286 -0.28466684 -0.39577255
-0.14873701 -0.2846595 -0.39575398
-0.14856866 -0.28469536 -0.39577803
-0.14833467 -0.284704 -0.39574668
-0.14809133 -0.28472716 -0.39575383
-0.14793167 -0.28472701 -0.39573565
-0.1476585 -0.284706 -0.39573997
-0.14729626 -0.28468364 -0.39576423
-0.147113 -0.28470045 -0.3957479
-0.14691199 -0.28470501 -0.39573002
-0.146651 -0.284711 -0.39572501
-0.14630234 -0.28470621 -0.39574346
-0.1461415 -0.28467333 -0.39569381
-0.145905 -0.284684 -0.39569852
-0.145549 -0.28469667 -0.39572397
-0.14529517 -0.28471601 -0.39570105
-0.14513299 -0.28470701 -0.39566624
-0.14490649 -0.28469402 -0.39566201
-0.14468449 -0.28470024 -0.39567947
-0.14452767 -0.28467432 -0.39568934
-0.14429 -0.28469443 -0.3956756
-0.14411944 -0.28469491 -0.39566746
-0.14389867 -0.284711 -0.39566597
-0.14371634 -0.28471601 -0.39569902
-0.1434505 -0.284697 -0.39571798
-0.1432668 -0.2846868 -0.39571381
-0.14310499 -0.2846888 -0.39567333
-0.14280599 -0.28469601 -0.39571097
-0.14262199 -0.28470799 -0.39575633
-0.14248434 -0.28471783 -0.39576781
-0.14228375 -0.28471699 -0.39577451
-0.14216599 -0.28470448 -0.39578098
-0.14195333 -0.28468099 -0.395749
-0.14911 -0.28452432 -0.39578304
-0.14889599 -0.28451452 -0.39578199
-0.14870074 -0.28450102 -0.39577174
-0.14856 -0.28455001 -0.39579001
-0.14832199 -0.28448799 -0.39576936
-0.148165 -0.28450933 -0.39574766
-0.147957 -0.284511 -0.39576301
-0.14764801 -0.28452599 -0.39575768
-0.14728712 -0.28450274 -0.39575934
-0.147102 -0.28448355 -0.39574134
-0.1469 -0.28448769 -0.39574298
-0.14663868 -0.28449431 -0.39573967
-0.14629801 -0.28452045 -0.39574099
-0.14615366 -0.28448999 -0.39571914
-0.1458945 -0.28450298 -0.39572152
-0.14553766 -0.28447935 -0.39572799
-0.14530355 -0.28449044 -0.39570203
-0.14514516 -0.28450534 -0.39568648
-0.14489667 -0.28451201 -0.3956717
-0.14467533 -0.28451899 -0.39567748
-0.144519 -0.28449249 -0.39567149
-0.14429376 -0.28450149 -0.395693
-0.14411433 -0.28448352 -0.39567935
-0.14388634 -0.28449365 -0.39568266
-0.14370434 -0.28449866 -0.39571103
-0.14344101 -0.28451499 -0.39571369
-0.1432672 -0.28451079 -0.395722
-0.14308572 -0.28449243 -0.39568657
-0.14270201 -0.284484 -0.39573869
-0.14246181 -0.28448719 -0.39579159
-0.14227977 -0.28450903 -0.39578137
-0.14214575 -0.28454375 -0.39578873
-0.14194301 -0.2845 -0.39576101
-0.14909799 -0.284307 -0.39578533
-0.14883 -0.28438801 -0.395785
-0.14867634 -0.28436968 -0.39577666
-0.14854699 -0.28429699 -0.39579803
-0.1483115 -0.284307 -0.39578998
-0.14815301 -0.28429267 -0.39576301
-0.1479445 -0.28429431 -0.39578101
-0.147636 -0.28431001 -0.39577901
-0.1472929 -0.2843281 -0.39576292
-0.14711912 -0.28429899 -0.3957465
-0.14689049 -0.28430599 -0.3957395
-0.14662801 -0.28427732 -0.39572933
-0.14629677 -0.28429455 -0.39574745
-0.14614388 -0.28430888 -0.39572689
-0.14592876 -0.28433999 -0.39572552
-0.145797 -0.28428701 -0.39572948
-0.145528 -0.284298 -0.39573002
-0.14529251 -0.28428286 -0.39571199
-0.14513333 -0.28428802 -0.39568901
-0.14488466 -0.28429499 -0.39568171
-0.144664 -0.284302 -0.39567181
-0.144509 -0.28431168 -0.395679
-0.144284 -0.28432083 -0.39569953
-0.14410451 -0.2843025 -0.39568835
-0.14387535 -0.28427601 -0.39567867
-0.14369267 -0.28428134 -0.39571634
-0.143429 -0.28429767 -0.39572835
-0.14325102 -0.284309 -0.39573348
-0.14309087 -0.2843169 -0.39571324
-0.14272366 -0.28431201 -0.39573133
-0.14249513 -0.28427136 -0.39576975
-0.14226913 -0.28430063 -0.39578488
-0.14214516 -0.28430519 -0.39577785
-0.14193299 -0.28431901 -0.39578101
-0.149088 -0.284127 -0.39579749
-0.14881 -0.284026 -0.39579499
-0.148734 -0.28413299 -0.39579499
-0.148304 -0.28416198 -0.39579099
-0.14814001 -0.28407535 -0.39579034
-0.14789499 -0.28407633 -0.39579168
-0.147624 -0.28409266 -0.39578465
-0.14729112 -0.2841031 -0.39576533
-0.14710933 -0.28411826 -0.39575398
-0.14688067 -0.284125 -0.39575002
-0.1466175 -0.28409499 -0.39574748
-0.14628534 -0.28407723 -0.39574689
-0.14613201 -0.28409177 -0.39573488
-0.14595801 -0.28410432 -0.39574099
-0.14578867 -0.28410566 -0.39570534
-0.14551766 -0.284118 -0.39574733
-0.145282 -0.284107 -0.39571828
-0.14511201 -0.28408599 -0.39570841
-0.14487299 -0.284078 -0.39568701
-0.1446525 -0.28408432 -0.39568129
-0.14449599 -0.28409433 -0.395702
-0.14427216 -0.28410351 -0.39570665
-0.14409375 -0.28412142 -0.39570943
-0.143865 -0.28409499 -0.39570001
-0.143683 -0.28409901 -0.39571801
-0.14341666 -0.28408101 -0.39575031
-0.14323933 -0.28409168 -0.39573649
-0.14307278 -0.28410923 -0.39571422
-0.14277433 -0.284116 -0.39572564
-0.14249721 -0.28410584 -0.39578018
-0.14226151 -0.28414649 -0.39579701
-0.14212939 -0.28410283 -0.3957912
-0.14192399 -0.28417501 -0.395794
-0.149073 -0.28383699 -0.39579651
-0.14880601 -0.28395399 -0.39579701
-0.148288 -0.28387201 -0.395796
-0.14813051 -0.2838935 -0.39579099
-0.14788499 -0.28389502 -0.39579099
-0.14761199 -0.28387466 -0.39578798
-0.14727944 -0.28388542 -0.39577088
-0.14709724 -0.28390148 -0.39576697
-0.14686833 -0.28390834 -0.39576831
-0.14660867 -0.28391501 -0.39573598
-0.146276 -0.28389701 -0.39574614
-0.14611575 -0.28388453 -0.39572287
-0.14594732 -0.28388736 -0.395735
-0.14577633 -0.28388867 -0.39571568
-0.145505 -0.2839013 -0.3957727
-0.14527167 -0.28391159 -0.39572978
-0.1451212 -0.28391117 -0.39572603
-0.14486301 -0.283898 -0.39570302
-0.14465666 -0.283916 -0.39569533
-0.1445125 -0.28387475 -0.39571676
-0.14429025 -0.28390226 -0.39572698
-0.14410655 -0.28390175 -0.39571488
-0.14389074 -0.283894 -0.39570799
-0.14367367 -0.28391835 -0.39571235
-0.14340749 -0.28389901 -0.39574599
-0.1432305 -0.28391051 -0.3957265
-0.14308366 -0.28388998 -0.39571133
-0.14299899 -0.28382099 -0.395717
-0.142763 -0.28389767 -0.39571765
-0.14257801 -0.28391001 -0.395789
-0.14239199 -0.283851 -0.39579499
-0.14209899 -0.28387401 -0.39579332
-0.149066 -0.283692 -0.39579302
-0.1487045 -0.28368351 -0.39579052
-0.14851101 -0.283609 -0.39579701
-0.14812066 -0.283714 -0.39579701
-0.14787599 -0.28371501 -0.39578435
-0.1476025 -0.283694 -0.39578998
-0.14726983 -0.28370535 -0.39577281
-0.14708601 -0.28368425 -0.39576307
-0.14685701 -0.28369099 -0.39577031
-0.14659667 -0.28369701 -0.3957487
-0.14626598 -0.28371477 -0.39574921
-0.146118 -0.28370804 -0.39573899
-0.1459375 -0.28370601 -0.39573699
-0.14576751 -0.28370702 -0.39570251
-0.145493 -0.28368333 -0.39577934
-0.14526725 -0.28370276 -0.39574438
-0.14511457 -0.28369698 -0.39573956
-0.144853 -0.28371665 -0.39571035
-0.14467333 -0.28372201 -0.39571467
-0.14454301 -0.2837128 -0.39573121
-0.14430949 -0.28369999 -0.39572299
-0.14411999 -0.28368276 -0.39572445
-0.14391734 -0.28369334 -0.39570498
-0.14366199 -0.283701 -0.39571834
-0.143402 -0.28378901 -0.39573601
-0.1433064 -0.2837078 -0.39571756
-0.14310928 -0.28369042 -0.39570919
-0.14299233 -0.28367636 -0.39570367
-0.14275199 -0.28368101 -0.39571035
-0.14251649 -0.28362399 -0.39579701
-0.14231351 -0.28369987 -0.39578229
-0.142178 -0.28363901 -0.39579901
-0.14189699 -0.283665 -0.395798
-0.149056 -0.28351036 -0.395794
-0.14886667 -0.28351903 -0.39579034
-0.1487522 -0.28353301 -0.39578497
-0.148507 -0.283537 -0.39579499
-0.148111 -0.28353199 -0.39579701
-0.14786801 -0.28356901 -0.39579701
-0.147595 -0.2835485 -0.39578801
-0.14726725 -0.28353277 -0.39578551
-0.14709342 -0.28350672 -0.39577755
-0.146883 -0.28347251 -0.39576972
-0.146585 -0.28347999 -0.39574996
-0.14628534 -0.28349617 -0.39573619
-0.14612526 -0.28350914 -0.39572212
-0.14592734 -0.28352499 -0.39575496
-0.14575899 -0.283526 -0.39568302
-0.14548451 -0.28350201 -0.395771
-0.14527701 -0.28347483 -0.39573535
-0.14512344 -0.28348801 -0.39573312
-0.14484234 -0.28349897 -0.39569297
-0.14466266 -0.28350469 -0.39570436
-0.14452067 -0.28351066 -0.39573482
-0.144301 -0.283519 -0.39570832
-0.1441105 -0.28350139 -0.39572427
-0.14389178 -0.2834914 -0.395711
-0.14365034 -0.28348267 -0.395722
-0.14331001 -0.28350383 -0.39573446
-0.14311613 -0.28351402 -0.39571661
-0.14298201 -0.28349501 -0.39571702
-0.14274201 -0.28350002 -0.395726
-0.14250983 -0.28347918 -0.39578769
-0.14229344 -0.28349122 -0.39578378
-0.14213151 -0.28351066 -0.39579177
-0.14189033 -0.28352001 -0.39578965
-0.14904499 -0.28329399 -0.39578867
-0.14888379 -0.28328639 -0.39579019
-0.14877333 -0.28330335 -0.39577532
-0.1480965 -0.28324249 -0.395787
-0.14784899 -0.283207 -0.39579999
-0.14758167 -0.28329632 -0.395794
-0.14727767 -0.28330615 -0.39577064
-0.14706549 -0.28332365 -0.39576018
-0.14692821 -0.28331262 -0.39576238
-0.146576 -0.28329903 -0.39574248
-0.14627366 -0.2832785 -0.39574167
-0.14611392 -0.28329217 -0.39571869
-0.145916 -0.28330669 -0.39574835
-0.14574599 -0.28330866 -0.39570966
-0.14547567 -0.28332099 -0.39574537
-0.1452675 -0.28329349 -0.39573276
-0.14510214 -0.28329188 -0.39571771
-0.144831 -0.283281 -0.39568532
-0.14465167 -0.28328666 -0.39569297
-0.14451049 -0.28329334 -0.39571401
-0.144289 -0.28330201 -0.395717
-0.14410117 -0.28331965 -0.39571729
-0.1439112 -0.28331518 -0.39572418
-0.143641 -0.28330201 -0.3957195
-0.14329833 -0.28328684 -0.39573869
-0.14309733 -0.28330645 -0.39572343
-0.14297234 -0.28331432 -0.39572898
-0.14273199 -0.28331831 -0.39572564
-0.14250199 -0.28329748 -0.39575249
-0.14227287 -0.28328335 -0.39577824
-0.142129 -0.28328216 -0.3957895
-0.14187968 -0.28330266 -0.39577433
-0.149033 -0.28307599 -0.39579335
-0.14888 -0.28308252 -0.39578918
-0.14872034 -0.28308433 -0.39578381
-0.14848199 -0.28306699 -0.39579302
-0.14808899 -0.283099 -0.39577699
-0.147879 -0.28306401 -0.39579499
-0.14757067 -0.28307834 -0.39578736
-0.14726599 -0.28308883 -0.39577451
-0.14710559 -0.28309983 -0.39577326
-0.1469025 -0.28311014 -0.39575633
-0.14656599 -0.28311801 -0.395744
-0.146264 -0.28309825 -0.395749
-0.14609329 -0.28309113 -0.39573991
-0.145904 -0.28309 -0.39575401
-0.14573433 -0.28309134 -0.39572063
-0.14546466 -0.28310299 -0.39573732
-0.14525849 -0.28311315 -0.39572784
-0.14511412 -0.28311527 -0.39572537
-0.1448205 -0.28310049 -0.39570451
-0.144641 -0.283106 -0.395711
-0.14448841 -0.2830908 -0.39571241
-0.14427768 -0.28308401 -0.39571369
-0.14408967 -0.28310251 -0.39572057
-0.14388616 -0.28311369 -0.39571765
-0.14363167 -0.28312135 -0.39571568
-0.14328875 -0.28310451 -0.39573777
-0.1430859 -0.28308809 -0.39572167
-0.14296067 -0.28309667 -0.39573097
-0.14272 -0.28310099 -0.39574432
-0.14249285 -0.28311566 -0.39573863
-0.14229934 -0.28311533 -0.39576921
-0.14211087 -0.28307742 -0.39578214
-0.141868 -0.28308466 -0.39578199
-0.14902401 -0.28289503 -0.39578
-0.1488345 -0.282904 -0.39578599
-0.14871201 -0.28294 -0.39579701
-0.14851734 -0.28288168 -0.39578617
-0.148233 -0.282821 -0.395798
-0.14807899 -0.28291699 -0.39578769
-0.147865 -0.2829324 -0.39578763
-0.14756149 -0.2828975 -0.395776
-0.1472486 -0.28288659 -0.39576861
-0.14709492 -0.2828823 -0.39575949
-0.146892 -0.28289267 -0.39574
-0.14655434 -0.28290033 -0.395751
-0.14625449 -0.28291652 -0.39574334
-0.14610188 -0.28291449 -0.39575142
-0.14589334 -0.28287268 -0.39573801
-0.145723 -0.28287432 -0.39571932
-0.14545333 -0.28288531 -0.39574131
-0.1452475 -0.28289533 -0.39571729
-0.14509311 -0.28290802 -0.39572281
-0.14481133 -0.28291899 -0.39570367
-0.14463133 -0.282924 -0.39571634
-0.1445016 -0.28291461 -0.39571458
-0.14426801 -0.282902 -0.3957065
-0.14408609 -0.28289127 -0.39570844
-0.1439085 -0.282895 -0.39571068
-0.14366475 -0.28288424 -0.39570826
-0.14329621 -0.2829372 -0.3957234
-0.14308055 -0.28287834 -0.39571521
-0.14295034 -0.28287867 -0.39570367
-0.14271002 -0.28288233 -0.39570799
-0.14248 -0.28289816 -0.39577034
-0.14229865 -0.28291014 -0.395769
-0.14212573 -0.28291175 -0.39577836
-0.141857 -0.282904 -0.3957985
-0.14158601 -0.282873 -0.39579901
-0.149014 -0.28271401 -0.39578637
-0.148829 -0.28279501 -0.39578599
-0.14870819 -0.28270799 -0.39579517
-0.14850751 -0.28270048 -0.39578974
-0.14822534 -0.28267732 -0.39579299
-0.14806734 -0.28269967 -0.39579299
-0.14782234 -0.28270066 -0.39578936
-0.14755201 -0.28271601 -0.39577734
-0.1472532 -0.28271219 -0.39576781
-0.14707667 -0.2826902 -0.395751
-0.146896 -0.28268939 -0.39574379
-0.1468 -0.28260401 -0.39575499
-0.14654432 -0.2826837 -0.39572701
-0.14624417 -0.28269917 -0.39572367
-0.14608331 -0.28271291 -0.3957254
-0.14588499 -0.282691 -0.39572299
-0.14571351 -0.282693 -0.395711
-0.145445 -0.282704 -0.39571398
-0.14524341 -0.28269202 -0.39571759
-0.14510468 -0.28268799 -0.39571297
-0.14486735 -0.28269997 -0.39569333
-0.14466426 -0.28268799 -0.39570975
-0.14448032 -0.2827135 -0.39570796
-0.14425801 -0.28272131 -0.3957223
-0.14409433 -0.28270099 -0.3957105
-0.14396501 -0.28267565 -0.39569381
-0.14369933 -0.282684 -0.39570984
-0.14334567 -0.28270301 -0.39571866
-0.14311199 -0.28270608 -0.39570779
-0.142941 -0.28269801 -0.39570498
-0.14270049 -0.282702 -0.39570951
-0.14246982 -0.28268051 -0.39574334
-0.14228767 -0.28269282 -0.39576468
-0.14210881 -0.28270224 -0.3957684
-0.14184834 -0.28272232 -0.39579234
-0.148809 -0.282433 -0.39579901
-0.14868951 -0.28250465 -0.39578986
-0.14845 -0.282451 -0.395789
-0.14821699 -0.28249601 -0.39578003
-0.14805667 -0.282482 -0.39577469
-0.1478495 -0.28248367 -0.39578283
-0.14754033 -0.28249869 -0.39577734
-0.14724419 -0.28252381 -0.39575237
-0.14710091 -0.28251091 -0.39575803
-0.14696367 -0.28248069 -0.39572799
-0.146795 -0.28249499 -0.395744
-0.14653501 -0.282502 -0.39572102
-0.14627133 -0.28248101 -0.39572465
-0.14609654 -0.28249198 -0.39572057
-0.14587533 -0.28251037 -0.39572266
-0.145704 -0.282511 -0.39571369
-0.14543533 -0.28252399 -0.39571401
-0.14526001 -0.28249699 -0.39570451
-0.14513186 -0.28248829 -0.39570472
-0.14499034 -0.28248167 -0.39569631
-0.14469899 -0.28248733 -0.39569783
-0.14446934 -0.28249586 -0.39569601
-0.14424734 -0.28250399 -0.39570734
-0.14408411 -0.28252 -0.39572823
-0.14395475 -0.28249449 -0.3957105
-0.143721 -0.28251433 -0.39570132
-0.14359701 -0.282469 -0.39572099
-0.143334 -0.28248569 -0.39572132
-0.14310642 -0.28251022 -0.39570451
-0.14295681 -0.28250179 -0.39569339
-0.14269067 -0.28252068 -0.39572099
-0.14246026 -0.28249902 -0.3957395
-0.14226881 -0.282491 -0.3957518
-0.14209716 -0.28248438 -0.39576969
-0.14183767 -0.28250435 -0.39576864
-0.141571 -0.282583 -0.39579999
-0.149169 -0.28226501 -0.395789
-0.14888425 -0.2822665 -0.39579701
-0.148669 -0.28227299 -0.3957946
-0.14846349 -0.28228602 -0.39578974
-0.14820701 -0.282316 -0.39578566
-0.148048 -0.28230101 -0.39576399
-0.14784151 -0.28233901 -0.39579052
-0.1478 -0.282267 -0.395776
-0.14752901 -0.28228199 -0.39577898
-0.14725967 -0.28229132 -0.39575031
-0.14711493 -0.28229901 -0.39575839
-0.146964 -0.28231218 -0.39572403
-0.14678599 -0.28231499 -0.39574301
-0.146525 -0.28232199 -0.39572367
-0.14626199 -0.28230101 -0.39572799
-0.146099 -0.2822893 -0.39572409
-0.14592867 -0.282289 -0.39571133
-0.145694 -0.28229499 -0.39569402
-0.14542401 -0.28230667 -0.39571333
-0.14525133 -0.282316 -0.39568734
-0.14513788 -0.28231224 -0.39569238
-0.14498201 -0.2823 -0.395677
-0.14472 -0.28231734 -0.39569768
-0.1445092 -0.28229004 -0.39569759
-0.1443008 -0.282271 -0.39571875
-0.14407301 -0.28230298 -0.39572307
-0.14394532 -0.2823135 -0.39570916
-0.14377233 -0.28231966 -0.39567968
-0.14358933 -0.28232369 -0.39571869
-0.14332551 -0.28230399 -0.395704
-0.14310677 -0.28228366 -0.39570212
-0.14295284 -0.282298 -0.39568803
-0.14267966 -0.28230301 -0.39570668
-0.14245166 -0.28231862 -0.395726
-0.142277 -0.2823154 -0.39575782
-0.14207944 -0.28229254 -0.39576676
-0.14182733 -0.282287 -0.39574668
-0.141552 -0.28222001 -0.39579901
-0.1491605 -0.28211901 -0.3957935
-0.14892375 -0.28210175 -0.39578375
-0.14872234 -0.28208351 -0.39578414
-0.14847501 -0.28208515 -0.39579165
-0.14811666 -0.28210935 -0.39577749
-0.147792 -0.28212166 -0.39578667
-0.14751899 -0.28209999 -0.39578399
-0.14724766 -0.282074 -0.39576232
-0.14710367 -0.28208134 -0.39575574
-0.14695217 -0.28209469 -0.3957293
-0.14677399 -0.28209701 -0.39574966
-0.146513 -0.28210402 -0.39573833
-0.14625101 -0.28211901 -0.39574599
-0.146109 -0.2821126 -0.39572519
-0.14590558 -0.28208721 -0.39570421
-0.14568366 -0.282078 -0.39566135
-0.14541233 -0.28208899 -0.39571562
-0.14524032 -0.28209901 -0.39568436
-0.1451202 -0.28210458 -0.39569086
-0.14497267 -0.28211901 -0.39567432
-0.14477001 -0.28212234 -0.39569068
-0.14455679 -0.28211397 -0.39568239
-0.144309 -0.28210425 -0.39570451
-0.14406267 -0.28208566 -0.3956992
-0.14393567 -0.28209636 -0.3956767
-0.14376067 -0.28210267 -0.39568198
-0.14357933 -0.28210637 -0.39568666
-0.14331533 -0.28212333 -0.39570999
-0.14308557 -0.28208929 -0.39570242
-0.14294167 -0.28208113 -0.39567831
-0.14266801 -0.28208566 -0.39571401
-0.14248601 -0.28209731 -0.39571968
-0.1423029 -0.28210965 -0.39574945
-0.14208438 -0.28211403 -0.39576063
-0.14181751 -0.28210601 -0.395753
-0.141541 -0.282002 -0.39579201
-0.14914934 -0.28190234 -0.39579299
-0.14894474 -0.28193825 -0.39577699
-0.14870037 -0.28191712 -0.39578202
-0.14844966 -0.28189299 -0.39579299
-0.14810501 -0.28189167 -0.3957825
-0.14785451 -0.28186852 -0.39579099
-0.14778034 -0.28190434 -0.39579234
-0.14750899 -0.28191999 -0.395798
-0.147237 -0.281894 -0.395778
-0.14708443 -0.28188989 -0.39576304
-0.1469395 -0.28187767 -0.3957465
-0.14676134 -0.28188035 -0.39577067
-0.14650166 -0.28188732 -0.39573634
-0.14624 -0.28190234 -0.39573899
-0.14608891 -0.28191158 -0.39572451
-0.1459226 -0.28191158 -0.39569822
-0.14567301 -0.281896 -0.395684
-0.1454035 -0.28190851 -0.39569801
-0.145228 -0.28188166 -0.395695
-0.14510888 -0.28188777 -0.39568734
-0.14496233 -0.28190199 -0.39565101
-0.144759 -0.28190467 -0.39568198
-0.14453751 -0.28191116 -0.39568415
-0.14430083 -0.28192267 -0.39567566
-0.14404759 -0.2818903 -0.39567086
-0.14392467 -0.28187832 -0.39566168
-0.14375067 -0.28188536 -0.39565265
-0.14356934 -0.28188968 -0.39566335
-0.14330466 -0.28190634 -0.39568999
-0.14309725 -0.28191188 -0.39569879
-0.14293225 -0.281901 -0.39567399
-0.1426585 -0.281905 -0.39571601
-0.142474 -0.28187999 -0.39573166
-0.14230363 -0.28190076 -0.39573836
-0.142092 -0.28190228 -0.39575768
-0.14188281 -0.2819072 -0.3957572
-0.14149076 -0.28189701 -0.39578071
-0.14971501 -0.28165901 -0.39578801
-0.14914 -0.28172201 -0.39579499
-0.148903 -0.28170452 -0.39578119
-0.14868991 -0.28170943 -0.39577055
-0.14845617 -0.28172353 -0.39578518
-0.14807861 -0.281692 -0.39578021
-0.147845 -0.281688 -0.39577833
-0.14777 -0.28168765 -0.39576766
-0.14749832 -0.28170267 -0.39578232
-0.14722867 -0.28171232 -0.39576232
-0.14709054 -0.28171179 -0.3957752
-0.14692999 -0.28169677 -0.39574975
-0.146752 -0.281699 -0.39576751
-0.146493 -0.28170601 -0.39572501
-0.146229 -0.28168431 -0.39573503
-0.14607735 -0.28169453 -0.39572534
-0.145899 -0.28170967 -0.3956975
-0.14566301 -0.2817153 -0.39569131
-0.1453238 -0.28171659 -0.39569658
-0.14509085 -0.28169197 -0.39568713
-0.14495035 -0.28168467 -0.39565966
-0.14474766 -0.281688 -0.39567867
-0.14452699 -0.28169468 -0.39566699
-0.14429 -0.28170618 -0.39566031
-0.14405786 -0.28172243 -0.39565641
-0.14393321 -0.28169078 -0.39564019
-0.143741 -0.28170499 -0.39566398
-0.14355999 -0.28170902 -0.39565098
-0.14329301 -0.281688 -0.39570269
-0.14308661 -0.28171214 -0.39569864
-0.14293371 -0.28170788 -0.39567071
-0.14264967 -0.28172299 -0.395702
-0.142465 -0.28169799 -0.39571899
-0.14231701 -0.28168681 -0.39573681
-0.14210708 -0.28168243 -0.39575055
-0.14198799 -0.281699 -0.39571735
-0.14179599 -0.28170666 -0.39575997
-0.14148133 -0.28171533 -0.39577666
-0.150646 -0.281533 -0.39579999
-0.14985999 -0.281441 -0.395796
-0.14974999 -0.2815145 -0.39577699
-0.14889099 -0.28148684 -0.39578763
-0.148702 -0.28150272 -0.39578485
-0.148495 -0.28150126 -0.39577183
-0.148398 -0.28143799 -0.39575699
-0.1481012 -0.28151378 -0.39577723
-0.147836 -0.281506 -0.39577299
-0.147761 -0.281506 -0.39575401
-0.147488 -0.28148532 -0.39575434
-0.14721733 -0.281495 -0.39575502
-0.14709868 -0.28149867 -0.39577159
-0.14694601 -0.28151402 -0.3957372
-0.14674266 -0.28151765 -0.39576566
-0.14648333 -0.28152469 -0.39572033
-0.14622 -0.28150401 -0.395724
-0.14608425 -0.28148338 -0.39571911
-0.14592376 -0.28149089 -0.39569414
-0.14565234 -0.281499 -0.39568198
-0.14529634 -0.28151485 -0.39568701
-0.1450965 -0.28151548 -0.39568326
-0.14494151 -0.28150401 -0.39565
-0.144738 -0.28150702 -0.39567
-0.14451583 -0.28147748 -0.39566317
-0.144361 -0.28148699 -0.39565766
-0.14410254 -0.28149927 -0.3956567
-0.14393532 -0.28151599 -0.39563954
-0.14373201 -0.28152332 -0.39564335
-0.14355099 -0.28152701 -0.39564201
-0.1432835 -0.28150651 -0.39569899
-0.1431035 -0.28148216 -0.39570847
-0.14293711 -0.28149977 -0.39567646
-0.14263834 -0.28150633 -0.39569536
-0.14245532 -0.28151736 -0.3957223
-0.14232621 -0.28151178 -0.395735
-0.14209762 -0.28150088 -0.39574948
-0.14197534 -0.28148067 -0.39574835
-0.14178433 -0.28148934 -0.39576665
-0.14148633 -0.28154501 -0.39579499
-0.150279 -0.281335 -0.39579099
-0.14985266 -0.2812967 -0.39577803
-0.14973818 -0.28129685 -0.39578819
-0.14951199 -0.28123 -0.395794
-0.14888175 -0.28130499 -0.39578074
-0.14869919 -0.28126159 -0.39577419
-0.14853235 -0.28127918 -0.39575601
-0.14839101 -0.281293 -0.39575267
-0.14815567 -0.28130201 -0.39574265
-0.14791232 -0.28132483 -0.39575052
-0.147753 -0.28132501 -0.39572832
-0.1474795 -0.281304 -0.39573503
-0.14720666 -0.28127864 -0.39574566
-0.14708832 -0.28128213 -0.39575002
-0.14693476 -0.28129756 -0.39573157
-0.146732 -0.28130135 -0.39574599
-0.14647233 -0.28130832 -0.39571297
-0.14621 -0.28132334 -0.39573765
-0.14608885 -0.28130826 -0.39571446
-0.1458993 -0.28129527 -0.39568672
-0.145641 -0.28128168 -0.39568266
-0.14532951 -0.28131375 -0.39568526
-0.14510027 -0.2813009 -0.39567873
-0.144932 -0.28132367 -0.39564231
-0.14472933 -0.28132603 -0.39565933
-0.14450699 -0.28129548 -0.39565176
-0.1443525 -0.281306 -0.39563549
-0.14409155 -0.28128156 -0.39564398
-0.14392389 -0.28129834 -0.39563596
-0.143721 -0.28130567 -0.39563933
-0.14354001 -0.28130999 -0.39563331
-0.14327434 -0.28132632 -0.39569333
-0.14309451 -0.28130102 -0.3956975
-0.14292577 -0.28128278 -0.3956691
-0.14262734 -0.28128865 -0.39568469
-0.142444 -0.28129968 -0.39571902
-0.14230616 -0.28130963 -0.39573917
-0.14208792 -0.2813201 -0.39575124
-0.141965 -0.28130001 -0.39576501
-0.14177451 -0.281308 -0.39577901
-0.14146619 -0.2812652 -0.3957864
-0.150867 -0.281019 -0.39578801
-0.15062 -0.28102601 -0.39578399
-0.15032239 -0.281102 -0.39577198
-0.150006 -0.28106499 -0.39578399
-0.14984167 -0.28107932 -0.39577499
-0.14972751 -0.28108034 -0.3957735
-0.14950533 -0.28108633 -0.39578167
-0.14931551 -0.28106302 -0.39575899
