# .PCD v0.7 - Point Cloud Data file format
VERSION 0.7
FIELDS x y z
SIZE 4 4 4
TYPE F F F
COUNT 1 1 1
WIDTH 1425
HEIGHT 1
VIEWPOINT 0 0 0 1 0 0 0
POINTS 1425
DATA ascii
-0.13028322 0.15871955 -0.22741455
-0.13009167 0.15871784 -0.22741099
-0.12991314 0.15870343 -0.22741513
-0.1270792 0.15865199 -0.22741461
-0.12689525 0.15867513 -0.22742675
-0.1266765 0.15867484 -0.22742867
-0.12648875 0.15870325 -0.22744474
-0.126349 0.15869701 -0.227442
-0.12609133 0.15872499 -0.22749667
-0.12584268 0.15871334 -0.22754566
-0.12569016 0.15870984 -0.22755916
-0.12555701 0.15863299 -0.22759999
-0.136949 0.158987 -0.22759999
-0.136261 0.15888433 -0.22759032
-0.13611163 0.15888387 -0.22758187
-0.13597551 0.15886976 -0.22758199
-0.13566433 0.158923 -0.22757666
-0.13549201 0.158913 -0.22756334
-0.13530643 0.15890431 -0.22755922
-0.13502668 0.15888667 -0.22751467
-0.13482367 0.158879 -0.22753066
-0.13468982 0.15887167 -0.22752815
-0.13450661 0.1589198 -0.2275428
-0.13434251 0.15892383 -0.22751482
-0.134115 0.15891251 -0.22749935
-0.13387133 0.15890099 -0.22752534
-0.13364799 0.15888433 -0.22748967
-0.13347134 0.15887718 -0.22749384
-0.13327751 0.15890226 -0.22747776
-0.13309219 0.15891561 -0.22746949
-0.13288754 0.15891834 -0.22748655
-0.13267633 0.15890583 -0.22747783
-0.13255 0.158902 -0.22746499
-0.132358 0.15889399 -0.22742999
-0.13206013 0.15886775 -0.227441
-0.1319216 0.15890941 -0.22744279
-0.131771 0.158896 -0.22742251
-0.13150823 0.15892278 -0.22742933
-0.13126433 0.15890567 -0.227412
-0.13110769 0.15889758 -0.22743559
-0.13082398 0.15888299 -0.22741966
-0.13063133 0.15887767 -0.22742265
-0.13051 0.15888441 -0.22742438
-0.13029221 0.15888861 -0.22741179
-0.13014513 0.15893 -0.22741699
-0.12994049 0.1588825 -0.22741365
-0.1268997 0.15889415 -0.22741659
-0.12669767 0.15888683 -0.22741766
-0.12648283 0.15887767 -0.22743
-0.126343 0.15887134 -0.22743233
-0.12608451 0.15890101 -0.227494
-0.125834 0.15892567 -0.22755468
-0.12568249 0.15891968 -0.22754501
-0.125545 0.15894949 -0.227589
-0.136531 0.15903699 -0.22759999
-0.13625233 0.159095 -0.22759199
-0.13609369 0.15909131 -0.22757988
-0.1359129 0.15907556 -0.227585
-0.13565749 0.159098 -0.22757399
-0.135484 0.15912299 -0.22756965
-0.13529877 0.159114 -0.2275469
-0.13501801 0.159098 -0.22752301
-0.13481401 0.15909033 -0.22755601
-0.13468082 0.15908217 -0.22753783
-0.13451901 0.1590876 -0.22752079
-0.13433525 0.15909876 -0.22752351
-0.13410683 0.15912251 -0.22749914
-0.13386434 0.15910934 -0.22750632
-0.13368566 0.159098 -0.22747467
-0.13350822 0.159087 -0.22746944
-0.13327084 0.15907766 -0.22747868
-0.13310578 0.1590859 -0.2274857
-0.13289516 0.15910535 -0.22746684
-0.13270125 0.15912588 -0.22746463
-0.13254267 0.15911134 -0.22745132
-0.13234933 0.159106 -0.22744
-0.13207115 0.15908749 -0.22743116
-0.13192822 0.15907878 -0.22744411
-0.13171966 0.159071 -0.22741748
-0.13154474 0.15909976 -0.22743025
-0.131228 0.15911467 -0.22742169
-0.13109982 0.15910767 -0.22742659
-0.130816 0.15909301 -0.22742333
-0.13048621 0.15906541 -0.22741921
-0.1301475 0.159097 -0.22740901
-0.12992567 0.15911567 -0.22740966
-0.1269014 0.1590914 -0.22742501
-0.12673333 0.15912217 -0.22740383
-0.12647517 0.15908684 -0.22740966
-0.12633432 0.15908334 -0.22744334
-0.12607899 0.15907466 -0.22746867
-0.125828 0.1591 -0.2275425
-0.12567624 0.1590955 -0.22753775
-0.12553866 0.159126 -0.227588
-0.13624533 0.15930401 -0.227569
-0.13610074 0.15929592 -0.22757892
-0.13590489 0.15928611 -0.22758
-0.13565034 0.15927432 -0.22758567
-0.1354775 0.159299 -0.227566
-0.13529034 0.15932445 -0.22755456
-0.13500901 0.15930867 -0.22754101
-0.13480566 0.159301 -0.22755234
-0.13467233 0.15929367 -0.227543
-0.13450217 0.15928318 -0.22752917
-0.13432966 0.15927334 -0.22750418
-0.1340892 0.1593174 -0.2274942
-0.13385667 0.15931867 -0.22749467
-0.13367701 0.159308 -0.22748099
-0.13350001 0.15929678 -0.22746843
-0.13326399 0.15928601 -0.22745098
-0.13308859 0.15928017 -0.22746773
-0.1329228 0.159284 -0.22745481
-0.13269463 0.15931749 -0.22744462
-0.13253467 0.159321 -0.22744299
-0.13234167 0.159316 -0.22742967
-0.13206349 0.15929733 -0.22742234
-0.13192099 0.15928745 -0.22742955
-0.13169025 0.15926324 -0.22741501
-0.1315095 0.15927249 -0.22741316
-0.13130499 0.15929401 -0.22740501
-0.13106667 0.15931499 -0.22740944
-0.13080949 0.1592675 -0.227412
-0.13052851 0.159327 -0.22740149
-0.13012725 0.15928824 -0.22740474
-0.12686633 0.15931468 -0.22741467
-0.12676251 0.15929475 -0.2274105
-0.12641834 0.15929699 -0.227428
-0.12632599 0.15929401 -0.22744733
-0.12606966 0.15928733 -0.22749431
-0.12582099 0.15927635 -0.22753465
-0.12566949 0.15927051 -0.22753018
-0.125532 0.159301 -0.2275825
-0.13708566 0.15955733 -0.22759867
-0.136511 0.15956101 -0.2275885
-0.13623701 0.159514 -0.22757535
-0.13609292 0.15950575 -0.22757442
-0.13589667 0.15949577 -0.22757943
-0.13564266 0.15948367 -0.22757466
-0.13547067 0.159473 -0.22756
-0.13530061 0.1594926 -0.22754601
-0.1351005 0.1595235 -0.22754151
-0.13499799 0.15958799 -0.227534
-0.1347091 0.15950556 -0.22753821
-0.13449417 0.15949318 -0.227524
-0.13432217 0.15948266 -0.22749019
-0.1341024 0.15948839 -0.22750339
-0.1338495 0.159495 -0.227507
-0.133669 0.15951867 -0.22747333
-0.133503 0.15949889 -0.22747076
-0.13327698 0.15950701 -0.22744873
-0.1330815 0.15948908 -0.22744457
-0.13290782 0.15947966 -0.22745049
-0.13271201 0.15948673 -0.22743569
-0.1325275 0.15949601 -0.22744399
-0.13233434 0.15952468 -0.22741133
-0.13208167 0.15950833 -0.22741699
-0.13187985 0.15949617 -0.22742568
-0.1316942 0.1595048 -0.2274112
-0.13150318 0.15945917 -0.22740817
-0.13139901 0.159513 -0.22740799
-0.13110425 0.15952 -0.22742
-0.130605 0.159577 -0.227403
-0.13011 0.15941149 -0.227402
-0.129866 0.15953401 -0.2274065
-0.126779 0.159453 -0.22740901
-0.12640999 0.15950833 -0.22743367
-0.12631834 0.159503 -0.22743034
-0.12606199 0.15949766 -0.22748268
-0.12581332 0.15948699 -0.227533
-0.12566167 0.159481 -0.22752617
-0.12552667 0.159476 -0.227558
-0.13706221 0.15966821 -0.227586
-0.13698551 0.159657 -0.22758749
-0.13622801 0.15972434 -0.227587
-0.13608484 0.15971549 -0.22756724
-0.13588855 0.15970655 -0.227578
-0.135635 0.15969199 -0.22756232
-0.13546266 0.15968233 -0.22755033
-0.13531917 0.159676 -0.22753149
-0.13519201 0.15970549 -0.227557
-0.13499367 0.15972699 -0.227525
-0.13470146 0.15971512 -0.22753021
-0.13448633 0.15970267 -0.22751333
-0.134313 0.15969382 -0.22750449
-0.13408498 0.15968299 -0.22749366
-0.13384266 0.15967 -0.22749567
-0.13366067 0.15973 -0.22748101
-0.13352667 0.15971984 -0.22748949
-0.13329689 0.1597089 -0.22745289
-0.13309833 0.15970156 -0.22746399
-0.13293177 0.15969189 -0.22744468
-0.13269234 0.15967643 -0.22743055
-0.13252133 0.15967067 -0.22743267
-0.13232701 0.15973499 -0.22740801
-0.13205299 0.15970381 -0.22742119
-0.1318965 0.15971611 -0.22741489
-0.13170519 0.1596868 -0.2274092
-0.131207 0.159675 -0.227401
-0.13111143 0.15968987 -0.22742029
-0.130602 0.159647 -0.227401
-0.130512 0.159749 -0.22740251
-0.12986083 0.15967433 -0.22740901
-0.12659501 0.15968901 -0.2274075
-0.126311 0.15971367 -0.22741532
-0.12605433 0.15970699 -0.22746968
-0.12580599 0.159696 -0.22751068
-0.12565349 0.1596915 -0.22752184
-0.12551834 0.15968567 -0.22755432
-0.137688 0.159942 -0.22759999
-0.137327 0.15995699 -0.22759849
-0.137023 0.15990667 -0.22759633
-0.13692766 0.15994634 -0.22759633
-0.13675232 0.15989199 -0.22759201
-0.13649499 0.15994801 -0.22759999
-0.136222 0.159899 -0.22756699
-0.13606781 0.1599101 -0.22756019
-0.13589087 0.15990788 -0.22756888
-0.13562834 0.15990166 -0.22753567
-0.135454 0.15989433 -0.22756
-0.13531017 0.15988766 -0.22755082
-0.13518567 0.15988 -0.227548
-0.13498649 0.159904 -0.22752899
-0.13468224 0.15991625 -0.22753261
-0.13447784 0.15991415 -0.22752166
-0.13430484 0.15990549 -0.2275105
-0.13407765 0.15989183 -0.22747765
-0.13383432 0.15988 -0.22750334
-0.133654 0.15990451 -0.227478
-0.1335108 0.159915 -0.2274832
-0.13331558 0.15991029 -0.22744243
-0.13310982 0.1599188 -0.22745682
-0.13292401 0.1599018 -0.22743589
-0.132728 0.15988851 -0.22743267
-0.13255568 0.1598815 -0.22741617
-0.132324 0.159805 -0.22741
-0.13206649 0.15989551 -0.22742701
-0.13190714 0.15990862 -0.22740762
-0.13108301 0.159868 -0.22741185
-0.129813 0.159811 -0.227402
-0.126304 0.15988949 -0.22740999
-0.12604767 0.15991634 -0.22744067
-0.125801 0.15983599 -0.227503
-0.12571217 0.15990417 -0.22750749
-0.1255454 0.1599126 -0.22753742
-0.12533399 0.159924 -0.227593
-0.13708344 0.16013511 -0.22758991
-0.13689944 0.16011845 -0.22759184
-0.1367455 0.16006699 -0.227588
-0.13649067 0.16008534 -0.22757299
-0.13621567 0.160074 -0.22755899
-0.13608944 0.16007622 -0.22757857
-0.13593349 0.16013624 -0.22753251
-0.13570701 0.16011767 -0.22756965
-0.13544601 0.16010499 -0.227562
-0.13530199 0.160098 -0.22754849
-0.135178 0.16009 -0.227542
-0.13497967 0.160079 -0.22752666
-0.13471566 0.16008 -0.22754516
-0.13448785 0.16012529 -0.22752343
-0.13429667 0.16011533 -0.22750716
-0.1340685 0.16010366 -0.22749515
-0.13382733 0.16008933 -0.22747767
-0.13364799 0.16007932 -0.22746433
-0.133522 0.16008399 -0.2274704
-0.1333164 0.1601166 -0.22743741
-0.13310967 0.16012225 -0.2274465
-0.13291578 0.16011089 -0.22743432
-0.13272016 0.16009851 -0.22742499
-0.13254716 0.1600915 -0.2274235
-0.13231234 0.16008566 -0.22741634
-0.13205934 0.16007 -0.227428
-0.1318665 0.16010334 -0.22740483
-0.13163801 0.160052 -0.227401
-0.12603934 0.16012634 -0.22744201
-0.12573783 0.16011482 -0.22748782
-0.12554751 0.16010883 -0.22751968
-0.12532866 0.16009833 -0.22757268
-0.13749599 0.160212 -0.22759999
-0.137265 0.16034 -0.227598
-0.137072 0.16030556 -0.22758511
-0.1368929 0.16031855 -0.22758633
-0.136733 0.160384 -0.22759999
-0.13648267 0.16029567 -0.22757466
-0.136208 0.16028333 -0.22755267
-0.13608678 0.16027889 -0.22757711
-0.1359335 0.16030301 -0.22754383
-0.1356822 0.1603128 -0.22756299
-0.13543801 0.16031401 -0.22755568
-0.13529384 0.160308 -0.22754985
-0.135169 0.1603 -0.22755301
-0.13497134 0.160289 -0.22752666
-0.13472217 0.16027933 -0.22754233
-0.13451873 0.16028701 -0.22752012
-0.1342885 0.16032483 -0.22750519
-0.13406017 0.16031416 -0.22749533
-0.13381833 0.16030098 -0.22749567
-0.13364001 0.16028833 -0.22745602
-0.13350634 0.16027899 -0.22746199
-0.1333304 0.16028781 -0.22745299
-0.13309434 0.16030733 -0.22742955
-0.13290766 0.16032222 -0.22743744
-0.13275567 0.16031033 -0.22741365
-0.13253884 0.160302 -0.22742166
-0.13205133 0.16028 -0.22742499
-0.131808 0.160266 -0.227401
-0.1260325 0.160303 -0.2274425
-0.12573016 0.16032499 -0.22747482
-0.12553982 0.16031834 -0.22750384
-0.12532033 0.16031 -0.22757268
-0.137668 0.160468 -0.227593
-0.13726033 0.16047966 -0.22758818
-0.13708667 0.16047755 -0.22758521
-0.13689975 0.16052939 -0.22758363
-0.13672866 0.160522 -0.22757399
-0.136474 0.16050734 -0.22757699
-0.13620199 0.160423 -0.22755399
-0.13610071 0.16049591 -0.227566
-0.13592634 0.16047901 -0.22755021
-0.1357114 0.16048139 -0.2275548
-0.13543068 0.160524 -0.22753935
-0.13528584 0.16051783 -0.22754051
-0.135161 0.16051067 -0.22754334
-0.13496299 0.16049968 -0.22753035
-0.13471366 0.16048984 -0.22754616
-0.13449946 0.16047633 -0.22751087
-0.13428225 0.1604995 -0.22749549
-0.1340628 0.1605106 -0.22749099
-0.13385876 0.16052875 -0.22747225
-0.13363099 0.16049901 -0.22747166
-0.1334985 0.1604885 -0.22744934
-0.13331334 0.16048166 -0.22743368
-0.13310355 0.16047856 -0.22743392
-0.13289014 0.160512 -0.22743428
-0.13270384 0.16051932 -0.22742216
-0.13253979 0.1604988 -0.22741839
-0.13229799 0.16047001 -0.227406
-0.131798 0.160511 -0.22740251
-0.12602633 0.16047801 -0.22742634
-0.12572375 0.16049951 -0.22746174
-0.12552401 0.1605152 -0.22749519
-0.12531233 0.16052067 -0.22756235
-0.137951 0.160794 -0.227597
-0.13725267 0.16068934 -0.22757566
-0.13709749 0.16066916 -0.2275825
-0.1369198 0.16068561 -0.2275857
-0.136721 0.16069901 -0.2275885
-0.13646601 0.160717 -0.22758032
-0.13610117 0.16069999 -0.22755967
-0.13591844 0.16068944 -0.22754601
-0.13573125 0.16066125 -0.22754826
-0.13551 0.16070402 -0.22754149
-0.13526841 0.160714 -0.22754201
-0.135153 0.16071968 -0.22753835
-0.134955 0.16071033 -0.22752601
-0.13470583 0.1606995 -0.22754018
-0.13449134 0.16068724 -0.22751191
-0.13427584 0.1606745 -0.22748482
-0.134096 0.16070351 -0.22747651
-0.13389984 0.16072316 -0.22745951
-0.13362335 0.16070966 -0.22746266
-0.13349034 0.1606985 -0.22745001
-0.13330518 0.16069116 -0.22742634
-0.13308842 0.16068242 -0.22743149
-0.13290276 0.16068175 -0.22742575
-0.132697 0.160694 -0.22742
-0.13248067 0.160722 -0.22742599
-0.12571783 0.16067417 -0.22744934
-0.1255354 0.16068441 -0.22748499
-0.12530632 0.16072901 -0.227522
-0.13794699 0.160899 -0.227597
-0.13765 0.16092299 -0.227594
-0.13746899 0.16091099 -0.227595
-0.13726825 0.16088374 -0.22758701
-0.1371021 0.16089791 -0.22758317
-0.13692001 0.16087511 -0.22758003
-0.136748 0.160889 -0.22758742
-0.13645868 0.16092634 -0.22755867
-0.13609333 0.16091007 -0.22755893
-0.13591011 0.16089967 -0.22754723
-0.13576667 0.16089067 -0.22755234
-0.13550299 0.16087951 -0.22754668
-0.13528261 0.16088159 -0.22752218
-0.1351465 0.160896 -0.22753999
-0.134947 0.16092034 -0.22752966
-0.13469833 0.16090901 -0.22753017
-0.134526 0.1609005 -0.22751884
-0.13431078 0.160887 -0.22749011
-0.13408966 0.16087833 -0.22747467
-0.1339885 0.16090301 -0.227469
-0.1336872 0.16091 -0.22746599
-0.13348167 0.16091016 -0.22745748
-0.1333082 0.16091561 -0.2274116
-0.13309629 0.1608935 -0.22742891
-0.1328973 0.16089 -0.22742531
-0.132733 0.16087367 -0.22743802
-0.1324735 0.160898 -0.22742701
-0.1310575 0.16089499 -0.22740251
-0.12600949 0.160933 -0.227402
-0.12570967 0.160886 -0.22744668
-0.12552017 0.160879 -0.227458
-0.1252995 0.16090399 -0.22751999
-0.12513566 0.16086932 -0.22758132
-0.13794151 0.16103899 -0.227596
-0.13728367 0.16111101 -0.22756399
-0.1371019 0.16110332 -0.22758418
-0.13692522 0.16109334 -0.22757867
-0.13674967 0.16108434 -0.22757034
-0.13645199 0.161101 -0.22755751
-0.13608469 0.16112083 -0.22756267
-0.13590132 0.16111057 -0.22755544
-0.13575833 0.16110165 -0.22755432
-0.13549517 0.16108984 -0.22754133
-0.1352655 0.16107716 -0.22751383
-0.13513967 0.16107132 -0.22753434
-0.13494051 0.1610955 -0.22751701
-0.13469067 0.16111867 -0.22751568
-0.13451867 0.16110967 -0.22750185
-0.13430256 0.16109779 -0.22749108
-0.13408001 0.161091 -0.227504
-0.13398133 0.16107999 -0.22747032
-0.13371702 0.161081 -0.2274694
-0.13347466 0.16111918 -0.22743882
-0.13328867 0.16111232 -0.22743069
-0.13309151 0.16111311 -0.22743125
-0.13290364 0.16109353 -0.22742119
-0.132682 0.16107999 -0.22742064
-0.1325182 0.16105899 -0.22741123
-0.1257025 0.16109534 -0.22742635
-0.12551184 0.16109017 -0.22746433
-0.12529367 0.16107868 -0.22749567
-0.125129 0.16104349 -0.22756749
-0.13830051 0.161272 -0.227589
-0.13727434 0.16132332 -0.22758301
-0.13710345 0.16131467 -0.22758879
-0.136917 0.16130278 -0.22757345
-0.13674134 0.16129465 -0.22757649
-0.13644433 0.16127767 -0.22757833
-0.13608363 0.161305 -0.22755876
-0.13591246 0.16132745 -0.2275489
-0.13575 0.161312 -0.22755666
-0.13553074 0.16128424 -0.22754
-0.1352925 0.16129813 -0.22752327
-0.135132 0.16128033 -0.22752135
-0.13493432 0.16126932 -0.22750433
-0.1346744 0.161314 -0.227507
-0.13451034 0.16132067 -0.22750483
-0.13429454 0.16130744 -0.22748311
-0.13407232 0.16130032 -0.22749035
-0.13397367 0.16128834 -0.22745568
-0.13371 0.1612628 -0.22746542
-0.13348116 0.16131999 -0.22745468
-0.13328017 0.1613235 -0.22743964
-0.13309078 0.16131467 -0.22742523
-0.132929 0.16130626 -0.22741939
-0.13273032 0.16129433 -0.22742367
-0.13252249 0.16126674 -0.22741151
-0.12569383 0.16130617 -0.22743316
-0.12550282 0.16130184 -0.22747283
-0.125284 0.16129233 -0.22752599
-0.12511967 0.16129066 -0.22756934
-0.13826875 0.16151625 -0.2275935
-0.1382 0.161584 -0.22758999
-0.13792101 0.16156501 -0.227598
-0.137447 0.16147301 -0.22759999
-0.1372675 0.16149801 -0.22758299
-0.1370855 0.16152351 -0.22758567
-0.13690922 0.16151322 -0.22757265
-0.1367335 0.16150416 -0.2275665
-0.136437 0.16148768 -0.22756033
-0.13610525 0.16148125 -0.22754252
-0.13590169 0.16151631 -0.22753517
-0.13574101 0.161523 -0.22756767
-0.135566 0.16151302 -0.227513
-0.13532557 0.16149114 -0.22751428
-0.13515401 0.16150621 -0.22750941
-0.13492699 0.16147833 -0.22748733
-0.13468599 0.161483 -0.2275068
-0.13449439 0.16151561 -0.22750139
-0.1342871 0.16151679 -0.22746889
-0.13406467 0.16151001 -0.22748268
-0.13396533 0.16149899 -0.22746266
-0.13377301 0.16149168 -0.22747034
-0.13351539 0.16148338 -0.22745088
-0.13326199 0.1615192 -0.22743161
-0.13308211 0.16152589 -0.22743198
-0.13292344 0.16151722 -0.22742221
-0.13271788 0.16151263 -0.22742186
-0.13253434 0.16149533 -0.22741467
-0.13172834 0.16152667 -0.22740267
-0.12568568 0.16151701 -0.22742766
-0.12549667 0.16151033 -0.22743982
-0.12527667 0.16150233 -0.22750735
-0.125111 0.16150267 -0.22757466
-0.13814467 0.16172133 -0.22759366
-0.137619 0.16172999 -0.2275925
-0.13726099 0.16167367 -0.22758633
-0.13707851 0.16169888 -0.22758375
-0.13690087 0.161723 -0.2275691
-0.13672517 0.16171467 -0.22756898
-0.136429 0.16169667 -0.22755265
-0.13609 0.16168301 -0.22754823
-0.13591731 0.16168492 -0.2275321
-0.13573501 0.161698 -0.22755799
-0.13555934 0.16172199 -0.22748934
-0.13533784 0.16171299 -0.22752035
-0.13515384 0.16170333 -0.22750616
-0.13491799 0.16169001 -0.227495
-0.13466983 0.16167866 -0.22749518
-0.1345056 0.16168441 -0.22748561
-0.1343134 0.1617146 -0.22746781
-0.13412467 0.16172267 -0.22748482
-0.13395698 0.16171034 -0.22746633
-0.133765 0.16170199 -0.22747134
-0.1334971 0.16168356 -0.22744165
-0.13326751 0.16167301 -0.22741875
-0.1330644 0.161707 -0.22742578
-0.13290861 0.16171926 -0.22742413
-0.13269956 0.161714 -0.22741655
-0.13244501 0.161668 -0.227405
-0.132001 0.16161101 -0.227402
-0.1319185 0.161677 -0.227406
-0.131753 0.161669 -0.227405
-0.12573251 0.16169399 -0.227412
-0.12548782 0.16172217 -0.22744931
-0.12526733 0.161715 -0.227531
-0.125103 0.16171333 -0.22757232
-0.13811401 0.16186 -0.227597
-0.137961 0.161989 -0.227593
-0.13761351 0.16187 -0.227595
-0.13743134 0.16189334 -0.22759564
-0.137253 0.16188432 -0.227584
-0.13709711 0.16187423 -0.22757064
-0.1369195 0.16190019 -0.22756591
-0.13671784 0.16192417 -0.22755133
-0.13642032 0.16190867 -0.22756501
-0.13608167 0.161893 -0.22755034
-0.13589849 0.16188158 -0.22753634
-0.13572867 0.161872 -0.22754599
-0.1355505 0.16189951 -0.2275275
-0.1353295 0.16192301 -0.22752218
-0.13514651 0.16191234 -0.22749119
-0.13491 0.16190065 -0.22750068
-0.13466167 0.16188884 -0.22749382
-0.13448934 0.16188049 -0.22748785
-0.13432421 0.1618838 -0.22746861
-0.13411775 0.161898 -0.227483
-0.13394934 0.161919 -0.22745466
-0.13375632 0.16191266 -0.22747569
-0.13351414 0.16188571 -0.22744288
-0.13332449 0.16188616 -0.22742699
-0.13306899 0.16187501 -0.22742277
-0.13291685 0.16188814 -0.22741315
-0.13269165 0.16192378 -0.22741212
-0.13251834 0.16191533 -0.22741234
-0.12548025 0.161899 -0.22746
-0.12525968 0.16192567 -0.22752135
-0.12509467 0.16192533 -0.22757865
-0.1379275 0.162127 -0.22759224
-0.13760366 0.16211434 -0.227589
-0.13742401 0.162102 -0.22757268
-0.137245 0.16209434 -0.22757499
-0.13708857 0.16208422 -0.22757633
-0.13692074 0.16208144 -0.22756137
-0.136711 0.16209999 -0.22755651
-0.13641234 0.162118 -0.22755401
-0.1360742 0.16210255 -0.22753388
-0.13589066 0.16209151 -0.22752799
-0.135721 0.162082 -0.22753032
-0.135544 0.162074 -0.227522
-0.13532375 0.16209725 -0.22749975
-0.13513801 0.16212299 -0.22749633
-0.13490267 0.16210933 -0.22748233
-0.13465333 0.16209967 -0.22749783
-0.13448133 0.16209117 -0.22748317
-0.13430767 0.16207968 -0.22747134
-0.134112 0.16207166 -0.22746317
-0.1339425 0.16209599 -0.22745499
-0.13374799 0.16212301 -0.22747235
-0.13352567 0.16210566 -0.22741766
-0.133349 0.16209733 -0.22742815
-0.1330741 0.16209359 -0.22742209
-0.13290082 0.16207768 -0.22741367
-0.1327022 0.162093 -0.22741199
-0.12563775 0.1620955 -0.22740999
-0.12547299 0.1620755 -0.227468
-0.1252515 0.162104 -0.227549
-0.1378925 0.16229999 -0.227595
-0.13750567 0.16231917 -0.22758417
-0.13723667 0.16230434 -0.22757399
-0.13708067 0.16229478 -0.227569
-0.13690591 0.16228451 -0.22754769
-0.13670349 0.16227616 -0.2275645
-0.13640501 0.16232799 -0.22754233
-0.13606623 0.16231254 -0.22752945
-0.13591188 0.16230267 -0.22751778
-0.135755 0.16229434 -0.22752051
-0.13553566 0.16228467 -0.22752567
-0.13531734 0.16227132 -0.2274885
-0.13513026 0.1622995 -0.22751001
-0.13489567 0.16231734 -0.22745667
-0.13466874 0.16229275 -0.22749251
-0.13450475 0.16231051 -0.22747689
-0.13429965 0.16229066 -0.22746919
-0.13410385 0.16228299 -0.22746567
-0.13393568 0.16227067 -0.227452
-0.13374251 0.162297 -0.2274525
-0.13351651 0.1623175 -0.22743285
-0.13335061 0.162294 -0.22741899
-0.13310459 0.1622912 -0.22741699
-0.13291588 0.16230522 -0.227414
-0.13272099 0.16227716 -0.22740901
-0.12565617 0.16229101 -0.22741933
-0.12546533 0.16228618 -0.22745602
-0.12524466 0.16227967 -0.22754
-0.12508151 0.16224399 -0.22759551
-0.13808601 0.162561 -0.22759999
-0.13790759 0.16249141 -0.2275928
-0.1377625 0.162505 -0.227595
-0.13748059 0.16251341 -0.2275676
-0.13722901 0.162513 -0.22756167
-0.13707322 0.16250445 -0.22755688
-0.13689767 0.16249534 -0.22754876
-0.13669583 0.1624855 -0.22755684
-0.13639849 0.162503 -0.227539
-0.13606612 0.16251424 -0.22751865
-0.13591421 0.1625185 -0.2274942
-0.13574666 0.16250433 -0.22751766
-0.13552934 0.16249333 -0.22749066
-0.1353095 0.16248183 -0.22748367
-0.13512532 0.1624725 -0.22747819
-0.13488699 0.16252868 -0.22746067
-0.13468367 0.162522 -0.22747801
-0.13450779 0.16251245 -0.22747177
-0.1342915 0.16250034 -0.22746281
-0.13409549 0.16249333 -0.22746216
-0.13392733 0.16248067 -0.22744966
-0.13373534 0.16247199 -0.22745466
-0.13350019 0.16251281 -0.22742979
-0.13333334 0.1625175 -0.22741334
-0.13304366 0.16250767 -0.22741966
-0.13292666 0.162486 -0.22741741
-0.13271299 0.16248751 -0.2274055
-0.125701 0.16250299 -0.22741567
-0.12550266 0.16249901 -0.22745177
-0.125237 0.16248967 -0.22752766
-0.13804899 0.162699 -0.22759466
-0.13787733 0.16268699 -0.22759168
-0.13775751 0.162645 -0.227585
-0.13751081 0.16268361 -0.2275584
-0.13722168 0.16272266 -0.22754832
-0.13706534 0.16271412 -0.22755125
-0.13688965 0.16270508 -0.22754325
-0.13668834 0.16269517 -0.22753932
-0.13639167 0.16267835 -0.22753768
-0.13608125 0.16269849 -0.2275075
-0.13592076 0.162723 -0.22749376
-0.135739 0.162714 -0.22750668
-0.13552099 0.16270299 -0.227495
-0.13530117 0.16269217 -0.22748433
-0.1351175 0.162682 -0.22746818
-0.134881 0.16270301 -0.22745299
-0.1346765 0.162697 -0.2274795
-0.13449965 0.16272323 -0.22747424
-0.1342835 0.16271032 -0.22746034
-0.13408783 0.16270299 -0.22745417
-0.13391934 0.162691 -0.22745001
-0.13372767 0.16268267 -0.22744566
-0.13351221 0.16268179 -0.22741921
-0.13332534 0.16272749 -0.22740869
-0.13309 0.16273901 -0.22740856
-0.1329225 0.16272125 -0.2274175
-0.132726 0.16268125 -0.22740424
-0.12549466 0.16271034 -0.22745067
-0.12522967 0.1627 -0.22751467
-0.138027 0.16283999 -0.227597
-0.13786967 0.16289701 -0.22758467
-0.13774499 0.162962 -0.22759201
-0.13757499 0.16288467 -0.22756334
-0.13732299 0.16288219 -0.22754899
-0.13705 0.16291499 -0.22754687
-0.13689831 0.1629107 -0.22754571
-0.13670912 0.16291589 -0.22754475
-0.13638301 0.16289 -0.22754599
-0.13607466 0.162874 -0.22750799
-0.13591363 0.1628985 -0.22749637
-0.135731 0.16292566 -0.22750418
-0.13551234 0.16291434 -0.22749431
-0.13529284 0.1629035 -0.22748683
-0.13510901 0.162893 -0.22747551
-0.13487333 0.16287966 -0.22746234
-0.13466901 0.162874 -0.22749834
-0.1344925 0.162899 -0.22747533
-0.1342755 0.162921 -0.227461
-0.13407983 0.16291367 -0.22744967
-0.133912 0.16289966 -0.22742568
-0.13371967 0.16289301 -0.22744136
-0.13349567 0.16287716 -0.22741801
-0.133083 0.16291986 -0.22741017
-0.1329546 0.16291019 -0.22740979
-0.132741 0.16283999 -0.227405
-0.125682 0.162994 -0.227401
-0.125531 0.16292383 -0.22744818
-0.12530801 0.162916 -0.22750883
-0.138227 0.163131 -0.227598
-0.13809867 0.16312467 -0.22759734
-0.13791013 0.16311988 -0.22758438
-0.137739 0.163102 -0.22759567
-0.13756667 0.16309601 -0.22756767
-0.1372965 0.16307966 -0.2275665
-0.13708539 0.1630816 -0.22754559
-0.13691701 0.16310544 -0.22754642
-0.13671078 0.16311878 -0.22755522
-0.136375 0.16309933 -0.22754435
-0.13606666 0.16308402 -0.22750284
-0.13590692 0.16307402 -0.22749634
-0.13572374 0.163102 -0.22751099
-0.13550501 0.16312367 -0.22747733
-0.13528432 0.16311517 -0.22749431
-0.13510133 0.16310333 -0.22746515
-0.13486467 0.16309066 -0.22747201
-0.13466066 0.163084 -0.22749032
-0.13449761 0.16306463 -0.22745962
-0.1342946 0.16310498 -0.22745781
-0.1340856 0.1631114 -0.22745302
-0.13392849 0.16313051 -0.22742525
-0.13371134 0.163103 -0.22744267
-0.1334774 0.1631016 -0.22742161
-0.1333198 0.1630936 -0.22741239
-0.13309966 0.1630825 -0.22740781
-0.1328865 0.1631325 -0.22740775
-0.132727 0.163192 -0.227402
-0.12567699 0.163103 -0.22742301
-0.12550932 0.16308667 -0.22744299
-0.1252826 0.16311339 -0.22752018
-0.13822049 0.16330549 -0.22759399
-0.13808267 0.163311 -0.22759533
-0.13790262 0.16331276 -0.22758348
-0.137731 0.163312 -0.22759034
-0.13755767 0.16330801 -0.22757833
-0.1373335 0.16327524 -0.22757199
-0.13710275 0.16328788 -0.22754163
-0.13692535 0.16327645 -0.22754301
-0.1367029 0.16332866 -0.22754577
-0.13636734 0.16330899 -0.22752601
-0.13605849 0.163295 -0.22750182
-0.13589816 0.16328582 -0.22750801
-0.13571684 0.16327733 -0.227513
-0.13549751 0.16330001 -0.22749299
-0.13527617 0.163325 -0.22748967
-0.13509284 0.16331434 -0.22746833
-0.13485733 0.16329999 -0.22745098
-0.13465267 0.163296 -0.22748934
-0.13452184 0.16328366 -0.22743882
-0.13430521 0.16327544 -0.22746754
-0.13413349 0.163302 -0.227442
-0.13393641 0.1633112 -0.22742979
-0.13370301 0.16331433 -0.22744299
-0.13347866 0.16329949 -0.22742349
-0.1332936 0.16330381 -0.2274086
-0.133049 0.16326325 -0.227414
-0.1329392 0.16329078 -0.22742061
-0.13269366 0.16333099 -0.22740601
-0.12567033 0.16327868 -0.22742166
-0.12551801 0.16327417 -0.22743367
-0.1253114 0.1632832 -0.2275044
-0.13821551 0.163445 -0.227593
-0.138089 0.16347499 -0.22758651
-0.13788368 0.16349582 -0.22757952
-0.137549 0.16351867 -0.227584
-0.13736933 0.163505 -0.22757299
-0.13710478 0.16349156 -0.22755678
-0.13691024 0.16348116 -0.22755557
-0.13669667 0.16350366 -0.22753684
-0.13636 0.16351867 -0.227512
-0.13604982 0.16350634 -0.227512
-0.13589008 0.16349624 -0.2275046
-0.1357085 0.16348751 -0.227512
-0.13549067 0.16347633 -0.22749233
-0.13526949 0.16350025 -0.22748701
-0.1350835 0.16352667 -0.22748882
-0.13485032 0.16350867 -0.22742867
-0.13464433 0.163506 -0.22749233
-0.13451217 0.16349667 -0.22746401
-0.13429722 0.16348623 -0.22746335
-0.13412701 0.16347601 -0.22743733
-0.13394959 0.16348259 -0.22743662
-0.13369466 0.16352566 -0.227446
-0.13347083 0.16350883 -0.22741449
-0.1332725 0.16351825 -0.22740649
-0.13306001 0.163506 -0.22740801
-0.13293199 0.16348639 -0.227415
-0.1326822 0.1634856 -0.22740898
-0.125663 0.16348867 -0.22740799
-0.12550901 0.16348718 -0.22744648
-0.12537266 0.16348401 -0.22749734
-0.12519699 0.16347933 -0.22755902
-0.13808349 0.163617 -0.22758949
-0.13785768 0.163671 -0.22759567
-0.13754199 0.16369501 -0.227593
-0.13736066 0.16371666 -0.22757633
-0.13709611 0.16370267 -0.22756553
-0.13690168 0.16369209 -0.22756
-0.13668901 0.16367954 -0.227547
-0.13635099 0.16369751 -0.227552
-0.13604067 0.163718 -0.22752716
-0.13588117 0.16370767 -0.22751509
-0.13569982 0.16369934 -0.22752249
-0.13548301 0.16368701 -0.22748967
-0.1352625 0.16367601 -0.22749268
-0.135077 0.16370201 -0.22749151
-0.13484 0.16372333 -0.22746599
-0.134636 0.16371733 -0.22750066
-0.13450316 0.16370849 -0.22748017
-0.13429962 0.16368988 -0.22747749
-0.134138 0.1637065 -0.22745726
-0.13393083 0.1636795 -0.22745301
-0.133687 0.16370299 -0.227467
-0.13346232 0.16372116 -0.22742599
-0.13328667 0.16371185 -0.22741599
-0.1331012 0.16371819 -0.22741099
-0.13294443 0.16369966 -0.22742422
-0.13266599 0.16368218 -0.22740817
-0.125654 0.16370167 -0.22742333
-0.12550066 0.16369884 -0.22744851
-0.12536401 0.163697 -0.227503
-0.12518801 0.16369234 -0.22757332
-0.138034 0.16392949 -0.227587
-0.13786876 0.163901 -0.22759449
-0.13753568 0.16386999 -0.22759032
-0.13708812 0.16391332 -0.22756702
-0.13689268 0.16390416 -0.22757626
-0.13672166 0.16389285 -0.22755951
-0.13659768 0.16388999 -0.22756065
-0.13634433 0.163873 -0.22755165
-0.136051 0.163911 -0.22751826
-0.13590594 0.16392101 -0.2275257
-0.135718 0.16392075 -0.227523
-0.13547401 0.16389833 -0.22750133
-0.13525367 0.16388817 -0.22750551
-0.1350695 0.16387849 -0.2275015
-0.1348335 0.163899 -0.2274695
-0.1346285 0.163895 -0.2275195
-0.13449433 0.16392098 -0.22749484
-0.13432316 0.16391233 -0.22749382
-0.13415 0.16390283 -0.22747584
-0.13392234 0.16389117 -0.22746466
-0.13368067 0.163877 -0.22745334
-0.1334545 0.16389799 -0.227441
-0.13327733 0.16392432 -0.22743434
-0.13308518 0.16391499 -0.22741634
-0.13293579 0.16391023 -0.22742502
-0.1326666 0.1638926 -0.22740641
-0.13248301 0.16395399 -0.227402
-0.13235833 0.16388001 -0.22740768
-0.12589 0.163996 -0.227403
-0.12564467 0.16391499 -0.22744167
-0.1254915 0.16391151 -0.22746433
-0.12535501 0.16390967 -0.22751833
-0.1251805 0.16387001 -0.2275825
-0.13802999 0.16403601 -0.227588
-0.13785049 0.164092 -0.22759366
-0.13752735 0.16408099 -0.22758967
-0.137346 0.16407 -0.22759899
-0.13708949 0.16411725 -0.22757748
-0.13689317 0.16412108 -0.22757922
-0.13671298 0.16410434 -0.22756465
-0.13658868 0.164102 -0.22757767
-0.136335 0.16408499 -0.22756632
-0.136059 0.1641075 -0.22754401
-0.13590699 0.16410989 -0.22753613
-0.13571821 0.16412455 -0.22753555
-0.13546567 0.16410901 -0.227503
-0.13529167 0.16410267 -0.22752701
-0.13510646 0.16409244 -0.22750579
-0.13482465 0.16407834 -0.227506
-0.13462032 0.16407134 -0.22753601
-0.13448673 0.16409799 -0.22750701
-0.13431399 0.16412483 -0.22750835
-0.13414116 0.164115 -0.22749418
-0.13391317 0.16410384 -0.22748017
-0.133671 0.16409099 -0.22748433
-0.13345701 0.1640612 -0.22744861
-0.13329539 0.16411081 -0.22745982
-0.13307701 0.16412584 -0.22741435
-0.132927 0.16412243 -0.22743709
-0.1326775 0.16411625 -0.22742888
-0.13247716 0.164095 -0.227412
-0.13235 0.164092 -0.22741334
-0.13215701 0.164087 -0.227404
-0.13190199 0.16414 -0.227405
-0.1258855 0.164101 -0.227415
-0.125636 0.16412701 -0.22744434
-0.1254825 0.164125 -0.22748215
-0.125346 0.16412233 -0.22754334
-0.1251695 0.16415299 -0.227596
-0.137519 0.16429234 -0.22759466
-0.13711125 0.164304 -0.2275845
-0.1368905 0.1642997 -0.22758642
-0.136718 0.16432758 -0.22757743
-0.13657968 0.16431399 -0.22759266
-0.13632767 0.164295 -0.22755867
-0.136052 0.16428433 -0.227553
-0.13591418 0.16428262 -0.22754964
-0.13571049 0.16430099 -0.22755216
-0.13545601 0.16432168 -0.22752298
-0.13528234 0.16431467 -0.22754167
-0.13509756 0.164305 -0.22752076
-0.13481601 0.164289 -0.22751634
-0.13461266 0.16428201 -0.22752966
-0.13447984 0.16427399 -0.2275095
-0.134306 0.164303 -0.22753075
-0.13413249 0.16432716 -0.22750551
-0.13390382 0.16431649 -0.22749883
-0.133662 0.164304 -0.22750168
-0.13348366 0.16428901 -0.227457
-0.13330612 0.16427933 -0.22746041
-0.1330685 0.164303 -0.22744298
-0.13288578 0.16430643 -0.22742479
-0.13270231 0.16431142 -0.22743943
-0.1325005 0.16431762 -0.22742812
-0.132341 0.16430335 -0.22741933
-0.13214867 0.164297 -0.22740333
-0.13189633 0.16428132 -0.22740233
-0.12587799 0.16427867 -0.22742002
-0.1256285 0.164303 -0.22745499
-0.12547475 0.1643025 -0.2275015
-0.12533849 0.16429999 -0.227548
-0.137513 0.16443101 -0.227593
-0.13712166 0.164434 -0.22759366
-0.13692434 0.16447116 -0.22759415
-0.13674478 0.1644886 -0.22758301
-0.136574 0.164454 -0.22759999
-0.13631766 0.16450934 -0.22758599
-0.13604234 0.16449668 -0.22757234
-0.13589883 0.16448793 -0.22756428
-0.13570312 0.164478 -0.22756344
-0.1354485 0.1645 -0.227548
-0.13527401 0.16452666 -0.22754401
-0.13508812 0.164518 -0.22754566
-0.13480701 0.16450167 -0.22753066
-0.1346045 0.16446051 -0.22755
-0.13448915 0.16449757 -0.227532
-0.13429834 0.16448033 -0.22755234
-0.13412525 0.16450301 -0.2275085
-0.13388619 0.16451299 -0.22750381
-0.13365267 0.16451599 -0.22752
-0.13347501 0.164501 -0.22746301
-0.13329777 0.164491 -0.22746189
-0.13306099 0.16448049 -0.22745435
-0.1329028 0.1644804 -0.22743821
-0.13271175 0.1645 -0.22745501
-0.13250288 0.16452122 -0.22743824
-0.132333 0.16451466 -0.22742833
-0.13214301 0.16443899 -0.227404
-0.12587 0.16449066 -0.227422
-0.12562101 0.16448165 -0.22747399
-0.125467 0.16448049 -0.22751249
-0.125331 0.164478 -0.22756334
-0.13676101 0.164602 -0.227596
-0.136034 0.164708 -0.22757934
-0.13588589 0.1646927 -0.2275763
-0.13569422 0.16469055 -0.22757477
-0.13544001 0.16467799 -0.22757566
-0.1352665 0.164703 -0.227559
-0.13512149 0.164698 -0.22756675
-0.13494675 0.16470601 -0.22756875
-0.1347955 0.16475201 -0.227567
-0.13449462 0.16469327 -0.22755662
-0.13428932 0.16469234 -0.22756267
-0.13411701 0.16468184 -0.22753716
-0.1338982 0.16468601 -0.22753179
-0.13364434 0.16472733 -0.22752433
-0.13346666 0.16471334 -0.22747667
-0.13331445 0.16469385 -0.2274783
-0.13308899 0.16470376 -0.22746973
-0.13288464 0.16468073 -0.22747236
-0.13271858 0.16468586 -0.22744472
-0.13249584 0.16469733 -0.2274425
-0.132324 0.164726 -0.22743599
-0.13213199 0.16471966 -0.22741067
-0.13186102 0.16472633 -0.22740699
-0.13166919 0.16470441 -0.22740519
-0.12586033 0.16470467 -0.22745633
-0.12561201 0.16469501 -0.22749199
-0.12545751 0.16469467 -0.22753997
-0.125324 0.16462199 -0.22759201
-0.13602801 0.16485 -0.227587
-0.13587821 0.16488419 -0.22759099
-0.13575633 0.16490734 -0.22758467
-0.135433 0.164821 -0.227595
-0.13526 0.1648455 -0.227575
-0.13511699 0.1648045 -0.22758
-0.13479 0.164858 -0.22758301
-0.13443901 0.16486599 -0.22758466
-0.13428016 0.1649055 -0.22758417
-0.13410717 0.16489567 -0.227566
-0.13387968 0.16488317 -0.22754501
-0.133637 0.16490451 -0.2275345
-0.13345751 0.164893 -0.227513
-0.13332283 0.16491933 -0.22751467
-0.13310337 0.16490187 -0.22750425
-0.13290301 0.1649117 -0.22752443
-0.13272768 0.16489045 -0.22747213
-0.13251272 0.164868 -0.22747843
-0.132358 0.16490451 -0.22745049
-0.13212401 0.1648975 -0.227437
-0.13184418 0.16491449 -0.227423
-0.13168286 0.16491428 -0.22742186
-0.1314905 0.164968 -0.227401
-0.131276 0.164959 -0.227402
-0.126647 0.164942 -0.227402
-0.126342 0.1649635 -0.227403
-0.12615226 0.16495851 -0.2274185
-0.12585099 0.16491766 -0.22746499
-0.12560299 0.164874 -0.22752401
-0.12548101 0.16491033 -0.22756799
-0.125398 0.16497999 -0.227595
-0.13409999 0.1650385 -0.22759449
-0.13386159 0.16507939 -0.2275492
-0.13362801 0.16508435 -0.22757167
-0.13344966 0.165071 -0.22753334
-0.13331376 0.16509899 -0.22755726
-0.13311681 0.16511261 -0.22754259
-0.13290893 0.16512109 -0.22756815
-0.13271733 0.16510613 -0.22751345
-0.13252033 0.16509433 -0.2275245
-0.13234884 0.16508518 -0.22749333
-0.132116 0.16507667 -0.22745667
-0.1318312 0.16511241 -0.2274332
-0.13169266 0.16511877 -0.22744332
-0.13148333 0.16511184 -0.22743534
-0.13133051 0.16512474 -0.227433
-0.1311184 0.1651084 -0.2274272
-0.13091083 0.16508883 -0.22744237
-0.130786 0.1651085 -0.227423
-0.13057999 0.16513599 -0.22742601
-0.12689711 0.16511789 -0.22743967
-0.12669751 0.16509724 -0.22743763
-0.12649833 0.16512699 -0.22741167
-0.1263258 0.16508761 -0.22743841
-0.12614475 0.16510324 -0.2274515
-0.1258435 0.165096 -0.227486
-0.12553866 0.16512483 -0.22756718
-0.13381201 0.16527 -0.227584
-0.1336205 0.16526249 -0.227588
-0.13344 0.16528566 -0.22756334
-0.1333148 0.1652644 -0.22758219
-0.13313834 0.16524968 -0.22757399
-0.132983 0.16526601 -0.22759201
-0.13270834 0.16525365 -0.22757834
-0.13250983 0.16531084 -0.22757031
-0.132338 0.16530184 -0.22754683
-0.13210534 0.16529201 -0.22750068
-0.13184075 0.16527276 -0.2274805
-0.13170043 0.16530386 -0.22747745
-0.13146439 0.1653138 -0.2274816
-0.13129967 0.1653225 -0.22748084
-0.13111766 0.16531332 -0.22749017
-0.130906 0.16530143 -0.22751558
-0.13077633 0.16529 -0.22747266
-0.13057268 0.16527933 -0.22746266
-0.13032301 0.165314 -0.22741766
-0.128878 0.165306 -0.22742701
-0.12863199 0.165397 -0.227421
-0.12709175 0.1653595 -0.22741374
-0.12689532 0.16532008 -0.22749358
-0.12669432 0.16530746 -0.227503
-0.12650333 0.16529851 -0.22747166
-0.12632534 0.16528916 -0.22748117
-0.126136 0.16528332 -0.22748618
-0.12583466 0.16527566 -0.22752166
-0.12554868 0.16529167 -0.227588
-0.133433 0.165429 -0.227587
-0.132459 0.16548599 -0.227584
-0.13232 0.165503 -0.22758341
-0.13209401 0.165509 -0.22755201
-0.131844 0.16548868 -0.227506
-0.13171464 0.1654731 -0.22750382
-0.13149451 0.16549616 -0.22750933
-0.13129151 0.165502 -0.22751024
-0.13110825 0.16549425 -0.22753975
-0.1308955 0.16550468 -0.2275701
-0.13076533 0.165507 -0.22752666
-0.13056201 0.16549633 -0.22750533
-0.13031185 0.16546986 -0.22743371
-0.130124 0.1655124 -0.227428
-0.12989201 0.16557433 -0.22740968
-0.12954301 0.165575 -0.22741249
-0.1292804 0.1655128 -0.22741739
-0.12907851 0.1655075 -0.22741523
-0.12886867 0.16548567 -0.22746734
-0.12862751 0.16550399 -0.227437
-0.128443 0.16559801 -0.227423
-0.12808099 0.165585 -0.227413
-0.127404 0.165549 -0.227413
-0.127085 0.16550374 -0.22743599
-0.12688474 0.16550413 -0.22756076
-0.12668385 0.16550529 -0.22756444
-0.12649116 0.16551833 -0.22754715
-0.12631516 0.16550551 -0.22751917
-0.12612516 0.16550033 -0.22753483
-0.12582399 0.16549267 -0.22756298
-0.13208701 0.16565201 -0.22759099
-0.131834 0.165703 -0.22754699
-0.13172954 0.16569555 -0.22754246
-0.13149999 0.16568846 -0.22754532
-0.13128199 0.16568317 -0.22755902
-0.13111061 0.16566019 -0.22756901
-0.130964 0.165667 -0.227594
-0.13075599 0.1656895 -0.227579
-0.1305525 0.16567749 -0.227557
-0.13031684 0.16570216 -0.22752434
-0.13014682 0.16568451 -0.22744532
-0.12992361 0.1656886 -0.22744162
-0.12970616 0.16573782 -0.22742017
-0.12950362 0.16570926 -0.22742838
-0.12929544 0.16572557 -0.22746113
-0.12909384 0.16570817 -0.22746001
-0.128857 0.16570567 -0.22753634
-0.12861834 0.16568466 -0.227475
-0.128438 0.16570649 -0.2274455
-0.1283045 0.16570126 -0.22742175
-0.1281108 0.16571459 -0.2274076
-0.12791616 0.16576315 -0.22741568
-0.12768801 0.16574933 -0.22740833
-0.12739666 0.16569333 -0.22744133
-0.127075 0.16568699 -0.22750132
-0.12691575 0.165668 -0.22758475
-0.12674251 0.165636 -0.22758099
-0.1264385 0.1656965 -0.227584
-0.1263065 0.1656535 -0.22758001
-0.1261064 0.165703 -0.22757821
-0.125817 0.165635 -0.227588
-0.131825 0.165883 -0.22758549
-0.13171978 0.16591035 -0.22757155
-0.13151425 0.165852 -0.22758301
-0.13128768 0.16585167 -0.22759134
-0.131144 0.165822 -0.227597
-0.13029881 0.1659026 -0.2275596
-0.13013583 0.16590184 -0.22750366
-0.1299036 0.16588975 -0.22748506
-0.12972601 0.16589214 -0.22744857
-0.12952726 0.16589999 -0.22747651
-0.12931065 0.16589533 -0.22748934
-0.12907299 0.1659112 -0.2275176
-0.128849 0.165851 -0.227577
-0.12860532 0.16590667 -0.22756934
-0.128428 0.16588967 -0.22750665
-0.12829584 0.16588166 -0.22745866
-0.128121 0.16588581 -0.22742382
-0.12788144 0.16590767 -0.2274611
-0.12769933 0.16591768 -0.22743382
-0.12738568 0.165911 -0.22749467
-0.1270635 0.16590467 -0.22755849
-0.13171333 0.16605401 -0.22759233
-0.130257 0.166059 -0.22758
-0.1301015 0.16610527 -0.2275885
-0.12989315 0.16610558 -0.22752351
-0.12970799 0.16608812 -0.22749366
-0.12951884 0.16607951 -0.22750933
-0.12930132 0.1660779 -0.22753888
-0.12908439 0.1660872 -0.2275662
-0.128418 0.1660715 -0.227568
-0.12828301 0.16610284 -0.22754633
-0.12810086 0.16609018 -0.22749184
-0.1278984 0.16607758 -0.22749262
-0.1277118 0.16610739 -0.22748458
-0.127377 0.1660895 -0.22752699
-0.12709799 0.166088 -0.227585
-0.12987489 0.16629833 -0.22757132
-0.12969689 0.1663059 -0.22754799
-0.12949881 0.1662844 -0.22757781
-0.12931918 0.16627033 -0.22757666
-0.12908399 0.16624099 -0.227587
-0.128089 0.16630934 -0.227558
-0.12789811 0.16629578 -0.227547
-0.12771766 0.16628334 -0.22752541
-0.12736766 0.16627233 -0.22757466
-0.12972701 0.16647668 -0.22758035
-0.1278585 0.16644 -0.227593
-0.12769824 0.16648988 -0.22757125
-0.12772299 0.166642 -0.227577
-0.128452 0.156101 -0.22739799
-0.12844101 0.156381 -0.22739901
-0.12846233 0.156569 -0.22739799
-0.129501 0.156643 -0.2274
-0.128429 0.15669599 -0.2273905
-0.1283405 0.156758 -0.2273975
-0.12948801 0.156995 -0.227396
-0.12938599 0.15698799 -0.2274
-0.12874325 0.15684749 -0.22739124
-0.12842299 0.15687032 -0.22737001
-0.12833551 0.15689799 -0.227392
-0.12948349 0.15709999 -0.227396
-0.12938 0.15716299 -0.2273895
-0.1289555 0.157139 -0.22739801
-0.12848751 0.15708384 -0.22738366
-0.128326 0.157143 -0.227393
-0.127295 0.157162 -0.22739901
-0.129375 0.15730199 -0.227374
-0.1284568 0.15730879 -0.22739401
-0.12832001 0.157285 -0.22739899
-0.1273295 0.157234 -0.22739351
-0.12937 0.157408 -0.227392
-0.128676 0.157444 -0.2274
-0.128484 0.15750699 -0.22739299
-0.12839733 0.157502 -0.22739135
-0.12971449 0.157738 -0.22739699
-0.1285322 0.1577044 -0.22738881
-0.12834901 0.1577265 -0.22739224
-0.12808 0.15772501 -0.22738701
-0.127433 0.15773401 -0.2274
-0.127345 0.15779699 -0.227396
-0.12935066 0.15789866 -0.22739701
-0.12851375 0.1579285 -0.22739649
-0.12830044 0.15791532 -0.22738522
-0.12810718 0.15792699 -0.22738832
-0.12742867 0.15787299 -0.227376
-0.12734151 0.157902 -0.227384
-0.1297425 0.158196 -0.22739799
-0.1294435 0.15815 -0.227387
-0.12934266 0.15810867 -0.22739267
-0.12864999 0.158143 -0.227385
-0.12850776 0.15810275 -0.227386
-0.12828287 0.15811574 -0.22737712
-0.12811811 0.15811422 -0.22737721
-0.1279465 0.158141 -0.227395
-0.12769599 0.158094 -0.22738467
-0.12742032 0.15808301 -0.22737765
-0.12731525 0.15809351 -0.2273865
-0.12971801 0.15829951 -0.22739623
-0.12948298 0.15831 -0.2273975
-0.129335 0.15831834 -0.22737901
-0.129154 0.1582755 -0.22738901
-0.12868732 0.15828432 -0.22738649
-0.12850167 0.15827751 -0.22736818
-0.128287 0.15830013 -0.22736175
-0.12810999 0.15832512 -0.22737323
-0.12794 0.158316 -0.22738533
-0.12768899 0.15830399 -0.22736633
-0.12741166 0.15829366 -0.22738999
-0.12727614 0.15827528 -0.227391
-0.132066 0.158593 -0.227386
-0.13174 0.15857899 -0.227393
-0.13003279 0.15850279 -0.22739279
-0.12968978 0.15847401 -0.2273919
-0.129476 0.1585025 -0.22738725
-0.129328 0.158527 -0.22735733
-0.12890001 0.158576 -0.22739699
-0.1286805 0.158493 -0.22735983
-0.12849383 0.15848733 -0.22736084
-0.12828964 0.15848374 -0.22734587
-0.12810333 0.15850049 -0.22736801
-0.12793133 0.158526 -0.22739033
-0.12768067 0.15851332 -0.22736333
-0.12740399 0.15850432 -0.22737634
-0.12728839 0.15850919 -0.22736919
-0.127031 0.15847699 -0.22739699
-0.1317375 0.158649 -0.2273975
-0.13124567 0.15869333 -0.22739799
-0.1300904 0.15867619 -0.22738981
-0.12970643 0.15867414 -0.22738144
-0.12950088 0.158687 -0.22738612
-0.1293215 0.158702 -0.22734949
-0.12913699 0.1586965 -0.227394
-0.12889467 0.15871567 -0.22738333
-0.12867217 0.15870284 -0.22735584
-0.12848634 0.15869699 -0.22734499
-0.12831099 0.15868649 -0.22733168
-0.1281215 0.15867667 -0.22736192
-0.1279255 0.1587 -0.227373
-0.12767267 0.15872301 -0.22735299
-0.12731455 0.15870756 -0.22736242
-0.12712343 0.15872586 -0.22738972
-0.126807 0.158751 -0.227392
-0.1316835 0.158893 -0.22738999
-0.131293 0.15890734 -0.22739768
-0.13004868 0.15891199 -0.227395
-0.129896 0.15894866 -0.22739166
-0.12971599 0.15889466 -0.22737569
-0.129504 0.15888834 -0.22738165
-0.12931432 0.158878 -0.22735532
-0.12913199 0.15886967 -0.22736301
-0.12888665 0.15892699 -0.22738399
-0.12866449 0.15891317 -0.22734833
-0.12847883 0.15890683 -0.22733183
-0.12830234 0.15889816 -0.22734314
-0.12811349 0.15888658 -0.22735448
-0.127919 0.15887566 -0.22736765
-0.1276665 0.158898 -0.22735
-0.12730688 0.15891767 -0.2273501
-0.12709801 0.15890442 -0.22737692
-0.12680399 0.158821 -0.227392
-0.126624 0.15895 -0.22739001
-0.13141467 0.159127 -0.22738732
-0.13131301 0.15911834 -0.22738366
-0.13062467 0.15908499 -0.22738767
-0.13053501 0.159152 -0.22739699
-0.13030934 0.15907101 -0.22738568
-0.13009962 0.15911762 -0.22738163
-0.12991416 0.15911351 -0.2273885
-0.12970734 0.159105 -0.22738551
-0.12949646 0.15909767 -0.22736774
-0.129306 0.15908833 -0.22736768
-0.12912333 0.15908067 -0.22737068
-0.12888101 0.1591005 -0.2273595
-0.12865683 0.15912317 -0.227337
-0.12847067 0.15911683 -0.22733568
-0.128295 0.15910633 -0.22732818
-0.12810683 0.15909526 -0.22732548
-0.12791067 0.15908699 -0.22737001
-0.12765999 0.15907234 -0.22733401
-0.12728862 0.15911888 -0.22735512
-0.12708975 0.159115 -0.22737692
-0.12694 0.15917499 -0.22739799
-0.12664999 0.15904532 -0.227387
-0.13175699 0.15931401 -0.2273825
-0.131497 0.159307 -0.227392
-0.13124175 0.15934199 -0.22738574
-0.131171 0.159321 -0.22739333
-0.130806 0.159372 -0.227391
-0.13061599 0.15929633 -0.227392
-0.130467 0.15927 -0.22738799
-0.13030218 0.15928017 -0.227367
-0.13011985 0.15927982 -0.22737384
-0.12991077 0.15932356 -0.22737233
-0.12969933 0.15931566 -0.22738235
-0.12951471 0.15929842 -0.22735827
-0.129338 0.15931541 -0.22736199
-0.129116 0.15928967 -0.22735865
-0.128874 0.15927668 -0.227367
-0.12864976 0.159299 -0.22734399
-0.12846266 0.15932733 -0.22732617
-0.12828717 0.15931767 -0.22731851
-0.12809841 0.15930575 -0.22732866
-0.127904 0.15929432 -0.22734034
-0.12765266 0.159282 -0.22731699
-0.12730487 0.15928857 -0.22733857
-0.12709178 0.159311 -0.22738034
-0.1269604 0.1593302 -0.227375
-0.1266446 0.1593188 -0.22739419
-0.12651567 0.15929866 -0.22739734
-0.13203032 0.15950499 -0.22739565
-0.13198033 0.15949933 -0.22739367
-0.131752 0.159421 -0.227395
-0.13157 0.159556 -0.22739901
-0.13125651 0.15950075 -0.2273805
-0.131005 0.159522 -0.22739701
-0.13080201 0.159477 -0.227396
-0.13067234 0.15950868 -0.22739632
-0.13048001 0.15949734 -0.22737551
-0.13029416 0.15949066 -0.22736633
-0.13010469 0.15949211 -0.227373
-0.129922 0.159483 -0.22736925
-0.12969133 0.1595255 -0.22737467
-0.12952483 0.15951966 -0.227365
-0.12934016 0.15951283 -0.22736518
-0.12910666 0.159502 -0.22737765
-0.12886567 0.15948634 -0.22736602
-0.1286526 0.1594594 -0.22733541
-0.12848499 0.15950899 -0.22730979
-0.1282706 0.15951321 -0.22732762
-0.12809043 0.15951599 -0.22732651
-0.12789534 0.15950601 -0.22734666
-0.127644 0.15949333 -0.22732967
-0.12728623 0.15947813 -0.22732943
-0.12711014 0.15948842 -0.2273763
-0.12691751 0.15951738 -0.22738789
-0.12668943 0.15951772 -0.22738256
-0.1265305 0.1595275 -0.2273965
-0.13233 0.15966301 -0.22739699
-0.132019 0.159785 -0.227396
-0.131975 0.159638 -0.227392
-0.131649 0.15977 -0.2274
-0.13152349 0.15969367 -0.22739267
-0.13130875 0.15967987 -0.22738086
-0.130999 0.159696 -0.227382
-0.13079266 0.159722 -0.22739434
-0.13049984 0.15971051 -0.22738318
-0.13028601 0.1597005 -0.2273645
-0.13009699 0.15968917 -0.22738059
-0.12996733 0.159677 -0.22735535
-0.129685 0.15970099 -0.2273705
-0.12950939 0.1597158 -0.2273566
-0.12933217 0.15972316 -0.22735949
-0.12909834 0.159712 -0.22737467
-0.12885799 0.159696 -0.227359
-0.12867866 0.15968432 -0.22732599
-0.12849733 0.15967877 -0.22731559
-0.12828161 0.1596826 -0.22731981
-0.12808241 0.15972583 -0.22731994
-0.12788834 0.159716 -0.22732367
-0.127636 0.159704 -0.22732067
-0.12728851 0.15967962 -0.22732238
-0.1271057 0.1596854 -0.22736612
-0.12692872 0.15968743 -0.22737816
-0.12671681 0.1597162 -0.2273782
-0.12647186 0.15972872 -0.22738568
-0.13232 0.15990999 -0.2273995
-0.13201366 0.159925 -0.22739832
-0.13181899 0.15998399 -0.2274
-0.13168834 0.15991049 -0.22739299
-0.13151599 0.15990333 -0.227383
-0.13130163 0.15988162 -0.22736888
-0.131165 0.15992866 -0.227374
-0.130992 0.159872 -0.22738467
-0.13078651 0.159896 -0.227376
-0.13050634 0.15992188 -0.22738089
-0.13027851 0.15991001 -0.22734749
-0.13008934 0.15989918 -0.22737341
-0.12989837 0.15989375 -0.22737099
-0.12967817 0.15987583 -0.22736333
-0.12951919 0.1598846 -0.22735819
-0.1293152 0.15991759 -0.22733979
-0.12909134 0.15992099 -0.22735566
-0.12885033 0.159906 -0.22734499
-0.12867066 0.159894 -0.22732167
-0.12853616 0.15989083 -0.22731699
-0.12830946 0.1598801 -0.22730033
-0.12808771 0.15989614 -0.22730316
-0.12791049 0.15992551 -0.22730075
-0.12762766 0.159914 -0.22732432
-0.12730983 0.15989934 -0.22730748
-0.12711442 0.15988916 -0.22734052
-0.12691277 0.15987645 -0.22736576
