# .PCD v0.7 - Point Cloud Data file format
VERSION 0.7
FIELDS x y z
SIZE 4 4 4
TYPE F F F
COUNT 1 1 1
WIDTH 1324
HEIGHT 1
VIEWPOINT 0 0 0 1 0 0 0
POINTS 1324
DATA ascii
-0.069311604 -0.22789481 -0.33397979
-0.069101781 -0.22791423 -0.33394462
-0.068870336 -0.22792368 -0.33393967
-0.068663627 -0.22790413 -0.33391473
-0.068496414 -0.2278908 -0.33387539
-0.068292536 -0.22789079 -0.33389243
-0.06806156 -0.22789656 -0.33388433
-0.067937262 -0.2279052 -0.33389738
-0.067691945 -0.22792162 -0.33389547
-0.067544386 -0.22791764 -0.33388871
-0.067315437 -0.22789326 -0.3338657
-0.067091204 -0.22788186 -0.333859
-0.066908576 -0.22789921 -0.33384949
-0.066712849 -0.22790743 -0.33386362
-0.06650088 -0.2279174 -0.33387357
-0.066337615 -0.2279146 -0.33388183
-0.066125497 -0.22790031 -0.33384961
-0.065940432 -0.22789571 -0.3338187
-0.065695003 -0.227919 -0.333823
-0.065492831 -0.22792967 -0.33382389
-0.065318145 -0.22794829 -0.33382544
-0.06513375 -0.22794749 -0.333828
-0.064693399 -0.2279394 -0.33381599
-0.064574003 -0.227947 -0.33382499
-0.064314499 -0.2279595 -0.33380201
-0.042852201 -0.227933 -0.33391222
-0.0694585 -0.22767474 -0.33399874
-0.069315583 -0.22769876 -0.33396855
-0.069118328 -0.22770859 -0.33392051
-0.068915121 -0.2277195 -0.33388451
-0.06867034 -0.22772385 -0.33384123
-0.06853383 -0.22775199 -0.33380952
-0.06830325 -0.22774425 -0.33380723
-0.068112001 -0.22775 -0.33380601
-0.067931004 -0.22775979 -0.3338114
-0.067699224 -0.2277537 -0.33381802
-0.067533806 -0.2277842 -0.33381361
-0.067338996 -0.22777466 -0.33381867
-0.067091256 -0.2277225 -0.33380401
-0.066894002 -0.227753 -0.33380401
-0.066721 -0.22776499 -0.333803
-0.066335671 -0.22778217 -0.33380935
-0.066119395 -0.22779259 -0.3338066
-0.042818666 -0.227706 -0.33386636
-0.0427595 -0.2276805 -0.333951
-0.069445997 -0.22743766 -0.33399534
-0.069298171 -0.22749133 -0.33397248
-0.06910117 -0.22750033 -0.33391783
-0.068936832 -0.22750199 -0.33387733
-0.06870722 -0.2275171 -0.33381903
-0.042806998 -0.227529 -0.333819
-0.042759746 -0.2274835 -0.3338975
-0.069408 -0.227311 -0.333996
-0.069290772 -0.2272764 -0.33396333
-0.069083661 -0.22729309 -0.33392766
-0.068919167 -0.22729516 -0.33388934
-0.068676278 -0.22729653 -0.33381763
-0.042739 -0.227359 -0.333857
-0.069481 -0.22706699 -0.33399349
-0.06928321 -0.22707793 -0.33395621
-0.069067329 -0.22708435 -0.33391437
-0.068902835 -0.22708617 -0.33387104
-0.068678163 -0.22712898 -0.33381769
-0.068595 -0.22717001 -0.33380499
-0.070275664 -0.2268395 -0.33395803
-0.070147999 -0.22683567 -0.33394203
-0.069891699 -0.2268478 -0.33394417
-0.069674142 -0.22686858 -0.3339493
-0.0695123 -0.22691441 -0.33393463
-0.069299504 -0.22690621 -0.33388013
-0.069073334 -0.22690023 -0.33383399
-0.068894997 -0.22694349 -0.33381152
-0.071247667 -0.22663002 -0.33397952
-0.071089998 -0.2266525 -0.33393249
-0.070904195 -0.22669892 -0.33392146
-0.070687249 -0.22670364 -0.3338905
-0.070538871 -0.2267175 -0.33388445
-0.070298277 -0.22671549 -0.33386049
-0.070123501 -0.22673699 -0.33385101
-0.069915123 -0.22673975 -0.33384314
-0.069674745 -0.22676176 -0.333839
-0.069512166 -0.2267725 -0.33383262
-0.06929367 -0.22678368 -0.33380637
-0.071630999 -0.226454 -0.33398151
-0.071536332 -0.22649367 -0.33396018
-0.071259357 -0.22647853 -0.33388564
-0.071118131 -0.22648236 -0.33385512
-0.070916504 -0.22652951 -0.33382142
-0.070741504 -0.22656301 -0.33380851
-0.071803004 -0.22630601 -0.33398801
-0.071696624 -0.22630182 -0.33393744
-0.071526773 -0.22631544 -0.33388421
-0.071283333 -0.22634698 -0.333814
-0.071157001 -0.226365 -0.33381051
-0.071889803 -0.22607481 -0.33395499
-0.071708627 -0.22609673 -0.33387062
-0.07156688 -0.22609313 -0.33382836
-0.071911618 -0.22587112 -0.33396527
-0.071705498 -0.22588979 -0.33387631
-0.071531504 -0.22588468 -0.33385286
-0.071878001 -0.2256965 -0.33397767
-0.071700409 -0.22568093 -0.33394983
-0.071545504 -0.22568965 -0.33389792
-0.071314834 -0.22567517 -0.33384433
-0.071183003 -0.225639 -0.33380401
-0.071801998 -0.225538 -0.333996
-0.071642503 -0.22549349 -0.33398324
-0.071526416 -0.22548465 -0.33393407
-0.071305834 -0.22549234 -0.33389297
-0.0711395 -0.22549807 -0.33384371
-0.042679999 -0.225467 -0.333837
-0.071507335 -0.22527891 -0.33396682
-0.071287334 -0.22528549 -0.33390868
-0.071114734 -0.22529699 -0.33387512
-0.070932999 -0.225263 -0.333821
-0.042824 -0.22527801 -0.33382648
-0.04275275 -0.2253035 -0.33387953
-0.071638666 -0.22511309 -0.33397311
-0.071496874 -0.22510162 -0.33390212
-0.071277246 -0.225109 -0.33384651
-0.071107335 -0.22514398 -0.33382466
-0.042829998 -0.2251385 -0.33385101
-0.042765334 -0.22515799 -0.33393535
-0.071672089 -0.22491026 -0.33393157
-0.071512997 -0.22492754 -0.33385059
-0.071332 -0.2249645 -0.33381099
-0.071829997 -0.22463299 -0.33399099
-0.071664907 -0.22470593 -0.33388713
-0.071526006 -0.22473663 -0.3338246
-0.071819998 -0.224494 -0.33397034
-0.07166978 -0.22449613 -0.33386156
-0.071577996 -0.22449617 -0.33381152
-0.071842805 -0.2242986 -0.33396977
-0.071668305 -0.22427979 -0.33385128
-0.071564004 -0.2242882 -0.33380702
-0.071848996 -0.22407568 -0.33398235
-0.07170178 -0.22407879 -0.33388799
-0.071584746 -0.22409651 -0.33381176
-0.071834996 -0.223903 -0.33398598
-0.071683884 -0.22387165 -0.33390188
-0.071545124 -0.22386438 -0.33381614
-0.071704999 -0.22369799 -0.33394274
-0.071534127 -0.22368437 -0.33383578
-0.071638666 -0.22352798 -0.33395064
-0.071509853 -0.22352695 -0.33388615
-0.071359999 -0.22345701 -0.33381718
-0.071495123 -0.22335239 -0.33396223
-0.07135082 -0.22331029 -0.33389229
-0.071125604 -0.2232466 -0.33383721
-0.070932999 -0.223232 -0.33383504
-0.070688993 -0.22323549 -0.33383036
-0.070536003 -0.22323801 -0.33380499
-0.071350664 -0.22319834 -0.33396199
-0.071106501 -0.223105 -0.33392826
-0.070928797 -0.22308427 -0.33393082
-0.070661992 -0.22309558 -0.33390799
-0.070519082 -0.22310401 -0.33387092
-0.070278004 -0.22310425 -0.33384275
-0.070157334 -0.22307533 -0.33382401
-0.070535749 -0.222968 -0.33397275
-0.070260763 -0.22291361 -0.33393836
-0.070086449 -0.22291568 -0.33387363
-0.069947273 -0.22289953 -0.33383706
-0.070213497 -0.22273649 -0.33399153
-0.070117697 -0.22271509 -0.33394963
-0.069926895 -0.22270769 -0.33385193
-0.044137143 -0.22268072 -0.33382702
-0.070029333 -0.22250833 -0.33398268
-0.06991183 -0.2225052 -0.33388901
-0.044449002 -0.222423 -0.33381799
-0.044309802 -0.222505 -0.33386859
-0.044139497 -0.22258151 -0.333877
-0.070017003 -0.222371 -0.33399501
-0.069893382 -0.22229831 -0.33391052
-0.044691335 -0.22220866 -0.33383632
-0.044519998 -0.22229859 -0.33389559
-0.069857918 -0.22210477 -0.33394468
-0.069684803 -0.2220712 -0.33384162
-0.044729996 -0.22213767 -0.333882
-0.069834501 -0.221955 -0.3339895
-0.069706604 -0.22190681 -0.33392119
-0.069538541 -0.22187428 -0.33383119
-0.069634497 -0.22172201 -0.33395898
-0.069495007 -0.22169846 -0.33389845
-0.069299497 -0.22164614 -0.33383766
-0.069450997 -0.22153683 -0.33397016
-0.069283418 -0.22149818 -0.33391094
-0.069118924 -0.22147669 -0.33384025
-0.069237664 -0.22136199 -0.33396801
-0.069077 -0.22130902 -0.3339234
-0.068882674 -0.22129555 -0.33385071
-0.068764336 -0.22127134 -0.33382499
-0.067679003 -0.221237 -0.33380699
-0.067423254 -0.22126225 -0.33382675
-0.067305334 -0.22125633 -0.33382964
-0.067087665 -0.2212896 -0.33384323
-0.066890746 -0.22127163 -0.33385715
-0.0667345 -0.22127683 -0.33384731
-0.066523761 -0.22127408 -0.3338356
-0.066305421 -0.22127467 -0.33381882
-0.066146858 -0.22125158 -0.33381629
-0.069023669 -0.22116899 -0.33399102
-0.068875998 -0.22115134 -0.33393383
-0.068720907 -0.22110866 -0.33392292
-0.068530336 -0.22112375 -0.33387217
-0.068331331 -0.22108035 -0.333846
-0.068086661 -0.22103667 -0.33385137
-0.067925744 -0.22104612 -0.33385301
-0.067734137 -0.22109701 -0.33386412
-0.067471571 -0.22110879 -0.3339068
-0.067320541 -0.22111215 -0.33392856
-0.067089997 -0.22112589 -0.33392954
-0.066954426 -0.22111616 -0.33391613
-0.066754006 -0.22108157 -0.33394158
-0.066506281 -0.22109139 -0.33394077
-0.066292942 -0.22110695 -0.33390048
-0.066117883 -0.22111471 -0.33386886
-0.065892644 -0.2210865 -0.33383888
-0.065761007 -0.22107856 -0.33381787
-0.068622001 -0.220984 -0.333994
-0.068513498 -0.2209875 -0.33395651
-0.068277664 -0.22096801 -0.33393535
-0.068085998 -0.22094025 -0.33396474
-0.067939878 -0.22091837 -0.33394849
-0.067717209 -0.22096059 -0.33394998
-0.067114331 -0.22099151 -0.33399284
-0.066474497 -0.220953 -0.33399749
-0.066297285 -0.2209563 -0.33397469
-0.066097297 -0.22094263 -0.33395752
-0.065888718 -0.22091532 -0.33391601
-0.065728426 -0.22091623 -0.33388039
-0.065560721 -0.220919 -0.33381301
-0.06584125 -0.22076201 -0.3339875
-0.065721042 -0.22071902 -0.33395284
-0.065527178 -0.22071059 -0.33384299
-0.065652996 -0.22058301 -0.33399099
-0.065513737 -0.22051512 -0.33389157
-0.065489002 -0.22031336 -0.33394009
-0.065349601 -0.2202986 -0.33382902
-0.065437004 -0.2201422 -0.3339752
-0.065292992 -0.22011045 -0.33387926
-0.0652638 -0.21994682 -0.33395299
-0.065110251 -0.21989276 -0.33387727
-0.06498 -0.21984001 -0.33383599
-0.065061003 -0.2197385 -0.33394349
-0.064898819 -0.21969844 -0.33386666
-0.064754002 -0.21964498 -0.33381701
-0.064870201 -0.2195538 -0.33394819
-0.064709663 -0.21950595 -0.33388704
-0.06455075 -0.2194615 -0.33383951
-0.064656995 -0.219377 -0.33397034
-0.064524859 -0.21932742 -0.33393699
-0.064353332 -0.21931434 -0.33387932
-0.064070001 -0.219258 -0.33381501
-0.063892998 -0.21920334 -0.33384132
-0.064053498 -0.2191565 -0.33394098
-0.063917302 -0.21912548 -0.33392197
-0.063609496 -0.219111 -0.33385599
-0.063500702 -0.2190704 -0.33389452
-0.063300505 -0.2190595 -0.33386749
-0.063115403 -0.21905999 -0.33385181
-0.062878504 -0.2190475 -0.33384901
-0.062694497 -0.21905124 -0.33382773
-0.062484667 -0.21905817 -0.33383453
-0.062356334 -0.219032 -0.33385634
-0.062143501 -0.2190495 -0.33382601
-0.06187943 -0.21904702 -0.33383647
-0.061741501 -0.21904549 -0.33381751
-0.063113667 -0.21896468 -0.33396533
-0.062868506 -0.21897849 -0.33391899
-0.062679671 -0.2189595 -0.3339248
-0.062519372 -0.21895337 -0.33394685
-0.062340334 -0.218917 -0.33395767
-0.062120665 -0.21887667 -0.33395836
-0.061873998 -0.21888816 -0.33392826
-0.061722588 -0.21890633 -0.33390975
-0.061500996 -0.21892875 -0.333864
-0.061300296 -0.21892102 -0.33386451
-0.061122574 -0.21889015 -0.33385298
-0.060928375 -0.21886912 -0.33383977
-0.060704999 -0.218815 -0.33381999
-0.061839998 -0.21875234 -0.33396566
-0.061704665 -0.21874468 -0.33397281
-0.061509997 -0.21870434 -0.333958
-0.061311111 -0.21871221 -0.33393055
-0.061132625 -0.21871038 -0.33390996
-0.060895622 -0.21867938 -0.33388948
-0.060691666 -0.21867566 -0.33385667
-0.060500666 -0.21868366 -0.33384404
-0.060293254 -0.21868837 -0.33382028
-0.06014033 -0.21864367 -0.33382335
-0.059901997 -0.2186555 -0.33380252
-0.059566498 -0.21860349 -0.33382148
-0.061263502 -0.218576 -0.333974
-0.061091144 -0.21853356 -0.33397013
-0.060885165 -0.21852069 -0.33395699
-0.060672 -0.218503 -0.33394
-0.060477335 -0.218476 -0.33393502
-0.060276553 -0.21849778 -0.33389419
-0.060125113 -0.21850489 -0.333884
-0.059919551 -0.21851434 -0.33386803
-0.059657753 -0.21851775 -0.33384687
-0.059514143 -0.21848856 -0.33385128
-0.059365332 -0.21847534 -0.33383203
-0.059172332 -0.21847767 -0.33383068
-0.058892667 -0.21845233 -0.33382735
-0.058763999 -0.218439 -0.33382201
-0.060658999 -0.2184 -0.33399999
-0.060259998 -0.21836001 -0.33397803
-0.060108334 -0.21836734 -0.33396399
-0.059899498 -0.21834166 -0.33395866
-0.059657667 -0.218319 -0.33395183
-0.059533548 -0.21832018 -0.33392608
-0.0593445 -0.218301 -0.33392298
-0.059148666 -0.21826966 -0.33393598
-0.05887625 -0.2182911 -0.33390585
-0.058748335 -0.21830066 -0.33387867
-0.058456663 -0.21826534 -0.33386266
-0.058282003 -0.21828783 -0.33387765
-0.058113828 -0.218297 -0.33386233
-0.057909887 -0.21829078 -0.33390114
-0.057710797 -0.2183098 -0.33389062
-0.057519663 -0.2183245 -0.33386382
-0.05733633 -0.2183125 -0.33388248
-0.057186 -0.21837801 -0.33384001
-0.058853 -0.218153 -0.33399701
-0.058765501 -0.2181595 -0.33397698
-0.058538001 -0.218169 -0.33396599
-0.058288667 -0.21818233 -0.33398101
-0.0581275 -0.21819 -0.33396751
-0.047710001 -0.23100701 -0.33378953
-0.052014999 -0.230958 -0.333799
-0.048652001 -0.230803 -0.33376199
-0.048443597 -0.23084521 -0.333763
-0.048331 -0.23085725 -0.33375502
-0.048050001 -0.23087099 -0.33371001
-0.047906131 -0.23088112 -0.33372378
-0.047704499 -0.23089425 -0.33369449
-0.047466502 -0.230902 -0.333691
-0.047267873 -0.23089112 -0.33370137
-0.047116 -0.23089401 -0.33369532
-0.046936143 -0.23088214 -0.33370587
-0.046798497 -0.230874 -0.33373201
-0.052451331 -0.230655 -0.33378968
-0.052356001 -0.23068601 -0.33377934
-0.052141 -0.23066901 -0.333785
-0.051922999 -0.2306402 -0.33377999
-0.0516675 -0.230664 -0.3337855
-0.051523998 -0.23069027 -0.33378038
-0.051316667 -0.23067133 -0.33378199
-0.051063001 -0.230663 -0.33379
-0.050813999 -0.23061199 -0.33377799
-0.050705001 -0.23061576 -0.33377302
-0.050493669 -0.23062466 -0.33376667
-0.049835999 -0.230601 -0.33377701
-0.049711 -0.230606 -0.33377135
-0.0495135 -0.2306505 -0.33377734
-0.049244996 -0.2306602 -0.33376259
-0.049117249 -0.23067251 -0.33375949
-0.048938997 -0.23067901 -0.33372301
-0.048717748 -0.23068699 -0.33370751
-0.048477747 -0.230703 -0.33368599
-0.0483495 -0.23070715 -0.33365366
-0.048046999 -0.230756 -0.33360299
-0.047898334 -0.23076533 -0.333608
-0.047742002 -0.2307795 -0.33360702
-0.046861999 -0.230756 -0.333608
-0.046796001 -0.23075999 -0.33362299
-0.046118665 -0.23067333 -0.33376336
-0.045984998 -0.23063999 -0.333756
-0.053018 -0.230426 -0.33379599
-0.052909002 -0.230462 -0.333785
-0.052664001 -0.23049933 -0.33376399
-0.052448001 -0.23051913 -0.33374387
-0.052358288 -0.23050843 -0.33373186
-0.052132666 -0.23052599 -0.33373764
-0.051914666 -0.23050468 -0.33373633
-0.051655669 -0.23048683 -0.33374366
-0.051534001 -0.23049267 -0.33373356
-0.051326666 -0.23050384 -0.33373451
-0.051054001 -0.23051865 -0.33373865
-0.0508538 -0.23051699 -0.33374161
-0.050688498 -0.23048671 -0.3337245
-0.050485112 -0.23048012 -0.33371153
-0.05027267 -0.23049299 -0.3337343
-0.050092999 -0.23050635 -0.33373865
-0.049920402 -0.2305046 -0.33373079
-0.049705502 -0.23049583 -0.33371565
-0.049505997 -0.23050451 -0.33370697
-0.049278334 -0.23048182 -0.33367002
-0.049137551 -0.23048666 -0.33365476
-0.048930332 -0.230496 -0.33362734
-0.048735004 -0.23054934 -0.33363667
-0.048512999 -0.23058499 -0.33360499
-0.046300001 -0.230583 -0.33362499
-0.046116333 -0.23055868 -0.33365968
-0.045980498 -0.23049 -0.33364001
-0.045715332 -0.2304585 -0.33373764
-0.053223498 -0.2302995 -0.333774
-0.053079888 -0.2302819 -0.33376956
-0.052896667 -0.23028566 -0.3337523
-0.052649666 -0.23028468 -0.33370599
-0.052447993 -0.230295 -0.33368281
-0.052355111 -0.23030356 -0.33367854
-0.052118663 -0.23031199 -0.33368
-0.051903781 -0.23032491 -0.3336772
-0.051660668 -0.23031767 -0.33368599
-0.051533639 -0.23027173 -0.33367422
-0.051313668 -0.23028934 -0.33366415
-0.051040333 -0.23030467 -0.33368134
-0.050853997 -0.23033175 -0.33367801
-0.050713003 -0.23030858 -0.33366039
-0.050489999 -0.23030619 -0.33364621
-0.050264001 -0.23030999 -0.333639
-0.050084002 -0.23032349 -0.33364299
-0.0498816 -0.23031719 -0.3336322
-0.049706142 -0.23033513 -0.33364788
-0.0495045 -0.23033111 -0.33363625
-0.049309 -0.230336 -0.33362699
-0.045671999 -0.23029129 -0.3337
-0.045444999 -0.23022901 -0.33378935
-0.053652748 -0.23006776 -0.33378226
-0.053498778 -0.23010212 -0.33377934
-0.053257748 -0.23010175 -0.33374226
-0.053110376 -0.23011813 -0.33373326
-0.052927803 -0.23008581 -0.33370522
-0.052635331 -0.23007368 -0.33366737
-0.052432496 -0.23008335 -0.33364713
-0.052340224 -0.23009168 -0.333637
-0.052104 -0.23009932 -0.33363268
-0.051889334 -0.230112 -0.33362743
-0.051679332 -0.230123 -0.33362401
-0.0515275 -0.23010039 -0.33363026
-0.051313002 -0.23009059 -0.3336156
-0.051029 -0.23012549 -0.33362353
-0.050863001 -0.230168 -0.333626
-0.050684202 -0.2301708 -0.33361319
-0.050546002 -0.230187 -0.33360201
-0.045687858 -0.23012759 -0.33367825
-0.045475431 -0.23008315 -0.33375528
-0.045374598 -0.23007901 -0.33378321
-0.059705 -0.22983401 -0.33379
-0.059272997 -0.229856 -0.33378798
-0.059081603 -0.2298532 -0.3337872
-0.058886856 -0.22986017 -0.3337833
-0.058695998 -0.22986558 -0.33377403
-0.058473334 -0.22982733 -0.33378503
-0.058293331 -0.22983833 -0.33378601
-0.058134999 -0.229849 -0.33379
-0.057856999 -0.22986101 -0.33378899
-0.057558998 -0.22981299 -0.33379301
-0.056662001 -0.229864 -0.33379301
-0.055847999 -0.22984549 -0.33378452
-0.055773001 -0.22985099 -0.33379599
-0.054844499 -0.22986251 -0.33378601
-0.054777 -0.229829 -0.33379799
-0.054480001 -0.22984999 -0.33379599
-0.054366998 -0.229853 -0.33379501
-0.054156251 -0.22989576 -0.33379501
-0.05392034 -0.22987585 -0.33378783
-0.053669333 -0.22988933 -0.33376467
-0.05352011 -0.22989801 -0.33374625
-0.053388 -0.22989833 -0.33373165
-0.053116579 -0.22991459 -0.33370492
-0.052938201 -0.22991559 -0.33368221
-0.052621998 -0.22989801 -0.33364999
-0.052427996 -0.22991832 -0.33362135
-0.052348003 -0.22987922 -0.33362123
-0.051877752 -0.229954 -0.33361125
-0.051530667 -0.22994012 -0.3336159
-0.051351 -0.229937 -0.333606
-0.04568683 -0.229913 -0.33363631
-0.045493376 -0.22990237 -0.33371413
-0.045326628 -0.22988425 -0.33377463
-0.059865251 -0.22964749 -0.33378351
-0.059741858 -0.22966956 -0.33377716
-0.059501003 -0.22970234 -0.33378601
-0.059294444 -0.22971313 -0.33377168
-0.0591061 -0.22972319 -0.33376724
-0.058873773 -0.22967778 -0.33376443
-0.058692575 -0.22968484 -0.33374888
-0.058523372 -0.22967464 -0.33376163
-0.058309332 -0.22969675 -0.33377734
-0.058093499 -0.22972876 -0.33378446
-0.057905801 -0.2297062 -0.33377701
-0.057769001 -0.22973067 -0.33378503
-0.0574992 -0.2296484 -0.33378559
-0.057304624 -0.22968149 -0.33378664
-0.057087999 -0.22965467 -0.33379033
-0.056911498 -0.229681 -0.33379501
-0.056705002 -0.22971581 -0.33378717
-0.056558002 -0.229661 -0.33377999
-0.056352001 -0.2296385 -0.33378798
-0.056093745 -0.2296765 -0.33377841
-0.055881105 -0.2296789 -0.33377549
-0.055762667 -0.22971167 -0.33378133
-0.055496 -0.2296865 -0.33377999
-0.055300601 -0.22968459 -0.333781
-0.055128749 -0.2297035 -0.33379
-0.0548594 -0.22967181 -0.33376402
-0.054767337 -0.22968768 -0.33377001
-0.054499377 -0.22969364 -0.33376688
-0.054306224 -0.22971357 -0.33376297
-0.054110888 -0.22972022 -0.33376211
-0.05390875 -0.229698 -0.33374348
-0.053654887 -0.22967656 -0.33371645
-0.053505115 -0.2296862 -0.333711
-0.053372998 -0.22968733 -0.33369532
-0.053101748 -0.22970299 -0.33366692
-0.052912835 -0.22971851 -0.33364782
-0.0526115 -0.229757 -0.33363098
-0.052434001 -0.2298 -0.33360299
-0.052331999 -0.2297395 -0.333606
-0.0456638 -0.2297184 -0.33362702
-0.045486126 -0.22971375 -0.33366013
-0.045307714 -0.22969215 -0.33373231
-0.045134202 -0.22963659 -0.3337594
-0.044973001 -0.229619 -0.33378199
-0.059844803 -0.2294744 -0.333792
-0.05973433 -0.22948021 -0.33377564
-0.059485 -0.22949266 -0.33376065
-0.05927778 -0.22950432 -0.33376414
-0.059100892 -0.22951357 -0.33375722
-0.058925629 -0.22951661 -0.33374152
-0.058726501 -0.22949968 -0.33374515
-0.058507502 -0.22948401 -0.33376074
-0.058312993 -0.2294921 -0.33376101
-0.058143206 -0.2294838 -0.33375341
-0.057905663 -0.22951035 -0.33376133
-0.057752337 -0.22952068 -0.33377567
-0.057470001 -0.22950959 -0.33376458
-0.057315912 -0.22947048 -0.33374101
-0.057065669 -0.22949034 -0.33374617
-0.056930665 -0.22950284 -0.33376232
-0.056697499 -0.22951134 -0.33375606
-0.056547999 -0.22952099 -0.33376101
-0.0563435 -0.22949401 -0.333738
-0.056074504 -0.22950749 -0.33373633
-0.055894583 -0.22949608 -0.33372328
-0.055768799 -0.2294822 -0.33371219
-0.055486333 -0.22950666 -0.33370164
-0.05529011 -0.22951156 -0.3337068
-0.055118334 -0.22952418 -0.33372268
-0.054857749 -0.229505 -0.33368999
-0.054756999 -0.22950849 -0.33370602
-0.054492552 -0.22948554 -0.33368266
-0.05429456 -0.22949678 -0.33366764
-0.054099448 -0.22950278 -0.33366099
-0.053899165 -0.2295175 -0.3336648
-0.053668499 -0.2294955 -0.33364299
-0.053520873 -0.22950399 -0.333635
-0.053365 -0.229542 -0.33363
-0.053093001 -0.22956 -0.33362073
-0.052848 -0.229577 -0.33360001
-0.045461502 -0.22956349 -0.33362478
-0.045332834 -0.22954534 -0.33363783
-0.045098498 -0.22951375 -0.333653
-0.044900332 -0.22950931 -0.333671
-0.044695664 -0.22949584 -0.33368233
-0.044503998 -0.22947401 -0.33370435
-0.044341329 -0.22946501 -0.33372834
-0.060303003 -0.229242 -0.33379251
-0.060066499 -0.22927949 -0.333781
-0.059837248 -0.22929899 -0.3337675
-0.059711855 -0.22929144 -0.33375889
-0.059469998 -0.22928166 -0.33372667
-0.05928186 -0.22930144 -0.33371946
-0.059106003 -0.22929469 -0.33372107
-0.058903217 -0.22931522 -0.33370888
-0.05871411 -0.22932309 -0.33371267
-0.058514569 -0.22931159 -0.33371273
-0.058306284 -0.22929072 -0.33370569
-0.058139667 -0.22928385 -0.33368731
-0.057892997 -0.22929533 -0.33368632
-0.057739664 -0.22930501 -0.33369365
-0.057476833 -0.22932033 -0.33368912
-0.057312749 -0.22929651 -0.333673
-0.057047002 -0.2292902 -0.33367059
-0.056919333 -0.22928584 -0.33366382
-0.056685496 -0.22929525 -0.33366576
-0.056536335 -0.22930467 -0.33367035
-0.056333333 -0.22931467 -0.33366799
-0.056085426 -0.22933587 -0.3336446
-0.055931292 -0.22930971 -0.3336249
-0.055768501 -0.22934949 -0.33362949
-0.055476502 -0.2293255 -0.33362198
-0.055280503 -0.22933118 -0.33362767
-0.055108752 -0.22934249 -0.33364001
-0.054849498 -0.22936049 -0.33363402
-0.054749001 -0.2293635 -0.33363998
-0.054484665 -0.22934133 -0.333621
-0.054261498 -0.2293535 -0.333606
-0.044249997 -0.2293655 -0.33365703
-0.044094797 -0.22932081 -0.33369821
-0.043960333 -0.22926633 -0.33370629
-0.060757 -0.22900349 -0.3337675
-0.060483996 -0.22907624 -0.33376563
-0.060294166 -0.22909968 -0.33374751
-0.060054664 -0.22910167 -0.33373234
-0.059841253 -0.229138 -0.33371001
-0.059732705 -0.22911108 -0.33370024
-0.059459001 -0.22910449 -0.333675
-0.059281003 -0.22907783 -0.33365884
-0.059101079 -0.22908665 -0.33365241
-0.05888978 -0.22910124 -0.33364567
-0.058701336 -0.22910888 -0.33363912
-0.058493894 -0.22911745 -0.33363989
-0.05830887 -0.22911762 -0.33363602
-0.058132499 -0.22913951 -0.33362198
-0.057884999 -0.22915199 -0.33363199
-0.057729501 -0.2291255 -0.33362201
-0.057469502 -0.229176 -0.3336235
-0.057301167 -0.22916515 -0.33362165
-0.057085 -0.22919901 -0.333619
-0.056911498 -0.2291425 -0.33360249
-0.056668498 -0.22915199 -0.33360648
-0.0438504 -0.22914401 -0.3336646
-0.043724429 -0.22911644 -0.33369097
-0.061744999 -0.22881 -0.33379701
-0.061531998 -0.22881299 -0.33378899
-0.061342999 -0.22885749 -0.33378151
-0.061089896 -0.22890902 -0.33377331
-0.060914874 -0.22891538 -0.33375973
-0.060751501 -0.22889575 -0.33372152
-0.060474083 -0.228889 -0.33367682
-0.060281832 -0.22888398 -0.3336648
-0.060041998 -0.22888799 -0.33366299
-0.059840668 -0.22890599 -0.333637
-0.059719328 -0.22891158 -0.33363485
-0.059447665 -0.22892566 -0.33362165
-0.059272498 -0.228935 -0.33361101
-0.0591195 -0.2289425 -0.3336015
-0.043648001 -0.228972 -0.33362699
-0.0622725 -0.2286305 -0.33378801
-0.062059753 -0.22865951 -0.33379197
-0.061903 -0.22867633 -0.333781
-0.061736833 -0.22870149 -0.33377066
-0.061522335 -0.22867267 -0.33375299
-0.061332669 -0.22867768 -0.33371601
-0.061108086 -0.22869952 -0.33369008
-0.060911894 -0.22870991 -0.33369401
-0.060740005 -0.22871782 -0.33367279
-0.060504854 -0.22875443 -0.33362117
-0.060226001 -0.22874101 -0.33360901
-0.060030501 -0.22871 -0.33360702
-0.059831001 -0.228764 -0.33360499
-0.062660001 -0.2284544 -0.33379343
-0.062514357 -0.22847857 -0.33378473
-0.062297001 -0.22850801 -0.33377251
-0.062096696 -0.22849981 -0.33376679
-0.061921716 -0.22849742 -0.33374658
-0.061725557 -0.2285239 -0.33371606
-0.061512001 -0.22849351 -0.33368999
-0.061320998 -0.22850099 -0.33366999
-0.06109333 -0.22848745 -0.33364594
-0.060898338 -0.22849645 -0.33363077
-0.060725003 -0.22850633 -0.33363053
-0.043226 -0.228443 -0.33370501
-0.062907502 -0.22827899 -0.33378601
-0.062673099 -0.2283245 -0.33378607
-0.062507756 -0.22828071 -0.33376816
-0.062311996 -0.22828101 -0.333765
-0.062112339 -0.22828944 -0.33375457
-0.061924443 -0.22829564 -0.33372757
-0.061711445 -0.22831123 -0.33366427
-0.06149967 -0.22831734 -0.333655
-0.061308336 -0.22832601 -0.33364132
-0.061088111 -0.22830088 -0.33363473
-0.060894858 -0.22830629 -0.33361098
-0.060714997 -0.2283645 -0.33360952
-0.043217998 -0.22829832 -0.33364967
-0.043134749 -0.22829126 -0.33374199
-0.063661002 -0.228066 -0.33379
-0.063498497 -0.228071 -0.33378848
-0.063295111 -0.22805946 -0.33377078
-0.06313657 -0.22807588 -0.33376357
-0.062895 -0.22810365 -0.33375368
-0.062666446 -0.22811113 -0.33373743
-0.062522747 -0.2281137 -0.3337301
-0.062302001 -0.22810251 -0.33370298
-0.062098224 -0.22807734 -0.33370352
-0.061909661 -0.22808491 -0.33368358
-0.061695889 -0.22810146 -0.33363742
-0.061487 -0.2281415 -0.33362299
-0.061299998 -0.228183 -0.33360001
-0.043097999 -0.22808841 -0.33371741
-0.066829003 -0.227825 -0.333794
-0.065866999 -0.22781201 -0.33378801
-0.065689504 -0.22781199 -0.33377451
-0.065486498 -0.2278225 -0.3337855
-0.065306999 -0.22784901 -0.33377859
-0.065127999 -0.2278395 -0.33377951
-0.064676166 -0.22785734 -0.33378232
-0.064568505 -0.22783899 -0.333774
-0.064274289 -0.22786972 -0.33375868
-0.064159162 -0.2278955 -0.33376399
-0.063884713 -0.22792014 -0.33376172
-0.063709602 -0.2279036 -0.333736
-0.063499004 -0.22793336 -0.33373272
-0.063293546 -0.22788173 -0.33371374
-0.063132338 -0.22788323 -0.33371001
-0.062881671 -0.22789033 -0.33368835
-0.062652998 -0.22789788 -0.33367088
-0.062500603 -0.22791933 -0.33367148
-0.062290668 -0.22792567 -0.33364567
-0.062076714 -0.22788544 -0.33364004
-0.061916202 -0.2279118 -0.33362821
-0.0617145 -0.2279595 -0.33360201
-0.043049499 -0.22788601 -0.3336705
-0.042939 -0.22788352 -0.333747
-0.068495244 -0.2276835 -0.33378074
-0.068268701 -0.2276524 -0.33375832
-0.068043128 -0.22767025 -0.33376876
-0.067925796 -0.22765091 -0.33375278
-0.067669749 -0.22766161 -0.33377847
-0.067534372 -0.22767328 -0.33377019
-0.0673014 -0.2276874 -0.33378601
-0.067066297 -0.22767857 -0.33378696
-0.066889718 -0.22767602 -0.33377528
-0.066699758 -0.22769043 -0.33378041
-0.066495001 -0.22770607 -0.33377773
-0.066319309 -0.22768059 -0.33377856
-0.066112801 -0.22768672 -0.33377549
-0.065934852 -0.22771256 -0.33377388
-0.065691009 -0.22768399 -0.3337394
-0.065494403 -0.22767888 -0.33374208
-0.065319337 -0.22769223 -0.33373508
-0.065118663 -0.22769733 -0.3337388
-0.064692922 -0.22772455 -0.33373451
-0.064572662 -0.22768568 -0.33373466
-0.064269893 -0.22767633 -0.33370233
-0.064145997 -0.22768216 -0.33369482
-0.063885003 -0.22769783 -0.3336983
-0.063711502 -0.22770382 -0.33368382
-0.063505679 -0.22771603 -0.33368766
-0.063311458 -0.22771393 -0.33367211
-0.063111126 -0.22768213 -0.33367836
-0.06286633 -0.22767967 -0.33365569
-0.062650993 -0.22769512 -0.33362657
-0.062505431 -0.22770619 -0.33362877
-0.062278502 -0.227749 -0.33360851
-0.062089801 -0.22774999 -0.3336224
-0.0619305 -0.22776125 -0.33360726
-0.04303775 -0.22770825 -0.333626
-0.042908665 -0.22768898 -0.33369431
-0.068631329 -0.22749233 -0.33379865
-0.068500228 -0.22751771 -0.33375672
-0.068285502 -0.2275099 -0.33371651
-0.068090796 -0.227494 -0.33371061
-0.067920066 -0.22748832 -0.33370763
-0.067683406 -0.22749253 -0.33372176
-0.067529172 -0.22749895 -0.33371675
-0.067298882 -0.22751611 -0.33372468
-0.067071997 -0.22752272 -0.33375672
-0.066874176 -0.22749582 -0.33373693
-0.066696703 -0.22748198 -0.33374822
-0.066503882 -0.22748666 -0.33374438
-0.066315286 -0.22750074 -0.33375147
-0.066101201 -0.22751015 -0.33373106
-0.065913334 -0.22752322 -0.33373857
-0.065659806 -0.22751541 -0.33371118
-0.065474905 -0.22749361 -0.33370492
-0.065304257 -0.22748187 -0.33370036
-0.065103337 -0.22748716 -0.33370987
-0.064686172 -0.227512 -0.33368501
-0.064569332 -0.22751999 -0.33367983
-0.064268604 -0.2275078 -0.33368158
-0.064141341 -0.22748233 -0.3336502
-0.063869171 -0.2274875 -0.33367434
-0.063695662 -0.22749417 -0.33366048
-0.063490666 -0.22750531 -0.33365214
-0.063293077 -0.22752035 -0.33365324
-0.063123755 -0.22750449 -0.33364612
-0.062853999 -0.227505 -0.33362901
-0.062642671 -0.22747432 -0.333606
-0.062541872 -0.22748987 -0.33360413
-0.042855334 -0.22748399 -0.33369866
-0.068613 -0.227377 -0.33379701
-0.068494625 -0.22731376 -0.33375815
-0.068292782 -0.22731434 -0.33369619
-0.068097554 -0.22732456 -0.33367398
-0.067924932 -0.22731732 -0.33366805
-0.067683063 -0.22727951 -0.33366117
-0.06751816 -0.22728528 -0.33368635
-0.06728366 -0.22730565 -0.33368978
-0.067058355 -0.22732113 -0.33371085
-0.066897079 -0.22731626 -0.33371079
-0.066685475 -0.22728373 -0.33371356
-0.066493943 -0.22728068 -0.33371478
-0.066299997 -0.22729039 -0.3337203
-0.066085324 -0.22730047 -0.33370775
-0.065897897 -0.22731344 -0.33371046
-0.065664202 -0.22733481 -0.33370361
-0.065494925 -0.22732252 -0.33370379
-0.065305628 -0.22728212 -0.33370489
-0.065102004 -0.22726987 -0.33371872
-0.064668499 -0.22730492 -0.33369318
-0.064552508 -0.22731251 -0.33367816
-0.064269997 -0.22732717 -0.33368698
-0.064147003 -0.22732338 -0.333657
-0.063853167 -0.22727883 -0.33365604
-0.063679494 -0.22728534 -0.33364484
-0.063474111 -0.22729622 -0.3336381
-0.063291587 -0.22730517 -0.33364108
-0.063114837 -0.22732107 -0.33362976
-0.062839329 -0.22733067 -0.33362636
-0.062628254 -0.22730175 -0.33360648
-0.062421001 -0.22736201 -0.333606
-0.042845003 -0.22730599 -0.333635
-0.042770803 -0.227264 -0.33372337
-0.068671666 -0.22702165 -0.33378133
-0.068496287 -0.22709687 -0.33375663
-0.068283603 -0.2271104 -0.33368513
-0.068091504 -0.22712511 -0.33366999
-0.067928314 -0.22711682 -0.33365551
-0.067686148 -0.22707644 -0.33366197
-0.067529723 -0.22707714 -0.33366582
-0.067299172 -0.22709619 -0.3336744
-0.067051083 -0.22710665 -0.33369076
-0.066890396 -0.22711919 -0.33370605
-0.066690728 -0.227112 -0.33370814
-0.066500291 -0.22708201 -0.33370695
-0.0662954 -0.22708063 -0.3337059
-0.066074498 -0.22709665 -0.33369359
-0.065892495 -0.2270968 -0.33370233
-0.065684333 -0.22711401 -0.33370265
-0.06549307 -0.22711854 -0.33370024
-0.06531582 -0.22710891 -0.33371398
-0.065112166 -0.22710449 -0.33370498
-0.064999998 -0.22700401 -0.33368501
-0.064670339 -0.22709554 -0.33369532
-0.064554997 -0.22710387 -0.33368433
-0.064253666 -0.22711833 -0.33367252
-0.064125665 -0.22712456 -0.33365643
-0.063840255 -0.22710374 -0.33363202
-0.063759997 -0.22706968 -0.33361498
-0.063508883 -0.22711237 -0.33362323
-0.063309208 -0.22710653 -0.33361417
-0.06308616 -0.22715932 -0.3336117
-0.062829003 -0.227191 -0.33361101
-0.042728998 -0.22710299 -0.33368599
-0.068903334 -0.22684801 -0.33376333
-0.068671249 -0.22688788 -0.33373463
-0.068511866 -0.22688405 -0.33371016
-0.068288498 -0.22690055 -0.33367831
-0.068104662 -0.22690733 -0.33365652
-0.067920379 -0.22691199 -0.33364141
-0.067688182 -0.22690557 -0.33364272
-0.067515001 -0.22689506 -0.33364722
-0.067283325 -0.22688667 -0.33365259
-0.06703946 -0.2269032 -0.33366069
-0.066895507 -0.22690685 -0.33366957
-0.066688113 -0.22691511 -0.33368087
-0.066507198 -0.22691654 -0.33367267
-0.066286393 -0.22689377 -0.33367202
-0.066095598 -0.22688021 -0.33365619
-0.065905549 -0.2268969 -0.33366165
-0.065701999 -0.22688501 -0.33364576
-0.065499909 -0.22690733 -0.33366418
-0.065312892 -0.22692233 -0.33366755
-0.065152504 -0.226927 -0.3336685
-0.064993501 -0.22689849 -0.33365399
-0.064662755 -0.22689213 -0.333637
-0.064542569 -0.22691257 -0.33363217
-0.064233996 -0.22695434 -0.33362135
-0.064113833 -0.22694816 -0.33361533
-0.063865997 -0.226996 -0.33361501
-0.042719498 -0.22696051 -0.333655
-0.070221998 -0.226659 -0.333799
-0.070120998 -0.2266645 -0.33379
-0.069887109 -0.22665 -0.33377582
-0.06967137 -0.2266515 -0.33375326
-0.069508158 -0.22666335 -0.33375502
-0.06929367 -0.22668621 -0.33373654
-0.069083072 -0.22672863 -0.33374515
-0.068896167 -0.22670364 -0.333698
-0.068683252 -0.22669899 -0.333662
-0.068506442 -0.22668423 -0.33364144
-0.06829647 -0.22670962 -0.33362785
-0.068113804 -0.22672439 -0.33361658
-0.067920998 -0.226771 -0.3336032
-0.067686871 -0.22675663 -0.33362073
-0.067528993 -0.2267732 -0.33361843
-0.06727425 -0.2267455 -0.33361474
-0.067037672 -0.226757 -0.33362666
-0.066896275 -0.22671947 -0.33362505
-0.066687867 -0.2267171 -0.33362931
-0.066505469 -0.22673307 -0.33362493
-0.066302434 -0.22674832 -0.33362263
-0.066091001 -0.22672732 -0.33360967
-0.065920331 -0.22674532 -0.333608
-0.065726504 -0.22676149 -0.3336145
-0.065491252 -0.22676501 -0.33361524
-0.065306455 -0.22674742 -0.33361733
-0.065151341 -0.22676134 -0.33361468
-0.064986996 -0.22679199 -0.33362299
-0.064636 -0.22674499 -0.33360001
-0.070877805 -0.22644229 -0.333781
-0.070735998 -0.226456 -0.33375752
-0.070540331 -0.22650021 -0.33375221
-0.070284896 -0.22650965 -0.33373132
-0.070114337 -0.22652017 -0.33371434
-0.069898821 -0.22651409 -0.33369961
-0.069657885 -0.22649688 -0.33367789
-0.069499224 -0.22648355 -0.33366293
-0.069283329 -0.22649491 -0.33364332
-0.069087878 -0.2265425 -0.33364528
-0.068924144 -0.22653401 -0.33363387
-0.068690665 -0.22656767 -0.33361566
-0.068586998 -0.22660001 -0.33361101
-0.071252495 -0.226281 -0.33378163
-0.0710942 -0.2262872 -0.33375922
-0.070886649 -0.22629844 -0.3337276
-0.070726335 -0.22627817 -0.33368516
-0.070528671 -0.22628641 -0.33366096
-0.070281006 -0.22630417 -0.33364177
-0.070123598 -0.22631939 -0.33363
-0.069898464 -0.226344 -0.33363071
-0.069723003 -0.22638381 -0.33362779
-0.071427338 -0.22610332 -0.33378997
-0.071248733 -0.22612199 -0.33374071
-0.0711089 -0.22611073 -0.33370984
-0.070891775 -0.22612101 -0.33365786
-0.070718504 -0.22607864 -0.33363435
-0.07051646 -0.22607991 -0.33360952
-0.070307665 -0.22615333 -0.33360967
-0.071415 -0.225967 -0.33379599
-0.071240664 -0.22590753 -0.33374667
-0.071130998 -0.22591689 -0.33371907
-0.070887893 -0.22591396 -0.33366653
-0.070738122 -0.22591925 -0.33363703
-0.070500068 -0.22588366 -0.33361781
-0.070326 -0.225811 -0.33360499
-0.042626999 -0.22580799 -0.33361599
-0.071231999 -0.225749 -0.33378002
-0.071138002 -0.22571191 -0.33376801
-0.07088688 -0.22571066 -0.33371282
-0.070729829 -0.2257241 -0.33368984
-0.070482746 -0.22571075 -0.33364424
-0.070255123 -0.22566164 -0.33360639
-0.042681333 -0.22568966 -0.3336477
-0.071059003 -0.225568 -0.33379799
-0.070866995 -0.22550671 -0.33376127
-0.070711084 -0.22551815 -0.33371529
-0.070467442 -0.22552645 -0.33366865
-0.070270494 -0.22550663 -0.33363098
-0.070154138 -0.22546758 -0.33360872
-0.042830002 -0.22544201 -0.33364901
-0.042730749 -0.22552501 -0.33368602
-0.070844501 -0.22530922 -0.33377972
-0.070738271 -0.22530462 -0.33374888
-0.07048022 -0.2253204 -0.33371624
-0.070280544 -0.22533384 -0.3336781
-0.070143275 -0.22531328 -0.33365154
-0.069898747 -0.22526576 -0.33360714
-0.069789998 -0.225205 -0.333601
-0.042873334 -0.225329 -0.33371401
-0.071208999 -0.225004 -0.333772
-0.071099333 -0.22504479 -0.33377698
-0.07085254 -0.22509283 -0.3337422
-0.070737205 -0.22509554 -0.33372879
-0.070467055 -0.22511692 -0.33371457
-0.070291296 -0.22511311 -0.33370581
-0.070127204 -0.22512713 -0.33369872
-0.069856897 -0.22509333 -0.33362088
-0.069755502 -0.22506841 -0.33362791
-0.042886 -0.22513101 -0.33374602
-0.071439996 -0.22486 -0.33379999
-0.071264997 -0.224896 -0.33376652
-0.071096994 -0.22487232 -0.33372143
-0.070852898 -0.2248821 -0.33367983
-0.070735931 -0.22488439 -0.33367208
-0.070461139 -0.2249026 -0.33365849
-0.070332117 -0.22490843 -0.33365265
-0.070125394 -0.22491629 -0.33366191
-0.069876857 -0.22492944 -0.33363014
-0.069747113 -0.22492068 -0.33361933
-0.071456715 -0.22468542 -0.33377734
-0.071316004 -0.22471733 -0.333745
-0.071124367 -0.22470401 -0.33367938
-0.07088425 -0.2246975 -0.333637
-0.070725933 -0.22469161 -0.33362487
-0.070482805 -0.22474661 -0.3336072
-0.071456917 -0.22450499 -0.33376125
-0.071300991 -0.224508 -0.33371165
-0.071104527 -0.22452074 -0.33365008
-0.070923753 -0.224573 -0.33360973
-0.070789501 -0.22459799 -0.333608
-0.071458817 -0.224301 -0.33375055
-0.071329191 -0.22428641 -0.33370382
-0.071088798 -0.22431202 -0.33362645
-0.071475074 -0.22407962 -0.33376047
-0.071325332 -0.22409235 -0.33369783
-0.071102627 -0.2241195 -0.33361599
-0.071439877 -0.22389562 -0.33375898
-0.071328998 -0.22387612 -0.33371514
-0.071104802 -0.22389218 -0.3336156
-0.071434602 -0.22371261 -0.3337816
-0.071326099 -0.22367069 -0.3337481
-0.071051337 -0.22368936 -0.3336319
-0.070919253 -0.22364099 -0.33362401
-0.070689999 -0.22363482 -0.33363149
-0.070522748 -0.22366525 -0.33362874
-0.07032539 -0.2236844 -0.33361641
-0.069982998 -0.223603 -0.33360001
-0.071276836 -0.22349535 -0.33376667
-0.071044549 -0.22348444 -0.33368933
-0.0709344 -0.2234942 -0.33367082
-0.070686109 -0.22349651 -0.33370572
-0.070526332 -0.2235119 -0.33368424
-0.070300609 -0.22352123 -0.33366209
-0.070067257 -0.22352332 -0.33363429
-0.069919251 -0.22348724 -0.33363637
-0.069668949 -0.22347464 -0.33362257
-0.069555499 -0.22345799 -0.33361799
-0.071041256 -0.22331326 -0.33376998
-0.070946142 -0.22332402 -0.33376616
-0.070679419 -0.22332393 -0.33377537
-0.070523098 -0.2233216 -0.33376318
-0.070278727 -0.22331773 -0.33374095
-0.070056908 -0.22333111 -0.3337121
-0.069959447 -0.22331476 -0.33370844
-0.069676727 -0.22327511 -0.33367726
-0.06950108 -0.22328641 -0.33364475
-0.069295168 -0.22326033 -0.33361164
-0.070221998 -0.2231835 -0.33379501
-0.070040874 -0.22312863 -0.3337875
-0.069945082 -0.22312458 -0.33375344
-0.069667831 -0.22308725 -0.33371758
-0.069515251 -0.22309041 -0.33368227
-0.069324002 -0.223101 -0.3336207
-0.043979999 -0.223002 -0.33360499
-0.0699085 -0.22297299 -0.33378524
-0.06967327 -0.2229251 -0.33374238
-0.069527715 -0.22288704 -0.33365664
-0.069367498 -0.222872 -0.33360982
-0.044218998 -0.22284999 -0.33366001
-0.044095796 -0.22289589 -0.33369941
-0.043963 -0.22294 -0.333785
-0.069662459 -0.22272992 -0.33373228
-0.069532849 -0.22270499 -0.33365485
-0.069360338 -0.22271067 -0.333606
-0.044441998 -0.22262901 -0.33363348
-0.044279501 -0.2227115 -0.33371267
-0.04407075 -0.22275901 -0.33378124
-0.043977998 -0.222763 -0.33373898
-0.069658332 -0.22251423 -0.33372846
-0.069541067 -0.22251955 -0.3336738
-0.06938225 -0.222508 -0.33360776
-0.04465 -0.22245951 -0.33362582
-0.044509001 -0.2225 -0.33366221
-0.044357501 -0.2225695 -0.33375299
-0.069653288 -0.22231641 -0.33375573
-0.069530703 -0.22230871 -0.33370078
-0.069319166 -0.2223091 -0.3336238
-0.044840001 -0.222259 -0.33361
-0.044731755 -0.22228874 -0.33365873
-0.044590998 -0.222349 -0.33375299
-0.069612503 -0.2221355 -0.333785
-0.069515556 -0.22210628 -0.33373642
-0.06928733 -0.22211532 -0.33365694
-0.069128007 -0.22212008 -0.33362478
-0.045038499 -0.2220335 -0.33361199
-0.0448815 -0.22212026 -0.33371601
-0.069474094 -0.22192879 -0.3337771
-0.069272213 -0.22191393 -0.33370543
-0.06911137 -0.22191477 -0.33367234
-0.06892021 -0.22187181 -0.33361441
-0.045271002 -0.22187801 -0.33362001
-0.069264874 -0.2217375 -0.33377051
-0.069101833 -0.2217125 -0.33372605
-0.068889417 -0.22172166 -0.33364478
-0.068708204 -0.22167659 -0.33361322
-0.06859 -0.221635 -0.33361799
-0.067520335 -0.22164799 -0.33360901
-0.067253575 -0.22164229 -0.33364031
-0.067095309 -0.2216547 -0.33364373
-0.066868998 -0.22167315 -0.33364496
-0.066675499 -0.22170977 -0.33364731
-0.066518642 -0.22169872 -0.33364663
-0.066289067 -0.22168627 -0.33364147
-0.066118851 -0.221664 -0.33361214
-0.06587825 -0.22160301 -0.33360401
-0.069063783 -0.22154701 -0.33377922
-0.068873636 -0.22152306 -0.33372509
-0.068689585 -0.22152726 -0.33367109
-0.068526506 -0.221487 -0.33365133
-0.068252504 -0.2214385 -0.33361501
-0.068094596 -0.22141521 -0.33361703
-0.067970499 -0.2214195 -0.33361
-0.067673251 -0.2214905 -0.33363527
-0.067480415 -0.22151117 -0.33366507
-0.06726975 -0.22149886 -0.33369139
-0.067083567 -0.22148089 -0.33371934
-0.066863254 -0.22149624 -0.33373865
-0.066710569 -0.22148612 -0.33373198
-0.066518724 -0.22150254 -0.33373496
-0.066284873 -0.22151971 -0.33371705
-0.066116817 -0.22152723 -0.3336744
-0.065894671 -0.22150998 -0.33364362
-0.065734453 -0.22144866 -0.33364046
-0.065551005 -0.22143133 -0.33360836
-0.068825997 -0.22138099 -0.33379099
-0.068688378 -0.22134802 -0.33375549
-0.068531998 -0.22132729 -0.33373889
-0.068330005 -0.22131619 -0.33369398
-0.068097994 -0.22127773 -0.33367193
-0.067908667 -0.22128676 -0.3336679
-0.067751817 -0.22130728 -0.33371335
-0.067490533 -0.2213264 -0.33375856
-0.06728366 -0.22134918 -0.33377481
-0.067106001 -0.221384 -0.33377299
-0.066997997 -0.22133601 -0.33379701
-0.066681996 -0.22136101 -0.33378798
-0.066482246 -0.22136775 -0.33379197
-0.066278718 -0.2213687 -0.33377859
-0.066111892 -0.22134478 -0.33376181
-0.065883949 -0.22133027 -0.33371919
-0.065705925 -0.22128507 -0.33369908
-0.065509267 -0.22127464 -0.33365902
-0.065286204 -0.2212768 -0.33362821
-0.068304993 -0.22117166 -0.333774
-0.068090163 -0.22113116 -0.33376935
-0.067938998 -0.22114749 -0.333781
-0.065875858 -0.22119029 -0.33378384
-0.065711699 -0.22115222 -0.33376849
-0.065503187 -0.22109318 -0.33374318
-0.065347999 -0.22106779 -0.33369622
-0.065192334 -0.22108267 -0.33362266
-0.065631002 -0.221 -0.33379301
-0.065479286 -0.22093014 -0.333772
-0.065332599 -0.22088699 -0.33370098
-0.065176003 -0.22087467 -0.33361268
-0.065431662 -0.22076899 -0.33377001
-0.065344505 -0.22070898 -0.33372998
-0.065161005 -0.22070199 -0.333619
-0.065335117 -0.22052389 -0.33375368
-0.065145664 -0.22052933 -0.333644
-0.065271243 -0.22033876 -0.3337715
-0.065078996 -0.22032149 -0.33366251
-0.064963669 -0.22027767 -0.33361697
-0.065058328 -0.22011383 -0.33372033
-0.064891919 -0.22010775 -0.33364785
-0.064773999 -0.220061 -0.333606
-0.048357502 -0.22003651 -0.333621
-0.064889781 -0.21991742 -0.33373815
-0.064714 -0.21992463 -0.33365068
-0.064572498 -0.2198565 -0.33362401
-0.048898 -0.21986699 -0.33363
-0.048700999 -0.21989632 -0.333666
-0.0485125 -0.2199575 -0.333666
-0.064832002 -0.219777 -0.33377299
-0.064704664 -0.21973146 -0.33374387
-0.064535432 -0.21971999 -0.33367062
-0.064396001 -0.219657 -0.33365399
-0.064611003 -0.21958099 -0.33378699
-0.064529337 -0.219559 -0.33375898
-0.064379998 -0.219519 -0.33372733
-0.064045139 -0.21948843 -0.33363786
-0.063935861 -0.21943687 -0.33364612
-0.063651003 -0.219419 -0.33361
-0.049656 -0.21946999 -0.33368701
-0.064047754 -0.2193305 -0.33375302
-0.063926369 -0.21930426 -0.33374199
-0.063634001 -0.21928167 -0.33369601
-0.063503586 -0.21929057 -0.33367732
-0.063226499 -0.21926901 -0.33364898
-0.063125998 -0.21927351 -0.333653
-0.062876746 -0.21927024 -0.33363652
-0.062674746 -0.21925825 -0.33362803
-0.0624745 -0.21924217 -0.333644
-0.062369 -0.21924901 -0.333635
-0.062169001 -0.219219 -0.33364701
-0.061940998 -0.21922632 -0.33362401
-0.061578002 -0.219255 -0.333606
-0.061303001 -0.219202 -0.33364001
-0.061058998 -0.2192155 -0.333608
-0.060937501 -0.21922401 -0.33362001
-0.060561001 -0.219236 -0.33360401
-0.060130998 -0.219203 -0.333601
-0.059992 -0.219208 -0.333621
-0.063437 -0.219155 -0.3337875
-0.063212 -0.219166 -0.33374301
-0.063111499 -0.21917 -0.33373749
-0.062893249 -0.2191495 -0.333745
-0.06269744 -0.21915765 -0.33372483
-0.062512167 -0.21914665 -0.33374301
-0.062353 -0.219147 -0.33375299
-0.062158 -0.21915101 -0.33373499
-0.061885379 -0.21914124 -0.33373123
-0.061725147 -0.21913385 -0.33373457
-0.061492831 -0.21911849 -0.33371651
-0.061283667 -0.21912831 -0.33370811
-0.061103165 -0.21909451 -0.33372667
-0.060937747 -0.21907687 -0.33374551
-0.060735334 -0.21909034 -0.33370534
-0.060488999 -0.21911979 -0.33368161
-0.060293723 -0.21912271 -0.33366707
-0.060122002 -0.21909565 -0.33364931
-0.059939403 -0.21908419 -0.33366519
-0.059695091 -0.21907555 -0.33364707
-0.059514835 -0.21905935 -0.33363631
-0.059232999 -0.21902999 -0.33360401
-0.060874999 -0.21894901 -0.33379
-0.060716502 -0.21891749 -0.33377999
-0.060522001 -0.21889167 -0.33377966
-0.060297251 -0.21891402 -0.33374968
-0.060103111 -0.21892324 -0.33372435
-0.059935201 -0.218918 -0.33372062
-0.05966945 -0.21888083 -0.33371261
-0.059496779 -0.21888644 -0.33369458
-0.059217334 -0.21889268 -0.33366668
-0.059013501 -0.21887651 -0.33363402
-0.058927998 -0.21886125 -0.33362424
-0.060256001 -0.218777 -0.33378732
-0.060073286 -0.21873513 -0.33378074
-0.059912499 -0.21875924 -0.33376899
-0.059685715 -0.21871398 -0.33376843
-0.059536431 -0.21869628 -0.33377013
-0.059340999 -0.21870025 -0.33374751
-0.059127331 -0.21869133 -0.33374333
-0.058906913 -0.21870692 -0.33370218
-0.058730002 -0.21869333 -0.33366868
-0.058528498 -0.2186555 -0.33362252
-0.058297753 -0.21863425 -0.33361802
-0.058129501 -0.21860901 -0.333621
-0.059663001 -0.21859799 -0.33379999
-0.058907002 -0.21854518 -0.33378634
-0.058775999 -0.2185425 -0.333765
-0.05851033 -0.21851833 -0.33372918
-0.058320001 -0.21852002 -0.33370826
-0.05810478 -0.21849477 -0.33368221
-0.057898395 -0.2184763 -0.3336868
-0.057679996 -0.218455 -0.33370948
-0.057486568 -0.21847972 -0.33368927
-0.0573106 -0.218483 -0.33366838
-0.057140999 -0.2184855 -0.33368999
-0.056632999 -0.218477 -0.33365101
-0.056486171 -0.21844132 -0.33365968
-0.056317002 -0.21842501 -0.33364999
-0.056163501 -0.21843401 -0.33360001
-0.058517333 -0.21835466 -0.33378968
-0.058296997 -0.21839 -0.33377966
-0.0581575 -0.21839701 -0.33376652
-0.057278998 -0.21837699 -0.33377701
-0.056457501 -0.21835199 -0.33378601
-0.056351498 -0.21835551 -0.33374301
-0.056117337 -0.21836932 -0.33369565
-0.055927999 -0.218381 -0.33364749
-0.0480415 -0.23064849 -0.333554
-0.047901671 -0.23066658 -0.33354545
-0.047689397 -0.23069151 -0.33354151
-0.047460999 -0.23071299 -0.3335413
-0.047280855 -0.23070717 -0.33354068
-0.047110248 -0.23070499 -0.33354399
-0.046921998 -0.23067771 -0.3335433
-0.046738669 -0.23063833 -0.33355033
-0.048683334 -0.23045565 -0.33357134
-0.048462201 -0.2305028 -0.33355379
-0.048341777 -0.2305229 -0.33354065
-0.0480345 -0.23050249 -0.33347899
-0.047883336 -0.23049866 -0.33347809
-0.047687333 -0.2304876 -0.33344433
-0.047450002 -0.23049468 -0.3334333
-0.047280855 -0.23051858 -0.33344027
-0.047126997 -0.23053133 -0.33344698
-0.0469345 -0.23051651 -0.33344349
-0.046665497 -0.23049149 -0.33348399
-0.046417497 -0.2304585 -0.333527
-0.046294 -0.230474 -0.33357799
-0.046112332 -0.23044699 -0.33357668
-0.050329499 -0.23023301 -0.33358902
-0.050078001 -0.230215 -0.33359799
-0.049966998 -0.230221 -0.33357701
-0.049659498 -0.230242 -0.33359551
-0.049428001 -0.230258 -0.33359101
-0.049254667 -0.23029 -0.33358368
-0.049118005 -0.23029087 -0.33356884
-0.048917998 -0.23027901 -0.33354333
-0.048697334 -0.23028584 -0.33351266
-0.048457831 -0.2303015 -0.33348867
-0.048329003 -0.2303071 -0.33346155
-0.048025999 -0.2303575 -0.3334215
-0.047877003 -0.23037179 -0.33342019
-0.047736999 -0.230345 -0.33340499
-0.046909999 -0.230389 -0.33340099
-0.046615001 -0.23029551 -0.33340949
-0.046406001 -0.23027866 -0.33346668
-0.046282995 -0.23029535 -0.33352366
-0.046103105 -0.23030366 -0.33353844
-0.045968998 -0.23030967 -0.333583
-0.051233001 -0.230003 -0.33357701
-0.051022999 -0.230018 -0.33357701
-0.050856501 -0.2300595 -0.33358902
-0.050716445 -0.2300849 -0.33356667
-0.050509002 -0.23009534 -0.3335835
-0.050334401 -0.23011222 -0.33357301
-0.050068665 -0.23007067 -0.33355665
-0.049882162 -0.23008682 -0.33355901
-0.049682889 -0.23009902 -0.33356065
-0.049482778 -0.23010799 -0.33356225
-0.049257163 -0.23012216 -0.33353698
-0.049123876 -0.23011763 -0.3335216
-0.048906501 -0.230101 -0.33349001
-0.048670601 -0.2300864 -0.3334488
-0.04846425 -0.23010351 -0.33343601
-0.048314109 -0.23009533 -0.33342335
-0.046606999 -0.23019101 -0.33340201
-0.046318598 -0.23009041 -0.33345741
-0.046086777 -0.23009366 -0.33352312
-0.045952335 -0.23009999 -0.33357564
-0.052286498 -0.22984749 -0.33359402
-0.052089002 -0.22988699 -0.33359531
-0.051870603 -0.2298584 -0.33359161
-0.051663999 -0.22991067 -0.33358598
-0.05146667 -0.22987767 -0.33358467
-0.051265668 -0.22988634 -0.33356932
-0.051014002 -0.229876 -0.33354235
-0.050843999 -0.22988267 -0.33355534
-0.050706506 -0.22989841 -0.33354783
-0.050519109 -0.22990555 -0.33355248
-0.050306499 -0.22991584 -0.33354381
-0.050055999 -0.22989649 -0.33353102
-0.049945001 -0.22990251 -0.33350801
