# .PCD v0.7 - Point Cloud Data file format
VERSION 0.7
FIELDS x y z
SIZE 4 4 4
TYPE F F F
COUNT 1 1 1
WIDTH 1493
HEIGHT 1
VIEWPOINT 0 0 0 1 0 0 0
POINTS 1493
DATA ascii
-0.107493 0.089605004 -0.230005
-0.107491 0.089675002 -0.22999801
-0.107488 0.089746997 -0.23
-0.107485 0.089818999 -0.230004
-0.107482 0.089888997 -0.23000599
-0.107479 0.089962997 -0.230009
-0.107476 0.090033002 -0.230005
-0.107474 0.090104997 -0.230003
-0.10747 0.090177 -0.230009
-0.107468 0.090246998 -0.23000801
-0.107466 0.090318002 -0.229996
-0.107463 0.090388 -0.229994
-0.10746 0.090460002 -0.230001
-0.107457 0.090531997 -0.230005
-0.107454 0.090604 -0.230001
-0.107452 0.090676002 -0.229994
-0.107449 0.090746 -0.22998799
-0.107447 0.090815999 -0.22998001
-0.107444 0.090888001 -0.229974
-0.107442 0.090960003 -0.229973
-0.107439 0.091031998 -0.229977
-0.107435 0.091104001 -0.229983
-0.107432 0.091176003 -0.22998799
-0.10743 0.091246001 -0.229982
-0.107427 0.091316998 -0.229974
-0.107425 0.091389 -0.229964
-0.107422 0.091458999 -0.229963
-0.10742 0.091531001 -0.22996099
-0.107418 0.091600999 -0.229947
-0.107415 0.091672003 -0.22994
-0.107413 0.091742001 -0.22993401
-0.107411 0.091812 -0.22991399
-0.10741 0.091879003 -0.229873
-0.107409 0.091948003 -0.229847
-0.107405 0.092023 -0.229873
-0.107401 0.092096999 -0.22989599
-0.107398 0.092166997 -0.22989
-0.107396 0.092237003 -0.22987001
-0.107394 0.092308 -0.229858
-0.107391 0.092377998 -0.22985899
-0.107389 0.09245 -0.229849
-0.107387 0.092519999 -0.229831
-0.107385 0.092588998 -0.229818
-0.107383 0.092658997 -0.22981
-0.10738 0.092730999 -0.22980399
-0.107378 0.092803001 -0.229799
-0.107375 0.092873 -0.22979701
-0.107372 0.092945002 -0.229799
-0.107369 0.093016997 -0.22979601
-0.107367 0.093085997 -0.229784
-0.107365 0.093156002 -0.229764
-0.107364 0.093225002 -0.229747
-0.107361 0.093295 -0.22974101
-0.107359 0.093367003 -0.229735
-0.107356 0.093437001 -0.22973
-0.107354 0.093509004 -0.229724
-0.107351 0.093579002 -0.229716
-0.107349 0.093649998 -0.229706
-0.107347 0.093719997 -0.229693
-0.107345 0.093790002 -0.22967701
-0.107343 0.093859002 -0.229665
-0.10734 0.093929 -0.229654
-0.107339 0.093998998 -0.229636
-0.107337 0.094067998 -0.22961199
-0.107335 0.094137996 -0.229605
-0.107332 0.094209999 -0.229607
-0.107329 0.094282001 -0.229599
-0.107327 0.094351001 -0.229582
-0.107325 0.094420999 -0.22956599
-0.107323 0.094490997 -0.229554
-0.107321 0.094559997 -0.22954699
-0.107319 0.094630003 -0.229533
-0.107317 0.094700001 -0.229513
-0.107315 0.094769001 -0.229498
-0.107312 0.094841003 -0.229496
-0.107309 0.094912998 -0.22949401
-0.107307 0.094982997 -0.229487
-0.107305 0.095053002 -0.22947299
-0.107303 0.095122002 -0.22945701
-0.107301 0.095192 -0.22944
-0.107299 0.095261 -0.229424
-0.107297 0.095330998 -0.22941799
-0.107294 0.095404997 -0.229425
-0.107291 0.095475003 -0.229417
-0.107289 0.095542997 -0.229397
-0.107287 0.095614001 -0.22939201
-0.107284 0.095687002 -0.229398
-0.107281 0.095757999 -0.229394
-0.107279 0.095827997 -0.22938401
-0.107276 0.095898002 -0.229377
-0.107274 0.095968001 -0.22936501
-0.107272 0.096037 -0.229353
-0.107269 0.096109003 -0.22935
-0.107267 0.096180998 -0.22935
-0.107264 0.096251003 -0.229344
-0.107262 0.096322998 -0.229339
-0.107259 0.096392997 -0.229335
-0.107256 0.096464999 -0.229331
-0.107254 0.096537001 -0.229332
-0.107251 0.096607 -0.22932801
-0.107249 0.096678004 -0.229322
-0.107246 0.096749999 -0.229322
-0.107243 0.096822001 -0.229321
-0.10724 0.096891999 -0.229321
-0.107237 0.096964002 -0.22931901
-0.107235 0.097035997 -0.22931799
-0.107232 0.097107999 -0.229316
-0.107229 0.097180001 -0.229322
-0.107226 0.097251996 -0.229324
-0.107223 0.097323999 -0.229329
-0.10722 0.097396001 -0.229331
-0.107217 0.097468004 -0.229335
-0.107214 0.097539999 -0.229335
-0.107211 0.097612001 -0.229332
-0.107209 0.097681999 -0.22932599
-0.107206 0.097754002 -0.22932801
-0.107203 0.097828001 -0.229339
-0.107199 0.097902 -0.229349
-0.107196 0.097975001 -0.229359
-0.107193 0.098047003 -0.229367
-0.107189 0.098121002 -0.229379
-0.107186 0.098195001 -0.229388
-0.107183 0.098266996 -0.22939
-0.10718 0.098341003 -0.229404
-0.107176 0.098413996 -0.22941799
-0.107173 0.098488003 -0.22942699
-0.107169 0.098562002 -0.229443
-0.107165 0.098637 -0.229459
-0.107162 0.098710999 -0.229467
-0.107159 0.098783001 -0.229476
-0.107155 0.098857 -0.22949
-0.107152 0.098931 -0.22950201
-0.107148 0.099005997 -0.229514
-0.107144 0.099079996 -0.229534
-0.10714 0.099156998 -0.229562
-0.107136 0.099233001 -0.229587
-0.107132 0.099307999 -0.229609
-0.107128 0.099384002 -0.229633
-0.107123 0.099460997 -0.229665
-0.107118 0.099538997 -0.229701
-0.107114 0.099618003 -0.229737
-0.107109 0.099694997 -0.229773
-0.107104 0.099776 -0.229817
-0.107099 0.099854998 -0.22985899
-0.107093 0.099936001 -0.229909
-0.107086 0.100019 -0.22997899
-0.10708 0.100103 -0.23004501
-0.107074 0.100188 -0.23010901
-0.107066 0.100274 -0.230197
-0.107059 0.100362 -0.23028301
-0.107049 0.100457 -0.230409
-0.107678 0.081009999 -0.23121899
-0.107679 0.081079997 -0.231143
-0.107681 0.081147999 -0.23102701
-0.107684 0.081215002 -0.23092
-0.107686 0.081285 -0.230812
-0.107688 0.081353001 -0.230727
-0.107688 0.081422001 -0.23065899
-0.107689 0.081490003 -0.23058601
-0.107689 0.081560999 -0.230536
-0.107688 0.081629999 -0.23049
-0.107688 0.081698 -0.230433
-0.107687 0.081768997 -0.230387
-0.107687 0.081839003 -0.23034699
-0.107686 0.081908002 -0.230304
-0.107685 0.081978999 -0.230266
-0.107684 0.082047999 -0.230239
-0.107682 0.082119003 -0.230211
-0.107681 0.082189001 -0.230179
-0.10768 0.082258001 -0.23014601
-0.107678 0.082328998 -0.23011801
-0.107677 0.082399003 -0.230096
-0.107675 0.08247 -0.230073
-0.107674 0.082539 -0.230039
-0.107672 0.082608998 -0.23001499
-0.10767 0.082680002 -0.229996
-0.107669 0.08275 -0.22996999
-0.107667 0.082820997 -0.229956
-0.107664 0.082891002 -0.229949
-0.107663 0.082961001 -0.229929
-0.107661 0.083031997 -0.22990499
-0.107659 0.083102003 -0.229892
-0.107656 0.083173998 -0.229884
-0.107654 0.083242998 -0.229872
-0.107652 0.083313003 -0.229865
-0.107649 0.083384998 -0.229855
-0.107648 0.083453998 -0.229839
-0.107645 0.083526 -0.229835
-0.107642 0.083598003 -0.22984201
-0.10764 0.083668001 -0.22983
-0.107637 0.083737999 -0.229816
-0.107635 0.083810002 -0.229807
-0.107633 0.083879001 -0.229799
-0.10763 0.083950996 -0.22979701
-0.107627 0.084021002 -0.229798
-0.107625 0.084092997 -0.22979
-0.107622 0.084163003 -0.22979
-0.107619 0.084234998 -0.22980399
-0.107616 0.084307 -0.229809
-0.107613 0.084376998 -0.229801
-0.107611 0.084449001 -0.22979499
-0.107608 0.084518999 -0.229802
-0.107605 0.084591001 -0.22980601
-0.107601 0.084663004 -0.229812
-0.107598 0.084735997 -0.22983
-0.107594 0.084807999 -0.22984099
-0.107592 0.084877998 -0.22983301
-0.10759 0.084949002 -0.229819
-0.107588 0.085019 -0.22981
-0.107585 0.085088998 -0.229812
-0.107582 0.085161 -0.22982
-0.107578 0.085233003 -0.229828
-0.107575 0.085304998 -0.22983301
-0.107572 0.085375004 -0.229835
-0.10757 0.085446998 -0.229837
-0.107567 0.085519001 -0.229836
-0.107565 0.085588999 -0.22982199
-0.107562 0.085661002 -0.229816
-0.107559 0.085731 -0.22982299
-0.107556 0.085803002 -0.229831
-0.107553 0.085874997 -0.229835
-0.10755 0.085945003 -0.229835
-0.107547 0.086016998 -0.22984201
-0.107544 0.086089 -0.22984999
-0.107541 0.086162001 -0.229858
-0.107537 0.086234003 -0.229866
-0.107534 0.086304002 -0.229875
-0.107531 0.086378001 -0.229883
-0.107528 0.086447999 -0.229885
-0.107525 0.086520001 -0.22988801
-0.107522 0.086592004 -0.22989
-0.107519 0.086662002 -0.22989
-0.107516 0.086733997 -0.22989801
-0.107513 0.086806998 -0.22991499
-0.10751 0.086879 -0.229917
-0.107507 0.086949997 -0.229913
-0.107504 0.087020002 -0.229912
-0.107502 0.087091997 -0.22991399
-0.107498 0.087164998 -0.22992
-0.107496 0.087235004 -0.229922
-0.107493 0.087306 -0.229919
-0.10749 0.087375998 -0.229913
-0.107487 0.087449998 -0.22992299
-0.107483 0.087522998 -0.229939
-0.10748 0.087592997 -0.229948
-0.107477 0.087664999 -0.229954
-0.107474 0.087737001 -0.229958
-0.107471 0.087808996 -0.229963
-0.107468 0.087880999 -0.22996899
-0.107465 0.087950997 -0.22996899
-0.107463 0.088022999 -0.229963
-0.10746 0.088095002 -0.229966
-0.107457 0.088166997 -0.22996999
-0.107454 0.088237002 -0.229972
-0.107451 0.088308997 -0.229977
-0.107448 0.088381 -0.229985
-0.107445 0.088453002 -0.229983
-0.107442 0.088524997 -0.22997899
-0.107439 0.088597 -0.229994
-0.107436 0.08867 -0.23
-0.107433 0.088739 -0.22998799
-0.107431 0.088811003 -0.229987
-0.107428 0.088882998 -0.229995
-0.107424 0.088955 -0.230003
-0.107421 0.089025997 -0.230005
-0.107419 0.089097001 -0.23
-0.107416 0.089169003 -0.22999801
-0.107413 0.089240998 -0.22999801
-0.107411 0.089311004 -0.22999801
-0.107408 0.089382999 -0.22999901
-0.107405 0.089455001 -0.230001
-0.107402 0.089524999 -0.229995
-0.1074 0.089597002 -0.229982
-0.107398 0.089667 -0.229978
-0.107394 0.089739002 -0.22998799
-0.107391 0.089813001 -0.229996
-0.107388 0.089883 -0.230001
-0.107385 0.089956999 -0.23000699
-0.107382 0.090026997 -0.230005
-0.10738 0.090098999 -0.230002
-0.107377 0.090171002 -0.230004
-0.107374 0.090241 -0.23000599
-0.107371 0.090313002 -0.230002
-0.107369 0.090384997 -0.22999699
-0.107366 0.090453997 -0.229987
-0.107364 0.090526 -0.229983
-0.107361 0.090598002 -0.22999001
-0.107358 0.090669997 -0.229986
-0.107356 0.090740003 -0.22998001
-0.107353 0.090811998 -0.22998001
-0.10735 0.090884 -0.229983
-0.107347 0.090953998 -0.229983
-0.107344 0.091026001 -0.229983
-0.107341 0.091098003 -0.229984
-0.107339 0.091168001 -0.22998001
-0.107336 0.091240004 -0.229974
-0.107334 0.091311 -0.229963
-0.107332 0.091380998 -0.22995099
-0.107329 0.091450997 -0.22994301
-0.107327 0.091522999 -0.22993401
-0.107324 0.091595002 -0.229932
-0.107322 0.091664001 -0.22992601
-0.107319 0.091735996 -0.229918
-0.107317 0.091806002 -0.229917
-0.107314 0.091877997 -0.229913
-0.107312 0.091949999 -0.22990499
-0.107309 0.092019998 -0.2299
-0.107307 0.092092 -0.229892
-0.107305 0.092161 -0.22988001
-0.107302 0.092230998 -0.229871
-0.1073 0.092303 -0.22985899
-0.107298 0.092372 -0.229845
-0.107295 0.092444003 -0.22984099
-0.107293 0.092514001 -0.229836
-0.107291 0.092583999 -0.22981399
-0.107289 0.092652999 -0.229801
-0.107287 0.092722997 -0.22978701
-0.107285 0.092794999 -0.229773
-0.107282 0.092867002 -0.22977901
-0.107279 0.092937 -0.22978599
-0.107276 0.093009003 -0.22977801
-0.107274 0.093078002 -0.229766
-0.107272 0.093149997 -0.229757
-0.107269 0.093220003 -0.22974899
-0.107267 0.093291998 -0.229743
-0.107264 0.093360998 -0.229738
-0.107262 0.093431003 -0.229728
-0.10726 0.093502998 -0.229718
-0.107257 0.093572997 -0.229711
-0.107255 0.093644999 -0.22970299
-0.107253 0.093713999 -0.22969501
-0.10725 0.093783997 -0.22968499
-0.107248 0.093855999 -0.229674
-0.107246 0.093923002 -0.229652
-0.107245 0.093993001 -0.229635
-0.107242 0.094065003 -0.229627
-0.10724 0.094134003 -0.229615
-0.107238 0.094204001 -0.229601
-0.107235 0.094276004 -0.2296
-0.107233 0.094346002 -0.22959
-0.107231 0.094415002 -0.22957399
-0.107229 0.094485 -0.229563
-0.107227 0.094557002 -0.22954901
-0.107225 0.094626002 -0.229533
-0.107222 0.094696 -0.22952799
-0.10722 0.094768003 -0.229522
-0.107218 0.094835997 -0.22950201
-0.107216 0.094904996 -0.229481
-0.107214 0.094975002 -0.22946499
-0.107212 0.095046997 -0.229459
-0.107209 0.095115997 -0.229454
-0.107207 0.095186003 -0.229444
-0.107204 0.095257998 -0.229436
-0.107202 0.095328003 -0.229425
-0.1072 0.095397003 -0.229413
-0.107198 0.095467001 -0.229405
-0.107195 0.095539004 -0.229408
-0.107192 0.095610999 -0.22940999
-0.10719 0.095680997 -0.22939999
-0.107187 0.095752999 -0.229387
-0.107185 0.095821999 -0.229381
-0.107183 0.095891997 -0.229375
-0.10718 0.095964 -0.22936299
-0.107178 0.096033998 -0.22935399
-0.107176 0.096104003 -0.229348
-0.107173 0.096175998 -0.229348
-0.10717 0.096248001 -0.229351
-0.107167 0.096317001 -0.22934499
-0.107165 0.096389003 -0.22933701
-0.107162 0.096459001 -0.22933
-0.10716 0.096531004 -0.22933
-0.107157 0.096601002 -0.22933
-0.107154 0.096672997 -0.229323
-0.107152 0.096744999 -0.229323
-0.107149 0.096817002 -0.22932699
-0.107146 0.096888997 -0.229321
-0.107144 0.096957996 -0.229316
-0.107141 0.097029999 -0.22931799
-0.107138 0.097103 -0.229322
-0.107134 0.097176999 -0.22932801
-0.107132 0.097246997 -0.229329
-0.107129 0.097318999 -0.229329
-0.107126 0.097391002 -0.229329
-0.107123 0.097462997 -0.22933
-0.10712 0.097534001 -0.22932801
-0.107118 0.097606003 -0.22933
-0.107114 0.097678997 -0.22933801
-0.107111 0.097753003 -0.22934701
-0.107108 0.097824998 -0.229353
-0.107105 0.097897001 -0.229353
-0.107102 0.097969003 -0.22935501
-0.107099 0.098040998 -0.229366
-0.107095 0.098117001 -0.22938199
-0.107092 0.098188996 -0.22939
-0.107089 0.098261997 -0.229394
-0.107086 0.098336004 -0.22940101
-0.107082 0.098407999 -0.22941101
-0.107079 0.098481998 -0.229421
-0.107076 0.098554 -0.229431
-0.107072 0.098627999 -0.229441
-0.107069 0.098702997 -0.22945599
-0.107065 0.098777004 -0.229472
-0.107061 0.098851003 -0.229486
-0.107058 0.098926 -0.2295
-0.107054 0.098999999 -0.229515
-0.107051 0.099073999 -0.22952899
-0.107047 0.099149004 -0.22954699
-0.107043 0.099225 -0.22956499
-0.107039 0.099298999 -0.22959299
-0.107035 0.099376 -0.229619
-0.10703 0.099454999 -0.229651
-0.107025 0.099531002 -0.229688
-0.10702 0.099610001 -0.229726
-0.107015 0.099688999 -0.229762
-0.10701 0.099770002 -0.229812
-0.107004 0.099850997 -0.229872
-0.106998 0.099935003 -0.22993401
-0.106992 0.100016 -0.22999001
-0.106985 0.100101 -0.230058
-0.106979 0.100185 -0.230124
-0.106972 0.100271 -0.230205
-0.106963 0.100363 -0.230317
-0.106954 0.100453 -0.230423
-0.107588 0.081006996 -0.23123001
-0.107588 0.081074998 -0.231158
-0.107591 0.081142999 -0.231051
-0.107595 0.081210002 -0.230919
-0.107596 0.081280001 -0.23082399
-0.107597 0.081348002 -0.23075201
-0.107598 0.081416003 -0.230681
-0.107599 0.081487 -0.23060501
-0.107599 0.081555001 -0.23053899
-0.107599 0.081624001 -0.23047601
-0.1076 0.081692003 -0.230414
-0.107599 0.081763998 -0.230377
-0.107597 0.081832998 -0.230349
-0.107596 0.081904002 -0.230315
-0.107595 0.081973001 -0.230272
-0.107595 0.082042001 -0.230222
-0.107594 0.082112998 -0.23018999
-0.107592 0.082183003 -0.230161
-0.107591 0.082252003 -0.230131
-0.107589 0.082323 -0.23010901
-0.107588 0.082392998 -0.230088
-0.107586 0.082464002 -0.230064
-0.107584 0.082534 -0.23004401
-0.107583 0.082603 -0.23001701
-0.107581 0.082675003 -0.22998901
-0.107579 0.082744002 -0.229973
-0.107577 0.082815997 -0.22995999
-0.107576 0.082884997 -0.22993401
-0.107574 0.082955003 -0.22991399
-0.107572 0.083025999 -0.229901
-0.10757 0.083095998 -0.22988699
-0.107568 0.083168 -0.229871
-0.107566 0.083237 -0.229856
-0.107563 0.083306998 -0.229848
-0.107561 0.083379 -0.22984
-0.107558 0.083448999 -0.229837
-0.107555 0.083521001 -0.229837
-0.107553 0.083590999 -0.229829
-0.107551 0.083662003 -0.229812
-0.107549 0.083732001 -0.229808
-0.107546 0.083803996 -0.229808
-0.107543 0.083875999 -0.22981
-0.10754 0.083945997 -0.22981299
-0.107537 0.084017999 -0.229817
-0.107534 0.084087998 -0.229817
-0.107532 0.08416 -0.22981
-0.10753 0.084229998 -0.229798
-0.107527 0.084302001 -0.22979601
-0.107524 0.084371999 -0.229803
-0.107521 0.084444001 -0.229807
-0.107518 0.084515996 -0.22980499
-0.107515 0.084586002 -0.229801
-0.107512 0.084657997 -0.229808
-0.107509 0.084728003 -0.22981399
-0.107507 0.084799998 -0.229812
-0.107504 0.084872 -0.22981299
-0.107501 0.084944002 -0.229817
-0.107498 0.085014001 -0.22982299
-0.107495 0.085086003 -0.229827
-0.107492 0.085157998 -0.22983
-0.107489 0.085228004 -0.229826
-0.107486 0.085299999 -0.22982199
-0.107483 0.085369997 -0.22983301
-0.10748 0.085441999 -0.229837
-0.107478 0.085514002 -0.22983301
-0.107475 0.085584 -0.229827
-0.107473 0.085654996 -0.22982199
-0.10747 0.085725002 -0.22982401
-0.107466 0.085798003 -0.22983401
-0.107463 0.085869998 -0.22984301
-0.10746 0.085942 -0.22985099
-0.107457 0.086014003 -0.229855
-0.107454 0.086084001 -0.22985899
-0.107451 0.086156003 -0.229864
-0.107448 0.086227998 -0.229866
-0.107445 0.086297996 -0.22986799
-0.107442 0.086369999 -0.22987001
-0.107439 0.086442001 -0.229875
-0.107436 0.086514004 -0.22987901
-0.107433 0.086585999 -0.229885
-0.10743 0.086657003 -0.229892
-0.107427 0.086728998 -0.22989599
-0.107424 0.086801 -0.2299
-0.107421 0.086870998 -0.22990599
-0.107418 0.086943001 -0.22990701
-0.107415 0.087015003 -0.22990499
-0.107413 0.087086998 -0.22990499
-0.10741 0.087157004 -0.229908
-0.107407 0.087228999 -0.229912
-0.107404 0.087301001 -0.22991399
-0.107401 0.087370999 -0.229912
-0.107398 0.087443002 -0.229919
-0.107395 0.087514997 -0.229921
-0.107392 0.087586999 -0.229927
-0.107388 0.087659001 -0.22994199
-0.107385 0.087730996 -0.229946
-0.107383 0.087801002 -0.22994
-0.10738 0.087872997 -0.22994199
-0.107377 0.087944999 -0.229941
-0.107374 0.088017002 -0.22994301
-0.107371 0.088087 -0.229947
-0.107368 0.088159002 -0.229956
-0.107365 0.088230997 -0.229964
-0.107362 0.088303 -0.229964
-0.107359 0.088375002 -0.22995999
-0.107357 0.088445 -0.229963
-0.107353 0.088519 -0.22997101
-0.10735 0.088590004 -0.22998101
-0.107347 0.088661 -0.22997899
-0.107345 0.088733003 -0.229978
-0.107342 0.088803001 -0.229972
-0.107339 0.088875003 -0.22996999
-0.107336 0.088946998 -0.229977
-0.107333 0.089019001 -0.22997899
-0.107331 0.089091003 -0.229977
-0.107328 0.089161001 -0.229973
-0.107325 0.089233004 -0.229976
-0.107322 0.089304999 -0.229978
-0.107319 0.089377001 -0.229984
-0.107316 0.089449003 -0.229985
-0.107314 0.089519002 -0.229983
-0.107311 0.089590997 -0.22997899
-0.107308 0.089662999 -0.229985
-0.107304 0.089735001 -0.23
-0.107301 0.089808002 -0.23000801
-0.107299 0.089878999 -0.230004
-0.107296 0.089948997 -0.229995
-0.107294 0.090020999 -0.229987
-0.107291 0.090090998 -0.229987
-0.107288 0.090163 -0.229987
-0.107285 0.090235002 -0.22998799
-0.107282 0.090306997 -0.229994
-0.107279 0.090379 -0.229994
-0.107277 0.090448998 -0.229987
-0.107275 0.090521 -0.22998101
-0.107272 0.090590999 -0.229977
-0.107269 0.090662003 -0.229973
-0.107267 0.090733998 -0.229972
-0.107264 0.090804003 -0.229972
-0.107261 0.090875998 -0.22996999
-0.107259 0.090945996 -0.229959
-0.107257 0.091017999 -0.229947
-0.107254 0.091090001 -0.22995099
-0.107251 0.091162004 -0.229957
-0.107248 0.091233999 -0.229954
-0.107246 0.091302998 -0.229938
-0.107244 0.091372997 -0.22993
-0.107241 0.091444999 -0.22993501
-0.107238 0.091517001 -0.22993501
-0.107236 0.091587 -0.229921
-0.107233 0.091659002 -0.22991
-0.107231 0.091728002 -0.229902
-0.107228 0.091799997 -0.2299
-0.107226 0.091870002 -0.22989701
-0.107224 0.091941997 -0.229883
-0.107221 0.092012003 -0.229873
-0.107219 0.092083 -0.229871
-0.107216 0.092152998 -0.229866
-0.107214 0.092225 -0.229854
-0.107211 0.092294998 -0.229846
-0.107209 0.092367001 -0.229849
-0.107205 0.092439003 -0.229853
-0.107203 0.092510998 -0.229849
-0.107201 0.092579998 -0.229838
-0.107198 0.092649996 -0.229828
-0.107196 0.092721999 -0.229816
-0.107194 0.092790999 -0.22979701
-0.107193 0.092859 -0.229771
-0.107191 0.092928 -0.229755
-0.107188 0.093000002 -0.229754
-0.107186 0.09307 -0.229748
-0.107183 0.093142003 -0.229736
-0.107181 0.093213998 -0.229734
-0.107178 0.093286 -0.22974101
-0.107175 0.093355998 -0.229735
-0.107173 0.093425997 -0.22972301
-0.107171 0.093494996 -0.229706
-0.107169 0.093566999 -0.22969601
-0.107166 0.093636997 -0.229688
-0.107164 0.093705997 -0.229673
-0.107162 0.093776003 -0.229661
-0.10716 0.093847997 -0.229653
-0.107157 0.093918003 -0.22964799
-0.107155 0.093989 -0.22964001
-0.107153 0.094058998 -0.229628
-0.107151 0.094129004 -0.229617
-0.107149 0.094198003 -0.229601
-0.107147 0.094268002 -0.229583
-0.107144 0.094339997 -0.22957601
-0.107142 0.094410002 -0.22957399
-0.107139 0.09448 -0.229564
-0.107138 0.094549 -0.229541
-0.107136 0.094618998 -0.229523
-0.107133 0.094690003 -0.229513
-0.107131 0.094760001 -0.229504
-0.107129 0.094829999 -0.22950201
-0.107126 0.094902001 -0.229496
-0.107124 0.094972 -0.229486
-0.107121 0.095043004 -0.229477
-0.10712 0.095110998 -0.22945701
-0.107118 0.095179997 -0.22943801
-0.107115 0.095252 -0.229434
-0.107112 0.095321998 -0.229434
-0.10711 0.095394 -0.229424
-0.107108 0.095462002 -0.229407
-0.107107 0.095531002 -0.229387
-0.107104 0.095602997 -0.22938301
-0.107101 0.095674999 -0.22939201
-0.107098 0.095747001 -0.22939
-0.107096 0.095817 -0.22937401
-0.107094 0.095884003 -0.229359
-0.107092 0.095955998 -0.22934499
-0.10709 0.096023999 -0.22932699
-0.107087 0.096096002 -0.229332
-0.107083 0.096170001 -0.22934601
-0.107081 0.096242003 -0.22934601
-0.107078 0.096313998 -0.22934601
-0.107075 0.096383996 -0.229341
-0.107073 0.096453004 -0.229331
-0.107071 0.096524999 -0.229325
-0.107068 0.096594997 -0.229324
-0.107065 0.096666999 -0.22931799
-0.107063 0.096736997 -0.229304
-0.107061 0.096809 -0.229303
-0.107057 0.096881002 -0.229315
-0.107054 0.096952997 -0.229315
-0.107052 0.097025 -0.22930899
-0.107049 0.097097002 -0.229316
-0.107045 0.097171001 -0.229324
-0.107042 0.097240999 -0.22932801
-0.107039 0.097314999 -0.229334
-0.107036 0.097387001 -0.22933701
-0.107034 0.097456999 -0.229331
-0.107031 0.097529002 -0.229325
-0.107029 0.097599 -0.22932
-0.107026 0.097671002 -0.22932599
-0.107022 0.097745001 -0.22933801
-0.107019 0.097819 -0.22935
-0.107016 0.097891003 -0.22935501
-0.107013 0.097962998 -0.22935501
-0.107009 0.098036997 -0.229367
-0.107006 0.098112002 -0.229385
-0.107002 0.098186001 -0.229399
-0.106999 0.098258004 -0.229406
-0.106996 0.098329999 -0.22940999
-0.106993 0.098403998 -0.22941799
-0.106989 0.098479003 -0.229432
-0.106986 0.098550998 -0.229445
-0.106982 0.098624997 -0.22945499
-0.106979 0.098699003 -0.229461
-0.106976 0.098770998 -0.229469
-0.106972 0.098846003 -0.229486
-0.106968 0.098920003 -0.22950201
-0.106965 0.098994002 -0.229514
-0.106961 0.099071003 -0.229536
-0.106957 0.099145003 -0.22955599
-0.106953 0.099219002 -0.229573
-0.106949 0.099296004 -0.229601
-0.106944 0.099375002 -0.22963101
-0.10694 0.099451996 -0.229671
-0.106935 0.099529997 -0.22970501
-0.10693 0.099606998 -0.229739
-0.106925 0.099685997 -0.22977699
-0.10692 0.099766999 -0.229827
-0.106914 0.099848002 -0.229875
-0.106909 0.099927001 -0.22992299
-0.106903 0.10001 -0.22998101
-0.106895 0.100098 -0.230069
-0.106889 0.100181 -0.23013701
-0.106882 0.100267 -0.23021699
-0.106872 0.100362 -0.230336
-0.107438 0.081072003 -0.23121201
-0.107439 0.081139997 -0.231134
-0.107441 0.081207998 -0.23102599
-0.107445 0.081275001 -0.230891
-0.107448 0.081341997 -0.230783
-0.107448 0.081413001 -0.230716
-0.107449 0.081481002 -0.230634
-0.10745 0.081549004 -0.230551
-0.10745 0.081618004 -0.23049501
-0.10745 0.081689 -0.230441
-0.10745 0.081757002 -0.230382
-0.107451 0.081826001 -0.23031799
-0.107451 0.081894003 -0.23025499
-0.107449 0.081965998 -0.230231
-0.107447 0.082034998 -0.230215
-0.107446 0.082107 -0.23019201
-0.107444 0.082176 -0.230166
-0.107443 0.082245998 -0.23013601
-0.107441 0.082317002 -0.230111
-0.10744 0.082386002 -0.230087
-0.107438 0.082457997 -0.230055
-0.107437 0.082526997 -0.23003399
-0.107435 0.082597002 -0.230018
-0.107433 0.082667999 -0.23
-0.107431 0.082737997 -0.22998101
-0.107429 0.082809001 -0.229963
-0.107427 0.082878999 -0.229941
-0.107425 0.082948998 -0.22992601
-0.107423 0.083020002 -0.22991601
-0.10742 0.08309 -0.229922
-0.107417 0.083163001 -0.229928
-0.107415 0.083233997 -0.22990701
-0.107414 0.083302997 -0.229875
-0.107412 0.083373003 -0.22985999
-0.107409 0.083444998 -0.229854
-0.107407 0.083515003 -0.229848
-0.107405 0.083584003 -0.229826
-0.107404 0.083653003 -0.229789
-0.107402 0.083724998 -0.229785
-0.107398 0.083797999 -0.229809
-0.107394 0.083870001 -0.229816
-0.107392 0.083939999 -0.22981
-0.107389 0.084008999 -0.22980601
-0.107386 0.084082 -0.22981299
-0.107383 0.084154002 -0.229819
-0.10738 0.084225997 -0.229821
-0.107378 0.084294997 -0.229809
-0.107376 0.084365003 -0.229792
-0.107374 0.084436998 -0.22978801
-0.10737 0.084507003 -0.22979601
-0.107367 0.084578998 -0.229803
-0.107364 0.084651001 -0.22980499
-0.107361 0.084720999 -0.229809
-0.107358 0.084793001 -0.22981299
-0.107355 0.084864996 -0.229818
-0.107353 0.084936999 -0.22981399
-0.10735 0.085006997 -0.22980399
-0.107348 0.085077003 -0.229801
-0.107345 0.085148998 -0.229809
-0.107341 0.085221 -0.229817
-0.107339 0.085293002 -0.229819
-0.107336 0.085363001 -0.22981399
-0.107333 0.085432999 -0.22981
-0.107331 0.085505001 -0.22980601
-0.107328 0.085577004 -0.229801
-0.107325 0.085648999 -0.22980499
-0.107322 0.085718997 -0.22981501
-0.107319 0.085790999 -0.22982
-0.107316 0.085863002 -0.22982199
-0.107313 0.085933 -0.229828
-0.10731 0.086005002 -0.22984201
-0.107306 0.086076997 -0.22985099
-0.107304 0.086149 -0.22984301
-0.107301 0.086218998 -0.229849
-0.107297 0.086291999 -0.229863
-0.107294 0.086364001 -0.229872
-0.107291 0.086436003 -0.22987799
-0.107288 0.086507998 -0.229886
-0.107285 0.086580001 -0.229891
-0.107282 0.086649999 -0.22988901
-0.107279 0.086722001 -0.229891
-0.107276 0.086793996 -0.229893
-0.107273 0.086864002 -0.229894
-0.107271 0.086935997 -0.22988001
-0.107269 0.087004997 -0.229872
-0.107266 0.087077998 -0.229881
-0.107262 0.08715 -0.22988901
-0.107259 0.087222002 -0.229893
-0.107256 0.087293997 -0.229901
-0.107253 0.087364003 -0.229912
-0.10725 0.087435998 -0.22991399
-0.107247 0.087508 -0.229918
-0.107244 0.087580003 -0.229927
-0.107241 0.087651998 -0.22993299
-0.107238 0.087724999 -0.229939
-0.107235 0.087797001 -0.229941
-0.107232 0.087866001 -0.229936
-0.10723 0.087935999 -0.22993
-0.107227 0.088008001 -0.22993401
-0.107224 0.088079996 -0.229939
-0.107221 0.088151999 -0.229941
-0.107218 0.088224001 -0.22994301
-0.107215 0.088293999 -0.229947
-0.107211 0.088368997 -0.229958
-0.107209 0.088439003 -0.22995999
-0.107206 0.088510998 -0.229954
-0.107204 0.088582002 -0.229948
-0.107201 0.088652 -0.22995301
-0.107197 0.088725001 -0.22996099
-0.107194 0.088797003 -0.229963
-0.107192 0.088868998 -0.229966
-0.107188 0.088941 -0.229976
-0.107185 0.089013003 -0.22998001
-0.107182 0.089084998 -0.22998001
-0.10718 0.089155003 -0.229977
-0.107177 0.089226998 -0.22996899
-0.107175 0.089295998 -0.229959
-0.107172 0.089368001 -0.22995999
-0.107169 0.089440003 -0.229966
-0.107166 0.089511998 -0.229968
-0.107163 0.089584 -0.229966
-0.107161 0.089653999 -0.229959
-0.107159 0.089723997 -0.22995099
-0.107156 0.089795999 -0.229957
-0.107152 0.089868002 -0.229966
-0.107149 0.089939997 -0.22996999
-0.107147 0.090011999 -0.229968
-0.107144 0.090084001 -0.22996999
-0.10714 0.090155996 -0.22998101
-0.107138 0.090227999 -0.22997899
-0.107135 0.090297997 -0.229973
-0.107133 0.090369999 -0.22996999
-0.107129 0.090442002 -0.229976
-0.107127 0.090513997 -0.229974
-0.107124 0.090584002 -0.22996201
-0.107122 0.090653002 -0.22995301
-0.10712 0.090724997 -0.229949
-0.107117 0.090795003 -0.229945
-0.107114 0.090866998 -0.22994401
-0.107111 0.090939 -0.229956
-0.107107 0.091013998 -0.229968
-0.107105 0.091082998 -0.22995999
-0.107103 0.091153003 -0.229941
-0.107101 0.091224998 -0.22993501
-0.107098 0.091297001 -0.229937
-0.107095 0.091369003 -0.22993401
-0.107093 0.091438003 -0.229922
-0.107091 0.091508001 -0.22991
-0.107088 0.091580003 -0.22990499
-0.107086 0.091650002 -0.229899
-0.107083 0.091721997 -0.22988699
-0.107083 0.091789 -0.229848
-0.10708 0.091858 -0.22984
-0.107076 0.091932997 -0.229862
-0.107073 0.092005 -0.22986799
-0.10707 0.092077002 -0.22986899
-0.107068 0.092148997 -0.229865
-0.107066 0.092219003 -0.229853
-0.107063 0.092288002 -0.229844
-0.107061 0.092359997 -0.22983401
-0.107059 0.092430003 -0.22982199
-0.107057 0.092499003 -0.229811
-0.107054 0.092569001 -0.229799
-0.107052 0.092641003 -0.229791
-0.107049 0.092711002 -0.22978801
-0.107047 0.092782997 -0.229784
-0.107044 0.092854999 -0.229784
-0.107041 0.092924997 -0.22978
-0.107039 0.092996001 -0.22976901
-0.107037 0.093065999 -0.22975899
-0.107035 0.093138002 -0.22974899
-0.107033 0.093207002 -0.229734
-0.10703 0.093277 -0.22972199
-0.107028 0.093346998 -0.22971401
-0.107026 0.093416996 -0.22970501
-0.107023 0.093488 -0.22969501
-0.107021 0.093557999 -0.229689
-0.107018 0.093630001 -0.229682
-0.107016 0.093699999 -0.22967
-0.107014 0.093768999 -0.22966
-0.107011 0.093841001 -0.229661
-0.107009 0.093912996 -0.22965699
-0.107007 0.093983002 -0.229635
-0.107005 0.094049998 -0.229616
-0.107003 0.094122 -0.22961199
-0.107 0.094194002 -0.229606
-0.106998 0.094264001 -0.22959
-0.106996 0.094333 -0.22957499
-0.106994 0.094402999 -0.22956499
-0.106992 0.094472997 -0.229554
-0.106989 0.094543003 -0.229542
-0.106987 0.094613999 -0.229534
-0.106985 0.094683997 -0.229524
-0.106983 0.094754003 -0.22951099
-0.106981 0.094823003 -0.229491
-0.106979 0.094893001 -0.229472
-0.106977 0.094962999 -0.22946399
-0.106974 0.095035002 -0.22946399
-0.106971 0.095105998 -0.22946
-0.106969 0.095175996 -0.22945701
-0.106966 0.095247999 -0.229449
-0.106964 0.095317997 -0.229435
-0.106962 0.095386997 -0.229424
-0.106959 0.095458999 -0.229424
-0.106956 0.095528997 -0.229426
-0.106954 0.095601 -0.22941899
-0.106952 0.095670998 -0.22940101
-0.10695 0.095738001 -0.229375
-0.106949 0.095807999 -0.22935601
-0.106946 0.095880002 -0.22936
-0.106942 0.095951997 -0.22937
-0.106939 0.096023999 -0.22937199
-0.106937 0.096096002 -0.229369
-0.106934 0.096166 -0.229359
-0.106932 0.096235 -0.229351
-0.106929 0.096307002 -0.22935
-0.106927 0.096377 -0.229344
-0.106925 0.096449003 -0.22933
-0.106922 0.096519001 -0.229325
-0.106919 0.096591003 -0.229325
-0.106917 0.096661001 -0.229321
-0.106914 0.096732996 -0.22932
-0.106911 0.096804 -0.229316
-0.106909 0.096873999 -0.22930799
-0.106906 0.096947998 -0.22932
-0.106902 0.097020999 -0.229329
-0.106899 0.097093001 -0.229333
-0.106896 0.097167 -0.229341
-0.106893 0.097239003 -0.229349
-0.10689 0.097310998 -0.22936
-0.106886 0.097384997 -0.229368
-0.106884 0.097456999 -0.229366
-0.106881 0.097529002 -0.229366
-0.106878 0.097600996 -0.229369
-0.106875 0.097671002 -0.22936501
-0.106872 0.097742997 -0.22936501
-0.106869 0.097816996 -0.229375
-0.106866 0.097888999 -0.22938
-0.106863 0.097961001 -0.22938199
-0.10686 0.098033004 -0.22939
-0.106857 0.098108001 -0.229396
-0.106853 0.098180003 -0.229407
-0.10685 0.098254003 -0.22941899
-0.106847 0.098328002 -0.22942699
-0.106843 0.098399997 -0.229435
-0.10684 0.098474003 -0.22944599
-0.106837 0.098546997 -0.22945599
-0.106833 0.098621003 -0.22946601
-0.10683 0.098695002 -0.229476
-0.106826 0.098766997 -0.229489
-0.106823 0.098843999 -0.229505
-0.106819 0.098917998 -0.22952101
-0.106816 0.098991998 -0.22952899
-0.106812 0.099064 -0.229537
-0.106809 0.099138997 -0.22955599
-0.106804 0.099216998 -0.22959
-0.1068 0.099293999 -0.22961999
-0.106795 0.099371001 -0.22964799
-0.106791 0.099446997 -0.229678
-0.106786 0.099526003 -0.229716
-0.106781 0.099602997 -0.22975001
-0.106776 0.099684 -0.22979601
-0.10677 0.099765003 -0.22985201
-0.106765 0.099844001 -0.22989
-0.10676 0.099923 -0.22993
-0.106754 0.100006 -0.22999801
-0.106745 0.100096 -0.230104
-0.106738 0.100184 -0.230186
-0.10673 0.100272 -0.23027401
-0.106719 0.100371 -0.230435
-0.107282 0.08106 -0.23120999
-0.107284 0.081128001 -0.23111001
-0.107286 0.081196003 -0.23102
-0.107288 0.081262998 -0.230909
-0.10729 0.081331 -0.230813
-0.107291 0.081400998 -0.23073
-0.107292 0.081469998 -0.23065799
-0.107293 0.081537999 -0.230581
-0.107295 0.081606001 -0.23049501
-0.107295 0.081676997 -0.230433
-0.107295 0.081745997 -0.23038
-0.107294 0.081813999 -0.230334
-0.107294 0.081882998 -0.230287
-0.107294 0.081954002 -0.230223
-0.107293 0.082023002 -0.230189
-0.107291 0.082094997 -0.23017199
-0.107289 0.082163997 -0.23015
-0.107288 0.082232997 -0.230114
-0.107286 0.082304999 -0.23008899
-0.107285 0.082373999 -0.23006301
-0.107283 0.082446001 -0.230037
-0.107281 0.082515001 -0.23002601
-0.107279 0.082585 -0.23000599
-0.107278 0.082656004 -0.22998001
-0.107276 0.082726002 -0.229965
-0.107274 0.082796998 -0.229947
-0.107273 0.082866997 -0.229919
-0.10727 0.082935996 -0.22990599
-0.107268 0.083007999 -0.22990599
-0.107265 0.083077997 -0.22990599
-0.107262 0.083149999 -0.22990701
-0.10726 0.083222002 -0.22989701
-0.107258 0.083292 -0.229871
-0.107256 0.083361 -0.229854
-0.107254 0.083433002 -0.229844
-0.107252 0.083503 -0.229836
-0.107249 0.083573997 -0.22982401
-0.107247 0.083644003 -0.22981299
-0.107244 0.083715998 -0.22981501
-0.107242 0.083786003 -0.22981299
-0.107239 0.083857998 -0.229812
-0.107236 0.083927996 -0.22980601
-0.107234 0.083999999 -0.22980399
-0.10723 0.084072001 -0.22981299
-0.107228 0.084141999 -0.22980499
-0.107225 0.084214002 -0.229803
-0.107223 0.084284 -0.229803
-0.10722 0.084353 -0.229794
-0.107218 0.084425002 -0.22978801
-0.107215 0.084495001 -0.22978
-0.107213 0.084567003 -0.229775
-0.10721 0.084638998 -0.229781
-0.107207 0.084709004 -0.229781
-0.107205 0.084780999 -0.229772
-0.107202 0.084850997 -0.22976799
-0.107199 0.084922001 -0.22976799
-0.107196 0.084995002 -0.229774
-0.107193 0.085065 -0.229785
-0.10719 0.085137002 -0.229793
-0.107187 0.085208997 -0.22979499
-0.107184 0.085279003 -0.22979
-0.107182 0.085350998 -0.22978599
-0.107179 0.085421003 -0.22978801
-0.107176 0.085492998 -0.229792
-0.107173 0.085565001 -0.229785
-0.107171 0.085634001 -0.229775
-0.107168 0.085706003 -0.22977699
-0.107165 0.085776001 -0.22978599
-0.107162 0.085849002 -0.229792
-0.107159 0.085919999 -0.22978599
-0.107157 0.085989997 -0.229781
-0.107153 0.086062998 -0.22979701
-0.10715 0.086135 -0.22981299
-0.107147 0.086207002 -0.22981501
-0.107144 0.086278997 -0.22981399
-0.107141 0.086351 -0.22982
-0.107138 0.086420998 -0.229826
-0.107135 0.086493 -0.22983
-0.107132 0.086565003 -0.22983301
-0.107129 0.086635001 -0.22984099
-0.107125 0.086707003 -0.229849
-0.107122 0.086779997 -0.229858
-0.107119 0.086851999 -0.229858
-0.107116 0.086924002 -0.229866
-0.107113 0.086994 -0.22986799
-0.107111 0.087066002 -0.229865
-0.107108 0.087137997 -0.229863
-0.107105 0.087206997 -0.229863
-0.107102 0.087279998 -0.22987001
-0.107099 0.087352 -0.22987799
-0.107096 0.087424003 -0.229882
-0.107093 0.087495998 -0.229884
-0.10709 0.087566003 -0.22988901
-0.107087 0.087637998 -0.229901
-0.107084 0.087710001 -0.229903
-0.107081 0.087782003 -0.229891
-0.107079 0.087852001 -0.22989
-0.107076 0.087924004 -0.22989599
-0.107073 0.087995999 -0.229894
-0.107071 0.088065997 -0.229883
-0.107068 0.088137999 -0.22988699
-0.107064 0.088210002 -0.22989701
-0.107061 0.08828 -0.2299
-0.107059 0.088352002 -0.22989801
-0.107056 0.088423997 -0.22989599
-0.107053 0.088496 -0.229904
-0.107049 0.088568002 -0.229919
-0.107046 0.088639997 -0.22992501
-0.107043 0.088711999 -0.22992501
-0.10704 0.088781998 -0.229927
-0.107038 0.088854 -0.229922
-0.107035 0.088926002 -0.229922
-0.107032 0.088996001 -0.22992399
-0.10703 0.089068003 -0.229921
-0.107027 0.089139998 -0.22992299
-0.107024 0.089212 -0.22992501
-0.107021 0.089281999 -0.229921
-0.107018 0.089354001 -0.22992399
-0.107016 0.089426003 -0.22991601
-0.107013 0.089495003 -0.229908
-0.10701 0.089566998 -0.229913
-0.107008 0.089639001 -0.229911
-0.107005 0.089708999 -0.229913
-0.107001 0.089783996 -0.22992299
-0.106998 0.089855999 -0.22993
-0.106996 0.089928001 -0.229928
-0.106993 0.089997999 -0.22993401
-0.106989 0.090070002 -0.229941
-0.106987 0.090141997 -0.229931
-0.106985 0.090210997 -0.229927
-0.106982 0.090282999 -0.22992501
-0.10698 0.090352997 -0.22991601
-0.106977 0.090425 -0.229912
-0.106974 0.090497002 -0.229912
-0.106971 0.090568997 -0.22992299
-0.106968 0.090640999 -0.229927
-0.106965 0.090713002 -0.229927
-0.106962 0.090783 -0.22992501
-0.10696 0.090855002 -0.22991601
-0.106957 0.090925001 -0.22991
-0.106955 0.090997003 -0.22991
-0.106952 0.091068998 -0.22990701
-0.10695 0.091137998 -0.22989701
-0.106947 0.09121 -0.229895
-0.106944 0.091282003 -0.22989701
-0.106942 0.091352001 -0.22989
-0.106939 0.091424003 -0.22987799
-0.106937 0.091494001 -0.229876
-0.106934 0.091565996 -0.229875
-0.106931 0.091637 -0.22986899
-0.106929 0.091706999 -0.22986101
-0.106927 0.091779001 -0.229856
-0.106924 0.091848999 -0.229856
-0.106921 0.091921002 -0.22985201
-0.106919 0.091991 -0.229835
-0.106917 0.092061996 -0.22982299
-0.106914 0.092132002 -0.22982299
-0.106912 0.092203997 -0.229817
-0.10691 0.092274003 -0.22980399
-0.106907 0.092345998 -0.2298
-0.106904 0.092416003 -0.22979601
-0.106902 0.092487 -0.229791
-0.106899 0.092556998 -0.22978701
-0.106897 0.092629001 -0.22977699
-0.106895 0.092698999 -0.229766
-0.106893 0.092770003 -0.229754
-0.10689 0.092840001 -0.22973999
-0.106889 0.092908002 -0.22972301
-0.106886 0.092978999 -0.229717
-0.106883 0.093051001 -0.229717
-0.106881 0.093122996 -0.229715
-0.106878 0.093193002 -0.229706
-0.106876 0.093263 -0.22969399
-0.106874 0.093335003 -0.229684
-0.106871 0.093404002 -0.22967701
-0.106869 0.093474001 -0.229665
-0.106867 0.093543999 -0.22965699
-0.106865 0.093616001 -0.229644
-0.106862 0.093685001 -0.229636
-0.106859 0.093757004 -0.22964001
-0.106857 0.093828999 -0.229637
-0.106855 0.093898997 -0.229623
-0.106852 0.093969002 -0.22961301
-0.10685 0.094039999 -0.22960401
-0.106848 0.094109997 -0.22959
-0.106846 0.094180003 -0.22957399
-0.106844 0.094249003 -0.229559
-0.106842 0.094319001 -0.22954901
-0.106839 0.094391003 -0.229541
-0.106837 0.094461001 -0.229532
-0.106835 0.094530001 -0.229522
-0.106832 0.094602004 -0.229518
-0.106829 0.094673999 -0.229514
-0.106827 0.094742 -0.229499
-0.106826 0.094811 -0.229481
-0.106824 0.094880998 -0.22946399
-0.106822 0.094950996 -0.229452
-0.106819 0.095022999 -0.22944801
-0.106816 0.095094003 -0.22944599
-0.106814 0.095164001 -0.229433
-0.106812 0.095233999 -0.229417
-0.10681 0.095302999 -0.229405
-0.106808 0.095372997 -0.229398
-0.106805 0.095445 -0.22939
-0.106803 0.095514998 -0.22938401
-0.1068 0.095585003 -0.229375
-0.106798 0.095654003 -0.22936501
-0.106795 0.095725998 -0.22936299
-0.106792 0.095798001 -0.229366
-0.10679 0.095867999 -0.22936
-0.106788 0.095937997 -0.229344
-0.106786 0.096006997 -0.229329
-0.106783 0.096078999 -0.22932699
-0.10678 0.096151002 -0.229333
-0.106778 0.096222997 -0.22932699
-0.106775 0.096293002 -0.229322
-0.106772 0.096364997 -0.229322
-0.10677 0.096437 -0.22931799
-0.106767 0.096506998 -0.229311
-0.106765 0.096575998 -0.229297
-0.106763 0.096646003 -0.229289
-0.10676 0.096717998 -0.229296
-0.106756 0.096793003 -0.229304
-0.106753 0.096864998 -0.229314
-0.10675 0.096937001 -0.229316
-0.106747 0.097009003 -0.229315
-0.106745 0.097080998 -0.229313
-0.106742 0.097153001 -0.229311
-0.106739 0.097225003 -0.229313
-0.106736 0.097296998 -0.22932599
-0.106732 0.097373001 -0.229348
-0.106728 0.097445004 -0.229362
-0.106725 0.097516999 -0.229358
-0.106723 0.097589001 -0.22935501
-0.106719 0.097661003 -0.22936501
-0.106716 0.097736001 -0.229375
-0.106713 0.097808003 -0.229375
-0.10671 0.097879998 -0.22938
-0.106707 0.097952001 -0.22938
-0.106704 0.098024003 -0.229386
-0.106701 0.098098002 -0.229404
-0.106697 0.098172002 -0.229415
-0.106694 0.098246001 -0.229423
-0.106691 0.098319001 -0.229433
-0.106687 0.098393001 -0.229443
-0.106684 0.098465003 -0.22944801
-0.106681 0.098536998 -0.22944599
-0.106678 0.098609 -0.229454
-0.106674 0.098684996 -0.22947399
-0.10667 0.098760001 -0.22949301
-0.106667 0.098834001 -0.229507
-0.106664 0.098906003 -0.229515
-0.10666 0.098980002 -0.229527
-0.106656 0.099055 -0.229543
-0.106653 0.099128999 -0.229562
-0.106648 0.099207997 -0.229588
-0.106644 0.099281996 -0.229608
-0.10664 0.099358998 -0.229638
-0.106636 0.099435002 -0.22967
-0.106631 0.099514 -0.229708
-0.106625 0.099595003 -0.229752
-0.10662 0.099674001 -0.229794
-0.106615 0.099753 -0.229838
-0.10661 0.099834003 -0.229886
-0.106604 0.099914998 -0.229946
-0.106597 0.100001 -0.230018
-0.106589 0.100089 -0.23011
-0.106581 0.100177 -0.230202
-0.106571 0.100272 -0.230331
-0.106561 0.100369 -0.230471
-0.107233 0.081053004 -0.231227
-0.107236 0.081120998 -0.231126
-0.107238 0.081188999 -0.23101
-0.107241 0.081256002 -0.23090699
-0.107242 0.081324004 -0.230819
-0.107244 0.081394002 -0.230727
-0.107245 0.081462003 -0.23064201
-0.107246 0.081531003 -0.23057
-0.107247 0.081598997 -0.230483
-0.107247 0.081669003 -0.23042899
-0.107247 0.081738003 -0.23038299
-0.107246 0.081807002 -0.230332
-0.107246 0.081876002 -0.230288
-0.107245 0.081946999 -0.230251
-0.107244 0.082016997 -0.230215
-0.107243 0.082088001 -0.230177
-0.107242 0.082157001 -0.230148
-0.10724 0.082226001 -0.23012
-0.107239 0.082298003 -0.230088
-0.107237 0.082367003 -0.23006099
-0.107235 0.082438998 -0.23004299
-0.107233 0.082507998 -0.230031
-0.107231 0.082578003 -0.230012
-0.10723 0.082649 -0.22999001
-0.107228 0.082718998 -0.229964
-0.107227 0.082790002 -0.229939
-0.107225 0.082859002 -0.229913
-0.107223 0.082929 -0.229899
-0.107221 0.083001003 -0.229892
-0.107218 0.083071001 -0.229886
-0.107215 0.083143003 -0.229884
-0.107213 0.083213001 -0.229877
-0.107211 0.083283998 -0.22985899
-0.107209 0.083353996 -0.229839
-0.107207 0.083423004 -0.22983
-0.107204 0.083494999 -0.229826
-0.107202 0.083564997 -0.22982
-0.107199 0.083636999 -0.22981399
-0.107197 0.083709002 -0.229811
-0.107194 0.083779 -0.229811
-0.107191 0.083851002 -0.229817
-0.107188 0.083921 -0.22981399
-0.107186 0.083991997 -0.229802
-0.107184 0.084062003 -0.229792
-0.107182 0.084133998 -0.229781
-0.107179 0.084204003 -0.229773
-0.107176 0.084275998 -0.22977699
-0.107173 0.084345996 -0.229781
-0.107171 0.084417999 -0.229776
-0.107168 0.084487997 -0.229772
-0.107166 0.084559001 -0.229764
-0.107163 0.084628999 -0.229761
-0.10716 0.084701002 -0.229757
-0.107158 0.084771 -0.22975101
-0.107155 0.084843002 -0.22975001
-0.107153 0.084914997 -0.229748
-0.10715 0.084985003 -0.229744
-0.107147 0.085056998 -0.22975001
-0.107143 0.085129 -0.229771
-0.10714 0.085198998 -0.229771
-0.107138 0.085271001 -0.229755
-0.107136 0.085340999 -0.229754
-0.107132 0.085413001 -0.22976799
-0.107129 0.085484996 -0.229774
-0.107126 0.085555002 -0.22976799
-0.107123 0.085626997 -0.229773
-0.10712 0.085698999 -0.22977699
-0.107118 0.085768998 -0.229773
-0.107115 0.085841 -0.229774
-0.107112 0.085913002 -0.22978
-0.107109 0.085984997 -0.22978801
-0.107106 0.086055003 -0.229794
-0.107103 0.086126998 -0.22979701
-0.1071 0.086199 -0.22979701
-0.107097 0.086268999 -0.22979701
-0.107094 0.086341001 -0.229802
-0.107091 0.086413004 -0.229808
-0.107088 0.086484 -0.229818
-0.107084 0.086557999 -0.22983199
-0.107081 0.086627997 -0.229837
-0.107078 0.0867 -0.229835
-0.107075 0.086772002 -0.229839
-0.107072 0.086842 -0.229846
-0.107069 0.086914003 -0.229854
-0.107067 0.086985998 -0.229848
-0.107065 0.087056004 -0.229828
-0.107062 0.087127 -0.22982299
-0.107059 0.087197997 -0.22983301
-0.107055 0.087272003 -0.229847
-0.107052 0.087342001 -0.229858
-0.107049 0.087416001 -0.229866
-0.107046 0.087485999 -0.229876
-0.107043 0.087559 -0.22988001
-0.10704 0.087630004 -0.229873
-0.107037 0.087700002 -0.229873
-0.107034 0.087774999 -0.22988901
-0.107031 0.087844998 -0.229895
-0.107028 0.087916002 -0.229886
-0.107026 0.087986 -0.22988001
-0.107023 0.088058002 -0.229872
-0.107021 0.088128 -0.229867
-0.107018 0.088200003 -0.22987901
-0.107014 0.088271998 -0.229891
-0.107011 0.088344 -0.229893
-0.107008 0.088416003 -0.229894
-0.107005 0.088487998 -0.22989801
-0.107002 0.088560998 -0.229908
-0.106999 0.088630997 -0.229911
-0.106997 0.088702001 -0.229903
-0.106994 0.088774003 -0.22989701
-0.106992 0.088844001 -0.229893
-0.106989 0.088916004 -0.22989
-0.106986 0.088986002 -0.229894
-0.106983 0.089057997 -0.229892
-0.10698 0.089129999 -0.229895
-0.106977 0.089202002 -0.22990499
-0.106974 0.089273997 -0.229909
-0.106972 0.089344002 -0.229899
-0.10697 0.089415997 -0.229884
-0.106967 0.089486003 -0.229882
-0.106962 0.089560002 -0.229918
-0.106959 0.089635 -0.229932
-0.106956 0.089704998 -0.229931
-0.106953 0.089777 -0.22993501
-0.106951 0.089849003 -0.229931
-0.106949 0.089918002 -0.22991601
-0.106946 0.089989997 -0.229912
-0.106943 0.090060003 -0.22991399
-0.10694 0.090131998 -0.229913
-0.106938 0.090204 -0.229911
-0.106935 0.090276003 -0.22990701
-0.106933 0.090346001 -0.229901
-0.10693 0.090415001 -0.22989599
-0.106928 0.090487003 -0.22989
-0.106924 0.090558998 -0.22989599
-0.106921 0.090631999 -0.22990499
-0.106918 0.090704001 -0.229909
-0.106915 0.090775996 -0.229913
-0.106912 0.090847999 -0.229911
-0.10691 0.090916999 -0.229902
-0.106908 0.090989001 -0.22989599
-0.106905 0.091058999 -0.229892
-0.106903 0.091128998 -0.229883
-0.1069 0.091201 -0.229873
-0.106898 0.091273002 -0.229873
-0.106894 0.091344997 -0.229881
-0.106892 0.091417 -0.22987799
-0.106889 0.091486 -0.229872
-0.106887 0.091558002 -0.229864
-0.106885 0.091628 -0.229855
-0.106882 0.091700003 -0.229845
-0.106881 0.091766998 -0.229819
-0.106879 0.091836996 -0.22980399
-0.106875 0.091911003 -0.229816
-0.106873 0.091981001 -0.229816
-0.10687 0.092053004 -0.229803
-0.106868 0.092122003 -0.22979499
-0.106865 0.092193998 -0.229791
-0.106863 0.092263997 -0.229782
-0.106861 0.092334002 -0.22976799
-0.106858 0.092405997 -0.229762
-0.106856 0.092478 -0.22976001
-0.106853 0.092546999 -0.22975899
-0.106851 0.092619002 -0.229753
-0.106848 0.092689 -0.22974101
-0.106847 0.092758998 -0.22972199
-0.106845 0.092827998 -0.229698
-0.106843 0.092897996 -0.22968601
-0.10684 0.092969999 -0.229691
-0.106836 0.093042001 -0.229701
-0.106834 0.093114004 -0.229697
-0.106832 0.093184002 -0.229688
-0.106829 0.093253002 -0.22967599
-0.106827 0.093324997 -0.22967
-0.106824 0.093395002 -0.22966699
-0.106822 0.093466997 -0.22965901
-0.10682 0.093535997 -0.229647
-0.106817 0.093607999 -0.22964101
-0.106815 0.093677998 -0.229638
-0.106812 0.09375 -0.229634
-0.10681 0.093819998 -0.229624
-0.106807 0.093889996 -0.229615
-0.106805 0.093961 -0.22960301
-0.106803 0.094030999 -0.229589
-0.106801 0.094100997 -0.229572
-0.106799 0.094169997 -0.229554
-0.106797 0.094240002 -0.229542
-0.106794 0.094311997 -0.229541
-0.106792 0.094382003 -0.229537
-0.10679 0.094451003 -0.229523
-0.106788 0.094521001 -0.229504
-0.106785 0.094593003 -0.229498
-0.106783 0.094664998 -0.229498
-0.10678 0.094734997 -0.229495
-0.106778 0.094803996 -0.229479
-0.106776 0.094874002 -0.229461
-0.106774 0.094943002 -0.22945
-0.106771 0.095014997 -0.229444
-0.106769 0.095085002 -0.229434
-0.106767 0.095155001 -0.229423
-0.106765 0.095224001 -0.22941101
-0.106762 0.095296003 -0.22940101
-0.10676 0.095366001 -0.229397
-0.106757 0.095438004 -0.229394
-0.106755 0.095508002 -0.22939201
-0.106752 0.095579997 -0.22938199
-0.106751 0.095647 -0.229361
-0.106748 0.095716998 -0.229349
-0.106745 0.095789 -0.229353
-0.106743 0.095861003 -0.22935399
-0.106741 0.095931001 -0.22933801
-0.106739 0.096000001 -0.229316
-0.106736 0.096072003 -0.22931699
-0.106733 0.096143998 -0.229325
-0.10673 0.096213996 -0.22931699
-0.106728 0.096284002 -0.229304
-0.106725 0.096355997 -0.22931001
-0.106722 0.096430004 -0.22932
-0.106719 0.096500002 -0.22931799
-0.106717 0.096571997 -0.229315
-0.106714 0.096643999 -0.22931699
-0.106711 0.096716002 -0.229315
-0.106708 0.096785001 -0.22930899
-0.106706 0.096856996 -0.22931001
-0.106703 0.096929997 -0.229316
-0.106699 0.097003996 -0.229322
-0.106696 0.097075999 -0.229325
-0.106693 0.097148001 -0.22932699
-0.10669 0.097220004 -0.229331
-0.106687 0.097291999 -0.229335
-0.106684 0.097364001 -0.229344
-0.106681 0.097438 -0.22935601
-0.106677 0.097511999 -0.229368
-0.106674 0.097585 -0.229376
-0.106671 0.097657003 -0.229381
-0.106668 0.097728997 -0.229381
-0.106665 0.097802997 -0.22939099
-0.106662 0.097874999 -0.229397
-0.106659 0.097947001 -0.22939999
-0.106655 0.098021001 -0.229412
-0.106652 0.098095 -0.229424
-0.106649 0.098167002 -0.22943
-0.106645 0.098242 -0.22943801
-0.106642 0.098314002 -0.229443
-0.10664 0.098384 -0.229441
-0.106637 0.098458 -0.229441
-0.106634 0.098530002 -0.22945
-0.10663 0.098604001 -0.22946
-0.106627 0.098678 -0.22947399
-0.106623 0.098750003 -0.229486
-0.106619 0.098826997 -0.22950201
-0.106616 0.098901004 -0.229523
-0.106612 0.098975003 -0.229537
-0.106609 0.099048004 -0.229543
-0.106605 0.099122003 -0.229555
-0.106601 0.099197999 -0.229579
-0.106597 0.099275 -0.22961
-0.106592 0.099353999 -0.229654
-0.106587 0.099431001 -0.22968601
