0.0180258 -0.0668825 0.997598 0.00552297
0.0184731 -0.0599979 0.998028 0.000167833
0.0168309 -0.0516933 0.998521 0.000143823
0.0184977 -0.0526126 0.998444 0
0.0237916 -0.0548738 0.99821 0
0.0245094 -0.0560296 0.998128 0
0.0212041 -0.0530299 0.998368 0
0.0235127 -0.050918 0.998426 0
0.0236299 -0.0454429 0.998687 0
0.0288926 -0.0460742 0.99852 0
0.0327566 -0.0450284 0.998449 0
0.0390836 -0.0471072 0.998125 0
0.0448918 -0.050769 0.997701 0
0.0455186 -0.0500748 0.997708 0
0.0441511 -0.0554947 0.997482 0
0.0430584 -0.0571234 0.997438 0
0.0433596 -0.0606511 0.997217 0
0.0385555 -0.0596605 0.997474 0
0.0407914 -0.0613376 0.997283 0
0.0390862 -0.062677 0.997268 0
0.0400249 -0.0592477 0.997441 0
0.0439642 -0.0516915 0.997695 0
0.0457376 -0.0489671 0.997753 0
0.048215 -0.0505851 0.997555 0
0.0445036 -0.0518852 0.997661 0
0.0404892 -0.0492814 0.997964 0
0.0369049 -0.043341 0.998378 0
0.0339898 -0.0336981 0.998854 0
0.0307375 -0.0274175 0.999151 0
0.0284865 -0.0281761 0.999197 0
0.0283524 -0.0241572 0.999306 0
0.0283338 -0.0200871 0.999397 0
0.0295517 -0.0155669 0.999442 0
0.0342905 -0.00937665 0.999368 0
0.0307337 -0.00871367 0.99949 0
0.029055 -0.0126069 0.999498 0
0.0267028 -0.00928965 0.9996 0
0.0251426 -0.00705842 0.999659 0
0.0232141 -0.00507269 0.999718 0
0.0233242 -0.00362675 0.999721 0
0.0233794 -0.00457909 0.999716 0
0.0242308 -0.00458838 0.999696 0
0.0238547 -0.00178501 0.999714 0
0.0233377 -0.00299013 0.999723 0
0.0269604 -0.0059151 0.999619 0
0.0266334 -0.000782809 0.999645 0
0.0272155 0.0052994 0.999616 0
0.0330958 0.010319 0.999399 0
0.0316661 0.00880113 0.99946 0
0.0325901 0.00412771 0.99946 0
0.0357796 0.00207571 0.999358 0
0.0399906 0.00542888 0.999185 0
0.0382667 0.00495403 0.999255 0
0.0332947 0.010875 0.999386 0.00126578
0.0314516 0.0156908 0.999382 0.0092563
0.0271174 0.0217965 0.999395 0.0125208
0.0262246 0.0205208 0.999445 0.0135125
0.0239839 0.0208421 0.999495 0.0133812
0.0197865 0.029155 0.999379 0.0181563
0.0196564 0.0362435 0.99915 0.0176832
0.0177338 0.0438763 0.99888 0.024806
0.0229489 0.0453604 0.998707 0.0228109
0.0228374 0.0514999 0.998412 0.0259275
0.0238285 0.0555721 0.99817 0.0296068
0.0223452 0.0550806 0.998232 0.0322029
0.0245584 0.0521126 0.998339 0.0305289
0.0283932 0.0536245 0.998157 0.0273327
0.0312261 0.0542861 0.998037 0.0259675
0.0364102 0.0540176 0.997876 0.0255564
0.0404577 0.0572808 0.997538 0.0280772
0.0405718 0.0560563 0.997603 0.0252798
0.0362031 0.0542226 0.997872 0.0235808
0.0379464 0.0558995 0.997715 0.0219074
0.0378483 0.0601367 0.997472 0.014998
0.0416804 0.0618405 0.997215 0.00597057
0.0449016 0.0644431 0.996911 0
0.0466117 0.0633703 0.996901 0
0.0571418 0.0640535 0.996309 0
0.0636608 0.0681746 0.99564 0
0.0667924 0.0691352 0.995369 0
0.0667423 0.0653121 0.99563 0
0.0726246 0.0663523 0.99515 0
0.0799587 0.0677907 0.99449 0
0.0876535 0.0690977 0.993752 0
0.0912459 0.071195 0.99328 0
0.101332 0.082358 0.991438 0
0.0981537 0.0793745 0.992001 0
0.0960867 0.0854353 0.9917 0
0.0959693 0.0876103 0.991521 0
0.111217 0.0908451 0.989635 0
0.116685 0.0929752 0.988807 0
0.117213 0.0933685 0.988708 0
0.109818 0.0892594 0.989936 0
0.110205 0.0963337 0.989229 0
0.110301 0.0984085 0.989014 0
0.110401 0.0956734 0.989272 0
0.108112 0.103093 0.988779 0
0.102343 0.101162 0.989592 0
0.112029 0.10471 0.988173 0
0.11254 0.103215 0.988272 0
0.125268 0.109367 0.986077 0
0.122996 0.105209 0.986815 0
0.125955 0.11075 0.985835 0
0.129678 0.112657 0.985135 0
0.133179 0.115234 0.98437 0
0.135783 0.119555 0.983499 0
0.130361 0.113229 0.98498 0
0.129244 0.115411 0.984874 0
0.132754 0.125278 0.9832 0
0.128636 0.122889 0.984048 0
0.134889 0.138168 0.98118 0.00164077
0.137603 0.151462 0.978839 0.0136606
0.140607 0.167043 0.975872 0.0215193
0.143181 0.1714 0.974742 0.019087
0.14608 0.179232 0.972901 0.0266126
0.157168 0.202146 0.966662 0.0365347
0.170009 -0.289829 0.941858 0.0187614
0.164217 -0.271703 0.948267 0.0159299
0.165079 -0.27049 0.948464 0.0223496
0.16536 -0.268978 0.948845 0.0258865
0.168602 -0.27097 0.947707 0.031227
0.163916 -0.259295 0.951787 0.0267951
0.153849 -0.241982 0.958006 0.0204556
0.144804 -0.23008 0.962338 0.0208052
0.139024 -0.224538 0.964497 0.027413
0.132015 -0.216469 0.967323 0.033656
0.115621 -0.202271 0.97248 0.035732
0.115435 -0.202329 0.97249 0.0316289
0.114808 -0.200683 0.972906 0.0343429
0.119691 -0.201538 0.97214 0.0223564
0.126608 -0.203598 0.970834 0.0151741
0.119217 -0.194142 0.973702 0.0145086
0.113953 -0.185759 0.975965 0.0102443
0.1164 -0.187048 0.97543 0.00792425
0.113865 -0.182928 0.97651 0.0046254
0.100576 -0.175489 0.97933 0.00589124
0.0920753 -0.166138 0.981794 0.00657583
0.0860796 -0.162181 0.982999 0
0.0881014 -0.165662 0.982239 0
0.0887924 -0.166182 0.982089 0
0.0891508 -0.169359 0.981514 0
0.0900987 -0.164727 0.982215 0
0.0811809 -0.15642 0.984349 0.0020235
0.0844578 -0.159037 0.983653 0.00746311
0.0840312 -0.154793 0.984367 0.0111712
0.0869364 -0.158605 0.983507 0.0168986
0.0862182 -0.15384 0.984327 0.0147566
0.0832811 -0.148906 0.985338 0.0165401
0.0851066 -0.149326 0.985119 0.0259323
0.0855437 -0.143417 0.985958 0.0254955
0.0845021 -0.13864 0.986731 0.0224369
0.0882946 -0.142028 0.985917 0.00884857
0.0856691 -0.140412 0.98638 0.00899448
0.0845031 -0.141631 0.986306 0.0100817
0.0836907 -0.137357 0.98698 0.0128707
0.0877204 -0.141911 0.985985 0.0196167
0.0889424 -0.142883 0.985735 0.0243504
0.0867751 -0.143673 0.985814 0.0312118
0.0811183 -0.142047 0.986531 0.0356899
0.0771902 -0.142693 0.986753 0.0361451
0.0745306 -0.138458 0.98756 0.0417739
0.0746941 -0.138669 0.987518 0.041648
0.0710475 -0.128917 0.989107 0.052193
0.0644553 -0.125768 0.989964 0.0565527
0.057175 -0.121582 0.990933 0.0544418
0.0554709 -0.119563 0.991276 0.0575877
0.0539954 -0.11486 0.991913 0.0575595
0.0519177 -0.112126 0.992337 0.0636923
0.0521268 -0.107433 0.992845 0.0656043
0.0427865 -0.103825 0.993675 0.0732451
0.0331259 -0.0988527 0.994551 0.0781023
0.0220095 -0.091975 0.995518 0.0801395
0.00933376 -0.0847353 0.99636 0.0866377
0.00284157 -0.0848045 0.996394 0.0885402
-0.000327743 -0.0861786 0.99628 0.0922832
-0.00737321 -0.0833562 0.996493 0.0968068
-0.0077053 -0.0794968 0.996805 0.0917865
-0.00656481 -0.0794961 0.996814 0.0899347
-0.00494673 -0.08017 0.996769 0.0848965
-0.008629 -0.0773003 0.996971 0.0812663
-0.0105836 -0.0791022 0.99681 0.0797845
-0.00917718 -0.0874385 0.996128 0.0749687
-0.0107045 -0.0864408 0.996199 0.0704687
-0.00963987 -0.0853178 0.996307 0.0646982
-0.00920089 -0.0777768 0.996928 0.0576424
-0.01812 -0.0730214 0.997166 0.0613732
-0.0148716 -0.0785948 0.996796 0.054294
-0.015297 -0.0785426 0.996793 0.0549665
-0.0120622 -0.078547 0.996837 0.0520418
-0.00786082 -0.0791457 0.996832 0.0466524
-0.00262383 -0.0763552 0.997077 0.0482617
-0.00170837 -0.072041 0.9974 0.053521
-0.00151748 -0.0742122 0.997241 0.0553033
-0.000338623 -0.0752407 0.997165 0.0532447
0.0011589 -0.0747096 0.997205 0.0515274
0.000187997 -0.0691021 0.99761 0.050681
0.00356755 -0.0694549 0.997579 0.0492124
0.00502436 -0.0676712 0.997695 0.0464693
0.00365366 -0.0666939 0.997767 0.0475302
-0.00349112 -0.0684796 0.997646 0.0501651
-0.00548951 -0.0676814 0.997692 0.0487621
-0.00317861 -0.0656576 0.997837 0.0474529
-0.000643256 -0.0650341 0.997883 0.0437852
0.00100108 -0.0639905 0.99795 0.0356464
0.00490734 -0.0630452 0.997999 0.027322
0.00872152 -0.0656096 0.997807 0.0193369
0.00802062 -0.0681309 0.997644 0.0192696
0.0081447 -0.0654703 0.997821 0.0167596
0.00686166 -0.0673651 0.997705 0.012089
0.00924227 -0.0676534 0.997666 0.00397715
0.0089616 -0.066546 0.997743 0.000316391
0.00597948 -0.068294 0.997647 0.00214672
0.00803453 -0.068139 0.997643 0.00339676
0.00958061 -0.0683845 0.997613 0.00207
0.0163639 -0.0718628 0.99728 0
0.01915 -0.0671727 0.997558 0.00175193
0.0226892 -0.0647948 0.997641 0.00190401
0.0269946 -0.0684832 0.997287 0
0.0301109 -0.0715637 0.996981 0
0.0299454 -0.0710571 0.997023 0
0.0337198 -0.0681537 0.997105 0
0.0378033 -0.0640773 0.997229 0
0.0393811 -0.0573367 0.997578 0
0.0393493 -0.0541884 0.997755 0
0.0381511 -0.0570307 0.997643 0
0.0390861 -0.0618294 0.997321 0
0.0405762 -0.0620881 0.997246 0
0.0396837 -0.0563405 0.997623 0
0.0412172 -0.0536918 0.997707 0
0.0431068 -0.0513929 0.997748 0
0.0473858 -0.050237 0.997613 0
0.0519335 -0.0516668 0.997313 0
0.0582329 -0.0531697 0.996886 0
0.0580255 -0.0544818 0.996827 0
0.0579344 -0.0552477 0.996791 0
0.0564606 -0.0580776 0.996714 0
0.0529671 -0.058692 0.99687 0
0.0498701 -0.0626897 0.996786 0
0.0472401 -0.0635391 0.996861 0
0.0450732 -0.0645802 0.996894 0
0.0468558 -0.0617958 0.996988 0
0.0520614 -0.0578322 0.996968 0
0.0534211 -0.0539993 0.997111 0
0.055834 -0.0544866 0.996952 0
0.0522819 -0.0554265 0.997093 0
0.0463474 -0.053304 0.997502 0
0.0412729 -0.0469693 0.998043 0
0.0378852 -0.0397417 0.998491 0
0.0385052 -0.0298723 0.998812 0
0.0332718 -0.0279658 0.999055 0
0.0360452 -0.0271057 0.998982 0
0.0366664 -0.0221849 0.999081 0
0.038225 -0.0168124 0.999128 0
0.0438821 -0.0112359 0.998974 0
0.0437626 -0.0077785 0.999012 0
0.0389971 -0.00605933 0.999221 0
0.039183 -0.00408092 0.999224 0
0.0372695 -0.00537617 0.999291 0
0.0336842 -0.0030096 0.999428 0
0.0300641 -0.00467315 0.999537 0
0.0303747 -0.00129797 0.999538 0
0.0303699 0.00460842 0.999528 0
0.0304796 0.00717715 0.99951 0
0.0316228 0.00651945 0.999479 0
0.0327346 0.00245413 0.999461 0
0.0314232 0.00825232 0.999472 0
0.0288552 0.0108231 0.999525 0
0.0299002 0.0189024 0.999374 0
0.0314915 0.015812 0.999379 0
0.0316052 0.0132554 0.999413 0
0.0348697 0.0148999 0.999281 0
0.0378899 0.011725 0.999213 0
0.0405754 0.0117019 0.999108 0
0.0406736 0.0122894 0.999097 0
0.0397156 0.0169239 0.999068 0.000172543
0.0390262 0.0205665 0.999026 0.00231078
0.0391731 0.0248616 0.998923 0.00818815
0.0418614 0.0242403 0.998829 0.00808281
0.0382396 0.032351 0.998745 0.0166795
0.0395291 0.0453058 0.998191 0.0224645
0.0361929 0.0481672 0.998183 0.0259313
0.0345463 0.0517112 0.998064 0.0304501
0.0322391 0.0592619 0.997722 0.037204
0.0298552 0.0641056 0.997496 0.0386194
0.0274131 0.0662746 0.997425 0.0401488
0.0280019 0.0594367 0.997839 0.03921
0.032365 0.0600328 0.997672 0.0304677
0.0367684 0.0554416 0.997785 0.0305175
0.039728 0.0563004 0.997623 0.0324163
0.0439575 0.0542836 0.997558 0.0323952
0.0480574 0.0559644 0.997275 0.0299076
0.0496133 0.0555629 0.997222 0.0244532
0.0460874 0.0555302 0.997393 0.018039
0.0431715 0.0545234 0.997579 0.0148326
0.041707 0.0545288 0.997641 0.00530445
0.0402596 0.0564088 0.997596 0
0.0395973 0.0584999 0.997502 0
0.0444915 0.0606394 0.997168 0
0.0518106 0.0670958 0.9964 0
0.0560024 0.0669203 0.996185 0
0.0627527 0.0649074 0.995916 0
0.065557 0.0650094 0.995729 0
0.0714514 0.0632292 0.995438 0
0.0778745 0.0652907 0.994823 0
0.0920284 0.0758184 0.992866 0
0.104134 0.0811405 0.991248 0
0.107397 0.082081 0.990822 0
0.114042 0.0868918 0.989669 0
0.117291 0.0878712 0.989202 0
0.112099 0.0878447 0.989807 0
0.11141 0.0882491 0.989848 0
0.115546 0.09269 0.988968 0
0.117036 0.09604 0.988473 0
0.11306 0.0958953 0.98895 0
0.107705 0.0958529 0.989551 0
0.0993444 0.102566 0.989753 0
0.0999873 0.104076 0.989531 0
0.09926 0.10338 0.989677 0
0.100744 0.104329 0.989427 0
0.107842 0.107056 0.988387 0
0.113349 0.108091 0.987658 0
0.120858 0.112467 0.986278 0
0.125134 0.115266 0.985421 0
0.135933 0.118995 0.983546 0
0.133379 0.118734 0.983927 0
0.140862 0.120542 0.982663 0
0.138928 0.120873 0.982898 0
0.140148 0.118968 0.982957 0
0.135301 0.121838 0.983285 0
0.132974 0.120945 0.983712 0
0.137441 0.14045 0.980502 0.00680496
0.142533 0.157548 0.977171 0.0117013
0.138637 0.156843 0.977844 0.0148689
0.144518 0.169895 0.974808 0.0250298
0.167139 -0.26693 0.949112 0.0200991
0.168229 -0.264121 0.949705 0.0260498
0.171705 -0.266914 0.948301 0.0280317
0.171442 -0.264443 0.94904 0.0264108
0.160408 -0.251684 0.954424 0.018963
0.155732 -0.244829 0.956978 0.0218772
0.154676 -0.242583 0.957721 0.025387
0.149181 -0.23479 0.960531 0.0309334
0.140533 -0.22822 0.963414 0.0430768
0.135983 -0.222848 0.965322 0.0359032
0.136204 -0.217781 0.966447 0.0353486
0.136572 -0.215004 0.967017 0.0281374
0.138519 -0.212053 0.967391 0.0220735
0.129374 -0.202623 0.970673 0.0236551
0.129473 -0.200935 0.971011 0.0161374
0.1296 -0.198508 0.971493 0.018866
0.125361 -0.192152 0.973325 0.0155493
0.108161 -0.179566 0.977782 0.0171563
0.103223 -0.17616 0.978934 0.0192804
0.0961592 -0.168302 0.981034 0.0107611
0.0953864 -0.168032 0.981156 0.00111752
0.0901865 -0.168232 0.981613 0
0.0900654 -0.1665 0.981919 0
0.0848501 -0.162735 0.983015 0.00356057
0.0858939 -0.161449 0.983136 0.0101761
0.0850583 -0.159493 0.983528 0.0150563
0.0804965 -0.152387 0.985037 0.0193405
0.079175 -0.15284 0.985074 0.0169825
0.082357 -0.155833 0.984344 0.0173025
0.08093 -0.153878 0.98477 0.0160896
0.0825763 -0.151947 0.984933 0.0219779
0.0893279 -0.151972 0.98434 0.0220329
0.0931302 -0.147859 0.984614 0.0163416
0.0957093 -0.148664 0.984245 0.00979722
0.0917695 -0.149044 0.984563 0.00222847
0.091272 -0.147246 0.98488 0.00675295
0.0915854 -0.144466 0.985262 0.00771913
0.0907651 -0.14464 0.985313 0.016434
0.0987294 -0.145387 0.984436 0.0195254
0.0995178 -0.146085 0.984254 0.0262405
0.0965543 -0.142715 0.985043 0.0294165
0.0967389 -0.144408 0.984778 0.0338471
0.0908908 -0.144801 0.985277 0.0385327
0.0899411 -0.142245 0.985737 0.0420367
0.0866738 -0.141372 0.986155 0.0414607
0.0768921 -0.131266 0.988361 0.0549015
0.0730865 -0.12823 0.989048 0.0611242
0.0654595 -0.125959 0.989874 0.0615659
0.0568494 -0.119368 0.991221 0.0663262
0.0545352 -0.117734 0.991547 0.0693397
0.0514436 -0.111531 0.992428 0.0708576
0.0464613 -0.105622 0.99332 0.0751487
0.0360769 -0.099018 0.994431 0.0855992
0.0273574 -0.0967638 0.994931 0.0886529
0.0125055 -0.0910334 0.995769 0.0882638
0.00180542 -0.0835438 0.996502 0.0966726
-0.00389965 -0.0831312 0.996531 0.0982253
-0.007924 -0.0831354 0.996507 0.101189
-0.0077371 -0.0870903 0.99617 0.102362
-0.0136817 -0.082239 0.996519 0.100172
-0.00819523 -0.0832237 0.996497 0.097181
-0.0118691 -0.0798676 0.996735 0.0940162
-0.0117293 -0.076545 0.996997 0.0853382
-0.0136852 -0.0781118 0.996851 0.0836505
-0.0125433 -0.0845141 0.996343 0.0790448
-0.0116407 -0.0847094 0.996338 0.0690692
-0.0111161 -0.0855737 0.99627 0.0640287
-0.00839838 -0.0792962 0.996816 0.0612555
-0.0177433 -0.0722179 0.997231 0.057872
-0.0137645 -0.0763752 0.996984 0.0534137
-0.0148404 -0.078227 0.996825 0.0521683
-0.00630011 -0.079721 0.996797 0.0473364
-0.00217762 -0.0823289 0.996603 0.0453962
0.000944507 -0.0827934 0.996566 0.0488967
0.000366013 -0.0789261 0.99688 0.0525764
-0.00227966 -0.0788637 0.996883 0.0542832
-0.00182118 -0.0772772 0.997008 0.0538794
0.00329107 -0.0768129 0.99704 0.0461641
0.00680675 -0.0761613 0.997072 0.0410812
0.0110902 -0.0772548 0.99695 0.0369049
0.012325 -0.075285 0.997086 0.0378081
0.0117791 -0.0707738 0.997423 0.0370987
0.00829518 -0.0683538 0.997627 0.038507
0.00925754 -0.0715894 0.997391 0.039603
0.0102924 -0.072863 0.997289 0.0344026
0.0117523 -0.0704573 0.997446 0.0322874
0.0163496 -0.0708342 0.997354 0.0232234
0.0189888 -0.0673621 0.997548 0.0152506
0.0184581 -0.0668562 0.997592 0.0126534
0.0137903 -0.0681514 0.99758 0.0128558
0.0140484 -0.0683612 0.997562 0.00973488
0.0137019 -0.0705068 0.997417 0.00628722
0.0136146 -0.0685812 0.997553 0.00507742
0.0147787 -0.068694 0.997528 0.000855553
0.0144409 -0.0704762 0.997409 0
0.0117945 -0.0710441 0.997403 0
0.0124283 -0.072218 0.997311 0
0.0183598 -0.0720253 0.997234 0
0.0256131 -0.0732355 0.996986 0
0.0303842 -0.070285 0.997064 0
0.0372677 -0.0708303 0.996792 0
0.0376054 -0.0726599 0.996648 0
0.0408101 -0.0738081 0.996437 0
0.0418257 -0.0707394 0.996618 0
0.0429082 -0.0670213 0.996828 0
0.0456666 -0.0611596 0.997083 0
0.0444116 -0.0547228 0.997513 0
0.0428424 -0.0565307 0.997481 0
0.0470721 -0.0607163 0.997045 0
0.0509259 -0.0614535 0.99681 0
0.0552647 -0.061729 0.996562 0
0.0532157 -0.0577885 0.99691 0
0.053849 -0.0512668 0.997232 0
0.0580328 -0.0515525 0.996983 0
0.0609581 -0.0514113 0.996815 0
0.0652065 -0.0532808 0.996448 0
0.0634191 -0.0546693 0.996489 0
0.0596592 -0.0561935 0.996636 0
0.05662 -0.0594631 0.996623 0
0.057652 -0.0616298 0.996433 0
0.0576545 -0.0611035 0.996465 0
0.0505985 -0.060091 0.99691 0
0.0519461 -0.0663699 0.996442 0
0.0515914 -0.0643429 0.996593 0
0.0547899 -0.0596401 0.996715 0
0.0566965 -0.05418 0.99692 0
0.0566844 -0.0546349 0.996896 0
0.0551963 -0.0573633 0.996826 0
0.0543443 -0.0553536 0.996987 0
0.0476615 -0.0509712 0.997562 0
0.0452876 -0.0434589 0.998028 0
0.0399699 -0.0340766 0.99862 0
0.0396891 -0.0274499 0.998835 0
0.0384361 -0.025376 0.998939 0
0.0408668 -0.0224873 0.998911 0
0.0431902 -0.0162744 0.998934 0
0.048104 -0.0129752 0.998758 0
0.0499423 -0.00878638 0.998713 0
0.0454723 -0.00603219 0.998947 0
0.0444595 -0.00197269 0.999009 0
0.0414665 -0.00267015 0.999136 0
0.0363554 -0.00110724 0.999338 0
0.0306201 -0.00316425 0.999526 0
0.0283032 -0.000861946 0.999599 0
0.0279532 0.00517987 0.999596 0
0.0305427 0.0115836 0.999466 0.00092223
0.0347025 0.015177 0.999282 0.000264972
0.033367 0.013205 0.999356 0.00491808
0.034502 0.010432 0.99935 0.00160163
0.035224 0.0115423 0.999313 0
0.034233 0.0179817 0.999252 0.00254287
0.0359241 0.015483 0.999235 0
0.0374683 0.0169167 0.999155 0
0.0388902 0.0181011 0.99908 0
0.0423121 0.0131716 0.999018 0
0.0467277 0.0131885 0.998821 0
0.0471816 0.0142277 0.998785 0
0.0474225 0.0173449 0.998724 0
0.0506103 0.0245524 0.998417 0
0.0506801 0.028639 0.998304 0.00350385
0.04787 0.0324521 0.998326 0.00921929
0.0430412 0.0368599 0.998393 0.0196436
0.0387763 0.042084 0.998361 0.026061
0.0386265 0.0457148 0.998208 0.0269774
0.0367286 0.0521793 0.997962 0.0286716
0.0358984 0.0559614 0.997787 0.0348832
0.0316763 0.0612261 0.997621 0.0376248
0.0358184 0.0689821 0.996975 0.0373945
0.0286413 0.056946 0.997966 0.0366124
0.0282755 0.0591327 0.99785 0.036766
0.0318092 0.0540615 0.998031 0.034522
0.0378776 0.0542588 0.997808 0.0345599
0.0440167 0.0530104 0.997623 0.0327472
0.0495406 0.0512782 0.997455 0.0281194
0.051173 0.0507625 0.997399 0.0286318
0.0553756 0.0518043 0.997121 0.0206609
0.0534363 0.0559677 0.997002 0.0162139
0.0485183 0.0524723 0.997443 0.00740187
0.0444583 0.0553251 0.997478 0.00451591
0.0371601 0.0561651 0.99773 0.00318971
0.0379285 0.0571946 0.997642 0
0.0425363 0.0624801 0.997139 0
0.0482297 0.0665235 0.996619 0
0.0621767 0.0686717 0.9957 0
0.0636214 0.068902 0.995593 0
0.0720194 0.0653039 0.995263 0
0.0755635 0.0621003 0.995205 0
0.0838192 0.0703996 0.993991 0
0.0935987 0.073152 0.992919 0
0.102302 0.0797474 0.991552 0
0.114626 0.0840653 0.989845 0
0.118754 0.0882495 0.988994 0
0.120865 0.0946158 0.98815 0
0.121141 0.0994021 0.987646 0
0.114249 0.0973677 0.988669 0
0.110206 0.0906047 0.98977 0
0.103763 0.0913673 0.990396 0
0.108084 0.0992836 0.989172 0
0.0999146 0.099529 0.990006 0
0.100047 0.10517 0.989409 0
0.102958 0.110311 0.98855 0
0.107062 0.108333 0.988333 0
0.112236 0.112819 0.987256 0
0.11567 0.107848 0.987415 0
0.120619 0.112274 0.986329 0
0.129938 0.118765 0.984383 0
0.133586 0.125645 0.98304 0
0.142604 0.126685 0.981639 0
0.135967 0.120089 0.983408 0
0.136193 0.123946 0.982898 0
0.134308 0.124351 0.983106 0
0.136344 0.126294 0.982578 0
0.137717 0.135104 0.981214 0
0.139678 0.146977 0.979228 0.00882844
0.141435 0.150679 0.978413 0.00980863
0.146477 0.156773 0.976712 0.0147214
0.173342 -0.26904 0.947402 0.0274596
0.175989 -0.266787 0.947551 0.0221767
0.179795 -0.268455 0.946364 0.018454
0.168087 -0.259067 0.951121 0.0225286
0.159393 -0.247314 0.955735 0.02504
0.152973 -0.239141 0.958859 0.0313343
0.153143 -0.241521 0.958235 0.0321782
0.150056 -0.231833 0.961112 0.0302914
0.147966 -0.231854 0.961431 0.0303427
0.1526 -0.231546 0.960781 0.0302579
0.151077 -0.225816 0.962384 0.0313609
0.142274 -0.215423 0.966101 0.0268559
0.137832 -0.21065 0.967796 0.0232583
0.133751 -0.203679 0.969859 0.0202164
0.125678 -0.200224 0.971656 0.0284749
0.118568 -0.191812 0.974243 0.0363763
0.116437 -0.188926 0.975064 0.0370139
0.1042 -0.177175 0.978648 0.0312202
0.0966222 -0.167789 0.981076 0.0201481
0.0945805 -0.167316 0.981356 0.0133089
0.0925427 -0.165656 0.981832 0.0141008
0.0890312 -0.166744 0.981972 0.0114563
0.0881905 -0.166772 0.982044 0.0185376
0.0842928 -0.162932 0.98303 0.0202594
0.0809679 -0.156631 0.984333 0.029383
0.0814445 -0.153712 0.984753 0.0268
0.0900989 -0.157464 0.983406 0.023602
0.093235 -0.160968 0.982546 0.0171362
0.0918011 -0.158443 0.983091 0.0173957
0.0962172 -0.16029 0.982369 0.0139828
0.0980088 -0.154152 0.983174 0.0143489
0.0988573 -0.151142 0.983557 0.00717991
0.0978337 -0.152381 0.983468 0.00273435
0.0962226 -0.156761 0.982938 0.00151725
0.0981943 -0.155142 0.983 0.00578034
0.094492 -0.151216 0.983974 0.0085431
0.0974197 -0.14733 0.984278 0.0183183
0.101597 -0.150351 0.983398 0.0222447
0.0967458 -0.140769 0.985304 0.0311301
0.0984598 -0.143623 0.984722 0.0332658
0.0967721 -0.144265 0.984796 0.0363864
0.0917167 -0.138987 0.986038 0.0409172
0.0857172 -0.13544 0.987071 0.0444341
0.0795374 -0.132834 0.987942 0.0530468
0.0700061 -0.125021 0.989681 0.0589077
0.0666468 -0.124891 0.989929 0.067558
0.0605298 -0.122878 0.990574 0.0715506
0.0522646 -0.119429 0.991466 0.0736025
0.057621 -0.11751 0.991399 0.0753688
0.0596703 -0.116132 0.99144 0.076296
0.0545312 -0.110656 0.992362 0.0814941
0.0411167 -0.105341 0.993586 0.0897411
0.0323307 -0.102909 0.994165 0.0916782
0.0143691 -0.0945073 0.99542 0.0944825
0.00548076 -0.0866945 0.99622 0.0994946
-0.00929414 -0.0805434 0.996708 0.105535
-0.0123453 -0.0824053 0.996522 0.109213
-0.0110009 -0.0856957 0.996261 0.106068
-0.00854418 -0.0879837 0.996085 0.102446
-0.0160405 -0.0831287 0.99641 0.103605
-0.0167441 -0.0828684 0.99642 0.0986567
-0.0163688 -0.0798211 0.996675 0.0937444
-0.0161819 -0.0751491 0.997041 0.0882121
-0.0114392 -0.0829322 0.99649 0.079958
-0.0149907 -0.0827537 0.996457 0.0767234
-0.00944589 -0.080127 0.99674 0.0691637
-0.010548 -0.0779665 0.9969 0.0661441
-0.017257 -0.0688278 0.997479 0.0641088
-0.0139941 -0.0694812 0.997485 0.057647
-0.016252 -0.0731163 0.997191 0.0574924
-0.00715586 -0.0813147 0.996663 0.0537861
0.0014113 -0.086079 0.996287 0.0505472
0.00509153 -0.0848622 0.99638 0.0495809
0.00563462 -0.0843606 0.996419 0.0530357
0.00514101 -0.0822816 0.996596 0.0522044
0.00928928 -0.0847981 0.996355 0.0488716
0.0113345 -0.0848718 0.996327 0.0432738
0.0156342 -0.0819824 0.996511 0.0350647
0.0197524 -0.0826738 0.996381 0.0338101
0.019273 -0.0786618 0.996715 0.031937
0.0167974 -0.0702073 0.997391 0.0366416
0.0180672 -0.0715647 0.997272 0.0404679
0.018154 -0.0711029 0.997304 0.0336355
0.0146259 -0.0696793 0.997462 0.0292619
0.0148014 -0.07197 0.997297 0.0258167
0.0166473 -0.0720104 0.997265 0.0203926
0.017595 -0.0691103 0.997454 0.0172699
0.0167934 -0.0677443 0.997561 0.0164316
0.0140405 -0.0693743 0.997492 0.0167895
0.0157875 -0.0682934 0.99754 0.0128209
0.0186419 -0.0682573 0.997494 0.00873506
0.0193663 -0.0719116 0.997223 0.00704886
0.0185397 -0.0693105 0.997423 0.00101415
0.0181892 -0.0698233 0.997393 0.00385436
0.0178758 -0.0702194 0.997371 6.85825e-05
0.0182176 -0.0698104 0.997394 0.00261302
0.0214574 -0.0697389 0.997334 0.000598738
0.027604 -0.0736486 0.996902 0
0.0302077 -0.06834 0.997205 0
0.0371578 -0.0690581 0.99692 0
0.0434211 -0.0722695 0.996439 0
0.04746 -0.0743556 0.996102 0
0.0486398 -0.0732627 0.996126 0
0.0476018 -0.0694512 0.996449 0
0.0494008 -0.0615499 0.996881 0
0.0478576 -0.0558291 0.997293 0
0.0450356 -0.0570628 0.997354 0
0.0477281 -0.0589813 0.997117 0
0.0495141 -0.0587995 0.997041 0
0.0581853 -0.0593239 0.996542 0
0.0585236 -0.0572159 0.996645 0
0.0578725 -0.0523776 0.996949 0
0.0635697 -0.0522773 0.996607 0
0.0746592 -0.0517652 0.995865 0
0.0756788 -0.0504215 0.995857 0
0.0754013 -0.0504154 0.995878 0
0.0725684 -0.0534618 0.99593 0
0.0695296 -0.0565588 0.995975 0
0.066283 -0.0586065 0.996078 0
0.0612091 -0.0589812 0.996381 0
0.0555362 -0.0613647 0.996569 0
0.0554826 -0.0667194 0.996228 0
0.0593869 -0.0684389 0.995886 0
0.0636138 -0.0616706 0.996067 0
0.0661947 -0.0573546 0.996157 0
0.0625736 -0.0542271 0.996566 0
0.059465 -0.0536964 0.996785 0
0.0598637 -0.0538188 0.996755 0
0.0538601 -0.0487895 0.997356 0
0.0441622 -0.0424756 0.998121 0
0.0400024 -0.0368112 0.998521 0
0.0401579 -0.0296123 0.998755 0
0.038466 -0.0277063 0.998876 0
0.0420674 -0.0248429 0.998806 0
0.0443362 -0.0217668 0.998779 0
0.0508922 -0.0177947 0.998546 0
0.0553125 -0.0155411 0.998348 0
0.0536439 -0.0118757 0.998489 0
0.0510848 -0.00602318 0.998676 0
0.0468761 -0.00294808 0.998896 0
0.0436086 0.00362246 0.999042 0
0.0393014 0.00253692 0.999224 0
0.0374456 0.00471691 0.999288 0
0.0353072 0.00906401 0.999335 0.00109744
0.0367716 0.0137459 0.999229 0.007666
0.0356195 0.0182264 0.999199 0.0104457
0.038749 0.014073 0.99915 0.00445528
0.0419585 0.0126809 0.999039 0.00306451
0.0434204 0.0114855 0.998991 0
0.039881 0.0134086 0.999114 0.00142662
0.0390519 0.0144938 0.999132 0
0.0410132 0.016716 0.999019 0
0.0404451 0.0178925 0.999022 0
0.0410364 0.0203819 0.99895 0
0.0420249 0.0173849 0.998965 0
0.0472101 0.0147846 0.998776 0
0.0512219 0.0157482 0.998563 0
0.0534662 0.0232634 0.998299 0
0.0554732 0.0298216 0.998015 0.00120455
0.0522199 0.0343661 0.998044 0.0102911
0.0515369 0.0412748 0.997818 0.0217778
0.0507741 0.0467716 0.997614 0.0313183
0.0479788 0.0499797 0.997597 0.0350515
0.0484713 0.049399 0.997602 0.0315079
0.0412254 0.0538442 0.997698 0.0339519
0.0369921 0.0599533 0.997515 0.0389462
0.0331265 0.0591851 0.997697 0.0425565
0.0382208 0.0577779 0.997598 0.0400155
0.0396125 0.0579209 0.997535 0.0372321
0.0378404 0.0511168 0.997976 0.0305998
0.0395525 0.0513036 0.9979 0.0373096
0.045746 0.0463702 0.997876 0.0286565
0.0498892 0.0467943 0.997658 0.0280224
0.0532457 0.0415639 0.997716 0.0231164
0.0566568 0.0468109 0.997296 0.0188298
0.057491 0.0534556 0.996914 0.0196661
0.056721 0.0544771 0.996903 0.0148057
0.0529874 0.0572797 0.996951 0.012029
0.0450963 0.0548376 0.997476 0.00526753
0.037133 0.0555634 0.997764 0.00567397
0.0376156 0.0567236 0.997681 0.00375075
0.0393721 0.060711 0.997379 0
0.048408 0.0672181 0.996563 0
0.055879 0.0672418 0.996171 0
0.0658061 0.0707957 0.995318 0
0.0695173 0.0665309 0.99536 0
0.0811599 0.0678565 0.994389 0
0.0900321 0.0751774 0.993097 0
0.100597 0.0808646 0.991636 0
0.112725 0.0852128 0.989966 0
0.119006 0.0906868 0.988743 0
0.119784 0.09277 0.988456 0
0.11269 0.096733 0.98891 0
0.111303 0.097471 0.988995 0
0.112048 0.100144 0.988644 0
0.114244 0.100053 0.988402 0
0.114128 0.100937 0.988325 0
0.112343 0.112531 0.987277 0
0.10657 0.114835 0.987652 0
0.10885 0.111314 0.987806 0
0.102032 0.105809 0.989138 0
0.108641 0.110436 0.987928 0
0.121624 0.117789 0.985562 0
0.128231 0.118902 0.984591 0
0.134831 0.122242 0.983299 0
0.135374 0.126287 0.982713 0
0.140193 0.124346 0.982285 0
0.143094 0.126681 0.981568 0
0.137761 0.129576 0.981953 0
0.140464 0.132255 0.981213 0
0.140597 0.133651 0.981005 0.000894851
0.144361 0.142014 0.979281 0
0.142889 0.149433 0.978393 0.000476088
0.151336 0.156071 0.976084 0.00407064
0.177994 -0.272089 0.945667 0.0180142
0.183002 -0.275923 0.943598 0.0173622
0.183247 -0.275851 0.943571 0.0196773
0.166892 -0.256209 0.952105 0.0252288
0.162046 -0.247418 0.955262 0.0234204
0.15655 -0.23609 0.959038 0.0192628
0.161813 -0.24501 0.955922 0.0228192
0.154476 -0.233079 0.96011 0.0217836
0.154759 -0.236549 0.959216 0.0274956
0.151629 -0.229992 0.961308 0.0180714
0.149687 -0.225111 0.962766 0.0218438
0.141751 -0.216311 0.965979 0.0279498
0.144087 -0.215055 0.965914 0.0381085
0.13204 -0.202867 0.970263 0.0456607
0.125196 -0.198689 0.972033 0.0517846
0.116567 -0.188331 0.975163 0.0407226
0.117996 -0.183562 0.975901 0.042348
0.117203 -0.18331 0.976043 0.0376163
0.110193 -0.175121 0.978361 0.0327962
0.110407 -0.178024 0.977813 0.0323602
0.107788 -0.177667 0.97817 0.029198
0.112706 -0.177429 0.977659 0.033147
0.104125 -0.173044 0.979394 0.0361397
0.103329 -0.167926 0.980369 0.0302393
0.100903 -0.164128 0.981265 0.0348574
0.0940437 -0.162121 0.982279 0.0293609
0.0938408 -0.163463 0.982076 0.0265869
0.0923233 -0.160033 0.982785 0.0178869
0.0954081 -0.159475 0.982581 0.0129131
0.0964417 -0.153286 0.983464 0.0149933
0.0965658 -0.151118 0.983788 0.0103671
0.0916868 -0.147455 0.98481 0.00626093
0.0964377 -0.152656 0.983563 0.00662523
0.101249 -0.155744 0.982595 0.0103472
0.10644 -0.158707 0.981572 0.0110649
0.109933 -0.161453 0.980738 0.0145271
0.110529 -0.1561 0.981538 0.0206669
0.100049 -0.141943 0.984806 0.0291226
0.103395 -0.145312 0.983968 0.0345616
0.100862 -0.146062 0.98412 0.0361855
0.0970011 -0.145329 0.984617 0.0390267
0.0914127 -0.13716 0.986322 0.0500424
0.087083 -0.132306 0.987376 0.0553671
0.0771878 -0.122082 0.989514 0.0625504
0.0706449 -0.120798 0.99016 0.0649686
0.0690328 -0.12226 0.990094 0.0692575
0.0641103 -0.120595 0.990629 0.0752585
0.0614425 -0.121938 0.990634 0.0759248
0.0630828 -0.121502 0.990585 0.0833863
0.0520531 -0.112052 0.992338 0.0876887
0.0353644 -0.101242 0.994233 0.0951429
0.0291759 -0.101381 0.99442 0.0958897
0.0152308 -0.0978838 0.995081 0.0996894
0.00177492 -0.0927857 0.995684 0.106179
-0.0109172 -0.0796219 0.996765 0.111736
-0.0152632 -0.0810175 0.996596 0.112587
-0.0159206 -0.0792066 0.996731 0.110401
-0.0180479 -0.0838506 0.996315 0.111941
-0.0243452 -0.0789806 0.996579 0.112766
-0.0156342 -0.08237 0.996479 0.101996
-0.0135166 -0.0820468 0.996537 0.0979941
-0.0145408 -0.0835269 0.996399 0.0978028
-0.00713117 -0.0852219 0.996336 0.0890689
-0.00631476 -0.0849937 0.996362 0.0819674
-0.00379792 -0.0857965 0.996305 0.0761818
-0.00277562 -0.0816473 0.996657 0.0691096
-0.0115994 -0.0723349 0.997313 0.0659515
-0.0138726 -0.0676799 0.997611 0.0594265
-0.0140069 -0.0737038 0.997182 0.059578
-0.00992009 -0.0789118 0.996832 0.0560346
-0.00234148 -0.0826739 0.996574 0.0498323
0.00494184 -0.0875322 0.996149 0.048294
0.0101006 -0.090771 0.995821 0.0444595
0.00741309 -0.085208 0.996336 0.044451
0.0148612 -0.0847386 0.996292 0.0395782
0.0174743 -0.0864848 0.9961 0.034033
0.0226509 -0.0900611 0.995679 0.0278335
0.0245702 -0.0871034 0.995896 0.031542
0.0270838 -0.0830175 0.99618 0.0295783
0.0278368 -0.0801322 0.996395 0.0307039
0.0280162 -0.0739459 0.996869 0.0324406
0.0234719 -0.0707135 0.997221 0.0333622
0.0203207 -0.0702308 0.997324 0.0289403
0.0187167 -0.0713037 0.997279 0.0286006
0.0205661 -0.0724094 0.997163 0.0226269
0.0158314 -0.0675836 0.997588 0.0251954
0.0174814 -0.0631965 0.997848 0.0235327
0.0199281 -0.0663574 0.997597 0.0240464
0.0225072 -0.0677922 0.997446 0.0206854
0.0257464 -0.0684656 0.997321 0.0170466
0.0299078 -0.0704143 0.997069 0.0151712
0.0259177 -0.0681305 0.99734 0.0146444
0.0252618 -0.0655283 0.997531 0.0150431
0.0232223 -0.0693526 0.997322 0.0116261
0.024152 -0.0728839 0.997048 0.00832398
0.0236376 -0.0711573 0.997185 0.00523485
0.0272394 -0.0714719 0.997071 0.0021847
0.031323 -0.070345 0.997031 0.00198947
0.0408254 -0.0687655 0.996797 0.000127477
0.0486019 -0.074104 0.996066 0
0.0529493 -0.077845 0.995558 0
0.0525333 -0.071229 0.996076 0
0.0547667 -0.0671954 0.996236 0
0.0558188 -0.0634665 0.996422 0
0.0589294 -0.0599651 0.996459 0
0.0567735 -0.0575279 0.996728 0
0.0554878 -0.0572972 0.996814 0
0.0562378 -0.058124 0.996724 0
0.0562181 -0.0588283 0.996684 0
0.0583188 -0.0555531 0.996751 0
0.0621063 -0.0514163 0.996744 0
0.0688038 -0.0491693 0.996418 0
0.0751122 -0.0465759 0.996087 0
0.0774622 -0.0470825 0.995883 0
0.0783843 -0.0492889 0.995704 0
0.0768317 -0.0515573 0.99571 0
0.0744623 -0.053799 0.995772 0
0.0708465 -0.0552475 0.995956 0
0.0635664 -0.0572479 0.996334 0
0.0586899 -0.0573892 0.996625 0
0.059467 -0.0659628 0.996048 0
0.0629049 -0.0683032 0.995679 0
0.0670216 -0.0648856 0.99564 0
0.0691388 -0.0580619 0.995916 0
0.066409 -0.0529572 0.996386 0
0.0642724 -0.0522472 0.996564 0
0.06358 -0.0531388 0.996561 0
0.0618724 -0.0492617 0.996868 0
0.0533804 -0.0420112 0.99769 0
0.0451311 -0.0345545 0.998383 0
0.0431415 -0.0299489 0.99862 0
0.0417082 -0.0237694 0.998847 0
0.0462417 -0.0233079 0.998658 0
0.0515737 -0.0224263 0.998417 0
0.0552906 -0.0225989 0.998215 0
0.0552976 -0.0209878 0.998249 0
0.051735 -0.0170803 0.998515 0
0.0494292 -0.0113778 0.998713 0
0.049996 -0.00458099 0.998739 0
0.0490755 -0.00020489 0.998795 0
0.0461574 0.00309311 0.998929 0
0.0408275 0.00472168 0.999155 0.00172525
0.0440038 0.00777341 0.999001 0.00554126
0.048674 0.0135169 0.998723 0.00582848
0.0459311 0.0160287 0.998816 0.00759767
0.0462371 0.0162734 0.998798 0.00422686
0.048345 0.0170951 0.998684 0.00470375
0.0474827 0.0154093 0.998753 0.000648611
0.0438018 0.0178817 0.99888 0.0022218
0.0405118 0.0192968 0.998993 0.000745503
0.0381483 0.0189039 0.999093 0
0.0414745 0.0158778 0.999013 0
0.044015 0.019129 0.998848 0
0.0445989 0.0219262 0.998764 0
0.0520692 0.0206732 0.998429 0
0.0609224 0.0258191 0.997809 0
0.0661402 0.0282641 0.99741 0
0.0667632 0.0290476 0.997346 0
0.0662864 0.0334223 0.997241 0.00515272
0.0648395 0.0393754 0.997119 0.0140079
0.0581557 0.0415543 0.997442 0.02118
0.0528513 0.0502454 0.997337 0.0300368
0.0453191 0.0510778 0.997666 0.0373366
0.0432497 0.0496849 0.997828 0.0369652
0.0433695 0.0580451 0.997371 0.0416096
0.0368045 0.0570749 0.997691 0.0433062
0.0438794 0.0531678 0.997621 0.036466
0.0477514 0.0501455 0.9976 0.0324298
0.0433831 0.0469775 0.997953 0.0283321
0.0428136 0.0451568 0.998062 0.0259202
0.0515561 0.0465108 0.997586 0.0263068
0.0510019 0.0470814 0.997588 0.0242271
0.0527198 0.046622 0.99752 0.0204726
0.0536171 0.044589 0.997566 0.0180061
0.0557446 0.0503455 0.997175 0.0237766
0.0620398 0.0569741 0.996446 0.0212646
0.0637287 0.0608177 0.996112 0.0183392
0.0600352 0.0614822 0.996301 0.0140204
0.0584768 0.0643942 0.99621 0.0130479
0.0542816 0.0612252 0.996647 0.00982524
0.0536976 0.0617755 0.996645 0.00388396
0.0544533 0.0701095 0.996052 0.00260673
0.0570205 0.0708592 0.995855 0.000176398
0.0661251 0.0714341 0.995251 0
0.0759702 0.0705409 0.994612 0
0.0791084 0.0689187 0.994481 0
0.0928392 0.0806594 0.992409 0
0.101269 0.0851685 0.991207 0
0.107046 0.0874498 0.990401 0
0.111859 0.087661 0.98985 0
0.12374 0.0919743 0.988043 0
0.119893 0.0966523 0.988071 0
0.10949 0.0949117 0.989446 0
0.113097 0.102358 0.988297 0
0.119143 0.108865 0.986891 0
0.11791 0.108293 0.987102 0
0.123539 0.115735 0.985568 0
0.118791 0.118959 0.985767 0
0.114749 0.117832 0.986381 0
0.104745 0.112765 0.988085 0
0.115144 0.116779 0.986461 0
0.126552 0.118413 0.984867 0
0.133863 0.125112 0.98307 0
0.136973 0.127942 0.982278 0
0.144727 0.130783 0.98079 0
0.148152 0.133576 0.979902 0
0.14859 0.132049 0.980043 0
0.14441 0.131326 0.980765 0
0.147279 0.136323 0.979656 0
0.149764 0.140963 0.978622 0
0.146223 0.140557 0.979215 0
0.178435 -0.272382 0.945499 0.0233207
0.179741 -0.275571 0.944327 0.0280005
0.181736 -0.274206 0.944343 0.0272727
0.173558 -0.259744 0.949953 0.0207728
0.167713 -0.250172 0.953565 0.0227323
0.16681 -0.249955 0.95378 0.0264306
0.161791 -0.244607 0.956029 0.0236127
0.160328 -0.240278 0.957372 0.0201113
0.156456 -0.235153 0.959283 0.0232834
0.148865 -0.221625 0.963702 0.0302467
0.15263 -0.220664 0.963333 0.0354586
0.143593 -0.215548 0.965878 0.0563853
0.134912 -0.204923 0.969435 0.0604848
0.121111 -0.194281 0.973441 0.0576234
0.117732 -0.186606 0.975355 0.0503387
0.115849 -0.181431 0.976556 0.048742
0.115482 -0.181345 0.976615 0.0491366
0.115498 -0.179946 0.976872 0.0387126
0.116542 -0.180108 0.976719 0.039751
0.115329 -0.180074 0.976869 0.0509211
0.111249 -0.176576 0.97798 0.0422046
0.106024 -0.170651 0.979611 0.0411134
0.105276 -0.167608 0.980217 0.0442925
0.102255 -0.165984 0.980812 0.0402087
0.102002 -0.165349 0.980946 0.0408702
0.105957 -0.164513 0.980667 0.0295418
0.105421 -0.162131 0.981122 0.0275644
0.105631 -0.159212 0.981577 0.0307895
0.101539 -0.155247 0.982643 0.0250156
0.101057 -0.153419 0.98298 0.0175125
0.100824 -0.151537 0.983296 0.0150366
0.108489 -0.153161 0.982228 0.0107545
0.113615 -0.154511 0.981437 0.0148267
0.114548 -0.155563 0.981162 0.0144566
0.111351 -0.16021 0.980782 0.018195
0.106906 -0.156541 0.981869 0.0196769
0.108243 -0.155597 0.981872 0.0242446
0.109723 -0.150387 0.98252 0.0254517
0.0993258 -0.149089 0.983823 0.0331574
0.0969375 -0.145296 0.984628 0.041328
0.0946397 -0.138482 0.985833 0.0458128
0.0874338 -0.133807 0.987143 0.0479555
0.0805975 -0.124389 0.988955 0.0562022
0.0808552 -0.121336 0.989313 0.0622202
0.0798077 -0.12383 0.989089 0.0721775
0.0788467 -0.127355 0.988718 0.0759138
0.0691291 -0.126736 0.989525 0.0815879
0.0622704 -0.125131 0.990184 0.0876272
0.0475101 -0.113786 0.992369 0.0918248
0.0392108 -0.109025 0.993265 0.0990984
0.0324127 -0.103606 0.99409 0.100169
0.0164692 -0.0972044 0.995128 0.105431
0.00748103 -0.0934392 0.995597 0.105911
-0.00699119 -0.0819867 0.996609 0.114709
-0.00946887 -0.0830382 0.996501 0.111342
-0.0145204 -0.0817874 0.996544 0.108915
-0.0218866 -0.0800496 0.996551 0.108747
-0.0217373 -0.0824815 0.996355 0.104493
-0.0207601 -0.0852936 0.99614 0.10088
-0.0186264 -0.0848864 0.996217 0.0942751
-0.0187017 -0.0851303 0.996194 0.0950578
-0.00856618 -0.0871047 0.996162 0.0869009
0.000166023 -0.0884819 0.996078 0.0820424
0.00336912 -0.0880249 0.996113 0.0750712
-0.0027859 -0.0824968 0.996587 0.0726114
-0.00796428 -0.0790815 0.996836 0.0671974
-0.0135779 -0.0778933 0.996869 0.0667647
-0.00754041 -0.0770648 0.996998 0.0582393
-0.000228773 -0.0806889 0.996739 0.0538435
0.00695817 -0.087194 0.996167 0.0503802
0.0122081 -0.0896826 0.995896 0.0434297
0.0170975 -0.0945711 0.995371 0.0428688
0.0212228 -0.094125 0.995334 0.037595
0.0248492 -0.0891963 0.995704 0.0310842
0.0316647 -0.0939433 0.995074 0.0257495
0.0365386 -0.0949318 0.994813 0.0246254
0.0350519 -0.0937997 0.994974 0.0302589
0.0365895 -0.0899927 0.99527 0.0313911
0.0388025 -0.0859763 0.995541 0.0311795
0.0343833 -0.0767492 0.996457 0.0336139
0.0305717 -0.0747138 0.996736 0.0345007
0.0255121 -0.0717958 0.997093 0.0317267
0.0224806 -0.0727055 0.9971 0.0363667
0.026401 -0.0703752 0.997171 0.0322816
0.022395 -0.0655726 0.997596 0.0306427
0.0229606 -0.0615501 0.99784 0.0310937
0.0253646 -0.0636502 0.99765 0.0302873
0.0298219 -0.0703122 0.997079 0.0269306
0.0321624 -0.0668212 0.997247 0.0273504
0.0322477 -0.0692233 0.99708 0.026037
0.0311038 -0.0692264 0.997116 0.0246717
0.0270521 -0.0669983 0.997386 0.0221776
0.0259276 -0.0680734 0.997343 0.0183378
0.0283691 -0.0713257 0.99705 0.0161856
0.0283018 -0.0733555 0.996904 0.0100564
0.0307668 -0.0718173 0.996943 0.00672838
0.0330939 -0.0743946 0.99668 0.002156
0.0394075 -0.0741112 0.996471 0
0.044039 -0.0732994 0.996337 0
0.047497 -0.0741658 0.996114 0
0.054175 -0.0743503 0.99576 0
0.0555727 -0.0685263 0.9961 0
0.060917 -0.0645509 0.996053 0
0.0658296 -0.0619581 0.995905 0
0.0667532 -0.0571078 0.996134 0
0.0643566 -0.0566064 0.99632 0
0.0702283 -0.0575487 0.99587 0
0.0702427 -0.0581715 0.995832 0
0.0711977 -0.0563971 0.995867 0
0.0748177 -0.0538517 0.995742 0
0.0762171 -0.0486137 0.995905 0
0.084276 -0.0472837 0.99532 0
0.0862863 -0.0478412 0.995121 0
0.0858294 -0.0480265 0.995152 0
0.0820373 -0.0494017 0.995404 0
0.0812583 -0.0520014 0.995336 0
0.0791098 -0.0546761 0.995365 0
0.0732394 -0.0566718 0.995703 0
0.0663393 -0.0556306 0.996245 0
0.0608613 -0.0619035 0.996225 0
0.0598863 -0.0651808 0.996075 0
0.0647065 -0.0611213 0.996031 0
0.0699719 -0.0541431 0.996079 0
0.0677484 -0.0518142 0.996356 0
0.0663453 -0.0505457 0.996516 0
0.0645958 -0.0498909 0.996664 0
0.0629965 -0.0498485 0.996768 0
0.0579649 -0.0441533 0.997342 0
0.0501716 -0.0367005 0.998066 0
0.0472387 -0.0296484 0.998443 0
0.0471644 -0.0247906 0.99858 0
0.0552458 -0.0251746 0.998155 0
0.0565665 -0.0233323 0.998126 0
0.0582854 -0.0231287 0.998032 0
0.054857 -0.0196763 0.9983 0
0.0518316 -0.0190349 0.998474 0
0.0520606 -0.0141559 0.998544 0
0.048583 -0.00859816 0.998782 0
0.0452228 -0.00132537 0.998976 0
0.0437209 0.00179327 0.999042 0
0.0421576 0.00312796 0.999106 0.00357905
0.0445289 0.00315577 0.999003 0.00735496
0.0459651 0.00759684 0.998914 0.00643821
0.0476512 0.0112744 0.9988 0.00771078
0.051258 0.0143245 0.998583 0.00648439
0.0537857 0.0189906 0.998372 0.00744637
0.0496966 0.0211425 0.998541 0.00722924
0.0467436 0.0208162 0.99869 0.00785206
0.0401786 0.0214415 0.998962 0.00420789
0.0382242 0.0235541 0.998992 0.00178968
0.0405044 0.0211448 0.998956 0
0.0438165 0.0231213 0.998772 0
0.0453841 0.0244125 0.998671 0
0.0484667 0.0261613 0.998482 0
0.0546102 0.0280491 0.998114 0
0.0648306 0.0292924 0.997466 0
0.0652769 0.0318184 0.99736 0.00579239
0.0666612 0.0346552 0.997174 0.00809756
0.0658092 0.0396258 0.997045 0.0170465
0.0607357 0.046853 0.997054 0.0300921
0.0574867 0.0509842 0.997044 0.0336704
0.0596503 0.0547776 0.996715 0.0366229
0.0605419 0.0568238 0.996547 0.0350362
0.0570922 0.0594984 0.996594 0.0384778
0.0539305 0.0592667 0.996784 0.0461484
0.0560577 0.0563103 0.996838 0.0398579
0.0595323 0.0503274 0.996957 0.0288437
0.0552437 0.0517979 0.997128 0.0208442
0.0517466 0.0508173 0.997366 0.0209515
0.0476655 0.0515692 0.997531 0.0224074
0.0479309 0.0522059 0.997485 0.0230094
0.0512549 0.051246 0.99737 0.0238008
0.0582956 0.0519966 0.996944 0.0232458
0.0593121 0.0587409 0.99651 0.027449
0.0593868 0.0631759 0.996234 0.027397
0.0679712 0.0650538 0.995564 0.0226806
0.0699083 0.0649112 0.995439 0.0175547
0.0718639 0.0703819 0.994928 0.0187019
0.0678459 0.0677979 0.99539 0.0153648
0.0705017 0.0692716 0.995104 0.0103146
0.0669553 0.0682311 0.99542 0.000285116
0.0690438 0.0735872 0.994896 0
0.0715476 0.0701009 0.994971 0
0.0756592 0.0750042 0.994309 0
0.0817257 0.075209 0.993813 0
0.0891708 0.0809979 0.992717 0
0.0908906 0.0806965 0.992586 0
0.100263 0.0876334 0.991094 0
0.107684 0.091498 0.989966 0
0.109072 0.0935477 0.989622 0
0.120495 0.104255 0.987224 0
0.120467 0.106069 0.987034 0
0.116099 0.102069 0.987979 0
0.116619 0.110996 0.986955 0
0.124325 0.114405 0.985624 0
0.131689 0.120944 0.983885 0
0.128451 0.123258 0.984026 0
0.1264 0.12411 0.984185 0
0.121594 0.121324 0.985137 0
0.123708 0.125047 0.984408 0
0.135702 0.125664 0.982748 0
0.142287 0.130145 0.981232 0
0.143453 0.134008 0.980542 0
0.14583 0.132928 0.980339 0
0.151733 0.139611 0.978512 0
0.151765 0.143212 0.977987 0
0.149736 0.139963 0.978769 0
0.145619 0.136116 0.979932 0
0.180592 -0.272918 0.944935 0.02527
0.181433 -0.275364 0.944064 0.0340551
0.183135 -0.268032 0.945844 0.0310551
0.18001 -0.25913 0.948919 0.0186532
0.171566 -0.253976 0.951872 0.0234886
0.163428 -0.245466 0.95553 0.0184315
0.162061 -0.243559 0.956251 0.0175306
0.159461 -0.235736 0.958645 0.0318955
0.154593 -0.229174 0.961031 0.0376663
0.154822 -0.225723 0.96181 0.0490006
0.151478 -0.217327 0.964273 0.0497335
0.140284 -0.210573 0.96746 0.0611421
0.136333 -0.206268 0.968951 0.0588958
0.13104 -0.1998 0.971035 0.0638645
0.133804 -0.195211 0.971591 0.0518826
0.12776 -0.189083 0.973614 0.0538311
0.130119 -0.191611 0.972807 0.0533689
0.120463 -0.185564 0.97522 0.0599673
0.119611 -0.182328 0.975935 0.0579835
0.112498 -0.176428 0.977864 0.0609616
0.109652 -0.168841 0.979525 0.061295
0.10679 -0.16616 0.980299 0.0557102
0.106397 -0.163062 0.980862 0.0490361
0.107092 -0.160993 0.981128 0.0566938
0.10581 -0.162267 0.981057 0.0497873
0.107079 -0.163299 0.980748 0.044308
0.105094 -0.160887 0.981362 0.0328835
0.103445 -0.160219 0.981646 0.0292962
0.107989 -0.158936 0.981365 0.0217068
0.108408 -0.1567 0.981679 0.0279353
0.109342 -0.151739 0.982354 0.0261255
0.116728 -0.155555 0.980906 0.0181828
0.108642 -0.153326 0.982185 0.0155788
0.107832 -0.154908 0.982026 0.015315
0.114562 -0.158133 0.980749 0.0189122
0.117061 -0.158344 0.98042 0.0206741
0.116465 -0.155458 0.980953 0.0250544
0.114837 -0.152622 0.98159 0.0261345
0.103812 -0.148471 0.983453 0.0371051
0.0993046 -0.145342 0.984385 0.0335313
0.0951787 -0.140724 0.985463 0.040999
0.096581 -0.135127 0.98611 0.0478924
0.091838 -0.130531 0.987182 0.0661103
0.0803419 -0.124346 0.988981 0.0734593
0.0718079 -0.127304 0.989261 0.0789346
0.0611655 -0.124517 0.99033 0.0830587
0.0532121 -0.123339 0.990937 0.0878102
0.0482291 -0.120277 0.991568 0.092546
0.0413864 -0.115653 0.992427 0.0954644
0.0323115 -0.10731 0.9937 0.0976645
0.0307239 -0.105671 0.993926 0.0995184
0.0203529 -0.0998076 0.994799 0.104747
0.0122394 -0.0920667 0.995678 0.108485
0.000759849 -0.0868384 0.996222 0.103617
-0.0131838 -0.0798241 0.996722 0.104122
-0.0179405 -0.0811432 0.996541 0.102264
-0.0163175 -0.0808081 0.996596 0.101532
-0.0129512 -0.0848433 0.99631 0.0982368
-0.0105317 -0.0846053 0.996359 0.0956452
-0.0022164 -0.0897141 0.995965 0.0908788
0.00663755 -0.0930543 0.995639 0.0828248
0.00414118 -0.0879859 0.996113 0.0792772
0.00522923 -0.0877755 0.996127 0.0752
0.00782725 -0.0887672 0.996022 0.0678673
0.00348771 -0.0887125 0.996051 0.0684727
0.00565695 -0.0859628 0.996282 0.0595001
0.00710545 -0.0822113 0.99659 0.0534648
0.0129333 -0.0862753 0.996187 0.0489138
0.0174462 -0.0913974 0.995662 0.0433373
0.0188864 -0.0906737 0.995702 0.0401366
0.0199032 -0.0945769 0.995318 0.0348592
0.0247087 -0.0949487 0.995176 0.0284515
0.0290056 -0.0955745 0.995 0.0233223
0.0335838 -0.0934543 0.995057 0.018014
0.0373947 -0.0954306 0.994733 0.0198745
0.0401502 -0.0957312 0.994597 0.0241169
0.0428915 -0.0943253 0.994617 0.0296846
0.0439389 -0.0907727 0.994902 0.0299568
0.0428253 -0.0849774 0.995462 0.0299543
0.0352783 -0.0780666 0.996324 0.0372012
0.0356039 -0.0733495 0.996671 0.036697
0.0378333 -0.0719052 0.996694 0.0365182
0.0369949 -0.0731218 0.996637 0.0385213
0.0343317 -0.0683787 0.997069 0.038534
0.0290642 -0.0638316 0.997537 0.0398934
0.0314162 -0.063853 0.997465 0.0350135
0.0324335 -0.0671978 0.997212 0.0283535
0.0324733 -0.066888 0.997232 0.0295543
0.0300968 -0.0665418 0.99733 0.0319971
0.0315882 -0.0702783 0.997027 0.0269401
0.0333709 -0.0685703 0.997088 0.0214104
0.0338362 -0.0673978 0.997152 0.0201842
0.0350182 -0.069975 0.996934 0.0171522
0.0375724 -0.0712759 0.996749 0.0105104
0.0410178 -0.0713588 0.996607 0.00559371
0.0428798 -0.0738996 0.996343 0.0043921
0.046086 -0.0756114 0.996072 0
0.0507892 -0.0716117 0.996139 0
0.0570423 -0.0737634 0.995643 0
0.0624295 -0.0733604 0.99535 0
0.0644434 -0.0701291 0.995454 0
0.0717292 -0.0665333 0.995203 0
0.0766841 -0.0637981 0.995012 0
0.0733215 -0.0597386 0.995518 0
0.0763601 -0.057674 0.995411 0
0.0796106 -0.0608704 0.994966 0
0.0816308 -0.0605068 0.994824 0
0.0838972 -0.0593649 0.994704 0
0.0859073 -0.0553782 0.994763 0
0.0828143 -0.0522912 0.995192 0
0.0822299 -0.047732 0.99547 0
0.0845932 -0.0459562 0.995355 0
0.0839872 -0.0496191 0.995231 0
0.0830912 -0.0515011 0.99521 0
0.0866044 -0.0542733 0.994763 0
0.0897473 -0.0566649 0.994351 0
0.0802429 -0.0587759 0.995041 0
0.075689 -0.0585843 0.995409 0
0.0706545 -0.0593678 0.995733 0
0.0681719 -0.0590608 0.995924 0
0.0735872 -0.0558523 0.995724 0
0.0754224 -0.0528205 0.995752 0
0.0791788 -0.0499459 0.995608 0
0.0758137 -0.0473377 0.995998 0
0.0710082 -0.0440947 0.996501 0
0.0682907 -0.0440515 0.996692 0
0.061292 -0.0401645 0.997311 0
0.0578041 -0.0367953 0.99765 0
0.0615061 -0.0301547 0.997651 0
0.0610585 -0.0246534 0.99783 0
0.063023 -0.0186316 0.997838 0
0.0602888 -0.0157528 0.998057 0
0.0596273 -0.0162042 0.998089 0
0.0575276 -0.01701 0.998199 0
0.0519429 -0.0148078 0.99854 0
0.0540076 -0.0113343 0.998476 0
0.0516333 -0.00822309 0.998632 0
0.0491812 -0.00236239 0.998787 0
0.0472945 0.00195893 0.998879 0
0.0453826 0.00241461 0.998967 0
0.0463514 0.00303409 0.998921 0.000399813
0.0518521 0.0039237 0.998647 0
0.0523771 0.00986082 0.998579 0.00233032
0.0569972 0.0145661 0.998268 0.00139812
0.0592255 0.0194555 0.998055 0.00318608
0.061863 0.0228725 0.997823 0.00773278
0.0604728 0.0238042 0.997886 0.00889388
0.0563962 0.0253226 0.998087 0.00958159
0.050777 0.0237555 0.998427 0.00242773
0.0450971 0.0202416 0.998778 0
0.0478443 0.0239021 0.998569 0
0.0492414 0.0238927 0.998501 0
0.049486 0.027916 0.998385 0.00108399
0.0527604 0.030881 0.99813 0.000465326
0.062619 0.0331506 0.997487 0
0.0691401 0.0378284 0.99689 0.0069684
0.0730113 0.0413108 0.996475 0.0137894
0.0700864 0.0450394 0.996524 0.0222992
0.0687456 0.0515483 0.996302 0.0325842
0.0633715 0.0517575 0.996647 0.0343353
0.0682607 0.0580912 0.995975 0.029568
0.0683235 0.0594404 0.995891 0.0285745
0.0644846 0.0641689 0.995853 0.0353386
0.0586806 0.0626445 0.996309 0.0389424
