# .PCD v0.7 - Point Cloud Data file format
VERSION 0.7
FIELDS x y z
SIZE 4 4 4
TYPE F F F
COUNT 1 1 1
WIDTH 1399
HEIGHT 1
VIEWPOINT 0 0 0 1 0 0 0
POINTS 1399
DATA ascii
0.0018685 0.10889983 -0.22374199
0.0021261666 0.1088815 -0.22371699
0.0023195001 0.108905 -0.2237245
0.0025086002 0.10891459 -0.22374161
0.002635 0.10892767 -0.223754
0.0029396669 0.10890967 -0.22374566
0.0031073333 0.10890317 -0.22372033
0.0032962218 0.10889245 -0.22371732
0.0034693333 0.108886 -0.22370701
0.0036426669 0.10887367 -0.22371633
0.0039263996 0.1089167 -0.22368911
0.0041393335 0.10891833 -0.22367068
0.0043338332 0.10890617 -0.22367501
0.0045088334 0.10889933 -0.22368902
0.0046360004 0.10889367 -0.22371934
0.0048803333 0.10887917 -0.22372383
0.00507 0.108899 -0.22369349
0.0053479993 0.10892034 -0.22374
0.0054866667 0.108911 -0.22376032
0.0058550001 0.108965 -0.22378699
0.0060149999 0.108957 -0.223792
0.006238 0.1089075 -0.22375849
0.0065013333 0.10891666 -0.22375716
0.0066724997 0.10895599 -0.22378799
-0.00037949998 0.109051 -0.22379249
-0.000138 0.109005 -0.22379699
9.275e-05 0.10909688 -0.22378038
0.00035733334 0.10912099 -0.223786
0.00046600003 0.1090965 -0.22378126
0.00061799999 0.109032 -0.22379901
0.00086966669 0.10904434 -0.22378634
0.001283 0.109105 -0.223759
0.001547 0.109095 -0.22374201
0.001671 0.10912484 -0.22374333
0.0018763334 0.10911334 -0.22372599
0.0021341664 0.10909484 -0.22371198
0.0023261667 0.10908233 -0.22372417
0.0024973999 0.1090866 -0.22373
0.0026415 0.109105 -0.223746
0.0029480001 0.10912367 -0.22374468
0.0031148333 0.10911667 -0.22370499
0.0033042221 0.10910622 -0.22370577
0.0034779999 0.10909933 -0.22371133
0.0036496667 0.10908833 -0.22369401
0.0039102999 0.1090907 -0.22366302
0.0041460004 0.1090965 -0.223657
0.0043410002 0.10912017 -0.22365332
0.0045154998 0.109115 -0.22364835
0.004643667 0.10910767 -0.223709
0.0048883334 0.109093 -0.22371233
0.0050763334 0.10907767 -0.22369033
0.0053386665 0.109088 -0.22372265
0.0054700002 0.10912775 -0.22372125
0.0056773336 0.10911366 -0.22377001
0.0058583333 0.10910966 -0.22374368
0.0060186666 0.109101 -0.22374566
0.006242333 0.10908767 -0.22370066
0.0064961249 0.10908251 -0.22373088
0.00672975 0.1090955 -0.22377676
0.0070639998 0.10911068 -0.22376466
8.3666673e-05 0.10922667 -0.22378899
0.0009923334 0.10929967 -0.22379334
0.0012913333 0.10928133 -0.22377901
0.001555 0.10927167 -0.22375667
0.001678 0.10930175 -0.22375076
0.0018972 0.10931081 -0.22373481
0.002081 0.109313 -0.223709
0.002291111 0.109298 -0.22372065
0.0025144999 0.10928383 -0.22374451
0.0026479999 0.10928366 -0.22373466
0.0029539999 0.1093025 -0.22372749
0.0031298003 0.109315 -0.22371599
0.003311889 0.10931922 -0.22369902
0.0034846666 0.10931399 -0.22367501
0.0036579997 0.10930166 -0.22368868
0.0039038891 0.10928968 -0.22367533
0.0040785 0.10927833 -0.223656
0.0043472499 0.10929875 -0.22363675
0.0045325998 0.109312 -0.2236608
0.0046513332 0.10932133 -0.22369234
0.004896 0.10930683 -0.22370334
0.0050840001 0.10929134 -0.22367634
0.0053156666 0.109278 -0.22370732
0.0054425998 0.1092876 -0.223701
0.005682 0.1092935 -0.223726
0.0058636665 0.10932567 -0.22368467
0.006025 0.10931633 -0.22370499
0.0062500001 0.10930201 -0.22367765
0.0065137772 0.10928667 -0.22371846
0.0067354999 0.10927517 -0.223746
0.0069289999 0.109299 -0.223783
0.0070719998 0.109324 -0.22375299
0.0072930004 0.10935867 -0.22377734
0.0015640002 0.10948434 -0.22377734
0.0016856665 0.10947917 -0.22376317
0.0018792 0.1094836 -0.2237418
0.0020900001 0.109525 -0.22372466
0.0022995556 0.10951088 -0.22372466
0.0025230001 0.10949683 -0.22374801
0.002657 0.10949567 -0.22375034
0.0029613331 0.10947967 -0.22372933
0.0031232 0.10948601 -0.2237148
0.00327675 0.1094985 -0.22370452
0.0034571998 0.1095144 -0.2236844
0.0036663332 0.10951466 -0.22368968
0.0039126668 0.10950278 -0.22367999
0.0040869997 0.10949133 -0.2236615
0.0043457998 0.1094618 -0.22365399
0.0045011668 0.10949417 -0.22365868
0.0046575 0.109501 -0.2236695
0.0049033333 0.10952083 -0.22368185
0.0050916667 0.109506 -0.22365867
0.0053213332 0.10949299 -0.22366033
0.0054581668 0.10948783 -0.22366618
0.0056866668 0.10947333 -0.22366865
0.00587 0.109504 -0.22365901
0.0060310001 0.109495 -0.223675
0.0062576667 0.10951499 -0.22366732
0.0064784996 0.10950334 -0.22367285
0.0066963332 0.10949156 -0.22371022
0.0069329999 0.10947766 -0.22373502
0.0070780003 0.1095025 -0.223738
0.0073133335 0.10952533 -0.22375584
0.0074466667 0.10951734 -0.22376899
0.0085760001 0.109599 -0.223793
0.0015726667 0.10969567 -0.22379233
0.0016948334 0.10969216 -0.22377466
0.0018996667 0.10968 -0.2237525
0.0020964998 0.109703 -0.22371751
0.0022974999 0.10971488 -0.22374538
0.0025138573 0.10972072 -0.22377084
0.0026663335 0.109708 -0.22376502
0.0029706666 0.10969234 -0.22375166
0.0031380001 0.10968417 -0.22372349
0.0032839999 0.10967583 -0.22371101
0.0034465999 0.1096846 -0.2236968
0.0036725001 0.10969301 -0.22367799
0.0039209998 0.10971622 -0.22368298
0.0040956666 0.109704 -0.22366752
0.0043199998 0.10969167 -0.22365467
0.0044944445 0.10968345 -0.22366291
0.0046649999 0.109678 -0.22368269
0.0049104998 0.1096985 -0.22368324
0.0050996668 0.10971934 -0.22365232
0.0053296667 0.109707 -0.22365934
0.0054656663 0.10970151 -0.22365417
0.0056933332 0.10968833 -0.22363967
0.0058759996 0.10968233 -0.22364666
0.0060356664 0.10967433 -0.223635
0.0062635001 0.109695 -0.223644
0.0064858333 0.10971766 -0.22365566
0.006654833 0.10970833 -0.22369385
0.006871833 0.10969633 -0.22371249
0.0070839995 0.10968167 -0.223719
0.0073195002 0.1097035 -0.22373974
0.0075012501 0.10972975 -0.223764
0.0076529998 0.109795 -0.22379901
0.0081190001 0.1097285 -0.223785
0.0082820002 0.1097575 -0.223785
0.0084942859 0.10969729 -0.22376885
0.0086850002 0.1097025 -0.2237775
0.0015795 0.109875 -0.223786
0.0017019999 0.1098685 -0.22378601
0.0019095 0.10989251 -0.223782
0.0021043334 0.10988033 -0.22373332
0.0022729998 0.10990176 -0.22376877
0.002507125 0.10991587 -0.22377527
0.0026759999 0.10992066 -0.22379601
0.0029793333 0.109905 -0.22376168
0.0031470002 0.10989717 -0.2237405
0.0032933336 0.10988816 -0.22372817
0.0034645002 0.10988215 -0.22371633
0.0036800001 0.10987001 -0.22369133
0.0039367145 0.10990842 -0.22368272
0.0041045002 0.10991699 -0.22367734
0.004329667 0.109903 -0.223683
0.0045029996 0.109897 -0.2236641
0.004673 0.10989067 -0.223682
0.0049168332 0.10987649 -0.22367334
0.0051064999 0.1098965 -0.22364649
0.0053373333 0.10992033 -0.223646
0.0054736664 0.109915 -0.22363915
0.0057020001 0.10990233 -0.22363967
0.0058836662 0.10989633 -0.22363234
0.0060439999 0.10988834 -0.22363199
0.0062693334 0.10987333 -0.22362
0.0064927498 0.10989551 -0.22365025
0.0066618328 0.10992283 -0.22366434
0.006879 0.10991067 -0.22369234
0.0070910002 0.10989633 -0.22368999
0.0073254998 0.1098825 -0.22372182
0.0074964003 0.1098876 -0.22372942
0.00769825 0.1099035 -0.2237435
0.0079183998 0.1099486 -0.2237726
0.0080861999 0.10992379 -0.22375341
0.0082858326 0.10990101 -0.223745
0.0084993346 0.10989234 -0.22372232
0.0086899996 0.109883 -0.22374566
0.0088673336 0.10987366 -0.22376168
0.00191675 0.11007024 -0.22378926
0.002114 0.11009201 -0.22376834
0.0022805 0.11007851 -0.22378634
0.0024492 0.11008461 -0.22378239
0.0026825001 0.110099 -0.223781
0.0029889999 0.110117 -0.22378533
0.0031549998 0.11011115 -0.22373033
0.0033021665 0.11010101 -0.22374068
0.0034728332 0.11009549 -0.2237265
0.0036889997 0.11008301 -0.22370267
0.0039282502 0.1100805 -0.22368151
0.0041266 0.11011541 -0.22366941
0.004338 0.11011667 -0.22367667
0.0044859997 0.11010099 -0.22367343
0.0046501998 0.11011861 -0.223682
0.0049259998 0.11008967 -0.22368717
0.0051133335 0.11007467 -0.22364633
0.0053444998 0.110098 -0.22364849
0.0054640002 0.11008301 -0.22362733
0.0057096668 0.11011533 -0.22362266
0.0058916672 0.11010999 -0.22362299
0.0060513332 0.11010167 -0.22361298
0.0062780003 0.11008667 -0.22362566
0.0064988337 0.11007433 -0.2236315
0.0066674999 0.11010174 -0.22363901
0.0068994001 0.11011 -0.2236588
0.0070973337 0.11011133 -0.223646
0.0073325001 0.11009683 -0.22369349
0.0075118332 0.110089 -0.223689
0.0077038333 0.11008316 -0.22371133
0.0078971433 0.11008772 -0.22371927
0.008081167 0.11012516 -0.22369634
0.0082908329 0.11011717 -0.223671
0.0085057775 0.11010745 -0.22368445
0.0086966669 0.110097 -0.22370833
0.0089353332 0.1100835 -0.22376102
0.0090937493 0.11007988 -0.22377126
0.0021230001 0.110304 -0.22378732
0.0022891667 0.11029133 -0.22379017
0.0024666667 0.11028299 -0.22378834
0.0026435 0.1102405 -0.22379801
0.002996 0.110294 -0.22378999
0.0031567998 0.1103092 -0.22374479
0.0032951429 0.11032557 -0.22374758
0.003481 0.1103085 -0.22372051
0.0036976666 0.11029533 -0.22371501
0.0039356248 0.11027624 -0.22367863
0.0040865 0.11029816 -0.2236615
0.0043444997 0.1102935 -0.22366801
0.0044758334 0.11032484 -0.22368383
0.0046494999 0.11031767 -0.22367366
0.004934167 0.11030283 -0.22368269
0.0051213331 0.11028833 -0.22363932
0.0053516664 0.11027566 -0.22365266
0.0054779998 0.1102864 -0.22361901
0.005715 0.110257 -0.223609
0.0058989995 0.11032333 -0.22360867
0.0060596666 0.11031467 -0.22361033
0.0062860004 0.1103 -0.22361833
0.0065143993 0.110274 -0.22361378
0.0066736671 0.11028016 -0.22362083
0.0069126668 0.110268 -0.22362065
0.0071056667 0.110325 -0.22363965
0.0073394999 0.11031183 -0.22366351
0.0075195003 0.11030268 -0.22367032
0.0077105002 0.1102975 -0.22367768
0.0079125557 0.11028078 -0.2236771
0.0080693336 0.11029333 -0.223656
0.0082965 0.1102965 -0.22364676
0.0085121421 0.11030143 -0.22364999
0.0086790007 0.11032999 -0.22369
0.0088820001 0.11030266 -0.223718
0.0090812501 0.11028676 -0.22375409
0.0092126662 0.11028 -0.22378801
0.001764 0.1104 -0.2238
0.002135 0.110588 -0.223793
0.0022816665 0.11045866 -0.22379434
0.0030926664 0.110468 -0.22377266
0.00329125 0.11051989 -0.22376537
0.0034901667 0.11052167 -0.223737
0.0037063335 0.11050833 -0.22371368
0.0039241663 0.11049917 -0.22370632
0.0040547145 0.11047914 -0.22368586
0.0042921999 0.1104898 -0.223682
0.0044827498 0.1105025 -0.22368549
0.0046564997 0.1104955 -0.22367826
0.0049298005 0.1105034 -0.22367179
0.0050980002 0.11052075 -0.22366077
0.0053596669 0.11048933 -0.22364502
0.0054949992 0.11048484 -0.22362602
0.0057244999 0.110506 -0.22360501
0.0059059998 0.11050101 -0.22360799
0.006682334 0.110493 -0.22362065
0.0068743336 0.110484 -0.22360599
0.0071120001 0.110503 -0.223629
0.0073429998 0.110455 -0.2236155
0.0075260005 0.11051684 -0.22363301
0.0077169999 0.11051234 -0.22363417
0.0079195555 0.11049546 -0.22364511
0.008068 0.1105025 -0.22363375
0.0083024995 0.11047434 -0.22362499
0.0085220002 0.1105005 -0.223647
0.0086688008 0.11051299 -0.2236588
0.0088889999 0.11051733 -0.22368634
0.0090889176 0.11050083 -0.22374326
0.0092200004 0.11049533 -0.22375834
0.002138 0.11066 -0.223795
0.0031469997 0.11067966 -0.22377765
0.0032778573 0.11069171 -0.22377484
0.0034982499 0.11069825 -0.22376126
0.0037163335 0.11072034 -0.22375268
0.0039336663 0.11071184 -0.22372884
0.0040409998 0.11070166 -0.22372584
0.0042849998 0.11068967 -0.22368783
0.0044898335 0.11067983 -0.22368367
0.0046640001 0.11067299 -0.22369082
0.0048914999 0.110698 -0.223666
0.0050725001 0.11072 -0.22365968
0.0053680004 0.11070267 -0.22364666
0.0055031665 0.11069784 -0.22362183
0.0057295002 0.110649 -0.22360601
0.0060760002 0.110742 -0.223603
0.0067102499 0.1106885 -0.22360775
0.0069290004 0.110694 -0.22360899
0.0071149999 0.11061 -0.22360501
0.0073099998 0.110744 -0.223601
0.0077215 0.1106565 -0.2236135
0.007925 0.110657 -0.22360975
0.0080964994 0.1106265 -0.22360799
0.0082953339 0.11064266 -0.22360468
0.0085239997 0.11061 -0.223612
0.00868 0.11067134 -0.22361267
0.0088950004 0.110696 -0.223667
0.0090958327 0.11071518 -0.22371441
0.0092249997 0.11071 -0.223701
0.0031544999 0.110856 -0.223791
0.0032970002 0.11088389 -0.22378856
0.0035051666 0.11087567 -0.22376184
0.003724 0.110898 -0.223764
0.0039421669 0.11092501 -0.22373633
0.0040503331 0.11091483 -0.223745
0.0042940001 0.11090199 -0.22370251
0.0044985004 0.11089217 -0.22369416
0.0046725003 0.110886 -0.22369336
0.0048990003 0.11087533 -0.22367133
0.0050938004 0.1109174 -0.22366059
0.0053763334 0.11091533 -0.22364633
0.0055120005 0.11091083 -0.223629
0.005742 0.110969 -0.223602
0.0060816668 0.110884 -0.22360468
0.0067400001 0.110919 -0.22360149
0.0069809998 0.110834 -0.22361299
0.0075830002 0.110801 -0.223603
0.0085349996 0.110893 -0.223601
0.0086705005 0.11088467 -0.22361152
0.0089013325 0.11087433 -0.22365166
0.0091108885 0.11090466 -0.22369742
0.0092336666 0.11092401 -0.22370465
0.0095739998 0.110973 -0.223775
0.0033433333 0.11109433 -0.22378884
0.0035146668 0.111088 -0.22378485
0.0037320002 0.11107533 -0.22378266
0.003949 0.11110275 -0.22373576
0.0040585003 0.11112767 -0.2237405
0.0043031666 0.11111466 -0.22371952
0.0045070001 0.11110517 -0.22370069
0.0046818336 0.11109784 -0.22371982
0.0049079997 0.11108867 -0.22368933
0.0050750002 0.11108919 -0.2236844
0.0053829998 0.111094 -0.2236345
0.0055203331 0.11112384 -0.22362852
0.005748 0.11111033 -0.22361533
0.0059329998 0.111176 -0.223608
0.006087 0.111026 -0.223601
0.0068549998 0.1111615 -0.22360399
0.008659333 0.111052 -0.22360902
0.0089093335 0.111088 -0.22364934
0.0091020903 0.11107863 -0.22368708
0.0092399996 0.111102 -0.223685
0.0095796669 0.11111701 -0.22376268
0.003392 0.11130566 -0.22378767
0.0035445001 0.11128275 -0.22378425
0.0037399998 0.11128833 -0.22378166
0.0039570001 0.11127933 -0.22375633
0.0040655001 0.111305 -0.22374851
0.0043266001 0.1113116 -0.22373021
0.0045164996 0.11131799 -0.22372018
0.0046910001 0.11131083 -0.2237335
0.004917 0.11130067 -0.22370566
0.0050963331 0.11128717 -0.22368436
0.0053899996 0.11127067 -0.22364366
0.0055274996 0.111301 -0.22363526
0.0057573332 0.11132366 -0.22363101
0.0059349998 0.111248 -0.22361
0.0060983333 0.11131001 -0.22360601
0.0089170001 0.111301 -0.22362967
0.0091158329 0.11128616 -0.22366358
0.0092463335 0.11128033 -0.22367732
0.0095840003 0.1112965 -0.2237055
0.010154 0.111334 -0.223785
0.010204 0.11133049 -0.22378001
0.0104835 0.111353 -0.22379351
0.0037489999 0.11150066 -0.22379667
0.0039580003 0.1114792 -0.2237546
0.0040622861 0.11149371 -0.22374813
0.0043034004 0.1114838 -0.223736
0.0045234999 0.111496 -0.22372825
0.0046993331 0.11152416 -0.22373067
0.0049260003 0.11151334 -0.22372167
0.0051051662 0.11149999 -0.22370298
0.0053975 0.111448 -0.223658
0.0055158576 0.11148929 -0.22364557
0.0057635 0.111501 -0.22362301
0.0061055003 0.111488 -0.2236065
0.0089249993 0.11151467 -0.22362368
0.0091165463 0.11149354 -0.22365284
0.0092402501 0.1115125 -0.22364424
0.0095903333 0.11147434 -0.22369599
0.0099236667 0.111552 -0.22379434
0.010141199 0.111528 -0.22378179
0.01028211 0.11150622 -0.223768
0.010487 0.11149633 -0.22375
0.010663167 0.1114895 -0.22377001
0.010886876 0.11148487 -0.2237685
0.011191 0.111596 -0.22378799
0.011243 0.111592 -0.223792
0.0034930001 0.111658 -0.223796
0.003941 0.11170733 -0.22378667
0.0040574446 0.11169778 -0.22377279
0.0042880001 0.11166625 -0.22374675
0.0044993749 0.11168288 -0.22374463
0.0047069998 0.1117015 -0.22374526
0.0049353335 0.11172634 -0.223736
0.005114167 0.11171234 -0.22371417
0.0054986668 0.11169255 -0.22366458
0.0057709999 0.11167834 -0.22362833
0.0059520002 0.11167333 -0.223611
0.0065159998 0.111641 -0.223601
0.0091068884 0.11171489 -0.22364879
0.0092377998 0.1116946 -0.22362098
0.0095969997 0.111653 -0.22368899
0.0096000005 0.111761 -0.223667
0.0099042002 0.1116874 -0.2237552
0.010100889 0.11170755 -0.22375856
0.010288333 0.11172044 -0.22372566
0.0104925 0.111711 -0.22368519
0.010669333 0.1117045 -0.22372167
0.010903222 0.11169011 -0.22373755
0.011194499 0.111704 -0.22376451
0.011246501 0.11170051 -0.22376749
0.0039500003 0.11192033 -0.22379434
0.0041135 0.11190601 -0.2237985
0.0042609996 0.11190066 -0.22376966
0.0044972221 0.11188734 -0.22375444
0.0047150003 0.11187883 -0.22376849
0.0049409997 0.11190499 -0.223717
0.0051352 0.11191081 -0.22371581
0.0054958747 0.11189763 -0.2236765
0.0057349997 0.11191124 -0.223647
0.0059609995 0.11188666 -0.22362232
0.0061213332 0.111878 -0.22362401
0.0063459999 0.111863 -0.22360399
0.0066149998 0.111992 -0.22360601
0.0068839998 0.11190766 -0.22360332
0.0091135716 0.11190843 -0.22362413
0.0092455996 0.11190881 -0.2236084
0.0096043339 0.11190266 -0.22364366
0.0099186664 0.11188734 -0.22371031
0.010090727 0.11188237 -0.22371764
0.010293167 0.11189999 -0.22367482
0.0105082 0.11191159 -0.22365658
0.010675333 0.11191916 -0.22367369
0.010909889 0.11190455 -0.2237009
0.011199 0.111812 -0.223763
0.011248332 0.11190266 -0.22377248
0.0039574997 0.112099 -0.2237975
0.0042693336 0.11211333 -0.22377734
0.0045056664 0.11210055 -0.22375901
0.0047313999 0.112077 -0.22378659
0.0049496666 0.11208233 -0.22374201
0.0051164003 0.11208279 -0.22373879
0.0054704999 0.11212132 -0.22368516
0.0056978334 0.1121095 -0.22365685
0.0059703332 0.11209867 -0.223646
0.0061303335 0.11209067 -0.22363566
0.0063550002 0.112077 -0.223602
0.0066180001 0.112062 -0.22361
0.0090889996 0.1120882 -0.22361362
0.0092740003 0.112065 -0.223601
0.0096119996 0.11211733 -0.22361732
0.0099250004 0.11210217 -0.22366917
0.010103167 0.11209024 -0.22366674
0.010298222 0.11207901 -0.22363666
0.010481 0.11207075 -0.22362874
0.010681001 0.1120985 -0.22364751
0.01090625 0.11211075 -0.22366937
0.011 0.112187 -0.223683
0.011265666 0.11209323 -0.223754
0.004278 0.11232666 -0.223782
0.0044900002 0.11230386 -0.22377858
0.0047009997 0.11230601 -0.22379413
0.0049596666 0.11229434 -0.22377968
0.005072 0.11228633 -0.22376867
0.0052033332 0.11227467 -0.22373267
0.0054784999 0.112298 -0.22370775
0.0056888005 0.11230819 -0.22368678
0.0059354999 0.11233075 -0.22367451
0.0061383336 0.11230467 -0.22363067
0.0063633337 0.11228967 -0.22361065
0.006544 0.112351 -0.223602
0.0099315001 0.11231633 -0.22362949
0.010102818 0.112299 -0.22362991
0.010304 0.112221 -0.2236125
0.010464 0.1122495 -0.22360849
0.010706 0.112258 -0.22360975
0.010882501 0.1122995 -0.2236425
0.0110045 0.112294 -0.22368801
0.011273444 0.11230723 -0.22374299
0.004284 0.112468 -0.22378699
0.0044643334 0.112481 -0.22378467
0.0046966248 0.11251149 -0.22379451
0.0049676667 0.11250767 -0.22377767
0.005082 0.11249966 -0.22379033
0.0052120001 0.11248866 -0.22373967
0.0054858332 0.11247667 -0.22371334
0.0056245001 0.112504 -0.22371501
0.0059154006 0.11251299 -0.22368041
0.0061479998 0.11251667 -0.22365999
0.0063719996 0.11250233 -0.22362633
0.0065506664 0.112493 -0.22361867
0.0066682003 0.1125016 -0.2236104
0.0068040001 0.112553 -0.22360399
0.0099790003 0.112458 -0.223603
0.010735501 0.11248749 -0.22360551
0.010888834 0.11247716 -0.22362615
0.011011 0.11247268 -0.22367668
0.011281 0.11252122 -0.22372712
0.011432 0.112585 -0.22379901
0.0044410001 0.112637 -0.22377801
0.0046476666 0.11271266 -0.22379668
0.0049749999 0.112686 -0.223783
0.0050896667 0.112713 -0.22378333
0.0052206665 0.11270166 -0.22374301
0.0054946668 0.11268934 -0.22372484
0.005632 0.11268133 -0.22372167
0.0058856001 0.11268421 -0.22368422
0.0061550001 0.112694 -0.2236605
0.0063809999 0.11271567 -0.22363834
0.0065579996 0.11270633 -0.22360766
0.0067042499 0.1126815 -0.22361401
0.0068100002 0.11269567 -0.22361533
0.010744001 0.11270133 -0.22360833
0.010897334 0.11269116 -0.22362833
0.011017666 0.11268734 -0.223637
0.011287 0.11270034 -0.22370715
0.0114335 0.112694 -0.22375101
0.0044520004 0.112922 -0.2237795
0.0047624004 0.11285981 -0.22379041
0.004985 0.112935 -0.223793
0.0050960002 0.112855 -0.223794
0.0052300002 0.11291433 -0.22376867
0.0055041667 0.1129025 -0.223749
0.0056400001 0.11289533 -0.22372268
0.00586625 0.11286674 -0.22369899
0.0060991999 0.1128898 -0.22367981
0.0063900002 0.11292833 -0.22364533
0.0065676668 0.11292034 -0.22362798
0.0067340001 0.11291166 -0.22362334
0.0068863332 0.11285767 -0.22361366
0.010751 0.112879 -0.22360599
0.0108956 0.1129056 -0.2236084
0.011026666 0.1129 -0.22365433
0.011292889 0.11287834 -0.22368468
0.011439334 0.11287167 -0.22372633
0.0049879998 0.113005 -0.22379901
0.0052383333 0.11312833 -0.223767
0.005512333 0.11311533 -0.22374767
0.0056490004 0.11310733 -0.22373766
0.0058293338 0.11309933 -0.22368968
0.0060908333 0.1130895 -0.22367318
0.0063964999 0.113107 -0.22363999
0.0065740002 0.113098 -0.22361051
0.0067085996 0.1131122 -0.22361979
0.0068804999 0.113155 -0.22361074
0.0070719998 0.113181 -0.22360601
0.010956 0.113046 -0.223608
0.011034001 0.11311466 -0.22364067
0.011299876 0.1130925 -0.22364113
0.011447 0.11308566 -0.22371066
0.0044670003 0.113276 -0.223795
0.0052455002 0.1133065 -0.22376451
0.0055294 0.1133142 -0.2237546
0.0056580002 0.11332166 -0.22374034
0.0058383332 0.11331201 -0.22370501
0.0060990001 0.11330333 -0.22366948
0.0064928327 0.11327983 -0.22364067
0.0066990005 0.11328401 -0.22361898
0.0068981997 0.11331739 -0.22362562
0.0070779999 0.11332167 -0.22361733
0.011041 0.1132915 -0.22363
0.011307999 0.11330622 -0.22365189
0.011454999 0.11329933 -0.22370233
0.0052519999 0.11348333 -0.22376233
0.0055185999 0.1134854 -0.2237628
0.0056649996 0.113499 -0.22374949
0.0058469996 0.11352533 -0.22370668
0.0061074998 0.1135165 -0.22367366
0.0065020006 0.11349233 -0.2236615
0.0067159999 0.11348233 -0.22363782
0.0068839998 0.1134894 -0.22363278
0.0070845 0.113499 -0.22360849
0.011316112 0.11351965 -0.22363798
0.011460334 0.113513 -0.22364767
0.0050174999 0.113752 -0.22379699
0.005262 0.113697 -0.22379069
0.0055356664 0.113684 -0.22377084
0.0056720003 0.11367667 -0.22375034
0.0058545 0.113702 -0.2237235
0.0061150002 0.11369351 -0.22368924
0.0062000002 0.113797 -0.22369801
0.0064916001 0.113692 -0.22365661
0.0067068567 0.11370543 -0.22364359
0.0069018337 0.11368766 -0.22362
0.0070920005 0.113677 -0.22361434
0.0113245 0.11369801 -0.22362649
0.011469333 0.11372733 -0.22365133
0.011818334 0.11371034 -0.22378565
0.0052685002 0.113874 -0.22379601
0.0055440008 0.11389766 -0.22377019
0.0056810002 0.11389 -0.22376268
0.0058613331 0.11388067 -0.223722
0.0060430001 0.11387566 -0.22370601
0.0062044999 0.113903 -0.2237045
0.0064303335 0.11392333 -0.22367202
0.0066914447 0.11391021 -0.22365488
0.0069110002 0.113901 -0.22363301
0.0071009998 0.11388967 -0.22363234
0.011357666 0.1138735 -0.22363067
0.0114755 0.113906 -0.22363099
0.011824333 0.113924 -0.22374199
0.0052800002 0.114159 -0.223794
0.0055427998 0.1140972 -0.223775
0.0056672501 0.1141225 -0.22376499
0.00587 0.11409267 -0.223731
0.0060510002 0.11408866 -0.22370733
0.006211 0.11408033 -0.22370434
0.0064380001 0.114102 -0.22368801
0.0066997781 0.11412323 -0.22365822
0.0069200005 0.11411333 -0.22365268
0.0071086665 0.114103 -0.22362201
0.0072499998 0.1140565 -0.22360399
0.0074430001 0.114156 -0.223603
0.011357668 0.11406499 -0.22361399
0.0114395 0.1140845 -0.22361049
0.011831 0.1141025 -0.223726
0.012083715 0.11415399 -0.22378528
0.012305601 0.1141504 -0.22377339
0.012505333 0.11416934 -0.22378366
0.0052840002 0.114265 -0.2238
0.005516333 0.11432467 -0.22378732
0.0056519993 0.11431933 -0.22377302
0.005878333 0.11430667 -0.22373067
0.0060589998 0.11430166 -0.22370233
0.0062196665 0.11429433 -0.22371
0.0064443336 0.11427834 -0.22367866
0.0067070001 0.11430082 -0.22366233
0.0069380002 0.1143118 -0.223648
0.0071176668 0.11431567 -0.22363567
0.0072596669 0.114306 -0.22360666
0.0074489997 0.11429733 -0.223608
0.011337 0.114231 -0.223601
0.0114554 0.114284 -0.2236094
0.011836 0.114281 -0.22369099
0.012115999 0.11430062 -0.22375062
0.012298223 0.1143229 -0.223721
0.012507778 0.114312 -0.22372855
0.012738201 0.11431739 -0.22377639
0.012884 0.114368 -0.223784
0.005291 0.114443 -0.223793
0.0055235 0.1145025 -0.22379151
0.0056584999 0.1144975 -0.22376224
0.0058869999 0.11451934 -0.22373533
0.0060676667 0.11451501 -0.22370468
0.0062279999 0.11450666 -0.22371101
0.0064526671 0.11449167 -0.22368033
0.0067036245 0.11447038 -0.2236685
0.0069033336 0.11449417 -0.22365469
0.0071244999 0.114494 -0.2236305
0.0072683333 0.11451934 -0.223617
0.0074573332 0.11451066 -0.22360599
0.011842333 0.114495 -0.22364633
0.012112546 0.11447301 -0.22368608
0.012287714 0.11450786 -0.22366469
0.012522625 0.11451575 -0.22366336
0.012752835 0.11451584 -0.2237255
0.012924999 0.1145242 -0.2237746
0.0053030001 0.114762 -0.22379
0.0055280002 0.11461 -0.22379801
0.0056648334 0.1146755 -0.22374965
0.0058944998 0.114698 -0.2237435
0.0060753333 0.114728 -0.22369401
0.0062366668 0.11471999 -0.22371532
0.0064610001 0.11470566 -0.22367734
0.0066805002 0.11469416 -0.22365934
0.0068965559 0.11468433 -0.2236529
0.0071330001 0.11467167 -0.22365968
0.0072760005 0.114697 -0.2236245
0.0074659996 0.11472333 -0.223617
0.011848 0.114673 -0.22362551
0.012097284 0.1146847 -0.22362714
0.012270101 0.114668 -0.22362879
0.0124692 0.1146852 -0.2236418
0.0126565 0.114699 -0.22364275
0.012893443 0.1147249 -0.22370911
0.01308725 0.11473274 -0.2237615
0.0053086667 0.11490534 -0.22378266
0.0055419998 0.114965 -0.223795
0.005673667 0.11488884 -0.22375834
0.005901 0.11487534 -0.22373867
0.0060830005 0.114906 -0.22371
0.0062445002 0.114898 -0.2237305
0.006469667 0.11491867 -0.22368734
0.0066891667 0.11490733 -0.223662
0.0068571665 0.11489934 -0.22368383
0.0070723337 0.11488834 -0.22366184
0.0072829998 0.11487567 -0.22362101
0.0074730003 0.114902 -0.2236145
0.012161 0.114833 -0.223602
0.012208 0.11483 -0.22361
0.0124805 0.114814 -0.2236155
0.012662999 0.1148765 -0.22363
0.012899167 0.11490283 -0.22368164
0.0131182 0.1149136 -0.22373061
0.013308 0.114951 -0.22376999
0.0053170002 0.11511866 -0.22378965
0.0055466667 0.11510766 -0.22378266
0.0056823329 0.11510217 -0.2237705
0.0059099998 0.11508866 -0.22375299
0.0060903332 0.11508333 -0.22371368
0.0062513333 0.11507567 -0.22372998
0.0064775003 0.115097 -0.22370601
0.0066981665 0.11512017 -0.22367616
0.0068646665 0.11511316 -0.22367184
0.0070798337 0.11510184 -0.22364666
0.0072910003 0.11508799 -0.22362399
0.0074800006 0.11507934 -0.22361434
0.012724999 0.115054 -0.22363099
0.012905445 0.11508122 -0.22366834
0.013109202 0.1150852 -0.22370379
0.0133125 0.115094 -0.22375849
0.013432 0.115194 -0.223795
0.0055550002 0.11532167 -0.22377634
0.0056908336 0.1153155 -0.22377384
0.0059186667 0.11530266 -0.22375466
0.006099666 0.11529732 -0.223731
0.0062593333 0.115289 -0.22371866
0.006484 0.11527366 -0.223701
0.0067050001 0.115298 -0.22367451
0.006873833 0.11532617 -0.22368217
0.0070886663 0.11531517 -0.22365551
0.0072996668 0.11530099 -0.22362667
0.0075112502 0.11530875 -0.22362426
0.012911799 0.1152666 -0.22363842
0.013093376 0.11529538 -0.22368185
0.013317667 0.11527266 -0.22371601
0.013436 0.115302 -0.22378799
0.0053340001 0.115546 -0.223791
0.005562 0.1154985 -0.22377449
0.0057080002 0.115514 -0.22377059
0.0059266668 0.115516 -0.22375
0.006107667 0.11550999 -0.223722
0.0062676668 0.115502 -0.22372033
0.0064920001 0.115487 -0.223693
0.0067116669 0.11547583 -0.22367416
0.0068804999 0.11550425 -0.2236765
0.0071101999 0.115513 -0.22365317
0.0073080002 0.115514 -0.22362499
0.0075403336 0.11550217 -0.2236235
0.0128848 0.1155242 -0.22361079
0.013090778 0.11550078 -0.22366987
0.013326333 0.11548567 -0.22372599
0.013441999 0.115479 -0.22376831
0.0053400001 0.115688 -0.22379135
0.0055683334 0.115677 -0.22376834
0.0056959996 0.1156862 -0.2237684
0.0059334999 0.115694 -0.2237455
0.0061153336 0.115724 -0.22371267
0.0062753335 0.115716 -0.22370934
0.0065009999 0.11570033 -0.22370131
0.0067203329 0.11568917 -0.22367932
0.0068878331 0.11568183 -0.22368634
0.0070901997 0.1156858 -0.22366881
0.0073166662 0.115728 -0.22363599
0.0075489995 0.11571584 -0.22362751
0.0077446667 0.11575433 -0.22360666
0.012883667 0.1157235 -0.22361016
0.013099889 0.11571467 -0.22368222
0.013333666 0.11570001 -0.22371034
0.01347025 0.115692 -0.22377901
0.005345 0.11583 -0.22379801
0.0055764997 0.115854 -0.223793
0.0057128333 0.11588449 -0.22376467
0.0059413332 0.11587066 -0.22376567
0.0061224997 0.115902 -0.223718
0.0062835002 0.1158935 -0.2237345
0.0065096668 0.11591434 -0.22370666
0.0067286664 0.11590283 -0.22367465
0.0068958327 0.11589534 -0.22367781
0.0071123336 0.11588434 -0.22367918
0.0073234998 0.115905 -0.2236305
0.0075413329 0.11588299 -0.22363268
0.0076904288 0.11592271 -0.22361059
0.0078825001 0.115881 -0.22360551
0.012906333 0.11591399 -0.22361134
0.013116876 0.11591849 -0.22366637
0.013342999 0.11591333 -0.22371866
0.013458334 0.11590701 -0.22375466
0.0053554997 0.116079 -0.22379901
0.0057216664 0.1160985 -0.22377235
0.0059489999 0.11608533 -0.22375099
0.0061296667 0.11607933 -0.223727
0.0062906668 0.11607167 -0.22373734
0.0065180003 0.11612699 -0.22371365
0.0067369998 0.1161165 -0.22367318
0.0069045001 0.11610883 -0.22368349
0.0071194996 0.11609766 -0.22365968
0.0073299999 0.11608333 -0.223626
0.00752 0.11607466 -0.22363834
0.0076792003 0.11609419 -0.2236186
0.012942667 0.11607933 -0.22361733
0.013101714 0.11609171 -0.22365515
0.013350334 0.11612666 -0.22370799
0.013467 0.11612033 -0.22376901
0.0053643337 0.11632734 -0.22378333
0.0055933334 0.11631633 -0.22377165
0.0057291668 0.11631101 -0.22376119
0.0059576668 0.11629867 -0.22375466
0.0061390004 0.116292 -0.22374399
0.0062983334 0.11628467 -0.223728
0.0065254997 0.1163055 -0.22372299
0.0067535997 0.11631499 -0.22368541
0.0069126659 0.11632217 -0.22367866
0.0071139997 0.116298 -0.223666
0.0073035001 0.11631725 -0.22363225
0.0075283335 0.11628867 -0.22364266
0.0076749995 0.11629132 -0.22362216
0.0078999996 0.116344 -0.223601
0.013120285 0.11626358 -0.22364916
0.013306 0.116321 -0.223704
0.0134745 0.116299 -0.223781
0.0053714998 0.1165055 -0.22378799
0.005599 0.116458 -0.223766
0.005718857 0.11652514 -0.22377571
0.0059659998 0.11651134 -0.223755
0.0061469995 0.11650533 -0.22374332
0.0063076667 0.11649734 -0.223747
0.0065323333 0.116483 -0.22371668
0.0067433999 0.11648659 -0.22368678
0.0069202501 0.11649925 -0.223693
0.0070680003 0.11652767 -0.223671
0.0072761667 0.11651483 -0.22364883
0.0075369999 0.11650133 -0.22364901
0.007644 0.116476 -0.22361325
0.0078462008 0.11650159 -0.223609
0.013131333 0.11649666 -0.22362433
0.0132845 0.11648867 -0.22367118
0.013481 0.11647733 -0.22376466
0.0053786673 0.11668301 -0.22379267
0.0056864284 0.11668885 -0.2237817
0.0059733335 0.11672467 -0.22374034
0.0061549996 0.11671934 -0.223737
0.0063160001 0.11671066 -0.22374535
0.0065410002 0.11669634 -0.22372067
0.0067382497 0.11666775 -0.22369875
0.0068956246 0.11668787 -0.22368114
0.0070754997 0.116706 -0.223683
0.0072981999 0.1167132 -0.22364859
0.0075449999 0.11671466 -0.22363533
0.0076325 0.116744 -0.2236115
0.0078640003 0.11670067 -0.22361065
0.013140333 0.11671066 -0.22363134
0.013292499 0.11670234 -0.22366135
0.0135196 0.1167032 -0.22374921
0.0053856666 0.11689633 -0.22377099
0.0056943749 0.11687337 -0.22376651
0.0059193335 0.11691699 -0.22372466
0.0061614998 0.1168965 -0.223717
0.0063240007 0.11692467 -0.22373933
0.0065496671 0.11690966 -0.22373299
0.0067249998 0.1169 -0.22366534
0.0068937782 0.11689267 -0.22369331
0.0070810001 0.11688266 -0.22366267
0.0072775995 0.1168854 -0.22367361
0.0075539998 0.11692733 -0.22365934
0.0076841661 0.1169195 -0.22362216
0.0078729996 0.1169135 -0.223625
0.0080119995 0.116982 -0.223601
0.013144 0.116853 -0.223601
0.01333725 0.11689475 -0.22362
0.013532667 0.11690166 -0.22369899
0.013660001 0.116934 -0.223791
0.0053943335 0.11710966 -0.22377266
0.005669333 0.11709767 -0.22378017
0.005895833 0.1170845 -0.22373684
0.0061693336 0.11707467 -0.22373967
0.0063304999 0.117102 -0.2237325
0.0065570003 0.117123 -0.22371034
0.0067340001 0.11711367 -0.22367966
0.0069024437 0.11710588 -0.22369891
0.00709 0.11709667 -0.22366934
0.0072989999 0.11708383 -0.22366183
0.0075610001 0.1171055 -0.22364751
0.0076914998 0.11709675 -0.22362676
0.0078810006 0.1171265 -0.22362101
0.0080176666 0.11712366 -0.22360666
0.013385667 0.11712366 -0.22362433
0.013539334 0.11711517 -0.22366799
0.013665333 0.117111 -0.22376268
0.0054033338 0.11732367 -0.223786
0.0056768334 0.11731134 -0.22376066
0.0059046666 0.11729833 -0.22374634
0.0061773336 0.11728833 -0.22373199
0.0063373335 0.11728001 -0.22371699
0.0065635 0.1173005 -0.22370499
0.0067430004 0.11732634 -0.22369333
0.0069101108 0.11731867 -0.22368677
0.0070986669 0.11730933 -0.22367567
0.0073073334 0.11729633 -0.223664
0.0075670001 0.11728233 -0.22363932
0.0076889992 0.1172746 -0.22362399
0.0078865001 0.117269 -0.2236155
0.013554001 0.1173142 -0.22364859
0.013720167 0.1173245 -0.22374152
0.0047220001 0.117574 -0.223793
0.0054099998 0.117501 -0.22378299
0.0056851669 0.1175235 -0.22376066
0.0058213328 0.117516 -0.22374099
0.0060946662 0.11750367 -0.22373682
0.0063456665 0.117493 -0.22372568
0.0065703336 0.11747799 -0.22369666
0.0067495001 0.1175045 -0.223683
0.0069002002 0.1174904 -0.22369298
0.00708025 0.117525 -0.22366975
0.0073155002 0.11751034 -0.22365749
0.0075753331 0.11749633 -0.22363901
0.00772725 0.11746875 -0.22361001
0.0078969998 0.1175525 -0.22360951
0.0135446 0.1174858 -0.2236346
0.0137255 0.1175025 -0.22371025
0.013874 0.117563 -0.223784
0.0047269999 0.11771667 -0.22378933
0.0048159999 0.117787 -0.22379699
0.0051724999 0.117735 -0.2237955
0.005417 0.11767966 -0.22377498
0.0056929998 0.11770275 -0.22377974
0.0058295 0.1176945 -0.22375649
0.0061028334 0.1177175 -0.22373384
0.0063550002 0.11770733 -0.22374332
0.0065796669 0.117692 -0.22371733
0.0067560002 0.11768167 -0.22368269
0.0068831667 0.11767667 -0.22371018
0.0070505999 0.1176834 -0.22368738
0.0073376 0.1177084 -0.22365639
0.007584 0.11770967 -0.22364134
0.0077141668 0.11770099 -0.22361517
0.0079029994 0.11769567 -0.22361434
0.013595 0.117611 -0.22362401
0.0137305 0.1176795 -0.2236705
0.013909333 0.117717 -0.223773
0.004733 0.117858 -0.2238
0.0054250001 0.117892 -0.22377701
0.0057003335 0.11788034 -0.22378333
0.0058370004 0.11787233 -0.22377099
0.0060786665 0.117884 -0.22372733
0.0062986002 0.11793699 -0.22371879
0.0065866667 0.11790467 -0.22369432
0.0067646666 0.11789501 -0.22368233
0.0068914997 0.11788967 -0.22371149
0.0070691667 0.11788166 -0.22368734
0.0072583333 0.11787067 -0.22367133
0.0075164 0.1179122 -0.22364779
0.0077007497 0.1179335 -0.22360925
0.0079221996 0.1179234 -0.22361641
0.013785001 0.117892 -0.22364299
0.013929166 0.1178825 -0.223728
0.0054330002 0.11810533 -0.22377269
0.0057073333 0.11809333 -0.223759
0.0058439993 0.11808533 -0.22374399
0.0060259998 0.11807633 -0.22374333
0.0062892502 0.118102 -0.22372626
0.0065960004 0.11811867 -0.223719
0.0067726672 0.11810867 -0.22367834
0.006899334 0.11810333 -0.22369617
0.0070769996 0.11809567 -0.22368266
0.0072666667 0.11808467 -0.22366966
0.0074562496 0.11807225 -0.22364575
0.0077160001 0.11811685 -0.22361617
0.0078934999 0.11810475 -0.22360975
0.01379 0.11807 -0.22361
0.013934833 0.11809567 -0.22366899
0.014068333 0.11809466 -0.22375365
0.004832 0.118213 -0.223792
0.0054410002 0.11831867 -0.22376168
0.0057158335 0.11830667 -0.22375916
0.0058520003 0.11829867 -0.22374399
0.0060346667 0.11828933 -0.22374268
0.0062961667 0.11827967 -0.22372751
0.0067096003 0.11831161 -0.223684
0.0069068335 0.11831617 -0.22368233
0.0070856675 0.118309 -0.22368501
0.0072750002 0.11829799 -0.22366901
0.007416667 0.118287 -0.22363432
0.0076817502 0.1182825 -0.22361538
0.0079100002 0.11831299 -0.223608
0.01396325 0.11829101 -0.22363649
0.014116834 0.1183055 -0.22370183
0.01445 0.118358 -0.22378001
0.0050770002 0.11848833 -0.22379465
0.0052034999 0.118517 -0.22378999
0.0054479996 0.118497 -0.22376001
0.0057235002 0.11852068 -0.22375
0.0058619999 0.118513 -0.22376765
0.0060419999 0.11850267 -0.223719
0.0063048336 0.11849367 -0.22373401
0.0066812001 0.11848481 -0.22369762
0.0069228001 0.1185148 -0.22367761
0.0070939995 0.11852232 -0.223689
0.0072829998 0.11851134 -0.22366601
0.0074250004 0.11850033 -0.22364001
0.0076831998 0.1184734 -0.2236166
0.0079338336 0.11847783 -0.22361882
0.0141296 0.1185024 -0.22362781
0.014361001 0.11850599 -0.223737
0.014504375 0.11850375 -0.223745
0.004739 0.118761 -0.22379601
0.0052080001 0.118624 -0.223792
0.0054549999 0.11867467 -0.22376566
0.0057314998 0.118698 -0.22376025
0.00587 0.11872599 -0.22376268
0.0060513332 0.11871666 -0.22374399
0.0063125007 0.11870667 -0.22371952
0.0067070001 0.118683 -0.22370218
0.0069130003 0.11868681 -0.22368479
0.0071007502 0.11870075 -0.223683
0.0072920001 0.11872534 -0.22366834
0.0074329996 0.11871433 -0.223626
0.0076233335 0.118706 -0.22364801
0.0079162503 0.11867475 -0.22361475
0.014365 0.118718 -0.22365133
0.014516445 0.11870611 -0.22367099
0.014685249 0.1187205 -0.22373825
0.004774 0.1189265 -0.22378799
0.004863 0.118996 -0.22379
0.0053320001 0.11890066 -0.223794
0.0054629999 0.11888867 -0.22375534
0.0057376665 0.11887634 -0.22375284
0.005876 0.118904 -0.2237415
0.006058 0.118894 -0.2237335
0.0062797503 0.11890374 -0.22370975
0.0064019999 0.1189515 -0.22371599
0.0066270004 0.11890133 -0.22372033
0.0068875556 0.11888745 -0.2236882
0.0071076662 0.11887783 -0.22367966
0.0072990004 0.118903 -0.2236785
0.0074409996 0.11892767 -0.223617
0.0076736663 0.11891551 -0.22361983
0.0078772493 0.118925 -0.22361724
0.014369 0.11886 -0.223609
0.014547001 0.11888941 -0.22363961
0.014711333 0.118915 -0.22369385
0.0148485 0.1189425 -0.223758
0.0047510001 0.11909232 -0.22378068
0.004867 0.1191025 -0.223791
0.0052829999 0.119117 -0.22378218
0.0054716668 0.11910134 -0.22375865
0.0057451664 0.1190885 -0.22373666
0.0058813333 0.11908033 -0.22371466
0.0060646664 0.11907133 -0.22373001
0.0062475 0.119101 -0.223708
0.0064085 0.119094 -0.22372499
0.0066359998 0.11911467 -0.223728
0.0068958886 0.11910089 -0.22368854
0.0071156672 0.11909116 -0.22367351
0.0073063332 0.11908067 -0.223683
0.0074485 0.119105 -0.22363001
0.0076369997 0.119096 -0.22361749
0.0078372499 0.119103 -0.2236155
0.014591999 0.119094 -0.223625
0.014725 0.1191138 -0.223649
0.01487625 0.11913851 -0.22374025
0.0047869999 0.119246 -0.223795
0.0049191667 0.11927733 -0.22378798
0.0053024003 0.119316 -0.2237798
0.0054796669 0.11931467 -0.22375698
0.0057444 0.1192884 -0.22374019
0.0058685001 0.119314 -0.223735
0.0060719997 0.11928433 -0.22371167
0.006254667 0.11928 -0.22372067
0.0064153336 0.119272 -0.22372501
0.0066430005 0.11932834 -0.22370332
0.0069040004 0.11931467 -0.22368121
0.0071236663 0.11930484 -0.22366934
0.0073146666 0.11929432 -0.22368133
0.0074553336 0.11928367 -0.22363366
0.0076443334 0.11927467 -0.22362833
0.0078664999 0.11926199 -0.22360599
0.014722999 0.11927076 -0.22364275
0.014903501 0.1192975 -0.22373651
0.0047979997 0.1195305 -0.22379199
0.0049276669 0.11949066 -0.22379135
0.0050545 0.11952201 -0.22378549
0.0052862 0.1194876 -0.22377539
0.0054873335 0.11952766 -0.22374368
0.0057176668 0.11951701 -0.22375333
0.005853334 0.11951116 -0.22373967
0.0060800002 0.11949766 -0.22370367
0.0062613334 0.11949233 -0.22368699
0.0064230002 0.11948467 -0.223718
0.0066480003 0.119505 -0.22366601
0.0069217496 0.119518 -0.22366874
0.0071318336 0.11951783 -0.22366583
0.0073216665 0.11950699 -0.22366001
0.0074640005 0.119497 -0.22363667
0.0076530003 0.119488 -0.22363234
0.014769999 0.1194465 -0.223621
0.014909501 0.119476 -0.22371949
0.0045669996 0.11972167 -0.22378033
0.0047209999 0.119783 -0.223792
0.0048921108 0.119706 -0.2237858
0.0050616665 0.11970033 -0.22378699
0.0053051668 0.11968666 -0.22377682
0.0054935003 0.1197055 -0.22372401
0.0057243332 0.11972933 -0.22372167
0.0058609997 0.11972416 -0.22372515
0.0060883332 0.119711 -0.22370465
0.0062703337 0.119706 -0.22369868
0.0064320001 0.119699 -0.22372667
0.0066550002 0.119683 -0.22367434
0.0068673999 0.11968559 -0.22366679
0.0071074287 0.11971129 -0.22366142
0.0073293336 0.11971966 -0.22363901
0.0074726664 0.11970967 -0.22364067
0.0076943999 0.11968321 -0.2236094
0.0079300003 0.11968767 -0.22361
0.014915834 0.11968833 -0.223674
0.015059 0.1197215 -0.22376549
0.0045739999 0.119898 -0.22378501
0.0047253333 0.119924 -0.22377099
0.0048995558 0.11991845 -0.22376956
0.0050693336 0.11991367 -0.22377799
0.0053130002 0.11989951 -0.22376816
0.0055 0.11988234 -0.22372265
0.0057319999 0.119908 -0.223739
0.005868 0.1199025 -0.22372773
0.0060966662 0.119925 -0.22370298
0.0062776669 0.11991867 -0.22368599
0.0064396667 0.119912 -0.22371566
0.0066650002 0.119897 -0.22369933
0.0068844999 0.1198855 -0.22367901
0.0070724287 0.119877 -0.22367187
0.0072913333 0.11991367 -0.22365566
0.0074800006 0.11992267 -0.22362167
0.0076686665 0.119914 -0.22361167
0.0079359999 0.119831 -0.22360601
0.014922666 0.1199015 -0.22364634
0.015064001 0.119899 -0.22372933
0.0040850001 0.12010533 -0.22379799
0.0043373336 0.12009434 -0.22379868
0.0045810002 0.12007733 -0.223786
0.0047335001 0.120103 -0.22378099
0.0049071671 0.12009716 -0.22378182
0.0050587496 0.12014525 -0.22378576
0.0053221663 0.12011384 -0.22377984
0.0055089998 0.12009633 -0.22373366
0.0057393336 0.12008667 -0.22374634
0.0058744997 0.12007999 -0.22372167
0.0061045 0.120102 -0.2237215
0.0062845 0.120096 -0.223684
0.0064476668 0.12012533 -0.22370666
0.0066726669 0.12010967 -0.22368599
0.0068923333 0.120098 -0.22367017
0.0070591667 0.12009049 -0.22366451
0.0072745006 0.12007916 -0.2236495
0.007485 0.120064 -0.223608
0.0076994998 0.120144 -0.22361276
0.014731599 0.12016901 -0.2236108
0.014931333 0.120116 -0.22365083
0.015071999 0.12011266 -0.22372067
0.0040910002 0.120246 -0.22379901
0.0043453332 0.12030634 -0.22378899
0.0045422497 0.1203105 -0.22379351
0.0047406666 0.12028167 -0.22379301
0.0048691668 0.120276 -0.22377266
0.0050442498 0.12030525 -0.22377402
0.0053412002 0.1203118 -0.22377901
0.0055173337 0.12030933 -0.223729
0.0057476666 0.120299 -0.22373731
0.0058831666 0.12029383 -0.22372784
0.0061103329 0.12028033 -0.22370167
0.0062916665 0.12027434 -0.22368102
0.006453 0.120302 -0.223681
0.0066806669 0.120323 -0.22367834
0.0069005 0.12031216 -0.22366834
0.0070671663 0.12030417 -0.223656
0.007282333 0.12029283 -0.22363466
0.0074959998 0.12035 -0.223609
0.01468025 0.120306 -0.22362825
0.014893667 0.12029766 -0.22365117
0.015080667 0.12032633 -0.22372633
0.0043199998 0.12052216 -0.22379167
0.0045132502 0.12052526 -0.22378725
0.0047114999 0.12051401 -0.2237855
0.0048771668 0.120489 -0.22376899
0.0050510005 0.12048284 -0.2237705
0.0053245998 0.1204836 -0.2237684
0.0055256672 0.12052267 -0.22372599
0.0057546669 0.12051166 -0.22371066
0.005890667 0.12050601 -0.22370468
0.0061183334 0.12049333 -0.22369333
0.0063 0.12048767 -0.22368033
0.0064599998 0.12047967 -0.22367001
0.0066875 0.1205 -0.223676
0.0069085001 0.12052467 -0.22365867
0.0070754997 0.1205175 -0.22365482
0.0072900001 0.12050566 -0.22362517
0.0075013335 0.12049067 -0.22360401
0.0146835 0.120412 -0.2236075
0.014900555 0.12047589 -0.22364756
0.0150865 0.120505 -0.223703
0.0035389999 0.12070134 -0.22378667
0.0041079996 0.120709 -0.22378099
0.0043604998 0.120698 -0.223784
0.0044394 0.1207114 -0.22378099
0.0046813334 0.1207125 -0.22378568
0.0048858332 0.120703 -0.22377099
0.0050596665 0.12069717 -0.22376984
0.0053312001 0.12066899 -0.2237554
0.0054876669 0.12071534 -0.22371165
0.0057633333 0.12072567 -0.22372167
0.0058985003 0.12071934 -0.22369732
0.0061259996 0.12070667 -0.22368467
0.0063086669 0.12070167 -0.22368933
0.0064683333 0.120693 -0.22367299
0.0066933334 0.12067867 -0.22365767
0.0069154999 0.12070276 -0.223656
0.0070817498 0.120695 -0.22363774
0.0072981664 0.12071884 -0.22362034
0.0149955 0.12065 -0.223672
0.015070501 0.12070225 -0.2237055
0.0029265 0.1209035 -0.2237865
0.0041149999 0.12088633 -0.22378235
0.0043676668 0.12087599 -0.22379333
0.0044493335 0.120868 -0.22379732
0.0047034002 0.1209098 -0.22376581
0.0048934999 0.12091651 -0.22376168
0.0050674998 0.12090933 -0.22376348
0.0052956664 0.12090033 -0.22377034
0.0054733329 0.12088466 -0.22372998
0.0057704998 0.120903 -0.223722
0.0059155999 0.1209174 -0.22370081
0.0061349999 0.12092 -0.22369432
0.0063160001 0.12091433 -0.22367032
0.006476 0.12090567 -0.22366734
0.0067026666 0.12089201 -0.223674
0.0069216662 0.12087967 -0.22364582
0.0070883334 0.120873 -0.22363333
0.0073197996 0.1209172 -0.22361961
0.00771 0.120981 -0.223601
0.014918332 0.12090033 -0.22361934
0.015055 0.12090049 -0.22371817
0.0035545002 0.121093 -0.223796
0.0036239999 0.121197 -0.22379801
0.003908 0.12114874 -0.22379126
0.004127 0.121171 -0.223793
0.0043410002 0.12109067 -0.22377099
0.0044488334 0.12108066 -0.223772
0.0046798 0.12108281 -0.22376359
0.0049002501 0.1210945 -0.2237635
0.0050753332 0.12112317 -0.22375451
0.005303333 0.12111366 -0.22375967
0.0054819998 0.121099 -0.22373502
0.0057776668 0.12108233 -0.22373299
0.0059030005 0.1210898 -0.2236824
0.0061424999 0.121098 -0.22370401
0.0063243336 0.12112733 -0.22366698
0.006484 0.12111934 -0.22365402
0.0067100003 0.12110499 -0.22365634
0.0069373995 0.1210788 -0.22364061
0.007096333 0.121086 -0.22362934
0.007242667 0.12107833 -0.22360833
0.0148926 0.121134 -0.22365698
0.015018 0.12111834 -0.22376333
-0.012477334 0.12130367 -0.223791
-0.012314 0.121341 -0.223795
0.0029450001 0.121367 -0.22379699
0.003033 0.121364 -0.22379699
0.003518 0.12132066 -0.22379732
0.0036789998 0.12128934 -0.22379534
0.0039148331 0.12132633 -0.22378933
0.0041303332 0.121313 -0.223759
0.0043491665 0.12130416 -0.22375934
0.0044563334 0.12129417 -0.22375466
0.0047023334 0.12128067 -0.22375531
0.0049060001 0.12127134 -0.22373517
0.0050822496 0.1213005 -0.22375001
0.0053103329 0.121326 -0.22373398
0.0054901671 0.12131166 -0.22372951
0.0057859998 0.12129501 -0.22372533
0.0059199999 0.121288 -0.22368203
0.0061486666 0.121276 -0.22369099
0.0063314997 0.121305 -0.22367001
0.0064904997 0.121297 -0.223647
0.0067166667 0.12131766 -0.22362368
0.00693725 0.121324 -0.22361076
0.0070613329 0.12129966 -0.22360766
0.0072513334 0.12129166 -0.223616
0.014762 0.12134 -0.223627
0.014893499 0.12130199 -0.223735
0.0029055001 0.12151267 -0.22379082
0.0030375002 0.121471 -0.2238
0.0035156 0.12150081 -0.2237812
0.0036856669 0.12150183 -0.22378318
0.00392175 0.12150449 -0.22378498
0.0041393335 0.12152634 -0.22376299
0.0043568332 0.121517 -0.22375017
0.004464 0.12150667 -0.22373849
0.0047098338 0.12149384 -0.22374217
0.0049140002 0.1214845 -0.22372435
0.0050886669 0.12147833 -0.22373818
0.0053169997 0.1215035 -0.223729
0.0055108001 0.12150919 -0.22372241
0.0057933331 0.12150767 -0.22370966
0.005928 0.12150183 -0.22367418
0.0061570001 0.12148934 -0.223682
0.0063383332 0.12148333 -0.22366934
0.0064979997 0.12147533 -0.22365166
0.0067210002 0.121458 -0.223601
0.0069530001 0.1215052 -0.22361419
0.0070710001 0.121549 -0.223608
0.0073043332 0.121479 -0.22360732
0.014568 0.121562 -0.223611
0.014714 0.12149585 -0.22368386
0.014854 0.121415 -0.22377799
0.002571 0.121747 -0.22379901
0.0028659999 0.121658 -0.223792
0.0031399999 0.121792 -0.22379901
0.0035427499 0.12168175 -0.22378302
0.0037181112 0.1216899 -0.22376712
0.0039278334 0.12168167 -0.22376949
0.0041469997 0.1217045 -0.223775
0.0043635 0.121695 -0.22374649
0.0044625713 0.12173144 -0.22374389
0.0047178338 0.12170684 -0.22373682
0.0049218331 0.12169767 -0.22371633
0.0050966665 0.12169132 -0.22373582
0.0053226664 0.12168034 -0.22369967
0.0054910001 0.1216828 -0.22372799
0.0057979999 0.12165 -0.22368699
0.0059026252 0.12172513 -0.22367249
0.0061649997 0.12170333 -0.223683
0.0063459999 0.12169666 -0.22365266
0.006507 0.12168934 -0.22366834
0.0069935001 0.121695 -0.22360399
0.0071005002 0.1217445 -0.22362
0.014292 0.121796 -0.223618
0.014521999 0.12169961 -0.223717
0.0146645 0.1216335 -0.22376651
0.0025790001 0.121961 -0.2238
0.002786 0.12191 -0.22379699
0.0028743334 0.12187266 -0.22379066
0.003144 0.121898 -0.22378999
0.0035856667 0.12191033 -0.22377433
0.0036870001 0.12190434 -0.22375464
0.0038921114 0.12189621 -0.22376555
0.0041530002 0.121882 -0.22376533
0.0043353336 0.12187367 -0.22372167
0.0044550002 0.12190116 -0.22374684
0.0046872501 0.121905 -0.22372724
0.0048985002 0.12192138 -0.22371861
0.0051046666 0.12190484 -0.22372283
0.0053309998 0.12189434 -0.22369432
0.0055108331 0.12188033 -0.22370334
0.0059119998 0.12190957 -0.22368415
0.0061733336 0.121916 -0.22367966
0.0063533336 0.12190934 -0.22363901
0.006515 0.12190267 -0.223656
0.0067386664 0.12188634 -0.22361767
0.0071419999 0.12189167 -0.22361802
0.014269668 0.121917 -0.22365166
0.0025843333 0.12210234 -0.223791
0.0027920001 0.122087 -0.22377901
0.0029305001 0.122153 -0.223786
0.0031056665 0.12207616 -0.22379233
0.0035926665 0.12212399 -0.22375
0.0036946665 0.122118 -0.2237495
0.003900667 0.12210967 -0.22376901
0.0041606664 0.122095 -0.22374867
0.004344 0.12208766 -0.22372401
0.004462 0.1220791 -0.22375056
0.0046570003 0.12210301 -0.22372
