# .PCD v0.7 - Point Cloud Data file format
VERSION 0.7
FIELDS x y z
SIZE 4 4 4
TYPE F F F
COUNT 1 1 1
WIDTH 1501
HEIGHT 1
VIEWPOINT 0 0 0 1 0 0 0
POINTS 1501
DATA ascii
0.0046589999 0.111525 -0.223731
0.0046620001 0.111595 -0.223735
0.0046660001 0.111666 -0.223754
0.0046689999 0.111738 -0.223758
0.0046720002 0.111808 -0.22375999
0.004675 0.11188 -0.22376899
0.0046780002 0.11195 -0.22377101
0.004681 0.112022 -0.223777
0.0046839998 0.112092 -0.223791
0.0046870001 0.112162 -0.223802
0.0046899999 0.112234 -0.2238
0.0046930001 0.112304 -0.2238
0.0046959999 0.112376 -0.223803
0.0046979999 0.112448 -0.223793
0.0047010002 0.112518 -0.223793
0.004704 0.11259 -0.223805
0.0047070002 0.11266 -0.223804
0.0047089998 0.112732 -0.223794
0.004712 0.112804 -0.223786
0.0047149998 0.112874 -0.22378901
0.0047180001 0.112946 -0.223801
0.0047209999 0.113016 -0.22380701
0.0047240001 0.113088 -0.223811
0.0047269999 0.113158 -0.223818
0.0047300002 0.11323 -0.223822
0.004733 0.1133 -0.22382
0.004735 0.113372 -0.22381701
0.0047380002 0.113442 -0.22382499
0.0047419998 0.113515 -0.22383299
0.004745 0.113585 -0.223836
0.0047479998 0.113657 -0.22384401
0.0047510001 0.113727 -0.22385199
0.0047539999 0.113797 -0.223858
0.0047559999 0.113869 -0.223847
0.0047579999 0.11394 -0.223829
0.0047610002 0.114012 -0.22382499
0.004764 0.114082 -0.22383
0.004766 0.114154 -0.22382601
0.0047690002 0.114226 -0.223828
0.004772 0.114296 -0.22383399
0.0047749998 0.114368 -0.223829
0.0047769998 0.114438 -0.223821
0.0047800001 0.11451 -0.223827
0.0047829999 0.11458 -0.22383399
0.0047860001 0.114652 -0.223838
0.0047889999 0.114724 -0.223838
0.0047920002 0.114794 -0.223846
0.0047960002 0.114865 -0.223865
0.004799 0.114937 -0.223873
0.0048019998 0.115007 -0.223873
0.004805 0.115079 -0.223874
0.004807 0.115151 -0.22386999
0.0048099998 0.115221 -0.22387201
0.0048130001 0.115293 -0.223876
0.0048159999 0.115363 -0.223883
0.0048190001 0.115435 -0.223885
0.0048219999 0.115505 -0.22388899
0.0048250002 0.115577 -0.223886
0.0048270002 0.115648 -0.22386999
0.0048290002 0.115718 -0.223864
0.004832 0.11579 -0.22386099
0.0048349998 0.115862 -0.223867
0.0048380001 0.115932 -0.223875
0.0048409998 0.116004 -0.22387899
0.0048429999 0.116074 -0.22386999
0.0048460001 0.116146 -0.22385401
0.0048480001 0.116217 -0.22384401
0.0048509999 0.116287 -0.22384501
0.0048540002 0.11636 -0.223851
0.004857 0.11643 -0.223855
0.004859 0.116501 -0.223849
0.0048619998 0.116573 -0.22385
0.004865 0.116643 -0.223846
0.004867 0.116715 -0.22384
0.0048699998 0.116785 -0.223851
0.0048739999 0.116858 -0.223869
0.0048770001 0.116928 -0.22387099
0.0048790001 0.116999 -0.223857
0.0048810001 0.117071 -0.22385
0.0048839999 0.117141 -0.22385401
0.0048870002 0.117213 -0.22385
0.0048890002 0.117283 -0.223839
0.004892 0.117355 -0.223837
0.0048949998 0.117427 -0.223841
0.004898 0.117497 -0.223842
0.0049000001 0.117569 -0.223838
0.0049029998 0.117639 -0.223838
0.0049060001 0.117711 -0.223842
0.0049089999 0.117783 -0.22383501
0.0049100001 0.117852 -0.22381499
0.0049129999 0.117924 -0.22381499
0.0049160002 0.117994 -0.22382601
0.004919 0.118066 -0.22382399
0.0049220002 0.118138 -0.22382
0.004925 0.118208 -0.22382
0.004927 0.11828 -0.223821
0.0049299998 0.11835 -0.22381701
0.0049330001 0.118422 -0.223821
0.0049359999 0.118494 -0.22383399
0.0049390001 0.118564 -0.223836
0.0049419999 0.118636 -0.22382601
0.0049439999 0.118706 -0.223823
0.0049470002 0.118778 -0.22382499
0.00495 0.11885 -0.223821
0.004952 0.11892 -0.223821
0.0049549998 0.118992 -0.22382
0.004958 0.119061 -0.22381601
0.00496 0.119133 -0.223812
0.0049620001 0.119203 -0.22379699
0.0049640001 0.119275 -0.223783
0.0049669999 0.119346 -0.223775
0.0049700001 0.119416 -0.223775
0.0049729999 0.119489 -0.22379
0.0049760002 0.119559 -0.223796
0.004979 0.119631 -0.22379
0.004981 0.119703 -0.223785
0.0049840002 0.119773 -0.22378699
0.004987 0.119844 -0.22378699
0.004989 0.119914 -0.223776
0.0049919998 0.119986 -0.22377799
0.0049950001 0.120058 -0.22378799
0.0049979999 0.120128 -0.223782
0.0049999999 0.120198 -0.223775
0.0050030001 0.12027 -0.223777
0.0050059999 0.120342 -0.223783
0.0050090002 0.120414 -0.223786
0.0050110002 0.120484 -0.223776
0.0050130002 0.120554 -0.22376201
0.005016 0.120626 -0.22376201
0.00502 0.120698 -0.223777
0.0050229998 0.12077 -0.22377899
0.0050249998 0.12084 -0.22376899
0.0050269999 0.120909 -0.22376201
0.0050300001 0.120981 -0.22375999
0.0050329999 0.121053 -0.223756
0.0050349999 0.121123 -0.223754
0.0050380002 0.121195 -0.223759
0.005041 0.121265 -0.22376101
0.005043 0.121337 -0.223737
0.005045 0.121406 -0.22371601
0.0050479998 0.121479 -0.22373401
0.0050519998 0.121551 -0.223746
0.0050539998 0.12162 -0.223735
0.0050559998 0.121692 -0.223727
0.0050590001 0.121762 -0.22372501
0.0050619999 0.121834 -0.223727
0.0050650002 0.121906 -0.223726
0.0050670002 0.121976 -0.223722
0.00507 0.122048 -0.22373
0.0050730002 0.12212 -0.22373299
0.0050750002 0.12219 -0.223721
0.0050769998 0.122259 -0.223695
0.0050789998 0.122331 -0.22368
0.005082 0.122403 -0.22367799
0.0050849998 0.122473 -0.223684
0.0050880001 0.122545 -0.223692
0.0050900001 0.122615 -0.223685
0.0050920001 0.122687 -0.22366901
0.0050949999 0.122759 -0.223673
0.0050989999 0.122829 -0.223682
0.005101 0.122901 -0.22367799
0.0051040002 0.122973 -0.22368599
0.0051079998 0.123043 -0.2237
0.005111 0.123115 -0.223703
0.0051139998 0.123187 -0.223703
0.0051159998 0.123257 -0.22370499
0.0051190001 0.123329 -0.22370601
0.0051210001 0.123399 -0.22368599
0.0051230001 0.12347 -0.22366799
0.0051259999 0.12354 -0.223684
0.0051299999 0.123613 -0.22369701
0.005132 0.123684 -0.22367901
0.005134 0.123754 -0.223665
0.0051369998 0.123826 -0.223672
0.00514 0.123896 -0.223674
0.005142 0.123968 -0.223664
0.0051449998 0.124038 -0.223657
0.0051469998 0.124109 -0.223645
0.0051489999 0.124179 -0.22363301
0.0051509999 0.124251 -0.22362299
0.0051549999 0.124323 -0.223638
0.0051580002 0.124393 -0.22364999
0.005161 0.124465 -0.22364201
0.005163 0.124537 -0.22364099
0.0051660002 0.124607 -0.223639
0.0051679998 0.124679 -0.22362299
0.0051699998 0.124748 -0.223612
0.005173 0.124818 -0.223608
0.0051759998 0.12489 -0.22361
0.0051779998 0.124962 -0.22360601
0.0051810001 0.12503199 -0.223599
0.0051830001 0.125104 -0.22359499
0.0051859999 0.125174 -0.22358701
0.0051879999 0.125245 -0.223574
0.0051899999 0.125315 -0.22355799
0.005192 0.125384 -0.223536
0.005194 0.12545399 -0.223527
0.0051970002 0.125526 -0.22353899
0.0052009998 0.125599 -0.22355101
0.005204 0.125671 -0.223557
0.0052069998 0.125743 -0.22355799
0.0052089998 0.12581199 -0.223546
0.0052109999 0.125882 -0.223528
0.0052120001 0.12595101 -0.223501
0.0052140001 0.12602299 -0.223489
0.0052169999 0.126093 -0.22348499
0.0052200002 0.126165 -0.22348601
0.005223 0.126237 -0.22349399
0.0052260002 0.126307 -0.22349399
0.0052280002 0.126379 -0.223482
0.0052299998 0.12644801 -0.22347499
0.0052319998 0.126518 -0.223465
0.005235 0.12659 -0.223451
0.0052370001 0.12666 -0.223446
0.0052399999 0.12673201 -0.223442
0.0052419999 0.126801 -0.223426
0.0052430001 0.126871 -0.223407
0.0052459999 0.12694 -0.223397
0.0052479999 0.127012 -0.223395
0.0052510002 0.12708201 -0.22339199
0.005254 0.12715399 -0.223386
0.005256 0.127226 -0.223382
0.005258 0.127296 -0.22336499
0.0052590002 0.127363 -0.22333699
0.005262 0.127435 -0.22332899
0.005264 0.127507 -0.223326
0.0052669998 0.12757599 -0.223316
0.0052689998 0.127646 -0.22331201
0.0052720001 0.127718 -0.223308
0.0052740001 0.12778801 -0.223295
0.0052749999 0.127857 -0.223269
0.0052780001 0.12792701 -0.22325499
0.0052800002 0.127997 -0.223248
0.0052820002 0.128068 -0.223232
0.0052840002 0.12813801 -0.223224
0.005287 0.12820999 -0.223223
0.005289 0.12828 -0.223213
0.005291 0.12834901 -0.223195
0.005293 0.128419 -0.22317
0.0052939998 0.12848599 -0.22314399
0.0052970001 0.12855799 -0.22314399
0.0052999998 0.12863 -0.223147
0.0053019999 0.1287 -0.22313701
0.0053039999 0.128769 -0.22311901
0.0053059999 0.128839 -0.22309799
0.0053079999 0.128911 -0.223094
0.0053119999 0.12898099 -0.223104
0.0053150002 0.129053 -0.223107
0.005316 0.129123 -0.223085
0.005318 0.12919199 -0.223069
0.0053209998 0.129264 -0.223066
0.0053229998 0.129334 -0.22306
0.005326 0.12940399 -0.22305401
0.0053280001 0.129475 -0.223042
0.0053289998 0.12954301 -0.22301701
0.0053309998 0.129612 -0.222993
0.0053320001 0.12967899 -0.22296
0.0053340001 0.129749 -0.22295
0.0053369999 0.129821 -0.222956
0.0053400001 0.129893 -0.22296
0.0053429999 0.12996501 -0.222965
0.005347 0.13003799 -0.22297101
0.005349 0.130108 -0.222973
0.0053519998 0.130179 -0.222966
0.0053539998 0.130247 -0.222948
0.0053559998 0.130319 -0.22293399
0.0053579998 0.13038801 -0.222921
0.0053599998 0.130458 -0.22291499
0.0053639999 0.13053 -0.222923
0.0053670001 0.130603 -0.222937
0.0053699999 0.130675 -0.22294199
0.0053719999 0.130744 -0.222932
0.0053739999 0.130814 -0.22291601
0.005376 0.13088401 -0.222905
0.0053790002 0.130953 -0.222891
0.005382 0.131028 -0.222901
0.0053849998 0.1311 -0.222912
0.005388 0.13117 -0.222904
0.0053900001 0.13124099 -0.222904
0.0053940001 0.13131399 -0.22292
0.0053980001 0.131386 -0.222937
0.0054009999 0.131458 -0.22294299
0.0054040002 0.13153 -0.222947
0.005407 0.131602 -0.222947
0.005409 0.13167199 -0.222946
0.005411 0.131742 -0.22292601
0.005413 0.13181099 -0.222912
0.005417 0.13188399 -0.22293299
0.0054219998 0.131961 -0.22297101
0.0054250001 0.13203301 -0.222987
0.0054290001 0.132107 -0.223003
0.0054330002 0.13218001 -0.22302
0.0054359999 0.13225199 -0.223024
0.0054390002 0.132324 -0.223032
0.005442 0.132396 -0.223046
0.005446 0.13247 -0.223058
0.0054489998 0.132543 -0.223077
0.0054529998 0.132617 -0.223097
0.0054580001 0.13269199 -0.223125
0.0054620001 0.13276599 -0.223157
0.0054660002 0.13284101 -0.22318301
0.0054700002 0.13291501 -0.22320201
0.0054739998 0.13299 -0.223234
0.005479 0.133067 -0.22327
0.0054830001 0.133141 -0.223294
0.0054870001 0.13321599 -0.223322
0.0054910001 0.13328999 -0.223343
0.0054959999 0.133367 -0.223381
0.0055030002 0.13344701 -0.223453
0.0055089998 0.133526 -0.223511
0.0055140001 0.13360301 -0.22355901
0.0055189999 0.13368 -0.22360501
0.0055249999 0.13375901 -0.22365899
0.005531 0.133839 -0.223727
0.0055379998 0.13392 -0.223805
0.0055459999 0.134004 -0.22389901
0.0055559999 0.134093 -0.224039
0.0045759999 0.107105 -0.223937
0.0045779999 0.107176 -0.223923
0.0045799999 0.10725 -0.223895
0.0045810002 0.107321 -0.223866
0.0045830002 0.107394 -0.22384401
0.0045850002 0.107466 -0.22382399
0.0045869998 0.107539 -0.223803
0.0045889998 0.107611 -0.223781
0.0045909998 0.107683 -0.223775
0.0045940001 0.107753 -0.223777
0.0045969998 0.107825 -0.223772
0.0045989999 0.107896 -0.22375999
0.0046020001 0.107968 -0.223758
0.0046040001 0.108038 -0.22376101
0.0046069999 0.10811 -0.223757
0.0046100002 0.108182 -0.223755
0.0046120002 0.108252 -0.22375301
0.004615 0.108324 -0.223746
0.004617 0.108396 -0.22373401
0.0046199998 0.108467 -0.223726
0.0046219998 0.108539 -0.22372299
0.0046250001 0.108609 -0.223719
0.0046270001 0.108681 -0.223711
0.0046299999 0.108753 -0.223709
0.0046330001 0.108823 -0.22371601
0.0046359999 0.108893 -0.223722
0.0046390002 0.108965 -0.22372
0.0046410002 0.109037 -0.223713
0.004644 0.109107 -0.22370701
0.004646 0.109179 -0.22370701
0.0046489998 0.10925 -0.223701
0.0046509998 0.10932 -0.22369599
0.004654 0.109394 -0.22368
0.0046560001 0.109466 -0.22366799
0.0046589999 0.109536 -0.223671
0.0046620001 0.109606 -0.223681
0.0046649999 0.109678 -0.22368699
0.0046680002 0.10975 -0.22368
0.0046700002 0.10982 -0.223676
0.004673 0.10989 -0.223684
0.0046760002 0.109962 -0.22368599
0.004679 0.110032 -0.22368699
0.0046819998 0.110104 -0.223685
0.0046839998 0.110175 -0.223675
0.0046870001 0.110245 -0.223676
0.0046899999 0.110317 -0.223684
0.0046930001 0.110387 -0.223682
0.0046950001 0.110459 -0.22367001
0.0046979999 0.110531 -0.223671
0.0047010002 0.110601 -0.223685
0.0047050002 0.110672 -0.223701
0.0047070002 0.110742 -0.223702
0.00471 0.110814 -0.22369801
0.0047129998 0.110886 -0.223702
0.0047160001 0.110956 -0.22371501
0.0047189998 0.111026 -0.22372299
0.0047220001 0.111096 -0.223727
0.0047249999 0.111168 -0.22372501
0.0047280001 0.11124 -0.22372399
0.0047309999 0.11131 -0.22373199
0.0047340002 0.11138 -0.22374
0.004737 0.111452 -0.223735
0.004739 0.111524 -0.22372501
0.0047419998 0.111596 -0.223719
0.004745 0.111666 -0.22372501
0.0047479998 0.111736 -0.223744
0.0047519999 0.111807 -0.22376201
0.0047550001 0.111879 -0.22376999
0.0047579999 0.111949 -0.22377899
0.0047610002 0.112019 -0.22378901
0.004764 0.112091 -0.22378699
0.0047670002 0.112161 -0.22378901
0.00477 0.112233 -0.223794
0.0047729998 0.112303 -0.223796
0.004776 0.112375 -0.2238
0.0047789998 0.112447 -0.22379901
0.0047809999 0.112517 -0.223795
0.0047840001 0.112589 -0.22379901
0.0047869999 0.112659 -0.223809
0.0047900002 0.112731 -0.22381
0.0047920002 0.112803 -0.223792
0.004795 0.112873 -0.223786
0.0047980002 0.112945 -0.22379901
0.0048019998 0.113015 -0.22381701
0.004805 0.113085 -0.22383299
0.0048090001 0.113158 -0.22384501
0.0048110001 0.113228 -0.223846
0.0048139999 0.1133 -0.223842
0.0048170001 0.11337 -0.22384
0.0048190001 0.113441 -0.22383501
0.0048219999 0.113513 -0.22383299
0.0048250002 0.113583 -0.223839
0.004828 0.113656 -0.22385
0.0048310002 0.113726 -0.22385199
0.004834 0.113797 -0.223846
0.004836 0.113867 -0.223838
0.0048389998 0.113939 -0.223839
0.0048420001 0.114011 -0.223847
0.0048449999 0.114081 -0.22385301
0.0048480001 0.114151 -0.22385199
0.0048500001 0.114223 -0.223838
0.0048520002 0.114295 -0.22382399
0.0048549999 0.114367 -0.223822
0.004857 0.114437 -0.223821
0.0048600002 0.114508 -0.22381701
0.004863 0.114579 -0.22382499
0.0048659998 0.114651 -0.22383399
0.0048690001 0.114721 -0.223838
0.0048719998 0.114793 -0.22384
0.0048750001 0.114863 -0.223837
0.0048779999 0.114935 -0.223841
0.0048810001 0.115005 -0.223847
0.0048839999 0.115077 -0.22385301
0.0048870002 0.115149 -0.22386
0.00489 0.115219 -0.223866
0.0048929998 0.115291 -0.223866
0.004896 0.115361 -0.223867
0.0048989998 0.115433 -0.223867
0.0049009998 0.115505 -0.22386301
0.0049040001 0.115575 -0.223855
0.0049060001 0.115647 -0.22385199
0.0049089999 0.115717 -0.223858
0.0049120001 0.115789 -0.223866
0.0049149999 0.115859 -0.22387099
0.0049180002 0.115931 -0.22386301
0.0049200002 0.116003 -0.223851
0.004923 0.116073 -0.223859
0.0049259998 0.116145 -0.223866
0.0049279998 0.116216 -0.22385
0.0049299998 0.116286 -0.22382601
0.0049330001 0.116358 -0.223827
0.0049359999 0.116428 -0.22384501
0.0049399999 0.1165 -0.223859
0.0049419999 0.11657 -0.223855
0.0049450002 0.116642 -0.22384401
0.0049470002 0.116714 -0.22384
0.00495 0.116784 -0.22384401
0.004954 0.116856 -0.223857
0.0049569998 0.116926 -0.223867
0.00496 0.116998 -0.223869
0.0049620001 0.11707 -0.223857
0.0049640001 0.11714 -0.223848
0.0049669999 0.117212 -0.22384401
0.0049689999 0.117281 -0.223832
0.0049720001 0.117353 -0.22382499
0.0049740002 0.117425 -0.223827
0.0049769999 0.117495 -0.22382499
0.0049800002 0.117567 -0.223828
0.004983 0.117637 -0.22383
0.004985 0.117709 -0.22382399
0.0049879998 0.117781 -0.22382
0.0049899998 0.117851 -0.223809
0.0049930001 0.117923 -0.223811
0.0049970001 0.117993 -0.223827
0.0049999999 0.118065 -0.223832
0.0050019999 0.118137 -0.22382399
0.0050050002 0.118207 -0.223818
0.0050070002 0.118279 -0.22381601
0.00501 0.118349 -0.223813
0.005012 0.11842 -0.223803
0.0050149998 0.118492 -0.223793
0.0050169998 0.118562 -0.223796
0.0050209998 0.118634 -0.22380599
0.0050240001 0.118704 -0.223814
0.0050269999 0.118776 -0.22381499
0.0050300001 0.118848 -0.22381701
0.0050329999 0.118919 -0.22382499
0.0050349999 0.11899 -0.223821
0.0050380002 0.11906 -0.223812
0.0050400002 0.119132 -0.22381
0.005043 0.119202 -0.223814
0.0050459998 0.119274 -0.223809
0.005049 0.119346 -0.223809
0.005051 0.119416 -0.22380701
0.0050530001 0.119487 -0.22378699
0.0050559998 0.119557 -0.223784
0.0050590001 0.119629 -0.22379
0.0050619999 0.119701 -0.223786
0.0050639999 0.119771 -0.223785
0.0050670002 0.119843 -0.223785
0.0050690002 0.119913 -0.223775
0.005072 0.119985 -0.223774
0.0050750002 0.120057 -0.22378799
0.0050789998 0.120127 -0.223794
0.0050809998 0.120199 -0.223786
0.0050829998 0.120269 -0.223775
0.0050849998 0.12034 -0.22376101
0.0050880001 0.12041 -0.223759
0.0050909999 0.120483 -0.223772
0.0050940001 0.120552 -0.223768
0.0050960002 0.120624 -0.223758
0.0051000002 0.120696 -0.223768
0.005103 0.120769 -0.223775
0.005105 0.120838 -0.22377101
0.0051079998 0.120908 -0.223765
0.0051099998 0.12098 -0.223754
0.0051119998 0.121052 -0.223746
0.0051150001 0.121122 -0.22375201
0.0051190001 0.121194 -0.22375999
0.0051210001 0.121264 -0.223755
0.0051239999 0.121336 -0.223747
0.0051259999 0.121408 -0.223747
0.0051290002 0.121477 -0.22374199
0.005132 0.121549 -0.223744
0.0051350002 0.12162 -0.22375
0.0051369998 0.121691 -0.223747
0.0051389998 0.121763 -0.223731
0.005142 0.121833 -0.22372299
0.0051449998 0.121905 -0.223721
0.0051469998 0.121975 -0.223718
0.0051500001 0.122047 -0.22371399
0.0051520001 0.122117 -0.22371399
0.0051549999 0.122189 -0.22371501
0.0051580002 0.12226 -0.223713
0.005161 0.12233 -0.22370701
0.005163 0.122402 -0.223694
0.005165 0.122472 -0.223692
0.005169 0.122544 -0.22370601
0.005171 0.122616 -0.2237
0.0051739998 0.122686 -0.223691
0.0051770001 0.122758 -0.223693
0.0051799999 0.122828 -0.223701
0.0051830001 0.1229 -0.22370601
0.0051850001 0.122972 -0.2237
0.0051870001 0.123041 -0.223684
0.0051899999 0.123113 -0.223684
0.005194 0.123186 -0.223701
0.005196 0.123256 -0.223703
0.0051989998 0.123328 -0.223695
0.005202 0.123397 -0.223694
0.005204 0.123469 -0.22369
0.0052060001 0.123539 -0.22368
0.0052089998 0.123611 -0.223676
0.0052120001 0.123683 -0.22366901
0.0052140001 0.123753 -0.223665
0.0052169999 0.123825 -0.223671
0.0052200002 0.123897 -0.22367799
0.0052240002 0.123969 -0.22368801
0.005227 0.124039 -0.2237
0.005229 0.124111 -0.22369
0.005231 0.124181 -0.223667
0.005233 0.12425 -0.223649
0.005235 0.124322 -0.223643
0.0052379998 0.124392 -0.22364201
0.0052410001 0.124464 -0.223636
0.0052430001 0.124536 -0.22363199
0.0052459999 0.124605 -0.223625
0.0052479999 0.124675 -0.22361299
0.0052499999 0.124747 -0.223599
0.0052519999 0.124816 -0.223588
0.0052550002 0.124888 -0.223588
0.005258 0.124959 -0.223592
0.0052609998 0.12503 -0.223592
0.005264 0.125102 -0.22359499
0.0052660001 0.125172 -0.223591
0.0052689998 0.12524401 -0.22358701
0.0052709999 0.125314 -0.223574
0.0052729999 0.125386 -0.22355799
0.0052760001 0.12545601 -0.22355799
0.0052780001 0.12552699 -0.22355901
0.0052809999 0.125597 -0.22355101
0.0052829999 0.125669 -0.223533
0.005285 0.12573899 -0.22352099
0.0052880002 0.125811 -0.22353201
0.005291 0.125883 -0.223538
0.005293 0.125953 -0.223524
0.005295 0.126022 -0.223511
0.0052979998 0.126094 -0.223509
0.0053010001 0.126164 -0.223507
0.0053030001 0.12623601 -0.22350401
0.0053059999 0.12630799 -0.223496
0.0053079999 0.126377 -0.22348399
0.0053099999 0.12644701 -0.22347499
0.0053130002 0.12651899 -0.223469
0.0053150002 0.126589 -0.223465
0.005318 0.126661 -0.22345901
0.00532 0.12673099 -0.223452
0.0053229998 0.126802 -0.223442
0.005324 0.126872 -0.223418
0.005326 0.126939 -0.223397
0.0053280001 0.127011 -0.22338299
0.0053300001 0.12708101 -0.22336701
0.0053320001 0.127152 -0.22336
0.0053349999 0.127222 -0.22336
0.0053380001 0.12729201 -0.223352
0.0053400001 0.12736399 -0.223335
0.0053420002 0.127433 -0.223327
0.005345 0.127505 -0.223325
0.005347 0.127575 -0.22332001
0.005349 0.127645 -0.223298
0.005351 0.12771399 -0.22328
0.005353 0.127786 -0.223276
0.0053559998 0.127856 -0.223267
0.0053579998 0.12792601 -0.223251
0.0053599998 0.127995 -0.22323801
0.0053619999 0.128067 -0.223232
0.0053650001 0.12813701 -0.223224
0.0053670001 0.128206 -0.22321001
0.0053690001 0.128278 -0.22320101
0.0053710002 0.12834799 -0.22319099
0.0053730002 0.128418 -0.223177
0.005376 0.12848701 -0.223168
0.005378 0.12855899 -0.223162
0.00538 0.128629 -0.22315399
0.0053829998 0.128699 -0.22314499
0.0053849998 0.12876999 -0.223129
0.005386 0.128838 -0.223105
0.0053889998 0.12891001 -0.223094
0.0053909998 0.128979 -0.223092
0.0053940001 0.129049 -0.223084
0.0053960001 0.12912101 -0.223075
0.0053980001 0.129191 -0.223059
0.0054000001 0.12926 -0.223047
0.0054020002 0.12932999 -0.22304
0.0054049999 0.129402 -0.22303399
0.005407 0.129472 -0.223024
0.005409 0.12954099 -0.22300901
0.005411 0.129611 -0.22299901
0.005415 0.129683 -0.223005
0.005417 0.12975299 -0.222993
0.0054190001 0.129823 -0.22297999
0.0054210001 0.129894 -0.22297201
0.0054230001 0.12996399 -0.22296
0.0054250001 0.130034 -0.222947
0.0054279999 0.13010401 -0.222945
0.0054310001 0.13017599 -0.222955
0.0054350002 0.130248 -0.222964
0.0054370002 0.130318 -0.222948
0.0054390002 0.13038699 -0.222932
0.0054410002 0.130459 -0.22293299
0.0054449998 0.130531 -0.222939
0.005448 0.130603 -0.22294299
0.0054500001 0.13067301 -0.222939
0.0054529998 0.13074499 -0.22294401
0.0054560001 0.13081799 -0.22295199
0.0054589999 0.130887 -0.22294401
0.0054609999 0.13095701 -0.22292501
0.0054629999 0.131027 -0.222911
0.0054649999 0.131098 -0.22290701
0.0054680002 0.13116901 -0.22291601
0.005471 0.13124099 -0.22292
0.0054739998 0.131313 -0.22292601
0.0054779998 0.131387 -0.22294199
0.0054810001 0.131459 -0.222949
0.0054839998 0.131529 -0.222939
0.0054859999 0.13159899 -0.22292501
0.0054879999 0.131668 -0.222912
0.0054899999 0.13173801 -0.22290599
0.0054939999 0.131813 -0.222936
0.0054990002 0.131889 -0.222974
0.0055030002 0.131962 -0.222982
0.0055049998 0.13203099 -0.222977
0.005508 0.13210399 -0.222991
0.0055129998 0.13217799 -0.223019
0.0055169999 0.13225301 -0.223039
0.0055200001 0.13232499 -0.22304399
0.0055229999 0.132397 -0.22305
0.0055260002 0.132469 -0.223056
0.005529 0.132539 -0.22305401
0.0055320002 0.132613 -0.223067
0.005537 0.132688 -0.22310901
0.0055419998 0.13276701 -0.223159
0.0055470001 0.132842 -0.223193
0.0055510001 0.132916 -0.22321901
0.0055550002 0.132991 -0.22324499
0.0055590002 0.133065 -0.22326601
0.0055630002 0.13314 -0.22329199
0.005568 0.13321701 -0.22332799
0.0055720001 0.13329101 -0.22335599
0.0055769999 0.133368 -0.223396
0.0055829999 0.13344499 -0.223452
0.0055889999 0.133525 -0.223518
0.005595 0.133604 -0.223574
0.0055999998 0.133681 -0.22362299
0.0056059998 0.133762 -0.223683
0.0056130001 0.13384201 -0.223763
0.00562 0.13392401 -0.22384501
0.0056269998 0.13400801 -0.223928
0.0047650002 0.107168 -0.223895
0.0047670002 0.10724 -0.22389001
0.0047690002 0.107312 -0.223876
0.0047709998 0.107383 -0.22385401
0.0047729998 0.107457 -0.223828
0.004774 0.10753 -0.223793
0.004776 0.107601 -0.223777
0.0047789998 0.107671 -0.223785
0.0047820001 0.107743 -0.22378799
0.0047840001 0.107815 -0.22378001
0.0047869999 0.107885 -0.22378001
0.0047900002 0.107957 -0.22377899
0.0047920002 0.108029 -0.223757
0.0047940002 0.1081 -0.223737
0.0047960002 0.108172 -0.223735
0.004799 0.108244 -0.223728
0.004801 0.108316 -0.22371399
0.0048039998 0.108387 -0.22371
0.0048059998 0.108457 -0.223709
0.0048090001 0.108528 -0.223719
0.0048130001 0.108598 -0.223731
0.0048159999 0.10867 -0.223737
0.0048190001 0.10874 -0.223736
0.0048210002 0.108812 -0.22372399
0.0048230002 0.108885 -0.223702
0.0048239999 0.108956 -0.223671
0.0048270002 0.109028 -0.223667
0.0048310002 0.109099 -0.223693
0.004834 0.109169 -0.223703
0.004836 0.109241 -0.22369801
0.0048389998 0.109311 -0.223692
0.0048409998 0.109382 -0.223684
0.0048429999 0.109454 -0.223667
0.0048449999 0.109526 -0.223649
0.0048489999 0.109598 -0.22366101
0.0048520002 0.109668 -0.22368
0.0048549999 0.109738 -0.22368
0.0048580002 0.10981 -0.223676
0.0048600002 0.10988 -0.223672
0.004863 0.109952 -0.22366901
0.0048659998 0.110024 -0.223671
0.0048690001 0.110094 -0.223683
0.0048719998 0.110164 -0.22368801
0.0048750001 0.110236 -0.223684
0.0048770001 0.110308 -0.223676
0.0048790001 0.110379 -0.223658
0.0048810001 0.110451 -0.223653
0.0048850002 0.110521 -0.223663
0.004888 0.110591 -0.22366901
0.00489 0.110663 -0.22366799
0.0048929998 0.110733 -0.223664
0.004896 0.110805 -0.22366001
0.0048989998 0.110875 -0.223671
0.0049020001 0.110946 -0.223683
0.0049049999 0.111018 -0.223689
0.0049080001 0.111088 -0.22368699
0.0049109999 0.11116 -0.223692
0.0049140002 0.11123 -0.2237
0.004917 0.1113 -0.223704
0.0049200002 0.111372 -0.223713
0.004923 0.111442 -0.223719
0.0049259998 0.111514 -0.223717
0.004929 0.111584 -0.223729
0.0049330001 0.111655 -0.22374199
0.0049350001 0.111726 -0.223738
0.0049379999 0.111798 -0.223728
0.0049399999 0.11187 -0.223721
0.0049419999 0.11194 -0.223713
0.0049459999 0.112012 -0.22372299
0.00495 0.112082 -0.22374301
0.0049530002 0.112153 -0.22375999
0.0049569998 0.112223 -0.223776
0.00496 0.112295 -0.223784
0.0049620001 0.112365 -0.22377899
0.0049649999 0.112437 -0.223777
0.0049680001 0.112507 -0.223781
0.0049700001 0.112579 -0.223775
0.0049729999 0.112651 -0.223774
0.0049769999 0.112721 -0.223792
0.0049800002 0.112791 -0.223804
0.004983 0.112863 -0.223801
0.004985 0.112935 -0.223793
0.0049879998 0.113005 -0.22379901
0.0049910001 0.113075 -0.22381
0.0049939998 0.113147 -0.223812
0.0049970001 0.113219 -0.223814
0.0049999999 0.11329 -0.223818
0.0050030001 0.113362 -0.223821
0.0050059999 0.113431 -0.22381701
0.0050079999 0.113503 -0.223809
0.0050110002 0.113575 -0.22380801
0.0050130002 0.113645 -0.223804
0.005016 0.113717 -0.223796
0.0050189998 0.113787 -0.22379801
0.0050220001 0.113859 -0.223811
0.0050260001 0.113929 -0.223827
0.0050280001 0.114001 -0.22382499
0.0050300001 0.114073 -0.22380801
0.0050329999 0.114143 -0.22381
0.0050369999 0.114213 -0.22382601
0.0050400002 0.114285 -0.22383
0.0050420002 0.114357 -0.223823
0.0050440002 0.114427 -0.223803
0.005047 0.114499 -0.223801
0.0050499998 0.114569 -0.22382
0.0050539998 0.114641 -0.22383399
0.0050559998 0.114711 -0.223832
0.0050590001 0.114783 -0.22382499
0.0050619999 0.114855 -0.223823
0.0050650002 0.114925 -0.22382499
0.0050670002 0.114997 -0.22382499
0.0050710002 0.115067 -0.223836
0.005074 0.115139 -0.22385199
0.0050769998 0.11521 -0.22386
0.00508 0.115281 -0.22385401
0.005082 0.115351 -0.22384501
0.0050840001 0.115423 -0.22383501
0.0050860001 0.115494 -0.223819
0.0050889999 0.115565 -0.22382399
0.0050929999 0.115637 -0.223838
0.0050960002 0.115707 -0.22384401
0.0050989999 0.115779 -0.223841
0.005101 0.115851 -0.22383299
0.0051040002 0.115921 -0.22383501
0.0051079998 0.115993 -0.223851
0.0051099998 0.116063 -0.223848
0.0051119998 0.116135 -0.223838
0.0051159998 0.116207 -0.22384401
0.0051190001 0.116277 -0.223851
0.0051210001 0.116349 -0.22385301
0.0051239999 0.116419 -0.223847
0.0051259999 0.11649 -0.223831
0.0051290002 0.116562 -0.223832
0.005132 0.116632 -0.223838
0.005134 0.116704 -0.223832
0.0051369998 0.116774 -0.223821
0.00514 0.116846 -0.223827
0.0051429998 0.116916 -0.223839
0.0051460001 0.116988 -0.22384501
0.0051489999 0.11706 -0.223848
0.0051520001 0.11713 -0.223846
0.0051540001 0.117202 -0.22384401
0.0051569999 0.117272 -0.22384501
0.0051600002 0.117344 -0.223837
0.0051620002 0.117416 -0.22382499
0.005165 0.117486 -0.22383
0.0051679998 0.117558 -0.223832
0.0051699998 0.117627 -0.223814
0.005171 0.117699 -0.223794
0.0051739998 0.117771 -0.22379699
0.0051779998 0.117841 -0.223813
0.0051810001 0.117913 -0.223819
0.0051839999 0.117983 -0.22381601
0.0051870001 0.118055 -0.223818
0.0051890002 0.118127 -0.22382
0.005192 0.118197 -0.223812
0.005194 0.118269 -0.223801
0.0051970002 0.118339 -0.223803
0.0051989998 0.118411 -0.223795
0.005202 0.118482 -0.22378799
0.0052049998 0.118552 -0.223792
0.0052080001 0.118624 -0.223792
0.0052109999 0.118695 -0.223803
0.0052140001 0.118767 -0.22381701
0.0052169999 0.118839 -0.223811
0.0052189999 0.118908 -0.223801
0.0052220002 0.11898 -0.223802
0.0052240002 0.11905 -0.22379801
0.0052260002 0.119122 -0.22378001
0.0052280002 0.119191 -0.223763
0.005231 0.119263 -0.223757
0.0052339998 0.119335 -0.223759
0.0052370001 0.119405 -0.22376101
0.0052399999 0.119477 -0.22376999
0.0052419999 0.119547 -0.223766
0.0052450001 0.119619 -0.22376201
0.0052490002 0.119692 -0.223781
0.0052519999 0.119762 -0.223791
0.005254 0.119834 -0.223785
0.0052570002 0.119904 -0.223786
0.00526 0.119976 -0.223792
0.0052629998 0.120048 -0.22378799
0.0052649998 0.120117 -0.22378001
0.0052680001 0.120189 -0.223775
0.0052709999 0.120259 -0.22377899
0.0052740001 0.120331 -0.223783
0.0052760001 0.120403 -0.22378001
0.0052789999 0.120473 -0.223772
0.0052809999 0.120543 -0.22375999
0.0052840002 0.120615 -0.223756
0.005287 0.120687 -0.223765
0.005289 0.120759 -0.22376101
0.0052919998 0.120829 -0.223757
0.0052959998 0.120901 -0.223774
0.0052990001 0.120971 -0.22378001
0.0053010001 0.121043 -0.22376999
0.0053030001 0.121114 -0.22375999
0.0053059999 0.121184 -0.223749
0.0053079999 0.121254 -0.22374099
0.0053099999 0.121326 -0.223731
0.0053130002 0.121398 -0.22373
0.005316 0.121468 -0.22373401
0.005318 0.121539 -0.22372399
0.00532 0.121609 -0.223711
0.0053229998 0.121681 -0.223701
0.0053249998 0.121751 -0.22368699
0.0053280001 0.121823 -0.22368699
0.0053309998 0.121895 -0.22369801
0.0053340001 0.121965 -0.22369801
0.0053369999 0.122037 -0.2237
0.0053400001 0.122107 -0.223709
0.0053429999 0.122179 -0.22371501
0.005345 0.122251 -0.223711
0.0053480002 0.122321 -0.223704
0.0053500002 0.122393 -0.22369801
0.0053519998 0.122462 -0.223682
0.005355 0.122534 -0.223674
0.0053579998 0.122604 -0.22367901
0.0053610001 0.122676 -0.22367901
0.0053630001 0.122748 -0.22367699
0.0053670001 0.122818 -0.22368801
0.0053699999 0.12289 -0.22369599
0.0053730002 0.122962 -0.22369801
0.005376 0.123032 -0.223704
0.005378 0.123104 -0.223703
0.0053810002 0.123176 -0.223701
0.005384 0.123248 -0.223703
0.005386 0.123318 -0.22369
0.005388 0.123387 -0.22366799
0.0053900001 0.123459 -0.22366001
0.0053929999 0.123529 -0.223653
0.0053949999 0.123601 -0.223645
0.0053980001 0.123671 -0.22365101
0.0054009999 0.123743 -0.22365899
0.0054040002 0.123815 -0.223664
0.005407 0.123885 -0.223664
0.005409 0.123957 -0.223654
0.0054120002 0.124027 -0.223645
0.005415 0.124099 -0.223645
0.0054179998 0.124171 -0.223649
0.0054199998 0.124241 -0.223653
0.0054230001 0.124313 -0.22364999
0.0054250001 0.124382 -0.223636
0.0054270001 0.124454 -0.22362
0.0054299999 0.124524 -0.22361299
0.0054330002 0.124596 -0.223619
0.0054359999 0.124668 -0.223619
0.005438 0.124738 -0.22361401
0.0054410002 0.12481 -0.22362
0.005444 0.124882 -0.22362
0.005446 0.124951 -0.22359601
0.0054469998 0.12502 -0.223573
0.0054500001 0.125092 -0.223573
0.0054529998 0.12516201 -0.223573
0.0054549999 0.12523399 -0.223566
0.0054580001 0.125304 -0.22356001
0.0054609999 0.125376 -0.22357
0.0054640002 0.125448 -0.22357
0.0054660002 0.12551799 -0.223561
0.0054680002 0.12559 -0.22354899
0.0054700002 0.125659 -0.223533
0.0054720002 0.12572899 -0.22351401
0.0054739998 0.125799 -0.2235
0.005477 0.12587 -0.22349399
0.005479 0.12594 -0.223491
0.0054819998 0.126012 -0.22348499
0.0054850001 0.126084 -0.223491
0.0054879999 0.12615401 -0.223496
0.0054899999 0.126224 -0.22348
0.0054919999 0.126296 -0.22346599
0.0054950002 0.12636501 -0.22346701
0.0054970002 0.12643699 -0.22346701
0.0055 0.126509 -0.223463
0.005502 0.126579 -0.223455
0.0055049998 0.126651 -0.223446
0.0055069998 0.12672 -0.223428
0.005508 0.12679 -0.2234
0.00551 0.126857 -0.22337499
0.0055120001 0.126929 -0.223363
0.0055140001 0.12699901 -0.223359
0.0055169999 0.12707099 -0.22335801
0.0055189999 0.12714 -0.22334801
0.0055209999 0.12721001 -0.22332799
0.0055240002 0.12728199 -0.223325
0.0055260002 0.127352 -0.22331899
0.005529 0.127424 -0.22331101
0.005531 0.12749299 -0.22330201
0.005533 0.127563 -0.223288
0.0055359998 0.127635 -0.22329
0.0055379998 0.12770499 -0.223287
0.0055399998 0.127774 -0.223263
0.0055419998 0.127846 -0.22324701
0.0055450001 0.12791599 -0.22324701
0.0055479999 0.127988 -0.22324599
0.0055499999 0.128057 -0.223232
0.0055519999 0.12812699 -0.22321799
0.0055539999 0.128197 -0.223203
0.0055559999 0.128269 -0.223193
0.0055579999 0.12833799 -0.22318099
0.0055610002 0.128408 -0.223176
0.0055630002 0.12847801 -0.223166
0.0055650002 0.12854899 -0.22314601
0.0055669998 0.128619 -0.223133
0.0055689998 0.12868901 -0.223125
0.0055720001 0.12876099 -0.22311901
0.0055740001 0.12883 -0.22311001
0.0055760001 0.12890001 -0.22309799
0.0055789999 0.12897199 -0.223096
0.0055809999 0.12904 -0.223083
0.0055829999 0.12911101 -0.22306301
0.0055849999 0.129181 -0.223061
0.0055880002 0.129253 -0.223056
0.0055900002 0.12932301 -0.22304399
0.0055920002 0.129392 -0.22303399
0.0055940002 0.129462 -0.223019
0.005597 0.12953199 -0.22300901
0.0055999998 0.129604 -0.22300901
0.0056030001 0.129676 -0.223013
0.0056050001 0.129746 -0.22300801
0.0056070001 0.129815 -0.22299001
0.0056090001 0.129885 -0.222976
0.0056110001 0.12995499 -0.222965
0.0056139999 0.130027 -0.22296301
0.0056170002 0.130099 -0.222977
0.00562 0.130169 -0.222978
0.005622 0.130238 -0.22296
0.0056250002 0.13031 -0.22295401
0.0056269998 0.13038 -0.222957
0.00563 0.13045201 -0.222955
0.0056329998 0.130522 -0.222949
0.0056349998 0.130594 -0.222939
0.0056380001 0.130666 -0.22294401
0.0056400001 0.13073599 -0.22293
0.0056409999 0.130803 -0.222892
0.0056429999 0.130872 -0.22287899
0.0056469999 0.130945 -0.222895
0.0056500002 0.131019 -0.22291701
0.0056540002 0.131091 -0.22293299
0.0056579998 0.131164 -0.222956
0.0056619998 0.131238 -0.222974
0.0056639998 0.131308 -0.222966
0.0056659998 0.131377 -0.222941
0.0056670001 0.131447 -0.222921
0.0056699999 0.13151699 -0.222923
0.0056739999 0.13159101 -0.222937
0.0056779999 0.13166399 -0.222956
0.0056810002 0.13173801 -0.222976
0.0056850002 0.13181099 -0.22299799
0.005688 0.131882 -0.222994
0.00569 0.131952 -0.222983
0.0056940001 0.13202401 -0.22299901
0.0056980001 0.132099 -0.223019
0.0057000001 0.13216899 -0.223012
0.0057029999 0.132241 -0.22300801
0.0057060001 0.132313 -0.223024
0.0057100002 0.132387 -0.22305
0.005715 0.13246199 -0.223078
0.0057179998 0.13253599 -0.223097
0.005723 0.13261101 -0.223125
0.0057270001 0.132686 -0.223153
0.0057310001 0.13276 -0.22318099
0.0057350001 0.132835 -0.22320899
0.0057399999 0.132909 -0.22324
0.0057430002 0.132984 -0.22325601
0.0057470002 0.133056 -0.223268
0.0057509998 0.13313 -0.223296
0.0057560001 0.13320699 -0.223334
0.0057609999 0.133284 -0.223372
0.0057660001 0.133361 -0.223423
0.005773 0.133443 -0.223499
0.005779 0.133522 -0.223565
0.005785 0.13360099 -0.223617
0.0057899999 0.133679 -0.223671
0.0057959999 0.13375799 -0.22372501
0.005804 0.13384201 -0.22382499
0.0048790001 0.107156 -0.22392499
0.0048810001 0.10723 -0.223906
0.0048830002 0.107302 -0.223892
0.004886 0.107373 -0.223882
0.004888 0.107445 -0.223868
0.00489 0.107517 -0.223851
0.004892 0.10759 -0.22383299
0.004894 0.107662 -0.223823
0.0048969998 0.107732 -0.223828
0.0049000001 0.107804 -0.223818
0.0049009998 0.107877 -0.223784
0.0049020001 0.107948 -0.223758
0.0049060001 0.108021 -0.22376899
0.0049089999 0.108091 -0.22377899
0.0049120001 0.108161 -0.22377899
0.0049149999 0.108233 -0.223784
0.0049180002 0.108303 -0.223786
0.0049200002 0.108375 -0.223776
0.0049220002 0.108446 -0.223764
0.004925 0.108518 -0.22376101
0.004927 0.10859 -0.22375301
0.004929 0.108662 -0.22374099
0.0049319998 0.108731 -0.22373401
0.0049350001 0.108804 -0.22374199
0.0049379999 0.108874 -0.22375201
0.0049410001 0.108944 -0.22375201
0.0049439999 0.109016 -0.223747
0.0049459999 0.109087 -0.223737
0.004948 0.109159 -0.223727
0.0049510002 0.109231 -0.223718
0.0049530002 0.109303 -0.223712
0.004956 0.109373 -0.22371601
0.0049589998 0.109445 -0.22371601
0.0049609998 0.109514 -0.22370499
0.0049629998 0.109588 -0.223693
0.0049660001 0.109658 -0.22368699
0.0049689999 0.10973 -0.22368599
0.0049709999 0.109802 -0.22367799
0.0049729999 0.109871 -0.22367001
0.0049760002 0.109944 -0.223675
0.0049800002 0.110014 -0.223689
0.004983 0.110086 -0.223695
0.0049859998 0.110156 -0.22369701
0.004989 0.110226 -0.22369801
0.0049910001 0.110298 -0.223692
0.0049939998 0.11037 -0.22368801
0.0049959999 0.110442 -0.223685
0.0049990001 0.110512 -0.223689
0.0050019999 0.110582 -0.223693
0.0050050002 0.110653 -0.22368699
0.0050070002 0.110725 -0.22368
0.00501 0.110797 -0.22367799
0.0050130002 0.110867 -0.22367799
0.005016 0.110937 -0.223691
0.00502 0.111008 -0.223709
0.0050229998 0.111078 -0.223717
0.0050249998 0.11115 -0.22370701
0.0050280001 0.111222 -0.223704
0.0050309999 0.111292 -0.22370601
0.0050340001 0.111364 -0.223708
0.0050369999 0.111434 -0.223717
0.0050400002 0.111506 -0.223729
0.005043 0.111576 -0.223731
0.0050459998 0.111646 -0.223736
0.005049 0.111718 -0.223738
0.0050519998 0.111788 -0.223738
0.0050550001 0.11186 -0.22374199
0.0050570001 0.111932 -0.22374301
0.0050599999 0.112002 -0.223745
0.0050639999 0.112072 -0.223759
0.0050670002 0.112144 -0.223766
0.0050690002 0.112216 -0.223764
0.005072 0.112286 -0.223768
0.0050750002 0.112357 -0.223774
0.0050789998 0.112429 -0.22378699
0.005082 0.112499 -0.223791
0.0050849998 0.112571 -0.223793
0.0050869999 0.112641 -0.22379
0.0050900001 0.112713 -0.22378001
0.0050920001 0.112785 -0.22378001
0.0050960002 0.112855 -0.223794
0.0050989999 0.112925 -0.22380701
0.0051020002 0.112997 -0.22380701
0.005105 0.113067 -0.223809
0.0051079998 0.113139 -0.22381601
0.005111 0.113209 -0.223818
0.0051139998 0.113281 -0.22381601
0.0051170001 0.113353 -0.22382399
0.0051199999 0.113423 -0.22382499
0.0051219999 0.113495 -0.223809
0.0051250001 0.113565 -0.223819
0.0051290002 0.113638 -0.22384401
0.0051310002 0.113707 -0.223838
0.0051330002 0.113779 -0.22382399
0.005136 0.113851 -0.223819
0.005138 0.113921 -0.223813
0.005142 0.113993 -0.22382499
0.0051449998 0.114063 -0.22383501
0.0051480001 0.114133 -0.22383399
0.0051509999 0.114205 -0.22383399
0.0051529999 0.114277 -0.223836
0.0051560001 0.114347 -0.223841
0.0051589999 0.114419 -0.22384501
0.0051620002 0.114489 -0.22384299
0.0051640002 0.114561 -0.223829
0.0051660002 0.114632 -0.22381601
0.005169 0.114704 -0.22381601
0.0051719998 0.114775 -0.22382601
0.0051759998 0.114845 -0.223841
0.0051790001 0.114917 -0.223841
0.0051810001 0.114989 -0.223831
0.0051839999 0.115059 -0.223839
0.0051879999 0.115131 -0.22385401
0.0051899999 0.115201 -0.22385199
0.0051930002 0.115273 -0.22385
0.005196 0.115343 -0.223851
0.005198 0.115415 -0.223837
0.0052 0.115486 -0.223813
0.005202 0.115558 -0.22380599
0.0052060001 0.115628 -0.22383
0.0052100001 0.115699 -0.223846
0.0052120001 0.11577 -0.223842
0.0052149999 0.115842 -0.223837
0.0052169999 0.115912 -0.22383501
0.0052200002 0.115984 -0.22382499
0.0052220002 0.116056 -0.22382399
0.005225 0.116126 -0.223828
0.0052280002 0.116198 -0.22382601
0.005231 0.116268 -0.223822
0.005233 0.11634 -0.223819
0.0052359998 0.11641 -0.223827
0.0052399999 0.116482 -0.223839
0.0052430001 0.116552 -0.22384401
0.0052450001 0.116624 -0.223842
0.0052479999 0.116696 -0.223836
0.0052510002 0.116766 -0.22384
0.005254 0.116838 -0.223841
0.005256 0.116907 -0.223823
0.005258 0.116979 -0.223803
0.0052609998 0.117051 -0.22380801
0.005264 0.117121 -0.223822
0.0052669998 0.117193 -0.22382
0.0052700001 0.117263 -0.223823
0.0052729999 0.117336 -0.223841
0.0052760001 0.117408 -0.22384299
0.0052780001 0.117477 -0.223831
0.0052809999 0.117549 -0.22382399
0.0052829999 0.117619 -0.223822
0.0052860002 0.117691 -0.22381601
0.005289 0.117763 -0.223811
0.0052919998 0.117833 -0.223819
0.005295 0.117905 -0.223823
0.0052970001 0.117975 -0.22381701
0.0052999998 0.118047 -0.22382
0.0053030001 0.118119 -0.22382399
0.0053059999 0.118189 -0.223818
0.0053079999 0.118261 -0.22381701
0.0053110002 0.118331 -0.223821
0.005314 0.118403 -0.223819
0.005316 0.118474 -0.22380701
0.0053190002 0.118544 -0.22380599
0.005322 0.118616 -0.22381
0.0053249998 0.118686 -0.223812
0.0053269998 0.118758 -0.223805
0.0053289998 0.11883 -0.223793
0.0053320001 0.1189 -0.223793
0.0053349999 0.118972 -0.223796
0.0053369999 0.119042 -0.223784
0.0053400001 0.119113 -0.22377799
0.0053429999 0.119184 -0.22379
0.0053460002 0.119256 -0.22379901
0.005349 0.119328 -0.223791
0.0053519998 0.119398 -0.223793
0.005355 0.11947 -0.223796
0.005357 0.119539 -0.223784
0.0053590001 0.119611 -0.223782
0.0053619999 0.119683 -0.223784
0.0053639999 0.119753 -0.22376101
0.0053659999 0.119822 -0.22374099
0.0053690001 0.119894 -0.22374301
0.0053719999 0.119967 -0.22376201
0.005376 0.120039 -0.22377799
0.0053790002 0.120109 -0.22378001
0.005382 0.120181 -0.22377799
0.005384 0.120251 -0.223781
0.0053869998 0.120323 -0.223781
0.0053900001 0.120395 -0.22377101
0.0053920001 0.120465 -0.223768
0.0053949999 0.120534 -0.22376201
0.0053969999 0.120606 -0.223748
0.0053989999 0.120678 -0.223747
0.0054020002 0.120748 -0.223749
0.0054049999 0.12082 -0.223745
0.0054080002 0.12089 -0.223749
0.005411 0.120962 -0.223756
0.0054139998 0.121034 -0.22375201
0.0054159998 0.121106 -0.22375
0.0054190001 0.121176 -0.223755
0.0054219998 0.121248 -0.223759
0.0054250001 0.121318 -0.223749
0.0054270001 0.121389 -0.22373299
0.0054290001 0.121459 -0.22373401
0.0054330002 0.121532 -0.223744
0.0054359999 0.121602 -0.223748
0.005438 0.121673 -0.22374099
0.00544 0.121745 -0.223727
0.0054429998 0.121815 -0.223719
0.0054449998 0.121887 -0.22371399
0.0054469998 0.121957 -0.22370601
0.0054500001 0.122028 -0.22369801
0.0054529998 0.122098 -0.22369599
0.0054549999 0.12217 -0.223699
0.0054580001 0.122242 -0.223693
0.0054600001 0.122312 -0.22367699
0.0054629999 0.122384 -0.223676
0.0054660002 0.122454 -0.223694
0.0054700002 0.122526 -0.223708
0.0054720002 0.122598 -0.2237
0.005475 0.122668 -0.22369701
0.0054779998 0.12274 -0.22370701
0.0054810001 0.122812 -0.22370499
0.0054830001 0.122882 -0.22369801
0.0054859999 0.122954 -0.2237
0.0054890001 0.123026 -0.22371
0.0054919999 0.123096 -0.22369701
0.0054930001 0.123165 -0.223673
0.0054959999 0.123237 -0.223683
0.0055 0.12331 -0.223699
0.005502 0.123379 -0.22368801
0.0055030002 0.123451 -0.223654
0.005506 0.12352 -0.223648
0.0055089998 0.123593 -0.223665
0.0055129998 0.123665 -0.223671
0.0055149999 0.123735 -0.223657
0.0055169999 0.123806 -0.223644
0.0055189999 0.123876 -0.22363999
0.0055229999 0.123948 -0.22365201
0.0055260002 0.124021 -0.223662
0.005529 0.12409 -0.22365899
0.005531 0.124162 -0.223647
0.005533 0.124232 -0.223635
0.0055359998 0.124304 -0.22363
0.0055379998 0.124374 -0.223628
0.005541 0.124446 -0.22362401
0.0055430001 0.124515 -0.223618
0.0055459999 0.124587 -0.223611
0.0055479999 0.124657 -0.223601
0.0055510001 0.124729 -0.22359701
0.0055530001 0.124799 -0.22359399
0.0055559999 0.12487 -0.223584
0.0055579999 0.124942 -0.22358599
0.005562 0.12501501 -0.223599
0.005564 0.125085 -0.22359499
0.005566 0.125154 -0.223579
0.005568 0.12522601 -0.223561
0.00557 0.125295 -0.223546
0.0055740001 0.125368 -0.223554
0.0055760001 0.12543701 -0.223552
0.0055780001 0.12550899 -0.22353899
0.0055800001 0.125579 -0.22352301
0.0055820001 0.12564801 -0.223499
0.0055849999 0.12571999 -0.223496
0.0055880002 0.125792 -0.223508
0.0055900002 0.125862 -0.2235
0.005593 0.125934 -0.223497
0.005595 0.126004 -0.223491
0.0055979998 0.126076 -0.223479
0.0055999998 0.12614501 -0.223479
0.0056030001 0.126215 -0.22347599
0.0056059998 0.126287 -0.22347
0.0056079999 0.126359 -0.22346599
0.0056099999 0.12642901 -0.223455
0.0056130001 0.126499 -0.223445
0.0056150001 0.12657 -0.223435
0.0056170002 0.12664001 -0.223428
0.00562 0.12671 -0.223418
0.005622 0.126782 -0.223406
0.005624 0.12685101 -0.223387
0.0056250002 0.126921 -0.22336499
0.005628 0.12699001 -0.223355
0.00563 0.12706199 -0.22335801
0.0056329998 0.127134 -0.22336
0.0056360001 0.127204 -0.22335
0.0056380001 0.12727401 -0.223334
0.0056400001 0.127343 -0.223323
0.0056420001 0.127415 -0.223317
0.0056449999 0.127487 -0.223315
0.0056469999 0.12755699 -0.223308
0.0056489999 0.127627 -0.22329199
0.0056520002 0.12769599 -0.223278
0.0056540002 0.127766 -0.22326501
0.0056560002 0.127838 -0.22325499
0.0056579998 0.12790699 -0.22324701
0.0056599998 0.127977 -0.223234
0.005663 0.128049 -0.223224
0.0056659998 0.12811901 -0.22322799
0.0056679999 0.12819099 -0.223217
0.0056699999 0.12826 -0.223197
0.0056719999 0.12833001 -0.223187
0.0056739999 0.12840199 -0.223178
0.0056759999 0.128471 -0.22316401
0.0056779999 0.12854099 -0.22315
0.0056810002 0.128611 -0.223143
0.0056830002 0.128681 -0.22313701
0.005686 0.12875199 -0.22312699
0.005688 0.128822 -0.223113
0.00569 0.128892 -0.22310001
0.005692 0.12896401 -0.223094
0.0056949998 0.129033 -0.223088
0.0056969998 0.129103 -0.223079
0.0057000001 0.12917501 -0.223075
0.0057020001 0.129245 -0.223065
0.0057040001 0.129315 -0.22305401
0.0057069999 0.12938599 -0.22305
0.0057089999 0.129456 -0.223046
0.0057109999 0.129526 -0.223033
0.0057140002 0.12959801 -0.223021
0.0057160002 0.129667 -0.223013
0.0057179998 0.129737 -0.22300801
0.005721 0.12980901 -0.223012
0.0057239998 0.129879 -0.22301
0.0057259998 0.129951 -0.223
0.0057290001 0.13002101 -0.223001
0.0057319999 0.130091 -0.222993
0.0057330001 0.13016 -0.22297101
0.0057359999 0.13023201 -0.222966
0.0057390002 0.13030399 -0.22296999
0.005742 0.130374 -0.22296999
0.005744 0.130446 -0.22297101
0.0057470002 0.13051599 -0.222967
0.0057489998 0.130586 -0.22295301
0.005752 0.130658 -0.222948
0.0057549998 0.13073 -0.22296201
0.0057580001 0.13080201 -0.22296999
0.0057609999 0.13087399 -0.222966
0.0057629999 0.130944 -0.222957
0.0057660001 0.131016 -0.222965
0.0057700002 0.131088 -0.222983
0.0057740002 0.131162 -0.223001
0.005777 0.131235 -0.22301
0.0057799998 0.13130701 -0.22301599
0.0057839998 0.13137899 -0.22303
0.0057870001 0.131451 -0.22304
0.0057899999 0.131521 -0.223039
0.0057919999 0.131593 -0.223031
0.0057939999 0.13166299 -0.223015
0.0057959999 0.131732 -0.222996
0.0057979999 0.13180199 -0.22299001
0.0058019999 0.131874 -0.223
0.0058050002 0.13194799 -0.22301599
0.0058090002 0.132021 -0.223037
0.0058129998 0.13209499 -0.223049
0.005816 0.132167 -0.22306301
0.0058189998 0.13224 -0.22307301
0.0058229999 0.132312 -0.223088
0.0058269999 0.132386 -0.223106
0.0058300002 0.132461 -0.223122
0.0058340002 0.132533 -0.223132
0.005837 0.132605 -0.223149
0.005841 0.13268 -0.22317301
0.0058459998 0.132754 -0.22320101
0.0058499998 0.132829 -0.22322901
0.0058539999 0.13290299 -0.22325701
0.0058579999 0.13297801 -0.22327401
0.0058619999 0.13305201 -0.22330201
0.0058670002 0.133127 -0.22333799
0.005872 0.13320599 -0.22338
0.0058769998 0.133283 -0.223426
0.0058820001 0.13336 -0.22347
0.0058880001 0.133439 -0.223534
0.005895 0.13351899 -0.22360399
0.0059000002 0.133598 -0.22366001
0.0059059998 0.13367701 -0.223722
0.0050130002 0.107218 -0.223891
0.0050149998 0.107292 -0.223867
0.0050169998 0.107363 -0.223849
0.0050189998 0.107435 -0.223836
0.0050209998 0.107506 -0.223818
0.0050229998 0.10758 -0.223796
0.0050249998 0.107652 -0.223782
0.0050280001 0.107722 -0.22378901
0.0050309999 0.107794 -0.223795
0.0050340001 0.107864 -0.223793
0.0050360002 0.107935 -0.223776
0.0050380002 0.108009 -0.22375201
0.0050400002 0.10808 -0.223736
0.0050420002 0.108152 -0.223736
0.0050459998 0.108223 -0.223747
0.005049 0.108293 -0.223759
0.005051 0.108365 -0.22375099
0.0050539998 0.108436 -0.223738
0.0050559998 0.108508 -0.22372399
0.0050590001 0.108578 -0.22372399
0.0050619999 0.108648 -0.223747
0.0050650002 0.108718 -0.22375099
0.0050670002 0.108792 -0.223727
0.0050690002 0.108863 -0.223701
0.0050710002 0.108935 -0.22368599
0.0050730002 0.109007 -0.223684
0.005076 0.109077 -0.22369
0.00508 0.109149 -0.22369701
0.005082 0.109219 -0.223699
0.0050840001 0.109291 -0.22367901
0.0050860001 0.109364 -0.22365101
0.0050880001 0.109436 -0.223648
0.0050920001 0.109506 -0.22366001
0.0050949999 0.109576 -0.22366799
0.0050969999 0.109648 -0.223663
0.0051000002 0.10972 -0.223649
0.0051020002 0.10979 -0.223645
0.005105 0.109861 -0.223645
0.0051079998 0.109932 -0.223648
0.005111 0.110004 -0.22364999
0.0051130001 0.110075 -0.223646
0.0051159998 0.110145 -0.223643
0.0051190001 0.110217 -0.223639
0.0051210001 0.110289 -0.223637
0.0051239999 0.110359 -0.22364201
0.0051270002 0.110429 -0.22365201
0.0051299999 0.110501 -0.223654
0.0051330002 0.110571 -0.223644
0.0051350002 0.110643 -0.223645
0.005138 0.110715 -0.223639
0.00514 0.110787 -0.223629
0.0051429998 0.110857 -0.223636
0.0051469998 0.110927 -0.223646
0.0051500001 0.110999 -0.22365201
0.0051520001 0.111069 -0.22364999
0.0051549999 0.111141 -0.223639
0.0051580002 0.111211 -0.223645
0.0051620002 0.111281 -0.223667
