0.0808438 -0.177445 0.980805 0.00674787
0.0810683 -0.179258 0.980456 0.0109596
0.0812219 -0.171197 0.981883 0.0177136
0.0857674 -0.188545 0.978312 0.0104469
0.0912355 -0.202644 0.974993 0.00610811
0.099126 -0.209963 0.972671 0.00544762
-0.101961 -0.121863 0.987296 0.0185441
-0.100639 -0.120578 0.987589 0.0190251
-0.0987857 -0.127566 0.986898 0.017605
-0.0966894 -0.128288 0.987012 0.0133431
-0.0939221 -0.124636 0.987747 0.0161956
-0.0900413 -0.116338 0.98912 0.0137708
-0.0868238 -0.114099 0.989668 0.0151578
-0.0789834 -0.115983 0.990106 0.011545
-0.0719847 -0.0948959 0.992881 0.010354
-0.0688314 -0.0896737 0.99359 0.0114391
-0.066752 -0.0857448 0.994078 0.0153303
-0.0647688 -0.0829796 0.994444 0.0145667
0.00473964 -0.0708481 0.997476 0.0116476
0.0625676 -0.143609 0.987655 0.0129767
0.0648473 -0.143699 0.987494 0.0119368
0.0819526 -0.183169 0.97966 0.00946676
0.0852397 -0.187802 0.978501 0.00315696
0.0958179 -0.205391 0.973978 0.00581108
-0.113035 -0.144648 0.983006 0.0203178
-0.103858 -0.137381 0.985058 0.0106021
-0.10202 -0.129041 0.986377 0.0141575
-0.100617 -0.123948 0.987174 0.0167902
-0.0979999 -0.114666 0.988558 0.0145815
-0.100139 -0.118031 0.987948 0.0215646
-0.0967198 -0.111667 0.989028 0.0164317
-0.0944088 -0.113507 0.989042 0.0177639
-0.0923113 -0.115573 0.989 0.0154875
-0.0898502 -0.113636 0.989451 0.0137923
-0.0891093 -0.107422 0.990212 0.0218359
-0.0835636 -0.0973042 0.99174 0.0182446
-0.076423 -0.0970775 0.992338 0.0192686
-0.0716934 -0.0883622 0.993505 0.0162444
-0.0665923 -0.0832563 0.994301 0.0127356
-0.0638258 -0.0738597 0.995224 0.017484
-0.0623392 -0.0712934 0.995505 0.0167429
0.090756 -0.197043 0.976185 0.0065587
0.0997954 -0.205494 0.973557 0.0114607
-0.119584 -0.141973 0.982621 0.0134444
-0.116881 -0.141797 0.982971 0.0170838
-0.115875 -0.141575 0.983122 0.0170534
-0.109123 -0.135224 0.984788 0.0166047
-0.101334 -0.129602 0.986374 0.0120923
-0.0988893 -0.120302 0.9878 0.0162622
-0.0982426 -0.116475 0.988323 0.0208945
-0.0945879 -0.110384 0.989378 0.0130286
-0.0936428 -0.105195 0.990033 0.0161064
-0.0923272 -0.0997889 0.990716 0.0190394
-0.0894057 -0.101768 0.990782 0.0166988
-0.0878583 -0.102768 0.990818 0.0126029
-0.0870334 -0.101373 0.991034 0.0142297
-0.0852157 -0.0996572 0.991366 0.0165822
-0.0813481 -0.0909149 0.992531 0.0212674
-0.0749446 -0.0871702 0.99337 0.0168343
-0.0697982 -0.0801766 0.994334 0.0159775
-0.0650208 -0.0737511 0.995155 0.0173282
-0.0625417 -0.0700451 0.995581 0.0187126
0.0872822 -0.187608 0.978358 0.0089448
0.0970552 -0.188069 0.977349 0.0141841
-0.122189 -0.138532 0.982791 0.0188055
-0.11839 -0.137896 0.983346 0.0136254
-0.110678 -0.130012 0.985316 0.0121625
-0.108988 -0.130184 0.985482 0.00985696
-0.104345 -0.129321 0.986097 0.0104433
-0.099439 -0.117563 0.988074 0.0200808
-0.0955008 -0.110241 0.989306 0.02067
-0.0950505 -0.106142 0.989798 0.0246118
-0.0905975 -0.0949274 0.991353 0.0210119
-0.0887462 -0.0868406 0.992261 0.0221676
-0.0876382 -0.0865286 0.992387 0.0157255
-0.0852301 -0.0868806 0.992566 0.0178416
-0.0855206 -0.0929651 0.99199 0.0159272
-0.0831373 -0.0832249 0.993057 0.0169022
-0.0821212 -0.087661 0.99276 0.0190242
-0.0782975 -0.0811086 0.993625 0.0189246
-0.0729984 -0.0697014 0.994893 0.0246869
-0.070325 -0.0709275 0.994999 0.0235031
-0.0660102 -0.0652624 0.995682 0.0185678
-0.0614785 -0.0667739 0.995872 0.0143556
0.0927455 -0.182659 0.978792 0.0127925
0.109096 -0.20299 0.973084 0.00626097
0.114617 -0.20603 0.97181 0
0.122652 -0.216486 0.968551 0.00458994
0.131802 -0.224752 0.965461 0.0146215
-0.118704 -0.130502 0.984316 0.0182013
-0.114527 -0.128212 0.985112 0.0167941
-0.108832 -0.121551 0.986601 0.0156314
-0.107767 -0.125097 0.986274 0.0141166
-0.102702 -0.119075 0.987559 0.016226
-0.0941176 -0.110556 0.989403 0.0110046
-0.0924981 -0.102488 0.990424 0.0211039
-0.0890354 -0.0942562 0.991559 0.0194735
-0.0869298 -0.0895744 0.992179 0.0184369
-0.0860479 -0.082669 0.992855 0.020912
-0.0847373 -0.0789561 0.99327 0.0180742
-0.0825768 -0.076744 0.993625 0.0177841
-0.0825227 -0.0767092 0.993633 0.0194853
-0.0803695 -0.0700341 0.994302 0.0212836
-0.0775676 -0.0669485 0.994737 0.0217738
-0.0756564 -0.0723195 0.994508 0.0197591
-0.0696403 -0.0615553 0.995671 0.0212392
-0.0676921 -0.0588712 0.995968 0.020802
-0.0641248 -0.0555747 0.996393 0.018298
0.088715 -0.174053 0.980732 0.00452425
0.103675 -0.194227 0.975463 0.00585938
0.111763 -0.196902 0.974032 0.0100503
0.117159 -0.209175 0.970834 0.00548571
0.125667 -0.213912 0.968736 0.0122887
0.130021 -0.214143 0.96811 0.0146114
-0.122438 -0.123347 0.984781 0.0175608
-0.116134 -0.122588 0.985639 0.0213418
-0.111216 -0.118422 0.986715 0.019987
-0.106981 -0.114625 0.987632 0.020859
-0.0865153 -0.0863017 0.992505 0.020299
-0.0836572 -0.0836533 0.992977 0.0158099
-0.0836138 -0.0804556 0.993245 0.0179803
-0.0828665 -0.0742529 0.993791 0.0203585
-0.0819126 -0.0705837 0.994137 0.0205586
-0.0778208 -0.0618025 0.99505 0.020226
-0.0777545 -0.0629861 0.994981 0.0218681
-0.0740003 -0.0611507 0.995382 0.0196821
-0.0718792 -0.0572189 0.995771 0.0235944
-0.068267 -0.0498468 0.996421 0.0240143
-0.0655301 -0.0506363 0.996565 0.0213093
-0.062233 -0.0472998 0.99694 0.0190211
0.08497 -0.16754 0.982197 0.00434124
0.095858 -0.181817 0.978649 0.00352627
0.107933 -0.197457 0.974352 0.00338798
0.112574 -0.195676 0.974186 0.0108372
0.117751 -0.197257 0.973255 0.0132801
0.122974 -0.2049 0.971027 0.0151573
0.129414 -0.217731 0.967391 0.0122103
0.128781 -0.215822 0.967903 0.00402834
-0.116372 -0.111772 0.986896 0.0162224
-0.108378 -0.107766 0.988251 0.0224969
-0.10302 -0.106056 0.989009 0.019175
-0.0839085 -0.0763297 0.993546 0.0229389
-0.0820447 -0.0802692 0.993391 0.0186492
-0.0795678 -0.0708188 0.994311 0.0167655
-0.078359 -0.0676549 0.994627 0.0138241
-0.0796184 -0.0659664 0.99464 0.0165823
-0.0774118 -0.0604335 0.995166 0.0213687
-0.0712053 -0.0500346 0.996206 0.0189155
-0.0693305 -0.049946 0.996343 0.0215464
-0.0651092 -0.0433722 0.996935 0.0215659
0.0861037 -0.167266 0.982145 0.00725733
0.112595 -0.190638 0.975182 0.0126356
0.117988 -0.199865 0.972694 0.0151602
0.121487 -0.208534 0.97044 0.0100291
0.123509 -0.209817 0.969908 0.00184293
0.125729 -0.205983 0.970445 0.006367
-0.112052 -0.110786 0.987507 0.00811143
-0.104238 -0.101238 0.989386 0.0149339
-0.0819049 -0.0712486 0.99409 0.0249831
-0.0781538 -0.0714994 0.994374 0.0195824
-0.0771733 -0.0687979 0.994641 0.0138878
-0.0756809 -0.0636012 0.995102 0.0117013
-0.0725954 -0.0555557 0.995813 0.0153017
-0.0695021 -0.0513115 0.996261 0.0150394
-0.0663851 -0.0440949 0.996819 0.0204283
-0.0623668 -0.0362916 0.997393 0.0209508
0.112773 -0.194737 0.974351 0.00838764
0.115687 -0.20051 0.972837 0.00443961
0.121037 -0.204446 0.971366 0.00293896
0.125325 -0.209595 0.969724 0.00155634
-0.121345 -0.123983 0.984837 0.00603876
-0.109417 -0.110936 0.987786 0.00727682
-0.10251 -0.100481 0.989644 0.0116851
-0.0771044 -0.0617879 0.995107 0.0264923
0.113205 -0.193939 0.97446 0.000669991
0.124555 -0.198123 0.972231 0.0104348
0.135425 -0.20751 0.968813 0.0163978
0.146068 -0.217513 0.965066 0.0142863
0.157548 -0.227031 0.96106 0.0142321
0.163626 -0.231272 0.959031 0.0136025
0.172287 -0.234366 0.95676 0.0138638
-0.138126 -0.133243 0.981411 0.00399342
-0.135401 -0.135706 0.981453 0.00652259
-0.127158 -0.12351 0.984163 0.00764723
-0.122718 -0.118426 0.985351 0.0105152
-0.118332 -0.118908 0.985829 0.00625698
-0.112285 -0.110562 0.987506 0.00538043
-0.104291 -0.103231 0.989175 0.00632339
-0.100994 -0.101048 0.989742 0.00830472
-0.0769301 -0.0635562 0.995009 0.0203678
-0.0722347 -0.0601203 0.995574 0.0200258
0.107243 -0.182808 0.977282 0.00567651
0.115582 -0.189265 0.9751 0.00670938
0.125729 -0.196696 0.97237 0.0118956
0.141346 -0.206899 0.968098 0.0157909
0.15336 -0.219179 0.963557 0.0159161
0.158858 -0.223408 0.961693 0.0124792
0.171252 -0.228972 0.958251 0.0173665
0.175998 -0.235985 0.955686 0.0103216
-0.141428 -0.124115 0.982137 0.00356161
-0.134952 -0.122212 0.983286 0.00397387
-0.13115 -0.124149 0.983558 0.00878761
-0.126194 -0.120138 0.984704 0.0115039
-0.119205 -0.114554 0.986239 0.008926
-0.11572 -0.114855 0.986619 0.00473088
-0.109251 -0.106457 0.988297 0.00649744
-0.10214 -0.0999419 0.989737 0.0082669
-0.0740018 -0.0606841 0.99541 0.0176552
-0.0704113 -0.0593844 0.995749 0.0141162
-0.0702915 -0.0599292 0.995725 0.0151031
0.113488 -0.175992 0.977828 0.0133053
0.118953 -0.179195 0.976596 0.0204953
0.137227 -0.20017 0.970104 0.0199215
0.158438 -0.219121 0.962748 0.0185114
0.168501 -0.227093 0.959185 0.0206168
0.176201 -0.231617 0.956717 0.0187623
-0.136849 -0.111866 0.984255 0.00162408
-0.133187 -0.113255 0.984599 0.0064614
-0.126269 -0.114185 0.985403 0.0105019
-0.120722 -0.1095 0.986629 0.011248
-0.115949 -0.103926 0.987803 0.0151145
-0.111596 -0.103415 0.988358 0.0078951
-0.107128 -0.0996262 0.989241 0.0132738
-0.0995184 -0.0949033 0.9905 0.0138126
-0.0728933 -0.058386 0.995629 0.0213467
-0.0690043 -0.0564972 0.996015 0.0157837
0.175655 -0.224911 0.958416 0.0242153
0.186463 -0.232402 0.954579 0.0204687
-0.13873 -0.103094 0.98495 0.00471829
-0.134864 -0.102001 0.9856 0.0069773
-0.128878 -0.107457 0.985821 0.00371856
-0.121103 -0.100591 0.98753 0.0080124
-0.116109 -0.100464 0.988143 0.0116396
-0.111197 -0.0956584 0.989184 0.0130367
-0.107633 -0.0952255 0.98962 0.00976069
-0.104353 -0.0958732 0.989909 0.0127394
-0.094519 -0.088094 0.991618 0.0120802
-0.0868601 -0.0777429 0.993182 0.010722
-0.0848659 -0.0769074 0.99342 0.00974652
-0.0687006 -0.0526679 0.996246 0.0201719
-0.0459984 -0.00349334 0.998935 0.0155947
0.180294 -0.224791 0.957582 0.0179358
-0.141482 -0.102011 0.984671 5.76523e-05
-0.138184 -0.102735 0.985064 0.00013638
-0.133354 -0.0981176 0.9862 0.00741852
-0.127276 -0.101965 0.986612 0.00441831
-0.119224 -0.100288 0.987789 0.00552365
-0.112158 -0.0926623 0.989361 0.00797593
-0.108591 -0.0905188 0.989957 0.0160076
-0.104434 -0.0884432 0.990591 0.0106738
-0.100229 -0.084862 0.991339 0.0137007
-0.0910643 -0.0810015 0.992545 0.0125781
-0.0843702 -0.0759357 0.993537 0.0093609
-0.082696 -0.072016 0.993969 0.0112883
-0.079672 -0.0683475 0.994475 0.0144571
-0.0670567 -0.0518101 0.996403 0.0189347
-0.0445994 -0.00329327 0.999 0.0117614
-0.0413478 0.007164 0.999119 0.0109378
-0.0402269 0.00902802 0.99915 0.00795954
0.171832 -0.21375 0.961657 0.011512
0.189622 -0.228334 0.954938 0.0273362
-0.140506 -0.0986027 0.985158 0.00355089
-0.13582 -0.0960087 0.986071 0.00555501
-0.129235 -0.0914214 0.987391 0.00389275
-0.123446 -0.0915825 0.988116 0.00571661
-0.117156 -0.0895557 0.989067 0.00587869
-0.112744 -0.0895229 0.989583 0.00857865
-0.103675 -0.0782142 0.991531 0.0154146
-0.100179 -0.0765107 0.992023 0.0147048
-0.0956721 -0.0764447 0.992473 0.0146349
-0.0878531 -0.0729978 0.993455 0.0155807
-0.0814476 -0.068181 0.994343 0.0129747
-0.0794439 -0.0673023 0.994565 0.00918046
-0.0578247 -0.0305725 0.997858 0.0142639
-0.040806 0.00392559 0.999159 0.011422
-0.0405766 0.00361922 0.99917 0.00865773
-0.0396067 0.00652858 0.999194 0.00847306
-0.0389309 0.0121843 0.999168 0.00773485
0.17945 -0.218764 0.959135 0.0139808
-0.134425 -0.0852425 0.98725 0.0045396
-0.130301 -0.085147 0.987812 0.00402041
-0.126977 -0.0875705 0.988033 0.00366104
-0.120447 -0.0843695 0.989128 0.00216998
-0.115212 -0.0830545 0.989863 0.00360555
-0.109358 -0.0828077 0.990547 0.00774065
-0.100964 -0.0749604 0.992062 0.0141036
-0.0961266 -0.0702708 0.992885 0.0135279
-0.091781 -0.0685105 0.99342 0.0144472
-0.0841479 -0.0675978 0.994158 0.012557
-0.0772355 -0.0595906 0.99523 0.0115546
-0.0765786 -0.0603033 0.995238 0.00979076
-0.0709966 -0.0523461 0.996102 0.0131101
-0.0590762 -0.0394161 0.997475 0.0164678
-0.0546529 -0.0335111 0.997943 0.0116739
-0.0543569 -0.0285413 0.998114 0.0115858
-0.0545848 -0.0277311 0.998124 0.0107552
-0.0514007 -0.0241766 0.998385 0.00934364
-0.0480265 -0.0170698 0.9987 0.0117193
-0.0365006 0.0106333 0.999277 0.00864327
-0.0383725 0.012716 0.999183 0.0113172
-0.0372337 0.012529 0.999228 0.00577643
-0.0360427 0.0166096 0.999212 0.00588912
-0.0366157 0.0163295 0.999196 0.00645071
-0.0347307 0.02551 0.999071 0.00429232
-0.0335952 0.0343488 0.998845 0.00845982
0.175164 -0.212052 0.961432 0.0115372
-0.133634 -0.0837481 0.987486 0.00561894
-0.126793 -0.0810551 0.988612 0.0026994
-0.12203 -0.0779395 0.989461 0.00388186
-0.118519 -0.0773612 0.989934 0.00706512
-0.112698 -0.0762745 0.990697 0.00579541
-0.105898 -0.0734291 0.991662 0.00821619
-0.0984804 -0.0689574 0.992747 0.0102589
-0.0937087 -0.0669471 0.993346 0.00953573
-0.0887854 -0.0611402 0.994173 0.0143059
-0.0814736 -0.0585516 0.994954 0.0118208
-0.0795796 -0.0556743 0.995273 0.00795077
-0.0743042 -0.0538372 0.995781 0.00995585
-0.0739744 -0.0532518 0.995837 0.0114234
-0.0531502 -0.0353164 0.997962 0.00535076
-0.0532216 -0.0334499 0.998022 0.0098213
-0.0520191 -0.0304261 0.998182 0.0075711
-0.0525563 -0.0263585 0.99827 0.00923868
-0.0515489 -0.0245199 0.998369 0.00901056
-0.0479014 -0.0199823 0.998652 0.00852108
-0.0445511 -0.0130005 0.998923 0.00837107
-0.0413554 -0.00785901 0.999114 0.00947642
-0.0393555 -0.00510239 0.999212 0.00739278
-0.035528 0.0130067 0.999284 0.0117478
-0.0339372 0.0167634 0.999283 0.00795468
-0.0337704 0.0206366 0.999216 0.0070288
-0.0334934 0.0252348 0.99912 0.00844974
-0.0330221 0.0272186 0.999084 0.00666364
-0.0332147 0.0301918 0.998992 0.0030606
-0.032273 0.0319931 0.998967 0.00132563
-0.0319035 0.0380895 0.998765 0.00398726
-0.034011 0.0441375 0.998446 0.00974364
-0.0344531 0.0432685 0.998469 0.00798204
0.172339 -0.207071 0.963027 0.0105487
0.182335 -0.21362 0.95975 0.0136285
0.185283 -0.217185 0.958385 0.00988627
-0.129064 -0.080302 0.988379 0.00479415
-0.124405 -0.0768324 0.989252 0.00659528
-0.118409 -0.0710574 0.990419 0.00444563
-0.113546 -0.0714137 0.990963 0.0034449
-0.109055 -0.0686272 0.991664 0.00727809
-0.10232 -0.0666041 0.992519 0.00642225
-0.0960543 -0.0628796 0.993388 0.00980976
-0.0898224 -0.0606296 0.994111 0.0079229
-0.0854961 -0.0587992 0.994602 0.00834955
-0.0783173 -0.0529998 0.995519 0.00763118
-0.0715345 -0.0479338 0.996286 0.00636834
-0.0687948 -0.046452 0.996549 0.00244226
-0.0619476 -0.0427751 0.997162 0.00145693
-0.0517361 -0.0318253 0.998154 0.0066153
-0.0514509 -0.0312571 0.998186 0.00787497
-0.0492728 -0.0259203 0.998449 0.00429568
-0.0496584 -0.023379 0.998493 0.00705476
-0.0470556 -0.0197208 0.998698 0.0062492
-0.0440698 -0.0137517 0.998934 0.00569731
-0.0406266 -0.00719393 0.999148 0.00779273
-0.0367507 -0.000282186 0.999324 0.0099843
-0.0348667 0.0082328 0.999358 0.00902095
-0.0320875 0.0143683 0.999382 0.0113303
-0.0315151 0.0174919 0.99935 0.00919714
-0.031051 0.0239196 0.999232 0.00889686
-0.0299902 0.0251596 0.999234 0.00626975
-0.0297712 0.0310229 0.999075 0.0053183
-0.0296623 0.0345051 0.998964 0.00377779
-0.0297552 0.0372944 0.998861 0.00445074
-0.0298729 0.0367529 0.998878 5.43432e-05
-0.0302126 0.0421208 0.998656 0.00389173
-0.0303363 0.0441454 0.998564 0.00318764
-0.0312858 0.0496453 0.998277 0.00865673
-0.0316453 0.051905 0.99815 0.00880878
-0.0326597 0.052046 0.998111 0.0102192
-0.0336216 0.0539354 0.997978 0.01113
-0.0344196 0.0500077 0.998156 0.0118438
-0.0347584 0.0495575 0.998166 0.00708344
0.169511 -0.198825 0.965264 0.0172102
0.176377 -0.204088 0.962933 0.0166636
0.184787 -0.210056 0.960068 0.0155702
0.193122 -0.21408 0.957535 0.0164
0.197999 -0.217716 0.955718 0.0161264
-0.128956 -0.0756194 0.988763 0.00847751
-0.121095 -0.0698258 0.990182 0.00977198
-0.116837 -0.0709001 0.990617 0.00656659
-0.111699 -0.0659416 0.991552 0.00531157
-0.107495 -0.0662629 0.991995 0.00641101
-0.100937 -0.0613105 0.993002 0.0079835
-0.0922763 -0.0531848 0.994312 0.00928703
-0.0870999 -0.0563969 0.994602 0.00457793
-0.0814911 -0.0513131 0.995352 0.00685566
-0.075398 -0.0514815 0.995824 0.002657
-0.0688497 -0.0456301 0.996583 0.00408294
-0.0664496 -0.0419837 0.996906 0.00345757
-0.0613126 -0.0366739 0.997445 0.00165738
-0.0547696 -0.0317666 0.997994 0.00527894
-0.0490252 -0.0277418 0.998412 0.00302113
-0.0463997 -0.0176541 0.998767 0.00760393
-0.0467468 -0.0171456 0.99876 0.00694391
-0.044492 -0.0104305 0.998955 0.00455839
-0.0423036 -0.00697647 0.99908 0.00443817
-0.0389212 0.000314866 0.999242 0.00783362
-0.0359371 0.00287133 0.99935 0.00881431
-0.0323133 0.0133602 0.999389 0.00932231
-0.029428 0.0226223 0.999311 0.0109885
-0.0279366 0.0241013 0.999319 0.0110162
-0.0277989 0.0255035 0.999288 0.00856407
-0.0266876 0.0308249 0.999168 0.00709134
-0.0270897 0.0354042 0.999006 0.00599601
-0.0266961 0.0373604 0.998945 0.00271159
-0.026765 0.0403722 0.998826 0.00316063
-0.0265757 0.0452088 0.998624 0.000780871
-0.0272988 0.044201 0.99865 0
-0.028409 0.0470722 0.998487 0
-0.0286061 0.0469489 0.998488 0
-0.0301222 0.0532616 0.998126 0.00333398
-0.0310522 0.0529778 0.998113 0.00453768
-0.0322174 0.0523838 0.998107 0.00801271
-0.0337018 0.0549189 0.997922 0.0102381
-0.0340442 0.0552755 0.997891 0.00927302
-0.0346868 0.0562487 0.997814 0.00973557
-0.0348989 0.0515715 0.998059 0.00407927
-0.0363706 0.0505515 0.998059 0.00183306
-0.0371332 0.0528336 0.997913 0.0052403
-0.0384914 0.0545588 0.997768 0.010281
0.165932 -0.190954 0.967473 0.0183777
0.171035 -0.195834 0.965607 0.0154097
0.180191 -0.20285 0.962488 0.0168249
0.189042 -0.211392 0.958946 0.0161458
0.200049 -0.218647 0.955078 0.0210167
0.202125 -0.218903 0.954582 0.00914649
0.214533 -0.227151 0.949936 0.00892895
0.218152 -0.227934 0.948924 0.011273
-0.126312 -0.0683581 0.989632 0.013941
-0.117866 -0.0647423 0.990917 0.0101767
-0.112831 -0.0663891 0.991394 0.00632626
-0.108694 -0.0619304 0.992144 0.0083078
-0.104588 -0.0628204 0.99253 0.00607563
-0.0984259 -0.05808 0.993448 0.00740288
-0.0910316 -0.0510531 0.994538 0.00918761
-0.0852674 -0.0508468 0.99506 0.00585197
-0.0782352 -0.0475927 0.995798 0.00266183
-0.0725618 -0.0445466 0.996369 0.00269003
-0.0657483 -0.0403859 0.997019 0.00156684
-0.0628814 -0.0393412 0.997245 0
-0.0562049 -0.0357717 0.997778 0.0015166
-0.0502397 -0.029845 0.998291 0.00317724
-0.0463542 -0.0229558 0.998661 0.00124166
-0.0452773 -0.0170172 0.998829 0.00532618
-0.0424487 -0.00936135 0.999055 0.00610831
-0.0392349 -0.00249615 0.999227 0.00138488
-0.0358156 0.0064308 0.999338 0.00659466
-0.0321949 0.0146258 0.999375 0.00611636
-0.029225 0.0132303 0.999485 0.000540264
-0.0285027 0.020376 0.999386 0.00776409
-0.0250069 0.0275826 0.999307 0.0106284
-0.0230398 0.0331362 0.999185 0.00789559
-0.0227193 0.0395212 0.99896 0.00729671
-0.0233317 0.0425393 0.998822 0.00542041
-0.0237355 0.045119 0.9987 0.00511384
-0.0241949 0.0450307 0.998693 0.00406798
-0.0248127 0.046745 0.998599 0.00017753
-0.0253087 0.0488519 0.998485 0
-0.027253 0.0500921 0.998373 0
-0.0294939 0.0520645 0.998208 0.00273818
-0.0309656 0.0533545 0.998095 0.00707543
-0.032253 0.0557877 0.997922 0.0108662
-0.0338399 0.0544059 0.997945 0.00718867
-0.0349531 0.0555786 0.997842 0.00670466
-0.0357322 0.0560455 0.997789 0.00588496
-0.0369648 0.051059 0.998011 0.00545757
-0.0378446 0.0548048 0.99778 0.00616705
-0.0391063 0.053367 0.997809 0.00402241
-0.0397483 0.0531713 0.997794 0.00601371
0.164588 -0.188473 0.968188 0.0188034
0.168511 -0.192727 0.966675 0.0211306
0.182435 -0.204461 0.961724 0.0214609
0.185908 -0.208199 0.960256 0.0170321
0.192465 -0.209983 0.958574 0.014394
0.190003 -0.206731 0.959772 0.00389174
0.202456 -0.216257 0.955115 0.00282815
0.212943 -0.221722 0.951575 0.00934603
-0.12311 -0.0646861 0.990283 0.00921093
-0.120136 -0.0639952 0.990693 0.00903319
-0.114058 -0.0615121 0.991568 0.00493507
-0.107483 -0.0551767 0.992675 0.00435686
-0.103537 -0.0554799 0.993077 0.00558097
-0.0997473 -0.055907 0.993441 0.00633853
-0.0963115 -0.0521816 0.993982 0.0117209
-0.0890848 -0.048289 0.994853 0.00678135
-0.0827604 -0.0443045 0.995584 0.00831098
-0.0759932 -0.0397548 0.996315 0.00680544
-0.0696381 -0.0395374 0.996789 0.00245848
-0.0636761 -0.0385545 0.997226 0.00169072
-0.0610707 -0.0366408 0.997461 0.00323207
-0.0531152 -0.0308079 0.998113 0.00150916
-0.0465528 -0.0263209 0.998569 5.00515e-05
-0.0430668 -0.0172185 0.998924 0.00437495
-0.0407206 -0.0107721 0.999112 0.00406311
-0.0384092 -0.0069128 0.999238 0.00221153
-0.0331449 0.00499746 0.999438 0.00372541
-0.0289 0.0161251 0.999452 0.00528883
-0.0257176 0.0212326 0.999444 0.00506748
-0.0238366 0.0256271 0.999387 0.00465896
-0.0223194 0.0272996 0.999378 0.00540913
-0.0210872 0.0346194 0.999178 0.00863021
-0.0196212 0.0392827 0.999035 0.0101613
-0.019677 0.0431017 0.998877 0.00507877
-0.0204181 0.0467839 0.998696 0.00539639
-0.021101 0.045253 0.998753 0.000753297
-0.0215523 0.046805 0.998672 0
-0.0229764 0.0475249 0.998606 0
-0.0234762 0.0495089 0.998498 0
-0.0263747 0.0562354 0.998069 0.00136148
-0.0292239 0.0550657 0.998055 0.00471798
-0.0307669 0.0559181 0.997961 0.00826438
-0.0320748 0.0571927 0.997848 0.0117262
-0.0341129 0.05698 0.997792 0.0117646
-0.0351547 0.0576278 0.997719 0.00821485
-0.0363817 0.0568046 0.997722 0.00758733
-0.0376787 0.0560112 0.997719 0.00731374
-0.038496 0.0584064 0.99755 0.00595292
-0.0393226 0.0555852 0.997679 0.00468122
-0.0402497 0.0559258 0.997623 0.00208589
0.198374 -0.208441 0.957706 0.00733137
0.208029 -0.213014 0.954646 0.0126379
-0.141 -0.082078 0.986601 0.0163095
-0.130426 -0.0738271 0.988706 0.0102356
-0.128594 -0.0675041 0.989397 0.0155997
-0.118195 -0.0614257 0.991089 0.00815828
-0.116037 -0.06149 0.99134 0.00645091
-0.110186 -0.0577998 0.992229 0.00659886
-0.10516 -0.0530959 0.993037 0.00724174
-0.0992555 -0.0468279 0.99396 0.00798056
-0.0958794 -0.0459917 0.99433 0.00831121
-0.0915906 -0.0455738 0.994753 0.00774635
-0.0860581 -0.0421219 0.995399 0.00694412
-0.0798019 -0.0401959 0.996 0.00713075
-0.0731272 -0.0353833 0.996695 0.00716344
-0.0667766 -0.0338064 0.997195 0.00418125
-0.0611147 -0.0328303 0.997591 0.00301271
-0.0563055 -0.0325579 0.997883 0.00145113
-0.0507408 -0.0309181 0.998233 0
-0.044809 -0.0254148 0.998672 1.25617e-05
-0.0385369 -0.0130304 0.999172 0.00366891
-0.0346397 -0.00188168 0.999398 0.00322576
-0.0323357 0.00231895 0.999474 0.00219986
-0.028444 0.0108232 0.999537 0.00783853
-0.0234955 0.0193346 0.999537 0.00414145
-0.0212383 0.0251828 0.999457 0.00388112
-0.0182886 0.0319002 0.999324 0.00633709
-0.0176626 0.0360408 0.999194 0.00633612
-0.0170659 0.0378135 0.999139 0.00700034
-0.0161896 0.0407261 0.999039 0.0056535
-0.017128 0.0467279 0.998761 0.00279102
-0.0181201 0.0499963 0.998585 0.00214078
-0.0188136 0.047473 0.998695 0
-0.0194832 0.0484302 0.998636 0
-0.0216485 0.0488859 0.99857 0
-0.022592 0.0510649 0.99844 0
-0.0256025 0.0546533 0.998177 0.000917137
-0.0263884 0.0546012 0.998159 0.00235205
-0.0291779 0.0566106 0.99797 0.00696186
-0.030574 0.0571823 0.997895 0.00816348
-0.0319403 0.0599347 0.997691 0.0112343
-0.0342162 0.057756 0.997744 0.00937018
-0.0355999 0.0574008 0.997716 0.0071265
-0.036634 0.0567768 0.997715 0.00499635
-0.0384193 0.0613505 0.997377 0.0071689
-0.039164 0.0605243 0.997398 0.00502627
-0.0400557 0.0583251 0.997494 0.00474885
-0.0409887 0.0575937 0.997498 0.00260038
-0.0420516 0.0558448 0.997554 0.00442815
-0.0425114 0.0526291 0.997709 0.00112051
-0.0437371 0.0508648 0.997747 0.00223141
-0.0439883 0.0517004 0.997693 0.00383746
0.207258 -0.206433 0.956258 0.0170805
-0.137055 -0.0820257 0.987161 0.0137315
-0.128186 -0.0776682 0.988704 0.00996413
-0.124817 -0.0740308 0.989414 0.010227
-0.118163 -0.0650127 0.990864 0.00997612
-0.11453 -0.0622729 0.991466 0.00911188
-0.110905 -0.0580772 0.992133 0.00949204
-0.106046 -0.056087 0.992778 0.00696382
-0.10202 -0.0497484 0.993538 0.00927328
-0.0968312 -0.0439253 0.994331 0.0126656
-0.0925715 -0.038843 0.994948 0.0119833
-0.0877146 -0.0369747 0.995459 0.0104809
-0.0825726 -0.0322177 0.996064 0.0107219
-0.0767865 -0.0341032 0.996464 0.00697253
-0.071012 -0.0325448 0.996944 0.00784412
-0.0645377 -0.0298079 0.99747 0.00703807
-0.0575357 -0.0289378 0.997924 0.00233241
-0.0524223 -0.0277301 0.99824 0.00283359
-0.0460234 -0.0223942 0.998689 0.00234041
-0.0416478 -0.0179252 0.998972 0.00212425
-0.0325974 -0.00245504 0.999466 0.00547229
-0.028508 0.00571987 0.999577 0.00413484
-0.0258713 0.0113178 0.999601 0.00380317
-0.0219411 0.0179688 0.999598 0.00573102
-0.0181071 0.0274119 0.99946 0.00398247
-0.0165757 0.0310043 0.999382 0.00381881
-0.0144593 0.0370038 0.999211 0.00495754
-0.0134927 0.0379581 0.999188 0.00430161
-0.0130388 0.0421575 0.999026 0.00471203
-0.0137513 0.0475981 0.998772 0.00857745
-0.0155119 0.0494684 0.998655 0.00463462
-0.0163375 0.0478826 0.998719 0
-0.0174888 0.0475355 0.998716 0
-0.018594 0.0492592 0.998613 0
-0.0207506 0.0540733 0.998321 0
-0.0215882 0.0533418 0.998343 0
-0.0248754 0.0517647 0.998349 0
-0.0259355 0.0539304 0.998208 0.000241158
-0.0292126 0.056775 0.99796 0.00578058
-0.0305125 0.0597219 0.997749 0.0039945
-0.0315589 0.0577521 0.997832 0.0047231
-0.0342275 0.0563397 0.997825 0.00675003
-0.0358967 0.0573718 0.997707 0.00707948
-0.0371683 0.0578726 0.997632 0.00576515
-0.0386109 0.0571014 0.997621 0.00171275
-0.0394964 0.0566645 0.997612 0.00192833
-0.0407557 0.0554182 0.997631 0.00182006
-0.0421172 0.0556622 0.997561 0
-0.0425666 0.0546998 0.997595 0.00119083
-0.0430954 0.0527243 0.997679 0.000431477
-0.0445938 0.054872 0.997497 0.00188089
-0.0450185 0.0526201 0.997599 0.00244228
-0.046285 0.0496338 0.997694 0.00248447
-0.0479542 0.0514782 0.997522 0.00502227
-0.138175 -0.0800087 0.987171 0.0124045
-0.130906 -0.0790117 0.988241 0.011384
-0.123642 -0.07378 0.98958 0.0101347
-0.12 -0.0703427 0.990279 0.0121601
-0.114098 -0.0633519 0.991448 0.0125011
-0.109173 -0.059927 0.992215 0.00893315
-0.106157 -0.0577639 0.99267 0.0102295
-0.101399 -0.0505964 0.993558 0.00921509
-0.0982296 -0.0452842 0.994133 0.0102849
-0.0937574 -0.0389201 0.994834 0.013164
-0.0892179 -0.0331333 0.995461 0.0161431
-0.0839665 -0.03178 0.995962 0.0128953
-0.078747 -0.0249558 0.996582 0.0110621
-0.0751378 -0.025994 0.996834 0.0134472
-0.068297 -0.0282828 0.997264 0.0070322
-0.0622094 -0.0249329 0.997752 0.00947362
-0.0539337 -0.0257329 0.998213 0.000876268
-0.0486 -0.0204755 0.998608 0.00294586
-0.0407061 -0.0108138 0.999113 0.00724369
-0.0352697 -0.00687766 0.999354 0.0053817
-0.0277722 0.00448541 0.999604 0.00799479
-0.0230288 0.0153797 0.999616 0.00755377
-0.0189037 0.0194093 0.999633 0.00365188
-0.0164438 0.0295565 0.999428 0.00717809
-0.0136272 0.0359044 0.999262 0.00697039
-0.0125609 0.0401406 0.999115 0.00840921
-0.0113493 0.0419406 0.999056 0.00892339
-0.0104009 0.0422153 0.999054 0.00635396
-0.0104161 0.0477528 0.998805 0.00528398
-0.0112764 0.0457459 0.99889 0.00179016
-0.0136407 0.0467637 0.998813 0.0019529
-0.0155518 0.0485367 0.9987 0
-0.0167415 0.0506654 0.998575 0
-0.0175688 0.0474984 0.998717 0
-0.0196033 0.0509586 0.998508 0
-0.0214726 0.0510879 0.998463 0
-0.0246269 0.0516595 0.998361 0
-0.0258803 0.0516047 0.998332 0
-0.0289109 0.0530763 0.998172 0.000820874
-0.0301402 0.0546582 0.99805 0.000139131
-0.031828 0.0571141 0.99786 0.00360672
-0.0340152 0.0541921 0.997951 0.00307021
-0.036092 0.0532006 0.997931 0.00294582
-0.0370505 0.0535808 0.997876 0.000775745
-0.0389634 0.0514279 0.997916 0
-0.0401515 0.0512711 0.997877 0
-0.0412881 0.0501182 0.997889 0
-0.0427468 0.0544075 0.997603 0
-0.0434793 0.0546382 0.997559 0.000162782
-0.0440949 0.0527602 0.997633 0
-0.0452726 0.0542333 0.997501 0.00233793
-0.0463064 0.0526155 0.997541 0.00373802
-0.0477082 0.0533098 0.997438 0.0060315
-0.0484933 0.0510988 0.997516 0.00149528
-0.13217 -0.0738984 0.988469 0.00933177
-0.124542 -0.0702361 0.989725 0.0142996
-0.117992 -0.0699393 0.990549 0.00774096
-0.115372 -0.0664976 0.991094 0.00992788
-0.108162 -0.0592424 0.992367 0.0119556
-0.104404 -0.0550081 0.993012 0.0125568
-0.100237 -0.0547777 0.993455 0.00525734
-0.0968719 -0.0471001 0.994182 0.0101661
-0.0951903 -0.04258 0.994548 0.0117735
-0.0897654 -0.0355053 0.99533 0.0126252
-0.0854021 -0.0302372 0.995888 0.0159874
-0.0797147 -0.0255574 0.99649 0.0122602
-0.0768661 -0.0232368 0.996771 0.0116039
-0.0725812 -0.0197203 0.997168 0.0160181
-0.0658479 -0.0247989 0.997521 0.0107264
-0.05857 -0.0208805 0.998065 0.00726294
-0.0495999 -0.0165036 0.998633 0.00430395
-0.0438217 -0.0102418 0.998987 0.00626949
-0.0369004 -0.00532242 0.999305 0.00964796
-0.0311096 -0.0011808 0.999515 0.00598906
-0.0270025 0.00451448 0.999625 0.00662953
-0.0221753 0.0131015 0.999668 0.00939045
-0.0175019 0.0205403 0.999636 0.00814478
-0.0138037 0.0256373 0.999576 0.00719814
-0.0111115 0.0331166 0.99939 0.00739465
-0.00957203 0.0404077 0.999137 0.00856384
-0.0085094 0.0423297 0.999067 0.00988354
-0.00816487 0.0429482 0.999044 0.00930115
-0.00795128 0.0410403 0.999126 0.0026907
-0.00871563 0.0492002 0.998751 0.00260028
-0.00946552 0.0463069 0.998882 0
-0.00986329 0.0478811 0.998804 0.00039496
-0.0124275 0.0481405 0.998763 0
-0.0146062 0.0506921 0.998608 0
-0.0160328 0.0473448 0.99875 0
-0.0168232 0.0473517 0.998737 0
-0.0194023 0.047819 0.998668 0
-0.020181 0.050674 0.998511 0
-0.0245375 0.0504281 0.998426 0.000604619
-0.0255743 0.0488252 0.99848 0
-0.0291624 0.0553569 0.998041 0.00442281
-0.03041 0.054672 0.998041 0.00403982
-0.0318738 0.0536109 0.998053 0.00327419
-0.0342066 0.0533334 0.997991 0.00162778
-0.0363423 0.0550842 0.99782 0.00551266
-0.0371516 0.0508234 0.998016 0
-0.0392681 0.0475381 0.998097 0
-0.0406786 0.0434262 0.998228 0
-0.0419971 0.0472441 0.998 0
-0.0435685 0.0508734 0.997754 0
-0.0444104 0.0489091 0.997815 0
-0.0451452 0.0477912 0.997837 0
-0.0466711 0.0548419 0.997404 0.00565624
-0.0476089 0.0547057 0.997367 0.00780773
-0.0487073 0.0522163 0.997447 0.00467152
-0.0498347 0.049902 0.99751 0.00302327
-0.0525644 0.052712 0.997225 0.00897784
0.213323 -0.184731 0.959358 0.00887473
-0.125431 -0.0662368 0.989889 0.00501562
-0.116594 -0.0614539 0.991277 0.00941728
-0.112281 -0.0605561 0.99183 0.00942281
-0.109357 -0.0599294 0.992194 0.00725262
-0.10278 -0.0530962 0.993286 0.0109551
-0.0991258 -0.0518815 0.993721 0.0118611
-0.09553 -0.0475448 0.99429 0.0107505
-0.0926148 -0.0414152 0.99484 0.0130903
-0.0905689 -0.0374736 0.995185 0.0129031
-0.0875868 -0.0307754 0.995681 0.0147595
-0.0815599 -0.028018 0.996275 0.0131613
-0.0773947 -0.022691 0.996742 0.0158199
-0.0734719 -0.0204282 0.997088 0.0151475
-0.068349 -0.0159542 0.997534 0.0155363
-0.0621508 -0.0151294 0.997952 0.0117306
-0.054362 -0.0123256 0.998445 0.0093461
-0.0434936 -0.00774269 0.999024 0.00735948
-0.0379982 -0.00290194 0.999274 0.00807907
-0.0290843 0.00597078 0.999559 0.00383975
-0.0251843 0.0086926 0.999645 0.00497028
-0.0223792 0.0126153 0.99967 0.00692193
-0.0156288 0.0225229 0.999624 0.00716768
-0.0119718 0.0274996 0.99955 0.0101351
-0.00993841 0.0334682 0.99939 0.012241
-0.00750965 0.0399519 0.999173 0.0126755
-0.00622791 0.0427787 0.999065 0.010357
-0.00570273 0.0437377 0.999027 0.0070544
-0.00590526 0.044982 0.99897 0.00896764
-0.0060186 0.0445486 0.998989 0.00765368
-0.00779542 0.0485247 0.998792 0.00544025
-0.0080845 0.0476137 0.998833 0.00267854
-0.00931911 0.0496121 0.998725 0.00246027
-0.0115465 0.0452456 0.998909 0
-0.0137724 0.0469207 0.998804 0
-0.015496 0.0454733 0.998845 0
-0.0160891 0.0460561 0.998809 0
-0.0193815 0.049672 0.998578 0
-0.0200901 0.0481749 0.998637 0
-0.0245529 0.0494307 0.998476 0
-0.0255869 0.0467436 0.998579 0
-0.0291359 0.0523977 0.998201 0.00247943
-0.0303824 0.0526932 0.998148 0.00245681
-0.0316863 0.0507213 0.99821 0.00076768
-0.0343636 0.0508173 0.998117 0.00117305
-0.0364144 0.0520343 0.997981 0.00203717
-0.0375392 0.0461038 0.998231 0
-0.0396891 0.0409156 0.998374 0
-0.0412368 0.0441159 0.998175 0
-0.0425096 0.0445049 0.998104 0
-0.0443221 0.0463093 0.997943 0
-0.0451764 0.0446951 0.997979 0
-0.045983 0.0464925 0.99786 0
-0.0471829 0.0480964 0.997728 5.3441e-06
-0.0483912 0.049008 0.997625 0.00298104
-0.0496503 0.0501101 0.997509 0.00503714
-0.0507723 0.048798 0.997517 0.00317703
-0.0535133 0.0530173 0.997159 0.0100235
-0.0549946 0.046544 0.997401 0.005746
0.209285 -0.179534 0.961232 0.00628705
-0.125123 -0.0684741 0.989775 0.00153592
-0.11872 -0.0602395 0.991099 0.00399622
-0.111915 -0.0597221 0.991922 0.00659132
-0.106448 -0.0573658 0.992662 0.0097954
-0.097214 -0.0503625 0.993988 0.00871288
-0.0906712 -0.0433754 0.994936 0.00845336
-0.0879859 -0.0384075 0.995381 0.0135055
-0.0855713 -0.0321196 0.995814 0.015103
-0.0828808 -0.024986 0.996246 0.0179785
-0.0794828 -0.0224881 0.996583 0.0191541
-0.0741325 -0.0177317 0.997091 0.0172809
-0.0706706 -0.0143929 0.997396 0.0188672
-0.0645156 -0.0134111 0.997827 0.0142027
-0.0580452 -0.0084178 0.998278 0.0129135
-0.0487008 -0.00786361 0.998782 0.00697052
-0.0368366 0.00117038 0.999321 0.00552767
-0.0325001 0.00480958 0.99946 0.00496714
-0.0255013 0.011292 0.999611 0.00162422
-0.0198491 0.0170389 0.999658 0.00267677
-0.0152199 0.0220921 0.99964 0.00864493
-0.0104023 0.0317372 0.999442 0.00787237
-0.00749518 0.0388615 0.999216 0.0124661
-0.00614209 0.039764 0.99919 0.0136618
-0.00422509 0.0424787 0.999088 0.0130325
-0.00365489 0.0418923 0.999115 0.00933094
-0.00337008 0.0441865 0.999018 0.00587054
-0.00506522 0.0478789 0.99884 0.00656629
-0.00685692 0.0499939 0.998726 0.00441505
-0.00739892 0.047806 0.998829 0.00356134
-0.00875776 0.0500718 0.998707 0.0034088
-0.0109666 0.0433619 0.998999 0
-0.0128034 0.0454097 0.998886 0
-0.0153137 0.046762 0.998789 0
-0.0160637 0.0473903 0.998747 0
-0.0247328 0.0475278 0.998564 0.0039346
-0.025743 0.0472793 0.99855 0
-0.0292364 0.0508915 0.998276 0.00370367
-0.030345 0.0497573 0.9983 0.000347086
-0.0319357 0.0534972 0.998057 0.00356684
-0.0344448 0.0473874 0.998283 0
-0.0365314 0.045612 0.998291 0
-0.0379563 0.0451313 0.99826 0
-0.0399862 0.0405835 0.998376 0
-0.0412961 0.0385347 0.998404 0
-0.0430271 0.0390136 0.998312 0
-0.0456598 0.041934 0.998077 0
-0.046494 0.0415419 0.998054 0
-0.0479435 0.0450873 0.997832 0.00176033
-0.0495629 0.0459943 0.997711 0.0044051
-0.0511453 0.0490652 0.997485 0.0085441
-0.0521482 0.0503765 0.997368 0.00684585
-0.0545773 0.0476839 0.99737 0.00919326
-0.0562487 0.0434487 0.997471 0.00568775
0.205408 -0.175774 0.962762 0.00821327
0.220703 -0.183949 0.957838 0.00282028
-0.126223 -0.0697294 0.989548 0.00565887
-0.123706 -0.0668168 0.990067 0.00569406
-0.115931 -0.0575276 0.99159 0.00563482
-0.107779 -0.0565501 0.992565 0.00567995
-0.100739 -0.050742 0.993618 0.00718297
-0.0977386 -0.0501659 0.993947 0.00758399
-0.0932658 -0.0467125 0.994545 0.0110651
-0.0877873 -0.0415754 0.995271 0.0119315
-0.0839016 -0.0345616 0.995875 0.0153607
-0.0812918 -0.0259019 0.996354 0.0175554
-0.078754 -0.0194294 0.996705 0.0205
-0.0749253 -0.0159492 0.997062 0.0198607
-0.070078 -0.0117542 0.997472 0.0176462
-0.0665823 -0.00998249 0.997731 0.0183894
-0.0614169 -0.00716587 0.998086 0.0170018
-0.054258 -0.00648121 0.998506 0.0141717
-0.0414941 0.00246627 0.999136 0.0103574
-0.0302736 0.0079421 0.99951 0.00665473
-0.0257596 0.0109479 0.999608 0.00646603
-0.0190967 0.0182694 0.999651 0.00569461
-0.0149087 0.0246424 0.999585 0.00615324
-0.0105506 0.0283937 0.999541 0.00990056
-0.00587862 0.0359223 0.999337 0.0134334
-0.00360435 0.0395818 0.99921 0.00947353
-0.00244311 0.04064 0.999171 0.0125051
-0.00176554 0.0411958 0.99915 0.0113072
-0.00132226 0.0431636 0.999067 0.00637824
-0.0122969 0.0435527 0.998975 0
-0.0148785 0.0418118 0.999015 0
-0.024036 0.0430194 0.998785 0
-0.0304775 0.0504931 0.998259 0.00649244
-0.0318006 0.0509243 0.998196 0.00596086
-0.0327293 0.0512883 0.998147 0.00236031
-0.0348992 0.0455885 0.998351 0
-0.0372107 0.0448782 0.998299 0.0019943
-0.038702 0.0428696 0.998331 0.00126243
-0.0404708 0.0377683 0.998467 0
-0.0420274 0.0379613 0.998395 0
-0.0435764 0.0340523 0.99847 0
-0.0458748 0.0375551 0.998241 0
-0.0471404 0.0409597 0.998048 0
-0.0487111 0.04306 0.997884 0.000532852
-0.0507174 0.0453745 0.997682 0.0064026
-0.0518993 0.0452494 0.997627 0.00607442
-0.0533245 0.0472582 0.997458 0.00894339
-0.0555236 0.0442442 0.997477 0.00857244
-0.056819 0.0406564 0.997556 0.00348134
-0.0582149 0.0370104 0.997618 0.00351997
-0.0586935 0.0365473 0.997607 0.00655751
0.202363 -0.168147 0.964767 0.00928264
0.214656 -0.174435 0.960987 0.00457687
-0.123609 -0.0657115 0.990153 0.00553466
-0.121866 -0.0661144 0.990342 0.00747467
-0.113018 -0.0557335 0.992029 0.00632922
-0.103792 -0.0548202 0.993087 0.00297897
-0.0961654 -0.0474203 0.994235 0.00397423
-0.093823 -0.047277 0.994466 0.00668626
-0.0894727 -0.0452842 0.994959 0.00977838
-0.0839035 -0.039465 0.995692 0.0125211
-0.0803208 -0.0307754 0.996294 0.0152652
-0.076975 -0.022798 0.996772 0.0150762
-0.074065 -0.0176251 0.997098 0.0170322
-0.070723 -0.0134175 0.997406 0.0169133
-0.0658033 -0.0105997 0.997776 0.0160378
-0.0614413 -0.00683638 0.998087 0.0142511
-0.0568873 -0.00354779 0.998374 0.0173444
-0.0504678 -0.00464442 0.998715 0.010659
-0.0339808 0.00667714 0.9994 0.0113276
-0.0235931 0.0137401 0.999627 0.0100431
-0.0196997 0.0189943 0.999626 0.00867769
-0.0139853 0.0262056 0.999559 0.00894333
-0.00950183 0.0271874 0.999585 0.00991648
-0.00795778 0.0309135 0.99949 0.0098084
-0.00259469 0.0385042 0.999255 0.0106671
-0.00111056 0.0391515 0.999233 0.00898877
-0.000272424 0.0391352 0.999234 0.0106133
0.000168788 0.0404009 0.999184 0.00935056
-0.0111019 0.0407583 0.999107 0
-0.0243921 0.0441625 0.998727 0.00229258
-0.0320432 0.0483539 0.998316 0.00764785
-0.0330295 0.049853 0.99821 0.00420817
-0.0378234 0.0414747 0.998423 0.00124039
-0.0391059 0.0436042 0.998283 0.00177827
-0.0411092 0.0391067 0.998389 0.000423743
-0.0425033 0.0320227 0.998583 0
-0.0443088 0.0311685 0.998532 0
-0.0464912 0.0348341 0.998311 0
-0.0477517 0.0382369 0.998127 0.000156368
-0.049528 0.0408403 0.997937 0.00382442
-0.0513589 0.0397274 0.99789 0.00565896
-0.052973 0.041654 0.997727 0.00803545
-0.0542559 0.0432201 0.997591 0.00931568
-0.0562958 0.0443136 0.99743 0.00727546
-0.0575802 0.0375116 0.997636 0.00122171
-0.0588564 0.0386469 0.997518 0.00651774
-0.0594805 0.0363871 0.997566 0.00723145
0.209175 -0.162501 0.964282 0.0102735
0.216779 -0.166802 0.961865 0.0105811
-0.118303 -0.0603375 0.991143 0.00977761
-0.117603 -0.0577062 0.991383 0.0112321
-0.110488 -0.0560723 0.992294 0.00771433
-0.100392 -0.0483561 0.993772 0.00731743
-0.0929725 -0.0429686 0.994741 0.00577274
-0.0887128 -0.0408138 0.995221 0.00430842
-0.0848477 -0.0393439 0.995617 0.00724086
-0.0799444 -0.0380854 0.996072 0.00950088
-0.0755876 -0.0260991 0.996798 0.0140977
-0.0728841 -0.020467 0.99713 0.0164105
-0.0703709 -0.0156804 0.997398 0.0166252
-0.0668182 -0.0109489 0.997705 0.0147301
-0.0621394 -0.00553238 0.998052 0.0172951
-0.0585896 -0.00301236 0.998278 0.0181681
-0.0517373 -0.0047912 0.998649 0.0128793
-0.0444398 0.00283685 0.999008 0.0125798
-0.0270062 0.0108004 0.999577 0.0080477
-0.0168093 0.0195782 0.999667 0.0061373
-0.0143907 0.0234635 0.999621 0.00998744
-0.00840895 0.0294255 0.999532 0.00722242
-0.00467944 0.0306091 0.99952 0.00904336
-0.00183976 0.0354554 0.99937 0.00648038
0.000399893 0.037241 0.999306 0.0102561
0.00235933 0.0390169 0.999236 0.00885285
-0.0127055 0.0371345 0.999229 0
-0.0319593 0.0454405 0.998456 0.00251101
-0.038523 0.0405043 0.998437 0
-0.0392523 0.0382305 0.998498 0.00047941
-0.0413466 0.0341182 0.998562 0
-0.0429698 0.0295976 0.998638 0
-0.0447638 0.0300707 0.998545 0
-0.0475018 0.0339942 0.998293 0.00283422
-0.0484835 0.0338147 0.998251 0.00011005
-0.050172 0.0389871 0.997979 0.00536236
-0.0517829 0.0372516 0.997963 0.00622739
-0.0532246 0.0353632 0.997956 0.00352541
-0.0544393 0.0365633 0.997847 0.00522349
-0.0570149 0.0386684 0.997624 0.00634109
-0.0588237 0.0379135 0.997548 0.00493349
-0.0598417 0.035049 0.997592 0.00669508
-0.0607278 0.0327664 0.997616 0.00753155
-0.0614194 0.0260706 0.997772 0.00158335
-0.0616188 0.0261209 0.997758 0.000379692
0.208372 -0.157117 0.965347 0.0164884
0.212694 -0.156581 0.964491 0.0164275
0.2278 -0.166521 0.959363 0.017618
-0.115526 -0.0559329 0.991728 0.00907742
-0.111867 -0.053842 0.992264 0.00889648
-0.107055 -0.0530314 0.992838 0.0105578
-0.0965958 -0.0437571 0.994361 0.00815774
-0.0890268 -0.0403605 0.995211 0.00374782
-0.0848108 -0.0379565 0.995674 0.00234381
-0.0815255 -0.0399083 0.995872 0.00725919
-0.0765875 -0.0347785 0.996456 0.0120996
-0.0709194 -0.0268667 0.99712 0.0120652
-0.0694707 -0.0177613 0.997426 0.0160319
-0.0656728 -0.0130771 0.997756 0.0140513
-0.0641522 -0.00814101 0.997907 0.0147307
-0.0592367 -0.00529216 0.99823 0.0164768
-0.0536232 -0.00345088 0.998555 0.0135048
-0.0455001 -0.000889459 0.998964 0.00940641
-0.0394159 0.00172352 0.999221 0.0100018
-0.00710249 0.0287843 0.99956 0.00860818
-0.00442444 0.0320216 0.999477 0.00557061
0.000829444 0.0372261 0.999307 0.00689072
0.00271856 0.0404393 0.999178 0.0117741
0.00377814 0.0407196 0.999163 0.013823
-0.010904 0.0363613 0.999279 0
-0.0325752 0.0443571 0.998485 0.00498288
-0.0365503 0.0430488 0.998404 0.00161065
-0.0396981 0.0374961 0.998508 0.000999528
-0.0415708 0.0306189 0.998666 0
-0.0430818 0.0285263 0.998664 0
-0.044971 0.0283973 0.998585 0
-0.0461189 0.0299582 0.998487 0
-0.0480666 0.0306984 0.998372 0.00151811
-0.0494131 0.0315962 0.998279 0.00260876
-0.0506211 0.0338047 0.998146 0.00268192
-0.0519576 0.0314764 0.998153 0.00178862
-0.0534576 0.0334069 0.998011 0.00208799
-0.0546037 0.0343771 0.997916 0.0020148
-0.0573132 0.0344605 0.997761 0.00355762
-0.0593297 0.036073 0.997586 0.00586736
-0.0605257 0.0330614 0.997619 0.00854248
-0.0614845 0.0310898 0.997624 0.00865098
-0.0622466 0.0274215 0.997684 0.0042901
-0.0624853 0.0232652 0.997775 0.00132333
-0.0636594 0.019611 0.997779 0.000331077
0.200555 -0.15026 0.968091 0.0171913
0.211449 -0.156049 0.964851 0.0153329
0.220497 -0.161487 0.961927 0.0141903
0.230255 -0.166833 0.958723 0.0135112
-0.115353 -0.0556425 0.991765 0.0130664
-0.111587 -0.0537443 0.9923 0.0142747
-0.102434 -0.0487692 0.993544 0.00854917
-0.0930079 -0.0439394 0.994695 0.00646118
-0.0862881 -0.0407418 0.995437 0.00409883
-0.0826758 -0.0401064 0.995769 0.00137795
-0.078311 -0.0350545 0.996312 0.00732322
-0.0733867 -0.033883 0.996728 0.00975776
-0.0678325 -0.0248652 0.997387 0.0118583
-0.0655472 -0.0197455 0.997654 0.0104582
-0.062578 -0.0126595 0.99796 0.0140064
-0.0598647 -0.00817451 0.998173 0.0125309
-0.0554475 -0.00643319 0.998441 0.0132914
-0.0485496 -0.000371558 0.998821 0.011782
-0.0396235 0.00215493 0.999212 0.009229
-0.030846 0.00523425 0.99951 0.0082387
-0.0330705 0.042361 0.998555 0.00191793
-0.0424226 0.0316513 0.998598 0
-0.0437552 0.02654 0.99869 0
-0.0451499 0.0280768 0.998586 0
-0.0463798 0.0286288 0.998514 0.000441357
-0.0486509 0.0278862 0.998426 0
-0.0498506 0.0282311 0.998358 0
-0.0512785 0.0279035 0.998294 0.00155054
-0.0522703 0.0278594 0.998244 0
-0.0538745 0.0301501 0.998092 0.00154266
-0.0547108 0.0284865 0.998096 0
-0.0577136 0.0295623 0.997895 0.00385581
-0.0593138 0.02906 0.997816 0.00227623
-0.0603001 0.0242594 0.997885 0.0019188
-0.0616945 0.0251781 0.997777 0.00533771
-0.062825 0.0228245 0.997764 0.00325063
-0.0632746 0.0213267 0.997768 0.00332294
-0.064193 0.0166852 0.997798 0.00213265
0.203628 -0.150073 0.967478 0.0150122
0.214092 -0.156335 0.964222 0.0152671
0.224819 -0.161207 0.960973 0.0112114
0.231717 -0.162893 0.959048 0.00636153
-0.113397 -0.0521184 0.992182 0.0145417
-0.110739 -0.055819 0.992281 0.0118251
-0.107552 -0.0559932 0.992621 0.0106153
-0.100809 -0.0506836 0.993614 0.0106233
-0.0892587 -0.0398215 0.995212 0.00977923
-0.0827842 -0.0390208 0.995803 0.00647682
-0.0796577 -0.0397371 0.99603 0.00489388
-0.0754079 -0.0364756 0.996485 0.00401561
-0.071132 -0.0303387 0.997005 0.0100122
-0.0661429 -0.0274699 0.997432 0.0101003
-0.061582 -0.0218936 0.997862 0.00599438
-0.057915 -0.0122632 0.998246 0.00920392
-0.0552479 -0.00625728 0.998453 0.0135089
-0.0493645 -0.00671519 0.998758 0.0107483
-0.043297 0.000633169 0.999062 0.0084993
-0.0356983 0.00358188 0.999356 0.0101791
-0.0240901 0.0102193 0.999658 0.00659331
-0.0180029 0.0145718 0.999732 0.00690399
-0.0432845 0.0288685 0.998646 0
-0.0445133 0.026113 0.998667 0
-0.0458768 0.0244062 0.998649 0
-0.0470994 0.0243452 0.998593 0
-0.0485188 0.0239276 0.998536 0
-0.0503237 0.0246755 0.998428 0.00108955
-0.0516915 0.0236823 0.998382 0.00160479
-0.0530745 0.0287406 0.998177 0.00511555
-0.0538413 0.0274431 0.998172 0.00214559
-0.0549988 0.0272877 0.998113 0.00172484
-0.0575496 0.0284616 0.997937 0.000542644
-0.0594264 0.0255793 0.997905 0.000576251
-0.0602511 0.025401 0.99786 0.00056357
-0.0616517 0.0208071 0.997881 0.00273981
-0.063732 0.0206936 0.997752 0.00796127
-0.0639843 0.0192248 0.997766 0.00487472
-0.0647007 0.0150447 0.997791 0.00302188
0.200434 -0.14989 0.968173 0.0156498
0.205157 -0.151648 0.966909 0.00810383
0.212727 -0.150997 0.965374 0.00182231
0.223841 -0.156377 0.961999 0.00206389
-0.113116 -0.0512666 0.992258 0.0173686
-0.109527 -0.0515355 0.992647 0.0151815
-0.104321 -0.0514861 0.99321 0.0156208
-0.0966828 -0.0494812 0.994084 0.00953676
-0.0864682 -0.0402734 0.99544 0.00747959
-0.0800917 -0.0376481 0.996076 0.00677945
-0.0761633 -0.0352882 0.996471 0.00492039
-0.0719393 -0.0310925 0.996924 0.00668158
-0.067096 -0.0261928 0.997403 0.0079548
-0.0638399 -0.0272189 0.997589 0.0107812
-0.0581169 -0.0223509 0.99806 0.00947784
-0.0533397 -0.0150793 0.998463 0.00999639
-0.0491277 -0.0095765 0.998747 0.00922376
-0.0442071 -0.00607327 0.999004 0.0102072
-0.0370125 -0.00213911 0.999312 0.0100083
-0.0276486 0.00156596 0.999616 0.00743844
-0.0212707 0.00999032 0.999724 0.00843648
-0.00220065 0.0248012 0.99969 0.00785085
-0.0416473 0.0295676 0.998695 0
-0.0438536 0.0264028 0.998689 0
-0.0452967 0.0239031 0.998688 0
-0.0465704 0.0216968 0.998679 0
-0.0476658 0.0224579 0.998611 0
-0.049156 0.0209805 0.998571 0
-0.050353 0.0216239 0.998497 0
-0.0520437 0.02429 0.998349 0.00270699
-0.0528105 0.0222555 0.998357 0.000927352
-0.0540472 0.0235882 0.99826 0.00172306
-0.0553956 0.0240635 0.998174 0.00138675
-0.0578036 0.0264832 0.997977 0.00092871
-0.0595129 0.0248423 0.997918 0.000108998
-0.0602106 0.025697 0.997855 0.000200999
-0.0622619 0.0204849 0.99785 0.00643458
-0.0637473 0.015991 0.997838 0.00554392
-0.0643024 0.0137821 0.997835 0.00409338
-0.065298 0.0121687 0.997792 0.00259588
-0.0667391 0.00736116 0.997743 0
0.216013 -0.151581 0.964552 0
0.223571 -0.150193 0.963046 0
-0.11498 -0.0567373 0.991746 0.0130995
-0.108209 -0.0510097 0.992819 0.0168495
-0.102534 -0.0489625 0.993524 0.0156708
-0.0936914 -0.0504288 0.994323 0.00853837
-0.0840267 -0.0397515 0.99567 0.00548849
-0.0761129 -0.0375065 0.996394 0.00374307
-0.0728045 -0.035414 0.996717 0.00517658
-0.0687368 -0.028806 0.997219 0.00974712
-0.063317 -0.0223674 0.997743 0.0109754
-0.0595962 -0.0239004 0.997936 0.0111578
-0.054213 -0.0219841 0.998287 0.00761542
-0.0494902 -0.0159546 0.998647 0.00894026
-0.0451051 -0.00873341 0.998944 0.0120391
-0.0367496 -0.00350036 0.999318 0.0112411
-0.0296267 0.00125275 0.99956 0.0109532
-0.0203739 0.00706633 0.999767 0.00831249
-0.0150343 0.0102446 0.999834 0.00802719
-0.000951861 0.0246195 0.999696 0.00711875
-0.0426065 0.028596 0.998683 0.00231506
-0.0445138 0.0242949 0.998713 0.00259959
-0.0458272 0.0221005 0.998705 0.00017569
-0.0472103 0.0230518 0.998619 0.000406264
-0.0485558 0.0204671 0.998611 0.00305955
-0.0499593 0.0197639 0.998556 0.0039287
-0.0509023 0.0184655 0.998533 0.00116353
-0.0523892 0.0230697 0.99836 0.00538375
-0.0530748 0.0198947 0.998392 0.00250664
-0.0540984 0.0189015 0.998357 0
-0.0555081 0.0206137 0.998245 0
-0.0578157 0.0236455 0.998047 0
-0.0595115 0.0220767 0.997983 0
-0.0605743 0.0209944 0.997943 0.00176333
-0.0621116 0.0177188 0.997912 0.00482884
-0.0639416 0.0135993 0.997861 0.00645021
-0.0638365 0.0105616 0.997905 0
-0.065284 0.0116898 0.997798 0.00147756
-0.0655988 0.00858276 0.997809 0
-0.0668966 0.00837477 0.997725 0.000647013
0.221794 -0.15046 0.963415 0
0.236005 -0.155175 0.959282 0.00576381
0.244633 -0.155279 0.957101 0.00617751
-0.114726 -0.0538434 0.991937 0.00965622
-0.10609 -0.0535663 0.992913 0.0118453
-0.0992227 -0.0540063 0.993599 0.009356
-0.0914567 -0.0503377 0.994536 0.00821839
-0.0803026 -0.0385625 0.996024 0.00756785
-0.0731593 -0.0337774 0.996748 0.00621098
-0.0700489 -0.0331469 0.996993 0.00650731
-0.0649809 -0.0261111 0.997545 0.0094793
-0.0600831 -0.0220467 0.99795 0.0108147
-0.0550401 -0.0191765 0.9983 0.0101278
-0.0500717 -0.0145786 0.998639 0.0114668
