# .PCD v0.7 - Point Cloud Data file format
VERSION 0.7
FIELDS x y z
SIZE 4 4 4
TYPE F F F
COUNT 1 1 1
WIDTH 1322
HEIGHT 1
VIEWPOINT 0 0 0 1 0 0 0
POINTS 1322
DATA ascii
-0.072077334 -0.230483 -0.33390984
-0.071903497 -0.23049349 -0.33389834
-0.071703337 -0.23050451 -0.3338941
-0.071523003 -0.23051834 -0.33386692
-0.071300663 -0.230526 -0.33384311
-0.071093 -0.23047 -0.33381632
-0.070943996 -0.23047601 -0.33381
-0.070793003 -0.230555 -0.33380699
-0.070494004 -0.23050351 -0.33381483
-0.070290424 -0.23053913 -0.33382756
-0.070070252 -0.23051125 -0.33381626
-0.069880001 -0.23050201 -0.33382002
-0.069664113 -0.23048078 -0.33383822
-0.069540001 -0.23051539 -0.33381081
-0.068469599 -0.23045799 -0.33380702
-0.068282336 -0.23047866 -0.33382535
-0.068110429 -0.2304963 -0.33384183
-0.06789387 -0.23048937 -0.33384779
-0.06768427 -0.23051856 -0.33388591
-0.067502283 -0.230514 -0.33388957
-0.067303002 -0.230515 -0.33387882
-0.067108251 -0.2305015 -0.33388099
-0.066976666 -0.23047066 -0.33387765
-0.066677667 -0.23049299 -0.33394432
-0.066505164 -0.23050885 -0.33393216
-0.066145003 -0.23052366 -0.333976
-0.065880001 -0.2305025 -0.33399302
-0.072698087 -0.23031349 -0.33398327
-0.072515994 -0.23032644 -0.3339279
-0.072338998 -0.23031621 -0.333911
-0.072094753 -0.23028186 -0.33390239
-0.071886837 -0.23028517 -0.33388734
-0.071685582 -0.23029727 -0.33390179
-0.071505778 -0.23031156 -0.33387533
-0.071328998 -0.23031652 -0.3338455
-0.071133852 -0.23032656 -0.333823
-0.070932999 -0.23033699 -0.33380201
-0.070468664 -0.23034167 -0.33381236
-0.070271999 -0.23031335 -0.33381835
-0.070099004 -0.2303185 -0.33381617
-0.069865666 -0.23032884 -0.33381799
-0.069657497 -0.230294 -0.33382931
-0.069514632 -0.23027511 -0.33381021
-0.068462752 -0.230298 -0.33380648
-0.068265669 -0.230271 -0.33381799
-0.068112008 -0.23027717 -0.33383098
-0.067899749 -0.230299 -0.33385578
-0.0676952 -0.23029533 -0.33387858
-0.06752187 -0.23032425 -0.33389089
-0.067294851 -0.23031174 -0.33388743
-0.067093328 -0.23032868 -0.33388767
-0.066962004 -0.230297 -0.33388501
-0.06666366 -0.23028468 -0.33389568
-0.066520892 -0.23029844 -0.3339121
-0.066391334 -0.23030667 -0.33396268
-0.066129662 -0.23031501 -0.33394933
-0.065865338 -0.23032933 -0.33399367
-0.072681412 -0.230106 -0.33397931
-0.072508499 -0.23011181 -0.3339377
-0.072331667 -0.230123 -0.3339043
-0.072104998 -0.230113 -0.33389768
-0.071889147 -0.23006655 -0.33386955
-0.071695551 -0.23008643 -0.3338927
-0.071514584 -0.230102 -0.33386815
-0.071312837 -0.23010899 -0.33383349
-0.071103625 -0.23012902 -0.33382261
-0.071000002 -0.230059 -0.33381101
-0.070418999 -0.23002 -0.33380601
-0.070295997 -0.23006751 -0.33380651
-0.070170335 -0.23010699 -0.33381
-0.069882669 -0.23014283 -0.33381
-0.069686502 -0.23010467 -0.33382452
-0.069504835 -0.23007441 -0.33381367
-0.068448499 -0.23012583 -0.33380866
-0.068255 -0.230132 -0.33380201
-0.068087794 -0.23008379 -0.33383161
-0.067914836 -0.23008098 -0.33385265
-0.067696176 -0.230093 -0.33387396
-0.067542337 -0.23010634 -0.33389083
-0.067302331 -0.23011357 -0.33390087
-0.067075834 -0.23012082 -0.33389166
-0.066947334 -0.23012467 -0.33389199
-0.066646002 -0.23007667 -0.33390769
-0.066503994 -0.23009123 -0.33390567
-0.06637501 -0.23009832 -0.33394337
-0.066112667 -0.23010767 -0.33394602
-0.065851003 -0.230157 -0.333992
-0.07269033 -0.2298961 -0.3339799
-0.072507329 -0.22991051 -0.33394662
-0.072314836 -0.22991483 -0.33389631
-0.072120503 -0.22992249 -0.3338902
-0.071886435 -0.22988857 -0.33387774
-0.071678773 -0.22987877 -0.33388844
-0.071497917 -0.22989456 -0.33385909
-0.071294494 -0.22990251 -0.33385646
-0.071109004 -0.2298986 -0.33382481
-0.070991501 -0.229954 -0.33380601
-0.070410505 -0.2299175 -0.33380848
-0.070284501 -0.229929 -0.33380949
-0.069938399 -0.22992358 -0.33380881
-0.069691218 -0.22991985 -0.33381999
-0.069504283 -0.22990642 -0.33381185
-0.069397002 -0.22986799 -0.333801
-0.068090804 -0.22991641 -0.33382303
-0.067897998 -0.22987302 -0.33384767
-0.067686185 -0.22989102 -0.33387581
-0.067536429 -0.22988741 -0.33387986
-0.067311279 -0.22991487 -0.33390456
-0.067093007 -0.22990349 -0.33388901
-0.066931002 -0.22991665 -0.33388266
-0.066632003 -0.229903 -0.33390549
-0.066488892 -0.22988255 -0.33387646
-0.066360332 -0.22988968 -0.33391035
-0.06609533 -0.22989933 -0.333951
-0.072653994 -0.22975999 -0.33399451
-0.072489835 -0.22970341 -0.33395639
-0.072296336 -0.22970884 -0.33392382
-0.0721035 -0.22971584 -0.33388969
-0.071930997 -0.229728 -0.33387402
-0.071684904 -0.22968391 -0.33386758
-0.071489364 -0.22969289 -0.33384892
-0.07129471 -0.22968428 -0.33384827
-0.071105003 -0.22973825 -0.33381325
-0.069894001 -0.22970434 -0.3338047
-0.069655664 -0.22973616 -0.33383
-0.069516994 -0.2297269 -0.3338111
-0.069385 -0.22972967 -0.33380899
-0.068066664 -0.22972368 -0.33382735
-0.067884758 -0.22970051 -0.33384049
-0.067686222 -0.2296759 -0.33388287
-0.067533888 -0.22968912 -0.33389744
-0.067311995 -0.22969751 -0.33391187
-0.067114003 -0.22971343 -0.33390015
-0.066944793 -0.2296948 -0.3338972
-0.066616327 -0.22973067 -0.33392397
-0.066470228 -0.22967546 -0.33390367
-0.066341996 -0.22968233 -0.333931
-0.066078 -0.229693 -0.3339583
-0.07250011 -0.22949488 -0.33397126
-0.072315663 -0.22950143 -0.33393198
-0.072086163 -0.22950782 -0.33389631
-0.071913332 -0.22952084 -0.33388135
-0.071705893 -0.22952145 -0.33385909
-0.071502209 -0.2294772 -0.33383998
-0.071302891 -0.22948568 -0.33383599
-0.069846004 -0.229533 -0.333814
-0.069693498 -0.22950117 -0.33380851
-0.06957525 -0.22953126 -0.33380601
-0.069367997 -0.22952299 -0.33380899
-0.068281502 -0.22947299 -0.33381251
-0.068070285 -0.22950557 -0.33383158
-0.067869835 -0.229527 -0.33384648
-0.06766285 -0.22948842 -0.33388057
-0.067517333 -0.22948167 -0.33389109
-0.067295164 -0.22948951 -0.33390817
-0.067116164 -0.22949499 -0.33389652
-0.066936828 -0.22950085 -0.33390233
-0.066605002 -0.229592 -0.333924
-0.0664915 -0.22949849 -0.33390298
-0.066343002 -0.22945625 -0.33392149
-0.066059999 -0.22948433 -0.33396566
-0.065802 -0.22956599 -0.33399901
-0.065795004 -0.22946301 -0.33397999
-0.072641507 -0.229307 -0.33399951
-0.072503276 -0.22929229 -0.333967
-0.072298326 -0.22929388 -0.33393356
-0.072069168 -0.22930099 -0.33389235
-0.071896993 -0.22931366 -0.333873
-0.071694776 -0.22932212 -0.33385965
-0.071500815 -0.22929309 -0.33384398
-0.071311854 -0.22928715 -0.33383268
-0.071197495 -0.22924599 -0.33380699
-0.070101999 -0.229278 -0.33380699
-0.069679499 -0.22932824 -0.33380651
-0.069521666 -0.22932999 -0.33380601
-0.069353998 -0.22935 -0.33380699
-0.068609998 -0.229243 -0.333801
-0.068408504 -0.22926 -0.33381402
-0.068317197 -0.229285 -0.33381838
-0.068128169 -0.22930466 -0.33383998
-0.067910627 -0.22932588 -0.33385137
-0.067690998 -0.22931874 -0.33385575
-0.067505449 -0.22928122 -0.33389357
-0.067279167 -0.22928135 -0.33389151
-0.067098834 -0.22928734 -0.33389553
-0.066920333 -0.22929233 -0.33388963
-0.066506334 -0.22932366 -0.33389935
-0.066349253 -0.22929925 -0.33391804
-0.066042334 -0.22927666 -0.33397499
-0.065781333 -0.22928934 -0.33396831
-0.072465785 -0.22908013 -0.33397233
-0.072291501 -0.22909611 -0.33393848
-0.072085164 -0.22909133 -0.33389482
-0.071897998 -0.22909443 -0.33386284
-0.071677342 -0.22911456 -0.33386531
-0.0714982 -0.22911561 -0.33385152
-0.071315497 -0.22910324 -0.33382648
-0.069606997 -0.229157 -0.33380201
-0.069570199 -0.22907838 -0.33380899
-0.068600997 -0.229138 -0.33380699
-0.068502426 -0.22906001 -0.33380547
-0.068326116 -0.2290898 -0.33383375
-0.068111002 -0.22909717 -0.33384785
-0.067926832 -0.22910732 -0.33386233
-0.067709222 -0.22911835 -0.33386022
-0.067521907 -0.22911839 -0.33388522
-0.067261167 -0.229074 -0.33390716
-0.067082167 -0.22907932 -0.33389053
-0.066903003 -0.22908568 -0.333895
-0.066489115 -0.22911613 -0.33390057
-0.066334493 -0.22912599 -0.33392334
-0.066029504 -0.22910351 -0.333956
-0.065687172 -0.22908567 -0.33399251
-0.072604999 -0.228857 -0.33399901
-0.072459824 -0.22889467 -0.33396783
-0.072325505 -0.22887062 -0.33394939
-0.072135165 -0.22887982 -0.33389017
-0.071904331 -0.22889601 -0.33389044
-0.071679577 -0.22891514 -0.33384901
-0.071505673 -0.22892033 -0.33385423
-0.071324997 -0.22892149 -0.33382377
-0.069493994 -0.22883761 -0.33380958
-0.069336332 -0.228854 -0.33380401
-0.068486862 -0.2288723 -0.33381146
-0.068307668 -0.22888333 -0.3338578
-0.068093494 -0.22888951 -0.33385253
-0.067910008 -0.22890049 -0.33385468
-0.067691334 -0.22891079 -0.3338742
-0.067497581 -0.22892518 -0.33386278
-0.067246504 -0.22890151 -0.33391249
-0.067064993 -0.22887234 -0.33389333
-0.066886164 -0.22887748 -0.33389631
-0.066471331 -0.22890857 -0.33390987
-0.066317506 -0.22891784 -0.33392334
-0.066016003 -0.22892934 -0.33394232
-0.065746002 -0.22887433 -0.33399332
-0.065549009 -0.22888733 -0.33399868
-0.064853668 -0.22892566 -0.333992
-0.072711997 -0.228645 -0.33399501
-0.072516799 -0.2287277 -0.33397073
-0.072310872 -0.22868 -0.33393288
-0.072118498 -0.22867267 -0.33388534
-0.071898632 -0.22869663 -0.33389214
-0.071692847 -0.22868671 -0.33384714
-0.071504839 -0.22871184 -0.33386639
-0.071316108 -0.22872299 -0.33383256
-0.070083335 -0.22870032 -0.33380303
-0.069503218 -0.22869989 -0.33381546
-0.069325 -0.22871535 -0.33380532
-0.068609998 -0.228651 -0.33380401
-0.068489365 -0.22869889 -0.33382052
-0.068290785 -0.22867566 -0.33385599
-0.0680755 -0.22868252 -0.33386385
-0.067891665 -0.22869301 -0.33387899
-0.067695998 -0.22871186 -0.33387157
-0.067511417 -0.2287156 -0.33390042
-0.067322202 -0.22871201 -0.33391801
-0.067110851 -0.22871144 -0.33389643
-0.066862002 -0.22868362 -0.33388901
-0.066487007 -0.22869718 -0.3339068
-0.066330783 -0.22870922 -0.33390754
-0.066004999 -0.22879 -0.33393201
-0.065995499 -0.228687 -0.333949
-0.0657335 -0.22869951 -0.33395898
-0.065448001 -0.22876 -0.333996
-0.064842001 -0.22878601 -0.333994
-0.072706997 -0.228578 -0.33399099
-0.072493002 -0.22851419 -0.33395517
-0.072314702 -0.228512 -0.33392429
-0.07210499 -0.22849874 -0.33387202
-0.071913332 -0.22847833 -0.33389652
-0.071699999 -0.22848865 -0.3338609
-0.071487501 -0.22850448 -0.33387008
-0.071297668 -0.22851589 -0.33385679
-0.071089506 -0.22848749 -0.333808
-0.070059247 -0.22849925 -0.33380675
-0.069440335 -0.22849284 -0.33380601
-0.069308199 -0.2284714 -0.3338272
-0.069115505 -0.22845501 -0.33380252
-0.068604 -0.22858299 -0.33381599
-0.068504222 -0.22851501 -0.33382735
-0.068295144 -0.22849642 -0.33382815
-0.06809333 -0.22847332 -0.33384264
-0.067891434 -0.22847401 -0.3338857
-0.067693003 -0.22849435 -0.333891
-0.067509748 -0.22850668 -0.33391985
-0.067319006 -0.22851734 -0.333913
-0.067127503 -0.22852266 -0.333913
-0.066912748 -0.22852099 -0.33388063
-0.066470504 -0.22848867 -0.33389282
-0.066313453 -0.22850125 -0.33390975
-0.065980673 -0.228514 -0.33395866
-0.065720662 -0.22852667 -0.333938
-0.065545328 -0.22846766 -0.33399066
-0.072664857 -0.22831057 -0.33398968
-0.072484002 -0.22831209 -0.33394727
-0.072290219 -0.22832499 -0.33392495
-0.072091497 -0.22832616 -0.33385983
-0.071888603 -0.22828519 -0.33390021
-0.071693122 -0.22829023 -0.33387151
-0.071505703 -0.2282861 -0.33388251
-0.071307831 -0.22830725 -0.33386508
-0.071074001 -0.22831549 -0.33382902
-0.070943505 -0.22829199 -0.333819
-0.070082434 -0.22829829 -0.33380932
-0.069299839 -0.22827734 -0.33381617
-0.069098502 -0.22824749 -0.33380201
-0.068821996 -0.228301 -0.33380401
-0.068645 -0.22830534 -0.33381066
-0.068515785 -0.22831379 -0.33381668
-0.068327218 -0.22832578 -0.33382657
-0.068147004 -0.22829799 -0.33382276
-0.067889877 -0.22828388 -0.33387688
-0.067675665 -0.22828615 -0.33389202
-0.067492835 -0.22829901 -0.33391598
-0.067301996 -0.22830965 -0.33391449
-0.067110829 -0.22831433 -0.33390567
-0.06691014 -0.2283313 -0.33388883
-0.066796005 -0.22828901 -0.33389699
-0.066452831 -0.2282815 -0.33390012
-0.06629622 -0.22829387 -0.33390933
-0.065963663 -0.22830634 -0.33395731
-0.065702334 -0.228319 -0.33395997
-0.065478995 -0.22830069 -0.3339811
-0.065354005 -0.22823599 -0.33398998
-0.072667666 -0.22809233 -0.33398768
-0.072517835 -0.22810048 -0.33395255
-0.072302997 -0.22811556 -0.33391008
-0.072072998 -0.22811951 -0.3338815
-0.071892202 -0.22811799 -0.33389241
-0.071705841 -0.22807316 -0.33387336
-0.071504585 -0.22808468 -0.33388507
-0.071323551 -0.22809914 -0.33387324
-0.071101554 -0.22810656 -0.33384255
-0.070905998 -0.22810225 -0.33381423
-0.070132993 -0.22809751 -0.33381686
-0.07 -0.228034 -0.33380601
-0.069247335 -0.22807033 -0.33382666
-0.069077998 -0.22800601 -0.33381599
-0.068628006 -0.22809701 -0.33381334
-0.068498336 -0.22810656 -0.33382213
-0.06831 -0.22811858 -0.33383453
-0.068132006 -0.22812499 -0.33383486
-0.067939803 -0.22811821 -0.33387142
-0.067703448 -0.22807691 -0.33389255
-0.067482546 -0.2280969 -0.33391857
-0.067300566 -0.22809143 -0.33392087
-0.067093834 -0.22810668 -0.33389983
-0.066910498 -0.22811352 -0.33389616
-0.066781335 -0.22811633 -0.33389965
-0.066483498 -0.22810301 -0.333904
-0.066307418 -0.22808383 -0.33390364
-0.065946333 -0.22809799 -0.333956
-0.065685004 -0.22811067 -0.33396098
-0.065486997 -0.22812489 -0.33398443
-0.065369003 -0.22809851 -0.33398151
-0.072695166 -0.22788166 -0.33398333
-0.072501414 -0.22789276 -0.33394408
-0.072318554 -0.22790612 -0.33390021
-0.072113745 -0.22792 -0.33388823
-0.071885571 -0.22791372 -0.33389887
-0.071690001 -0.22790074 -0.33389527
-0.071487419 -0.2278771 -0.3338871
-0.071306109 -0.227892 -0.33387816
-0.071110711 -0.22790842 -0.33385658
-0.070899129 -0.22790201 -0.33381611
-0.070073001 -0.22789399 -0.33381167
-0.069988005 -0.22789466 -0.33380902
-0.069468431 -0.22790886 -0.33380669
-0.069290169 -0.22790748 -0.33382484
-0.069068 -0.22790301 -0.33383298
-0.068699338 -0.22788782 -0.33380833
-0.068504713 -0.22790514 -0.33383384
-0.068311639 -0.22790462 -0.33383209
-0.068115003 -0.22791767 -0.33383521
-0.067915 -0.22792532 -0.33388314
-0.067706406 -0.2279104 -0.33390158
-0.067503184 -0.2278731 -0.33391073
-0.067320623 -0.22790226 -0.33392239
-0.067093715 -0.22788857 -0.33391285
-0.066893168 -0.22790568 -0.33389902
-0.066765003 -0.22790933 -0.33388802
-0.066470332 -0.22792934 -0.33389235
-0.066316374 -0.22788313 -0.33389801
-0.066194333 -0.227881 -0.33391964
-0.065930665 -0.22789001 -0.33393201
-0.065667666 -0.22790265 -0.33396301
-0.065477803 -0.22790198 -0.33399078
-0.06536825 -0.22794351 -0.33399549
-0.072679333 -0.2276745 -0.33396351
-0.072484754 -0.22768517 -0.33393559
-0.072301894 -0.22769856 -0.33389187
-0.072134666 -0.22770351 -0.33386788
-0.071894668 -0.2277142 -0.33390021
-0.071674503 -0.22772817 -0.33391568
-0.071490005 -0.227687 -0.33391055
-0.071314 -0.22768341 -0.3338896
-0.071111664 -0.22769068 -0.33386001
-0.070904501 -0.22770999 -0.33382413
-0.070737004 -0.22769299 -0.33381176
-0.070220001 -0.22760201 -0.333803
-0.070059001 -0.22772101 -0.3338055
-0.069970332 -0.22768666 -0.33382034
-0.069689997 -0.227632 -0.333808
-0.069480717 -0.22769858 -0.33382702
-0.069310091 -0.22772348 -0.33383402
-0.069053672 -0.22772968 -0.33383402
-0.068768673 -0.22767867 -0.33383432
-0.068534449 -0.22768433 -0.33382431
-0.068321303 -0.22770901 -0.33381179
-0.06807375 -0.2276935 -0.33384848
-0.067896836 -0.22771867 -0.333902
-0.067718163 -0.22772919 -0.33390269
-0.067485102 -0.2276855 -0.33391157
-0.067342497 -0.22768366 -0.33389616
-0.067101665 -0.22769067 -0.33391988
-0.066876329 -0.22769733 -0.33389449
-0.066748336 -0.22770067 -0.33387867
-0.066453665 -0.22772102 -0.33388302
-0.066316143 -0.22771585 -0.33390403
-0.066178665 -0.227672 -0.33389702
-0.065913327 -0.22768165 -0.33393833
-0.065650664 -0.227695 -0.33396301
-0.06546028 -0.22772799 -0.33399215
-0.065365002 -0.227754 -0.33399802
-0.064744003 -0.227607 -0.33399999
-0.072664998 -0.22750075 -0.33396003
-0.072494 -0.22747476 -0.333931
-0.072311997 -0.22748967 -0.33388993
-0.072117992 -0.22749484 -0.33386084
-0.071920998 -0.22750331 -0.33389699
-0.071701109 -0.22751898 -0.3339273
-0.071487747 -0.22751975 -0.33393404
-0.0712955 -0.22747593 -0.33391026
-0.071093671 -0.22748299 -0.33387801
-0.070917837 -0.22749233 -0.33384565
-0.070743501 -0.22750251 -0.33381984
-0.070268996 -0.22748333 -0.33380303
-0.070125997 -0.22747099 -0.333801
-0.069959998 -0.227549 -0.33381301
-0.069727667 -0.22749101 -0.33382034
-0.069490999 -0.22749922 -0.33383363
-0.069311999 -0.22752249 -0.33383018
-0.0691 -0.22750659 -0.33385363
-0.068751 -0.22747034 -0.33384833
-0.068516448 -0.22747701 -0.3338393
-0.068315111 -0.22749455 -0.333814
-0.068095855 -0.227492 -0.33384943
-0.067878671 -0.22751068 -0.333913
-0.06770134 -0.22752082 -0.33389449
-0.067493498 -0.2275172 -0.33389157
-0.067324333 -0.227476 -0.33391035
-0.067111142 -0.22749171 -0.333915
-0.06689325 -0.22747964 -0.33389014
-0.066730998 -0.22749268 -0.33388469
-0.066433668 -0.22751398 -0.33392468
-0.066293329 -0.22752778 -0.33389944
-0.066163003 -0.22749999 -0.33391801
-0.065894999 -0.22747399 -0.33395299
-0.065632999 -0.22748733 -0.333967
-0.065480001 -0.22749467 -0.33399734
-0.065296501 -0.22754401 -0.33399901
-0.07267157 -0.22731642 -0.33395383
-0.072472997 -0.22728799 -0.33390999
-0.07229542 -0.22728242 -0.33388224
-0.072100826 -0.22728749 -0.33386469
-0.071902834 -0.22729634 -0.33391067
-0.071708135 -0.22732072 -0.33395714
-0.071487911 -0.22731391 -0.33393884
-0.071287006 -0.22729398 -0.33392176
-0.071105376 -0.227266 -0.3339029
-0.07089933 -0.22728483 -0.33386669
-0.070726499 -0.22729416 -0.33382216
-0.070522994 -0.227272 -0.33381099
-0.070330001 -0.22733299 -0.33380648
-0.070096426 -0.22728486 -0.3338103
-0.069932997 -0.227238 -0.33383298
-0.06970983 -0.22728367 -0.33382764
-0.069483005 -0.22729999 -0.33384359
-0.069315799 -0.22730021 -0.333828
-0.069100164 -0.22731251 -0.33385918
-0.068737507 -0.22729701 -0.33383203
-0.068493567 -0.22728929 -0.33383185
-0.068297334 -0.22728699 -0.33382589
-0.068100333 -0.22729458 -0.33387446
-0.067862332 -0.22730283 -0.33390197
-0.067684501 -0.22731318 -0.33389351
-0.067490548 -0.22732265 -0.3339099
-0.067343861 -0.22731499 -0.33393314
-0.067112334 -0.22727333 -0.33391285
-0.066914573 -0.22728916 -0.33389929
-0.066746004 -0.2272708 -0.33388358
-0.066417001 -0.22730666 -0.33392134
-0.066276997 -0.22732022 -0.33389142
-0.066148005 -0.22732633 -0.33392766
-0.065880999 -0.227301 -0.33395299
-0.065614998 -0.22728001 -0.33397898
-0.065307327 -0.22725634 -0.3339977
-0.072874673 -0.22710466 -0.33397934
-0.072730161 -0.22711366 -0.3339465
-0.072506547 -0.2271201 -0.33389118
-0.072290674 -0.22708933 -0.33386335
-0.072109878 -0.22707176 -0.33387798
-0.071886338 -0.22708899 -0.33390769
-0.071709342 -0.22710234 -0.33395767
-0.071495898 -0.22711912 -0.33395761
-0.0713166 -0.2271127 -0.33394521
-0.071088143 -0.22708786 -0.33391356
-0.070881836 -0.22707801 -0.33387533
-0.070708998 -0.22708784 -0.33382821
-0.070508666 -0.22710001 -0.33381233
-0.070312202 -0.2270958 -0.33381137
-0.070119716 -0.22712386 -0.33381745
-0.069921494 -0.227099 -0.333828
-0.069692001 -0.22707652 -0.3338407
-0.069492333 -0.22708134 -0.33384034
-0.069312498 -0.22709817 -0.33384478
-0.069100998 -0.2271184 -0.33385462
-0.068994999 -0.227038 -0.33386701
-0.068723336 -0.22712465 -0.33383501
-0.068494253 -0.22712187 -0.333832
-0.068280555 -0.22707909 -0.3338199
-0.068094999 -0.22709486 -0.33386663
-0.067878336 -0.22709365 -0.33388865
-0.067685284 -0.22709486 -0.33390903
-0.067473114 -0.22711433 -0.33391452
-0.067322224 -0.22712666 -0.33391088
-0.067097753 -0.22710051 -0.33391851
-0.066908598 -0.22708499 -0.33389583
-0.066738002 -0.22707699 -0.33389199
-0.066404 -0.22713301 -0.33390099
-0.066272698 -0.22710399 -0.33390552
-0.066130333 -0.22711901 -0.33393499
-0.065867335 -0.22712733 -0.33394369
-0.065604001 -0.22713999 -0.33397099
-0.065506205 -0.22706179 -0.33397418
-0.065348282 -0.22707142 -0.33398929
-0.072898835 -0.22689484 -0.33397397
-0.072714664 -0.22690617 -0.33392063
-0.072490908 -0.22692555 -0.33388099
-0.07231462 -0.22690712 -0.33385223
-0.072102562 -0.22687279 -0.33388293
-0.071871005 -0.22688033 -0.33387598
-0.07169117 -0.22689484 -0.33397183
-0.071488887 -0.22690365 -0.33396122
-0.071301579 -0.22691882 -0.33393541
-0.071111284 -0.22692844 -0.33392644
-0.070881002 -0.22688133 -0.33387402
-0.070702203 -0.2268934 -0.3338246
-0.070490666 -0.22689267 -0.33382234
-0.070285663 -0.2269025 -0.33381233
-0.070120491 -0.22691482 -0.3338227
-0.069950663 -0.22692585 -0.33381417
-0.069666006 -0.2268832 -0.33384341
-0.069474667 -0.22687417 -0.33385
-0.069295749 -0.22689074 -0.3338401
-0.069148995 -0.22689533 -0.33385196
-0.068984665 -0.2269 -0.33384767
-0.068705998 -0.22691667 -0.33383301
-0.068470448 -0.22692312 -0.33384567
-0.068263628 -0.22688062 -0.33382651
-0.068108164 -0.22687767 -0.33386698
-0.067926668 -0.22688265 -0.3338742
-0.067707874 -0.22690426 -0.33390349
-0.067488879 -0.22690526 -0.3339085
-0.067321904 -0.22691208 -0.33391237
-0.067084335 -0.226927 -0.33390617
-0.066912994 -0.22691861 -0.3338972
-0.0667134 -0.22688341 -0.3338964
-0.066306323 -0.22689909 -0.33390078
-0.066151336 -0.22690932 -0.33393332
-0.065848671 -0.22692032 -0.33396503
-0.065491199 -0.22688179 -0.33397824
-0.065316163 -0.22688217 -0.33396801
-0.073008001 -0.22668134 -0.33399269
-0.072882831 -0.22668749 -0.33395866
-0.072699003 -0.2266985 -0.33389965
-0.072493777 -0.22670957 -0.3338699
-0.072307594 -0.22672476 -0.33383933
-0.072089173 -0.2267005 -0.33387032
-0.071856 -0.22670799 -0.33389148
-0.071686834 -0.22667468 -0.3339788
-0.071471661 -0.22669612 -0.33396432
-0.071284331 -0.22671191 -0.33393791
-0.071112998 -0.22672068 -0.33392867
-0.070906252 -0.22672012 -0.33389437
-0.070719995 -0.22667134 -0.33382568
-0.070474334 -0.22668533 -0.33381435
-0.070268333 -0.22669566 -0.33381733
-0.070102997 -0.2267075 -0.33382484
-0.069932997 -0.22671933 -0.3338255
-0.069673002 -0.2267164 -0.33383378
-0.069480337 -0.226712 -0.33386001
-0.06929566 -0.2266876 -0.33383873
-0.069146998 -0.22666951 -0.3338635
-0.068968333 -0.22669132 -0.33383369
-0.068688333 -0.22670966 -0.33384869
-0.068469718 -0.22672486 -0.33383927
-0.06830629 -0.22670844 -0.3338483
-0.068117 -0.22668858 -0.33385316
-0.067911498 -0.22667515 -0.33384597
-0.067725666 -0.22668518 -0.33388868
-0.067507893 -0.22669512 -0.33389002
-0.067312412 -0.22671001 -0.33390558
-0.067066833 -0.22671916 -0.33391318
-0.066887327 -0.22672485 -0.3339043
-0.066716596 -0.22671621 -0.33389381
-0.066289991 -0.22669132 -0.33389214
-0.066134162 -0.22670133 -0.33393598
-0.065831669 -0.22671168 -0.33397233
-0.065568998 -0.22672433 -0.33398533
-0.065293364 -0.22668156 -0.33396962
-0.065160498 -0.22664601 -0.33398402
-0.072910547 -0.22647712 -0.33392465
-0.072682835 -0.2264905 -0.333882
-0.072477445 -0.22650255 -0.333859
-0.072291248 -0.22651742 -0.33382666
-0.072099708 -0.22653714 -0.33384186
-0.071930602 -0.22651561 -0.33386999
-0.071690373 -0.22648613 -0.33396402
-0.071484834 -0.22648585 -0.33397248
-0.071316086 -0.2265005 -0.33396876
-0.071126334 -0.22651166 -0.33395433
-0.070921175 -0.22651885 -0.33390617
-0.070717432 -0.22651286 -0.33386016
-0.070456997 -0.22647767 -0.333819
-0.070278496 -0.22650325 -0.33381802
-0.070113249 -0.22648938 -0.33382797
-0.069913663 -0.226512 -0.33385816
-0.069672495 -0.22653899 -0.33384597
-0.069541596 -0.22651219 -0.33383316
-0.069311082 -0.22648908 -0.3338584
-0.069149338 -0.22647949 -0.33385468
-0.068950333 -0.22648533 -0.33385301
-0.068672001 -0.22650231 -0.33383599
-0.068464331 -0.22650701 -0.3338263
-0.068300113 -0.22652054 -0.33384869
-0.068121627 -0.22652115 -0.33386013
-0.067896754 -0.22650149 -0.33385149
-0.06770917 -0.226478 -0.33387935
-0.06749022 -0.22648787 -0.33389899
-0.067295082 -0.22650255 -0.3339051
-0.067049667 -0.22651184 -0.33391353
-0.066869996 -0.22651766 -0.33391002
-0.066692501 -0.22652249 -0.33389136
-0.066271558 -0.22648355 -0.33390835
-0.066117831 -0.22649334 -0.33392301
-0.065813333 -0.22650367 -0.33398136
-0.065551996 -0.22651701 -0.33399132
-0.06529256 -0.22650433 -0.33397347
-0.065148674 -0.22647233 -0.33395901
-0.073059 -0.2263 -0.333987
-0.072884433 -0.2262903 -0.33390313
-0.072667502 -0.22628383 -0.33385649
-0.072469123 -0.22630388 -0.33384266
-0.072309799 -0.22630009 -0.33383471
-0.072130673 -0.2263189 -0.33383769
-0.071925499 -0.226322 -0.33387515
-0.071712568 -0.226307 -0.33394629
-0.071498878 -0.22626899 -0.33397886
-0.071298249 -0.22629309 -0.33397841
-0.071108662 -0.22630432 -0.33396167
-0.070904501 -0.22631133 -0.33389965
-0.070715286 -0.22633457 -0.33386356
-0.070502803 -0.22628 -0.33382621
-0.070286006 -0.22627699 -0.3338193
-0.070106782 -0.22628967 -0.33382121
-0.06989684 -0.22630368 -0.33385181
-0.069683507 -0.22634751 -0.33381599
-0.069535166 -0.226318 -0.33382133
-0.069299504 -0.22629821 -0.33386451
-0.069131829 -0.2262715 -0.3338615
-0.068931997 -0.22627668 -0.33386266
-0.068655334 -0.226294 -0.33382866
-0.068447672 -0.22629966 -0.33381853
-0.068283439 -0.22631256 -0.33384266
-0.068096995 -0.22632265 -0.33385399
-0.067882158 -0.22632901 -0.333859
-0.067684397 -0.22628522 -0.33387801
-0.067494571 -0.226289 -0.33390555
-0.067311503 -0.22629218 -0.33390322
-0.067123398 -0.2262882 -0.33391201
-0.066910245 -0.22631577 -0.33392224
-0.066692859 -0.22630444 -0.3338992
-0.066279195 -0.22628739 -0.33390999
-0.066129774 -0.22628467 -0.33392644
-0.065802999 -0.226366 -0.33397201
-0.065794006 -0.2262615 -0.33397502
-0.065535337 -0.22630833 -0.33398268
-0.065278165 -0.22632818 -0.33398381
-0.065174669 -0.22630833 -0.33398166
-0.073045999 -0.22612767 -0.33396634
-0.072907284 -0.22613029 -0.33390385
-0.072700806 -0.22608659 -0.33386159
-0.07250338 -0.22607663 -0.33385387
-0.072308585 -0.22609808 -0.33384296
-0.072113 -0.22611144 -0.33384567
-0.07190717 -0.22611468 -0.33389482
-0.071723603 -0.2261132 -0.33394679
-0.071482748 -0.22607875 -0.33398286
-0.071273111 -0.22609369 -0.33398613
-0.071101204 -0.22608988 -0.3339757
-0.070886336 -0.22610401 -0.33391967
-0.070715167 -0.22611649 -0.3338885
-0.070519604 -0.22611201 -0.33384079
-0.070269667 -0.22606967 -0.33381331
-0.070080996 -0.22609174 -0.33382425
-0.069880672 -0.2260965 -0.33384252
-0.069663666 -0.22610533 -0.33381632
-0.069518834 -0.22611083 -0.33381465
-0.069284 -0.22611862 -0.33384106
-0.069117248 -0.22609849 -0.333864
-0.068915337 -0.22606933 -0.33386266
-0.068639003 -0.22608764 -0.3338193
-0.068448499 -0.22610876 -0.333812
-0.068299696 -0.2261025 -0.33383292
-0.068091899 -0.2261076 -0.3338455
-0.067866333 -0.22612183 -0.33383736
-0.067689396 -0.22611761 -0.33386841
-0.067485794 -0.22608499 -0.33389261
-0.067310341 -0.22608317 -0.33391532
-0.067119829 -0.22609352 -0.33390799
-0.066927664 -0.22609836 -0.33391169
-0.066700786 -0.22610579 -0.33391491
-0.066273168 -0.22609866 -0.33390018
-0.066113889 -0.22607654 -0.33390844
-0.065781333 -0.22608767 -0.33395198
-0.065518335 -0.226101 -0.33397934
-0.065266751 -0.22613749 -0.33398473
-0.065180667 -0.22612132 -0.33398232
-0.073028333 -0.22591932 -0.33397901
-0.072906502 -0.22592235 -0.33393201
-0.072742797 -0.225916 -0.3339082
-0.07249622 -0.2258781 -0.33387566
-0.072289996 -0.22589141 -0.33386508
-0.072094448 -0.22590423 -0.33386955
-0.071888998 -0.225908 -0.33391318
-0.071699001 -0.2259205 -0.33395448
-0.071530402 -0.22591659 -0.33397824
-0.071300596 -0.22588821 -0.33399063
-0.071111269 -0.22589445 -0.33397663
-0.070887707 -0.22588529 -0.33392027
-0.0706985 -0.22590901 -0.3338795
-0.070487671 -0.22591935 -0.33384681
-0.070254996 -0.225896 -0.33381101
-0.070112668 -0.22587149 -0.33381414
-0.069907561 -0.22588688 -0.33382702
-0.069646999 -0.225898 -0.3338075
-0.069512598 -0.22591741 -0.33380657
-0.069291495 -0.22593161 -0.33381811
-0.0691045 -0.22592582 -0.33384249
-0.068903506 -0.225896 -0.33382499
-0.068620332 -0.22587967 -0.33383599
-0.06844566 -0.22588332 -0.33381131
-0.068316229 -0.22589278 -0.33382034
-0.068115398 -0.2259119 -0.33382419
-0.067939997 -0.225897 -0.33383241
-0.067707442 -0.22592133 -0.33385542
-0.067490399 -0.2259188 -0.33387178
-0.067287631 -0.22588173 -0.33390844
-0.067102335 -0.2258855 -0.33391151
-0.066910334 -0.22589101 -0.33391783
-0.066709287 -0.22590713 -0.33391231
-0.066596001 -0.22586599 -0.33390403
-0.066267595 -0.22591119 -0.33388963
-0.066088282 -0.22588944 -0.33391628
-0.065764993 -0.22588067 -0.33393466
-0.065501332 -0.22589266 -0.33397302
-0.065219 -0.225986 -0.33399999
-0.065168001 -0.22598401 -0.33399299
-0.072879598 -0.2257292 -0.33396417
-0.072716005 -0.22572416 -0.33392736
-0.072493166 -0.22569282 -0.33389199
-0.072314091 -0.22567435 -0.33390701
-0.072113276 -0.22570127 -0.33390355
-0.071888283 -0.22569014 -0.33394399
-0.071689405 -0.2257262 -0.33398521
-0.071483999 -0.22574124 -0.33398676
-0.071300499 -0.22569966 -0.33399269
-0.071117111 -0.22567956 -0.33398432
-0.070896439 -0.22568744 -0.33393601
-0.07068 -0.22570165 -0.33390215
-0.070548333 -0.22570634 -0.33385432
-0.070317 -0.225721 -0.33383051
-0.070098251 -0.2256985 -0.33381349
-0.069902249 -0.22568727 -0.33381847
-0.069671251 -0.22567099 -0.33382922
-0.069492802 -0.22568221 -0.33381039
-0.069296829 -0.22570348 -0.33381084
-0.069088005 -0.22571866 -0.33383265
-0.068888664 -0.22572301 -0.33382931
-0.068606496 -0.22570699 -0.33383501
-0.06848333 -0.22562866 -0.33381236
-0.068281285 -0.2256967 -0.33381656
-0.068096712 -0.22570743 -0.33381072
-0.067932665 -0.22570316 -0.33383265
-0.067716286 -0.22572185 -0.33385614
-0.067499124 -0.22571425 -0.33387014
-0.067280099 -0.22570208 -0.33389869
-0.067086495 -0.22567783 -0.33389553
-0.066894166 -0.22568233 -0.33390352
-0.066710003 -0.22568917 -0.33390796
-0.066582002 -0.22569168 -0.33389366
-0.066266745 -0.22573274 -0.33388752
-0.066113904 -0.22571468 -0.33389771
-0.065747336 -0.22567232 -0.3339487
-0.065485001 -0.225685 -0.33396769
-0.065331668 -0.22569233 -0.33399066
-0.065193996 -0.225674 -0.33399901
-0.072830997 -0.22558001 -0.33399099
-0.072697163 -0.22551668 -0.3339583
-0.072511204 -0.2255162 -0.33395341
-0.072292395 -0.22548728 -0.33395281
-0.072116554 -0.22548676 -0.33394548
-0.071930163 -0.22551532 -0.3339645
-0.071736328 -0.22552299 -0.33399633
-0.071448997 -0.225586 -0.33399001
-0.071205005 -0.2255 -0.33399302
-0.071115851 -0.2254817 -0.33399057
-0.0709235 -0.22547768 -0.33395216
-0.07070522 -0.22549057 -0.33390912
-0.070530005 -0.22549866 -0.333873
-0.07029967 -0.22551282 -0.33382916
-0.070083335 -0.2255255 -0.33382666
-0.069908194 -0.2254844 -0.33382779
-0.069718406 -0.2254914 -0.33383378
-0.069518998 -0.225556 -0.33380601
-0.069268003 -0.22548842 -0.33381957
-0.069102004 -0.22550978 -0.33382812
-0.068871997 -0.22551566 -0.33382869
-0.068590507 -0.2254985 -0.333821
-0.068284281 -0.22547643 -0.3338187
-0.06808234 -0.22547932 -0.33381152
-0.067916334 -0.22549552 -0.33382201
-0.067718662 -0.22550267 -0.33383432
-0.067494221 -0.22551499 -0.33386669
-0.067290664 -0.22552578 -0.33388066
-0.067097999 -0.22548941 -0.33387071
-0.066877998 -0.22547518 -0.33388951
-0.066693507 -0.22548164 -0.3338975
-0.066565335 -0.22548467 -0.333886
-0.066272669 -0.22550566 -0.33386135
-0.0661176 -0.22552669 -0.3338739
-0.065997496 -0.225491 -0.33392
-0.065734506 -0.225499 -0.333924
-0.065468006 -0.22547667 -0.3339617
-0.065314002 -0.225484 -0.33399466
-0.065168247 -0.22551675 -0.3339965
-0.072444998 -0.22539499 -0.33399799
-0.072344005 -0.22539851 -0.33398801
-0.072102003 -0.22534834 -0.33399436
-0.071974002 -0.225354 -0.33399799
-0.071107857 -0.22530256 -0.33399084
-0.070907168 -0.22527051 -0.33394468
-0.070700876 -0.22529137 -0.33388874
-0.070533998 -0.22527274 -0.33387023
-0.070319749 -0.2252865 -0.3338275
-0.070065998 -0.22531849 -0.33382979
-0.069912598 -0.2253172 -0.33381778
-0.069773495 -0.2253015 -0.33383
-0.069404997 -0.225282 -0.333808
-0.069291808 -0.22530138 -0.33381921
-0.069095999 -0.22531798 -0.33382189
-0.068861 -0.22537801 -0.33381799
-0.068533748 -0.2253435 -0.33381277
-0.068325996 -0.22531426 -0.33381826
-0.068069994 -0.22527362 -0.33381227
-0.067899667 -0.22528817 -0.33381298
-0.067701504 -0.22529517 -0.33383298
-0.067521162 -0.2253055 -0.33386114
-0.067302756 -0.22531658 -0.33387733
-0.067150831 -0.22532934 -0.333864
-0.066907503 -0.22530067 -0.333882
-0.066676497 -0.22527367 -0.33389249
-0.066549331 -0.22527701 -0.33387199
-0.066255331 -0.22529764 -0.33385935
-0.066112891 -0.22531088 -0.33387363
-0.065984003 -0.22531734 -0.33390567
-0.065720998 -0.22532566 -0.333915
-0.065453 -0.2253035 -0.33397499
-0.07108669 -0.22512469 -0.33398861
-0.070892498 -0.22509751 -0.33394849
-0.070710197 -0.22508781 -0.3338646
-0.070541166 -0.2250825 -0.33387482
-0.070341997 -0.22509567 -0.33383965
-0.070085377 -0.225117 -0.33381712
-0.069887832 -0.22512431 -0.33382216
-0.069759332 -0.22512901 -0.33382431
-0.069289431 -0.2250783 -0.3338173
-0.069091775 -0.22508723 -0.33381447
-0.068878748 -0.22508249 -0.33380651
-0.068558335 -0.225118 -0.33383235
-0.068277001 -0.225196 -0.33380899
-0.068077855 -0.22507286 -0.3338097
-0.067886591 -0.22505319 -0.33381063
-0.067683674 -0.22508784 -0.333848
-0.067505501 -0.22509766 -0.33384001
-0.067286752 -0.22510867 -0.33385786
-0.067134835 -0.22512101 -0.33384815
-0.066893555 -0.22512776 -0.33387521
-0.06666325 -0.22510025 -0.33388302
-0.066534996 -0.22510299 -0.33387199
-0.066239662 -0.225089 -0.33384001
-0.066096 -0.22510301 -0.33386722
-0.065966666 -0.22510934 -0.33391234
-0.065703996 -0.22511733 -0.33390966
-0.065439671 -0.22513033 -0.33396101
-0.065279998 -0.225067 -0.333994
-0.065131247 -0.22506574 -0.33399302
-0.0708775 -0.22492467 -0.33395919
-0.070699997 -0.22489934 -0.33391264
-0.070524499 -0.22487484 -0.33386412
-0.070324004 -0.224887 -0.33384702
-0.070091672 -0.22489934 -0.33380818
-0.069902256 -0.22490513 -0.33381236
-0.069750004 -0.22499099 -0.333803
-0.069567002 -0.22492899 -0.33381465
-0.069230497 -0.22490826 -0.33382675
-0.069116898 -0.22487888 -0.33382109
-0.068903498 -0.22489101 -0.33381853
-0.068541996 -0.22491001 -0.333823
-0.068254001 -0.22491901 -0.33380899
-0.06806767 -0.22491133 -0.33382335
-0.067938402 -0.22489838 -0.33381703
-0.067660592 -0.22489461 -0.3338308
-0.067488335 -0.22488999 -0.33383933
-0.067285605 -0.22490661 -0.33385071
-0.067136496 -0.22490326 -0.33385152
-0.06692066 -0.22491817 -0.33388081
-0.066708244 -0.22493389 -0.33386362
-0.066539995 -0.22491226 -0.3338725
-0.066222005 -0.22488166 -0.333846
-0.066078991 -0.22489524 -0.33386689
-0.065950997 -0.22490199 -0.33388767
-0.065687664 -0.22490966 -0.33389631
-0.065422669 -0.22492234 -0.33396101
-0.065249398 -0.22491801 -0.33399358
-0.065139711 -0.22486386 -0.3339929
-0.071033999 -0.224641 -0.33398899
-0.070859663 -0.22471632 -0.3339735
-0.070693001 -0.22471198 -0.333913
-0.070510253 -0.22470175 -0.33386147
-0.070307672 -0.22468001 -0.33384165
-0.070131257 -0.2247055 -0.33380899
-0.069926508 -0.22472616 -0.33381
-0.069723502 -0.22467899 -0.3338075
-0.069555998 -0.224792 -0.33380699
-0.069240995 -0.22473067 -0.33381867
-0.069116004 -0.2246902 -0.33381289
-0.068904199 -0.2246972 -0.33381519
-0.068798997 -0.22461601 -0.33380699
-0.068528503 -0.224738 -0.333812
-0.068297282 -0.22468914 -0.33380613
-0.068040997 -0.22479799 -0.333808
-0.067973003 -0.224731 -0.333808
-0.067698002 -0.224738 -0.33380201
-0.067471497 -0.22468233 -0.33383766
-0.067277774 -0.22469109 -0.33384836
-0.067127332 -0.22470355 -0.3338418
-0.066904001 -0.22471082 -0.33387116
-0.066725336 -0.22471619 -0.33385417
-0.066545665 -0.22472185 -0.33386698
-0.066207498 -0.224709 -0.33385098
-0.066076301 -0.2246794 -0.33385232
-0.065933339 -0.224693 -0.333895
-0.065670006 -0.22470166 -0.33390799
-0.065406002 -0.22471434 -0.33394566
-0.065251671 -0.22472133 -0.333994
-0.065149404 -0.2246916 -0.33399463
-0.071043596 -0.22451599 -0.33398384
-0.070886001 -0.2245214 -0.33398479
-0.070700251 -0.22450812 -0.33392212
-0.070495494 -0.22452883 -0.33387101
-0.070290327 -0.22447266 -0.33383903
-0.070138335 -0.224479 -0.33381596
-0.069960505 -0.224456 -0.33381099
-0.069229998 -0.224593 -0.333814
-0.069176003 -0.22453199 -0.33380499
-0.068952002 -0.22447367 -0.33380935
-0.068787336 -0.22447766 -0.33381701
-0.067444667 -0.22452201 -0.33380935
-0.067272425 -0.22450301 -0.33382988
-0.067118995 -0.2244883 -0.33384314
-0.066887334 -0.22450249 -0.33386517
-0.066708669 -0.22450852 -0.33384696
-0.066528164 -0.22451401 -0.33387434
-0.066090107 -0.22449189 -0.33384857
-0.065948404 -0.22447121 -0.33385119
-0.065654002 -0.22449367 -0.33389068
-0.065314002 -0.22451 -0.33393517
-0.065127544 -0.22451843 -0.33398172
-0.06498 -0.224462 -0.33399501
-0.071029499 -0.22429448 -0.33399099
-0.070914999 -0.224298 -0.33399498
-0.070694335 -0.22430843 -0.33393234
-0.070478499 -0.2243215 -0.3338705
-0.070277005 -0.2243 -0.33382899
-0.070045501 -0.22429475 -0.33380473
-0.069946498 -0.2242835 -0.333808
-0.069007501 -0.22429851 -0.33380499
-0.068938494 -0.22430101 -0.33380699
-0.068765 -0.22420201 -0.33380201
-0.068489 -0.224254 -0.33380201
-0.06824366 -0.22434099 -0.33380902
-0.068196997 -0.224227 -0.33380401
-0.067258745 -0.22429201 -0.33380952
-0.067117169 -0.22428608 -0.33383617
-0.066870831 -0.22429533 -0.33385801
-0.066690497 -0.22430068 -0.33386448
-0.066511661 -0.22430599 -0.333864
-0.066096872 -0.22430088 -0.33386037
-0.065938666 -0.22427632 -0.33386934
-0.065637998 -0.224286 -0.33386803
-0.065297 -0.22430201 -0.33393684
-0.065105997 -0.22431725 -0.33395278
-0.064970672 -0.22432233 -0.33397296
-0.070851997 -0.22409099 -0.33399901
-0.070718497 -0.224097 -0.33395815
-0.070504673 -0.22411211 -0.33389252
-0.070261993 -0.22412665 -0.33383834
-0.070037328 -0.22409201 -0.33380732
-0.069931999 -0.22411001 -0.333812
-0.06876 -0.224132 -0.33380201
-0.068469003 -0.224011 -0.33380201
-0.067259997 -0.22410075 -0.33380899
-0.067100666 -0.22407836 -0.33382693
-0.066854335 -0.22408815 -0.33385119
-0.066673003 -0.22409315 -0.33386719
-0.066494502 -0.22409834 -0.333866
-0.066088878 -0.2241189 -0.33384886
-0.065915003 -0.2240824 -0.3338708
-0.065622002 -0.22407933 -0.33385932
-0.065296404 -0.22410719 -0.33392921
-0.065096997 -0.22410253 -0.33395481
-0.064926006 -0.22410281 -0.33399338
-0.071015999 -0.22384399 -0.33399498
-0.070701331 -0.22388934 -0.333958
-0.070512861 -0.22391328 -0.33391303
-0.0703054 -0.2239006 -0.33385122
-0.070093334 -0.22392567 -0.33381233
-0.068902001 -0.22385 -0.333801
-0.068457335 -0.22387235 -0.33381
-0.067238666 -0.22397535 -0.33380499
-0.067090712 -0.22391 -0.33381328
-0.066859752 -0.223897 -0.33384576
-0.066690378 -0.22387524 -0.33385861
-0.06647867 -0.2238905 -0.33384469
-0.0660735 -0.22392812 -0.33384377
-0.065930165 -0.22390582 -0.33385432
-0.065606996 -0.223905 -0.33386201
-0.065339997 -0.22388268 -0.33391133
-0.065110847 -0.2239041 -0.3339341
-0.064959802 -0.22389081 -0.33397341
-0.071289003 -0.223648 -0.333996
-0.070684336 -0.22368182 -0.33395651
-0.070515499 -0.22369516 -0.33389214
-0.070304833 -0.22370601 -0.33385333
-0.070082001 -0.22378699 -0.33380499
-0.068443 -0.223699 -0.33380902
-0.067341998 -0.223647 -0.333801
-0.067126662 -0.22368167 -0.33381069
-0.066863999 -0.22367199 -0.33381236
-0.066733174 -0.22367366 -0.33383784
-0.066505998 -0.22368145 -0.33384404
-0.066080831 -0.22370951 -0.33383301
-0.06592422 -0.22372156 -0.33384222
-0.065593667 -0.22373199 -0.33385667
-0.065324001 -0.223674 -0.333895
-0.065102577 -0.22368991 -0.33393145
-0.064926878 -0.22368936 -0.3339614
-0.064774498 -0.2236715 -0.333976
-0.071280003 -0.223545 -0.333994
-0.070856251 -0.2234845 -0.33399647
-0.070667997 -0.22347432 -0.33394584
-0.070497997 -0.22348802 -0.33389816
-0.070289329 -0.22349834 -0.33383283
-0.070056498 -0.22347501 -0.33380401
-0.068875499 -0.22354001 -0.33380902
-0.068434998 -0.22359701 -0.333803
-0.067136005 -0.22351839 -0.33380628
-0.066849999 -0.223499 -0.33381802
-0.066720001 -0.22350176 -0.333821
-0.0665005 -0.22348227 -0.33383727
-0.066396996 -0.223406 -0.33384201
-0.066074394 -0.22351401 -0.3338252
-0.065906994 -0.22351323 -0.33384213
-0.065574996 -0.22352433 -0.33387503
-0.065309495 -0.22350201 -0.33389899
-0.065086842 -0.22348236 -0.3339127
-0.064904332 -0.22349066 -0.33393732
-0.064760335 -0.22349767 -0.33397233
-0.064501494 -0.22347251 -0.33399501
-0.070922889 -0.22332624 -0.3339918
-0.070713282 -0.22331412 -0.33395013
-0.0704825 -0.22328049 -0.33387467
-0.070312247 -0.22330575 -0.33383822
-0.070193 -0.223262 -0.33380699
-0.067116998 -0.22338 -0.33380201
-0.066835672 -0.22332601 -0.33381367
-0.066705994 -0.22332866 -0.33381268
-0.066519253 -0.22330076 -0.33381501
-0.066389501 -0.2233035 -0.33383
-0.066092998 -0.223289 -0.33381602
-0.065884501 -0.22331476 -0.3338275
-0.065559 -0.22331567 -0.33386302
-0.065295003 -0.22332768 -0.33390167
-0.06507311 -0.22328898 -0.33388001
-0.064902 -0.22327662 -0.33387733
-0.064746 -0.22328967 -0.33392799
-0.064168006 -0.223353 -0.33399498
-0.070905775 -0.22311847 -0.333992
-0.070711717 -0.22313514 -0.33394584
-0.070497252 -0.22307837 -0.33388689
-0.070333004 -0.22307765 -0.33383834
-0.070177324 -0.22308899 -0.33382833
-0.066818997 -0.2231175 -0.33380601
-0.066643335 -0.22312267 -0.33381131
-0.066514403 -0.22312698 -0.33380902
-0.066376664 -0.22313033 -0.33380935
-0.066076003 -0.22308201 -0.33381334
-0.065845005 -0.22309919 -0.33382165
-0.065542668 -0.22310901 -0.33384499
-0.065278336 -0.22311999 -0.33389699
-0.065086856 -0.22311258 -0.33389086
-0.064901166 -0.22307509 -0.33389571
-0.064729325 -0.22308199 -0.33392271
-0.064464003 -0.223022 -0.33399501
-0.064290665 -0.223068 -0.33398333
-0.070863672 -0.222911 -0.33398667
-0.070712827 -0.22291698 -0.33395252
-0.07050585 -0.22290955 -0.33389586
-0.070318505 -0.22290501 -0.333839
-0.070161 -0.22288167 -0.33381632
-0.066806003 -0.22297999 -0.333832
-0.066756755 -0.22287551 -0.33381251
-0.066466749 -0.222937 -0.33381426
-0.066359006 -0.22292201 -0.33381665
-0.066064999 -0.22294199 -0.33380401
-0.065884992 -0.22287479 -0.3338134
-0.065793 -0.222927 -0.33381802
-0.065527335 -0.22290134 -0.33382165
-0.065262668 -0.22291233 -0.33387366
-0.065065444 -0.22292545 -0.33388335
-0.064916 -0.22289999 -0.33391201
-0.064752333 -0.22287267 -0.33391401
-0.064453334 -0.22288199 -0.33399001
-0.064276397 -0.22292161 -0.33398381
-0.064124405 -0.22284701 -0.33399701
-0.063928999 -0.22291833 -0.33399066
-0.070822999 -0.222774 -0.333996
-0.070695341 -0.22270934 -0.33396184
-0.070521168 -0.22272001 -0.33390534
-0.070348658 -0.22273068 -0.3338553
-0.070142336 -0.222674 -0.33384168
-0.066704497 -0.222739 -0.333803
-0.066429004 -0.222748 -0.33380699
-0.066341996 -0.22271432 -0.33381501
-0.066045001 -0.2227 -0.333803
-0.0658805 -0.2227505 -0.33380601
-0.065773666 -0.22268499 -0.33380902
-0.065509327 -0.22269201 -0.33383632
-0.065246008 -0.22270401 -0.33386531
-0.065053619 -0.22272561 -0.33389512
-0.064912096 -0.22271991 -0.33389819
-0.064736247 -0.22269949 -0.33394399
-0.064437002 -0.22267501 -0.33397532
-0.064287797 -0.22267099 -0.33397323
-0.064097255 -0.2227305 -0.33399126
-0.063911669 -0.22270966 -0.33399069
-0.070676841 -0.22250199 -0.33397615
-0.070503496 -0.22251266 -0.33390984
-0.070330665 -0.22252284 -0.33386299
-0.070127502 -0.2225015 -0.33385
-0.069973662 -0.22247267 -0.33380601
-0.065828994 -0.22243801 -0.33381799
-0.06575533 -0.222477 -0.33382535
-0.065492667 -0.22248499 -0.33383068
-0.06522999 -0.22249667 -0.333848
-0.065052837 -0.22250652 -0.33388636
-0.064911507 -0.22251783 -0.33388543
-0.064721003 -0.22252482 -0.33395633
-0.064421996 -0.2225005 -0.33399001
-0.064273402 -0.22249 -0.33396599
-0.064127199 -0.2224566 -0.33397418
-0.063919753 -0.2224815 -0.33398873
-0.070651397 -0.22230761 -0.33398461
-0.070484661 -0.222304 -0.33393684
-0.070312835 -0.22231466 -0.33387652
-0.070113003 -0.22232766 -0.33384702
-0.069921665 -0.22226799 -0.33381167
-0.069775999 -0.22220799 -0.33380201
-0.065820999 -0.22233599 -0.333808
-0.065741003 -0.22230449 -0.33383
-0.065476 -0.222278 -0.33382666
-0.065212667 -0.22228932 -0.33384934
-0.0650355 -0.22229899 -0.3338902
-0.064893506 -0.22231035 -0.33389857
-0.0647045 -0.22231768 -0.3339487
-0.064407326 -0.22232801 -0.333994
-0.064222001 -0.222304 -0.33399099
-0.064088553 -0.22227788 -0.33394769
-0.063958496 -0.2222705 -0.33393925
-0.070602 -0.222156 -0.33399299
-0.07048586 -0.22209455 -0.3339493
-0.070295669 -0.22210717 -0.33387685
-0.070096001 -0.22211933 -0.33385369
-0.069918752 -0.222128 -0.33381075
-0.069766998 -0.222103 -0.33380902
-0.065730497 -0.2221655 -0.333814
-0.065458991 -0.22206932 -0.33382133
-0.06510172 -0.22209515 -0.33387274
-0.06492091 -0.22209311 -0.33388636
-0.064721994 -0.22210723 -0.33394
-0.064315997 -0.22211 -0.3339884
-0.0640838 -0.22210979 -0.33398521
-0.063914336 -0.22208118 -0.33397186
-0.070467286 -0.22187628 -0.33395502
-0.070278496 -0.22189884 -0.33387852
-0.070077993 -0.22191201 -0.33386531
-0.069927998 -0.221919 -0.33381268
-0.069752999 -0.2219305 -0.33380401
-0.065707996 -0.22188801 -0.33380601
-0.065445006 -0.22189599 -0.333819
-0.065102167 -0.22187619 -0.33385754
-0.064912163 -0.22189142 -0.33386263
-0.064705558 -0.22189945 -0.33392608
-0.064325832 -0.22191535 -0.33397615
-0.06414666 -0.22194833 -0.33398268
-0.063872248 -0.221892 -0.33397123
-0.070497498 -0.22169201 -0.33396351
-0.070304662 -0.22168934 -0.33389986
-0.070061997 -0.22170466 -0.33385333
-0.069911331 -0.22171168 -0.33380333
-0.069713756 -0.22170749 -0.33380702
-0.065700002 -0.22178601 -0.33380601
-0.065429993 -0.22172368 -0.33382332
-0.065071598 -0.22168401 -0.33384919
-0.06489516 -0.2216834 -0.33386257
-0.064689115 -0.22169155 -0.33391753
-0.064308658 -0.22170734 -0.33397865
-0.064119399 -0.22173139 -0.3339828
-0.063830003 -0.22170401 -0.333978
-0.070459001 -0.221503 -0.33396399
-0.070299752 -0.22149037 -0.33390123
-0.070083246 -0.22147751 -0.33383876
-0.069893993 -0.22150399 -0.33380499
-0.065673999 -0.22147301 -0.33381152
-0.065411992 -0.22151466 -0.33383834
-0.065150671 -0.22152667 -0.33384299
-0.064901151 -0.22148456 -0.33387476
-0.064707875 -0.22148162 -0.33389989
-0.064594001 -0.221451 -0.33393598
-0.064301804 -0.2215116 -0.33398658
-0.064085744 -0.22150074 -0.3339915
-0.063892998 -0.22153175 -0.33398488
-0.070478804 -0.221313 -0.3339794
-0.070314832 -0.22127217 -0.33391151
-0.070105992 -0.2212835 -0.33384815
-0.069882996 -0.221365 -0.33380499
-0.069704503 -0.221342 -0.33380598
-0.065659337 -0.22129899 -0.33381233
-0.065401003 -0.221376 -0.333837
-0.0653935 -0.22127199 -0.33382201
-0.065132335 -0.22131832 -0.33385766
-0.064909801 -0.22129872 -0.33386928
-0.06471625 -0.22128126 -0.3339096
-0.064579003 -0.221278 -0.33394703
-0.064273998 -0.22129048 -0.33398068
-0.064092502 -0.22129934 -0.33399403
-0.063918002 -0.22131149 -0.33398548
-0.063794501 -0.221286 -0.333987
-0.070471667 -0.221119 -0.33398151
-0.070300996 -0.22109899 -0.33390474
-0.070089497 -0.22107649 -0.33383486
-0.066292003 -0.221085 -0.333808
-0.0656716 -0.2210764 -0.3338086
-0.065379001 -0.22109966 -0.33381835
-0.065115668 -0.22111034 -0.33384967
-0.064901449 -0.22111899 -0.33386311
-0.064718857 -0.22111215 -0.33390984
-0.064562 -0.22106965 -0.33394668
-0.06424433 -0.22112934 -0.333987
-0.064088002 -0.22109099 -0.33397818
-0.063988999 -0.221167 -0.333987
-0.063773997 -0.22104201 -0.33399799
-0.070455834 -0.22091119 -0.33396485
-0.070287168 -0.22092633 -0.33390251
-0.070102997 -0.22091334 -0.33383098
-0.069993496 -0.22084099 -0.33380598
-0.065362334 -0.220891 -0.33381236
-0.065098338 -0.22090167 -0.33385301
-0.064878829 -0.22091724 -0.3338621
-0.064695105 -0.22092502 -0.33390343
-0.064548001 -0.22089601 -0.333947
-0.064086862 -0.22087227 -0.33398566
-0.063965335 -0.22088866 -0.33399367
-0.063763 -0.22090435 -0.33399263
-0.070463747 -0.2207205 -0.33395025
-0.070301257 -0.22070698 -0.33389863
-0.070139669 -0.220725 -0.33382764
-0.069114998 -0.220645 -0.33380401
-0.065345339 -0.22068299 -0.33381367
-0.065081 -0.22069401 -0.33385634
-0.064882003 -0.22070667 -0.33389091
-0.064707421 -0.22071731 -0.33388674
-0.064532995 -0.220722 -0.33395267
-0.064093716 -0.22069201 -0.33399472
-0.063952997 -0.22075 -0.33399901
-0.063745998 -0.22069566 -0.33398733
-0.070489503 -0.22047675 -0.33394223
-0.070297107 -0.22050779 -0.33387423
-0.070122667 -0.22051768 -0.33382264
-0.069103003 -0.220505 -0.33380935
-0.065323003 -0.220406 -0.33380201
-0.065063328 -0.22048533 -0.33386001
-0.064865217 -0.220498 -0.3338863
-0.064708404 -0.22051439 -0.33389553
-0.0645478 -0.22049943 -0.3339332
-0.064253002 -0.22045299 -0.33399999
-0.064101003 -0.220486 -0.33399263
-0.063827999 -0.22041 -0.33399701
-0.063728996 -0.22048767 -0.33399001
