# .PCD v0.7 - Point Cloud Data file format
VERSION 0.7
FIELDS x y z
SIZE 4 4 4
TYPE F F F
COUNT 1 1 1
WIDTH 1481
HEIGHT 1
VIEWPOINT 0 0 0 1 0 0 0
POINTS 1481
DATA ascii
-0.035967998 0.15394001 -0.234906
-0.035964999 0.154015 -0.23489401
-0.035962999 0.154091 -0.23488601
-0.03596 0.154167 -0.23488
-0.035957001 0.15424301 -0.23487499
-0.035955001 0.154318 -0.234861
-0.035953 0.154394 -0.234833
-0.035951 0.15447 -0.234823
-0.035948001 0.15454599 -0.23482101
-0.035946 0.15462101 -0.23481201
-0.035943002 0.154697 -0.23480199
-0.035941001 0.154773 -0.234786
-0.035937998 0.15484799 -0.23477601
-0.035936002 0.15492401 -0.234768
-0.035932999 0.155 -0.23475499
-0.035930999 0.155075 -0.234741
-0.035928998 0.15515099 -0.234731
-0.035925999 0.15522701 -0.234715
-0.035923999 0.155302 -0.234695
-0.035923 0.155378 -0.234671
-0.035921 0.155453 -0.23465
-0.035918001 0.15552901 -0.234648
-0.035914999 0.155605 -0.234652
-0.035912 0.155679 -0.234642
-0.035909999 0.155755 -0.234626
-0.035907999 0.15583 -0.234611
-0.035905998 0.15590601 -0.234595
-0.035904001 0.155981 -0.234577
-0.035900999 0.156057 -0.234567
-0.035898 0.156133 -0.234559
-0.035896 0.15620901 -0.234542
-0.035893999 0.156284 -0.23452801
-0.035891999 0.156358 -0.23451
-0.035890002 0.156433 -0.234488
-0.035888001 0.156509 -0.23447201
-0.035884999 0.15658499 -0.234467
-0.035882998 0.15666001 -0.23446099
-0.035879999 0.156736 -0.234459
-0.035877001 0.156812 -0.234459
-0.035874002 0.15688799 -0.234451
-0.035872001 0.15696201 -0.23444299
-0.035868999 0.157038 -0.234432
-0.035867002 0.157113 -0.234418
-0.035865001 0.157189 -0.234404
-0.035861999 0.15726499 -0.234396
-0.035859 0.157341 -0.23439001
-0.035856999 0.157416 -0.234383
-0.035854001 0.15749 -0.234385
-0.03585 0.15756699 -0.234395
-0.035847999 0.15764201 -0.234391
-0.035845 0.157718 -0.23438101
-0.035842001 0.157794 -0.234375
-0.035838999 0.15786999 -0.234376
-0.035836 0.15794601 -0.23438001
-0.035833001 0.158022 -0.23438799
-0.035829999 0.158098 -0.234386
-0.035827 0.15817399 -0.234384
-0.035822999 0.15825 -0.23439801
-0.03582 0.158327 -0.234411
-0.035817001 0.15840299 -0.23441701
-0.035813 0.15847901 -0.234433
-0.035808999 0.158555 -0.23445299
-0.035806 0.158631 -0.234457
-0.035803001 0.15870699 -0.234457
-0.035799 0.158784 -0.234474
-0.035794999 0.15886 -0.234492
-0.035790998 0.158939 -0.23451
-0.035787001 0.159015 -0.23453
-0.035783 0.159091 -0.23455
-0.035778999 0.159168 -0.23457199
-0.035774998 0.159246 -0.234598
-0.035771001 0.15932301 -0.23463
-0.035766002 0.1594 -0.23466501
-0.035760999 0.15947901 -0.23470099
-0.035755999 0.159557 -0.23473901
-0.035751998 0.15963399 -0.234767
-0.035748001 0.159712 -0.234787
-0.035743002 0.159789 -0.23481899
-0.035737999 0.159868 -0.234869
-0.035732999 0.15994699 -0.23491301
-0.035728 0.160024 -0.234953
-0.035723001 0.16010299 -0.234991
-0.035718001 0.160182 -0.23504101
-0.035711002 0.16026101 -0.23510499
-0.035705 0.16034301 -0.235177
-0.035698 0.160422 -0.235249
-0.035691999 0.160504 -0.235315
-0.035686001 0.160583 -0.235383
-0.036653001 0.133074 -0.236504
-0.036651 0.133154 -0.23648401
-0.036649 0.133233 -0.236458
-0.036649998 0.133323 -0.23637
-0.036651 0.13340899 -0.23628201
-0.036651 0.133495 -0.23620801
-0.036651 0.133581 -0.23613
-0.036651999 0.13366801 -0.236056
-0.036649998 0.133747 -0.236028
-0.036648002 0.133827 -0.23600399
-0.036646001 0.133908 -0.235964
-0.036646001 0.133992 -0.235906
-0.036646001 0.134075 -0.235844
-0.036644999 0.134158 -0.23579
-0.036644001 0.13424 -0.235734
-0.036642998 0.134321 -0.235696
-0.036642 0.13440301 -0.23565599
-0.036641002 0.13448501 -0.235608
-0.036639001 0.13456701 -0.235572
-0.036637999 0.134644 -0.23554701
-0.036635999 0.134725 -0.235511
-0.036635 0.13480601 -0.23547301
-0.036633 0.134885 -0.23543499
-0.036632001 0.134965 -0.235405
-0.036630001 0.13504399 -0.235383
-0.036626998 0.135122 -0.23537099
-0.036625002 0.13519999 -0.235357
-0.036623001 0.135277 -0.235333
-0.036619999 0.135355 -0.235322
-0.036618002 0.135432 -0.235314
-0.036614999 0.13551 -0.2353
-0.036612999 0.13558801 -0.23528799
-0.03661 0.135664 -0.235282
-0.036607999 0.135741 -0.23527201
-0.036605 0.135819 -0.23526201
-0.036603 0.135895 -0.23525301
-0.036600001 0.13597301 -0.235249
-0.036596999 0.13604701 -0.23525099
-0.036594 0.136125 -0.235241
-0.036591001 0.13620199 -0.23523501
-0.036589 0.136278 -0.235231
-0.036586002 0.136354 -0.235228
-0.036582999 0.13643201 -0.23521601
-0.036580998 0.13651 -0.235208
-0.036578 0.136586 -0.23521
-0.036573999 0.13665999 -0.23522
-0.036571 0.13673601 -0.23523
-0.036568001 0.13681 -0.235237
-0.036564998 0.136888 -0.235231
-0.036561999 0.136966 -0.235219
-0.036559001 0.13704 -0.23522501
-0.036556002 0.137116 -0.23523501
-0.036552999 0.137192 -0.23523501
-0.03655 0.13726801 -0.23524199
-0.036545999 0.13734201 -0.235254
-0.036543 0.137418 -0.23525199
-0.036540002 0.13749599 -0.235246
-0.036538001 0.13757201 -0.23524
-0.036534999 0.13765 -0.23523401
-0.036532 0.13772599 -0.235236
-0.036529001 0.13779999 -0.23524299
-0.036525 0.137876 -0.235259
-0.036520999 0.137949 -0.23528101
-0.036517002 0.138025 -0.23529699
-0.036515001 0.138101 -0.235293
-0.036511999 0.13817701 -0.23528799
-0.036509 0.138255 -0.23528799
-0.036506001 0.138331 -0.23528799
-0.036502998 0.13840701 -0.23529001
-0.036499001 0.138483 -0.2353
-0.036495999 0.138557 -0.23530801
-0.036493 0.138633 -0.235315
-0.036490001 0.13870899 -0.235321
-0.036486 0.138785 -0.235331
-0.036483001 0.138859 -0.235337
-0.036479998 0.138937 -0.235331
-0.036477 0.13901301 -0.235331
-0.036474001 0.139089 -0.23534
-0.036471002 0.139165 -0.235346
-0.036467999 0.139241 -0.235346
-0.036465 0.13931701 -0.235342
-0.036462002 0.139393 -0.23534399
-0.036458999 0.139469 -0.235348
-0.036455002 0.13954601 -0.23536199
-0.036451999 0.13962001 -0.235369
-0.036449 0.139696 -0.23537301
-0.036444999 0.139772 -0.23538101
-0.036442 0.13984799 -0.235377
-0.03644 0.139926 -0.23537301
-0.036435999 0.14 -0.235386
-0.036433 0.140076 -0.235396
-0.036430001 0.14015201 -0.235396
-0.036426999 0.14023 -0.23538999
-0.036424 0.140306 -0.235386
-0.036421001 0.14038201 -0.235388
-0.036417998 0.14045601 -0.235397
-0.036414001 0.140532 -0.23540901
-0.036410999 0.140608 -0.235413
-0.036408 0.14068601 -0.23540901
-0.036405001 0.140762 -0.235411
-0.036401998 0.140838 -0.23540901
-0.036398999 0.14091399 -0.23540699
-0.036396001 0.14099 -0.235414
-0.036393002 0.141066 -0.235422
-0.036389999 0.141142 -0.235424
-0.036387 0.14121801 -0.23542
-0.036384001 0.141294 -0.235416
-0.036380999 0.14137 -0.235416
-0.036378 0.14144599 -0.23542701
-0.036373999 0.14152201 -0.23543499
-0.036371 0.141598 -0.23543499
-0.036368001 0.14167599 -0.235431
-0.036366001 0.141752 -0.235425
-0.036362998 0.141828 -0.235421
-0.036359999 0.141904 -0.235422
-0.036357 0.14198001 -0.235422
-0.036354002 0.142058 -0.23542
-0.036350999 0.142134 -0.235416
-0.036348 0.14221101 -0.235412
-0.036345001 0.142286 -0.235416
-0.036341999 0.142362 -0.235423
-0.036339 0.14244001 -0.235421
-0.036336999 0.142515 -0.235413
-0.036334001 0.142593 -0.235411
-0.036331002 0.142667 -0.235415
-0.036327001 0.14274301 -0.235421
-0.036324002 0.14282 -0.23543
-0.036320999 0.142896 -0.235434
-0.036318 0.14297201 -0.235434
-0.036315002 0.143049 -0.23542801
-0.036311999 0.143125 -0.235422
-0.036309998 0.14320099 -0.235414
-0.036307 0.143277 -0.23541699
-0.036304001 0.143355 -0.235413
-0.036302 0.14343201 -0.235383
-0.036300998 0.143509 -0.235351
-0.036297001 0.14358599 -0.235359
-0.036293 0.14365999 -0.235387
-0.036288999 0.143737 -0.235403
-0.036286999 0.143812 -0.23539799
-0.036284 0.143888 -0.23539799
-0.036279999 0.14396399 -0.235402
-0.036277998 0.14404 -0.23540001
-0.036274999 0.144118 -0.235392
-0.036272001 0.14419401 -0.235394
-0.036269002 0.14427 -0.235393
-0.036267001 0.144348 -0.235377
-0.036263999 0.14442299 -0.235367
-0.036261 0.144499 -0.235369
-0.036258001 0.144575 -0.235365
-0.036256 0.14465301 -0.23536099
-0.036253002 0.144729 -0.235356
-0.036249999 0.144805 -0.235346
-0.036247998 0.14488301 -0.235338
-0.036245 0.144958 -0.23533399
-0.036242001 0.145034 -0.23533399
-0.036238 0.14511099 -0.23534399
-0.036235001 0.14518701 -0.235355
-0.036231998 0.145263 -0.235347
-0.036230002 0.14534 -0.235331
-0.036226999 0.14541601 -0.235333
-0.036224 0.145492 -0.235341
-0.036221001 0.145568 -0.23534299
-0.036217999 0.14564399 -0.235339
-0.036215 0.145722 -0.23533
-0.036212999 0.145798 -0.235324
-0.036210001 0.14587399 -0.235322
-0.036207002 0.14595 -0.23531801
-0.036203999 0.146028 -0.23531801
-0.036201 0.146102 -0.23532601
-0.036196999 0.14617801 -0.235333
-0.036194999 0.146254 -0.235323
-0.036192 0.146331 -0.235309
-0.036189999 0.14640699 -0.23530699
-0.036185998 0.146483 -0.235313
-0.036183 0.146559 -0.235311
-0.036180999 0.14663699 -0.23529799
-0.036178999 0.146713 -0.23529001
-0.036175001 0.146789 -0.235296
-0.036171999 0.146865 -0.23529799
-0.036169 0.14694101 -0.235294
-0.036166001 0.147017 -0.2353
-0.036162999 0.147093 -0.23530699
-0.03616 0.14716899 -0.235303
-0.036157999 0.14724401 -0.235291
-0.036155 0.14732 -0.235283
-0.036152001 0.14739799 -0.235287
-0.036148999 0.14747199 -0.235293
-0.036146 0.14755 -0.235292
-0.036143001 0.147626 -0.235278
-0.036139999 0.14770199 -0.235278
-0.036137 0.147778 -0.235296
-0.036134001 0.147854 -0.235296
-0.036130998 0.14793 -0.235292
-0.036127999 0.14800601 -0.23529699
-0.036125001 0.148082 -0.23529901
-0.036122002 0.148158 -0.235293
-0.036118999 0.14823399 -0.235285
-0.036116999 0.148312 -0.23527899
-0.036114 0.148388 -0.23528101
-0.036109999 0.148462 -0.23528799
-0.036107 0.14854001 -0.235292
-0.036104999 0.148616 -0.235282
-0.036102001 0.148691 -0.235274
-0.036099002 0.14876699 -0.235268
-0.036097001 0.14884301 -0.23526201
-0.036093999 0.148921 -0.235255
-0.036091998 0.148996 -0.23524299
-0.036088999 0.14907201 -0.235237
-0.036086001 0.149148 -0.235245
-0.036082 0.149225 -0.235255
-0.036079001 0.14929999 -0.235247
-0.036077 0.149376 -0.23523401
-0.036075 0.149454 -0.23522399
-0.036072001 0.14952999 -0.23521601
-0.036068998 0.149606 -0.23521601
-0.036065999 0.149682 -0.235222
-0.036063001 0.149758 -0.23522399
-0.036060002 0.14983401 -0.235227
-0.036056999 0.14991 -0.235221
-0.036054 0.149985 -0.235213
-0.036052 0.150061 -0.235209
-0.036049001 0.15013701 -0.235201
-0.036045998 0.150215 -0.235195
-0.036042999 0.150291 -0.235194
-0.036040001 0.15036701 -0.235194
-0.036038 0.150443 -0.235192
-0.036035001 0.150518 -0.23517799
-0.036033001 0.150594 -0.235166
-0.036029998 0.15067001 -0.235166
-0.036026001 0.150746 -0.235177
-0.036022998 0.150822 -0.235181
-0.036021002 0.15089799 -0.235175
-0.036017999 0.150976 -0.235163
-0.036015 0.151052 -0.23515899
-0.036012001 0.151126 -0.23515999
-0.036008999 0.151204 -0.235158
-0.036006998 0.151279 -0.235146
-0.036005002 0.151355 -0.235126
-0.036001999 0.15143099 -0.235122
-0.035999 0.15150701 -0.235122
-0.035997 0.151582 -0.23511501
-0.035994001 0.151658 -0.23510499
-0.035990998 0.15173601 -0.235107
-0.035987999 0.151812 -0.23511299
-0.035985 0.151886 -0.23511299
-0.035982002 0.15196399 -0.235103
-0.035978999 0.15204 -0.235102
-0.035976 0.152116 -0.235112
-0.035973001 0.152192 -0.235102
-0.035971999 0.15226699 -0.23508
-0.035969999 0.152343 -0.23506001
-0.035967 0.152418 -0.235046
-0.035964001 0.152494 -0.235047
-0.035960998 0.15256999 -0.23504899
-0.035959002 0.15264601 -0.23504101
-0.035955999 0.152722 -0.235039
-0.035953 0.152798 -0.235037
-0.035950001 0.152876 -0.235029
-0.035948001 0.152951 -0.23501199
-0.035946 0.153027 -0.234988
-0.035944 0.15310299 -0.23497599
-0.035941001 0.15317801 -0.23497
-0.035937998 0.153254 -0.23496599
-0.035936002 0.15333 -0.234961
-0.035932999 0.15340599 -0.234951
-0.035930999 0.15348201 -0.234937
-0.035928 0.153557 -0.234933
-0.035925001 0.153633 -0.234927
-0.035923 0.15370899 -0.234915
-0.035921 0.15378501 -0.23490199
-0.035918001 0.15386 -0.234898
-0.035916001 0.153936 -0.23488601
-0.035914 0.15401199 -0.234868
-0.035911001 0.15408701 -0.23485599
-0.035909001 0.154163 -0.234843
-0.035905998 0.154239 -0.234841
-0.035902999 0.15431499 -0.234843
-0.0359 0.15439101 -0.23483101
-0.035898 0.154466 -0.234813
-0.035896 0.154542 -0.234799
-0.035893999 0.154618 -0.23479
-0.035891 0.15469401 -0.23478401
-0.035888001 0.154769 -0.23477601
-0.035886001 0.154845 -0.23476
-0.035884 0.154921 -0.23474599
-0.035882 0.15499599 -0.234733
-0.035879001 0.155072 -0.234715
-0.035877001 0.155147 -0.234699
-0.035875 0.155223 -0.234685
-0.035873 0.15529799 -0.234657
-0.035872001 0.15537401 -0.23461799
-0.035870001 0.155449 -0.234602
-0.035867002 0.155525 -0.234612
-0.035863001 0.15560099 -0.234616
-0.035861 0.15567499 -0.23460799
-0.035858002 0.155751 -0.234602
-0.035856001 0.155827 -0.234587
-0.035854001 0.155902 -0.234569
-0.035852 0.15597799 -0.23455299
-0.03585 0.15605301 -0.23453499
-0.035847001 0.156129 -0.234529
-0.035845 0.156205 -0.234514
-0.035843 0.15628 -0.234494
-0.035840001 0.156354 -0.234484
-0.035836998 0.15643001 -0.23448201
-0.035835002 0.156506 -0.234474
-0.035831999 0.156582 -0.23446301
-0.035829999 0.156657 -0.234451
-0.035827 0.15673301 -0.23444501
-0.035824999 0.15680701 -0.23443501
-0.035822 0.156885 -0.234429
-0.035819001 0.156959 -0.23442601
-0.035817001 0.15703399 -0.234412
-0.035815001 0.15711001 -0.234396
-0.035813 0.157185 -0.234382
-0.035810001 0.157261 -0.23436999
-0.035806999 0.157335 -0.234368
-0.035805002 0.15741301 -0.234365
-0.035801999 0.157487 -0.234359
-0.035799 0.157563 -0.23435301
-0.035796002 0.157639 -0.234355
-0.035792999 0.15771499 -0.234355
-0.035790998 0.15779001 -0.234348
-0.035788 0.157866 -0.23434401
-0.035785001 0.15794 -0.23435199
-0.035781 0.15801799 -0.234356
-0.035778001 0.15809201 -0.234356
-0.035774998 0.15817 -0.234358
-0.035772 0.158245 -0.23436899
-0.035767999 0.15832099 -0.23438101
-0.035765 0.158399 -0.234393
-0.035760999 0.158475 -0.23440699
-0.035758 0.15855201 -0.23441701
-0.035753999 0.158628 -0.234421
-0.035751 0.158704 -0.23442701
-0.035748001 0.15877999 -0.234438
-0.035744 0.158856 -0.234456
-0.035739999 0.158933 -0.234478
-0.035735998 0.15900899 -0.234488
-0.035732999 0.15908501 -0.234506
-0.035728 0.159164 -0.23453601
-0.035723999 0.15924101 -0.234566
-0.035719998 0.159319 -0.23458201
-0.035714999 0.15939599 -0.234613
-0.035711002 0.159472 -0.234653
-0.035705 0.15955099 -0.234695
-0.035700999 0.159628 -0.234725
-0.035696998 0.159706 -0.23474699
-0.035691999 0.159785 -0.23478501
-0.035687 0.159862 -0.234825
-0.035682 0.159941 -0.234869
-0.035677001 0.16001999 -0.23490299
-0.035672002 0.160099 -0.234947
-0.035666 0.16017801 -0.235001
-0.035661001 0.160257 -0.235055
-0.035654999 0.160336 -0.235121
-0.035647999 0.16041601 -0.235195
-0.035641 0.16049799 -0.235269
-0.035634998 0.160579 -0.23533501
-0.036582999 0.133147 -0.236536
-0.036584001 0.133233 -0.236454
-0.036582999 0.13332 -0.236388
-0.036586002 0.13341101 -0.23626199
-0.036586002 0.133497 -0.236182
-0.036586002 0.133582 -0.23612
-0.036586002 0.13366599 -0.23605201
-0.036584999 0.13374899 -0.236002
-0.036584001 0.13383 -0.235964
-0.036582001 0.13391 -0.235936
-0.03658 0.133991 -0.235906
-0.03658 0.134075 -0.235836
-0.036579002 0.134158 -0.23578601
-0.036578 0.134239 -0.235742
-0.036577001 0.134322 -0.235688
-0.036575999 0.134405 -0.23564
-0.036575001 0.13448399 -0.23560201
-0.036573 0.134565 -0.23557401
-0.036571 0.134643 -0.235552
-0.036570001 0.13472401 -0.235517
-0.036568999 0.13480499 -0.235469
-0.036568001 0.134886 -0.235429
-0.036566 0.134965 -0.235397
-0.036564 0.135043 -0.235377
-0.036561999 0.13512 -0.23536301
-0.036559001 0.13519999 -0.235347
-0.036557 0.135276 -0.235333
-0.036555 0.135355 -0.23531701
-0.036552001 0.135433 -0.235302
-0.03655 0.135509 -0.235294
-0.036547001 0.13558599 -0.235284
-0.036545001 0.135664 -0.23527201
-0.036541998 0.13574199 -0.23526201
-0.036540002 0.13581701 -0.23525199
-0.036536999 0.135893 -0.23525099
-0.036534 0.13597099 -0.23525099
-0.036531001 0.13604701 -0.235249
-0.036527999 0.136123 -0.23524299
-0.036525998 0.13620099 -0.23523501
-0.036522999 0.13627701 -0.235229
-0.036520001 0.136355 -0.235229
-0.036517002 0.13643099 -0.235228
-0.036513999 0.13650601 -0.23522
-0.036511 0.136582 -0.235218
-0.036508001 0.136658 -0.235222
-0.036504999 0.13673399 -0.23522601
-0.036502 0.136811 -0.235232
-0.036499001 0.136887 -0.235241
-0.036495999 0.13696299 -0.235237
-0.036493 0.13703801 -0.235229
-0.036490001 0.137114 -0.235231
-0.036486998 0.137191 -0.235239
-0.036483999 0.137266 -0.23523501
-0.036481 0.13734201 -0.235238
-0.036478002 0.137419 -0.23524401
-0.036474001 0.137495 -0.235248
-0.036471002 0.13757101 -0.235248
-0.036467999 0.137647 -0.235248
-0.036465 0.137722 -0.235248
-0.036462002 0.137798 -0.23525099
-0.036458999 0.13787501 -0.235265
-0.036455002 0.137949 -0.235275
-0.036451999 0.138025 -0.235277
-0.036449 0.13810299 -0.235273
-0.036447 0.138179 -0.23527101
-0.036444001 0.138255 -0.23526999
-0.036440998 0.138331 -0.23527201
-0.036437001 0.138405 -0.235286
-0.036433 0.13847899 -0.23530599
-0.036430001 0.13855501 -0.23530801
-0.036426999 0.138633 -0.23530801
-0.036424 0.138708 -0.235319
-0.036419999 0.13878401 -0.23532499
-0.036417 0.13886 -0.23532701
-0.036414001 0.138936 -0.235331
-0.036410999 0.13901199 -0.23533501
-0.036408 0.139088 -0.235337
-0.036405001 0.139164 -0.235348
-0.036401 0.139238 -0.235366
-0.036398001 0.139314 -0.23536
-0.036396001 0.139392 -0.235346
-0.036393002 0.139468 -0.23535
-0.036389001 0.139544 -0.23536
-0.036386002 0.13962001 -0.235365
-0.036382999 0.13969401 -0.23537301
-0.036378998 0.13977 -0.23538101
-0.036375999 0.139846 -0.235383
-0.036373001 0.13992301 -0.235387
-0.036370002 0.139999 -0.23539101
-0.036366999 0.140076 -0.235386
-0.036364 0.14015201 -0.235386
-0.036361001 0.140227 -0.235396
-0.036357999 0.140305 -0.23539799
-0.036355 0.14038099 -0.235396
-0.036352001 0.14045601 -0.235394
-0.036348999 0.140533 -0.235401
-0.036345001 0.140609 -0.235403
-0.036343001 0.14068501 -0.235403
-0.036339 0.14075901 -0.235421
-0.036334999 0.14083301 -0.23543701
-0.036332998 0.140911 -0.235425
-0.03633 0.14098901 -0.235414
-0.036327001 0.141065 -0.23541801
-0.036324002 0.141141 -0.23541801
-0.036320999 0.14121699 -0.235414
-0.036318 0.141294 -0.23541
-0.036315002 0.141369 -0.23542
-0.036311999 0.14144699 -0.235423
-0.036309 0.14152201 -0.235415
-0.036306001 0.141598 -0.235421
-0.036302999 0.141674 -0.23541901
-0.036300998 0.141752 -0.23540901
-0.036297999 0.141828 -0.23540699
-0.036293998 0.141904 -0.23541699
-0.036291 0.14198001 -0.235422
-0.036288999 0.142056 -0.235412
-0.036286 0.142134 -0.23540001
-0.036283001 0.142212 -0.235396
-0.036279999 0.142286 -0.23541
-0.036276001 0.14236 -0.235424
-0.036272999 0.14243799 -0.23542701
-0.03627 0.14251401 -0.235423
-0.036267001 0.14259 -0.23541699
-0.036263999 0.142666 -0.23541901
-0.036261 0.14274199 -0.235421
-0.036258999 0.14282 -0.235411
-0.036256 0.14289799 -0.235404
-0.036253002 0.14297301 -0.235404
-0.036249999 0.143049 -0.235406
-0.036247 0.143124 -0.235412
-0.036244001 0.14320099 -0.23540799
-0.036242001 0.143277 -0.23539799
-0.036238 0.143353 -0.235403
-0.036235001 0.14343099 -0.235401
-0.036233 0.143507 -0.23538899
-0.036230002 0.143583 -0.235395
-0.036226001 0.143659 -0.235401
-0.036224 0.14373501 -0.235395
-0.036221001 0.143811 -0.235392
-0.036217999 0.143889 -0.235388
-0.036215 0.14396501 -0.23538201
-0.036212999 0.14404 -0.23537201
-0.036210001 0.144118 -0.23537201
-0.036207002 0.14419401 -0.235376
-0.036203999 0.14427 -0.235366
-0.036201999 0.144348 -0.235359
-0.036199 0.14442401 -0.235357
-0.036196001 0.1445 -0.23535299
-0.036192998 0.144576 -0.235355
-0.036189999 0.14465199 -0.235355
-0.036187001 0.144729 -0.23534299
-0.036185 0.144805 -0.23533601
-0.036182001 0.144881 -0.235332
-0.036178999 0.144959 -0.235324
-0.036176 0.145035 -0.235324
-0.036173001 0.14511099 -0.23532601
-0.036169998 0.14518701 -0.235328
-0.036166999 0.145263 -0.235331
-0.036164001 0.145339 -0.235333
-0.036161002 0.14541499 -0.23533501
-0.036157999 0.145491 -0.235333
-0.036155 0.145567 -0.235329
-0.036152001 0.14564499 -0.23532701
-0.036148999 0.145721 -0.235332
-0.036146 0.145796 -0.23533
-0.036144 0.145872 -0.23532
-0.036141001 0.14595 -0.23531
-0.036139 0.146026 -0.235302
-0.036136001 0.146102 -0.23530599
-0.036132999 0.14617801 -0.23530699
-0.03613 0.146253 -0.235293
-0.036127999 0.146331 -0.235277
-0.036125001 0.14640699 -0.23527101
-0.036122002 0.146483 -0.235283
-0.036118001 0.146557 -0.235295
-0.036114998 0.146635 -0.235294
-0.036111999 0.14671101 -0.235292
-0.036109999 0.146787 -0.23528799
-0.036107 0.146863 -0.235286
-0.036104001 0.14693899 -0.235284
-0.036100999 0.14701501 -0.23528799
-0.036098 0.147091 -0.235293
-0.036095001 0.147167 -0.235295
-0.036091998 0.14724299 -0.23528901
-0.036088999 0.147319 -0.235285
-0.036086001 0.147397 -0.235287
-0.036083002 0.14747301 -0.235287
-0.036079999 0.147549 -0.23528001
-0.036077 0.147625 -0.235282
-0.036074001 0.147701 -0.235294
-0.036070999 0.14777701 -0.23529799
-0.036068 0.147853 -0.235296
-0.036065001 0.147929 -0.235292
-0.036061998 0.14800499 -0.23528901
-0.036059 0.14808001 -0.235285
-0.036056001 0.148158 -0.235283
-0.036052998 0.148232 -0.235291
-0.036049999 0.148311 -0.235295
-0.036047 0.148386 -0.235283
-0.036045 0.148462 -0.235275
-0.036042001 0.14853799 -0.23527201
-0.036038999 0.148614 -0.23526999
-0.036036 0.148692 -0.23526999
-0.036033001 0.14876799 -0.235266
-0.036031 0.14884301 -0.23525
-0.036029 0.148919 -0.23523299
-0.036026001 0.148995 -0.23523299
-0.036022998 0.149073 -0.235237
-0.03602 0.149149 -0.23523299
-0.036017999 0.149224 -0.235221
-0.036015 0.14929999 -0.235223
-0.036010999 0.149377 -0.235229
-0.036008999 0.149452 -0.23522399
-0.036006 0.149528 -0.235208
-0.036003999 0.14960399 -0.2352
-0.036001001 0.14968 -0.235208
-0.035997 0.149756 -0.23521399
-0.035994999 0.149832 -0.23520701
-0.035992 0.14990801 -0.235199
-0.035989001 0.149984 -0.23520701
-0.035985999 0.15006 -0.23520701
-0.035983 0.15013701 -0.235191
-0.035980999 0.150213 -0.23518901
-0.035976999 0.150289 -0.235193
-0.035974 0.150365 -0.2352
-0.035971001 0.15044101 -0.23519801
-0.035969 0.150517 -0.235194
-0.035964999 0.150593 -0.23519599
-0.035962999 0.15066899 -0.23518801
-0.03596 0.150745 -0.23517901
-0.035958 0.150822 -0.23515899
-0.035955999 0.15089799 -0.235147
-0.035953 0.15097401 -0.235147
-0.035950001 0.15105 -0.235149
-0.035946999 0.151126 -0.235155
-0.035943002 0.15120199 -0.23515999
-0.035941001 0.151278 -0.235156
-0.035937998 0.151354 -0.235146
-0.035936002 0.15143 -0.235136
-0.035932999 0.15150499 -0.23513
-0.03593 0.151581 -0.23513
-0.035928 0.151657 -0.235119
-0.035925001 0.15173499 -0.23510499
-0.035923 0.15181001 -0.235093
-0.035921 0.151886 -0.23507901
-0.035918001 0.151962 -0.23507699
-0.035914 0.15203799 -0.235081
-0.035912 0.152114 -0.235082
-0.035909001 0.15219 -0.235076
-0.035905998 0.152266 -0.235072
-0.035902999 0.15234201 -0.23508
-0.0359 0.152418 -0.235076
-0.035898 0.152493 -0.23505799
-0.035896 0.152569 -0.235045
-0.035893001 0.15264501 -0.235029
-0.035891 0.152722 -0.235021
-0.035888001 0.152796 -0.235021
-0.035884999 0.15287399 -0.23501299
-0.035882998 0.15295 -0.23500399
-0.035879999 0.153026 -0.234992
-0.035877999 0.153101 -0.23497801
-0.035875 0.15317699 -0.234974
-0.035873 0.153253 -0.234964
-0.035870999 0.153328 -0.234946
-0.035868 0.153404 -0.234945
-0.035865001 0.15347999 -0.234945
-0.035861999 0.153556 -0.234929
-0.035859998 0.153632 -0.234919
-0.035858002 0.153707 -0.234899
-0.035856001 0.15378299 -0.23487601
-0.035852998 0.153859 -0.23487601
-0.03585 0.153935 -0.23488601
-0.035847001 0.154011 -0.23488399
-0.035843998 0.15408599 -0.23487601
-0.035842001 0.154162 -0.23486599
-0.035838999 0.154238 -0.23485699
-0.035836 0.154314 -0.234853
-0.035834 0.15439001 -0.234841
-0.035831999 0.154465 -0.234827
-0.035829 0.154541 -0.234813
-0.035827 0.154617 -0.23480301
-0.035824999 0.15469199 -0.234788
-0.035822999 0.15476801 -0.23476601
-0.035820998 0.154843 -0.234752
-0.035817999 0.154919 -0.234744
-0.035815001 0.15499499 -0.23474
-0.035813 0.15507101 -0.234733
-0.035811 0.155146 -0.234715
-0.035808999 0.155222 -0.234687
-0.035806999 0.155297 -0.234671
-0.035804 0.15537301 -0.234671
-0.035801999 0.155449 -0.23465399
-0.035799999 0.155524 -0.234634
-0.035797 0.1556 -0.23461799
-0.035794999 0.155674 -0.23460799
-0.035792001 0.15575001 -0.234602
-0.03579 0.155825 -0.234589
-0.035788 0.155901 -0.23457099
-0.035785999 0.155976 -0.23455501
-0.035783 0.15605199 -0.234541
-0.035781 0.156128 -0.234525
-0.035778999 0.156203 -0.234515
-0.035776 0.156279 -0.23451599
-0.035773002 0.156353 -0.234504
-0.035772 0.15642899 -0.234478
-0.035769999 0.15650401 -0.23446199
-0.035767 0.15658 -0.23445401
-0.035764001 0.156656 -0.234451
-0.035762001 0.15673199 -0.234441
-0.035758998 0.15680499 -0.23442701
-0.035757001 0.156881 -0.23441701
-0.035753999 0.156957 -0.234411
-0.035751 0.157033 -0.23440801
-0.035749 0.15710799 -0.234396
-0.035746001 0.157184 -0.23438799
-0.035743002 0.15726 -0.23439001
-0.035741001 0.157334 -0.23438001
-0.035739001 0.157409 -0.234363
-0.035735998 0.15748499 -0.234357
-0.035732999 0.157561 -0.234359
-0.035730999 0.157637 -0.23434301
-0.035728 0.157713 -0.23433501
-0.035725001 0.15778901 -0.234341
-0.035721999 0.157865 -0.234348
-0.035719 0.157939 -0.234354
-0.035714999 0.15801699 -0.23435999
-0.035712 0.15809099 -0.23436201
-0.035709001 0.158169 -0.23436201
-0.035705999 0.158243 -0.234364
-0.035703 0.158319 -0.23436899
-0.035700001 0.15839501 -0.23437899
-0.035696 0.158472 -0.234393
-0.035693001 0.15854999 -0.234401
-0.035689 0.15862601 -0.234413
-0.035684999 0.158702 -0.234429
-0.035682 0.158778 -0.234437
-0.035679001 0.15885501 -0.234446
-0.035675 0.158931 -0.234466
-0.035670999 0.159007 -0.234484
-0.035666998 0.15908401 -0.234502
-0.035663001 0.159162 -0.23452
-0.035659 0.159238 -0.234534
-0.035654999 0.159315 -0.23455399
-0.035650998 0.159391 -0.23458099
-0.035645999 0.15947001 -0.23461699
-0.035642002 0.159547 -0.234653
-0.035636999 0.15962601 -0.23469099
-0.035631999 0.159704 -0.234725
-0.035627 0.15978099 -0.234759
-0.035622999 0.15986 -0.234795
-0.035618 0.15993699 -0.234835
-0.035613 0.160016 -0.234879
-0.035608001 0.16009501 -0.23492099
-0.035602 0.160174 -0.234971
-0.035595998 0.160253 -0.23503099
-0.03559 0.16033199 -0.235091
-0.035583999 0.160414 -0.235155
-0.035576999 0.160493 -0.235231
-0.035569999 0.160575 -0.235313
-0.036458001 0.133323 -0.23629101
-0.036458001 0.13340899 -0.236213
-0.036456998 0.13349199 -0.236157
-0.036456 0.13357501 -0.236113
-0.036456 0.13365801 -0.23606101
-0.036455002 0.13373999 -0.236003
-0.036454 0.133825 -0.235947
-0.036454 0.13390601 -0.235897
-0.036453001 0.13398901 -0.235847
-0.036451001 0.13406999 -0.235807
-0.036449999 0.134151 -0.235769
-0.036449 0.134234 -0.23572101
-0.036448002 0.134315 -0.235681
-0.036446001 0.134394 -0.235649
-0.036444999 0.13447499 -0.235605
-0.036444001 0.13455801 -0.235567
-0.036442 0.134637 -0.235535
-0.03644 0.13471501 -0.235516
-0.036439002 0.13479599 -0.23547
-0.036437999 0.134877 -0.23543601
-0.036435999 0.13495401 -0.235414
-0.036433998 0.13503399 -0.235392
-0.036431 0.135111 -0.23537201
-0.036428999 0.13519099 -0.23535
-0.036426999 0.135267 -0.235338
-0.036424 0.135344 -0.235331
-0.036421999 0.13542201 -0.23531701
-0.036419 0.135498 -0.235311
-0.036417 0.13557801 -0.23529901
-0.036415 0.135655 -0.23528101
-0.036412001 0.13573299 -0.235265
-0.03641 0.135809 -0.235257
-0.036407001 0.135885 -0.235256
-0.036403999 0.13596199 -0.23525199
-0.036401 0.13603801 -0.23525199
-0.036398001 0.136116 -0.235246
-0.036396001 0.13619199 -0.235236
-0.036393002 0.136268 -0.23523401
-0.036389001 0.136344 -0.235245
-0.036386002 0.13642 -0.23525099
-0.036382999 0.13649601 -0.235245
-0.036380999 0.136574 -0.235237
-0.036378 0.13665 -0.235237
-0.036375001 0.13672601 -0.23523299
-0.036371998 0.136803 -0.23522601
-0.036369 0.136879 -0.23522399
-0.036366001 0.13695499 -0.235228
-0.036362998 0.13703001 -0.235236
-0.036359999 0.137106 -0.235246
-0.036355998 0.13718 -0.235258
-0.036353 0.137256 -0.235263
-0.036350001 0.13733201 -0.235265
-0.036347002 0.137408 -0.235267
-0.036343999 0.137484 -0.235269
-0.036341 0.13756 -0.235269
-0.036338001 0.137638 -0.235267
-0.036334999 0.137714 -0.235266
-0.036332 0.137788 -0.23526999
-0.036327999 0.13786601 -0.235276
-0.036325999 0.137942 -0.23527201
-0.036323 0.138018 -0.235276
-0.036318999 0.138092 -0.235286
-0.036316 0.13816801 -0.235295
-0.036313001 0.138244 -0.235291
-0.036309998 0.13832 -0.235291
-0.036306001 0.13839599 -0.235305
-0.036302999 0.13847101 -0.235315
-0.0363 0.138547 -0.235315
-0.036297001 0.138625 -0.23531801
-0.036293998 0.138699 -0.235328
-0.036290001 0.13877501 -0.235332
-0.036286999 0.138851 -0.23533399
-0.036284 0.138927 -0.235342
-0.036279999 0.139001 -0.235356
-0.036277 0.13907699 -0.235367
-0.036274001 0.139153 -0.235367
-0.036270998 0.139229 -0.235365
-0.036268 0.139305 -0.235365
-0.036265001 0.139383 -0.235365
-0.036262002 0.139459 -0.235367
-0.036258999 0.13953499 -0.23537201
-0.036254998 0.139612 -0.23537999
-0.036251999 0.139686 -0.235386
-0.036249001 0.139762 -0.23540001
-0.036245 0.139838 -0.23540799
-0.036242001 0.13991401 -0.235404
-0.036238998 0.13999 -0.23540901
-0.036235999 0.140066 -0.235415
-0.036233 0.14014199 -0.235413
-0.036230002 0.140218 -0.23540901
-0.036226999 0.140296 -0.23540699
-0.036224 0.14037 -0.235411
-0.036221001 0.14044601 -0.235422
-0.036217 0.140522 -0.23543
-0.036215 0.140598 -0.23542599
-0.036212001 0.140674 -0.23542801
-0.036208 0.14075001 -0.235432
-0.036206 0.140826 -0.23543
-0.036203001 0.14090399 -0.23542801
-0.036200002 0.14098001 -0.235431
-0.036196001 0.141056 -0.235433
-0.036192998 0.141132 -0.23543701
-0.036189999 0.14120799 -0.23543701
-0.036187999 0.141284 -0.235433
-0.036185 0.141362 -0.235425
-0.036182001 0.14143801 -0.235422
-0.036178999 0.141514 -0.23542801
-0.036175001 0.14159 -0.23543601
-0.036173001 0.141666 -0.23543601
-0.036169998 0.14174201 -0.23543601
-0.036166999 0.14182 -0.23543
-0.036164001 0.141895 -0.235423
-0.036161002 0.14197101 -0.235425
-0.036157999 0.142047 -0.23542701
-0.036155 0.142123 -0.235423
-0.036152001 0.14220101 -0.235421
-0.036148999 0.142277 -0.235425
-0.036146 0.142352 -0.235438
-0.036143001 0.14242999 -0.235438
-0.036139999 0.14250501 -0.235434
-0.036137 0.142581 -0.235432
-0.036134001 0.14265899 -0.23542801
-0.036132 0.142735 -0.23542
-0.036127999 0.142811 -0.235425
-0.036125001 0.142887 -0.235431
-0.036122002 0.14296301 -0.235429
-0.036118999 0.143041 -0.235423
-0.036116 0.143115 -0.235429
-0.036113001 0.14319301 -0.235425
-0.036111001 0.143268 -0.23540901
-0.036107998 0.143346 -0.23541
-0.036104999 0.14342099 -0.23542
-0.036102001 0.14349701 -0.23541801
-0.036099002 0.143574 -0.23540799
-0.036095999 0.14365 -0.235406
-0.036093 0.14372601 -0.23540799
-0.036091 0.143804 -0.235403
-0.036088001 0.14387999 -0.23539899
-0.036084998 0.14395601 -0.235403
-0.036082 0.144032 -0.23540699
-0.036079001 0.144108 -0.23539899
-0.036077 0.144186 -0.235385
-0.036074001 0.144261 -0.235376
-0.036070999 0.144339 -0.235366
-0.036068998 0.14441501 -0.235356
-0.036065999 0.144493 -0.235356
-0.036063001 0.144567 -0.23536
-0.036060002 0.14464501 -0.23535199
-0.036058001 0.144722 -0.23533601
-0.036054999 0.144798 -0.235329
-0.036052998 0.14487401 -0.23532499
-0.036049999 0.144951 -0.23530699
-0.036047999 0.145027 -0.23529901
-0.036044002 0.14510401 -0.235323
-0.036040001 0.14517801 -0.235332
-0.036037002 0.145256 -0.235332
-0.036033999 0.14533 -0.235342
-0.036031 0.14540599 -0.235346
-0.036028001 0.145484 -0.23534399
-0.036024999 0.14556 -0.23533601
-0.036022998 0.14563701 -0.235322
-0.03602 0.145713 -0.235315
-0.036017001 0.145789 -0.235323
-0.036013 0.14586399 -0.235337
-0.036010001 0.14594001 -0.23533501
-0.036008 0.146017 -0.235331
-0.036005002 0.146093 -0.23532499
-0.036001999 0.14616901 -0.235322
-0.035999 0.146245 -0.235328
-0.035996001 0.146321 -0.23533
-0.035992999 0.14639699 -0.235324
-0.03599 0.14647301 -0.235322
-0.035987001 0.146549 -0.23531801
-0.035985 0.14662699 -0.235309
-0.035982002 0.14670201 -0.235303
-0.035978999 0.146778 -0.235305
-0.035976 0.146854 -0.235305
-0.035973001 0.14693099 -0.235311
-0.035969999 0.147007 -0.235311
-0.035967 0.147082 -0.23530801
-0.035964001 0.14715999 -0.235304
-0.035960998 0.147236 -0.235304
-0.035958 0.147312 -0.235302
-0.035955999 0.147388 -0.2353
-0.035953 0.14746401 -0.23529001
-0.035950001 0.147542 -0.23528901
-0.035946 0.147616 -0.235305
-0.035943002 0.14769199 -0.235315
-0.035939999 0.14776801 -0.235313
-0.035937998 0.147844 -0.235303
-0.035935 0.14792199 -0.235301
-0.035930999 0.14799599 -0.23530801
-0.035928998 0.148072 -0.23530599
-0.035925999 0.14815 -0.235294
-0.035923999 0.14822499 -0.235286
-0.035920002 0.14830101 -0.235292
-0.035916999 0.148378 -0.235294
-0.035914 0.148453 -0.235291
-0.035912 0.148531 -0.235287
-0.035909001 0.148607 -0.235275
-0.035907 0.148683 -0.235267
-0.035902999 0.14875899 -0.235275
-0.0359 0.148835 -0.235275
-0.035898 0.148912 -0.235258
-0.035896 0.14898799 -0.23524401
-0.035893001 0.149064 -0.23525
-0.035889 0.14914 -0.235254
-0.035886001 0.149216 -0.23525199
-0.035884 0.14929201 -0.23524401
-0.035881002 0.149368 -0.23523299
-0.035879001 0.149445 -0.23522501
-0.035875998 0.14952099 -0.235223
-0.035873 0.14959501 -0.235227
-0.035870001 0.149673 -0.235227
-0.035867002 0.149749 -0.23521499
-0.035865001 0.14982501 -0.235212
-0.035861 0.149901 -0.235218
-0.035858002 0.149977 -0.235232
-0.035854999 0.15005299 -0.23523401
-0.035852 0.15012901 -0.23522
-0.03585 0.150205 -0.235208
-0.035847001 0.150281 -0.23520701
-0.035843998 0.15035699 -0.23520499
-0.035840999 0.150435 -0.23520701
-0.035838999 0.15051 -0.23519699
-0.035836 0.15058599 -0.235181
-0.035834 0.150662 -0.235177
-0.035829999 0.150738 -0.235184
-0.035827 0.150814 -0.23518801
-0.035824001 0.15088999 -0.23518801
-0.035822 0.150966 -0.23518001
-0.035819001 0.151042 -0.235174
-0.035815999 0.151117 -0.235166
-0.035813998 0.151195 -0.235153
-0.035811 0.151271 -0.235157
-0.035808001 0.151347 -0.235163
-0.035805002 0.15142301 -0.235153
-0.035801999 0.151499 -0.235145
-0.035799999 0.151575 -0.23514099
-0.035797 0.15165 -0.235126
-0.035796002 0.151728 -0.235102
-0.035792999 0.151804 -0.235102
-0.035789002 0.151878 -0.23511399
-0.035785999 0.15195601 -0.235118
-0.035783 0.15203001 -0.23511399
-0.035780001 0.152108 -0.235107
-0.035778001 0.152183 -0.235101
-0.035774998 0.15225901 -0.235107
-0.035772 0.152335 -0.235103
-0.035769999 0.152411 -0.23508701
-0.035767 0.15248699 -0.23508
-0.035764001 0.15256301 -0.23508
-0.035760999 0.152639 -0.235076
-0.035758998 0.152714 -0.235066
-0.035755999 0.15279 -0.235052
-0.035753999 0.152868 -0.235036
-0.035751998 0.152941 -0.235025
-0.035749 0.153017 -0.235025
-0.035746001 0.15309501 -0.23502301
-0.035744 0.15316901 -0.235009
-0.035741001 0.153247 -0.234997
-0.035739001 0.153322 -0.23498499
-0.035735998 0.15339801 -0.234974
-0.035734002 0.153474 -0.234964
-0.035730999 0.153549 -0.234954
-0.035728998 0.153625 -0.234942
-0.035726 0.15370101 -0.234936
-0.035723999 0.153777 -0.234925
-0.035721 0.153853 -0.234917
-0.035719 0.153928 -0.23491301
-0.035716001 0.15400399 -0.23489501
-0.035714 0.15408 -0.234881
-0.035711002 0.154156 -0.234881
-0.035709001 0.154231 -0.23487
-0.035707001 0.15430699 -0.23485599
-0.035704002 0.154383 -0.23485599
-0.035700999 0.154459 -0.234854
-0.035698 0.154535 -0.23485
-0.035695001 0.15461101 -0.234845
-0.035693001 0.154686 -0.234827
-0.035691001 0.154762 -0.234815
-0.035689 0.154837 -0.23479301
-0.035687 0.15491299 -0.234761
-0.035684999 0.15498801 -0.234742
-0.035682999 0.155064 -0.23472799
-0.03568 0.15514 -0.23472001
-0.035677999 0.155215 -0.234714
-0.035675 0.15529101 -0.23470201
-0.035673 0.155367 -0.234688
-0.035670999 0.155442 -0.234679
-0.035668001 0.155518 -0.234669
-0.035666 0.15559401 -0.234661
-0.035663001 0.15566801 -0.23464499
-0.035661001 0.155745 -0.23462901
-0.035659 0.155819 -0.234612
-0.035657 0.155894 -0.234594
-0.035654999 0.15597001 -0.234576
-0.035652999 0.156046 -0.23456199
-0.03565 0.156121 -0.23455
-0.035647999 0.156197 -0.234543
-0.035645999 0.15627301 -0.234523
-0.035643999 0.15634599 -0.234503
-0.035641 0.156422 -0.234495
-0.035638001 0.156498 -0.23449101
-0.035636 0.156573 -0.234477
-0.035634 0.15664899 -0.234468
-0.035631001 0.156725 -0.234458
-0.035629001 0.156801 -0.23444401
-0.035626002 0.156876 -0.23444
-0.035622999 0.15695 -0.23443399
-0.035620999 0.15702599 -0.234421
-0.035618 0.157102 -0.23441499
-0.035615999 0.157177 -0.23439901
-0.035613999 0.157253 -0.234373
-0.035611998 0.157326 -0.234359
-0.035608999 0.15740401 -0.234356
-0.035606001 0.157478 -0.234358
-0.035603002 0.157554 -0.23435999
-0.035599999 0.15763 -0.234366
-0.035597 0.15770601 -0.234366
-0.035595 0.157782 -0.23435
-0.035592001 0.157858 -0.234345
-0.035588998 0.157932 -0.234349
-0.035585001 0.15801001 -0.23436099
-0.035581999 0.158086 -0.23437101
-0.035579 0.158162 -0.234373
-0.035576001 0.15823799 -0.23437899
-0.035572 0.15831301 -0.23438799
-0.035569001 0.158391 -0.23439801
-0.035565 0.15846699 -0.23440801
-0.035562001 0.15854301 -0.234412
-0.035558999 0.158619 -0.23441599
-0.035556 0.158695 -0.23442601
-0.035551999 0.15877201 -0.234441
-0.035549 0.158848 -0.23444501
-0.035546001 0.158924 -0.234449
-0.035542 0.15899999 -0.23446099
-0.035537999 0.15907601 -0.234485
-0.035533998 0.159155 -0.234503
-0.035530001 0.15923101 -0.234523
-0.035526 0.159308 -0.234548
-0.035521999 0.159384 -0.23457401
-0.035518002 0.159463 -0.234594
-0.035514001 0.159539 -0.23461799
-0.035509001 0.15961801 -0.234658
-0.035503 0.159697 -0.234704
-0.035498001 0.15977401 -0.234742
-0.035494 0.159851 -0.23477399
-0.035489 0.15992901 -0.234806
-0.035484999 0.160008 -0.234842
-0.03548 0.160087 -0.23488399
-0.035473999 0.160166 -0.234938
-0.035468001 0.160245 -0.234997
-0.035461999 0.16032501 -0.23505899
-0.035455 0.160404 -0.235131
-0.035448998 0.160486 -0.23519699
-0.036024 0.133322 -0.236112
-0.036022998 0.133405 -0.236064
-0.036022998 0.133488 -0.236
-0.036022 0.133572 -0.23593999
-0.036022 0.133655 -0.23589
-0.03602 0.133736 -0.235854
-0.036017999 0.133816 -0.235824
-0.036017001 0.13389701 -0.23578399
-0.036015999 0.13397799 -0.235742
-0.036014002 0.134059 -0.235708
-0.036013 0.13414 -0.23566601
-0.036012001 0.134223 -0.23561899
-0.036010999 0.13430201 -0.235587
-0.036008999 0.13438299 -0.235551
-0.036008 0.134462 -0.235517
-0.036006 0.134544 -0.23548301
-0.036006 0.134626 -0.235421
-0.036005002 0.134707 -0.235383
-0.036001999 0.134783 -0.235377
-0.035999 0.13486101 -0.235369
-0.035997 0.134938 -0.235347
-0.035994999 0.13501599 -0.235338
-0.035992 0.13509201 -0.23533399
-0.03599 0.13517199 -0.23531599
-0.035987001 0.13524701 -0.235304
-0.035985 0.135325 -0.235296
-0.035982002 0.13540301 -0.235286
-0.035980001 0.13548 -0.23527201
-0.035976999 0.13555799 -0.235255
-0.035975002 0.135636 -0.235241
-0.035971999 0.135713 -0.23523299
-0.035969999 0.13578901 -0.235231
-0.035967 0.135865 -0.235223
-0.035964001 0.135943 -0.23521499
-0.035960998 0.13601901 -0.23521601
-0.035958 0.136095 -0.23521399
-0.035955999 0.136171 -0.235212
-0.035953 0.13624901 -0.23521
-0.035948999 0.136325 -0.23521601
-0.035946 0.136399 -0.23522601
-0.035944 0.13647699 -0.235209
-0.035941999 0.136554 -0.235191
-0.035937998 0.13663 -0.235199
-0.035935 0.136705 -0.235211
-0.035932001 0.13678101 -0.23521701
-0.035928 0.136857 -0.235223
-0.035925999 0.136933 -0.23521601
-0.035923 0.13700999 -0.235212
-0.035918999 0.13708501 -0.235222
-0.035916001 0.137161 -0.235228
-0.035913002 0.13723899 -0.235222
-0.035911001 0.13731401 -0.235218
-0.035907999 0.13738801 -0.235223
-0.035904001 0.137465 -0.235229
-0.035900999 0.137541 -0.235239
-0.035898 0.13761701 -0.235245
-0.035895001 0.137693 -0.23524299
-0.035891999 0.137769 -0.23524299
-0.035889 0.13784499 -0.235247
-0.035884999 0.13791899 -0.235256
-0.035881002 0.137995 -0.23527201
-0.035877999 0.138071 -0.23528001
-0.035875 0.138147 -0.235274
-0.035873 0.138225 -0.235268
-0.035868999 0.138299 -0.23527899
-0.035866 0.138376 -0.235291
-0.035863001 0.138451 -0.23528901
-0.035859998 0.13852701 -0.235287
-0.035856999 0.138603 -0.235293
-0.035854001 0.13868 -0.23529699
-0.035851002 0.13875499 -0.23529699
-0.035847001 0.138832 -0.23530599
-0.035843998 0.138906 -0.23532
-0.035840001 0.138982 -0.23532601
-0.035836998 0.13905799 -0.23533
-0.035834 0.139134 -0.23533
-0.035831001 0.13921 -0.235332
-0.035828002 0.139286 -0.235341
-0.035824001 0.13936 -0.23535299
-0.035820998 0.13943601 -0.235357
-0.035819001 0.139514 -0.235347
-0.035815999 0.13959 -0.235341
-0.035812002 0.13966601 -0.235351
-0.035808999 0.139742 -0.235364
-0.035806 0.139819 -0.235366
-0.035803001 0.13989501 -0.23537
-0.035799 0.13996901 -0.235384
-0.035796002 0.140045 -0.235392
-0.035792999 0.140121 -0.235388
-0.03579 0.14019901 -0.23538101
-0.035788 0.140276 -0.235369
-0.035785001 0.140352 -0.23537099
-0.035781 0.14042699 -0.23538899
-0.035776999 0.14050101 -0.235403
-0.035774998 0.140579 -0.235393
-0.035772 0.140655 -0.23538999
-0.035767999 0.14073101 -0.235402
-0.035765 0.140807 -0.235406
-0.035762999 0.140883 -0.235402
-0.03576 0.14095899 -0.235402
-0.035755999 0.14103501 -0.23541
-0.035753001 0.141109 -0.235425
-0.035750002 0.141185 -0.23542701
-0.035746999 0.141265 -0.235411
-0.035744999 0.14134 -0.235397
-0.035742 0.141417 -0.235403
-0.035739001 0.14149299 -0.235405
-0.035735998 0.14157 -0.235394
-0.035732999 0.141646 -0.235392
-0.035730001 0.14172199 -0.23539799
-0.035727002 0.141798 -0.23540001
-0.035723999 0.141874 -0.23540001
-0.035721 0.14195 -0.23540001
-0.035718001 0.142028 -0.23540001
-0.035714999 0.142104 -0.235397
-0.035712 0.14218 -0.235395
-0.035709001 0.14225601 -0.235397
-0.035705999 0.142332 -0.235401
-0.035703 0.14241 -0.235395
-0.035700999 0.14248601 -0.235383
-0.035698 0.142564 -0.23537999
-0.035695001 0.14263999 -0.235386
-0.035691999 0.14271601 -0.235384
-0.035689 0.142791 -0.23537999
-0.035686001 0.142867 -0.235376
-0.035682999 0.14294501 -0.23537999
-0.03568 0.14301901 -0.235387
-0.035677001 0.143095 -0.235383
-0.035673998 0.14317299 -0.235379
-0.035672002 0.14324901 -0.23537301
-0.035668999 0.143327 -0.23536301
-0.035666 0.14340299 -0.235355
-0.035663001 0.143479 -0.235356
-0.035659999 0.143555 -0.23536
-0.035657 0.143631 -0.235368
-0.035654001 0.14370701 -0.235368
-0.035652 0.143784 -0.23535
-0.035649002 0.14386 -0.23534399
-0.035645999 0.14393599 -0.235349
-0.035643 0.144012 -0.23535299
-0.035640001 0.144088 -0.235351
-0.035636999 0.14416599 -0.23534501
-0.035634998 0.144242 -0.23533501
-0.035631999 0.144319 -0.235319
-0.035629999 0.14439499 -0.23530801
-0.035627 0.144471 -0.23531599
-0.035622999 0.144547 -0.235324
-0.03562 0.144623 -0.23531801
-0.035618 0.144701 -0.235312
-0.035615001 0.144777 -0.23530599
-0.035611998 0.144853 -0.235302
-0.035608999 0.14492901 -0.23529901
-0.035606001 0.145005 -0.235301
-0.035603002 0.145083 -0.235303
-0.035599999 0.14515901 -0.235303
-0.035597 0.145235 -0.235303
-0.035594001 0.145311 -0.23530699
-0.035590999 0.145386 -0.235304
-0.035588998 0.14546201 -0.2353
-0.035585999 0.145538 -0.2353
-0.035583001 0.14561599 -0.23529799
-0.035580002 0.14569201 -0.235286
-0.035578001 0.145768 -0.235276
-0.035574999 0.14584599 -0.235269
-0.035572 0.14592101 -0.235269
-0.035569001 0.145998 -0.23528101
-0.035565 0.146072 -0.235291
-0.035562001 0.146148 -0.235291
-0.035558999 0.146226 -0.23528901
-0.035556 0.146302 -0.23528799
-0.035553999 0.146378 -0.235284
-0.035551 0.14645299 -0.235278
-0.035548002 0.146529 -0.23527201
-0.035546001 0.146607 -0.235264
-0.035542998 0.14668299 -0.235256
-0.03554 0.146759 -0.235247
-0.035537999 0.146835 -0.235247
-0.035533998 0.146911 -0.23525099
-0.035530999 0.14698701 -0.235257
-0.035528 0.147063 -0.23525099
-0.035526 0.14714 -0.235245
-0.035523001 0.14721601 -0.235248
-0.035519 0.14729001 -0.235254
-0.035516001 0.147369 -0.235258
-0.035512999 0.147443 -0.23525999
-0.03551 0.14752001 -0.235254
-0.035507999 0.147596 -0.235246
-0.035505001 0.147672 -0.235245
-0.035502002 0.14774799 -0.235249
-0.035498999 0.147824 -0.23525099
-0.035496 0.147902 -0.235247
-0.035493001 0.14797799 -0.235239
-0.035491001 0.148054 -0.235229
-0.035487998 0.148129 -0.23522601
-0.035484999 0.148206 -0.23523
-0.035482001 0.14828201 -0.235232
-0.035479002 0.148358 -0.235236
-0.035475999 0.148433 -0.23523
-0.035473 0.148509 -0.23523
-0.035470001 0.14858501 -0.23523501
-0.035466999 0.148663 -0.23523299
-0.035464 0.148739 -0.235229
-0.035461999 0.14881501 -0.235219
-0.035459001 0.148891 -0.23521701
-0.035455 0.148967 -0.235221
-0.035452999 0.14904299 -0.23521399
-0.03545 0.149119 -0.23521601
-0.035447001 0.149195 -0.235222
-0.035443999 0.149271 -0.235218
-0.035441 0.14934801 -0.235204
-0.035439 0.149424 -0.23518801
-0.035436001 0.1495 -0.23518699
-0.035433002 0.14957599 -0.235195
-0.035429999 0.149652 -0.23518901
-0.035427 0.149728 -0.235193
-0.035424002 0.149804 -0.23519699
-0.035420999 0.14988001 -0.235191
-0.035418998 0.149956 -0.235186
-0.035416 0.150032 -0.235184
-0.035413001 0.15010799 -0.235184
-0.035409998 0.150185 -0.23518001
-0.035406999 0.150261 -0.235174
-0.035404 0.150335 -0.235174
-0.035402 0.15041301 -0.235167
-0.035399001 0.150489 -0.235157
-0.035395999 0.150565 -0.23515099
-0.035393 0.15064099 -0.23515099
-0.035390001 0.15071701 -0.23516101
-0.035386998 0.150793 -0.235163
-0.035385001 0.150869 -0.23515201
-0.035381999 0.15094601 -0.23514
-0.035379998 0.151022 -0.235126
-0.035378002 0.151097 -0.23510601
-0.035374999 0.151173 -0.23510601
-0.035371002 0.15125 -0.235122
-0.035367999 0.151326 -0.23512501
-0.035365 0.151402 -0.235119
-0.035362002 0.15147699 -0.23511501
-0.035360001 0.151553 -0.23510499
-0.035356998 0.151629 -0.235099
-0.035354 0.15170699 -0.235099
-0.035351999 0.15178099 -0.235094
-0.035349 0.151857 -0.235084
-0.035346001 0.151934 -0.235076
-0.035344001 0.15200999 -0.235066
-0.035340998 0.152086 -0.235062
-0.035337999 0.152162 -0.235064
-0.035335001 0.152238 -0.235065
-0.035332002 0.15231401 -0.23505899
-0.035330001 0.15239 -0.23504899
-0.035326999 0.152465 -0.235047
-0.035323001 0.152542 -0.235061
-0.035319999 0.15261801 -0.235065
-0.035317998 0.152693 -0.235048
-0.035316002 0.152769 -0.235026
-0.035314001 0.15284599 -0.23501
-0.035312001 0.152922 -0.23499601
-0.035309002 0.152996 -0.23498601
-0.035307001 0.153074 -0.234979
-0.035303999 0.15315001 -0.23497701
-0.035301 0.153225 -0.234971
-0.035298001 0.153301 -0.234965
-0.035296001 0.153377 -0.23495901
-0.035293002 0.15345301 -0.23495901
-0.035289999 0.153529 -0.234952
-0.035287999 0.153604 -0.234938
-0.035286002 0.15368 -0.234924
-0.035282999 0.15375599 -0.23491
-0.035280999 0.15383101 -0.234898
-0.035278 0.153907 -0.234891
-0.035275999 0.153983 -0.23487701
-0.035273999 0.15405899 -0.23486499
-0.035271 0.154135 -0.234861
-0.035268001 0.15421 -0.234853
-0.035266001 0.154286 -0.234841
-0.035262998 0.15436199 -0.23483001
-0.035261001 0.154438 -0.234826
-0.035257999 0.154514 -0.234826
-0.035255 0.154589 -0.234818
-0.035253 0.15466499 -0.234804
-0.035250001 0.154741 -0.234795
-0.035248 0.154817 -0.234787
-0.035245001 0.154892 -0.23477501
-0.035243999 0.154967 -0.234741
-0.035241999 0.15504301 -0.234715
-0.035239 0.155119 -0.234717
-0.035236999 0.155195 -0.23470999
-0.035234001 0.15527 -0.234698
-0.035232 0.15534601 -0.23469
-0.035229001 0.155422 -0.23468
-0.035225999 0.155498 -0.23468
-0.035224002 0.15557399 -0.234669
-0.035222001 0.15564699 -0.234641
-0.035220001 0.155724 -0.23461901
-0.035218 0.155798 -0.234611
-0.035215002 0.155874 -0.234603
-0.035213001 0.15594999 -0.23459201
-0.035209998 0.15602501 -0.234586
-0.035208002 0.156101 -0.23457199
-0.035206001 0.156177 -0.23454601
-0.035204001 0.156252 -0.23452599
-0.035202 0.15632799 -0.234512
-0.035199001 0.15640099 -0.234503
-0.035195999 0.156477 -0.23449899
-0.035193998 0.156553 -0.234495
-0.035191 0.156629 -0.23448101
-0.035188999 0.15670399 -0.234459
-0.035186999 0.15678 -0.23445
-0.035184 0.156856 -0.234448
-0.035181001 0.156932 -0.234442
-0.035179 0.15700801 -0.23443399
-0.035176001 0.15708099 -0.23442601
-0.035174001 0.157157 -0.23440699
-0.035172001 0.157233 -0.23438901
-0.03517 0.157308 -0.234377
-0.035168 0.15738399 -0.23436099
-0.035165001 0.15745801 -0.234347
-0.035163 0.157533 -0.234346
