-0.045968 0.0362687 0.998284 0
-0.0440554 0.0462231 0.997959 0
-0.0431445 0.0423055 0.998173 0
-0.0427173 0.0462168 0.998018 0
-0.0429325 0.0427982 0.998161 0
-0.0431439 0.0643306 0.996996 0
-0.0434868 0.0760549 0.996155 0
-0.0432552 0.0852023 0.995424 0
-0.0422876 0.104016 0.993676 0
-0.0411513 0.111194 0.992946 0
-0.0410087 0.116635 0.992328 0.00250479
-0.0402029 0.108256 0.99331 0
-0.0391857 0.105601 0.993636 0
-0.0384894 0.121491 0.991846 0
-0.0372282 0.121317 0.991916 0
-0.0372629 0.132152 0.990529 0
-0.0368447 0.14025 0.98943 0
-0.0364902 0.140044 0.989473 0
-0.0372448 0.132874 0.990433 0
-0.0366098 0.11101 0.993145 0
-0.0519904 -0.236826 0.97016 0
-0.053053 -0.225023 0.972908 0
-0.0546037 -0.209135 0.976361 0
-0.0542976 -0.215975 0.974888 0
-0.0560618 -0.191591 0.979872 0
-0.0580181 -0.172597 0.983282 0
-0.0582321 -0.167913 0.98408 0
-0.0582998 -0.153767 0.986386 0
-0.0576635 -0.150478 0.98693 0
-0.0563367 -0.160977 0.985349 0
-0.0572089 -0.153872 0.986433 0
-0.0556973 -0.156298 0.986138 0
-0.053917 -0.142471 0.988329 0
-0.0520115 -0.149924 0.987328 0
-0.0510397 -0.158944 0.985967 0
-0.0508807 -0.157849 0.986151 0
-0.0503567 -0.154783 0.986664 0
-0.0486339 -0.158167 0.986214 0
-0.0476444 -0.172763 0.98381 0
-0.0463503 -0.169358 0.984464 0
-0.046374 -0.172063 0.983994 0
-0.0462972 -0.172748 0.983877 0
-0.0468319 -0.176261 0.983229 0
-0.0477497 -0.166923 0.984813 0
-0.0488731 -0.153287 0.986972 0
-0.0497012 -0.143082 0.988462 0
-0.0506316 -0.133685 0.98973 0
-0.0517823 -0.12918 0.990268 0
-0.0524733 -0.1254 0.990718 0
-0.0530037 -0.110709 0.992439 0
-0.0522636 -0.106853 0.9929 0
-0.0533145 -0.103783 0.99317 0
-0.0547998 -0.102751 0.993196 0
-0.0566889 -0.098234 0.993547 0
-0.058006 -0.0884976 0.994386 0
-0.0588096 -0.0781595 0.995205 0
-0.059715 -0.0754235 0.995362 0.00452934
-0.0631892 -0.0709277 0.995478 0.0136553
-0.0658724 -0.0716742 0.995251 0.0214075
-0.0683976 -0.0512241 0.996342 0.0319878
-0.0692879 -0.0409465 0.996756 0.0352992
-0.0713975 -0.0333755 0.996889 0.0400203
-0.0716822 -0.0400129 0.996625 0.0387542
-0.0723409 -0.0375154 0.996674 0.0352305
-0.072567 -0.0296363 0.996923 0.0340815
-0.071446 -0.0242589 0.997149 0.0321609
-0.0719177 -0.023372 0.997137 0.0357205
-0.0726457 -0.0245014 0.997057 0.0379993
-0.0731447 -0.0216809 0.997086 0.0392369
-0.0762737 -0.0202824 0.996881 0.045321
-0.0763054 -0.015586 0.996963 0.046516
-0.0780786 -0.00864054 0.99691 0.0510654
-0.0794578 -0.00818271 0.996805 0.053166
-0.0808752 -0.00510653 0.996711 0.0533317
-0.0806999 -0.00936182 0.996694 0.0521426
-0.0811281 -0.00398688 0.996696 0.0534497
-0.0842105 0.00809969 0.996415 0.0564413
-0.0825587 0.00458496 0.996576 0.0567646
-0.0809143 0.00593844 0.996703 0.0543399
-0.081299 0.010877 0.99663 0.0501922
-0.08094 0.00475378 0.996708 0.0484627
-0.0792668 0.00899078 0.996813 0.0452547
-0.0775699 0.0030469 0.996982 0.0425343
-0.0776699 0.00876865 0.996941 0.0418855
-0.0774391 0.0208241 0.99678 0.0420465
-0.0766087 0.0194313 0.996872 0.0409487
-0.076407 0.0264545 0.996726 0.0400225
-0.0761221 0.0263926 0.996749 0.0385758
-0.0753985 0.0191504 0.99697 0.0385548
-0.0757732 0.0092105 0.997083 0.0381968
-0.075876 0.012074 0.997044 0.0346289
-0.0764208 0.0215008 0.996844 0.0314334
-0.072777 0.0146507 0.997241 0.0211013
-0.0695145 0.0241531 0.997288 0.0149588
-0.0693152 0.0178057 0.997436 0.00951469
-0.0671603 0.0119811 0.99767 0.00334559
-0.0654974 -0.00125885 0.997852 0
-0.0630582 0.000242345 0.99801 0
-0.0628402 0.00483191 0.998012 0
-0.0629866 0.0130098 0.99793 0
-0.0626692 0.0118912 0.997963 0
-0.0614907 0.00337689 0.998102 0
-0.0610858 0.00781947 0.998102 0
-0.0621458 0.00858493 0.99803 0.000384013
-0.0652622 0.0062106 0.997849 0.00426669
-0.0662657 0.0105655 0.997746 0.0046266
-0.0654929 0.0171682 0.997705 0.0062912
-0.0659264 0.0239119 0.997538 0.0103964
-0.0694295 0.0212982 0.997359 0.0142625
-0.0715683 0.0189583 0.997256 0.0179045
-0.072786 0.0162546 0.997215 0.0181896
-0.0722861 0.00844553 0.997348 0.0213386
-0.0744207 0.033573 0.996662 0.0288794
-0.0759919 0.0306829 0.996636 0.0336366
-0.0778243 0.0412269 0.996114 0.0379135
-0.0814368 0.0480649 0.995519 0.0435742
-0.0831641 0.0489883 0.995331 0.04586
-0.0851091 0.0563155 0.994779 0.0509414
-0.0877064 0.0553171 0.994609 0.0554042
-0.0887654 0.0667085 0.993816 0.0597753
-0.09178 0.0696327 0.993342 0.0632548
-0.0936195 0.0699828 0.993145 0.0642045
-0.0935938 0.0540476 0.994142 0.063569
-0.0932893 0.0516852 0.994297 0.0630202
-0.0878702 0.0485606 0.994948 0.0583818
-0.085891 0.0364776 0.995637 0.0535564
-0.0851123 0.0382334 0.995638 0.0496345
-0.0845011 0.022363 0.996172 0.0471773
-0.0805931 0.0205538 0.996535 0.0416956
-0.0771312 0.00139708 0.99702 0.0296138
-0.0752048 -0.00808668 0.997135 0.0203734
-0.0732137 -0.00365486 0.99731 0.0116092
-0.0709547 -0.0170298 0.997334 0.00489466
-0.071145 -0.00648448 0.997445 0.0038799
-0.0694155 -0.0107845 0.99753 0
-0.0677636 -0.0243943 0.997403 0
-0.0674252 -0.0251205 0.997408 0
-0.0657759 -0.0351907 0.997214 0
-0.0660442 -0.0255914 0.997488 0
-0.0646679 -0.0249417 0.997595 0
-0.0651907 -0.0290206 0.997451 0
-0.0666821 -0.0279524 0.997383 0
-0.0666963 -0.0383617 0.997036 0
-0.068035 -0.0409824 0.996841 0
-0.0667874 -0.0375975 0.997059 0
-0.0653304 -0.0278159 0.997476 0
-0.0658286 -0.0316554 0.997329 0
-0.0662876 -0.0241933 0.997507 0
-0.0662383 -0.0290624 0.997381 0
-0.064377 -0.0372701 0.997229 0
-0.0652103 -0.030858 0.997394 0
-0.0656061 -0.0380057 0.997122 0
-0.0677982 -0.0241604 0.997406 0
-0.0684994 -0.0273865 0.997275 0
-0.0673649 -0.0355917 0.997093 0
-0.0670779 -0.0231142 0.99748 0
-0.0673639 -0.031495 0.997231 0
-0.0688932 -0.0254393 0.9973 0
-0.0699717 -0.0266009 0.997194 0
-0.0690698 -0.0289102 0.997193 0.00101894
-0.0686651 -0.0169763 0.997495 0.00223976
-0.0689593 -0.0231227 0.997351 0.00668846
-0.0709015 -0.0281152 0.997087 0.00996247
-0.0743462 -0.0255833 0.996904 0.0161163
-0.0753795 -0.0224139 0.996903 0.0209959
-0.0736631 -0.0238219 0.996999 0.0232311
-0.0753515 -0.0238182 0.996873 0.0300761
-0.0798342 -0.0249452 0.996496 0.0384651
-0.0841626 -0.0203771 0.996244 0.0428444
-0.0836856 -0.018148 0.996327 0.0465048
-0.0833474 -0.0165838 0.996383 0.0472151
-0.0825149 -0.00814101 0.996557 0.0464944
-0.0831684 -0.0128114 0.996453 0.0457986
-0.0853174 -0.0189512 0.996174 0.0461968
-0.0852689 -0.0146867 0.99625 0.0495965
-0.084431 -0.0174349 0.996277 0.0511129
-0.0864422 -0.00928977 0.996214 0.0543992
-0.0868588 -0.0120965 0.996147 0.0533678
-0.089306 -0.0113181 0.99594 0.0553431
-0.0906335 -0.013357 0.995795 0.0581335
-0.0874589 -0.0140973 0.996068 0.0552988
-0.0853739 -0.0168274 0.996207 0.0519448
-0.0857942 -0.0154212 0.996193 0.0507085
-0.0850251 -0.0174449 0.996226 0.049287
-0.0857457 -0.0111155 0.996255 0.0509252
-0.0854209 -0.00937496 0.996301 0.0533031
-0.0852197 -0.00866641 0.996324 0.0518795
-0.0856537 -0.000406865 0.996325 0.0525676
-0.0879184 -0.00171002 0.996126 0.0558854
-0.0899573 0.00307503 0.995941 0.057297
-0.0897152 0.00349376 0.995961 0.0588388
-0.0878942 0.00694849 0.996106 0.0574742
-0.0874515 0.00863894 0.996131 0.0590767
-0.0874231 0.000873705 0.996171 0.059735
-0.0872572 -0.00476368 0.996174 0.0581729
-0.0849609 -0.00517649 0.996371 0.0535435
-0.0843977 -0.00399444 0.996424 0.0486194
-0.0831484 -0.0125346 0.996458 0.0451339
-0.0831347 -0.0121379 0.996464 0.0443599
-0.0826391 -0.0134796 0.996488 0.0407963
-0.0821517 -0.0108504 0.996561 0.0378498
-0.078835 -0.0200393 0.996686 0.0329224
-0.0752047 -0.028319 0.996766 0.0249646
-0.0750024 -0.0200454 0.996982 0.0244086
-0.0733052 -0.0224123 0.997058 0.0211827
-0.0713978 -0.015002 0.997335 0.015909
-0.0706836 -0.0190375 0.997317 0.011685
-0.0706282 -0.0202813 0.997297 0.00887575
-0.0691267 -0.0188243 0.99743 0.00347509
-0.0689487 -0.0185242 0.997448 0.00236282
-0.070462 -0.0212662 0.997288 0.000649475
-0.0720763 -0.0141767 0.997298 0.00342719
-0.073866 -0.0105809 0.997212 0.00571498
-0.0720703 -0.0112545 0.997336 0.00839174
-0.0726324 -0.0152213 0.997243 0.0126421
-0.0732193 -0.0165355 0.997179 0.0152344
-0.0736095 -0.0101478 0.997236 0.0178451
-0.0738346 -0.0081768 0.997237 0.0179118
-0.0753949 -0.0168824 0.997011 0.0197594
-0.0757852 -0.00618381 0.997105 0.0216356
-0.0787046 -0.00994537 0.996848 0.0271989
-0.0818836 -0.0048256 0.99663 0.0323318
-0.0835443 -0.00570057 0.996488 0.0331252
-0.0838735 -0.00553858 0.996461 0.0361671
-0.0837569 0.00296806 0.996482 0.039888
-0.0830585 -0.000833804 0.996544 0.0397437
-0.0802009 -0.00778825 0.996748 0.0343087
-0.0792788 -0.0104113 0.996798 0.0332866
-0.0787553 -0.0161871 0.996763 0.0312147
-0.0776365 -0.0178736 0.996822 0.0274972
-0.0776909 -0.0137352 0.996883 0.0277706
-0.0792548 -0.0120341 0.996782 0.0301524
-0.0802379 -0.0114224 0.99671 0.0300304
-0.0800375 -0.0145307 0.996686 0.0281964
-0.0780116 -0.0251391 0.996635 0.022733
-0.0749195 -0.0206298 0.996976 0.016501
-0.0727553 -0.022256 0.997101 0.0137426
-0.0723826 -0.016828 0.997235 0.0117177
-0.0701876 -0.0219297 0.997293 0.00237619
-0.0689289 -0.0247088 0.997316 0
-0.0689909 -0.0238913 0.997331 0
-0.0694889 -0.0310684 0.997099 0
-0.0700867 -0.032967 0.996996 0
-0.0700713 -0.0378398 0.996824 0
-0.0701802 -0.0398832 0.996737 0
-0.0694238 -0.0409728 0.996745 0
-0.066834 -0.0496469 0.996528 0
-0.0655233 -0.047282 0.99673 0
-0.0655159 -0.0473839 0.996726 0
-0.0657141 -0.0460135 0.996777 0
-0.0650572 -0.0541022 0.996414 0
-0.0633055 -0.0493926 0.996771 0
-0.0645989 -0.0590637 0.996162 0
-0.0671708 -0.053336 0.996315 0
-0.0697798 -0.0461387 0.996495 0
-0.0688427 -0.044688 0.996626 0
-0.0680097 -0.0440401 0.996712 0
-0.0678704 -0.0503293 0.996424 0
-0.0682294 -0.0479357 0.996517 0
-0.0686672 -0.0406689 0.99681 0
-0.0684143 -0.0399225 0.996858 0
-0.0680557 -0.0362074 0.997024 0.00312609
-0.0672797 -0.0425353 0.996827 0.00323045
-0.0695037 -0.0446809 0.996581 0.00497984
-0.0711226 -0.0486224 0.996282 0.00166322
-0.0717238 -0.0482708 0.996256 0.000782461
-0.0710008 -0.0411232 0.996628 0.00360822
-0.0690296 -0.0383283 0.996878 0.00101545
-0.0681276 -0.0429321 0.996752 0
-0.0685842 -0.0416767 0.996774 0
-0.0684277 -0.0431099 0.996724 0
-0.0653235 -0.0452374 0.996838 0
-0.0633371 -0.0478607 0.996844 0
-0.0640136 -0.0534314 0.996518 0
-0.0651618 -0.0531254 0.99646 0
-0.065864 -0.0495327 0.996598 0
-0.0668049 -0.0547525 0.996263 0
-0.0669566 -0.0569041 0.996132 0
-0.0675499 -0.0634464 0.995697 0
-0.066681 -0.0655248 0.99562 0
-0.0659736 -0.0753407 0.994973 0
-0.0668042 -0.0854033 0.994104 0
-0.0650792 -0.0906359 0.993755 0
-0.0639749 -0.0939214 0.993522 0
-0.0629126 -0.111474 0.991774 0
-0.0641122 -0.111679 0.991674 0
-0.0644626 -0.116383 0.99111 0
-0.0647329 -0.0967063 0.993206 0
-0.0658101 -0.100366 0.992772 0
-0.0675937 -0.104732 0.992201 0
-0.0677404 -0.10308 0.992364 0
-0.0679456 -0.0988545 0.99278 0
-0.0690638 -0.104085 0.992168 0
-0.0700751 -0.101581 0.992356 0
-0.0699619 -0.10647 0.991852 0
-0.0691814 -0.0945152 0.993117 0
-0.0683425 -0.0968487 0.99295 0
-0.0677508 -0.112544 0.991334 0
-0.0659383 -0.108235 0.991936 0
-0.064854 -0.114324 0.991324 0
-0.0645654 -0.116634 0.991074 0
-0.0657815 -0.113981 0.991303 0
-0.0654578 -0.119636 0.990658 0
-0.0646948 -0.118107 0.990891 0
-0.0662012 -0.124161 0.990051 0
-0.0662804 -0.129996 0.989297 0
-0.065997 -0.120371 0.990533 0
-0.0668347 -0.124634 0.989949 0
-0.0654762 -0.123809 0.990143 0
-0.0652696 -0.125651 0.989925 0
-0.06406 -0.128481 0.989641 0
-0.0634176 -0.118224 0.99096 0
-0.0617094 -0.118752 0.991005 0
-0.0614857 -0.116912 0.991237 0
-0.0611593 -0.103009 0.992798 0
-0.0596739 -0.105245 0.992654 0
-0.0605492 -0.101805 0.99296 0
-0.0627439 -0.094055 0.993588 0
-0.0654969 -0.101302 0.992697 0
-0.0651231 -0.103924 0.992451 0
-0.0652202 -0.0921892 0.993603 0
-0.0637344 -0.0940823 0.993522 0
-0.0608388 -0.0861732 0.994421 0
-0.0573203 -0.0865279 0.994599 0
-0.0571993 -0.0945001 0.99388 0
-0.0585941 -0.0955768 0.993696 0
-0.0593708 -0.098416 0.993373 0
-0.0594794 -0.095192 0.99368 0
-0.0590424 -0.0917022 0.994035 0
-0.0573627 -0.0952283 0.993801 0
-0.055412 -0.0839084 0.994932 0
-0.0566352 -0.0783912 0.995313 0
-0.0570349 -0.0709746 0.995846 0
-0.0571228 -0.0676175 0.996075 0
-0.0565577 -0.0569747 0.996772 0
-0.054668 -0.0567712 0.996889 0
-0.0523056 -0.0521292 0.99727 0
-0.0528284 -0.0514936 0.997275 0
-0.0536219 -0.0547537 0.997059 0
-0.0548481 -0.0459269 0.997438 0
-0.0568209 -0.0500438 0.997129 0
-0.0567303 -0.044384 0.997402 0
-0.0572938 -0.0446711 0.997357 0
-0.0566569 -0.0347307 0.997789 0
-0.0567578 -0.0314162 0.997894 0
-0.0565433 -0.0420011 0.997516 0
-0.0573195 -0.0373414 0.997657 0
-0.057364 -0.0410589 0.997509 0
-0.0570759 -0.0385792 0.997624 0
-0.0556038 -0.0444423 0.997463 0
-0.0551591 -0.0469037 0.997375 0
-0.054441 -0.0520821 0.997158 0
-0.054175 -0.0482748 0.997364 0
-0.0539167 -0.0508997 0.997247 0
-0.054317 -0.0434969 0.997576 0
-0.0551216 -0.0358774 0.997835 0
-0.055736 -0.0283559 0.998043 0
-0.0559026 -0.025499 0.998111 0
-0.0553863 -0.0264456 0.998115 0
-0.0558593 -0.0128875 0.998355 0
-0.0555183 -0.0184013 0.998288 0
-0.0554338 -0.0121341 0.998389 0
-0.053018 -0.0272991 0.99822 0
-0.0527635 -0.0283883 0.998203 0
-0.0519132 -0.0194761 0.998462 0
-0.0512652 -0.0176097 0.99853 0
-0.0512628 -0.0172184 0.998537 0
-0.0507367 -0.0096695 0.998665 0
-0.0494272 -0.00840435 0.998742 0
-0.049103 -0.00393783 0.998786 0
-0.0479276 -0.00310464 0.998846 0
-0.0488908 0.00704983 0.998779 0
-0.0478953 0.0148111 0.998743 0
-0.0481834 0.0200683 0.998637 0
-0.047723 0.0233277 0.998588 0
-0.0482761 0.0297031 0.998392 0
-0.047677 0.0324495 0.998336 0
-0.0469129 0.0379936 0.998176 0
-0.0460228 0.0456333 0.997898 0
-0.0458126 0.0427737 0.998034 0
-0.044187 0.0362182 0.998367 0
-0.0427573 0.0284601 0.99868 0
-0.0419135 0.0430894 0.998192 0
-0.0404791 0.0427142 0.998267 0
-0.0399204 0.0408462 0.998368 0
-0.0397762 0.0318731 0.9987 0
-0.0398961 0.0572113 0.997565 0
-0.0401903 0.0596025 0.997413 0
-0.0391694 0.066001 0.997051 0
-0.0392626 0.0781362 0.996169 0
-0.0399372 0.0834947 0.995708 0
-0.040041 0.111947 0.992907 0.00368928
-0.0379402 0.106194 0.993621 0
-0.0372572 0.111663 0.993047 0
-0.0371067 0.131005 0.990687 0
-0.0365143 0.125112 0.99147 0
-0.0363705 0.129849 0.990867 0
-0.0357361 0.138068 0.989778 0
-0.0349206 0.144026 0.988958 0
-0.0360696 0.14735 0.988427 0
-0.0354315 0.136943 0.989945 0
-0.0496851 -0.238739 0.969812 0
-0.051266 -0.219453 0.974275 0
-0.0527461 -0.207749 0.976759 0
-0.0537014 -0.209192 0.976399 0
-0.0536934 -0.19909 0.978509 0
-0.0559618 -0.158877 0.985711 0
-0.0561937 -0.158622 0.985739 0.000151204
-0.0575201 -0.151177 0.986832 0.00672642
-0.0569286 -0.145201 0.987763 0.00643335
-0.0562985 -0.145399 0.98777 0.000769661
-0.0558379 -0.142906 0.98816 0
-0.0549542 -0.144567 0.987968 0
-0.0525701 -0.149006 0.987438 0
-0.0500777 -0.155775 0.986522 0
-0.049084 -0.163903 0.985255 0
-0.0495677 -0.165494 0.984964 0
-0.0496706 -0.158873 0.986049 0
-0.0473307 -0.161478 0.985741 0
-0.0459424 -0.174328 0.983615 0
-0.0456661 -0.173109 0.983843 0
-0.0463386 -0.167916 0.984712 0
-0.0464498 -0.175947 0.983303 0
-0.0474461 -0.174331 0.983543 0
-0.0465231 -0.171076 0.984159 0
-0.0475849 -0.158583 0.986198 0
-0.0491542 -0.148971 0.987619 0
-0.0495481 -0.149258 0.987556 0
-0.0509816 -0.135313 0.98949 0
-0.0511629 -0.133742 0.989695 0
-0.0516235 -0.120016 0.991429 0
-0.0516799 -0.110807 0.992497 0
-0.0530291 -0.101037 0.993468 0
-0.0550476 -0.102737 0.993184 0
-0.0567687 -0.0994385 0.993423 0
-0.056838 -0.0864473 0.994634 0
-0.0589976 -0.0770134 0.995283 0
-0.0608955 -0.0735677 0.995429 0.00803127
-0.0634433 -0.0677525 0.995683 0.0148643
-0.0668277 -0.0611552 0.995889 0.025862
-0.0679085 -0.0510578 0.996384 0.0292417
-0.0704324 -0.041296 0.996661 0.03339
-0.0720562 -0.0320964 0.996884 0.036229
-0.0722047 -0.0361486 0.996734 0.0353975
-0.0725297 -0.0361387 0.996711 0.0323541
-0.0726702 -0.0284951 0.996949 0.0356496
-0.0715204 -0.025177 0.997121 0.0318401
-0.0718634 -0.0212149 0.997189 0.0317678
-0.0726482 -0.0233194 0.997085 0.0330881
-0.0720241 -0.0227245 0.997144 0.0310745
-0.0752227 -0.0189183 0.996987 0.0405607
-0.0768281 -0.0125005 0.996966 0.0458094
-0.0768137 -0.0110037 0.996985 0.0440903
-0.079639 -0.00512977 0.996811 0.0489748
-0.0809688 -0.00939746 0.996672 0.05114
-0.0798316 -0.00555702 0.996793 0.0483626
-0.0824943 -0.00217911 0.996589 0.0538763
-0.0829775 0.00721966 0.996525 0.0577222
-0.0821577 -0.002371 0.996616 0.0568224
-0.0800877 0.00751269 0.99676 0.0517627
-0.0823402 0.0136895 0.99651 0.0522987
-0.0824762 0.00339149 0.996587 0.0497905
-0.0807829 0.00287854 0.996728 0.0436323
-0.0787034 -0.00252984 0.996895 0.0365744
-0.0774628 0.00201504 0.996993 0.0356592
-0.0756399 0.00856831 0.997098 0.0326799
-0.0767175 0.0141698 0.996952 0.034583
-0.0768658 0.0288135 0.996625 0.0366353
-0.077036 0.0305903 0.996559 0.0399459
-0.0775907 0.0206818 0.996771 0.0403467
-0.0758184 0.0123668 0.997045 0.0372279
-0.0750126 0.0143224 0.99708 0.0330366
-0.0760334 0.0149967 0.996993 0.0303108
-0.074315 0.0147626 0.997126 0.0231542
-0.0728646 0.0252227 0.997023 0.0153812
-0.0705689 0.0185626 0.997334 0.00848361
-0.0682063 0.0114641 0.997605 0.0024825
-0.0660659 -0.00705874 0.99779 0
-0.0644172 -0.00372272 0.997916 0
-0.0639844 0.00448131 0.997941 0
-0.0644395 0.0100583 0.997871 0
-0.0635554 0.0134315 0.997888 0
-0.062748 0.0122778 0.997954 0
-0.0619935 0.0112374 0.998013 0
-0.0642129 0.00551403 0.997921 0
-0.0659082 0.00600884 0.997808 0
-0.0674303 0.0117598 0.997655 0.00342798
-0.0662636 0.0240697 0.997512 0.0066869
-0.0680348 0.0242212 0.997389 0.00967957
-0.0696062 0.0182664 0.997407 0.012941
-0.0711804 0.0229123 0.9972 0.0167053
-0.072866 0.0194733 0.997152 0.0204536
-0.0746496 0.015279 0.997093 0.0258799
-0.0784993 0.0300532 0.996461 0.0338174
-0.0821573 0.0342473 0.996031 0.0426074
-0.0823031 0.0522516 0.995237 0.0438648
-0.085271 0.0480528 0.995198 0.0479565
-0.085306 0.0545527 0.99486 0.0511162
-0.0877084 0.0614606 0.994248 0.0573456
-0.0905501 0.0599881 0.994084 0.0620753
-0.091781 0.0638095 0.993733 0.0657323
-0.0934655 0.060969 0.993754 0.0690005
-0.0956127 0.0737773 0.992681 0.0692817
-0.0952806 0.060285 0.993623 0.0673812
-0.0932474 0.0551963 0.994112 0.0622301
-0.0903305 0.045829 0.994857 0.0584137
-0.0868573 0.0333485 0.995662 0.0523935
-0.083907 0.0350021 0.995859 0.0461773
-0.0817751 0.0173952 0.996499 0.0425165
-0.0797636 0.0163069 0.99668 0.0349126
-0.0771506 0.00223665 0.997017 0.0267298
-0.0741868 -0.00830761 0.99721 0.0145346
-0.0712894 -0.00929852 0.997412 0.0054575
-0.0702512 -0.0147103 0.997421 0.00259042
-0.0705588 -0.0100973 0.997456 0
-0.0699094 -0.0131013 0.997467 0
-0.0677483 -0.0187833 0.997526 0
-0.0669335 -0.0274327 0.99738 0
-0.065749 -0.0281111 0.99744 0
-0.0661584 -0.025307 0.997488 0
-0.0661671 -0.0260918 0.997467 0
-0.0662883 -0.0210951 0.997577 0
-0.0669341 -0.0325629 0.997226 0
-0.0675947 -0.037998 0.996989 0
-0.068489 -0.0385891 0.996905 0
-0.0683896 -0.0397033 0.996868 0
-0.0660248 -0.0312959 0.997327 0
-0.0656326 -0.0321098 0.997327 0
-0.0664834 -0.0249716 0.997475 0
-0.0661557 -0.028503 0.997402 0
-0.0656087 -0.0376755 0.997134 0
-0.0648219 -0.0330331 0.99735 0
-0.0649996 -0.0381681 0.997155 0
-0.0666189 -0.0290572 0.997355 0
-0.0672836 -0.0348881 0.997124 0
-0.0669759 -0.0388456 0.996998 0
-0.0658327 -0.0343364 0.99724 0
-0.0658165 -0.0397006 0.997042 0
-0.0683873 -0.0279636 0.997267 0
-0.0687618 -0.0276961 0.997249 0
-0.0694257 -0.0279172 0.997196 0
-0.0668859 -0.0262541 0.997415 0
-0.0677818 -0.0275202 0.997321 0.00330069
-0.0707159 -0.0267658 0.997137 0.00859495
-0.0728552 -0.0276653 0.996959 0.0122497
-0.0746063 -0.0252531 0.996893 0.0169439
-0.0754451 -0.0222351 0.996902 0.025169
-0.0752293 -0.0248891 0.996856 0.0307131
-0.0785385 -0.0263312 0.996563 0.0383827
-0.083678 -0.0193672 0.996305 0.0435712
-0.0844076 -0.0161212 0.996301 0.0447164
-0.0833014 -0.0164185 0.996389 0.0430819
-0.0824871 -0.0141862 0.996491 0.0448848
-0.083507 -0.0136325 0.996414 0.0463201
-0.0854522 -0.0115776 0.996275 0.0480535
-0.0871643 -0.0190111 0.996013 0.0503562
-0.0879281 -0.0118735 0.996056 0.0533887
-0.0856862 -0.00733989 0.996295 0.0545746
-0.0867347 -0.00433106 0.996222 0.056342
-0.0895553 -0.00938626 0.995938 0.0553885
-0.0897271 -0.0130536 0.995881 0.0557129
-0.0897152 -0.00679878 0.995944 0.054861
-0.0877685 -0.0130879 0.996055 0.0579483
-0.0874983 -0.00944431 0.99612 0.0576296
-0.0871664 -0.01229 0.996118 0.055566
-0.0874994 -0.010664 0.996108 0.0539552
-0.0878639 -0.00254343 0.996129 0.0549172
-0.0879173 0.00271076 0.996124 0.0587385
-0.0869929 0.00154689 0.996208 0.0584024
-0.0897561 -0.000506749 0.995964 0.0604445
-0.0910116 -0.000589527 0.99585 0.0617868
-0.0919573 0.0032596 0.995758 0.0610287
-0.0908928 0.00566695 0.995845 0.0638258
-0.0881789 0.00812144 0.996072 0.0620633
-0.0887036 0.00943477 0.996013 0.0633967
-0.0889849 -0.000469074 0.996033 0.0605903
-0.088519 -0.00528467 0.99606 0.0593455
-0.0869272 -0.00438974 0.996205 0.0553267
-0.0841314 -0.00553287 0.996439 0.0524734
-0.0834737 -0.00704873 0.996485 0.0464693
-0.0825027 -0.0100735 0.99654 0.0430819
-0.0820217 -0.0111005 0.996569 0.0374569
-0.080023 -0.0188213 0.996615 0.0324022
-0.0755941 -0.0282394 0.996739 0.0282692
-0.0752523 -0.0245067 0.996863 0.02838
-0.0753703 -0.0167702 0.997015 0.0269658
-0.0750945 -0.015082 0.997062 0.0249502
-0.0740539 -0.0147098 0.997146 0.020476
-0.071353 -0.0140371 0.997352 0.0158408
-0.0704742 -0.0160576 0.997384 0.0116737
-0.0717421 -0.0136135 0.99733 0.0138615
-0.0733143 -0.0207805 0.997092 0.0118155
-0.0759644 -0.00928219 0.997067 0.0159522
-0.0747372 -0.00563862 0.997187 0.0141313
-0.0722662 -0.0141297 0.997285 0.0126727
-0.0721321 -0.0132562 0.997307 0.0144529
-0.0738167 -0.0147898 0.997162 0.0171434
-0.0740209 -0.00820924 0.997223 0.0208022
-0.0753282 -0.0116899 0.99709 0.0219817
-0.0762874 -0.0175601 0.996931 0.0229662
-0.0772892 -0.00426693 0.997 0.0254041
-0.0793571 -0.00549899 0.996831 0.0291453
-0.0811705 -0.00590368 0.996683 0.0312835
-0.0833852 -0.00954515 0.996472 0.0347589
-0.0852501 -0.00688564 0.996336 0.0416576
-0.0837289 0.00207496 0.996486 0.0426849
-0.0806085 -0.00634765 0.996726 0.0395304
-0.0797857 -0.0103232 0.996759 0.0336526
-0.0788674 -0.0133465 0.996796 0.0300071
-0.0778701 -0.0136531 0.99687 0.0275852
-0.0776592 -0.0202206 0.996775 0.025093
-0.0770456 -0.0163871 0.996893 0.0245512
-0.0783983 -0.0156332 0.9968 0.0275503
-0.0796714 -0.00890083 0.996781 0.0266483
-0.0792886 -0.0151895 0.996736 0.0240146
-0.0764667 -0.0206697 0.996858 0.0200729
-0.0733833 -0.0214896 0.997072 0.0150245
-0.071522 -0.0164075 0.997304 0.00962133
-0.0712927 -0.0182485 0.997288 0.00534999
-0.0692927 -0.0224827 0.997343 0
-0.0687202 -0.0276813 0.997252 0
-0.0689686 -0.0268557 0.997257 0
-0.0689106 -0.0294247 0.997189 0
-0.0689596 -0.0373504 0.99692 0
-0.0696518 -0.0403616 0.996755 0
-0.0693306 -0.0357461 0.996953 0
-0.0690435 -0.0428596 0.996693 0
-0.0669061 -0.0454152 0.996725 0
-0.0666859 -0.0470497 0.996664 0
-0.0660788 -0.0493586 0.996593 0
-0.0665454 -0.0395334 0.997 0
-0.0653478 -0.0534349 0.996431 0
-0.0652745 -0.0454603 0.996831 0
-0.0667963 -0.0532222 0.996346 0
-0.0684333 -0.0482159 0.99649 0
-0.0696946 -0.0391895 0.996798 0
-0.0693263 -0.0401172 0.996787 0
-0.0698754 -0.0326149 0.997022 0
-0.0704846 -0.0389224 0.996753 0
-0.0713724 -0.0337687 0.996878 5.93257e-05
-0.0716085 -0.0357988 0.99679 0.00459791
-0.0693461 -0.0328663 0.997051 0.00862097
-0.0712859 -0.0351675 0.996836 0.0144927
-0.0724535 -0.0362347 0.996713 0.0138335
-0.074099 -0.0376743 0.996539 0.0140341
-0.0739077 -0.0400944 0.996459 0.0082306
-0.0728349 -0.0426308 0.996432 0.00467459
-0.0702277 -0.0470065 0.996423 0.00195419
-0.069525 -0.0409444 0.99674 0.00110158
-0.0693833 -0.0367014 0.996915 0
-0.0689315 -0.0442527 0.996639 0
-0.0676933 -0.039967 0.996905 0
-0.0657136 -0.0456888 0.996792 0
-0.0639752 -0.0454566 0.996916 0
-0.0643807 -0.0512483 0.996609 0
-0.0656495 -0.0556605 0.996289 0
-0.0670402 -0.0423391 0.996852 0
-0.0682569 -0.0509867 0.996364 0
-0.0683382 -0.0593459 0.995896 0
-0.0668345 -0.0637609 0.995725 0
-0.0676719 -0.066123 0.995514 0
-0.0678605 -0.0696526 0.995261 0
-0.0658913 -0.0870097 0.994026 0
-0.0645498 -0.091594 0.993702 0
-0.0641675 -0.0939228 0.993509 0
-0.0636761 -0.106163 0.992308 0
-0.0643945 -0.109001 0.991954 0
-0.0650502 -0.108144 0.992005 0
-0.0659742 -0.101047 0.992692 0
-0.0680609 -0.0972183 0.992933 0
-0.0687257 -0.0984283 0.992768 0
-0.0694564 -0.098606 0.9927 0
-0.068383 -0.0985266 0.992782 0
-0.0689443 -0.102151 0.992377 0
-0.0687955 -0.103202 0.992278 0
-0.0696189 -0.105792 0.991948 0
-0.0695283 -0.100693 0.992485 0
-0.0692408 -0.100643 0.99251 0
-0.0675692 -0.10922 0.991718 0
-0.0664171 -0.112881 0.991386 0
-0.0657251 -0.110402 0.991711 0
-0.0659361 -0.113368 0.991363 0
-0.0674539 -0.111244 0.991501 0
-0.0666493 -0.119935 0.990542 0
-0.0662277 -0.116886 0.990935 0
-0.066302 -0.125052 0.989932 0
-0.0665315 -0.128193 0.989515 0
-0.0663449 -0.116912 0.990924 0
-0.0672104 -0.121735 0.990285 0
-0.0669778 -0.118699 0.990669 0
-0.0659282 -0.125893 0.989851 0
-0.0649067 -0.131787 0.989151 0
-0.0633742 -0.122851 0.9904 0
-0.0636304 -0.118839 0.990873 0
-0.0635466 -0.117125 0.991082 0
-0.0626634 -0.106133 0.992375 0
-0.0621856 -0.106609 0.992355 0
-0.0630817 -0.0985606 0.99313 0
-0.0641765 -0.101318 0.992782 0
-0.0657222 -0.100098 0.992805 0
-0.0647419 -0.102332 0.992641 0
-0.0661265 -0.09071 0.993679 0
-0.064845 -0.0916108 0.993681 0
-0.0630027 -0.0849781 0.994389 0
-0.0602166 -0.0847033 0.994585 0
-0.0583566 -0.0881145 0.994399 0
-0.0598906 -0.0925015 0.99391 0
-0.0610509 -0.0923516 0.993853 0
-0.061044 -0.0934472 0.993751 0
-0.0607817 -0.0905347 0.994037 0
-0.0589027 -0.09822 0.99342 0
-0.0579582 -0.0817514 0.994966 0
-0.058351 -0.0737762 0.995566 0
-0.0575924 -0.075106 0.995511 0
-0.05765 -0.0671467 0.996076 0
-0.0576257 -0.0623453 0.99639 0
-0.0561889 -0.0516773 0.997082 0
-0.0550563 -0.0409107 0.997645 0
-0.0557254 -0.0436952 0.99749 0
-0.0557497 -0.0506009 0.997162 0
-0.0567282 -0.0426544 0.997478 0
-0.0588779 -0.0514105 0.99694 0
-0.0598126 -0.0425295 0.997303 0
-0.0590037 -0.0398823 0.997461 0
-0.0581284 -0.0378078 0.997593 0
-0.0579846 -0.036558 0.997648 0
-0.0580669 -0.0451571 0.997291 0
-0.0569291 -0.0559304 0.99681 0
-0.057427 -0.0481217 0.997189 0
-0.0573415 -0.0458755 0.9973 0
-0.0568329 -0.0486063 0.9972 0
-0.0558077 -0.049405 0.997218 0
-0.055173 -0.0580882 0.996786 0
-0.0557527 -0.0500325 0.99719 0
-0.0545676 -0.0553875 0.996973 0
-0.0549915 -0.0441041 0.997512 0
-0.0558125 -0.0381021 0.997714 0
-0.0564778 -0.0287892 0.997989 0
-0.0561899 -0.0283962 0.998016 0
-0.0563762 -0.0179929 0.998248 0
-0.0562786 -0.0148259 0.998305 0
-0.0561942 -0.0156193 0.998298 0
-0.0552599 -0.0230346 0.998206 0
-0.0543078 -0.0211523 0.9983 0
-0.0529173 -0.0249771 0.998286 0
-0.0518027 -0.0321075 0.998141 0
-0.0510887 -0.0198742 0.998496 0
-0.0509614 -0.0193631 0.998513 0
-0.0504614 -0.0119987 0.998654 0
-0.049798 -0.0110911 0.998698 0
-0.049434 -0.00259893 0.998774 0
-0.0486376 -0.000637083 0.998816 0
-0.0482421 0.00960601 0.998789 0
-0.0481348 0.0177792 0.998683 0
-0.0483719 0.0192395 0.998644 0
-0.0484589 0.0314003 0.998331 0
-0.0483016 0.0351333 0.998215 0
-0.046986 0.0293106 0.998465 0
-0.0470589 0.0369784 0.998207 0
-0.044579 0.0331864 0.998454 0
-0.0432472 0.0348246 0.998457 0
-0.0412763 0.0251626 0.998831 0
-0.0400891 0.0273378 0.998822 0
-0.0397281 0.0319108 0.998701 0
-0.0394613 0.0445763 0.998226 0
-0.0384371 0.041216 0.998411 0
-0.0377072 0.0446657 0.99829 0
-0.0377447 0.0638961 0.997242 0
-0.0364611 0.0655304 0.997184 0
-0.0370774 0.0723263 0.996692 0
-0.0379937 0.0701134 0.996815 0
-0.0376851 0.0777511 0.99626 0
-0.0372863 0.0899312 0.99525 0
-0.0350227 0.101104 0.994259 0
-0.0357432 0.101793 0.994163 0
-0.0359248 0.111652 0.993098 0
-0.0353774 0.123455 0.991719 0
-0.034893 0.121413 0.991989 0
-0.0354294 0.129825 0.990904 0
-0.0341047 0.149073 0.988238 0
-0.0345782 0.149832 0.988107 0
-0.0342716 0.15263 0.987689 0
-0.0484149 -0.232184 0.971466 0
-0.0495449 -0.219731 0.974302 0
-0.050899 -0.209233 0.97654 0
-0.0513393 -0.198872 0.97868 0
-0.0529565 -0.183217 0.981645 0.00135956
-0.0539521 -0.163167 0.985122 0.00372121
-0.0551006 -0.148679 0.987349 0.00790967
-0.0552999 -0.161491 0.985324 0.00661236
-0.0544391 -0.14836 0.987434 0.00461451
-0.0553624 -0.144897 0.987897 0.00920226
-0.0532388 -0.145551 0.987917 0
-0.052928 -0.147288 0.987676 0
-0.052173 -0.153593 0.986756 0
-0.0504379 -0.15204 0.987086 0
-0.0484672 -0.16478 0.985139 0
-0.0471808 -0.168792 0.984522 0
-0.0473625 -0.168454 0.984571 0
-0.0466261 -0.167053 0.984845 0
-0.046515 -0.172021 0.983994 0
-0.0455515 -0.176613 0.983226 0
-0.0466667 -0.168696 0.984563 0
-0.0471631 -0.166212 0.984962 0
-0.047981 -0.171083 0.984088 0
-0.0468606 -0.170295 0.984278 0
-0.0467993 -0.160926 0.985856 0
-0.0479791 -0.154404 0.986842 0
-0.0491678 -0.149567 0.987528 0
-0.0497909 -0.14662 0.987939 0
-0.0496713 -0.136314 0.98942 0
-0.051335 -0.122131 0.991186 0
-0.0530786 -0.111813 0.992311 0
-0.0535615 -0.104351 0.993097 0
-0.0536943 -0.100907 0.993446 0
-0.055976 -0.090946 0.994281 0
-0.0566418 -0.0894908 0.994376 0
-0.0588464 -0.0807954 0.994992 0
-0.0603876 -0.0690611 0.995783 0.00443158
-0.063063 -0.062105 0.996075 0.0156553
-0.0653773 -0.0621301 0.995924 0.0215308
-0.0678066 -0.0503304 0.996428 0.0270781
-0.0700968 -0.0387477 0.996787 0.0281441
-0.0704237 -0.0336816 0.996948 0.0277235
-0.0714762 -0.0334286 0.996882 0.0303273
-0.0710613 -0.0356843 0.996833 0.0272569
-0.0718971 -0.0258817 0.997076 0.0327894
-0.0721423 -0.024158 0.997102 0.0297633
-0.0712201 -0.0194496 0.997271 0.0263781
-0.0727249 -0.0116225 0.997284 0.0311346
-0.0728231 -0.0239162 0.997058 0.031247
-0.0738499 -0.0209677 0.997049 0.0314135
-0.0759471 -0.0114117 0.997047 0.0377196
-0.0778896 -0.0112662 0.996898 0.0437509
-0.0809405 -0.00215937 0.996717 0.0483414
-0.0817369 0.000994239 0.996653 0.0513123
-0.0834414 0.00413585 0.996504 0.0552996
-0.0858085 0.0106454 0.996255 0.0593928
-0.0840249 0.00577312 0.996447 0.0597349
-0.0838571 0.00236657 0.996475 0.0568996
-0.0816607 0.00882129 0.996621 0.0524122
-0.0819723 0.0122354 0.99656 0.0526242
-0.0827938 0.0113892 0.996502 0.0496785
-0.0802711 1.43785e-05 0.996773 0.0439022
-0.0779896 -0.0109543 0.996894 0.0368085
-0.0766152 -0.0014222 0.99706 0.032988
-0.0762064 0.00258953 0.997089 0.0333201
-0.076931 0.0129681 0.996952 0.0336996
-0.0761898 0.0180118 0.996931 0.0341837
-0.0765131 0.0248294 0.996759 0.0374222
-0.076145 0.0176276 0.996941 0.0366536
-0.0758408 0.0134552 0.997029 0.0330275
-0.0751307 0.0118455 0.997103 0.0326164
-0.0748765 0.00695218 0.997169 0.0251998
-0.0735318 0.0125453 0.997214 0.0196075
-0.0720978 0.0214668 0.997167 0.0136281
-0.0710878 0.0136063 0.997377 0.00787137
-0.0694497 0.00280345 0.997582 0
-0.0666749 -0.0007383 0.997774 0
-0.0657913 -0.00358873 0.997827 0
-0.0650858 -0.00100496 0.997879 0
-0.0650081 0.00523431 0.997871 0
-0.0638193 0.00834402 0.997927 0
-0.0624678 0.0120975 0.997974 0
-0.0623067 0.00946777 0.998012 0
-0.0628141 0.00399241 0.998017 0
-0.0648972 0.00601773 0.997874 0
-0.0674906 0.00788985 0.997689 0.00485887
-0.0688122 0.0247673 0.997322 0.00947936
-0.0701016 0.0285276 0.997132 0.0105023
-0.0718221 0.0238391 0.997133 0.0153533
-0.0744055 0.0301338 0.996773 0.0213432
-0.0754511 0.0188118 0.996972 0.0235919
-0.0783146 0.0190374 0.996747 0.0298805
-0.0806476 0.0318383 0.996234 0.0378362
-0.083263 0.0381714 0.995796 0.0454404
-0.0857991 0.0556017 0.99476 0.0514269
-0.0865968 0.0563848 0.994646 0.0515226
-0.0866375 0.0561967 0.994654 0.0513167
-0.0892892 0.0595148 0.994226 0.0563632
-0.0929098 0.0668102 0.99343 0.0641456
-0.0948168 0.0612019 0.993612 0.066726
-0.0945016 0.0600428 0.993712 0.0691385
-0.0941788 0.0674274 0.993269 0.0674634
-0.0933997 0.0585936 0.993903 0.0649268
-0.0916641 0.0610301 0.993918 0.0582762
-0.08906 0.0388113 0.99527 0.0551772
-0.0872421 0.0363284 0.995525 0.0515547
-0.0841925 0.0304167 0.995985 0.0455219
-0.0812936 0.00941251 0.996646 0.0374394
-0.0799419 0.00894197 0.996759 0.0315089
-0.0768701 -0.00365289 0.997034 0.022064
-0.0745454 -0.00261814 0.997214 0.0151845
-0.0718201 -0.00674153 0.997395 0.00633326
-0.0704549 -0.0187317 0.997339 0
-0.0698315 -0.0107548 0.997501 0
-0.0692408 -0.01586 0.997474 0
-0.06769 -0.0227334 0.997447 0
-0.0669012 -0.0294411 0.997325 0
-0.0672941 -0.0308682 0.997256 0
-0.0682746 -0.0244937 0.997366 0
-0.0682664 -0.0274568 0.997289 0
-0.0677705 -0.0272012 0.99733 0
-0.0684069 -0.0324093 0.997131 0
-0.0679437 -0.0311455 0.997203 0
-0.0678747 -0.0419298 0.996812 0
-0.06833 -0.0404003 0.996844 0
-0.0648094 -0.0330328 0.997351 0
-0.064233 -0.0323335 0.997411 0
-0.065683 -0.0244528 0.997541 0
-0.0672541 -0.0329402 0.997192 0
-0.0675737 -0.0368604 0.997033 0
-0.0666081 -0.0260142 0.99744 0
-0.0663007 -0.0416341 0.996931 0
-0.0657096 -0.0336891 0.99727 0
-0.067014 -0.0370867 0.997063 0
-0.0672988 -0.0359432 0.997085 0
-0.0662678 -0.0282408 0.997402 0
-0.0655003 -0.0404 0.997034 0
-0.0680047 -0.0301539 0.997229 0
-0.0698043 -0.0268714 0.997199 0
-0.0702621 -0.0276174 0.997146 0
-0.0699891 -0.0195186 0.997357 0.00181585
-0.070676 -0.0272517 0.997127 0.0076206
-0.0720684 -0.0306957 0.996927 0.0106925
-0.0725287 -0.0294617 0.996931 0.0126311
-0.0758122 -0.0253636 0.9968 0.0209767
-0.0756298 -0.020216 0.996931 0.0237838
-0.075125 -0.0190912 0.996991 0.0291109
-0.0775323 -0.0262444 0.996644 0.0324106
-0.0806906 -0.0155128 0.996619 0.0361857
-0.0824425 -0.025813 0.996261 0.0375494
-0.082047 -0.0243686 0.99633 0.0371874
-0.0818166 -0.0177104 0.99649 0.0380862
-0.0822158 -0.0185619 0.996442 0.0393922
-0.083215 -0.0123698 0.996455 0.0437595
-0.0864344 -0.0167325 0.996117 0.0501757
-0.0878499 -0.00611721 0.996115 0.0532425
-0.0857727 -0.00358947 0.996308 0.055209
-0.0881088 -0.00801662 0.996079 0.0573623
-0.0901941 -0.00981776 0.995876 0.0559209
-0.090881 -0.00830842 0.995827 0.0578629
-0.0916247 -0.007516 0.995765 0.0597111
-0.0906029 -0.00528832 0.995873 0.0605661
-0.0903686 -0.0119277 0.995837 0.0598149
-0.0897711 0.00081552 0.995962 0.0598788
-0.0882886 -0.00382341 0.996087 0.0568537
-0.0884922 -0.00265817 0.996073 0.0577296
-0.0888146 0.00310865 0.996043 0.0597759
-0.0881302 0.006901 0.996085 0.0615911
-0.0901753 0.00356023 0.99592 0.0636359
-0.0927176 0.00349393 0.995686 0.0651428
-0.0912934 -0.00302104 0.995819 0.0628119
-0.09159 0.00249584 0.995794 0.0637821
-0.0899747 0.0127062 0.995863 0.062823
-0.0893552 0.00882592 0.995961 0.0611202
-0.088171 -0.00575014 0.996089 0.0583386
-0.089068 -0.00289316 0.996021 0.0593559
-0.0871035 -0.00523558 0.996185 0.0550474
-0.0850757 -0.000526485 0.996374 0.0541109
-0.0847906 -0.00643285 0.996378 0.0526942
-0.0842236 -0.0115303 0.99638 0.0479413
-0.0827628 -0.0059501 0.996552 0.0420568
-0.0815731 -0.0196882 0.996473 0.0372392
-0.0787086 -0.027845 0.996509 0.0327471
-0.0770197 -0.0273021 0.996656 0.0330166
-0.0773138 -0.0186268 0.996833 0.0328094
-0.0773073 -0.00507138 0.996994 0.0322843
-0.0766774 -0.0103888 0.997002 0.0311204
-0.0755674 -0.0137559 0.997046 0.0301903
-0.0748381 -0.00909244 0.997154 0.0272015
-0.0761551 -0.00951376 0.997051 0.024022
-0.0763191 -0.0191668 0.996899 0.0224262
-0.0778329 -0.0120333 0.996894 0.0243128
-0.075769 -0.00711801 0.9971 0.0200281
-0.0755178 -0.00297071 0.99714 0.0215012
-0.0755643 -0.00818757 0.997107 0.0234268
-0.0761554 -0.0127692 0.997014 0.0244031
-0.0745621 -0.00991681 0.997167 0.0225692
-0.073864 -0.0117223 0.997199 0.0183116
-0.0746158 -0.0164857 0.997076 0.0185757
-0.0763196 -0.00963358 0.997037 0.0215565
-0.0789523 -0.0100773 0.996827 0.0268213
-0.0815138 0.000340634 0.996672 0.031283
-0.0835074 -0.0138667 0.996411 0.0351251
-0.0836511 -0.00673966 0.996472 0.0391074
-0.0826485 -0.00446864 0.996569 0.0401356
-0.0800854 -0.00809445 0.996755 0.0364321
-0.07867 -0.0124629 0.996823 0.0316579
-0.0764681 -0.0218995 0.996832 0.0254383
-0.0762377 -0.0182292 0.996923 0.0248325
-0.0768058 -0.0206907 0.996831 0.0250933
-0.0772043 -0.0178642 0.996855 0.0246541
-0.0785613 -0.0188121 0.996732 0.0255759
-0.0769311 -0.0118689 0.996966 0.0218816
-0.0767244 -0.0200152 0.996851 0.0178592
-0.0765152 -0.0245677 0.996766 0.0185986
-0.0751947 -0.0215845 0.996935 0.0152588
-0.0714825 -0.0227919 0.997181 0.00699873
-0.0702946 -0.0144206 0.997422 0.00495056
-0.068158 -0.0271098 0.997306 0
-0.0684994 -0.0246471 0.997347 0
-0.0691965 -0.0263834 0.997254 0
-0.0692591 -0.0371388 0.996907 0
-0.0679616 -0.0347805 0.997082 0
-0.0663928 -0.0474487 0.996665 0
-0.0680683 -0.0372838 0.996984 0
-0.0683726 -0.0471332 0.996546 0
-0.0678288 -0.0504619 0.99642 0
-0.065986 -0.0525901 0.996434 0
-0.0648524 -0.0501467 0.996634 0
-0.0649436 -0.0460735 0.996825 0
-0.0658507 -0.0528243 0.99643 0
-0.0661712 -0.049831 0.996563 0
-0.0689458 -0.0480225 0.996464 0
-0.0694293 -0.0440502 0.996614 0
-0.0697871 -0.0433616 0.996619 0
-0.0698572 -0.033493 0.996995 0
-0.0708252 -0.0272312 0.997117 0
-0.0729653 -0.0331412 0.996784 0.00325416
-0.0735293 -0.0268268 0.996932 0.00824156
-0.0735891 -0.0302681 0.996829 0.0152853
-0.0711189 -0.0315152 0.99697 0.0168741
-0.0719479 -0.0352715 0.996785 0.0168337
-0.07365 -0.0437609 0.996324 0.0131871
-0.0741802 -0.0343054 0.996655 0.0119311
-0.0729285 -0.0358716 0.996692 0.00846299
-0.0712793 -0.0468451 0.996356 0.00218008
-0.0709874 -0.0428065 0.996558 0.00389435
-0.0690891 -0.0477046 0.996469 0
-0.0685435 -0.0368433 0.996968 0
-0.0690219 -0.0491487 0.996404 0
-0.0672654 -0.0494229 0.99651 0
-0.0653987 -0.0435317 0.996909 0
-0.0637092 -0.0479132 0.996818 0
-0.0643766 -0.0510597 0.996619 0
-0.0659602 -0.0498606 0.996576 0
-0.0684658 -0.0393542 0.996877 0
-0.0697784 -0.0430214 0.996634 0
-0.0701685 -0.0558829 0.995969 0
-0.0681065 -0.0650668 0.995554 0
-0.0680797 -0.0623167 0.995732 0
-0.0679327 -0.0673418 0.995415 0
-0.0664352 -0.0855928 0.994113 0
-0.0664517 -0.0862977 0.994051 0
-0.0646974 -0.0967034 0.993208 0
-0.0642954 -0.101757 0.992729 0
-0.0632663 -0.111719 0.991724 0
-0.0652708 -0.112341 0.991524 0
-0.0683063 -0.101279 0.99251 0
-0.0709695 -0.0948815 0.992956 0
-0.0717296 -0.0914412 0.993224 0
-0.0703132 -0.0992994 0.99257 0
-0.0683045 -0.0964733 0.992989 0
-0.0689378 -0.0942696 0.993157 0
-0.0693861 -0.103081 0.99225 0
-0.0717184 -0.106975 0.991672 0
-0.0714058 -0.0999397 0.992428 0
-0.0690215 -0.101347 0.992454 0
-0.0666447 -0.104764 0.992261 0
-0.0662417 -0.109202 0.99181 0
-0.0675347 -0.111262 0.991494 0
-0.0692136 -0.104926 0.992069 0
-0.0693242 -0.109177 0.991602 0
-0.0670007 -0.120858 0.990406 0
-0.0660486 -0.113711 0.991316 0
-0.0662095 -0.124047 0.990065 0
-0.0676744 -0.122779 0.990124 0
-0.0675606 -0.122074 0.990219 0
-0.0682064 -0.120588 0.990357 0
-0.0663501 -0.116248 0.991002 0
-0.0650032 -0.129204 0.989485 0
-0.0649396 -0.131366 0.989205 0
-0.0653409 -0.124227 0.9901 0
-0.0642315 -0.121516 0.990509 0
-0.0641608 -0.117633 0.990982 0
-0.0640501 -0.106039 0.992297 0
-0.0641028 -0.112144 0.991622 0
-0.0645222 -0.104469 0.992433 0
-0.0653242 -0.102224 0.992614 0
-0.0674076 -0.106383 0.992038 0
-0.0658438 -0.0995239 0.992854 0
-0.0649174 -0.0914468 0.993692 0
-0.0633137 -0.0927747 0.993672 0
-0.0640466 -0.0860197 0.994233 0
-0.0626852 -0.089212 0.994038 0
-0.0601849 -0.0907175 0.994056 0
-0.060638 -0.0872695 0.994337 0
-0.0622567 -0.0926587 0.99375 0
-0.0630938 -0.089183 0.994015 0
-0.0617996 -0.0899954 0.994023 0
-0.060714 -0.0944319 0.993678 0
-0.0593423 -0.0821178 0.994854 0
-0.0582551 -0.0835239 0.994802 0
-0.0578742 -0.0776945 0.995296 0
-0.0581781 -0.0675013 0.996022 0
-0.0583676 -0.0615766 0.996394 0
-0.0566686 -0.0489064 0.997194 0
-0.0564861 -0.0413888 0.997545 0
-0.05752 -0.0474023 0.997218 0
-0.0584745 -0.0477983 0.997144 0
-0.0585656 -0.0497052 0.997045 0
-0.0594034 -0.0491467 0.997024 0
-0.0593425 -0.0438517 0.997274 0
-0.0598812 -0.0423122 0.997308 0
-0.059691 -0.0388548 0.99746 0
-0.0597202 -0.0434215 0.99727 0
-0.0595428 -0.0458326 0.997173 0
-0.0595548 -0.0533799 0.996797 0
-0.0582079 -0.049142 0.997094 0
-0.0579511 -0.05186 0.996972 0
-0.0571855 -0.0506177 0.99708 0
-0.057199 -0.0513335 0.997042 0
-0.0566713 -0.0527964 0.996996 0
-0.0572217 -0.0596429 0.996578 0
-0.0555606 -0.0575905 0.996793 0
-0.0554104 -0.0534186 0.997034 0
-0.0557999 -0.045383 0.99741 0
-0.0564307 -0.0309918 0.997925 0
-0.0570271 -0.0224672 0.99812 0
-0.0581618 -0.0211413 0.998083 0
-0.0576846 -0.0200001 0.998134 0
-0.0567694 -0.022453 0.998135 0
-0.0548947 -0.0244264 0.998193 0
-0.0541009 -0.0270112 0.99817 0
-0.052998 -0.0338071 0.998022 0
-0.0524663 -0.0305323 0.998156 0
-0.0513734 -0.0245703 0.998377 0
-0.0508726 -0.0211659 0.998481 0
-0.0503338 -0.0125629 0.998653 0
-0.0500532 -0.0139444 0.998649 0
-0.0491626 -0.0111941 0.998728 0
-0.0495246 -0.0003396 0.998773 0
-0.0484808 0.0103574 0.99877 0
-0.0478138 0.0166115 0.998718 0
-0.0479178 0.0231642 0.998583 0
-0.0477178 0.0335548 0.998297 0
-0.0473505 0.0430717 0.997949 0
-0.0464833 0.0406987 0.99809 0
-0.0448602 0.0293685 0.998561 0
-0.0430487 0.022262 0.998825 0
-0.0407746 0.0114456 0.999103 0
-0.0389483 0.0153739 0.999123 0
-0.0385657 0.0235586 0.998978 0
-0.039098 0.0292095 0.998808 0
-0.0386132 0.028248 0.998855 0
-0.0383014 0.0435365 0.998317 0
-0.0368413 0.0522357 0.997955 0
-0.0367702 0.0700975 0.996862 0
-0.0361236 0.0671935 0.997086 0
-0.0370121 0.0774491 0.996309 0
-0.0356693 0.0700782 0.996904 0
-0.0350751 0.0669422 0.99714 0
-0.0349555 0.0801109 0.996173 0
-0.0345288 0.0870135 0.995609 0
-0.0348745 0.0925362 0.995098 0
-0.0350876 0.113012 0.992974 0
-0.0337451 0.125742 0.991489 0
-0.0341072 0.108554 0.993505 0
-0.0342824 0.129724 0.990957 0
-0.0333243 0.152679 0.987714 0
-0.0338505 0.144723 0.988893 0
-0.0335679 0.139025 0.98972 0
-0.0472078 -0.230307 0.971972 0
-0.04795 -0.22161 0.973956 0
-0.048826 -0.20765 0.976984 0
-0.0499804 -0.186499 0.981183 0
-0.0505577 -0.182147 0.981971 0.000779821
-0.0515011 -0.169571 0.984171 0.00570855
-0.0540661 -0.14602 0.987803 0.00791226
-0.0543901 -0.163681 0.985013 0.01133
-0.0549486 -0.15276 0.986735 0.012987
-0.0529505 -0.15088 0.987133 0.00953758
-0.0521885 -0.145197 0.988025 0.0058242
-0.0518837 -0.141921 0.988517 0
-0.0508165 -0.151474 0.987154 0
-0.0485121 -0.155682 0.986615 0
-0.0465735 -0.164315 0.985308 0
-0.0458424 -0.176529 0.983227 0
-0.0464554 -0.167524 0.984773 0
-0.0464155 -0.163372 0.985472 0
-0.0461071 -0.172251 0.983973 0
-0.0452886 -0.177797 0.983025 0
-0.046155 -0.173239 0.983798 0
-0.0460905 -0.164211 0.985348 0
-0.0458766 -0.173601 0.983747 0
-0.0460804 -0.171114 0.984173 0
-0.0472359 -0.159528 0.986063 0
-0.0467736 -0.156856 0.986513 0
-0.0482165 -0.149376 0.987604 0
-0.0491684 -0.14513 0.98819 0
-0.0489542 -0.139665 0.988988 0
-0.0508031 -0.124887 0.99087 0
-0.0521566 -0.113943 0.992117 0
-0.0532934 -0.105109 0.993032 0
-0.0542629 -0.10182 0.993322 0
-0.05475 -0.0940946 0.994057 0
-0.0562052 -0.0913503 0.994231 0
-0.0579394 -0.083864 0.994791 0
-0.0595423 -0.0724187 0.995595 0.00615056
-0.0633848 -0.0619236 0.996066 0.0164305
-0.0642833 -0.0617481 0.996019 0.0163687
-0.0660222 -0.0540504 0.996353 0.0185211
-0.0675228 -0.045772 0.996667 0.0213965
-0.0693986 -0.0323743 0.997064 0.0236578
-0.0701311 -0.0344651 0.996942 0.0246876
-0.0707104 -0.032208 0.996977 0.0224483
-0.0710597 -0.0308028 0.996996 0.02547
-0.0713927 -0.0217171 0.997212 0.0281177
-0.0720084 -0.0177448 0.997246 0.026871
-0.0736648 -0.0112275 0.99722 0.0331669
-0.0734823 -0.0184472 0.997126 0.0304597
-0.0749544 -0.0188508 0.997009 0.0333748
-0.0765419 -0.0144556 0.996962 0.035287
-0.0789872 -0.00724225 0.996849 0.0441028
-0.081083 -0.00407053 0.996699 0.0495933
-0.0829661 0.00960643 0.996506 0.0542686
-0.0835272 0.0172556 0.996356 0.0560334
-0.0868209 0.022615 0.995967 0.0611141
-0.0867537 0.0156425 0.996107 0.0629116
-0.0834262 0.000641488 0.996514 0.059008
-0.0821185 0.00501972 0.99661 0.0552948
-0.0815794 0.00484781 0.996655 0.0538583
-0.0823362 0.00686323 0.996581 0.0534273
-0.0795326 0.00861756 0.996795 0.0447804
-0.0764424 -0.012306 0.996998 0.0341953
-0.0759181 -0.00755623 0.997085 0.0309425
-0.0765731 -0.00209724 0.997062 0.0326778
-0.0773208 0.00312655 0.997001 0.0307427
-0.0763835 0.014771 0.996969 0.0332616
-0.0760787 0.0171388 0.996955 0.0321807
-0.076538 0.0134718 0.996976 0.0310136
-0.0735854 0.00847937 0.997253 0.0244471
-0.0739304 0.0129355 0.99718 0.0253933
-0.0733974 0.00369848 0.997296 0.0209983
-0.0706385 0.00844545 0.997466 0.0123794
-0.071128 0.00844001 0.997431 0.00706937
-0.0696073 0.0124358 0.997497 0.00321427
-0.0683299 0.00139807 0.997662 0
-0.066983 -0.00550788 0.997739 0
-0.0672468 -0.00326044 0.997731 0
-0.067171 -0.00656069 0.99772 0
-0.0649912 0.00374357 0.997879 0
-0.0645667 0.0148803 0.997802 0
-0.0629099 0.014083 0.99792 0
-0.0627043 0.0149247 0.997921 0
-0.0632629 0.00635764 0.997977 0
-0.0650224 0.00690001 0.99786 0.000276919
-0.0694863 0.00924159 0.99754 0.00860464
-0.0716007 0.021499 0.997202 0.0124254
-0.0716392 0.0290337 0.997008 0.0115629
-0.0732707 0.0261837 0.996968 0.0159335
-0.0747195 0.0298025 0.996759 0.0219943
-0.0767808 0.024859 0.996738 0.0244728
-0.0800075 0.0174 0.996642 0.0321553
-0.0840736 0.0326665 0.995924 0.0421551
-0.0849488 0.0422296 0.99549 0.0501757
-0.0859587 0.0612231 0.994416 0.0550444
-0.0890879 0.0632376 0.994014 0.058558
-0.0910451 0.0621423 0.993906 0.0599397
-0.0942266 0.0575411 0.993887 0.0630648
-0.0948295 0.0671121 0.993229 0.066344
-0.0968642 0.063277 0.993284 0.0710547
-0.0946698 0.0636446 0.993472 0.0678231
-0.094927 0.0646573 0.993382 0.0669173
-0.0939855 0.0564617 0.993971 0.0627368
-0.0911199 0.0609977 0.99397 0.0564916
-0.0869521 0.0382209 0.995479 0.0512028
-0.0831468 0.0329186 0.995993 0.0470234
-0.0821805 0.0256851 0.996286 0.0418043
-0.082461 0.0110231 0.996533 0.0374772
-0.0802799 0.010839 0.996713 0.0318562
-0.0799419 0.00320835 0.996794 0.0282171
-0.0765495 0.0020337 0.997064 0.0182431
-0.0722628 -0.010481 0.997331 0.00689054
-0.0711554 -0.016698 0.997325 0
-0.069668 -0.01544 0.997451 0
-0.0695119 -0.013283 0.997493 0
-0.0680028 -0.0169353 0.997541 0
-0.0680693 -0.0261499 0.997338 0
-0.0680691 -0.0273996 0.997304 0
-0.0686181 -0.0276187 0.997261 0
-0.0691541 -0.0263633 0.997258 0
-0.0695821 -0.0210502 0.997354 0
-0.0694401 -0.0298658 0.997139 0
-0.0689863 -0.0278808 0.997228 0
-0.069688 -0.0344767 0.996973 0
-0.0694713 -0.040575 0.996758 0
-0.0660895 -0.0245489 0.997512 0
-0.0654301 -0.0363008 0.997197 0
-0.0671417 -0.02644 0.997393 0
-0.0677259 -0.0308392 0.997227 0
-0.0683236 -0.0346269 0.997062 0
-0.0672828 -0.0229853 0.997469 0
-0.0667932 -0.0391158 0.997 0
-0.0669623 -0.0291932 0.997328 0
-0.0676004 -0.0274321 0.997335 0
-0.0671306 -0.0358325 0.997101 0
-0.0669647 -0.026714 0.997398 0
-0.0667203 -0.0356248 0.997136 0
-0.0706117 -0.0317721 0.996998 0.00183444
-0.0719043 -0.0261877 0.997068 0.00352916
-0.0709009 -0.0280496 0.997089 0.00127627
-0.0704125 -0.0242986 0.997222 0.00270949
-0.0709215 -0.0282225 0.997083 0.00485468
-0.0716068 -0.0339555 0.996855 0.00761732
-0.0737596 -0.0286287 0.996865 0.013308
-0.0746245 -0.0263812 0.996863 0.0177275
-0.0749412 -0.0217424 0.996951 0.0226704
-0.0747534 -0.0236625 0.996921 0.027099
-0.0770362 -0.032471 0.996499 0.0298207
-0.0791811 -0.0245666 0.996558 0.0320094
-0.0812292 -0.0248125 0.996387 0.033289
-0.0812702 -0.0275339 0.996312 0.0350742
-0.0817574 -0.0199044 0.996454 0.0342798
-0.0810738 -0.0172526 0.996559 0.0359204
-0.0832333 -0.0107344 0.996472 0.0441508
-0.0858093 -0.0124299 0.996234 0.0489579
-0.0858926 -0.0157742 0.99618 0.050785
-0.08651 -0.00740982 0.996223 0.05468
-0.0867386 -0.00558912 0.996215 0.0542734
-0.0889687 -0.013152 0.995948 0.0561789
-0.0918671 -0.00672853 0.995749 0.0601829
-0.0911528 -0.0081502 0.995804 0.0587987
-0.0914403 -0.00258334 0.995807 0.0584629
-0.0901765 -0.00225205 0.995923 0.0585227
-0.0883314 -0.0110115 0.99603 0.0595401
-0.0870578 -0.00282801 0.996199 0.0566554
-0.0885318 0.00166674 0.996072 0.0575582
-0.0886529 -0.00651699 0.996041 0.0571015
-0.0890091 0.00168636 0.996029 0.0591766
-0.0880902 -0.0069666 0.996088 0.0590338
-0.0891008 -0.00056152 0.996023 0.0599943
-0.0907144 -0.00559175 0.995861 0.0602015
-0.0907796 -0.00542342 0.995856 0.0605686
