# .PCD v0.7 - Point Cloud Data file format
VERSION 0.7
FIELDS x y z
SIZE 4 4 4
TYPE F F F
COUNT 1 1 1
WIDTH 1364
HEIGHT 1
VIEWPOINT 0 0 0 1 0 0 0
POINTS 1364
DATA ascii
-0.0072269998 0.018819001 -0.228545
-0.0072240001 0.018897001 -0.228535
-0.0072209998 0.018976999 -0.228534
-0.007218 0.019057 -0.22853801
-0.007214 0.019137001 -0.228544
-0.0072110002 0.019216999 -0.22854801
-0.0072079999 0.019297 -0.228552
-0.0072050001 0.019377001 -0.22854801
-0.0072019999 0.019454001 -0.22853599
-0.0071990001 0.019533999 -0.22853
-0.0071959998 0.019614 -0.22853
-0.0071930001 0.019692 -0.228523
-0.0071899998 0.019772001 -0.228521
-0.007187 0.019851999 -0.22852901
-0.007183 0.019934 -0.22853699
-0.0071800002 0.020012001 -0.228539
-0.0071769999 0.020091999 -0.22852901
-0.0071749999 0.020169999 -0.22851899
-0.0071720001 0.02025 -0.228517
-0.0071680001 0.020330001 -0.22851899
-0.0071649998 0.020409999 -0.22852001
-0.0071620001 0.02049 -0.22851799
-0.0071589998 0.020567 -0.228516
-0.007156 0.020648999 -0.22852001
-0.007152 0.020729 -0.228522
-0.0071490002 0.020807 -0.22851799
-0.0071459999 0.020887 -0.228512
-0.0071439999 0.020965001 -0.228508
-0.0071410001 0.021044999 -0.22850201
-0.0071379999 0.021125 -0.22850101
-0.0071339998 0.021205001 -0.228505
-0.007131 0.021284999 -0.228505
-0.0071279998 0.021365 -0.228503
-0.007125 0.021443 -0.228499
-0.0071220002 0.021522 -0.22849099
-0.007119 0.021600001 -0.228485
-0.0071160002 0.021679999 -0.228485
-0.0071129999 0.02176 -0.228486
-0.0071100001 0.021840001 -0.228484
-0.0071069999 0.021919999 -0.228486
-0.0071029998 0.022 -0.22849201
-0.0071 0.02208 -0.228488
-0.007098 0.022158001 -0.22848
-0.007094 0.02224 -0.228486
-0.00709 0.02232 -0.228496
-0.007088 0.022398001 -0.22849
-0.0070850002 0.022477999 -0.22847401
-0.0070819999 0.022554999 -0.228469
-0.0070790001 0.022635 -0.228469
-0.0070759999 0.022715 -0.228467
-0.0070730001 0.022793001 -0.22846299
-0.0070699998 0.022872999 -0.22845501
-0.007067 0.022953 -0.22845501
-0.0070639998 0.023033001 -0.22845501
-0.007061 0.023112999 -0.228449
-0.0070580002 0.023190999 -0.22844601
-0.0070549999 0.02327 -0.228444
-0.0070520001 0.02335 -0.22844
-0.0070500001 0.023428001 -0.228432
-0.0070469999 0.023507999 -0.22842599
-0.0070429998 0.023588 -0.22842599
-0.0070400001 0.023668 -0.22842599
-0.0070369998 0.023746001 -0.22842
-0.0070349998 0.023825999 -0.228415
-0.0070310002 0.023906 -0.228415
-0.007028 0.023983 -0.228411
-0.0070259999 0.024063 -0.228403
-0.0070230002 0.024142999 -0.22839899
-0.0070190001 0.024223 -0.22840101
-0.0070159999 0.024303 -0.228411
-0.0070130001 0.024382999 -0.228411
-0.0070099998 0.024463 -0.228405
-0.007007 0.024543 -0.228402
-0.007003 0.024622999 -0.228406
-0.0070000002 0.024703 -0.22841001
-0.006997 0.024783 -0.22841001
-0.0069940002 0.024862999 -0.228404
-0.0069909999 0.024940999 -0.228398
-0.0069880001 0.025021 -0.228394
-0.0069849999 0.025098 -0.228388
-0.0069820001 0.025178 -0.228384
-0.0069789998 0.025257999 -0.228385
-0.006976 0.025338 -0.22838099
-0.0069729998 0.025418 -0.22838099
-0.00697 0.025498001 -0.228379
-0.0069670002 0.025575999 -0.228369
-0.0069639999 0.025656 -0.228367
-0.0069610002 0.025736 -0.228377
-0.0069570001 0.025818 -0.22838099
-0.0069539999 0.025896 -0.228377
-0.0069510001 0.025976 -0.22837199
-0.0069479998 0.026055999 -0.22837199
-0.0069439998 0.026138 -0.22838201
-0.006941 0.026218001 -0.22838201
-0.0069380002 0.026296001 -0.228378
-0.006935 0.026376 -0.22837999
-0.0069309999 0.026458001 -0.228386
-0.0069280001 0.026538 -0.228384
-0.0069260001 0.026617 -0.228378
-0.0069229999 0.026695 -0.228368
-0.0069200001 0.026773 -0.228361
-0.0069169998 0.026853001 -0.228365
-0.0069129998 0.026935 -0.22837099
-0.00691 0.027016999 -0.228377
-0.0069070002 0.027094999 -0.228377
-0.006904 0.027175 -0.228369
-0.0069010002 0.027253 -0.228361
-0.0068979999 0.027332 -0.22835299
-0.0068950001 0.027411999 -0.228351
-0.0068919999 0.027489999 -0.228348
-0.0068890001 0.02757 -0.22834399
-0.0068859998 0.027650001 -0.228348
-0.006883 0.027729999 -0.22835
-0.0068799998 0.02781 -0.22834
-0.006877 0.02789 -0.22834
-0.0068740002 0.027968001 -0.228338
-0.0068709999 0.028047999 -0.22833
-0.0068680001 0.028128 -0.22833
-0.0068649999 0.028208001 -0.22833499
-0.0068609999 0.02829 -0.228343
-0.0068580001 0.02837 -0.228347
-0.0091749998 -0.021787001 -0.22955699
-0.009172 -0.021705 -0.22954699
-0.0091690002 -0.021624999 -0.22953901
-0.0091660004 -0.021543 -0.22953901
-0.0091629997 -0.021462999 -0.22953101
-0.0091610001 -0.021382 -0.229513
-0.0091580003 -0.021299999 -0.229505
-0.0091549996 -0.02122 -0.22950099
-0.0091519998 -0.02114 -0.229498
-0.009149 -0.021062 -0.2295
-0.0091460003 -0.020981999 -0.2295
-0.0091429995 -0.020901 -0.22949401
-0.0091399997 -0.020823 -0.22949401
-0.0091359997 -0.020741001 -0.22949199
-0.0091329999 -0.020663001 -0.22949401
-0.0091300001 -0.020583 -0.22949401
-0.0091270003 -0.020502999 -0.22949
-0.0091239996 -0.020423001 -0.22949301
-0.0091209998 -0.020343 -0.22949301
-0.009118 -0.020262999 -0.22948501
-0.0091150003 -0.020183001 -0.229479
-0.0091120005 -0.020101 -0.22947501
-0.0091080004 -0.020022999 -0.229481
-0.0091049997 -0.019943001 -0.229481
-0.0091019999 -0.019863 -0.229479
-0.0090990001 -0.019784 -0.22947501
-0.0090969997 -0.019702001 -0.229461
-0.0090929996 -0.019622 -0.229462
-0.0090899998 -0.019544 -0.229468
-0.009087 -0.019466 -0.22947399
-0.009083 -0.019386001 -0.229478
-0.0090810005 -0.019304 -0.229462
-0.0090779997 -0.019222001 -0.22944599
-0.009075 -0.019144 -0.229458
-0.0090709999 -0.019066 -0.22946399
-0.0090690004 -0.018985 -0.22944801
-0.0090659996 -0.018903 -0.229442
-0.0090629999 -0.018825 -0.229443
-0.0090600001 -0.018745 -0.229443
-0.0090570003 -0.018665001 -0.22943901
-0.0090539996 -0.018585 -0.229433
-0.0090509998 -0.018502999 -0.229431
-0.009048 -0.018423 -0.229425
-0.0090439999 -0.018345 -0.22942699
-0.0090410002 -0.018265 -0.22942901
-0.0090380004 -0.018185999 -0.229421
-0.0090359999 -0.018104 -0.229412
-0.0090330001 -0.018023999 -0.229408
-0.0090290001 -0.017945999 -0.229416
-0.0090260003 -0.017866001 -0.22941799
-0.0090229996 -0.017786 -0.22940999
-0.0090199998 -0.017705999 -0.229408
-0.009017 -0.017626001 -0.229408
-0.0090140002 -0.017546 -0.229404
-0.0090110004 -0.017468 -0.229404
-0.0090070004 -0.017387999 -0.229415
-0.0090039996 -0.017309999 -0.229415
-0.0090009999 -0.017228 -0.229405
-0.0089980001 -0.017148999 -0.229399
-0.0089959996 -0.017067 -0.229389
-0.0089929998 -0.016989 -0.229385
-0.00899 -0.016909 -0.229385
-0.008986 -0.016829001 -0.229385
-0.0089840004 -0.016747 -0.229375
-0.0089800004 -0.016666999 -0.22937299
-0.0089769997 -0.016589001 -0.22938
-0.0089739999 -0.016511001 -0.22939
-0.0089699998 -0.016431 -0.229388
-0.0089680003 -0.016349001 -0.229378
-0.0089649996 -0.016271999 -0.22937401
-0.0089609995 -0.016192 -0.229376
-0.0089579998 -0.016112 -0.229378
-0.008955 -0.016031999 -0.229376
-0.0089520002 -0.015953001 -0.22938199
-0.0089480001 -0.015873 -0.229385
-0.0089450004 -0.015794 -0.229381
-0.0089429999 -0.015714001 -0.229371
-0.0089400001 -0.015634 -0.229367
-0.0089370003 -0.015552 -0.229361
-0.0089339996 -0.015472 -0.229353
-0.0089309998 -0.015393 -0.22934499
-0.008928 -0.015313 -0.229341
-0.0089250002 -0.015235 -0.22934701
-0.0089210002 -0.015155 -0.22935399
-0.0089180004 -0.015076 -0.229362
-0.0089140004 -0.014998 -0.22937
-0.0089119999 -0.014919 -0.229358
-0.0089100003 -0.014837 -0.22934
-0.0089069996 -0.014757 -0.22933
-0.0089039998 -0.014677 -0.22932801
-0.0088999998 -0.014597 -0.229332
-0.008897 -0.014519 -0.229334
-0.0088940002 -0.014439 -0.229329
-0.0088910004 -0.014359 -0.229331
-0.0088879997 -0.014279 -0.229333
-0.0088849999 -0.014201 -0.229333
-0.0088820001 -0.01412 -0.229325
-0.0088790003 -0.014042 -0.229323
-0.0088750003 -0.013962 -0.22932699
-0.0088719996 -0.013882 -0.229323
-0.00887 -0.013802 -0.22931699
-0.0088670002 -0.013722 -0.22930799
-0.0088630002 -0.013642 -0.229312
-0.0088600004 -0.013564 -0.229316
-0.0088569997 -0.013484 -0.22931001
-0.0088539999 -0.013404 -0.229306
-0.0088510001 -0.013325 -0.229304
-0.0088480003 -0.013245 -0.22930001
-0.0088449996 -0.013165 -0.229296
-0.0088419998 -0.013087 -0.22929899
-0.008839 -0.013007 -0.22930101
-0.0088360002 -0.012927 -0.22929899
-0.0088330004 -0.012847 -0.22929899
-0.0088290004 -0.012769 -0.229303
-0.0088269999 -0.012689 -0.229293
-0.0088240001 -0.012607 -0.229277
-0.0088210003 -0.012528 -0.22927301
-0.0088179996 -0.012449 -0.22928099
-0.0088139996 -0.012371 -0.229296
-0.0088109998 -0.012291 -0.229298
-0.008808 -0.012211 -0.22929201
-0.0088050002 -0.012131 -0.229288
-0.0088020004 -0.012054 -0.229284
-0.0087989997 -0.011974 -0.229286
-0.0087949997 -0.011896 -0.22929201
-0.0087919999 -0.011816 -0.229294
-0.0087890001 -0.011736 -0.22928999
-0.0087860003 -0.011656 -0.22928099
-0.0087829996 -0.011576 -0.229275
-0.0087799998 -0.011496 -0.22927301
-0.008777 -0.011418 -0.22927301
-0.0087740002 -0.011338 -0.22927301
-0.0087710004 -0.011258 -0.229269
-0.0087679997 -0.011178 -0.229269
-0.0087649999 -0.0111 -0.229269
-0.0087620001 -0.011021 -0.229261
-0.0087590003 -0.010941 -0.22926401
-0.0087550003 -0.010862 -0.22927199
-0.0087519996 -0.010783 -0.22926401
-0.0087489998 -0.010703 -0.22926
-0.008746 -0.010625 -0.229268
-0.0087430002 -0.010545 -0.229268
-0.0087400004 -0.010465 -0.229258
-0.0087369997 -0.010385 -0.229256
-0.0087339999 -0.010305 -0.229252
-0.0087310001 -0.010225 -0.229243
-0.0087280003 -0.010147 -0.229249
-0.0087240003 -0.010069 -0.229257
-0.0087209996 -0.0099889999 -0.22925299
-0.0087179998 -0.0099090002 -0.22925501
-0.008715 -0.0098310001 -0.229261
-0.0087120002 -0.0097510004 -0.22925501
-0.0087090004 -0.0096720001 -0.229247
-0.0087059997 -0.0095920004 -0.22924601
-0.0087029999 -0.0095119998 -0.22924
-0.0087000001 -0.0094320001 -0.229232
-0.0086979996 -0.0093520004 -0.229224
-0.0086949999 -0.0092719998 -0.22922
-0.0086909998 -0.0091920001 -0.22921801
-0.008688 -0.009114 -0.22922
-0.0086850002 -0.0090359999 -0.229224
-0.0086820005 -0.0089570004 -0.229222
-0.0086789997 -0.0088769998 -0.229221
-0.0086759999 -0.0087970002 -0.22921699
-0.0086730001 -0.008719 -0.229211
-0.0086700004 -0.0086390004 -0.229213
-0.0086669996 -0.0085589997 -0.22920901
-0.0086639998 -0.0084790001 -0.229197
-0.0086610001 -0.0083990004 -0.229193
-0.0086580003 -0.0083210003 -0.229195
-0.0086549995 -0.0082409997 -0.22919901
-0.0086519998 -0.0081639998 -0.229196
-0.008649 -0.0080840001 -0.22919001
-0.0086460002 -0.0080040004 -0.229182
-0.0086430004 -0.0079239998 -0.22917999
-0.0086399997 -0.0078459997 -0.229184
-0.0086359996 -0.007766 -0.229186
-0.0086329998 -0.0076879999 -0.229194
-0.0086289998 -0.0076080002 -0.229202
-0.008626 -0.0075300001 -0.22919901
-0.0086239995 -0.0074499999 -0.22917899
-0.0086209998 -0.0073680002 -0.229169
-0.008618 -0.0072900001 -0.229173
-0.0086150002 -0.0072110002 -0.22917099
-0.0086120004 -0.007131 -0.22916099
-0.0086089997 -0.0070529999 -0.22916099
-0.0086059999 -0.0069729998 -0.22917099
-0.0086030001 -0.0068950001 -0.22917201
-0.0086000003 -0.006815 -0.229166
-0.0085969996 -0.0067349998 -0.229156
-0.0085939998 -0.0066550002 -0.229146
-0.008591 -0.006575 -0.229146
-0.0085880002 -0.0064969999 -0.229156
-0.0085840002 -0.0064170002 -0.22916199
-0.0085810004 -0.0063390001 -0.22916199
-0.0085779997 -0.0062609999 -0.22916301
-0.0085739996 -0.0061809998 -0.22917099
-0.0085709998 -0.0061030001 -0.229173
-0.008568 -0.006021 -0.229165
-0.0085659996 -0.0059440001 -0.22915301
-0.0085629998 -0.0058639999 -0.229147
-0.00856 -0.0057839998 -0.229147
-0.008556 -0.0057060001 -0.229157
-0.0085530002 -0.005626 -0.229157
-0.0085500004 -0.0055479999 -0.229158
-0.0085469997 -0.0054680002 -0.22915401
-0.0085439999 -0.005388 -0.229146
-0.0085410001 -0.0053099999 -0.229146
-0.0085380003 -0.0052299998 -0.229146
-0.0085349996 -0.0051500001 -0.22914
-0.0085319998 -0.005072 -0.22913399
-0.008529 -0.0049919998 -0.22913399
-0.0085260002 -0.0049140002 -0.22913501
-0.0085230004 -0.0048349998 -0.229133
-0.0085190004 -0.0047550001 -0.229137
-0.0085159997 -0.004677 -0.229137
-0.0085129999 -0.0045969998 -0.229131
-0.0085100001 -0.0045190002 -0.229133
-0.0085070003 -0.004439 -0.229137
-0.0085039996 -0.0043609999 -0.22913501
-0.0085009998 -0.0042809998 -0.22913601
-0.008498 -0.0042010001 -0.229132
-0.0084950002 -0.004123 -0.229132
-0.0084910002 -0.0040429998 -0.22913399
-0.0084880004 -0.0039630001 -0.22912601
-0.0084859999 -0.003885 -0.229114
-0.0084830001 -0.0038060001 -0.22911
-0.0084800003 -0.003726 -0.229114
-0.0084769996 -0.0036460001 -0.22911
-0.0084739998 -0.0035679999 -0.229103
-0.008471 -0.003488 -0.229095
-0.0084680002 -0.0034080001 -0.229093
-0.0084650004 -0.00333 -0.229091
-0.0084619997 -0.0032500001 -0.22909699
-0.0084579997 -0.0031719999 -0.229101
-0.0084549999 -0.003092 -0.22909901
-0.0084530003 -0.0030119999 -0.22908901
-0.0084499996 -0.002935 -0.229084
-0.0084469998 -0.0028550001 -0.229084
-0.0084429998 -0.0027749999 -0.229082
-0.0084410002 -0.002697 -0.229076
-0.0084370002 -0.0026169999 -0.229086
-0.0084340004 -0.002539 -0.22909001
-0.0084309997 -0.0024590001 -0.229086
-0.0084279999 -0.002381 -0.229082
-0.0084250001 -0.0023010001 -0.229067
-0.0084229996 -0.0022219999 -0.229055
-0.0084189996 -0.002143 -0.22906099
-0.0084159998 -0.0020630001 -0.229073
-0.0084119998 -0.001985 -0.229075
-0.0084100002 -0.001905 -0.229067
-0.0084070005 -0.0018260001 -0.229065
-0.0084030004 -0.001747 -0.22907101
-0.0083999997 -0.001667 -0.229073
-0.0083969999 -0.00159 -0.229068
-0.0083940001 -0.00151 -0.22905999
-0.0083910003 -0.0014299999 -0.22905999
-0.0083879996 -0.0013520001 -0.229056
-0.0083849998 -0.001272 -0.229048
-0.0083830003 -0.001194 -0.22904401
-0.0083790002 -0.001114 -0.22904401
-0.0083760004 -0.001034 -0.229046
-0.0083729997 -0.000956 -0.22905099
-0.0083699999 -0.00087599998 -0.229045
-0.0083670001 -0.00079899997 -0.22903299
-0.0083649997 -0.000719 -0.229027
-0.0083619999 -0.00063899998 -0.22902299
-0.0083590001 -0.00056100002 -0.22901499
-0.0083560003 -0.000481 -0.22901499
-0.0083529996 -0.000401 -0.229013
-0.0083499998 -0.00032399999 -0.229008
-0.008347 -0.000244 -0.22901
-0.008343 -0.000166 -0.229012
-0.0083400002 -8.6e-05 -0.22901
-0.0083379997 -6.0000002e-06 -0.229
-0.0083339997 7.2000003e-05 -0.229
-0.0083309999 0.00015199999 -0.229002
-0.0083280001 0.00023000001 -0.22899701
-0.0083250003 0.00031 -0.228995
-0.0083219996 0.00038799999 -0.22899701
-0.0083189998 0.00046800001 -0.228993
-0.008316 0.00054799998 -0.228991
-0.0083130002 0.00062599999 -0.228995
-0.0083100004 0.00070600002 -0.228991
-0.0083069997 0.00078300002 -0.22897901
-0.0083039999 0.00086299999 -0.22897901
-0.0082999999 0.00094100001 -0.228992
-0.0082970001 0.001022 -0.22899801
-0.0082940003 0.001101 -0.22899599
-0.0082909996 0.001179 -0.22899
-0.0082879998 0.001259 -0.22898
-0.0082860002 0.0013370001 -0.228974
-0.0082820002 0.001417 -0.22897799
-0.0082790004 0.001495 -0.22898801
-0.0082759997 0.001575 -0.228985
-0.0082729999 0.001653 -0.228981
-0.0082689999 0.001733 -0.228983
-0.0082660001 0.001813 -0.228981
-0.0082639996 0.001891 -0.228975
-0.0082599996 0.0019710001 -0.228975
-0.0082569998 0.002049 -0.22897901
-0.008254 0.0021279999 -0.228973
-0.0082520004 0.002208 -0.228964
-0.0082489997 0.0022859999 -0.228962
-0.0082459999 0.0023660001 -0.228956
-0.0082430001 0.002444 -0.22895201
-0.0082390001 0.0025239999 -0.228958
-0.0082360003 0.002602 -0.22896799
-0.0082320003 0.0026819999 -0.22896799
-0.0082289996 0.0027620001 -0.228966
-0.008227 0.00284 -0.22896101
-0.0082240002 0.0029200001 -0.228957
-0.0082210004 0.002997 -0.228947
-0.0082179997 0.0030769999 -0.22894099
-0.0082149999 0.0031570001 -0.228947
-0.0082109999 0.003235 -0.228949
-0.0082090003 0.0033150001 -0.22894301
-0.0082050003 0.003393 -0.22894301
-0.0082019996 0.0034729999 -0.228948
-0.0081989998 0.003551 -0.22894201
-0.0081970003 0.0036309999 -0.228926
-0.0081949998 0.0037100001 -0.228908
-0.008192 0.003788 -0.228898
-0.0081890002 0.0038680001 -0.22889601
-0.0081850002 0.0039459998 -0.22890601
-0.0081810001 0.0040259999 -0.22892
-0.0081780003 0.0041060001 -0.22892299
-0.0081749996 0.0041840002 -0.228921
-0.0081719998 0.0042639999 -0.228921
-0.008169 0.004342 -0.22892299
-0.0081660002 0.0044220001 -0.228919
-0.0081630005 0.0045019998 -0.228919
-0.0081590004 0.0045799999 -0.228925
-0.0081559997 0.0046600001 -0.228921
-0.0081529999 0.0047380002 -0.228916
-0.0081500001 0.0048179999 -0.228918
-0.0081470003 0.004896 -0.228918
-0.0081439996 0.0049760002 -0.22892
-0.0081409998 0.0050559998 -0.228918
-0.008138 0.005134 -0.22891399
-0.0081350002 0.0052140001 -0.22891
-0.0081320005 0.005291 -0.22890399
-0.0081289997 0.0053710002 -0.228908
-0.0081249997 0.0054509998 -0.22891299
-0.0081230002 0.005529 -0.22890501
-0.0081200004 0.0056070001 -0.228893
-0.0081169996 0.0056870002 -0.228889
-0.0081129996 0.0057669999 -0.228901
-0.0081099998 0.0058470001 -0.22891299
-0.008107 0.0059250002 -0.22889499
-0.0081049995 0.0060020001 -0.228872
-0.0081019998 0.0060820002 -0.22888
-0.0080979997 0.0061630001 -0.22889601
-0.0080949999 0.0062429998 -0.2289
-0.0080920001 0.0063209999 -0.22889
-0.0080890004 0.0063979998 -0.22888599
-0.0080850003 0.0064790002 -0.22889601
-0.0080819996 0.0065589999 -0.228902
-0.0080789998 0.0066379998 -0.22889
-0.0080770003 0.0067159999 -0.228875
-0.0080739995 0.006794 -0.228871
-0.0080709998 0.0068740002 -0.228873
-0.008068 0.0069539999 -0.228875
-0.0080639999 0.007034 -0.228873
-0.0080610001 0.0071120001 -0.228873
-0.0080580004 0.0071919998 -0.228873
-0.0080549996 0.0072690002 -0.228865
-0.0080530001 0.0073489998 -0.22886001
-0.0080490001 0.007429 -0.22886001
-0.0080460003 0.0075070001 -0.22885799
-0.0080439998 0.0075849998 -0.228848
-0.008041 0.0076649999 -0.22884201
-0.0080380002 0.0077450001 -0.22884201
-0.0080340002 0.0078250002 -0.228846
-0.0080310004 0.0079030003 -0.228848
-0.0080279997 0.007983 -0.22884899
-0.0080249999 0.0080610001 -0.228845
-0.0080220001 0.0081409998 -0.22884101
-0.0080190003 0.0082200002 -0.228839
-0.0080159996 0.0082980003 -0.228839
-0.0080129998 0.008378 -0.228843
-0.0080089998 0.0084579997 -0.228843
-0.0080070002 0.0085359998 -0.228835
-0.0080040004 0.0086160004 -0.228826
-0.0080009997 0.0086939996 -0.228824
-0.0079969997 0.0087740002 -0.22883201
-0.0079950001 0.0088520003 -0.228828
-0.0079920003 0.0089309998 -0.22881199
-0.0079889996 0.0090089999 -0.228808
-0.0079859998 0.0090889996 -0.228808
-0.007983 0.0091669997 -0.228806
-0.0079800002 0.0092470003 -0.228809
-0.0079770004 0.009327 -0.228807
-0.0079739997 0.0094069997 -0.228799
-0.0079709999 0.0094849998 -0.22879501
-0.0079680001 0.0095629999 -0.228797
-0.0079650003 0.0096429996 -0.22879501
-0.0079610003 0.0097230002 -0.228797
-0.0079579996 0.0098029999 -0.228807
-0.0079549998 0.0098829996 -0.228807
-0.007952 0.0099609997 -0.228802
-0.0079490002 0.01004 -0.228788
-0.0079469997 0.010118 -0.228774
-0.007944 0.010198 -0.22876801
-0.0079410002 0.010276 -0.22876599
-0.0079380004 0.010354 -0.22876599
-0.0079349997 0.010434 -0.22876599
-0.0079309996 0.010514 -0.22876801
-0.0079279998 0.010594 -0.228769
-0.007925 0.010672 -0.228765
-0.0079229996 0.010751 -0.228753
-0.0079199998 0.010829 -0.22874901
-0.0079159997 0.010909 -0.228755
-0.007913 0.010989 -0.22876699
-0.0079100002 0.011069 -0.228765
-0.0079070004 0.011147 -0.22875901
-0.0079039996 0.011227 -0.228752
-0.0079009999 0.011305 -0.228752
-0.0078980001 0.011385 -0.228754
-0.007894 0.011465 -0.228754
-0.0078910002 0.011543 -0.228756
-0.0078880005 0.011625 -0.22876
-0.0078840004 0.011703 -0.228764
-0.0078809997 0.011783 -0.228764
-0.0078790002 0.011861 -0.22875699
-0.0078760004 0.01194 -0.228743
-0.0078729996 0.012018 -0.228733
-0.0078699999 0.012098 -0.22872899
-0.0078680003 0.012176 -0.228723
-0.0078649996 0.012256 -0.228717
-0.0078609996 0.012336 -0.228727
-0.0078570005 0.012416 -0.228737
-0.007855 0.012494 -0.22872999
-0.0078520002 0.012574 -0.228724
-0.0078490004 0.012652 -0.228726
-0.0078459997 0.012732 -0.228726
-0.0078429999 0.012812 -0.22872201
-0.0078400001 0.012889 -0.22871999
-0.0078370003 0.012969 -0.228716
-0.0078339996 0.013047 -0.22870199
-0.0078309998 0.013127 -0.22869401
-0.007828 0.013207 -0.228697
-0.0078250002 0.013285 -0.22869501
-0.0078220004 0.013365 -0.228701
-0.0078180004 0.013445 -0.228707
-0.0078149997 0.013525 -0.228701
-0.0078130001 0.013603 -0.22869299
-0.0078090001 0.013682 -0.228691
-0.0078059998 0.013763 -0.22869501
-0.007803 0.013843 -0.22870199
-0.0077999998 0.01392 -0.228698
-0.007797 0.014 -0.228698
-0.0077940002 0.014078 -0.22869
-0.0077920002 0.014158 -0.22866599
-0.0077889999 0.014235 -0.22866
-0.0077849999 0.014316 -0.22867
-0.0077809999 0.014396 -0.228686
-0.0077780001 0.014476 -0.228692
-0.0077749998 0.014556 -0.228687
-0.0077729998 0.014634 -0.228673
-0.0077689998 0.014714 -0.22867499
-0.0077650002 0.014794 -0.228689
-0.007762 0.014874 -0.228691
-0.0077590002 0.014954 -0.228687
-0.0077570002 0.015031 -0.228677
-0.0077539999 0.015109 -0.228669
-0.0077499999 0.015191 -0.22867499
-0.0077470001 0.015269 -0.22868
-0.0077439998 0.015349 -0.22867399
-0.007741 0.015429 -0.228668
-0.0077379998 0.015507 -0.22867
-0.007735 0.015587 -0.228672
-0.0077320002 0.015667001 -0.228672
-0.0077289999 0.015745001 -0.228662
-0.0077260002 0.015825 -0.22865801
-0.0077229999 0.015903 -0.228659
-0.0077200001 0.015985001 -0.228661
-0.0077169999 0.016062999 -0.228661
-0.0077129998 0.016143 -0.228659
-0.00771 0.016222 -0.228659
-0.0077069998 0.016302001 -0.228659
-0.007704 0.016381999 -0.228659
-0.0077010002 0.01646 -0.228655
-0.0076979999 0.01654 -0.22864699
-0.0076959999 0.016618 -0.22863799
-0.0076930001 0.016696 -0.228634
-0.0076890001 0.016778 -0.228642
-0.0076859999 0.016856 -0.228642
-0.0076830001 0.016936 -0.228634
-0.0076799998 0.017015001 -0.22863001
-0.007677 0.017092999 -0.228632
-0.0076740002 0.017175 -0.228632
-0.007671 0.017253 -0.228633
-0.0076680002 0.017333001 -0.22862101
-0.0076649999 0.017410999 -0.228613
-0.0076629999 0.017488999 -0.228607
-0.0076600001 0.017568 -0.228599
-0.0076560001 0.017648 -0.22860099
-0.0076529998 0.017728999 -0.228609
-0.0076489998 0.017809 -0.228615
-0.007646 0.017889 -0.22861101
-0.007644 0.017966 -0.22860201
-0.0076410002 0.018044 -0.22859199
-0.007638 0.018123999 -0.228586
-0.0076350002 0.018204 -0.22859
-0.0076319999 0.018284 -0.22859199
-0.0076290001 0.018362001 -0.22858199
-0.0076259999 0.018441999 -0.228576
-0.0076230001 0.018522 -0.228576
-0.0076199998 0.018599 -0.228569
-0.0076179998 0.018679 -0.228561
-0.0076139998 0.018757001 -0.228561
-0.007611 0.018836999 -0.22856501
-0.0076080002 0.018917 -0.228563
-0.0076049999 0.018997001 -0.22855701
-0.0076020001 0.019076999 -0.22856501
-0.0075980001 0.019157 -0.228569
-0.0075960001 0.019235 -0.22855601
-0.0075929998 0.019314 -0.22854599
-0.0075900001 0.019392001 -0.22854
-0.0075869998 0.019471999 -0.228534
-0.007584 0.019552 -0.22853599
-0.00758 0.019632 -0.22854599
-0.0075770002 0.019711999 -0.22854599
-0.0075739999 0.019789999 -0.22854
-0.0075710001 0.019872 -0.22854599
-0.0075679999 0.019951999 -0.22854701
-0.0075650001 0.020029999 -0.228543
-0.0075619998 0.02011 -0.228543
-0.0075579998 0.020190001 -0.22854701
-0.007555 0.020269999 -0.22854701
-0.0075520002 0.02035 -0.22854701
-0.007549 0.02043 -0.228545
-0.0075460002 0.020509999 -0.228543
-0.0075429999 0.020587999 -0.228541
-0.0075400001 0.020667 -0.22852799
-0.0075380001 0.020742999 -0.22851001
-0.0075349999 0.020823 -0.228508
-0.0075309998 0.020904999 -0.228516
-0.007528 0.020982999 -0.22852001
-0.0075249998 0.021063 -0.22851799
-0.007522 0.021143001 -0.22852001
-0.0075190002 0.021222999 -0.228512
-0.0075170002 0.021299999 -0.228499
-0.0075130002 0.02138 -0.228505
-0.0075090001 0.021462999 -0.228515
-0.0075070001 0.021539999 -0.228507
-0.0075050001 0.021616001 -0.22848099
-0.0075019998 0.021695999 -0.228477
-0.0074979998 0.021778001 -0.228497
-0.0074939998 0.021857999 -0.228503
-0.0074919998 0.021938 -0.22849301
-0.007489 0.022016 -0.228488
-0.007485 0.022096001 -0.22849
-0.0074820002 0.022175999 -0.228486
-0.0074789999 0.022256 -0.228484
-0.0074760001 0.022336001 -0.228486
-0.0074729999 0.022415999 -0.22849
-0.0074700001 0.022496 -0.22849
-0.0074669998 0.022573 -0.228484
-0.007464 0.022653 -0.22847199
-0.0074609998 0.022731001 -0.228469
-0.007458 0.022810999 -0.228467
-0.0074550002 0.022891 -0.22846299
-0.0074519999 0.022971001 -0.22846299
-0.0074490001 0.023049001 -0.228457
-0.0074459999 0.023127999 -0.228453
-0.0074430001 0.023208 -0.22845501
-0.0074399998 0.023288 -0.22845501
-0.0074370001 0.023366001 -0.22845
-0.0074339998 0.023448 -0.228452
-0.0074300002 0.023528 -0.228452
-0.0074280002 0.023606 -0.22844
-0.007425 0.023685999 -0.228438
-0.0074220002 0.023766 -0.22844
-0.0074189999 0.023844 -0.228434
-0.0074160001 0.023921 -0.228422
-0.0074129999 0.024001 -0.228422
-0.0074089998 0.024084 -0.22843499
-0.007406 0.024164001 -0.228441
-0.0074029998 0.024243001 -0.228433
-0.0074 0.024323 -0.228429
-0.0073970002 0.024401 -0.228429
-0.0073930002 0.024483001 -0.228439
-0.0073899999 0.024563 -0.228441
-0.0073870001 0.024643 -0.228429
-0.0073850001 0.024721 -0.22841901
-0.0073819999 0.024800999 -0.22842
-0.0073779998 0.024881 -0.228424
-0.007375 0.024959 -0.22842
-0.0073719998 0.025039 -0.228414
-0.0073699998 0.025118001 -0.228406
-0.0073660002 0.025199 -0.228412
-0.0073620002 0.025281001 -0.228422
-0.0073589999 0.025361 -0.228424
-0.0073560001 0.025441 -0.228424
-0.0073529999 0.025519 -0.22841799
-0.0073500001 0.025596 -0.22840901
-0.0073469998 0.025677999 -0.22840901
-0.007344 0.025756 -0.22840901
-0.0073409998 0.025838001 -0.228411
-0.0073370002 0.025917999 -0.22841901
-0.0073330002 0.026001001 -0.228433
-0.0073299999 0.026083 -0.228439
-0.0073270001 0.02616 -0.22842699
-0.0073250001 0.026238 -0.228413
-0.0073219999 0.026318001 -0.22840901
-0.0073179998 0.026397999 -0.22841799
-0.0073150001 0.026478 -0.22842
-0.0073119998 0.026558001 -0.22842
-0.007309 0.026637999 -0.22842
-0.007305 0.026718 -0.22842
-0.007303 0.026795 -0.228398
-0.0073009999 0.026873 -0.228384
-0.0072969999 0.026953001 -0.228394
-0.0072929999 0.027038001 -0.22841001
-0.0072900001 0.027115 -0.228407
-0.0072880001 0.027194999 -0.22839899
-0.0072840001 0.027275 -0.22839899
-0.0072809998 0.027353 -0.228397
-0.007278 0.027434999 -0.228397
-0.007274 0.027517 -0.228411
-0.0072710002 0.027597001 -0.22841699
-0.0072679999 0.027677 -0.228411
-0.0072650001 0.027757 -0.228411
-0.0072619999 0.027837001 -0.228407
-0.0072590001 0.027915001 -0.228402
-0.0072559998 0.027995 -0.228404
-0.0072519998 0.028077001 -0.22841001
-0.007249 0.028155001 -0.228406
-0.007247 0.028235 -0.228392
-0.0072440002 0.028310001 -0.228378
-0.007241 0.02839 -0.22837999
-0.0072369999 0.028472001 -0.228386
-0.0072340001 0.028551999 -0.22838999
-0.0096110003 -0.021926001 -0.22957601
-0.0096070003 -0.021848001 -0.229582
-0.0096039996 -0.021768 -0.22958
-0.0096009998 -0.021687999 -0.229572
-0.009598 -0.021608001 -0.22957601
-0.0095950002 -0.021528 -0.229572
-0.0095920004 -0.02145 -0.229579
-0.0095880004 -0.021369999 -0.22958501
-0.0095849996 -0.021290001 -0.22957499
-0.0095830001 -0.021206999 -0.229555
-0.0095800003 -0.021125 -0.229543
-0.0095769996 -0.021047 -0.22954699
-0.0095729996 -0.020969 -0.229559
-0.0095699998 -0.020888999 -0.22955699
-0.009567 -0.020809 -0.229553
-0.0095650004 -0.020726999 -0.229543
-0.0095619997 -0.020647001 -0.22954001
-0.0095579997 -0.020569 -0.229546
-0.0095549999 -0.020489 -0.22954801
-0.0095520001 -0.020408999 -0.229544
-0.0095499996 -0.020326 -0.229524
-0.0095469998 -0.020244 -0.229508
-0.009544 -0.020166 -0.229508
-0.00954 -0.020088 -0.229518
-0.0095370002 -0.020008 -0.229524
-0.0095340004 -0.019928001 -0.22951999
-0.0095309997 -0.019846 -0.22951099
-0.0095279999 -0.019769 -0.229509
-0.0095250001 -0.019688001 -0.229515
-0.0095210001 -0.019610001 -0.229525
-0.0095180003 -0.01953 -0.22953101
-0.0095149996 -0.01945 -0.22952101
-0.0095119998 -0.019370999 -0.22951099
-0.009509 -0.019291 -0.22951099
-0.0095060002 -0.019211 -0.229515
-0.0095020002 -0.019130999 -0.229522
-0.0094999997 -0.019051 -0.229514
-0.0094969999 -0.018968999 -0.22950201
-0.0094940001 -0.018890999 -0.229504
-0.0094900001 -0.018811001 -0.229508
-0.0094870003 -0.018731 -0.22950201
-0.0094839996 -0.018650999 -0.229506
-0.0094809998 -0.018572999 -0.22950999
-0.009478 -0.018491 -0.22950201
-0.0094750002 -0.018412 -0.22949401
-0.0094720004 -0.018332001 -0.229489
-0.0094689997 -0.018252 -0.22948299
-0.0094659999 -0.018172 -0.229487
-0.0094630001 -0.018093999 -0.229491
-0.0094590001 -0.018014001 -0.22949301
-0.0094560003 -0.017934 -0.229491
-0.0094529996 -0.017854 -0.229487
-0.0094499998 -0.017774001 -0.22948501
-0.009447 -0.017694 -0.229487
-0.0094440002 -0.017614 -0.229482
-0.0094410004 -0.017534001 -0.229476
-0.0094379997 -0.017454 -0.229478
-0.0094349999 -0.017377 -0.22947399
-0.0094320001 -0.017295999 -0.22948
-0.0094280001 -0.017217999 -0.22949
-0.0094250003 -0.017138001 -0.229486
-0.0094229998 -0.017057 -0.22947
-0.00942 -0.016975001 -0.229454
-0.0094170002 -0.016895 -0.229454
-0.0094130002 -0.016817 -0.22946499
-0.0094100004 -0.016739 -0.229471
-0.0094069997 -0.016659001 -0.22947501
-0.0094029997 -0.016579 -0.22947299
-0.0093999999 -0.016499 -0.229471
-0.0093970001 -0.016419001 -0.229467
-0.0093949996 -0.016339 -0.229461
-0.0093919998 -0.016257999 -0.22944701
-0.009389 -0.016179999 -0.22944701
-0.0093860002 -0.016100001 -0.22944801
-0.0093830004 -0.01602 -0.22944801
-0.0093799997 -0.015939999 -0.229444
-0.0093769999 -0.015858 -0.229434
-0.0093740001 -0.015778 -0.22943
-0.0093700001 -0.015699999 -0.229436
-0.0093670003 -0.015622 -0.229444
-0.0093639996 -0.01554 -0.229436
-0.0093609998 -0.01546 -0.22943
-0.009358 -0.015381 -0.22942699
-0.0093550002 -0.015303 -0.22942901
-0.0093520004 -0.015223 -0.22942901
-0.0093489997 -0.015143 -0.22942699
-0.0093459999 -0.015063 -0.229423
-0.0093430001 -0.014983 -0.22941899
-0.0093390001 -0.014903 -0.229423
-0.0093360003 -0.014825 -0.22941899
-0.0093329996 -0.014745 -0.22941899
-0.0093299998 -0.014665 -0.229416
-0.0093280002 -0.014585 -0.229404
-0.0093250005 -0.014504 -0.22939999
-0.0093210004 -0.014425 -0.229406
-0.0093179997 -0.014345 -0.22940999
-0.0093149999 -0.014268 -0.229404
-0.0093120001 -0.014188 -0.22939999
-0.0093090003 -0.014106 -0.22939201
-0.0093059996 -0.014026 -0.229386
-0.0093029998 -0.013946 -0.229387
-0.0093 -0.013868 -0.229395
-0.009296 -0.01379 -0.229403
-0.0092930002 -0.01371 -0.229399
-0.0092900004 -0.01363 -0.22939099
-0.0092869997 -0.01355 -0.22939099
-0.0092839999 -0.01347 -0.22939301
-0.0092810001 -0.013391 -0.22938301
-0.0092780003 -0.013311 -0.229377
-0.0092749996 -0.013231 -0.229376
-0.0092719998 -0.013153 -0.22938401
-0.0092679998 -0.013074 -0.22939999
-0.009265 -0.012994 -0.22939999
-0.0092620002 -0.012915 -0.229388
-0.0092590004 -0.012835 -0.22938199
-0.0092559997 -0.012755 -0.22939
-0.0092529999 -0.012677 -0.22939
-0.0092500001 -0.012595 -0.229376
-0.0092479996 -0.012515 -0.229361
-0.0092449998 -0.012436 -0.229359
-0.0092409998 -0.012357 -0.22937299
-0.0092369998 -0.012279 -0.229379
-0.0092350002 -0.012199 -0.22937299
-0.0092310002 -0.012119 -0.22937299
-0.0092280004 -0.012039 -0.229375
-0.0092249997 -0.01196 -0.229367
-0.0092219999 -0.011882 -0.229371
-0.0092179999 -0.011803 -0.22938401
-0.0092150001 -0.011723 -0.22938199
-0.0092129996 -0.011644 -0.22937199
-0.0092099998 -0.011564 -0.229366
-0.009207 -0.011484 -0.22936
-0.0092040002 -0.011404 -0.229352
-0.0092010004 -0.011324 -0.22935
-0.0091979997 -0.011244 -0.229348
-0.0091949999 -0.011164 -0.22934601
-0.0091920001 -0.011086 -0.229351
-0.0091880001 -0.011006 -0.229349
-0.0091850003 -0.010927 -0.22934499
-0.0091829998 -0.010847 -0.22933701
-0.0091789998 -0.010767 -0.22933701
-0.009176 -0.010689 -0.229341
-0.0091730002 -0.010609 -0.229335
-0.0091709998 -0.010529 -0.229323
-0.0091669997 -0.010451 -0.22933
-0.0091629997 -0.010371 -0.229344
-0.0091599999 -0.010293 -0.229348
-0.0091570001 -0.010213 -0.229344
-0.0091540003 -0.010133 -0.22934
-0.0091509996 -0.010053 -0.229332
-0.0091479998 -0.0099729998 -0.22932801
-0.009145 -0.0098949997 -0.22932801
-0.0091429995 -0.0098160002 -0.22932
-0.0091399997 -0.0097359996 -0.22931699
-0.0091359997 -0.009656 -0.22931901
-0.0091329999 -0.0095760003 -0.229313
-0.0091300001 -0.0094959997 -0.229315
-0.0091270003 -0.0094179995 -0.229315
-0.0091239996 -0.0093379999 -0.22930899
-0.0091209998 -0.0092580002 -0.229305
-0.009118 -0.0091789998 -0.229295
-0.0091150003 -0.0090990001 -0.229293
-0.0091120005 -0.0090199998 -0.229306
-0.0091089997 -0.0089400001 -0.229304
-0.009106 -0.0088609997 -0.22928999
-0.0091030002 -0.008781 -0.22928999
-0.0091000004 -0.0087029999 -0.229296
-0.0090960003 -0.0086249998 -0.229298
-0.0090939999 -0.0085450001 -0.22929201
-0.0090899998 -0.0084650004 -0.22928999
-0.0090880003 -0.0083849998 -0.229285
-0.0090849996 -0.0083050001 -0.229277
-0.0090810005 -0.008227 -0.22928099
-0.0090779997 -0.0081470003 -0.229283
-0.009075 -0.008068 -0.229275
-0.0090720002 -0.0079880003 -0.22927099
-0.0090699997 -0.0079100002 -0.229265
-0.0090659996 -0.0078299996 -0.229265
-0.0090629999 -0.0077499999 -0.22926299
-0.0090610003 -0.0076720002 -0.229258
-0.0090579996 -0.0075900001 -0.22924601
-0.009056 -0.0075110001 -0.229228
-0.0090530002 -0.007431 -0.229222
-0.0090490002 -0.0073529999 -0.229232
-0.0090450002 -0.0072750002 -0.22925
-0.0090420004 -0.0071959998 -0.229258
-0.0090389997 -0.0071169999 -0.229248
-0.0090359999 -0.0070369998 -0.229241
-0.0090330001 -0.0069570001 -0.229251
-0.0090300003 -0.006879 -0.229247
-0.0090269996 -0.0067989998 -0.22923499
-0.0090229996 -0.0067190002 -0.229247
-0.0090199998 -0.006641 -0.229251
-0.009017 -0.0065609999 -0.229241
-0.0090140002 -0.0064810002 -0.22923701
-0.0090110004 -0.0064010001 -0.229233
-0.0090089999 -0.006323 -0.229228
-0.0090049999 -0.006244 -0.229228
-0.0090020001 -0.0061630001 -0.22923601
-0.0089990003 -0.006085 -0.229234
-0.0089959996 -0.0060060001 -0.229228
-0.0089929998 -0.005926 -0.22922599
-0.00899 -0.0058479998 -0.22922599
-0.0089870002 -0.0057680001 -0.229224
-0.0089840004 -0.00569 -0.229221
-0.0089809997 -0.0056099999 -0.229219
-0.0089779999 -0.0055300002 -0.229211
-0.0089750001 -0.0054500001 -0.229203
-0.0089720003 -0.0053719999 -0.229205
-0.0089689996 -0.005293 -0.229203
-0.0089659998 -0.0052129999 -0.229195
-0.008963 -0.0051350002 -0.229195
-0.0089600002 -0.0050550001 -0.22920001
-0.0089560002 -0.0049769999 -0.229202
-0.0089530004 -0.0048969998 -0.229202
-0.0089509999 -0.0048170001 -0.229188
-0.0089480001 -0.004737 -0.22917201
-0.0089450004 -0.0046600001 -0.22917201
-0.0089419996 -0.0045790002 -0.22917999
-0.0089379996 -0.004501 -0.229184
-0.0089349998 -0.0044209999 -0.229185
-0.008932 -0.0043410002 -0.229183
-0.0089290002 -0.0042639999 -0.22917899
-0.0089260004 -0.0041840002 -0.229175
-0.0089229997 -0.0041040001 -0.22917899
-0.0089199999 -0.0040259999 -0.229175
-0.0089170001 -0.0039459998 -0.229173
-0.0089130001 -0.0038680001 -0.22917899
-0.0089100003 -0.003788 -0.229177
-0.0089079998 -0.0037080001 -0.22916999
-0.0089039998 -0.0036279999 -0.229168
-0.008901 -0.00355 -0.229168
-0.0088989995 -0.0034700001 -0.22916199
-0.0088959998 -0.003391 -0.229146
-0.008893 -0.0033110001 -0.22913601
-0.0088900002 -0.0032329999 -0.229138
-0.0088860001 -0.003153 -0.22915
-0.0088830004 -0.0030749999 -0.229159
-0.0088799996 -0.002995 -0.22915301
-0.0088769998 -0.0029170001 -0.22915301
-0.0088740001 -0.0028369999 -0.229147
-0.0088710003 -0.002757 -0.229139
-0.0088679995 -0.0026789999 -0.229149
-0.0088640004 -0.002599 -0.22915301
-0.008862 -0.0025210001 -0.229147
-0.0088579999 -0.002441 -0.229148
-0.0088560004 -0.002361 -0.22914
-0.0088529997 -0.0022839999 -0.229128
-0.0088499999 -0.002204 -0.22912601
-0.0088470001 -0.0021259999 -0.22912601
-0.0088440003 -0.002046 -0.22912
-0.0088409996 -0.0019660001 -0.22911
-0.0088379998 -0.0018880001 -0.229112
-0.008835 -0.001808 -0.22911701
-0.0088320002 -0.00173 -0.22911499
-0.0088290004 -0.00165 -0.229109
-0.0088259997 -0.00157 -0.229109
-0.0088229999 -0.001493 -0.229109
-0.0088200001 -0.001413 -0.229105
-0.0088160001 -0.001333 -0.22910701
-0.0088130003 -0.001255 -0.229109
-0.0088099996 -0.001175 -0.229109
-0.0088069998 -0.001097 -0.22910599
-0.0088050002 -0.0010169999 -0.229092
-0.0088020004 -0.00093699998 -0.22908001
-0.0087989997 -0.00085700001 -0.229082
-0.0087949997 -0.00077899999 -0.229086
-0.0087919999 -0.00070099998 -0.229086
-0.0087890001 -0.00062200002 -0.229082
-0.0087860003 -0.00054199999 -0.229082
-0.0087829996 -0.000463 -0.229091
-0.0087799998 -0.00038400001 -0.22908901
-0.008777 -0.000306 -0.229081
-0.0087740002 -0.000226 -0.22907899
-0.0087710004 -0.00014600001 -0.229081
-0.0087670004 -6.8000001e-05 -0.229083
-0.0087639997 1.2e-05 -0.229083
-0.0087620001 9.0000001e-05 -0.229073
-0.0087590003 0.00017 -0.229066
-0.0087559996 0.00025000001 -0.229064
-0.0087529998 0.00033000001 -0.229064
-0.0087489998 0.00040799999 -0.229064
-0.008746 0.000486 -0.22906999
-0.008742 0.000566 -0.22908001
-0.0087390002 0.00064400001 -0.229076
-0.0087369997 0.00072299998 -0.229064
-0.0087339999 0.000803 -0.22906099
-0.0087299999 0.00088100001 -0.229067
-0.0087270001 0.00096099998 -0.22906899
-0.0087240003 0.001039 -0.22907101
-0.0087209996 0.001119 -0.229067
-0.008719 0.001199 -0.22905301
-0.0087160002 0.0012769999 -0.229047
-0.0087130005 0.001357 -0.229041
-0.0087099997 0.001434 -0.229036
-0.0087069999 0.001514 -0.229038
-0.0087029999 0.001595 -0.22904401
-0.0087000001 0.001673 -0.229054
-0.0086960001 0.001753 -0.22906201
-0.0086930003 0.001831 -0.229058
-0.0086909998 0.00191 -0.229048
-0.008688 0.00199 -0.22904401
-0.008684 0.0020679999 -0.229049
-0.0086810002 0.0021480001 -0.229045
-0.0086789997 0.002226 -0.229031
-0.0086759999 0.0023060001 -0.22902299
-0.0086730001 0.002386 -0.229019
-0.0086700004 0.0024629999 -0.229013
-0.0086669996 0.002543 -0.229011
-0.0086639998 0.0026209999 -0.229019
-0.0086610001 0.0027010001 -0.22902
-0.0086580003 0.002781 -0.22901601
-0.0086540002 0.0028589999 -0.229022
-0.0086510004 0.002939 -0.229026
-0.0086479997 0.0030169999 -0.229022
-0.0086449999 0.0030970001 -0.229018
-0.0086420001 0.003177 -0.22901399
-0.0086390004 0.0032550001 -0.229004
-0.0086359996 0.003335 -0.229
-0.0086329998 0.0034129999 -0.229011
-0.0086289998 0.0034930001 -0.229017
-0.008626 0.003573 -0.229017
-0.0086230002 0.0036510001 -0.229013
-0.0086209998 0.00373 -0.229001
-0.0086190002 0.0038079999 -0.22897699
-0.0086160004 0.003888 -0.228965
-0.0086129997 0.0039659999 -0.228962
-0.0086099999 0.0040460001 -0.22896799
-0.0086059999 0.0041260002 -0.228986
-0.0086019998 0.0042039999 -0.22899
-0.0086000003 0.004284 -0.228984
-0.0085960003 0.0043620002 -0.228986
-0.0085929995 0.0044419998 -0.228992
-0.0085899998 0.004522 -0.228986
-0.008587 0.0046000001 -0.228976
-0.0085840002 0.004679 -0.228971
-0.0085810004 0.0047570001 -0.22896899
-0.0085779997 0.0048369998 -0.228973
-0.0085749999 0.004917 -0.228975
-0.0085720001 0.0049950001 -0.228973
-0.008568 0.0050750002 -0.22897699
-0.0085650003 0.0051529999 -0.22897901
-0.0085629998 0.005233 -0.22896899
-0.0085589997 0.0053130002 -0.22897001
-0.008556 0.0053909998 -0.228976
-0.0085530002 0.005471 -0.22897001
-0.0085509997 0.0055490001 -0.228956
-0.0085479999 0.0056289998 -0.228954
-0.0085429996 0.0057089999 -0.228974
-0.0085399998 0.0057870001 -0.22898
-0.008537 0.0058670002 -0.228974
-0.0085349996 0.0059469999 -0.228965
-0.0085319998 0.0060239998 -0.22896101
-0.008529 0.0061039999 -0.228955
-0.0085260002 0.006182 -0.228953
-0.0085220002 0.0062620002 -0.22895899
-0.0085190004 0.0063419999 -0.22895899
-0.0085159997 0.00642 -0.228955
-0.0085119996 0.0065000001 -0.228971
-0.0085089998 0.0065810001 -0.22897901
-0.008506 0.0066579999 -0.228964
-0.0085039996 0.0067380001 -0.228956
-0.0085000005 0.0068160002 -0.228962
-0.0084969997 0.0068959999 -0.228962
-0.008494 0.006976 -0.228958
-0.0084910002 0.0070540002 -0.228954
-0.0084880004 0.0071339998 -0.22895201
-0.0084849996 0.007212 -0.22895201
-0.0084819999 0.0072920001 -0.228953
-0.0084790001 0.007371 -0.228945
-0.0084760003 0.0074490001 -0.22894099
-0.0084729996 0.0075289998 -0.22894099
-0.0084699998 0.0076069999 -0.228935
-0.008467 0.0076870001 -0.228935
-0.0084640002 0.0077669998 -0.22893301
-0.0084610004 0.0078469999 -0.228929
-0.0084579997 0.007925 -0.228928
-0.0084549999 0.0080030002 -0.22892401
-0.0084520001 0.0080829998 -0.22892
-0.0084490003 0.0081620002 -0.22892
-0.0084459996 0.0082400003 -0.22890601
-0.0084429998 0.00832 -0.228902
-0.00844 0.0083999997 -0.22891399
-0.0084370002 0.0084779998 -0.228912
-0.0084340004 0.0085580004 -0.228903
-0.0084309997 0.0086359996 -0.228891
-0.0084290002 0.008715 -0.22888499
-0.0084250001 0.0087930001 -0.22888701
-0.0084220003 0.0088729998 -0.228891
-0.0084189996 0.0089539997 -0.228893
-0.0084149996 0.0090340003 -0.22889701
-0.0084119998 0.009114 -0.22890501
-0.008409 0.0091920001 -0.228902
-0.0084070005 0.0092709996 -0.228884
-0.0084039997 0.0093489997 -0.22887599
-0.0083999997 0.0094290003 -0.22888599
-0.0083969999 0.0095070004 -0.22888801
-0.0083940001 0.0095870001 -0.22888
-0.0083910003 0.0096669998 -0.22887599
-0.0083889998 0.0097449999 -0.22886799
-0.0083860001 0.0098240003 -0.228861
-0.0083830003 0.0099020004 -0.228855
-0.0083799995 0.0099820001 -0.228853
-0.0083760004 0.010062 -0.228863
-0.0083729997 0.01014 -0.228865
-0.0083699999 0.01022 -0.228857
-0.0083670001 0.0103 -0.228855
-0.0083640004 0.010378 -0.228857
-0.0083609996 0.010458 -0.228857
-0.0083569996 0.010538 -0.228864
-0.0083539998 0.010618 -0.228864
-0.008351 0.010696 -0.228856
-0.0083480002 0.010776 -0.228852
-0.0083450004 0.010856 -0.228852
-0.0083419997 0.010934 -0.228848
-0.0083389999 0.011013 -0.228844
-0.0083370004 0.011091 -0.228838
-0.0083339997 0.011171 -0.22883099
-0.0083299996 0.011251 -0.228833
-0.0083269998 0.011329 -0.228833
-0.0083250003 0.011409 -0.22882099
-0.0083219996 0.011487 -0.228817
-0.0083179995 0.011567 -0.228829
-0.0083149998 0.011647 -0.22883099
-0.008312 0.011724 -0.228819
-0.0083090002 0.011804 -0.22881401
-0.0083060004 0.011885 -0.228826
-0.0083029997 0.011962 -0.22882199
-0.0083010001 0.012042 -0.228798
-0.0082989996 0.012119 -0.22878
-0.0082949996 0.0122 -0.22878601
-0.0082909996 0.01228 -0.2288
-0.0082879998 0.01236 -0.228808
-0.008285 0.012438 -0.228808
-0.0082820002 0.012518 -0.228793
-0.0082799997 0.012595 -0.22877701
-0.0082769999 0.012675 -0.228779
-0.0082729999 0.012755 -0.228793
-0.0082689999 0.012835 -0.228799
-0.0082660001 0.012913 -0.228793
-0.0082639996 0.012993 -0.22878499
-0.0082609998 0.013071 -0.228774
-0.0082590003 0.013149 -0.228762
-0.0082550002 0.013228 -0.228762
-0.0082520004 0.013309 -0.22876599
-0.0082489997 0.013389 -0.22876801
-0.0082449997 0.013469 -0.228774
-0.0082419999 0.013549 -0.228778
-0.0082390001 0.013629 -0.228782
-0.0082360003 0.013706 -0.22876599
-0.0082339998 0.013784 -0.22874101
-0.008231 0.013862 -0.22873899
-0.0082280003 0.013942 -0.228747
-0.0082250005 0.014022 -0.228743
-0.0082219997 0.014101 -0.228737
-0.008219 0.014181 -0.228737
-0.0082160002 0.014259 -0.22873899
-0.0082120001 0.01434 -0.228751
-0.0082080001 0.014422 -0.228761
-0.0082050003 0.0145 -0.22876
-0.0082019996 0.01458 -0.228752
-0.0082 0.014657 -0.228746
-0.008196 0.014737 -0.22874799
-0.0081930002 0.014817 -0.228752
-0.0081900004 0.014897 -0.22875001
-0.0081869997 0.014977 -0.228752
-0.0081829997 0.015055 -0.228754
-0.0081810001 0.015135 -0.228747
-0.0081780003 0.015213 -0.228737
-0.0081749996 0.015293 -0.22873899
-0.0081709996 0.015373 -0.228743
-0.0081679998 0.015453 -0.22874101
-0.008165 0.015531 -0.228737
-0.0081620002 0.015611 -0.228737
-0.0081590004 0.015690999 -0.22873899
-0.0081559997 0.015771 -0.228737
-0.0081529999 0.015849 -0.228738
-0.0081489999 0.015929 -0.228742
-0.0081460001 0.016008999 -0.22874799
-0.0081430003 0.016088 -0.228736
-0.0081409998 0.016166 -0.22872201
-0.0081369998 0.016246 -0.228728
-0.008134 0.016326001 -0.228724
-0.0081320005 0.016403999 -0.228714
-0.0081289997 0.016484 -0.228714
-0.0081249997 0.016564 -0.228715
-0.0081219999 0.016643999 -0.22871301
-0.0081190001 0.016721999 -0.22871301
-0.0081169996 0.016801 -0.228699
-0.0081139999 0.016879 -0.22868299
-0.0081110001 0.016959 -0.228679
-0.0081080003 0.017037001 -0.22868299
-0.0081049995 0.017116999 -0.228687
-0.0081010005 0.017199 -0.228698
-0.0080979997 0.017278999 -0.22870199
-0.0080949999 0.017356999 -0.228688
-0.0080930004 0.017433999 -0.22867399
-0.0080899997 0.017514 -0.22867601
-0.0080869999 0.017594 -0.228668
-0.0080840001 0.017672 -0.228668
-0.0080810003 0.017751999 -0.228664
-0.0080779996 0.017829999 -0.228659
-0.0080749998 0.01791 -0.228663
-0.0080709998 0.017990001 -0.228661
-0.0080690002 0.018067 -0.228645
-0.0080660004 0.018146999 -0.228645
-0.0080629997 0.018227 -0.22864901
-0.0080599999 0.018307 -0.22864699
-0.0080570001 0.018386999 -0.228641
-0.0080540003 0.018464999 -0.228636
-0.0080509996 0.018545 -0.228634
-0.0080469996 0.018625 -0.22863799
-0.0080439998 0.018704999 -0.228642
-0.008041 0.018785 -0.228642
-0.0080380002 0.018863 -0.228634
-0.0080350004 0.018943001 -0.22862799
-0.0080319997 0.019022999 -0.228634
-0.0080289999 0.019103 -0.228632
-0.0080260001 0.01918 -0.22861899
-0.0080230003 0.019258 -0.228615
-0.0080199996 0.019339999 -0.22862101
-0.0080169998 0.019417999 -0.228617
-0.008014 0.019498 -0.228617
-0.00801 0.019578001 -0.228625
-0.0080070002 0.019657999 -0.22862899
-0.0080030002 0.01974 -0.228631
-0.0080000004 0.019819999 -0.228635
-0.0079969997 0.019897999 -0.22862799
-0.0079939999 0.019978 -0.228622
-0.0079910001 0.020056 -0.228622
-0.0079889996 0.020136001 -0.228614
-0.0079859998 0.020215999 -0.22860999
-0.0079819998 0.020296 -0.228616
-0.007979 0.020376001 -0.228618
-0.0079760002 0.020453 -0.228606
-0.0079730004 0.020532999 -0.2286
-0.0079699997 0.020613 -0.228607
-0.0079669999 0.020693 -0.22861101
-0.0079629999 0.020773999 -0.228617
-0.0079600001 0.020853 -0.228615
-0.0079579996 0.020931 -0.22860099
-0.0079549998 0.021011 -0.228599
-0.0079509998 0.021090999 -0.22860301
-0.007948 0.021171 -0.228595
-0.0079460004 0.021249 -0.22858299
-0.0079429997 0.021329001 -0.228586
-0.0079389997 0.021408999 -0.22859199
-0.0079359999 0.021488 -0.228586
-0.0079330001 0.021568 -0.22858199
-0.0079300003 0.021646 -0.22858401
-0.0079269996 0.021725999 -0.22858
-0.0079239998 0.021806 -0.22858
-0.007921 0.021886 -0.22858401
-0.007917 0.021965999 -0.22858401
-0.0079150004 0.022043999 -0.228577
-0.0079119997 0.022124 -0.228571
-0.0079089999 0.022204001 -0.228569
-0.0079060001 0.022283999 -0.228567
-0.0079030003 0.022360999 -0.228561
-0.0078999996 0.022441 -0.22855701
-0.0078969998 0.022521 -0.228553
-0.007894 0.022599 -0.228551
-0.0078910002 0.022678999 -0.22854
-0.0078880005 0.022759 -0.22853801
-0.0078849997 0.022839 -0.22854599
-0.0078809997 0.022918999 -0.22854599
-0.0078790002 0.022996999 -0.22853801
-0.0078760004 0.023077 -0.228534
-0.0078729996 0.023156 -0.22853
-0.0078699999 0.023236001 -0.22852799
-0.0078670001 0.023313999 -0.22852001
-0.0078649996 0.023391999 -0.22850899
-0.0078609996 0.023474 -0.22851101
-0.0078579998 0.023553999 -0.228515
-0.007855 0.023634 -0.228517
-0.0078509999 0.023714 -0.22851899
-0.0078480002 0.023793999 -0.228515
-0.0078450004 0.023874 -0.228515
-0.0078419996 0.023954 -0.228515
-0.0078389999 0.024031 -0.228503
-0.0078370003 0.024109 -0.22849
-0.0078339996 0.024188999 -0.22849
-0.0078299996 0.024269 -0.228498
-0.0078269998 0.024351001 -0.228508
-0.0078229997 0.024431 -0.22851001
-0.0078199999 0.024511 -0.228504
-0.0078180004 0.024589 -0.228494
-0.0078149997 0.024669001 -0.228488
-0.0078119999 0.024749 -0.22849
-0.0078079998 0.024829 -0.228497
-0.0078050001 0.024909001 -0.228495
-0.0078019998 0.024989 -0.228495
-0.007799 0.025069 -0.228495
-0.0077960002 0.025147 -0.228489
-0.007793 0.025226001 -0.228485
-0.0077900002 0.025305999 -0.228485
-0.0077869999 0.025386 -0.22848301
-0.0077829999 0.025466001 -0.22848301
-0.0077800001 0.025545999 -0.22848
-0.0077769998 0.025624 -0.22848
-0.0077749998 0.025704 -0.22847401
-0.007772 0.025782 -0.228466
-0.007768 0.025864 -0.228468
-0.0077650002 0.025944 -0.22847
-0.007762 0.026024001 -0.228476
-0.0077590002 0.026103999 -0.228476
-0.0077559999 0.026180999 -0.22846401
-0.0077530001 0.026261 -0.228459
