-0.0433814 0.00738567 0.999031 0
0.111675 -0.0220099 0.993501 0
0.117454 -0.0251733 0.992759 0.00245899
0.12692 -0.0311422 0.991424 0.0181071
-0.0553765 -0.0449512 0.997453 0
-0.0531037 -0.0794865 0.99542 0.0130542
-0.0514131 -0.0720599 0.996074 0.015368
-0.0541786 -0.0604204 0.996702 0.0241458
-0.0579577 -0.0643616 0.996242 0.0309816
-0.0596479 -0.0804941 0.994969 0.0461514
-0.0633881 -0.0778524 0.994948 0.0432386
-0.0652797 -0.0712467 0.99532 0.045806
-0.0653089 -0.0647151 0.995764 0.0432978
-0.065166 -0.0536286 0.996432 0.0358546
-0.0584709 -0.0211705 0.998065 0.0241868
-0.0549231 -0.0114753 0.998425 0.0138699
-0.0524189 -0.0118087 0.998555 0.014366
-0.0614251 -0.00918355 0.998069 0.0126425
-0.0564526 -0.0129248 0.998322 0.0093615
-0.0554302 -0.00951259 0.998417 0
-0.0545911 -0.00736076 0.998482 0
-0.053945 0.000794408 0.998544 0
-0.0559329 0.00451899 0.998424 0
-0.0514245 0.0302402 0.998219 0
-0.0461586 0.028347 0.998532 0
-0.0471859 0.0221909 0.99864 0
0.11403 -0.0202318 0.993271 0.000908155
0.118046 -0.0155743 0.992886 0
0.140005 -0.0411448 0.989296 0.0376069
-0.0539765 -0.042369 0.997643 0
-0.0556227 -0.0620127 0.996524 0.0108763
-0.0529839 -0.0563445 0.997005 0.0138717
-0.0551574 -0.0706172 0.995977 0.0180022
-0.0567978 -0.0667699 0.99615 0.027998
-0.0603656 -0.084593 0.994585 0.0404275
-0.0612052 -0.0767632 0.995169 0.0469386
-0.0658397 -0.067136 0.995569 0.0447764
-0.0653457 -0.0442487 0.996881 0.0371715
-0.0644491 -0.04072 0.99709 0.0379106
-0.0598936 -0.0448906 0.997195 0.0282327
-0.0552472 -0.0455666 0.997432 0.0142023
-0.0590517 -0.032139 0.997737 0.0159256
-0.056195 -0.026426 0.99807 0.00424057
-0.0524845 -0.018775 0.998445 0.00397097
-0.050676 -0.0247951 0.998407 0
-0.0556502 -0.0119752 0.998379 0
-0.0567746 0.000888721 0.998387 0
-0.0535712 0.0171798 0.998416 0
-0.0464768 0.0347673 0.998314 0
-0.0451244 0.0292075 0.998554 0
-0.0427281 0.0365322 0.998419 0
0.109844 -0.00871712 0.993911 0
0.119291 -0.0173134 0.992708 0
0.134826 -0.0336094 0.990299 0.0153189
0.154099 -0.021952 0.987812 0.0267994
-0.0543738 -0.0304256 0.998057 0
-0.0527366 -0.0309733 0.998128 0
-0.0553485 -0.040981 0.997626 0
-0.0549434 -0.0636418 0.996459 0.0158291
-0.0552459 -0.0705124 0.99598 0.0201228
-0.0598722 -0.064584 0.996115 0.0321785
-0.0610366 -0.0640897 0.996076 0.035176
-0.0633079 -0.0567572 0.996379 0.0486395
-0.0625163 -0.0406782 0.997215 0.0335288
-0.0651507 -0.0386077 0.997128 0.0353092
-0.059811 -0.0353357 0.997584 0.0402858
-0.057774 -0.0267799 0.99797 0.0296186
-0.0541883 -0.0383163 0.997795 0.0226032
-0.0525626 -0.026936 0.998254 0.0104247
-0.0523762 -0.029978 0.998177 0
-0.0510653 -0.0201806 0.998491 0.00367628
-0.0490544 -0.0246065 0.998493 0
-0.0556542 -0.0211195 0.998227 0
-0.0514039 -0.00814877 0.998645 0
-0.0529978 -0.000229583 0.998595 0
-0.0503304 0.0333385 0.998176 0
-0.0466291 0.0356074 0.998277 0
-0.043973 0.0416842 0.998163 0
0.118324 -0.0258733 0.992638 0.0172332
0.133747 -0.0272032 0.990642 0.021618
0.158212 -0.0214052 0.987173 0.0368456
-0.054664 -0.0451072 0.997485 0
-0.0560075 -0.0369026 0.997748 0
-0.0561705 -0.0455898 0.99738 0
-0.0506952 -0.0559311 0.997147 0.00741672
-0.0515856 -0.0481805 0.997506 0.0124098
-0.0604964 -0.0420028 0.997284 0.0230326
-0.0600413 -0.0306653 0.997725 0.0243073
-0.0589191 -0.0459183 0.997206 0.026627
-0.064477 -0.0221739 0.997673 0.0390027
-0.0639208 -0.0156408 0.997832 0.0384622
-0.0564019 -0.0249719 0.998096 0.0332627
-0.0592101 -0.0165581 0.998108 0.032653
-0.0561426 -0.0263783 0.998074 0.0196028
-0.0488422 -0.018764 0.99863 0
-0.0513351 -0.0311573 0.998195 0
-0.0523918 -0.0219479 0.998385 0
-0.0514933 -0.0172068 0.998525 0
-0.057503 -0.0224389 0.998093 0.000588566
-0.0570776 0.00132952 0.998369 0
-0.0536429 -0.00605532 0.998542 0
-0.0514211 0.0295392 0.99824 0
-0.0483136 0.0400255 0.99803 0
-0.0424592 0.0498106 0.997856 0
0.128324 -0.0316269 0.991228 0.0281838
0.14903 -0.0269392 0.988466 0.0321884
0.176279 -0.0182404 0.984171 0.034102
-0.0491349 -0.0230987 0.998525 0
-0.0494309 -0.0177335 0.99862 0
-0.0513089 -0.0331383 0.998133 0
-0.0552936 -0.0433105 0.99753 0.00267141
-0.0531968 -0.0616823 0.996677 0.00497072
-0.051 -0.0466509 0.997608 0.00427954
-0.0540175 -0.0551092 0.997018 0.0160733
-0.0533278 -0.0508563 0.997281 0.0127741
-0.0535909 -0.0441785 0.997585 0.00339681
-0.0558367 -0.0447478 0.997437 0.0157442
-0.0647439 -0.0376235 0.997192 0.0428646
-0.0607882 -0.0218943 0.99791 0.0314787
-0.060944 -0.0300321 0.997689 0.0268115
-0.0618061 -0.0302204 0.997631 0.0402893
-0.0517036 -0.0321376 0.998145 0.0132098
-0.0501417 -0.0206738 0.998528 0
-0.0571706 -0.028103 0.997969 0
-0.0554222 -0.033567 0.997899 0
-0.0558044 -0.0529697 0.997036 0
-0.0577049 -0.0345617 0.997735 0.0111643
-0.0568481 -0.0212168 0.998157 0.00634844
-0.0554562 0.00731305 0.998434 0
-0.0483005 0.0308661 0.998356 0
-0.0437384 0.0418174 0.998167 0
0.143124 -0.0443678 0.98871 0.0265626
0.159154 -0.0314653 0.986752 0.0238255
0.185176 -0.014022 0.982605 0.0225681
-0.0441986 -0.00667419 0.999 0
-0.0427961 -0.00909945 0.999042 0
-0.0497151 -0.0346155 0.998163 0
-0.0511135 -0.0358743 0.998048 0
-0.0559486 -0.0516935 0.997095 0.0198495
-0.0541641 -0.0569259 0.996908 0.020092
-0.0581318 -0.0454403 0.997274 0.0245673
-0.0612021 -0.0595595 0.996347 0.0268735
-0.0547445 -0.064225 0.996433 0.0143766
-0.0510926 -0.0471693 0.997579 0.00436288
-0.0566898 -0.0300917 0.997938 0.0141723
-0.0612013 -0.0408795 0.997288 0.0286466
-0.0595609 -0.0309513 0.997745 0.0165992
-0.0588903 -0.0208381 0.998047 0.0163716
-0.0593365 -0.0331991 0.997686 0.0295243
-0.0454871 -0.0241666 0.998673 0
-0.0479665 -0.02152 0.998617 0
-0.0499179 -0.0401461 0.997946 0.000956379
-0.0558237 -0.0511611 0.997129 0.00989995
-0.0540232 -0.071956 0.995944 0.0141666
-0.059847 -0.032973 0.997663 0.0210841
-0.0607749 -0.0175833 0.997997 0.0156361
-0.0473323 0.0185538 0.998707 0
0.149909 -0.0435289 0.987741 0.0371718
0.156414 -0.038046 0.986958 0.0238924
0.18846 -0.0191387 0.981894 0.0176694
-0.0492846 -0.0122583 0.99871 0.00622703
-0.0508235 -0.0252549 0.998388 0.0147995
-0.0577399 -0.0353292 0.997706 0.0282642
-0.0570545 -0.0312012 0.997883 0.0342281
-0.0624488 -0.0420192 0.997163 0.0336778
-0.0641106 -0.04949 0.996715 0.0439869
-0.0550317 -0.0498653 0.997239 0.0267091
-0.0527594 -0.0368507 0.997927 0.0154956
-0.0571504 -0.0446302 0.997368 0.0268124
-0.0525642 -0.0176101 0.998462 0
-0.0576429 -0.0214686 0.998106 0.0022856
-0.061169 -0.0195839 0.997935 0.0220728
-0.0612028 -0.0244063 0.997827 0.0210085
-0.0554116 -0.0235045 0.998187 0.00672818
-0.0513998 -0.0259488 0.998341 0.00932923
-0.0580485 -0.0501455 0.997054 0.0177147
-0.057009 -0.0554233 0.996834 0.0204326
-0.0572725 -0.0519322 0.997007 0.0296077
-0.061381 -0.0359322 0.997467 0.0186023
-0.0634176 -0.0375766 0.997279 0.0230361
0.167215 -0.0236175 0.985638 0.024749
0.178471 -0.0162211 0.983811 0.030888
0.197467 -0.0148663 0.980197 0.022968
-0.0498331 -0.00279728 0.998754 0.00478471
-0.0558528 -0.0124139 0.998362 0.0204229
-0.0530856 -0.0180831 0.998426 0.0225893
-0.0547614 -0.00894702 0.998459 0.0288774
-0.0619052 -0.0504577 0.996806 0.0459261
-0.0601158 -0.0508126 0.996897 0.0457119
-0.0563223 -0.0413207 0.997557 0.0367823
-0.048708 -0.0551829 0.997288 0.0221265
-0.0566 -0.0502598 0.997131 0.0269104
-0.0496496 -0.0222826 0.998518 0
-0.053515 -0.014571 0.998461 0
-0.0560196 -0.0139822 0.998332 0.00369012
-0.0599712 -0.0128177 0.998118 0.0103976
-0.0590235 -0.0206995 0.998042 0.0109853
-0.0566845 -0.0282672 0.997992 0.0129781
-0.0593452 -0.0394637 0.997457 0.0242388
-0.0620089 -0.0484273 0.9969 0.0275735
-0.0571788 -0.0547922 0.996859 0.0191887
-0.0599026 -0.0452084 0.99718 0.00980901
-0.0582053 -0.0364983 0.997637 0.0130671
-0.0594814 -0.0195531 0.998038 0
-0.0541306 0.000418697 0.998534 0
-0.053002 -0.00582786 0.998577 0
0.140853 -0.0146015 0.989923 0.0238778
0.182478 -0.0109897 0.983149 0.0361639
0.192298 -0.00162576 0.981335 0.0317747
0.220667 -0.00346754 0.975343 0.029926
0.241097 -0.00178275 0.9705 0.0288002
-0.051117 0.00437326 0.998683 0.00210825
-0.0542404 -0.0105778 0.998472 0.0301043
-0.0588974 -0.0173617 0.998113 0.0406449
-0.0608399 -0.0524866 0.996767 0.0532724
-0.0552911 -0.0435891 0.997518 0.0483974
-0.0577616 -0.0352627 0.997707 0.0390652
-0.0558197 -0.0696082 0.996011 0.0307021
-0.0552267 -0.0618212 0.996558 0.0212656
-0.0511356 -0.0274242 0.998315 0
-0.0546548 -0.0232548 0.998234 0
-0.0524732 -0.0174605 0.99847 0
-0.0531055 -0.0215672 0.998356 0
-0.0544746 -0.0173914 0.998364 0
-0.0520972 -0.0271965 0.998272 0.000361932
-0.0526853 -0.0255051 0.998285 0.0122602
-0.0546775 -0.0234915 0.998228 0.0150648
-0.0499242 -0.0406155 0.997927 0.00478075
-0.0544632 -0.0375357 0.99781 0.00515983
-0.0525753 -0.0213571 0.998389 0
-0.0564951 -0.0101309 0.998351 0
-0.053989 -0.00492556 0.998529 0
-0.0511595 -0.00285031 0.998686 0
0.171738 -0.0155269 0.98502 0.0438041
0.180105 0.00246681 0.983644 0.0178868
0.19203 0.00213588 0.981387 0.0150689
0.222648 0.00227607 0.974896 0.0168701
0.244367 -0.00585362 0.969665 0.0274282
-0.0560799 -0.00481018 0.998415 0.0212269
-0.0602041 -0.0182116 0.99802 0.0389881
-0.0579725 -0.0425394 0.997411 0.0485693
-0.0585137 -0.0429787 0.997361 0.049908
-0.0529213 -0.0457947 0.997548 0.0219026
-0.054494 -0.0758547 0.995629 0.0253804
-0.0563077 -0.0588404 0.996678 0.018365
-0.0495782 -0.0256981 0.99844 0
-0.0497549 -0.0273157 0.998388 0
-0.0515076 -0.041394 0.997814 0
-0.0527495 -0.00698539 0.998583 0
-0.0473156 -0.0100574 0.998829 0
-0.049952 -0.019974 0.998552 0.00247482
-0.0518187 -0.0210687 0.998434 0
-0.0551911 -0.00806385 0.998443 0.00443006
-0.0494644 -0.0133886 0.998686 0.00199352
-0.0488613 -0.0312026 0.998318 0
-0.0484145 -0.030853 0.998351 0
-0.0516646 -0.0147486 0.998556 0
-0.052879 0.01098 0.998541 0
-0.0531027 0.00615245 0.99857 0
-0.0486327 0.000593652 0.998817 0
0.189537 -0.00539174 0.981859 0.025044
0.204815 -0.0214549 0.978566 0.0316108
0.23316 -0.0186642 0.972259 0.035849
0.270036 -0.020878 0.962624 0.0497084
-0.0527072 -0.0223481 0.99836 0.0130041
-0.05259 -0.0161759 0.998485 0.0258798
-0.0614724 -0.020415 0.9979 0.0392314
-0.0592745 -0.0362782 0.997582 0.0464961
-0.0598586 -0.0403006 0.997393 0.049596
-0.0588015 -0.0468397 0.99717 0.0263328
-0.053958 -0.0563055 0.996954 0.0139795
-0.0547215 -0.0632635 0.996496 0.00520175
-0.0467027 -0.0228092 0.998648 0
-0.0419973 -0.00433197 0.999108 0
-0.0472946 -0.013935 0.998784 0
-0.0459022 -0.000463048 0.998946 0
-0.0446038 0.00807159 0.998972 0
-0.0496512 -0.00531759 0.998752 0
-0.0522717 -0.0266302 0.998278 0
-0.055197 -0.00076028 0.998475 0
-0.0573767 -0.0110377 0.998292 0
-0.0522753 -0.0212587 0.998406 0
-0.0523153 -0.0201051 0.998428 0
-0.0509066 -0.0140854 0.998604 0
-0.0502311 0.0141697 0.998637 0
-0.0506237 -0.011827 0.998648 0
0.206404 -0.0225198 0.978208 0.0318255
0.259585 -0.0228764 0.965449 0.0500141
0.274433 -0.0183469 0.961431 0.0510382
-0.049894 -0.00513394 0.998741 0
-0.0514132 -0.0263845 0.998329 0.0124133
-0.0560216 -0.0154555 0.99831 0.0191857
-0.0560842 -0.0197697 0.99823 0.0187461
-0.0590329 -0.026365 0.997908 0.0346876
-0.0582711 -0.0394733 0.99752 0.0548293
-0.0571436 -0.0348661 0.997757 0.0436309
-0.0558189 -0.03107 0.997957 0.0279143
-0.0568983 -0.0356336 0.997744 0.0133324
-0.0548863 -0.0483537 0.997321 0.0128536
-0.0400972 -0.001646 0.999194 0
-0.042601 0.00513141 0.999079 0
-0.0446115 0.00587757 0.998987 0
-0.0467604 -0.0123148 0.99883 0
-0.0517605 -0.00368502 0.998653 0
-0.0491755 -0.0176033 0.998635 0.000353098
-0.0565859 -0.0268818 0.998036 0
-0.0518057 -0.00638975 0.998637 0
-0.050819 -0.0174138 0.998556 0
-0.049781 -0.00389727 0.998753 0
-0.0519852 0.00139651 0.998647 0
-0.0504122 0.00824823 0.998694 0
-0.0524411 0.00541103 0.998609 0
-0.0501162 0.00131782 0.998743 0
0.228584 -0.035642 0.972871 0.0426295
0.274864 -0.0249766 0.961159 0.0559412
0.293879 -0.0162511 0.955704 0.0504921
-0.0506351 -0.0078879 0.998686 0
-0.0532211 -0.0213002 0.998356 0.0181272
-0.051384 -0.0114068 0.998614 0.0104121
-0.0546794 -0.0353092 0.99788 0.0301545
-0.0592963 -0.0280409 0.997847 0.0414525
-0.0620027 -0.0632936 0.996067 0.0619237
-0.0591274 -0.0602712 0.996429 0.0498188
-0.0570742 -0.0481689 0.997207 0.0267166
-0.0514587 -0.0522582 0.997307 0.0120854
-0.0509597 -0.0516491 0.997364 0
-0.0404858 -0.00688085 0.999156 0
-0.046532 -0.0167964 0.998776 0
-0.040925 -0.00805173 0.99913 0
-0.0477256 -0.012103 0.998787 0
-0.0513002 -0.0179034 0.998523 0.00295612
-0.0539545 -0.0206984 0.998329 0.00149871
-0.0531771 -0.0122986 0.998509 0.012763
-0.04966 -0.0129652 0.998682 0
-0.0496361 -0.0264087 0.998418 0
-0.0503111 -0.0146008 0.998627 0
-0.0511621 0.00443192 0.998681 0
-0.0518857 -0.00270415 0.998649 0
-0.0483348 0.00477316 0.99882 0
0.239346 -0.0379343 0.970193 0.0450937
0.289243 -0.0444608 0.956223 0.0624135
0.298373 -0.0449493 0.95339 0.0513593
-0.0491382 -0.0212077 0.998567 0.0129132
-0.0579611 -0.0533846 0.99689 0.0469617
-0.0609188 -0.0550311 0.996625 0.0487284
-0.0596914 -0.064434 0.996135 0.0470402
-0.0602609 -0.0582478 0.996482 0.0403591
-0.0604488 -0.0632852 0.996163 0.0409761
-0.0527598 -0.0440273 0.997636 0.0153747
-0.0465097 -0.03237 0.998393 0
-0.0482532 -0.0120659 0.998762 0
-0.0464104 -0.0292349 0.998495 0
-0.0469647 -0.0193283 0.998709 0
-0.0492208 -0.00670263 0.998765 0
-0.0510569 0.00150227 0.998695 0
-0.0572387 -0.0233467 0.998088 0.0107583
-0.0568375 -0.0218788 0.998144 0.0134897
-0.0510332 -0.00820556 0.998663 0.00497842
-0.0493098 -0.0100238 0.998733 0
-0.0520164 -0.0138753 0.99855 0
-0.0547567 -0.00300697 0.998495 0
-0.0517284 -0.00504155 0.998648 0
-0.0511408 0.0010003 0.998691 0
0.259046 -0.0400587 0.965034 0.0575319
0.280965 -0.0410305 0.95884 0.0449444
0.282143 -0.0281411 0.95896 0.0314104
-0.0587305 -0.0497252 0.997035 0.0438117
-0.0605691 -0.0488364 0.996969 0.0462546
-0.0561869 -0.0492738 0.997204 0.0407758
-0.0629014 -0.0742834 0.995251 0.0474363
-0.0640002 -0.0683026 0.99561 0.0432273
-0.0542912 -0.0442797 0.997543 0.0142578
-0.0494774 -0.0333789 0.998217 0.00369431
-0.0493261 -0.010953 0.998723 0
-0.0525945 -0.0224546 0.998363 0
-0.0469948 -0.017355 0.998744 0
-0.0491724 -0.0118865 0.99872 0.000902977
-0.0487604 -0.0109794 0.99875 0.00388492
-0.0566608 -0.0162802 0.998261 0.0164995
-0.057528 -0.0270725 0.997977 0.0150444
-0.0584498 -0.019145 0.998107 0.0237257
-0.0561967 -0.00777024 0.998389 0.00442136
-0.0591345 -0.0129792 0.998166 0.00183943
-0.0505661 -0.00464039 0.99871 0
-0.0497279 -0.0265991 0.998409 0
0.260766 -0.0252194 0.965072 0.043269
0.283826 -0.0324688 0.958326 0.0453317
0.289155 -0.0291529 0.956838 0.0377123
-0.0550255 -0.061113 0.996613 0.0409025
-0.0623495 -0.0686671 0.995689 0.0497984
-0.0675896 -0.06323 0.995708 0.0452583
-0.0513965 -0.0355657 0.998045 0.0129107
-0.0451885 -0.0249712 0.998666 0.00294358
-0.0451203 -0.0228163 0.998721 0
-0.0494487 -0.0221531 0.998531 0.0100984
-0.0494242 -0.0223369 0.998528 0.00518623
-0.0524879 -0.0267505 0.998263 0.00659393
-0.052457 -0.026208 0.998279 0.0212928
-0.0552032 -0.0227284 0.998216 0.0218109
-0.0583941 -0.0288986 0.997875 0.0182164
-0.0558672 -0.0199615 0.998239 0.0137851
-0.0554426 -0.0107818 0.998404 0.00351045
-0.0569363 -0.0145703 0.998271 0.00647673
-0.056524 -0.0116522 0.998333 0
-0.0518553 -0.030081 0.998201 0
-0.0482869 -0.0200494 0.998632 0
0.268567 -0.0183244 0.963087 0.0468058
0.28175 -0.00984018 0.959437 0.0391779
0.303503 -0.0248215 0.952507 0.0473018
-0.055512 -0.0668664 0.996216 0.0284301
-0.0615885 -0.0719069 0.995508 0.0359024
-0.0541109 -0.0459938 0.997475 0.0188424
-0.0494174 -0.0498108 0.997535 0.0183357
-0.0489554 -0.040063 0.997997 0.012141
-0.0556422 -0.0325426 0.99792 0.0264418
-0.055905 -0.0340506 0.997855 0.031837
-0.0542233 -0.0355523 0.997896 0.026031
-0.0580602 -0.0371215 0.997623 0.0399169
-0.0552573 -0.0383573 0.997735 0.0288765
-0.0569 -0.0205104 0.998169 0.015616
-0.0565509 -0.0245068 0.998099 0.0165838
-0.0558438 -0.016483 0.998303 0.00742777
-0.0602869 -0.00682024 0.998158 0
-0.0537523 -0.0185941 0.998381 0
-0.0556675 -0.0351634 0.99783 0.00214605
-0.052127 -0.0248269 0.998332 0
0.274866 -0.0148507 0.961368 0.0472685
0.301342 -0.0270875 0.953131 0.0559578
0.302847 -0.0107523 0.952979 0.0345099
-0.0522517 -0.056203 0.997051 0.0236044
-0.0529795 -0.0483569 0.997424 0.0269443
-0.0542463 -0.0492213 0.997314 0.0243315
-0.0559571 -0.0497033 0.997195 0.0298898
-0.0621706 -0.0397499 0.997274 0.0328149
-0.0606138 -0.0389922 0.997399 0.0312141
-0.0551332 -0.026786 0.99812 0.023863
-0.0588931 -0.0140109 0.998166 0.0323699
-0.0580434 -0.002246 0.998312 0.0185486
-0.0568808 -0.0202912 0.998175 0.0166791
-0.0555691 -0.000805483 0.998455 0
-0.0629306 -0.0101821 0.997966 0.00814117
-0.056337 -0.0141537 0.998311 0
-0.0550496 -0.0234912 0.998207 0
-0.0632416 -0.0310081 0.997516 0.00953358
-0.0579507 -0.0363054 0.997659 0
0.281512 -0.0132178 0.959467 0.0533694
0.296583 -0.0162009 0.95487 0.0439528
0.301896 -0.0108145 0.95328 0.030866
0.311805 -0.0050318 0.950133 0.0282367
-0.05028 -0.0454937 0.997698 0.00571122
-0.0528732 -0.0481181 0.997441 0.0247994
-0.0521183 -0.0423194 0.997744 0.0362982
-0.0562653 -0.0453539 0.997385 0.0422611
-0.0593694 -0.0429907 0.99731 0.0324898
-0.0608097 -0.0267587 0.997791 0.033495
-0.0584087 -0.0272997 0.997919 0.0192153
-0.0587172 -0.0234097 0.998 0.0180565
-0.0589434 -0.00396869 0.998253 0.0195246
-0.0550952 0.00361449 0.998475 0
-0.0606377 0.0197049 0.997965 0
-0.0598058 -0.0175711 0.998055 0
-0.0602055 -0.0104969 0.998131 0.0090043
-0.0595243 -0.0218743 0.997987 0.00627425
-0.0571617 -0.0204098 0.998156 0.00220622
0.290465 -0.0210162 0.956655 0.0291888
0.293607 -0.0151795 0.955806 0.0197152
0.310421 -0.0160873 0.950463 0.0205193
-0.0482142 -0.0358591 0.998193 0.0139463
-0.0545021 -0.0318495 0.998006 0.0266938
-0.0581337 -0.0316947 0.997805 0.0394689
-0.0605467 -0.0306641 0.997694 0.0301854
-0.0603837 -0.0348245 0.997568 0.0252056
-0.059866 -0.0404816 0.997385 0.0237952
-0.0560544 -0.0157562 0.998303 0
-0.0587798 -0.012349 0.998195 0
-0.0582708 -0.00229235 0.998298 0
-0.058073 -0.0125027 0.998234 0
-0.0602476 -0.00791344 0.998152 0
-0.0629522 -0.015575 0.997895 0
-0.0558018 -0.0310734 0.997958 0
0.307944 -0.0292359 0.950955 0.0328957
0.333222 -0.0360994 0.942157 0.0382613
-0.0515836 -0.0300996 0.998215 0.0116739
-0.0544431 -0.0366044 0.997846 0.0291843
-0.0581859 -0.0362198 0.997649 0.0341917
-0.0595214 -0.0336503 0.99766 0.0322747
-0.0591936 -0.0240386 0.997957 0.0168147
-0.0582194 -0.0207149 0.998089 0.00170231
-0.0529189 -0.00794786 0.998567 0
-0.053575 -0.00903764 0.998523 0
-0.0532508 -0.00415347 0.998573 0
-0.0570043 -0.0108481 0.998315 0
-0.0612877 -0.00570047 0.998104 0
-0.0562979 -0.0015646 0.998413 0
-0.0551207 -0.0176368 0.998324 0.00367084
-0.0564964 -0.0273357 0.998029 0.00333967
0.295481 -0.0398344 0.954518 0.0426585
0.320101 -0.0442843 0.946348 0.0456781
0.357059 -0.0613192 0.932067 0.0618336
-0.0477071 -0.0186834 0.998687 0
-0.049343 -0.0223924 0.998531 0.00606737
-0.0510559 -0.0264284 0.998346 0.0137779
-0.0520362 -0.0484576 0.997469 0.0319887
-0.0589164 -0.0319662 0.997751 0.0193298
-0.0581424 -0.0110274 0.998247 0.00806073
-0.0557677 -0.0082422 0.99841 0
-0.0536836 0.00325791 0.998553 0
-0.0526692 0.00499972 0.998599 0
-0.0553839 0.000620497 0.998465 0
-0.0568754 0.00794269 0.99835 0
-0.0597165 -0.000889082 0.998215 0
-0.0541734 0.00899156 0.998491 0
-0.0549297 -0.0158103 0.998365 0
-0.0492228 0.00228216 0.998785 0
0.342101 -0.0561443 0.937984 0.0597761
0.399734 -0.0788276 0.913236 0.0806021
-0.0491534 -0.0293653 0.998359 0.00962134
-0.0506365 -0.0458002 0.997666 0.0219462
-0.0500653 -0.0421085 0.997858 0.0306957
-0.0549778 -0.0252098 0.998169 0.0103292
-0.0521297 -0.0182552 0.998473 0
-0.0540581 -0.00673221 0.998515 0
-0.0504546 9.88254e-05 0.998726 0
-0.0538336 -9.05573e-05 0.99855 0
-0.0553357 -0.00561777 0.998452 0
-0.0550842 -0.00959995 0.998436 0
-0.0571049 -0.00510798 0.998355 0.00445362
-0.056177 -0.0116287 0.998353 0
-0.0522452 -0.000154873 0.998634 0
-0.0511195 0.00445954 0.998683 0
0.339627 -0.0458093 0.939444 0.0541346
0.367393 -0.0560932 0.928373 0.0566858
-0.044089 -0.0232539 0.998757 0
-0.0492043 -0.0342093 0.998203 0
-0.0523887 -0.0305134 0.99816 0.0151566
-0.0536356 -0.0306992 0.998089 0.0287065
-0.0547255 -0.0180524 0.998338 0.00651929
-0.0534567 -0.0183748 0.998401 0
-0.0572493 -0.00636899 0.99834 0
-0.0552589 -0.00643437 0.998451 0
-0.0583536 -0.0126942 0.998215 0
-0.0610664 -0.0255016 0.997808 0
-0.0593626 -0.00730405 0.99821 0
-0.0543225 -0.0077067 0.998494 0
-0.0505214 -0.00154487 0.998722 0
-0.0498816 0.0039114 0.998747 0
-0.051008 0.00682269 0.998675 0
0.319355 -0.0243564 0.947322 0.0316787
0.343446 -0.046407 0.938025 0.0346281
0.343825 -0.0332609 0.938444 0.0204474
-0.0442563 -0.0235258 0.998743 0
-0.049916 -0.0510518 0.997448 0.0108914
-0.0514133 -0.0423521 0.997779 0.00771324
-0.0514768 -0.0285075 0.998267 0.0158044
-0.0604882 -0.0314009 0.997675 0.0201764
-0.0575968 -0.0271815 0.99797 0.00341033
-0.0582124 -0.00444993 0.998294 0
-0.0549342 0.00316975 0.998485 0
-0.0597897 -0.00982693 0.998163 0
-0.0619975 -0.0135869 0.997984 0.0033774
-0.0626159 -0.00143284 0.998037 0.00121615
-0.0537118 -0.0022384 0.998554 0
-0.0543698 -0.00788495 0.99849 0
-0.0538668 0.00148729 0.998547 0
-0.0548433 -0.00232446 0.998492 0
-0.0515187 0.000953467 0.998672 0
0.318407 -0.0221427 0.947695 0.0295524
0.333039 -0.0339458 0.942302 0.0234328
0.341457 -0.024269 0.939584 0.0206107
-0.0429935 -0.0166146 0.998937 0.00184591
-0.0478902 -0.0166285 0.998714 0.00202736
-0.0517093 -0.0589557 0.99692 0.020549
-0.0488795 -0.0416262 0.997937 0.0159166
-0.0549178 -0.0409928 0.997649 0.019186
-0.051595 -0.0232649 0.998397 0.00940505
-0.0530592 -0.0279077 0.998201 0.00178268
-0.0567452 -0.0195442 0.998197 0.00429683
-0.0572643 -0.00551363 0.998344 0.0099848
-0.0613817 -0.00129415 0.998114 0.0117276
-0.0611719 -0.0180585 0.997964 0.0144241
-0.0604088 -0.0121391 0.9981 0.00827633
-0.0584548 -0.00807638 0.998257 0.00097093
-0.0544348 -0.00832856 0.998483 0
-0.056124 0.00200413 0.998422 0
-0.0525828 -0.00667421 0.998594 0
-0.0543557 0.000706708 0.998521 0
0.325933 -0.0295738 0.94493 0.03042
0.329499 -0.021065 0.943921 0.0172637
0.347016 -0.0264643 0.937486 0.0249624
-0.0461797 -0.029685 0.998492 0.00116359
-0.0540025 -0.0377685 0.997826 0.0137845
-0.0525091 -0.0483346 0.99745 0.0158337
-0.0513317 -0.0369291 0.997999 0.0136262
-0.0606398 -0.0519893 0.996805 0.0232311
-0.0557804 -0.0406882 0.997614 0.00890353
-0.0576346 -0.0418227 0.997461 0.0141563
-0.0594271 -0.0317844 0.997727 0.0118052
-0.0628135 -0.037741 0.997311 0.0249864
-0.0671346 -0.0266921 0.997387 0.0261098
-0.0663842 -0.0352547 0.997171 0.0332918
-0.0640801 -0.0207087 0.99773 0.0183817
-0.059227 -0.0295101 0.997808 0.000792474
-0.0575165 -0.00603583 0.998326 0
-0.0548391 -0.00869965 0.998457 0
-0.0572682 -0.0104112 0.998305 0
-0.0555646 0.00306495 0.99845 0
0.322953 -0.0277359 0.946009 0.0151904
0.344089 -0.0245874 0.938615 0.00711938
-0.0428902 -0.0277733 0.998694 0.00195533
-0.0456908 -0.0403519 0.99814 0.00879273
-0.048037 -0.0462738 0.997773 0.00689902
-0.0496514 -0.0368638 0.998086 0.0183008
-0.0509229 -0.0391629 0.997934 0.0140228
-0.0500259 -0.0396116 0.997962 0.0106543
-0.0568283 -0.0436358 0.99743 0.025997
-0.0597924 -0.0499755 0.996959 0.0151234
-0.0632784 -0.0543664 0.996514 0.017829
-0.0605072 -0.039278 0.997395 0.0217858
-0.0637002 -0.0383873 0.99723 0.031459
-0.068214 -0.0334391 0.99711 0.032604
-0.0689782 -0.039628 0.996831 0.0316799
-0.0591342 -0.0276545 0.997867 0.00697892
-0.0586556 -0.0311767 0.997791 0
-0.0582083 -0.0204346 0.998095 0
-0.0535112 -0.0122055 0.998493 0
-0.0565782 -0.0175189 0.998245 0
0.318761 -0.0233765 0.947547 0
0.339166 -0.0290617 0.940277 0.000788433
-0.0432525 -0.0202694 0.998859 0.00472974
-0.043825 -0.0145788 0.998933 0.00128243
-0.0457958 -0.0440691 0.997978 0.0155577
-0.0448172 -0.049883 0.997749 0.0151558
-0.0518385 -0.0521304 0.997294 0.0214062
-0.0494296 -0.0482305 0.997612 0.0079111
-0.0568006 -0.0466915 0.997293 0.0191173
-0.0548958 -0.049614 0.997259 0.021977
-0.0554295 -0.0570289 0.996833 0.0281563
-0.0616741 -0.0520958 0.996736 0.0229657
-0.0649099 -0.0631847 0.995889 0.0316747
-0.0635874 -0.0575934 0.996313 0.0245213
-0.0604457 -0.0531454 0.996756 0.0280286
-0.0676784 -0.0499288 0.996457 0.0356539
-0.0733492 -0.0480683 0.996147 0.0409467
-0.0582098 -0.0227584 0.998045 0.0126168
-0.0599344 -0.0277829 0.997816 0
-0.0598088 -0.0234455 0.997934 0
-0.0558231 -0.0178033 0.998282 0
-0.0543329 -0.0364714 0.997857 0
0.352803 -0.0342859 0.935069 0.0143252
0.376385 -0.0551386 0.924821 0.0316491
-0.0572746 -0.0226309 0.998102 0.0467761
-0.0465824 -0.0259622 0.998577 0.00970933
-0.0426383 -0.0252992 0.99877 0.00595486
-0.0389327 -0.0219803 0.999 0
-0.041509 -0.0274506 0.998761 0
-0.0387076 -0.0233813 0.998977 0.00388421
-0.0405072 -0.0388055 0.998425 0.0112381
-0.0448097 -0.0454228 0.997962 0.00700731
-0.0482794 -0.0570098 0.997206 0.00274487
-0.0555824 -0.0499942 0.997202 0.0168355
-0.0564311 -0.0544249 0.996922 0.0208558
-0.0533382 -0.0513792 0.997254 0.0207728
-0.0620683 -0.0523052 0.9967 0.0147827
-0.0648206 -0.0614073 0.996006 0.0212296
-0.0649008 -0.0674123 0.995612 0.0173922
-0.0647816 -0.0607557 0.996048 0.0277446
-0.0642339 -0.0666562 0.995706 0.026507
-0.0646147 -0.0459586 0.996851 0.0246969
-0.0656581 -0.0534479 0.99641 0.0209896
-0.0619719 -0.0410082 0.997235 0.00225514
-0.0586893 -0.0452532 0.99725 0
-0.0558461 -0.031092 0.997955 0
-0.0567913 -0.0403105 0.997572 0
0.352848 -0.0414156 0.934763 0.0264209
0.376746 -0.0546187 0.924705 0.0370023
-0.0500617 -0.018521 0.998574 0.0279822
-0.0474736 -0.0154138 0.998754 0.0194949
-0.0428401 -0.0135461 0.99899 0.0105177
-0.0466035 -0.0322531 0.998393 0.00640155
-0.0395162 -0.025067 0.998904 0
-0.0387204 -0.0283822 0.998847 0
-0.0375679 -0.0181313 0.99913 0
-0.0435316 -0.0291937 0.998625 0.0104955
-0.047977 -0.0593548 0.997083 0.0188286
-0.0476058 -0.0683437 0.996525 0.0221982
-0.0486501 -0.054909 0.997305 0.00957594
-0.0556589 -0.0635919 0.996423 0.0225311
-0.0564321 -0.051418 0.997082 0.0243009
-0.0539377 -0.0440549 0.997572 0.0107987
-0.0586763 -0.0584085 0.996567 0.00773505
-0.0589486 -0.0511011 0.996952 0.0119465
-0.0636796 -0.064342 0.995894 0.0192293
-0.0627481 -0.0555675 0.996481 0.0200107
-0.0611558 -0.0504169 0.996854 0.0203407
-0.061996 -0.0563118 0.996487 0.00944749
-0.0612029 -0.0545915 0.996631 0.00449209
-0.0670503 -0.0530366 0.996339 0.0128921
-0.0661514 -0.0589348 0.996068 0.00765162
0.339907 -0.0521379 0.939013 0.0164547
0.362063 -0.0648459 0.929895 0.0258645
-0.0535141 -0.0209434 0.998347 0.0202326
-0.0537463 -0.0303543 0.998093 0.0321092
-0.0500236 -0.0216367 0.998514 0.0345117
-0.04548 -0.00941538 0.998921 0.0246204
-0.0454133 -0.00475856 0.998957 0.0120232
-0.0420657 -0.000881899 0.999115 0
-0.0416607 -0.0117235 0.999063 0
-0.0437069 -0.0319347 0.998534 0.00414812
-0.0422505 -0.0279082 0.998717 0
-0.0421264 -0.0304539 0.998648 0
-0.045679 -0.0377815 0.998241 0
-0.0513738 -0.0542751 0.997204 0.0180544
-0.0516851 -0.0404119 0.997845 0.0215679
-0.0557158 -0.0411646 0.997598 0.0233435
-0.0510031 -0.0439855 0.997729 0.0128121
-0.0527482 -0.0442597 0.997627 0.0233257
-0.0468901 -0.0352691 0.998277 0
-0.0611512 -0.0457994 0.997077 0
-0.0568358 -0.0337184 0.997814 0
-0.0576755 -0.0438806 0.997371 0.00405976
-0.0619795 -0.0436116 0.997124 0.0193546
-0.0635833 -0.038544 0.997232 0.012189
-0.0648566 -0.0500281 0.99664 0.00504984
-0.0610394 -0.0539919 0.996674 0
-0.0666155 -0.052791 0.996381 0.0149456
-0.0692458 -0.0610791 0.995728 0.0201874
0.374882 -0.0906811 0.922627 0.0526009
0.392908 -0.108534 0.91315 0.0558062
-0.060064 -0.0490209 0.99699 0.0371243
-0.0507162 -0.0116092 0.998646 0.0234613
-0.0520131 -0.00161436 0.998645 0.0285704
-0.0479532 -0.00358021 0.998843 0.0167476
-0.0461467 0.00932238 0.998891 0.00919369
-0.0422086 -0.00777637 0.999079 0.00180096
-0.0390589 -0.00909575 0.999196 0
-0.0397009 0.000229489 0.999212 0
-0.0435828 -0.0288591 0.998633 0
-0.0440452 -0.0305602 0.998562 0
-0.0438051 -0.0294943 0.998605 0
-0.0481069 -0.0246102 0.998539 0.00904018
-0.0485643 -0.039825 0.998026 0.0116821
-0.0551496 -0.0439875 0.997509 0.0259712
-0.0557933 -0.0324718 0.997914 0.0263234
-0.0569822 -0.0253988 0.998052 0.0219498
-0.0541764 -0.0423049 0.997635 0.0213064
-0.0567325 -0.0420273 0.997504 0.0141401
-0.0555798 -0.037707 0.997742 0
-0.0607625 -0.044414 0.997164 0.00297164
-0.0631738 -0.0521119 0.996641 0.00931565
-0.0587024 -0.0399503 0.997476 0.00449068
-0.0589817 -0.0329357 0.997716 0
-0.0629966 -0.047663 0.996875 0
0.376166 -0.0982886 0.921324 0.0572304
0.380491 -0.0861264 0.920765 0.0518838
-0.0500987 -0.00216902 0.998742 0.0181385
-0.0475702 -0.000181895 0.998868 0.00820266
-0.0429252 0.0131861 0.998991 0
-0.0406715 0.0136945 0.999079 0
-0.0382666 0.0162925 0.999135 0
-0.0341153 -0.00411515 0.999409 0
-0.0405131 -0.011931 0.999108 0
-0.0403668 -0.0308173 0.99871 0
-0.0446669 -0.0275771 0.998621 0
-0.04463 -0.0256637 0.998674 0
-0.0463898 -0.027415 0.998547 0.00598892
-0.0505499 -0.0204498 0.998512 0.0136209
-0.0530549 -0.0283126 0.99819 0.0117471
-0.0512031 -0.0239136 0.998402 0.00992422
-0.0524151 -0.018117 0.998461 0.0268238
-0.0522777 -0.0254342 0.998309 0.0115646
-0.053485 -0.0359192 0.997922 0.0197868
-0.0592022 -0.0500529 0.99699 0.00578018
-0.0577505 -0.0459133 0.997275 0.002401
-0.0557537 -0.0459418 0.997387 0
-0.0560847 -0.0385961 0.99768 0
-0.0601053 -0.0295204 0.997755 0
0.382883 -0.106337 0.917656 0.0617637
0.395771 -0.106021 0.912209 0.063064
-0.0487299 -0.029231 0.998384 0.0247782
-0.0491179 -0.00257046 0.99879 0.0209035
-0.0446115 -0.00981534 0.998956 0.0109441
-0.0388296 0.0108441 0.999187 0
-0.0350522 0.0106777 0.999328 0
-0.035443 0.0110921 0.99931 0
-0.0403301 -0.00729709 0.99916 0
-0.0392012 -0.00663635 0.999209 0
-0.0378825 -0.0107593 0.999224 0
-0.039196 -0.019568 0.99904 0
-0.0451504 -0.0382984 0.998246 0
-0.0510808 -0.0236085 0.998415 0.00758821
-0.0498473 -0.0296733 0.998316 0.00889382
-0.0508995 -0.0307915 0.998229 0.0164974
-0.0501513 -0.0310823 0.998258 0.00265303
-0.0493004 -0.0214427 0.998554 0
-0.0486305 -0.0100059 0.998767 0.00362889
-0.0554181 -0.0272421 0.998092 0.0154919
-0.0519816 -0.0444192 0.99766 0.0187236
-0.0571458 -0.0383321 0.99763 0
-0.0568513 -0.0441287 0.997407 0
-0.0564636 -0.0460884 0.99734 0
0.37185 -0.0962527 0.923289 0.0538966
0.368281 -0.0880528 0.925536 0.0451856
-0.0524834 -0.050788 0.997329 0.0164643
-0.0488079 -0.0287767 0.998394 0.0217965
-0.046145 -0.0194346 0.998746 0.00457433
-0.0477908 -0.0145021 0.998752 0.0161746
-0.0522201 -0.0233986 0.998361 0.0298942
-0.0448859 -0.0114663 0.998926 0.0162096
-0.0412598 -0.00343448 0.999143 0
-0.0359323 0.0197093 0.99916 0
-0.0397994 -0.000838938 0.999207 0
-0.0378454 -0.00599124 0.999266 0
-0.0431094 -0.017106 0.998924 0
-0.0415526 -0.010555 0.999081 0
-0.0409009 -0.015747 0.999039 0
-0.042736 -0.0343347 0.998496 0
-0.0457101 -0.0502777 0.997689 0.00601728
-0.0497397 -0.019324 0.998575 0.00195819
-0.0497508 -0.0286416 0.998351 0.00663122
-0.0469103 -0.0301934 0.998443 0
-0.0467285 -0.0166191 0.998769 0
-0.0495866 0.00140961 0.998769 0
-0.0521344 -0.0182006 0.998474 0
-0.0513285 -0.028622 0.998272 0.00319866
-0.0572179 -0.048757 0.99717 0
-0.0561741 -0.0337727 0.99785 0
0.349767 -0.0787952 0.933517 0.0349335
-0.051361 -0.0635926 0.996653 0.0227599
-0.0563604 -0.059813 0.996617 0.028882
-0.0485049 -0.0422624 0.997928 0.0171153
-0.0431623 -0.0158437 0.998942 0
-0.0446551 -0.0245397 0.998701 0
-0.0504813 -0.0283437 0.998323 0.0170916
-0.0481205 -0.00867219 0.998804 0.0056021
-0.0485723 -0.0223215 0.99857 0.0131818
-0.0449866 -0.00438703 0.998978 0
-0.041124 -0.00534467 0.99914 0
-0.0418097 -0.00177754 0.999124 0.00525289
-0.0448565 -0.00553346 0.998978 0
-0.0455397 -0.0325265 0.998433 0
-0.0426259 -0.0105884 0.999035 0
-0.0404408 -0.0077052 0.999152 0
-0.0454217 -0.0253634 0.998646 0
-0.0483485 -0.0396623 0.998043 0
-0.0475037 -0.0262427 0.998526 0
-0.0441978 -0.0129654 0.998939 0
-0.0473187 -0.0223179 0.998631 0
-0.0452502 -0.00540715 0.998961 0
-0.0485071 0.00424358 0.998814 0
-0.0492906 -0.000809486 0.998784 0
-0.0477604 -0.026831 0.998498 0
-0.0509544 -0.0322065 0.998182 0
-0.0549235 -0.0395458 0.997707 0.00161158
-0.0571029 -0.0543434 0.996888 0
-0.0543305 -0.0351726 0.997903 0
0.334278 -0.086331 0.938512 0.0200372
-0.0525362 -0.0616384 0.996715 0.0266049
-0.0507292 -0.0541382 0.997244 0.0241649
-0.0558235 -0.0406569 0.997613 0.0164518
-0.0428057 -0.0148568 0.998973 0
-0.0480702 -0.0276962 0.99846 0.00470572
-0.0519131 -0.0226047 0.998396 0.0223028
-0.0501271 -0.0301885 0.998286 0.0185279
-0.050389 -0.0195469 0.998538 0.0152169
-0.0520597 -0.0344857 0.998048 0.0328327
-0.0486663 -0.0153879 0.998697 0.0183216
-0.0448637 -0.00433718 0.998984 0.00901265
-0.0475239 -0.0226189 0.998614 0
-0.0446895 -0.00874127 0.998963 0
-0.0479896 -0.0286097 0.998438 0
-0.0440792 -0.0333427 0.998471 0
-0.0489517 -0.0461228 0.997736 0
-0.0461659 -0.0412713 0.998081 0
-0.0473702 -0.0309231 0.998399 0
-0.0462669 -0.0184911 0.998758 0
-0.0496027 -0.00961658 0.998723 0
-0.0452275 -0.0232893 0.998705 0
-0.0476201 -0.0191979 0.998681 0
-0.0518037 -0.0344184 0.998064 0
-0.0576635 -0.0534076 0.996906 0
-0.0579482 -0.0528554 0.996919 0.0041145
0.38016 -0.102666 0.919205 0.0389487
0.399515 -0.103266 0.910892 0.0422568
-0.0534934 -0.0592679 0.996808 0.0195701
-0.0475766 -0.0406453 0.99804 0.011805
-0.0443306 -0.0244667 0.998717 0
-0.0491952 -0.0325723 0.998258 0.00903923
-0.0494588 -0.0319915 0.998264 0.0100627
-0.0529886 -0.0315753 0.998096 0.0124916
-0.0478217 -0.0360438 0.998205 0.024021
-0.0538438 -0.0491906 0.997337 0.0359532
-0.0489271 -0.0263668 0.998454 0.0286762
-0.0440718 -0.0182252 0.998862 0.0123569
-0.0487829 -0.0359761 0.998161 0.00664032
-0.0460731 -0.0218394 0.998699 0
-0.0450022 -0.0328466 0.998447 0
-0.0468721 -0.0526653 0.997512 0
-0.0483497 -0.0375795 0.998123 0
-0.0436711 -0.0228206 0.998785 0
-0.0407064 -0.0253877 0.998849 0
-0.04506 -0.0249931 0.998672 0
-0.0474897 -0.00930251 0.998828 0
-0.0464278 -0.000518368 0.998922 0
-0.0431743 -0.0212623 0.998841 0
-0.0455265 -0.0321419 0.998446 0
0.391829 -0.111203 0.913293 0.0501935
0.380012 -0.0945257 0.920139 0.0321128
-0.0481736 -0.0366066 0.998168 0.000336638
-0.0511741 -0.0646271 0.996596 0.0201766
-0.0469092 -0.0309503 0.99842 0.00655912
-0.0452885 -0.0370443 0.998287 0.00574673
-0.0473528 -0.0328342 0.998338 0.0125831
-0.0493802 -0.0321939 0.998261 0.0228157
-0.0486897 -0.0473368 0.997692 0.0291516
-0.051978 -0.054778 0.997145 0.0342868
-0.0516477 -0.0522867 0.997296 0.0330244
-0.0474999 -0.0326396 0.998338 0.0259982
-0.0447618 -0.0287885 0.998583 0.012759
-0.0426641 -0.0182475 0.998923 0
-0.0432231 -0.0253117 0.998745 0.00555322
-0.0442588 -0.0364721 0.998354 0
-0.0482612 -0.0476874 0.997696 0
-0.0483179 -0.0292608 0.998403 0
-0.0424694 -0.0454739 0.998062 0
-0.0430012 -0.0319843 0.998563 0
-0.0465677 -0.0408358 0.99808 0
-0.0447027 -0.00631734 0.99898 0
-0.041798 -0.00560648 0.99911 0
-0.0432626 -0.0177352 0.998906 0
0.384125 -0.0984957 0.918012 0.0387772
-0.0468885 -0.0394736 0.99812 0.000671784
-0.0515483 -0.0406644 0.997842 0.0151345
-0.0505522 -0.0355713 0.998088 0.0179229
-0.0492808 -0.0303641 0.998323 0.0112648
-0.0462619 -0.0425362 0.998023 0.00659195
-0.0442721 -0.0443497 0.998035 0.00336284
-0.0481244 -0.0569039 0.997219 0.0371785
-0.0476434 -0.0547054 0.997365 0.0235238
-0.0513047 -0.0645821 0.996593 0.0328967
-0.0498153 -0.0413755 0.997901 0.0353819
-0.0443446 -0.0421483 0.998127 0.0118686
-0.0421402 -0.0456028 0.99807 0.00224763
-0.038767 -0.0446489 0.99825 0
-0.0379667 -0.0393178 0.998505 0
-0.0430653 -0.0252649 0.998753 0
-0.0470529 -0.0372093 0.998199 0
-0.042693 -0.0542503 0.997614 0
-0.0456817 -0.0483105 0.997787 0
-0.0492892 -0.0434352 0.99784 0
-0.049144 -0.0432161 0.997856 0
-0.0477605 -0.0265178 0.998507 0
-0.0431387 -0.0234525 0.998794 0
0.365043 -0.0930808 0.926326 0.0338483
-0.0525294 -0.0433479 0.997678 0.0123225
-0.051571 -0.0343914 0.998077 0.0145754
-0.0544708 -0.0522461 0.997148 0.0294142
-0.0505531 -0.0494533 0.997496 0.0162046
-0.0510981 -0.0599872 0.99689 0.0178698
-0.0491077 -0.0423074 0.997897 0.00691183
-0.0507534 -0.0478976 0.997562 0.0181266
-0.0478236 -0.0550557 0.997337 0.021659
-0.0448695 -0.0598711 0.997197 0.0218376
-0.0464369 -0.0621102 0.996988 0.032745
-0.0494182 -0.0632394 0.996774 0.0408904
-0.0435726 -0.0598093 0.997258 0.0198012
-0.0454519 -0.0505325 0.997688 0.0183756
-0.0434029 -0.0623712 0.997109 0.00530473
-0.0404409 -0.0473117 0.998061 0
-0.0370913 -0.0362342 0.998655 0
-0.0373425 -0.0371184 0.998613 0
-0.0408691 -0.0488165 0.997971 0
-0.0408761 -0.0590748 0.997416 0
-0.046611 -0.0502356 0.997649 0
-0.0472987 -0.0550836 0.997361 0
-0.0462733 -0.0431102 0.997998 0
-0.0428921 -0.0386479 0.998332 0
-0.0400769 -0.0290482 0.998774 0
-0.0428996 -0.0280518 0.998686 0
0.389943 -0.120908 0.912867 0.0593841
-0.051482 -0.0462107 0.997604 0.00419376
-0.054317 -0.0353912 0.997896 0.00823174
-0.052256 -0.0338599 0.99806 0.0124502
-0.0503477 -0.0412012 0.997882 0.0176758
-0.0566282 -0.0563291 0.996805 0.0280007
-0.0473733 -0.0307667 0.998403 0
-0.0505353 -0.0558862 0.997157 0.014814
-0.0483157 -0.0520413 0.997475 0.0117621
-0.0443312 -0.0438644 0.998053 0.00825391
-0.0461702 -0.0641132 0.996874 0.0219466
-0.0458108 -0.0577403 0.99728 0.028362
-0.0479265 -0.0575834 0.99719 0.041801
-0.0443125 -0.0589269 0.997278 0.0275125
-0.0440334 -0.0559584 0.997462 0.0132324
-0.041558 -0.051409 0.997813 0
-0.0399243 -0.0546953 0.997705 0
-0.0376808 -0.0363211 0.99863 0
-0.0399519 -0.0419678 0.99832 0
-0.0414928 -0.0464699 0.998058 0
-0.0398473 -0.0427888 0.998289 0
-0.0445685 -0.0503341 0.997738 0
-0.0414489 -0.0458435 0.998088 0
-0.0387992 -0.0304163 0.998784 0
-0.038435 -0.0274589 0.998884 0
-0.0404005 -0.0328993 0.998642 0
0.35599 -0.116427 0.927209 0.0466866
0.378742 -0.107853 0.919196 0.0479011
-0.0484505 -0.0503066 0.997558 0
-0.052574 -0.0312969 0.998127 0.0097899
-0.0480722 -0.0372488 0.998149 0.00293946
-0.0491924 -0.0422595 0.997895 0.00756583
-0.0507787 -0.0441911 0.997732 0.00894269
-0.0548293 -0.0527257 0.997103 0.0198854
-0.0520315 -0.0488176 0.997451 0.0140846
-0.0486879 -0.0589695 0.997072 0.0188291
-0.0493617 -0.0617161 0.996872 0.0313918
-0.0454946 -0.0594417 0.997195 0.0251431
-0.0462024 -0.0676236 0.996641 0.0305655
-0.0384613 -0.0688783 0.996883 0.018417
-0.0400445 -0.0720911 0.996594 0.0117785
-0.0382696 -0.0562536 0.997683 0.00308421
-0.0369767 -0.0553309 0.997783 0
-0.0354032 -0.0477141 0.998233 0
-0.0390181 -0.0446991 0.998238 0
-0.0405452 -0.0458479 0.998125 0
-0.038882 -0.0538464 0.997792 0
-0.0436463 -0.0468105 0.99795 0
-0.0416049 -0.0365629 0.998465 0
-0.0334092 -0.0331787 0.998891 0
-0.0346093 -0.0250796 0.999086 0
-0.0364928 -0.0262688 0.998989 0
0.338963 -0.110167 0.934327 0.0377997
0.367787 -0.116448 0.92259 0.046339
-0.053094 -0.0563687 0.996997 0.000570122
-0.0523113 -0.0536382 0.997189 0
-0.0491478 -0.0491478 0.997582 0
-0.0519503 -0.048498 0.997471 0.0110444
-0.0572672 -0.0536945 0.996914 0.0199985
-0.051739 -0.0620224 0.996733 0.00572429
-0.0537224 -0.0552824 0.997024 0.0149148
-0.0593463 -0.05449 0.996749 0.0274662
-0.057401 -0.0876063 0.9945 0.0401444
-0.0509935 -0.0792903 0.995546 0.0365369
-0.0494588 -0.0716977 0.996199 0.0231905
-0.0495789 -0.08054 0.995518 0.0277634
-0.0445986 -0.0729529 0.996338 0.0210606
-0.0379525 -0.0591825 0.997525 0
-0.0369216 -0.0585908 0.997599 0
-0.0377263 -0.0514995 0.99796 0
-0.0359771 -0.0584901 0.997639 0
-0.0374863 -0.0642417 0.99723 0
-0.039929 -0.0677932 0.9969 0
-0.0431324 -0.0580071 0.997384 0
-0.046219 -0.0532919 0.997509 0
-0.0433749 -0.0464076 0.99798 0
-0.0394523 -0.0237317 0.99894 0
-0.0396388 -0.0286484 0.998803 0
-0.0389871 -0.033055 0.998693 0
0.321744 -0.108338 0.940608 0.0287939
0.340525 -0.10623 0.934215 0.0300062
-0.0542878 -0.0757542 0.995648 0.0110561
-0.051079 -0.0530423 0.997285 0
-0.0500343 -0.0522479 0.99738 0
-0.0512957 -0.0668549 0.996443 0.0105203
-0.0554418 -0.0673606 0.996187 0.0166827
-0.0587198 -0.0775909 0.995255 0.0253275
-0.0614121 -0.0634978 0.996091 0.0237873
-0.0620872 -0.0738585 0.995334 0.0344273
-0.0581119 -0.0872845 0.994487 0.038552
-0.0505578 -0.080073 0.995506 0.0325685
-0.0506774 -0.0764482 0.995785 0.030092
-0.0536135 -0.0699531 0.996109 0.0285707
-0.0475631 -0.0797748 0.995677 0.00442118
-0.03933 -0.0565538 0.997625 0
-0.0354032 -0.0693562 0.996964 0
-0.0383442 -0.0610383 0.997399 0
-0.0408062 -0.0621463 0.997232 0
-0.0378349 -0.063524 0.997263 0
-0.0410227 -0.064502 0.997074 0
-0.0442608 -0.0618968 0.997101 0
-0.0488162 -0.0443906 0.997821 0
-0.0463236 -0.0292063 0.998499 0
-0.0439849 -0.0213745 0.998804 0
-0.0404828 -0.0347773 0.998575 0
-0.0421422 -0.0373158 0.998414 0
0.312096 -0.112913 0.943317 0.022119
0.317513 -0.103555 0.942583 0.0201443
-0.0562523 -0.0594672 0.996644 0.0173365
-0.0557466 -0.0760896 0.995541 0.00893851
-0.0536309 -0.0748929 0.995748 0
-0.046618 -0.0500621 0.997658 0
-0.0497135 -0.0468618 0.997664 0
-0.0529771 -0.0532244 0.997176 0.0123926
-0.0581475 -0.0643672 0.996231 0.0213393
-0.0574443 -0.0731231 0.995667 0.0261318
-0.0578317 -0.0700917 0.995863 0.0319568
-0.0572634 -0.0877293 0.994497 0.0407394
-0.0496028 -0.0744022 0.995994 0.035028
-0.0478519 -0.0648827 0.996745 0.0230891
-0.0491367 -0.075696 0.99592 0.0256565
-0.0469657 -0.0776883 0.995871 0.000402789
-0.0415527 -0.0697786 0.996697 0
-0.0403933 -0.0575344 0.997526 0
-0.0453446 -0.0654004 0.996828 0
-0.0439578 -0.0745702 0.996246 0
-0.0410674 -0.0611757 0.997282 0
-0.0406114 -0.0474082 0.99805 0
-0.0459408 -0.060212 0.997128 0
-0.0486349 -0.0481474 0.997656 0
-0.0463223 -0.0410427 0.998083 0
-0.0484473 -0.0377263 0.998113 0
-0.0452622 -0.0155833 0.998854 0
0.310125 -0.0953941 0.945898 0.00425189
-0.0544566 -0.0526365 0.997128 0.018482
-0.0523471 -0.0681724 0.996299 0.00748114
-0.0537291 -0.0547325 0.997054 0.00407189
-0.0483877 -0.0479922 0.997675 0
-0.0487881 -0.0449509 0.997797 0
-0.0483258 -0.0579452 0.997149 0
-0.0496087 -0.0629066 0.996786 0
-0.0535862 -0.0651154 0.996438 0.012537
-0.0547043 -0.0604875 0.996669 0.0166188
-0.0558796 -0.0748926 0.995625 0.0299615
-0.0457058 -0.0585802 0.997236 0.0112421
-0.0452064 -0.0646692 0.996882 0.00118458
-0.0493618 -0.0727143 0.996131 0.0166525
-0.0512224 -0.0891887 0.994697 0.0162303
-0.0410276 -0.060502 0.997325 0
-0.0410335 -0.0613581 0.997272 0
-0.0459187 -0.0698034 0.996503 0.00908154
-0.0472522 -0.0633397 0.996873 0.00342686
-0.0464535 -0.0708176 0.996407 0.00333838
-0.0429239 -0.047487 0.997949 0
-0.0557409 -0.0807012 0.995179 0.0229216
-0.0490132 -0.0631701 0.996798 0.00452291
-0.0467391 -0.0520179 0.997552 0
-0.0452505 -0.044233 0.997996 0
-0.0454544 -0.0337876 0.998395 0
0.308947 -0.112397 0.944415 0.0140149
-0.0552342 -0.0679759 0.996157 0.0115756
-0.0560696 -0.0729849 0.995756 0.0170237
-0.050824 -0.065541 0.996555 0
-0.0473603 -0.0671285 0.99662 0
-0.0466532 -0.0484536 0.997735 0
-0.0472974 -0.0497221 0.997643 0
-0.047313 -0.0573474 0.997233 0
-0.0463502 -0.0533741 0.997498 0.0020537
-0.0543351 -0.0796812 0.995338 0.00701398
-0.0554557 -0.0730084 0.995788 0.00845539
-0.0540456 -0.076025 0.99564 0.00274032
-0.0514757 -0.0676583 0.99638 0.00386344
-0.0465238 -0.0717786 0.996335 0.00227146
-0.0507513 -0.0833212 0.99523 0.0117343
-0.0459688 -0.0636435 0.996913 0
-0.0430122 -0.0590995 0.997325 0.00332579
-0.0432592 -0.0660814 0.996876 0.0112191
-0.0442551 -0.0705197 0.996528 0.0074502
-0.0434758 -0.0739368 0.996315 0
-0.0486613 -0.0698934 0.996367 0.0119691
-0.0524364 -0.0738882 0.995887 0.00906944
-0.0539178 -0.0662714 0.996344 0.0131546
-0.0507914 -0.0804484 0.995464 0.0134253
-0.0445248 -0.0517509 0.997667 0
-0.0440564 -0.0485182 0.99785 0
0.297325 -0.0987651 0.949654 0
-0.060104 -0.0715331 0.995626 0.014824
-0.0544639 -0.0614706 0.996622 0.00670862
-0.0479289 -0.0644383 0.99677 0.00442991
-0.0483788 -0.0509545 0.997528 0.000441882
-0.0485029 -0.0533435 0.997398 0
-0.0429454 -0.0448605 0.99807 0
-0.0429029 -0.051891 0.997731 0
-0.0488829 -0.0593322 0.997041 0.00100777
-0.0533602 -0.0641246 0.996514 0.00167215
-0.0518712 -0.0680437 0.996333 0
-0.0516692 -0.0665416 0.996445 0.005052
-0.0516646 -0.065804 0.996494 0
-0.0519394 -0.0750035 0.99583 0.0137302
-0.0452508 -0.0623116 0.99703 0
-0.0396764 -0.0655976 0.997057 0
-0.0396624 -0.0708306 0.9967 0.00657964
-0.0403721 -0.0649424 0.997072 0
-0.0445416 -0.0720147 0.996408 0.00171396
-0.0485467 -0.0759187 0.995932 0.0110377
-0.0509231 -0.0768895 0.995738 0.0132255
-0.0515098 -0.0603596 0.996847 0.00828124
-0.0493706 -0.0560124 0.997209 0.000306204
-0.0458812 -0.0723272 0.996325 0
-0.044841 -0.0505871 0.997712 0
-0.0646931 -0.0711861 0.995363 0.0192287
-0.0622508 -0.0570215 0.99643 0.0111679
-0.0602924 -0.0660697 0.995992 0.0120405
-0.0573748 -0.062529 0.996393 0.00863945
-0.0512252 -0.0482457 0.997521 0
-0.0501199 -0.0601755 0.996929 0
-0.0512282 -0.0318448 0.998179 0
-0.0503609 -0.0392701 0.997959 0
-0.0501164 -0.0461941 0.997675 0
-0.0517315 -0.0493632 0.99744 0
-0.0494937 -0.0616475 0.99687 0
-0.0496246 -0.0388202 0.998013 0
-0.0510467 -0.0552663 0.997166 0.00414817
-0.0524647 -0.0779495 0.995576 0.0127363
-0.0537272 -0.0625395 0.996595 0.0234359
-0.0474229 -0.0689903 0.99649 0
-0.0443271 -0.0747457 0.996217 0.00185553
-0.0442616 -0.0795762 0.995846 0.00813679
-0.0435395 -0.0754451 0.996199 0.0118581
-0.0461518 -0.0728534 0.996274 0.0110662
-0.0502101 -0.086244 0.995008 0.0155845
-0.0466968 -0.0713655 0.996357 0.00669705
-0.0512796 -0.0582518 0.996984 0.00727069
-0.0517715 -0.0510868 0.997351 0.00194338
-0.0524171 -0.0653423 0.996485 0.00288798
-0.0669735 -0.0596906 0.995968 0.0174096
-0.0636189 -0.0884134 0.99405 0.0177528
-0.0597327 -0.0604952 0.99638 0.0106899
-0.0523822 -0.0538156 0.997176 0
-0.0504077 -0.0570385 0.997099 0
-0.0493222 -0.0397307 0.997992 0
-0.0529663 -0.0442612 0.997615 0
-0.052203 -0.0344259 0.998043 0
-0.0535054 -0.0342328 0.997981 0
-0.0518575 -0.0404494 0.997835 0
-0.0504988 -0.0432139 0.997789 0
-0.0495539 -0.0599573 0.99697 0
-0.0484223 -0.0646659 0.996731 0.00182486
-0.0530035 -0.0649982 0.996477 0.00559703
-0.0477294 -0.0634545 0.996843 0
-0.0440181 -0.0625146 0.997073 0.00510308
-0.0448231 -0.0770353 0.99602 0.00325888
-0.047096 -0.0667362 0.996659 0.0110886
-0.0438267 -0.0658161 0.996869 0
-0.0435352 -0.0655809 0.996897 0.000206125
-0.0496564 -0.0660726 0.996578 0.00888947
-0.0489084 -0.058092 0.997112 0
-0.052063 -0.0567852 0.997028 0
-0.059356 -0.0805759 0.99498 0.00787086
-0.0594104 -0.086286 0.994497 0.0159007
-0.0571583 -0.0695482 0.99594 0.00350226
-0.0562204 -0.0651852 0.996288 0.00692948
-0.0547232 -0.0442764 0.997519 0.00211153
-0.0509204 -0.0484704 0.997526 0
-0.0497907 -0.0216824 0.998524 0
-0.050825 -0.033191 0.998156 0
-0.0523563 -0.0307759 0.998154 0
-0.0514795 -0.0398386 0.997879 0
-0.0526158 -0.0400216 0.997813 0
-0.0499846 -0.0452899 0.997723 0
-0.050529 -0.0510308 0.997418 0
-0.05085 -0.0471933 0.997591 0
-0.0491118 -0.0489254 0.997594 0
-0.0490243 -0.0572387 0.997156 0
-0.0435324 -0.0657944 0.996883 0.000484158
-0.0466858 -0.0778326 0.995873 0.0162886
-0.0423923 -0.0637546 0.997065 0
-0.0439742 -0.066513 0.996816 0
-0.0460394 -0.0605853 0.997101 0.0155947
-0.0445097 -0.0470577 0.9979 0
-0.0642671 -0.0590476 0.996184 0.00243147
-0.0634352 -0.0741611 0.995227 0.00592375
-0.0619669 -0.0831598 0.994608 0.00993591
-0.0564508 -0.0734589 0.995699 0
-0.0543202 -0.0620885 0.996591 0.00988976
-0.0591776 -0.0551187 0.996725 0.0172153
-0.0520785 -0.0384768 0.997901 0
-0.0483793 -0.0378353 0.998112 0
-0.0479989 -0.0195058 0.998657 0
-0.0542479 -0.0394076 0.99775 0
-0.0542208 -0.0442613 0.997548 0
-0.0542041 -0.0417521 0.997657 0
-0.0512064 -0.0246371 0.998384 0
-0.0519707 -0.0389628 0.997888 0
-0.0540596 -0.0509553 0.997237 0
-0.0536832 -0.0548869 0.997048 0.00581392
-0.0514022 -0.0482613 0.997511 0
-0.0503965 -0.0537905 0.99728 0
-0.0465827 -0.0743269 0.996145 0
-0.045278 -0.0627366 0.997003 0
-0.0420445 -0.0608108 0.997263 0
-0.0427223 -0.0682535 0.996753 0
0.317638 -0.0678068 0.945785 0.0170808
-0.0614074 -0.0651337 0.995985 0
