# .PCD v0.7 - Point Cloud Data file format
VERSION 0.7
FIELDS x y z
SIZE 4 4 4
TYPE F F F
COUNT 1 1 1
WIDTH 1321
HEIGHT 1
VIEWPOINT 0 0 0 1 0 0 0
POINTS 1321
DATA ascii
-0.087212503 -0.26829702 -0.39955848
-0.087078504 -0.26829797 -0.399481
-0.086948499 -0.26830399 -0.39943248
-0.087203994 -0.268152 -0.39956701
-0.087087713 -0.26810673 -0.3994897
-0.086939 -0.268123 -0.39943233
-0.087076284 -0.26791102 -0.39951015
-0.086926997 -0.26790634 -0.39944401
-0.087067753 -0.26770198 -0.39951727
-0.086948194 -0.26767278 -0.39946598
-0.087079003 -0.26750299 -0.39953852
-0.086938001 -0.26748541 -0.39948159
-0.087068997 -0.26732299 -0.39955631
-0.086946003 -0.26731041 -0.39948601
-0.087057672 -0.26710433 -0.39954698
-0.086926162 -0.26710904 -0.39949298
-0.087045997 -0.26688799 -0.39955965
-0.086914502 -0.26689133 -0.39949217
-0.087034009 -0.26667202 -0.3995693
-0.086903162 -0.26667464 -0.39949283
-0.087024495 -0.266491 -0.39957398
-0.086894006 -0.2664935 -0.39949
-0.087015003 -0.26630935 -0.39957404
-0.086884342 -0.26631251 -0.39949402
-0.087005004 -0.266128 -0.39957851
-0.086890422 -0.26608488 -0.39951596
-0.086879 -0.26588929 -0.39953271
-0.086849749 -0.26569951 -0.399535
-0.086861752 -0.26553601 -0.3995645
-0.086795002 -0.26548499 -0.39954048
-0.086870007 -0.26529899 -0.39957932
-0.086784996 -0.2653037 -0.39954832
-0.086858332 -0.26508233 -0.3995873
-0.086773336 -0.26508698 -0.39955202
-0.086849004 -0.26490101 -0.39958
-0.086764 -0.26490599 -0.3995485
-0.086838998 -0.26471999 -0.39958334
-0.086754657 -0.26472399 -0.39954367
-0.086827666 -0.26450333 -0.39959201
-0.086742997 -0.26450667 -0.39954934
-0.086483665 -0.264505 -0.39940634
-0.086815991 -0.26428601 -0.39959466
-0.086732 -0.26428965 -0.39954802
-0.086722001 -0.26410902 -0.39955002
-0.086712666 -0.26392698 -0.39954865
-0.086452998 -0.26392531 -0.39940301
-0.086700328 -0.26371101 -0.39956334
-0.086441338 -0.26370934 -0.39941466
-0.086688004 -0.263495 -0.39958599
-0.086429663 -0.263493 -0.39942336
-0.086676337 -0.26327699 -0.39959064
-0.086416997 -0.263275 -0.39944002
-0.086666003 -0.26309699 -0.399598
-0.086408004 -0.26309499 -0.39944601
-0.086234003 -0.26300499 -0.39941099
-0.086658999 -0.26295099 -0.39959499
-0.086401001 -0.26298699 -0.39945501
-0.086311996 -0.26288724 -0.39943498
-0.086302169 -0.26270717 -0.39944601
-0.086290337 -0.26248983 -0.39945182
-0.086364001 -0.26229948 -0.39948702
-0.086175002 -0.26227039 -0.39942721
-0.086353332 -0.262119 -0.39949965
-0.086160995 -0.26210451 -0.39943877
-0.086341999 -0.26190266 -0.399501
-0.086151332 -0.26192433 -0.39943787
-0.086329997 -0.26168466 -0.39950499
-0.086128153 -0.26169699 -0.39943886
-0.086319998 -0.26150399 -0.399519
-0.086109497 -0.2614994 -0.39944401
-0.086309999 -0.26132366 -0.39953366
-0.086085498 -0.26128316 -0.3994416
-0.086297996 -0.26110601 -0.39954233
-0.08608871 -0.26110741 -0.39946055
-0.086286336 -0.26088932 -0.39954999
-0.086071447 -0.26091188 -0.39946166
-0.086276993 -0.260708 -0.3995465
-0.086059995 -0.26069456 -0.39945877
-0.086266004 -0.26052734 -0.39957568
-0.086057834 -0.26050183 -0.3994725
-0.085927404 -0.26046678 -0.39942357
-0.086254001 -0.26031068 -0.39958468
-0.086068407 -0.26031598 -0.399501
-0.085929498 -0.26030049 -0.39944124
-0.086241998 -0.26009265 -0.39959669
-0.086052336 -0.26011533 -0.399515
-0.085919999 -0.26011983 -0.3994495
-0.086231001 -0.25987601 -0.39959332
-0.086041331 -0.25989768 -0.39950919
-0.085908331 -0.25990269 -0.39944816
-0.086222999 -0.25973001 -0.399598
-0.086029492 -0.25968084 -0.39951968
-0.085896827 -0.25968501 -0.39945149
-0.086209998 -0.25947702 -0.399591
-0.086043499 -0.25949699 -0.3995375
-0.0859235 -0.25950465 -0.39946666
-0.086204 -0.259368 -0.399591
-0.086099602 -0.2592926 -0.39955777
-0.08591412 -0.25932288 -0.3994669
-0.086064748 -0.25911075 -0.39955425
-0.085902549 -0.25910589 -0.39947021
-0.086010337 -0.25887966 -0.39954832
-0.08593899 -0.25888717 -0.39947852
-0.085795999 -0.25889066 -0.39943767
-0.086002 -0.258735 -0.399562
-0.085942999 -0.25869781 -0.39950079
-0.085786998 -0.25871 -0.399436
-0.085943103 -0.25852299 -0.39951622
-0.085777998 -0.25852832 -0.39941967
-0.085930675 -0.25830579 -0.39953154
-0.085765332 -0.25831065 -0.39944634
-0.08592011 -0.25808844 -0.39951456
-0.085754 -0.25809401 -0.39944831
-0.085903756 -0.25788087 -0.39950091
-0.085742332 -0.25787666 -0.39944601
-0.086116001 -0.25770199 -0.39959899
-0.085906707 -0.25770488 -0.39952317
-0.085732996 -0.25769699 -0.3994475
-0.085889444 -0.25750887 -0.39951566
-0.085723005 -0.25751469 -0.39945635
-0.085877784 -0.25729191 -0.3995218
-0.085712336 -0.25729832 -0.39944199
-0.085861757 -0.25708461 -0.39949885
-0.085701667 -0.25708064 -0.399423
-0.085865989 -0.25690871 -0.39949685
-0.085692003 -0.25690001 -0.3994205
-0.085863426 -0.25672272 -0.39950004
-0.085729197 -0.2567032 -0.39942721
-0.085861832 -0.25649431 -0.39951184
-0.085729659 -0.25650099 -0.39943764
-0.086041003 -0.25625199 -0.399582
-0.085850663 -0.25627667 -0.39950049
-0.085718662 -0.25628296 -0.39943066
-0.086034998 -0.25614399 -0.39958
-0.085841499 -0.25609624 -0.39950374
-0.085709497 -0.25610152 -0.39942199
-0.086023003 -0.25592601 -0.39959198
-0.085831501 -0.25591484 -0.39950716
-0.085758992 -0.25591999 -0.39943433
-0.085833997 -0.25571325 -0.39949924
-0.085766599 -0.2556878 -0.39944577
-0.085833661 -0.25547734 -0.39950168
-0.085761666 -0.25548518 -0.39943781
-0.085822999 -0.25529498 -0.39951301
-0.085751995 -0.2553035 -0.39943725
-0.085879594 -0.25509119 -0.3995378
-0.085743003 -0.25512299 -0.39943066
-0.08590281 -0.25489897 -0.39954859
-0.085756406 -0.25490439 -0.39944142
-0.085958004 -0.25469452 -0.399591
-0.085769333 -0.25468415 -0.39945436
-0.085948668 -0.25451335 -0.39959002
-0.085742503 -0.25448099 -0.39943865
-0.085937671 -0.254296 -0.39957866
-0.085754402 -0.25430721 -0.39944962
-0.085927002 -0.25407898 -0.39957133
-0.085739501 -0.25410533 -0.39944398
-0.085917503 -0.25389701 -0.39955801
-0.085728161 -0.25388834 -0.39943752
-0.085909009 -0.25371766 -0.39954266
-0.08572533 -0.25366965 -0.39943099
-0.085897662 -0.2534993 -0.39954135
-0.085732996 -0.25352231 -0.39944634
-0.085886329 -0.25328201 -0.39954004
-0.085698336 -0.25330916 -0.39942482
-0.085877001 -0.25310099 -0.39953899
-0.085699499 -0.25310776 -0.39943397
-0.08586701 -0.25292 -0.399542
-0.085701004 -0.25290599 -0.39943451
-0.085855998 -0.25270233 -0.3995367
-0.085691668 -0.25272465 -0.39943835
-0.085845001 -0.25248501 -0.3995297
-0.085680999 -0.25250834 -0.39942732
-0.085835502 -0.25230348 -0.39952651
-0.085667998 -0.25225499 -0.39941299
-0.085827328 -0.25212368 -0.39949635
-0.085660502 -0.2521095 -0.39940649
-0.085816331 -0.25190699 -0.39948833
-0.085806996 -0.25169066 -0.39944801
-0.085796677 -0.25147465 -0.39942333
-0.085790001 -0.251331 -0.39940301
-0.058656998 -0.2513285 -0.39955848
-0.086035334 -0.2511 -0.39959168
-0.058534 -0.25100601 -0.39958099
-0.086025 -0.25088367 -0.39955768
-0.058636334 -0.25092602 -0.39954701
-0.058535997 -0.25091171 -0.39956275
-0.086016998 -0.25070399 -0.39953601
-0.058630001 -0.25077999 -0.39951199
-0.058512855 -0.25073671 -0.39952531
-0.086028002 -0.25050223 -0.39953876
-0.086061001 -0.25031799 -0.39955375
-0.085996501 -0.25027099 -0.3994855
-0.086070329 -0.25008032 -0.39954796
-0.085987329 -0.25008968 -0.39947069
-0.086090676 -0.24988566 -0.39954367
-0.085978001 -0.24987501 -0.39943501
-0.086097002 -0.24971598 -0.39954135
-0.0859695 -0.24969551 -0.39941651
-0.086086996 -0.24949984 -0.39951149
-0.085964002 -0.249586 -0.39940199
-0.086076669 -0.24928284 -0.39949402
-0.086068004 -0.24910299 -0.39947125
-0.086059332 -0.24892233 -0.39945582
-0.086091995 -0.24870102 -0.399483
-0.086116396 -0.2484936 -0.39951622
-0.086125404 -0.2483176 -0.39952219
-0.0860992 -0.24813262 -0.39947623
-0.086139999 -0.24789535 -0.399519
-0.086205997 -0.247667 -0.3996
-0.086130001 -0.24767832 -0.39949432
-0.057757001 -0.247656 -0.399589
-0.086203001 -0.247593 -0.399584
-0.086159497 -0.24749249 -0.39952451
-0.057751998 -0.24751265 -0.39954934
-0.086151332 -0.24731283 -0.39949366
-0.057741661 -0.24729533 -0.39951363
-0.086243667 -0.24708132 -0.39958701
-0.086180001 -0.24709167 -0.39951232
-0.057731502 -0.24711099 -0.39952499
-0.086235501 -0.246902 -0.39955601
-0.086169995 -0.24687533 -0.39947501
-0.057820331 -0.24692267 -0.39948735
-0.057721 -0.24692599 -0.39954337
-0.086255334 -0.24671949 -0.399555
-0.086162001 -0.246696 -0.39944899
-0.057808001 -0.24670066 -0.39949736
-0.057708997 -0.246704 -0.39955869
-0.08625672 -0.24649273 -0.39952543
-0.086153664 -0.246516 -0.39942601
-0.057801001 -0.246556 -0.39948699
-0.057735801 -0.24646661 -0.39954299
-0.086263224 -0.24628645 -0.39949921
-0.086147003 -0.246373 -0.399407
-0.057734497 -0.24629375 -0.39957753
-0.086314224 -0.24611187 -0.39950752
-0.057774 -0.246141 -0.399591
-0.086438 -0.24586549 -0.39957798
-0.08635056 -0.24591599 -0.39949486
-0.057764001 -0.245956 -0.39959899
-0.086446002 -0.24566701 -0.39954174
-0.086355709 -0.24571002 -0.3994557
-0.086447798 -0.2454828 -0.39951679
-0.086360201 -0.2454966 -0.3994292
-0.086453199 -0.245309 -0.39950022
-0.086368002 -0.24533901 -0.39941099
-0.086472407 -0.2451034 -0.39949518
-0.086490199 -0.2448694 -0.39949238
-0.086489752 -0.24470201 -0.3994855
-0.086480342 -0.24452032 -0.39948547
-0.086468674 -0.24430199 -0.39948353
-0.08645767 -0.24408418 -0.39947352
-0.086447999 -0.243902 -0.399472
-0.086457752 -0.243734 -0.39951301
-0.086375333 -0.24368034 -0.39942065
-0.086463496 -0.243524 -0.39958298
-0.086353995 -0.24350782 -0.39944518
-0.086295776 -0.24328889 -0.39947402
-0.086265579 -0.24311717 -0.39953116
-0.086139247 -0.24306649 -0.39944372
-0.086218499 -0.24299151 -0.39956051
-0.086073793 -0.24290439 -0.39950761
-0.085919 -0.2428385 -0.39943349
-0.086046502 -0.242781 -0.39957452
-0.085922994 -0.24274366 -0.39952135
-0.085746668 -0.24268633 -0.39944696
-0.085593998 -0.242597 -0.39943901
-0.074897997 -0.274461 -0.39931801
-0.074689999 -0.27447 -0.39922601
-0.074464001 -0.274407 -0.39920199
-0.076871671 -0.27420533 -0.39924368
-0.076655999 -0.27421799 -0.39922801
-0.076587997 -0.27421999 -0.39923099
-0.075276799 -0.27433142 -0.39926037
-0.075093664 -0.27435234 -0.39927235
-0.074921995 -0.27438098 -0.39925301
-0.074796997 -0.27439201 -0.39923599
-0.080105998 -0.274028 -0.39939401
-0.079732664 -0.27405563 -0.39936733
-0.079544999 -0.27406099 -0.399378
-0.079278998 -0.274073 -0.39934599
-0.079131499 -0.274113 -0.39929774
-0.078932166 -0.27411786 -0.39927232
-0.078727253 -0.27413601 -0.3992525
-0.082194 -0.27381799 -0.39939401
-0.081672996 -0.273857 -0.399396
-0.081275001 -0.273801 -0.39935401
-0.081093505 -0.2738145 -0.39936948
-0.080879331 -0.27382731 -0.39938366
-0.080699168 -0.27386585 -0.39934948
-0.080496997 -0.27388349 -0.399326
-0.080374502 -0.27388501 -0.39928299
-0.080107003 -0.27394199 -0.39927801
-0.079855755 -0.27392375 -0.39927801
-0.079733334 -0.27397233 -0.39925835
-0.079548001 -0.27397099 -0.39921999
-0.079279996 -0.27398899 -0.39923
-0.083246 -0.2736195 -0.39939648
-0.083012 -0.27362701 -0.39939699
-0.082884669 -0.27363101 -0.39937699
-0.082698859 -0.2736803 -0.39934674
-0.082497664 -0.27368069 -0.39932433
-0.082382999 -0.2736935 -0.39931101
-0.082192495 -0.27370048 -0.39930898
-0.081934497 -0.27371502 -0.39929751
-0.081732161 -0.27373168 -0.39927366
-0.081456006 -0.273711 -0.39927164
-0.081271999 -0.27368551 -0.39929402
-0.081089832 -0.27369902 -0.39930367
-0.080877505 -0.27370784 -0.39928401
-0.080714338 -0.27373317 -0.39924216
-0.080536 -0.27376401 -0.399239
-0.084468998 -0.273415 -0.399398
-0.084339499 -0.27341199 -0.399367
-0.084083401 -0.27345282 -0.39935341
-0.083935998 -0.27346349 -0.3993265
-0.083699003 -0.27348176 -0.39933324
-0.083502501 -0.27348849 -0.39931226
-0.083284996 -0.27350166 -0.39934114
-0.083061799 -0.27349141 -0.39934677
-0.082873367 -0.27348763 -0.39930463
-0.082707547 -0.27349889 -0.39925519
-0.082523666 -0.27355132 -0.399243
-0.082379997 -0.27357599 -0.39923999
-0.08219 -0.27358299 -0.39921501
-0.081270002 -0.273568 -0.399212
-0.081115 -0.27355766 -0.39923367
-0.080906004 -0.27359024 -0.39921451
-0.084672496 -0.27325749 -0.39938349
-0.084465995 -0.2732985 -0.39933097
-0.084336497 -0.27329651 -0.39930326
-0.084097661 -0.27330616 -0.3992697
-0.083931506 -0.27331048 -0.39925399
-0.083694994 -0.27332848 -0.39924702
-0.083499998 -0.27337301 -0.39923447
-0.083299495 -0.27332902 -0.39926276
-0.083110861 -0.27332258 -0.39927331
-0.082892999 -0.27330443 -0.39922884
-0.082780004 -0.27333099 -0.399214
-0.084844753 -0.27305725 -0.39937025
-0.084702879 -0.27310455 -0.39932865
-0.084459998 -0.27310702 -0.39923835
-0.084339797 -0.27312142 -0.39922199
-0.084140003 -0.27319151 -0.3992165
-0.083120339 -0.27314734 -0.39921403
-0.082997002 -0.27317399 -0.39920801
-0.085691005 -0.27284199 -0.39938051
-0.085532002 -0.272847 -0.39938
-0.085368998 -0.27285099 -0.39937499
-0.085088998 -0.27287099 -0.39938399
-0.084839247 -0.27290675 -0.39931571
-0.084706619 -0.27288887 -0.39925164
-0.085879497 -0.27267376 -0.39937773
-0.085724719 -0.27267969 -0.39934471
-0.085527338 -0.27269599 -0.39931667
-0.085364662 -0.27269831 -0.39929
-0.085083336 -0.27272168 -0.39933801
-0.084831834 -0.27272049 -0.39926371
-0.084758505 -0.27269199 -0.3992165
-0.086068496 -0.27248102 -0.399387
-0.0858794 -0.2725108 -0.39933738
-0.085723996 -0.2724995 -0.39929602
-0.085520506 -0.27250952 -0.399261
-0.085357502 -0.2725105 -0.399223
-0.085076004 -0.27249599 -0.39924833
-0.084826499 -0.2725715 -0.39921153
-0.086320996 -0.27225 -0.399391
-0.086061001 -0.27229401 -0.39932799
-0.085864998 -0.27230236 -0.39927468
-0.085716508 -0.27231443 -0.39924839
-0.085513502 -0.27236152 -0.39922801
-0.086314499 -0.272102 -0.39936101
-0.086054504 -0.27210802 -0.39927101
-0.085855335 -0.27208015 -0.39922702
-0.085744008 -0.2721 -0.39922029
-0.086539999 -0.27184552 -0.399389
-0.086306669 -0.27191767 -0.39932632
-0.086046003 -0.27192399 -0.39923799
-0.085767001 -0.271938 -0.39920199
-0.086641505 -0.271662 -0.39938301
-0.086534329 -0.27169684 -0.39934564
-0.086297333 -0.271696 -0.39927235
-0.086035334 -0.271705 -0.39921799
-0.086850002 -0.27145401 -0.399387
-0.086653799 -0.27149001 -0.39935482
-0.086513594 -0.2714898 -0.39929861
-0.08628767 -0.271476 -0.39924064
-0.086843669 -0.27130666 -0.39936733
-0.086655796 -0.27131242 -0.39932558
-0.086529203 -0.27131361 -0.39927381
-0.086278498 -0.271294 -0.39922249
-0.086833328 -0.27108833 -0.39934599
-0.086640991 -0.27110836 -0.39930797
-0.086507827 -0.27110949 -0.39925349
-0.086273998 -0.27118301 -0.399205
-0.086824 -0.270906 -0.39934099
-0.086629175 -0.2708925 -0.39931765
-0.086496167 -0.27089283 -0.39925718
-0.086813003 -0.27072766 -0.39936534
-0.086641334 -0.27067399 -0.39934036
-0.086521 -0.27067691 -0.39927468
-0.086804003 -0.27054501 -0.39935601
-0.086688668 -0.27047166 -0.39931798
-0.086512171 -0.27049431 -0.39925897
-0.08670783 -0.2703 -0.39932001
-0.086502664 -0.27031356 -0.39925799
-0.086680397 -0.27009881 -0.3993156
-0.086539336 -0.2700952 -0.39926219
-0.086396001 -0.27009666 -0.39923301
-0.086705193 -0.269921 -0.39931521
-0.086538292 -0.26986685 -0.39925185
-0.086385332 -0.26987901 -0.39921665
-0.086760998 -0.26971164 -0.39933434
-0.086543173 -0.26969466 -0.39926049
-0.086376503 -0.26969701 -0.39920551
-0.086750329 -0.26949367 -0.39932236
-0.086534224 -0.26951391 -0.39925486
-0.086364999 -0.26947999 -0.39920801
-0.086738326 -0.26927701 -0.39933237
-0.086522222 -0.26929802 -0.39926589
-0.086355001 -0.26929966 -0.39921734
-0.086729005 -0.26909751 -0.39933002
-0.086510666 -0.26908091 -0.39926779
-0.086342998 -0.2690843 -0.39922667
-0.086719334 -0.26891601 -0.39933035
-0.086500831 -0.26890135 -0.39927816
-0.086334005 -0.26890299 -0.399223
-0.086708337 -0.26869866 -0.39932564
-0.086491667 -0.26871955 -0.39926621
-0.086323999 -0.26872233 -0.39923069
-0.08669699 -0.26848134 -0.39931965
-0.086494997 -0.26849055 -0.39925361
-0.086313337 -0.26850531 -0.39921331
-0.086687997 -0.2683 -0.39931399
-0.086469665 -0.26828432 -0.39924467
-0.086677998 -0.26811901 -0.39931634
-0.086460173 -0.26810369 -0.39924702
-0.086666666 -0.267903 -0.39932466
-0.086457506 -0.26793101 -0.39924401
-0.086311497 -0.26790798 -0.39921576
-0.086654998 -0.26768568 -0.39932799
-0.086463831 -0.26770601 -0.3992683
-0.086330175 -0.26770818 -0.39921984
-0.086646006 -0.2675035 -0.39931449
-0.086452335 -0.26748851 -0.39926705
-0.086319171 -0.26749083 -0.39921367
-0.086635999 -0.26732302 -0.39932737
-0.086437002 -0.26728621 -0.39925978
-0.086296603 -0.2672888 -0.39921719
-0.086623996 -0.26710734 -0.39932999
-0.086437799 -0.26711199 -0.39926302
-0.086329751 -0.26712802 -0.39921248
-0.086612999 -0.26688865 -0.39931902
-0.086435251 -0.26692501 -0.39926428
-0.086367399 -0.26689658 -0.39922342
-0.086603999 -0.26670799 -0.39932349
-0.086434998 -0.26668832 -0.39926767
-0.086361498 -0.26669532 -0.39923283
-0.08650934 -0.26649934 -0.39928582
-0.086328708 -0.26646814 -0.39923772
-0.086514995 -0.26630419 -0.39930898
-0.086339757 -0.266298 -0.39924675
-0.086197004 -0.26629999 -0.3992185
-0.086504005 -0.26611638 -0.39933223
-0.086339712 -0.26610643 -0.39926744
-0.086186998 -0.26611868 -0.39922366
-0.086557992 -0.26587799 -0.3993597
-0.086342111 -0.26589969 -0.39928925
-0.086175673 -0.26590267 -0.39922401
-0.086548001 -0.26569802 -0.39937598
-0.086330444 -0.26568365 -0.39929679
-0.086162992 -0.26568601 -0.39925066
-0.086538009 -0.26551801 -0.39938965
-0.086320333 -0.26550201 -0.39930549
-0.086153999 -0.26550701 -0.39924401
-0.086526334 -0.26530033 -0.39938632
-0.086310327 -0.26532188 -0.39931834
-0.086143337 -0.26532567 -0.39926267
-0.085961998 -0.26525599 -0.39920199
-0.086515009 -0.26508299 -0.39938101
-0.086299114 -0.26510546 -0.39931786
-0.086131997 -0.26510799 -0.39926133
-0.085956 -0.26514697 -0.399207
-0.086505502 -0.26490301 -0.399387
-0.08628767 -0.26488841 -0.399313
-0.086121 -0.264891 -0.39925933
-0.085942 -0.26489469 -0.39921832
-0.086495996 -0.26472101 -0.39938831
-0.08627785 -0.26469186 -0.39930788
-0.08610899 -0.26467499 -0.39926329
-0.085930668 -0.26467666 -0.399214
-0.08626838 -0.26451689 -0.39931139
-0.086098999 -0.264494 -0.39927
-0.085921004 -0.264496 -0.39921349
-0.086473666 -0.26428634 -0.399382
-0.086257219 -0.26430911 -0.39931387
-0.086090334 -0.26431265 -0.39926398
-0.085914001 -0.26435202 -0.39921299
-0.086463004 -0.26410598 -0.39939451
-0.08626128 -0.2641013 -0.39930567
-0.086125001 -0.26408058 -0.39926797
-0.086255208 -0.26388919 -0.39932579
-0.086125337 -0.26387867 -0.39929152
-0.085887 -0.263845 -0.39921302
-0.086254999 -0.26371521 -0.3993426
-0.086115502 -0.263697 -0.39929473
-0.085878998 -0.26370099 -0.399223
-0.086239167 -0.26351297 -0.39934871
-0.086106002 -0.26351717 -0.39929768
-0.08586967 -0.26352033 -0.3992227
-0.086232603 -0.26331079 -0.39936778
-0.086109005 -0.26329011 -0.39931083
-0.085857004 -0.26330432 -0.39924267
-0.086241007 -0.26311401 -0.39939499
-0.086118437 -0.26308429 -0.39933243
-0.085846007 -0.26308733 -0.39923799
-0.086108327 -0.26290366 -0.39934567
-0.085835993 -0.262907 -0.39925498
-0.086110495 -0.26273188 -0.39936286
-0.085868247 -0.26270801 -0.39929724
-0.08613383 -0.26250499 -0.399382
-0.08590167 -0.26250902 -0.39932832
-0.085549995 -0.262485 -0.39921001
-0.086109996 -0.262306 -0.39938748
-0.085908607 -0.26230684 -0.39934239
-0.085796997 -0.26222101 -0.39930001
-0.08554066 -0.26230368 -0.39920834
-0.086086497 -0.26210701 -0.399391
-0.085967332 -0.26207367 -0.39936399
-0.085790001 -0.262077 -0.39930168
-0.085529 -0.26208699 -0.39921033
-0.086077005 -0.26192701 -0.39938399
-0.085958004 -0.26189297 -0.39936799
-0.085779995 -0.261895 -0.39930052
-0.085519001 -0.26190701 -0.399225
-0.086068004 -0.26174501 -0.39938599
-0.085947998 -0.26171201 -0.39937532
-0.085770003 -0.26171499 -0.39931133
-0.085510008 -0.26172501 -0.399223
-0.086049996 -0.261419 -0.39939901
-0.085936002 -0.26149532 -0.39938867
-0.085758336 -0.26149735 -0.39931765
-0.085497998 -0.26150835 -0.39923367
-0.085924 -0.261278 -0.39939603
-0.085746326 -0.26128101 -0.399331
-0.085486673 -0.26129201 -0.39922896
-0.0859145 -0.26109701 -0.39939398
-0.085737005 -0.26109999 -0.399326
-0.08547467 -0.261076 -0.3992393
-0.085904993 -0.26091599 -0.39939067
-0.085727662 -0.2609193 -0.39931834
-0.085464999 -0.26089501 -0.39924699
-0.085893333 -0.26069933 -0.39939666
-0.085716009 -0.26070201 -0.39933035
-0.085455328 -0.26071399 -0.39924732
-0.085703999 -0.26048601 -0.39933601
-0.085444003 -0.26049733 -0.39924932
-0.085693493 -0.260306 -0.39936101
-0.085431993 -0.26028001 -0.39925635
-0.085684001 -0.26012465 -0.39936733
-0.085421994 -0.26010001 -0.3992725
-0.085672326 -0.25990799 -0.39936534
-0.085411996 -0.25991866 -0.39927533
-0.085245997 -0.25989199 -0.399203
-0.085660994 -0.25968999 -0.39936936
-0.085403502 -0.2597385 -0.39926201
-0.085276492 -0.25969124 -0.39922875
-0.085648991 -0.25947368 -0.39937267
-0.085307002 -0.25949016 -0.39924216
-0.085639998 -0.25929299 -0.39937001
-0.085279599 -0.25928903 -0.39924681
-0.085152999 -0.25931901 -0.39920351
-0.085630327 -0.25911164 -0.39936534
-0.085303605 -0.25911337 -0.3992494
-0.085619003 -0.2588937 -0.39936066
-0.085358657 -0.25890633 -0.399277
-0.085608006 -0.25867799 -0.39935634
-0.085348003 -0.25869 -0.39925835
-0.085601002 -0.25853199 -0.399349
-0.085597001 -0.25845999 -0.39934999
-0.085338503 -0.258508 -0.39926299
-0.085588999 -0.25831601 -0.39935803
-0.085328668 -0.25832799 -0.39926299
-0.085576661 -0.25809801 -0.39937568
-0.085317008 -0.25810999 -0.39926502
-0.085564673 -0.25788131 -0.39938435
-0.085305333 -0.25789401 -0.39928165
-0.085556 -0.2577005 -0.39936799
-0.085294001 -0.25767767 -0.39928067
-0.085546337 -0.25752035 -0.39936969
-0.085283995 -0.25749701 -0.3992835
-0.085536003 -0.25730267 -0.39934969
-0.085274994 -0.25731632 -0.39928031
-0.085524999 -0.25708601 -0.39934567
-0.085263669 -0.257099 -0.39927664
-0.085515 -0.25690502 -0.39935499
-0.085252665 -0.25688234 -0.39926365
-0.085505664 -0.256724 -0.39934301
-0.085244 -0.25670099 -0.3992435
-0.085494995 -0.25650734 -0.39933434
-0.085234337 -0.25652036 -0.39924601
-0.085483998 -0.256291 -0.39932334
-0.08522433 -0.2563037 -0.39922366
-0.085472338 -0.25607333 -0.39932001
-0.085212998 -0.25608733 -0.39921299
-0.085642338 -0.25592399 -0.39939165
-0.0854645 -0.25589299 -0.39929402
-0.085206002 -0.25594199 -0.39920801
-0.085631669 -0.25570667 -0.39937568
-0.085455328 -0.25571236 -0.399286
-0.085620008 -0.25548968 -0.39937833
-0.085444003 -0.25549501 -0.39928803
-0.085611001 -0.25530797 -0.399371
-0.085433334 -0.25527766 -0.39926699
-0.085602999 -0.25516301 -0.3993735
-0.085480995 -0.25508299 -0.39931631
-0.085704997 -0.25487 -0.39939702
-0.085502326 -0.25491351 -0.39931118
-0.085696332 -0.25469032 -0.39938965
-0.085492842 -0.25469783 -0.39927617
-0.085684501 -0.25447249 -0.39939249
-0.085569002 -0.25447699 -0.39932799
-0.085392989 -0.25448298 -0.39923501
-0.085676 -0.254291 -0.39937502
-0.085559994 -0.25429699 -0.39932197
-0.085383996 -0.25430301 -0.39922851
-0.085666329 -0.25411099 -0.39937699
-0.08555001 -0.25411499 -0.39932534
-0.085375004 -0.25412264 -0.39921233
-0.085655332 -0.253894 -0.399369
-0.085538991 -0.25389865 -0.39931667
-0.085363001 -0.25390533 -0.39922068
-0.085665002 -0.25369078 -0.39937559
-0.085528009 -0.25368133 -0.39931098
-0.085352331 -0.25368834 -0.39921269
-0.085659996 -0.25349548 -0.39937499
-0.085519001 -0.25350049 -0.39930052
-0.085345 -0.25354499 -0.39920101
-0.085625 -0.25331435 -0.39936432
-0.085509993 -0.25332034 -0.39929464
-0.085632995 -0.2530826 -0.39937341
-0.085498668 -0.25310299 -0.39929166
-0.085317999 -0.25303701 -0.399203
-0.085633799 -0.25289422 -0.39937142
-0.085515 -0.25286651 -0.39930749
-0.085642993 -0.25269848 -0.399391
-0.085534997 -0.252702 -0.39932349
-0.085634328 -0.25251767 -0.39938033
-0.085526668 -0.25252166 -0.39930835
-0.085636005 -0.25231674 -0.3993715
-0.085515834 -0.25230548 -0.39929017
-0.085622996 -0.25206298 -0.39936927
-0.08550483 -0.25208768 -0.39928687
-0.085627496 -0.25189877 -0.39935398
-0.085483603 -0.25188679 -0.3992568
-0.085642003 -0.25171366 -0.39936233
-0.085534878 -0.25171614 -0.39927611
-0.085631996 -0.25149766 -0.39933634
-0.085525624 -0.25151911 -0.39925086
-0.085662499 -0.251275 -0.399333
-0.085550003 -0.25129184 -0.39924383
-0.085712999 -0.25110883 -0.39934403
-0.085545197 -0.2510902 -0.39922863
-0.085687496 -0.25090984 -0.39930546
-0.085556 -0.25089401 -0.39922202
-0.085759997 -0.25068268 -0.39931834
-0.085576199 -0.25072342 -0.39923078
-0.085750997 -0.25050199 -0.399304
-0.085584335 -0.25048932 -0.39922068
-0.085742675 -0.25032166 -0.39928034
-0.085732669 -0.25010601 -0.39925066
-0.085722663 -0.249891 -0.39922202
-0.085716002 -0.24974699 -0.39920899
-0.085959002 -0.249478 -0.399391
-0.085950673 -0.24929833 -0.39937365
-0.085939668 -0.24908133 -0.39935598
-0.085931003 -0.24890099 -0.3993485
-0.086005665 -0.24871068 -0.39938965
-0.085922331 -0.24871999 -0.39932966
-0.085953176 -0.24849884 -0.39934614
-0.085942991 -0.24828251 -0.39931536
-0.085925803 -0.24808259 -0.39927799
-0.086055338 -0.247908 -0.39938399
-0.085935004 -0.24790859 -0.3992576
-0.086044334 -0.24769168 -0.39936534
-0.085958667 -0.247703 -0.39926469
-0.086035006 -0.24747734 -0.39932832
-0.085949004 -0.24748801 -0.39922896
-0.086026996 -0.2472975 -0.39929199
-0.085940495 -0.247309 -0.39920899
-0.086062007 -0.24711217 -0.39932147
-0.086051829 -0.24689633 -0.39929649
-0.086064503 -0.24669601 -0.39929676
-0.0859975 -0.2466515 -0.39920598
-0.086076498 -0.246494 -0.39930302
-0.086098 -0.24629478 -0.39931804
-0.086227499 -0.24604151 -0.39938802
-0.086111866 -0.24608199 -0.39929113
-0.086249501 -0.245897 -0.39936948
-0.086153604 -0.2458854 -0.3993004
-0.086262807 -0.24570219 -0.39934701
-0.086159401 -0.2457124 -0.3992714
-0.086269855 -0.24548844 -0.39933044
-0.086151198 -0.24552579 -0.39924139
-0.086285099 -0.24527971 -0.399315
-0.086169496 -0.245331 -0.3992165
-0.086405501 -0.2450805 -0.39939401
-0.086298771 -0.24511011 -0.39929491
-0.086329497 -0.24491203 -0.39931461
-0.0863185 -0.24469358 -0.39931095
-0.086195 -0.24471165 -0.39920965
-0.086297698 -0.24448922 -0.39932507
-0.086182334 -0.24449165 -0.39923
-0.086306207 -0.24431209 -0.39933547
-0.086142004 -0.24427374 -0.399232
-0.086286753 -0.24411024 -0.39932859
-0.0861485 -0.24412799 -0.3992345
-0.086274743 -0.24389084 -0.39933822
-0.086127602 -0.2438952 -0.39923739
-0.086279593 -0.24371199 -0.39936098
-0.086138114 -0.24368912 -0.39925477
-0.086255826 -0.24352334 -0.39936432
-0.086128496 -0.24350667 -0.39925683
-0.086000003 -0.24340799 -0.39920801
-0.086226493 -0.24334151 -0.39937299
-0.086115889 -0.24331832 -0.39930913
-0.085965335 -0.24328466 -0.39923632
-0.086068407 -0.24310939 -0.39936757
-0.085921288 -0.24310172 -0.39927343
-0.085885748 -0.24294324 -0.39932799
-0.085705571 -0.2428817 -0.39927259
-0.085353002 -0.242845 -0.39920101
-0.085183002 -0.242862 -0.399205
-0.084964 -0.242872 -0.39920199
-0.085634671 -0.242727 -0.39935169
-0.085340329 -0.242689 -0.39929101
-0.085121997 -0.24271345 -0.39927366
-0.084951006 -0.24271466 -0.39930999
-0.084774002 -0.24275899 -0.39926702
-0.084509999 -0.24273799 -0.399221
-0.084305003 -0.242641 -0.39922851
-0.084078997 -0.242625 -0.39921501
-0.085108995 -0.24255602 -0.39937463
-0.083095998 -0.24251668 -0.39925131
-0.082849003 -0.242525 -0.399257
-0.082717501 -0.242524 -0.39927351
-0.082571 -0.24253801 -0.39921999
-0.081046 -0.242467 -0.39920899
-0.080954999 -0.24247 -0.39922452
-0.081240997 -0.242366 -0.39925101
-0.074279003 -0.27440599 -0.399131
-0.074099332 -0.27441734 -0.39916167
-0.073893331 -0.2744267 -0.39916265
-0.073251002 -0.27446499 -0.399176
-0.073119499 -0.27446401 -0.39912951
-0.072886392 -0.27446142 -0.3990882
-0.072731003 -0.27446425 -0.39903027
-0.072547495 -0.2744925 -0.39903402
-0.062068 -0.27458102 -0.39902699
-0.061920334 -0.274472 -0.39905134
-0.076461002 -0.27421552 -0.39915049
-0.076325998 -0.27421901 -0.39912099
-0.076158002 -0.27423701 -0.39914501
-0.075904667 -0.27424601 -0.39914036
-0.075750999 -0.27425599 -0.39917099
-0.075576998 -0.27427101 -0.39918
-0.075296506 -0.27423799 -0.39912802
-0.075067334 -0.27424133 -0.39913499
-0.074890427 -0.27427828 -0.39913157
-0.074736372 -0.27430251 -0.39911187
-0.074464001 -0.27428299 -0.39906201
-0.074277997 -0.27432701 -0.399073
-0.074121498 -0.27431676 -0.39906549
-0.073882997 -0.27431518 -0.39905438
-0.073675998 -0.27436399 -0.39910001
-0.073444001 -0.27436599 -0.39905801
-0.073297501 -0.27437651 -0.399066
-0.073120497 -0.27438051 -0.3990255
-0.061717998 -0.27439299 -0.39904699
-0.061597999 -0.27425 -0.399057
-0.078727499 -0.274014 -0.39911449
-0.078483 -0.274059 -0.39911124
-0.078354999 -0.274059 -0.39909798
-0.077184997 -0.27402201 -0.39908999
-0.076910891 -0.27409431 -0.39913255
-0.076656498 -0.2740925 -0.39906698
-0.076521002 -0.27410179 -0.39905939
-0.076324999 -0.27414 -0.39906001
-0.076158002 -0.27415401 -0.39906299
-0.075891748 -0.27414477 -0.39903998
-0.075751998 -0.274169 -0.399041
-0.075576 -0.27415001 -0.39906549
-0.075293668 -0.27413234 -0.39905766
-0.075077742 -0.27409852 -0.39904323
-0.07489375 -0.27412426 -0.39904022
-0.074794002 -0.27415299 -0.39902401
-0.061560001 -0.27417451 -0.3990235
-0.080109 -0.273855 -0.39914599
-0.079833001 -0.27380601 -0.39915201
-0.079732329 -0.27385199 -0.39914867
-0.079546005 -0.27385151 -0.39912301
-0.079278998 -0.27386802 -0.39912099
-0.079129495 -0.27391365 -0.399122
-0.078930229 -0.27391788 -0.39909291
-0.078743331 -0.27390698 -0.399037
-0.078481495 -0.2739405 -0.39901951
-0.077181995 -0.27390701 -0.39902401
-0.076899245 -0.273963 -0.39902598
-0.081730999 -0.27361098 -0.39916667
-0.080677159 -0.27363017 -0.39917496
-0.080486201 -0.27366859 -0.39914617
-0.080372334 -0.27368665 -0.39911735
-0.080104329 -0.27370432 -0.39907467
-0.079854995 -0.27372125 -0.399075
-0.079731002 -0.27373135 -0.39903936
-0.079543002 -0.27373499 -0.399046
-0.079277001 -0.27375001 -0.39902699
-0.0791265 -0.2737565 -0.39901048
-0.082676999 -0.27341899 -0.399198
-0.082492001 -0.27344966 -0.39918336
-0.082377501 -0.27346098 -0.39916402
-0.082187504 -0.2734665 -0.39914301
-0.081932001 -0.27351868 -0.3991363
-0.081727669 -0.27349684 -0.39910749
-0.081451997 -0.273516 -0.39914101
-0.0812665 -0.2734535 -0.39915001
-0.081142999 -0.27345267 -0.39916936
-0.080902867 -0.27347636 -0.39915612
-0.080691375 -0.27348799 -0.39908698
-0.080504335 -0.27350235 -0.39904067
-0.080369003 -0.27353299 -0.399023
-0.083691999 -0.27321249 -0.39917552
-0.083496749 -0.27325699 -0.39916998
-0.083365001 -0.27326351 -0.39917901
-0.082930997 -0.27324799 -0.39919499
-0.08268743 -0.27329928 -0.39916316
-0.082501754 -0.27331126 -0.39913452
-0.082372501 -0.27330852 -0.399095
-0.082181007 -0.27327868 -0.39907765
-0.081923999 -0.27329168 -0.39905235
-0.081730001 -0.2733297 -0.39904839
-0.081447005 -0.27332464 -0.39903602
-0.081261501 -0.273303 -0.399095
-0.081112996 -0.27329439 -0.3991186
-0.080896579 -0.27328649 -0.39907634
-0.080711998 -0.27333155 -0.39902988
-0.084283002 -0.273031 -0.39917701
-0.084091999 -0.27310267 -0.39916816
-0.083944246 -0.27310073 -0.39915252
-0.083688751 -0.27309775 -0.39911976
-0.083491497 -0.27310723 -0.39912024
-0.083314165 -0.27307934 -0.39912948
-0.083150662 -0.27304599 -0.39918765
-0.082889728 -0.27309471 -0.39916736
-0.082692087 -0.27311558 -0.39910892
-0.082494996 -0.27312332 -0.39906564
-0.082365997 -0.27312136 -0.39902768
-0.082176 -0.27312601 -0.39900801
-0.081256494 -0.2731525 -0.39903051
-0.081116252 -0.27312776 -0.39905077
-0.080908 -0.27311233 -0.39903435
-0.084452331 -0.27288234 -0.39915535
-0.08432284 -0.27288067 -0.39912632
-0.084129669 -0.27288935 -0.39909533
-0.083956502 -0.272892 -0.39906904
-0.083698794 -0.27292436 -0.39906043
-0.083500721 -0.27290857 -0.39905384
-0.083306 -0.27289498 -0.39909697
-0.083117597 -0.27288881 -0.39914459
-0.082897179 -0.27288583 -0.399129
-0.082691923 -0.27288646 -0.3990564
-0.082502335 -0.27295002 -0.39902499
-0.081064999 -0.27298099 -0.399003
-0.084672667 -0.27272967 -0.39917767
-0.084521748 -0.27269199 -0.39912599
-0.084315494 -0.27269423 -0.39907348
-0.084122501 -0.27270275 -0.39904225
-0.083948746 -0.27270699 -0.39902323
-0.083755501 -0.27271903 -0.39901149
-0.083478503 -0.27277049 -0.39900899
-0.083291002 -0.27272379 -0.39903918
-0.08313141 -0.27270839 -0.3990806
-0.082909837 -0.27269417 -0.39909351
-0.082742006 -0.27271482 -0.39904466
-0.082598001 -0.27275199 -0.39900899
-0.084845498 -0.27245849 -0.39918301
-0.084744126 -0.27249664 -0.3991589
-0.084514171 -0.27250734 -0.3990798
-0.084308006 -0.27250984 -0.39903012
-0.084131666 -0.27256766 -0.39901164
-0.083116502 -0.27257252 -0.39902499
-0.082894005 -0.27251914 -0.39905375
-0.082766503 -0.27251467 -0.39902881
-0.085510001 -0.27224901 -0.39919099
-0.08535067 -0.27232534 -0.39916968
-0.0850695 -0.2723065 -0.39916348
-0.0848395 -0.27230901 -0.39913499
-0.084741771 -0.27228156 -0.39909801
-0.084544495 -0.27230024 -0.39903498
-0.084347002 -0.27236101 -0.399005
-0.082781002 -0.272367 -0.39900601
-0.085655198 -0.2720826 -0.39916599
-0.085503668 -0.272102 -0.39916065
-0.085341997 -0.27210233 -0.39910901
-0.085063003 -0.27212 -0.39909866
-0.084833004 -0.27212334 -0.39907703
-0.084745005 -0.27210197 -0.39904779
-0.084576003 -0.27213299 -0.39901
-0.085847497 -0.271896 -0.3991895
-0.085680746 -0.27189103 -0.39914638
-0.085494004 -0.27188134 -0.39911532
-0.085332334 -0.27188203 -0.39906669
-0.085054003 -0.27189767 -0.39903998
-0.084824003 -0.27189967 -0.399014
-0.084757596 -0.27192321 -0.39902759
-0.08583916 -0.27171335 -0.39916566
-0.085697636 -0.27171746 -0.39913025
-0.085485995 -0.271698 -0.399084
-0.085324004 -0.27169901 -0.39903349
-0.085042 -0.27164102 -0.39900649
-0.086026005 -0.27148435 -0.39917532
-0.085845754 -0.27151048 -0.39913347
-0.085697219 -0.27149895 -0.39910617
-0.085477002 -0.2715157 -0.39907065
-0.085314997 -0.27151731 -0.39902568
-0.086016998 -0.27130097 -0.39915699
-0.085851505 -0.27130949 -0.399124
-0.085718252 -0.27128249 -0.39909244
-0.08553084 -0.27129534 -0.39905801
-0.086268 -0.27107549 -0.39919901
-0.086008333 -0.27111968 -0.39913765
-0.085841991 -0.27112868 -0.39911699
-0.085709736 -0.27110049 -0.39907697
-0.085519828 -0.27107766 -0.39904332
-0.086259663 -0.27089265 -0.39917865
-0.086001001 -0.270973 -0.399129
-0.0858972 -0.27089199 -0.39910918
-0.085700072 -0.27091941 -0.39907861
-0.085510746 -0.27089599 -0.39903349
-0.086248338 -0.27067566 -0.399176
-0.085903339 -0.27068868 -0.39910519
-0.085689247 -0.27070156 -0.39906076
-0.085501663 -0.27071485 -0.39902365
-0.086238995 -0.270495 -0.39917099
-0.085876599 -0.27048558 -0.39908999
-0.085678577 -0.27048382 -0.39904574
-0.085478202 -0.27051216 -0.39901641
-0.08622966 -0.27031365 -0.39917266
-0.085927002 -0.27032298 -0.39908847
-0.085683666 -0.27029699 -0.39903897
-0.085477009 -0.27025121 -0.3990092
-0.086218663 -0.27009568 -0.39915869
-0.085957669 -0.27010167 -0.39908066
-0.085709669 -0.27011564 -0.39903322
-0.085495606 -0.27010563 -0.39900541
-0.086207666 -0.26987669 -0.39914533
-0.085946657 -0.26988497 -0.39907101
-0.085698076 -0.2698988 -0.39903116
-0.0854 -0.26999399 -0.399001
-0.086198002 -0.269696 -0.39914501
-0.085936993 -0.269705 -0.39907652
-0.085686661 -0.26968232 -0.39903775
-0.086370997 -0.26958701 -0.39919701
-0.086189002 -0.26951534 -0.39913467
-0.08592701 -0.26952466 -0.39908001
-0.085677132 -0.26950225 -0.39903513
-0.086177327 -0.269299 -0.39914465
-0.085916005 -0.269308 -0.39908433
-0.085691892 -0.26931953 -0.39903665
-0.085594989 -0.26932701 -0.39902803
-0.086165667 -0.26908299 -0.39915398
-0.085904002 -0.26909199 -0.39909366
-0.085680231 -0.26910311 -0.39904299
-0.085542381 -0.26910776 -0.39902115
-0.086155996 -0.26890299 -0.399158
-0.085891999 -0.26887599 -0.39909899
-0.085668109 -0.26888788 -0.39905965
-0.085524552 -0.26890123 -0.39902297
-0.086147003 -0.26872098 -0.39915001
-0.085883006 -0.268695 -0.399095
-0.085658498 -0.26870748 -0.39906201
-0.085521705 -0.26867661 -0.39902788
-0.086434007 -0.26853698 -0.39919999
-0.086135328 -0.26850465 -0.39914867
-0.085873999 -0.26851431 -0.39908502
-0.08567667 -0.26852414 -0.39905402
-0.08552637 -0.26850086 -0.39902222
-0.085317999 -0.26844099 -0.39900798
-0.086302996 -0.26828632 -0.39918199
-0.086124003 -0.26828799 -0.39914432
-0.085862339 -0.26829699 -0.39908633
-0.085665323 -0.26830751 -0.39904782
-0.085532397 -0.26832572 -0.39902151
-0.085313 -0.268332 -0.399001
-0.086292997 -0.268107 -0.39919999
-0.086114004 -0.26810801 -0.39915448
-0.085851669 -0.26807866 -0.39906433
-0.085655175 -0.26808968 -0.39902201
-0.085542999 -0.26810941 -0.39903054
-0.085300997 -0.268116 -0.39900199
-0.086104997 -0.26792666 -0.39915034
-0.085841998 -0.26789799 -0.39907098
-0.085638203 -0.2678872 -0.39902219
-0.085530572 -0.26787171 -0.39903042
-0.086093664 -0.26771 -0.39914766
-0.085832663 -0.26771733 -0.39906231
-0.085641004 -0.2677142 -0.3990348
-0.085516803 -0.26768041 -0.39903
-0.086082004 -0.26749268 -0.39914998
-0.085819997 -0.26750201 -0.39908934
-0.085655004 -0.26751101 -0.39904633
-0.085528262 -0.2675142 -0.39903876
-0.085398003 -0.267497 -0.399001
-0.086070664 -0.26727599 -0.39914933
-0.085808665 -0.26728535 -0.39909065
-0.085643001 -0.26729432 -0.39905366
-0.085511245 -0.26730457 -0.39904204
-0.085388005 -0.267317 -0.39900866
-0.086237997 -0.26705801 -0.399198
-0.0860615 -0.267095 -0.399138
-0.085801996 -0.26714 -0.39907899
-0.085672997 -0.26707524 -0.39906025
-0.085499741 -0.26708817 -0.39904225
-0.085376002 -0.26710099 -0.39901868
-0.086230002 -0.26691332 -0.39919797
-0.086052001 -0.26691332 -0.39913535
-0.085722804 -0.266913 -0.399073
-0.085480392 -0.26688713 -0.39904281
-0.0853144 -0.26689941 -0.39900899
-0.086219005 -0.26669598 -0.39918765
-0.086041003 -0.266698 -0.39913735
-0.085695334 -0.26671317 -0.39907613
-0.085488699 -0.2667115 -0.39904609
-0.085276805 -0.26668459 -0.39901599
-0.086208999 -0.26651448 -0.39919651
-0.086028665 -0.26648167 -0.39915398
-0.085701399 -0.26650938 -0.39908019
-0.085479148 -0.26650432 -0.39904559
-0.085293606 -0.2665104 -0.39901599
-0.086018994 -0.26630098 -0.39915401
-0.085755669 -0.26627499 -0.39909101
-0.085507177 -0.26628891 -0.39904943
-0.085311674 -0.26630667 -0.39901009
-0.086008996 -0.26611999 -0.39915863
-0.085746497 -0.26609349 -0.39908302
-0.085486904 -0.26608673 -0.39903522
-0.085384995 -0.266123 -0.399003
-0.085190997 -0.266022 -0.399001
-0.086001001 -0.26597601 -0.399167
-0.085996002 -0.26586801 -0.39915949
-0.085735999 -0.26591334 -0.39909434
-0.085498504 -0.26591182 -0.39903229
-0.085187003 -0.265948 -0.39900199
-0.085985996 -0.26568732 -0.39917064
-0.085725009 -0.26569799 -0.39909768
-0.085484535 -0.26571634 -0.39903343
-0.085380003 -0.26564902 -0.39901948
-0.085975498 -0.265508 -0.39919299
-0.085712999 -0.26548001 -0.39910635
-0.085489221 -0.26549309 -0.39906347
-0.085345663 -0.26550734 -0.39902389
-0.085968003 -0.26536399 -0.39919901
-0.085702002 -0.26530099 -0.39912999
-0.085477777 -0.26527631 -0.39906335
-0.085333787 -0.26529109 -0.39903423
-0.085153006 -0.26529899 -0.39900532
-0.085951 -0.26503801 -0.39919901
-0.085693002 -0.26512066 -0.39913234
-0.085468501 -0.265095 -0.39905164
-0.085317247 -0.26508376 -0.3990311
-0.085141003 -0.26508299 -0.39901066
-0.085681997 -0.26490334 -0.39912131
-0.085458785 -0.26491502 -0.39906198
-0.085320428 -0.26490813 -0.39903983
-0.085131004 -0.26490301 -0.39902002
-0.085670002 -0.26468599 -0.39912868
-0.085474163 -0.26469716 -0.39907065
-0.0853412 -0.26471573 -0.3990466
-0.085121661 -0.26472166 -0.39902067
-0.085660502 -0.26450601 -0.39913201
-0.085462332 -0.26448032 -0.39907899
-0.085314423 -0.26449355 -0.3990438
-0.085110664 -0.26450467 -0.39900866
-0.085909002 -0.26424301 -0.39919901
-0.085651003 -0.26432401 -0.39913166
-0.08545275 -0.26430023 -0.39908001
-0.085294299 -0.26429278 -0.39904672
-0.085099004 -0.26428801 -0.39901868
-0.085901998 -0.26409665 -0.39917335
-0.085639328 -0.26410902 -0.39914069
-0.08544334 -0.26411882 -0.39907932
-0.0853035 -0.26411653 -0.39905149
-0.085088506 -0.26410851 -0.399037
-0.085894004 -0.263953 -0.399194
-0.085628003 -0.26389232 -0.399142
-0.085448258 -0.26391977 -0.39907774
-0.085299633 -0.26390928 -0.39906222
-0.085078992 -0.26392767 -0.39904165
-0.085615993 -0.263675 -0.39915165
-0.085450999 -0.26368436 -0.39908934
-0.085310854 -0.2637006 -0.39906329
-0.085119203 -0.26369441 -0.39902502
-0.085605994 -0.263495 -0.3991535
-0.085440993 -0.26350501 -0.3990975
-0.08530236 -0.26348493 -0.39907017
-0.085121505 -0.26349217 -0.39902201
-0.085601002 -0.26338699 -0.39915201
-0.0854972 -0.26330501 -0.39912137
-0.085307106 -0.26330879 -0.39907354
-0.085109659 -0.26327598 -0.39903083
-0.085502826 -0.26310202 -0.39912581
-0.085289001 -0.26311716 -0.39907923
-0.085100248 -0.26309526 -0.39903224
-0.085490167 -0.26288602 -0.39915481
-0.085277326 -0.26290059 -0.39908409
-0.085090838 -0.26291469 -0.39903101
-0.085563004 -0.262701 -0.39918199
-0.085298359 -0.26268649 -0.39910012
-0.085095711 -0.26268759 -0.39904588
-0.085556999 -0.262593 -0.39919099
-0.085304245 -0.26249951 -0.39912114
-0.085120991 -0.26248926 -0.39906988
-0.084879749 -0.26246926 -0.39901823
-0.085294165 -0.26231882 -0.39913014
-0.085150748 -0.26229849 -0.39906722
-0.084911749 -0.26230499 -0.39903724
-0.085282661 -0.26210156 -0.39913309
-0.085140496 -0.26211703 -0.3990787
-0.084901668 -0.26212499 -0.39904699
-0.085285708 -0.26189131 -0.39914382
-0.085146628 -0.26188937 -0.399084
-0.084890664 -0.26190835 -0.39903882
-0.085285507 -0.26170266 -0.39914501
-0.085141331 -0.26168075 -0.39908999
-0.084920496 -0.26170874 -0.39904699
-0.084796995 -0.261657 -0.39900199
-0.085275896 -0.26152179 -0.39915264
-0.085130997 -0.26150069 -0.39910436
-0.084948003 -0.26147401 -0.399075
-0.084787004 -0.26147699 -0.39901832
-0.085264117 -0.26130497 -0.3991549
-0.085121892 -0.26131955 -0.39909911
-0.084939003 -0.26129201 -0.39906502
-0.084776998 -0.26129597 -0.39902049
-0.085268997 -0.26109725 -0.39915401
-0.085125811 -0.26109421 -0.39911219
-0.084929325 -0.261112 -0.39906836
-0.084767006 -0.26111498 -0.39902464
-0.085262604 -0.260885 -0.3991662
-0.08512076 -0.26088327 -0.39911816
-0.084917337 -0.260896 -0.39907968
-0.084755667 -0.26089966 -0.39902699
-0.085266002 -0.26071081 -0.39916581
-0.08510156 -0.26069155 -0.39912722
-0.084905662 -0.26067799 -0.39908698
-0.084744997 -0.26068199 -0.39901701
-0.085248329 -0.26050916 -0.39917767
-0.085107177 -0.26051509 -0.3991358
-0.084895998 -0.26049799 -0.399086
-0.084734 -0.26050201 -0.399041
-0.085236497 -0.2602925 -0.39918819
-0.085088998 -0.26030594 -0.39914426
-0.084885992 -0.26031834 -0.39909434
-0.084724337 -0.260322 -0.39905235
-0.085258 -0.26010999 -0.39919448
-0.085108064 -0.2600916 -0.399158
-0.084905252 -0.26008227 -0.39910701
-0.084713005 -0.26010534 -0.39904165
-0.085252002 -0.25999999 -0.39919901
-0.085107774 -0.25989276 -0.39916497
-0.084927164 -0.25988248 -0.39911118
-0.084701993 -0.25988868 -0.39903831
-0.08511091 -0.25971583 -0.39917982
-0.084918007 -0.259702 -0.39911324
-0.084690996 -0.25967231 -0.39903668
-0.085094325 -0.25950605 -0.39917359
-0.084908336 -0.25952101 -0.39911065
-0.084680498 -0.25949198 -0.39905101
-0.0850688 -0.2592833 -0.39916709
-0.084897168 -0.25930485 -0.39910951
-0.084671669 -0.25931099 -0.39903936
-0.0850638 -0.25908849 -0.39916229
-0.0848855 -0.25908801 -0.39910534
-0.084660672 -0.25909433 -0.39902934
-0.085109331 -0.25891727 -0.39917541
-0.084885173 -0.258883 -0.39909801
-0.084649332 -0.25887799 -0.39902666
-0.085102081 -0.25870648 -0.39917088
-0.084938571 -0.25872329 -0.399095
-0.084693998 -0.25868332 -0.39902866
-0.085090756 -0.25848898 -0.3991681
-0.084949665 -0.25850669 -0.39909384
-0.084792338 -0.25851166 -0.39907002
-0.085072666 -0.258297 -0.39916366
-0.084938325 -0.25828898 -0.39909682
-0.084781341 -0.25829533 -0.39906099
-0.085095771 -0.25812533 -0.39917359
-0.08494357 -0.25809011 -0.39911029
-0.084770657 -0.25807866 -0.39904436
-0.085085109 -0.25790888 -0.39916244
-0.084949121 -0.25791475 -0.399102
-0.0847615 -0.257898 -0.39903802
-0.085073218 -0.25769266 -0.39916819
-0.084931664 -0.25770798 -0.39909923
-0.084751666 -0.25771734 -0.39904833
-0.085055128 -0.25748488 -0.399169
-0.084920004 -0.25749111 -0.39909977
-0.084739991 -0.25750101 -0.39904436
-0.0850868 -0.25731459 -0.39917299
-0.084922202 -0.25728703 -0.39911529
-0.084728003 -0.25728467 -0.39906034
-0.085070163 -0.25711235 -0.39916301
-0.084930494 -0.25711089 -0.39913893
-0.084719002 -0.257103 -0.39905399
-0.085058838 -0.25689664 -0.39916301
-0.084911168 -0.25691035 -0.39912775
-0.08471033 -0.25692332 -0.39903566
-0.085047834 -0.256679 -0.39915335
-0.084900416 -0.25669378 -0.39911032
-0.084699333 -0.256708 -0.39902666
-0.085039496 -0.2564995 -0.39912975
-0.084881403 -0.256493 -0.39909139
-0.084688663 -0.25649032 -0.39901331
-0.085045502 -0.25633425 -0.39914826
-0.084908843 -0.25631157 -0.3990916
-0.084677339 -0.25627431 -0.39901003
-0.085049003 -0.25609899 -0.39914569
-0.084910467 -0.256118 -0.399086
-0.084796995 -0.256089 -0.39901751
-0.085202001 -0.25587001 -0.39919999
-0.085038334 -0.25588199 -0.39913234
-0.084908664 -0.25589442 -0.39907715
-0.084787004 -0.255909 -0.39902332
-0.085128598 -0.25571579 -0.39916903
-0.084891446 -0.25568473 -0.3990719
-0.084776007 -0.25569168 -0.399019
-0.085102342 -0.25551501 -0.39914802
-0.084896117 -0.25550833 -0.39907587
-0.085090995 -0.25529799 -0.39914167
-0.084879078 -0.25531682 -0.39906177
-0.085122004 -0.25509697 -0.399151
-0.084886357 -0.25509337 -0.39905757
-0.085152999 -0.25489599 -0.39917099
-0.084905498 -0.25487855 -0.39906526
-0.084795505 -0.254931 -0.399003
-0.085144006 -0.25471434 -0.39915535
-0.084895879 -0.25469676 -0.39906451
-0.085133672 -0.25449899 -0.39912799
-0.084887505 -0.25451741 -0.39904711
-0.085122325 -0.25428167 -0.39912534
-0.084876917 -0.25430098 -0.39902708
-0.085113004 -0.25410199 -0.399122
-0.084890001 -0.25408232 -0.39902547
-0.085104324 -0.25392032 -0.39910603
-0.084881008 -0.25390166 -0.39901602
-0.085092999 -0.25370434 -0.39910135
-0.084887572 -0.25373045 -0.3990106
-0.0853405 -0.25343701 -0.39918351
-0.085081995 -0.25348699 -0.39909363
-0.084893003 -0.2534886 -0.39901239
-0.085332498 -0.25329101 -0.399187
-0.085072994 -0.25330752 -0.39908201
-0.084911004 -0.25335801 -0.39900699
-0.085325003 -0.25314599 -0.39919049
-0.085063338 -0.25312635 -0.39909101
-0.085311331 -0.25289369 -0.39919201
-0.085052669 -0.25290999 -0.39907634
-0.084893003 -0.252996 -0.39900199
-0.085300334 -0.25267601 -0.39918134
-0.085040994 -0.25269198 -0.39907801
-0.085291997 -0.25249699 -0.39916301
-0.085030995 -0.25247699 -0.39905202
-0.085282326 -0.25231567 -0.39916196
-0.085021496 -0.25229597 -0.39904898
-0.085271664 -0.25209901 -0.39915034
-0.085011661 -0.25211534 -0.39905533
-0.085260995 -0.25188333 -0.39913169
-0.085003495 -0.25193599 -0.39902949
-0.084997997 -0.25182599 -0.39902499
-0.085252002 -0.25170201 -0.39911902
-0.084990658 -0.251683 -0.39901337
-0.085414998 -0.251441 -0.39919901
-0.085243672 -0.25152335 -0.39910102
-0.084983997 -0.25153899 -0.39900601
-0.085408665 -0.25129768 -0.39917865
-0.085233994 -0.25130668 -0.39906433
-0.085456498 -0.2510795 -0.39917898
-0.085292801 -0.25107297 -0.39908981
-0.085506499 -0.25089699 -0.39918551
-0.085283399 -0.25088561 -0.3990742
-0.085509755 -0.250698 -0.39917028
-0.085310593 -0.25071138 -0.39907318
-0.085512668 -0.25049952 -0.39915252
-0.085371338 -0.25050631 -0.39908966
-0.085526891 -0.25028089 -0.39914134
-0.085362673 -0.25029168 -0.39903602
-0.08551833 -0.25010148 -0.3991195
-0.085351668 -0.25007534 -0.39902797
-0.085509665 -0.24992087 -0.39910424
-0.085345 -0.249933 -0.39900899
-0.085711494 -0.249639 -0.39918649
-0.085499994 -0.24970566 -0.39907044
-0.085703999 -0.249494 -0.399174
-0.085496381 -0.24949826 -0.39905089
-0.085694999 -0.24931432 -0.39916566
-0.0854996 -0.2492868 -0.39904743
-0.085684665 -0.24909733 -0.39914501
-0.085500002 -0.24911079 -0.39905062
-0.08567401 -0.24888134 -0.39913699
-0.085485339 -0.24890983 -0.39903399
-0.085665494 -0.2487015 -0.39911401
-0.085498668 -0.24868934 -0.39902735
-0.085657991 -0.24852334 -0.399075
-0.085490495 -0.24851 -0.39900801
-0.085648 -0.24830766 -0.39904401
-0.085639998 -0.248129 -0.399014
-0.085876338 -0.24771465 -0.39918101
-0.085866332 -0.24749933 -0.39915535
-0.085876003 -0.247263 -0.39914402
-0.085889749 -0.24709952 -0.39913073
-0.085881174 -0.24691965 -0.3991107
