0.0944528 -0.116667 0.98867 0.00472565
0.0955613 -0.118719 0.988319 0.00669164
0.0969336 -0.119696 0.988067 0.010822
0.0981066 -0.118855 0.988053 0.0100846
0.0999694 -0.12368 0.987274 0.0195234
0.100571 -0.124629 0.987093 0.0241616
0.100273 -0.123327 0.987287 0.0211657
0.100013 -0.12224 0.987449 0.0221033
0.0999535 -0.115237 0.988296 0.0148877
0.100913 -0.116212 0.988085 0.0182126
0.102197 -0.116745 0.98789 0.0231017
0.102442 -0.116361 0.98791 0.0206686
0.102986 -0.112159 0.988339 0.0120589
0.102915 -0.109959 0.988594 0.00878807
0.106188 -0.110071 0.988235 0.00499026
0.108465 -0.107706 0.988248 0.00358345
0.109373 -0.104062 0.988539 0.00110751
0.109506 -0.101857 0.988753 0
0.111696 -0.100523 0.988645 0
0.114395 -0.101509 0.988236 0
0.114652 -0.0986516 0.988495 0
0.117689 -0.0982902 0.988174 0
0.117731 -0.0977253 0.988225 0
0.118772 -0.0972199 0.988151 0
0.12024 -0.0951937 0.98817 0
0.122949 -0.0928427 0.988061 0
0.125883 -0.0909345 0.987869 0
0.127465 -0.0902762 0.987726 0
0.128208 -0.0883803 0.987801 0
0.128193 -0.0857074 0.988039 0
0.125572 -0.0841952 0.988505 0
0.125993 -0.0811016 0.98871 0
0.129129 -0.0808766 0.988324 0
0.130468 -0.0788205 0.988314 0
0.134656 -0.0775409 0.987854 0.0038837
0.136818 -0.0777011 0.987544 0.00629021
0.137693 -0.0791144 0.98731 0.0170471
0.140541 -0.0772142 0.987059 0.0182127
0.143116 -0.0769253 0.986712 0.025839
0.143837 -0.076056 0.986674 0.0308539
0.144652 -0.0741903 0.986697 0.0302282
0.14476 -0.0737878 0.986712 0.034841
0.145235 -0.0713177 0.986823 0.0320535
0.146829 -0.0679552 0.986825 0.028447
0.148117 -0.0656017 0.986792 0.0305531
0.145907 -0.0629576 0.987293 0.0298955
0.145797 -0.0605399 0.98746 0.028377
0.148238 -0.0584843 0.987221 0.0263692
0.152645 -0.0572557 0.986621 0.0261039
0.153643 -0.0555133 0.986566 0.0266573
0.152565 -0.055192 0.986751 0.0282346
0.151909 -0.0559779 0.986808 0.0391791
0.15853 -0.0592877 0.985572 0.055569
0.16106 -0.0565199 0.985325 0.0570233
0.165982 -0.0561704 0.984528 0.0618084
0.168158 -0.05393 0.984284 0.0586178
0.166347 -0.0503559 0.984781 0.0503479
0.168184 -0.0482265 0.984575 0.0489181
0.170505 -0.0470063 0.984235 0.0508035
0.170795 -0.0460864 0.984228 0.0479578
0.170029 -0.0450901 0.984407 0.0484281
0.171308 -0.0444014 0.984217 0.0440419
0.17388 -0.0429691 0.983829 0.041407
0.178039 -0.0432496 0.983073 0.0442791
0.177841 -0.0450082 0.983029 0.0531863
0.180214 -0.0449686 0.982599 0.0569767
0.18321 -0.0449457 0.982046 0.0578353
0.183855 -0.0437368 0.98198 0.0547183
0.185116 -0.0427395 0.981787 0.0519477
0.181825 -0.0422328 0.982423 0.0503475
0.180601 -0.043416 0.982598 0.0492898
0.181373 -0.0439871 0.98243 0.0518159
0.184774 -0.0420621 0.98188 0.042785
0.184307 -0.0392747 0.982084 0.0289326
0.184398 -0.0383552 0.982103 0.0197182
0.182087 -0.0367101 0.982597 0.0126941
0.181508 -0.0373188 0.982681 0.0106508
0.179988 -0.0370156 0.982972 0.0120565
0.182946 -0.0359793 0.982464 0.0169189
0.188023 -0.0364308 0.981489 0.0202347
0.189268 -0.036124 0.981261 0.0178356
0.190609 -0.0379081 0.980934 0.0177239
0.186157 -0.0368192 0.98183 0.0139603
0.186542 -0.0362735 0.981777 0.0150013
0.189333 -0.0389338 0.981141 0.018192
0.194931 -0.0406034 0.979976 0.0197344
0.199075 -0.0408565 0.979132 0.0159631
0.200605 -0.0433001 0.978715 0.0181225
0.199307 -0.0425637 0.979012 0.0146222
0.197295 -0.0437703 0.979366 0.013539
0.199692 -0.0453357 0.978809 0.0112591
0.203863 -0.0463095 0.977903 0.00932395
0.206451 -0.0466528 0.977344 0.00963249
0.204743 -0.0470891 0.977682 0.00638437
0.202192 -0.0470637 0.978214 0.00334804
0.200329 -0.0478408 0.97856 0.00427937
0.19807 -0.0485367 0.978985 3.62147e-05
0.20196 -0.0497725 0.978128 0.00295472
0.209733 -0.0510782 0.976424 0.00455551
0.208569 -0.0515511 0.976648 0.00257707
0.208664 -0.0519249 0.976608 0
0.206811 -0.0512968 0.977035 0
0.204581 -0.0516911 0.977484 0
0.203796 -0.0521951 0.977621 0
0.203345 -0.0528303 0.977681 0
0.20546 -0.0533518 0.97721 0
0.201839 -0.0531012 0.977978 0
0.204246 -0.0536552 0.977448 0
0.21039 -0.0541467 0.976117 0
0.210933 -0.0549171 0.975957 0
0.210261 -0.0559298 0.976044 0
0.211368 -0.0557333 0.975816 0
0.211442 -0.0567625 0.975741 0
0.209667 -0.0588056 0.976003 0
0.209124 -0.0593283 0.976088 0
0.211688 -0.0597071 0.975512 0
0.212285 -0.0601497 0.975355 0
0.214556 -0.060525 0.974834 0
0.215642 -0.0605298 0.974595 0
0.214071 -0.0603468 0.974952 0
0.213394 -0.060218 0.975109 0
0.21581 -0.0604275 0.974564 0
0.212364 -0.0612274 0.975271 0
0.214284 -0.0606582 0.974886 0
0.212996 -0.0595421 0.975237 0
0.214827 -0.0606057 0.97477 0
0.216656 -0.0600507 0.974399 0
0.218128 -0.0602456 0.974059 0
0.22081 -0.061003 0.973407 0
0.220463 -0.0612681 0.973469 0
0.218595 -0.0618678 0.973853 0
0.220001 -0.0633602 0.97344 0
0.219881 -0.0641433 0.973416 0
0.218858 -0.0649102 0.973595 0
0.215381 -0.0669343 0.974233 0
0.212776 -0.0706842 0.974541 0
0.214044 -0.0747451 0.97396 0.00892555
0.214072 -0.0772179 0.973761 0.0106792
0.215568 -0.0796589 0.973234 0.01579
0.217164 -0.0837918 0.972532 0.0225789
0.217217 -0.0831085 0.972579 0.0220027
0.21857 -0.085049 0.972108 0.0251908
0.220639 -0.0880826 0.97137 0.0303965
0.223994 -0.0894026 0.970481 0.0336241
0.226023 -0.088776 0.970068 0.0340063
0.225353 -0.0873189 0.970356 0.0351695
0.225869 -0.0874939 0.970221 0.0360655
0.227076 -0.0899454 0.969714 0.038682
0.228527 -0.0935428 0.969033 0.0431648
0.231445 -0.0988331 0.967815 0.0540866
0.232052 -0.0993974 0.967611 0.0562434
0.230786 -0.0981027 0.968046 0.0520838
0.229794 -0.0987142 0.96822 0.0502613
0.228054 -0.0981422 0.96869 0.0462551
0.227657 -0.0974361 0.968854 0.0419563
0.228103 -0.0986717 0.968624 0.0420172
0.227247 -0.0984754 0.968845 0.037419
0.227308 -0.0998278 0.968693 0.0376465
0.227295 -0.10055 0.968621 0.0365282
0.226254 -0.100554 0.968864 0.0354854
0.229029 -0.102867 0.967969 0.0363619
0.228168 -0.102621 0.968198 0.0340313
0.230218 -0.104535 0.967508 0.0339617
0.227571 -0.101504 0.968457 0.0236873
0.227479 -0.100847 0.968547 0.0181919
0.227416 -0.101846 0.968457 0.0166393
0.226964 -0.102959 0.968446 0.0176976
0.229337 -0.102589 0.967926 0.0180594
0.229382 -0.101889 0.967989 0.0136368
0.22879 -0.0973995 0.968591 0.00675233
0.228721 -0.0981597 0.96853 0.00728546
0.230761 -0.101059 0.967748 0.0174505
0.232032 -0.100404 0.967512 0.0159123
0.232348 -0.0965326 0.967831 0.010673
0.232264 -0.0963578 0.967868 0.00824152
0.232517 -0.0964332 0.9678 0.00549944
0.230729 -0.0925863 0.968603 0
0.232134 -0.0929318 0.968234 0
0.232893 -0.0930235 0.968043 0
0.234261 -0.0923038 0.967782 0
0.236293 -0.0918014 0.967336 0
0.236807 -0.0886521 0.967504 0
0.23741 -0.0894018 0.967287 0
0.237662 -0.0885821 0.9673 0
0.238326 -0.0881393 0.967177 0
0.237628 -0.0896872 0.967207 0
0.239447 -0.0884153 0.966875 0
0.239527 -0.0844495 0.96721 0
0.239774 -0.0809397 0.967449 0
0.240003 -0.0808745 0.967397 0
0.238115 -0.0821539 0.967756 0
0.0627379 -0.147039 0.987139 0
0.0659387 -0.140397 0.987897 0
0.066197 -0.130756 0.989202 0
0.0682144 -0.128318 0.989384 0
0.0686479 -0.126915 0.989535 0
0.0696225 -0.124793 0.989737 0
0.0690004 -0.127248 0.989468 0
0.0702265 -0.126688 0.989454 0
0.0705031 -0.126109 0.989508 0
0.0711433 -0.123578 0.989781 0
0.0729545 -0.120591 0.990018 0
0.0736755 -0.121688 0.98983 0
0.073223 -0.124298 0.989539 0
0.0726942 -0.12531 0.989451 0
0.0743515 -0.12458 0.98942 0
0.0748925 -0.126145 0.989181 0
0.0760421 -0.126035 0.989107 0.00166948
0.0763947 -0.126152 0.989065 0.00189025
0.0771892 -0.124715 0.989185 0.00223858
0.0773289 -0.124257 0.989232 0.00289898
0.079133 -0.124572 0.98905 0.00410241
0.0789136 -0.119934 0.989641 9.08541e-05
0.0799097 -0.118188 0.989771 0.000334465
0.0806965 -0.118129 0.989714 0
0.0814541 -0.116606 0.989832 0
0.0823558 -0.113663 0.9901 0
0.08402 -0.112076 0.990141 0.00564834
0.0849299 -0.113121 0.989945 0.0142249
0.0864861 -0.114174 0.989689 0.0182943
0.087168 -0.112744 0.989793 0.0219051
0.0880627 -0.108647 0.990172 0.0240688
0.0883079 -0.109942 0.990007 0.0292653
0.0910958 -0.111065 0.989629 0.0317241
0.0917896 -0.112359 0.989419 0.0291958
0.0930113 -0.111924 0.989354 0.0264853
0.093846 -0.113418 0.989105 0.0316393
0.0940532 -0.111432 0.989311 0.0305762
0.0944236 -0.108114 0.989644 0.0238842
0.0963467 -0.107464 0.98953 0.0270205
0.0975206 -0.105698 0.989605 0.024433
0.0987842 -0.103703 0.98969 0.0228915
0.0994275 -0.101976 0.989806 0.0238807
0.102582 -0.101956 0.989486 0.0266207
0.10457 -0.102528 0.989218 0.0282925
0.104905 -0.101303 0.989309 0.0287975
0.105468 -0.0994309 0.989439 0.0258405
0.105085 -0.100568 0.989365 0.0319707
0.106697 -0.0973048 0.989519 0.0288565
0.108157 -0.0959129 0.989496 0.0299406
0.111419 -0.0936156 0.989354 0.0303581
0.114374 -0.091535 0.989212 0.032585
0.116132 -0.0890683 0.989232 0.0261059
0.118195 -0.0857619 0.98928 0.0228034
0.117085 -0.083625 0.989595 0.0174941
0.118341 -0.0794739 0.989788 0.0124028
0.119572 -0.0750177 0.989987 0.00490744
0.121315 -0.0713507 0.990046 0
0.123143 -0.0688665 0.989997 0
0.124526 -0.0665603 0.989981 0
0.127352 -0.064904 0.989732 0
0.130958 -0.062896 0.989391 0
0.129998 -0.0620367 0.989572 0
0.129438 -0.0601618 0.989761 0
0.129386 -0.0601373 0.989769 4.1496e-05
0.130379 -0.0583048 0.989748 0.00432992
0.130106 -0.0585097 0.989772 0.0106344
0.131563 -0.0582081 0.989597 0.0137674
0.133768 -0.0583085 0.989296 0.0218054
0.136422 -0.0577049 0.988969 0.0248016
0.139052 -0.0556767 0.988719 0.0268234
0.141678 -0.0553597 0.988364 0.0314738
0.145777 -0.0578973 0.987622 0.0400341
0.14749 -0.0584828 0.987333 0.0483591
0.14491 -0.0580431 0.987741 0.0522111
0.145193 -0.0577996 0.987714 0.0487185
0.146205 -0.0539629 0.987781 0.0440986
0.146906 -0.0525612 0.987753 0.0441638
0.146424 -0.0544971 0.98772 0.0510444
0.151636 -0.0558447 0.986858 0.0584945
0.154298 -0.0560332 0.986434 0.0617141
0.158731 -0.0556716 0.985751 0.0661931
0.161758 -0.0531389 0.985399 0.0617646
0.162348 -0.0536586 0.985273 0.0648333
0.167144 -0.0554757 0.984371 0.0717337
0.172878 -0.0564269 0.983326 0.0804627
0.176037 -0.0548008 0.982857 0.0773981
0.174036 -0.0530157 0.983311 0.0728309
0.17091 -0.0513631 0.983947 0.0720216
0.167965 -0.0478244 0.984632 0.0697504
0.166065 -0.0457299 0.985054 0.0703864
0.169748 -0.0450919 0.984455 0.0669678
0.170367 -0.0438839 0.984403 0.0645241
0.16794 -0.042058 0.9849 0.0597748
0.167981 -0.0398774 0.984983 0.0572289
0.171178 -0.0401129 0.984423 0.0583671
0.172997 -0.0403536 0.984095 0.0568054
0.171518 -0.041398 0.984311 0.0536542
0.16957 -0.039424 0.984729 0.0507108
0.16964 -0.0397089 0.984706 0.0445833
0.171566 -0.0382232 0.984431 0.0400595
0.171504 -0.0363852 0.984511 0.0291999
0.172208 -0.0340081 0.984473 0.0271793
0.172763 -0.0314539 0.984461 0.0219622
0.171777 -0.0318389 0.984621 0.0199645
0.172052 -0.0318994 0.984571 0.0200737
0.172334 -0.0326482 0.984497 0.0228057
0.177793 -0.035702 0.98342 0.0289304
0.180756 -0.0382 0.982786 0.0288756
0.183669 -0.0392961 0.982202 0.0316264
0.184372 -0.039443 0.982065 0.0311709
0.185359 -0.0426902 0.981743 0.036138
0.18551 -0.0444453 0.981637 0.0369718
0.183282 -0.0450222 0.982029 0.0346135
0.182056 -0.0463453 0.982195 0.034762
0.182026 -0.0469203 0.982174 0.0348858
0.187341 -0.049139 0.981065 0.0393893
0.194154 -0.0508034 0.979655 0.0414746
0.197522 -0.0514614 0.978947 0.0412626
0.19949 -0.0521333 0.978512 0.042979
0.200763 -0.05194 0.978262 0.0443471
0.199268 -0.0525632 0.978534 0.0423682
0.194664 -0.0515618 0.979514 0.0348019
0.190537 -0.0509196 0.980358 0.0258424
0.190834 -0.0517477 0.980257 0.0206665
0.187412 -0.0490408 0.981056 0.00361964
0.185756 -0.0480771 0.981419 0
0.186533 -0.0483426 0.981259 0
0.188486 -0.0479041 0.980907 0
0.191806 -0.0482023 0.980248 0
0.194471 -0.0480815 0.979729 0
0.196214 -0.0484032 0.979366 0
0.19512 -0.0482146 0.979594 0
0.193484 -0.0503516 0.97981 0
0.190381 -0.0495613 0.980458 0
0.190573 -0.0502851 0.980384 0
0.19311 -0.0513958 0.97983 0
0.193117 -0.0522341 0.979784 0
0.193322 -0.0529851 0.979704 0
0.193703 -0.0531558 0.979619 0
0.194172 -0.0541887 0.97947 0
0.196027 -0.0561863 0.978987 0
0.196668 -0.0570938 0.978806 0.00313675
0.198107 -0.0569214 0.978526 0.0052325
0.196985 -0.0569901 0.978749 0.0050222
0.199781 -0.0563019 0.978222 0
0.202741 -0.0558653 0.977637 0
0.201219 -0.0550002 0.978001 0
0.198149 -0.0541751 0.978674 0
0.199153 -0.0537019 0.978496 0
0.202277 -0.056016 0.977725 0
0.202318 -0.0573377 0.97764 0
0.202336 -0.0573215 0.977637 0
0.199709 -0.0585964 0.978102 0
0.200391 -0.061672 0.977773 0.00389991
0.200457 -0.0634858 0.977643 0.00537292
0.202245 -0.0660115 0.977108 0.00419306
0.202242 -0.0677128 0.976992 0.00604885
0.202945 -0.0694043 0.976727 0.010754
0.204301 -0.0732613 0.976163 0.0165352
0.202682 -0.0755685 0.976324 0.0159642
0.202299 -0.0774917 0.976253 0.0133698
0.204178 -0.0789658 0.975744 0.0145417
0.204322 -0.0798245 0.975644 0.0142671
0.205173 -0.0792985 0.975508 0.0164363
0.203967 -0.0792552 0.975764 0.0168846
0.204214 -0.0782142 0.975797 0.0141374
0.204925 -0.0781591 0.975652 0.012103
0.204545 -0.077451 0.975788 0.00789204
0.207744 -0.0815473 0.974778 0.0167512
0.208947 -0.0839257 0.974319 0.0206289
0.206735 -0.0839904 0.974785 0.0164146
0.207859 -0.0833877 0.974598 0.0153976
0.207897 -0.0833593 0.974592 0.0117285
0.209318 -0.0859693 0.974061 0.0180901
0.209472 -0.0882559 0.973824 0.0213533
0.210372 -0.0904895 0.973425 0.0266512
0.209773 -0.0900204 0.973597 0.0256122
0.209646 -0.0913152 0.973504 0.0280344
0.210858 -0.0926183 0.973119 0.0295017
0.209776 -0.0922374 0.973389 0.0262713
0.211015 -0.0927767 0.97307 0.0251356
0.212203 -0.0964569 0.972454 0.0266587
0.212061 -0.0928708 0.972833 0.025389
0.211763 -0.0946945 0.972723 0.02318
0.212579 -0.0959318 0.972423 0.0251576
0.211683 -0.0954972 0.972662 0.0216206
0.213518 -0.0945048 0.972358 0.0166257
0.212591 -0.0954555 0.972468 0.0171684
0.214185 -0.097901 0.971875 0.0183163
0.21344 -0.0949846 0.972328 0.0135882
0.215596 -0.0997197 0.971378 0.0191648
0.215969 -0.100372 0.971227 0.020059
0.214929 -0.100344 0.971461 0.0181125
0.214826 -0.098496 0.971673 0.0150685
0.215152 -0.0979617 0.971655 0.00635566
0.216094 -0.097198 0.971523 0.0060213
0.218098 -0.0987384 0.970919 0.00681943
0.217771 -0.0976129 0.971106 0.00611589
0.217808 -0.0964519 0.971214 0.00288476
0.217245 -0.0968926 0.971296 0.00377449
0.217246 -0.0954238 0.971441 0.00073306
0.21978 -0.0961441 0.9708 0
0.219268 -0.0940593 0.97112 0.00117051
0.219395 -0.0948559 0.971014 0.000558623
0.221208 -0.0965919 0.970431 0.00197243
0.220681 -0.0961409 0.970596 0
0.221964 -0.0941531 0.970498 0
0.221234 -0.096564 0.970428 0.00436224
0.223314 -0.0977148 0.969836 0.00995082
0.221398 -0.0958944 0.970457 0.00435714
0.220707 -0.0897639 0.971201 0
0.221788 -0.0889875 0.971026 0
0.222292 -0.0875737 0.971039 0
0.223215 -0.088246 0.970766 0
0.222742 -0.0901495 0.9707 0.0010279
0.222546 -0.0858658 0.971134 0
0.22324 -0.0846514 0.971081 0.00187593
0.0492668 -0.134923 0.98963 0
0.0489125 -0.131569 0.9901 0
0.0508548 -0.127882 0.990485 0
0.0525714 -0.119574 0.991432 0
0.0546048 -0.119276 0.991358 0
0.0560639 -0.117833 0.99145 0
0.0575245 -0.111053 0.992148 0
0.0568874 -0.114624 0.991779 0
0.0575792 -0.115548 0.991632 0
0.0567438 -0.116137 0.991611 0
0.0587138 -0.118212 0.991251 0
0.0595435 -0.118811 0.99113 0
0.0597406 -0.120837 0.990873 0
0.0596131 -0.118768 0.991131 0
0.061231 -0.115611 0.991405 0
0.0623148 -0.119194 0.990914 0.00363869
0.0632439 -0.120323 0.990718 0.0053407
0.0636386 -0.122848 0.990383 0.0105693
0.0642987 -0.1213 0.990531 0.0103276
0.0665574 -0.119695 0.990577 0.0118232
0.0671074 -0.116188 0.990958 0.00869373
0.0686198 -0.115615 0.990921 0.0107364
0.068133 -0.113053 0.99125 0.0133275
0.068268 -0.108938 0.991702 0.0126656
0.0687417 -0.109564 0.9916 0.0114424
0.0706153 -0.113311 0.991047 0.0211031
0.0723884 -0.110674 0.991217 0.0233546
0.0729173 -0.110541 0.991193 0.0267538
0.0734765 -0.107994 0.991433 0.0258933
0.0740072 -0.106149 0.991592 0.0255009
0.0747339 -0.104361 0.991728 0.0239167
0.0755002 -0.103714 0.991737 0.0272352
0.0762264 -0.105555 0.991488 0.029779
0.0776555 -0.101199 0.991831 0.0262411
0.0792548 -0.10083 0.991742 0.0282891
0.0802137 -0.0939676 0.992339 0.0192695
0.0820201 -0.0952669 0.992067 0.0224444
0.0841813 -0.0941174 0.991996 0.0210948
0.0848489 -0.0953031 0.991826 0.0298602
0.0863042 -0.0913975 0.992068 0.023759
0.0879792 -0.0908479 0.991971 0.0214022
0.08926 -0.086059 0.992283 0.0103713
0.091174 -0.0854098 0.992166 0.0122799
0.0913366 -0.0866273 0.992045 0.0180328
0.0927652 -0.0844741 0.992098 0.0198674
0.0939624 -0.0814089 0.992242 0.0148248
0.0961341 -0.0822342 0.991966 0.0149706
0.0953626 -0.0842619 0.99187 0.0230853
0.0955369 -0.0822868 0.992019 0.0261919
0.0953116 -0.0808979 0.992155 0.025216
0.0968119 -0.0810584 0.991996 0.0331493
0.100799 -0.0800141 0.991684 0.0327012
0.102249 -0.0774363 0.99174 0.0312791
0.105938 -0.0724195 0.991732 0.022878
0.107749 -0.0692926 0.99176 0.0208879
0.110543 -0.0652059 0.99173 0.0172381
0.110079 -0.063074 0.99192 0.0188709
0.109764 -0.0589912 0.992206 0.0107588
0.110059 -0.0571759 0.992279 0.00645493
0.112874 -0.0544865 0.992114 0
0.114234 -0.052667 0.992057 0
0.112394 -0.0517689 0.992314 0
0.115538 -0.0493581 0.992076 0
0.118923 -0.0472629 0.991778 0
0.121412 -0.0473606 0.991472 0
0.123009 -0.044348 0.991414 0
0.124014 -0.0432765 0.991336 0
0.123171 -0.0403569 0.991565 0
0.122627 -0.0385633 0.991703 0
0.121531 -0.0387471 0.991831 0
0.123056 -0.03804 0.99167 0.00493026
0.124428 -0.0394497 0.991444 0.0130045
0.128939 -0.0377964 0.990932 0.0132503
0.131727 -0.0379069 0.990561 0.0153075
0.132473 -0.0374182 0.99048 0.0173493
0.135766 -0.0393857 0.989958 0.029481
0.136391 -0.0419655 0.989766 0.0379816
0.137759 -0.0435382 0.989508 0.0433995
0.13899 -0.0421232 0.989398 0.0413906
0.137972 -0.0398124 0.989636 0.0375289
0.14103 -0.0408813 0.989161 0.0446937
0.143216 -0.040282 0.988871 0.0455631
0.145843 -0.0417239 0.988428 0.0476777
0.147811 -0.0426884 0.988094 0.0549343
0.1472 -0.0416 0.988232 0.0527132
0.147584 -0.0415299 0.988177 0.0579265
0.148812 -0.0420678 0.98797 0.0605966
0.150395 -0.0392661 0.987846 0.0553384
0.15248 -0.0368345 0.98762 0.0506362
0.151073 -0.034145 0.987933 0.0413895
0.14976 -0.0320885 0.988202 0.0338158
0.148568 -0.0314852 0.988401 0.0304976
0.148158 -0.0293322 0.988529 0.0243933
0.149271 -0.0278733 0.988403 0.0208299
0.148399 -0.0258615 0.988589 0.00993726
0.146792 -0.0264525 0.988814 0.00761403
0.146536 -0.0251684 0.988885 0.00325736
0.147864 -0.0260367 0.988665 0.00529877
0.148223 -0.027506 0.988571 0.0105165
0.149039 -0.0262782 0.988482 0.00953786
0.146528 -0.0262752 0.988858 0.00354578
0.145498 -0.0262202 0.989011 3.91537e-05
0.145768 -0.0258733 0.98898 0.000879008
0.147144 -0.0264257 0.988762 0.0029742
0.151564 -0.0280793 0.988049 0.00447258
0.152049 -0.0314453 0.987873 0.00727893
0.153788 -0.0316944 0.987595 0.00920565
0.157048 -0.0312427 0.987097 0.00704804
0.159649 -0.0330904 0.986619 0.0108767
0.158555 -0.0336998 0.986775 0.00913447
0.157695 -0.0354077 0.986853 0.0113966
0.159833 -0.0346778 0.986535 0.00276391
0.160254 -0.036787 0.98639 0.00251493
0.161207 -0.0378335 0.986195 0.00329384
0.159244 -0.0380635 0.986505 0
0.159968 -0.0394144 0.986335 0.00198892
0.162751 -0.0403629 0.985841 0.00700724
0.167199 -0.042819 0.984993 0.0160774
0.16881 -0.0450407 0.984619 0.0244697
0.169979 -0.047092 0.984322 0.0297769
0.173922 -0.0503783 0.98347 0.0383261
0.17445 -0.0503599 0.983377 0.0367049
0.17451 -0.0487786 0.983446 0.030702
0.174885 -0.0495481 0.983341 0.0330156
0.17569 -0.0497229 0.983189 0.0377649
0.173358 -0.0496816 0.983605 0.0305641
0.173939 -0.0497684 0.983498 0.0278634
0.174824 -0.0500182 0.983328 0.0244575
0.173667 -0.0489167 0.983589 0.0169676
0.173613 -0.0476364 0.983661 0.010741
0.174903 -0.0478739 0.983421 0.00638055
0.175606 -0.0485657 0.983262 0.00612002
0.174484 -0.0491072 0.983435 0.00393277
0.173097 -0.0474297 0.983762 1.88465e-05
0.173081 -0.0472367 0.983774 0
0.173932 -0.0474013 0.983616 0.00306007
0.178339 -0.0495353 0.982721 0.0102407
0.180082 -0.0499805 0.982381 0.0140692
0.18074 -0.0499473 0.982262 0.013679
0.181457 -0.0506466 0.982094 0.00849859
0.182883 -0.0505933 0.981832 0.00871149
0.183637 -0.0502449 0.981709 0.00789653
0.184484 -0.0521241 0.981452 0.0111556
0.186296 -0.0552389 0.98094 0.0138226
0.184915 -0.056398 0.981135 0.0143803
0.183762 -0.0566843 0.981335 0.0134562
0.183707 -0.0539815 0.981498 0.00634649
0.185026 -0.0534792 0.981277 0.00654681
0.184595 -0.0565037 0.981189 0.00822723
0.187516 -0.0560535 0.980661 0.00983328
0.18936 -0.0559122 0.980314 0.0154167
0.189431 -0.0569146 0.980243 0.0224523
0.190343 -0.0608944 0.979827 0.0287532
0.192521 -0.0644825 0.979172 0.0343147
0.195019 -0.069166 0.978358 0.0449791
0.193334 -0.071302 0.978539 0.0449051
0.192968 -0.0756705 0.978283 0.0480566
0.192193 -0.0768863 0.978341 0.0466363
0.191585 -0.0751704 0.978593 0.0378962
0.190839 -0.0745153 0.978789 0.033475
0.190107 -0.07607 0.978812 0.0318157
0.188789 -0.0766524 0.979021 0.0276232
0.187431 -0.0747377 0.97943 0.0213848
0.188545 -0.0770729 0.979035 0.0229388
0.188568 -0.0766335 0.979066 0.0183167
0.188691 -0.0757979 0.979107 0.0140847
0.188842 -0.0733657 0.979263 0.00782642
0.188023 -0.0709016 0.979602 0.00118177
0.188236 -0.0708429 0.979565 0
0.188569 -0.07221 0.979402 0.000780749
0.190225 -0.0729036 0.97903 0.00713398
0.191074 -0.0731742 0.978844 0.00857762
0.192024 -0.0744972 0.978559 0.00851143
0.193753 -0.0784653 0.977907 0.0168548
0.19238 -0.0795448 0.978091 0.0137728
0.195116 -0.0846435 0.977121 0.0210494
0.195872 -0.089254 0.976559 0.0245894
0.196746 -0.0909366 0.976228 0.0244329
0.198311 -0.0968318 0.975344 0.0306389
0.197467 -0.0946812 0.975727 0.0304868
0.197847 -0.0970594 0.975416 0.0316148
0.19908 -0.099424 0.974927 0.0325315
0.19922 -0.102296 0.974601 0.0323062
0.199683 -0.10059 0.974684 0.029539
0.199998 -0.10078 0.9746 0.0314714
0.200186 -0.102404 0.974392 0.0326571
0.200156 -0.103908 0.974239 0.0336657
0.200687 -0.105051 0.974007 0.0332486
0.200702 -0.104621 0.97405 0.0303337
0.200011 -0.104523 0.974203 0.026606
0.199095 -0.103078 0.974544 0.0234631
0.198719 -0.103504 0.974576 0.0220197
0.200011 -0.107953 0.973828 0.0239627
0.199791 -0.109977 0.973647 0.0259454
0.200899 -0.11037 0.973375 0.0239547
0.20125 -0.109817 0.973365 0.0235409
0.201796 -0.111022 0.973115 0.0248798
0.201667 -0.112464 0.972976 0.0255268
0.201372 -0.110006 0.973318 0.0255846
0.201019 -0.112132 0.973148 0.0242685
0.200958 -0.110904 0.973302 0.0246366
0.201489 -0.113497 0.972893 0.0262093
0.201452 -0.113611 0.972887 0.0277389
0.200738 -0.113391 0.973061 0.0275021
0.201867 -0.110159 0.973198 0.023772
0.202568 -0.1059 0.973525 0.0169286
0.203137 -0.10713 0.973272 0.0196345
0.204107 -0.105775 0.973217 0.0143651
0.202368 -0.106059 0.97355 0.0138301
0.201569 -0.10486 0.973845 0.0106082
0.202199 -0.104566 0.973746 0.00945461
0.20176 -0.103181 0.973985 0.00756238
0.199886 -0.101166 0.974582 0
0.202242 -0.107463 0.973422 0.0104425
0.202452 -0.106934 0.973436 0.0144977
0.202279 -0.109113 0.97323 0.0120484
0.202911 -0.111629 0.972813 0.0166343
0.204387 -0.117905 0.971763 0.0276374
0.204106 -0.112964 0.972409 0.0244281
0.205 -0.110548 0.972499 0.0266319
0.0298411 -0.147069 0.988676 0.0149764
0.0305843 -0.140233 0.989646 0.0115756
0.0301018 -0.140944 0.98956 0.0168559
0.0328844 -0.133338 0.990525 0.0144653
0.0335899 -0.122157 0.991942 0.00715192
0.0357429 -0.115166 0.992703 0.0022594
0.0388673 -0.110367 0.993131 0
0.0395829 -0.107074 0.993463 0
0.0411135 -0.100905 0.994046 0
0.0417078 -0.107516 0.993328 0
0.0432177 -0.106939 0.993326 0
0.0439555 -0.10794 0.993185 0
0.0453965 -0.106572 0.993268 0.00241051
0.0473495 -0.105901 0.993249 0.00270895
0.0487103 -0.104708 0.993309 0.00406598
0.0491378 -0.104119 0.99335 0.00873637
0.0485892 -0.102777 0.993517 0.0102731
0.0490866 -0.0979719 0.993978 0.0109445
0.0494546 -0.10073 0.993684 0.0156555
0.0513727 -0.099949 0.993665 0.0164809
0.0525813 -0.103184 0.993272 0.0200664
0.0528007 -0.102723 0.993308 0.0211825
0.0541018 -0.105171 0.992981 0.0240036
0.0541621 -0.103285 0.993176 0.0240027
0.0554629 -0.101797 0.993258 0.0256834
0.0558537 -0.0991331 0.993505 0.0278702
0.0575471 -0.0929438 0.994007 0.0226263
0.0596334 -0.0882588 0.994311 0.0185064
0.0606741 -0.0895539 0.994132 0.0215808
0.0619609 -0.0892145 0.994083 0.0167692
0.0642439 -0.088392 0.994012 0.019553
0.0642412 -0.0862972 0.994196 0.0227037
0.0654014 -0.0869005 0.994068 0.0257267
0.0666009 -0.0849753 0.994155 0.0268149
0.0674567 -0.0886138 0.993779 0.0363479
0.0687091 -0.0896913 0.993597 0.0395499
0.0694266 -0.0897969 0.993537 0.0388432
0.0696942 -0.0892859 0.993565 0.0386242
0.0719937 -0.084308 0.993836 0.0339349
0.0726683 -0.0800476 0.994139 0.0296828
0.0735234 -0.0803828 0.994049 0.0305598
0.0740476 -0.0749792 0.994432 0.0220741
0.0760141 -0.0681279 0.994777 0.0120164
0.0761046 -0.0675985 0.994806 0.013059
0.0780309 -0.0660044 0.994764 0.014279
0.0778897 -0.0639358 0.99491 0.0114464
0.0794621 -0.0633055 0.994826 0.00864917
0.0803455 -0.0646573 0.994668 0.0152952
0.082357 -0.0641641 0.994535 0.019086
0.082094 -0.0625996 0.994657 0.0197918
0.0838471 -0.0627295 0.994502 0.0264998
0.0857756 -0.0626081 0.994345 0.0332518
0.0879047 -0.0604722 0.994292 0.0300225
0.0899676 -0.0611046 0.994068 0.0340744
0.0909632 -0.0610182 0.993983 0.036027
0.0930758 -0.0611566 0.993779 0.0379996
0.0916225 -0.0608028 0.993936 0.0390906
0.0905657 -0.0573333 0.994239 0.0339874
0.0915219 -0.0565891 0.994194 0.0318219
0.0935799 -0.0551831 0.994081 0.0307141
0.0958549 -0.0539416 0.993933 0.0321718
0.0976542 -0.0512424 0.9939 0.0314506
0.100977 -0.0463821 0.993807 0.0219191
0.102 -0.0430442 0.993853 0.0149491
0.101009 -0.040997 0.99404 0.00939126
0.101331 -0.0382418 0.994118 0.00157696
0.102099 -0.0381222 0.994044 0.00466146
0.101469 -0.0356747 0.994199 0.00353611
0.100635 -0.0328218 0.994382 0.00143533
0.102805 -0.0328865 0.994158 0.00953354
0.106097 -0.0309544 0.993874 0.00494047
0.111909 -0.0278549 0.993328 0
0.111995 -0.0261956 0.993363 0
0.111508 -0.0235666 0.993484 0
0.110541 -0.0223918 0.993619 0
0.113194 -0.0225505 0.993317 0
0.114445 -0.0230646 0.993162 0.00291068
0.114318 -0.0227308 0.993184 0.00588955
0.114885 -0.0210215 0.993156 0.0108645
0.113931 -0.0212217 0.993262 0.00729474
0.114914 -0.023746 0.993092 0.0146655
0.117234 -0.0244699 0.992803 0.0139076
0.120127 -0.0247861 0.992449 0.0173624
0.123474 -0.0255852 0.992018 0.019524
0.125107 -0.024968 0.991829 0.0222448
0.126589 -0.0256884 0.991623 0.0239074
0.127535 -0.0264662 0.991481 0.0296758
0.127801 -0.0252796 0.991478 0.0307904
0.129933 -0.024252 0.991226 0.0311564
0.133343 -0.0218273 0.99083 0.0247353
0.136039 -0.0205618 0.99049 0.0215276
0.132354 -0.018492 0.99103 0.0119432
0.130148 -0.0178834 0.991333 0.00953979
0.127272 -0.0175189 0.991713 0.00799958
0.128986 -0.0179347 0.991484 0.00910957
0.130573 -0.0174032 0.991286 0.00926701
0.132369 -0.0159258 0.991073 0.000257693
0.13525 -0.0164834 0.990674 0
0.136593 -0.0163596 0.990492 0
0.138896 -0.0163346 0.990172 0
0.136572 -0.0159052 0.990502 0
0.137237 -0.0166682 0.990398 0
0.136493 -0.0165404 0.990503 0
0.139644 -0.01554 0.99008 0
0.144029 -0.0155595 0.989451 0
0.146242 -0.016655 0.989109 0
0.146452 -0.0184463 0.989046 0
0.145539 -0.0188884 0.989172 0
0.147403 -0.0193199 0.988888 0
0.148896 -0.0187568 0.988675 0
0.152072 -0.0201105 0.988165 0
0.151233 -0.0211371 0.988272 0
0.148077 -0.0224358 0.988721 0
0.14577 -0.0238431 0.989031 0
0.146485 -0.0248181 0.988902 0
0.145917 -0.0255706 0.988966 0
0.146395 -0.0265751 0.988869 0
0.148158 -0.0282322 0.988561 0
0.150389 -0.0296097 0.988183 0
0.148115 -0.0304583 0.988501 0
0.150372 -0.0303808 0.988162 0
0.151997 -0.0306525 0.987906 0
0.155119 -0.0317826 0.987384 0
0.152894 -0.033183 0.987685 0
0.153178 -0.0344041 0.987599 0
0.153115 -0.035947 0.987554 0.0024533
0.15463 -0.0364417 0.9873 0.00486692
0.153371 -0.0365345 0.987493 0.00519014
0.152444 -0.0364505 0.98764 0.00133516
0.154118 -0.0366909 0.987371 0
0.157319 -0.0365173 0.986872 0
0.15553 -0.0383911 0.987085 0.004481
0.154575 -0.0396208 0.987186 0.00530721
0.155671 -0.0399685 0.987 0.00331195
0.157438 -0.0408215 0.986685 0
0.159987 -0.0427363 0.986194 0
0.160987 -0.043393 0.986002 0
0.163377 -0.0432353 0.985616 0
0.162092 -0.044474 0.985773 0
0.161855 -0.0459018 0.985746 0
0.162908 -0.0480366 0.985471 0.00331513
0.163671 -0.0477078 0.985361 0.00333525
0.166805 -0.0489603 0.984774 0.00166146
0.16576 -0.0480463 0.984995 0
0.165485 -0.0515608 0.984863 0.00823198
0.166716 -0.0521563 0.984625 0.0105994
0.170151 -0.0527743 0.984004 0.0159243
0.172666 -0.0526278 0.983573 0.0181271
0.172747 -0.0529445 0.983542 0.0189595
0.173262 -0.0548932 0.983345 0.0248168
0.173999 -0.058341 0.983016 0.0298329
0.175342 -0.0613409 0.982595 0.0364903
0.178444 -0.0645003 0.981834 0.0442603
0.180357 -0.0673888 0.98129 0.0425068
0.181571 -0.0729291 0.98067 0.0519576
0.18305 -0.0775515 0.98004 0.0589095
0.181227 -0.0792378 0.980244 0.0601827
0.18007 -0.0789996 0.980476 0.0574354
0.177696 -0.0766771 0.981094 0.0494438
0.176169 -0.0737054 0.981597 0.0439379
0.174795 -0.0716595 0.981994 0.0352904
0.175104 -0.0708088 0.982 0.0330655
0.174427 -0.0714541 0.982074 0.0316713
0.175855 -0.073289 0.981684 0.0351702
0.177924 -0.0763118 0.981081 0.0414308
0.179542 -0.07906 0.980568 0.0419447
0.177219 -0.0814618 0.980794 0.0374456
0.175588 -0.0811464 0.981114 0.0328156
0.177933 -0.0838689 0.980462 0.0356252
0.177532 -0.0851149 0.980427 0.0312886
0.178466 -0.0870529 0.980088 0.0295267
0.178049 -0.0867989 0.980186 0.0289233
0.178165 -0.0899165 0.979884 0.0329625
0.17952 -0.0932863 0.979321 0.0373876
0.182817 -0.0987071 0.978179 0.0439567
0.183156 -0.102782 0.977696 0.0485997
0.184278 -0.104445 0.977309 0.0517794
0.184053 -0.103212 0.977482 0.0488757
0.181955 -0.0987457 0.978336 0.0378873
0.181969 -0.098037 0.978405 0.0329343
0.184486 -0.0990591 0.97783 0.0370303
0.18494 -0.102892 0.977349 0.0425264
0.185736 -0.103956 0.977085 0.0414695
0.185765 -0.103647 0.977112 0.0378157
0.185935 -0.106503 0.976773 0.0398466
0.18569 -0.105249 0.976955 0.0367417
0.185444 -0.106493 0.976867 0.0372019
0.184747 -0.104504 0.977214 0.0326293
0.183939 -0.105224 0.977289 0.0325341
0.182671 -0.104286 0.977628 0.0290087
0.182892 -0.107792 0.977206 0.031555
0.182052 -0.109844 0.977134 0.0312326
0.181737 -0.108915 0.977297 0.0261224
0.181847 -0.112794 0.976836 0.0298501
0.183261 -0.115199 0.976291 0.032183
0.183624 -0.117931 0.975897 0.0351825
0.183272 -0.119492 0.975773 0.03556
0.184131 -0.120834 0.975446 0.0348384
0.184697 -0.118733 0.975597 0.0336916
0.183914 -0.116983 0.975956 0.0302064
0.184223 -0.121328 0.975367 0.0348025
0.182888 -0.123747 0.975315 0.0376329
0.181249 -0.122067 0.975832 0.0330023
0.180065 -0.118597 0.976479 0.0257031
0.180908 -0.119619 0.976199 0.0253097
0.180407 -0.119449 0.976312 0.0248803
0.180297 -0.118902 0.976399 0.0216464
0.180783 -0.11813 0.976403 0.0200152
0.178788 -0.115938 0.977033 0.0103699
0.177815 -0.108007 0.978119 0
0.178453 -0.10903 0.977889 0.0032986
0.177299 -0.106354 0.978394 0.000864829
0.177617 -0.105738 0.978403 0
0.177282 -0.103338 0.97872 0
0.177242 -0.101418 0.978928 0
0.177221 -0.105249 0.978527 0
0.178889 -0.110146 0.977684 0.010523
0.179557 -0.111968 0.977355 0.0154685
0.179877 -0.106112 0.977949 0.0115656
0.18006 -0.105454 0.977987 0.0122529
0.179862 -0.104142 0.978164 0.00821804
0.179905 -0.099027 0.978687 0.0028941
0.0172979 -0.151024 0.988379 0.018192
0.020462 -0.143394 0.989454 0.0149848
0.0214106 -0.136822 0.990364 0.0134659
0.0224703 -0.125332 0.99186 0.00657594
0.0226572 -0.119716 0.99255 0.00407351
0.02322 -0.111961 0.993441 0
0.0262092 -0.110903 0.993486 0
0.0279022 -0.103215 0.994268 0
0.0278514 -0.105214 0.99406 0
0.0285061 -0.101473 0.99443 0
0.0317505 -0.0964917 0.994827 0
0.032676 -0.0945704 0.994982 0
0.0341664 -0.0909551 0.995269 0
0.033739 -0.0905921 0.995316 0.00173364
0.0344939 -0.089512 0.995388 0.00375783
0.03628 -0.0925185 0.99505 0.0103652
0.0379929 -0.0937814 0.994868 0.0132723
0.0381787 -0.0930804 0.994926 0.0141669
0.0380151 -0.0950366 0.994748 0.0174695
0.0384277 -0.0956177 0.994676 0.0187465
0.039496 -0.0981 0.994393 0.022392
0.0397383 -0.0965935 0.99453 0.0239308
0.0407204 -0.0942495 0.994716 0.0238482
0.0415902 -0.0906099 0.995018 0.0208496
0.0435831 -0.0908437 0.994911 0.0242256
0.045416 -0.0907192 0.99484 0.0242227
0.0469038 -0.0913129 0.994717 0.0254882
0.047352 -0.0889345 0.994911 0.0244958
0.0469642 -0.0841503 0.995346 0.0169739
0.0483607 -0.0841563 0.995278 0.0192663
0.0493644 -0.079545 0.995608 0.0111344
0.0505343 -0.0806494 0.995461 0.0158797
0.0511324 -0.0815099 0.99536 0.0180951
0.0526774 -0.0805155 0.99536 0.022327
0.0531204 -0.076724 0.995636 0.0195189
0.0543989 -0.0725019 0.995884 0.0194372
0.0564452 -0.0691923 0.996005 0.0136068
0.0567759 -0.0671181 0.996128 0.0194738
0.0565586 -0.0645398 0.996311 0.0241384
0.0576402 -0.0658173 0.996166 0.0306236
0.0585807 -0.0641912 0.996217 0.0305417
0.0599203 -0.0622069 0.996263 0.026211
0.0588381 -0.0611503 0.996393 0.0224801
0.0600336 -0.0593398 0.996431 0.016892
0.0607084 -0.0588291 0.99642 0.0184122
0.0608834 -0.0574751 0.996489 0.0179326
0.0614199 -0.0581473 0.996417 0.0223958
0.0636118 -0.0571895 0.996335 0.020911
0.0641163 -0.0549555 0.996428 0.0181729
0.0652118 -0.0554509 0.99633 0.0220879
0.066337 -0.0536681 0.996353 0.0193117
0.0694759 -0.051659 0.996245 0.0162605
0.0707978 -0.0505459 0.996209 0.018716
0.0713856 -0.0498234 0.996204 0.0141432
0.0722681 -0.0499682 0.996133 0.0155483
0.0716606 -0.0545362 0.995937 0.0308525
0.0725859 -0.0534648 0.995928 0.0339971
0.0724704 -0.0548128 0.995863 0.0367445
0.074405 -0.0540011 0.995765 0.0355507
0.0728767 -0.0503976 0.996067 0.0315072
0.0739565 -0.0509472 0.995959 0.0341929
0.0773609 -0.04916 0.99579 0.0313914
0.0790711 -0.0465598 0.995781 0.0266325
0.0802181 -0.0431086 0.995845 0.0231403
0.079179 -0.0421845 0.995968 0.0257966
0.0813852 -0.0397603 0.995889 0.0200851
0.0815668 -0.0398197 0.995872 0.0206914
0.0819456 -0.0339588 0.996058 0.0127414
0.0830667 -0.0295236 0.996107 0.00234179
0.0815279 -0.0273046 0.996297 0.000168321
0.0853963 -0.0251519 0.99603 0
0.0888136 -0.023211 0.995778 0
0.0904977 -0.0209088 0.995677 0
0.092309 -0.0181239 0.995565 0
0.0922576 -0.0166439 0.995596 0
0.0938143 -0.015536 0.995468 0
0.0968234 -0.0139747 0.995203 0
0.095936 -0.0141994 0.995286 0
0.0943588 -0.0150172 0.995425 0.00185783
0.0963968 -0.0154764 0.995223 0.00634296
0.0996445 -0.0145029 0.994917 0.00264621
0.102072 -0.0148451 0.994666 0
0.104207 -0.0142715 0.994453 0.000823756
0.105976 -0.0156691 0.994245 0
0.106287 -0.0159385 0.994208 0.00300456
0.107411 -0.0143344 0.994111 0.00112823
0.109103 -0.0128292 0.993948 0.00476293
0.110833 -0.0133825 0.993749 0.00755142
0.108635 -0.0146792 0.993973 0.0149827
0.107501 -0.0136189 0.994112 0.0208163
0.111256 -0.0139121 0.993694 0.028069
0.11445 -0.0135895 0.993336 0.0254144
0.117649 -0.0143239 0.992952 0.0188211
0.116121 -0.0136017 0.993142 0.014211
0.114808 -0.0130078 0.993303 0.00806145
0.115389 -0.0133976 0.99323 0.00378136
0.116255 -0.0111041 0.993157 0
0.119048 -0.0104737 0.992833 0
0.117886 -0.0102519 0.992974 0
0.118622 -0.0102998 0.992886 0
0.120239 -0.0103599 0.992691 0
0.12431 -0.0106905 0.992186 0
0.127212 -0.0110337 0.991814 0
0.130351 -0.0115019 0.991401 0
0.129438 -0.0125508 0.991508 0
0.129281 -0.0141068 0.991508 0
0.130156 -0.0145375 0.991387 0
0.131999 -0.0174597 0.991096 0
0.129786 -0.0192606 0.991355 0
0.129098 -0.019698 0.991436 0
0.127974 -0.0213782 0.991547 0
0.130041 -0.0238531 0.991222 0
0.131097 -0.0252302 0.991048 0
0.13065 -0.0235346 0.991149 0
0.1342 -0.022762 0.990693 0
0.134954 -0.0243385 0.990553 0
0.134175 -0.023268 0.990685 0
0.134131 -0.0216466 0.990727 0
0.131863 -0.0222045 0.991019 0
0.132335 -0.0233634 0.99093 0
0.135002 -0.0249177 0.990532 0
0.13621 -0.0263565 0.990329 0
0.137264 -0.0270435 0.990165 0
0.136751 -0.0276438 0.99022 0
0.13568 -0.0283708 0.990346 0.00255761
0.137189 -0.0313861 0.990048 0.00396555
0.139483 -0.0319554 0.989709 0.00589708
0.14028 -0.0339015 0.989531 0.00842014
0.137586 -0.033801 0.989913 0.00297707
0.136723 -0.0343498 0.990014 0.00369262
0.137449 -0.0352702 0.989881 0.00513138
0.140349 -0.0340615 0.989516 0.00229083
0.141307 -0.0362381 0.989302 0.00219526
0.142158 -0.038061 0.989112 0
0.142011 -0.03945 0.989079 0
0.14264 -0.0395324 0.988985 0
0.146414 -0.042098 0.988327 0.00487451
0.147001 -0.042179 0.988237 0
0.148468 -0.0437588 0.987949 0.00152225
0.14944 -0.0449313 0.987749 0.00447651
0.148953 -0.0434886 0.987888 0.000428103
0.149935 -0.0461827 0.987617 0.00946228
0.149901 -0.0465948 0.987602 0.0109745
0.152433 -0.0462184 0.987233 0.00715533
0.154631 -0.0470321 0.986852 0.0114353
0.155908 -0.0482601 0.986592 0.0183968
0.1554 -0.0481412 0.986678 0.0166433
0.156659 -0.049105 0.986431 0.0209134
0.158942 -0.0506773 0.985987 0.0244603
0.158639 -0.0528186 0.985923 0.0263731
0.161622 -0.0567866 0.985218 0.0313158
0.161844 -0.0586526 0.985072 0.0344468
0.16232 -0.0621367 0.98478 0.0401784
0.16269 -0.0663653 0.984443 0.0419056
0.164857 -0.0704553 0.983798 0.0493191
0.167437 -0.0749107 0.983033 0.0583856
0.167052 -0.0778413 0.98287 0.060319
0.165547 -0.0802982 0.982928 0.059564
0.164739 -0.0784029 0.983216 0.0553732
0.164114 -0.0778572 0.983364 0.0552647
0.163388 -0.0760934 0.983623 0.0502048
0.163258 -0.0729349 0.983884 0.0436785
0.161713 -0.0716756 0.984231 0.0389497
0.160779 -0.0695667 0.984536 0.033941
0.161025 -0.069139 0.984526 0.0318819
0.160718 -0.0681762 0.984643 0.0262761
0.160301 -0.0700249 0.984581 0.0289986
0.159938 -0.071258 0.984552 0.0263481
0.159491 -0.075054 0.984342 0.0324628
0.160341 -0.0753215 0.984184 0.0327862
0.161896 -0.0797374 0.983581 0.0436173
0.162086 -0.0817207 0.983387 0.044839
0.162458 -0.0857138 0.982986 0.0472279
0.164128 -0.088676 0.982445 0.0518891
0.162443 -0.0867381 0.982898 0.0418729
0.161025 -0.0857105 0.983222 0.0353476
0.162091 -0.0906006 0.982608 0.041016
0.162243 -0.0919029 0.982462 0.0379679
0.162295 -0.0940853 0.982247 0.0389115
0.162203 -0.0971698 0.981961 0.0395217
0.162771 -0.0988395 0.981701 0.0404936
0.16432 -0.100333 0.981291 0.0403435
0.165275 -0.101056 0.981056 0.0405238
0.165487 -0.101681 0.980956 0.0410783
0.166273 -0.102952 0.980691 0.0415369
0.166046 -0.102797 0.980745 0.0381045
0.16507 -0.102664 0.980924 0.035399
0.164041 -0.105383 0.980808 0.036483
0.165319 -0.108223 0.980284 0.0396941
0.166697 -0.111578 0.979675 0.0429609
0.168178 -0.115099 0.979014 0.0454631
0.167928 -0.114793 0.979093 0.0435635
0.16659 -0.115498 0.979238 0.0436327
0.166018 -0.115384 0.979349 0.0419595
0.166317 -0.114817 0.979365 0.0376216
0.164214 -0.111802 0.980068 0.0296783
0.165673 -0.113149 0.979668 0.0321184
0.16447 -0.112616 0.979932 0.0321165
0.164577 -0.110216 0.980187 0.02606
0.163746 -0.111247 0.98021 0.0234496
0.163716 -0.113361 0.979973 0.0240703
0.164681 -0.115975 0.979505 0.0252758
0.163721 -0.11861 0.97935 0.0279687
0.163509 -0.11749 0.979521 0.0227194
0.161769 -0.117416 0.979818 0.0222139
0.159883 -0.115044 0.980409 0.0172611
0.15923 -0.116514 0.980342 0.0196881
0.158566 -0.114605 0.980675 0.014004
0.1584 -0.109954 0.981234 0.00352942
0.157704 -0.107345 0.981635 0.0021686
0.159475 -0.105681 0.981529 0
0.1595 -0.107231 0.981357 0
0.160402 -0.105011 0.98145 0
0.160453 -0.103043 0.98165 0
0.159769 -0.104001 0.981661 0
0.160167 -0.101764 0.98183 0
0.159833 -0.102569 0.981801 0
0.159253 -0.101107 0.982047 0
0.158277 -0.10138 0.982176 0.0039562
0.15941 -0.0996714 0.982168 0
0.158699 -0.104053 0.981829 0.00198739
0.160175 -0.107748 0.98119 0.00808456
0.160161 -0.10185 0.981822 0.00195567
0.160527 -0.099208 0.982033 0.00259113
0.0117536 -0.138732 0.99026 0.0124549
0.013759 -0.133106 0.991006 0.0109573
0.0139044 -0.132939 0.991027 0.0138154
0.0142202 -0.129382 0.991493 0.0136976
0.0147127 -0.130229 0.991375 0.0178204
0.0149893 -0.120243 0.992631 0.00897638
0.0158326 -0.114976 0.993242 0.00852468
0.0175364 -0.109269 0.993858 0.00542127
0.0174967 -0.102076 0.994623 0.00803365
0.0185376 -0.0952644 0.995279 0.00749594
0.0191794 -0.0922555 0.995551 0.00398139
0.0208402 -0.0873682 0.995958 0.000682186
0.0222591 -0.0883913 0.995837 0.00109079
0.0230809 -0.0879775 0.995855 0.00346578
0.022586 -0.0907067 0.995622 0.0100788
0.022164 -0.0909078 0.995613 0.0136613
0.0250472 -0.0876273 0.995838 0.0107499
0.0262524 -0.0855951 0.995984 0.0112212
0.0258083 -0.0847206 0.99607 0.0104465
0.027143 -0.0835638 0.996133 0.0112461
0.0282289 -0.083188 0.996134 0.0134374
0.0285893 -0.085779 0.995904 0.0132821
0.0294095 -0.0870458 0.99577 0.0166463
0.0304612 -0.0848685 0.995926 0.0119261
0.03229 -0.0850002 0.995858 0.011467
0.0338635 -0.0799312 0.996225 0.00709286
0.0350222 -0.0816567 0.996045 0.00868867
0.0366955 -0.0778459 0.99629 0.0106538
0.0374659 -0.0748822 0.996488 0.00851591
0.0379566 -0.0733323 0.996585 0.00686765
0.0395141 -0.0728445 0.99656 0.00908159
0.0399786 -0.0728951 0.996538 0.0109077
0.0411547 -0.0734827 0.996447 0.0170974
0.0420992 -0.0722595 0.996497 0.0192185
0.0423707 -0.0690697 0.996712 0.0136126
0.0418422 -0.06655 0.996905 0.0114149
0.0433035 -0.0643557 0.996987 0.010146
0.0442435 -0.0618237 0.997106 0.0118984
0.0451108 -0.0602948 0.997161 0.0156763
0.0451696 -0.0585655 0.997261 0.011319
0.0455733 -0.0573027 0.997316 0.0152692
0.0456682 -0.053286 0.997535 0.0127646
0.0458145 -0.0518342 0.997604 0.0095474
0.0466098 -0.0515066 0.997584 0.0142526
0.0461357 -0.049965 0.997685 0.014703
0.0466289 -0.0484603 0.997736 0.0149551
0.0465741 -0.0455474 0.997876 0.00903892
0.047929 -0.046969 0.997746 0.0122378
0.0484986 -0.0484429 0.997648 0.0162814
0.049155 -0.0465788 0.997704 0.0182221
0.0491207 -0.0455056 0.997756 0.0162383
0.0506956 -0.0436876 0.997758 0.0172311
0.0531423 -0.0426693 0.997675 0.0163283
0.0536604 -0.0421935 0.997667 0.0191132
0.0544345 -0.0412707 0.997664 0.012298
0.0539248 -0.0417444 0.997672 0.00893615
0.056279 -0.0389532 0.997655 0.004531
0.0568941 -0.0408841 0.997543 0.00639045
0.0555889 -0.0412145 0.997603 0.00645748
0.0563649 -0.0407854 0.997577 0.00845352
0.0598629 -0.0397027 0.997417 0.00876416
0.0607342 -0.0378584 0.997436 0.0104863
0.0604592 -0.0355865 0.997536 0.00791787
0.0607883 -0.0327594 0.997613 0.00692221
0.0616976 -0.0311173 0.99761 0.00342573
0.0635316 -0.0287718 0.997565 0
0.0631423 -0.0277546 0.997619 0
0.0659823 -0.0267293 0.997463 0
0.0679176 -0.0234482 0.997415 0
0.0693392 -0.0210651 0.997371 0
0.0696121 -0.0197916 0.997378 0
0.0703771 -0.0201358 0.997317 0.00397347
0.0708716 -0.0192039 0.997301 0.00780104
0.0717313 -0.0168448 0.997282 0.00940691
0.0722714 -0.014745 0.997276 0.0106782
0.0740587 -0.0128364 0.997171 0.00409792
0.0774654 -0.013865 0.996899 0.0102099
0.0800129 -0.0123949 0.996717 0.013185
0.0802287 -0.0125191 0.996698 0.0163984
0.0810031 -0.0124252 0.996636 0.0158512
0.0828557 -0.0123608 0.996485 0.0209376
0.0823189 -0.0111622 0.996544 0.0160119
0.0836844 -0.0120344 0.99642 0.0204041
0.084213 -0.0132634 0.996359 0.0229572
0.0869123 -0.0123969 0.996139 0.0171406
0.0896829 -0.0119577 0.995899 0.0190602
0.0916819 -0.00998419 0.995738 0.0178082
0.0936766 -0.010313 0.995549 0.0138274
0.0930264 -0.0100492 0.995613 0.0173829
0.093002 -0.0102654 0.995613 0.022252
0.0954017 -0.00658191 0.995417 0.0119834
0.0963362 -0.0062886 0.995329 0.00592072
0.0956911 -0.00443861 0.995401 0
0.0972355 -0.00347536 0.995255 0
0.100235 -0.00186554 0.994962 0
0.101499 -0.000525672 0.994836 0
0.103923 -0.00101519 0.994585 0
0.105431 -0.00174885 0.994425 0
0.10559 -0.0016832 0.994408 0
0.104867 -0.00109607 0.994486 0
0.105788 -0.00415964 0.99438 0
0.10398 -0.00633381 0.994559 0
0.104728 -0.00901608 0.99446 0
0.106502 -0.0101917 0.99426 0
0.104914 -0.0126486 0.994401 0
0.104004 -0.0157803 0.994452 0
0.104741 -0.0187361 0.994323 0
0.104176 -0.0206705 0.994344 0
0.104626 -0.0215316 0.994279 0.00030504
0.105935 -0.0234341 0.994097 0.00372227
0.107096 -0.0243431 0.993951 0.0100146
0.109654 -0.0264149 0.993619 0.00865849
0.111762 -0.0260008 0.993395 0.0151572
0.111211 -0.0232522 0.993525 0.00855707
0.112522 -0.0222371 0.9934 0.00918985
0.114173 -0.0226301 0.993203 0.0128022
0.115642 -0.0205607 0.993078 0.0109281
0.117335 -0.0213771 0.992862 0.0183848
0.118265 -0.0217195 0.992745 0.0258801
0.118455 -0.0251234 0.992642 0.0306913
0.119853 -0.0273973 0.992414 0.0308891
0.121242 -0.0285527 0.992212 0.0290821
0.121845 -0.0297538 0.992103 0.0298226
0.121403 -0.0309771 0.99212 0.0296582
0.121982 -0.0314232 0.992035 0.034767
0.120183 -0.032635 0.992215 0.0328197
0.121622 -0.0316551 0.992072 0.0263618
0.120368 -0.0307029 0.992254 0.0187226
0.120476 -0.0296592 0.992273 0.0112492
0.124045 -0.0301835 0.991817 0.0111236
0.123971 -0.032829 0.991743 0.013541
0.121856 -0.034385 0.991952 0.0106848
0.12244 -0.0349148 0.991862 0.00671565
0.126367 -0.0368375 0.991299 0.0105977
0.130349 -0.0393439 0.990687 0.0170984
0.129203 -0.0426866 0.990699 0.0208971
0.129744 -0.045185 0.990517 0.0220586
0.130857 -0.0455614 0.990354 0.0218434
0.131388 -0.0498513 0.990077 0.0288869
0.132465 -0.0530795 0.989765 0.0352233
0.133272 -0.0534232 0.989639 0.0345853
0.135253 -0.0525836 0.989415 0.036317
0.137012 -0.0528507 0.989159 0.0362683
0.137113 -0.0531622 0.989128 0.0364768
0.137567 -0.0539 0.989025 0.0367807
0.138369 -0.0528497 0.98897 0.0319645
0.140144 -0.0528844 0.988718 0.0352285
0.140842 -0.0555348 0.988473 0.0456619
0.142909 -0.0574307 0.988068 0.0458437
0.143575 -0.0591503 0.98787 0.0475878
0.144481 -0.0603564 0.987665 0.0532809
0.145848 -0.0625757 0.987326 0.056504
0.144194 -0.0634939 0.98751 0.0541653
0.146027 -0.0653593 0.987119 0.0555757
0.146823 -0.0677285 0.986841 0.0615533
0.146746 -0.0711603 0.986611 0.0671408
0.145186 -0.0726058 0.986737 0.0682198
0.144179 -0.0718537 0.986939 0.0644304
0.143971 -0.0716922 0.986982 0.0641109
0.144094 -0.070964 0.987016 0.0595711
0.143459 -0.0718186 0.987047 0.0576618
0.14179 -0.0710813 0.987341 0.0572449
0.141693 -0.0699769 0.987434 0.0507957
0.141368 -0.0674116 0.987659 0.0420318
0.141896 -0.0675476 0.987574 0.0389862
0.141414 -0.0651963 0.987801 0.0341479
0.14057 -0.0688272 0.987675 0.0397737
0.140483 -0.0703544 0.98758 0.0413438
0.141811 -0.0718859 0.98728 0.039423
0.142125 -0.0713676 0.987273 0.0363589
0.142183 -0.0721458 0.987208 0.0373229
0.140278 -0.0751686 0.987255 0.0353356
0.143085 -0.0826379 0.986254 0.0460095
0.142677 -0.0895272 0.985712 0.0530277
0.14201 -0.0932837 0.98546 0.0526949
0.141565 -0.0925964 0.985589 0.0484782
0.139535 -0.0928212 0.985857 0.0427148
0.140058 -0.0930269 0.985763 0.0471099
0.139868 -0.0959547 0.98551 0.0498292
0.138944 -0.0944073 0.98579 0.0469594
0.14043 -0.095581 0.985466 0.0440362
0.140412 -0.0964808 0.985381 0.0410504
0.140104 -0.096696 0.985404 0.0379037
0.140613 -0.100464 0.984954 0.0451336
0.141877 -0.10358 0.98445 0.0464314
0.142287 -0.106178 0.984114 0.048796
0.142541 -0.105671 0.984132 0.0478673
0.142307 -0.108737 0.983832 0.0509117
0.141968 -0.110401 0.983695 0.0517871
0.143309 -0.113239 0.983178 0.0551608
0.143909 -0.114083 0.982993 0.0542084
0.143464 -0.113142 0.983167 0.0497863
0.142657 -0.11367 0.983223 0.0486236
0.142729 -0.113293 0.983256 0.0438475
0.142567 -0.115577 0.983014 0.0445063
0.141655 -0.115295 0.983179 0.0398746
0.141267 -0.116729 0.983066 0.0383778
0.141785 -0.115818 0.983099 0.033954
0.143265 -0.116828 0.982765 0.0364648
0.144032 -0.117829 0.982533 0.0379095
0.144775 -0.114536 0.982813 0.0291416
0.143125 -0.111428 0.983412 0.022246
0.142 -0.112933 0.983403 0.020326
0.14171 -0.111167 0.983646 0.0167464
0.14051 -0.107349 0.984242 0.011711
0.140159 -0.106588 0.984375 0.00651861
0.139697 -0.104603 0.984654 0.000812454
0.140947 -0.10493 0.984441 0
0.142049 -0.103573 0.984426 0
0.143119 -0.105886 0.984025 0
0.141394 -0.106966 0.984158 0
0.141961 -0.105265 0.984259 0
0.142788 -0.105344 0.984131 0
0.142983 -0.105441 0.984092 0
0.143027 -0.103661 0.984275 0
0.142859 -0.104148 0.984248 0
0.142542 -0.104442 0.984263 0
0.142718 -0.104155 0.984268 0
0.143603 -0.102755 0.984286 0
0.145089 -0.0988203 0.984471 0
0.145171 -0.0991198 0.984429 0
0.144471 -0.100202 0.984423 0
0.142791 -0.104257 0.984246 0
0.143497 -0.101664 0.984415 0
0.143857 -0.102352 0.984291 0.00276618
0.00754554 -0.134 0.990953 0.00756698
0.00873127 -0.129976 0.991479 0.006514
