-0.036836 -0.0212322 0.999096 0.00639129
0.16149 -0.0501266 0.985601 0
-0.0527169 -0.0339493 0.998032 0
-0.0515748 -0.028744 0.998255 0.00046027
-0.0482177 -0.0230091 0.998572 0.00220239
-0.045828 -0.0210234 0.998728 0.00621665
-0.0360774 -0.0233717 0.999076 0.007222
0.0810701 -0.0423512 0.995808 0.00618372
0.159811 -0.0502284 0.985869 0
-0.0506396 -0.0380989 0.99799 0
-0.0513759 -0.0366659 0.998006 0
-0.0507229 -0.0329956 0.998168 0
-0.0449183 -0.0282026 0.998592 0
-0.0445779 -0.0213349 0.998778 0.00489193
-0.0358564 -0.022943 0.999094 0.00592702
0.0777389 -0.0415233 0.996109 0.00641281
0.148283 -0.0484589 0.987757 0
-0.0509396 -0.0346482 0.9981 0
-0.0486792 -0.0331749 0.998263 0
-0.046655 -0.0278497 0.998523 0.000188712
-0.0427077 -0.0224111 0.998836 0.00432898
-0.0353689 -0.0219547 0.999133 0.00660743
0.151575 -0.0475102 0.987303 0
-0.0481097 -0.0314011 0.998348 0
-0.0526791 -0.0354733 0.997981 0.000575832
-0.050319 -0.0326038 0.998201 0
-0.0461279 -0.0262537 0.99859 0.00119977
-0.04492 -0.021751 0.998754 0.00713658
-0.037257 -0.0219105 0.999066 0.00943605
0.148738 -0.0463709 0.987789 0
-0.0538949 -0.0387324 0.997795 0
-0.0494995 -0.0324762 0.998246 0.00241067
-0.04737 -0.0293389 0.998446 0.00154193
-0.0441545 -0.0205206 0.998814 0.00699791
-0.0391808 -0.0209056 0.999013 0.00997543
0.146523 -0.0493457 0.987976 0.00101365
-0.0536999 -0.0362134 0.9979 0.00013667
-0.0502278 -0.0309075 0.998259 0.00194129
-0.0466336 -0.030302 0.998452 0.00269531
-0.0426364 -0.0240122 0.998802 0.00362332
-0.0398514 -0.0229966 0.998941 0.00936059
0.144472 -0.0501105 0.988239 0.00221667
-0.0541594 -0.0356994 0.997894 0.000933582
-0.0500764 -0.0338392 0.998172 0.000785561
-0.0424869 -0.0247084 0.998791 0.00489294
-0.0393083 -0.0247104 0.998922 0.00685838
0.150864 -0.0518861 0.987192 0.00420719
-0.0488535 -0.0288769 0.998388 0.00216529
-0.0471252 -0.0328428 0.998349 0
-0.05406 -0.0376788 0.997827 0.000546835
-0.0493553 -0.0364195 0.998117 0.000296825
-0.044171 -0.0255558 0.998697 0.00462486
-0.039874 -0.0259759 0.998867 0.00870452
0.149502 -0.0527062 0.987356 0.00536582
-0.0483968 -0.0293845 0.998396 0.000820445
-0.0476218 -0.0348427 0.998258 0.000594608
-0.0544127 -0.0371824 0.997826 0.00222381
-0.0513832 -0.0349626 0.998067 0
-0.043234 -0.0260092 0.998726 0.00433278
-0.0391656 -0.0246762 0.998928 0.00901609
0.143649 -0.0522465 0.988249 0.00926577
-0.0490159 -0.0341773 0.998213 0
-0.0539127 -0.036746 0.997869 0
-0.0420686 -0.0262739 0.998769 0.00380093
-0.0350412 -0.0244673 0.999086 0.00458423
0.139889 -0.051708 0.988816 0.0106015
-0.0481444 -0.0342362 0.998253 0
-0.0543219 -0.0317242 0.998019 0.00263621
-0.0489857 -0.0336608 0.998232 0.000746454
-0.0352654 -0.0275156 0.998999 0.00178225
0.137898 -0.0550207 0.988917 0.00417363
-0.0474964 -0.0345857 0.998272 0
-0.0533065 -0.0303216 0.998118 0.00469826
-0.0485969 -0.0348218 0.998211 0.000400833
-0.0345274 -0.0269248 0.999041 0.00210127
0.138007 -0.0546715 0.988921 0
-0.0467377 -0.0348453 0.998299 0
-0.0522203 -0.0315316 0.998138 0.00150124
-0.0346864 -0.0275816 0.999018 0.00539174
0.105755 -0.0580121 0.992699 0.000712675
0.142277 -0.0574654 0.988157 0
-0.0474988 -0.0343121 0.998282 0
-0.0452601 -0.0365481 0.998307 0
-0.0503462 -0.0322361 0.998211 0
0.103559 -0.056551 0.993014 0.00275329
0.136855 -0.0537041 0.989134 0
0.136224 -0.0559713 0.989096 0
-0.0457454 -0.0359898 0.998305 0
-0.0441192 -0.0370782 0.998338 0
-0.0504413 -0.0335323 0.998164 0.00114037
0.0999528 -0.0564516 0.993389 0.00342476
0.140519 -0.055421 0.988526 0
0.138067 -0.0557676 0.988852 0
0.138677 -0.055881 0.98876 0.000749539
-0.0452357 -0.0383618 0.998239 0
-0.044201 -0.0377334 0.99831 0
-0.0510702 -0.0332315 0.998142 0
0.0988278 -0.0537119 0.993654 0.00632781
0.146532 -0.058297 0.987487 0
0.140274 -0.0587967 0.988365 0.00147247
0.138909 -0.0566171 0.988685 0.00431821
-0.046034 -0.0380581 0.998215 0
-0.0474037 -0.0349531 0.998264 0
-0.0532396 -0.0335475 0.998018 0.00114488
0.0989502 -0.0532319 0.993667 0.00982648
0.0986945 -0.0551803 0.993587 0.00509133
0.142558 -0.0594968 0.987997 0.00236792
0.139181 -0.0550455 0.988736 0.00355961
0.137702 -0.0551124 0.988939 0.00427204
-0.0455321 -0.0365572 0.998294 0
-0.0463555 -0.0356938 0.998287 0
-0.0539834 -0.0355647 0.997908 0.000787947
0.0975088 -0.0547688 0.993727 0.00231565
0.13784 -0.0565378 0.98884 0.00498888
0.140119 -0.0560156 0.988549 0.00579993
0.137262 -0.0540779 0.989057 0.00567939
-0.0465008 -0.0385432 0.998174 0
-0.0481766 -0.0374501 0.998137 0
0.101309 -0.0559283 0.993282 0.00127518
0.122272 -0.0557927 0.990927 0.0057411
0.131559 -0.055067 0.989778 0.00538892
0.133394 -0.0564791 0.989452 0.00508836
0.136378 -0.0554936 0.989101 0.00422372
-0.0474911 -0.03754 0.998166 0
-0.0472251 -0.0393744 0.998108 0
-0.0568143 -0.0360033 0.997735 0.00393935
0.100249 -0.0551647 0.993432 0.00324041
0.129218 -0.0545009 0.990117 0.00515508
0.132495 -0.055802 0.989612 0.00446588
0.133175 -0.0540274 0.989619 0.00398311
0.127279 -0.0558864 0.990291 0.00516938
0.128335 -0.0549225 0.990209 0.00584525
-0.0465408 -0.0386619 0.998168 0
-0.0486798 -0.0383562 0.998078 0
0.0969911 -0.0543513 0.9938 0.00738371
0.126389 -0.0570995 0.990336 0.00661654
0.132413 -0.0560337 0.98961 0.00396309
0.133519 -0.0571199 0.989399 0.00302191
-0.0469285 -0.0420795 0.998011 0
-0.0486623 -0.0414646 0.997954 0
0.105212 -0.0601142 0.992631 0
0.125063 -0.0583194 0.990433 0.00442419
0.131025 -0.0570683 0.989735 0.00409515
0.134744 -0.0584484 0.989155 0.00317422
-0.0471698 -0.0391683 0.998119 0
-0.0483893 -0.0443362 0.997844 0
-0.05766 -0.0359191 0.99769 0.00612924
0.103367 -0.0623745 0.992686 0
0.127155 -0.0598993 0.990073 0.000746668
0.134031 -0.0595677 0.989185 0.00164066
0.132059 -0.0584394 0.989518 0.00683082
-0.0474858 -0.0419955 0.997989 0
-0.0463273 -0.0466318 0.997837 0
-0.0580408 -0.0352381 0.997692 0.00715525
0.098643 -0.0608965 0.993258 0.00352395
0.12705 -0.063039 0.989891 0.00104345
0.139804 -0.0636263 0.988133 0
0.129919 -0.0639349 0.989461 0.00502272
-0.0469189 -0.0395038 0.998117 0
-0.0487023 -0.0396757 0.998025 0
-0.0479762 -0.0451229 0.997829 0
-0.0604432 -0.0348195 0.997564 0.00800386
0.130069 -0.0638055 0.98945 0.00100984
0.139222 -0.066538 0.988023 0.00108236
0.129529 -0.0687324 0.989191 0.0039328
-0.0468843 -0.0395878 0.998116 0
-0.050258 -0.0410691 0.997891 0
-0.0477132 -0.0454615 0.997826 0
-0.0601596 -0.0345861 0.997589 0.00819824
0.103088 -0.0650713 0.992542 0
0.13078 -0.06672 0.989164 0
0.139097 -0.0680308 0.987939 0.00311275
0.131956 -0.070239 0.988764 0.00647765
-0.048858 -0.0404774 0.997985 0.000869194
-0.0484921 -0.0414677 0.997962 0
-0.0487475 -0.0432565 0.997874 0
0.105369 -0.0679148 0.992111 0
0.131373 -0.0683524 0.988974 0.00344833
0.146824 -0.0691466 0.986743 0.00390576
0.136117 -0.0682207 0.988341 0.00790747
-0.0489684 -0.0394946 0.998019 0
-0.0490865 -0.0410237 0.997952 0
0.133323 -0.0661268 0.988864 0.00461934
0.14664 -0.0693597 0.986755 0.00250706
0.137329 -0.0686025 0.988147 0.00907958
-0.0484906 -0.0411504 0.997976 0
-0.0496001 -0.0412995 0.997915 0.000421156
0.131696 -0.0669407 0.989027 0.00252019
0.144357 -0.0698391 0.987058 0.000411398
0.145512 -0.0698963 0.986884 0.00637218
0.150516 -0.0713914 0.986026 0.00172046
-0.0477237 -0.0396236 0.998074 0.00240634
-0.0483331 -0.0422044 0.997939 0.000231007
-0.0494132 -0.0411132 0.997932 0
0.14033 -0.0706298 0.987582 0
0.148214 -0.069916 0.986481 0.00189868
0.146191 -0.0705164 0.98674 0.00394139
-0.0447219 -0.0428934 0.998078 0
-0.0476074 -0.0404824 0.998045 0.000294343
-0.0478124 -0.0425712 0.997949 0
0.140937 -0.0695204 0.987575 0.00232527
0.144915 -0.0694011 0.987007 0.000648629
0.152837 -0.0698232 0.985782 0
-0.043832 -0.0424091 0.998138 0
-0.0465732 -0.0405183 0.998093 0
-0.0485942 -0.0381155 0.998091 0
0.142992 -0.0700131 0.987244 0
0.15803 -0.0653112 0.985272 0
-0.0432273 -0.0444146 0.998078 0
-0.0445601 -0.0442257 0.998027 0
-0.0474601 -0.0424602 0.99797 0
0.14218 -0.0688642 0.987442 0.00358924
0.148543 -0.0648359 0.986778 0.0014449
-0.0435427 -0.0460475 0.99799 0
-0.0433895 -0.0449279 0.998047 0
-0.0482777 -0.0428168 0.997916 0
0.141644 -0.0681314 0.98757 0
0.148614 -0.064747 0.986773 0
0.13861 -0.0627287 0.988358 0
-0.0446604 -0.0435816 0.998051 0
-0.0443642 -0.0450192 0.998001 0
-0.050027 -0.0419868 0.997865 0.00160408
0.136461 -0.0630786 0.988635 0.00684978
-0.0447512 -0.0447942 0.997993 0.000156995
-0.0435202 -0.0447499 0.99805 0
-0.0470506 -0.043839 0.99793 0
0.140208 -0.0618597 0.988188 0.00633723
0.147769 -0.0694243 0.986582 0
-0.0443051 -0.0465529 0.997933 0
-0.0474893 -0.0435877 0.99792 0
0.141941 -0.0626282 0.987892 0.00444455
0.142327 -0.0654857 0.987651 0.00430869
-0.0442102 -0.0473659 0.997899 0
-0.0447661 -0.0474184 0.997872 0
0.137871 -0.0632696 0.988427 0.00414018
0.144194 -0.0651132 0.987405 0.00610692
-0.0470033 -0.0479784 0.997742 0
-0.0473454 -0.0476414 0.997742 0
0.146196 -0.0650626 0.987114 0.00463988
0.144461 -0.0628559 0.987512 0.00463437
-0.0485109 -0.0484924 0.997645 0
-0.0494071 -0.0467838 0.997682 0.00171579
0.139953 -0.0684767 0.987788 0.00555207
0.140613 -0.0670894 0.987789 0.00469636
-0.0476421 -0.0513014 0.997546 0
0.134431 -0.0683777 0.988561 0.00322276
0.136302 -0.0677941 0.988345 0.00155916
-0.0457987 -0.0519987 0.997596 0
0.134661 -0.0663065 0.988671 0.000656398
0.129669 -0.0665072 0.989324 0.00264977
-0.0441782 -0.0546354 0.997529 0
0.130801 -0.0667926 0.989156 0.00211802
-0.0490355 -0.052311 0.997426 0
-0.0446921 -0.0529626 0.997596 0
0.146619 -0.0668366 0.986933 0.00270812
0.1504 -0.0669153 0.986358 0.00400934
-0.0503334 -0.0541477 0.997263 0.000194983
-0.0490078 -0.0530337 0.997389 0
-0.0456138 -0.0534517 0.997528 0
0.147706 -0.0673315 0.986737 0.000929762
0.152047 -0.0686169 0.985988 0.00262166
-0.0461433 -0.049628 0.997701 0.00126458
-0.0483511 -0.0584456 0.997119 0
-0.0482631 -0.0539071 0.997379 0
-0.0454047 -0.0577203 0.9973 0
0.150714 -0.0682786 0.986217 0
0.155128 -0.0702368 0.985394 0
-0.0476075 -0.0468294 0.997768 0.00281835
-0.0544549 -0.0438049 0.997555 0.00639006
-0.0484904 -0.0558136 0.997263 0
-0.0497213 -0.0551985 0.997237 0
-0.0453924 -0.058287 0.997267 0
0.152707 -0.0689959 0.98586 0
0.149896 -0.0699077 0.986227 0
-0.0476494 -0.0486685 0.997678 0.00386924
-0.0490139 -0.0550988 0.997277 0
-0.0485462 -0.052418 0.997445 0
-0.0463344 -0.0561153 0.997349 0
0.14737 -0.0648194 0.986955 0.000989806
0.149436 -0.0646311 0.986657 0
-0.0478411 -0.0458016 0.997804 0.00293087
-0.0479575 -0.0501469 0.99759 0
-0.0468668 -0.0559881 0.997331 0
-0.0469185 -0.053205 0.997481 0
0.146006 -0.0620356 0.987337 0
0.148359 -0.0618241 0.986999 0
-0.0499248 -0.0434499 0.997807 0.00516374
-0.0478378 -0.0472173 0.997738 0
-0.0461084 -0.0520011 0.997582 0
-0.0478362 -0.0482244 0.99769 0
0.158375 -0.0627289 0.985384 0
-0.0473954 -0.0446149 0.997879 0.00383807
-0.050108 -0.0427259 0.997829 0.00242094
-0.046786 -0.0475393 0.997773 0.000111693
-0.0457245 -0.0491555 0.997744 0
-0.0473045 -0.0438814 0.997916 0.000975855
0.167031 -0.0632176 0.983923 0
-0.0467607 -0.0419682 0.998024 0.0021008
-0.049703 -0.0422252 0.997871 0.00409199
-0.0549867 -0.0402221 0.997677 0.0055502
-0.0464684 -0.0475355 0.997788 0.000566903
-0.0455429 -0.044825 0.997956 0
0.165362 -0.059344 0.984446 0
-0.0473213 -0.0368963 0.998198 0.00323389
-0.0486366 -0.0358071 0.998174 0.00465577
-0.0567509 -0.0352968 0.997764 0.00668235
-0.0476122 -0.0436359 0.997912 0.00215579
-0.0456892 -0.040423 0.998138 0
0.157219 -0.0524883 0.986168 0
-0.0448383 -0.03547 0.998364 0.0018987
-0.0486179 -0.0351712 0.998198 0.00212443
-0.0575859 -0.03211 0.997824 0.00590064
-0.0584811 -0.0341701 0.997704 0.0067464
-0.0470788 -0.0385252 0.998148 0.00068953
-0.0473321 -0.0392015 0.99811 0.000429507
0.170353 -0.0474391 0.984241 0
-0.0455162 -0.0333935 0.998405 0.00237052
-0.049785 -0.0349684 0.998148 0.00338697
-0.0542888 -0.03332 0.997969 0.0067401
-0.0573079 -0.0305436 0.997889 0.00653103
-0.0544998 -0.034921 0.997903 0.0028684
-0.0480681 -0.0338433 0.998271 0.000270756
-0.0460789 -0.0334835 0.998376 0.00247649
0.160275 -0.0410911 0.986217 0
-0.0434137 -0.0332834 0.998503 0.00069082
-0.0503861 -0.0301665 0.998274 0.00207683
-0.0555666 -0.0298997 0.998007 0.00659023
-0.0570733 -0.0287876 0.997955 0.00613071
-0.056814 -0.0312492 0.997896 0.0036243
-0.0465679 -0.0322397 0.998395 0
-0.0467412 -0.0296531 0.998467 0.00404785
0.171247 -0.0383527 0.984481 0.000997185
-0.041939 -0.0277552 0.998735 0.00204598
-0.0511089 -0.0273885 0.998317 0.00430953
-0.0531121 -0.0296532 0.998148 0.00317556
-0.0572371 -0.0278934 0.997971 0.00638861
-0.0537722 -0.0284704 0.998147 0.00276854
-0.0479142 -0.0269963 0.998487 0.000396775
-0.0479224 -0.0256921 0.998521 0.00393587
-0.0405596 -0.0266952 0.99882 0.0027837
-0.0452101 -0.0224359 0.998726 0.00420512
-0.0519001 -0.0208671 0.998434 0.00666045
-0.0537333 -0.0238177 0.998271 0.00351642
-0.0558627 -0.0216424 0.998204 0.00337752
-0.0528931 -0.0274294 0.998223 0.0018188
-0.0456326 -0.0263344 0.998611 0
-0.0467933 -0.0229204 0.998642 0.00269459
-0.0406641 -0.0221148 0.998928 0.00219773
-0.043536 -0.0210034 0.998831 0.00267878
-0.0513052 -0.0191281 0.9985 0.00772374
-0.0549969 -0.0170247 0.998341 0.00385999
-0.0562155 -0.0186283 0.998245 0.00323732
-0.0542765 -0.0236722 0.998245 0.00276265
-0.0475402 -0.0185556 0.998697 0.0022139
-0.0398411 -0.0161959 0.999075 0.00134402
-0.0427091 -0.0183245 0.998919 0.00155957
-0.0520381 -0.0163971 0.99851 0.00438194
-0.0546952 -0.0168717 0.998361 0.00395126
-0.0546892 -0.0138423 0.998407 0.00213397
-0.0572039 -0.0138973 0.998266 0.00389175
-0.0543802 -0.0189486 0.99834 0.00335272
-0.0474883 -0.014222 0.998771 0.0018917
-0.0402358 -0.0159368 0.999063 0.00178131
-0.0432086 -0.0128275 0.998984 0.00324225
-0.0511628 -0.0104256 0.998636 0.00491525
-0.0555341 -0.00686488 0.998433 0.00371407
-0.0583631 -0.0120273 0.998223 0.00373623
-0.0554402 -0.018864 0.998284 0.00283556
-0.0394165 -0.0100067 0.999173 0.00249196
-0.0433361 -0.0084599 0.999025 0.00292774
-0.0504598 -0.00641095 0.998705 0.00456074
-0.0537618 -0.0110679 0.998492 0.00120557
-0.0585926 -0.00569524 0.998266 0.00252674
-0.0512362 -0.0120276 0.998614 0.000812509
-0.0385938 -0.00309828 0.99925 0.000859743
-0.0414286 -0.0067867 0.999118 0.000719043
-0.0419897 -0.00491386 0.999106 0.00113568
-0.0490321 -0.00416795 0.998789 0.000748759
-0.0534372 -0.00768977 0.998542 0.000583979
-0.0569302 -0.00454525 0.998368 0.00333303
-0.0508801 -0.00772714 0.998675 0
-0.0363445 -0.00073748 0.999339 0
-0.0459618 -0.00322547 0.998938 0
-0.0555087 -0.00384695 0.998451 0.000992064
-0.055048 -0.00267185 0.99848 0
-0.0548413 -0.00458253 0.998485 0.000167057
-0.0363118 0.00210047 0.999338 0
-0.054535 -0.000522649 0.998512 0.00209214
-0.0568948 0.00183562 0.998378 2.99916e-05
-0.0566443 0.000667055 0.998394 0
-0.0350827 0.00518864 0.999371 0
-0.0508618 0.00245141 0.998703 0
-0.0557385 0.00230756 0.998443 0
-0.0333212 0.0127142 0.999364 0
-0.0528648 0.0120831 0.998529 0
-0.0549637 0.00408055 0.99848 0
-0.032217 0.0174503 0.999329 0
-0.0548397 0.0203235 0.998288 0.00115412
-0.0257011 0.018726 0.999494 0
-0.0340042 0.0264178 0.999072 0
-0.0551176 0.0252412 0.998161 0.0014266
-0.0252817 0.0264838 0.99933 0
-0.0328179 0.0326027 0.99893 0
-0.0545131 0.0278337 0.998125 0
-0.0230564 0.0300199 0.999283 0
-0.0270147 0.0346496 0.999034 0
-0.0313371 0.0351072 0.998892 0
-0.0229851 0.0351932 0.999116 0
-0.0261311 0.0388414 0.998904 0
-0.027166 0.0421346 0.998743 0
-0.0208674 0.0388275 0.999028 0
-0.024959 0.0429334 0.998766 0
-0.0231593 0.044873 0.998724 0
-0.0258619 0.0436148 0.998714 0
-0.0238335 0.0467408 0.998623 0
-0.023126 0.048483 0.998556 0
-0.027519 0.0474108 0.998496 0
-0.0244218 0.0540292 0.998241 0.00151688
-0.0261312 0.0520696 0.998302 0
-0.0290191 0.0521737 0.998216 0
0.193119 0.069018 0.978745 0.000817999
-0.0222283 0.0606364 0.997912 0
-0.0259657 0.0584255 0.997954 0
-0.031763 0.057395 0.997846 0.000752862
0.199562 0.0713413 0.977285 0.00394547
-0.0232403 0.0650928 0.997609 6.31973e-05
-0.0265318 0.0617412 0.997739 0.00012005
-0.0302586 0.059921 0.997744 0
0.204555 0.0790436 0.975658 0
-0.0245412 0.0679405 0.997387 0
-0.0276766 0.0668138 0.997382 0.00156259
-0.0310636 0.065174 0.99739 0
0.20465 0.0856295 0.975083 0
-0.0286349 0.0679241 0.99728 0.00062614
-0.0317158 0.0655459 0.997345 0
-0.0591529 0.0753083 0.995404 0
0.210698 0.089292 0.973465 4.63287e-06
-0.0281106 0.0713239 0.997057 0
-0.0316668 0.0703367 0.99702 0
-0.0593975 0.076904 0.995268 0.000190595
0.210884 0.0935275 0.973026 0.00186975
-0.0290314 0.0768804 0.996618 0
-0.0312029 0.0745125 0.996732 0
-0.0602144 0.081034 0.994891 0.000909386
-0.0335673 0.081057 0.996144 0
-0.0568424 0.0821903 0.994994 0.000223496
-0.0339426 0.0853725 0.995771 0
-0.049119 0.0845647 0.995207 0
-0.0567116 0.0916775 0.994173 4.09671e-05
-0.0618293 0.0943983 0.993613 0.00433201
-0.0613639 0.098148 0.993278 0.00381157
-0.0369256 0.0928758 0.994993 0
-0.0507583 0.092588 0.99441 0.00125503
-0.0551578 0.0973901 0.993717 0.00090131
-0.0618522 0.105292 0.992516 0.00409655
-0.0359991 0.102314 0.9941 0.00101153
-0.0408621 0.099038 0.994244 0.00157015
-0.0518971 0.101994 0.99343 0.00479843
-0.058765 0.106803 0.992542 0.00586891
-0.062601 0.111976 0.991737 0.0082176
0.196804 0.114246 0.973764 0.0045861
-0.0363893 0.10219 0.994099 0
-0.0444785 0.108542 0.993096 0.00404976
-0.052605 0.109383 0.992607 0.00579634
-0.0583917 0.111842 0.992009 0.00511993
-0.0621289 0.116124 0.99129 0.00647797
-0.0475075 0.100927 0.993759 0.00367283
0.208548 0.120197 0.970598 0.00490386
-0.0365346 0.109283 0.993339 0.00245748
-0.0451118 0.111062 0.992789 0.00458217
-0.0595456 0.122034 0.990738 0.0031813
-0.0478745 0.108422 0.992951 0.00416285
-0.0505901 0.0967691 0.99402 0
0.21295 0.123798 0.969189 0.00397112
-0.0461541 0.118926 0.99183 0.00512832
-0.0466897 0.11859 0.991845 0.00504579
-0.0578625 0.123697 0.990632 0.00180944
-0.0563182 0.119994 0.991176 0.00233108
-0.0481689 0.113675 0.99235 0.00414288
-0.0500709 0.114788 0.992127 0.00574202
-0.0523948 0.104516 0.993142 0.00131608
-0.0578018 0.127046 0.990211 0.00335106
-0.0509787 0.125304 0.990808 0.00794915
-0.051715 0.104924 0.993135 0
-0.0600698 0.136229 0.988855 0.00515446
-0.0511132 0.127713 0.990493 0.00855475
-0.0537731 0.113417 0.992091 0.0014894
-0.0534622 0.108079 0.992704 0
0.193073 0.139813 0.971172 0.00386034
-0.0566204 0.135841 0.989111 0.000424254
-0.0522395 0.117174 0.991736 0
-0.0590197 0.12655 0.990203 0.0033234
0.157637 0.137137 0.977928 0
0.191639 0.147822 0.97027 0.00251919
-0.0533132 0.12485 0.990742 0
-0.0577593 0.130151 0.98981 0
0.112381 0.145655 0.982932 0
0.155774 0.14456 0.977158 0.00415588
0.16892 0.146572 0.974671 0.0035294
0.186122 0.15111 0.970837 0
-0.0552179 0.127852 0.990255 0
-0.0568831 0.139236 0.988624 0
0.113697 0.152922 0.981676 0
0.151619 0.151433 0.97677 0.00487184
0.175691 0.147251 0.97337 0.00203845
-0.0554569 0.143808 0.98805 0.00166027
-0.0571053 0.143252 0.988037 0
0.117366 0.153613 0.981136 0
0.154299 0.152354 0.976207 0.000220467
0.175044 0.155294 0.972236 0
-0.0555289 0.143794 0.988049 0.00143681
-0.0562024 0.145112 0.987818 0.00253181
0.0870619 0.167729 0.981981 0
0.177514 0.158683 0.971241 0
0.18467 0.159174 0.969825 0
0.186902 0.164923 0.968436 0
-0.0552019 0.14971 0.987188 0.0018976
-0.0559023 0.148063 0.987397 0.00114836
-0.054141 0.162358 0.985245 0.00159509
0.0903028 0.176127 0.980217 0
0.181339 0.164689 0.969533 0
0.183161 0.174379 0.967494 0
-0.0567882 0.151671 0.986798 0.00069319
-0.0560057 0.155994 0.986169 0.00131825
-0.053328 0.168682 0.984227 0.0019526
-0.0301052 0.190257 0.981273 0.0062732
0.175259 0.174725 0.968894 0
0.180393 0.177207 0.9675 0
0.174222 0.181726 0.967793 0
-0.0568724 0.158297 0.985752 0.00109221
-0.0548404 0.162834 0.985128 0.00188798
-0.0528367 0.171513 0.983764 0.00140687
-0.0379324 0.192095 0.980643 0.00483702
-0.0304937 0.200592 0.9792 0.00765252
0.0751998 0.19487 0.977942 0
-0.0518578 0.179489 0.982392 0.00148722
-0.0453626 0.191198 0.980503 0.00162657
-0.0380754 0.203485 0.978337 0.00714665
-0.0303637 0.209643 0.977306 0.00946993
0.075597 0.204251 0.975995 0
-0.0518028 0.182214 0.981893 0.00185936
-0.0439788 0.195542 0.979709 4.95125e-05
-0.0370357 0.206605 0.977723 0.00532799
-0.0293247 0.211139 0.977016 0.00722817
0.0363841 0.248206 0.968024 0.0130438
0.0734333 0.210927 0.97474 0
-0.0439595 0.205423 0.977686 0.00151374
0.0367916 0.258031 0.965436 0.0142862
0.0461603 0.247793 0.967713 0.0171983
0.0588167 0.233826 0.970498 0.00487565
0.0382288 0.256556 0.965773 0.0135003
0.0453041 0.251614 0.966767 0.0139998
0.0591344 0.237426 0.969604 0.00531716
0.0459745 0.261124 0.96421 0.0136878
0.0604001 0.240908 0.968667 0.00286737
0.0384676 -0.0352458 0.998638 0
0.0419393 -0.0349066 0.99851 0
0.0420764 -0.0383572 0.998378 0
0.042773 -0.0407031 0.998255 0
0.0412615 -0.0398855 0.998352 0
0.0374813 -0.0396275 0.998511 0
0.0366309 -0.0403274 0.998515 0.000704095
0.0352293 -0.0347327 0.998776 0.00481894
0.0376462 -0.0343816 0.998699 0.00357593
0.0380461 -0.0351479 0.998658 0.00312799
0.0476216 -0.0402168 0.998056 0.00184904
0.0361638 -0.0362407 0.998689 0.00744643
0.047041 -0.0431393 0.997961 0.00376117
0.0352641 -0.0325061 0.998849 0.0079606
0.0463118 -0.0398413 0.998132 0.00268967
0.0474366 -0.0417588 0.998001 0.00679816
0.0339476 -0.0346126 0.998824 0.00955283
0.0462521 -0.0407397 0.998099 0
0.0468994 -0.0373709 0.9982 0.0138593
0.0673201 -0.0382176 0.996999 0.00761437
0.0341013 -0.0339872 0.99884 0.0114689
0.0426677 -0.0419259 0.998209 0.00505784
0.0451351 -0.0365088 0.998313 0.0106735
0.0339008 -0.0353832 0.998799 0.00247342
0.0394615 -0.0349596 0.998609 0.00920887
0.0447431 -0.0319518 0.998487 0.012493
0.0566183 -0.0366875 0.997722 0.00533749
0.0357433 -0.0364439 0.998696 0
0.0421065 -0.0395226 0.998331 0.00249089
0.0471189 -0.0347944 0.998283 0.00710176
0.0584427 -0.0382905 0.997556 0.000838882
0.0364442 -0.0367693 0.998659 0.00425809
0.0366379 -0.0349476 0.998717 0.00506321
0.0489406 -0.0387481 0.99805 0
0.0558661 -0.0361486 0.997784 0.00399067
0.0685317 -0.0406163 0.996822 0.00539935
0.0348343 -0.033496 0.998832 0.00493303
0.0341538 -0.032393 0.998892 0.00566013
0.0377021 -0.0329481 0.998746 0.00300683
0.0505322 -0.0396543 0.997935 0
0.0538037 -0.0368657 0.997871 0.00558393
0.0730192 -0.0379164 0.99661 0.00565411
0.0330891 -0.0359073 0.998807 0.00683031
0.0414442 -0.0362091 0.998484 0.00146677
0.0469687 -0.0394493 0.998117 0
0.05547 -0.0320125 0.997947 0.0102368
0.0711274 -0.036336 0.996805 0.00740151
0.0348596 -0.0375937 0.998685 0.00143358
0.039398 -0.0376104 0.998516 0.00551675
0.0453524 -0.041928 0.998091 0
0.0558868 -0.0322597 0.997916 0.00785486
0.0712741 -0.0362384 0.996798 0.00565708
0.0362782 -0.0354887 0.998711 0.00319053
0.0386334 -0.0361039 0.998601 0.00950076
0.0446305 -0.0395811 0.998219 0
0.0581797 -0.0367739 0.997629 0.0025915
0.0745892 -0.0366213 0.996542 0.00314703
0.0343905 -0.0341471 0.998825 0.00455549
0.0344199 -0.0339482 0.998831 0.0127396
0.0422572 -0.0321376 0.99859 0.00812018
0.0623672 -0.0360548 0.997402 0
0.0721911 -0.0361733 0.996735 0.00355302
0.035243 -0.0321989 0.99886 0.00234626
0.0343651 -0.0316621 0.998908 0.0114423
0.0407513 -0.0336213 0.998604 0.0104531
0.0586455 -0.0344747 0.997683 0.00158427
0.0726545 -0.028462 0.996951 0.00951932
0.0352357 -0.0310312 0.998897 0.00338542
0.0341248 -0.0269781 0.999053 0.0113199
0.0458092 -0.0313482 0.998458 0.00975542
0.0600609 -0.0328171 0.997655 0.00268419
0.073499 -0.029519 0.996858 0.00614924
0.032488 -0.027765 0.999086 0.00781351
0.033645 -0.0283517 0.999032 0.0100952
0.0416473 -0.0289277 0.998713 0.00678868
0.0420983 -0.0312412 0.998625 0.00615826
0.0590812 -0.0327373 0.997716 0.0039417
0.068691 -0.030036 0.997186 0.00707468
0.032121 -0.028043 0.99909 0.0117656
0.0380367 -0.0325025 0.998748 0.00499719
0.0419658 -0.0325646 0.998588 0.00620427
0.059116 -0.0325516 0.99772 0.00699116
0.0697765 -0.0365799 0.996892 0
0.0337168 -0.0273672 0.999057 0.0100602
0.0423231 -0.0303105 0.998644 0.0102595
0.0511903 -0.0311414 0.998203 0.012936
0.0707123 -0.0364307 0.996831 0.00130488
0.0290129 -0.0301802 0.999123 0.0107639
0.0356337 -0.0282163 0.998967 0.0104124
0.0444419 -0.0328321 0.998472 0.00874927
0.0501848 -0.0335533 0.998176 0.0109203
0.0693639 -0.0367969 0.996913 0.00137314
0.0369835 -0.0341954 0.998731 0.00880794
0.0411352 -0.0358667 0.99851 0.00743919
0.0516404 -0.0376795 0.997955 0.00406398
0.0724289 -0.0375367 0.996667 0.000363705
0.0321328 -0.0310924 0.999 0.0156299
0.0367606 -0.0367961 0.998646 0.00326876
0.0392176 -0.0339589 0.998653 0.00880491
0.0511771 -0.0406454 0.997862 0.0021034
0.0684071 -0.0392021 0.996887 0.00256206
0.0687696 -0.0379275 0.996911 0.00205879
0.0314554 -0.0351887 0.998886 0.00985066
0.0367262 -0.0388316 0.998571 0.00282152
0.039398 -0.0370357 0.998537 0.00685108
0.0542922 -0.038563 0.99778 0.00154735
0.0675256 -0.0385257 0.996974 0.00458478
0.0315915 -0.0356343 0.998865 0.00342407
0.0391079 -0.0400553 0.998432 0.00300744
0.0367938 -0.0369133 0.998641 0.0100967
0.0538585 -0.0408094 0.997714 0.00145738
0.0665486 -0.0331844 0.997231 0.00955916
0.0369005 -0.0357624 0.998679 0.00806145
0.0371976 -0.0385702 0.998563 0.0115619
0.0517671 -0.0386707 0.99791 0.00429007
0.0694122 -0.0380022 0.996864 0.00764474
0.0394549 -0.038184 0.998492 0.0045767
0.03825 -0.0388799 0.998512 0.0116952
0.0474914 -0.0396866 0.998083 0.00959797
0.0676666 -0.0371117 0.997018 0.0111935
0.0338488 -0.0347384 0.998823 0.000987634
0.0394439 -0.0389809 0.998461 0.00510398
0.0389703 -0.0396228 0.998454 0.00342866
0.0380216 -0.0411653 0.998429 0.00958921
0.0506418 -0.0396255 0.99793 0.00911141
0.0654251 -0.0370956 0.997168 0.0112321
0.0398375 -0.0411966 0.998357 0.00245543
0.0436514 -0.0417198 0.998175 0.00907668
0.046091 -0.0404739 0.998117 0.0104863
0.0677011 -0.0383501 0.996968 0.012596
0.0357414 -0.0395365 0.998579 0.00213916
0.0487874 -0.0438656 0.997845 0.00863448
0.0475246 -0.0421862 0.997979 0.0105435
0.0690949 -0.0433081 0.99667 0.00988241
0.0409597 -0.0385699 0.998416 0.00144627
0.0472277 -0.0427179 0.99797 0.00502199
0.0530521 -0.0387621 0.997839 0.0126116
0.0668196 -0.0423629 0.996865 0.00523116
0.0408821 -0.0394224 0.998386 0
0.0488871 -0.0437782 0.997844 0
0.0529985 -0.0363781 0.997932 0.0111612
0.0622212 -0.0388041 0.997308 0.0101608
0.0406595 -0.0410765 0.998328 0.000743049
0.0455986 -0.039778 0.998168 0.000462999
0.052732 -0.0372726 0.997913 0.0100914
0.066599 -0.0427862 0.996862 0.00810565
0.0389372 -0.0390022 0.99848 0
0.0471794 -0.0422584 0.997992 0
0.0553362 -0.0359744 0.997819 0.0115572
0.0649941 -0.0379117 0.997165 0.0101188
0.084217 -0.0407111 0.995615 0.00276806
0.0390949 -0.0373745 0.998536 0.00161204
0.0439363 -0.0371239 0.998344 0.000654649
0.0581422 -0.0367933 0.99763 0.0080882
0.0636283 -0.035299 0.997349 0.0103495
0.0383747 -0.0369592 0.99858 0.00449783
0.054936 -0.0336074 0.997924 0.00824539
0.0615149 -0.0350395 0.997491 0.0128284
0.0402053 -0.0364116 0.998528 0.0016955
0.0473751 -0.0357089 0.998239 0
0.0533647 -0.035616 0.99794 0.000733336
0.0607257 -0.0393605 0.997378 0.01031
0.0836856 -0.0453317 0.995461 0.000885439
0.0389429 -0.035354 0.998616 0.00826026
0.0529752 -0.0410505 0.997752 0
0.065039 -0.0431033 0.996951 0.00788337
0.0833125 -0.044335 0.995537 0.00431399
0.0401455 -0.0374186 0.998493 0.00382299
0.0505028 -0.0400151 0.997922 0.0035315
0.0588271 -0.0414644 0.997407 0.0111389
0.042554 -0.0402299 0.998284 0
0.0546122 -0.0408394 0.997672 0.00389858
0.0640255 -0.0441689 0.99697 0.00507772
0.0385949 -0.0370532 0.998568 0.00293434
0.0541381 -0.0414123 0.997674 0.00564899
0.065105 -0.0434725 0.996931 0.00136072
0.0807598 -0.0445632 0.995737 0.000422601
0.0393137 -0.0339974 0.998648 0.000912296
0.0513815 -0.0429657 0.997754 0.00211833
0.0667923 -0.0491265 0.996557 0
0.0800493 -0.0486414 0.995603 0
0.0364919 -0.0373344 0.998636 0.00329674
0.050886 -0.0433628 0.997763 0.00182829
0.0685358 -0.0462641 0.996575 0
0.0819087 -0.0495143 0.995409 0
0.0540598 -0.046025 0.997476 0.00236926
0.0897064 -0.0537991 0.994514 0
-0.0486029 -0.0266936 0.998461 0.00395224
0.0839798 -0.052535 0.995082 0.00173676
-0.0476241 -0.0306352 0.998395 0.00255592
0.0686377 -0.051526 0.99631 0
0.0802331 -0.0489033 0.995576 0.00707382
-0.0473635 -0.0325558 0.998347 0.00298949
0.086322 -0.0514466 0.994938 0.00843801
-0.0512329 -0.0343139 0.998097 0.00153287
-0.0445874 -0.0292945 0.998576 0
0.0815464 -0.0527477 0.995273 0.00556414
-0.0449641 -0.0328161 0.99845 0
-0.0412491 -0.0280976 0.998754 0.00208782
0.0758986 -0.0544999 0.995625 0.00439429
-0.0483908 -0.0351864 0.998209 0.00149674
-0.0432327 -0.0343581 0.998474 0
-0.0399627 -0.0271717 0.998832 0.00156718
0.0743672 -0.0553071 0.995696 0.00412812
-0.0473153 -0.0318662 0.998372 0.00204687
-0.0426577 -0.0354553 0.99846 0
-0.0381238 -0.0296915 0.998832 0
0.0764474 -0.0539365 0.995614 0.0072234
-0.0476975 -0.0313651 0.998369 0.00299577
-0.0431497 -0.0367456 0.998393 0
-0.0387074 -0.0305452 0.998784 0
-0.0338611 -0.0272795 0.999054 0.00304393
0.0767332 -0.0520067 0.995694 0.00798759
-0.047044 -0.0335291 0.99833 0.00406862
-0.0438123 -0.0375648 0.998333 0
-0.0406048 -0.0304812 0.99871 0
-0.0322655 -0.0309635 0.999 0
0.0718764 -0.0538959 0.995956 0.00837385
-0.0460383 -0.0336426 0.998373 0.00371356
-0.0471853 -0.0346653 0.998284 0.0024948
-0.0433089 -0.0341497 0.998478 0
-0.0405994 -0.0321997 0.998657 0
-0.0323464 -0.0288531 0.99906 0
0.0715162 -0.0552809 0.995906 0.00205823
-0.0487117 -0.0352654 0.99819 0.00418634
-0.0443845 -0.0361596 0.99836 0
-0.0404812 -0.0326618 0.998646 0
-0.0329405 -0.0343238 0.998868 0
0.0716643 -0.0543171 0.995949 0.00345851
-0.0478592 -0.0378016 0.998138 0.00324768
-0.045887 -0.0365543 0.998278 0.000373682
-0.0408687 -0.0332309 0.998612 0
-0.0345075 -0.0328413 0.998865 0
0.0722618 -0.0546495 0.995887 0.000893733
-0.054522 -0.0353977 0.997885 0.00196584
-0.0476861 -0.0346143 0.998262 0.004943
-0.0460007 -0.0351989 0.998321 0.00151988
-0.0423188 -0.0367563 0.998428 0
-0.0360021 -0.0359049 0.998707 0
0.070812 -0.0542285 0.996015 0.00048118
-0.0485309 -0.0339386 0.998245 0.00657208
-0.0470328 -0.0370165 0.998207 0.00324539
-0.0433274 -0.035331 0.998436 0.000434471
-0.0371285 -0.0341212 0.998728 0.00332097
-0.0543379 -0.0382003 0.997792 0.00268698
-0.0503289 -0.0369158 0.99805 0.00655534
-0.0473564 -0.0373751 0.998179 0.0060045
-0.0436065 -0.0353928 0.998422 0.000937817
-0.0367334 -0.0385952 0.99858 0.00300642
0.132499 -0.0566237 0.989564 0.00290096
-0.0555961 -0.0376752 0.997742 0.00516606
-0.0513992 -0.0366813 0.998004 0.0064269
-0.049476 -0.0351414 0.998157 0.00580275
-0.0445181 -0.0369396 0.998325 0.00403674
-0.0360351 -0.037747 0.998637 0.00214384
0.132596 -0.0574847 0.989502 0.000524196
-0.056796 -0.0361028 0.997733 0.00589736
-0.0528474 -0.0400052 0.997801 0.00344732
-0.0513344 -0.0352948 0.998058 0.00614192
-0.0447571 -0.038079 0.998272 0.00611764
-0.0453773 -0.0371614 0.998278 0.00662118
-0.0386033 -0.0358973 0.99861 0.0055985
0.13632 -0.0576919 0.988984 0.00442884
-0.0534639 -0.040642 0.997742 0.00481208
-0.0525438 -0.0392408 0.997847 0.00777363
-0.0462194 -0.0392711 0.998159 0.0067372
-0.0392851 -0.0412543 0.998376 0.00624544
0.0989679 -0.0621697 0.993147 0
0.140624 -0.0637881 0.988006 0
0.134986 -0.0617856 0.988919 0.00486433
-0.0536022 -0.0402324 0.997752 0.00252213
-0.0521128 -0.0387708 0.997888 0.00610829
-0.0472511 -0.0356901 0.998245 0.00829965
-0.039081 -0.0412919 0.998383 0.00741296
0.101667 -0.0645467 0.992722 0
0.132512 -0.0657612 0.988998 0.00118168
0.134484 -0.0668135 0.988661 0.00333564
-0.0555143 -0.038769 0.997705 0.00308967
-0.0532562 -0.0396739 0.997792 0.00336519
-0.0482472 -0.0404332 0.998017 0.00596501
-0.0393397 -0.0386133 0.99848 0.00768799
0.103118 -0.066924 0.992415 0
0.139246 -0.0690759 0.987846 0.00296141
-0.0585166 -0.036312 0.997626 0.00763565
-0.0555824 -0.0404887 0.997633 0
-0.0531041 -0.0419453 0.997708 0.00270149
-0.0471869 -0.0405379 0.998063 0.00530536
-0.0389943 -0.0419462 0.998359 0.00715818
0.104597 -0.0657441 0.992339 0
0.140571 -0.0692248 0.987648 0.00617022
-0.0595579 -0.0339068 0.997649 0.00808773
-0.0555265 -0.0434047 0.997513 0
-0.0536693 -0.0411519 0.99771 0.00182027
-0.0449939 -0.0408215 0.998153 0.00484168
-0.0376076 -0.0421707 0.998402 0.00912122
0.105407 -0.0669059 0.992176 0.00075352
0.14166 -0.0692516 0.98749 0.00308836
-0.0573531 -0.0374281 0.997652 0.00570749
-0.0551526 -0.0419871 0.997595 0.00232615
-0.0537966 -0.0422681 0.997657 0.00450036
-0.0459535 -0.0408153 0.998109 0.00581048
-0.0360023 -0.0438449 0.998389 0.00610916
0.105019 -0.0691208 0.992065 0
0.143951 -0.0702622 0.987087 0.00231981
0.148677 -0.0717185 0.986282 0.0017404
-0.0584537 -0.0373055 0.997593 0.00612311
-0.0549894 -0.0454175 0.997454 0.0013294
-0.0547954 -0.043146 0.997565 0.00429893
-0.0429375 -0.0428548 0.998158 0.00270514
-0.0348982 -0.0453546 0.998361 0.00338902
0.105334 -0.0684422 0.992079 0
0.148393 -0.070355 0.986423 0.00381429
0.146902 -0.069166 0.98673 0.00434317
-0.055862 -0.0404053 0.997621 0.00263395
-0.0567484 -0.0419632 0.997506 0.00235909
-0.0538564 -0.0434832 0.997601 0.00416352
-0.0434835 -0.0455085 0.998017 0.000169501
-0.0336259 -0.0462935 0.998362 0.00272697
0.10949 -0.0694955 0.991555 0
0.150645 -0.0701418 0.986097 0.00208837
0.151759 -0.0678573 0.986085 0.00436262
0.148953 -0.0703026 0.986342 0.0027592
-0.0538598 -0.043538 0.997599 0
-0.0584353 -0.0407828 0.997458 0.00394457
-0.0525052 -0.043012 0.997694 0.00314914
-0.0434189 -0.047281 0.997938 0.00101481
-0.0356933 -0.0465539 0.998278 0.00116787
0.111307 -0.0703162 0.991295 0
0.150953 -0.0691124 0.986122 0.00147605
0.156423 -0.070978 0.985137 0.000919844
0.156852 -0.0691841 0.985196 0
-0.0546048 -0.0469794 0.997402 0
-0.0576356 -0.0452816 0.99731 0.00286936
-0.0530495 -0.0466314 0.997502 0.00167073
-0.0428992 -0.0511307 0.99777 0
-0.0354702 -0.0466195 0.998283 0.00141585
0.108462 -0.0678182 0.991785 0.0052292
0.149452 -0.0676143 0.986454 0.00498397
0.153508 -0.0682075 0.985791 0.00351562
0.150941 -0.0651929 0.986391 0.00197471
-0.0551012 -0.0480501 0.997324 0
-0.0586646 -0.043982 0.997308 0.00465239
-0.0524068 -0.0483936 0.997453 0.00179105
-0.0434665 -0.0517651 0.997713 0
-0.036006 -0.0505952 0.99807 0.002483
0.104975 -0.066615 0.992241 0.0005999
0.136838 -0.0670968 0.988319 0.00387756
0.14475 -0.0642326 0.987381 0.0028632
0.149751 -0.0661328 0.98651 0.00240892
0.151776 -0.0650667 0.986271 0.00502013
-0.0568265 -0.0488605 0.997188 0
-0.058899 -0.0477224 0.997123 0.00404508
-0.0513584 -0.0474349 0.997553 0.00220783
-0.0439338 -0.0517549 0.997693 0
-0.0362147 -0.0519938 0.99799 0.00194581
0.105701 -0.06483 0.992282 0.00196019
0.128791 -0.0665194 0.989438 0.00318453
0.138987 -0.0648612 0.988168 0.00196407
0.138918 -0.0657619 0.988118 0.00194922
-0.0442076 -0.0480045 0.997868 0
-0.0561858 -0.0497343 0.997181 0
-0.0577873 -0.0490192 0.997125 0.00357126
-0.0437997 -0.0529368 0.997637 0
-0.0367274 -0.0570631 0.997695 0.000909049
0.0972008 -0.0653702 0.993116 0.00203851
0.128394 -0.0655463 0.989555 0.000665575
0.137401 -0.0643218 0.988425 0.00171885
0.138062 -0.0623748 0.988458 0.00318054
-0.0463732 -0.0455565 0.997885 0
-0.0546722 -0.0521751 0.99714 0
-0.0565637 -0.0493047 0.997181 0.00208033
-0.0370121 -0.0566569 0.997707 0
0.0968011 -0.0666252 0.993071 0
0.127778 -0.0680007 0.989469 0
0.135523 -0.0649825 0.988641 0.00145054
0.14186 -0.063647 0.987838 0.0023519
-0.0464819 -0.0448648 0.997911 0
-0.0540648 -0.0533523 0.997111 0
0.0938848 -0.0670334 0.993324 0
0.123347 -0.0673464 0.990076 0
0.13962 -0.0632265 0.988184 0.00359601
-0.0481241 -0.0457974 0.997791 0
-0.0544398 -0.0523748 0.997142 0
0.0899004 -0.0673986 0.993668 0
0.11785 -0.0675265 0.990733 0.000547501
0.141209 -0.066373 0.987752 0.00412516
-0.0473234 -0.0479204 0.997729 0
-0.049291 -0.0483239 0.997615 0.000676519
0.124392 -0.0664955 0.990003 0.0042503
0.137271 -0.0679464 0.9882 0.00136548
0.13749 -0.068187 0.988153 0.00226672
-0.0482111 -0.0490332 0.997633 0
-0.0495809 -0.0484253 0.997595 0.00254434
0.12044 -0.0673921 0.99043 0.00363846
0.134098 -0.0697047 0.988513 0
-0.0472484 -0.0499539 0.997633 0
-0.0486877 -0.0478782 0.997666 0.00217613
0.118829 -0.0701497 0.990434 0
0.137081 -0.0673603 0.988267 0.00119545
-0.047355 -0.053976 0.997419 0
-0.0469647 -0.0494006 0.997674 0.00132317
0.115086 -0.0680499 0.991022 0.000255825
0.142581 -0.0686014 0.987403 0
-0.0464783 -0.0523798 0.997545 0
-0.0487346 -0.0497889 0.99757 0.000305664
0.120765 -0.0688903 0.990288 0
0.146378 -0.0689692 0.986821 0
-0.0460711 -0.052925 0.997535 0
-0.0488903 -0.0533116 0.99738 0
0.122714 -0.0682376 0.990093 0
0.143985 -0.0683809 0.987214 0
-0.0471375 -0.0558326 0.997327 0
-0.0460206 -0.0562299 0.997357 0
0.143349 -0.0692941 0.987243 0
-0.0469514 -0.054234 0.997424 0
-0.0474533 -0.0548885 0.997364 0
0.142347 -0.067984 0.987479 0.00227389
-0.0467847 -0.0514044 0.997581 0
-0.0493133 -0.0506907 0.997496 0.00018246
0.140718 -0.0652821 0.987895 0.00139824
-0.0467741 -0.0487874 0.997713 0
-0.0499378 -0.0482105 0.997588 0.000847416
0.142233 -0.0601158 0.988006 0.00069842
0.149697 -0.0620476 0.986783 0
-0.0478248 -0.0483316 0.997686 0
-0.0511055 -0.0471652 0.997579 0.000647916
0.149299 -0.0578037 0.987101 0
0.149417 -0.0577968 0.987084 0
-0.0480327 -0.0416898 0.997975 0.000462349
-0.0483727 -0.0461257 0.997764 0
-0.0504758 -0.0468401 0.997626 0
0.15099 -0.0522286 0.987155 0
0.15401 -0.0545448 0.986562 0
-0.0470928 -0.0410118 0.998048 0.000846333
-0.0501997 -0.0445991 0.997743 0
-0.0510354 -0.0448524 0.997689 8.33647e-05
0.150666 -0.0505841 0.98729 0
0.158222 -0.0560291 0.985813 0
-0.0490364 -0.037687 0.998086 0.00342998
-0.0498587 -0.041306 0.997902 0.000521632
-0.0542941 -0.0439178 0.997559 0.000338055
0.159058 -0.0493187 0.986037 0
0.162616 -0.0542094 0.985199 0
-0.0491201 -0.0347173 0.998189 0.00393601
0.162134 -0.0471072 0.985644 0
0.16351 -0.0461658 0.985461 0
-0.0506751 -0.032378 0.99819 0.00512052
0.160049 -0.0459033 0.986041 0
0.160429 -0.0409728 0.986197 0
-0.0493882 -0.0308826 0.998302 0.00331643
0.161641 -0.0383678 0.986103 0
-0.0482996 -0.0289406 0.998414 0.000832069
0.159346 -0.0338481 0.986642 0.00117935
0.166215 -0.0335075 0.98552 0.00311544
-0.0492066 -0.0253221 0.998468 0.00127619
0.158941 -0.0311923 0.986795 0.00368526
0.173924 -0.0334003 0.984193 0
-0.044602 -0.0220495 0.998761 0
-0.0508617 -0.0177551 0.998548 0.00387118
0.162383 -0.0288333 0.986306 0.00276708
0.180139 -0.0292754 0.983205 0
-0.0456392 -0.0154284 0.998839 0
-0.0476309 -0.0125333 0.998786 0.00185352
-0.049004 -0.0160249 0.99867 0.00153267
0.170344 -0.0251359 0.985064 0.000919309
0.17531 -0.024706 0.984203 0
-0.0447852 -0.0132503 0.998909 0
-0.048858 -0.00698901 0.998781 0.00432693
-0.0517408 -0.0100324 0.99861 0.00318405
0.170998 -0.0197393 0.985074 0
0.177673 -0.020047 0.983885 0
-0.0464653 -0.00733623 0.998893 0.00152058
-0.049313 -0.00550825 0.998768 0.00526044
-0.0512157 -0.00854779 0.998651 0.00398066
0.162937 -0.0166547 0.986496 0
0.169862 -0.0174602 0.985313 0.00431555
-0.0467103 0.000381467 0.998908 0.0033588
-0.0492345 -0.0038854 0.99878 0.0045013
-0.0507382 -0.00690267 0.998688 0.00343176
0.15874 -0.0113572 0.987255 0.00151944
0.174246 -0.0134848 0.98461 0.00267752
-0.0407733 -0.00451968 0.999158 0
-0.0470624 -0.00181879 0.99889 0
-0.0454943 0.00175187 0.998963 0.00601889
-0.0491456 -0.000459875 0.998792 0.0073355
-0.0499975 -0.00142205 0.998748 0.00613849
0.159559 -0.00911848 0.987146 0.000225643
0.171254 -0.00874963 0.985188 0.00103011
-0.0419884 0.00044886 0.999118 0
-0.0464871 0.00146032 0.998918 0
-0.0459924 0.00856043 0.998905 0.00917529
-0.048914 0.00515138 0.99879 0.00737225
0.164141 0.00726623 0.98641 4.7796e-05
0.171905 0.00373415 0.985106 0.00382116
-0.040616 0.00682411 0.999152 9.39037e-05
-0.0451326 0.00707527 0.998956 0
-0.0606709 0.00590568 0.99814 0.00162666
-0.0460119 0.0125573 0.998862 0.0109155
-0.0465884 0.00412076 0.998906 0.0068834
0.168767 0.0099841 0.985605 0.00247901
0.172229 0.00933614 0.985013 0.00390995
-0.0381447 0.0103942 0.999218 0
-0.0455868 0.0125971 0.998881 0
-0.0556288 0.00853503 0.998415 0
-0.0572448 0.007841 0.998329 0
-0.0444545 0.011842 0.998941 0.0116756
-0.0444152 0.00657558 0.998991 0.00750393
0.175296 0.0179073 0.984353 0.00489421
-0.0391582 0.0167057 0.999093 0.000431552
-0.0471454 0.0185809 0.998715 0.000340313
-0.0581815 0.0157851 0.998181 0
-0.0591992 0.0151944 0.998131 0.000631179
-0.0427093 0.0238131 0.998804 0.0125579
-0.0434155 0.0146776 0.998949 0.00594844
0.180631 0.0272245 0.983174 0.00755874
-0.0399488 0.0256108 0.998873 0
-0.0468938 0.0230326 0.998634 0
-0.0592154 0.0213016 0.998018 0
-0.0621124 0.0213891 0.99784 0.00571589
-0.0406885 0.0265206 0.99882 0.0106681
-0.0410608 0.0204762 0.998947 0.00330434
0.189581 0.0327985 0.981317 0.00574111
-0.0397739 0.0305113 0.998743 0
-0.045852 0.0311174 0.998464 0
-0.0539269 0.0312723 0.998055 0
-0.0602023 0.0290721 0.997763 0
-0.0648137 0.0278123 0.99751 0.00548892
-0.0390473 0.0357848 0.998596 0.00991949
-0.0395404 0.0248684 0.998908 0.00300364
-0.0381447 0.0353914 0.998645 0
-0.0441172 0.0360974 0.998374 0
-0.0531957 0.0353512 0.997958 0
-0.0612683 0.0349554 0.997509 0
-0.066167 0.0341619 0.997224 0.00203466
-0.0391495 0.0302441 0.998776 0.00511243
-0.0341474 0.0395932 0.998632 0
-0.0443148 0.038756 0.998266 0
-0.0549402 0.039278 0.997717 0
-0.0632004 0.0391165 0.997234 0.000911001
-0.0645805 0.0424175 0.997011 0.00049434
-0.0413427 0.0364935 0.998478 0.00456697
0.195789 0.0659071 0.978429 0.00398884
-0.0356107 0.046955 0.998262 0
-0.0463719 0.0431718 0.997991 0
-0.0558636 0.0460285 0.997377 0
-0.0639728 0.0456101 0.996909 0.0018056
-0.0673921 0.0511585 0.996414 0.00168046
-0.0417566 0.0435679 0.998177 0.0044058
0.19581 0.0675221 0.978314 0.00429729
-0.0347766 0.0522148 0.99803 0
-0.0468534 0.0496106 0.997669 0
-0.0570333 0.0543996 0.996889 0.00180538
-0.0646796 0.0541007 0.996439 0.00419681
-0.0671526 0.0579605 0.996058 0.000519045
0.190766 0.067927 0.979282 0.00127451
-0.0357054 0.0552926 0.997832 0
-0.0492649 0.0546989 0.997287 0.000790752
-0.0561654 0.0570704 0.996789 0.00460269
-0.0643869 0.0587783 0.996192 0.00441701
-0.0686236 0.0626571 0.995673 0.0030367
-0.0378992 0.0572484 0.99764 0.00051328
-0.0482832 0.0614896 0.996939 0.00202643
-0.0572989 0.0589908 0.996613 0.00362683
-0.067138 0.061787 0.995829 0.00552711
-0.0683998 0.0669669 0.995408 0.00305383
-0.037277 0.0607304 0.997458 0
-0.0484496 0.0642252 0.996759 0.00190061
-0.0587281 0.0637769 0.996235 0.00418546
-0.0687035 0.0675021 0.995351 0.00592983
-0.0676027 0.0748511 0.994901 0.0065496
-0.0460543 0.0624384 0.996986 0.0093334
-0.0375361 0.0665778 0.997075 0
-0.0480101 0.0678646 0.996539 0.00300498
-0.0598549 0.0716959 0.995629 0.00401744
-0.0684681 0.0745118 0.994867 0.00549084
-0.0635057 0.0792195 0.994832 0.00838498
-0.0468085 0.0642015 0.996839 0.0092513
-0.0384144 0.0668246 0.997025 0
-0.0488752 0.0724832 0.996171 0.0022863
-0.0573059 0.0727571 0.995702 0.00138226
-0.0669182 0.073212 0.995069 0.0050711
-0.0612355 0.082956 0.99467 0.00627378
-0.0464644 0.0641346 0.996859 0.00648319
-0.0376496 0.0703141 0.996814 0
-0.0492302 0.0749677 0.99597 0.00289606
-0.0636264 0.0782758 0.994899 0.00302678
-0.0579486 0.0849546 0.994698 0.00443469
-0.0469697 0.0683744 0.996553 0.0060232
0.190141 0.0855757 0.97802 0
-0.0371005 0.0732453 0.996624 0
-0.0482356 0.0764886 0.995903 0.000596563
-0.0644755 0.0866901 0.994147 0.00531516
-0.0576313 0.0884547 0.994412 0.00198655
-0.0431984 0.0801219 0.995849 0.00731732
-0.0467505 0.0715428 0.996341 0.00353351
0.196098 0.0910882 0.976344 0.000858609
-0.0359183 0.0764115 0.996429 0
-0.0477339 0.0820663 0.995483 0
-0.0605239 0.0901242 0.99409 0.00414286
-0.0547426 0.0931866 0.994143 0
-0.0444249 0.0809556 0.995727 0.00476197
-0.0487827 0.0799748 0.995602 0.00336395
0.195826 0.0970211 0.975827 0.00321221
-0.0374661 0.0840916 0.995753 0
-0.0557373 0.0980169 0.993623 0.00145897
-0.0465075 0.0861024 0.9952 0.00467571
-0.0497474 0.0808776 0.995482 0.0020188
0.189537 0.1031 0.976446 0.00440837
-0.0388917 0.0893364 0.995242 0
-0.0569951 0.101919 0.993159 0.00330626
-0.0458487 0.0919187 0.99471 0.00330114
-0.0498452 0.0872771 0.994936 0.0014813
0.191953 0.111095 0.975096 0.00739476
-0.0591098 0.109389 0.99224 0.0066745
-0.0450627 0.0922736 0.994714 0.000408554
-0.0501915 0.0956299 0.994151 0.000153414
-0.051547 0.0915863 0.994462 0.00264628
0.192884 0.11121 0.974899 0.00141907
-0.0574414 0.113138 0.991917 0.0046117
-0.0507997 0.0968352 0.994003 0
-0.0513837 0.0968418 0.993973 0.00250439
0.20365 0.116607 0.972075 0.000664034
-0.0582786 0.117021 0.991418 0.00484981
-0.0524003 0.100267 0.99358 0.000973263
0.208643 0.118639 0.970769 0
-0.0519076 0.0980455 0.993827 0
-0.0606165 0.116078 0.991389 0.00163716
0.15854 0.122383 0.979738 0.00228023
0.206351 0.122479 0.970782 0
-0.0525087 0.104014 0.993189 0
-0.0534588 0.116088 0.991799 0.00154
-0.0604217 0.124724 0.99035 0.00229907
0.114923 0.126842 0.985243 0
0.160448 0.124427 0.97917 0
0.169551 0.126746 0.977337 0.00281185
0.200161 0.134102 0.970542 0.00203539
-0.0527398 0.116868 0.991746 0
-0.0523078 0.118924 0.991525 0.00250991
-0.0588389 0.12093 0.990916 0.00156909
0.113918 0.131225 0.984786 0
0.158445 0.129006 0.978904 0
0.169132 0.131321 0.976806 0.000398755
-0.0533455 0.11858 0.991511 0
-0.0517652 0.128847 0.990313 0.00377381
-0.0550186 0.135479 0.989251 0.00472935
0.115883 0.135808 0.983935 0
0.158114 0.132722 0.97846 0
0.173665 0.134291 0.975606 0
0.173187 0.142279 0.974558 0.00468805
0.182807 0.142474 0.972771 0.00128872
-0.0525535 0.124034 0.990885 0
-0.0512167 0.134075 0.989647 0.00326601
-0.0561638 0.140531 0.988482 0.00416696
0.0849018 0.149993 0.985035 0
0.17289 0.141003 0.974796 0.000520284
0.173111 0.14512 0.974152 0.00563372
0.186055 0.148127 0.971309 0.000763689
-0.0521041 0.126427 0.990607 0
-0.0520206 0.141076 0.988631 0.00256849
-0.0551546 0.147954 0.987455 0.00234056
0.08737 0.155684 0.983935 0
0.177433 0.15032 0.972585 0.00417615
0.189033 0.151388 0.970231 0
-0.0549374 0.141024 0.988481 0.00108762
-0.0552056 0.15486 0.986393 0.00334327
-0.0546286 0.158744 0.985807 0.00353223
-0.0315914 0.174331 0.98418 0.00840105
0.0867205 0.161449 0.983063 0
0.181243 0.15364 0.971363 0
0.18713 0.155374 0.96997 0
-0.0559248 0.160227 0.985495 0.00456671
-0.0482119 0.158675 0.986153 0.0017044
-0.0382981 0.17728 0.983415 0.00354818
-0.0325069 0.183989 0.982391 0.00772077
-0.0473372 0.166001 0.984989 0
-0.0381809 0.184695 0.982054 0.00644858
-0.0321422 0.184539 0.982299 0.00633924
0.0332646 0.212381 0.97662 0.0124494
0.0764109 0.177399 0.981168 0
-0.0476189 0.177976 0.982882 0.00253848
-0.0392305 0.19034 0.980934 0.00679533
-0.0310198 0.189988 0.981296 0.00718912
0.0324796 0.224219 0.973997 0.0125929
0.0770386 0.184182 0.979868 0
-0.0464052 0.178461 0.982852 4.79315e-05
0.0337091 0.231812 0.972176 0.0130007
0.0466211 0.214401 0.975632 0.00754336
0.0753685 0.191506 0.978593 0
0.0357344 0.236515 0.970971 0.011363
0.0461489 0.220158 0.974372 0.00869279
0.0569148 0.211278 0.975768 0.00530203
0.045068 0.230998 0.97191 0.0122315
0.0571342 0.219581 0.97392 0.0044196
0.058897 0.224621 0.972665 0.00367508
0.0323786 -0.0289369 0.999057 0.0128185
0.0314641 -0.029266 0.999076 0.0122737
0.0290751 -0.029714 0.999135 0.0139738
0.0306031 -0.0327701 0.998994 0.00975935
0.0334994 -0.0358367 0.998796 0.000703192
0.0352534 -0.0376911 0.998667 0.000733915
0.0324472 -0.0324647 0.998946 0.00816679
0.0331777 -0.0309035 0.998972 0.00814494
0.0337595 -0.029482 0.998995 0.00887213
0.032383 -0.0298346 0.99903 0.00603109
0.0368038 -0.036706 0.998648 0.00132885
0.0394294 -0.0441954 0.998244 0.000593493
0.0348992 -0.0444552 0.998402 0
0.0341864 -0.0435739 0.998465 0.000344642
0.034641 -0.0436398 0.998447 0
0.0484401 -0.0348362 0.998218 0
0.0324894 -0.0430337 0.998545 0.00322427
0.0318309 -0.037984 0.998771 0
0.0455402 -0.0343694 0.998371 0.00319702
0.0324015 -0.0374828 0.998772 0
0.0415851 -0.0351438 0.998517 0.00257485
0.0291414 -0.0360552 0.998925 0.00235531
0.0470096 -0.0418142 0.998019 0.00363435
0.0277234 -0.0354906 0.998985 0.00308453
0.0438444 -0.0386336 0.998291 0.00442947
0.029908 -0.0364045 0.99889 0.000475905
0.0429417 -0.0379786 0.998355 0.0082815
