# .PCD v0.7 - Point Cloud Data file format
VERSION 0.7
FIELDS x y z
SIZE 4 4 4
TYPE F F F
COUNT 1 1 1
WIDTH 1521
HEIGHT 1
VIEWPOINT 0 0 0 1 0 0 0
POINTS 1521
DATA ascii
-0.1365885 0.127079 -0.2356645
-0.136583 0.1272275 -0.23565799
-0.13657901 0.127336 -0.235654
-0.13657349 0.12744799 -0.23566601
-0.1343465 0.12746 -0.235563
-0.1365685 0.12759501 -0.235668
-0.137436 0.127757 -0.23569
-0.136562 0.12774199 -0.23567551
-0.136558 0.12785301 -0.23567399
-0.1365535 0.1279625 -0.235673
-0.136549 0.128111 -0.23565149
-0.13654351 0.128259 -0.235644
-0.138367 0.128323 -0.235689
-0.136539 0.12837 -0.235649
-0.13653451 0.128479 -0.2356585
-0.13652951 0.12862751 -0.23563999
-0.1365235 0.128774 -0.23564249
-0.13651749 0.128921 -0.235653
-0.13651299 0.129032 -0.235651
-0.13650951 0.129142 -0.23564151
-0.13650349 0.129289 -0.23564699
-0.137373 0.12937599 -0.235689
-0.13693 0.12942199 -0.235687
-0.1364975 0.129436 -0.235649
-0.137367 0.12952401 -0.23569
-0.13692549 0.12953299 -0.235687
-0.136493 0.129547 -0.235645
-0.1383145 0.129685 -0.23568
-0.13692001 0.12968101 -0.2356835
-0.13648951 0.129658 -0.23564
-0.1383085 0.129831 -0.235679
-0.1373575 0.12978101 -0.23569
-0.13691449 0.129829 -0.23567599
-0.136484 0.129806 -0.2356315
-0.13830499 0.129942 -0.235678
-0.13785399 0.12995601 -0.23568
-0.136911 0.12994 -0.23567
-0.1364785 0.129953 -0.23562001
-0.13830051 0.130053 -0.235678
-0.13785 0.13006701 -0.23568
-0.137346 0.13007601 -0.23567501
-0.1369065 0.13004901 -0.23566651
-0.136474 0.130063 -0.235626
-0.138294 0.130199 -0.235689
-0.1378455 0.130178 -0.23567849
-0.13734201 0.130187 -0.23566601
-0.13690099 0.13019601 -0.23566601
-0.13647 0.130173 -0.23562351
-0.1382885 0.130347 -0.235679
-0.13784 0.130325 -0.23567301
-0.13733849 0.130298 -0.23566701
-0.13689551 0.130344 -0.235659
-0.136465 0.130321 -0.23561099
-0.13974699 0.130427 -0.23567599
-0.138285 0.130458 -0.235662
-0.13783449 0.130473 -0.23566499
-0.1373325 0.13044401 -0.235672
-0.13689201 0.130455 -0.23565
-0.1364595 0.13046899 -0.235603
-0.13974151 0.130575 -0.2356745
-0.138281 0.1305685 -0.23565999
-0.13783 0.130583 -0.235672
-0.137327 0.130592 -0.235663
-0.13688749 0.130566 -0.235645
-0.136455 0.13057999 -0.235612
-0.139736 0.130723 -0.23566499
-0.13827449 0.130715 -0.235677
-0.13782549 0.130693 -0.23567399
-0.1373215 0.130739 -0.235654
-0.1368815 0.130714 -0.23564601
-0.1364505 0.130689 -0.23561001
-0.1397305 0.130869 -0.235661
-0.13826901 0.130863 -0.23567399
-0.1378195 0.13084 -0.23568049
-0.137318 0.13085 -0.23564699
-0.13687649 0.13086 -0.235645
-0.136445 0.13083699 -0.235606
-0.139726 0.13098 -0.235661
-0.138265 0.13097399 -0.235673
-0.13781449 0.1309875 -0.23566899
-0.1373135 0.130961 -0.23564899
-0.13687199 0.130971 -0.235645
-0.1364405 0.13098399 -0.235595
-0.139994 0.131073 -0.23569
-0.1397225 0.131091 -0.235654
-0.1382605 0.13108349 -0.23566949
-0.13781001 0.131098 -0.23566701
-0.13730651 0.131107 -0.23566401
-0.13686749 0.131082 -0.2356485
-0.1364345 0.13113201 -0.23559299
-0.13971651 0.13123849 -0.2356545
-0.138255 0.131231 -0.23566499
-0.13780549 0.131209 -0.23567349
-0.13730049 0.131255 -0.23566851
-0.13686199 0.13122851 -0.235645
-0.13643 0.13124301 -0.235586
-0.139983 0.131368 -0.23568299
-0.1397115 0.131386 -0.235641
-0.13824999 0.131378 -0.23565701
-0.137802 0.13132 -0.235668
-0.13779899 0.131392 -0.235664
-0.137297 0.131366 -0.235659
-0.1368565 0.131376 -0.23562899
-0.13642651 0.131354 -0.23558
-0.13997951 0.131479 -0.23566699
-0.139707 0.131497 -0.235636
-0.13867299 0.13150901 -0.235689
-0.138246 0.13148899 -0.235651
-0.137795 0.131503 -0.235663
-0.13729349 0.131476 -0.23565
-0.136852 0.131486 -0.235643
-0.13642099 0.131502 -0.235572
-0.1399745 0.13162699 -0.23565349
-0.13970351 0.131607 -0.2356275
-0.13907701 0.131642 -0.23568651
-0.13866851 0.13161901 -0.235686
-0.1382415 0.13159999 -0.235654
-0.13778949 0.131651 -0.235659
-0.1372875 0.131623 -0.23564699
-0.1368475 0.131597 -0.23564699
-0.13641551 0.131648 -0.23557401
-0.1399685 0.13177501 -0.235654
-0.13969749 0.131754 -0.235626
-0.139073 0.131753 -0.23567601
-0.13866299 0.131767 -0.235682
-0.138236 0.13174801 -0.235644
-0.137785 0.131762 -0.23565499
-0.137282 0.13177049 -0.23564199
-0.136842 0.131744 -0.2356385
-0.13641199 0.131758 -0.235563
-0.139965 0.131883 -0.23564599
-0.1396925 0.131901 -0.23561701
-0.13906899 0.131863 -0.235671
-0.138658 0.13187701 -0.235686
-0.1382305 0.13189399 -0.235645
-0.1377815 0.131873 -0.235645
-0.13727801 0.131882 -0.235644
-0.13683701 0.131892 -0.235631
-0.1399605 0.13199399 -0.23563699
-0.139688 0.13201199 -0.235614
-0.139061 0.132047 -0.235687
-0.1386545 0.13198701 -0.23568
-0.138225 0.13204151 -0.235641
-0.13777551 0.132019 -0.235643
-0.13727349 0.131991 -0.235653
-0.13683149 0.132039 -0.23562899
-0.13995451 0.13214201 -0.235643
-0.1396845 0.132122 -0.235606
-0.1390575 0.132158 -0.23567399
-0.13864851 0.13213401 -0.23568
-0.138221 0.13215201 -0.235631
-0.1377705 0.132166 -0.235641
-0.13726801 0.13213849 -0.235643
-0.13682701 0.13214999 -0.235625
-0.13994899 0.13228799 -0.2356465
-0.13967851 0.132269 -0.2356005
-0.139053 0.132267 -0.23567501
-0.1386435 0.132282 -0.235678
-0.13821751 0.132263 -0.235617
-0.137766 0.132277 -0.235643
-0.13726351 0.132286 -0.23561999
-0.13682249 0.132259 -0.235624
-0.139944 0.132397 -0.235662
-0.13967299 0.132416 -0.235608
-0.13904899 0.132379 -0.23567399
-0.1386375 0.132429 -0.23567799
-0.13821149 0.13240901 -0.235626
-0.1377615 0.132386 -0.235643
-0.13725901 0.132397 -0.235616
-0.1368175 0.132406 -0.235626
-0.13993999 0.13250799 -0.23565799
-0.13966751 0.1325635 -0.235596
-0.13904351 0.1325255 -0.23566699
-0.138634 0.13253801 -0.23566601
-0.138207 0.1325565 -0.235603
-0.137756 0.132534 -0.235634
-0.13725549 0.1325075 -0.235607
-0.13681149 0.13255399 -0.235627
-0.13993451 0.13265499 -0.23565549
-0.13966399 0.132673 -0.235588
-0.13903749 0.132673 -0.23567051
-0.1386295 0.132649 -0.235668
-0.138202 0.13266701 -0.235604
-0.13775051 0.132682 -0.23562799
-0.1372495 0.13265449 -0.235612
-0.13680699 0.132663 -0.235622
-0.13992849 0.13280299 -0.235652
-0.13966 0.13278399 -0.235579
-0.13903201 0.1328195 -0.23567
-0.13862351 0.132797 -0.235661
-0.13819751 0.1327765 -0.235615
-0.137747 0.13279299 -0.235626
-0.13724351 0.132801 -0.23560899
-0.136803 0.132774 -0.2356195
-0.1399235 0.13294999 -0.23564851
-0.1396535 0.13293099 -0.23559001
-0.139028 0.13293 -0.235661
-0.13861799 0.132943 -0.23566601
-0.1381925 0.13292401 -0.235598
-0.137743 0.13290149 -0.2356125
-0.1372385 0.13294899 -0.23559749
-0.13679799 0.13292199 -0.235606
-0.139919 0.13306101 -0.23564
-0.1396475 0.13307799 -0.235596
-0.1390235 0.13304099 -0.23566
-0.138614 0.133054 -0.23566499
-0.13818699 0.133072 -0.235594
-0.1377375 0.133049 -0.235607
-0.137234 0.133058 -0.23560999
-0.136793 0.13306899 -0.235589
-0.1399155 0.13317099 -0.235631
-0.139643 0.133187 -0.235599
-0.13901851 0.13318801 -0.235651
-0.1386095 0.133165 -0.23566
-0.138183 0.133183 -0.235586
-0.13773251 0.13319699 -0.235596
-0.1372295 0.133169 -0.23560399
-0.136788 0.13318101 -0.23559999
-0.13990951 0.1333175 -0.23563749
-0.13963901 0.13329799 -0.23559649
-0.1390125 0.13333499 -0.23566151
-0.13860449 0.133312 -0.235652
-0.138179 0.13329351 -0.235578
-0.13772801 0.133306 -0.23560201
-0.1372245 0.13331699 -0.235597
-0.13678351 0.13328999 -0.23560899
-0.14135 0.133452 -0.235689
-0.1399035 0.13346501 -0.235636
-0.13963351 0.13344599 -0.235588
-0.139009 0.13344599 -0.235651
-0.13859901 0.1334585 -0.23564699
-0.13817349 0.13344 -0.235577
-0.13772351 0.133417 -0.235603
-0.137219 0.1334645 -0.235585
-0.136779 0.13343701 -0.23559201
-0.1413455 0.133563 -0.23568401
-0.139899 0.13357501 -0.235643
-0.1396275 0.13359199 -0.23560201
-0.1390045 0.13355599 -0.235642
-0.138595 0.133569 -0.235643
-0.1381675 0.13358751 -0.235586
-0.1377175 0.13356499 -0.235605
-0.137215 0.13357501 -0.23557299
-0.13677451 0.1335845 -0.23556599
-0.1398955 0.13368499 -0.2356315
-0.139623 0.13370299 -0.235603
-0.138999 0.13370249 -0.235644
-0.13859099 0.13368 -0.235633
-0.138163 0.133696 -0.23558301
-0.137713 0.1337125 -0.235586
-0.1372115 0.13368499 -0.235567
-0.13677 0.133696 -0.23557299
-0.141333 0.133892 -0.23568501
-0.13989049 0.13383301 -0.23561901
-0.139621 0.133775 -0.235599
-0.13961799 0.13384899 -0.235595
-0.1389935 0.13384899 -0.235643
-0.138586 0.133828 -0.235623
-0.138161 0.133772 -0.235569
-0.1377085 0.13386001 -0.23556601
-0.137207 0.13379499 -0.235562
-0.13676551 0.1338065 -0.23557
-0.14133 0.133967 -0.235679
-0.140093 0.133968 -0.235688
-0.13988501 0.133981 -0.23561251
-0.13961449 0.1339595 -0.23557851
-0.138989 0.13396101 -0.235642
-0.13858201 0.133938 -0.235608
-0.138579 0.134011 -0.235616
-0.137704 0.13396899 -0.23557
-0.13720199 0.13394301 -0.235562
-0.13676099 0.13391501 -0.23556601
-0.136758 0.13398901 -0.235568
-0.1413265 0.134076 -0.235679
-0.14008901 0.1340785 -0.235679
-0.139881 0.13408899 -0.23560899
-0.1396085 0.13410699 -0.235577
-0.1389855 0.13406999 -0.23563701
-0.13857451 0.13412151 -0.235615
-0.1376995 0.13407999 -0.235568
-0.13675401 0.13410001 -0.235569
-0.1413205 0.134223 -0.235678
-0.14008349 0.134224 -0.235679
-0.1398765 0.13420001 -0.235606
-0.139605 0.13421801 -0.235572
-0.13897949 0.13421801 -0.235634
-0.13857099 0.134232 -0.23560899
-0.137695 0.13419101 -0.23556399
-0.13675 0.134211 -0.235563
-0.141315 0.134371 -0.235673
-0.1400775 0.1343725 -0.2356845
-0.13987151 0.13434801 -0.2356005
-0.1396005 0.13432699 -0.23556951
-0.138974 0.13436601 -0.23562649
-0.13856649 0.134343 -0.23560199
-0.137687 0.13441101 -0.235569
-0.141311 0.134481 -0.23567399
-0.140074 0.13448299 -0.235668
-0.13986549 0.13449501 -0.23559499
-0.1395945 0.13447499 -0.235576
-0.138971 0.13447601 -0.23560999
-0.1385615 0.134489 -0.235596
-0.137684 0.13448501 -0.23556501
-0.14172649 0.134618 -0.23568749
-0.14130649 0.134591 -0.23567501
-0.1400695 0.134592 -0.23567
-0.13986 0.134642 -0.23559651
-0.139589 0.13462201 -0.23557299
-0.1389665 0.13458601 -0.23560801
-0.138556 0.134637 -0.235589
-0.137678 0.13463201 -0.235561
-0.136733 0.13465101 -0.235562
-0.14130101 0.134738 -0.235668
-0.14050749 0.13477251 -0.2356735
-0.140269 0.134795 -0.23568
-0.140064 0.13474 -0.23566499
-0.139856 0.134753 -0.23558301
-0.1395835 0.13476899 -0.235572
-0.138961 0.13473301 -0.23560899
-0.138552 0.134747 -0.235578
-0.142177 0.134903 -0.23569
-0.141716 0.134876 -0.235689
-0.141296 0.13488549 -0.23565599
-0.14083999 0.13489699 -0.23568299
-0.140503 0.134882 -0.235679
-0.140267 0.13486899 -0.235672
-0.14005849 0.13488699 -0.23565701
-0.13985249 0.13486251 -0.23558101
-0.139579 0.13487799 -0.23557
-0.1389555 0.134881 -0.235595
-0.138548 0.134857 -0.235577
-0.14217401 0.134977 -0.23569
-0.1417125 0.134985 -0.2356815
-0.14129201 0.134996 -0.23565
-0.14083549 0.13500801 -0.2356835
-0.14049999 0.134956 -0.235687
-0.14026301 0.13494299 -0.235686
-0.140055 0.13499799 -0.235645
-0.139846 0.13501 -0.2355905
-0.1395745 0.13498899 -0.23557049
-0.1389495 0.13502701 -0.2356025
-0.1385425 0.135004 -0.23557401
-0.143038 0.13517401 -0.235686
-0.141707 0.135132 -0.23567501
-0.14128751 0.135106 -0.235652
-0.1408305 0.13515499 -0.23566699
-0.1400505 0.135107 -0.235644
-0.1398405 0.135157 -0.23559201
-0.139571 0.13510001 -0.235569
-0.138946 0.13513801 -0.23559
-0.138538 0.135115 -0.235572
-0.14170299 0.135243 -0.23567399
-0.1417 0.135315 -0.235673
-0.14128199 0.135253 -0.235644
-0.140826 0.13526499 -0.23566
-0.140044 0.135254 -0.23567
-0.139836 0.135267 -0.23559
-0.13894251 0.13524699 -0.23558
-0.142157 0.135417 -0.235688
-0.141697 0.135389 -0.23566701
-0.14127749 0.1354 -0.23562899
-0.1408215 0.13537499 -0.23568299
-0.14048301 0.13539501 -0.235682
-0.14024299 0.13545699 -0.235686
-0.14003751 0.135401 -0.23567551
-0.1398315 0.1353765 -0.2355925
-0.138936 0.13539451 -0.2355855
-0.14302549 0.13550501 -0.23568499
-0.14215299 0.13552749 -0.235681
-0.1416935 0.13549951 -0.23565599
-0.1412715 0.13554651 -0.23563099
-0.14081651 0.1355215 -0.23566
-0.14048 0.135469 -0.235681
-0.14024 0.13553099 -0.23568401
-0.1400325 0.13554749 -0.23566699
-0.139827 0.13552301 -0.23557699
-0.1389315 0.13554099 -0.23556601
-0.14301801 0.13568801 -0.23569
-0.14214751 0.135674 -0.23567399
-0.141688 0.135646 -0.23565251
-0.141268 0.135657 -0.23562001
-0.140811 0.13566899 -0.23565251
-0.1402365 0.135639 -0.23567849
-0.140029 0.135658 -0.235641
-0.139823 0.13563401 -0.235567
-0.138927 0.13565101 -0.235571
-0.13851599 0.135703 -0.235561
-0.143015 0.13579851 -0.235668
-0.14214399 0.135784 -0.235663
-0.14168251 0.135793 -0.235659
-0.1412635 0.135766 -0.23562101
-0.140807 0.13578001 -0.23564801
-0.140467 0.1358 -0.23568051
-0.140231 0.135787 -0.235668
-0.1400255 0.13576899 -0.23562799
-0.138923 0.13576201 -0.23556399
-0.14345449 0.135897 -0.23567501
-0.143011 0.13590901 -0.23566
-0.142565 0.135956 -0.235688
-0.14213949 0.135895 -0.23565501
-0.1416765 0.135939 -0.23565799
-0.14125749 0.135914 -0.23562801
-0.1408025 0.13588899 -0.235651
-0.14046299 0.135911 -0.235672
-0.14022601 0.13593499 -0.23565
-0.14002 0.13591599 -0.235632
-0.13891649 0.13590901 -0.235569
-0.1434495 0.13604499 -0.23566049
-0.143007 0.13602 -0.23565049
-0.1425615 0.1360665 -0.2356745
-0.14213499 0.136042 -0.23563501
-0.141672 0.13605 -0.235651
-0.141252 0.13606 -0.235618
-0.140797 0.13603601 -0.23564699
-0.14045849 0.13602 -0.23567501
-0.140222 0.136044 -0.23565599
-0.1400155 0.136062 -0.23561001
-0.13891101 0.13605601 -0.2355735
-0.1434435 0.136191 -0.235663
-0.143003 0.13612901 -0.235649
-0.14300001 0.13620301 -0.235649
-0.14255799 0.13617501 -0.235663
-0.14212951 0.136188 -0.235634
-0.1416685 0.136161 -0.235644
-0.141247 0.136171 -0.235623
-0.140793 0.13614599 -0.235649
-0.14079 0.13621999 -0.235651
-0.1404525 0.136167 -0.23568401
-0.1402165 0.136154 -0.23567599
-0.14001 0.13617299 -0.23562101
-0.1389055 0.13620301 -0.235571
-0.14343899 0.13630199 -0.235672
-0.14299649 0.136314 -0.23563451
-0.142554 0.13628601 -0.23565
-0.142125 0.136299 -0.23564
-0.141664 0.13630849 -0.23562551
-0.14124349 0.136281 -0.23562101
-0.14078599 0.13633101 -0.23564351
-0.1404475 0.136315 -0.23567501
-0.140211 0.136301 -0.23566499
-0.14000601 0.136283 -0.235625
-0.138901 0.13631301 -0.23557501
-0.14343449 0.136411 -0.23566851
-0.1429905 0.136461 -0.235641
-0.14254799 0.13643301 -0.2356545
-0.142121 0.13641 -0.2356295
-0.1416585 0.136454 -0.23561999
-0.14123851 0.13642749 -0.23560199
-0.140782 0.136439 -0.23562799
-0.14044151 0.136462 -0.23567051
-0.1402065 0.136448 -0.235652
-0.14000049 0.13643 -0.235626
-0.138898 0.13638701 -0.235572
-0.1434285 0.136558 -0.235677
-0.142986 0.13656899 -0.235652
-0.1425415 0.13658001 -0.235673
-0.1421165 0.136555 -0.23561099
-0.141654 0.136565 -0.235618
-0.1412335 0.136575 -0.23559201
-0.1407775 0.1365505 -0.23563799
-0.14043801 0.136571 -0.23567399
-0.140202 0.13655899 -0.235649
-0.1399945 0.136577 -0.235623
-0.14342299 0.136705 -0.2356735
-0.1429815 0.13668001 -0.23564801
-0.142537 0.13668901 -0.235672
-0.1421105 0.13670349 -0.23561299
-0.1416495 0.136675 -0.2356135
-0.1412275 0.136722 -0.235594
-0.14077151 0.1366975 -0.23564149
-0.140434 0.13668101 -0.235659
-0.14019799 0.136669 -0.23564351
-0.139991 0.136687 -0.235604
-0.14426801 0.136823 -0.23567501
-0.14341751 0.136852 -0.23567599
-0.14297649 0.13682801 -0.235644
-0.14253351 0.13680001 -0.23566601
-0.14210451 0.136849 -0.235612
-0.14164451 0.136822 -0.23560899
-0.141223 0.136832 -0.235595
-0.1407665 0.13684399 -0.235625
-0.1404285 0.136829 -0.23564699
-0.14019251 0.13681599 -0.23563799
-0.13998801 0.136797 -0.23558101
-0.14426249 0.136971 -0.23567301
-0.14341301 0.136962 -0.23567399
-0.14297101 0.1369735 -0.2356365
-0.142528 0.136948 -0.23565499
-0.14210001 0.13696 -0.235614
-0.1416395 0.136969 -0.2356015
-0.141219 0.136942 -0.23559201
-0.140763 0.13695499 -0.235623
-0.14042351 0.136977 -0.235633
-0.140187 0.13696399 -0.235633
-0.13998249 0.13694499 -0.23557299
-0.14425801 0.137082 -0.23566499
-0.143409 0.1370725 -0.23566251
-0.142967 0.13708401 -0.23563001
-0.14252201 0.13709401 -0.23566151
-0.14209649 0.13707 -0.2356125
-0.141635 0.137079 -0.235608
-0.141214 0.137089 -0.23558199
-0.14075899 0.13706601 -0.23560899
-0.14042 0.13708501 -0.23562901
-0.14018151 0.13710999 -0.235626
-0.1399765 0.137091 -0.235579
-0.14425349 0.137191 -0.23567599
-0.1434045 0.137219 -0.23564699
-0.1429625 0.13719401 -0.23563001
-0.14251751 0.13724101 -0.235641
-0.14209101 0.13718 -0.235623
-0.14208899 0.137254 -0.23561899
-0.14162999 0.137189 -0.23561001
-0.14121 0.137199 -0.235569
-0.14075351 0.13721099 -0.235599
-0.14041549 0.137196 -0.235627
-0.14017799 0.13722 -0.23561899
-0.13997051 0.137238 -0.235585
-0.14424801 0.137338 -0.23567601
-0.14339951 0.137366 -0.23563451
-0.14295751 0.13734099 -0.2356205
-0.14251301 0.137352 -0.23563799
-0.142085 0.137364 -0.23560399
-0.141625 0.13733551 -0.2356005
-0.14074799 0.13735899 -0.2356005
-0.1404095 0.13734201 -0.235627
-0.14017349 0.137329 -0.2356205
-0.139966 0.137348 -0.23559
-0.1442425 0.137485 -0.23567399
-0.14339399 0.137477 -0.235644
-0.142952 0.13748851 -0.235607
-0.14250851 0.13746101 -0.23565
-0.14208101 0.137474 -0.235594
-0.1416195 0.137483 -0.23559201
-0.140744 0.137468 -0.235589
-0.14040449 0.13749 -0.23561549
-0.1401675 0.137477 -0.235618
-0.13996249 0.13745899 -0.235578
-0.14423651 0.137632 -0.235682
-0.143392 0.13755099 -0.235644
-0.14339 0.137622 -0.23562799
-0.142948 0.13759699 -0.235603
-0.1425025 0.13760799 -0.23564699
-0.142077 0.137584 -0.235597
-0.1416135 0.137629 -0.235603
-0.1407405 0.13757899 -0.235578
-0.14040101 0.137601 -0.235599
-0.1401625 0.137624 -0.235607
-0.13995899 0.137569 -0.235567
-0.144232 0.137742 -0.23567501
-0.1433855 0.137733 -0.23562551
-0.1429435 0.13770901 -0.23561701
-0.14249751 0.13775501 -0.2356475
-0.1420705 0.137731 -0.2356085
-0.141609 0.13774 -0.235596
-0.14073449 0.13772699 -0.23558199
-0.140397 0.137711 -0.235596
-0.140159 0.137734 -0.235597
-0.14422849 0.13785151 -0.235668
-0.14337951 0.137879 -0.23563001
-0.142938 0.13785449 -0.23561099
-0.14249299 0.13786601 -0.23564801
-0.142065 0.137878 -0.23560801
-0.1416055 0.13785 -0.235586
-0.14073101 0.137835 -0.235572
-0.1403915 0.13785701 -0.23559099
-0.14015451 0.13784499 -0.235598
-0.144223 0.137998 -0.235659
-0.14337599 0.13799 -0.235613
-0.1429325 0.13800099 -0.23560449
-0.14248851 0.13797501 -0.235642
-0.142061 0.137988 -0.235599
-0.14159951 0.137997 -0.23558751
-0.140386 0.138004 -0.23559099
-0.1401495 0.137991 -0.23558649
-0.144218 0.138146 -0.23564699
-0.14337251 0.138101 -0.235604
-0.1429265 0.13814799 -0.235616
-0.1424835 0.13812199 -0.235633
-0.14205751 0.138098 -0.23558649
-0.141596 0.138107 -0.23557299
-0.1403805 0.138151 -0.2355755
-0.1401435 0.138138 -0.235585
-0.144214 0.138255 -0.23564699
-0.1433665 0.138246 -0.235597
-0.142922 0.13825899 -0.23561101
-0.142479 0.13826901 -0.23561299
-0.14205149 0.138245 -0.23558599
-0.14071551 0.138239 -0.23556599
-0.140377 0.13826001 -0.235577
-0.14014 0.138247 -0.23558199
-0.1442095 0.138366 -0.23564601
-0.14336 0.138393 -0.23561651
-0.142919 0.138368 -0.23559201
-0.14247601 0.13837899 -0.235589
-0.1420445 0.138392 -0.2356105
-0.14158651 0.138364 -0.23556849
-0.14070949 0.138386 -0.235569
-0.140374 0.13833299 -0.235561
-0.1401355 0.138358 -0.2355735
-0.1442035 0.138512 -0.235645
-0.14335451 0.13854051 -0.235615
-0.14291349 0.138515 -0.235579
-0.14247149 0.1384885 -0.23558599
-0.14203951 0.138538 -0.235604
-0.14158049 0.13851 -0.23558199
-0.14070401 0.13853399 -0.235567
-0.14036649 0.13851699 -0.235568
-0.14012951 0.138505 -0.23557499
-0.14419851 0.13865951 -0.23563999
-0.143351 0.138649 -0.235605
-0.14290801 0.138662 -0.2355805
-0.14246449 0.13863599 -0.235607
-0.14203601 0.138649 -0.235597
-0.14157501 0.138657 -0.23556751
-0.14036149 0.13866401 -0.23556501
-0.14012399 0.138652 -0.2355745
-0.14419401 0.138768 -0.23563799
-0.14334649 0.13876 -0.235607
-0.142904 0.138772 -0.235577
-0.14245901 0.13878199 -0.23560899
-0.142032 0.138758 -0.23557651
-0.141571 0.138767 -0.235569
-0.140357 0.13877501 -0.23557401
-0.14419049 0.138879 -0.23563251
-0.143341 0.138907 -0.23559201
-0.1429 0.138882 -0.23556599
-0.14245349 0.13892999 -0.235606
-0.1420265 0.1389055 -0.23557201
-0.1415665 0.138878 -0.235567
-0.14035249 0.1388845 -0.23557201
-0.14418501 0.139025 -0.235624
-0.1433365 0.139054 -0.23557949
-0.14245 0.139038 -0.235595
-0.14202049 0.139052 -0.23557749
-0.14156151 0.139024 -0.2355625
-0.140112 0.138982 -0.23556399
-0.14417949 0.139172 -0.235615
-0.143332 0.139163 -0.23559099
-0.14244649 0.139149 -0.23557499
-0.1441735 0.139319 -0.235623
-0.1433275 0.139274 -0.235588
-0.1424405 0.139296 -0.23557299
-0.144169 0.13943 -0.235626
-0.143324 0.139384 -0.23557401
-0.14243549 0.139443 -0.235569
-0.14416499 0.139539 -0.23562449
-0.143315 0.139604 -0.235568
-0.14243101 0.13955399 -0.23557299
-0.1441595 0.13968551 -0.23561901
-0.14331301 0.139676 -0.23557
-0.142427 0.1396625 -0.23556501
-0.14415449 0.139832 -0.23560899
-0.14331 0.13975 -0.235561
-0.14415 0.13994101 -0.235606
-0.1433025 0.139933 -0.235563
-0.1441465 0.14005201 -0.235596
-0.144141 0.14019901 -0.2355935
-0.144136 0.14034501 -0.235578
-0.14481699 0.140507 -0.235688
-0.1441305 0.14049099 -0.235576
-0.144813 0.140618 -0.235679
-0.144126 0.14060199 -0.235576
-0.14480899 0.140727 -0.23567
-0.144124 0.14067601 -0.23556601
-0.144805 0.140838 -0.23567
-0.14479899 0.140986 -0.23567399
-0.14479351 0.141132 -0.23567501
-0.144789 0.141243 -0.23567
-0.14478549 0.1413525 -0.23566499
-0.1447795 0.141499 -0.23565701
-0.1447745 0.141645 -0.235659
-0.144769 0.141792 -0.235652
-0.144765 0.141902 -0.235644
-0.14476049 0.142013 -0.235641
-0.1447555 0.142158 -0.235636
-0.14474949 0.142306 -0.23564599
-0.14474501 0.142415 -0.23564
-0.14474151 0.142525 -0.23562899
-0.1447355 0.142672 -0.23562899
-0.14473051 0.142819 -0.23561901
-0.14472701 0.142928 -0.235603
-0.145169 0.14312001 -0.235681
-0.1449385 0.1430625 -0.2356635
-0.1447235 0.143038 -0.23559549
-0.14549351 0.143178 -0.235677
-0.14516699 0.143194 -0.23567399
-0.144934 0.143208 -0.23564199
-0.1447165 0.14318651 -0.235614
-0.14548901 0.143287 -0.235681
-0.14516249 0.14330301 -0.235669
-0.14492901 0.143319 -0.235658
-0.144711 0.143333 -0.235605
-0.1451565 0.14344999 -0.2356735
-0.14492449 0.143429 -0.2356565
-0.144706 0.143479 -0.23559201
-0.1451515 0.1435965 -0.23565701
-0.14491999 0.143576 -0.235636
-0.144702 0.14359 -0.235581
-0.14514551 0.14374299 -0.235662
-0.14491349 0.143722 -0.2356455
-0.1446985 0.14369801 -0.23557851
-0.14514101 0.14385401 -0.235668
-0.144908 0.14387 -0.23564801
-0.14469251 0.14384651 -0.23558101
-0.14513749 0.14396501 -0.23566499
-0.144904 0.14398099 -0.23563799
-0.14468649 0.14399201 -0.235576
-0.1451315 0.14410999 -0.235659
-0.1448995 0.14409 -0.2356375
-0.14468201 0.14410301 -0.23558301
-0.14512649 0.14425799 -0.235654
-0.14489451 0.144237 -0.23563099
-0.1446785 0.14421201 -0.23557201
-0.14544749 0.144354 -0.2356845
-0.14512201 0.14436699 -0.235651
-0.14488849 0.144383 -0.2356315
-0.1454425 0.144499 -0.23567101
-0.1451185 0.14447799 -0.2356375
-0.144885 0.144494 -0.23560999
-0.145438 0.1446445 -0.23564149
-0.1451135 0.144623 -0.235631
-0.1448815 0.144603 -0.235606
-0.14543401 0.14475501 -0.23563799
-0.14510751 0.14477 -0.2356265
-0.1448755 0.14475 -0.23561549
-0.14542949 0.1448665 -0.23564699
-0.14510401 0.14488 -0.235617
-0.14487 0.14489651 -0.235606
-0.1454235 0.145013 -0.2356575
-0.14509949 0.144991 -0.235616
-0.144866 0.145007 -0.235605
-0.145418 0.14515901 -0.23564199
-0.14509401 0.145137 -0.23561251
-0.14486149 0.145117 -0.235607
-0.14541399 0.14526901 -0.235635
-0.14508849 0.145284 -0.235605
-0.1448565 0.145264 -0.235595
-0.14541051 0.14538001 -0.235626
-0.145083 0.14543 -0.23560201
-0.14485049 0.145411 -0.23559651
-0.1454035 0.14552601 -0.235642
-0.145079 0.145541 -0.235603
-0.144848 0.145518 -0.235567
-0.1453985 0.14567401 -0.2356405
-0.1450755 0.14565 -0.23558199
-0.145393 0.14582101 -0.235627
-0.14507049 0.14579651 -0.23556951
-0.14538901 0.14593001 -0.235615
-0.145812 0.14606801 -0.23568851
-0.1453855 0.14603999 -0.2356115
-0.145061 0.146052 -0.235562
-0.145808 0.14617801 -0.235682
-0.1453805 0.14618599 -0.23559099
-0.14580449 0.14628801 -0.23567501
-0.14537451 0.14633299 -0.23559749
-0.1457985 0.14643499 -0.23568
-0.14537001 0.14644399 -0.23560099
-0.1457925 0.14658301 -0.235681
-0.14536551 0.14655399 -0.235603
-0.145787 0.14672899 -0.2356745
-0.14535999 0.14670099 -0.2356025
-0.14578301 0.14683899 -0.235668
-0.145355 0.14684699 -0.235588
-0.14577851 0.14695001 -0.235672
-0.1453505 0.146993 -0.23556951
-0.14577299 0.14709599 -0.23567051
-0.145346 0.147103 -0.235561
-0.14576751 0.14724401 -0.23567399
-0.14576299 0.14735299 -0.23566499
-0.145336 0.14736199 -0.23556751
-0.14575949 0.14746401 -0.23565701
-0.14532951 0.14750901 -0.23558
-0.14575399 0.14761201 -0.235652
-0.145326 0.14761899 -0.235568
-0.145749 0.1477575 -0.2356395
-0.145322 0.147728 -0.235562
-0.14574499 0.14786801 -0.235635
-0.14574051 0.14797699 -0.23562899
-0.14531049 0.14802299 -0.2355625
-0.1457355 0.14812499 -0.235626
-0.14530601 0.148132 -0.23556399
-0.145731 0.14823399 -0.235618
-0.14572901 0.14830799 -0.235614
-0.145303 0.148206 -0.235562
-0.14572451 0.14841899 -0.2356135
-0.14572001 0.14852799 -0.235615
-0.1457155 0.14864001 -0.235618
-0.1457105 0.14878599 -0.2356085
-0.14570451 0.148932 -0.23560201
-0.14570101 0.14904299 -0.23559999
-0.14569649 0.14915299 -0.235595
-0.1456915 0.14929999 -0.235587
-0.14568651 0.149445 -0.23557401
-0.14568201 0.149556 -0.23557
-0.146074 0.149737 -0.235689
-0.145678 0.14966699 -0.23557001
-0.146071 0.149808 -0.23569
-0.14567401 0.149776 -0.235561
-0.146066 0.149956 -0.23569
-0.14566651 0.14996099 -0.23556301
-0.14606151 0.150067 -0.2356835
-0.14566299 0.15007199 -0.235561
-0.146056 0.150215 -0.235679
-0.1460515 0.150361 -0.23566499
-0.146047 0.150472 -0.23566601
-0.146044 0.15058 -0.235642
-0.14603749 0.150728 -0.2356485
-0.1460315 0.150877 -0.235664
-0.146027 0.150987 -0.23565701
-0.14602351 0.151097 -0.23565051
-0.14601851 0.15124351 -0.235632
-0.1460135 0.151389 -0.23561901
-0.14600751 0.151537 -0.235624
-0.14600299 0.151648 -0.235617
-0.14599949 0.151759 -0.23561451
-0.1459945 0.15190449 -0.235596
-0.145991 0.152013 -0.23558
-0.145989 0.152087 -0.23556501
-0.14635751 0.153713 -0.23568049
-0.1463515 0.153861 -0.235688
-0.1463455 0.154009 -0.23568201
-0.14634199 0.15412 -0.235679
-0.14633751 0.154231 -0.23568401
-0.14632399 0.15456399 -0.235686
-0.146322 0.15463699 -0.23567399
-0.14631751 0.15474799 -0.23567051
-0.14631251 0.15489501 -0.23566601
-0.1463065 0.155044 -0.23566601
-0.146302 0.155155 -0.23566601
-0.1462965 0.155268 -0.23568201
-0.146291 0.155415 -0.23568499
-0.145823 0.156341 -0.23557401
-0.145818 0.156453 -0.23559301
-0.145812 0.15657 -0.235625
-0.145804 0.15672299 -0.23566701
-0.145383 0.157244 -0.235569
-0.14537549 0.1573655 -0.235634
-0.14536899 0.157483 -0.235681
-0.14491099 0.15829951 -0.235572
-0.144905 0.15841401 -0.23560201
-0.1448995 0.15852851 -0.2356185
-0.144339 0.15859599 -0.235576
-0.14489201 0.1586825 -0.235651
-0.14456999 0.15865201 -0.23557949
-0.144335 0.158673 -0.23559199
-0.144114 0.15872601 -0.23557401
-0.144886 0.15880001 -0.235689
-0.144564 0.15876999 -0.235616
-0.14455999 0.15884601 -0.235636
-0.144329 0.1587895 -0.235624
-0.144109 0.15880699 -0.235614
-0.13761801 0.15881801 -0.23557
-0.144556 0.158922 -0.23565
-0.14432199 0.158906 -0.235668
-0.1441025 0.1589255 -0.235662
-0.1399115 0.158914 -0.23558
-0.13957299 0.158934 -0.23557501
-0.138024 0.15891001 -0.235569
-0.137613 0.15893251 -0.23559749
-0.13578901 0.15896399 -0.23558401
-0.14455099 0.159003 -0.23569
-0.141674 0.159043 -0.235578
-0.1399025 0.1590725 -0.235645
-0.1395665 0.159052 -0.235614
-0.13933051 0.15903899 -0.2355995
-0.13912401 0.15905701 -0.23556501
-0.138017 0.1590315 -0.235627
-0.13760699 0.159051 -0.235631
-0.135784 0.159043 -0.23562001
-0.14211001 0.159215 -0.23557501
-0.1416675 0.15916049 -0.235616
-0.14123701 0.159247 -0.23557501
-0.139897 0.159188 -0.23567399
-0.13956 0.159172 -0.23566701
-0.139323 0.159159 -0.23565499
-0.1391165 0.1591785 -0.235625
-0.1376 0.15916699 -0.23566601
-0.13717499 0.159174 -0.235569
-0.136724 0.159229 -0.23557
-0.13622099 0.15917501 -0.235594
-0.13577899 0.159124 -0.235654
-0.142104 0.1593315 -0.235607
-0.14165899 0.15931749 -0.23566699
-0.141232 0.159326 -0.23561899
-0.14077 0.159372 -0.235579
-0.14034951 0.1593145 -0.235612
-0.13890201 0.15930501 -0.23561099
-0.1371675 0.1592955 -0.23563799
-0.136719 0.15931 -0.235608
-0.136214 0.159293 -0.23563699
-0.133664 0.159372 -0.23558401
-0.133417 0.159356 -0.235568
-0.142096 0.159453 -0.235671
-0.14122599 0.159409 -0.235663
-0.140764 0.159457 -0.235651
-0.138623 0.159439 -0.23564
-0.136712 0.15939599 -0.235678
-0.13341101 0.15944 -0.235624
-0.13310251 0.159464 -0.23563001
-0.129613 0.15947901 -0.235563
-0.12936001 0.15954199 -0.235569
-0.12914801 0.15961701 -0.235626
-0.116288 0.1191615 -0.235544
-0.1121875 0.1191515 -0.2355445
-0.116716 0.119301 -0.235521
-0.116285 0.119278 -0.23550799
-0.115973 0.119263 -0.23553599
-0.11576 0.119324 -0.23553
-0.1130705 0.1192785 -0.235524
-0.112635 0.119254 -0.235502
-0.112186 0.119269 -0.23549099
-0.116715 0.11938 -0.235477
-0.116284 0.119357 -0.235462
-0.115972 0.1193815 -0.2354625
-0.115759 0.119405 -0.23548
-0.113069 0.119398 -0.235461
-0.112185 0.11935 -0.235439
-0.115758 0.119482 -0.235442
-0.113067 0.119474 -0.235433
-0.117156 0.1196595 -0.235522
-0.111731 0.119691 -0.235516
-0.120276 0.119793 -0.235534
-0.1200395 0.11981849 -0.235504
-0.117153 0.119814 -0.23546299
-0.11173 0.1198095 -0.235452
-0.120274 0.1199085 -0.235493
-0.120037 0.119936 -0.23545501
-0.120491 0.12011 -0.23554
-0.120271 0.120024 -0.235452
-0.120489 0.120186 -0.23551799
-0.111321 0.120186 -0.235553
-0.110308 0.120194 -0.23555
-0.110073 0.120181 -0.235522
-0.120486 0.12029999 -0.235486
-0.1113185 0.1203005 -0.235517
-0.110525 0.120359 -0.23555
-0.1103055 0.1203095 -0.23550001
-0.1100715 0.1202985 -0.2354705
-0.1206905 0.12046351 -0.235531
-0.120484 0.120418 -0.235434
-0.111316 0.120418 -0.235459
-0.110959 0.120468 -0.23554499
-0.110523 0.120436 -0.235524
-0.110304 0.120427 -0.23544
-0.109801 0.1204255 -0.23554
-0.12428 0.120622 -0.235558
-0.1237965 0.12056451 -0.23552549
-0.1209365 0.1205515 -0.235521
-0.120689 0.120581 -0.235476
-0.110957 0.1205835 -0.23549899
-0.1107295 0.120565 -0.235534
-0.1105205 0.120552 -0.235485
-0.109798 0.1205795 -0.2354835
-0.124279 0.120699 -0.235522
-0.123795 0.120682 -0.235462
-0.1209335 0.1207055 -0.23546
-0.1206855 0.120693 -0.23545399
-0.110955 0.120699 -0.23544601
-0.110726 0.1207195 -0.23547
-0.110518 0.120668 -0.235431
-0.12545 0.120835 -0.23556
-0.12521151 0.120858 -0.235524
-0.12427551 0.1208125 -0.235497
-0.125865 0.121022 -0.235552
-0.12544751 0.12095051 -0.235513
-0.12521 0.120974 -0.235476
-0.124965 0.121029 -0.23554499
-0.124674 0.121016 -0.23553
-0.124273 0.120928 -0.23546401
-0.125863 0.121098 -0.235533
-0.1256475 0.1211165 -0.23553899
-0.12544399 0.121103 -0.235459
-0.1252065 0.121088 -0.23544601
-0.124963 0.121105 -0.235523
-0.124672 0.121091 -0.23550799
-0.1094455 0.1210815 -0.235515
-0.1258595 0.121209 -0.23552001
-0.125644 0.121229 -0.23551901
-0.1249605 0.12122101 -0.235479
-0.124671 0.121169 -0.235478
-0.124669 0.121244 -0.23545
-0.109442 0.1212355 -0.235456
-0.125856 0.121362 -0.23547399
-0.125641 0.121342 -0.235488
-0.125853 0.121475 -0.23544601
-0.12563699 0.1214945 -0.235448
-0.130146 0.1215895 -0.23554799
-0.129889 0.121615 -0.23553699
-0.1301415 0.1217405 -0.235517
-0.12988549 0.1217275 -0.2355185
-0.129162 0.121803 -0.235544
-0.13039599 0.121868 -0.235551
-0.130137 0.1218905 -0.235485
-0.12988099 0.121878 -0.235496
-0.12916 0.121878 -0.235516
-0.130393 0.12198099 -0.235521
-0.130135 0.122006 -0.23544499
-0.129877 0.122029 -0.23546299
-0.129548 0.122006 -0.235551
-0.12915701 0.1219935 -0.235487
-0.1303885 0.1221325 -0.23548999
-0.12987401 0.122141 -0.235439
-0.1295435 0.122157 -0.23551801
-0.129153 0.1221445 -0.23544651
-0.13142399 0.122309 -0.23555399
-0.1310585 0.1222535 -0.2355355
-0.130601 0.122258 -0.23555
-0.130384 0.122283 -0.23546
-0.12954 0.122269 -0.235496
-0.131422 0.122384 -0.235532
-0.13105449 0.122405 -0.235495
-0.130804 0.1223845 -0.2355475
-0.13059801 0.1223715 -0.2355265
-0.130381 0.122395 -0.235441
-0.129537 0.122384 -0.235462
-0.13272899 0.122535 -0.235539
-0.13230249 0.122549 -0.23553699
-0.13188049 0.12252 -0.2355375
-0.1314185 0.122497 -0.2355185
-0.13105001 0.122516 -0.23549999
-0.13080001 0.1225355 -0.23550701
-0.130593 0.12252 -0.235506
-0.12953401 0.122495 -0.235442
-0.13272551 0.122646 -0.23552799
-0.13229799 0.122661 -0.23553
-0.1318755 0.1226695 -0.23551799
-0.131414 0.122646 -0.235494
-0.1310465 0.122627 -0.2354885
-0.130797 0.122651 -0.235468
-0.13058901 0.122671 -0.23547399
-0.1327185 0.122791 -0.23555401
-0.13229451 0.122771 -0.2355215
-0.131872 0.122779 -0.235516
-0.1314085 0.122794 -0.235487
-0.131042 0.1227755 -0.23547301
-0.130794 0.122764 -0.23544049
-0.130585 0.122784 -0.235462
-0.1327125 0.122939 -0.23555651
-0.1322895 0.122921 -0.235506
-0.1318675 0.122892 -0.2355075
-0.13140249 0.122941 -0.23548999
-0.13103649 0.122926 -0.235449
-0.13078749 0.122908 -0.23546
-0.1305805 0.122893 -0.235461
-0.132708 0.123049 -0.23555499
-0.13228449 0.123069 -0.235495
-0.13186249 0.12304 -0.23549101
-0.13139801 0.123051 -0.235496
-0.131033 0.123037 -0.235442
-0.13078301 0.123019 -0.235475
-0.13078 0.123092 -0.23546501
-0.130576 0.123042 -0.235443
-0.13313 0.123224 -0.23555499
-0.1327045 0.123161 -0.23554301
-0.13228001 0.12318 -0.235494
-0.1318575 0.123189 -0.235477
-0.131394 0.123163 -0.23548299
-0.130778 0.123168 -0.23545399
-0.1305705 0.12319 -0.235432
-0.133127 0.1233 -0.23555399
-0.132699 0.123309 -0.23553649
-0.13227651 0.123292 -0.23547599
-0.131854 0.1233 -0.23547
-0.1313895 0.123311 -0.235469
-0.1307735 0.123277 -0.235459
-0.1331225 0.123409 -0.23555601
-0.1326935 0.123457 -0.23552701
-0.1322705 0.123438 -0.235477
-0.13185 0.123412 -0.23545501
-0.131384 0.123459 -0.23546
-0.13076749 0.123425 -0.23546
-0.133572 0.123618 -0.235559
-0.1331175 0.123557 -0.23555601
-0.132689 0.123568 -0.23552801
-0.13226551 0.123586 -0.23547399
-0.13184449 0.123559 -0.23545299
-0.13138001 0.123572 -0.235443
-0.13076299 0.1235745 -0.23543999
-0.13311151 0.1237045 -0.235552
-0.13268501 0.123679 -0.2355265
-0.13226099 0.123697 -0.23546299
-0.1318385 0.1237065 -0.23545
-0.1313765 0.123682 -0.235433
-0.13075601 0.123759 -0.235431
-0.13055199 0.123669 -0.235432
-0.1331065 0.123852 -0.23553801
-0.13268 0.1238255 -0.23551899
-0.132257 0.123808 -0.23546699
-0.131835 0.123817 -0.235447
-0.131372 0.123793 -0.23543601
-0.130753 0.123831 -0.235438
-0.13503751 0.1239545 -0.23555401
-0.13405749 0.123975 -0.235559
-0.133102 0.123963 -0.23553699
-0.1326745 0.123974 -0.23550549
-0.13225049 0.123954 -0.235475
-0.1318305 0.123928 -0.23544601
-0.13074851 0.123942 -0.23543599
-0.1350325 0.124102 -0.235552
-0.134783 0.124126 -0.235558
-0.133552 0.124134 -0.235559
-0.13309801 0.124074 -0.235535
-0.132671 0.124087 -0.235494
-0.13224551 0.124102 -0.235476
-0.131826 0.124039 -0.235438
-0.13136099 0.124087 -0.235433
-0.130742 0.124127 -0.235434
-0.135028 0.124213 -0.235549
-0.1347785 0.124236 -0.235559
-0.133549 0.124208 -0.235549
-0.13309249 0.124221 -0.23553801
-0.1326665 0.124197 -0.23548901
-0.132241 0.124213 -0.23547199
-0.13135651 0.124198 -0.235433
-0.130739 0.124199 -0.23543499
-0.1350235 0.124322 -0.235553
-0.1340435 0.124345 -0.235558
-0.13354549 0.124319 -0.23554149
-0.1330865 0.124369 -0.2355355
-0.13266 0.124342 -0.2355165
-0.132237 0.124323 -0.23546499
-0.131349 0.124383 -0.235432
-0.13501799 0.12447 -0.235551
-0.1347705 0.124458 -0.23555401
-0.13403749 0.124492 -0.235559
-0.13354051 0.124468 -0.23552901
-0.133083 0.124481 -0.23552699
-0.132654 0.124488 -0.235521
-0.1322315 0.124471 -0.23546401
-0.13180999 0.124481 -0.235431
-0.131347 0.124457 -0.235432
-0.13501251 0.124618 -0.2355465
-0.13476449 0.124606 -0.23555
-0.13403299 0.124602 -0.235557
-0.13353449 0.124614 -0.235532
-0.1330785 0.12458999 -0.235521
-0.13265 0.124599 -0.235521
-0.1322255 0.124618 -0.23546299
-0.131806 0.124555 -0.23543499
-0.13500801 0.124729 -0.235549
-0.13475901 0.124753 -0.23555249
-0.134031 0.124675 -0.235551
-0.134029 0.124751 -0.235534
-0.13352901 0.124762 -0.23552799
-0.13307351 0.124737 -0.235521
-0.13264599 0.124711 -0.2355105
-0.132222 0.124728 -0.235462
-0.13500351 0.124839 -0.235551
-0.134755 0.124864 -0.235552
-0.13402501 0.1248635 -0.235515
-0.133525 0.124873 -0.235517
-0.13306749 0.124885 -0.235522
-0.13264051 0.124859 -0.235503
-0.1322175 0.124839 -0.23546
-0.13179199 0.124925 -0.235432
-0.131332 0.124825 -0.235431
-0.1349985 0.124988 -0.23554051
-0.1347505 0.124974 -0.235551
-0.13401949 0.12500951 -0.23551899
-0.1335215 0.12498601 -0.235505
-0.133063 0.124996 -0.23552001
-0.132635 0.1250065 -0.235496
-0.132213 0.12495 -0.235469
-0.13221 0.12502199 -0.235471
-0.131789 0.124997 -0.235438
-0.13132299 0.125047 -0.23544
-0.13499251 0.125135 -0.235539
-0.134745 0.12512249 -0.2355445
-0.134014 0.125119 -0.235531
-0.133516 0.12513301 -0.235498
-0.1330595 0.125108 -0.23550799
-0.132632 0.12512 -0.23546299
-0.13220599 0.125135 -0.23546
-0.131787 0.125072 -0.235431
-0.13132 0.125119 -0.235442
-0.13498899 0.125247 -0.235534
-0.13474 0.12526999 -0.23552901
-0.13401049 0.125231 -0.23552901
-0.13351201 0.12524199 -0.235502
-0.133509 0.12531599 -0.235496
-0.13305351 0.125255 -0.235503
-0.1326285 0.125231 -0.235449
-0.13220051 0.1252825 -0.2354465
-0.131318 0.125193 -0.235432
-0.13498449 0.125357 -0.235526
-0.134736 0.12538099 -0.23551901
-0.13442799 0.12536199 -0.235559
-0.1340045 0.12537751 -0.235526
-0.133506 0.125392 -0.235496
-0.1330485 0.125403 -0.2354995
-0.1326215 0.125376 -0.23547751
-0.13219699 0.125393 -0.23544399
-0.13131049 0.125378 -0.235432
-0.1349795 0.125505 -0.235522
-0.1347315 0.12549099 -0.2355305
-0.134423 0.12551001 -0.23555499
-0.1339995 0.125525 -0.23551801
-0.1335015 0.12550101 -0.235504
-0.133044 0.125513 -0.235498
-0.13261551 0.125523 -0.23549101
-0.13219249 0.125504 -0.23544399
-0.1349735 0.125651 -0.2355275
-0.13472551 0.12563799 -0.235535
-0.13441899 0.12562051 -0.23554
-0.13399351 0.125673 -0.235524
-0.13349649 0.12564901 -0.235494
-0.1330395 0.125624 -0.235494
-0.13260999 0.125671 -0.23548001
-0.1321865 0.12565 -0.235448
-0.13496751 0.125798 -0.23552901
-0.134721 0.12578651 -0.235511
-0.13441351 0.12576801 -0.23553801
-0.13399 0.12578399 -0.23551001
-0.1334905 0.125797 -0.2354925
-0.1330335 0.12577 -0.2355025
-0.132606 0.125782 -0.235469
-0.13218051 0.125798 -0.235449
-0.13496301 0.125908 -0.235526
-0.134717 0.125898 -0.23549899
-0.1344085 0.125916 -0.235526
-0.13398549 0.12589499 -0.235514
-0.133487 0.125908 -0.23548
-0.13302851 0.125918 -0.235497
-0.1326025 0.125892 -0.23546499
-0.132176 0.125909 -0.235449
-0.13067301 0.125894 -0.235431
-0.13495949 0.126019 -0.23552349
-0.13471201 0.1260075 -0.235516
-0.1344015 0.12606201 -0.235542
-0.1339795 0.126041 -0.23551901
-0.1334825 0.12601849 -0.235477
-0.13302501 0.126031 -0.235477
-0.132597 0.12604199 -0.235449
-0.1321725 0.126018 -0.235448
-0.131284 0.126076 -0.23543701
-0.13495299 0.126166 -0.235531
-0.1347055 0.12615199 -0.23554149
-0.134397 0.126173 -0.235543
-0.13397351 0.12618899 -0.23551899
-0.133478 0.126166 -0.235459
-0.1330215 0.126141 -0.2354615
-0.13259101 0.126188 -0.23546
-0.132167 0.126167 -0.23543799
-0.1312795 0.126187 -0.235439
-0.134947 0.126313 -0.235541
-0.13469949 0.12630001 -0.23554
-0.1343925 0.12628201 -0.235549
-0.13397001 0.12630001 -0.235512
-0.1334725 0.126315 -0.23545
-0.1330155 0.126289 -0.235461
-0.132586 0.126297 -0.235466
-0.1321615 0.126314 -0.2354345
-0.131275 0.126296 -0.23544499
-0.130907 0.126279 -0.23543499
-0.13494299 0.126424 -0.23553599
-0.1346935 0.12644699 -0.23554
-0.134388 0.12639201 -0.235558
-0.13396549 0.12641001 -0.23550901
-0.133467 0.126423 -0.235467
-0.13300949 0.126435 -0.23546749
-0.1325825 0.126408 -0.23546501
-0.1312705 0.126407 -0.235442
-0.13065 0.12648401 -0.235439
-0.13493851 0.126533 -0.23553801
-0.134689 0.12655701 -0.23554701
-0.1339595 0.12655699 -0.235513
-0.13346249 0.126534 -0.235477
-0.1330035 0.1265825 -0.235477
-0.132577 0.12655699 -0.235452
-0.13215099 0.126573 -0.235433
-0.13126451 0.126555 -0.23544699
-0.130647 0.12655599 -0.235441
-0.13493249 0.126681 -0.23554051
-0.1346845 0.12666801 -0.235553
-0.13395351 0.12670501 -0.23551601
-0.1334565 0.12668 -0.235479
-0.132999 0.126692 -0.23547301
-0.132571 0.12674201 -0.235433
-0.13214651 0.126682 -0.2354425
-0.13125849 0.126701 -0.23544949
-0.13089 0.12672099 -0.235432
-0.1306425 0.12666699 -0.235441
-0.134927 0.126828 -0.23554
-0.134681 0.126779 -0.23554701
-0.134679 0.12685201 -0.235533
-0.13395 0.12681399 -0.23551001
-0.13345149 0.126828 -0.23546749
-0.1329955 0.126803 -0.23546851
-0.132567 0.12681501 -0.23545399
-0.13214099 0.12683 -0.23544201
-0.131255 0.126812 -0.235439
-0.130885 0.12686899 -0.235431
-0.134923 0.126938 -0.235543
-0.13467449 0.126963 -0.235525
-0.134367 0.12694401 -0.23555601
-0.13394549 0.12692501 -0.235511
-0.13344701 0.126939 -0.235471
-0.132991 0.12691399 -0.23547199
-0.13298801 0.12698799 -0.235476
-0.13256249 0.12692399 -0.23546401
-0.132137 0.12694 -0.235432
-0.1312505 0.12692401 -0.23543701
-0.13491851 0.127049 -0.23554349
-0.134671 0.127074 -0.23552001
-0.13436151 0.127093 -0.235543
-0.13394 0.12707201 -0.235506
-0.133443 0.12705 -0.23547301
-0.13298351 0.127097 -0.23548201
-0.1325565 0.12707201 -0.23545599
-0.132131 0.127086 -0.235433
-0.131245 0.12707099 -0.2354345
-0.134913 0.12719649 -0.235533
-0.1346665 0.127185 -0.2355125
-0.13435701 0.127203 -0.235542
-0.1339345 0.12722 -0.235505
-0.13343799 0.12719649 -0.23546201
-0.13297901 0.12720799 -0.23548301
-0.13255051 0.12721799 -0.235467
-0.13212651 0.127197 -0.235438
-0.13123849 0.12721699 -0.235448
-0.1349075 0.127344 -0.235521
-0.13466051 0.127332 -0.235524
-0.13435251 0.127313 -0.23555401
-0.13393 0.12732901 -0.235507
-0.13343251 0.127345 -0.23545301
-0.13297451 0.12731749 -0.23548999
-0.13254701 0.12732901 -0.235457
-0.1321215 0.127345 -0.23543951
-0.13123401 0.12732799 -0.235452
-0.13490251 0.127492 -0.235517
-0.134655 0.127479 -0.235515
-0.1339255 0.12744001 -0.235507
-0.13342601 0.127491 -0.23546749
-0.1329685 0.12746549 -0.23549551
-0.13254249 0.12744001 -0.23545101
-0.13211501 0.127492 -0.235449
-0.1312305 0.12743899 -0.2354445
-0.13489801 0.12760299 -0.235511
-0.13465101 0.127589 -0.235506
-0.134341 0.127608 -0.23555851
-0.13392049 0.127588 -0.23550099
-0.133422 0.12760299 -0.235467
-0.132963 0.12761299 -0.235489
-0.13253599 0.12758601 -0.235475
-0.132111 0.127602 -0.235438
-0.131225 0.12758701 -0.235434
-0.13489351 0.12771299 -0.2355195
-0.13464651 0.127701 -0.23550901
-0.13433699 0.127717 -0.23555601
-0.1339145 0.127736 -0.235498
-0.1334175 0.12771299 -0.235459
-0.13295899 0.12772401 -0.235488
-0.132531 0.12773451 -0.235459
-0.1321065 0.12771299 -0.2354425
-0.13488799 0.12785999 -0.23551899
-0.1346415 0.127848 -0.235507
-0.134333 0.12782949 -0.235544
-0.133911 0.127847 -0.235486
-0.13341251 0.12786099 -0.23545051
-0.132955 0.12783501 -0.23547751
-0.1325255 0.12788101 -0.23545301
-0.13210049 0.12785999 -0.23545501
-0.13488251 0.12800699 -0.235522
-0.13463551 0.127994 -0.235511
-0.13432801 0.127977 -0.23553249
-0.1339065 0.12795749 -0.23548901
-0.1334075 0.12800901 -0.23543701
-0.1329495 0.12798201 -0.23547301
-0.132521 0.127992 -0.23545299
-0.1320945 0.12800699 -0.23545399
-0.13487799 0.128117 -0.23552901
-0.13462949 0.128142 -0.235514
-0.13432249 0.128125 -0.235534
-0.133901 0.128067 -0.235507
-0.133898 0.128141 -0.235513
-0.133403 0.12812001 -0.23544
-0.13294351 0.12812901 -0.23548
-0.1325175 0.128103 -0.235449
-0.132091 0.12811799 -0.23545
-0.13487351 0.12822799 -0.235522
-0.134625 0.128251 -0.23551799
-0.1343165 0.128271 -0.2355295
-0.1338945 0.128252 -0.23550299
-0.133398 0.12822799 -0.23545849
-0.132939 0.12824 -0.23548
-0.1325115 0.128251 -0.235447
-0.1320865 0.12822899 -0.235441
-0.13486749 0.12837601 -0.235526
-0.13462049 0.128362 -0.235517
-0.134313 0.12838399 -0.23550799
-0.1338885 0.12839851 -0.235496
-0.13339201 0.12837499 -0.235459
-0.13293451 0.12835 -0.235484
-0.13250551 0.128398 -0.235449
-0.132083 0.12834001 -0.23543601
-0.13208 0.12841401 -0.23543701
-0.13486251 0.12852299 -0.235522
-0.1346145 0.12851 -0.235521
-0.1343095 0.12849399 -0.235497
-0.133885 0.128508 -0.235498
-0.133387 0.12852299 -0.23544851
-0.13292849 0.128497 -0.23548949
-0.132502 0.12851 -0.235438
-0.13207549 0.12852299 -0.23544699
-0.134858 0.12863301 -0.235522
-0.13460949 0.128657 -0.23551801
-0.1343025 0.12864 -0.2355285
-0.1338795 0.128619 -0.235506
-0.13338301 0.12863401 -0.235448
-0.1329235 0.128644 -0.235486
-0.132071 0.12863401 -0.235441
-0.13485351 0.12874401 -0.235531
-0.13460501 0.128769 -0.235511
-0.13429549 0.128786 -0.23554799
-0.13387451 0.128766 -0.23550001
-0.13337749 0.12874401 -0.235459
-0.132919 0.128754 -0.235485
-0.1324915 0.128766 -0.235449
-0.13206649 0.128745 -0.2354365
-0.134848 0.12889099 -0.235523
-0.1346015 0.128879 -0.23550099
-0.13429099 0.128896 -0.235549
-0.1338685 0.128913 -0.2355015
-0.13337201 0.12889101 -0.23545749
-0.13291501 0.12886551 -0.2354755
-0.132486 0.12891251 -0.2354445
-0.132061 0.12889101 -0.235442
-0.1348425 0.1290375 -0.235522
-0.1345955 0.129026 -0.235504
-0.13428751 0.129007 -0.23554951
-0.133864 0.129024 -0.235502
-0.1333665 0.12903699 -0.23546201
-0.13291 0.129012 -0.23546299
-0.13248201 0.129023 -0.23544
-0.13205549 0.129039 -0.23543501
-0.134838 0.12914801 -0.235522
-0.13458949 0.129173 -0.235506
-0.1342815 0.129155 -0.23554999
-0.1338595 0.129134 -0.235505
-0.133362 0.12914801 -0.235469
-0.1329045 0.12916 -0.23546
-0.13247749 0.129134 -0.235438
-0.13205101 0.129149 -0.235433
-0.1348335 0.12925901 -0.23552001
-0.13458499 0.129283 -0.23551001
-0.13427651 0.129302 -0.23554051
-0.13385451 0.129281 -0.235504
-0.1333575 0.12925901 -0.2354645
-0.13289851 0.129308 -0.23546299
-0.13247401 0.129245 -0.23543701
-0.13204899 0.129223 -0.235431
-0.13482851 0.12940601 -0.235511
-0.134581 0.12939399 -0.235513
-0.13427199 0.129412 -0.235535
-0.13384849 0.129429 -0.23549899
-0.13335249 0.12940651 -0.23545501
-0.13289499 0.129419 -0.235457
-0.13482249 0.12955301 -0.23552001
-0.13457599 0.12954149 -0.23550099
-0.13426849 0.12952399 -0.23552001
-0.133845 0.12954 -0.235497
-0.13334751 0.129554 -0.2354435
-0.13289 0.129528 -0.2354615
-0.1348165 0.12970001 -0.23552001
-0.13457051 0.12968799 -0.23550099
-0.1342625 0.12967101 -0.23552051
-0.1338405 0.129651 -0.23548999
-0.13334149 0.12970001 -0.235443
-0.132884 0.129675 -0.235471
-0.132456 0.129685 -0.23544
-0.134813 0.12981001 -0.23551799
-0.13456599 0.129798 -0.23549999
-0.134257 0.12981799 -0.23552001
-0.13383549 0.129797 -0.23548201
-0.133338 0.129811 -0.235433
-0.13287851 0.129823 -0.235461
-0.13245299 0.129761 -0.235438
-0.13480851 0.129921 -0.235512
-0.13456151 0.12990899 -0.23549999
-0.134253 0.12992901 -0.235514
-0.1338295 0.129945 -0.23548549
-0.132875 0.129934 -0.23545501
-0.13480249 0.130069 -0.235512
-0.134556 0.13005701 -0.23549101
-0.1342485 0.13003901 -0.2355215
-0.13382401 0.130092 -0.23548201
-0.1328705 0.130044 -0.23544699
-0.1347975 0.13021651 -0.235502
-0.134552 0.13016599 -0.235489
-0.13454901 0.13023999 -0.23550101
-0.1342425 0.13018601 -0.235522
-0.13382 0.13020299 -0.23547301
-0.13286549 0.130191 -0.23544399
-0.13243701 0.13020299 -0.235431
-0.134793 0.130327 -0.235497
-0.13454449 0.13035101 -0.2354975
-0.13423699 0.130334 -0.235523
-0.133816 0.13031399 -0.2354625
-0.132861 0.130302 -0.23544
-0.13285799 0.130376 -0.235438
-0.1347895 0.130438 -0.23549199
-0.134541 0.13046201 -0.23549201
-0.13423151 0.13048001 -0.235523
-0.13381049 0.13046101 -0.23545501
-0.132855 0.13045 -0.23544
-0.13478351 0.130584 -0.23549899
-0.1345365 0.13057101 -0.235497
-0.13422699 0.13059101 -0.23552801
-0.1338045 0.13060799 -0.23546651
-0.1328505 0.13056 -0.2354435
-0.13477799 0.130732 -0.235493
-0.1345305 0.13071901 -0.235497
-0.13422251 0.130702 -0.23552451
-0.1338 0.13071901 -0.235475
-0.13284549 0.130707 -0.235442
-0.134774 0.130843 -0.235484
-0.13452551 0.1308665 -0.23548201
-0.1342175 0.13084951 -0.235511
-0.13379601 0.13082799 -0.23547
-0.1328395 0.13085499 -0.235438
