# .PCD v0.7 - Point Cloud Data file format
VERSION 0.7
FIELDS x y z
SIZE 4 4 4
TYPE F F F
COUNT 1 1 1
WIDTH 1447
HEIGHT 1
VIEWPOINT 0 0 0 1 0 0 0
POINTS 1447
DATA ascii
-0.016643999 -0.071257003 -0.23736501
-0.016641 -0.071180999 -0.23736501
-0.016638 -0.071101002 -0.237368
-0.016635001 -0.071023002 -0.23736399
-0.016632 -0.070945002 -0.23736399
-0.016628001 -0.070864998 -0.23737399
-0.016625 -0.070786998 -0.237378
-0.016621999 -0.070711002 -0.237368
-0.016619001 -0.070630997 -0.23737399
-0.016615 -0.070551001 -0.23739
-0.016612001 -0.070471004 -0.237397
-0.016609 -0.070393004 -0.237395
-0.016604999 -0.070315003 -0.237399
-0.016601 -0.070234001 -0.23741101
-0.016597999 -0.070153996 -0.237423
-0.016594 -0.070073999 -0.237431
-0.016589999 -0.069994003 -0.237441
-0.016585 -0.069908999 -0.237479
-0.016579 -0.069821998 -0.23753899
-0.016573001 -0.069733001 -0.237589
-0.016566999 -0.069646001 -0.23764101
-0.016562 -0.069560997 -0.237683
-0.016556 -0.069473997 -0.237727
-0.016549001 -0.069385 -0.23779
-0.016542999 -0.069297001 -0.237846
-0.016536999 -0.069208004 -0.23789801
-0.016531 -0.069118999 -0.23796199
-0.014458 -0.085340999 -0.240052
-0.014459 -0.085267998 -0.239988
-0.014459 -0.085193999 -0.23991001
-0.01446 -0.085120998 -0.239831
-0.014461 -0.085049003 -0.239755
-0.014461 -0.084977001 -0.23968901
-0.014461 -0.084902003 -0.239628
-0.014461 -0.084826998 -0.239576
-0.014461 -0.084755003 -0.239508
-0.014463 -0.084683001 -0.239419
-0.014463 -0.08461 -0.239347
-0.014462 -0.084535003 -0.239301
-0.014462 -0.084459998 -0.239253
-0.01446 -0.084385 -0.239216
-0.014459 -0.084310003 -0.239178
-0.014458 -0.084234998 -0.239132
-0.014458 -0.084161997 -0.23908301
-0.014457 -0.084085003 -0.239043
-0.014455 -0.084009998 -0.23900899
-0.014453 -0.083934002 -0.238987
-0.014451 -0.083857 -0.238967
-0.01445 -0.083782002 -0.23893
-0.014449 -0.083705999 -0.23890001
-0.014447 -0.083631001 -0.23887201
-0.014445 -0.083554 -0.238842
-0.014444 -0.083477996 -0.23881499
-0.014442 -0.083402999 -0.238785
-0.01444 -0.083328001 -0.238757
-0.014439 -0.083251998 -0.238729
-0.014437 -0.083175004 -0.23871
-0.014435 -0.083099 -0.23869
-0.014433 -0.083024003 -0.23865999
-0.014431 -0.082947001 -0.23863
-0.01443 -0.082870997 -0.238598
-0.014428 -0.082796 -0.23856901
-0.014426 -0.082721002 -0.23855101
-0.014424 -0.082643002 -0.23853099
-0.014422 -0.082567997 -0.23850501
-0.014421 -0.082492001 -0.238474
-0.014419 -0.082416996 -0.23844799
-0.014416 -0.082339004 -0.238436
-0.014414 -0.082263999 -0.238424
-0.014411 -0.082185999 -0.238416
-0.014409 -0.082107998 -0.238407
-0.014406 -0.082029998 -0.23839299
-0.014404 -0.081955001 -0.238377
-0.014402 -0.081878997 -0.238363
-0.014399 -0.081802003 -0.238345
-0.014398 -0.081726 -0.238318
-0.014396 -0.081651002 -0.23829199
-0.014394 -0.081574999 -0.238276
-0.014391 -0.081496999 -0.23826399
-0.014388 -0.081419997 -0.23826
-0.014385 -0.081341997 -0.23825701
-0.014383 -0.081263997 -0.238249
-0.01438 -0.081188001 -0.238235
-0.014378 -0.081110999 -0.238221
-0.014376 -0.081035003 -0.238205
-0.014373 -0.080957003 -0.238189
-0.014371 -0.080881998 -0.238176
-0.014368 -0.080803998 -0.23816399
-0.014365 -0.080725998 -0.238162
-0.014362 -0.080647998 -0.238162
-0.014359 -0.080569997 -0.238162
-0.014356 -0.080491997 -0.238162
-0.014353 -0.080413997 -0.23815501
-0.01435 -0.080337003 -0.238151
-0.014348 -0.080259003 -0.238143
-0.014345 -0.080182999 -0.238133
-0.014342 -0.080103002 -0.238135
-0.014338 -0.080025002 -0.238143
-0.014335 -0.079947002 -0.238144
-0.014332 -0.079869002 -0.23813801
-0.014329 -0.079791002 -0.238134
-0.014326 -0.079713002 -0.238132
-0.014323 -0.079635002 -0.23813599
-0.01432 -0.079557002 -0.23813801
-0.014317 -0.079479001 -0.238133
-0.014315 -0.079402 -0.238121
-0.014312 -0.079324 -0.238121
-0.014308 -0.079245999 -0.23811901
-0.014306 -0.079167999 -0.238115
-0.014303 -0.079089999 -0.238107
-0.0143 -0.079011999 -0.23810899
-0.014296 -0.078933999 -0.238114
-0.014293 -0.078855999 -0.238116
-0.01429 -0.078776002 -0.238114
-0.014287 -0.078699999 -0.23811001
-0.014284 -0.078621998 -0.238104
-0.014281 -0.078542002 -0.23810799
-0.014278 -0.078464001 -0.238116
-0.014274 -0.078383997 -0.238129
-0.014271 -0.078305997 -0.238129
-0.014268 -0.078227997 -0.238125
-0.014265 -0.078149997 -0.238121
-0.014262 -0.078074999 -0.238111
-0.01426 -0.077996999 -0.238095
-0.014258 -0.077921003 -0.23808201
-0.014255 -0.077843003 -0.238078
-0.014252 -0.077766001 -0.238068
-0.01425 -0.077689998 -0.238056
-0.014247 -0.077611998 -0.23804601
-0.014244 -0.077535003 -0.23803499
-0.014241 -0.077457003 -0.23803499
-0.014238 -0.077377997 -0.238043
-0.014235 -0.077298 -0.23804501
-0.014232 -0.077220999 -0.238041
-0.014229 -0.077145003 -0.238031
-0.014227 -0.077067003 -0.238019
-0.014224 -0.076989003 -0.23801599
-0.014221 -0.076911002 -0.238014
-0.014218 -0.076833002 -0.238012
-0.014215 -0.076755002 -0.23800801
-0.014212 -0.076679997 -0.238002
-0.014209 -0.0766 -0.237996
-0.014206 -0.076523997 -0.23799101
-0.014203 -0.076445997 -0.23798899
-0.0142 -0.076367997 -0.23798899
-0.014197 -0.076289997 -0.237987
-0.014194 -0.07621 -0.23798899
-0.014191 -0.076131999 -0.237985
-0.014189 -0.076057002 -0.237974
-0.014186 -0.075979002 -0.237966
-0.014183 -0.075901002 -0.23796
-0.01418 -0.075823002 -0.23796199
-0.014176 -0.075742997 -0.23796999
-0.014173 -0.075664997 -0.237976
-0.01417 -0.075586997 -0.23797201
-0.014167 -0.075508997 -0.237967
-0.014164 -0.075430997 -0.237959
-0.014162 -0.075355001 -0.237949
-0.014159 -0.075277999 -0.237947
-0.014155 -0.075196996 -0.23795301
-0.014152 -0.075119004 -0.237955
-0.014149 -0.075042002 -0.237946
-0.014147 -0.074965999 -0.23794
-0.014143 -0.074886002 -0.237942
-0.01414 -0.074808002 -0.23794
-0.014137 -0.074730001 -0.237938
-0.014134 -0.074649997 -0.23794401
-0.014131 -0.074571997 -0.237948
-0.014128 -0.074493997 -0.23794299
-0.014125 -0.074415997 -0.23793501
-0.014122 -0.074337997 -0.237939
-0.014119 -0.074259996 -0.237939
-0.014116 -0.074181996 -0.23793501
-0.014113 -0.074101999 -0.23793501
-0.014109 -0.074023999 -0.237947
-0.014105 -0.073944002 -0.237956
-0.014102 -0.073863998 -0.23796
-0.014099 -0.073785998 -0.23796199
-0.014096 -0.073707998 -0.23795401
-0.014093 -0.073632002 -0.23794401
-0.014091 -0.073555 -0.23794
-0.014087 -0.073475003 -0.23794
-0.014085 -0.073399 -0.23793299
-0.014083 -0.073322996 -0.23791499
-0.01408 -0.073247999 -0.237895
-0.014079 -0.073174998 -0.23786099
-0.014078 -0.073100999 -0.23783401
-0.014076 -0.073026001 -0.237808
-0.014075 -0.072953001 -0.237772
-0.014074 -0.072881997 -0.237725
-0.014073 -0.072810002 -0.237689
-0.014071 -0.072734997 -0.237665
-0.014069 -0.072662003 -0.23764101
-0.014067 -0.072586 -0.23762199
-0.014065 -0.072511002 -0.237598
-0.014064 -0.072437003 -0.237572
-0.014062 -0.072361998 -0.237554
-0.014059 -0.072286002 -0.237537
-0.014058 -0.072213002 -0.237509
-0.014056 -0.072139002 -0.23747499
-0.014054 -0.072063997 -0.237461
-0.014052 -0.071988001 -0.23745
-0.014049 -0.071910001 -0.237442
-0.014047 -0.071837001 -0.237418
-0.014045 -0.071760997 -0.2374
-0.014042 -0.071682997 -0.237399
-0.014039 -0.071604997 -0.23740301
-0.014035 -0.071525 -0.237407
-0.014033 -0.071450002 -0.237397
-0.01403 -0.071373999 -0.23738299
-0.014028 -0.071298003 -0.237371
-0.014025 -0.071220003 -0.23736601
-0.014022 -0.071142003 -0.237368
-0.014019 -0.071065001 -0.237358
-0.014017 -0.070988998 -0.23734599
-0.014014 -0.070910998 -0.237342
-0.01401 -0.070831001 -0.23735601
-0.014007 -0.070750996 -0.23736399
-0.014003 -0.070671998 -0.237371
-0.013999 -0.070592001 -0.237385
-0.013996 -0.070514001 -0.237385
-0.013993 -0.070433997 -0.23738299
-0.01399 -0.070355996 -0.237391
-0.013986 -0.070276 -0.23740099
-0.013982 -0.070196003 -0.237407
-0.013979 -0.070118003 -0.237413
-0.013976 -0.070040002 -0.23741201
-0.013972 -0.069959998 -0.237418
-0.013969 -0.069880001 -0.237432
-0.013965 -0.069798999 -0.237442
-0.013961 -0.069719002 -0.23746
-0.013955 -0.069629997 -0.23751201
-0.013949 -0.069542997 -0.23756801
-0.013942 -0.069453999 -0.237625
-0.013935 -0.069360003 -0.237709
-0.013928 -0.069270998 -0.23776899
-0.013922 -0.069181003 -0.23783299
-0.014194 -0.085203998 -0.23995601
-0.014195 -0.085129999 -0.23988
-0.014195 -0.085056998 -0.239821
-0.014195 -0.084982999 -0.239755
-0.014195 -0.084909998 -0.239693
-0.014195 -0.084835999 -0.239632
-0.014195 -0.084762998 -0.239568
-0.014195 -0.084688 -0.239512
-0.014195 -0.084615998 -0.239453
-0.014196 -0.084542997 -0.23937701
-0.014196 -0.084468998 -0.23931301
-0.014195 -0.084394 -0.239273
-0.014194 -0.084319003 -0.23923799
-0.014193 -0.084243998 -0.239196
-0.014192 -0.084168002 -0.23915599
-0.01419 -0.084092997 -0.239116
-0.01419 -0.084017999 -0.23907299
-0.014188 -0.083943002 -0.239035
-0.014188 -0.083867997 -0.238987
-0.014187 -0.083792999 -0.23894501
-0.014186 -0.083718002 -0.238906
-0.014184 -0.083642997 -0.238868
-0.014182 -0.083567001 -0.238848
-0.01418 -0.083489999 -0.23882601
-0.014179 -0.083415002 -0.23879699
-0.014177 -0.083338998 -0.238775
-0.014174 -0.083260998 -0.238763
-0.014172 -0.083183996 -0.238749
-0.01417 -0.083108 -0.23872501
-0.014168 -0.083033003 -0.23870599
-0.014166 -0.082955003 -0.23868001
-0.014164 -0.082879998 -0.23865201
-0.014163 -0.082805 -0.23862199
-0.014161 -0.082728997 -0.238601
-0.014159 -0.082652003 -0.238581
-0.014157 -0.082575999 -0.23855899
-0.014155 -0.082498997 -0.238539
-0.014152 -0.082423002 -0.238525
-0.01415 -0.082345001 -0.238516
-0.014148 -0.082269996 -0.238492
-0.014146 -0.082193002 -0.238464
-0.014144 -0.082116999 -0.238446
-0.014142 -0.082038999 -0.23842999
-0.01414 -0.081965998 -0.23840301
-0.014138 -0.081889004 -0.238379
-0.014136 -0.081813 -0.23836499
-0.014134 -0.081736997 -0.238343
-0.014132 -0.081660002 -0.238318
-0.014129 -0.081583999 -0.23831201
-0.014126 -0.081505999 -0.238308
-0.014124 -0.081428997 -0.23829401
-0.014121 -0.081353001 -0.23828
-0.014119 -0.081275001 -0.23827399
-0.014116 -0.081197001 -0.23827299
-0.014113 -0.081119001 -0.238269
-0.01411 -0.081041999 -0.238261
-0.014107 -0.080963999 -0.238251
-0.014105 -0.080885999 -0.23823901
-0.014102 -0.080807999 -0.23823699
-0.014099 -0.080729999 -0.23823801
-0.014096 -0.080651999 -0.238234
-0.014093 -0.080576003 -0.23823
-0.01409 -0.080496997 -0.238226
-0.014087 -0.080421001 -0.23822001
-0.014084 -0.080343001 -0.238216
-0.014081 -0.080265 -0.23821101
-0.014079 -0.080187 -0.238207
-0.014076 -0.080109 -0.238203
-0.014073 -0.080031 -0.238195
-0.01407 -0.079953998 -0.23819099
-0.014067 -0.079875998 -0.238189
-0.014064 -0.079797998 -0.23819201
-0.014061 -0.079719998 -0.23819
-0.014058 -0.079641998 -0.23818401
-0.014055 -0.079563998 -0.238178
-0.014052 -0.079485998 -0.238176
-0.014049 -0.079407997 -0.238176
-0.014046 -0.079329997 -0.238176
-0.014043 -0.079251997 -0.23817299
-0.01404 -0.079173997 -0.238175
-0.014036 -0.079094 -0.23818099
-0.014033 -0.079016 -0.238179
-0.014031 -0.078938998 -0.238171
-0.014028 -0.078860998 -0.238167
-0.014025 -0.078782998 -0.238166
-0.014022 -0.078704998 -0.23816399
-0.014018 -0.078626998 -0.238166
-0.014015 -0.078548998 -0.23817
-0.014012 -0.078470998 -0.238166
-0.014009 -0.078392997 -0.23816399
-0.014006 -0.078314997 -0.238166
-0.014003 -0.078235 -0.238169
-0.014 -0.078157 -0.23816299
-0.013997 -0.078080997 -0.238157
-0.013994 -0.078001 -0.238157
-0.013991 -0.077923 -0.23815501
-0.013988 -0.077848002 -0.23814701
-0.013986 -0.077770002 -0.23814
-0.013983 -0.077692002 -0.238132
-0.01398 -0.077614002 -0.238122
-0.013978 -0.077538997 -0.23810799
-0.013975 -0.077460997 -0.23810001
-0.013972 -0.077382997 -0.238096
-0.013969 -0.077304997 -0.238095
-0.013966 -0.077225 -0.23809899
-0.013963 -0.077147 -0.23809899
-0.01396 -0.077071004 -0.23809101
-0.013958 -0.076994002 -0.238079
-0.013955 -0.076917998 -0.238067
-0.013952 -0.076839998 -0.23806
-0.013949 -0.076761998 -0.23806
-0.013946 -0.076683998 -0.23806
-0.013943 -0.076604001 -0.23805401
-0.01394 -0.076527998 -0.23805
-0.013938 -0.076451004 -0.23804399
-0.013935 -0.076373003 -0.238041
-0.013931 -0.076295003 -0.238043
-0.013929 -0.076217003 -0.23803701
-0.013926 -0.076139003 -0.238029
-0.013923 -0.076061003 -0.238023
-0.01392 -0.075983003 -0.238019
-0.013917 -0.075906001 -0.238014
-0.013915 -0.075829998 -0.238004
-0.013912 -0.075751998 -0.23799799
-0.013908 -0.075672001 -0.23801
-0.013904 -0.075590998 -0.23802599
-0.013901 -0.075512998 -0.238032
-0.013898 -0.075433001 -0.238034
-0.013895 -0.075358003 -0.23802499
-0.013892 -0.075280003 -0.23801699
-0.013889 -0.075199999 -0.23801699
-0.013886 -0.075124003 -0.238013
-0.013884 -0.075046003 -0.238003
-0.013881 -0.074968003 -0.237997
-0.013878 -0.074891001 -0.23799101
-0.013874 -0.074812002 -0.23800001
-0.013871 -0.074731998 -0.23801
-0.013867 -0.074652001 -0.238014
-0.013864 -0.074574001 -0.238014
-0.013861 -0.074496001 -0.23801
-0.013859 -0.074418999 -0.238004
-0.013856 -0.074343003 -0.237997
-0.013853 -0.074262999 -0.237997
-0.01385 -0.074184999 -0.23799101
-0.013847 -0.074106999 -0.237985
-0.013844 -0.074028999 -0.237993
-0.01384 -0.073949002 -0.238001
-0.013836 -0.073868997 -0.238013
-0.013833 -0.073788002 -0.238023
-0.013829 -0.073707998 -0.238029
-0.013826 -0.073632002 -0.23802599
-0.013824 -0.073555 -0.238014
-0.013822 -0.073478997 -0.237994
-0.01382 -0.073406003 -0.237968
-0.013818 -0.07333 -0.237947
-0.013817 -0.073256999 -0.237913
-0.013815 -0.073183998 -0.237881
-0.013813 -0.073108003 -0.23786099
-0.013811 -0.073032998 -0.23784
-0.01381 -0.072958998 -0.237812
-0.013809 -0.072885998 -0.237774
-0.013807 -0.072812997 -0.237747
-0.013805 -0.072737001 -0.23773301
-0.013803 -0.072662003 -0.237707
-0.013801 -0.072589003 -0.237679
-0.0138 -0.072512999 -0.237653
-0.013798 -0.072439998 -0.23762999
-0.013796 -0.072365999 -0.23759601
-0.013795 -0.072295003 -0.237562
-0.013794 -0.072219998 -0.23753101
-0.013791 -0.072144002 -0.237515
-0.013789 -0.072068997 -0.237507
-0.013786 -0.071993001 -0.23749501
-0.013784 -0.071915001 -0.23748299
-0.013781 -0.071838997 -0.237472
-0.01378 -0.071765997 -0.23744801
-0.013778 -0.071690001 -0.237426
-0.013775 -0.071612999 -0.237424
-0.013771 -0.071534999 -0.23742899
-0.013769 -0.071456999 -0.23742101
-0.013767 -0.071381003 -0.23740099
-0.013764 -0.071305998 -0.237387
-0.013761 -0.071230002 -0.237381
-0.013759 -0.071152002 -0.237377
-0.013756 -0.071074001 -0.23737
-0.013753 -0.070996001 -0.237372
-0.013749 -0.070915997 -0.23738199
-0.013745 -0.070836 -0.23739
-0.013742 -0.070758 -0.237398
-0.013738 -0.070676997 -0.237404
-0.013736 -0.070602 -0.237398
-0.013733 -0.070524 -0.237397
-0.013729 -0.070444003 -0.237409
-0.013725 -0.070363 -0.23741899
-0.013722 -0.070283003 -0.23742101
-0.013719 -0.070205003 -0.237423
-0.013716 -0.070127003 -0.23742101
-0.013712 -0.070049003 -0.237423
-0.013709 -0.069971003 -0.237425
-0.013706 -0.069890998 -0.23742799
-0.013702 -0.069811001 -0.237442
-0.013697 -0.069729 -0.237472
-0.013691 -0.069637001 -0.237537
-0.013684 -0.069548003 -0.23760299
-0.013679 -0.069463 -0.237637
-0.013673 -0.069375999 -0.237691
-0.013664 -0.069279999 -0.23778901
-0.013658 -0.069191001 -0.237847
-0.013652 -0.069100998 -0.237904
-0.01394 -0.085219003 -0.23996501
-0.013941 -0.085146002 -0.239895
-0.013941 -0.085074 -0.239822
-0.013941 -0.084999003 -0.239758
-0.013941 -0.084926002 -0.23970599
-0.013941 -0.084852003 -0.23964401
-0.013941 -0.084776998 -0.23958901
-0.013941 -0.084703997 -0.239527
-0.013941 -0.084629998 -0.23945899
-0.013941 -0.084556997 -0.239392
-0.013943 -0.084487997 -0.2393
-0.013942 -0.084412999 -0.23925599
-0.013941 -0.084334999 -0.239217
-0.01394 -0.084261999 -0.239171
-0.013938 -0.084184997 -0.239143
-0.013937 -0.084109999 -0.239117
-0.013936 -0.084035002 -0.23907
-0.013936 -0.083962001 -0.23899999
-0.013936 -0.083889998 -0.23894399
-0.013934 -0.083811998 -0.238923
-0.013932 -0.083737001 -0.238897
-0.013932 -0.083662003 -0.23884501
-0.013931 -0.083586998 -0.238795
-0.01393 -0.083512001 -0.238768
-0.013927 -0.083435997 -0.23875
-0.013925 -0.083357997 -0.23874199
-0.013922 -0.083279997 -0.238736
-0.013919 -0.083203003 -0.238728
-0.013917 -0.083125003 -0.23871
-0.013915 -0.083049998 -0.238685
-0.013914 -0.082974002 -0.238657
-0.013911 -0.082897 -0.23864301
-0.013909 -0.082819 -0.238625
-0.013907 -0.082745999 -0.23859601
-0.013905 -0.082667999 -0.23857599
-0.013903 -0.082593001 -0.238552
-0.013902 -0.082517996 -0.23852
-0.0139 -0.082439996 -0.238498
-0.013898 -0.082364 -0.238481
-0.013896 -0.082289003 -0.238463
-0.013893 -0.082211003 -0.238445
-0.013891 -0.082134001 -0.238433
-0.013889 -0.082057998 -0.238417
-0.013887 -0.081983 -0.238388
-0.013885 -0.081906997 -0.23836
-0.013884 -0.081831999 -0.238334
-0.013882 -0.081757002 -0.238306
-0.01388 -0.081679001 -0.23828501
-0.013877 -0.081602998 -0.238279
-0.013874 -0.081524998 -0.238281
-0.013871 -0.081446998 -0.23827299
-0.013869 -0.081370004 -0.238263
-0.013866 -0.081292003 -0.238259
-0.013863 -0.081214003 -0.23825601
-0.01386 -0.081136003 -0.23824801
-0.013858 -0.081060998 -0.238232
-0.013855 -0.080982998 -0.23821799
-0.013852 -0.080904998 -0.238214
-0.013849 -0.080826998 -0.238214
-0.013846 -0.080748998 -0.238217
-0.013842 -0.080669001 -0.238231
-0.013839 -0.080591001 -0.238243
-0.013835 -0.080510996 -0.238243
-0.013833 -0.080435 -0.238225
-0.01383 -0.080357 -0.238217
-0.013827 -0.080279 -0.238216
-0.013825 -0.080201 -0.23820999
-0.013822 -0.080123998 -0.23820201
-0.013819 -0.080045998 -0.23819999
-0.013815 -0.079967998 -0.238206
-0.013812 -0.079889998 -0.238204
-0.01381 -0.079811998 -0.238198
-0.013807 -0.079733998 -0.23819099
-0.013804 -0.079655997 -0.238187
-0.013801 -0.079580002 -0.23818301
-0.013798 -0.079503 -0.238177
-0.013795 -0.079425 -0.23817299
-0.013792 -0.079345003 -0.23817299
-0.013789 -0.079267003 -0.238176
-0.013786 -0.079189003 -0.238176
-0.013783 -0.079111002 -0.238166
-0.013781 -0.079034999 -0.23816
-0.013777 -0.078955002 -0.238166
-0.013774 -0.078877002 -0.23817
-0.013771 -0.078796998 -0.238168
-0.013768 -0.078721002 -0.238167
-0.013765 -0.078643002 -0.238161
-0.013762 -0.078566 -0.238153
-0.013759 -0.078488 -0.238151
-0.013756 -0.078408003 -0.23815501
-0.013753 -0.078330003 -0.238159
-0.01375 -0.078252003 -0.23815601
-0.013746 -0.078174002 -0.23815601
-0.013743 -0.078096002 -0.23815601
-0.01374 -0.078018002 -0.238152
-0.013738 -0.077940002 -0.238148
-0.013735 -0.077862002 -0.238144
-0.013732 -0.077784002 -0.238142
-0.013729 -0.077706002 -0.23813701
-0.013726 -0.077629 -0.238125
-0.013724 -0.077552997 -0.238111
-0.013721 -0.077474996 -0.23810101
-0.013718 -0.077396996 -0.238097
-0.013715 -0.077319004 -0.238096
-0.013712 -0.077241004 -0.23810001
-0.013709 -0.077163003 -0.238098
-0.013707 -0.077087998 -0.23807199
-0.013706 -0.077013001 -0.23804
-0.013703 -0.076935001 -0.23804
-0.013699 -0.076857001 -0.238047
-0.013696 -0.076779 -0.238041
-0.013694 -0.076702997 -0.238029
-0.013691 -0.076624997 -0.238019
-0.013688 -0.076546997 -0.238019
-0.013685 -0.076467998 -0.238019
-0.013682 -0.076389 -0.238024
-0.013678 -0.076311 -0.23803
-0.013675 -0.076231003 -0.23803601
-0.013671 -0.076150998 -0.23804601
-0.013668 -0.076072998 -0.238048
-0.013665 -0.075994998 -0.23804399
-0.013663 -0.075917996 -0.238032
-0.013661 -0.075842001 -0.23800901
-0.013658 -0.075765997 -0.237993
-0.013655 -0.075689003 -0.23799101
-0.013652 -0.075611003 -0.237995
-0.013649 -0.07553 -0.238003
-0.013645 -0.075452 -0.238005
-0.013642 -0.075374 -0.238006
-0.013639 -0.075294003 -0.238014
-0.013635 -0.075216003 -0.23801599
-0.013633 -0.075138003 -0.238012
-0.013629 -0.075057998 -0.23802
-0.013626 -0.074979998 -0.238022
-0.013623 -0.074901998 -0.238014
-0.01362 -0.074824996 -0.23801
-0.013617 -0.074747004 -0.238011
-0.013614 -0.074666999 -0.238011
-0.013611 -0.074588999 -0.23800901
-0.013608 -0.074510999 -0.238003
-0.013605 -0.074432999 -0.23800901
-0.013601 -0.074354999 -0.23800901
-0.013599 -0.074279003 -0.23799001
-0.013597 -0.074202001 -0.237982
-0.013593 -0.074121997 -0.237984
-0.01359 -0.074043997 -0.237982
-0.013587 -0.073964998 -0.237988
-0.013583 -0.073882997 -0.238004
-0.01358 -0.073804997 -0.23801
-0.013576 -0.073725 -0.23802
-0.013572 -0.073645003 -0.238033
-0.013569 -0.073567003 -0.23802701
-0.013568 -0.073492996 -0.23799901
-0.013566 -0.073420003 -0.237967
-0.013564 -0.073344998 -0.23794401
-0.013563 -0.073269002 -0.237918
-0.013562 -0.073197998 -0.237882
-0.01356 -0.073123001 -0.23785
-0.013558 -0.073046997 -0.237841
-0.013555 -0.072968997 -0.237831
-0.013553 -0.072896004 -0.23780499
-0.013552 -0.072823003 -0.237773
-0.013551 -0.072750002 -0.237736
-0.013549 -0.072676003 -0.23770601
-0.013547 -0.072600998 -0.23768
-0.013545 -0.072526999 -0.23766001
-0.013544 -0.072453998 -0.237633
-0.013543 -0.072380997 -0.237597
-0.013541 -0.072307996 -0.237565
-0.013539 -0.072232001 -0.237546
-0.013537 -0.072155997 -0.237526
-0.013536 -0.072082996 -0.237498
-0.013533 -0.072007999 -0.23748
-0.013531 -0.071932003 -0.237472
-0.013529 -0.071856 -0.237455
-0.013526 -0.071781002 -0.23743901
-0.013524 -0.071704999 -0.237427
-0.013521 -0.071626998 -0.237423
-0.013518 -0.071548998 -0.23741899
-0.013515 -0.071470998 -0.23741201
-0.013513 -0.071397997 -0.23739401
-0.013511 -0.071322002 -0.237372
-0.013509 -0.071244001 -0.23736399
-0.013505 -0.071167 -0.23736399
-0.013503 -0.071091004 -0.23735701
-0.0135 -0.071013004 -0.237353
-0.013496 -0.070932999 -0.237363
-0.013493 -0.070851997 -0.23737299
-0.013489 -0.070773996 -0.237379
-0.013486 -0.070695996 -0.237379
-0.013483 -0.070615999 -0.237381
-0.013479 -0.070537999 -0.23739199
-0.013476 -0.070458002 -0.23739199
-0.013473 -0.070380002 -0.237388
-0.013469 -0.070299998 -0.2374
-0.013465 -0.070220001 -0.23741999
-0.013461 -0.070139997 -0.237432
-0.013458 -0.070061997 -0.23743001
-0.013455 -0.069983996 -0.237426
-0.013452 -0.069904 -0.23742799
-0.013449 -0.069825999 -0.23743699
-0.013444 -0.069743 -0.237459
-0.013439 -0.069656 -0.23750301
-0.013432 -0.069568999 -0.23756
-0.013427 -0.069481999 -0.237602
-0.013422 -0.069397002 -0.237638
-0.013414 -0.069306001 -0.23772199
-0.013407 -0.069214001 -0.237792
-0.0134 -0.069119997 -0.237874
-0.013392 -0.069029003 -0.237949
-0.013454 -0.085495003 -0.23998301
-0.013454 -0.085421003 -0.239911
-0.013455 -0.085348003 -0.23983601
-0.013456 -0.085276 -0.23976
-0.013456 -0.085203998 -0.23968799
-0.013457 -0.085129 -0.239613
-0.013457 -0.085055999 -0.23956101
-0.013456 -0.084982 -0.239509
-0.013456 -0.084907003 -0.239452
-0.013456 -0.084834002 -0.239392
-0.013456 -0.084760003 -0.239334
-0.013455 -0.084684998 -0.23928601
-0.013455 -0.08461 -0.239233
-0.013454 -0.084535003 -0.239189
-0.013453 -0.084459998 -0.239145
-0.013453 -0.084386997 -0.239086
-0.013453 -0.084315002 -0.239022
-0.013452 -0.084239997 -0.23898201
-0.013451 -0.084161997 -0.23894601
-0.01345 -0.084089004 -0.238911
-0.013449 -0.084013999 -0.23886301
-0.013448 -0.083939001 -0.23881701
-0.013446 -0.083864003 -0.23878901
-0.013445 -0.083788998 -0.238748
-0.013444 -0.083714001 -0.238718
-0.013442 -0.083636001 -0.238692
-0.01344 -0.083561003 -0.238662
-0.013439 -0.083485998 -0.238629
-0.013438 -0.083410002 -0.238593
-0.013436 -0.083334997 -0.23855899
-0.013435 -0.08326 -0.238535
-0.013432 -0.083182 -0.238526
-0.01343 -0.083107002 -0.238506
-0.013428 -0.083029002 -0.238474
-0.013427 -0.082956001 -0.238444
-0.013426 -0.082881004 -0.23840401
-0.013424 -0.082805999 -0.23837499
-0.013422 -0.082727998 -0.238361
-0.013419 -0.082649998 -0.23834699
-0.013417 -0.082575001 -0.238327
-0.013415 -0.082498997 -0.238306
-0.013414 -0.082424 -0.238282
-0.013412 -0.082347997 -0.23825601
-0.01341 -0.082271002 -0.238232
-0.013408 -0.082194999 -0.238216
-0.013405 -0.082117997 -0.23820101
-0.013403 -0.082042001 -0.238177
-0.013401 -0.081967004 -0.23816299
-0.013398 -0.081889004 -0.23815501
-0.013396 -0.081811003 -0.238143
-0.013394 -0.081735 -0.23813
-0.013391 -0.081657998 -0.23812
-0.013388 -0.081582002 -0.23811001
-0.013386 -0.081504002 -0.238094
-0.013384 -0.081428997 -0.238078
-0.013381 -0.081350997 -0.238069
-0.013379 -0.081272997 -0.238061
-0.013376 -0.081197001 -0.238049
-0.013374 -0.081119999 -0.23803701
-0.01337 -0.081041999 -0.23803701
-0.013367 -0.080963999 -0.238039
-0.013364 -0.080885999 -0.238038
-0.013361 -0.080807999 -0.23804399
-0.013357 -0.080728002 -0.238048
-0.013354 -0.080650002 -0.238048
-0.013352 -0.080572002 -0.238042
-0.013349 -0.080495998 -0.238028
-0.013346 -0.080417998 -0.238024
-0.013343 -0.080338001 -0.238031
-0.01334 -0.080261998 -0.23802701
-0.013337 -0.080185004 -0.23801699
-0.013335 -0.080107003 -0.238005
-0.013332 -0.080031 -0.23799901
-0.013329 -0.079953 -0.237995
-0.013326 -0.079875 -0.23799001
-0.013324 -0.079797998 -0.237982
-0.013321 -0.079719998 -0.237976
-0.013318 -0.079641998 -0.23797201
-0.013315 -0.079566002 -0.23796199
-0.013313 -0.079488002 -0.23795301
-0.01331 -0.079410002 -0.237951
-0.013306 -0.079332002 -0.237959
-0.013302 -0.079251997 -0.23797899
-0.013298 -0.079172 -0.23799101
-0.013296 -0.079094 -0.237987
-0.013293 -0.079016 -0.237983
-0.01329 -0.078938 -0.23797899
-0.013286 -0.078858003 -0.237986
-0.013283 -0.078780003 -0.237992
-0.01328 -0.078702003 -0.237996
-0.013276 -0.078624003 -0.237996
-0.013274 -0.078547999 -0.237976
-0.013271 -0.078468002 -0.237988
-0.013268 -0.078390002 -0.237982
-0.013265 -0.078314997 -0.237975
-0.013262 -0.078235 -0.237973
-0.013259 -0.078157 -0.237977
-0.013256 -0.078079 -0.237977
-0.013253 -0.078001 -0.237967
-0.013251 -0.077924997 -0.23795301
-0.013248 -0.077848002 -0.237938
-0.013246 -0.077771999 -0.237928
-0.013243 -0.077693999 -0.23792399
-0.01324 -0.077615999 -0.237914
-0.013238 -0.077540003 -0.237904
-0.013235 -0.077463001 -0.23789901
-0.013233 -0.077386998 -0.237885
-0.013231 -0.077308998 -0.237865
-0.013228 -0.077234 -0.237857
-0.013225 -0.077156 -0.237857
-0.013222 -0.077078 -0.23785099
-0.013219 -0.077 -0.23785
-0.013216 -0.076920003 -0.237856
-0.013213 -0.076842003 -0.237854
-0.01321 -0.076765999 -0.23784401
-0.013207 -0.076687999 -0.23784
-0.013205 -0.076610997 -0.237828
-0.013202 -0.076535001 -0.237817
-0.013199 -0.076454997 -0.237821
-0.013195 -0.076376997 -0.237827
-0.013192 -0.076298997 -0.237829
-0.013189 -0.076219 -0.23783299
-0.013186 -0.076141 -0.23783299
-0.013183 -0.076063 -0.23782299
-0.01318 -0.075986996 -0.237818
-0.013177 -0.075909004 -0.23781399
-0.013175 -0.075831003 -0.23781
-0.013171 -0.075750999 -0.23781399
-0.013168 -0.075672999 -0.237818
-0.013165 -0.075594999 -0.23782
-0.013162 -0.075516999 -0.237821
-0.013158 -0.075437002 -0.237827
-0.013155 -0.075359002 -0.23783299
-0.013151 -0.075278997 -0.237835
-0.013148 -0.075200997 -0.237835
-0.013145 -0.075122997 -0.237837
-0.013142 -0.075044997 -0.237831
-0.01314 -0.074968003 -0.23782299
-0.013136 -0.074888997 -0.237826
-0.013133 -0.074809 -0.237838
-0.013129 -0.074729003 -0.237854
-0.013126 -0.074651003 -0.237854
-0.013123 -0.074573003 -0.237846
-0.01312 -0.074495003 -0.237836
-0.013117 -0.074419998 -0.23783
-0.013115 -0.074341998 -0.23782299
-0.013112 -0.074263997 -0.237817
-0.013109 -0.074185997 -0.237809
-0.013106 -0.074107997 -0.237811
-0.013102 -0.074028 -0.23782299
-0.013098 -0.073948003 -0.23784301
-0.013095 -0.073867001 -0.23785099
-0.013092 -0.073789999 -0.23784199
-0.01309 -0.073716 -0.237818
-0.013088 -0.073641002 -0.23779801
-0.013086 -0.073564999 -0.23778
-0.013083 -0.073486999 -0.237774
-0.01308 -0.073408999 -0.23777901
-0.013077 -0.073330998 -0.237771
-0.013075 -0.073257998 -0.237745
-0.013074 -0.073183 -0.23771299
-0.013072 -0.073109001 -0.237688
-0.013071 -0.073034003 -0.237662
-0.013069 -0.072962999 -0.237626
-0.013068 -0.072889999 -0.23759399
-0.013067 -0.072815999 -0.237563
-0.013065 -0.072742999 -0.23753101
-0.013063 -0.072668001 -0.237507
-0.013062 -0.072594002 -0.237482
-0.01306 -0.072518997 -0.237462
-0.013058 -0.072443001 -0.237442
-0.013057 -0.072371997 -0.237406
-0.013055 -0.072299004 -0.23737299
-0.013053 -0.072223 -0.237349
-0.013052 -0.072149999 -0.237323
-0.013049 -0.072074004 -0.237307
-0.013047 -0.071998 -0.23729999
-0.013045 -0.071923003 -0.237284
-0.013042 -0.071846999 -0.237268
-0.01304 -0.071771003 -0.237258
-0.013037 -0.071694002 -0.237252
-0.013035 -0.071617998 -0.237241
-0.013032 -0.071539998 -0.237231
-0.013029 -0.071461998 -0.23722699
-0.013027 -0.071387 -0.237215
-0.013024 -0.071310997 -0.23719899
-0.013021 -0.071232997 -0.237196
-0.013018 -0.071154997 -0.237196
-0.013016 -0.071079001 -0.237192
-0.013012 -0.071001001 -0.237194
-0.013009 -0.070920996 -0.237202
-0.013006 -0.070843004 -0.237202
-0.013003 -0.070765004 -0.237198
-0.013 -0.070687003 -0.23720101
-0.012996 -0.070606999 -0.237207
-0.012993 -0.070527002 -0.237215
-0.012989 -0.070449002 -0.237221
-0.012985 -0.070368998 -0.237233
-0.012982 -0.070289001 -0.237243
-0.012978 -0.070207998 -0.237251
-0.012975 -0.070129998 -0.237257
-0.012972 -0.070051998 -0.237257
-0.012968 -0.069972001 -0.23726401
-0.012964 -0.06989 -0.23728999
-0.012959 -0.069805004 -0.237322
-0.012953 -0.069718003 -0.237369
-0.012948 -0.069633 -0.237407
-0.012942 -0.069545999 -0.237455
-0.012935 -0.069457002 -0.23752099
-0.012929 -0.069367997 -0.237579
-0.012921 -0.069274001 -0.237663
-0.012915 -0.069187 -0.23772299
-0.012909 -0.0691 -0.237766
-0.012902 -0.069006003 -0.23785
-0.012846 -0.085363999 -0.23993801
-0.012846 -0.085290998 -0.23987401
-0.012846 -0.085216999 -0.239813
-0.012847 -0.085143998 -0.239739
-0.012847 -0.085069999 -0.23967101
-0.012847 -0.084996998 -0.23962
-0.012847 -0.084922999 -0.239554
-0.012847 -0.084849998 -0.23948801
-0.012847 -0.084775001 -0.23943099
-0.012847 -0.084702998 -0.23937701
-0.012847 -0.084629998 -0.239299
-0.012848 -0.084558003 -0.23922201
-0.012848 -0.084482998 -0.23917
-0.012847 -0.084408 -0.23911799
-0.012846 -0.084333003 -0.239086
-0.012843 -0.084255002 -0.23907299
-0.012841 -0.084178001 -0.239059
-0.01284 -0.084103003 -0.239025
-0.012839 -0.084027 -0.23898301
-0.012837 -0.083952002 -0.238956
-0.012836 -0.083876997 -0.238922
-0.012834 -0.083800003 -0.238896
-0.012831 -0.083722003 -0.238886
-0.012829 -0.083644003 -0.238876
-0.012826 -0.083567999 -0.238857
-0.012824 -0.083490998 -0.238837
-0.012822 -0.083412997 -0.23882499
-0.01282 -0.083338 -0.238809
-0.012818 -0.08326 -0.23877899
-0.012817 -0.083186999 -0.23874199
-0.012817 -0.083114997 -0.23868001
-0.012817 -0.083042003 -0.238612
-0.012815 -0.082964003 -0.238598
-0.012811 -0.082883999 -0.238609
-0.012809 -0.082809001 -0.238589
-0.012809 -0.082736 -0.23853099
-0.012809 -0.082663 -0.238473
-0.012807 -0.082588002 -0.238444
-0.012805 -0.082511 -0.23842201
-0.012804 -0.082437001 -0.238388
-0.012803 -0.082362004 -0.23835599
-0.0128 -0.082284003 -0.238337
-0.012799 -0.082208999 -0.23831099
-0.012798 -0.082135998 -0.238271
-0.012796 -0.082061 -0.23823901
-0.012794 -0.081983 -0.23822799
-0.012791 -0.081905 -0.238226
-0.012788 -0.081827 -0.238222
-0.012785 -0.081749 -0.23821799
-0.012783 -0.081674002 -0.238196
-0.012782 -0.081601001 -0.238149
-0.012781 -0.081525996 -0.23811901
-0.012779 -0.08145 -0.23810101
-0.012776 -0.081372 -0.238089
-0.012773 -0.081294 -0.238095
-0.012768 -0.081214003 -0.238115
-0.012765 -0.081133999 -0.23812
-0.012763 -0.081058003 -0.23811001
-0.012759 -0.080977999 -0.238112
-0.012756 -0.080899999 -0.238114
-0.012753 -0.080824003 -0.238112
-0.01275 -0.080743998 -0.238116
-0.012747 -0.080665998 -0.238116
-0.012744 -0.080587998 -0.23810899
-0.012741 -0.080510996 -0.23810101
-0.012739 -0.080435 -0.238089
-0.012736 -0.080357 -0.238079
-0.012734 -0.080280997 -0.238067
-0.012731 -0.080204003 -0.238058
-0.012728 -0.080123 -0.238066
-0.012724 -0.080045 -0.23807199
-0.012721 -0.079967 -0.238074
-0.012718 -0.079888999 -0.238074
-0.012715 -0.079811998 -0.23807
-0.012712 -0.079733998 -0.23806401
-0.012709 -0.079655997 -0.238065
-0.012706 -0.079577997 -0.238067
-0.012703 -0.079499997 -0.238065
-0.0127 -0.079421997 -0.238051
-0.012698 -0.079343997 -0.238041
-0.012694 -0.079265997 -0.238047
-0.012691 -0.079187997 -0.238052
-0.012688 -0.079109997 -0.238056
-0.012685 -0.07903 -0.23805401
-0.012682 -0.078955002 -0.238042
-0.012679 -0.078874998 -0.238042
-0.012676 -0.078796998 -0.23804601
-0.012673 -0.078718998 -0.23804399
-0.01267 -0.078640997 -0.238043
-0.012667 -0.078562997 -0.238039
-0.012664 -0.078487001 -0.23802499
-0.012662 -0.078411996 -0.23800699
-0.012659 -0.078334004 -0.238001
-0.012657 -0.078256004 -0.237997
-0.012653 -0.078178003 -0.23799799
-0.01265 -0.078097999 -0.23801
-0.012646 -0.078018002 -0.23801599
-0.012644 -0.077941999 -0.23800801
-0.012641 -0.077863999 -0.23799799
-0.012639 -0.077789001 -0.237978
-0.012636 -0.077711001 -0.237967
-0.012633 -0.077633001 -0.237969
-0.01263 -0.077555001 -0.237975
-0.012627 -0.077474996 -0.237975
-0.012624 -0.077399001 -0.237969
-0.012621 -0.077321 -0.23796099
-0.012619 -0.077243 -0.23795199
-0.012616 -0.077168003 -0.237942
-0.012613 -0.077090003 -0.237936
-0.01261 -0.077012002 -0.237932
-0.012607 -0.076934002 -0.237928
-0.012603 -0.076853998 -0.237942
-0.0126 -0.076774001 -0.23795401
-0.012597 -0.076696001 -0.23794299
-0.012595 -0.076619998 -0.23792499
-0.012593 -0.076545 -0.23790701
-0.01259 -0.076467 -0.237903
-0.012587 -0.076389 -0.237905
-0.012584 -0.076311 -0.237905
-0.012581 -0.076233 -0.237904
-0.012577 -0.076153003 -0.23790599
-0.012574 -0.076075003 -0.237914
-0.01257 -0.075994998 -0.23792
-0.012567 -0.075916998 -0.23791599
-0.012565 -0.075841002 -0.23790801
-0.012562 -0.075763002 -0.237904
-0.012559 -0.075682998 -0.237905
-0.012556 -0.075604998 -0.23790701
-0.012552 -0.075526997 -0.237911
-0.012549 -0.075447001 -0.237913
-0.012546 -0.075369 -0.237913
-0.012543 -0.075291 -0.237911
-0.01254 -0.075213 -0.237905
-0.012537 -0.075135998 -0.2379
-0.012534 -0.075060003 -0.237894
-0.012531 -0.074979998 -0.237894
-0.012528 -0.074901998 -0.237892
-0.012525 -0.074826002 -0.23788799
-0.012522 -0.074745998 -0.237886
-0.012519 -0.074667998 -0.23788901
-0.012516 -0.074588001 -0.237891
-0.012513 -0.074511997 -0.237885
-0.01251 -0.074433997 -0.23787899
-0.012507 -0.074354 -0.237885
-0.012504 -0.074276 -0.237883
-0.012501 -0.074198999 -0.237873
-0.012498 -0.074123003 -0.237872
-0.012495 -0.074042998 -0.237876
-0.012492 -0.073964998 -0.23787799
-0.012489 -0.073886998 -0.237874
-0.012486 -0.073807001 -0.237874
-0.012483 -0.073729001 -0.237872
-0.01248 -0.073652998 -0.237863
-0.012478 -0.073578 -0.237847
-0.012475 -0.0735 -0.237839
-0.012472 -0.073422 -0.237839
-0.012469 -0.073344 -0.23783299
-0.012467 -0.073269002 -0.237809
-0.012466 -0.073195003 -0.23777799
-0.012464 -0.073122002 -0.23774999
-0.012463 -0.073046997 -0.23772401
-0.012461 -0.072972998 -0.237691
-0.01246 -0.072899997 -0.237663
-0.012458 -0.072826996 -0.237633
-0.012457 -0.072756 -0.23759399
-0.012456 -0.072682001 -0.237562
-0.012454 -0.072607003 -0.237536
-0.012452 -0.072532997 -0.23751201
-0.01245 -0.072457999 -0.237491
-0.012449 -0.072384 -0.237469
-0.012447 -0.072309002 -0.237445
-0.012445 -0.072236001 -0.237417
-0.012443 -0.072162002 -0.23739401
-0.012441 -0.072085001 -0.237378
-0.012439 -0.072011001 -0.237358
-0.012437 -0.071934998 -0.237342
-0.012434 -0.071857996 -0.23733
-0.012432 -0.071783997 -0.237313
-0.01243 -0.071705997 -0.23730101
-0.012426 -0.071627997 -0.237307
-0.012422 -0.071546003 -0.237323
-0.012419 -0.071468003 -0.237325
-0.012416 -0.071392 -0.237321
-0.012413 -0.071314 -0.237316
-0.012411 -0.071236998 -0.237308
-0.01241 -0.071165003 -0.237266
-0.012405 -0.071083002 -0.237294
-0.012403 -0.071006998 -0.237284
-0.0124 -0.070928998 -0.23727299
-0.012397 -0.070854001 -0.237271
-0.012394 -0.070772998 -0.237277
-0.01239 -0.070693001 -0.23728099
-0.012387 -0.070615001 -0.237285
-0.012383 -0.070534997 -0.23730101
-0.012379 -0.070453003 -0.23731899
-0.012375 -0.070372999 -0.23732699
-0.012372 -0.070294 -0.237331
-0.012369 -0.070216 -0.23733801
-0.012365 -0.070136003 -0.23734
-0.012362 -0.070058003 -0.23734801
-0.012358 -0.069976002 -0.23736399
-0.012354 -0.069894001 -0.237386
-0.012349 -0.069812998 -0.237404
-0.012345 -0.069730997 -0.237422
-0.012339 -0.069643997 -0.23748
-0.012334 -0.069557004 -0.23752201
-0.012328 -0.069470003 -0.237572
-0.012321 -0.06938 -0.23763099
-0.012314 -0.069288999 -0.237703
-0.012308 -0.069200002 -0.237763
-0.0123 -0.069105998 -0.237841
-0.012481 -0.085382 -0.239931
-0.012482 -0.085309997 -0.23983701
-0.012483 -0.085238002 -0.23976199
-0.012483 -0.085162997 -0.23971
-0.012482 -0.085088 -0.239666
-0.012482 -0.085014001 -0.23960499
-0.012482 -0.084941 -0.239535
-0.012483 -0.084868997 -0.239457
-0.012483 -0.084794 -0.239389
-0.012484 -0.084721997 -0.239316
-0.012485 -0.084650002 -0.239244
-0.012485 -0.084577002 -0.239187
-0.012484 -0.084501997 -0.239131
-0.012483 -0.084426999 -0.239087
-0.012483 -0.084353998 -0.239035
-0.012482 -0.084279001 -0.23898999
-0.012481 -0.084201999 -0.238956
-0.012479 -0.084127001 -0.23892599
-0.012478 -0.084050998 -0.238896
-0.012476 -0.083976001 -0.238865
-0.012474 -0.083898999 -0.238839
-0.012473 -0.083824001 -0.238805
-0.012472 -0.083747998 -0.23877101
-0.01247 -0.083673 -0.238748
-0.012467 -0.083595 -0.238732
-0.012465 -0.083520003 -0.23871399
-0.012463 -0.083442003 -0.23869
-0.012461 -0.083366998 -0.238666
-0.01246 -0.083290003 -0.238635
-0.012458 -0.083214 -0.238607
-0.012456 -0.083139002 -0.238591
-0.012454 -0.083061002 -0.23856901
-0.012452 -0.082985997 -0.238539
-0.012451 -0.082910001 -0.23851401
-0.012449 -0.082834996 -0.238488
-0.012448 -0.082759999 -0.238452
-0.012446 -0.082685001 -0.238418
-0.012445 -0.082608998 -0.23838501
-0.012443 -0.082534 -0.238359
-0.012442 -0.082459003 -0.238327
-0.01244 -0.082382999 -0.238297
-0.012438 -0.082305998 -0.238276
-0.012436 -0.082230002 -0.238254
-0.012434 -0.082154997 -0.23822799
-0.012433 -0.082079999 -0.238196
-0.012431 -0.082004003 -0.238176
-0.012428 -0.081926003 -0.238171
-0.012425 -0.081850998 -0.238161
-0.012423 -0.081772998 -0.23814701
-0.01242 -0.081694998 -0.238135
-0.012418 -0.08162 -0.238121
-0.012416 -0.081542 -0.238104
-0.012414 -0.081465997 -0.238088
-0.012412 -0.081390999 -0.238066
-0.01241 -0.081316002 -0.238034
-0.012408 -0.081239998 -0.238021
-0.012403 -0.081157997 -0.238043
-0.012399 -0.081078999 -0.238065
-0.012396 -0.080999002 -0.23806299
-0.012393 -0.080922998 -0.238057
-0.012391 -0.080844998 -0.23805299
-0.012388 -0.080767997 -0.238047
-0.012385 -0.080689996 -0.238043
-0.012382 -0.080611996 -0.23804399
-0.012379 -0.080534004 -0.23804
-0.012377 -0.080458 -0.238024
-0.012374 -0.080380999 -0.23801
-0.012372 -0.080305003 -0.237994
-0.01237 -0.080227003 -0.23797899
-0.012367 -0.080151998 -0.237967
-0.012365 -0.080073997 -0.23795301
-0.012362 -0.079995997 -0.237941
-0.01236 -0.079921 -0.237931
-0.012357 -0.079843 -0.23792601
-0.012355 -0.079767004 -0.23791
-0.012352 -0.079689004 -0.237896
-0.012349 -0.079612002 -0.23789001
-0.012346 -0.079534002 -0.237894
-0.012342 -0.079452999 -0.237914
-0.012337 -0.079373002 -0.23794
-0.012334 -0.079291999 -0.23795
-0.012332 -0.079217002 -0.237931
-0.01233 -0.079141997 -0.237905
-0.012327 -0.079063997 -0.23789901
-0.012324 -0.078985997 -0.237905
-0.01232 -0.078907996 -0.237909
-0.012317 -0.078829996 -0.23791
-0.012314 -0.078752004 -0.23791
-0.012311 -0.078671999 -0.23790801
-0.012308 -0.078596003 -0.237902
-0.012305 -0.078518003 -0.23789801
-0.012303 -0.078440003 -0.237892
-0.0123 -0.078362003 -0.23788901
-0.012297 -0.078284003 -0.23788901
-0.012293 -0.078206003 -0.237891
-0.01229 -0.078125998 -0.23788901
-0.012288 -0.078051001 -0.237873
-0.012286 -0.077974997 -0.23785301
-0.012283 -0.077896997 -0.23785
-0.01228 -0.077818997 -0.237858
-0.012276 -0.077739 -0.23786999
-0.012272 -0.077659003 -0.237876
-0.01227 -0.077583 -0.23786999
-0.012267 -0.077505 -0.237864
-0.012264 -0.077427 -0.237866
-0.012261 -0.077349 -0.237859
-0.012259 -0.077271998 -0.23784301
-0.012256 -0.077196002 -0.237835
-0.012253 -0.077115998 -0.237839
-0.012249 -0.077037998 -0.23784301
-0.012246 -0.076959997 -0.237841
-0.012244 -0.076881997 -0.237829
-0.012241 -0.076807 -0.237822
-0.012238 -0.076729 -0.237812
-0.012236 -0.076653004 -0.2378
-0.012233 -0.076575004 -0.237792
-0.01223 -0.076497003 -0.237792
-0.012226 -0.076416999 -0.237802
-0.012223 -0.076337002 -0.23781499
-0.012219 -0.076259002 -0.237819
-0.012216 -0.076181002 -0.237817
-0.012214 -0.076103002 -0.237811
-0.012211 -0.076025002 -0.237809
-0.012207 -0.075947002 -0.237809
-0.012204 -0.075869001 -0.237812
-0.012201 -0.075788997 -0.237822
-0.012197 -0.075709 -0.23783
-0.012194 -0.075632997 -0.23782
-0.012192 -0.075556003 -0.2378
-0.01219 -0.075479999 -0.237786
-0.012187 -0.075401999 -0.237786
-0.012183 -0.075322002 -0.23779701
-0.01218 -0.075244002 -0.237803
-0.012177 -0.075163998 -0.23780499
-0.012173 -0.075085998 -0.23780701
-0.012171 -0.075007997 -0.237799
-0.012168 -0.074932002 -0.23778699
-0.012165 -0.074854001 -0.237781
-0.012162 -0.074776001 -0.237784
-0.012159 -0.074695997 -0.237792
-0.012155 -0.074617997 -0.237792
-0.012152 -0.074539997 -0.23779
-0.01215 -0.074463002 -0.237784
-0.012147 -0.074385002 -0.23778
-0.012143 -0.074304 -0.23779599
-0.012139 -0.074221998 -0.23781399
-0.012136 -0.074143998 -0.23781499
-0.012133 -0.074068002 -0.23780499
-0.012131 -0.073992997 -0.23778699
-0.012129 -0.073917001 -0.237771
-0.012125 -0.073836997 -0.237775
-0.012122 -0.073757 -0.237781
-0.012118 -0.073679 -0.23778801
-0.012115 -0.073601 -0.237786
-0.012113 -0.073524997 -0.237772
-0.012111 -0.073448002 -0.237754
-0.012108 -0.073371999 -0.23774201
-0.012106 -0.073296003 -0.237727
-0.012104 -0.073220998 -0.237707
-0.012102 -0.073147997 -0.237679
-0.012101 -0.073073998 -0.237639
-0.0121 -0.073000997 -0.23760401
-0.012099 -0.072930001 -0.237572
-0.012096 -0.072852001 -0.23755801
-0.012094 -0.072777003 -0.23753899
-0.012092 -0.072701 -0.237519
-0.01209 -0.072626002 -0.237505
-0.012088 -0.072552003 -0.237477
-0.012087 -0.072479002 -0.237442
-0.012086 -0.072407998 -0.23740999
-0.012084 -0.072332002 -0.23739199
-0.012082 -0.072256997 -0.237372
-0.01208 -0.072181001 -0.237353
-0.012078 -0.072108001 -0.23732699
-0.012076 -0.072034001 -0.237297
-0.012074 -0.071958996 -0.237275
-0.012072 -0.071883 -0.237268
-0.012069 -0.071805 -0.23727199
-0.012065 -0.071725003 -0.237278
-0.012062 -0.071647003 -0.237276
-0.012059 -0.071569003 -0.237266
-0.012057 -0.071493998 -0.23725601
-0.012054 -0.071418002 -0.237249
-0.012051 -0.071340002 -0.23724499
-0.012048 -0.071262002 -0.23724499
-0.012045 -0.071184002 -0.237243
-0.012042 -0.071106002 -0.237241
-0.012039 -0.071025997 -0.237251
-0.012036 -0.070947997 -0.237249
-0.012033 -0.070872001 -0.237238
-0.01203 -0.070794001 -0.23723599
-0.012027 -0.070716001 -0.237238
-0.012024 -0.070638999 -0.237232
-0.01202 -0.070557997 -0.237242
-0.012016 -0.070476003 -0.23727
-0.012012 -0.070394002 -0.237284
-0.012008 -0.070315003 -0.237294
-0.012005 -0.070234999 -0.237303
-0.012001 -0.070156999 -0.237305
-0.011998 -0.070078999 -0.237305
-0.011994 -0.069996998 -0.237321
-0.01199 -0.069914997 -0.237343
-0.011986 -0.069834001 -0.237361
-0.011981 -0.069752 -0.237387
-0.011975 -0.069661997 -0.237451
-0.011967 -0.069568999 -0.23752899
-0.011962 -0.069484003 -0.23757
-0.011956 -0.069397002 -0.23761199
-0.01195 -0.069307998 -0.23767599
-0.011944 -0.069219999 -0.237728
-0.011937 -0.069128998 -0.23779801
-0.01202 -0.085479997 -0.239913
-0.012021 -0.085408002 -0.239851
-0.01202 -0.085332997 -0.239795
-0.012021 -0.085259996 -0.23972
-0.012021 -0.085185997 -0.239654
-0.012021 -0.085111 -0.23959599
-0.012021 -0.085038997 -0.23953301
-0.012021 -0.084964 -0.239473
-0.012021 -0.084890999 -0.239409
-0.012021 -0.084817 -0.239346
-0.012022 -0.084743999 -0.23928
-0.012023 -0.084671997 -0.23919199
-0.012022 -0.084599003 -0.239141
-0.012021 -0.084523998 -0.239103
-0.01202 -0.084446996 -0.239057
-0.012021 -0.084375001 -0.238985
-0.012021 -0.084302001 -0.238924
-0.01202 -0.084227003 -0.23887999
-0.012019 -0.084151998 -0.23884401
-0.012017 -0.084077001 -0.238813
-0.012016 -0.084002003 -0.238773
-0.012015 -0.083926998 -0.238729
-0.012015 -0.083853997 -0.238677
-0.012014 -0.083779 -0.238646
-0.012012 -0.083701 -0.238612
-0.012011 -0.083627999 -0.238572
-0.012009 -0.083550997 -0.23855001
-0.012006 -0.083472997 -0.23853999
-0.012004 -0.083397999 -0.23852301
-0.012003 -0.083322003 -0.23848499
-0.012002 -0.083246998 -0.23843899
-0.012001 -0.083172001 -0.238409
-0.011999 -0.083097003 -0.23838
-0.011997 -0.083021 -0.238354
-0.011996 -0.082946002 -0.23833001
-0.011993 -0.082868002 -0.23831201
-0.011991 -0.082792997 -0.238297
-0.011989 -0.082714997 -0.23828299
-0.011987 -0.08264 -0.238263
-0.011985 -0.082563996 -0.238231
-0.011984 -0.082488999 -0.238185
-0.011983 -0.082414001 -0.238162
-0.01198 -0.082336001 -0.23815399
-0.011977 -0.082259998 -0.238152
-0.011974 -0.082183003 -0.23813801
-0.011972 -0.082105003 -0.238124
-0.011969 -0.082029 -0.238123
-0.011966 -0.081949003 -0.23811901
-0.011964 -0.081873 -0.238105
-0.011961 -0.081795998 -0.238093
-0.011959 -0.081720002 -0.238085
-0.011956 -0.081642002 -0.238075
-0.011954 -0.081565 -0.23806199
-0.011951 -0.081488997 -0.238052
-0.011948 -0.081410997 -0.23804399
-0.011946 -0.081332996 -0.238032
-0.011943 -0.081257001 -0.238024
-0.01194 -0.081179999 -0.23801699
-0.011938 -0.081101999 -0.238011
-0.011935 -0.081023999 -0.238005
-0.011932 -0.080948003 -0.237993
-0.01193 -0.080871001 -0.23798101
-0.011927 -0.080793001 -0.237967
-0.011925 -0.080716997 -0.237958
-0.011922 -0.080638997 -0.23795199
-0.011919 -0.080560997 -0.23795401
-0.011916 -0.080482997 -0.237958
-0.011913 -0.080406003 -0.23795
-0.011911 -0.080329999 -0.23793299
-0.011908 -0.080251999 -0.237923
-0.011905 -0.080173999 -0.237921
-0.011902 -0.080095999 -0.237927
-0.011898 -0.080016002 -0.237929
-0.011896 -0.079939999 -0.237919
-0.011893 -0.079862997 -0.23790599
-0.01189 -0.079784997 -0.237904
-0.011888 -0.079706997 -0.23789801
-0.011885 -0.079631001 -0.237884
-0.011883 -0.079556003 -0.237868
-0.011881 -0.079478003 -0.23785
-0.011878 -0.079400003 -0.237849
-0.011874 -0.079322003 -0.237855
-0.011871 -0.079244003 -0.23785301
-0.011869 -0.079166003 -0.23784301
-0.011866 -0.079089001 -0.237839
-0.011862 -0.079011001 -0.237845
-0.011859 -0.078929998 -0.23785301
-0.011856 -0.078851998 -0.237854
-0.011852 -0.078773998 -0.23785999
-0.011848 -0.078694001 -0.237876
-0.011845 -0.078616001 -0.237882
-0.011842 -0.078538001 -0.237876
-0.011839 -0.07846 -0.237874
-0.011836 -0.078382 -0.237876
-0.011833 -0.078302003 -0.23787899
-0.01183 -0.078226 -0.237875
-0.011827 -0.078146003 -0.237873
-0.011824 -0.078070998 -0.237867
-0.011821 -0.077992998 -0.23786899
-0.011817 -0.077913001 -0.23787101
-0.011815 -0.077835001 -0.237863
-0.011812 -0.077757001 -0.23785999
-0.011809 -0.077679001 -0.23785999
-0.011806 -0.077601001 -0.23785999
-0.011803 -0.077523001 -0.237858
-0.0118 -0.077445 -0.237854
-0.011797 -0.077367 -0.23784401
-0.011795 -0.077292003 -0.23783299
-0.011792 -0.077214003 -0.237831
-0.011788 -0.077136002 -0.23783299
-0.011785 -0.077055998 -0.237837
-0.011782 -0.076977998 -0.237835
-0.011779 -0.076899998 -0.237829
-0.011777 -0.076824002 -0.237822
-0.011774 -0.076747 -0.237804
-0.011772 -0.076670997 -0.23778801
-0.011769 -0.076592997 -0.23778801
-0.011765 -0.076513 -0.2378
-0.011762 -0.076435 -0.2378
-0.01176 -0.076358996 -0.237783
-0.011758 -0.076283999 -0.237767
-0.011755 -0.076205999 -0.237755
-0.011753 -0.076130003 -0.23774301
-0.01175 -0.076052003 -0.237737
-0.011747 -0.075974002 -0.23774
-0.011744 -0.075897001 -0.237736
-0.011741 -0.075819001 -0.237728
-0.011738 -0.075741 -0.23772401
-0.011735 -0.075663 -0.23772199
-0.011732 -0.075585 -0.23772401
-0.011729 -0.075507 -0.237726
-0.011725 -0.075427003 -0.237735
-0.011721 -0.075346 -0.237753
-0.011717 -0.075266004 -0.237763
-0.011714 -0.075188003 -0.237765
-0.011711 -0.075107999 -0.23776899
-0.011708 -0.075029999 -0.237771
-0.011704 -0.074951999 -0.237773
-0.011701 -0.074873999 -0.237771
-0.011699 -0.074795999 -0.237764
-0.011696 -0.074718997 -0.23776001
-0.011693 -0.074640997 -0.237758
-0.01169 -0.074562997 -0.23774999
-0.011688 -0.074487001 -0.237734
-0.011685 -0.074409001 -0.237726
-0.011682 -0.074331 -0.23773301
-0.011678 -0.074251004 -0.23774099
-0.011674 -0.074170999 -0.237755
-0.01167 -0.074091002 -0.23776899
-0.011667 -0.074013002 -0.23776899
-0.011664 -0.073935002 -0.237765
-0.011661 -0.073854998 -0.237765
-0.011658 -0.073776998 -0.237763
-0.011656 -0.073701002 -0.23775201
-0.011654 -0.073625997 -0.23773199
