# .PCD v0.7 - Point Cloud Data file format
VERSION 0.7
FIELDS x y z
SIZE 4 4 4
TYPE F F F
COUNT 1 1 1
WIDTH 1471
HEIGHT 1
VIEWPOINT 0 0 0 1 0 0 0
POINTS 1471
DATA ascii
-0.127793 -0.013724 -0.251306
-0.12778801 -0.013654 -0.25133601
-0.127784 -0.013581 -0.25137699
-0.12778001 -0.01351 -0.25139901
-0.127775 -0.01344 -0.25142899
-0.12777101 -0.013367 -0.25147
-0.127766 -0.013296 -0.25149801
-0.127762 -0.013226 -0.25152001
-0.127758 -0.013153 -0.251544
-0.127755 -0.013083 -0.25156501
-0.12775099 -0.013013 -0.25157899
-0.127746 -0.01294 -0.25161499
-0.12774201 -0.012869 -0.251654
-0.127738 -0.012797 -0.25167999
-0.12773301 -0.012726 -0.25172201
-0.127726 -0.012652 -0.25179401
-0.127721 -0.012579 -0.251845
-0.127716 -0.012508 -0.25188699
-0.127711 -0.012435 -0.251937
-0.12770399 -0.012359 -0.25202501
-0.12769701 -0.012286 -0.252103
-0.127692 -0.012213 -0.25214601
-0.12768599 -0.01214 -0.252204
-0.12767901 -0.012066 -0.25228599
-0.127673 -0.011993 -0.25234601
-0.12766799 -0.011919 -0.25240299
-0.12765799 -0.011841 -0.25253701
-0.12764899 -0.011764 -0.25266901
-0.127643 -0.01169 -0.252731
-0.127635 -0.011614 -0.25282899
-0.127626 -0.011536 -0.25295699
-0.127674 -0.023770999 -0.25252301
-0.127675 -0.023699 -0.25243899
-0.127675 -0.023626 -0.25238401
-0.127676 -0.023552001 -0.25229001
-0.12768 -0.023479 -0.25215799
-0.12767901 -0.023407999 -0.25211099
-0.12768 -0.023336001 -0.25203699
-0.127682 -0.023262 -0.251926
-0.127681 -0.023190999 -0.25189
-0.12768 -0.023119999 -0.25185999
-0.12767901 -0.023049001 -0.25180301
-0.12768 -0.022977 -0.25173101
-0.12768 -0.022906 -0.25167301
-0.12767801 -0.022833999 -0.251656
-0.12767699 -0.022763001 -0.25162399
-0.127676 -0.022693999 -0.25158
-0.127674 -0.022623001 -0.251553
-0.127674 -0.022552 -0.25151101
-0.127673 -0.022481 -0.25146601
-0.127671 -0.022409 -0.251436
-0.12767 -0.02234 -0.25140801
-0.12766799 -0.022268999 -0.25138101
-0.12766799 -0.0222 -0.25134301
-0.12766699 -0.022128999 -0.25130099
-0.127665 -0.022057001 -0.25127399
-0.127663 -0.021987 -0.25126401
-0.12766001 -0.021917 -0.251266
-0.127657 -0.021847 -0.25127101
-0.127654 -0.021777 -0.25126499
-0.127652 -0.021708 -0.25125101
-0.12764999 -0.021638 -0.25123999
-0.127648 -0.021568 -0.25123
-0.127646 -0.021499 -0.251203
-0.127644 -0.021427 -0.25118101
-0.12764201 -0.021359 -0.251183
-0.127638 -0.021289 -0.25119001
-0.127635 -0.021219 -0.25120401
-0.12763201 -0.021151001 -0.25121
-0.127629 -0.021081001 -0.25120699
-0.127626 -0.021011 -0.25121301
-0.12762301 -0.020941 -0.25121301
-0.127621 -0.020871 -0.251212
-0.127618 -0.020801 -0.25121599
-0.12761401 -0.020731 -0.25122601
-0.127611 -0.020663001 -0.251237
-0.127608 -0.020592 -0.25124699
-0.12760501 -0.020522 -0.25125
-0.127602 -0.020454001 -0.25125399
-0.127599 -0.020382 -0.25125799
-0.12759601 -0.020315001 -0.25125301
-0.12759399 -0.020245001 -0.25125301
-0.12759 -0.020174 -0.25126499
-0.12758701 -0.020104 -0.25127199
-0.12758499 -0.020034 -0.251266
-0.127582 -0.019964 -0.251266
-0.127579 -0.019896001 -0.25126901
-0.127575 -0.019826001 -0.25129101
-0.127571 -0.019755 -0.25131899
-0.12756801 -0.019685 -0.251324
-0.127565 -0.019617001 -0.251324
-0.127562 -0.019547001 -0.25133801
-0.12755799 -0.019477 -0.25134501
-0.127555 -0.019407 -0.25135899
-0.127551 -0.019336 -0.25138101
-0.12754799 -0.019268 -0.25138199
-0.127546 -0.019199001 -0.25137001
-0.127543 -0.019128 -0.25137699
-0.12754001 -0.019058 -0.251387
-0.127537 -0.018988 -0.251389
-0.127534 -0.018918 -0.25139001
-0.12753101 -0.018848 -0.251394
-0.127528 -0.018778 -0.25140199
-0.127525 -0.018708 -0.25141099
-0.12752099 -0.018638 -0.25141701
-0.127518 -0.01857 -0.25142699
-0.127515 -0.018499 -0.25144199
-0.12751099 -0.018429 -0.251452
-0.127508 -0.018359 -0.25145799
-0.127505 -0.018289 -0.25146499
-0.12750199 -0.018219 -0.25147101
-0.127499 -0.018151 -0.25147501
-0.127496 -0.018079 -0.25148401
-0.12749299 -0.018011 -0.251486
-0.12749 -0.017938999 -0.25147799
-0.127489 -0.017871 -0.251463
-0.12748601 -0.017802 -0.25144899
-0.12748399 -0.017729999 -0.251443
-0.127481 -0.017662 -0.25144401
-0.127478 -0.017589999 -0.25143799
-0.12747601 -0.017522 -0.251441
-0.127472 -0.017452 -0.25144899
-0.127469 -0.017382 -0.25145701
-0.12746599 -0.017310999 -0.25146601
-0.127463 -0.017240999 -0.25147799
-0.12746 -0.017170999 -0.25147799
-0.12745699 -0.017101999 -0.25146899
-0.127455 -0.017031999 -0.25145701
-0.127453 -0.016961999 -0.25144899
-0.12745 -0.016891999 -0.251452
-0.12744699 -0.016821999 -0.25145
-0.127445 -0.016752001 -0.251432
-0.127443 -0.016682999 -0.251421
-0.12744001 -0.016612999 -0.25141701
-0.12743799 -0.016542999 -0.251405
-0.127436 -0.016473001 -0.251398
-0.127432 -0.016403001 -0.25140601
-0.12742899 -0.016333001 -0.25141299
-0.127427 -0.016263001 -0.25139901
-0.127425 -0.016194001 -0.25138301
-0.127423 -0.016125999 -0.251376
-0.12742101 -0.016055999 -0.25136599
-0.127418 -0.015985999 -0.251358
-0.127415 -0.015916999 -0.25135699
-0.127413 -0.015846999 -0.251349
-0.12741099 -0.015776999 -0.25133699
-0.127409 -0.015706999 -0.251322
-0.127407 -0.015637999 -0.251306
-0.127404 -0.015568 -0.251293
-0.12740199 -0.015498 -0.25128099
-0.1274 -0.015429 -0.25126901
-0.127398 -0.015361 -0.25126001
-0.127395 -0.015289 -0.25126201
-0.12739199 -0.015221 -0.25126201
-0.127389 -0.015151 -0.251261
-0.127387 -0.015081 -0.25125101
-0.12738501 -0.015012 -0.25123101
-0.12738299 -0.014942 -0.25121599
-0.12738 -0.014872 -0.25121599
-0.127378 -0.014802 -0.25120899
-0.12737601 -0.014733 -0.25119501
-0.127373 -0.014665 -0.25119099
-0.12737 -0.014595 -0.25119799
-0.127367 -0.014524 -0.251212
-0.12736399 -0.014455 -0.25121
-0.127362 -0.014385 -0.25119299
-0.127359 -0.014315 -0.25118899
-0.12735599 -0.014245 -0.25119099
-0.127353 -0.014175 -0.25119799
-0.127349 -0.014104 -0.25121999
-0.127345 -0.014034 -0.25124201
-0.127342 -0.013964 -0.25125101
-0.12734 -0.013894 -0.25124699
-0.127336 -0.013824 -0.25125501
-0.127332 -0.013753 -0.25128001
-0.12732799 -0.013683 -0.25130799
-0.127324 -0.01361 -0.25132799
-0.127321 -0.01354 -0.251349
-0.127317 -0.01347 -0.251369
-0.127313 -0.013399 -0.25139099
-0.127308 -0.013326 -0.25143
-0.127304 -0.013256 -0.251468
-0.127299 -0.013183 -0.25150999
-0.127294 -0.013112 -0.251542
-0.12729 -0.013039 -0.25157699
-0.127285 -0.012969 -0.251609
-0.127281 -0.012898 -0.25162899
-0.127276 -0.012825 -0.251679
-0.127271 -0.012754 -0.25173199
-0.127266 -0.012681 -0.25178
-0.12726 -0.012608 -0.25183001
-0.12725499 -0.012535 -0.25188401
-0.127249 -0.012462 -0.25194499
-0.127242 -0.012388 -0.25202301
-0.12723599 -0.012315 -0.25208101
-0.127231 -0.012242 -0.25212699
-0.127226 -0.012169 -0.252188
-0.12721901 -0.012095 -0.25227201
-0.127212 -0.012019 -0.25234401
-0.127205 -0.011945 -0.25243801
-0.127197 -0.011869 -0.25252399
-0.12719101 -0.011796 -0.252592
-0.127184 -0.01172 -0.25266901
-0.127174 -0.011643 -0.25281301
-0.127165 -0.011564 -0.252947
-0.12717199 -0.023522001 -0.25257799
-0.127174 -0.02345 -0.25248799
-0.127176 -0.023376999 -0.252381
-0.127178 -0.023303 -0.25227499
-0.12718 -0.023228999 -0.252166
-0.12718201 -0.023157001 -0.252074
-0.12718099 -0.023086 -0.25203401
-0.12718 -0.023015 -0.25200099
-0.127179 -0.022944 -0.25195101
-0.127179 -0.022871999 -0.25188699
-0.127179 -0.022801001 -0.25184399
-0.127177 -0.022729 -0.25181001
-0.127177 -0.022658 -0.251766
-0.127176 -0.022586999 -0.251715
-0.127176 -0.022516999 -0.251661
-0.127176 -0.022445999 -0.25160599
-0.127175 -0.022375001 -0.25157201
-0.12717301 -0.022305001 -0.25155801
-0.12717099 -0.022234 -0.25152299
-0.12717199 -0.022160999 -0.25145501
-0.12717199 -0.022090999 -0.25140101
-0.12717 -0.022020999 -0.25136599
-0.127169 -0.021950001 -0.25134
-0.127167 -0.021880999 -0.251311
-0.127166 -0.021809001 -0.25128499
-0.12716299 -0.021739 -0.251279
-0.127161 -0.021670001 -0.25127399
-0.12716 -0.021600001 -0.25123399
-0.127159 -0.021529 -0.25120401
-0.127156 -0.021459 -0.251203
-0.12715299 -0.021391001 -0.251201
-0.127151 -0.021321001 -0.25119299
-0.127148 -0.021251 -0.251194
-0.12714501 -0.021181 -0.25120199
-0.127142 -0.021111 -0.25119799
-0.12714 -0.021042001 -0.25119299
-0.12713701 -0.020972 -0.25119701
-0.127134 -0.020902 -0.25119999
-0.127131 -0.020832 -0.251196
-0.12712801 -0.020762 -0.251192
-0.12712599 -0.020694001 -0.251187
-0.127123 -0.020624001 -0.251185
-0.12712 -0.020554001 -0.25119701
-0.12711599 -0.020484 -0.25121
-0.127114 -0.020414 -0.25120601
-0.127111 -0.020344 -0.25120601
-0.12710799 -0.020276001 -0.25121501
-0.127105 -0.020205 -0.251223
-0.127101 -0.020135 -0.251243
-0.127097 -0.020065 -0.25125799
-0.127095 -0.019997001 -0.25126001
-0.127092 -0.019927001 -0.25125799
-0.12708899 -0.019857001 -0.25126499
-0.127086 -0.019787 -0.25126499
-0.127084 -0.019717 -0.25125399
-0.12708101 -0.019647 -0.25125799
-0.127077 -0.019579001 -0.25127599
-0.127074 -0.019508 -0.25128701
-0.12707099 -0.019438 -0.251293
-0.127068 -0.019368 -0.25128901
-0.127065 -0.019298 -0.25128999
-0.12706199 -0.019228 -0.251306
-0.127058 -0.019158 -0.251324
-0.127055 -0.019090001 -0.251333
-0.127051 -0.019019 -0.251353
-0.127047 -0.018949 -0.25137901
-0.12704299 -0.018878 -0.251394
-0.127041 -0.018808 -0.25139201
-0.127038 -0.018739 -0.25138199
-0.12703601 -0.018669 -0.25137499
-0.127033 -0.018599 -0.25137499
-0.12703 -0.018531 -0.25138301
-0.12702601 -0.01846 -0.25140199
-0.12702399 -0.018391 -0.251394
-0.127022 -0.018321 -0.251376
-0.127019 -0.018251 -0.25138301
-0.12701499 -0.018181 -0.251403
-0.127012 -0.01811 -0.25140899
-0.127009 -0.018041 -0.25140399
-0.12700699 -0.017971 -0.251398
-0.127003 -0.017901 -0.25140899
-0.127001 -0.017833 -0.25141299
-0.12699801 -0.017761 -0.251407
-0.126995 -0.017693 -0.251414
-0.126992 -0.017620999 -0.251416
-0.12698901 -0.017553 -0.251414
-0.126987 -0.017483 -0.251407
-0.126985 -0.017413 -0.25139499
-0.12698101 -0.017343 -0.251405
-0.126977 -0.017271999 -0.251432
-0.126974 -0.017201999 -0.25144401
-0.12697101 -0.017131999 -0.251436
-0.126968 -0.017062001 -0.251441
-0.126966 -0.016992001 -0.25143901
-0.126964 -0.016922999 -0.251407
-0.12696201 -0.016852999 -0.251394
-0.126959 -0.016783001 -0.251412
-0.126955 -0.016713001 -0.25142199
-0.12695201 -0.016643001 -0.25142699
-0.126949 -0.016573001 -0.25142699
-0.126947 -0.016503001 -0.25141799
-0.126945 -0.016433001 -0.25140399
-0.12694301 -0.016364001 -0.251394
-0.12694 -0.016294001 -0.25139099
-0.126938 -0.016224001 -0.25138301
-0.12693501 -0.016154001 -0.25137499
-0.12693299 -0.016086999 -0.251362
-0.126932 -0.016016999 -0.25133601
-0.126929 -0.015946999 -0.25132501
-0.126926 -0.015876999 -0.251333
-0.12692299 -0.015807001 -0.251331
-0.126922 -0.015737999 -0.251302
-0.126921 -0.015668999 -0.25127599
-0.126917 -0.015598 -0.251286
-0.12691399 -0.015528 -0.25130299
-0.126912 -0.015459 -0.251277
-0.126911 -0.015391 -0.25124699
-0.126908 -0.015319 -0.251252
-0.126904 -0.015251 -0.251266
-0.126901 -0.015179 -0.25127
-0.126899 -0.015111 -0.25126699
-0.12689599 -0.015041 -0.25125501
-0.126895 -0.014972 -0.25123
-0.126894 -0.014903 -0.25119799
-0.126891 -0.014833 -0.25118399
-0.12688901 -0.014763 -0.25117901
-0.12688699 -0.014695 -0.25117099
-0.126884 -0.014625 -0.25117499
-0.126881 -0.014555 -0.251176
-0.12687799 -0.014486 -0.25117001
-0.126875 -0.014416 -0.25117299
-0.126872 -0.014345 -0.25117701
-0.12687001 -0.014276 -0.251165
-0.12686799 -0.014206 -0.251158
-0.126865 -0.014136 -0.251158
-0.12686101 -0.014066 -0.25117001
-0.126858 -0.013995 -0.25118899
-0.126854 -0.013925 -0.251203
-0.12685101 -0.013855 -0.25121099
-0.126848 -0.013785 -0.25122401
-0.126845 -0.013715 -0.251228
-0.12684201 -0.013645 -0.25123
-0.126838 -0.013574 -0.25125501
-0.12683301 -0.013503 -0.251293
-0.126829 -0.013431 -0.25132501
-0.12682401 -0.01336 -0.251353
-0.12682 -0.013289 -0.25138801
-0.126816 -0.013217 -0.25140801
-0.12681299 -0.013147 -0.25141001
-0.12681 -0.013077 -0.25141901
-0.12680499 -0.013006 -0.25145701
-0.1268 -0.012933 -0.25150299
-0.12679601 -0.012862 -0.25153601
-0.126791 -0.012789 -0.251582
-0.12678599 -0.012717 -0.25162399
-0.126782 -0.012646 -0.25165001
-0.12677599 -0.012573 -0.25170901
-0.12677 -0.012499 -0.251775
-0.126764 -0.012426 -0.251827
-0.12675799 -0.012353 -0.25190699
-0.12675101 -0.012279 -0.251975
-0.126746 -0.012206 -0.25202
-0.12674101 -0.012133 -0.25206199
-0.126736 -0.01206 -0.25211999
-0.126729 -0.011986 -0.25220001
-0.12672 -0.01191 -0.25231999
-0.12671299 -0.011834 -0.25239599
-0.126708 -0.011761 -0.25244501
-0.126701 -0.011687 -0.25253099
-0.12669 -0.011608 -0.25268501
-0.126682 -0.011532 -0.25279099
-0.12667599 -0.011456 -0.252859
-0.12670401 -0.023265 -0.252592
-0.126707 -0.023190999 -0.252469
-0.126707 -0.023119001 -0.25240099
-0.126707 -0.023048 -0.25234899
-0.126707 -0.022975 -0.25229201
-0.126706 -0.022903999 -0.25224799
-0.12670501 -0.022833001 -0.252204
-0.12670501 -0.022762001 -0.25216299
-0.12670401 -0.022689 -0.252105
-0.12670401 -0.022619 -0.25205001
-0.12670299 -0.022547999 -0.25200999
-0.12670299 -0.022476001 -0.251968
-0.126702 -0.022406001 -0.25192299
-0.126701 -0.022335 -0.25187701
-0.126701 -0.022264 -0.251831
-0.1267 -0.022193 -0.25178599
-0.1267 -0.022121999 -0.25173
-0.1267 -0.022049 -0.25167
-0.1267 -0.021979 -0.25160101
-0.1267 -0.021908 -0.25153899
-0.1267 -0.021837 -0.25149801
-0.126698 -0.021765999 -0.25146601
-0.126697 -0.021697 -0.25142601
-0.12669601 -0.021625999 -0.251385
-0.12669399 -0.021555999 -0.251371
-0.126692 -0.021484001 -0.25135899
-0.12669 -0.021415001 -0.25133401
-0.12669 -0.021345999 -0.25129601
-0.126688 -0.021274 -0.251261
-0.126688 -0.021203 -0.25121501
-0.12668701 -0.021135001 -0.251165
-0.12668601 -0.021063 -0.251136
-0.126683 -0.020995 -0.25113401
-0.12668 -0.020925 -0.25115201
-0.12667499 -0.020856 -0.251185
-0.126672 -0.020786 -0.251201
-0.126669 -0.020716 -0.25119099
-0.12666699 -0.020647001 -0.25117999
-0.126665 -0.020577 -0.25117201
-0.126662 -0.020507 -0.25117299
-0.12665799 -0.020436 -0.25118899
-0.126655 -0.020368 -0.251205
-0.126652 -0.020298 -0.25119999
-0.12665001 -0.020229001 -0.251192
-0.126647 -0.020158 -0.251194
-0.126644 -0.020089 -0.25119099
-0.12664101 -0.020019 -0.25119299
-0.126638 -0.019949 -0.25119701
-0.126635 -0.019879 -0.25119999
-0.126632 -0.01981 -0.25120401
-0.12662899 -0.019738 -0.25121
-0.126626 -0.01967 -0.25121301
-0.126623 -0.0196 -0.251223
-0.12661999 -0.01953 -0.251239
-0.126616 -0.019462001 -0.25125399
-0.12661301 -0.019391 -0.25126401
-0.12661 -0.019321 -0.25126201
-0.126607 -0.019252 -0.251261
-0.12660401 -0.019182 -0.25126299
-0.126601 -0.019111 -0.25127101
-0.126598 -0.019041 -0.25127801
-0.12659501 -0.018971 -0.25129399
-0.126591 -0.018903 -0.251315
-0.126588 -0.018833 -0.251315
-0.12658601 -0.018763 -0.25130501
-0.126583 -0.018693 -0.251304
-0.12658 -0.018623 -0.25131199
-0.12657601 -0.018552 -0.25133201
-0.126572 -0.018484 -0.25135499
-0.126569 -0.018414 -0.25136101
-0.12656701 -0.018344 -0.251351
-0.126564 -0.018274 -0.251344
-0.126561 -0.018204 -0.25135201
-0.12655801 -0.018134 -0.251362
-0.126554 -0.018064 -0.25137499
-0.126551 -0.017992999 -0.251385
-0.12654801 -0.017924 -0.251385
-0.126545 -0.017855 -0.25139001
-0.126542 -0.017782999 -0.251398
-0.12653901 -0.017715 -0.25139999
-0.126537 -0.017643999 -0.251389
-0.126535 -0.017576 -0.25137901
-0.126531 -0.017506 -0.25139099
-0.12652799 -0.017434999 -0.25140601
-0.126525 -0.017364999 -0.251414
-0.12652101 -0.017294999 -0.25142401
-0.126518 -0.017224999 -0.25142899
-0.126516 -0.017154999 -0.25141901
-0.126513 -0.017085001 -0.251412
-0.12651099 -0.017015001 -0.251414
-0.126508 -0.016945001 -0.251412
-0.126505 -0.016875001 -0.25141501
-0.12650201 -0.016805001 -0.25141901
-0.126499 -0.016736001 -0.25141299
-0.126497 -0.016666001 -0.25141001
-0.12649401 -0.016596001 -0.251416
-0.12649 -0.016525 -0.25142601
-0.126487 -0.016455 -0.25143301
-0.12648401 -0.016385 -0.25143501
-0.12648199 -0.016315 -0.25142699
-0.12648 -0.016246 -0.25140601
-0.126479 -0.016177 -0.25138
-0.126476 -0.016109001 -0.251371
-0.12647399 -0.016039001 -0.251369
-0.126471 -0.015969001 -0.251371
-0.126468 -0.015899001 -0.25137001
-0.12646601 -0.015829001 -0.251362
-0.126463 -0.015759001 -0.25135401
-0.126461 -0.015689 -0.251351
-0.126458 -0.015619 -0.251349
-0.12645499 -0.015549 -0.25135499
-0.126452 -0.015479 -0.25135401
-0.12645 -0.01541 -0.25133401
-0.12644801 -0.01534 -0.25131601
-0.12644599 -0.015271 -0.25130701
-0.126444 -0.015201 -0.25128701
-0.126442 -0.015133 -0.25127399
-0.12643901 -0.015063 -0.25127399
-0.12643699 -0.014994 -0.25126001
-0.126435 -0.014924 -0.251241
-0.126432 -0.014854 -0.251243
-0.12642901 -0.014784 -0.25124899
-0.126426 -0.014714 -0.251248
-0.126424 -0.014644 -0.25123999
-0.126421 -0.014575 -0.25123399
-0.12641899 -0.014505 -0.25123501
-0.126416 -0.014435 -0.251239
-0.126413 -0.014365 -0.25123501
-0.12640999 -0.014295 -0.25123599
-0.126407 -0.014225 -0.25123799
-0.126405 -0.014155 -0.251237
-0.12640201 -0.014087 -0.25123501
-0.126399 -0.014017 -0.25122899
-0.126397 -0.013947 -0.25122201
-0.126394 -0.013877 -0.25121999
-0.12639099 -0.013807 -0.25123
-0.126387 -0.013737 -0.25124499
-0.126384 -0.013666 -0.251259
-0.12638099 -0.013594 -0.25126901
-0.126378 -0.013526 -0.25127
-0.126375 -0.013454 -0.251268
-0.12637199 -0.013386 -0.25127199
-0.126369 -0.013316 -0.25128499
-0.12636501 -0.013244 -0.25130901
-0.126361 -0.013173 -0.25132701
-0.126357 -0.013103 -0.251344
-0.126353 -0.01303 -0.25137401
-0.126349 -0.01296 -0.25140601
-0.12634499 -0.012889 -0.251423
-0.126341 -0.012819 -0.25144699
-0.12633599 -0.012746 -0.25148499
-0.126332 -0.012675 -0.251513
-0.12632801 -0.012603 -0.25153601
-0.126323 -0.01253 -0.25159001
-0.126316 -0.012456 -0.25167
-0.12631001 -0.012383 -0.25172001
-0.126306 -0.012312 -0.251753
-0.12630101 -0.01224 -0.251793
-0.126295 -0.012166 -0.25185901
-0.126289 -0.012093 -0.25192899
-0.12628201 -0.012017 -0.25200301
-0.126275 -0.011943 -0.25208399
-0.126268 -0.011869 -0.25218001
-0.12626199 -0.011794 -0.25223601
-0.126256 -0.011721 -0.252294
-0.126248 -0.011645 -0.25239801
-0.126243 -0.011572 -0.252446
-0.126237 -0.011498 -0.25251299
-0.12622599 -0.011419 -0.252673
-0.12621699 -0.01134 -0.25280499
-0.12621 -0.011265 -0.25288299
-0.126279 -0.023080001 -0.25272101
-0.126285 -0.023003999 -0.25253999
-0.126286 -0.022931 -0.25246
-0.126286 -0.022859 -0.252386
-0.126294 -0.022784 -0.252159
-0.126296 -0.022709999 -0.25205699
-0.126293 -0.022639999 -0.25205699
-0.12628999 -0.022569999 -0.25206199
-0.126289 -0.022499001 -0.25202399
-0.12628999 -0.022429001 -0.25194499
-0.12628999 -0.022356 -0.25187901
-0.12628999 -0.022284999 -0.25183499
-0.126289 -0.022213999 -0.25179201
-0.126289 -0.022143999 -0.25173599
-0.126289 -0.022073001 -0.25167799
-0.126288 -0.022002 -0.25163099
-0.126287 -0.021931 -0.251605
-0.126286 -0.02186 -0.25156099
-0.126285 -0.021788999 -0.25150999
-0.126284 -0.021718999 -0.25148001
-0.126283 -0.021648001 -0.25144899
-0.12628099 -0.021578999 -0.25141901
-0.12627999 -0.021508001 -0.25137901
-0.126279 -0.021438001 -0.25135401
-0.126277 -0.021369001 -0.25133601
-0.126275 -0.021297 -0.25131601
-0.12627301 -0.021228001 -0.25129899
-0.12627099 -0.021158 -0.25129101
-0.126268 -0.021088 -0.25129199
-0.126266 -0.021018 -0.25127599
-0.12626401 -0.020947 -0.25124401
-0.12626199 -0.020877 -0.25122899
-0.12626 -0.020808 -0.251219
-0.126258 -0.020738 -0.25120899
-0.12625501 -0.020668 -0.25120401
-0.12625299 -0.020598 -0.25119799
-0.12625 -0.020528 -0.251194
-0.126248 -0.020458 -0.25118899
-0.12624601 -0.020389 -0.25117299
-0.126243 -0.020321 -0.25117001
-0.12624 -0.020251 -0.251176
-0.126237 -0.020181 -0.25118199
-0.12623399 -0.020111 -0.251187
-0.126231 -0.02004 -0.25119501
-0.12622701 -0.019972 -0.25120699
-0.126224 -0.019902 -0.25122201
-0.126221 -0.019832 -0.25122201
-0.126219 -0.019762 -0.25120801
-0.12621699 -0.019693 -0.25118899
-0.126215 -0.019623 -0.251169
-0.126213 -0.019551 -0.25115901
-0.12621 -0.019483 -0.25116599
-0.126206 -0.019413 -0.251192
-0.126202 -0.019342 -0.251214
-0.12619901 -0.019274 -0.251221
-0.126196 -0.019203 -0.25120899
-0.126194 -0.019135 -0.25120401
-0.12619001 -0.019064 -0.25121799
-0.126187 -0.018994 -0.25123399
-0.126184 -0.018924 -0.25124201
-0.12618101 -0.018854 -0.251243
-0.12617899 -0.018784 -0.25123101
-0.126176 -0.018714 -0.251232
-0.12617099 -0.018646 -0.25126401
-0.126168 -0.018575 -0.25128001
-0.126165 -0.018505 -0.25128099
-0.12616199 -0.018435 -0.251279
-0.12616 -0.018366 -0.25126901
-0.126157 -0.018296 -0.25127199
-0.12615401 -0.018227 -0.251286
-0.12615 -0.018157 -0.25129801
-0.126147 -0.018087 -0.25130901
-0.12614401 -0.018017 -0.251315
-0.12614 -0.017947 -0.25132701
-0.126137 -0.017876999 -0.25133401
-0.12613501 -0.017806999 -0.25132
-0.12613299 -0.017736999 -0.25131601
-0.126129 -0.017666999 -0.251335
-0.12612601 -0.017596001 -0.25134501
-0.126123 -0.017527999 -0.251351
-0.12612 -0.017457999 -0.25135601
-0.12611701 -0.017387999 -0.25134999
-0.126114 -0.017318999 -0.25134599
-0.126112 -0.017248999 -0.25134701
-0.126109 -0.017178999 -0.25134301
-0.12610599 -0.017108999 -0.251342
-0.126104 -0.017038999 -0.25133601
-0.126101 -0.016969001 -0.25132599
-0.12609901 -0.016899001 -0.25132501
-0.126096 -0.016829999 -0.251313
-0.126094 -0.016759999 -0.251311
-0.12609001 -0.016689001 -0.251324
-0.126087 -0.016619001 -0.25132799
-0.126085 -0.016550001 -0.25132
-0.126082 -0.016479 -0.25132501
-0.12607799 -0.016409 -0.25133899
-0.126075 -0.016339 -0.251349
-0.126073 -0.016269 -0.251342
-0.12606999 -0.016202001 -0.25132999
-0.126068 -0.016132001 -0.25132501
-0.126065 -0.016062001 -0.251331
-0.12606201 -0.015991 -0.25133699
-0.126059 -0.015921 -0.251342
-0.126056 -0.015851 -0.25134799
-0.12605301 -0.015781 -0.25134799
-0.12605099 -0.015712 -0.251329
-0.12605 -0.015643001 -0.251295
-0.126048 -0.015573 -0.25128299
-0.126045 -0.015503 -0.251284
-0.12604199 -0.015433 -0.25127801
-0.126039 -0.015363 -0.25128001
-0.126036 -0.015293 -0.25128099
-0.126035 -0.015224 -0.251261
-0.12603299 -0.015156 -0.25123799
-0.126031 -0.015086 -0.25123
-0.126028 -0.015016 -0.251232
-0.12602501 -0.014947 -0.251221
-0.12602399 -0.014877 -0.251203
-0.126021 -0.014807 -0.25119901
-0.126018 -0.014737 -0.25120199
-0.12601499 -0.014667 -0.25120601
-0.126012 -0.014597 -0.25121799
-0.126009 -0.014527 -0.251221
-0.12600701 -0.014457 -0.251203
-0.126004 -0.014389 -0.251194
-0.126002 -0.01432 -0.25119001
-0.125999 -0.01425 -0.25118199
-0.12599701 -0.01418 -0.25117701
-0.125994 -0.01411 -0.251183
-0.12599 -0.01404 -0.25119299
-0.12598801 -0.01397 -0.25118199
-0.12598599 -0.0139 -0.25116399
-0.125984 -0.01383 -0.25116
-0.125981 -0.01376 -0.25116301
-0.12597799 -0.013692 -0.251165
-0.125975 -0.01362 -0.25117099
-0.125972 -0.01355 -0.251176
-0.12596899 -0.01348 -0.25118399
-0.125965 -0.01341 -0.25119799
-0.125962 -0.01334 -0.25121099
-0.125958 -0.013269 -0.25123301
-0.125954 -0.013199 -0.25125101
-0.12595101 -0.013129 -0.25126201
-0.125948 -0.013058 -0.25127
-0.125944 -0.012988 -0.251286
-0.12594 -0.012916 -0.25129899
-0.125936 -0.012845 -0.25132501
-0.12593199 -0.012773 -0.25135899
-0.125927 -0.012702 -0.251394
-0.12592199 -0.012629 -0.25144601
-0.125917 -0.012558 -0.25148401
-0.125912 -0.012485 -0.251524
-0.12590601 -0.012412 -0.25158599
-0.125901 -0.012339 -0.251643
-0.12589601 -0.012268 -0.25169301
-0.125891 -0.012195 -0.25172901
-0.12588599 -0.012122 -0.25176701
-0.125879 -0.012046 -0.25185999
-0.125872 -0.011973 -0.25193399
-0.12586699 -0.011902 -0.251982
-0.125861 -0.011826 -0.252042
-0.125856 -0.011753 -0.252096
-0.125848 -0.011677 -0.25218299
-0.12583899 -0.0116 -0.25231901
-0.12583201 -0.011527 -0.25240099
-0.125827 -0.011452 -0.25244501
-0.12582 -0.011378 -0.25252101
-0.125811 -0.0113 -0.25264701
-0.12580501 -0.011226 -0.25271499
-0.125799 -0.011151 -0.25277999
-0.125788 -0.011071 -0.25293601
-0.125938 -0.022949999 -0.252689
-0.12594 -0.022878001 -0.25258201
-0.125939 -0.022807 -0.25254801
-0.125938 -0.022736 -0.252509
-0.12594 -0.022662001 -0.252397
-0.12594301 -0.022589 -0.25228301
-0.125944 -0.022516999 -0.252204
-0.125945 -0.022445999 -0.25211799
-0.125944 -0.022373 -0.25207201
-0.12594301 -0.022302 -0.252031
-0.125944 -0.022232 -0.251959
-0.125946 -0.022159999 -0.25186801
-0.125944 -0.022089001 -0.25183401
-0.12594201 -0.022017 -0.251816
-0.12594099 -0.021948 -0.25178701
-0.12594 -0.021877 -0.25174901
-0.125939 -0.021806 -0.25170499
-0.125939 -0.021734999 -0.25164801
-0.125939 -0.021663999 -0.2516
-0.125937 -0.021594999 -0.25157899
-0.125935 -0.021523001 -0.25155699
-0.125934 -0.021454001 -0.25151101
-0.125934 -0.021383001 -0.25145999
-0.12593199 -0.021314001 -0.25144401
-0.12593 -0.021242 -0.25142801
-0.125929 -0.021171 -0.25138301
-0.125928 -0.021102 -0.251351
-0.125925 -0.021032 -0.25134701
-0.12592299 -0.020962 -0.25133801
-0.125921 -0.020893 -0.25131601
-0.125919 -0.020823 -0.25130299
-0.125917 -0.020753 -0.251293
-0.12591401 -0.020683 -0.25128299
-0.125912 -0.020612 -0.251266
-0.125911 -0.020541999 -0.25124201
-0.125909 -0.020473 -0.251228
-0.12590601 -0.020403 -0.25123101
-0.125902 -0.020335 -0.251241
-0.1259 -0.020262999 -0.251237
-0.12589701 -0.020195 -0.25123399
-0.125894 -0.020125 -0.25123799
-0.125891 -0.020055 -0.25124201
-0.125888 -0.019985 -0.251243
-0.12588499 -0.019915 -0.25124499
-0.125883 -0.019845 -0.25124499
-0.12588 -0.019774999 -0.25123799
-0.12587801 -0.019704999 -0.25123399
-0.125874 -0.019634999 -0.251241
-0.125872 -0.019564999 -0.251243
-0.12586799 -0.019497 -0.25125501
-0.125865 -0.019425999 -0.25127399
-0.125862 -0.019357 -0.25126401
-0.12586001 -0.019286999 -0.25124401
-0.125857 -0.019216999 -0.25124699
-0.125854 -0.019146999 -0.25125101
-0.125852 -0.019076999 -0.25125101
-0.12584899 -0.019006999 -0.251252
-0.125845 -0.018939 -0.251266
-0.12584201 -0.018869 -0.25127801
-0.12583899 -0.018797999 -0.25128299
-0.125836 -0.018727999 -0.251295
-0.12583201 -0.018657999 -0.251313
-0.125829 -0.018588001 -0.25131801
-0.125826 -0.018518001 -0.25131199
-0.125824 -0.018448001 -0.25130001
-0.12582199 -0.018378999 -0.25128901
-0.125819 -0.018309001 -0.25129101
-0.125815 -0.018239999 -0.25130799
-0.12581199 -0.018169999 -0.251324
-0.125809 -0.018100001 -0.25133201
-0.125806 -0.018030001 -0.25132501
-0.12580401 -0.017960001 -0.25130701
-0.125801 -0.017890001 -0.251315
-0.125797 -0.017820001 -0.25133801
-0.12579399 -0.017750001 -0.25134
-0.125791 -0.017680001 -0.251342
-0.125788 -0.01761 -0.251351
-0.12578601 -0.017542001 -0.25134701
-0.125783 -0.017472001 -0.25134099
-0.12578 -0.017402001 -0.251342
-0.12577701 -0.017332001 -0.25134999
-0.125774 -0.017262001 -0.251358
-0.125771 -0.017192001 -0.25136501
-0.12576801 -0.017122 -0.25136301
-0.12576599 -0.017052 -0.25134099
-0.125763 -0.016982 -0.251344
-0.12576 -0.016912 -0.251362
-0.12575699 -0.016842 -0.251367
-0.125754 -0.016772 -0.251369
-0.125751 -0.016702 -0.25136301
-0.12574901 -0.016632 -0.25135201
-0.125746 -0.016562 -0.251344
-0.125744 -0.016492 -0.25134599
-0.12574001 -0.016422 -0.25135899
-0.125737 -0.016352 -0.25137299
-0.125734 -0.016282 -0.25136501
-0.125732 -0.016212 -0.25134799
-0.12572999 -0.016145 -0.25133401
-0.125727 -0.016075 -0.25133401
-0.125724 -0.016004 -0.251351
-0.12571999 -0.015934 -0.25136501
-0.125717 -0.015864 -0.251367
-0.125715 -0.015794 -0.25136
-0.12571301 -0.015725 -0.25134999
-0.12571 -0.015655 -0.25134099
-0.125708 -0.015585 -0.25132501
-0.125707 -0.015516 -0.25130099
-0.12570401 -0.015446 -0.251306
-0.1257 -0.015375 -0.25132599
-0.125697 -0.015305 -0.25132999
-0.12569501 -0.015236 -0.251313
-0.12569299 -0.015166 -0.25129899
-0.12569 -0.015098 -0.25129101
-0.125689 -0.015029 -0.25126401
-0.125687 -0.014959 -0.25123799
-0.12568399 -0.014889 -0.251239
-0.125682 -0.01482 -0.251239
-0.125679 -0.014749 -0.251243
-0.12567601 -0.01468 -0.25123799
-0.12567399 -0.01461 -0.25122601
-0.125671 -0.01454 -0.25121999
-0.125669 -0.01447 -0.25121701
-0.12566601 -0.014402 -0.25121501
-0.125663 -0.01433 -0.25121301
-0.125661 -0.014263 -0.25120601
-0.125659 -0.014193 -0.25118801
-0.12565701 -0.014123 -0.25118101
-0.125654 -0.014053 -0.25117299
-0.125652 -0.013984 -0.25115699
-0.12565 -0.013914 -0.25114399
-0.12564699 -0.013844 -0.25114
-0.125645 -0.013776 -0.251142
-0.125642 -0.013706 -0.25114301
-0.12563799 -0.013634 -0.25115699
-0.125635 -0.013564 -0.25117099
-0.125631 -0.013493 -0.25118399
-0.12562799 -0.013423 -0.25119799
-0.125624 -0.013353 -0.25121599
-0.12561999 -0.013282 -0.25124699
-0.125616 -0.013212 -0.25126901
-0.12561201 -0.013139 -0.25128099
-0.125609 -0.013069 -0.251302
-0.125604 -0.012999 -0.25132799
-0.1256 -0.012926 -0.25135201
-0.125596 -0.012856 -0.251378
-0.12559301 -0.012785 -0.25139299
-0.125589 -0.012715 -0.25141299
-0.125585 -0.012644 -0.25143701
-0.125579 -0.012569 -0.25150001
-0.12557299 -0.012498 -0.251562
-0.125568 -0.012425 -0.25160599
-0.12556399 -0.012352 -0.251638
-0.125559 -0.012281 -0.25167301
-0.125553 -0.012206 -0.25174901
-0.12554801 -0.012135 -0.251791
-0.125543 -0.012062 -0.251827
-0.12553699 -0.011989 -0.25189701
-0.125531 -0.011915 -0.25195599
-0.125525 -0.01184 -0.25202799
-0.125516 -0.011766 -0.25213799
-0.12551001 -0.01169 -0.25219601
-0.125504 -0.011617 -0.25226
-0.125498 -0.011544 -0.25232899
-0.12549201 -0.011468 -0.252399
-0.125485 -0.011394 -0.25247699
-0.125479 -0.011319 -0.25253299
-0.12547199 -0.011244 -0.252615
-0.12546299 -0.011167 -0.252745
-0.12545501 -0.011088 -0.252859
-0.12545601 -0.022707 -0.252675
-0.125457 -0.022634 -0.25260299
-0.125457 -0.022564 -0.252543
-0.125458 -0.022492001 -0.25245601
-0.125459 -0.02242 -0.252368
-0.125459 -0.022349 -0.25231999
-0.125462 -0.022275001 -0.25220501
-0.12546501 -0.022202 -0.252067
-0.12546501 -0.022132 -0.25200799
-0.12546299 -0.022059999 -0.25199401
-0.125461 -0.021989999 -0.25198001
-0.12546 -0.021919001 -0.25193301
-0.125461 -0.021847 -0.25185901
-0.125461 -0.021776 -0.25179899
-0.125459 -0.021705 -0.25177401
-0.12546 -0.021633999 -0.251708
-0.12546 -0.021563999 -0.251645
-0.125459 -0.021493001 -0.25160101
-0.125458 -0.021423001 -0.251571
-0.12545601 -0.021353999 -0.25156
-0.125453 -0.021282 -0.251544
-0.125452 -0.021213001 -0.25151199
-0.12545 -0.021141 -0.25149301
-0.125448 -0.021072 -0.251479
-0.12544601 -0.021002 -0.25145701
-0.12544499 -0.020932 -0.25143799
-0.125443 -0.020861 -0.251416
-0.125441 -0.020792 -0.251389
-0.12544 -0.020722 -0.25135899
-0.125438 -0.020651 -0.251329
-0.12543701 -0.020581 -0.25131199
-0.125434 -0.020512 -0.251302
-0.125432 -0.020442 -0.25128999
-0.12543 -0.020372 -0.251275
-0.12542801 -0.020300999 -0.251261
-0.12542599 -0.020233 -0.25124899
-0.125423 -0.020160999 -0.25124601
-0.12542 -0.020093 -0.251248
-0.12541699 -0.020022999 -0.25125301
-0.125414 -0.019952999 -0.25125501
-0.125412 -0.019882999 -0.25124699
-0.12541001 -0.019814 -0.25123
-0.125407 -0.019743999 -0.25121999
-0.125404 -0.019673999 -0.251232
-0.12540001 -0.019602999 -0.25125301
-0.125397 -0.019533001 -0.251259
-0.125395 -0.019463001 -0.25124699
-0.125392 -0.019393999 -0.25124201
-0.12538999 -0.019324001 -0.25123799
-0.125387 -0.019254001 -0.25123
-0.125385 -0.019184001 -0.25122699
-0.12538201 -0.019114001 -0.25122699
-0.125379 -0.019045999 -0.25122899
-0.125376 -0.018975999 -0.25123999
-0.12537199 -0.018905999 -0.251248
-0.125368 -0.018835001 -0.25127199
-0.125365 -0.018765001 -0.251295
-0.12536199 -0.018695001 -0.25128299
-0.125361 -0.018626001 -0.25125799
-0.125359 -0.018556001 -0.25124601
-0.125356 -0.018486001 -0.25124401
-0.12535299 -0.018416001 -0.251243
-0.12535 -0.018347999 -0.25124899
-0.125346 -0.018278001 -0.25126499
-0.12534299 -0.018207001 -0.25127801
-0.12534 -0.018137001 -0.251286
-0.125337 -0.018067 -0.25129601
-0.12533399 -0.017997 -0.25130099
-0.125331 -0.017927 -0.25129899
-0.125328 -0.017857 -0.251295
-0.12532499 -0.017787 -0.25129801
-0.125322 -0.017717 -0.25131199
-0.12531801 -0.017649001 -0.25132999
-0.125315 -0.017578 -0.25133699
-0.125312 -0.017508 -0.25133899
-0.12530901 -0.017438 -0.25133899
-0.12530699 -0.017369 -0.25133601
-0.125304 -0.017298 -0.251344
-0.12530001 -0.017228 -0.25134999
-0.12529799 -0.017159 -0.251333
-0.125297 -0.017089 -0.251315
-0.125293 -0.017019 -0.25132799
-0.12528899 -0.016948 -0.25135201
-0.125286 -0.016878 -0.25136399
-0.125283 -0.016807999 -0.25135699
-0.12528101 -0.016739 -0.25134099
-0.12527899 -0.016669 -0.251331
-0.125276 -0.016599 -0.25133201
-0.125273 -0.016528999 -0.25133801
-0.12526999 -0.016458999 -0.251342
-0.125267 -0.016388999 -0.25134501
-0.125264 -0.016318999 -0.25134501
-0.12526201 -0.016248999 -0.25132701
-0.12526 -0.016182 -0.25131801
-0.125257 -0.016109001 -0.25132999
-0.12525301 -0.016040999 -0.25133899
-0.125251 -0.015969001 -0.251331
-0.125249 -0.015902 -0.25131699
-0.125247 -0.015831999 -0.25130001
-0.125245 -0.015761999 -0.25129199
-0.125241 -0.015691999 -0.251306
-0.125238 -0.015622 -0.251313
-0.12523501 -0.015552 -0.25130501
-0.12523299 -0.015482 -0.25130501
-0.12523 -0.015412 -0.251304
-0.125228 -0.015343 -0.251288
-0.12522601 -0.015273 -0.25127
-0.12522399 -0.015203 -0.25126299
-0.125221 -0.015133 -0.25125501
-0.125219 -0.015064 -0.25124601
-0.12521601 -0.014996 -0.25124201
-0.125214 -0.014924 -0.25123799
-0.125211 -0.014856 -0.25122899
-0.125209 -0.014786 -0.25122499
-0.12520599 -0.014716 -0.251219
-0.125204 -0.014647 -0.251212
-0.125202 -0.014577 -0.251196
-0.1252 -0.014508 -0.251174
-0.12519801 -0.01444 -0.25115299
-0.12519599 -0.014371 -0.25113299
-0.125194 -0.014301 -0.25113201
-0.12519 -0.01423 -0.25114399
-0.12518699 -0.01416 -0.25115401
-0.125184 -0.01409 -0.251151
-0.125182 -0.014021 -0.25113299
-0.125181 -0.013951 -0.251113
-0.12517799 -0.013881 -0.251102
-0.125176 -0.013812 -0.25109801
-0.125173 -0.013744 -0.25110099
-0.12516899 -0.013671 -0.25111499
-0.125166 -0.013601 -0.25113299
-0.12516201 -0.013531 -0.251149
-0.125159 -0.01346 -0.25116
-0.125156 -0.01339 -0.25116599
-0.12515301 -0.013321 -0.251158
-0.12515 -0.01325 -0.25116301
-0.125145 -0.013177 -0.25121501
-0.125139 -0.013106 -0.25126699
-0.125136 -0.013036 -0.25127599
-0.12513299 -0.012966 -0.25128001
-0.125129 -0.012896 -0.25130001
-0.12512501 -0.012823 -0.251333
-0.125121 -0.012753 -0.251353
-0.125117 -0.012682 -0.25137499
-0.125112 -0.012609 -0.251421
-0.12510701 -0.012536 -0.251472
-0.125102 -0.012463 -0.25151801
-0.12509599 -0.012392 -0.25156799
-0.125092 -0.012319 -0.25160599
-0.12508699 -0.012247 -0.25164101
-0.125081 -0.012173 -0.25170499
-0.125074 -0.0121 -0.25178099
-0.12506901 -0.012026 -0.25183901
-0.125065 -0.011956 -0.25186199
-0.12506001 -0.011883 -0.25189999
-0.125053 -0.011807 -0.25198799
-0.125046 -0.011732 -0.25206599
-0.12503999 -0.011658 -0.25212801
-0.125034 -0.011585 -0.25218901
-0.125027 -0.011509 -0.25228301
-0.125019 -0.011433 -0.25237101
-0.12501299 -0.01136 -0.25244099
-0.12500601 -0.011284 -0.25252101
-0.124998 -0.011208 -0.252621
-0.124987 -0.011126 -0.25278699
-0.124979 -0.01105 -0.252895
-0.125212 -0.022662999 -0.25274301
-0.125214 -0.022591 -0.25264999
-0.12521601 -0.022516999 -0.25253999
-0.125219 -0.022444 -0.252415
-0.12522 -0.022372 -0.25232899
-0.125222 -0.022299999 -0.252233
-0.125222 -0.022229999 -0.25217
-0.125222 -0.022159001 -0.25211999
-0.125222 -0.022086 -0.25204599
-0.12522399 -0.022015 -0.25194499
-0.12522399 -0.021942001 -0.251881
-0.125223 -0.021872001 -0.25185999
-0.125222 -0.021802001 -0.25181201
-0.125223 -0.021729 -0.25174201
-0.125222 -0.02166 -0.251701
-0.125221 -0.021589 -0.25166899
-0.12522 -0.021517999 -0.25162101
-0.12522 -0.021446999 -0.25155601
-0.12522 -0.021376001 -0.25150999
-0.125218 -0.021307001 -0.25148699
-0.12521701 -0.021236001 -0.25145501
-0.12521499 -0.021166001 -0.25143099
-0.125213 -0.021096 -0.25142601
-0.125211 -0.021025 -0.25139999
-0.12521 -0.020956 -0.25136799
-0.12520801 -0.020886 -0.25134501
-0.12520599 -0.020815 -0.25132301
-0.125205 -0.020745 -0.251295
-0.125203 -0.020676 -0.25127599
-0.1252 -0.020606 -0.25127
-0.12519801 -0.020533999 -0.25125301
-0.12519699 -0.020465 -0.251219
-0.125195 -0.020396 -0.25119701
-0.125194 -0.020326 -0.25117999
-0.125192 -0.020256 -0.25116
-0.12518901 -0.020187 -0.251156
-0.125186 -0.020117 -0.25115901
-0.125184 -0.020047 -0.251149
-0.125181 -0.019977 -0.251147
-0.12517799 -0.019907 -0.251158
-0.125175 -0.019836999 -0.25116199
-0.125173 -0.019766999 -0.251151
-0.12517101 -0.019696999 -0.25113299
-0.125168 -0.019628 -0.25112101
-0.125165 -0.019556999 -0.25113201
-0.12516101 -0.019486999 -0.25114799
-0.125158 -0.019419 -0.251158
-0.125156 -0.019348999 -0.25115499
-0.12515301 -0.019278999 -0.25114501
-0.12515099 -0.019208999 -0.25114301
-0.125147 -0.019138999 -0.25115201
-0.125144 -0.019068999 -0.25116599
-0.12514 -0.019001 -0.25117999
-0.125138 -0.018928999 -0.25118101
-0.125135 -0.018860999 -0.251169
-0.12513299 -0.018789001 -0.251149
-0.125131 -0.018719999 -0.25114
-0.125127 -0.018650999 -0.25116
-0.12512399 -0.018580999 -0.251169
-0.125122 -0.018511999 -0.25115299
-0.125119 -0.018441999 -0.251151
-0.12511601 -0.018371001 -0.25116199
-0.12511399 -0.018301999 -0.25115401
-0.125111 -0.018231999 -0.25115401
-0.12510701 -0.018162999 -0.25117701
-0.125104 -0.018092999 -0.251187
-0.125101 -0.018022999 -0.25118899
-0.125098 -0.017952999 -0.25119999
-0.12509499 -0.017883001 -0.25119999
-0.125092 -0.017813001 -0.251194
-0.12509 -0.017743001 -0.25119299
-0.12508599 -0.017673001 -0.25120699
-0.125083 -0.017604001 -0.251221
-0.12507901 -0.017532 -0.251228
-0.12507699 -0.017464001 -0.251232
-0.125074 -0.017392 -0.25123
-0.125071 -0.017325001 -0.251223
-0.12506901 -0.017255001 -0.251219
-0.125066 -0.017185001 -0.25122699
-0.125062 -0.017114 -0.25123399
-0.12506001 -0.017045001 -0.25123
-0.125058 -0.016975001 -0.25121701
-0.125055 -0.016905 -0.25121099
-0.12505201 -0.016835 -0.25121701
-0.125049 -0.016765 -0.25122401
-0.125046 -0.016695 -0.251232
-0.125043 -0.016625 -0.25123599
-0.12503999 -0.016555 -0.25122699
-0.125038 -0.016485 -0.25121301
-0.125035 -0.016415 -0.251219
-0.12503199 -0.016345 -0.25123599
-0.125028 -0.016277 -0.251252
-0.125025 -0.016207 -0.251252
-0.12502301 -0.016137 -0.251237
-0.125021 -0.016067 -0.25123101
-0.125018 -0.015997 -0.25123301
-0.12501501 -0.015927 -0.25123599
-0.125012 -0.015857 -0.25123799
-0.125009 -0.015787 -0.251239
-0.12500601 -0.015717 -0.251241
-0.125003 -0.015647 -0.25124499
-0.125 -0.015577 -0.25124601
-0.124998 -0.015507 -0.25123
-0.124997 -0.015438 -0.25120401
-0.124994 -0.015368 -0.25119501
-0.124992 -0.015298 -0.251187
-0.12499 -0.015231 -0.25117901
-0.124988 -0.015161 -0.25116599
-0.124986 -0.015091 -0.25114799
-0.124984 -0.015022 -0.251131
-0.124982 -0.014952 -0.25111699
-0.124979 -0.014882 -0.25110501
-0.124977 -0.014813 -0.25108999
-0.124974 -0.014743 -0.25109199
-0.124971 -0.014673 -0.25110599
-0.124968 -0.014603 -0.25109899
-0.124967 -0.014535 -0.25108099
-0.124964 -0.014465 -0.25106701
-0.124962 -0.014396 -0.251066
-0.12496 -0.014326 -0.25105
-0.124958 -0.014257 -0.25102299
-0.124956 -0.014189 -0.25100899
-0.124953 -0.014119 -0.25100899
-0.12495 -0.014049 -0.25101799
-0.124947 -0.013979 -0.25101799
-0.124945 -0.013909 -0.25101
-0.124943 -0.013839 -0.251003
-0.12494 -0.01377 -0.25098899
-0.124937 -0.013699 -0.25099501
-0.124934 -0.013629 -0.25101
-0.124931 -0.013559 -0.25101
-0.124928 -0.013489 -0.25101501
-0.124925 -0.013419 -0.251019
-0.124922 -0.013349 -0.251021
-0.124918 -0.013279 -0.25104499
-0.124914 -0.013208 -0.25106999
-0.124911 -0.013138 -0.25108001
-0.124907 -0.013068 -0.25109401
-0.124903 -0.012995 -0.251129
-0.124898 -0.012924 -0.25117299
-0.124893 -0.012851 -0.251205
-0.124889 -0.012781 -0.251232
-0.124885 -0.01271 -0.251268
-0.12488 -0.012637 -0.25130999
-0.124876 -0.012567 -0.25133801
-0.124871 -0.012494 -0.25136501
-0.124866 -0.012421 -0.251425
-0.12486 -0.01235 -0.251477
-0.124856 -0.012277 -0.25150299
-0.124852 -0.012207 -0.25153399
-0.124846 -0.012131 -0.25158599
-0.12484 -0.012058 -0.25166199
-0.124835 -0.011987 -0.25171
-0.12483 -0.011914 -0.251739
-0.124824 -0.011841 -0.251809
-0.124816 -0.011765 -0.251903
-0.124811 -0.011692 -0.25195301
-0.124804 -0.011616 -0.25203499
-0.124796 -0.01154 -0.25213099
-0.12479 -0.011467 -0.25219801
-0.124785 -0.011394 -0.25224599
-0.124776 -0.011315 -0.252368
-0.124771 -0.011242 -0.25241801
-0.124765 -0.011169 -0.252482
-0.124948 -0.022461999 -0.25260699
-0.124947 -0.022391999 -0.25259
-0.124947 -0.02232 -0.25252399
-0.124949 -0.022248 -0.25241899
-0.124951 -0.022174001 -0.252307
-0.124953 -0.022102 -0.25221699
-0.124953 -0.022032 -0.252152
-0.124953 -0.021958999 -0.252096
-0.124954 -0.021888999 -0.25201401
-0.124955 -0.021817001 -0.25193501
-0.124955 -0.021746 -0.251865
-0.124954 -0.021675 -0.25182801
-0.124953 -0.021604 -0.2518
-0.124953 -0.021532999 -0.251744
-0.124954 -0.021462999 -0.25166899
-0.124953 -0.021392001 -0.25161299
-0.124952 -0.021322001 -0.25158599
-0.124951 -0.021251 -0.25155401
-0.12495 -0.02118 -0.25151399
-0.124948 -0.021111 -0.25148299
-0.124947 -0.021039 -0.25145701
-0.124945 -0.02097 -0.251443
-0.124943 -0.0209 -0.25142401
-0.124941 -0.020831 -0.251396
-0.12494 -0.020759 -0.25137001
-0.124938 -0.02069 -0.25134099
-0.124937 -0.020618999 -0.25130701
-0.124936 -0.020548999 -0.25127801
-0.124935 -0.020479999 -0.25124601
-0.124933 -0.020411 -0.25122601
-0.12493 -0.020338999 -0.251219
-0.124928 -0.020269001 -0.251201
-0.124927 -0.020199999 -0.25117499
-0.124925 -0.020129999 -0.25115401
-0.124923 -0.020060999 -0.251142
-0.12492 -0.019990999 -0.25113499
-0.124918 -0.019920999 -0.25113499
-0.124915 -0.019850999 -0.251129
-0.124913 -0.019781999 -0.25110799
-0.124911 -0.019711999 -0.25110599
-0.124908 -0.019641999 -0.25111201
-0.124905 -0.019571999 -0.25110501
-0.124902 -0.019502001 -0.25110301
-0.124899 -0.019431001 -0.25112301
-0.124895 -0.019362999 -0.251136
-0.124892 -0.019293001 -0.25114
-0.124889 -0.019223001 -0.25114
-0.124887 -0.019153001 -0.251127
-0.124885 -0.019083999 -0.251109
-0.124883 -0.019014001 -0.25110501
-0.12488 -0.018944001 -0.251104
-0.124878 -0.018874001 -0.25108999
-0.124875 -0.018804001 -0.25109699
-0.124871 -0.018734001 -0.251109
-0.124869 -0.018664001 -0.25110701
-0.124866 -0.018594 -0.25110799
-0.124863 -0.018526001 -0.25110999
-0.12486 -0.018456001 -0.25110799
-0.124857 -0.018386001 -0.251113
-0.124854 -0.018316001 -0.25112301
-0.124851 -0.018246001 -0.25113499
-0.124847 -0.018176001 -0.251142
-0.124845 -0.018106 -0.25114
-0.124841 -0.018038001 -0.25115201
-0.124838 -0.017967001 -0.251169
-0.124835 -0.017897001 -0.25117901
-0.124832 -0.017827 -0.251183
-0.124829 -0.017757 -0.25118601
-0.124825 -0.017687 -0.251194
-0.124822 -0.017617 -0.25119799
-0.12482 -0.017547 -0.251201
-0.124816 -0.017478 -0.25121301
-0.124813 -0.017406 -0.251219
-0.124811 -0.017339 -0.251212
-0.124808 -0.017269 -0.25120601
-0.124806 -0.017199 -0.25119901
-0.124803 -0.017129 -0.25119099
-0.1248 -0.017059 -0.25119501
-0.124798 -0.016989 -0.25118399
-0.124796 -0.01692 -0.25116599
-0.124793 -0.01685 -0.251176
-0.124789 -0.016779 -0.25119901
-0.124786 -0.016709 -0.25120699
-0.124783 -0.016639 -0.251203
-0.12478 -0.016569 -0.25120801
-0.124777 -0.016499 -0.25121599
-0.124774 -0.016429 -0.25122201
-0.124771 -0.016359 -0.25121701
-0.124769 -0.016291 -0.251205
-0.124766 -0.016221 -0.251203
-0.124764 -0.016152 -0.25119799
-0.124762 -0.016082 -0.25117999
-0.12476 -0.016012 -0.25117299
-0.124756 -0.015942 -0.251183
-0.124753 -0.015872 -0.25119099
-0.12475 -0.015802 -0.25118801
-0.124748 -0.015732 -0.25118199
-0.124745 -0.015662 -0.251174
-0.124744 -0.015593 -0.25115299
-0.124742 -0.015525 -0.25113899
-0.124738 -0.015453 -0.25114501
-0.124735 -0.015385 -0.25115201
-0.124733 -0.015313 -0.25114599
-0.124731 -0.015245 -0.25113401
-0.124729 -0.015176 -0.25112101
-0.124726 -0.015106 -0.25110701
-0.124724 -0.015036 -0.25109801
-0.124722 -0.014966 -0.25108999
-0.12472 -0.014897 -0.25107601
-0.124717 -0.014829 -0.25106901
-0.124715 -0.014759 -0.251057
-0.124713 -0.01469 -0.251041
-0.12471 -0.01462 -0.25103801
-0.124708 -0.01455 -0.251028
-0.124707 -0.014481 -0.25099501
-0.124705 -0.014413 -0.25097099
-0.124702 -0.014343 -0.250981
-0.124698 -0.014271 -0.25099599
-0.124696 -0.014203 -0.25099999
-0.124693 -0.014133 -0.250992
-0.12469 -0.014063 -0.25098899
-0.124687 -0.013993 -0.25099301
-0.124685 -0.013923 -0.250981
-0.124683 -0.013854 -0.25096199
-0.12468 -0.013786 -0.25096601
-0.124677 -0.013713 -0.25098401
-0.124674 -0.013646 -0.250981
-0.124672 -0.013576 -0.25096101
-0.12467 -0.013506 -0.25094399
-0.124667 -0.013436 -0.25095001
-0.124663 -0.013366 -0.25097799
-0.124659 -0.013295 -0.25099701
-0.124655 -0.013223 -0.251021
-0.124651 -0.013152 -0.25106099
-0.124646 -0.013081 -0.25108901
-0.124643 -0.013011 -0.251102
-0.12464 -0.012941 -0.251102
-0.124637 -0.012869 -0.25111601
-0.124632 -0.012798 -0.25116101
-0.124627 -0.012727 -0.25118899
-0.124624 -0.012655 -0.251205
-0.124619 -0.012584 -0.25124201
-0.124615 -0.012512 -0.25127199
-0.12461 -0.012441 -0.25130799
-0.124605 -0.012368 -0.251358
-0.1246 -0.012295 -0.251403
-0.124595 -0.012224 -0.251441
-0.12459 -0.012151 -0.25148901
-0.124584 -0.012078 -0.251553
-0.124579 -0.012005 -0.251598
-0.124574 -0.011932 -0.251636
-0.124569 -0.011859 -0.25169
-0.124563 -0.011786 -0.25174001
-0.124558 -0.011715 -0.25178501
-0.124553 -0.011642 -0.25183499
-0.124546 -0.011566 -0.25191301
-0.124541 -0.011493 -0.25196099
-0.124535 -0.011418 -0.252033
-0.124525 -0.011341 -0.25217301
-0.124518 -0.011265 -0.252242
-0.124512 -0.011192 -0.25231799
-0.124507 -0.011117 -0.25236601
-0.124503 -0.011046 -0.252386
-0.124485 -0.010958 -0.25268799
-0.124481 -0.010886 -0.2527
-0.124474 -0.01081 -0.25279599
-0.124633 -0.022119001 -0.25267199
-0.124637 -0.022048 -0.252547
-0.124637 -0.021976 -0.252473
-0.124637 -0.021904999 -0.25242299
-0.124636 -0.021833999 -0.25237
-0.124639 -0.02176 -0.252262
-0.124642 -0.021689 -0.25213301
-0.124643 -0.021617001 -0.25205299
-0.124644 -0.021547001 -0.251973
-0.124645 -0.021475 -0.251894
-0.124645 -0.021404 -0.251836
-0.124646 -0.021334 -0.25176299
-0.124645 -0.021263 -0.25171301
-0.124643 -0.021190999 -0.25168899
-0.124642 -0.021121999 -0.251656
-0.124642 -0.021051001 -0.25161201
-0.124641 -0.02098 -0.251564
-0.12464 -0.020911001 -0.25151899
-0.124639 -0.02084 -0.25148699
-0.124637 -0.02077 -0.25147
-0.124635 -0.020701 -0.25145
-0.124634 -0.020629 -0.251414
-0.124634 -0.020559 -0.25135699
-0.124633 -0.020489 -0.251329
-0.12463 -0.020419 -0.251329
-0.124628 -0.02035 -0.25131801
-0.124626 -0.02028 -0.25129399
-0.124624 -0.020209 -0.25127199
-0.124622 -0.020138999 -0.251257
-0.12462 -0.02007 -0.251237
-0.124618 -0.02 -0.25122201
-0.124616 -0.019929999 -0.251212
-0.124614 -0.019861 -0.25119799
-0.124611 -0.019791 -0.25118899
-0.124609 -0.019721 -0.25118101
-0.124607 -0.019650999 -0.25117099
-0.124604 -0.019580999 -0.25117201
-0.124601 -0.019510999 -0.251174
-0.124598 -0.019440999 -0.25117001
-0.124596 -0.019370999 -0.251167
-0.124593 -0.019301999 -0.25115901
-0.124591 -0.019231999 -0.25114799
-0.124588 -0.019161999 -0.25114399
-0.124586 -0.019091999 -0.25114
-0.124584 -0.019021999 -0.251129
-0.124581 -0.018952999 -0.251127
-0.124578 -0.018882999 -0.25112501
-0.124576 -0.018812999 -0.251118
-0.124574 -0.018743001 -0.251104
-0.124571 -0.018674999 -0.251102
-0.124568 -0.018604999 -0.25111499
-0.124564 -0.018534999 -0.25112501
-0.124561 -0.018464999 -0.25113299
-0.124557 -0.018394001 -0.25115401
-0.124553 -0.018325999 -0.251176
-0.12455 -0.018254001 -0.251178
-0.124548 -0.018185999 -0.25117499
-0.124545 -0.018115999 -0.25117299
-0.124542 -0.018045999 -0.251185
-0.124538 -0.017976001 -0.251196
-0.124535 -0.017905001 -0.25120199
-0.124532 -0.017835001 -0.25120699
-0.124529 -0.017765 -0.251219
-0.124526 -0.017695 -0.251223
-0.124523 -0.017627001 -0.251228
-0.124519 -0.017555 -0.25124201
-0.124517 -0.017487001 -0.25123599
-0.124514 -0.017417001 -0.25123301
-0.124511 -0.017347001 -0.251237
-0.124509 -0.017277 -0.25123301
-0.124506 -0.017207 -0.25123799
-0.124502 -0.017137 -0.251248
-0.124499 -0.017067 -0.251252
-0.124496 -0.016997 -0.251261
-0.124493 -0.016927 -0.251261
-0.124491 -0.016857 -0.251257
-0.124488 -0.016787 -0.25125
-0.124486 -0.016717 -0.25124401
-0.124482 -0.016647 -0.25125799
-0.124479 -0.016577 -0.25126699
-0.124476 -0.016507 -0.25126299
-0.124474 -0.016437 -0.25126299
-0.12447 -0.016367 -0.25127199
-0.124467 -0.016297 -0.25127599
-0.124465 -0.016229 -0.25128099
-0.124461 -0.016156999 -0.25128499
-0.124459 -0.016089 -0.25128701
