# .PCD v0.7 - Point Cloud Data file format
VERSION 0.7
FIELDS x y z
SIZE 4 4 4
TYPE F F F
COUNT 1 1 1
WIDTH 1483
HEIGHT 1
VIEWPOINT 0 0 0 1 0 0 0
POINTS 1483
DATA ascii
-0.038704 0.135001 -0.225725
-0.038701002 0.13507301 -0.225731
-0.038697999 0.135143 -0.225732
-0.038695998 0.135215 -0.22572801
-0.038693 0.135287 -0.22571801
-0.038692001 0.13535599 -0.225695
-0.038690001 0.135428 -0.225683
-0.038686 0.1355 -0.225695
-0.038683001 0.135571 -0.225711
-0.038679 0.13564301 -0.225722
-0.038676001 0.135713 -0.225724
-0.038674001 0.135785 -0.22571801
-0.038672 0.135856 -0.225706
-0.038669001 0.135928 -0.225701
-0.038665999 0.135998 -0.225701
-0.038663 0.13607 -0.225705
-0.038660999 0.13614 -0.22570799
-0.038658001 0.13621201 -0.22571
-0.038654 0.13628399 -0.22572
-0.038651001 0.136355 -0.225725
-0.038649 0.136426 -0.225719
-0.038647 0.136498 -0.225697
-0.038644999 0.136567 -0.225683
-0.038642 0.13664 -0.225688
-0.038639002 0.136712 -0.22569799
-0.038635001 0.13678201 -0.22571
-0.038632002 0.13685399 -0.225715
-0.038630001 0.136924 -0.225713
-0.038628001 0.136996 -0.22569899
-0.038624998 0.13706701 -0.225687
-0.038623001 0.137137 -0.22568201
-0.038621001 0.137209 -0.22566999
-0.038617998 0.137281 -0.225658
-0.038615 0.137353 -0.225665
-0.038612001 0.13742299 -0.225665
-0.03861 0.137495 -0.22566301
-0.038607001 0.137567 -0.225665
-0.038603999 0.137637 -0.225664
-0.038601 0.13770799 -0.22566199
-0.038598999 0.137778 -0.22566199
-0.038596001 0.13785 -0.225665
-0.038593002 0.137922 -0.225657
-0.038591001 0.13799199 -0.225651
-0.038587999 0.138064 -0.22565199
-0.038585 0.138134 -0.225658
-0.038582001 0.13820601 -0.22566199
-0.038578998 0.13827799 -0.225656
-0.038577002 0.138348 -0.22565299
-0.038573999 0.13842 -0.22566099
-0.038571 0.138492 -0.225659
-0.038569 0.13856199 -0.22565199
-0.038566001 0.138634 -0.225646
-0.038562998 0.138704 -0.225648
-0.038559999 0.138776 -0.22565401
-0.038557 0.13884801 -0.225659
-0.038554002 0.138918 -0.225659
-0.038552001 0.13899 -0.225647
-0.038550001 0.139061 -0.225632
-0.038547002 0.13913099 -0.22563399
-0.038543999 0.139203 -0.225642
-0.038541999 0.139273 -0.22563
-0.038539998 0.13934501 -0.225609
-0.038538001 0.13941599 -0.225595
-0.038534999 0.139488 -0.225595
-0.038532 0.139558 -0.225594
-0.038529001 0.13963 -0.225594
-0.038525999 0.1397 -0.225602
-0.038523 0.139772 -0.225605
-0.038520999 0.139844 -0.225593
-0.038518999 0.13991401 -0.225585
-0.038516 0.13998599 -0.225585
-0.038513999 0.140057 -0.225578
-0.038511001 0.140127 -0.225574
-0.038508002 0.14019901 -0.225572
-0.038506001 0.140269 -0.225567
-0.038502999 0.140341 -0.225563
-0.0385 0.140413 -0.22556899
-0.038497001 0.14048301 -0.225575
-0.038495 0.14055499 -0.22555999
-0.038493 0.140625 -0.225546
-0.038490001 0.140697 -0.22555
-0.038486999 0.140769 -0.225557
-0.038484 0.140839 -0.22555301
-0.038481999 0.14091 -0.225547
-0.038479999 0.14098001 -0.22553401
-0.038477998 0.14105199 -0.22551399
-0.038474999 0.141123 -0.22551
-0.038472001 0.141194 -0.22552
-0.038469002 0.141266 -0.22552501
-0.038465999 0.14133599 -0.225519
-0.038463 0.141408 -0.225521
-0.038460001 0.14148 -0.22552601
-0.038458001 0.14154901 -0.22551601
-0.038456 0.14162099 -0.225502
-0.038453002 0.141691 -0.225499
-0.038451001 0.141763 -0.225501
-0.038447998 0.141835 -0.225495
-0.038445 0.14190499 -0.22549701
-0.038442001 0.141977 -0.225504
-0.03844 0.142046 -0.225484
-0.038438 0.14211801 -0.225466
-0.038435001 0.14218999 -0.22546899
-0.038431998 0.14226 -0.22547901
-0.038428999 0.142332 -0.22547901
-0.038426999 0.14240199 -0.225471
-0.038424 0.142474 -0.225466
-0.038422 0.142543 -0.225448
-0.038419999 0.14261501 -0.22543401
-0.038417999 0.14268699 -0.225429
-0.038415998 0.142757 -0.225419
-0.038412999 0.142827 -0.225417
-0.038410001 0.14289901 -0.225426
-0.038407002 0.14297099 -0.225426
-0.038403999 0.143043 -0.225418
-0.038401999 0.143112 -0.225412
-0.038400002 0.14318199 -0.225403
-0.038398001 0.143254 -0.22538701
-0.038396001 0.143323 -0.22536699
-0.038394 0.14339501 -0.225352
-0.038391002 0.143465 -0.225354
-0.038387999 0.143537 -0.22535799
-0.038385 0.143609 -0.22535101
-0.038383 0.14367799 -0.225339
-0.038380999 0.14375 -0.225329
-0.038378999 0.14382 -0.22532
-0.038376 0.14388999 -0.22531199
-0.038373999 0.143962 -0.225308
-0.038371 0.144034 -0.225308
-0.038368002 0.14410301 -0.22530299
-0.038366001 0.14417499 -0.225289
-0.038364001 0.144245 -0.225271
-0.038362 0.144316 -0.22526
-0.03836 0.14438599 -0.225252
-0.038357001 0.144458 -0.225242
-0.038355 0.144528 -0.225229
-0.038353 0.14459699 -0.225217
-0.038350999 0.144669 -0.22520299
-0.038348999 0.144739 -0.22519
-0.038346 0.144811 -0.22518601
-0.038344 0.144881 -0.22518601
-0.038341001 0.144952 -0.225182
-0.038339 0.145022 -0.225169
-0.038337 0.145092 -0.22514699
-0.038334999 0.145163 -0.22512899
-0.038332999 0.14523301 -0.225114
-0.038330998 0.145302 -0.22510201
-0.038329002 0.145374 -0.22509
-0.038327001 0.14544401 -0.225071
-0.038325001 0.145513 -0.22505499
-0.038323 0.145585 -0.22504701
-0.038320001 0.14565501 -0.225042
-0.038318001 0.145725 -0.225034
-0.038316 0.145794 -0.225006
-0.038314998 0.14586499 -0.224977
-0.038313001 0.145935 -0.224967
-0.038309999 0.146005 -0.224969
-0.038307 0.14607701 -0.224968
-0.038304999 0.146147 -0.22495399
-0.038302999 0.146218 -0.22493801
-0.0383 0.14628799 -0.22493701
-0.038298 0.146358 -0.224929
-0.038295999 0.14643 -0.22491901
-0.038293 0.14650001 -0.224914
-0.038291 0.146571 -0.224896
-0.038288999 0.146641 -0.224876
-0.038286999 0.14671101 -0.224869
-0.038284998 0.14678 -0.22485501
-0.038283002 0.14685 -0.224841
-0.038281001 0.14692201 -0.224831
-0.038279001 0.146991 -0.22481801
-0.038276002 0.14706101 -0.224814
-0.038272999 0.14713299 -0.22482
-0.038268998 0.14720599 -0.22483499
-0.038265999 0.147278 -0.224841
-0.038263999 0.147347 -0.224831
-0.038261998 0.14741699 -0.224822
-0.038259 0.147489 -0.22481599
-0.038256999 0.147559 -0.224806
-0.038254 0.147631 -0.224802
-0.038251001 0.147701 -0.22480699
-0.038247999 0.147773 -0.22482499
-0.038244002 0.147845 -0.224839
-0.038240999 0.147917 -0.22484
-0.038238 0.14799 -0.22485401
-0.038235001 0.14805999 -0.224856
-0.038233999 0.148129 -0.224821
-0.038231999 0.14819799 -0.224803
-0.038229 0.14827 -0.22480699
-0.038226001 0.14834 -0.224805
-0.038224 0.148412 -0.224796
-0.038221002 0.14848199 -0.224794
-0.038219001 0.148552 -0.224784
-0.038215999 0.148624 -0.224785
-0.038212001 0.148699 -0.224819
-0.038206998 0.148771 -0.224859
-0.038203001 0.148844 -0.224875
-0.038201001 0.14891499 -0.22486199
-0.038199 0.148985 -0.22485
-0.038194999 0.149057 -0.224866
-0.038191002 0.149132 -0.224904
-0.038185999 0.149207 -0.22494499
-0.038180999 0.14928199 -0.22499301
-0.038176 0.14935701 -0.22502901
-0.038169999 0.149432 -0.22508299
-0.038164001 0.149509 -0.22514699
-0.038158 0.14958499 -0.22521099
-0.038152002 0.149662 -0.225273
-0.038146 0.14974 -0.22534899
-0.038137998 0.149822 -0.225445
-0.038127001 0.149905 -0.22559901
-0.038118001 0.149988 -0.225725
-0.038109999 0.15007 -0.225825
-0.038102001 0.150151 -0.225941
-0.038095001 0.15023001 -0.226019
-0.039019998 0.12048 -0.226142
-0.039021 0.12056 -0.22606
-0.039021 0.120638 -0.22599
-0.039021 0.120717 -0.22592799
-0.039019998 0.120794 -0.225889
-0.039019 0.120869 -0.225843
-0.039018001 0.120948 -0.225793
-0.039016999 0.121021 -0.225765
-0.039014999 0.121094 -0.225739
-0.039014 0.12117 -0.22571
-0.039012 0.121243 -0.225678
-0.039011002 0.121318 -0.22565
-0.039009001 0.121392 -0.225622
-0.039007001 0.121467 -0.22559699
-0.039005 0.121541 -0.22557899
-0.039004002 0.121612 -0.225559
-0.039000999 0.121686 -0.225545
-0.038998999 0.121758 -0.22554401
-0.038996 0.121828 -0.225536
-0.038993999 0.121901 -0.22553
-0.038989998 0.121972 -0.225539
-0.038987 0.122042 -0.225549
-0.038984001 0.122112 -0.22555301
-0.038982 0.122182 -0.225549
-0.03898 0.122255 -0.225536
-0.038977001 0.122327 -0.22552601
-0.038973998 0.122399 -0.22553
-0.038970999 0.122469 -0.225539
-0.038968001 0.122539 -0.225545
-0.038965002 0.122611 -0.225539
-0.038963001 0.122683 -0.225529
-0.038959999 0.122755 -0.225532
-0.038957 0.122825 -0.22553401
-0.038954999 0.122895 -0.22553401
-0.038950998 0.122967 -0.225541
-0.038947999 0.123037 -0.22555099
-0.038945001 0.123108 -0.225563
-0.038942002 0.123177 -0.22556201
-0.038940001 0.123249 -0.22555
-0.038936999 0.123321 -0.225548
-0.038934 0.123391 -0.225556
-0.038931001 0.123461 -0.225565
-0.038927998 0.123533 -0.225565
-0.038926002 0.123603 -0.225563
-0.038922999 0.123675 -0.225566
-0.03892 0.123745 -0.22556999
-0.038917001 0.123818 -0.225576
-0.038913999 0.123888 -0.22558001
-0.038911 0.123958 -0.225585
-0.038908001 0.12403 -0.225583
-0.038904998 0.1241 -0.22558101
-0.038902 0.124172 -0.225586
-0.038899001 0.124242 -0.225602
-0.038895 0.12431 -0.22562
-0.038892001 0.12438 -0.225631
-0.038888998 0.124452 -0.22562499
-0.038887002 0.124524 -0.22561701
-0.038883999 0.124596 -0.225613
-0.038881 0.124666 -0.225624
-0.038876999 0.124737 -0.225642
-0.038874 0.124805 -0.225656
-0.038871001 0.124877 -0.225665
-0.038867999 0.124947 -0.225675
-0.038865 0.125017 -0.22568101
-0.038862001 0.125089 -0.225676
-0.038858999 0.125159 -0.225676
-0.038856 0.125231 -0.225684
-0.038853001 0.125301 -0.225688
-0.038849998 0.12537099 -0.225693
-0.038846999 0.125442 -0.225711
-0.038842998 0.125512 -0.225723
-0.03884 0.12558401 -0.22573
-0.038837001 0.125654 -0.225734
-0.038833998 0.125724 -0.22574
-0.038830999 0.12579601 -0.225742
-0.038828999 0.125866 -0.225743
-0.038825002 0.125938 -0.225749
-0.038821999 0.126009 -0.225759
-0.038819 0.12607899 -0.22576199
-0.038816001 0.126151 -0.22577
-0.038812999 0.126221 -0.22578
-0.03881 0.12629101 -0.22579101
-0.038807001 0.12636299 -0.225793
-0.038803998 0.126433 -0.22579101
-0.038801 0.126505 -0.225789
-0.038798999 0.126577 -0.225788
-0.038796 0.12664901 -0.22578201
-0.038794 0.12672 -0.22577199
-0.038791001 0.126791 -0.225777
-0.038787 0.12686101 -0.22580101
-0.038782999 0.12693 -0.225823
-0.03878 0.127 -0.225841
-0.038775999 0.12706999 -0.22585399
-0.038773999 0.127142 -0.22585
-0.038771 0.127214 -0.225848
-0.038768001 0.12728401 -0.225857
-0.038764 0.127354 -0.225867
-0.038761999 0.127426 -0.225857
-0.038759999 0.1275 -0.225843
-0.038757 0.12757 -0.22585
-0.038752999 0.12763999 -0.22586399
-0.03875 0.127712 -0.225872
-0.038748 0.127782 -0.225869
-0.038745001 0.127854 -0.225861
-0.038743 0.12792601 -0.225857
-0.038740002 0.12799799 -0.225857
-0.038736999 0.12807 -0.225858
-0.038734999 0.128141 -0.225844
-0.038732 0.128213 -0.22583801
-0.038729001 0.12828299 -0.225849
-0.038725998 0.128354 -0.225857
-0.038722001 0.128424 -0.22587501
-0.038718998 0.12849399 -0.225894
-0.038716 0.128566 -0.22588401
-0.038713999 0.12864 -0.22587
-0.038711999 0.128711 -0.22586
-0.038710002 0.128783 -0.22584499
-0.038706999 0.128855 -0.22583701
-0.038704 0.128925 -0.225843
-0.038701002 0.128997 -0.22585499
-0.038697999 0.129067 -0.225866
-0.038695 0.12913799 -0.22587
-0.038692001 0.129209 -0.22587
-0.038688999 0.129281 -0.22586299
-0.038686998 0.129353 -0.22585499
-0.038683999 0.12942301 -0.22586299
-0.038681 0.12949499 -0.225867
-0.038678002 0.129567 -0.22585601
-0.038676001 0.129639 -0.22585
-0.038672999 0.129711 -0.22584599
-0.038671002 0.12978099 -0.225843
-0.038667999 0.129853 -0.225851
-0.038663998 0.129923 -0.22586299
-0.038662001 0.12999301 -0.225862
-0.038658999 0.13006701 -0.22585399
-0.038656998 0.130137 -0.225848
-0.038654 0.130208 -0.22584599
-0.038651001 0.13028 -0.22584701
-0.038648002 0.13034999 -0.225849
-0.038644999 0.130422 -0.22584701
-0.038642999 0.130494 -0.22584
-0.03864 0.130566 -0.225834
-0.038637999 0.130638 -0.225834
-0.038635001 0.13070799 -0.225826
-0.038633 0.13078199 -0.225821
-0.038630001 0.130852 -0.22582699
-0.038626 0.130922 -0.22583701
-0.038623001 0.13099401 -0.22584
-0.038621001 0.13106599 -0.22583599
-0.038619 0.131137 -0.225822
-0.038616002 0.131209 -0.225812
-0.038612999 0.131281 -0.225815
-0.038610999 0.13135099 -0.225813
-0.038608 0.131423 -0.225815
-0.038605001 0.131495 -0.22581799
-0.038603 0.131565 -0.22581001
-0.038600001 0.13163701 -0.225806
-0.038596999 0.13170899 -0.225806
-0.038594998 0.131779 -0.22580101
-0.038592 0.131853 -0.225793
-0.038589001 0.13192201 -0.22579101
-0.038587 0.13199399 -0.22578999
-0.038584001 0.132064 -0.22579201
-0.038580999 0.132136 -0.225796
-0.038578 0.132208 -0.22578999
-0.038575999 0.132278 -0.225793
-0.038571998 0.13235 -0.22579899
-0.038570002 0.132422 -0.225795
-0.038568001 0.13249201 -0.22578201
-0.038564999 0.132566 -0.22577199
-0.038562998 0.132636 -0.225768
-0.038559999 0.132707 -0.225758
-0.038557999 0.132779 -0.225749
-0.038555 0.132851 -0.225751
-0.038552001 0.132921 -0.225759
-0.038548999 0.132993 -0.225766
-0.038546 0.133063 -0.22577199
-0.038543001 0.13313501 -0.225768
-0.038541 0.133205 -0.225766
-0.038538001 0.133277 -0.225767
-0.038534999 0.133349 -0.22576299
-0.038532998 0.133421 -0.225757
-0.03853 0.13349301 -0.225752
-0.038527999 0.133563 -0.225742
-0.038525 0.133634 -0.225734
-0.038523 0.133706 -0.22572599
-0.038520001 0.13377801 -0.225729
-0.038516998 0.133848 -0.225729
-0.038515002 0.13392 -0.225721
-0.038511999 0.133992 -0.225724
-0.038509 0.13406201 -0.22572801
-0.038507 0.13413399 -0.22571599
-0.038504999 0.134205 -0.22569799
-0.038502999 0.134277 -0.22568101
-0.0385 0.134349 -0.225669
-0.038497001 0.13441899 -0.225683
-0.038493 0.134491 -0.225712
-0.038490001 0.134562 -0.22571801
-0.038488001 0.134633 -0.225706
-0.038485002 0.13470501 -0.225702
-0.038481999 0.134775 -0.225705
-0.038479999 0.134847 -0.22569899
-0.038477 0.134919 -0.225693
-0.038474999 0.13498899 -0.225684
-0.038472001 0.13506 -0.225676
-0.038469002 0.135133 -0.225686
-0.038465001 0.135203 -0.225705
-0.038462002 0.13527501 -0.22570901
-0.038460001 0.135345 -0.225705
-0.038456999 0.135417 -0.225701
-0.038454998 0.135488 -0.22569001
-0.038453002 0.13556001 -0.225678
-0.038449999 0.13563 -0.225678
-0.038447 0.1357 -0.22568899
-0.038444001 0.135772 -0.225687
-0.038440999 0.13584401 -0.225685
-0.038438 0.13591599 -0.22569101
-0.038435001 0.135986 -0.22569001
-0.038433 0.136058 -0.225686
-0.038430002 0.13612799 -0.225692
-0.038426001 0.1362 -0.225705
-0.038423002 0.136273 -0.22570699
-0.038421001 0.136343 -0.22570901
-0.038417999 0.136415 -0.225713
-0.038415 0.13648599 -0.22570001
-0.038414001 0.136556 -0.22568201
-0.038410999 0.136628 -0.22566999
-0.038408998 0.13669901 -0.225659
-0.038407002 0.136769 -0.225649
-0.038403999 0.136841 -0.225639
-0.038401 0.136913 -0.225649
-0.038398001 0.13698301 -0.225668
-0.038394999 0.13705499 -0.225666
-0.038392 0.137127 -0.225658
-0.038389001 0.137197 -0.22566301
-0.038385998 0.13726901 -0.225669
-0.038384002 0.13734099 -0.22566099
-0.038380999 0.137411 -0.22565401
-0.038378999 0.137483 -0.22564401
-0.038376998 0.137554 -0.225638
-0.038373999 0.137624 -0.225638
-0.038371 0.137697 -0.225649
-0.038368002 0.137767 -0.22565299
-0.038364999 0.13783801 -0.22564299
-0.038362999 0.13790999 -0.22563601
-0.03836 0.13798 -0.22564
-0.038357999 0.138052 -0.225628
-0.038355999 0.13812301 -0.22560801
-0.038353 0.138193 -0.225609
-0.038348999 0.138266 -0.22562701
-0.038346 0.138336 -0.225629
-0.038344 0.13840801 -0.225628
-0.038341001 0.13847999 -0.225632
-0.038338002 0.13855 -0.225628
-0.038336001 0.138621 -0.22562
-0.038332999 0.13869099 -0.22561499
-0.03833 0.138763 -0.22561499
-0.038327999 0.138835 -0.225611
-0.038325001 0.138905 -0.22560801
-0.038322002 0.13897701 -0.22561
-0.038318999 0.13904899 -0.225618
-0.038316 0.139119 -0.225623
-0.038314 0.139191 -0.225619
-0.038311001 0.13926101 -0.225619
-0.038307998 0.13933299 -0.22561499
-0.038306002 0.139405 -0.225596
-0.038304001 0.139476 -0.22558001
-0.038302001 0.13954601 -0.225574
-0.038299002 0.13961799 -0.225567
-0.038297001 0.139688 -0.22556099
-0.038293999 0.139759 -0.22555301
-0.038291998 0.13983101 -0.225547
-0.038288001 0.139902 -0.225566
-0.038284998 0.139974 -0.225574
-0.038282 0.140046 -0.22556999
-0.038279999 0.14011601 -0.225567
-0.038277 0.14018799 -0.225567
-0.038274001 0.140258 -0.22556899
-0.038272001 0.140329 -0.225565
-0.038268998 0.14040101 -0.22555199
-0.038268 0.140471 -0.22553401
-0.038265001 0.140542 -0.22552601
-0.038261998 0.140613 -0.225531
-0.038259 0.14068501 -0.225541
-0.038256001 0.14075699 -0.225545
-0.038252998 0.140827 -0.225548
-0.038249999 0.140899 -0.22555199
-0.038247 0.14096899 -0.22555199
-0.038244002 0.141041 -0.22555
-0.038242001 0.141113 -0.225547
-0.038238999 0.14118201 -0.225541
-0.038237002 0.14125399 -0.225539
-0.038233999 0.141326 -0.225532
-0.038233001 0.141396 -0.225508
-0.038229998 0.14146701 -0.2255
-0.038226999 0.14153799 -0.22550701
-0.038224999 0.141609 -0.225499
-0.038222998 0.141679 -0.225475
-0.03822 0.14175101 -0.225473
-0.038217001 0.14182299 -0.225476
-0.038215 0.141893 -0.225472
-0.038213 0.141964 -0.22545999
-0.038210001 0.14203399 -0.225453
-0.038208 0.142106 -0.22545099
-0.038205002 0.142178 -0.22545099
-0.038201999 0.142248 -0.225453
-0.038199 0.14232001 -0.225456
-0.038196001 0.14239 -0.22545201
-0.038194001 0.142462 -0.22544201
-0.038192 0.14253201 -0.225437
-0.038189001 0.142603 -0.22543301
-0.038187001 0.142675 -0.225421
-0.038183998 0.142745 -0.225416
-0.038180999 0.14281701 -0.22542
-0.038178001 0.142887 -0.22542199
-0.038176 0.142959 -0.22541399
-0.038174 0.143031 -0.22540499
-0.038171001 0.14309999 -0.225399
-0.038169 0.14317 -0.225391
-0.038167 0.143242 -0.225376
-0.038164999 0.14331201 -0.225362
-0.038162 0.143383 -0.22535001
-0.03816 0.143453 -0.225337
-0.038158 0.143525 -0.22532301
-0.038155999 0.143594 -0.225311
-0.038153 0.143666 -0.225306
-0.038151 0.143738 -0.225302
-0.038148001 0.14380801 -0.22530399
-0.038146 0.143878 -0.225298
-0.038144 0.143949 -0.22527499
-0.038141999 0.14401899 -0.22524901
-0.038139999 0.144091 -0.225245
-0.038137 0.14416 -0.22524001
-0.038134001 0.144232 -0.22524001
-0.038132001 0.144302 -0.22524001
-0.038129002 0.144374 -0.225235
-0.038127001 0.144446 -0.225225
-0.038125001 0.14451601 -0.225209
-0.038123 0.144585 -0.22519401
-0.038120002 0.144657 -0.225192
-0.038118001 0.14472701 -0.22518601
-0.038116001 0.144798 -0.22516599
-0.038114 0.144868 -0.225153
-0.038112 0.14493801 -0.225137
-0.038109999 0.145009 -0.22511899
-0.038107999 0.145079 -0.225104
-0.038105998 0.14514799 -0.22508401
-0.038104001 0.145218 -0.225076
-0.038100999 0.14529 -0.22507501
-0.038098 0.145362 -0.225071
-0.038096 0.145432 -0.225061
-0.038093999 0.145501 -0.22504599
-0.038091999 0.14557099 -0.225022
-0.038090002 0.145641 -0.22500999
-0.038088001 0.145712 -0.225005
-0.038084999 0.14578401 -0.225003
-0.038082998 0.145854 -0.224997
-0.038081001 0.145924 -0.22498199
-0.038079001 0.14599299 -0.224952
-0.038077999 0.146065 -0.22493
-0.038075 0.146134 -0.224923
-0.038073 0.14620399 -0.22491901
-0.038070001 0.146276 -0.22491699
-0.038068 0.146346 -0.224906
-0.038066 0.146415 -0.22487999
-0.038063999 0.146485 -0.22486
-0.038061999 0.146557 -0.22486199
-0.038059 0.14662699 -0.224861
-0.038056999 0.146698 -0.224843
-0.038054999 0.146768 -0.224833
-0.038052 0.14683799 -0.224828
-0.03805 0.14691 -0.22481599
-0.038047999 0.146979 -0.224804
-0.038045999 0.14704899 -0.224793
-0.038043 0.147121 -0.224783
-0.038040001 0.147191 -0.22479101
-0.038036998 0.14726301 -0.224806
-0.038034 0.14733499 -0.22480799
-0.038031001 0.147405 -0.22479799
-0.038029 0.147477 -0.22479799
-0.038024999 0.147549 -0.224815
-0.038022 0.14761899 -0.224813
-0.03802 0.147691 -0.22480901
-0.038017001 0.147761 -0.22481801
-0.038013 0.147834 -0.224832
-0.038010001 0.14790601 -0.224842
-0.038006999 0.14797799 -0.22484
-0.038004 0.14805 -0.22485299
-0.037999999 0.148122 -0.22487099
-0.037997 0.148192 -0.224875
-0.037994001 0.14826401 -0.224875
-0.037992001 0.14833599 -0.22487199
-0.037989002 0.148406 -0.22486
-0.037987001 0.148476 -0.224858
-0.037983 0.14854801 -0.22487099
-0.037980001 0.14861999 -0.22488301
-0.037976999 0.148692 -0.22488301
-0.037974 0.148762 -0.22488201
-0.037971001 0.148834 -0.224884
-0.037967999 0.14890601 -0.224888
-0.037964001 0.14897899 -0.224914
-0.037958998 0.14905401 -0.224962
-0.037955001 0.149128 -0.224981
-0.037951 0.14920101 -0.22500899
-0.037946999 0.149276 -0.225045
-0.037942 0.14935 -0.22508299
-0.037935998 0.149426 -0.225141
-0.037930001 0.14950299 -0.225215
-0.037921999 0.149583 -0.22530501
-0.037912 0.149666 -0.225449
-0.037904002 0.149749 -0.225555
-0.037896998 0.149829 -0.22564299
-0.037889 0.14990699 -0.22573701
-0.037884001 0.149984 -0.225785
-0.037877001 0.150061 -0.22585499
-0.037870001 0.150141 -0.225945
-0.037863001 0.15021899 -0.22601999
-0.037857 0.150296 -0.22608399
-0.038851999 0.12054 -0.22615001
-0.038851999 0.120618 -0.22608
-0.038853001 0.120699 -0.226004
-0.038853999 0.120779 -0.225914
-0.038853999 0.120857 -0.22585399
-0.038851999 0.120933 -0.225822
-0.038851 0.121008 -0.225787
-0.038849998 0.121083 -0.22575299
-0.038848002 0.121158 -0.225715
-0.038846999 0.121231 -0.22568899
-0.038844999 0.121307 -0.225668
-0.038842998 0.121379 -0.22565401
-0.038841002 0.121452 -0.22563601
-0.038839001 0.121526 -0.225614
-0.038837001 0.121597 -0.225601
-0.038835 0.121671 -0.225585
-0.038833 0.121744 -0.22556099
-0.038830999 0.121816 -0.225549
-0.038828 0.121888 -0.22555199
-0.038825002 0.121958 -0.225554
-0.038821999 0.12203 -0.225558
-0.038819 0.122102 -0.225549
-0.038817 0.122174 -0.225539
-0.038814001 0.122244 -0.22554301
-0.038810998 0.122314 -0.22555301
-0.038807001 0.122384 -0.225568
-0.038805 0.122456 -0.225564
-0.038803 0.122528 -0.22555199
-0.038800001 0.122598 -0.225555
-0.038796 0.122668 -0.22556899
-0.038793001 0.12274 -0.225573
-0.038791001 0.12281 -0.22556999
-0.038787998 0.122882 -0.225564
-0.038786002 0.122954 -0.22555999
-0.038782999 0.123026 -0.225556
-0.03878 0.123098 -0.22555301
-0.038777001 0.123168 -0.225563
-0.038773999 0.123236 -0.225573
-0.038771 0.123308 -0.225572
-0.038768999 0.123382 -0.22555999
-0.038766999 0.123453 -0.225548
-0.038764 0.123525 -0.225538
-0.038761001 0.123595 -0.225541
-0.038759001 0.123667 -0.22554301
-0.038756002 0.123739 -0.225539
-0.038752999 0.123809 -0.22554401
-0.03875 0.123879 -0.225548
-0.038747001 0.123951 -0.22554401
-0.038743999 0.124023 -0.225546
-0.038741 0.124091 -0.225559
-0.038738001 0.124161 -0.22557101
-0.038734999 0.124233 -0.225575
-0.038732 0.124304 -0.22558001
-0.038729001 0.124374 -0.225584
-0.038725998 0.124446 -0.225586
-0.038722999 0.124518 -0.225587
-0.038720001 0.124586 -0.225603
-0.038716 0.124656 -0.22561701
-0.038713001 0.124726 -0.225619
-0.038710002 0.124798 -0.225624
-0.038708001 0.124868 -0.22562601
-0.038704999 0.12494 -0.225628
-0.038702 0.12501 -0.225637
-0.038697999 0.125081 -0.225651
-0.038695 0.12515099 -0.225655
-0.038692001 0.125223 -0.225655
-0.038690001 0.125293 -0.225658
-0.038686 0.12536301 -0.22566999
-0.038683001 0.125433 -0.22567999
-0.038679998 0.125503 -0.22569101
-0.038677 0.12557501 -0.22569101
-0.038674001 0.12564699 -0.22569101
-0.038671002 0.125718 -0.22570001
-0.038667001 0.125788 -0.22571599
-0.038663998 0.12585799 -0.22572801
-0.038660999 0.12593 -0.225732
-0.038658001 0.126 -0.225739
-0.038655002 0.12606999 -0.225749
-0.038651999 0.12614 -0.225749
-0.038649 0.126212 -0.225748
-0.038646001 0.12628201 -0.225756
-0.038642999 0.126353 -0.22577
-0.03864 0.126423 -0.225777
-0.038637001 0.126495 -0.225777
-0.038633998 0.12656701 -0.22577301
-0.038631 0.12663899 -0.22577301
-0.038628001 0.126709 -0.225778
-0.038624998 0.126779 -0.225788
-0.038621999 0.126849 -0.22580799
-0.038617998 0.12692 -0.22582699
-0.038615 0.12699001 -0.22582901
-0.038612001 0.12706199 -0.225825
-0.038609002 0.127134 -0.22582901
-0.038607001 0.127204 -0.225832
-0.038603999 0.127276 -0.22582801
-0.038601 0.12734801 -0.22583
-0.038598001 0.127418 -0.225835
-0.038594998 0.127488 -0.225843
-0.038592 0.12756 -0.225849
-0.038589001 0.12763201 -0.225843
-0.038587 0.127703 -0.22582801
-0.038585 0.127775 -0.225822
-0.038582001 0.127845 -0.225826
-0.038578998 0.12791701 -0.225833
-0.038575001 0.127988 -0.225841
-0.038571998 0.12806 -0.225851
-0.038570002 0.12813 -0.22584599
-0.038566999 0.12820099 -0.22583599
-0.038564 0.128273 -0.225842
-0.038561001 0.128343 -0.225844
-0.038559001 0.128417 -0.225831
-0.038557 0.128489 -0.225823
-0.038554002 0.12855899 -0.225833
-0.038550001 0.128629 -0.225844
-0.038548 0.128701 -0.22584
-0.038545001 0.128773 -0.22583599
-0.038541999 0.12884501 -0.22583801
-0.038539 0.128915 -0.225839
-0.038536999 0.128987 -0.225835
-0.038534001 0.12905701 -0.22583701
-0.038531002 0.12912899 -0.22584701
-0.038527001 0.129199 -0.22585601
-0.038525 0.129271 -0.225858
-0.038520999 0.12934101 -0.22586399
-0.038518999 0.12941299 -0.225867
-0.038516 0.129485 -0.22585499
-0.038513999 0.129557 -0.225839
-0.038511999 0.129629 -0.22583599
-0.038509 0.129701 -0.225832
-0.038506001 0.12977199 -0.225826
-0.038504001 0.12984399 -0.225822
-0.038500998 0.129914 -0.22582699
-0.038497999 0.129985 -0.22583701
-0.038495 0.13005599 -0.22582699
-0.038493 0.130128 -0.225814
-0.038490001 0.1302 -0.225816
-0.038486999 0.130272 -0.22581799
-0.038485002 0.13034201 -0.225814
-0.038481999 0.13041399 -0.225811
-0.038479 0.130486 -0.225813
-0.038477 0.130558 -0.22580899
-0.038474001 0.130629 -0.22580101
-0.038470998 0.13069899 -0.225802
-0.038468 0.13077199 -0.22581001
-0.038465001 0.130842 -0.225812
-0.038462002 0.130914 -0.225815
-0.038458999 0.13098399 -0.225821
-0.038456999 0.131056 -0.22581901
-0.038454 0.131127 -0.22581001
-0.038451001 0.131199 -0.22581001
-0.038447998 0.13126899 -0.22581799
-0.038445 0.13134199 -0.225826
-0.038442001 0.131412 -0.22582699
-0.03844 0.131484 -0.225823
-0.038437001 0.13155501 -0.225811
-0.038435001 0.13162699 -0.225798
-0.038433 0.131699 -0.225784
-0.038431 0.13177 -0.22578
-0.038428001 0.131842 -0.225784
-0.038424999 0.13191199 -0.225785
-0.038422 0.131984 -0.225785
-0.038419001 0.132054 -0.225787
-0.038417 0.132126 -0.22578
-0.038414001 0.13219801 -0.225768
-0.038412001 0.13226999 -0.22576199
-0.038408998 0.132342 -0.22576401
-0.038406 0.132412 -0.225765
-0.038403999 0.132484 -0.225757
-0.038401 0.13255499 -0.22575299
-0.038398001 0.132625 -0.22575399
-0.038396001 0.132697 -0.225752
-0.038392998 0.132769 -0.22575
-0.038391002 0.13284101 -0.22574
-0.038387999 0.13291299 -0.225731
-0.038385 0.132983 -0.225739
-0.038382001 0.133055 -0.225741
-0.038380001 0.13312501 -0.22574
-0.038376 0.13319699 -0.22574399
-0.038373999 0.133269 -0.225738
-0.038371999 0.13334 -0.22572599
-0.038369 0.133412 -0.225721
-0.038366999 0.13348199 -0.225715
-0.038364001 0.133554 -0.22570699
-0.038362 0.133626 -0.225704
-0.038359001 0.133696 -0.22570001
-0.038355999 0.13376801 -0.22570001
-0.038353998 0.13383999 -0.22569799
-0.038350999 0.13391 -0.225697
-0.038348 0.133982 -0.225697
-0.038345002 0.13405301 -0.225695
-0.038343001 0.13412499 -0.225692
-0.038339999 0.134195 -0.225694
-0.038337 0.134267 -0.225696
-0.038334001 0.134339 -0.225696
-0.038332 0.134409 -0.225693
-0.038329002 0.134481 -0.22568899
-0.038325999 0.134553 -0.225683
-0.038323998 0.13462301 -0.22568201
-0.038321 0.13469499 -0.225688
-0.038318001 0.134765 -0.225692
-0.038314998 0.134837 -0.225693
-0.038311999 0.13490701 -0.225697
-0.038309 0.13497899 -0.225697
-0.038307 0.135051 -0.225683
-0.038304999 0.135122 -0.22567201
-0.038302001 0.13519201 -0.225676
-0.038298 0.13526499 -0.225686
-0.038295999 0.135335 -0.225687
-0.038293 0.135406 -0.225677
-0.038291 0.135478 -0.225673
-0.038288001 0.13555001 -0.225673
-0.038284998 0.13562 -0.22566999
-0.038282 0.135692 -0.225678
-0.038279001 0.13576201 -0.225688
-0.038276002 0.13583399 -0.225685
-0.038274001 0.135906 -0.225675
-0.038272001 0.135976 -0.225665
-0.038268998 0.136048 -0.225657
-0.038267002 0.13611899 -0.22564401
-0.038265001 0.136191 -0.22563601
-0.038261 0.136261 -0.22564401
-0.038258001 0.136334 -0.225657
-0.038254999 0.13640399 -0.225659
-0.038252 0.136476 -0.225659
-0.038249999 0.136547 -0.225647
-0.038247999 0.136619 -0.22563399
-0.038245 0.13668901 -0.225638
-0.038242001 0.136759 -0.22564401
-0.038238999 0.136831 -0.22565299
-0.038236 0.136903 -0.22565299
-0.038233999 0.13697501 -0.22564299
-0.038231 0.137045 -0.225632
-0.038229 0.137116 -0.22562
-0.038226999 0.137188 -0.225614
-0.038224 0.13725799 -0.22561599
-0.038221002 0.13733 -0.22562499
-0.038217001 0.137401 -0.225637
-0.038214002 0.137473 -0.225647
-0.038210999 0.13754299 -0.22565199
-0.038208 0.137615 -0.225648
-0.038206 0.137687 -0.22564
-0.038203999 0.137756 -0.225632
-0.038201001 0.13782801 -0.22562701
-0.038198002 0.13789999 -0.225631
-0.038194999 0.13797 -0.225637
-0.038192 0.138042 -0.22563399
-0.03819 0.13811401 -0.225622
-0.038187999 0.138184 -0.225614
-0.038183998 0.138256 -0.22562601
-0.038180999 0.138326 -0.22563501
-0.038178999 0.13839801 -0.22562499
-0.038176998 0.138469 -0.225609
-0.038174 0.138539 -0.225604
-0.038171001 0.138612 -0.225618
-0.038167 0.13868199 -0.22563399
-0.038164999 0.138754 -0.22563
-0.038162999 0.138825 -0.225613
-0.038160998 0.138895 -0.22559901
-0.038158 0.13896701 -0.225601
-0.038155001 0.13903899 -0.22560599
-0.038152002 0.139109 -0.22559801
-0.038150001 0.139181 -0.225582
-0.038148001 0.13925 -0.225573
-0.038144998 0.139322 -0.225573
-0.038141999 0.139394 -0.225577
-0.038139999 0.139466 -0.225565
-0.038137 0.13953599 -0.22556201
-0.038134001 0.139608 -0.225566
-0.038132001 0.139678 -0.225568
-0.038129002 0.13975 -0.22557101
-0.038125999 0.13982201 -0.22557101
-0.038123999 0.139892 -0.225557
-0.038121 0.139963 -0.225548
-0.038118999 0.140035 -0.22554401
-0.038116001 0.14010499 -0.225538
-0.038114 0.140177 -0.225536
-0.038111001 0.140247 -0.22553501
-0.038109001 0.140319 -0.22552299
-0.038105998 0.14039101 -0.225519
-0.038102999 0.140461 -0.225532
-0.0381 0.140533 -0.225536
-0.038097002 0.14060301 -0.225532
-0.038095001 0.140674 -0.225518
-0.038093001 0.140746 -0.225501
-0.038090002 0.140816 -0.22549701
-0.038086999 0.14088801 -0.22550499
-0.038084999 0.140958 -0.22549801
-0.038082 0.14103 -0.22549
-0.038079001 0.141102 -0.225492
-0.038075998 0.14117201 -0.225501
-0.038073 0.14124399 -0.225509
-0.038070999 0.141314 -0.225503
-0.038068 0.141385 -0.225493
-0.038066 0.14145701 -0.22548801
-0.038063001 0.141527 -0.225482
-0.038061 0.141599 -0.225476
-0.038058002 0.14166901 -0.225475
-0.038056001 0.14174099 -0.22546101
-0.038054001 0.14181 -0.225447
-0.038051002 0.141882 -0.225444
-0.038047999 0.141954 -0.225448
-0.038045 0.142024 -0.225458
-0.038042001 0.142096 -0.225454
-0.038040001 0.142168 -0.22544099
-0.038038 0.14223801 -0.22543301
-0.038036 0.14230999 -0.22542299
-0.038033001 0.142379 -0.22541399
-0.038031001 0.14244901 -0.225402
-0.038028002 0.14252099 -0.225398
-0.038024999 0.142593 -0.22540601
-0.038022 0.142665 -0.225409
-0.038019001 0.142735 -0.225417
-0.038015999 0.14280701 -0.225421
-0.038013998 0.142877 -0.22541
-0.038012002 0.142949 -0.225398
-0.038008999 0.14302 -0.225392
-0.038006999 0.14308999 -0.225385
-0.038005002 0.14316 -0.22537699
-0.038001999 0.143232 -0.225371
-0.037999999 0.14330199 -0.22535899
-0.037997998 0.143373 -0.225346
-0.037994999 0.143445 -0.225338
-0.037992999 0.14351501 -0.225328
-0.037990998 0.14358699 -0.225319
-0.037988 0.143656 -0.225309
-0.037987001 0.14372601 -0.22528701
-0.037985001 0.143797 -0.22527
-0.037981998 0.143867 -0.22526599
-0.037978999 0.143939 -0.22526801
-0.037976999 0.14400899 -0.225263
-0.037974998 0.144081 -0.225251
-0.037971999 0.144151 -0.225237
-0.037969999 0.14422201 -0.225229
-0.037967 0.144292 -0.225228
-0.037965 0.144364 -0.225224
-0.037962001 0.144436 -0.225218
-0.03796 0.14450601 -0.22521301
-0.037957001 0.144576 -0.22520299
-0.037955001 0.144647 -0.225191
-0.037953001 0.14471699 -0.22517601
-0.037951 0.144788 -0.22515801
-0.037949 0.144858 -0.225142
-0.037946999 0.14492799 -0.225135
-0.037944 0.145 -0.22513101
-0.037942 0.14507 -0.225123
-0.037939999 0.14514101 -0.22510999
-0.037937 0.145211 -0.22510201
-0.037935998 0.145281 -0.22508401
-0.037932999 0.14535201 -0.22507
-0.037930999 0.145422 -0.225069
-0.037928 0.145494 -0.225059
-0.037926 0.145564 -0.225045
-0.037923999 0.145633 -0.225032
-0.037921999 0.145705 -0.225024
-0.037919998 0.14577501 -0.225012
-0.037918001 0.145844 -0.22499099
-0.037916001 0.145914 -0.22497299
-0.037914 0.14598601 -0.22496501
-0.037911002 0.146055 -0.22496
-0.037909001 0.146127 -0.224952
-0.037905999 0.14619701 -0.224948
-0.037904002 0.14626899 -0.224941
-0.037902001 0.146338 -0.224921
-0.037900001 0.14640801 -0.22490899
-0.037896998 0.146478 -0.224904
-0.037895001 0.14655 -0.22489201
-0.037893001 0.14661901 -0.224878
-0.037891001 0.146689 -0.22487099
-0.037888002 0.146761 -0.22487301
-0.037884999 0.14683101 -0.224869
-0.037882999 0.14690299 -0.22486299
-0.03788 0.146973 -0.22485401
-0.037877999 0.14704201 -0.22484399
-0.037875 0.14711501 -0.224852
-0.037873 0.147186 -0.224841
-0.037870999 0.147256 -0.224813
-0.037868999 0.14732499 -0.224803
-0.037866 0.14739799 -0.22481599
-0.037861999 0.14747 -0.224834
-0.037859 0.14754 -0.224842
-0.037856001 0.14761201 -0.22485
-0.037852 0.14768399 -0.224857
-0.03785 0.147754 -0.22485501
-0.037847001 0.147826 -0.224861
-0.037843 0.147899 -0.224869
-0.037840001 0.147971 -0.224878
-0.037836999 0.14804301 -0.22488999
-0.037834 0.148113 -0.22488999
-0.037831001 0.148185 -0.22489101
-0.037827998 0.148257 -0.224905
-0.037825 0.148329 -0.224911
-0.037822001 0.148399 -0.224905
-0.03782 0.148469 -0.224898
-0.037817001 0.148541 -0.224898
-0.037813999 0.14861301 -0.22491001
-0.037810002 0.14868499 -0.224925
-0.037806999 0.14875799 -0.224933
-0.037803002 0.14883 -0.22494701
-0.037799001 0.148904 -0.224969
-0.037795 0.148977 -0.224997
-0.037792001 0.149049 -0.22500999
-0.037788 0.149122 -0.225036
-0.037783001 0.149197 -0.225078
-0.037778001 0.14927299 -0.22511999
-0.037772998 0.14934801 -0.22516599
-0.037767 0.149424 -0.225225
-0.037760999 0.149501 -0.225293
-0.037751999 0.149584 -0.225417
-0.037741002 0.14966699 -0.225564
-0.037733998 0.149747 -0.225658
-0.037726998 0.149827 -0.225738
-0.037721001 0.149902 -0.22579101
-0.037717 0.149977 -0.225821
-0.037710998 0.15005399 -0.22588301
-0.037703998 0.150134 -0.225967
-0.037698001 0.15021101 -0.22603101
-0.037691999 0.150289 -0.22609501
-0.038761999 0.12061 -0.22610199
-0.038761999 0.120688 -0.22603101
-0.038764 0.120772 -0.22593901
-0.038763002 0.120849 -0.225887
-0.038761999 0.120924 -0.22584499
-0.038761001 0.121001 -0.225805
-0.038759001 0.121074 -0.225775
-0.038757998 0.12115 -0.22575
-0.038756002 0.121223 -0.22571801
-0.038755 0.121298 -0.22569001
-0.038752999 0.121372 -0.22566
-0.038750999 0.121445 -0.22564299
-0.038748998 0.121519 -0.225631
-0.038747001 0.121591 -0.22561499
-0.038745001 0.121664 -0.225601
-0.038743 0.121736 -0.225582
-0.038741 0.121809 -0.225568
-0.038738001 0.121881 -0.22555999
-0.038734999 0.121951 -0.225563
-0.038732 0.122023 -0.225565
-0.038729001 0.122094 -0.225577
-0.038725998 0.122162 -0.22558799
-0.038722999 0.122234 -0.22558799
-0.038720001 0.122306 -0.22559001
-0.038717002 0.122376 -0.22559001
-0.038715001 0.122448 -0.22558901
-0.038711999 0.122519 -0.225583
-0.038710002 0.122591 -0.225577
-0.038706999 0.122661 -0.22558001
-0.038704 0.122733 -0.22558001
-0.038701002 0.122803 -0.225582
-0.038697999 0.122873 -0.22558799
-0.038695998 0.122947 -0.22558101
-0.038693 0.123019 -0.22556899
-0.038690999 0.123091 -0.225557
-0.038688999 0.123162 -0.22555
-0.038686 0.123234 -0.225548
-0.038683001 0.123306 -0.225548
-0.038679998 0.123376 -0.22555199
-0.038677 0.123446 -0.225555
-0.038674999 0.123518 -0.22555301
-0.038672 0.123588 -0.22555301
-0.038669001 0.123662 -0.22554199
-0.038667001 0.123732 -0.22554
-0.038663 0.123802 -0.22555199
-0.038660999 0.123874 -0.22555199
-0.038658001 0.123944 -0.225555
-0.038655002 0.124016 -0.22556099
-0.038651999 0.124086 -0.225559
-0.038649 0.124158 -0.225566
-0.038646001 0.124228 -0.225572
-0.038642999 0.124298 -0.225576
-0.03864 0.124369 -0.22558101
-0.038637001 0.124441 -0.225583
-0.038633998 0.124511 -0.225587
-0.038631 0.124581 -0.225595
-0.038628001 0.124653 -0.2256
-0.038624998 0.124723 -0.225602
-0.038621999 0.124793 -0.22561
-0.038617998 0.124863 -0.225629
-0.038615 0.124933 -0.225637
-0.038612999 0.12500501 -0.225633
-0.03861 0.12507699 -0.225631
-0.038607001 0.125147 -0.225638
-0.038603 0.125218 -0.22565401
-0.038600001 0.12528799 -0.225664
-0.038596999 0.125358 -0.225669
-0.038594 0.12543 -0.22567099
-0.038591001 0.12549999 -0.225677
-0.038587999 0.12557 -0.225686
-0.038585 0.12564 -0.225696
-0.038582001 0.12571301 -0.22570001
-0.038578 0.125783 -0.225712
-0.038575001 0.125853 -0.225723
-0.038571998 0.125925 -0.22572701
-0.038569 0.125995 -0.225733
-0.038566001 0.126065 -0.22574
-0.038562998 0.12613501 -0.22574601
-0.038559999 0.12620699 -0.225752
-0.038557 0.126277 -0.22575299
-0.038554002 0.126349 -0.22575299
-0.038550999 0.12642001 -0.22576299
-0.038548 0.12649199 -0.225767
-0.038546 0.126561 -0.22576
-0.038543001 0.126633 -0.22576199
-0.038539 0.12670401 -0.225776
-0.038536999 0.126774 -0.225779
-0.038534001 0.126846 -0.22578099
-0.03853 0.12691601 -0.22579899
-0.038525999 0.126985 -0.22582699
-0.038523 0.127055 -0.225842
-0.038520001 0.12712701 -0.22583599
-0.038518 0.12719899 -0.225826
-0.038515002 0.12727 -0.225821
-0.038513001 0.127342 -0.225813
-0.038509998 0.127414 -0.225805
-0.038508002 0.12748601 -0.225803
-0.038504999 0.12755799 -0.225806
-0.038502 0.127628 -0.225812
-0.038497999 0.127698 -0.225824
-0.038495 0.12776899 -0.22583701
-0.038492002 0.127841 -0.225841
-0.038488999 0.127913 -0.225839
-0.038486999 0.12798201 -0.225835
-0.038484 0.12805399 -0.22583599
-0.038481001 0.128126 -0.22584
-0.038477998 0.128196 -0.22584
-0.038474999 0.128268 -0.22583701
-0.038472999 0.12834001 -0.225833
-0.03847 0.12841 -0.225841
-0.038467001 0.128482 -0.22584499
-0.038463999 0.128552 -0.225844
-0.038461 0.12862401 -0.22584
-0.038458999 0.12869599 -0.22584
-0.038456 0.128768 -0.225833
-0.038454 0.12884 -0.22581901
-0.038451001 0.128912 -0.225815
-0.038447998 0.12898199 -0.22582699
-0.038445 0.129052 -0.22583801
-0.038442001 0.129124 -0.22583599
-0.03844 0.129196 -0.225822
-0.038437001 0.12926701 -0.22581901
-0.038435001 0.12933899 -0.225813
-0.038431998 0.129411 -0.225805
-0.038428999 0.129481 -0.225813
-0.038426001 0.12955201 -0.22582801
-0.038423002 0.12962399 -0.22582801
-0.038419999 0.129695 -0.225826
-0.038417 0.129765 -0.22582699
-0.038415 0.12983701 -0.22582699
-0.038412001 0.12990899 -0.225823
-0.038408998 0.129979 -0.225824
-0.038406 0.130053 -0.22582
-0.038403999 0.130123 -0.225812
-0.038401 0.13019501 -0.22580799
-0.038399 0.13026699 -0.22580899
-0.038396001 0.130337 -0.225811
-0.038392998 0.130409 -0.225807
-0.038391002 0.13048001 -0.22579999
-0.038387999 0.13055199 -0.22579999
-0.038385 0.130624 -0.225798
-0.038383 0.130694 -0.225796
-0.038378999 0.130766 -0.225803
-0.038376998 0.130836 -0.225803
-0.038373999 0.130908 -0.225807
-0.038371 0.130979 -0.225816
-0.038368002 0.13105001 -0.225804
-0.038366001 0.131124 -0.22578201
-0.038364001 0.13119601 -0.22577401
-0.038361002 0.131266 -0.22578301
-0.038357999 0.131336 -0.225795
-0.038353998 0.13140801 -0.225805
-0.038352001 0.13147999 -0.22580101
-0.038350001 0.131552 -0.225784
-0.038346998 0.131623 -0.22577401
-0.038345002 0.131695 -0.225768
-0.038341999 0.13176499 -0.225765
-0.038339 0.131837 -0.225771
-0.038336001 0.131907 -0.225775
-0.038332999 0.131979 -0.225776
-0.03833 0.13205101 -0.225776
-0.038327999 0.132121 -0.22577
-0.038325999 0.132193 -0.225758
-0.038323 0.132265 -0.225751
-0.038321 0.132337 -0.225751
-0.038318001 0.13240799 -0.225749
-0.038314998 0.132478 -0.22575
-0.038311999 0.132551 -0.225756
-0.038309 0.13262001 -0.225756
-0.038307 0.13269199 -0.225742
-0.038304999 0.132764 -0.225733
-0.038302001 0.132836 -0.225739
-0.038299002 0.132906 -0.225741
-0.038295999 0.13297801 -0.225732
-0.038293999 0.13304999 -0.22572599
-0.038291 0.13312 -0.225732
-0.038288001 0.133192 -0.22573
-0.038284998 0.13326401 -0.225729
-0.038282 0.133334 -0.225739
-0.038279001 0.133406 -0.22573701
-0.038277 0.133477 -0.22572801
-0.038274001 0.13354699 -0.225724
-0.038272001 0.13362101 -0.225712
-0.03827 0.133691 -0.22570001
-0.038267002 0.133763 -0.225705
-0.038263999 0.133835 -0.22570699
-0.038261998 0.13390499 -0.225697
-0.038259 0.133976 -0.22569001
-0.038256001 0.134049 -0.22569799
-0.038252998 0.134119 -0.225704
-0.038251001 0.13418999 -0.22569001
-0.038249001 0.134262 -0.22567099
-0.038245998 0.134334 -0.225669
-0.038242999 0.134404 -0.225683
-0.038240001 0.13447601 -0.225686
-0.038238 0.13454799 -0.22567201
-0.038235001 0.134618 -0.225674
-0.038231999 0.13469 -0.225684
-0.038229 0.13476001 -0.22568101
-0.038226999 0.13483199 -0.22567099
-0.038224 0.134904 -0.225675
-0.038221002 0.134974 -0.22568201
-0.038217999 0.13504601 -0.22567999
-0.038215 0.135116 -0.22568201
-0.038212001 0.135188 -0.225687
-0.038208999 0.13526 -0.225685
-0.038206998 0.13533001 -0.225685
-0.038203999 0.13540199 -0.225683
-0.038201999 0.135473 -0.22567201
-0.038199 0.135545 -0.225668
-0.038196001 0.13561501 -0.225678
-0.038192999 0.135685 -0.225685
-0.038191002 0.135757 -0.22567099
-0.038187999 0.135829 -0.22566099
-0.038185999 0.135901 -0.22565299
-0.038183 0.13597301 -0.22565
-0.038180001 0.136043 -0.22565401
-0.038176998 0.136115 -0.22566199
-0.038174 0.13618501 -0.225665
-0.038171001 0.13625699 -0.225669
-0.038169 0.136327 -0.225667
-0.038166001 0.136399 -0.225657
-0.038164001 0.13647 -0.22565199
-0.038160998 0.13654201 -0.225646
-0.038158 0.136612 -0.22564401
-0.038155001 0.136684 -0.22565299
-0.038152002 0.13675401 -0.225657
-0.038150001 0.13682599 -0.225651
-0.038146999 0.136898 -0.22564501
-0.038144998 0.13697 -0.225642
-0.038141999 0.13704 -0.22564
-0.038139001 0.13711201 -0.22564401
-0.038136002 0.137182 -0.22564299
-0.038134001 0.137253 -0.225623
-0.038132999 0.137325 -0.22559699
-0.03813 0.13739701 -0.22559801
-0.038125999 0.137467 -0.22562
-0.038123 0.137539 -0.225622
-0.038121 0.137609 -0.225622
-0.038116999 0.13768101 -0.225633
-0.038114998 0.137751 -0.225633
-0.038112 0.137823 -0.225631
-0.038109001 0.137895 -0.22563601
-0.038105998 0.13796499 -0.22563601
-0.038104001 0.138037 -0.22562601
-0.038100999 0.138109 -0.225618
-0.038098 0.138179 -0.225619
-0.038096 0.13825101 -0.225621
-0.038093001 0.138321 -0.225621
-0.038091 0.138392 -0.22560801
-0.038089 0.138464 -0.225594
-0.038086001 0.13853399 -0.225596
-0.038082 0.138606 -0.22560801
-0.038079999 0.138676 -0.22560699
-0.038077999 0.13874801 -0.225591
-0.038075 0.13882001 -0.22557899
-0.038073 0.138889 -0.225572
-0.038070001 0.138962 -0.225582
-0.038066 0.139034 -0.22559801
-0.038063001 0.13910399 -0.225603
-0.038059998 0.139176 -0.22559901
-0.038058002 0.139246 -0.225593
-0.038054999 0.139318 -0.22558901
-0.038052998 0.13939001 -0.22558799
-0.03805 0.139461 -0.22558001
-0.038047999 0.139531 -0.225568
-0.038045999 0.139603 -0.225559
-0.038043 0.13967299 -0.22556099
-0.038040001 0.139745 -0.225557
-0.038036998 0.139817 -0.225557
-0.038035002 0.13988701 -0.225554
-0.038031999 0.13995799 -0.22554401
-0.038029999 0.14003 -0.22554199
-0.038027 0.1401 -0.225541
-0.038024999 0.140172 -0.22553501
-0.038022 0.140242 -0.22553501
-0.038019001 0.140314 -0.225528
-0.038017001 0.140385 -0.225512
-0.038015001 0.14045499 -0.225502
-0.038013 0.140527 -0.225494
-0.038010001 0.140597 -0.225501
-0.038006 0.140669 -0.225511
-0.038004 0.14074101 -0.225509
-0.038001001 0.140811 -0.225502
-0.037997998 0.140883 -0.225504
-0.037994999 0.140953 -0.22551
-0.037992999 0.14102501 -0.22550599
-0.03799 0.14109699 -0.225495
-0.037988 0.141167 -0.225493
-0.037985001 0.141239 -0.225499
-0.037981998 0.14130899 -0.22549801
-0.037978999 0.14138 -0.225492
-0.037976999 0.141452 -0.225482
-0.037974998 0.14152201 -0.225475
-0.037971999 0.14159399 -0.225475
-0.037969001 0.141664 -0.225475
-0.037967 0.141736 -0.22546899
-0.037964001 0.141808 -0.225466
-0.037960999 0.14187799 -0.22545999
-0.037958 0.14195 -0.225466
-0.037955001 0.14202 -0.225475
-0.037953001 0.14209101 -0.22546101
-0.037951 0.14216299 -0.225449
-0.037948001 0.142233 -0.225447
-0.037946001 0.142305 -0.22544201
-0.037943002 0.14237501 -0.22543199
-0.037941001 0.142446 -0.225412
-0.037939001 0.142516 -0.225399
-0.037935998 0.142588 -0.225403
-0.037932999 0.14266001 -0.225407
-0.037930999 0.14273 -0.225408
-0.037928 0.1428 -0.22539601
-0.037926 0.14287101 -0.22538
-0.037923999 0.14294299 -0.225374
-0.037921 0.143013 -0.22537699
-0.037918001 0.143085 -0.225373
-0.037916001 0.14315499 -0.22536699
-0.037914 0.143227 -0.225356
-0.037912 0.143296 -0.225344
-0.037909001 0.14336801 -0.225334
-0.037907001 0.143438 -0.22532301
-0.037905 0.143509 -0.22531299
-0.037902001 0.14357901 -0.22530501
-0.037900001 0.14365099 -0.2253
-0.037896998 0.143723 -0.22529601
-0.037895001 0.143793 -0.225282
-0.037893001 0.14386199 -0.225269
-0.037891001 0.143934 -0.225261
-0.037888002 0.144004 -0.225261
-0.037884999 0.144076 -0.225255
-0.037882999 0.144146 -0.225242
-0.037881002 0.144217 -0.22522999
-0.037879001 0.14428701 -0.22521999
-0.037875999 0.14435899 -0.22521099
-0.037873998 0.144429 -0.225201
-0.037872002 0.1445 -0.225187
-0.037870001 0.14456999 -0.225168
-0.037868001 0.144639 -0.225152
-0.037866 0.14470901 -0.225136
-0.037864 0.14478099 -0.22512899
-0.037861001 0.144853 -0.225133
-0.037857998 0.144923 -0.225135
-0.037856001 0.144995 -0.225125
-0.037852999 0.145064 -0.22511201
-0.037852 0.145134 -0.22509
-0.03785 0.14520299 -0.22506
-0.037849002 0.145272 -0.225025
-0.037845999 0.145344 -0.225031
-0.037842002 0.145417 -0.22505499
-0.037840001 0.14548901 -0.22505
-0.037838001 0.145558 -0.225024
-0.037836999 0.14562801 -0.225004
-0.037834 0.145697 -0.224999
-0.037831001 0.145769 -0.224999
-0.037829001 0.14583901 -0.224997
-0.037826002 0.14591099 -0.22499
-0.037824001 0.145981 -0.22497401
-0.037822001 0.146051 -0.224966
-0.037819002 0.14612199 -0.224958
-0.037817001 0.146192 -0.224953
-0.037813999 0.146264 -0.22494701
-0.037811998 0.14633401 -0.22493701
-0.037810002 0.14640599 -0.22492801
-0.037808001 0.146475 -0.22491799
-0.037804998 0.14654499 -0.22490799
-0.037803002 0.146617 -0.224905
-0.037799999 0.146687 -0.224897
-0.037797999 0.14675599 -0.22488301
-0.037795998 0.146828 -0.224878
-0.037794001 0.146898 -0.22486199
-0.037792001 0.14696699 -0.22483601
-0.03779 0.147037 -0.22483499
-0.037785999 0.14711 -0.224851
-0.037783001 0.147182 -0.224859
-0.037780002 0.14725401 -0.22486299
-0.037776999 0.147324 -0.22486401
-0.037774999 0.147393 -0.22485
-0.037772998 0.14746501 -0.22483601
-0.037769999 0.147535 -0.22483701
-0.037767 0.147607 -0.224841
-0.037764002 0.147679 -0.22485299
-0.037760999 0.14774901 -0.22485401
-0.037758999 0.14782099 -0.224838
-0.037755001 0.147893 -0.22485
-0.037751 0.147966 -0.22488201
-0.037746999 0.148038 -0.22490101
-0.037744001 0.14811 -0.224903
-0.037742 0.148182 -0.224903
-0.037739001 0.148252 -0.22490101
-0.037735999 0.148324 -0.224906
-0.037732001 0.148396 -0.22492
-0.037728999 0.148469 -0.224934
-0.037726 0.148541 -0.224942
-0.037723001 0.14861099 -0.224943
-0.037719999 0.148683 -0.22494701
-0.037716001 0.148755 -0.224959
-0.037714001 0.148825 -0.224958
-0.037710998 0.14889701 -0.22496
-0.037705999 0.148972 -0.224996
-0.037701 0.149047 -0.22503801
-0.037696999 0.149122 -0.22507399
-0.037691999 0.149196 -0.225115
-0.037687 0.149271 -0.225159
-0.037680998 0.14934599 -0.22521301
-0.037675001 0.149424 -0.225273
-0.037668001 0.14950199 -0.225357
-0.037659001 0.14958499 -0.225491
-0.037652999 0.149662 -0.22555099
-0.037645001 0.14974201 -0.22565299
-0.037636999 0.149822 -0.22575501
-0.037631001 0.1499 -0.225815
-0.037625998 0.149977 -0.22586299
-0.037620001 0.150052 -0.225913
-0.037615001 0.15012901 -0.225971
-0.037609 0.150206 -0.226025
-0.037604 0.150281 -0.226074
-0.037599001 0.15035801 -0.22612
-0.038677 0.120677 -0.226098
-0.038678002 0.120757 -0.226014
-0.038679 0.120837 -0.22593001
-0.038678002 0.120916 -0.22588199
-0.038677 0.120991 -0.22583599
-0.038676001 0.121066 -0.225797
-0.038674999 0.121143 -0.225761
-0.038672999 0.121217 -0.225733
-0.038672 0.12129 -0.225711
-0.03867 0.121366 -0.22567999
-0.038669001 0.121439 -0.22565
-0.038665999 0.121513 -0.225638
-0.038663998 0.121582 -0.22563399
-0.038660999 0.121656 -0.225623
-0.038658999 0.121728 -0.225609
-0.038656998 0.1218 -0.22559901
-0.038654 0.121872 -0.22559699
