# .PCD v0.7 - Point Cloud Data file format
VERSION 0.7
FIELDS x y z
SIZE 4 4 4
TYPE F F F
COUNT 1 1 1
WIDTH 1432
HEIGHT 1
VIEWPOINT 0 0 0 1 0 0 0
POINTS 1432
DATA ascii
-0.10710125 0.140856 -0.2314425
-0.106974 0.140865 -0.23141199
-0.079507001 0.140939 -0.23141401
-0.1078875 0.141096 -0.23150399
-0.1077135 0.14112617 -0.23148566
-0.1075395 0.14111966 -0.23142199
-0.079500005 0.14108449 -0.23144001
-0.10787901 0.14127533 -0.23153567
-0.10770575 0.1413075 -0.23149399
-0.1075315 0.14129999 -0.2314385
-0.1073935 0.14129201 -0.23141301
-0.079493999 0.141268 -0.2314205
-0.107869 0.14149 -0.23156899
-0.10769734 0.14148615 -0.23152667
-0.10752383 0.14148034 -0.23145433
-0.107364 0.14148974 -0.23142676
-0.0794845 0.1414865 -0.23143801
-0.107863 0.141634 -0.23158599
-0.10767961 0.14168739 -0.2315578
-0.10751384 0.14169584 -0.23149234
-0.10731542 0.14169714 -0.23143658
-0.10763633 0.14191699 -0.23158433
-0.10750367 0.141911 -0.23152567
-0.1073245 0.14190365 -0.23147117
-0.10719433 0.1419 -0.23141067
-0.10748581 0.1421126 -0.231548
-0.10731617 0.14212035 -0.23147249
-0.107189 0.14204299 -0.23140199
-0.10749801 0.14228942 -0.2315212
-0.1073095 0.14230275 -0.23145701
-0.1078275 0.1425415 -0.23157901
-0.1076474 0.1425142 -0.23155899
-0.10748351 0.14249367 -0.23147516
-0.1073132 0.14247121 -0.23142639
-0.10782266 0.14272535 -0.23153134
-0.107651 0.14272067 -0.23148866
-0.10747717 0.14271367 -0.23143034
-0.10733833 0.14270432 -0.23141199
-0.107818 0.14290851 -0.23148149
-0.107646 0.14290398 -0.23144099
-0.107473 0.14286 -0.23140249
-0.10811067 0.14311166 -0.23158269
-0.10781199 0.14309101 -0.23145433
-0.10768067 0.14308666 -0.23143299
-0.108105 0.14325701 -0.231589
-0.1078045 0.143272 -0.23146799
-0.10770325 0.1433225 -0.23146425
-0.10759068 0.14330301 -0.23140967
-0.10772634 0.14352132 -0.23151386
-0.107536 0.14351666 -0.23143135
-0.107399 0.143581 -0.23141301
-0.107717 0.14370075 -0.23155849
-0.107527 0.143696 -0.23147249
-0.10734516 0.14372218 -0.23143333
-0.10767651 0.14386174 -0.23157825
-0.10751867 0.14387582 -0.23150234
-0.10729349 0.1439015 -0.23144265
-0.10763434 0.14409667 -0.23158102
-0.10750917 0.14409301 -0.23152401
-0.10731057 0.1440727 -0.23147202
-0.1071448 0.1440904 -0.2314214
-0.107629 0.144242 -0.231584
-0.10749966 0.14431 -0.23154084
-0.10732033 0.14430016 -0.231481
-0.10716299 0.144246 -0.23143065
-0.107619 0.1444945 -0.2315795
-0.10749425 0.14449251 -0.23150474
-0.10732421 0.14450581 -0.23142561
-0.1076805 0.1446805 -0.23152517
-0.10748967 0.14467551 -0.23145233
-0.107356 0.144667 -0.23141401
-0.108037 0.144998 -0.231585
-0.10767484 0.14490066 -0.23146401
-0.10750575 0.14487699 -0.2314225
-0.1080335 0.145106 -0.231567
-0.1076812 0.14510401 -0.23144539
-0.10754734 0.14511533 -0.23141332
-0.10802567 0.14528768 -0.23158567
-0.10772499 0.145302 -0.231466
-0.1075535 0.14529601 -0.23142549
-0.107716 0.14548066 -0.23150867
-0.10751187 0.14548363 -0.23145163
-0.1072755 0.1455345 -0.2314105
-0.107705 0.145697 -0.23157199
-0.10749034 0.14569001 -0.23150812
-0.10726801 0.14567785 -0.23144716
-0.107136 0.14574599 -0.23140401
-0.107502 0.14588974 -0.2315805
-0.10730255 0.14589699 -0.23150566
-0.107092 0.14590301 -0.23142882
-0.10729314 0.1460923 -0.23154955
-0.107092 0.14611529 -0.23145387
-0.1073315 0.14629799 -0.23155099
-0.10712038 0.14631513 -0.231447
-0.107479 0.14650699 -0.23156101
-0.10732701 0.14648016 -0.23149599
-0.10714699 0.1465075 -0.23142849
-0.10766567 0.14671333 -0.231555
-0.10749467 0.14670767 -0.23150565
-0.1073306 0.14668521 -0.23144159
-0.10714033 0.14668933 -0.23141916
-0.107961 0.146957 -0.23157699
-0.107662 0.1468945 -0.231491
-0.1074806 0.14691082 -0.2314606
-0.107362 0.14684699 -0.231405
-0.10795534 0.14710067 -0.23157866
-0.107656 0.14707699 -0.23147033
-0.10749099 0.14708599 -0.23144102
-0.1079475 0.147282 -0.23159501
-0.107646 0.147294 -0.23149566
-0.10747433 0.14728816 -0.23145801
-0.107342 0.14735501 -0.231407
-0.10763633 0.14751033 -0.231529
-0.10746384 0.14750484 -0.23149501
-0.10729881 0.1475112 -0.23142838
-0.107149 0.147559 -0.231409
-0.107627 0.147691 -0.231571
-0.107453 0.14772166 -0.23154734
-0.10728034 0.14771299 -0.2314675
-0.1071084 0.1477174 -0.231427
-0.107404 0.147902 -0.23155299
-0.1072614 0.14791439 -0.2315058
-0.10709133 0.14792016 -0.23143683
-0.107401 0.148011 -0.23153199
-0.10730828 0.14809814 -0.23151372
-0.10708401 0.14810149 -0.231452
-0.10730112 0.14829478 -0.23150134
-0.10709925 0.14826477 -0.231433
-0.1075156 0.148536 -0.23154822
-0.10730612 0.14850438 -0.23145787
-0.1071115 0.148536 -0.231407
-0.1075265 0.14870425 -0.23146625
-0.10734934 0.14868601 -0.23142968
-0.107107 0.148644 -0.231409
-0.108052 0.148996 -0.23159499
-0.1078845 0.1489495 -0.23154101
-0.1075205 0.1488855 -0.23143935
-0.107375 0.148808 -0.23142301
-0.108049 0.149068 -0.23159499
-0.1078795 0.149095 -0.23153901
-0.107578 0.14910533 -0.23144467
-0.10787133 0.149275 -0.23155801
-0.10753575 0.14933901 -0.23144449
-0.10786299 0.14945701 -0.231589
-0.10749526 0.14950125 -0.23146449
-0.1073485 0.149496 -0.231415
-0.107486 0.14968249 -0.23151051
-0.10729533 0.14967532 -0.23143767
-0.107159 0.149738 -0.23140401
-0.10747566 0.14990033 -0.23154914
-0.10728567 0.14989267 -0.23146015
-0.1071144 0.14989659 -0.23141639
-0.107469 0.1500455 -0.23157051
-0.10730726 0.15012038 -0.23149736
-0.10709683 0.15009767 -0.2314205
-0.10729857 0.15030743 -0.23148772
-0.1070895 0.150279 -0.23142499
-0.10751834 0.15048234 -0.231562
-0.1073485 0.15047599 -0.23148799
-0.1078135 0.1507615 -0.2315585
-0.10751534 0.15069833 -0.23145433
-0.107364 0.150675 -0.23143502
-0.10809567 0.15093566 -0.23157032
-0.1078945 0.150911 -0.231521
-0.107512 0.15084399 -0.23140401
-0.1081055 0.15110549 -0.23153765
-0.10788999 0.15109183 -0.23147868
-0.1080868 0.15130819 -0.2315726
-0.107964 0.15131533 -0.23153765
-0.107797 0.15130401 -0.23146099
-0.108043 0.15150151 -0.231592
-0.1079555 0.15149599 -0.231565
-0.107786 0.151522 -0.23149967
-0.10795 0.151605 -0.23158599
-0.10777751 0.151704 -0.23154199
-0.10747667 0.151713 -0.231435
-0.107344 0.15174399 -0.2314215
-0.10776866 0.15188567 -0.23157334
-0.107468 0.151895 -0.2314665
-0.10729433 0.15192449 -0.23143665
-0.10745966 0.15207599 -0.23149067
-0.1072875 0.152106 -0.231436
-0.10745134 0.152294 -0.23149367
-0.107289 0.15227219 -0.23143479
-0.1077445 0.152502 -0.231576
-0.107447 0.15247351 -0.231426
-0.107317 0.15243199 -0.231406
-0.108084 0.152777 -0.231557
-0.107936 0.152743 -0.23158033
-0.10774034 0.15268166 -0.231519
-0.10808066 0.15292066 -0.231498
-0.10794834 0.1529115 -0.23148717
-0.1077375 0.15286151 -0.231427
-0.108328 0.153082 -0.23159599
-0.1080745 0.153101 -0.23148251
-0.1079332 0.1531124 -0.231456
-0.108065 0.15328334 -0.23153366
-0.1079428 0.1532882 -0.23148701
-0.10772 0.153332 -0.231401
-0.10805467 0.153502 -0.23157133
-0.10792401 0.153492 -0.23152316
-0.10771366 0.15347667 -0.23142134
-0.10790481 0.1536956 -0.23157239
-0.10770234 0.15369533 -0.23148066
-0.10769133 0.153915 -0.231535
-0.10739 0.15395901 -0.231411
-0.1076825 0.15409701 -0.231564
-0.10735001 0.154121 -0.2314215
-0.10767449 0.15427899 -0.2315895
-0.107378 0.154249 -0.231426
-0.107836 0.154543 -0.231576
-0.107669 0.15449466 -0.231526
-0.108008 0.154699 -0.231572
-0.10787633 0.154724 -0.23151684
-0.107668 0.154636 -0.23142999
-0.10831567 0.15497166 -0.23157334
-0.10800567 0.15487733 -0.23148066
-0.1078755 0.1548655 -0.231426
-0.10831089 0.15511599 -0.23156333
-0.108003 0.155018 -0.23141301
-0.10799851 0.15512851 -0.23142001
-0.10829119 0.1552902 -0.23158741
-0.10794649 0.15530683 -0.23143317
-0.108238 0.155403 -0.23158801
-0.10788187 0.15551311 -0.23145175
-0.1079362 0.1556882 -0.2315226
-0.10773867 0.15573233 -0.23145068
-0.10791699 0.15589334 -0.23157185
-0.1077194 0.15589181 -0.2314806
-0.10769283 0.15609549 -0.23151319
-0.107852 0.156399 -0.231593
-0.10768349 0.15631551 -0.23153451
-0.10759901 0.156344 -0.231489
-0.107849 0.15650651 -0.2315595
-0.107762 0.156501 -0.231525
-0.1075955 0.15648749 -0.231445
-0.10788917 0.15668866 -0.23150432
-0.107759 0.15667832 -0.231445
-0.108257 0.15693149 -0.23155199
-0.10818001 0.15692633 -0.23154967
-0.107931 0.15683401 -0.231429
-0.10832573 0.15708891 -0.23153816
-0.1081775 0.157103 -0.231461
-0.10828456 0.15729733 -0.23153056
-0.10816932 0.157286 -0.23147969
-0.10824833 0.1575135 -0.23154731
-0.10815867 0.15750533 -0.23151898
-0.10821199 0.157694 -0.23157901
-0.1081495 0.15769 -0.23156351
-0.1078745 0.15772098 -0.23142876
-0.108144 0.1578 -0.231598
-0.10786525 0.15790474 -0.23147576
-0.10775425 0.15795074 -0.23143925
-0.1078775 0.15810899 -0.23151851
-0.10774725 0.158097 -0.23146376
-0.10786834 0.15829267 -0.23155268
-0.10773966 0.15827884 -0.23147534
-0.108113 0.158599 -0.231583
-0.107864 0.15850599 -0.23147567
-0.1077414 0.15848219 -0.231457
-0.108226 0.15875401 -0.231583
-0.108143 0.1587075 -0.2315335
-0.107862 0.158647 -0.231408
-0.1084445 0.15894851 -0.23154101
-0.10827013 0.15890612 -0.23148751
-0.108142 0.1588465 -0.23143674
-0.1084405 0.159091 -0.231502
-0.10829666 0.15911515 -0.231444
-0.10843267 0.159274 -0.231516
-0.10827319 0.15931721 -0.2314436
-0.108423 0.15949367 -0.23153932
-0.10826087 0.15948838 -0.23147877
-0.108148 0.159536 -0.231405
-0.108413 0.15971465 -0.23157601
-0.10826967 0.159702 -0.23152518
-0.1081385 0.15968463 -0.23143388
-0.10825419 0.1599088 -0.23157382
-0.108127 0.15990679 -0.23149303
-0.10810842 0.16010715 -0.23154114
-0.107803 0.160137 -0.231424
-0.108215 0.16036101 -0.23158699
-0.10811713 0.1602845 -0.231556
-0.10779651 0.160285 -0.23143899
-0.1082555 0.16053067 -0.23156135
-0.10810488 0.16048789 -0.23148179
-0.108546 0.16074499 -0.23158699
-0.10828045 0.16072011 -0.23148587
-0.108101 0.160629 -0.23142099
-0.108731 0.160971 -0.231571
-0.10854366 0.16088633 -0.231516
-0.108315 0.1608635 -0.23142451
-0.108727 0.16111434 -0.23154099
-0.10853866 0.16109867 -0.23144765
-0.10871901 0.16129801 -0.231556
-0.10853001 0.16131733 -0.231457
-0.108712 0.1614445 -0.231585
-0.1085215 0.161502 -0.23147801
-0.108513 0.161686 -0.23150833
-0.10834301 0.16170251 -0.23141401
-0.10850101 0.16191067 -0.23158033
-0.10827316 0.16188499 -0.23146401
-0.108163 0.161911 -0.2314195
-0.1082742 0.162095 -0.23152502
-0.10812699 0.162112 -0.23145224
-0.1083125 0.16229799 -0.23155999
-0.108151 0.16230738 -0.23147163
-0.10798 0.162223 -0.23140299
-0.108476 0.16256601 -0.23156101
-0.108309 0.16247401 -0.23149432
-0.10816599 0.162461 -0.231443
-0.1087045 0.1627935 -0.23155549
-0.10847333 0.162706 -0.231502
-0.108307 0.162614 -0.23142099
-0.10883 0.16295201 -0.23159599
-0.10870275 0.16289724 -0.231502
-0.108472 0.162845 -0.231417
-0.108825 0.16309834 -0.231589
-0.108698 0.16307582 -0.23145752
-0.108819 0.16324601 -0.23159701
-0.10868833 0.16329667 -0.23148233
-0.1086775 0.16351967 -0.23152851
-0.10865434 0.163693 -0.231566
-0.108437 0.16372 -0.23144166
-0.10862 0.16381399 -0.231574
-0.108426 0.163909 -0.23150501
-0.108257 0.163923 -0.231407
-0.10841566 0.16409834 -0.231575
-0.10824767 0.16407566 -0.23147233
-0.10811133 0.16411033 -0.23142134
-0.10823566 0.16430134 -0.23154067
-0.10806834 0.16428189 -0.23145421
-0.10822866 0.16451566 -0.23149998
-0.10809259 0.16448541 -0.23142782
-0.10830916 0.1647035 -0.23148715
-0.108573 0.164984 -0.2316
-0.10838801 0.16489367 -0.23150599
-0.10837966 0.165112 -0.23149733
-0.10828625 0.165288 -0.23149174
-0.1081385 0.16538149 -0.2314315
-0.108363 0.165415 -0.23159499
-0.1080955 0.16549183 -0.2314595
-0.107968 0.16558699 -0.23141301
-0.10807263 0.16567375 -0.23153348
-0.1079152 0.16570421 -0.23144582
-0.108002 0.16583 -0.231583
-0.1078845 0.16587961 -0.23153825
-0.10753199 0.1659295 -0.2314325
-0.107397 0.16599201 -0.23140299
-0.10752165 0.16608515 -0.23151618
-0.10738949 0.1661095 -0.231471
-0.10746733 0.16630633 -0.231556
-0.10729667 0.166289 -0.23148017
-0.10748733 0.16650634 -0.23158766
-0.10728782 0.16650835 -0.23148517
-0.10749616 0.16667683 -0.23156933
-0.1073655 0.16669799 -0.231501
-0.10719699 0.16671734 -0.23142968
-0.107489 0.16689415 -0.23154749
-0.107358 0.16688132 -0.23150265
-0.10719 0.166898 -0.231419
-0.1074585 0.16709425 -0.23155576
-0.107349 0.16710134 -0.23151068
-0.10718233 0.16708367 -0.23143534
-0.078655496 0.16709551 -0.231481
-0.107339 0.167257 -0.23158599
-0.107173 0.167237 -0.231506
-0.106867 0.16735099 -0.231425
-0.106735 0.167346 -0.231418
-0.078883246 0.16734625 -0.23146576
-0.078764595 0.16727781 -0.23152241
-0.106859 0.16746899 -0.23149
-0.10668451 0.1675 -0.23148566
-0.10650775 0.16752499 -0.2314575
-0.10632674 0.16751474 -0.231446
-0.106192 0.16754401 -0.231446
-0.10588466 0.16757132 -0.231417
-0.079244003 0.16759899 -0.231409
-0.079091333 0.16749901 -0.23144966
-0.078929201 0.16746719 -0.23155041
-0.1064975 0.167649 -0.2315695
-0.1063185 0.1676345 -0.2315205
-0.10610634 0.16765618 -0.23149216
-0.10590266 0.16769077 -0.23151112
-0.1056895 0.167705 -0.23149832
-0.104888 0.16774632 -0.23144768
-0.104716 0.16776501 -0.23147
-0.10449967 0.167751 -0.23142667
-0.104221 0.16773599 -0.231409
-0.10385 0.167789 -0.231428
-0.103674 0.1677805 -0.23141649
-0.1034915 0.16777751 -0.23144349
-0.10331 0.1677725 -0.2314415
-0.1031395 0.16776049 -0.231443
-0.1029285 0.1677485 -0.231428
-0.102425 0.167722 -0.23142
-0.1021065 0.1677645 -0.23144326
-0.10189025 0.16777098 -0.231434
-0.101716 0.16776749 -0.23144099
-0.1015325 0.1677565 -0.2314325
-0.10134999 0.16774699 -0.231437
-0.10092267 0.16775031 -0.23143433
-0.10073151 0.1677915 -0.23145449
-0.100527 0.167778 -0.23142
-0.099482 0.167799 -0.23141
-0.079237998 0.167714 -0.23144101
-0.079095334 0.16768233 -0.23152184
-0.105603 0.167825 -0.231589
-0.104671 0.167853 -0.231583
-0.10449266 0.167835 -0.23150633
-0.10425825 0.16786049 -0.23151501
-0.1040694 0.16784401 -0.2314996
-0.1039185 0.167881 -0.23153251
-0.103649 0.16789633 -0.23156033
-0.10349933 0.16788566 -0.23152699
-0.103302 0.1678575 -0.2315395
-0.10312975 0.16788399 -0.231548
-0.10292 0.16783351 -0.2315245
-0.102419 0.167804 -0.231492
-0.10207967 0.16786867 -0.23154767
-0.10188249 0.16785599 -0.23152675
-0.1017085 0.16785 -0.231526
-0.10150633 0.16786902 -0.23155667
-0.10132567 0.16785868 -0.23154266
-0.1008992 0.16784039 -0.23154001
-0.1007225 0.16788 -0.23156449
-0.100518 0.167869 -0.23154201
-0.100244 0.16784801 -0.231497
-0.100043 0.16788226 -0.231526
-0.099892139 0.1678627 -0.231498
-0.099714406 0.1678676 -0.23149879
-0.099536993 0.16786033 -0.23148566
-0.099355668 0.167853 -0.231479
-0.099105328 0.16787 -0.23150299
-0.098913997 0.16790317 -0.231516
-0.098718002 0.16788875 -0.2314885
-0.098544754 0.167877 -0.2314755
-0.097905003 0.167878 -0.23143999
-0.097562999 0.167861 -0.231405
-0.0964505 0.16793299 -0.231527
-0.096281253 0.16792375 -0.23150276
-0.096086502 0.1679505 -0.2315135
-0.095920332 0.16794033 -0.23149668
-0.095706321 0.16792233 -0.23143733
-0.095493004 0.16795099 -0.2314665
-0.095313504 0.16794476 -0.2314555
-0.095094658 0.16797535 -0.231474
-0.094892003 0.16796251 -0.23146424
-0.094709001 0.1679495 -0.2314575
-0.094541997 0.1679375 -0.2314245
-0.093960494 0.16798651 -0.23141199
-0.079277672 0.16790317 -0.23146434
-0.079094201 0.16789421 -0.23155501
-0.096065663 0.16805767 -0.23158033
-0.095912166 0.16806115 -0.231574
-0.095716245 0.16802901 -0.23154226
-0.095482498 0.1680775 -0.23158699
-0.095302999 0.1680695 -0.2315715
-0.095107004 0.16807725 -0.231547
-0.094883248 0.16805024 -0.23156901
-0.094701 0.16803551 -0.23155549
-0.094532996 0.16802451 -0.2315305
-0.093896493 0.168071 -0.23151825
-0.093688667 0.16805267 -0.23145498
-0.092354991 0.16811268 -0.23144066
-0.092030004 0.16819499 -0.231405
-0.09189 0.1681865 -0.23141876
-0.091719501 0.16817549 -0.231425
-0.090939999 0.168143 -0.23142651
-0.0907555 0.1681295 -0.23141
-0.079405501 0.168089 -0.23141199
-0.079269752 0.16809049 -0.23148
-0.079121001 0.168064 -0.23158599
-0.092290998 0.168212 -0.23147
-0.092072502 0.168235 -0.23142901
-0.091885492 0.168264 -0.23145026
-0.091715999 0.16825101 -0.231443
-0.090068504 0.16832399 -0.23142549
-0.089897998 0.16831426 -0.2314205
-0.087928332 0.16837268 -0.23143299
-0.079305328 0.16828156 -0.2315051
-0.079315595 0.1684638 -0.23152919
-0.085368 0.13797501 -0.231396
-0.084775001 0.137936 -0.231382
-0.084289998 0.13798949 -0.23139
-0.084104337 0.13797633 -0.23139365
-0.083899997 0.13796367 -0.23136133
-0.083742999 0.13795701 -0.231335
-0.082917333 0.13798466 -0.23135935
-0.087018996 0.13814101 -0.23137499
-0.086717501 0.1381945 -0.23137251
-0.086110003 0.1381295 -0.23135099
-0.085902594 0.1381202 -0.23134661
-0.085695505 0.13810526 -0.23132001
-0.085510001 0.13809699 -0.23135325
-0.085367002 0.13808849 -0.23133099
-0.085128799 0.13809741 -0.23130038
-0.084891245 0.13805801 -0.23131825
-0.084688753 0.13807838 -0.23127712
-0.084475003 0.13807884 -0.231269
-0.084291749 0.13810825 -0.23126075
-0.084114999 0.138083 -0.23126467
-0.083899669 0.1380785 -0.23127867
-0.083696745 0.13806875 -0.23126274
-0.083084002 0.13811401 -0.2312635
-0.082917504 0.13810132 -0.23125733
-0.082774498 0.138091 -0.23131099
-0.08258 0.13811666 -0.23131533
-0.082318 0.1381385 -0.231325
-0.082131505 0.13816249 -0.2313865
-0.081998996 0.13815001 -0.231383
-0.088081002 0.13834649 -0.23139051
-0.087948672 0.13831268 -0.23136733
-0.087780997 0.138331 -0.231373
-0.087597996 0.138359 -0.231334
-0.087336004 0.13830866 -0.23133667
-0.087088816 0.13829964 -0.23133846
-0.086904116 0.13828222 -0.23133366
-0.086716741 0.1383085 -0.23129675
-0.08610633 0.138318 -0.23126133
-0.085888498 0.13826516 -0.23124732
-0.085709669 0.138246 -0.23121667
-0.085492335 0.13823767 -0.231245
-0.085367002 0.13820399 -0.23124599
-0.083081998 0.138226 -0.231205
-0.082774997 0.138207 -0.231213
-0.082315497 0.138289 -0.231261
-0.082102448 0.13831145 -0.23129021
-0.081946872 0.13830724 -0.23130675
-0.081767328 0.13832867 -0.231369
-0.089944497 0.138595 -0.23138249
-0.089646995 0.13854349 -0.2313845
-0.089474998 0.138531 -0.23138
-0.089295171 0.13852416 -0.23136967
-0.089085996 0.13851878 -0.23137179
-0.088895857 0.138505 -0.23135614
-0.088681996 0.1384915 -0.23135775
-0.088552333 0.138524 -0.23134632
-0.088362664 0.13851334 -0.23131101
-0.088078327 0.138496 -0.23132749
-0.087954499 0.13848867 -0.23128884
-0.087779008 0.13848032 -0.23130699
-0.087594502 0.13850799 -0.23128501
-0.087332502 0.13849649 -0.231262
-0.087093905 0.13851246 -0.23123974
-0.086901203 0.138464 -0.231227
-0.08672934 0.13844834 -0.23122168
-0.082070999 0.13845801 -0.23123151
-0.081910394 0.1384906 -0.23123221
-0.081750669 0.13850467 -0.2312765
-0.081533998 0.138496 -0.23133732
-0.091026999 0.138799 -0.231381
-0.090928599 0.13876501 -0.23138258
-0.090769 0.138787 -0.23137701
-0.090506501 0.13873649 -0.231359
-0.090265997 0.13869049 -0.23135768
-0.090100497 0.13869025 -0.23136699
-0.089941502 0.13870676 -0.23134875
-0.089643501 0.13869199 -0.231333
-0.089469999 0.13871832 -0.23132335
-0.089302123 0.13870224 -0.23130324
-0.089103095 0.13870752 -0.2312983
-0.088905089 0.13868783 -0.23128407
-0.088678338 0.13867934 -0.23128067
-0.088549003 0.1387125 -0.231262
-0.088358499 0.13870099 -0.23123801
-0.088074997 0.138684 -0.23124149
-0.087949999 0.13867575 -0.23122525
-0.087774999 0.13866949 -0.231225
-0.087592997 0.138621 -0.231218
-0.081703998 0.138689 -0.23121601
-0.081529327 0.13872001 -0.231254
-0.081336997 0.138704 -0.23132068
-0.092285998 0.13894732 -0.23138833
-0.092081502 0.138935 -0.231391
-0.091902807 0.1389382 -0.231353
-0.091701157 0.13891684 -0.23133568
-0.091435999 0.13890468 -0.23135066
-0.091301166 0.13889533 -0.2313595
-0.091106273 0.13888846 -0.23136529
-0.090911828 0.13890618 -0.23133634
-0.090766504 0.138898 -0.2313405
-0.090502329 0.138923 -0.23129635
-0.090260834 0.13891383 -0.23128432
-0.090095669 0.13890523 -0.23128745
-0.089937508 0.13889299 -0.23128366
-0.08964067 0.138882 -0.23123699
-0.089468002 0.138869 -0.23124599
-0.0893315 0.1389 -0.23122975
-0.089111999 0.13889912 -0.23123534
-0.088896401 0.13885239 -0.2312206
-0.088689327 0.13885432 -0.23122032
-0.088546999 0.138825 -0.23120999
-0.0815235 0.13890401 -0.23122101
-0.081331499 0.138891 -0.23127601
-0.081099004 0.138944 -0.23138
-0.096391 0.139174 -0.231398
-0.096098006 0.13916066 -0.23139733
-0.095966503 0.1391515 -0.23137
-0.095340997 0.139189 -0.23139
-0.095004 0.13916899 -0.23139
-0.094944999 0.139167 -0.23139
-0.094743997 0.139156 -0.23139
-0.094563998 0.13915201 -0.231352
-0.094379 0.13913999 -0.231378
-0.094084501 0.13916001 -0.23138
-0.093927287 0.13913199 -0.2313557
-0.093700498 0.13913551 -0.231361
-0.093483791 0.1391032 -0.23136921
-0.093256503 0.13911299 -0.2313645
-0.093124747 0.13912499 -0.23136425
-0.092913128 0.13910937 -0.23135439
-0.09256234 0.13911267 -0.23131301
-0.0923265 0.13909984 -0.23131983
-0.092118561 0.13908735 -0.23131834
-0.091893248 0.13911049 -0.23128575
-0.091726668 0.13909233 -0.23126
-0.091434002 0.1390945 -0.231235
-0.091288604 0.1391048 -0.23126821
-0.09109509 0.13910542 -0.23127848
-0.090908006 0.139093 -0.231263
-0.090763666 0.13908666 -0.23125334
-0.090499997 0.139073 -0.231223
-0.090069503 0.13905551 -0.23120449
-0.089934498 0.13904199 -0.23122101
-0.081518501 0.139052 -0.23120999
-0.08132533 0.13907333 -0.23125732
-0.081094995 0.139092 -0.23134699
-0.096899003 0.139346 -0.23139299
-0.096702501 0.13929901 -0.23138949
-0.096540667 0.13930432 -0.231387
-0.096297659 0.13931733 -0.23137733
-0.096094117 0.13930899 -0.23135924
-0.095931336 0.13929699 -0.23133643
-0.095707327 0.13928244 -0.23134722
-0.095337495 0.139301 -0.231362
-0.095069289 0.13931142 -0.23136857
-0.094903462 0.13932063 -0.23133801
-0.094740666 0.139305 -0.23132633
-0.094561666 0.13930134 -0.23128732
-0.094377667 0.13929133 -0.23127733
-0.094092801 0.13928799 -0.23132041
-0.093923502 0.13929784 -0.23129451
-0.093696333 0.13932233 -0.23129433
-0.093470834 0.13931133 -0.23128867
-0.093252331 0.1393 -0.23128967
-0.09310811 0.13929278 -0.23128867
-0.092918999 0.13928691 -0.231261
-0.092558995 0.1393005 -0.231224
-0.092339002 0.13927667 -0.23122732
-0.092087172 0.13928632 -0.23122132
-0.091880329 0.139248 -0.23122434
-0.091780998 0.139219 -0.231222
-0.091117673 0.13925934 -0.23120499
-0.081319004 0.139258 -0.2312385
-0.081089333 0.13927734 -0.23130532
-0.080872998 0.13933399 -0.231399
-0.096887439 0.13949378 -0.23138687
-0.096695997 0.1394815 -0.23137383
-0.096520662 0.13947517 -0.23136
-0.096292339 0.13950217 -0.23133932
-0.096080139 0.13950756 -0.23133786
-0.095924109 0.13951723 -0.231307
-0.095700219 0.139503 -0.23131545
-0.095331997 0.13948435 -0.23133467
-0.09507525 0.139507 -0.23133449
-0.094895564 0.13950934 -0.23130867
-0.094733 0.13952433 -0.23130699
-0.094553001 0.13952 -0.23129034
-0.094368331 0.13950767 -0.23129334
-0.094076507 0.13949399 -0.23127551
-0.093917668 0.13948166 -0.23126377
-0.093690999 0.139506 -0.231261
-0.093465507 0.13949549 -0.2312495
-0.093246341 0.13952167 -0.23123367
-0.093101889 0.13951367 -0.23124011
-0.0929019 0.13949364 -0.23121938
-0.092556 0.13941 -0.231206
-0.092364997 0.139402 -0.231204
-0.081084661 0.13950068 -0.23122935
-0.080870494 0.13952149 -0.23130301
-0.097288996 0.13973549 -0.2313865
-0.097090721 0.139704 -0.23138428
-0.096880339 0.13971412 -0.23135222
-0.096689008 0.13970201 -0.23134482
-0.096513502 0.13969482 -0.23132883
-0.096311435 0.13967499 -0.23132186
-0.096110001 0.1396922 -0.2313097
-0.095918171 0.13970084 -0.23127984
-0.095682614 0.1397135 -0.23127699
-0.095325671 0.13970633 -0.23128067
-0.095068999 0.1396905 -0.23130684
-0.094907999 0.13968891 -0.23128228
-0.094727002 0.139707 -0.231287
-0.094546005 0.13970301 -0.23128149
-0.094361998 0.13969199 -0.23127401
-0.094069332 0.13971399 -0.23124683
-0.093910784 0.1397019 -0.23123333
-0.093685001 0.13969032 -0.23123001
-0.093459338 0.13967933 -0.23122901
-0.093241997 0.139669 -0.231208
-0.093095995 0.13969751 -0.2312115
-0.092868753 0.13966176 -0.23120399
-0.081079997 0.139649 -0.231203
-0.080867998 0.139709 -0.231204
-0.080649003 0.13972825 -0.23131475
-0.099422 0.13993201 -0.231391
-0.099098995 0.13994901 -0.23135877
-0.098938376 0.13991025 -0.23136888
-0.098655008 0.13988768 -0.23137732
-0.098479003 0.139916 -0.23136801
-0.098344751 0.13990726 -0.231373
-0.098131001 0.139936 -0.231352
-0.097970001 0.13992201 -0.23134001
-0.097778 0.1399475 -0.231353
-0.097509995 0.139907 -0.23135011
-0.097284667 0.13988416 -0.2313465
-0.097100005 0.13988286 -0.23133862
-0.096875668 0.13989933 -0.23129767
-0.096674003 0.13990799 -0.2312952
-0.09650699 0.13991618 -0.23127849
-0.09632349 0.13990684 -0.23128267
-0.096104592 0.13989858 -0.23126982
-0.095913328 0.13988523 -0.23123442
-0.095756747 0.13987574 -0.23121625
-0.095599502 0.13990349 -0.231224
-0.0953205 0.13989 -0.231243
-0.095069192 0.13989881 -0.23124762
-0.094895162 0.13985349 -0.23124301
-0.094722502 0.13985649 -0.231253
-0.094542503 0.13985001 -0.23124099
-0.094356991 0.13987567 -0.23122633
-0.094063751 0.1398975 -0.231217
-0.093905501 0.1398495 -0.23121101
-0.093681 0.139838 -0.23120099
-0.093498997 0.139827 -0.23120201
-0.093033999 0.13980301 -0.23120099
-0.080601998 0.139838 -0.231269
-0.080509797 0.13991942 -0.23130901
-0.104929 0.140163 -0.231397
-0.104652 0.14012699 -0.23136632
-0.10449699 0.14012067 -0.23136266
-0.104052 0.140192 -0.231374
-0.103961 0.140186 -0.23134901
-0.103664 0.14014368 -0.23133634
-0.103504 0.1401225 -0.231372
-0.10324 0.14014199 -0.23138601
-0.103133 0.140138 -0.231396
-0.1029134 0.14015421 -0.23136899
-0.102709 0.1401905 -0.23136599
-0.102518 0.14017799 -0.2313655
-0.102383 0.140168 -0.231396
-0.1020455 0.14015099 -0.2313485
-0.10191166 0.14014134 -0.23135932
-0.101608 0.14012399 -0.23138601
-0.10133333 0.14011066 -0.23134167
-0.1010917 0.14011329 -0.23136222
-0.100881 0.14012115 -0.23134883
-0.10070126 0.14011075 -0.23133799
-0.10052051 0.140102 -0.23132876
-0.1003325 0.140093 -0.2313085
-0.10010456 0.1401438 -0.23131435
-0.099903829 0.14010666 -0.23131682
-0.099724673 0.14009516 -0.23132616
-0.099507503 0.14008701 -0.23127483
-0.099096246 0.14009799 -0.23129925
-0.098941833 0.14008817 -0.23128884
-0.098651327 0.140113 -0.23126966
-0.098476999 0.140104 -0.231261
-0.098342746 0.14005925 -0.23128201
-0.098129995 0.14008801 -0.23124766
-0.097967997 0.140072 -0.23124599
-0.097776502 0.140099 -0.23126349
-0.097508594 0.1400784 -0.2312396
-0.097264998 0.14005934 -0.23123501
-0.097080603 0.1400542 -0.23123121
-0.096856751 0.1400305 -0.23122725
-0.096695997 0.14004833 -0.23122765
-0.096320495 0.140055 -0.231222
-0.096072339 0.140046 -0.231215
-0.080449998 0.14007467 -0.23124398
-0.080281809 0.1401256 -0.23131199
-0.080099002 0.14017299 -0.23135251
-0.105658 0.140356 -0.231398
-0.105566 0.14035299 -0.231399
-0.1052945 0.14029999 -0.2313775
-0.1050992 0.14031079 -0.23138161
-0.104926 0.14031167 -0.23133968
-0.10470511 0.14030045 -0.23134412
-0.10447701 0.14029117 -0.23133667
-0.10430067 0.14028384 -0.23133717
-0.1041232 0.14028521 -0.23135218
-0.1039585 0.140296 -0.23131999
-0.1037325 0.14030024 -0.23130924
-0.1035388 0.14032459 -0.23131821
-0.10323733 0.14029099 -0.23132099
-0.103101 0.14028488 -0.23134112
-0.1029257 0.14028899 -0.23130909
-0.102707 0.14030251 -0.23131551
-0.1025068 0.14031141 -0.23131299
-0.10238034 0.14031833 -0.23132165
-0.10204149 0.14029966 -0.23130934
-0.10190878 0.14029033 -0.23129678
-0.1016905 0.14027818 -0.23131533
-0.101328 0.140294 -0.23130199
-0.10108522 0.14030445 -0.23128888
-0.1009 0.14031655 -0.23125626
-0.100698 0.1402985 -0.23124601
-0.10051733 0.1402895 -0.23123866
-0.1003295 0.1402805 -0.2312205
-0.10009138 0.14030637 -0.23122627
-0.099849001 0.1402925 -0.23121199
-0.099737667 0.14027233 -0.23121865
-0.099095501 0.14021149 -0.2312175
-0.098940998 0.14020249 -0.2312105
-0.080057196 0.1402742 -0.23129721
-0.079904601 0.14030759 -0.2313318
-0.079744503 0.14037201 -0.2313275
-0.105892 0.14056599 -0.231383
-0.1056904 0.1405178 -0.2313858
-0.1055284 0.14051041 -0.23138459
-0.10533317 0.14048384 -0.23136269
-0.10513913 0.14048401 -0.23135675
-0.1049205 0.140494 -0.23131001
-0.10469744 0.14051932 -0.23132811
-0.10446916 0.14050967 -0.23131831
-0.10429317 0.14050184 -0.23131765
-0.1041045 0.14048867 -0.23132314
-0.10395167 0.14047833 -0.23131067
-0.1037685 0.14050099 -0.23132101
-0.103532 0.1405136 -0.23130682
-0.10323 0.14051133 -0.23129635
-0.10309434 0.14050499 -0.23130134
-0.10290808 0.14049317 -0.23128717
-0.10270116 0.14048551 -0.23128901
-0.1025188 0.14048842 -0.2312874
-0.102374 0.14050099 -0.23129851
-0.10203317 0.14051749 -0.2313105
-0.10190133 0.14050978 -0.23127399
-0.1017265 0.14048125 -0.23129025
-0.101597 0.1405305 -0.23127399
-0.10132233 0.14047767 -0.23128234
-0.101106 0.14049087 -0.23125573
-0.10089889 0.140505 -0.2312351
-0.100691 0.14051801 -0.23121698
-0.1005194 0.14049479 -0.23121381
-0.10034134 0.140451 -0.23121132
-0.10010587 0.14048088 -0.23121212
-0.09998551 0.14046475 -0.2312115
-0.0797344 0.14050679 -0.23126081
-0.106667 0.140775 -0.23139299
-0.106473 0.14076599 -0.23137701
-0.1062185 0.14071649 -0.231361
-0.10589284 0.14069735 -0.231332
-0.10568599 0.1407108 -0.23131661
-0.10551601 0.14071749 -0.23130868
-0.10532833 0.14070618 -0.23128331
-0.10512713 0.14069688 -0.2312811
-0.10491533 0.140678 -0.23126967
-0.10469217 0.14070384 -0.23128366
-0.10446374 0.14069301 -0.23128749
-0.104279 0.14070699 -0.2312696
-0.10409867 0.14071001 -0.2312665
-0.10394567 0.1407 -0.23125601
-0.10376266 0.14068365 -0.23128401
-0.10354681 0.14069059 -0.23126981
-0.103225 0.14069399 -0.23126
-0.10308 0.14070371 -0.23126443
-0.1029015 0.14071317 -0.23124449
-0.10269416 0.14070566 -0.231251
-0.10250399 0.14069299 -0.23124802
-0.102369 0.14068533 -0.23125933
-0.102027 0.14069949 -0.23129076
-0.10189533 0.14069249 -0.23125118
-0.101762 0.14072202 -0.23124366
-0.101593 0.140678 -0.231242
-0.1013175 0.14066151 -0.23122901
-0.10108462 0.14067951 -0.23122413
-0.10091683 0.14065351 -0.23121834
-0.10073 0.14066701 -0.231207
-0.10055 0.14065599 -0.23120099
-0.079696 0.14070199 -0.2312585
-0.079513997 0.14079399 -0.23138399
-0.107409 0.14097001 -0.231342
-0.107278 0.1409615 -0.23138949
-0.10708534 0.14094999 -0.23136835
-0.10689028 0.14090542 -0.23133986
-0.1067075 0.14089125 -0.2313135
-0.10647199 0.14091666 -0.23127568
-0.1062165 0.140866 -0.231277
-0.10589117 0.140848 -0.23124166
-0.10570899 0.14085166 -0.23124968
-0.1055145 0.1408675 -0.23122099
-0.105373 0.140857 -0.231215
-0.104735 0.140818 -0.2312265
-0.104417 0.1408 -0.231252
-0.104326 0.14080299 -0.23123799
-0.103761 0.14083301 -0.23120899
-0.103534 0.1408225 -0.23121649
-0.103222 0.140806 -0.23122001
-0.10308534 0.14082368 -0.23122434
-0.102977 0.140864 -0.231203
-0.10274 0.140857 -0.231208
-0.102366 0.140834 -0.231208
-0.1020485 0.1408515 -0.23122901
-0.1019354 0.14082019 -0.23122481
-0.079689667 0.14088532 -0.23123832
-0.079511002 0.140866 -0.231392
-0.10740399 0.141077 -0.23136249
-0.10729086 0.141119 -0.23137315
-0.10708112 0.14109756 -0.23132913
-0.10689676 0.14108574 -0.23127775
-0.10670317 0.14107549 -0.23125333
-0.106468 0.14110151 -0.231214
-0.079680331 0.14110433 -0.23125
-0.10725601 0.14131041 -0.2313664
-0.10707289 0.14131489 -0.23132621
-0.10688859 0.14130291 -0.2312725
-0.10669533 0.1412935 -0.23123933
-0.106458 0.14135399 -0.231207
-0.079671331 0.14132267 -0.23126501
-0.079490997 0.141378 -0.23139399
-0.107258 0.141469 -0.23138601
-0.10706533 0.14149483 -0.23133798
-0.106907 0.14152145 -0.2312901
-0.10672278 0.14151056 -0.23126112
-0.106452 0.14149867 -0.23122434
-0.079713002 0.141488 -0.2312382
-0.1072055 0.141647 -0.23139051
-0.10707414 0.14166614 -0.23136513
-0.10692375 0.14170262 -0.23132101
-0.106705 0.14171812 -0.23127425
-0.10644233 0.14171499 -0.231242
-0.079696834 0.14169151 -0.23124051
-0.10707834 0.14189433 -0.23136151
-0.10691675 0.14188458 -0.23131651
-0.10671757 0.14189301 -0.23128171
-0.10643449 0.14189599 -0.231252
-0.079651996 0.1418725 -0.231213
-0.079469003 0.141966 -0.231378
-0.10709962 0.14212298 -0.23134789
-0.10690974 0.14210282 -0.2312845
-0.10670044 0.14208989 -0.23125622
-0.10643 0.1420415 -0.231231
-0.079470001 0.142078 -0.23126499
-0.107103 0.14229617 -0.23134601
-0.10690126 0.14232033 -0.23128249
-0.10669199 0.14230768 -0.23125567
-0.1064195 0.142332 -0.23121399
-0.10726 0.14256001 -0.231397
-0.10709599 0.14247701 -0.23134054
-0.10689388 0.14250124 -0.23128924
-0.10668344 0.14252433 -0.23125656
-0.10641267 0.14251333 -0.23121567
-0.107256 0.14270499 -0.231369
-0.10708777 0.14269467 -0.23133677
-0.10688708 0.14268275 -0.2312855
-0.10669279 0.14269961 -0.23124781
-0.106503 0.14269999 -0.231207
-0.1074705 0.14293399 -0.231383
-0.10729033 0.142924 -0.2313505
-0.10708178 0.14291434 -0.23128499
-0.10689989 0.14288612 -0.23125178
-0.1067176 0.14287521 -0.2312202
-0.107603 0.143014 -0.231381
-0.10749937 0.14309025 -0.23136438
-0.107285 0.143107 -0.23131499
-0.10707617 0.14309768 -0.23124899
-0.10693425 0.14314224 -0.2312195
-0.10745734 0.14329632 -0.23137067
-0.10727751 0.14328767 -0.23133016
-0.10710483 0.14327949 -0.23126467
-0.10693625 0.14329688 -0.23122588
-0.1074045 0.143474 -0.231383
-0.10726749 0.143503 -0.23135948
-0.10709483 0.1434955 -0.23129849
-0.10690875 0.14348425 -0.23125218
-0.106745 0.1435032 -0.2312078
-0.079586506 0.14355201 -0.23121801
-0.10721567 0.14371867 -0.23138399
-0.10708433 0.14371134 -0.231342
-0.10689842 0.14369991 -0.23129117
-0.10671011 0.14368822 -0.23124044
-0.10656 0.143756 -0.231205
-0.079492003 0.143727 -0.23125899
-0.1070668 0.14391282 -0.23136298
-0.106889 0.14391668 -0.23131268
-0.10670145 0.14390498 -0.23124923
-0.10655399 0.14390001 -0.23121734
-0.1063585 0.143925 -0.231204
-0.079399496 0.143905 -0.231251
-0.10702451 0.144105 -0.231371
-0.10688213 0.14409776 -0.23131312
-0.10669471 0.14410158 -0.23123571
-0.106348 0.144179 -0.23120099
-0.079397 0.144015 -0.23120999
-0.10707501 0.144315 -0.23136634
-0.10687516 0.14427884 -0.231306
-0.10669629 0.14428885 -0.23123255
-0.1065385 0.14429751 -0.231204
-0.106342 0.14432301 -0.23120899
-0.107266 0.14459001 -0.23139501
-0.10709733 0.14451045 -0.23134933
-0.10689112 0.1444978 -0.23130189
-0.10670791 0.14448641 -0.23125643
-0.106531 0.14447868 -0.23122333
-0.106335 0.14450499 -0.23121201
-0.10729233 0.14471267 -0.23139167
-0.10707772 0.14470641 -0.231343
-0.10688277 0.14471444 -0.23130168
-0.10669982 0.14470333 -0.2312486
-0.10652266 0.14469565 -0.23121667
-0.106331 0.144613 -0.23121201
-0.107439 0.1449285 -0.23137051
-0.107303 0.14488333 -0.23136498
-0.10712817 0.14487651 -0.23132183
-0.10690775 0.14489949 -0.23126251
-0.10672767 0.144852 -0.23121132
-0.1074535 0.1451295 -0.231365
-0.10729667 0.14510234 -0.23131917
-0.10712233 0.14509566 -0.23126352
-0.10690258 0.14508118 -0.23122434
-0.10742267 0.14532666 -0.23137867
-0.10728651 0.14531817 -0.2313505
-0.10711233 0.14531116 -0.23129882
-0.10689325 0.14529808 -0.23124342
-0.079340003 0.145329 -0.231326
-0.107279 0.1454625 -0.2313845
-0.1070932 0.14551239 -0.23134241
-0.10689989 0.1455083 -0.23128669
-0.10672031 0.14551739 -0.23123769
-0.10653 0.14556551 -0.23121551
-0.079336002 0.14543751 -0.231325
-0.10709425 0.145671 -0.23137973
-0.10690134 0.14569549 -0.23133482
-0.10671541 0.1457195 -0.23128442
-0.10652284 0.14570899 -0.23124485
-0.1062865 0.14573449 -0.23121801
-0.079502337 0.14570566 -0.23121865
-0.079322003 0.145767 -0.23135
-0.107042 0.145813 -0.231399
-0.10689333 0.14587666 -0.23135856
-0.10670775 0.14590025 -0.23129636
-0.10650621 0.1459116 -0.2312582
-0.10627901 0.145915 -0.23123467
-0.079317667 0.14591268 -0.23132168
-0.10688522 0.14609399 -0.23135011
-0.1067014 0.14608133 -0.23128599
-0.1065158 0.14608559 -0.2312592
-0.106272 0.14609551 -0.231225
-0.079314999 0.1460965 -0.231226
-0.10702 0.146393 -0.231387
-0.10687655 0.14631155 -0.23135288
-0.10669241 0.1462981 -0.23129465
-0.10649949 0.14628799 -0.23126501
-0.10626566 0.14627667 -0.23121934
-0.079305999 0.14635199 -0.23121201
-0.1070165 0.146501 -0.23138401
-0.10686101 0.14650758 -0.23134513
-0.10669146 0.14650954 -0.23130202
-0.10650615 0.146516 -0.23126957
-0.10625666 0.14649333 -0.23123001
-0.107275 0.146769 -0.23139399
-0.10700933 0.14668198 -0.23138334
-0.10687062 0.14668375 -0.23133199
-0.10670517 0.14669932 -0.23128617
-0.106522 0.146689 -0.23123848
-0.106252 0.14664 -0.23120899
-0.1073056 0.14693139 -0.23138198
-0.10709111 0.14690533 -0.23134524
-0.10686575 0.14688364 -0.23126724
-0.10673367 0.14687149 -0.23122282
-0.10730901 0.147099 -0.231369
-0.10711001 0.14711429 -0.23130628
-0.10690925 0.14712274 -0.23124914
-0.1067708 0.147118 -0.2312212
-0.10729279 0.147265 -0.23138201
-0.10711975 0.147306 -0.23134801
-0.10691067 0.14729467 -0.23128569
-0.106713 0.14732489 -0.23123161
-0.10657 0.147379 -0.231208
-0.10725 0.147421 -0.231398
-0.1071036 0.14747182 -0.23137638
-0.10690233 0.14747545 -0.23131201
-0.10670049 0.14749762 -0.23125775
-0.1065356 0.14753619 -0.23122521
-0.079431996 0.147494 -0.2312285
-0.107063 0.147631 -0.23139399
-0.10689223 0.14769179 -0.23134401
-0.1066925 0.14767851 -0.23127876
-0.106498 0.147709 -0.2312372
-0.079425 0.14767666 -0.23123498
-0.10688534 0.14790945 -0.2313149
-0.1066845 0.14789575 -0.23126777
-0.10649786 0.14787243 -0.23124388
-0.10633299 0.14790034 -0.23120999
-0.10686749 0.14811713 -0.231314
-0.10668373 0.14810656 -0.23125471
-0.10651986 0.14811158 -0.23122986
-0.10639 0.14809734 -0.23121201
-0.079234995 0.148104 -0.23125899
-0.107036 0.14831799 -0.23139149
-0.1069146 0.1482884 -0.23133521
-0.10671987 0.14829686 -0.23127374
-0.10652956 0.14832023 -0.23124123
-0.10638133 0.148314 -0.23122168
-0.079232 0.148249 -0.231206
-0.107204 0.148581 -0.231396
-0.107051 0.14848174 -0.23138325
-0.106898 0.14849 -0.23133333
-0.10671166 0.14847799 -0.23129402
-0.10652217 0.14850067 -0.23124601
-0.1063745 0.148495 -0.2312205
-0.1072455 0.148691 -0.23139501
-0.10709529 0.14873971 -0.23137772
-0.10688984 0.14870733 -0.23133017
-0.10670459 0.14869533 -0.23127167
-0.10651577 0.14868146 -0.23123145
-0.106371 0.14860301 -0.231204
-0.1073192 0.148892 -0.2313838
-0.107104 0.14890151 -0.23132683
-0.10687619 0.14890999 -0.2312746
-0.10672987 0.14890626 -0.23122075
-0.107448 0.14910133 -0.23139365
-0.10732216 0.14909567 -0.231353
-0.10709867 0.14908268 -0.23128878
-0.1068882 0.149085 -0.23123939
-0.106745 0.14906099 -0.231204
-0.1074405 0.1492815 -0.23139599
-0.10731333 0.14931266 -0.23136316
-0.10710075 0.14929111 -0.2313046
-0.10688972 0.14929886 -0.23125286
-0.1067182 0.1493206 -0.231214
-0.079360001 0.14935499 -0.231215
-0.1072605 0.14949149 -0.23137549
-0.10712317 0.14951785 -0.23134367
-0.10690556 0.14950712 -0.23128489
-0.10668991 0.1495001 -0.2312279
-0.079430997 0.149543 -0.23121449
-0.079352662 0.14950098 -0.23125501
-0.10709866 0.14968532 -0.23138534
-0.106885 0.14971475 -0.23131426
-0.10668977 0.14971 -0.23125966
-0.1065122 0.14971249 -0.23121388
-0.079345003 0.14972 -0.23123634
-0.079167664 0.14971133 -0.23136
-0.107062 0.14980499 -0.23139299
-0.106917 0.14988367 -0.23134834
-0.10668962 0.14990973 -0.23127951
-0.10650431 0.1499007 -0.23122191
-0.106399 0.14998101 -0.231208
-0.079341002 0.149867 -0.231206
-0.079161495 0.149894 -0.23133799
-0.1069235 0.15008934 -0.23134451
-0.106713 0.15008119 -0.23127283
-0.10654134 0.15008701 -0.23120832
-0.106396 0.15005299 -0.23120201
-0.079159498 0.15003851 -0.23126599
-0.107087 0.1503875 -0.2313875
-0.10691535 0.15030651 -0.23134182
-0.10669716 0.15029109 -0.23126908
-0.10655825 0.15030125 -0.23121099
-0.1063855 0.150306 -0.231223
-0.10722 0.15050399 -0.231391
-0.1070845 0.1504955 -0.2313495
-0.10690767 0.15052317 -0.23132317
-0.1066885 0.1505084 -0.23127307
-0.10650711 0.1504959 -0.231223
-0.106378 0.15048701 -0.231232
-0.10724981 0.1507028 -0.2313648
-0.10707816 0.15067665 -0.23134233
-0.10690175 0.15070426 -0.2313005
-0.10670143 0.15070616 -0.23125328
-0.10654438 0.15068775 -0.23122111
-0.106372 0.150668 -0.231213
-0.1075105 0.1509515 -0.2313485
-0.10729611 0.15090668 -0.23130468
-0.107074 0.15089233 -0.23124884
-0.10691433 0.15083766 -0.23124234
-0.10677 0.150804 -0.231234
-0.10750499 0.15109649 -0.231345
-0.10730001 0.15111512 -0.231287
-0.10708572 0.15112214 -0.23123215
-0.10749733 0.15127833 -0.231353
-0.107324 0.15130776 -0.231323
-0.10709042 0.15130842 -0.23125057
-0.10692599 0.1513575 -0.231213
-0.10748767 0.15149499 -0.23137899
-0.10731534 0.1514885 -0.23135333
-0.10710725 0.15148412 -0.23127499
-0.10688867 0.15151201 -0.23123033
-0.079104997 0.151462 -0.231233
-0.1072855 0.1516875 -0.23138225
-0.10713151 0.15169667 -0.23132616
-0.10690878 0.15168256 -0.231263
-0.1067365 0.15170699 -0.231206
-0.1071215 0.15191366 -0.23135535
-0.10689911 0.15189968 -0.23128301
-0.1067115 0.15188798 -0.23121825
-0.079086997 0.15197299 -0.231204
-0.10711525 0.15209475 -0.23134576
-0.10689123 0.15211688 -0.2312711
-0.106723 0.152033 -0.231206
-0.107238 0.152358 -0.23139
-0.10710817 0.15227517 -0.23133583
-0.10692925 0.15230075 -0.23125601
-0.1068 0.152256 -0.231208
-0.107446 0.15257999 -0.23137601
-0.107268 0.15251601 -0.231334
-0.10710383 0.15249117 -0.23125882
-0.1069324 0.15246661 -0.23122922
-0.107442 0.15272534 -0.23132801
-0.10727033 0.15271848 -0.23128499
-0.107097 0.1527075 -0.23122299
-0.10695734 0.15269865 -0.23122966
-0.107735 0.15297 -0.23138601
-0.107437 0.15290651 -0.23129401
-0.10726475 0.1528995 -0.231254
-0.107092 0.1528535 -0.23120651
-0.10772999 0.15311299 -0.23138233
-0.10743034 0.15308601 -0.23128001
-0.10725883 0.153079 -0.23123233
-0.107724 0.15325999 -0.23139501
-0.10742167 0.153304 -0.23128633
-0.10724965 0.15329735 -0.231251
-0.107118 0.15336201 -0.231204
-0.10741166 0.15352167 -0.23131867
-0.1072605 0.153497 -0.23129
-0.1071245 0.15353216 -0.231233
-0.1074025 0.15370351 -0.231354
-0.1072715 0.153698 -0.23133749
-0.10708974 0.15371525 -0.23126338
-0.10689625 0.1537295 -0.231222
-0.107316 0.1538686 -0.23137482
-0.10710572 0.15389201 -0.23128615
-0.10688367 0.15388 -0.23121865
-0.107255 0.154061 -0.231382
-0.10713016 0.15409049 -0.23129566
-0.1069505 0.15407683 -0.23122768
-0.1072974 0.15433219 -0.2313884
-0.10712049 0.15430866 -0.231314
-0.106942 0.15429418 -0.23123269
-0.1073055 0.15449876 -0.23135249
-0.1071066 0.1545084 -0.23125359
-0.106985 0.154442 -0.23120099
-0.107667 0.15474451 -0.2313695
-0.10730233 0.15467684 -0.23127514
-0.1071565 0.15463549 -0.231236
-0.1078745 0.154937 -0.23138401
-0.107663 0.15492301 -0.23130699
-0.1072995 0.1548195 -0.23121651
-0.1078695 0.15508167 -0.231371
-0.1076575 0.155102 -0.23127
-0.107816 0.15529667 -0.23137568
-0.10764966 0.15528333 -0.23128901
-0.10763899 0.15550335 -0.23133367
-0.10729433 0.15551966 -0.23121201
-0.107629 0.15568601 -0.23138399
-0.10729775 0.15567349 -0.23124851
-0.10715576 0.15572199 -0.23122975
-0.10731966 0.15591167 -0.23129267
-0.107148 0.15590334 -0.23124367
-0.1073115 0.15609351 -0.23131099
-0.10711999 0.15613087 -0.23125085
-0.10730367 0.15627567 -0.231327
-0.1070885 0.15630034 -0.231251
-0.107594 0.15659399 -0.231391
-0.10729799 0.15649033 -0.23127466
-0.10714775 0.1564655 -0.23123126
-0.1075925 0.1566985 -0.231332
-0.107295 0.156633 -0.23121201
-0.1078788 0.1569128 -0.23135081
-0.10775733 0.15688933 -0.23130201
-0.1075915 0.15683851 -0.231227
-0.10788234 0.15711318 -0.23129468
-0.107752 0.157103 -0.23123966
-0.1078735 0.15729675 -0.2313315
-0.107742 0.15732233 -0.23127167
-0.107571 0.157382 -0.231216
-0.107865 0.15748 -0.2313645
-0.107733 0.15750551 -0.231307
-0.1075655 0.157492 -0.231244
-0.10781249 0.15766001 -0.23139
-0.107723 0.15769 -0.231364
-0.10755667 0.15767567 -0.23128401
-0.10725 0.157792 -0.231214
-0.107716 0.157837 -0.23139399
-0.107545 0.157897 -0.23134267
-0.1072445 0.157902 -0.231233
-0.1071135 0.15789649 -0.231215
-0.10753567 0.15811567 -0.23136534
-0.10723633 0.15808535 -0.231264
-0.10710499 0.15807933 -0.23124266
-0.1075285 0.1582965 -0.231362
-0.107228 0.15830334 -0.23125732
-0.10709734 0.15829533 -0.23122267
-0.107688 0.158563 -0.231388
-0.107522 0.15847766 -0.23134734
-0.1078595 0.1587535 -0.23136801
-0.10772917 0.15870683 -0.23134017
-0.107519 0.15868868 -0.23123832
-0.1081405 0.158952 -0.2313835
-0.107859 0.15889201 -0.231258
-0.107742 0.15887134 -0.23124532
-0.10822266 0.15910368 -0.23137033
-0.10813717 0.15909486 -0.23134167
-0.107852 0.159142 -0.23120999
-0.1082145 0.1592865 -0.231392
-0.1081275 0.15931417 -0.23136383
-0.10784534 0.159289 -0.23122966
-0.1077565 0.159317 -0.231208
-0.108109 0.15948467 -0.23138432
-0.10783467 0.15950967 -0.23126768
-0.10771199 0.15951321 -0.23122862
-0.108143 0.15968201 -0.231399
-0.10782599 0.1596925 -0.2312955
-0.10769334 0.15971901 -0.23126751
-0.10781634 0.159878 -0.23135133
-0.107684 0.159903 -0.23131076
-0.10747167 0.15992135 -0.23122334
-0.107808 0.160028 -0.231396
-0.10767501 0.1600875 -0.23134516
-0.107465 0.1601025 -0.231223
-0.10768485 0.16031742 -0.23135486
-0.107458 0.16028333 -0.23121066
-0.10771737 0.16051312 -0.23127875
-0.10810171 0.16071829 -0.23137185
-0.1077895 0.16070449 -0.231231
-0.10824984 0.16093783 -0.23134251
-0.10809878 0.16090767 -0.23126666
-0.10830367 0.16108316 -0.23130216
-0.10814901 0.1611418 -0.23122759
-0.10830333 0.16129132 -0.23131783
-0.10814928 0.16129556 -0.23124613
-0.10829333 0.1615115 -0.23135118
-0.10811201 0.16149737 -0.23125607
-0.108225 0.161691 -0.231374
-0.10808627 0.16170463 -0.2312993
-0.1081028 0.16187879 -0.231361
-0.107996 0.161891 -0.231335
-0.1077425 0.16193999 -0.23121801
-0.1080515 0.16204351 -0.231382
-0.10798734 0.16207565 -0.23137634
-0.10768139 0.16210461 -0.2312434
-0.10805525 0.1623175 -0.2313735
-0.107977 0.162331 -0.231379
-0.1076922 0.1622816 -0.2312502
-0.10809511 0.16252655 -0.23133799
-0.10797366 0.16250633 -0.23130466
-0.107724 0.16241001 -0.23121101
-0.108305 0.1627185 -0.2313735
-0.1081164 0.16269791 -0.23129001
-0.10797 0.1626835 -0.23123901
-0.10847 0.1629495 -0.231374
-0.10830367 0.16289099 -0.23126633
-0.1081648 0.162865 -0.2312398
-0.10846651 0.163091 -0.231335
-0.1082975 0.16310349 -0.23120999
-0.10845867 0.16327368 -0.231342
-0.10828834 0.163324 -0.23123133
-0.108167 0.163386 -0.231203
-0.10844833 0.16349633 -0.23138566
-0.108279 0.16350949 -0.231264
-0.10814434 0.16350834 -0.23121633
-0.108269 0.163697 -0.23132832
-0.10810763 0.16368875 -0.23125362
-0.108261 0.163847 -0.23137499
-0.10808933 0.16390479 -0.23132378
-0.10795417 0.163886 -0.23124816
-0.10804567 0.164077 -0.23137467
-0.10794099 0.16411418 -0.23134632
-0.107657 0.164122 -0.231217
-0.107567 0.16415299 -0.23122001
-0.1079325 0.16429849 -0.231369
-0.107651 0.164268 -0.231224
-0.107563 0.164261 -0.2312115
-0.1080245 0.164508 -0.231374
-0.10792834 0.16447499 -0.23131432
-0.10805666 0.1647089 -0.23134711
-0.10792133 0.16469066 -0.23128314
-0.108219 0.1649065 -0.2313865
-0.10805763 0.16491325 -0.23129612
-0.1079456 0.16490561 -0.23122521
-0.10821267 0.16508733 -0.23137899
-0.10806875 0.16510776 -0.23130876
-0.10793633 0.16511334 -0.23123269
-0.1080546 0.16528121 -0.2313592
-0.10793426 0.16528776 -0.23129526
-0.10790876 0.16549374 -0.23134987
-0.107604 0.165471 -0.23122101
-0.107557 0.16554099 -0.23122799
-0.107847 0.16565 -0.23139299
-0.10750444 0.16569 -0.23127267
-0.107246 0.165741 -0.23120201
-0.107471 0.1658635 -0.23135877
-0.10723566 0.16589567 -0.23128401
-0.106933 0.16593599 -0.23120201
-0.107224 0.166089 -0.2313745
-0.10692266 0.16609132 -0.23128335
-0.106772 0.1661 -0.23123175
-0.10691267 0.16631533 -0.231318
-0.10674232 0.16630216 -0.23124933
-0.106906 0.166495 -0.231299
-0.10673384 0.16652051 -0.23124801
-0.10689867 0.16667867 -0.231308
-0.10672575 0.166706 -0.23126501
-0.10652161 0.1667406 -0.23121619
-0.10689 0.16689867 -0.23131335
-0.1067175 0.16689116 -0.23129065
-0.10651 0.16689286 -0.23122528
-0.078692749 0.16690426 -0.23127025
-0.10688066 0.16712068 -0.23133034
-0.10670733 0.167114 -0.23132168
-0.106533 0.16709934 -0.23127083
-0.10631987 0.16709301 -0.23123375
-0.106133 0.167146 -0.231215
-0.079017997 0.16719 -0.231215
-0.07887917 0.16712816 -0.23126833
-0.078740001 0.16708499 -0.23135799
-0.106872 0.167272 -0.231379
-0.10668466 0.16728967 -0.23136133
-0.1065235 0.1672875 -0.23131825
-0.10629688 0.16731155 -0.23130567
-0.10607076 0.16728325 -0.23124649
-0.10591643 0.16732456 -0.23124671
-0.1057365 0.16732275 -0.231223
-0.079083838 0.16731548 -0.23128767
-0.078904994 0.16725367 -0.23136266
-0.10651501 0.1674065 -0.2313965
-0.1061032 0.1674854 -0.23136599
-0.10591429 0.16747315 -0.231341
-0.10570589 0.16749965 -0.231327
-0.105434 0.16748534 -0.23130333
