0.160305044	-3.317758515	-226.2092485
0.161245731	-3.246541126	-226.241429
0.160709369	-3.178110571	-226.263465
0.160775631	-3.106129578	-226.2676082
0.161124947	-3.036007772	-226.2667014
0.160675819	-2.965786033	-226.2607592
0.160180627	-2.896602369	-226.2567768
0.160692533	-2.824304881	-226.2499336
0.160161777	-2.75414281	-226.2459988
0.16038736	-2.68410013	-226.2480884
0.159817099	-2.613947413	-226.245143
0.160365916	-2.54164039	-226.2373003
0.159874718	-2.472456572	-226.2333181
0.159866054	-2.401888528	-226.2163902
0.159656211	-2.331489126	-226.2044654
0.160156551	-2.261952133	-226.2245734
0.159504408	-2.192581934	-226.2486351
0.159409645	-2.121748095	-226.2577441
0.159556531	-2.049717757	-226.2598895
0.159386246	-1.980296609	-226.2479172
0.1594582	-1.909689505	-226.2290012
0.159287508	-1.840278939	-226.2170486
0.159513487	-1.770246247	-226.2191379
0.159103737	-1.697602298	-226.2342854
0.158847748	-1.627925343	-226.2483497
0.159394245	-1.557645333	-226.2424492
0.158823805	-1.488541379	-226.2404839
0.159089502	-1.418469033	-226.2415747
0.159480859	-1.346280559	-226.2377272
0.158710027	-1.276276174	-226.2397756
0.158574978	-1.206510479	-226.2508537
0.15896081	-1.136369149	-226.2489476
0.158591119	-1.066068101	-226.2410085
0.158375447	-0.99635175	-226.2540843
0.158920857	-0.925766436	-226.2722228
0.158589709	-0.856474534	-226.2642652
0.158141727	-0.784175247	-226.2563622
0.158487044	-0.71406388	-226.2554649
0.158277804	-0.643654452	-226.2435405
0.158028483	-0.574312316	-226.2335551
0.158532587	-0.503736988	-226.2527029
0.158117874	-0.432121978	-226.2688309
0.157747782	-0.361821227	-226.2609018
0.158455761	-0.292470425	-226.2519564
0.158085467	-0.222179404	-226.2440169
0.157876622	-0.151779964	-226.2320922
0.157701201	-0.079977006	-226.2422279
0.157925136	-0.010647227	-226.2693174
0.157789859	0.06015665	-226.279435
0.157460505	0.129438898	-226.2714672
0.157371411	0.19993788	-226.2565265
0.157517901	0.271978206	-226.2586722
0.158102457	0.3415644	-226.2767926
0.157766437	0.411181467	-226.2928744
0.157918423	0.481848458	-226.2719409
0.157312919	0.551646343	-226.2459548
0.157458274	0.62162969	-226.2500419
0.157484078	0.691504062	-226.2571247
0.156795405	0.763615067	-226.2552239
0.156939958	0.833597821	-226.259331
0.156889331	0.903413569	-226.2683914
0.157590407	0.974127086	-226.282545
0.156819575	1.044131472	-226.2845934
0.157410138	1.115449479	-226.276733
0.156515766	1.18535502	-226.2817672
0.156504257	1.255219559	-226.2898595
0.156891489	1.325361224	-226.2879434
0.156481081	1.395622579	-226.2810027
0.156868657	1.467841199	-226.2771459
0.156337901	1.538003271	-226.2732112
0.15676445	1.608184293	-226.2703067
0.15667538	1.677644243	-226.2563564
0.156144635	1.747826884	-226.2524022
0.156013185	1.817602721	-226.2634807
0.156159331	1.887566092	-226.2675672
0.155789037	1.957857113	-226.2596277
0.156256835	2.03012478	-226.2537831
0.156202015	2.099949808	-226.2628637
0.156270532	2.16986395	-226.2689481
0.155422139	2.239463745	-226.2489539
0.155171391	2.309853457	-226.2380285
0.155677261	2.381447879	-226.2561853
0.155542384	2.452252052	-226.266293
0.155574058	2.521801297	-226.2493364
0.154962678	2.591914024	-226.2473994
0.155383586	2.661381993	-226.2694947
0.155848712	2.733984633	-226.2876999
0.155359475	2.804186991	-226.2827467
0.154911225	2.87408341	-226.252765
0.155301258	2.944244908	-226.2508597
0.15468484	3.013654609	-226.2739228
0.154669474	3.085575935	-226.2800735
0.15470058	3.15409669	-226.2640876
0.154411088	3.225485818	-226.2531702
0.154476604	3.295389559	-226.2592642
0.155102248	3.366044491	-226.2753955
0.155251998	3.436028288	-226.2794727
0.15475796	3.506219614	-226.2745491
0.154988871	3.578309993	-226.2746771
0.154137404	3.648244464	-226.2787427
0.154163213	3.718129121	-226.2858158
0.154668023	3.787340652	-226.2818944
0.154459981	3.857740685	-226.2699497
0.154726813	3.929870009	-226.2690991
0.154036007	3.999923998	-226.2691397
0.154345411	4.070025866	-226.2692419
0.154170644	4.139751907	-226.2813185
0.154115824	4.209576935	-226.290399
0.154421371	4.281735591	-226.2885597
0.153892415	4.351898294	-226.284605
0.153562235	4.422218982	-226.2756667
0.153714653	4.491857521	-226.2557039
0.153504019	4.562276899	-226.2437797
0.153127489	4.631874289	-226.2608606
0.153473693	4.703330069	-226.2830119
0.153779905	4.773432378	-226.2830939
0.153248754	4.843604438	-226.2791594
0.153595476	4.913726425	-226.2782425
0.153665726	4.985697287	-226.2823956
0.15297492	5.055751275	-226.2824361
0.153481692	5.125981345	-226.2775438
0.153466991	5.195846324	-226.2856159
0.153214797	5.265532865	-226.2997007
0.152681979	5.33774207	-226.2938142
0.15267218	5.406253136	-226.2788276
0.152422057	5.475594678	-226.2688622
0.152649176	5.547694633	-226.2690005
0.152597948	5.617519518	-226.2780912
0.152824322	5.687542221	-226.2801802
0.152533861	5.757902563	-226.2702435
0.152044223	5.828104624	-226.2653003
0.152270942	5.900204283	-226.2654485
0.152014948	5.969870952	-226.2795225
0.152205207	6.039874428	-226.2826007
0.151915136	6.110214497	-226.2726734
0.152140719	6.180257176	-226.274763
0.152726014	6.251910338	-226.2909423
0.152431306	6.321547676	-226.3060051
0.152497568	6.39352867	-226.3101483
0.151806361	6.463582361	-226.3101989
0.151911601	6.533536042	-226.3152847
0.151982642	6.605486927	-226.3194373
0.151531724	6.675728605	-226.3134956
0.151522894	6.745268456	-226.2975283
0.152030067	6.815498823	-226.292626
0.15133886	6.885552514	-226.2926766
0.151725691	6.955693882	-226.2907706
0.15151042	7.02541053	-226.3038364
0.152056169	7.098062514	-226.3200438
0.151645588	7.167285392	-226.3140735
0.151556696	7.237794104	-226.2991431
0.151782675	7.307826795	-226.3012323
0.150851924	7.379769753	-226.3053244
0.151238354	7.449910824	-226.3034283
0.151588668	7.520032668	-226.3025215
0.150893462	7.590075921	-226.3025816
0.151403671	7.659298225	-226.2986408
0.150671955	7.729332238	-226.2996904
0.150980088	7.801461264	-226.2978402
0.150929773	7.869942367	-226.2838624
0.150960053	7.939501561	-226.266906
0.150109789	8.009436923	-226.2709417
0.150651946	8.08208905	-226.2871389
0.150401684	8.153822879	-226.299272
0.15030706	8.222264432	-226.2862825
0.150377656	8.291863022	-226.2683377
0.1504485	8.363814463	-226.2724702
0.150553741	8.433768144	-226.277556
0.150344501	8.504177572	-226.2656316
0.149653695	8.57423156	-226.2656721
0.150354605	8.643916884	-226.2807864
0.150265201	8.715769675	-226.2889145
0.149976128	8.786109782	-226.2789873
0.150002018	8.855678811	-226.2620311
0.149150958	8.925623864	-226.266077
0.149457615	8.998078468	-226.2882563
0.149202162	9.069821538	-226.3004096
0.149987695	9.139566645	-226.3135165
0.149973126	9.211478279	-226.3196569
0.149203084	9.281462688	-226.3217047
0.149270805	9.351386521	-226.3277994
0.14969736	9.421577829	-226.3248852
0.149684981	9.493469822	-226.3310151
0.14911341	9.564976309	-226.3511386
0.149619386	9.635216071	-226.3462565
0.149649894	9.703737084	-226.3302606
0.148880598	9.775798745	-226.3303577
0.148984835	9.845742103	-226.3354531
0.148891041	9.917604728	-226.3435814
0.149197243	9.987686467	-226.3436829
0.148591005	10.05542767	-226.3196282
0.148502101	10.12591581	-226.3047172
0.14872808	10.1959485	-226.3068065
0.149034429	10.26810775	-226.3049471
0.148824283	10.33542202	-226.2959244
0.147778091	10.40592207	-226.2799541
0.148164521	10.47606314	-226.278058
0.147950379	10.54782648	-226.2891922
0.147580492	10.61812808	-226.2812331
0.147651145	10.68565001	-226.2652191
0.147916842	10.75572236	-226.2663099
0.148147341	10.82779187	-226.2664674
0.148212066	10.89771559	-226.2725619
0.147758208	10.97032972	-226.288708
0.148067238	11.03938338	-226.2897703
0.14709828	11.10994264	-226.2718023
0.14724403	11.179916	-226.2758891
0.147628761	11.25143112	-226.2970524
0.147415977	11.32420297	-226.3072154
0.147924787	11.39342494	-226.3032845
0.147514982	11.46369632	-226.2963441
0.147501204	11.53558798	-226.302484
0.147405472	11.60539303	-226.3125735
0.147793444	11.67760167	-226.3087165
0.147062726	11.74763572	-226.3097661
0.147131639	11.81753987	-226.3158502
0.147518074	11.88769123	-226.3139445
0.146668148	11.95969326	-226.316049
0.146612324	12.02950796	-226.3251393
0.147079388	12.09971895	-226.321226
0.147230267	12.17174944	-226.3233716
0.147255274	12.2416335	-226.3304647
0.146885783	12.31192512	-226.3225052
0.146197044	12.38164299	-226.298536
0.146266475	12.45021334	-226.2815519
0.146496843	12.5202362	-226.283641
0.146437064	12.5934918	-226.3138495
0.146267625	12.66526554	-226.3239645
0.145933653	12.7355958	-226.3150364
0.14588413	12.80405693	-226.301058
0.145633616	12.87341875	-226.2910833
0.145983536	12.94355058	-226.2901767
0.146290138	13.01363261	-226.2902682
0.145760523	13.08586195	-226.2843824
0.145430602	13.15411571	-226.2773853
0.145416378	13.22365507	-226.2614278
0.145126514	13.29401515	-226.2515011
0.145075486	13.36383061	-226.2605715
0.145738014	13.43554298	-226.2747532
0.145047214	13.50560726	-226.2747841
0.144958311	13.5760954	-226.2598731
0.145504605	13.64636568	-226.2539623
0.145013664	13.7179318	-226.2720782
0.144839235	13.78972451	-226.2822237
0.14526618	13.85989554	-226.2793189
0.14473543	13.9300679	-226.2753745
0.144885569	14.00003142	-226.2794611
0.144311314	14.07018398	-226.2765156
0.144301875	14.13970352	-226.2605577
0.144412017	14.20830329	-226.2425849
0.144282637	14.27773413	-226.2296133
0.143552631	14.34641467	-226.207584
0.144344195	14.41685256	-226.1957006
0.143652025	14.48588775	-226.1967221
0.144198521	14.55616776	-226.1908217
0.143669165	14.62633016	-226.186877
0.143776337	14.69833113	-226.1900112
0.143485131	14.76661422	-226.1820252
0.143275896	14.83703393	-226.1700911
0.143065096	14.90642512	-226.1591275
0.142776424	14.97676552	-226.1491903
0.142641692	15.0451877	-226.1371898
0.142352052	15.11449931	-226.1282332
0.142821309	15.18470982	-226.1243401
0.142207736	15.25482303	-226.122383
0.142637878	15.32500391	-226.1194887
0.141947078	15.39506818	-226.1195196
0.142493563	15.46532762	-226.1136385
0.142324671	15.53473882	-226.101666
0.142153412	15.60312089	-226.0906841
0.141544968	15.67529123	-226.0867858
0.141929608	15.74545224	-226.0848903
0.142115868	15.81544528	-226.0879781
0.141265604	15.88538064	-226.0920137
0.141691987	15.95453347	-226.0900699
0.14168272	16.02509149	-226.0731416
0.141232801	16.0953332	-226.0672
0.141538004	16.1654149	-226.0673014
0.141408086	16.2327885	-226.0562812
0.140842128	16.30158757	-226.0302671
0.141152072	16.36929744	-226.0082608
0.141098387	16.44117945	-226.0154001
0.140923618	16.51535472	-226.0476337
0.14074959	16.58714773	-226.0577692
0.140740582	16.65563882	-226.042782
0.140809446	16.72318069	-226.0267685
0.140840156	16.79171143	-226.0107829
0.140264897	16.86185367	-226.007847
0.140175097	16.93371645	-226.0159755
0.140757591	17.00534978	-226.032144
0.140747618	17.07727159	-226.0382849
0.14033721	17.14753294	-226.0313442
0.139966779	17.21576703	-226.0253462
0.140313668	17.28691721	-226.0234685
0.139581951	17.35695122	-226.0245181
0.139969183	17.42709288	-226.0226021
0.139357803	17.49720561	-226.0206651
0.139584177	17.56722831	-226.0227541
0.139534491	17.63912076	-226.0298838
0.140000754	17.70933115	-226.0259905
0.139710694	17.77969179	-226.0160438
0.139500146	17.84700576	-226.0070311
0.138965397	17.91716768	-226.0030962
0.139672404	17.98993892	-226.0152886
0.139297411	18.06159359	-226.0304181
0.139528518	18.13368341	-226.0305662
0.139194034	18.20535775	-226.0446967
0.138859149	18.2770318	-226.0588372
0.13904955	18.3491025	-226.0599643
0.13935022	18.42157604	-226.082174
0.139216528	18.49679947	-226.1124379
0.139802626	18.56845323	-226.1285973
0.140108097	18.64093779	-226.1507775
0.140010124	18.71619044	-226.1800525
0.139800544	18.78898243	-226.1902162
0.139626516	18.86077544	-226.2003517
0.14040708	18.93393055	-226.2346059
0.140233446	19.01016279	-226.2648982
0.140660222	19.08375486	-226.2831112
0.140005794	19.15622066	-226.304251
0.140112385	19.23162179	-226.3285324
0.14001306	19.30587622	-226.3587689
0.140279034	19.38172189	-226.4030748
0.140897674	19.46125444	-226.4595394
0.141679428	19.53883909	-226.5139402
0.142057791	19.61820422	-226.5763776
0.141839731	19.7001994	-226.6509041
0.142701317	19.77785338	-226.7033076
0.142642327	19.85553823	-226.7536726
0.142941245	19.93926299	-226.8382738
0.365809407	-19.88598041	-227.0229886
0.366125291	-19.81004228	-226.993207
0.365759144	-19.73596258	-226.9573453
0.36448722	-19.65395906	-226.8876402
0.364292508	-19.57082942	-226.8150081
0.363497358	-19.48848008	-226.7333174
0.363539219	-19.40997958	-226.683586
0.362692104	-19.33625558	-226.6596994
0.362764367	-19.26255306	-226.6378716
0.361685274	-19.18418974	-226.5910848
0.361883988	-19.105591	-226.5373676
0.361120694	-19.03180782	-226.5114936
0.361595244	-18.95573108	-226.4777175
0.360957001	-18.87705202	-226.4199641
0.359957736	-18.79862966	-226.3711897
0.35995117	-18.72498613	-226.3513495
0.359981293	-18.65028461	-226.3295396
0.360053556	-18.57658209	-226.3077118
0.359646084	-18.50426312	-226.2988098
0.35943698	-18.43179675	-226.284944
0.358991339	-18.35571971	-226.2491484
0.358309672	-18.28187685	-226.221267
0.358181032	-18.21037904	-226.2063544
0.358293575	-18.13561866	-226.1825671
0.358002051	-18.06321115	-226.1706787
0.358353328	-17.99207081	-226.1688009
0.358023888	-17.91968315	-226.1579216
0.357977776	-17.8450408	-226.1381094
0.357209352	-17.77331475	-226.1141766
0.357002784	-17.69879106	-226.0983595
0.357547714	-17.62953958	-226.0934296
0.357100116	-17.55727085	-226.0855458
0.356730562	-17.48491287	-226.0756653
0.356441661	-17.41353428	-226.0647676
0.356394952	-17.33889167	-226.0449454
0.356781387	-17.26874032	-226.0430397
0.356766681	-17.19888562	-226.0511215
0.356117721	-17.12674525	-226.048232
0.356422529	-17.05665356	-226.0483337
0.355813689	-16.98447324	-226.0444358
0.356364402	-16.91524154	-226.0395056
0.356509555	-16.84526792	-226.0435823
0.356494844	-16.77542351	-226.0516738
0.35580424	-16.70535979	-226.0517247
0.355475596	-16.63298183	-226.0408351
0.355701913	-16.56088247	-226.0409933
0.355771423	-16.49097857	-226.0470875
0.355277195	-16.42077641	-226.0421341
0.355748987	-16.34850859	-226.0362897
0.355058175	-16.27846488	-226.03634
0.355444048	-16.20933173	-226.0353952
0.355670761	-16.13724236	-226.0355531
0.354980552	-16.06718863	-226.0356037
0.355447617	-15.99697764	-226.0316905
0.355475224	-15.92708348	-226.0387839
0.354858633	-15.85871225	-226.0628174
0.355362967	-15.78917511	-226.0829256
0.355146154	-15.72152602	-226.0979525
0.35553299	-15.65137437	-226.0960368
0.35492235	-15.57919467	-226.0921588
0.355273461	-15.50908252	-226.0912417
0.355419612	-15.43910886	-226.0953185
0.354648573	-15.36912449	-226.0973663
0.354793526	-15.29914144	-226.1014633
0.354900298	-15.22714077	-226.1046075
0.355048648	-15.15715731	-226.1086947
0.354519692	-15.08699461	-226.10474
0.354946575	-15.0147572	-226.0999141
0.355012102	-14.94483289	-226.1059887
0.354674745	-14.87728253	-226.1240016
0.354382838	-14.80762536	-226.1390751
0.355123123	-14.73997733	-226.1551317
0.355153092	-14.66906433	-226.1612442
0.354984733	-14.59760618	-226.14733
0.35465589	-14.52521878	-226.1364608
0.354400499	-14.45554209	-226.1505351
0.354304831	-14.38780341	-226.1625458
0.354489697	-14.31780042	-226.1656338
0.35488086	-14.24559223	-226.1617968
0.354029592	-14.17566719	-226.1658421
0.354731506	-14.10597154	-226.1809467
0.35463877	-14.03616637	-226.1910364
0.353948957	-13.96612263	-226.1910867
0.354255164	-13.89603061	-226.1911785
0.354519863	-13.8259583	-226.1922692
0.353750951	-13.7539272	-226.1923854
0.353896707	-13.68394355	-226.1964625
0.353844085	-13.61410872	-226.2055535
0.354069725	-13.5461427	-226.2095738
0.354056154	-13.47423103	-226.2157143
0.354560315	-13.40573236	-226.2367928
0.354545214	-13.33586768	-226.2448749
0.353934241	-13.26574437	-226.2429183
0.353839702	-13.19595899	-226.2529973
0.354270578	-13.12372143	-226.2481716
0.353502555	-13.05199508	-226.2242288
0.35405418	-12.97965794	-226.2163872
0.353159803	-12.90976268	-226.2214311
0.353228721	-12.83984824	-226.2275055
0.353294238	-12.7699445	-226.2335995
0.353519821	-12.69990182	-226.2356891
0.35303032	-12.62764282	-226.2288045
0.353175675	-12.55765947	-226.2328916
0.353759496	-12.49012996	-226.2529433
0.353628046	-12.42035412	-226.2640218
0.35274104	-12.34770826	-226.2421041
0.352652715	-12.27617105	-226.226203
0.352676724	-12.20628703	-226.233296
0.352542638	-12.13550283	-226.2434031
0.353367489	-12.06571837	-226.2555215
0.353276548	-11.99592285	-226.265601
0.352703084	-11.92579027	-226.2626549
0.352373076	-11.8544311	-226.2527463
0.353085954	-11.78198499	-226.2408993
0.352189387	-11.71207009	-226.2459537
0.352773208	-11.64454058	-226.2660055
0.352478271	-11.57386506	-226.2801079
0.352507271	-11.50398084	-226.2872011
0.352492966	-11.43412585	-226.2952729
0.352558093	-11.36420183	-226.3013575
0.352869221	-11.29207269	-226.2995075
0.353055091	-11.22205938	-226.3025858
0.352798904	-11.15237299	-226.3166704
0.352545768	-11.08476315	-226.3326859
0.352570781	-11.0148688	-226.3397692
0.352636698	-10.94496476	-226.3458532
0.353027861	-10.87275657	-226.3420163
0.352896392	-10.80023069	-226.3261428
0.352646446	-10.72984038	-226.3151974
0.352237001	-10.65856053	-226.3072857
0.352029297	-10.58609382	-226.2934099
0.351620024	-10.51377549	-226.2845278
0.352206858	-10.44451428	-226.2785987
0.351998357	-10.37203788	-226.2647332
0.351069879	-10.3004302	-226.2447854
0.351580656	-10.2301794	-226.2398739
0.351405888	-10.16045336	-226.2519504
0.350949095	-10.08989684	-226.2700578
0.350817644	-10.02012101	-226.2811363
0.351204475	-9.949979637	-226.2792303
0.350754687	-9.877691266	-226.271357
0.350627045	-9.806193423	-226.2564443
0.35125456	-9.735874058	-226.2485458
0.350322273	-9.665988375	-226.2545892
0.351067692	-9.596272935	-226.2686948
0.350851613	-9.526567165	-226.2817904
0.351158622	-9.456474548	-226.2818622
0.351030148	-9.38394855	-226.2659888
0.350139363	-9.314053437	-226.2710429
0.350124663	-9.244188458	-226.279115
0.350513297	-9.174027295	-226.2772196
0.349945356	-9.101847564	-226.2723321
0.350492254	-9.031567258	-226.2664216
0.350556376	-8.961653566	-226.2725158
0.350300985	-8.89197687	-226.2865902
0.350652034	-8.819798344	-226.283752
0.349643728	-8.748249692	-226.2657917
0.350270051	-8.677910646	-226.2579037
0.349780408	-8.60771887	-226.2529703
0.349451197	-8.536369397	-226.2430514
0.349921848	-8.466168839	-226.239158
0.349308016	-8.393988705	-226.2352599
0.349417646	-8.324044859	-226.2403456
0.349081632	-8.254417507	-226.2564177
0.349545679	-8.185948504	-226.278495
0.349651315	-8.116004811	-226.2835805
0.349563184	-8.044487328	-226.2676688
0.349034172	-7.972247967	-226.2617834
0.349059179	-7.902363903	-226.2688764
0.349284554	-7.832341238	-226.2709653
0.348673777	-7.762218484	-226.2690287
0.348904689	-7.690128106	-226.2691568
0.349250213	-7.619996724	-226.2682601
0.3485604	-7.549952983	-226.2683104
0.348866206	-7.479861255	-226.2684121
0.349133496	-7.409808293	-226.2694824
0.349202352	-7.337827481	-226.2736357
0.349188047	-7.26797249	-226.2817076
0.348376102	-7.197997809	-226.2847547
0.348922587	-7.127738369	-226.2788736
0.348594374	-7.056388857	-226.2689548
0.348900977	-6.986306822	-226.2690462
0.34816926	-6.916272808	-226.2700958
0.348639917	-6.846061966	-226.2661927
0.348025283	-6.773882425	-226.2623146
0.347814797	-6.704185601	-226.27538
0.348394963	-6.634589572	-226.2935005
0.348264883	-6.563784652	-226.3035884
0.348410628	-6.493821578	-226.3076849
0.348436036	-6.423937218	-226.3147679
0.347745224	-6.353893515	-226.3148182
0.347496844	-6.282474682	-226.3029021
0.348002222	-6.212234662	-226.2980101
0.347392637	-6.142131588	-226.2960629
0.347702579	-6.069972482	-226.2942137
0.347208948	-5.999770574	-226.2892704
0.347880347	-5.928372923	-226.2794031
0.347189135	-5.858329517	-226.2794634
0.347415113	-5.788296825	-226.2815527
0.347601774	-5.718303492	-226.2846304
0.347349982	-5.648616653	-226.2987052
0.347294329	-5.577763471	-226.306825
0.346845769	-5.506513243	-226.2999121
0.347312438	-5.436292269	-226.2959992
0.347378361	-5.366377946	-226.3020735
0.347048175	-5.296067544	-226.293145
0.346959851	-5.224530343	-226.2772439
0.346268644	-5.154476651	-226.2772944
0.346414394	-5.084503292	-226.2813812
0.346605388	-5.012443135	-226.2825281
0.346311328	-4.942092934	-226.2725909
0.346782381	-4.87189208	-226.2686875
0.346165166	-4.802472688	-226.2917609
0.34679081	-4.731817757	-226.3078922
0.34662205	-4.660359903	-226.293988
0.345934292	-4.58959268	-226.2690187
0.345845364	-4.518065506	-226.2531173
0.346312022	-4.447865102	-226.2492237
0.345459963	-4.377920087	-226.2532696
0.346084237	-4.308294238	-226.2703915
0.346069932	-4.238439248	-226.2784633
0.346299905	-4.168406403	-226.2805527
0.345646952	-4.096266182	-226.2776631
0.345918879	-4.025510489	-226.2537433
0.345587737	-3.956208302	-226.245776
0.34553212	-3.886373583	-226.2548668
0.345484188	-3.813482614	-226.261025
0.344911959	-3.744358721	-226.2590602
0.345137542	-3.674316042	-226.2611498
0.345564888	-3.60414471	-226.258235
0.345357184	-3.531678007	-226.2443592
0.344907063	-3.461446022	-226.2384072
0.344851842	-3.39162129	-226.2474978
0.344680673	-3.321885108	-226.2595748
0.344504116	-3.252139129	-226.2716518
0.344850833	-3.182027427	-226.2707446
0.344322216	-3.109798054	-226.2648588
0.344386941	-3.039874336	-226.2709534
0.3442962	-2.970088254	-226.2810125
0.344561891	-2.900026193	-226.282113
0.344948722	-2.829884825	-226.280207
0.344258656	-2.75776387	-226.2783065
0.344604576	-2.687642476	-226.2774095
0.344435277	-2.61824186	-226.2654567
0.344466532	-2.547643594	-226.24751
0.343575351	-2.477738493	-226.2525644
0.344080825	-2.406134082	-226.2707215
0.343985288	-2.336348747	-226.2808005
0.344291094	-2.26625702	-226.2809022
0.343886155	-2.196321089	-226.2499322
0.343757945	-2.125851735	-226.2359902
0.344098964	-2.054376428	-226.2581519
0.343768702	-1.983740113	-226.273243
0.343758472	-1.914200597	-226.2572856
0.342949569	-1.843522966	-226.2353326
0.343134831	-1.773529967	-226.2384203
0.343560071	-1.701995174	-226.2585846
0.343224853	-1.632377513	-226.2746465
0.342933903	-1.561712125	-226.2887588
0.343879498	-1.491838365	-226.2978709
0.343104672	-1.421834133	-226.2999192
0.343334041	-1.351811315	-226.3020083
0.343359048	-1.281927251	-226.3091013
0.342909129	-1.211685536	-226.3031597
0.342820597	-1.140168349	-226.287258
0.342891558	-1.069550999	-226.2683322
0.342477983	-1.000328237	-226.2623618
0.342787788	-0.930226071	-226.262454
0.34233687	-0.859984394	-226.2565123
0.342845574	-0.787707037	-226.2496684
0.342830071	-0.717842651	-226.2577604
0.342258162	-0.648402835	-226.279815
0.342919921	-0.577728675	-226.294957
0.34214809	-0.507724328	-226.2970054
0.342294976	-0.435693991	-226.2991508
0.34220364	-0.365888487	-226.3092306
0.342550356	-0.295776786	-226.3083233
0.342299843	-0.22641497	-226.2983485
0.341849912	-0.156193824	-226.2924263
0.341521268	-0.083815861	-226.2815367
0.341672494	-0.014157642	-226.2615845
0.341379231	0.056182867	-226.251637
0.341568287	0.126185453	-226.2547452
0.341554377	0.196030455	-226.2628167
0.341219097	0.267714489	-226.2769575
0.34172927	0.337955256	-226.2720456
0.341041334	0.407673717	-226.2480564
0.340985286	0.478536887	-226.2561766
0.341928832	0.547697451	-226.2902986
0.341432928	0.618234627	-226.3093951
0.341339519	0.690066694	-226.3175425
0.341248985	0.759872791	-226.3276023
0.341674737	0.830063505	-226.324708
0.341665299	0.899583045	-226.3087502
0.340696735	0.970132319	-226.2907819
0.340646787	1.039632181	-226.275823
0.340678368	1.112276547	-226.2559647
0.340984976	1.182368868	-226.2560464
0.341168397	1.251668685	-226.2841446
0.341113576	1.321493712	-226.2932252
0.34022744	1.392112126	-226.2732698
0.3406949	1.462313123	-226.2693563
0.340801671	1.534313795	-226.2725005
0.340029841	1.604318142	-226.2745488
0.340454341	1.673785968	-226.2966542
0.340279178	1.743521997	-226.308731
0.34011199	1.816018663	-226.2938465
0.340261076	1.883609581	-226.2758452
0.340486659	1.953652261	-226.2779348
0.339517176	2.025535032	-226.2830447
0.340062674	2.095815003	-226.2771442
0.339774409	2.166165989	-226.2671873
0.339883035	2.236099512	-226.2722827
0.33954702	2.305726864	-226.2883548
0.339533048	2.37763824	-226.2945052
0.33960336	2.447542728	-226.3005794
0.339627972	2.51743678	-226.3076727
0.33941814	2.587856751	-226.2957285
0.339450381	2.658434485	-226.2778013
0.338836378	2.729576142	-226.2748735
0.339701905	2.800408477	-226.2850322
0.339211298	2.869581752	-226.2810697
0.339282661	2.940199399	-226.262134
0.339428405	3.010162473	-226.2662304
0.339177748	3.08190629	-226.2783639
0.338842439	3.150169845	-226.2713668
0.338554513	3.222587501	-226.2594788
0.338984883	3.2917302	-226.2575449
0.338129226	3.361665073	-226.2615903
0.339035263	3.432517086	-226.27075
0.339024556	3.502382219	-226.2788222
0.338691948	3.57373128	-226.2689132
0.33776689	3.644300348	-226.249946
0.338232023	3.712464046	-226.2479844
0.338297687	3.784445298	-226.2521176
0.338246855	3.854260194	-226.261208
0.338507244	3.925675872	-226.2853772
0.338496932	3.995531016	-226.2934492
0.338207262	4.065871382	-226.2835119
0.337797457	4.136142764	-226.2765715
0.338183096	4.206303812	-226.274676
0.338010661	4.278077436	-226.284791
0.337793188	4.347793155	-226.2978868
0.338183623	4.41795495	-226.2959715
0.33805481	4.488414277	-226.2820292
0.337480549	4.558556556	-226.2790934
0.337310515	4.630349717	-226.289229
0.337376433	4.700253755	-226.295313
0.3378423	4.770474136	-226.29142
0.337392007	4.839667644	-226.2864385
0.336860861	4.909849988	-226.2824943
0.337487981	4.980179342	-226.274596
0.337437493	5.052071193	-226.2817457
0.337503811	5.121975528	-226.2878197
0.336973462	5.192148181	-226.2838652
0.336757778	5.261843963	-226.2969605
0.337423709	5.333567038	-226.3111226
0.337489632	5.403481361	-226.3171969
0.336958085	5.473663409	-226.3132627
0.336869984	5.544152144	-226.2983317
0.336699298	5.613572995	-226.2863695
0.336485724	5.686364826	-226.296533
0.337110795	5.755980983	-226.3136446
0.336340358	5.825975381	-226.3156928
0.336887645	5.896235414	-226.3097917
0.336952908	5.968216369	-226.3139349
0.336222586	6.038240432	-226.3149843
0.336132919	6.10770064	-226.3010239
0.336243462	6.176300704	-226.283041
0.336274137	6.24584991	-226.2660844
0.336225359	6.316388288	-226.2501552
0.335971104	6.388121963	-226.2622882
0.335915943	6.460329547	-226.2934569
0.336060288	6.530292286	-226.2975634
0.335730946	6.599595104	-226.2895762
0.335916404	6.669587548	-226.2926839
0.335986457	6.741558965	-226.296817
0.336131812	6.811542312	-226.300904
0.335161773	6.882417164	-226.3069653
0.335467413	6.951480699	-226.3080277
0.3356133	7.023510998	-226.3101731
0.335482411	7.094305039	-226.3202906
0.335307988	7.166108035	-226.3304264
0.33533339	7.235982111	-226.3375192
0.335082531	7.307716198	-226.3496423
0.335228281	7.377689557	-226.3537291
0.335139785	7.44818828	-226.3387983
0.335449734	7.515908444	-226.3167824
0.335240889	7.586307884	-226.3048576
0.334585402	7.656390792	-226.3039193
0.334256048	7.72567304	-226.2959515
0.334725713	7.795894129	-226.2920386
0.334431343	7.867598138	-226.3051704
0.334817036	7.940131754	-226.3253628
0.334802725	8.00997646	-226.3334443
0.335028309	8.080019139	-226.3355339
0.334538807	8.152278141	-226.3286493
0.334013791	8.220068429	-226.3026069
0.334400364	8.287827499	-226.2786027
0.33367038	8.359918233	-226.2777209
0.334215796	8.430513832	-226.2958497
0.333880911	8.502187878	-226.3099902
0.333749253	8.5719437	-226.3210681
0.333976373	8.644043655	-226.3212063
0.333886907	8.713513593	-226.3072562
0.334117591	8.782192926	-226.2862668
0.333943564	8.853985933	-226.2964023
0.333288167	8.925422946	-226.3185228
0.334153699	8.996265567	-226.3286718
0.333422774	9.066279604	-226.3297209
0.33408944	9.135610134	-226.3217945
0.333319342	9.207671202	-226.3219115
0.333384662	9.277575498	-226.3279855
0.333890297	9.350197816	-226.3451917
0.334075253	9.421554909	-226.3713385
0.334060152	9.491419591	-226.3794206
0.333891822	9.561848993	-226.3664871
0.332965801	9.63139956	-226.3484909
0.333433261	9.701600557	-226.3445774
0.332781372	9.771693606	-226.3436394
0.333603759	9.843524908	-226.3538161
0.332913946	9.91356865	-226.3538664
0.333104121	9.982228305	-226.333876
0.333050034	10.05411001	-226.3410252
0.333040463	10.12603213	-226.3471561
0.332590676	10.19387127	-226.3191257
0.332661501	10.26243168	-226.3021413
0.332807388	10.33446198	-226.3042867
0.332395534	10.40402016	-226.3223562
0.332421682	10.47597149	-226.3274982
0.332211839	10.54637089	-226.3155734
0.331882497	10.61567371	-226.3075862
0.33230904	10.68584445	-226.3046914
0.332374964	10.75575877	-226.3107657
0.331524435	10.82775078	-226.3128699
0.331914858	10.897892	-226.3109741
0.331859643	10.96772702	-226.3200549
0.33200553	11.03975732	-226.3222003
0.331476173	11.10991972	-226.3182556
0.331340729	11.17969541	-226.329334
0.331729363	11.24985657	-226.3274386
0.331521321	11.3202566	-226.3154939
0.331827527	11.39034863	-226.3155857
0.331532159	11.4620526	-226.3287173
0.331758877	11.53415226	-226.3288656
0.33146907	11.60243568	-226.3208697
0.331618384	11.67343764	-226.3239859
0.331404414	11.74623946	-226.3341497
0.331630788	11.81626217	-226.3362387
0.330860351	11.88625656	-226.3382869
0.330805668	11.95813853	-226.345426
0.331196492	12.02828005	-226.3435202
0.330705891	12.09746361	-226.3395479
0.330891152	12.16745661	-226.3426357
0.33060169	12.23781699	-226.332699
0.330392253	12.30822698	-226.3207545
0.330738569	12.37833838	-226.3198572
0.330483918	12.45008204	-226.3319905
0.330233655	12.52181587	-226.3441236
0.330539467	12.59191789	-226.3442157
0.330885185	12.66202955	-226.3433084
0.330356568	12.73425892	-226.3374226
0.330185136	12.80160252	-226.3274111
0.330531463	12.8717345	-226.3264944
0.329922217	12.94390424	-226.3226161
0.330112787	13.01255391	-226.3026255
0.329623495	13.0803837	-226.2755844
0.329692809	13.15028815	-226.2816586
0.329874104	13.22370147	-226.3058839
0.329304639	13.2938445	-226.3029283
0.329014568	13.36418457	-226.293001
0.329240151	13.43422725	-226.2950905
0.329550352	13.50431942	-226.2951825
0.328980227	13.57652908	-226.2902957
0.328810195	13.64387301	-226.2802742
0.328835913	13.71240357	-226.2642884
0.328587361	13.78278392	-226.2533427
0.328937103	13.85186699	-226.2534163
0.328242642	13.9239875	-226.2515256
0.328593358	13.99410964	-226.2506088
0.328142429	14.06433074	-226.2446865
0.328013824	14.13481008	-226.2307449
0.327719455	14.20206487	-226.2237195
0.327868941	14.27410531	-226.2258654
0.328415832	14.34437533	-226.2199646
0.327405021	14.41283792	-226.2049364
0.327396186	14.48236749	-226.1889788
0.327866641	14.5525686	-226.1850654
0.327891252	14.62246265	-226.1921587
0.327041722	14.6944547	-226.194263
0.327747935	14.7627864	-226.1863086
0.326861627	14.83236634	-226.1673235
0.326888745	14.90089723	-226.1513278
0.326839364	14.97142558	-226.1353983
0.326709051	15.03880917	-226.1243783
0.326373167	15.11048317	-226.1385188
0.326324444	15.18339412	-226.1446775
0.326112904	15.25071834	-226.135655
0.326819851	15.32110673	-226.1257692
0.326290896	15.39126943	-226.1218145
0.32575975	15.46145178	-226.1178704
0.32630608	15.53070359	-226.1129306
0.326017007	15.6010437	-226.1030033
0.325367229	15.66978357	-226.0789766
0.32571688	15.73751254	-226.0559913
0.324946838	15.80749694	-226.0580391
0.325013501	15.87947823	-226.0621723
0.325122133	15.94942204	-226.067258
0.325189191	16.02139334	-226.0713909
0.324738131	16.0895678	-226.0674004
0.325404964	16.15992652	-226.0585133
0.324993988	16.22915939	-226.0525433
0.325380824	16.29931104	-226.0506276
0.32457041	16.37133271	-226.051733
0.325196395	16.43960509	-226.0457761
0.324666242	16.50977718	-226.0418417
0.325016355	16.5798893	-226.0409246
0.324246658	16.65195066	-226.0410316
0.324312581	16.72186498	-226.0471059
0.324378837	16.79383569	-226.0512588
0.324483475	16.86377935	-226.0563443
0.324313781	16.93318995	-226.0443918
0.324263666	17.00166162	-226.0303936
0.323613973	17.07174531	-226.0294355
0.324160458	17.14200475	-226.0235544
0.32366926	17.21118857	-226.0195722
0.323580423	17.28406985	-226.0267297
0.323405994	17.35586256	-226.0368751
0.32355074	17.4258256	-226.0409716
0.323221398	17.49512842	-226.0329844
0.323727379	17.56537846	-226.0280926
0.32387652	17.63534195	-226.0321793
0.323622264	17.70707562	-226.0443122
0.323132231	17.77728767	-226.0393693
0.322722392	17.84412829	-226.0113009
0.322792648	17.91610944	-226.0154442
0.322854002	17.98943406	-226.0426559
0.323680384	18.06126552	-226.0528327
0.323667603	18.13315721	-226.0589725
0.323376401	18.20589981	-226.071134
0.323401809	18.27578417	-226.0782171
0.323548694	18.34781451	-226.0803625
0.323458149	18.41760004	-226.0904417
0.322883518	18.49115362	-226.1086133
0.323068807	18.5645671	-226.1328388
0.323251279	18.63902922	-226.1560841
0.323081038	18.71080237	-226.1662191
0.323386849	18.78090438	-226.1663112
0.323212822	18.85269739	-226.1764467
0.323318851	18.92708032	-226.201689
0.323263857	19.0003161	-226.2318971
0.324282905	19.07808862	-226.2803054
0.323948814	19.1542022	-226.3145927
0.324370059	19.23018607	-226.354914
0.32491187	19.30521047	-226.3932091
0.324141826	19.3796441	-226.4154141
0.324563862	19.45560799	-226.4557348
0.324626213	19.53338188	-226.5031035
0.325567632	19.61110518	-226.5535098
0.325509835	19.68877035	-226.6038642
0.326327737	19.76980499	-226.6784039
0.326550198	19.85006982	-226.7438755
0.326688007	19.93130361	-226.8103737
0.536847956	-19.89222651	-227.0586988
0.535612325	-19.809155	-226.9870244
0.535493121	-19.73079348	-226.9412974
0.535221026	-19.64701967	-226.8456426
0.533952682	-19.56225596	-226.748986
0.53327035	-19.48635675	-226.7191831
0.533468873	-19.40774718	-226.6654362
0.532428697	-19.32934479	-226.6176709
0.532905032	-19.25329828	-226.583904
0.532339449	-19.17730994	-226.5510947
0.531456781	-19.10258696	-226.5272363
0.531252823	-19.02633188	-226.4854483
0.531173968	-18.94896859	-226.4396732
0.530526397	-18.87404839	-226.4098427
0.530882791	-18.79809058	-226.379062
0.529922103	-18.72169583	-226.3312403
0.529882732	-18.64326499	-226.283516
0.529870441	-18.57167834	-226.2656069
0.529462166	-18.49935997	-226.2567249
0.529093741	-18.42495528	-226.2449127
0.529248033	-18.3511928	-226.2210675
0.528560572	-18.27735073	-226.1932058
0.528992256	-18.20510229	-226.1883504
0.528621956	-18.13482155	-226.1804207
0.528535965	-18.06123677	-226.1625579
0.528123295	-17.98891884	-226.1536857
0.52851346	-17.91671069	-226.1498488
0.528225189	-17.84636999	-226.1399015
0.528053576	-17.77284503	-226.1240461
0.527965418	-17.70027963	-226.1071843
0.527797397	-17.62675481	-226.0913391
0.527589292	-17.55428841	-226.0774733
0.527340309	-17.4828796	-226.0655569
0.526770438	-17.41274716	-226.0626209
0.527077785	-17.34058787	-226.0607616
0.526547436	-17.27041522	-226.0568072
0.527056083	-17.1960612	-226.0480325
0.526687183	-17.12578013	-226.0400927
0.526951314	-17.05673631	-226.0421542
0.526502925	-16.9844476	-226.0342709
0.52625451	-16.91201031	-226.0213838
0.526480827	-16.83991095	-226.021542
0.525630959	-16.76998557	-226.0255774
0.52622096	-16.69968577	-226.018678
0.525491199	-16.6286435	-226.0187664
0.526351603	-16.55985801	-226.0308566
0.526420723	-16.48993385	-226.0369413
0.525605575	-16.4199793	-226.0399877
0.525835548	-16.34994645	-226.0420771
0.52606226	-16.27785708	-226.042235
0.526168298	-16.20791309	-226.0473106
0.526076358	-16.13811761	-226.05739
0.526221369	-16.07021122	-226.0634179
0.525572014	-15.99806086	-226.0605287
0.525876822	-15.92796917	-226.0606304
0.52510678	-15.85798476	-226.0626782
0.52525327	-15.78594443	-226.0648239
0.52528094	-15.71811664	-226.0738385
0.525266233	-15.64826194	-226.0819203
0.525492212	-15.57822925	-226.0840095
0.525445131	-15.50461569	-226.065178
0.525076775	-15.4322671	-226.0552772
0.525221723	-15.36229433	-226.059384
0.525409848	-15.29434788	-226.0644035
0.524475701	-15.22240533	-226.0685054
0.524625841	-15.15244181	-226.0725921
0.524529777	-15.08469314	-226.084603
0.52487308	-15.01631343	-226.1096866
0.525538271	-14.94665732	-226.1257898
0.525003126	-14.87648542	-226.1218551
0.525354576	-14.80430659	-226.119007
0.525097654	-14.73667689	-226.1350229
0.524842659	-14.66701018	-226.149097
0.524594243	-14.59457288	-226.1362099
0.524506314	-14.52304567	-226.1203085
0.52473169	-14.45302301	-226.1223975
0.524800409	-14.38309913	-226.1284922
0.52430337	-14.31461894	-226.14953
0.524727137	-14.24720779	-226.1735668
0.524791862	-14.17728407	-226.1796613
0.524979653	-14.10524405	-226.1808075
0.524886917	-14.03543888	-226.1908972
0.524911763	-13.96657272	-226.1989412
0.52513757	-13.89757851	-226.2020008
0.524527726	-13.82540851	-226.1981125
0.52483473	-13.75532617	-226.198194
0.52482322	-13.68546164	-226.2062863
0.524848227	-13.61557757	-226.2133793
0.524794771	-13.54473375	-226.2214789
0.524702436	-13.47492828	-226.2315586
0.523972114	-13.40490422	-226.232608
0.524197834	-13.3328046	-226.2327562
0.524343979	-13.26284123	-226.2368427
0.524649223	-13.1937677	-226.2379054
0.524362483	-13.12138001	-226.2260166
0.52367048	-13.05131663	-226.2260774
0.523820625	-12.98134282	-226.2301543
0.523406562	-12.90901495	-226.2212824
0.524238074	-12.83957559	-226.2093609
0.523791221	-12.76522961	-226.1995263
0.523055506	-12.69520603	-226.2005854
0.52371916	-12.6276072	-226.2186399
0.523588673	-12.55681286	-226.2287475
0.524015451	-12.48767002	-226.2268034
0.523765838	-12.41522333	-226.2139366
0.523477906	-12.34281596	-226.2020583
0.522900203	-12.27337693	-226.2241326
0.523243913	-12.20498664	-226.2491965
0.523830351	-12.13571544	-226.2432677
0.522702071	-12.06321786	-226.2273533
0.523052912	-11.99105935	-226.2245145
0.523278495	-11.92101667	-226.2266041
0.523103338	-11.85127036	-226.2386712
0.523606932	-11.78380018	-226.2607204
0.52327188	-11.71315433	-226.2758216
0.522661297	-11.64305129	-226.2738744
0.523248475	-11.57171312	-226.2660045
0.522678609	-11.5015704	-226.2630588
0.522426207	-11.43190387	-226.277143
0.523047463	-11.3612391	-226.2932743
0.523197207	-11.29126559	-226.2973613
0.522547508	-11.22119218	-226.2964129
0.522772092	-11.15114954	-226.2985024
0.523118241	-11.08206633	-226.2985658
0.522629343	-11.0097973	-226.2916815
0.522855322	-10.93976461	-226.2937708
0.522402126	-10.86919795	-226.3118786
0.522187646	-10.79950128	-226.3249439
0.522099717	-10.72797406	-226.3090425
0.521971243	-10.65544807	-226.2931692
0.52251853	-10.58518803	-226.2872682
0.521787548	-10.51309734	-226.2863864
0.52221393	-10.44394451	-226.2844426
0.52184503	-10.37366344	-226.2765029
0.522111863	-10.30153411	-226.2756523
0.521340428	-10.23153975	-226.2777004
0.521730461	-10.16137826	-226.2757951
0.521997481	-10.08927893	-226.2749437
0.521306877	-10.01921522	-226.2749946
0.521773145	-9.948994539	-226.2710916
0.521764841	-9.87741802	-226.2531924
0.521517023	-9.804980983	-226.2403153
0.521342262	-9.735244657	-226.2523822
0.521085867	-9.665578284	-226.2664661
0.521436187	-9.595446156	-226.2655496
0.520745182	-9.525382734	-226.2656105
0.520569416	-9.455656732	-226.277687
0.520634938	-9.385742705	-226.2837713
0.521227474	-9.313385589	-226.2749206
0.520854524	-9.241028012	-226.2650499
0.52024394	-9.170924977	-226.2631027
0.520433798	-9.100921798	-226.2661909
0.520779151	-9.031828894	-226.2662646
0.520804529	-8.960915786	-226.2723669
0.520588857	-8.891199435	-226.2854428
0.520498311	-8.821413908	-226.295522
0.52056537	-8.749442607	-226.2996549
0.520871175	-8.679350879	-226.2997567
0.520541391	-8.60904018	-226.2908182
0.520612124	-8.537384649	-226.270932
0.520083908	-8.465154979	-226.2650362
0.52010892	-8.395260631	-226.2721196
0.519739022	-8.324979597	-226.2641798
0.519731321	-8.253393052	-226.2462809
0.519240289	-8.183181041	-226.241338
0.519745018	-8.113653883	-226.2614459
0.519569855	-8.043917854	-226.2735227
0.519121128	-7.973695818	-226.2675705
0.519627647	-7.901388535	-226.2607274
0.519772595	-7.831415769	-226.2648341
0.519682852	-7.761629649	-226.2748934
0.519867519	-7.691617229	-226.2780017
0.519258076	-7.61944693	-226.2741034
0.518727929	-7.549264547	-226.2701592
0.519355444	-7.478945181	-226.2622607
0.518625258	-7.406864177	-226.2613687
0.518890388	-7.337820321	-226.2634301
0.518440261	-7.26759862	-226.2574879
0.519028402	-7.195241954	-226.248647
0.51825757	-7.125237568	-226.2506954
0.518246656	-7.055392451	-226.2587671
0.518592575	-6.985271057	-226.2578701
0.518385273	-6.912804057	-226.2439843
0.517893668	-6.84363082	-226.2400217
0.51795919	-6.773716794	-226.246106
0.517944656	-6.702823622	-226.2532174
0.518095327	-6.630813146	-226.2553624
0.518160454	-6.560889131	-226.261447
0.518465698	-6.491815609	-226.2625097
0.518258785	-6.419368882	-226.2486334
0.517727238	-6.349186834	-226.2446992
0.517872994	-6.27920319	-226.2487763
0.518223303	-6.209091631	-226.2478791
0.518128172	-6.139295715	-226.2579384
0.517632492	-6.069807004	-226.278005
0.517580869	-5.999972131	-226.287096
0.517607979	-5.927002303	-226.291267
0.517592534	-5.859214576	-226.3012899
0.517778139	-5.787144622	-226.3024368
0.518010389	-5.717436761	-226.2804768
0.51704516	-5.644820702	-226.2605775
0.517545895	-5.575293697	-226.2806852
0.517929886	-5.505845549	-226.3037897
0.517400529	-5.435683142	-226.299845
0.51727166	-5.363147156	-226.2839719
0.517618382	-5.29302517	-226.2830549
0.517526645	-5.223219963	-226.2931447
0.516671784	-5.153294782	-226.2971798
0.517021698	-5.083173235	-226.296283
0.516490941	-5.013011163	-226.2923483
0.516757607	-4.941910031	-226.2924584
0.51682313	-4.871996005	-226.2985427
0.51709321	-4.801943779	-226.2996431
0.5166387	-4.731701958	-226.2936912
0.517030264	-4.65949347	-226.2898443
0.516460392	-4.589361026	-226.2869084
0.515925654	-4.519178538	-226.282954
0.516235854	-4.449086361	-226.283046
0.515786295	-4.377836171	-226.276133
0.515737517	-4.307297793	-226.2602039
0.516123557	-4.237136449	-226.2582984
0.516350671	-4.165046778	-226.2584463
0.515940658	-4.094795412	-226.2515053
0.515604638	-4.025178344	-226.2675872
0.515949311	-3.955769554	-226.2916801
0.515378452	-3.885616579	-226.2887247
0.51585172	-3.813674336	-226.2588507
0.515043016	-3.743006138	-226.2368774
0.515634015	-3.672706297	-226.229978
0.514699461	-3.600774333	-226.2340996
0.51492883	-3.530751514	-226.2361887
0.514919599	-3.461211959	-226.2202315
0.515068331	-3.388478155	-226.1973567
0.515138644	-3.318573667	-226.2034309
0.514882456	-3.248887279	-226.2175155
0.514827642	-3.179051966	-226.2265863
0.514735697	-3.109266774	-226.2366755
0.514479905	-3.039590374	-226.2507598
0.514304914	-2.968815868	-226.2618662
0.514896143	-2.899554208	-226.2559272
0.514442361	-2.82726599	-226.2480538
0.51459211	-2.757282193	-226.252131
0.514377229	-2.687585818	-226.2652063
0.514443152	-2.617671495	-226.2712806
0.514153081	-2.547331426	-226.2613533
0.513903732	-2.47694138	-226.2504179
0.514490307	-2.405613241	-226.2425477
0.513720266	-2.335628832	-226.2445955
0.514465456	-2.26487521	-226.2577408
0.514290293	-2.195139181	-226.2698176
0.51419875	-2.125353693	-226.2798967
0.51410342	-2.055548343	-226.2899763
0.513694744	-1.983230268	-226.2811043
0.513605478	-1.913769764	-226.267134
0.513631058	-1.842846926	-226.2732466
0.513576238	-1.773021898	-226.2823272
0.51324662	-1.701683006	-226.272428
0.514034202	-1.631224702	-226.260525
0.513624397	-1.560953321	-226.2535846
0.513532853	-1.491167832	-226.2636637
0.513792107	-1.421809133	-226.2897743
0.513661224	-1.351004807	-226.2998821
0.513131701	-1.281870593	-226.2968981
0.513276453	-1.211897273	-226.3009848
0.513143107	-1.139046109	-226.3091509
0.513091879	-1.069221225	-226.3182416
0.513077574	-0.999366234	-226.3263134
0.513068136	-0.929846694	-226.3103555
0.5131397	-0.859219317	-226.2914301
0.513286586	-0.78718898	-226.2935755
0.512755841	-0.717006339	-226.2896214
0.512506314	-0.647665054	-226.279666
0.512370267	-0.577899398	-226.2907441
0.513156363	-0.507136086	-226.30289
0.512747125	-0.435836215	-226.2949789
0.512574808	-0.365396681	-226.2820356
0.512204508	-0.295115944	-226.2741058
0.512434085	-0.225073111	-226.2761955
0.512618957	-0.15505984	-226.2792738
0.512370961	-0.083671565	-226.2673769
0.511759988	-0.013548256	-226.2654202
0.511904942	0.056434794	-226.2695173
0.512091202	0.126427831	-226.272605
0.511481623	0.19654119	-226.2706481
0.512307207	0.268382337	-226.2808352
0.512491986	0.338690667	-226.3079622
0.512155374	0.408318277	-226.3240243
0.51186551	0.478678361	-226.3140976
0.51121669	0.54842645	-226.2891096
0.51108848	0.618895803	-226.2751677
0.511234225	0.688858877	-226.2792642
0.511303482	0.760839986	-226.2834075
0.511248661	0.830665014	-226.2924881
0.51183402	0.900251801	-226.3105885
0.511223243	0.970374555	-226.3086518
0.511729022	1.040614872	-226.3037498
0.511714654	1.112536236	-226.3099005
0.511426785	1.182877233	-226.2999433
0.510941618	1.252753832	-226.2709707
0.511169874	1.322461539	-226.2490105
0.510398439	1.392455898	-226.2510586
0.510703102	1.464929588	-226.2732685
0.510809535	1.534863589	-226.2783438
0.510719077	1.604343773	-226.264384
0.51018933	1.674526453	-226.2604298
0.510374788	1.744518896	-226.2635376
0.510603762	1.814551703	-226.265627
0.509914751	1.884596038	-226.2656573
0.510260275	1.95472742	-226.2647606
0.510406162	2.026757719	-226.266906
0.510552308	2.09672109	-226.2709925
0.5105412	2.166585925	-226.2790747
0.509809879	2.23660995	-226.2801241
0.510356771	2.306879972	-226.2742233
0.509747926	2.379050013	-226.270335
0.509934191	2.449053335	-226.2734131
0.509522413	2.518285607	-226.267463
0.509233747	2.588636296	-226.2575161
0.509257761	2.658530606	-226.2645994
0.509484135	2.728553309	-226.2666884
0.508954383	2.798725704	-226.262744
0.508943011	2.870647183	-226.2688948
0.509725944	2.940382187	-226.2820013
0.509714635	3.010237293	-226.2900732
0.509265845	3.082525702	-226.2822
0.508770814	3.152727274	-226.2772666
0.508840731	3.222641751	-226.283341
0.508986086	3.292625098	-226.2874281
0.508496246	3.362817429	-226.2824746
0.508802052	3.432909156	-226.2825764
0.508872708	3.5048906	-226.2867098
0.509259138	3.575031671	-226.2848137
0.508688674	3.645174658	-226.2818581
0.509034422	3.714257574	-226.2819315
0.508663733	3.784558584	-226.2739923
0.508849202	3.854571597	-226.2770806
0.508595737	3.926285296	-226.289213
0.508905542	3.996387462	-226.2893052
0.508575362	4.066708149	-226.280367
0.508526979	4.137236539	-226.2644375
0.50811201	4.206469251	-226.2584673
0.50826215	4.276432775	-226.262554
0.507607721	4.348898574	-226.2836938
0.508191486	4.418504745	-226.3018148
0.508258143	4.49047575	-226.3059577
0.508087285	4.558858124	-226.2949658
0.508238505	4.628506059	-226.2750232
0.507708551	4.698668723	-226.2710685
0.507573841	4.770501089	-226.2802155
0.507559536	4.84035608	-226.2882873
0.507269865	4.910696445	-226.2783501
0.50789659	4.981035787	-226.2704521
0.507686442	5.052799282	-226.2815865
0.507591112	5.122604632	-226.291666
0.507817486	5.192627335	-226.293755
0.507005937	5.262592028	-226.2968019
0.507397105	5.334810505	-226.2929552
0.507461623	5.404714208	-226.2990492
0.507206633	5.474391201	-226.3131135
0.507751815	5.546014696	-226.3302916
0.507062408	5.616069019	-226.3303222
0.506573815	5.686973953	-226.3003788
0.5070051	5.75477287	-226.2753763
0.506988994	5.824627229	-226.2834681
0.507060046	5.896598684	-226.2876012
0.506249495	5.966563415	-226.290648
0.506750569	6.03815709	-226.3088247
0.506699712	6.109011019	-226.3169247
0.506851728	6.178649263	-226.2969719
0.506678614	6.249098488	-226.2840388
0.506506453	6.318844917	-226.296106
0.506172358	6.390498987	-226.3102459
0.505956686	6.460215338	-226.3233218
0.506105432	6.530188812	-226.3274087
0.506653063	6.6025258	-226.3195669
0.505643646	6.670978441	-226.3045384
0.506234214	6.742306734	-226.2966683
0.506100129	6.81309093	-226.3067754
0.505844342	6.882777615	-226.32085
0.505794651	6.954659775	-226.3279894
0.50570099	7.024119829	-226.3140289
0.505571984	7.094598874	-226.3000972
0.50516118	7.164870217	-226.2931568
0.505548011	7.235011585	-226.2912508
0.504938432	7.305124944	-226.2892939
0.505047058	7.375058467	-226.2943892
0.505193548	7.447098793	-226.2965349
0.505499353	7.51719052	-226.2966367
0.505327789	7.586936691	-226.308714
0.504793329	7.658443281	-226.3278176
0.505778235	7.728346114	-226.335951
0.504729048	7.798846045	-226.3199805
0.504403598	7.866774341	-226.288954
0.504870267	7.936995315	-226.2850411
0.505296298	8.008510131	-226.3052048
0.505242619	8.080402423	-226.3123343
0.504872325	8.150693444	-226.3043949
0.505098699	8.220716147	-226.3064839
0.504326868	8.290720494	-226.3085322
