# .PCD v0.7 - Point Cloud Data file format
VERSION 0.7
FIELDS x y z
SIZE 4 4 4
TYPE F F F
COUNT 1 1 1
WIDTH 1322
HEIGHT 1
VIEWPOINT 0 0 0 1 0 0 0
POINTS 1322
DATA ascii
-0.041896999 -0.27412936 -0.33348933
-0.041654002 -0.27406898 -0.33347133
-0.041485336 -0.27407467 -0.33346501
-0.041297 -0.27408335 -0.33346501
-0.0410765 -0.27411374 -0.33347702
-0.040892001 -0.27410612 -0.33345473
-0.040723667 -0.27411935 -0.33345434
-0.040540665 -0.27412233 -0.33344933
-0.040079109 -0.27408177 -0.3334181
-0.039855 -0.2741375 -0.33340549
-0.017464001 -0.27401099 -0.33347601
-0.017374335 -0.27407598 -0.33354366
-0.052050002 -0.27392501 -0.33359501
-0.05174375 -0.27388924 -0.33358777
-0.051024999 -0.27387166 -0.33357596
-0.050903004 -0.27387899 -0.33357459
-0.050484002 -0.27389666 -0.33356902
-0.050272495 -0.27390251 -0.33357301
-0.050112497 -0.27390999 -0.33358413
-0.049886107 -0.27392799 -0.33357999
-0.049724501 -0.27389902 -0.333583
-0.049549501 -0.2739 -0.33359498
-0.0492962 -0.27389723 -0.33358201
-0.049109399 -0.2738862 -0.33357078
-0.048934668 -0.27390701 -0.33354831
-0.048462331 -0.27392015 -0.33353665
-0.048281796 -0.27393839 -0.333543
-0.048103001 -0.2738685 -0.33355251
-0.047913332 -0.27388135 -0.33353567
-0.047657002 -0.27389035 -0.33353302
-0.04747 -0.27389869 -0.3335267
-0.047292445 -0.27390945 -0.33354411
-0.047059339 -0.27392331 -0.3335577
-0.046885669 -0.27389917 -0.33354136
-0.046493664 -0.27388617 -0.33354783
-0.046291623 -0.27390575 -0.33353111
-0.046108145 -0.27389714 -0.33353299
-0.045935333 -0.27391466 -0.33353865
-0.045792002 -0.27392164 -0.333536
-0.045507498 -0.273902 -0.33353502
-0.045239002 -0.27387866 -0.33354232
-0.045063779 -0.27389491 -0.33353123
-0.044896498 -0.27390584 -0.33351168
-0.044654999 -0.27391365 -0.33352199
-0.04433025 -0.27392876 -0.33353478
-0.0441362 -0.27389541 -0.33351862
-0.043900501 -0.27388883 -0.33350599
-0.043616667 -0.27389601 -0.33348465
-0.043484334 -0.27390882 -0.33350766
-0.043308999 -0.27392003 -0.33349383
-0.043078002 -0.27392399 -0.33351633
-0.042883664 -0.27387419 -0.33347067
-0.042717502 -0.27387834 -0.33347499
-0.042505369 -0.27389804 -0.33347824
-0.042286996 -0.2738933 -0.3334797
-0.042101 -0.27391064 -0.33349156
-0.04193883 -0.27392066 -0.33346519
-0.041641001 -0.27389598 -0.33345503
-0.0414715 -0.273902 -0.33345699
-0.041307282 -0.27388629 -0.33343092
-0.041129999 -0.27387199 -0.33343938
-0.040878125 -0.27391687 -0.33342689
-0.040715002 -0.273983 -0.333417
-0.040525001 -0.27391568 -0.33342835
-0.040087331 -0.27387187 -0.33341637
-0.017452002 -0.27390301 -0.33351701
-0.017358501 -0.2739 -0.33356601
-0.052030001 -0.27368334 -0.33358666
-0.051885501 -0.2736955 -0.33359167
-0.0517295 -0.27371749 -0.33358777
-0.051532332 -0.27368701 -0.33357301
-0.051299829 -0.27369967 -0.33358154
-0.051070169 -0.27368248 -0.33358052
-0.050886668 -0.2736721 -0.33356556
-0.050466333 -0.27368933 -0.33357501
-0.050256331 -0.27369568 -0.3335568
-0.05009722 -0.27370334 -0.33356589
-0.049908832 -0.27372 -0.33357051
-0.049751669 -0.27372548 -0.33356467
-0.049536999 -0.27372834 -0.33357534
-0.049341004 -0.273673 -0.3335793
-0.04910858 -0.27368477 -0.33356643
-0.048918664 -0.27370003 -0.333534
-0.048456397 -0.2737276 -0.33351719
-0.048337001 -0.2737 -0.33350676
-0.048136801 -0.27371201 -0.33353242
-0.047896668 -0.27367434 -0.33352599
-0.047641333 -0.27368334 -0.333516
-0.047454 -0.27369234 -0.33351335
-0.047319666 -0.27369949 -0.33351851
-0.047118168 -0.27371317 -0.33352816
-0.046895284 -0.27373728 -0.33352146
-0.046794999 -0.27369249 -0.333518
-0.046479333 -0.27368033 -0.33350655
-0.046304669 -0.27369049 -0.33350301
-0.046114445 -0.2736989 -0.33350986
-0.045921668 -0.27370968 -0.33348599
-0.045775667 -0.27371466 -0.3335233
-0.045494001 -0.273729 -0.33352301
-0.045224 -0.27367234 -0.33351266
-0.045063715 -0.27369672 -0.33351654
-0.044909127 -0.27369002 -0.3334901
-0.044639666 -0.27370736 -0.33350167
-0.044356 -0.27371967 -0.33352467
-0.044133667 -0.27372959 -0.33351022
-0.043972999 -0.27367565 -0.33349434
-0.043746997 -0.27370524 -0.33350524
-0.043500751 -0.27369037 -0.33348528
-0.043292999 -0.27371317 -0.33347884
-0.043062668 -0.27371833 -0.33349332
-0.04287025 -0.273702 -0.33345801
-0.042701501 -0.27367198 -0.33346137
-0.04252233 -0.27367833 -0.33346733
-0.042296998 -0.27369541 -0.33346778
-0.042084888 -0.27370346 -0.33348089
-0.041921835 -0.27371252 -0.3334595
-0.041628331 -0.27372465 -0.33343533
-0.041459002 -0.27373067 -0.33343068
-0.041309252 -0.27370101 -0.33344251
-0.041124664 -0.27367699 -0.33343998
-0.0408835 -0.27368098 -0.33343473
-0.040764753 -0.27368775 -0.33343527
-0.040508669 -0.27370799 -0.33342168
-0.040073 -0.27369851 -0.33341751
-0.039900497 -0.27361 -0.3334105
-0.017438667 -0.273729 -0.33350202
-0.017345333 -0.27372703 -0.33355033
-0.052015334 -0.27347767 -0.33355603
-0.051869497 -0.27348933 -0.33357799
-0.051755335 -0.273491 -0.33357432
-0.051583666 -0.27349964 -0.33355665
-0.051301669 -0.27351588 -0.33355141
-0.0510922 -0.2735278 -0.3335557
-0.050905127 -0.27349952 -0.3335335
-0.050799999 -0.27340099 -0.33353201
-0.050450999 -0.27348402 -0.33354834
-0.0502492 -0.27350339 -0.33354178
-0.050092101 -0.2734893 -0.33355382
-0.049893666 -0.273514 -0.3335458
-0.049735997 -0.27351883 -0.33354768
-0.049520001 -0.27351999 -0.33356833
-0.049327999 -0.27350101 -0.33356199
-0.049092498 -0.27347866 -0.3335515
-0.048902664 -0.27349368 -0.33352134
-0.048472662 -0.27350533 -0.33352169
-0.048342332 -0.27350864 -0.33351651
-0.048109163 -0.27352133 -0.33351517
-0.047883499 -0.27350199 -0.33351701
-0.047624666 -0.27347565 -0.33351135
-0.047437336 -0.27348468 -0.33351198
-0.047303166 -0.27349234 -0.33350801
-0.047103334 -0.27350786 -0.33349535
-0.046895165 -0.27352133 -0.33349684
-0.04678167 -0.27352098 -0.33350435
-0.046455402 -0.27348799 -0.3334972
-0.046288338 -0.27348384 -0.333496
-0.046098556 -0.27349266 -0.33349496
-0.045903999 -0.27350166 -0.333496
-0.045759667 -0.27350834 -0.333514
-0.045476664 -0.27352202 -0.33352968
-0.045208998 -0.27349901 -0.33352298
-0.04505533 -0.27347699 -0.33354199
-0.044931855 -0.27349773 -0.33351231
-0.044688798 -0.27348262 -0.33352858
-0.044339001 -0.27351269 -0.33352733
-0.044115335 -0.27352098 -0.33353126
-0.0439585 -0.27350199 -0.333507
-0.043774996 -0.273478 -0.33353832
-0.043493334 -0.27348846 -0.33351213
-0.043274496 -0.27350399 -0.33349785
-0.043044668 -0.27351001 -0.33350667
-0.042852502 -0.27352616 -0.33350766
-0.042684752 -0.27349651 -0.33349499
-0.042495601 -0.2734836 -0.333507
-0.042321499 -0.27348417 -0.33350316
-0.042096999 -0.27349374 -0.33350268
-0.041902002 -0.27350301 -0.3335017
-0.041607667 -0.27351466 -0.33348465
-0.041440334 -0.27352199 -0.33345935
-0.041293833 -0.27352735 -0.33346179
-0.041107498 -0.27350152 -0.3334845
-0.040891834 -0.27348515 -0.33347166
-0.040722333 -0.27349535 -0.33346215
-0.040488999 -0.27349797 -0.33345565
-0.040057331 -0.27352437 -0.33343601
-0.03992125 -0.27350223 -0.33341673
-0.0397975 -0.2734445 -0.33341098
-0.039561499 -0.273507 -0.33340099
-0.017424 -0.27352166 -0.33346567
-0.017327668 -0.27351764 -0.33355466
-0.052492 -0.27322999 -0.33359599
-0.052218501 -0.273289 -0.333579
-0.052112281 -0.27332857 -0.33358088
-0.051889624 -0.27327123 -0.33355135
-0.051740333 -0.27328598 -0.33353934
-0.051566999 -0.27329233 -0.33354798
-0.051296875 -0.27331764 -0.333534
-0.051098097 -0.27330691 -0.33352551
-0.050925665 -0.27332675 -0.33350053
-0.050791502 -0.27329803 -0.333527
-0.050435666 -0.27327767 -0.33352497
-0.050262999 -0.27328101 -0.33354297
-0.050094169 -0.27328816 -0.33354616
-0.049875837 -0.27330652 -0.33355451
-0.049718499 -0.27331099 -0.33355549
-0.049502332 -0.27331334 -0.33357903
-0.049314003 -0.27332869 -0.33355367
-0.049095716 -0.2732873 -0.33357957
-0.048938837 -0.27328134 -0.3335425
-0.048452999 -0.273296 -0.33356097
-0.048324663 -0.27330083 -0.33352467
-0.048090998 -0.27331233 -0.3335295
-0.047869336 -0.27332968 -0.33351335
-0.047609001 -0.2733025 -0.333534
-0.047419 -0.27327633 -0.33352801
-0.047284499 -0.27328449 -0.33353281
-0.047083836 -0.27329901 -0.33353099
-0.046875503 -0.27331167 -0.33353087
-0.046762332 -0.27331102 -0.33354068
-0.046456803 -0.27331918 -0.33353239
-0.046270669 -0.273276 -0.33350399
-0.046124831 -0.27328083 -0.33352399
-0.045936499 -0.27329084 -0.33352551
-0.045741666 -0.27330002 -0.33352336
-0.045458332 -0.27331269 -0.33354768
-0.045092251 -0.27329803 -0.33355963
-0.044934664 -0.27327684 -0.33354065
-0.044707797 -0.27330101 -0.33353722
-0.044597 -0.27322 -0.33353299
-0.044320334 -0.27330333 -0.33354136
-0.044097222 -0.27331269 -0.33354321
-0.043942999 -0.27332833 -0.33352599
-0.043758001 -0.27326998 -0.33353734
-0.043519333 -0.27327648 -0.33352283
-0.043300226 -0.27329367 -0.33351865
-0.043026332 -0.27330068 -0.3335267
-0.042842798 -0.27333158 -0.33350798
-0.042688284 -0.27331242 -0.33350828
-0.042498801 -0.27331537 -0.33349857
-0.042305335 -0.27327651 -0.33349016
-0.042107891 -0.27328512 -0.33350867
-0.041921113 -0.27329266 -0.33350569
-0.041505497 -0.27330917 -0.33348814
-0.041274998 -0.27331832 -0.33348751
-0.041093003 -0.27332819 -0.33348966
-0.040875833 -0.27327985 -0.33345601
-0.040705167 -0.2732887 -0.33346066
-0.040472001 -0.27329066 -0.33345231
-0.040040668 -0.27331749 -0.33343086
-0.039965663 -0.273325 -0.33341634
-0.039788999 -0.273341 -0.333404
-0.0172754 -0.27329522 -0.33352882
-0.052482665 -0.27309331 -0.33356604
-0.052208498 -0.27315301 -0.333554
-0.052126568 -0.27311057 -0.33356526
-0.051899672 -0.27309448 -0.333547
-0.051752605 -0.2730642 -0.33355242
-0.051550001 -0.27308598 -0.33355236
-0.051310498 -0.273101 -0.33353218
-0.051098499 -0.27310625 -0.33353651
-0.050908107 -0.27311957 -0.33350569
-0.050776999 -0.27312532 -0.33353266
-0.050417334 -0.27306899 -0.33354601
-0.050246 -0.27307364 -0.33353832
-0.050104335 -0.2730782 -0.33354843
-0.049904667 -0.27309635 -0.33354276
-0.049702168 -0.27310449 -0.33354351
-0.049486998 -0.27310732 -0.33355632
-0.049298 -0.273123 -0.33354497
-0.0490955 -0.27312088 -0.33356974
-0.048921332 -0.27307346 -0.33354518
-0.048434999 -0.27308765 -0.3335723
-0.048306834 -0.27309284 -0.33353665
-0.048071165 -0.27310315 -0.33357015
-0.047851 -0.273121 -0.33353531
-0.047546249 -0.27313 -0.33355001
-0.047286283 -0.27307513 -0.33353645
-0.047141001 -0.27308765 -0.33352566
-0.046903219 -0.27310097 -0.33353364
-0.04674533 -0.27310365 -0.33353934
-0.046475995 -0.27312267 -0.3335267
-0.046300497 -0.27310035 -0.33350334
-0.046107832 -0.27307281 -0.33352503
-0.045920666 -0.27308384 -0.33351001
-0.045724999 -0.27309334 -0.33351934
-0.045442998 -0.27310666 -0.33352566
-0.045116831 -0.27312168 -0.33353984
-0.044937499 -0.27307811 -0.3335245
-0.04476 -0.27307901 -0.33352399
-0.044587333 -0.27308431 -0.33351567
-0.044305 -0.27309734 -0.33352169
-0.044081889 -0.27310601 -0.3335191
-0.04392767 -0.273123 -0.33349267
-0.043745499 -0.2730985 -0.33351499
-0.043496799 -0.27308503 -0.33349282
-0.043311428 -0.27309701 -0.33348656
-0.043084599 -0.27307957 -0.33348763
-0.042851999 -0.27311134 -0.33347198
-0.042698998 -0.27311555 -0.33348274
-0.04247633 -0.27312398 -0.33347717
-0.042290334 -0.27307066 -0.33345833
-0.042092558 -0.27307889 -0.33348277
-0.041906338 -0.27308679 -0.33347312
-0.041490499 -0.27310315 -0.33345985
-0.041259665 -0.27311116 -0.33346149
-0.041078668 -0.273123 -0.33344713
-0.0408508 -0.2730872 -0.33343482
-0.040690333 -0.27308238 -0.333426
-0.040457334 -0.273085 -0.33341768
-0.040010002 -0.273182 -0.33340901
-0.0172345 -0.27312201 -0.33344999
-0.052465003 -0.27288601 -0.33357266
-0.052127223 -0.27291211 -0.33357123
-0.051926203 -0.27291602 -0.3335436
-0.051745668 -0.272872 -0.3335385
-0.051534001 -0.27287933 -0.33353433
-0.051294502 -0.27289501 -0.33351651
-0.051090363 -0.27290618 -0.33351809
-0.050902002 -0.27290481 -0.33350402
-0.050760999 -0.27291867 -0.333518
-0.050403997 -0.27289701 -0.333534
-0.050230999 -0.27286866 -0.33350635
-0.05008889 -0.272872 -0.33352679
-0.049889442 -0.2728909 -0.3335171
-0.049686331 -0.2728982 -0.33352783
-0.049469996 -0.27289999 -0.33354899
-0.049281001 -0.27291566 -0.33353767
-0.049074665 -0.27292332 -0.33354908
-0.048896201 -0.27288219 -0.3335256
-0.048420001 -0.27288234 -0.33354235
-0.048289504 -0.27288547 -0.33353984
-0.048118997 -0.27288964 -0.33354965
-0.047912661 -0.27290833 -0.33354783
-0.047577668 -0.27292201 -0.33353066
-0.047298495 -0.27290186 -0.33351976
-0.047125336 -0.2728813 -0.33349934
-0.046888556 -0.27289566 -0.3334997
-0.046730336 -0.27289766 -0.33350933
-0.046461001 -0.27291667 -0.33349466
-0.046330001 -0.27292666 -0.33349696
-0.046119429 -0.27288598 -0.33348885
-0.045905832 -0.27287784 -0.33347631
-0.045710668 -0.27288768 -0.33348167
-0.045428336 -0.27290133 -0.333487
-0.045102496 -0.27291599 -0.33350417
-0.044939287 -0.27291271 -0.33348942
-0.044746 -0.27287433 -0.33348235
-0.044573337 -0.27287933 -0.33346999
-0.044291001 -0.272892 -0.33347702
-0.044067223 -0.27290076 -0.33348304
-0.043912668 -0.27291569 -0.33346733
-0.043733668 -0.27292734 -0.33347932
-0.043502599 -0.27291879 -0.33345938
-0.043315336 -0.27288082 -0.33344832
-0.043137498 -0.27290428 -0.33345026
-0.042899802 -0.27288499 -0.33344722
-0.042732 -0.27290985 -0.33344436
-0.04250522 -0.27291667 -0.33343065
-0.04227775 -0.27289924 -0.33343402
-0.042078555 -0.272874 -0.33344012
-0.041919712 -0.27289003 -0.33343029
-0.0417975 -0.272854 -0.333406
-0.041560002 -0.27289367 -0.333433
-0.041306373 -0.27291262 -0.33342284
-0.041082144 -0.27290514 -0.3334226
-0.040910002 -0.273 -0.333408
-0.040763497 -0.2729435 -0.33341497
-0.0170945 -0.2728605 -0.33355451
-0.052447334 -0.27267835 -0.33357966
-0.052110892 -0.27270597 -0.33356079
-0.051900502 -0.27272484 -0.33353338
-0.051732749 -0.27270103 -0.33351901
-0.051518332 -0.27267364 -0.33351234
-0.051279336 -0.27269018 -0.33349237
-0.051094551 -0.27269423 -0.33348554
-0.050904084 -0.27270457 -0.33348194
-0.050746005 -0.27271304 -0.33349037
-0.050322395 -0.27271479 -0.33349779
-0.050075501 -0.2726998 -0.33351329
-0.049912501 -0.27268183 -0.33350337
-0.049712338 -0.27269077 -0.33350274
-0.049455669 -0.27269566 -0.33351001
-0.049265999 -0.27270967 -0.33351299
-0.049059443 -0.2727176 -0.3335222
-0.048905998 -0.27271563 -0.33350581
-0.048407499 -0.2727105 -0.3335205
-0.048292428 -0.27266914 -0.33350846
-0.048103999 -0.27268332 -0.33351433
-0.047897831 -0.27270296 -0.33351585
-0.047562998 -0.27271667 -0.33349565
-0.047331169 -0.27272633 -0.33350149
-0.047152001 -0.27267352 -0.33345965
-0.046895571 -0.27269885 -0.3334716
-0.046748601 -0.27267981 -0.33345881
-0.046445001 -0.27271101 -0.33347598
-0.046315163 -0.2727215 -0.33346733
-0.046125375 -0.27272025 -0.33344987
-0.045892332 -0.27267399 -0.33342531
-0.045696001 -0.27268198 -0.33344635
-0.045414001 -0.27269635 -0.33344468
-0.045088168 -0.27271098 -0.33346236
-0.044920001 -0.27272809 -0.33344841
-0.044732001 -0.27266932 -0.33343768
-0.044559002 -0.27267399 -0.33343199
-0.044277001 -0.27268699 -0.33343169
-0.044059876 -0.27270401 -0.33344764
-0.043922499 -0.27269 -0.33343849
-0.043718334 -0.27272135 -0.33345398
-0.043480162 -0.27272817 -0.3334285
-0.043299332 -0.27267399 -0.33342633
-0.043167997 -0.27267966 -0.33340898
-0.042943753 -0.27270499 -0.33341575
-0.042739499 -0.27272001 -0.33341798
-0.042240754 -0.27270979 -0.33341825
-0.042066168 -0.27270165 -0.333413
-0.041919 -0.272686 -0.33341438
-0.041783001 -0.27268001 -0.33340999
-0.041544002 -0.27268764 -0.33341169
-0.041323833 -0.27269617 -0.33341834
-0.041129667 -0.27270401 -0.33341369
-0.040991332 -0.27271166 -0.33341536
-0.017081669 -0.27268699 -0.33353734
-0.052898332 -0.27252832 -0.33359203
-0.052774999 -0.27246401 -0.333599
-0.052432667 -0.27247265 -0.33355033
-0.052096114 -0.27250031 -0.33352745
-0.051885497 -0.27251935 -0.33350265
-0.051720005 -0.27252999 -0.33349732
-0.051505338 -0.27246967 -0.33345762
-0.051263664 -0.272484 -0.33346716
-0.051079109 -0.27248812 -0.33346212
-0.050906904 -0.27250472 -0.33346051
-0.050756801 -0.27249241 -0.33346063
-0.050291669 -0.27252385 -0.33346167
-0.050063446 -0.27252924 -0.33348435
-0.04989833 -0.27247718 -0.33346483
-0.049697336 -0.27248579 -0.33347431
-0.049440667 -0.27248898 -0.33348867
-0.049251001 -0.27250367 -0.33348069
-0.049058713 -0.27252117 -0.33349499
-0.048909001 -0.27251413 -0.33348587
-0.048303556 -0.27247366 -0.33347237
-0.048090335 -0.27247998 -0.33346966
-0.047900602 -0.27251118 -0.3334752
-0.047800001 -0.27243501 -0.33344901
-0.047550004 -0.2725133 -0.33343497
-0.047318164 -0.27252284 -0.33344197
-0.04713925 -0.27250177 -0.33343998
-0.046895999 -0.27248234 -0.33344564
-0.046741996 -0.27248701 -0.33344364
-0.046430334 -0.27250502 -0.33344766
-0.046300668 -0.27251601 -0.33342567
-0.046104498 -0.27252427 -0.333413
-0.045860667 -0.27249101 -0.33341134
-0.045681331 -0.272477 -0.33341166
-0.045403998 -0.27255899 -0.33342999
-0.045395002 -0.27245402 -0.33344001
-0.045072 -0.272504 -0.33344981
-0.044904113 -0.27252156 -0.33342844
-0.044717498 -0.272497 -0.33343399
-0.044545501 -0.27250201 -0.33342201
-0.044261333 -0.27248099 -0.33341599
-0.044063166 -0.27248934 -0.33341467
-0.0439335 -0.27249616 -0.33343467
-0.043701332 -0.27251434 -0.33345103
-0.043463498 -0.27252084 -0.3334235
-0.043284252 -0.27250075 -0.33344147
-0.043150004 -0.27247199 -0.33342496
-0.042964999 -0.27247635 -0.33342031
-0.042719748 -0.27247876 -0.333413
-0.042306498 -0.27252439 -0.33342025
-0.042097289 -0.27251616 -0.33342573
-0.041953146 -0.27253115 -0.33341947
-0.041772 -0.272542 -0.33340999
-0.041533999 -0.27254999 -0.33340099
-0.04130717 -0.27248833 -0.3334105
-0.041143999 -0.27254 -0.33340469
-0.040974665 -0.27250433 -0.333413
-0.01708525 -0.27245826 -0.333534
-0.053115398 -0.27226299 -0.33358699
-0.052907497 -0.27230176 -0.33357373
-0.052765336 -0.27232864 -0.33357301
-0.052421499 -0.27230299 -0.33350497
-0.052081112 -0.27229488 -0.33349645
-0.051870663 -0.27231386 -0.33346853
-0.051705334 -0.27232385 -0.3334645
-0.051491499 -0.27229702 -0.33345002
-0.051258601 -0.27229202 -0.33344141
-0.051076699 -0.27227452 -0.33344489
-0.05090975 -0.27229038 -0.33343577
-0.050749838 -0.27230015 -0.33343217
-0.050362002 -0.27231565 -0.33344302
-0.050114226 -0.27232188 -0.33344591
-0.049918626 -0.27230087 -0.33344826
-0.0496925 -0.27228823 -0.33345315
-0.049467251 -0.27226576 -0.33346626
-0.049235668 -0.27229765 -0.33345798
-0.049053501 -0.27230567 -0.33345604
-0.04890411 -0.27231586 -0.33346021
-0.0483074 -0.27230737 -0.3334718
-0.048104249 -0.27227074 -0.33348024
-0.047946002 -0.27228633 -0.33347666
-0.047787998 -0.27229568 -0.333455
-0.047533665 -0.27230632 -0.33342835
-0.047300335 -0.27231482 -0.33345199
-0.047123332 -0.27232715 -0.33346236
-0.046870001 -0.27229041 -0.3334384
-0.046724502 -0.2722795 -0.33344582
-0.046413001 -0.27229765 -0.333451
-0.04628383 -0.27230886 -0.33342633
-0.046085667 -0.27231658 -0.33342543
-0.045864001 -0.27232799 -0.33342001
-0.045665499 -0.272302 -0.333433
-0.045379668 -0.27228066 -0.33345267
-0.045114666 -0.27229199 -0.33344567
-0.044912841 -0.27230933 -0.3334544
-0.044702332 -0.27232298 -0.33344901
-0.044530332 -0.27232769 -0.33343801
-0.044242665 -0.27227166 -0.33343664
-0.04404467 -0.27228031 -0.3334333
-0.043916833 -0.27228901 -0.33342835
-0.043684334 -0.272306 -0.33344969
-0.043455802 -0.2723254 -0.33342838
-0.043288428 -0.27231586 -0.33343473
-0.0431365 -0.2722995 -0.33341599
-0.042950001 -0.272302 -0.33342901
-0.042683169 -0.27228835 -0.33341101
-0.042456001 -0.27232701 -0.33340698
-0.042333998 -0.27231997 -0.33341223
-0.042118859 -0.27233714 -0.33340856
-0.041944198 -0.27233782 -0.3334046
-0.040964 -0.27236599 -0.33340299
-0.01709675 -0.27230173 -0.33350199
-0.053424999 -0.27207699 -0.33359301
-0.053311002 -0.27208635 -0.33359399
-0.053088561 -0.27209768 -0.33358434
-0.052919503 -0.27210951 -0.33355832
-0.052750003 -0.27212265 -0.333545
-0.052407999 -0.27213067 -0.33349833
-0.052065 -0.27208909 -0.33348522
-0.051881999 -0.27212125 -0.33347303
-0.051715378 -0.27210674 -0.33346608
-0.051476002 -0.27212402 -0.33346534
-0.051278003 -0.27210301 -0.33345598
-0.051110338 -0.27207366 -0.33346123
-0.050911248 -0.27208066 -0.33344698
-0.050731834 -0.27209249 -0.333446
-0.050345 -0.27210933 -0.33343968
-0.050097004 -0.27211434 -0.33344892
-0.049904443 -0.27210522 -0.33345222
-0.0496982 -0.27208519 -0.33345443
-0.049495835 -0.27207562 -0.33345136
-0.049217332 -0.27209032 -0.33347201
-0.049034331 -0.27209699 -0.33348432
-0.048932668 -0.272104 -0.33348182
-0.048792671 -0.27211499 -0.33346367
-0.048318833 -0.272127 -0.33347103
-0.048137199 -0.27211839 -0.33346421
-0.04793033 -0.27207997 -0.33345601
-0.047771666 -0.27208933 -0.33344302
-0.047516335 -0.27209866 -0.333433
-0.0472835 -0.27210748 -0.33344963
-0.047107 -0.27212068 -0.333451
-0.046865165 -0.27210301 -0.33343586
-0.0467075 -0.27207163 -0.33344349
-0.046402998 -0.27216101 -0.333433
-0.046298999 -0.27209064 -0.33342001
-0.046068333 -0.27210799 -0.33343044
-0.045875251 -0.27213749 -0.33340949
-0.045708597 -0.27211401 -0.33341581
-0.045364331 -0.27207467 -0.333426
-0.045099001 -0.27208567 -0.33342633
-0.044897333 -0.27210307 -0.33342993
-0.044686332 -0.27211568 -0.33343634
-0.044514667 -0.27212131 -0.33341464
-0.044228502 -0.27209902 -0.33343601
-0.04404233 -0.27212033 -0.33341733
-0.04395083 -0.27207682 -0.33341968
-0.043673001 -0.272136 -0.33340901
-0.043476999 -0.27213699 -0.333406
-0.043301333 -0.27214101 -0.33340898
-0.043122333 -0.27212635 -0.33341134
-0.042937666 -0.27213165 -0.33340633
-0.0426725 -0.27215052 -0.33340299
-0.042360999 -0.27216399 -0.33340099
-0.017104249 -0.27210924 -0.33348447
-0.053278498 -0.27188051 -0.3335965
-0.053080749 -0.27189875 -0.33358097
-0.052916575 -0.27189115 -0.33355832
-0.052732665 -0.27191499 -0.33354568
-0.052389998 -0.27192268 -0.33350435
-0.052073505 -0.27188015 -0.33349952
-0.051942002 -0.27188781 -0.33349153
-0.051706892 -0.27190676 -0.33348545
-0.051458668 -0.27191633 -0.33347201
-0.051262666 -0.27192867 -0.33347097
-0.051095501 -0.27189967 -0.33347133
-0.05088773 -0.27188092 -0.33344501
-0.050714333 -0.2718845 -0.33344933
-0.050327331 -0.27190065 -0.33345032
-0.050079443 -0.27190664 -0.33345622
-0.049913712 -0.27191785 -0.33345357
-0.049716998 -0.27190816 -0.33345318
-0.0495685 -0.27190199 -0.33345348
-0.049299248 -0.27191049 -0.3334595
-0.049082503 -0.27187103 -0.33346048
-0.048941664 -0.27189463 -0.33347043
-0.048776668 -0.27190864 -0.33344802
-0.048303168 -0.27192017 -0.33345333
-0.048109666 -0.27192599 -0.33344853
-0.047913998 -0.27187333 -0.33344498
-0.047754664 -0.27188203 -0.33344498
-0.047499999 -0.27189165 -0.33342031
-0.047267169 -0.2719005 -0.33343968
-0.047091838 -0.27191499 -0.33342233
-0.04687725 -0.27192751 -0.33343202
-0.046714596 -0.2718932 -0.33342379
-0.046293445 -0.27189052 -0.3334243
-0.046082836 -0.27189851 -0.33341965
-0.0459482 -0.2719228 -0.33341461
-0.045722801 -0.27193242 -0.3334116
-0.045351498 -0.27190399 -0.33340299
-0.045088999 -0.27194899 -0.33340299
-0.044927169 -0.27191615 -0.33341417
-0.044670332 -0.27190867 -0.33342132
-0.044501498 -0.27194899 -0.33340502
-0.044218499 -0.271961 -0.33341402
-0.043956 -0.27191433 -0.33340731
-0.043200001 -0.27198601 -0.33340299
-0.017204 -0.27191699 -0.33342701
-0.017081859 -0.27190471 -0.33352184
-0.053482499 -0.27169201 -0.33359399
-0.053270798 -0.27168661 -0.3335886
-0.053089838 -0.27168417 -0.3335565
-0.052920893 -0.27169234 -0.33355168
-0.052717332 -0.27170932 -0.33352467
-0.052373335 -0.27171633 -0.33350334
-0.052057337 -0.27167368 -0.33348548
-0.051925495 -0.27168083 -0.33348301
-0.051690776 -0.27169988 -0.33347592
-0.051442001 -0.271709 -0.3334693
-0.051245999 -0.27172267 -0.33346501
-0.051082108 -0.27172777 -0.33345959
-0.05090075 -0.27171651 -0.33345649
-0.050721001 -0.27166775 -0.33345038
-0.050310001 -0.27169299 -0.33345565
-0.050099164 -0.27169901 -0.3334465
-0.049940221 -0.27170655 -0.33345053
-0.049713891 -0.27172554 -0.333442
-0.049556334 -0.27173135 -0.33342865
-0.049380999 -0.271732 -0.3334403
-0.049107835 -0.27168116 -0.33343449
-0.048926223 -0.27168867 -0.33344746
-0.048762005 -0.27170268 -0.33341333
-0.048287001 -0.27171367 -0.33344015
-0.048093498 -0.27171934 -0.33343282
-0.047900498 -0.27170101 -0.33343601
-0.047738999 -0.27167499 -0.33342266
-0.047486499 -0.27171999 -0.33340999
-0.047251165 -0.271694 -0.33342135
-0.047075335 -0.2717078 -0.33341897
-0.046886668 -0.27171865 -0.33342099
-0.046707254 -0.27173674 -0.33341539
-0.0463304 -0.27169302 -0.33341822
-0.046085 -0.27170116 -0.33340859
-0.045970999 -0.27166599 -0.333404
-0.045767002 -0.271777 -0.33341399
-0.045072 -0.27174199 -0.33340201
-0.044659998 -0.27177101 -0.333404
-0.043945331 -0.27177668 -0.33340266
-0.017059598 -0.2717222 -0.33347622
-0.016998 -0.27164099 -0.333498
-0.053468999 -0.27152035 -0.33359003
-0.053310204 -0.27151701 -0.33357599
-0.053090859 -0.27146673 -0.33354515
-0.052904442 -0.27148566 -0.3335419
-0.052701 -0.27150267 -0.33351466
-0.052356999 -0.27150902 -0.33349332
-0.052043751 -0.271501 -0.33348
-0.051900201 -0.27148959 -0.33346677
-0.051696282 -0.27150285 -0.33347556
-0.051492594 -0.27148521 -0.33347803
-0.051229998 -0.271516 -0.33345601
-0.05110167 -0.271521 -0.33343998
-0.050917666 -0.27152416 -0.333462
-0.050704572 -0.27148885 -0.33345458
-0.050291669 -0.27148435 -0.33347201
-0.050081998 -0.27149183 -0.33344629
-0.049922779 -0.27149868 -0.3334581
-0.049697112 -0.27151757 -0.33343855
-0.049540002 -0.27152467 -0.33342198
-0.049364001 -0.27152431 -0.333437
-0.049092334 -0.27147564 -0.33341232
-0.048911337 -0.27148309 -0.33341834
-0.048744667 -0.27149597 -0.33342066
-0.048269335 -0.27150634 -0.33344617
-0.04811025 -0.2715295 -0.33342475
-0.047887668 -0.27152932 -0.33341166
-0.047725998 -0.27150398 -0.333413
-0.047463998 -0.27144301 -0.333408
-0.047277331 -0.27148402 -0.33343467
-0.047101781 -0.271496 -0.33342397
-0.046869665 -0.27151099 -0.33342299
-0.046688247 -0.27151126 -0.33342326
-0.046295799 -0.27148739 -0.33342221
-0.046077285 -0.27146372 -0.33341715
-0.045956999 -0.27149332 -0.33340403
-0.045602001 -0.27150801 -0.333404
-0.045595001 -0.271438 -0.33342201
-0.045313999 -0.27145299 -0.33341101
-0.045049001 -0.271465 -0.33341399
-0.044878125 -0.27146947 -0.33342111
-0.044689398 -0.27147657 -0.3334108
-0.044460498 -0.27146298 -0.333419
-0.044012997 -0.27152064 -0.33340433
-0.043928497 -0.27148649 -0.33341175
-0.043676335 -0.27145168 -0.33340731
-0.043416999 -0.27140999 -0.33341101
-0.043242 -0.27142599 -0.333419
-0.042658001 -0.27145699 -0.33340299
-0.017088 -0.27157199 -0.33340099
-0.016943166 -0.27150184 -0.33351967
-0.053456999 -0.27138099 -0.33359799
-0.053321335 -0.27132115 -0.33358315
-0.053089287 -0.27128914 -0.33354229
-0.052899875 -0.27128714 -0.33353087
-0.052711748 -0.27127725 -0.33351424
-0.052340332 -0.27130231 -0.33348465
-0.052063663 -0.27132699 -0.33347568
-0.051928326 -0.27131081 -0.33347657
-0.051695332 -0.2712855 -0.3334665
-0.051493671 -0.27129033 -0.33347949
-0.051213 -0.27130899 -0.33345333
-0.051083665 -0.27131301 -0.33345416
-0.050899919 -0.27131701 -0.3334699
-0.050708503 -0.27132061 -0.33345601
-0.05027533 -0.27127799 -0.333464
-0.050064668 -0.27128398 -0.33345199
-0.049905557 -0.2712914 -0.33345598
-0.049689248 -0.27131772 -0.33345622
-0.049540251 -0.27129772 -0.33343676
-0.049346998 -0.27131599 -0.33344698
-0.049104001 -0.271312 -0.33342966
-0.048902996 -0.27127469 -0.33343798
-0.048727002 -0.27128667 -0.33342662
-0.048252668 -0.27129951 -0.33344051
-0.048093252 -0.27132151 -0.33342224
-0.047918197 -0.27130038 -0.3334462
-0.047710001 -0.27132866 -0.33343467
-0.047451001 -0.271303 -0.333424
-0.047260001 -0.27127632 -0.33343801
-0.047108572 -0.27129486 -0.33344111
-0.046909399 -0.27128524 -0.33343661
-0.046689499 -0.27131999 -0.33343887
-0.046597999 -0.27124101 -0.333442
-0.046298005 -0.2713182 -0.333442
-0.046109837 -0.27127349 -0.33344331
-0.045930874 -0.27127275 -0.333435
-0.045727 -0.27129269 -0.33342099
-0.045583665 -0.27129933 -0.33342066
-0.045301333 -0.27131298 -0.33342966
-0.045036335 -0.27132466 -0.33342531
-0.044863496 -0.27128199 -0.33342984
-0.044701714 -0.27127042 -0.33342713
-0.044445664 -0.27129 -0.33342099
-0.044163331 -0.27130297 -0.333428
-0.043938551 -0.27131021 -0.3334502
-0.043739248 -0.27132899 -0.33343351
-0.043472003 -0.27129301 -0.33342466
-0.043274 -0.27128336 -0.33341885
-0.043098669 -0.27129433 -0.33340535
-0.042869002 -0.27129868 -0.33341265
-0.042652 -0.27138701 -0.33340299
-0.0168835 -0.27130336 -0.3335171
-0.05311086 -0.27112803 -0.3335593
-0.052932996 -0.2710934 -0.33354521
-0.052726496 -0.27108583 -0.33350399
-0.052324668 -0.27109697 -0.33346602
-0.052046001 -0.27112001 -0.33348298
-0.051923506 -0.27111739 -0.33347148
-0.051678166 -0.27107799 -0.33346882
-0.051563669 -0.27108064 -0.33346665
-0.051343251 -0.27110749 -0.33346725
-0.051097251 -0.27109477 -0.33346814
-0.050889455 -0.27111384 -0.33348474
-0.050695002 -0.27111417 -0.33346587
-0.050261497 -0.27110499 -0.33345699
-0.050046999 -0.27107584 -0.33346233
-0.049887888 -0.27108344 -0.33346754
-0.04970083 -0.271101 -0.33345652
-0.0495435 -0.27110517 -0.33345249
-0.049328998 -0.271108 -0.333455
-0.049139667 -0.27112299 -0.33344635
-0.048903197 -0.27110031 -0.33344647
-0.048709664 -0.27107966 -0.33342865
-0.048278999 -0.27109033 -0.33344364
-0.048148666 -0.27109382 -0.33343711
-0.047915667 -0.27110586 -0.33343431
-0.04769367 -0.27112201 -0.33342934
-0.047436997 -0.27113032 -0.333428
-0.047244668 -0.27107099 -0.33341399
-0.047109831 -0.27107719 -0.33342615
-0.046908829 -0.27109101 -0.33343017
-0.046700001 -0.27110383 -0.33343884
-0.046587002 -0.27110335 -0.33343801
-0.046273831 -0.27112517 -0.33343819
-0.0460965 -0.27110124 -0.33342975
-0.045903668 -0.27107477 -0.33342689
-0.045710001 -0.27108434 -0.33342567
-0.045567002 -0.27109134 -0.33342099
-0.04528467 -0.27110568 -0.33342502
-0.045019668 -0.27111766 -0.33342001
-0.044873603 -0.27111402 -0.3334454
-0.044722125 -0.27108026 -0.33341438
-0.044471249 -0.27106425 -0.33341128
-0.04414567 -0.27109435 -0.33343565
-0.043922331 -0.27110368 -0.33343741
-0.043767333 -0.27111867 -0.333424
-0.043588668 -0.27112934 -0.33343402
-0.043324199 -0.27113882 -0.3334114
-0.042858001 -0.27116099 -0.333406
-0.016826749 -0.27110875 -0.33346224
-0.053412002 -0.27082801 -0.33359501
-0.053244334 -0.27090868 -0.3335937
-0.053112332 -0.27092084 -0.33355179
-0.05293078 -0.27092767 -0.33354631
-0.052709665 -0.27087915 -0.33350015
-0.052306335 -0.27088833 -0.33348498
-0.052029669 -0.27091333 -0.33347335
-0.051896889 -0.27092046 -0.33346713
-0.051655598 -0.27088562 -0.3334592
-0.05154733 -0.27087367 -0.33345601
-0.051374331 -0.27088034 -0.33346367
-0.05109166 -0.27089566 -0.33346695
-0.050891116 -0.27089876 -0.33347952
-0.050717004 -0.27091852 -0.33346263
-0.0505955 -0.27088249 -0.33347899
-0.050246667 -0.27093199 -0.33346137
-0.050072499 -0.27090251 -0.333453
-0.049901079 -0.2708745 -0.33346
-0.04968467 -0.27089432 -0.33344284
-0.049527336 -0.27089885 -0.3334415
-0.049312998 -0.27090201 -0.33343998
-0.049123 -0.27091634 -0.33344233
-0.048897091 -0.27092078 -0.33343753
-0.048697002 -0.27090749 -0.33340749
-0.048263669 -0.27088436 -0.33341968
-0.048136003 -0.27092201 -0.33341601
-0.047834001 -0.27087301 -0.333404
-0.0476785 -0.27094799 -0.33343202
-0.047426999 -0.27099299 -0.333406
-0.047231 -0.270897 -0.33341101
-0.047099501 -0.27094051 -0.333406
-0.046879601 -0.27090001 -0.33340719
-0.04668675 -0.27093199 -0.333424
-0.046571668 -0.27089766 -0.33341667
-0.046257835 -0.27091867 -0.33341917
-0.046086498 -0.27096376 -0.33341247
-0.0459098 -0.27090919 -0.33340842
-0.045699999 -0.27094799 -0.33340299
-0.045556001 -0.27095601 -0.33340701
-0.045268666 -0.27089933 -0.33340999
-0.045008998 -0.27098 -0.333404
-0.044853166 -0.27092266 -0.33342052
-0.044532001 -0.27091834 -0.33340466
-0.044135999 -0.27095801 -0.333415
-0.043909669 -0.27093151 -0.33341834
-0.043579001 -0.27099201 -0.33340201
-0.016620001 -0.270823 -0.333496
-0.0534035 -0.27072603 -0.333583
-0.053288858 -0.2706883 -0.33357286
-0.053095501 -0.27071366 -0.33354834
-0.052914441 -0.27072108 -0.33353412
-0.052692667 -0.27067235 -0.33349815
-0.052290004 -0.27068099 -0.33347702
-0.052013665 -0.27070698 -0.33345532
-0.051905859 -0.27072141 -0.33345586
-0.051696002 -0.27071044 -0.33344871
-0.0515345 -0.270702 -0.3334395
-0.05135867 -0.27067468 -0.33344066
-0.051117003 -0.2706885 -0.33344898
-0.05090541 -0.27069309 -0.33345234
-0.050714333 -0.27070579 -0.33343467
-0.050584 -0.27071199 -0.33344635
-0.050231334 -0.27072632 -0.33343732
-0.050060663 -0.27073202 -0.33342233
-0.049888745 -0.27070388 -0.33343199
-0.049696498 -0.27070397 -0.33341226
-0.049521398 -0.27070701 -0.33341438
-0.049302999 -0.27076599 -0.33341399
-0.049110502 -0.27074599 -0.33341801
-0.0488954 -0.27076161 -0.33341402
-0.046560999 -0.27075899 -0.33340201
-0.045258 -0.27076101 -0.33340201
-0.044851001 -0.27076033 -0.33341035
-0.016619001 -0.270758 -0.33342999
-0.053748 -0.27040201 -0.333592
-0.053574 -0.270421 -0.33359799
-0.053298555 -0.27049056 -0.33355665
-0.053080332 -0.27050802 -0.33352217
-0.052898332 -0.2705152 -0.33351922
-0.052679751 -0.27050072 -0.33347949
-0.052274663 -0.270475 -0.33345366
-0.052003 -0.27056801 -0.33344999
-0.05192887 -0.27049401 -0.33344474
-0.051708709 -0.27053213 -0.3334263
-0.0515512 -0.27051637 -0.33343059
-0.051348999 -0.270538 -0.33341399
-0.051105499 -0.27051878 -0.33341151
-0.050890505 -0.27048817 -0.33342227
-0.050704334 -0.27056867 -0.33341399
-0.050574001 -0.270576 -0.33342299
-0.050221998 -0.27059099 -0.33341101
-0.049894001 -0.27057058 -0.3334184
-0.045228999 -0.27041399 -0.333404
-0.044845 -0.27043501 -0.333404
-0.016601 -0.270547 -0.333442
-0.016589999 -0.270439 -0.33347601
-0.053931501 -0.270246 -0.33359149
-0.053740501 -0.270298 -0.333583
-0.053564001 -0.27028498 -0.33357868
-0.053308286 -0.2702927 -0.3335363
-0.053097747 -0.27029163 -0.3335036
-0.05288367 -0.27030978 -0.33348766
-0.052666996 -0.270329 -0.33346382
-0.052258667 -0.27027002 -0.33343831
-0.051922109 -0.27029744 -0.3334161
-0.051656667 -0.27031967 -0.33340368
-0.0515536 -0.27033919 -0.33340639
-0.051100999 -0.27027667 -0.33340397
-0.050925802 -0.2702812 -0.33340257
-0.046158999 -0.27023101 -0.33340201
-0.045859996 -0.27031633 -0.33340564
-0.045758002 -0.27038899 -0.333404
-0.044833664 -0.27029634 -0.33340397
-0.044537 -0.270282 -0.33341101
-0.043852001 -0.27027401 -0.333404
-0.016580001 -0.270302 -0.33345902
-0.054106999 -0.27011824 -0.33358651
-0.053895492 -0.27014518 -0.333588
-0.053727999 -0.27012703 -0.33355632
-0.053547669 -0.27007768 -0.333572
-0.053308833 -0.27007449 -0.33353451
-0.053103995 -0.27009988 -0.33350861
-0.052879602 -0.27009499 -0.33349329
-0.052708331 -0.27011898 -0.33346632
-0.052592337 -0.27012566 -0.33344698
-0.052244 -0.270096 -0.33344901
-0.051904336 -0.27008921 -0.33342534
-0.051683597 -0.27012178 -0.33341038
-0.051536202 -0.27013022 -0.3334108
-0.051088002 -0.27011535 -0.33340266
-0.050867286 -0.27008358 -0.33340797
-0.050776999 -0.27007797 -0.33340564
-0.048831999 -0.27007499 -0.33341232
-0.048797999 -0.27003101 -0.333417
-0.047171 -0.270172 -0.33340701
-0.04587575 -0.27010649 -0.33340502
-0.016564 -0.27012435 -0.33348
-0.053875498 -0.26993799 -0.33359
-0.053709999 -0.26991865 -0.33357099
-0.053530667 -0.26987103 -0.333572
-0.053293999 -0.26990151 -0.33354476
-0.053118166 -0.26988101 -0.33352852
-0.052911777 -0.2698912 -0.33351257
-0.052742165 -0.26990235 -0.33349517
-0.052572001 -0.26991501 -0.33348668
-0.052228998 -0.26992235 -0.33345965
-0.051886886 -0.26988158 -0.33343133
-0.051676001 -0.26989999 -0.33341202
-0.051548999 -0.26990965 -0.333415
-0.051103 -0.26993001 -0.33340299
-0.050831664 -0.26991263 -0.33340767
-0.050765999 -0.26993799 -0.33340499
-0.048838001 -0.26995999 -0.33340099
-0.048792999 -0.269961 -0.33340701
-0.0167125 -0.269871 -0.33342099
-0.016546002 -0.26991233 -0.33349499
-0.053695001 -0.26974499 -0.33358002
-0.053516001 -0.26969701 -0.33358198
-0.053279836 -0.26972815 -0.333545
-0.053093601 -0.2696878 -0.33352581
-0.052895445 -0.26968434 -0.33350214
-0.052726004 -0.26969582 -0.3334825
-0.052555334 -0.26970768 -0.33348736
-0.052212 -0.26971534 -0.33345535
-0.051869441 -0.26967376 -0.33343542
-0.051670801 -0.26970538 -0.3334128
-0.051532667 -0.26970333 -0.33340499
-0.016696999 -0.269694 -0.33343601
-0.016528999 -0.26970264 -0.33348832
-0.053503998 -0.26955801 -0.33358598
-0.053262502 -0.26951984 -0.33354834
-0.053087831 -0.26950148 -0.33351955
-0.052878894 -0.2694779 -0.33349356
-0.052709173 -0.26948902 -0.33348152
-0.052538667 -0.26950064 -0.33348
-0.052200999 -0.26957801 -0.33344799
-0.052192502 -0.269474 -0.33344698
-0.051866401 -0.26950741 -0.3334356
-0.051721253 -0.26947701 -0.33342549
-0.051515669 -0.26949599 -0.33340299
-0.045676999 -0.26942 -0.333408
-0.045430999 -0.26943001 -0.33340999
-0.045148998 -0.269445 -0.33340499
-0.044698 -0.26940301 -0.33340299
-0.044466 -0.269416 -0.33340999
-0.044011001 -0.26943299 -0.33340999
-0.043841999 -0.26944101 -0.33341101
-0.043716997 -0.26944664 -0.33341733
-0.043453 -0.269467 -0.333417
-0.043257002 -0.26946801 -0.33340999
-0.043123249 -0.26944649 -0.33341649
-0.042715002 -0.26942801 -0.333404
-0.016683999 -0.269521 -0.33341199
-0.016513666 -0.26949534 -0.33345833
-0.053261999 -0.26935598 -0.333572
-0.053112715 -0.26930186 -0.33355671
-0.052873001 -0.26929298 -0.3335025
-0.05271662 -0.26926935 -0.333491
-0.052522331 -0.26929399 -0.33347067
-0.052177668 -0.26930034 -0.33345667
-0.051868003 -0.269328 -0.33342913
-0.051732834 -0.26930082 -0.33343136
-0.051494606 -0.26925841 -0.3334136
-0.051242001 -0.269225 -0.33340499
-0.0480798 -0.26928061 -0.33341241
-0.047892749 -0.26926398 -0.33341748
-0.047705334 -0.26931432 -0.33341965
-0.047546666 -0.26932299 -0.33340931
-0.047286503 -0.26929599 -0.333419
-0.047052 -0.26927233 -0.33341965
-0.046875667 -0.26928481 -0.33341828
-0.046687666 -0.26929599 -0.333413
-0.046506371 -0.26929623 -0.33341938
-0.046123501 -0.26929051 -0.33342427
-0.045910329 -0.26930135 -0.33341834
-0.045718834 -0.26927766 -0.333428
-0.045489669 -0.26928747 -0.33342782
-0.04513533 -0.26930299 -0.333437
-0.044868499 -0.26928198 -0.333417
-0.044701431 -0.26930985 -0.33342671
-0.0445088 -0.26928759 -0.33341879
-0.044280667 -0.26928034 -0.33342037
-0.044004001 -0.26936299 -0.33342001
-0.0438952 -0.26928338 -0.333435
-0.043704219 -0.26930645 -0.3334358
-0.043439999 -0.26932666 -0.33344102
-0.043245334 -0.26932931 -0.33341667
-0.043100599 -0.26928681 -0.33342779
-0.042933002 -0.26928401 -0.33340988
-0.042703003 -0.26928833 -0.33341599
-0.042483501 -0.26934248 -0.333404
-0.016493334 -0.269281 -0.33350432
-0.0530315 -0.26913524 -0.33357251
-0.052887201 -0.26911321 -0.33354157
-0.052696999 -0.26909015 -0.33350486
-0.052503999 -0.26908499 -0.33348867
-0.052160997 -0.26909333 -0.33344933
-0.051851332 -0.26912114 -0.33342436
-0.051746 -0.26912549 -0.33342025
-0.05148875 -0.26908585 -0.333419
-0.051271252 -0.26906824 -0.33341575
-0.051031999 -0.2690655 -0.33340201
-0.049748003 -0.26901001 -0.33340099
-0.048815999 -0.26905999 -0.33340099
-0.048719 -0.26906201 -0.333406
-0.048072334 -0.26908633 -0.33341816
-0.047877833 -0.2690905 -0.33342448
-0.047687333 -0.26910633 -0.33342835
-0.047527999 -0.2691147 -0.33342996
-0.047272 -0.26912299 -0.333426
-0.047081999 -0.26909602 -0.333424
-0.046892378 -0.26908275 -0.33341798
-0.046669666 -0.26908666 -0.33342996
-0.04649822 -0.26909667 -0.33342519
-0.046108831 -0.26911733 -0.33343384
-0.045894891 -0.26912746 -0.33343309
-0.0456912 -0.2690824 -0.33343861
-0.045508999 -0.26909375 -0.33343875
-0.045396999 -0.2690475 -0.33343899
-0.045118671 -0.26909533 -0.33343634
-0.044853669 -0.26910734 -0.33342865
-0.044677667 -0.26912266 -0.33343166
-0.044521198 -0.26911801 -0.33342701
-0.044263665 -0.26907167 -0.33341765
-0.043896001 -0.26908836 -0.333433
-0.043698378 -0.26910537 -0.33343765
-0.04346725 -0.26909974 -0.33342403
-0.043231502 -0.26915598 -0.333408
-0.043105401 -0.2691204 -0.33341199
-0.042934667 -0.26912132 -0.33340535
-0.042691998 -0.269151 -0.333406
-0.016649999 -0.2691015 -0.333406
-0.016479 -0.26910651 -0.3335
-0.052904885 -0.2689169 -0.33355868
-0.05270575 -0.26891989 -0.33351949
-0.052514002 -0.26885849 -0.33349502
-0.052143335 -0.26888466 -0.33345965
-0.05185125 -0.26892775 -0.33344674
-0.051724505 -0.2689085 -0.33344665
-0.051492594 -0.2688826 -0.33343357
-0.051317401 -0.26888901 -0.33341479
-0.050767001 -0.26892135 -0.33340433
-0.049732599 -0.26888442 -0.33341104
-0.048810001 -0.26899001 -0.33340499
-0.048729669 -0.26892218 -0.33340767
-0.048065599 -0.26889279 -0.33340922
-0.047894001 -0.26889974 -0.33341575
-0.047734752 -0.26889199 -0.33341748
-0.047515001 -0.26894251 -0.33340901
-0.047262002 -0.268985 -0.333406
-0.047068 -0.26892334 -0.33341667
-0.046892397 -0.26893538 -0.33340898
-0.046703 -0.26887834 -0.333413
-0.046460167 -0.26891318 -0.33340517
-0.046092834 -0.268911 -0.33341682
-0.045888875 -0.26892838 -0.33342561
-0.045715496 -0.26890516 -0.33343199
-0.045529 -0.26890099 -0.33344102
-0.045383666 -0.26887468 -0.33342966
-0.045102667 -0.26888967 -0.33341703
-0.0448405 -0.26893651 -0.33341199
-0.044667751 -0.26892263 -0.33343112
-0.044480801 -0.26894099 -0.3334116
-0.044252999 -0.26893601 -0.33340901
-0.043924 -0.26889825 -0.33341402
-0.043734126 -0.26887852 -0.3334125
-0.043412998 -0.26898199 -0.33341199
-0.016634332 -0.26892433 -0.33342364
-0.016464001 -0.26892999 -0.33350834
-0.053102247 -0.26865774 -0.33358601
-0.052899376 -0.2687175 -0.33355287
-0.052732002 -0.26870558 -0.33353844
-0.052529998 -0.26870024 -0.333505
-0.052125003 -0.268677 -0.33347499
-0.051850334 -0.26870367 -0.33343801
-0.051718835 -0.26874349 -0.33344766
-0.051525336 -0.26872966 -0.33340764
-0.051371001 -0.26869801 -0.33342099
-0.048724335 -0.26875967 -0.33340397
-0.046066333 -0.268751 -0.33340397
-0.045949001 -0.26878101 -0.33342099
-0.045699798 -0.26876378 -0.3334108
-0.045516998 -0.26872969 -0.33340833
-0.045371 -0.26870352 -0.33340698
-0.045085002 -0.26868102 -0.33342132
-0.044671331 -0.26870549 -0.33341348
-0.044415001 -0.268792 -0.33340201
-0.043942001 -0.268601 -0.333413
-0.016615666 -0.268713 -0.33343968
-0.016445 -0.268718 -0.33353233
-0.053219002 -0.26847699 -0.33357966
-0.053088997 -0.26848617 -0.33357236
-0.052914333 -0.26850131 -0.33353567
-0.052731778 -0.268507 -0.33354431
-0.052516501 -0.26852831 -0.3334955
-0.052108664 -0.26846933 -0.33346632
-0.051834334 -0.26849699 -0.33342266
-0.051697168 -0.26846802 -0.33343199
-0.051471502 -0.26852399 -0.33341551
-0.051357001 -0.26852635 -0.33341232
-0.047215998 -0.26843101 -0.33341101
-0.047029 -0.26844001 -0.33340299
-0.046849001 -0.26845199 -0.33341199
-0.04662 -0.26846501 -0.333408
-0.046448998 -0.26840401 -0.333417
-0.046365999 -0.26840401 -0.33341599
-0.046049401 -0.2684814 -0.3334114
-0.045837998 -0.26846999 -0.333413
-0.045732204 -0.26849642 -0.33341819
-0.045529995 -0.26847434 -0.33341435
-0.045356002 -0.26852867 -0.33341834
-0.045066666 -0.268471 -0.33344531
-0.044803001 -0.268484 -0.33341599
-0.044673856 -0.26848501 -0.33342156
-0.044550002 -0.26850548 -0.33341718
-0.044346251 -0.26849675 -0.33342123
-0.043932498 -0.26849598 -0.333428
-0.043709338 -0.26850516 -0.33341983
-0.043548003 -0.268448 -0.33342302
-0.043372333 -0.26849499 -0.33342731
-0.043144334 -0.26845333 -0.33341065
-0.042940002 -0.26847166 -0.33341002
-0.042637497 -0.26849002 -0.33341801
-0.042449668 -0.26842466 -0.33340999
-0.042321 -0.26840699 -0.33341399
-0.0166295 -0.26850149 -0.3334305
-0.016492601 -0.26848799 -0.33352658
-0.053404 -0.26834801 -0.333592
-0.053300999 -0.26827452 -0.33357602
-0.053089716 -0.26826784 -0.33356848
-0.052897502 -0.2682935 -0.33353052
-0.052715778 -0.26830044 -0.33352965
-0.052500334 -0.26832184 -0.3334845
-0.052096002 -0.26829851 -0.333442
-0.051816661 -0.268289 -0.33342668
-0.051726669 -0.2682927 -0.33342099
-0.051447798 -0.26831779 -0.33340603
-0.050698999 -0.26820499 -0.33341199
-0.049438 -0.26826799 -0.33340099
-0.049307503 -0.26820248 -0.3334105
-0.049091 -0.26820299 -0.33342999
-0.04865 -0.26823199 -0.333406
-0.0480505 -0.268289 -0.33341402
-0.047919001 -0.26829049 -0.33342502
-0.0476835 -0.26826924 -0.33341625
-0.047459666 -0.26828301 -0.33342966
-0.047205999 -0.26832598 -0.33342901
-0.047060747 -0.26827899 -0.33343351
-0.046881828 -0.26830733 -0.33342302
-0.046696 -0.2683332 -0.33343759
-0.0464954 -0.26829001 -0.33343679
-0.046356998 -0.26829898 -0.333424
-0.046063498 -0.26830125 -0.33342874
-0.045925003 -0.26829368 -0.33341566
-0.045720667 -0.26830018 -0.333437
-0.045532331 -0.26830932 -0.3334367
-0.045335665 -0.26831666 -0.33345833
-0.045050003 -0.26829398 -0.33348
-0.044693254 -0.26828712 -0.33347088
-0.044539995 -0.26828343 -0.3334493
-0.044329502 -0.26832074 -0.3334555
-0.044196002 -0.26827198 -0.333446
-0.043916669 -0.26831967 -0.33344698
-0.04369311 -0.26832801 -0.33345175
-0.043533336 -0.26827601 -0.33342633
-0.043354001 -0.26828599 -0.33344531
-0.043115169 -0.2682915 -0.33342984
-0.042895891 -0.26830891 -0.33342832
-0.042621333 -0.26831499 -0.33344197
-0.042459 -0.26829499 -0.333428
-0.042354502 -0.26830101 -0.3334195
-0.0166722 -0.2682704 -0.3334744
-0.016572667 -0.26828033 -0.33355498
-0.053387001 -0.26813799 -0.33359
-0.053065598 -0.26809698 -0.33358282
-0.052878004 -0.2680833 -0.33356416
-0.052696887 -0.26809058 -0.33355209
-0.0524805 -0.26811084 -0.33351949
-0.052080002 -0.268123 -0.33346304
-0.051803999 -0.26814899 -0.33344999
-0.051729873 -0.26807323 -0.33344448
-0.051509287 -0.26811072 -0.33342957
-0.051369336 -0.26806268 -0.333437
-0.051148999 -0.26811668 -0.33342668
-0.050889671 -0.26808536 -0.33342502
-0.050692875 -0.26810014 -0.33343574
-0.05050543 -0.26805714 -0.33342716
-0.050368998 -0.26808432 -0.33342364
-0.050015669 -0.268098 -0.33342698
-0.049841501 -0.26806802 -0.33342201
-0.049694378 -0.268098 -0.33342913
-0.049503893 -0.26812533 -0.33341354
-0.04929775 -0.26809752 -0.33342949
-0.049083002 -0.26809999 -0.333428
-0.048889998 -0.26807934 -0.33343065
-0.048684109 -0.26808774 -0.33343309
-0.048519667 -0.26809981 -0.33343402
-0.048032667 -0.26811135 -0.33346334
-0.047903001 -0.26811567 -0.33344734
-0.047700752 -0.26812324 -0.33345374
-0.047479752 -0.26806951 -0.33346376
-0.047139503 -0.26810074 -0.3334415
-0.046896502 -0.26808739 -0.33343911
-0.046735663 -0.26810765 -0.33344531
-0.04649834 -0.26812035 -0.33345747
-0.046341002 -0.26812336 -0.33345333
-0.046065003 -0.26807168 -0.3334513
-0.045902755 -0.26809162 -0.33344913
-0.045714859 -0.26807845 -0.33346727
-0.045513835 -0.26809952 -0.33345631
-0.045318663 -0.26810798 -0.33346033
-0.045035999 -0.26812133 -0.33347002
-0.044708248 -0.26810223 -0.33347076
-0.044536553 -0.26808321 -0.33346498
-0.044353336 -0.26809236 -0.33346701
-0.044181 -0.26809731 -0.3334513
-0.043899 -0.268112 -0.333451
-0.043676332 -0.26812065 -0.3334471
-0.043519501 -0.2681025 -0.333419
-0.043336999 -0.26807702 -0.33343968
-0.043097671 -0.26808253 -0.33343372
-0.042923 -0.26809832 -0.33342934
-0.042717598 -0.2681188 -0.3334268
-0.042483501 -0.26810148 -0.33342227
-0.042339999 -0.26812747 -0.33342066
-0.016689999 -0.2680954 -0.33350462
-0.016555998 -0.26810151 -0.33358699
-0.052838501 -0.26789075 -0.33359024
-0.052678 -0.26788077 -0.33357891
-0.052474804 -0.26791438 -0.33354062
-0.052397002 -0.26783299 -0.33355299
-0.052060336 -0.267912 -0.33350036
-0.051711001 -0.26788944 -0.33349499
-0.051506836 -0.26788917 -0.33346733
-0.051340669 -0.26789814 -0.33346984
-0.051129002 -0.26790565 -0.33346805
-0.050889164 -0.26792052 -0.33345246
-0.050693501 -0.2679311 -0.33346081
-0.050499443 -0.26788902 -0.33345267
-0.050348997 -0.26787299 -0.33346701
-0.050003 -0.26795799 -0.33344901
-0.049893402 -0.26787701 -0.33344039
-0.04968489 -0.26789722 -0.33344355
-0.04948533 -0.26791543 -0.3334322
-0.049282666 -0.26792249 -0.33344087
-0.049068332 -0.26792601 -0.33343399
-0.048873998 -0.267903 -0.33346099
-0.048665002 -0.26787722 -0.33346131
-0.048500165 -0.26788816 -0.333462
-0.048014 -0.26790166 -0.33348665
-0.047884002 -0.26790503 -0.33347368
-0.047714997 -0.26791 -0.33346471
-0.047522798 -0.26791421 -0.33346841
-0.047168002 -0.26787367 -0.33343968
-0.046916425 -0.26789328 -0.33346176
-0.046750002 -0.26788262 -0.33345041
-0.04649125 -0.26792037 -0.33345625
-0.046341501 -0.26789549 -0.333471
-0.046049498 -0.26789701 -0.33346599
-0.045916665 -0.26787266 -0.33346081
