-0.0632914 -0.00558861 0.997979 0.000746975
-0.0689383 -0.00273198 0.997617 0.00303699
-0.066374 0.00159377 0.997793 0.00352451
-0.0703091 0.00923368 0.997482 0.00913332
-0.0644158 -0.000367238 0.997923 0
-0.0644227 -0.000393305 0.997923 0
-0.0638771 0.001814 0.997956 0
-0.0630332 0.00637762 0.997991 0
-0.0733426 0.0125376 0.997228 0.00698064
-0.0747687 0.0155531 0.99708 0.00670437
-0.0801497 0.0133715 0.996693 0.0128624
-0.0804177 0.016135 0.996631 0.0108999
-0.0784706 0.0120311 0.996844 0.0122483
-0.0769372 0.0045181 0.997026 0.00791788
-0.0723341 -0.000891234 0.99738 0.00464649
-0.0700777 0.00130462 0.997541 0
-0.0675875 -0.000720163 0.997713 0
0.188624 -0.0171461 0.9819 0.00966129
0.198614 -0.0184194 0.979905 0
-0.0626875 0.00160861 0.998032 0
-0.0611346 0.00292496 0.998125 0
-0.0680415 0.00899003 0.997642 0.005343
-0.0649608 0.00260859 0.997884 0.00275648
-0.0670602 0.00483049 0.997737 0.00308143
-0.0627355 0.0030754 0.998025 0
-0.061285 0.00506678 0.998107 0
-0.0691981 0.0110127 0.997542 4.93409e-05
-0.0709375 0.0184622 0.99731 0.00571921
-0.0755534 0.0184749 0.996971 0.00832687
-0.0758562 0.0177789 0.99696 0.0110565
-0.0759531 0.0141633 0.997011 0.00679339
-0.076225 0.0101139 0.997039 0.00299725
-0.0736335 0.0118371 0.997215 0.00332189
-0.0680148 0.00727069 0.997658 0
-0.0652979 0.00225882 0.997863 0
0.184929 -0.017056 0.982604 0.00119796
0.196763 -0.0169326 0.980305 0
-0.0635881 0.00411006 0.997968 0
-0.0641072 0.00882422 0.997904 0
-0.0626924 0.00850623 0.997997 0
-0.067101 0.0103216 0.997693 0.00389134
-0.0638628 0.00305657 0.997954 0.0040718
-0.0668278 0.0103252 0.997711 0.000447712
-0.0605759 0.0110165 0.998103 0
-0.0635792 0.00902206 0.997936 0
-0.0684429 0.0104551 0.9976 0.0056371
-0.0703219 0.0124928 0.997446 0.00325984
-0.0709659 0.0186933 0.997304 0.00519035
-0.0762424 0.0206893 0.996875 0.00572371
-0.0729292 0.0177141 0.99718 0
-0.0718834 0.0141085 0.997313 0
-0.0698489 0.0121698 0.997483 0
-0.0679071 -0.00155571 0.99769 0
0.183736 -0.0122281 0.9829 0.00410034
0.202838 -0.0135094 0.979119 0.00526202
-0.0627156 0.00705166 0.998007 0
-0.0637817 0.00736443 0.997937 0
-0.0651879 0.00899658 0.997832 0.00111826
-0.0639188 0.00537473 0.997941 0.00323876
-0.0645544 0.00587631 0.997897 0.00225466
-0.0625004 0.00954486 0.997999 0
-0.0642157 0.0147131 0.997828 0.00807447
-0.0663981 0.0108444 0.997734 0.00898482
-0.0700931 0.0155739 0.997419 0.0117489
-0.0750271 0.0235366 0.996904 0.0162667
-0.0781618 0.0244492 0.996641 0.0129283
-0.0758229 0.0202568 0.996916 0.00304988
-0.0695966 0.0118724 0.997505 0
-0.0676738 0.00767396 0.997678 0
-0.0686282 -0.00154837 0.997641 0
0.183933 -0.00713087 0.982913 0.00459411
0.199145 -0.00731748 0.979943 0.00536992
0.207968 -0.00891936 0.978095 0.00341027
-0.0642433 0.00990787 0.997885 0
-0.0620593 0.00748315 0.998044 0
-0.0630777 0.0134571 0.997918 0
-0.0603976 0.0102197 0.998122 0.00110833
-0.062971 0.0120279 0.997943 0.00334225
-0.0647625 0.0168666 0.997758 0.00203751
-0.0683229 0.0183294 0.997495 0.0108638
-0.0741578 0.018746 0.99707 0.012873
-0.0708071 0.0211189 0.997266 0.0142599
-0.0733969 0.0234903 0.997026 0.0167529
-0.0764291 0.0275679 0.996694 0.0129037
-0.0754073 0.0203418 0.996945 0.00250091
-0.0723407 0.0139489 0.997282 0
-0.0705229 0.0137461 0.997415 0
-0.0738807 0.0112346 0.997204 0.00241452
0.187973 -0.00692961 0.98215 0.00406855
0.198817 -0.00917723 0.979994 0.00381164
0.207279 -0.00827981 0.978247 0.00229806
-0.0555424 0.00300946 0.998452 0
-0.0574476 0.0139539 0.998251 0.000500204
-0.0626745 0.0141453 0.997934 0
-0.064643 0.0190825 0.997726 0.00274245
-0.0650036 0.0216078 0.997651 0.00471042
-0.0711793 0.0230417 0.997197 0.00771748
-0.0715932 0.0217663 0.997196 0.0032479
-0.0724475 0.0232107 0.997102 0.0136915
-0.0706065 0.0265219 0.997152 0.0106965
-0.0772604 0.0261503 0.996668 0.0148303
-0.0747408 0.0217184 0.996966 0.00816354
-0.069566 0.0156886 0.997454 0
-0.0714444 0.0212802 0.997218 0.00738864
-0.072271 0.0195528 0.997193 0.00271081
0.1877 -0.0046171 0.982215 0.00555484
0.200269 -0.0104963 0.979685 0.00256864
-0.062394 0.0119225 0.99798 0
-0.0633804 0.0116901 0.997921 0
-0.0581309 0.0166048 0.998171 0
-0.0614386 0.0192562 0.997925 0
-0.0645131 0.0229712 0.997652 0.00123224
-0.0690778 0.0238337 0.997327 0.00263053
-0.0683292 0.0278604 0.997274 0.00229089
-0.0721703 0.0242761 0.997097 0.00613947
-0.0713866 0.0221372 0.997203 0.0044526
-0.0700606 0.0229933 0.997278 0.00710189
-0.0746733 0.0247745 0.9969 0.0064689
-0.0759927 0.0231978 0.996838 0.00534003
-0.0741777 0.0222516 0.996997 0.00390961
-0.0798742 0.0242686 0.996509 0.0126325
-0.0769665 0.023333 0.996761 0.00987841
-0.0765295 0.0215635 0.996834 0.00869775
0.186968 -0.00289177 0.982362 0.00656719
0.196668 -0.00382759 0.980463 0.0019673
-0.0656841 0.0176354 0.997685 0
-0.0660801 0.0167287 0.997674 0
-0.0618298 0.0168789 0.997944 0
-0.0650547 0.0193343 0.997694 0
-0.0679236 0.0252438 0.997371 0
-0.0707731 0.0257773 0.997159 0.00076221
-0.0718332 0.0229769 0.997152 0.00336895
-0.0678806 0.0153263 0.997576 0
-0.0744276 0.019547 0.997035 0.00908826
-0.0782261 0.0242743 0.99664 0.00647394
-0.08185 0.0302764 0.996185 0.011154
-0.0799366 0.0217354 0.996563 0.00749171
-0.080357 0.0229748 0.996501 0.0126124
-0.0752471 0.0189205 0.996985 0.00335755
-0.0772559 0.0187954 0.996834 0.00925052
0.179934 -0.000296965 0.983679 0.00830534
0.193538 -0.00498215 0.98108 0.00405308
-0.0684114 0.00574626 0.997641 0
-0.0640563 0.00933575 0.997903 0
-0.0683552 0.0122583 0.997586 0
-0.0658548 0.0154956 0.997709 0
-0.0694883 0.0214242 0.997353 0.00140887
-0.0718255 0.0237242 0.997135 0.00233513
-0.0731776 0.0202204 0.997114 0.00709284
-0.0769977 0.0218842 0.996791 0.00732034
-0.076151 0.0211508 0.996872 0.00777824
-0.077103 0.0270953 0.996655 0.0086286
-0.0765017 0.0271553 0.9967 0.00799835
-0.079315 0.0238749 0.996564 0.0101605
-0.0756905 0.0174722 0.996978 0.00560709
-0.0756914 0.0151018 0.997017 0.00681445
-0.0740731 0.0099755 0.997203 0.00448066
-0.0793699 0.0129526 0.996761 0.0179075
-0.0814284 0.0182162 0.996513 0.0180633
0.168758 0.00150678 0.985656 0.0110636
0.18149 -0.00118756 0.983392 0.0077613
0.188389 -0.00363854 0.982088 0.00522575
-0.0642511 0.00889598 0.997894 0
-0.0626655 0.0118753 0.997964 0
-0.0667156 0.015122 0.997657 0
-0.0690358 0.0169581 0.99747 0
-0.0698449 0.0200464 0.997356 0.00355012
-0.0742789 0.0249874 0.996924 0.0047253
-0.0813469 0.0277691 0.996299 0.0140006
-0.0798073 0.0226999 0.996552 0.0126728
-0.0813762 0.0290157 0.996261 0.0106496
-0.0732191 0.0231028 0.997048 0.00199372
-0.0784033 0.0183157 0.996753 0.0036877
-0.0800087 0.0196356 0.996601 0.00826089
-0.0789008 0.0149141 0.996771 0.00873568
-0.0746779 0.0104648 0.997153 0.00454662
-0.0787837 0.0138053 0.996796 0.0143625
-0.077476 0.0152167 0.996878 0.013148
-0.0745707 0.0202923 0.997009 0.0166235
0.168405 -6.48904e-05 0.985718 0.00611666
0.178964 -0.00197101 0.983854 0.00771009
0.186014 -0.00126682 0.982546 0.010154
-0.0656608 0.00977828 0.997794 0
-0.0655032 0.0122782 0.997777 0
-0.0657289 0.0175894 0.997683 0
-0.0701981 0.0192019 0.997348 0.00475817
-0.0733424 0.0255321 0.99698 0.00921328
-0.0802138 0.0270122 0.996412 0.0106759
-0.0862273 0.0344695 0.995679 0.0195536
-0.0840349 0.0257535 0.99613 0.0163189
-0.0799338 0.0248615 0.99649 0.0124102
-0.0770008 0.0245359 0.996729 0.00462217
-0.0787327 0.0140743 0.996796 0.00117557
-0.0799648 0.0139355 0.9967 0.00462336
-0.0797908 0.0142205 0.99671 0.00960932
-0.0811704 0.0107743 0.996642 0.0103633
-0.0746588 0.0147852 0.9971 0.0144777
-0.0740134 0.0153431 0.997139 0.0154863
-0.0734058 0.0181957 0.997136 0.0162026
0.166131 0.000763815 0.986103 0.00806042
0.175066 0.00156241 0.984555 0.00564989
0.182904 0.00144707 0.98313 0.00665864
-0.0696715 0.0185789 0.997397 0.00433852
-0.0676233 0.0190583 0.997529 0.000560707
-0.0736424 0.0223328 0.997035 0.00473008
-0.0798157 0.0283077 0.996408 0.020165
-0.0826243 0.0286277 0.99617 0.0221307
-0.0816195 0.0217749 0.996426 0.0139777
-0.0833286 0.0214093 0.996292 0.0141268
-0.0827883 0.0206329 0.996354 0.0120603
-0.0791924 0.0182606 0.996692 0.00564865
-0.0805095 0.0167183 0.996614 0.00396624
-0.0833695 0.0148399 0.996408 0.0121164
-0.0838976 0.0168989 0.996331 0.0151648
-0.0769503 0.0118958 0.996964 0.00759282
-0.0811934 0.0252739 0.996378 0.0168929
-0.0765819 0.017462 0.99691 0.011481
-0.0724148 0.0118464 0.997304 0.0136862
-0.0737289 0.0172072 0.99713 0.0156483
0.168657 0.00017214 0.985675 0.00758548
0.17712 0.00109523 0.984189 0.00583206
0.184886 0.000171738 0.98276 0.00635214
-0.0749253 0.0240829 0.996898 0.00804677
-0.073583 0.0246518 0.996984 0.00988397
-0.0738713 0.021549 0.997035 0.00793791
-0.0765576 0.021721 0.996829 0.0141403
-0.0787842 0.019246 0.996706 0.0194976
-0.0782065 0.0147246 0.996828 0.015223
-0.0749915 0.0146196 0.997077 0.00662207
-0.0794923 0.0148836 0.996724 0.00551395
-0.0782273 0.0136687 0.996842 0
-0.0799918 0.0130036 0.996711 0.00477107
-0.0833089 0.0161452 0.996393 0.0132062
-0.0846307 0.0149367 0.9963 0.0147972
-0.078652 0.0135876 0.996809 0.00873528
-0.0775846 0.0204525 0.996776 0.0154224
-0.072511 0.011215 0.997305 0.0095954
-0.0726685 0.00975783 0.997308 0.0137815
0.162436 -0.00168744 0.986717 0.00305755
0.180526 -0.00146248 0.983569 0.00870679
0.187526 -0.00335454 0.982254 0.00432804
-0.0799883 0.0247325 0.996489 0.0143368
-0.0804842 0.0263332 0.996408 0.0155503
-0.0782454 0.0254375 0.99661 0.0168292
-0.0762606 0.0183507 0.996919 0.0129703
-0.0731624 0.0128138 0.997238 0.00823002
-0.070096 0.0133621 0.997451 0.00310783
-0.071398 0.00945632 0.997403 0
-0.0711098 0.0070668 0.997443 0
-0.07109 0.00465178 0.997459 0
-0.0782373 0.0077492 0.996905 0.00414517
-0.0862191 0.012405 0.996199 0.0180042
-0.0874678 0.0176582 0.996011 0.0222703
-0.0791534 0.011434 0.996797 0.00961437
-0.078664 0.0124188 0.996824 0.0145677
-0.0764836 0.0139115 0.996974 0.0120535
-0.0755487 0.0108175 0.997083 0.0121271
-0.0749698 0.0127094 0.997105 0.0144297
0.166495 -0.00498827 0.98603 0.0039418
0.177454 -0.00384102 0.984122 0.00281365
0.183459 -0.00634757 0.983007 0.000603032
-0.0837186 0.0253294 0.996167 0.0155238
-0.0830799 0.0233074 0.99627 0.0198133
-0.0762798 0.0149161 0.996975 0.00912814
-0.0709006 0.00721168 0.997457 0
-0.0654345 0.00440805 0.997847 0
-0.0683839 0.0107634 0.997601 0
-0.0703762 0.00953658 0.997475 0
-0.0704636 0.00248815 0.997511 0
-0.0708841 -0.00066176 0.997484 0
-0.0778698 0.00466785 0.996953 0.00290006
-0.0842641 0.0120973 0.99637 0.0158399
-0.0825811 0.0160417 0.996455 0.0186798
-0.0783839 0.0116499 0.996855 0.0164693
-0.0771601 0.00683783 0.996995 0.0158515
-0.0765812 0.0125066 0.996985 0.0142486
-0.0801145 0.0129862 0.996701 0.0199791
-0.077081 0.0165515 0.996887 0.0182568
0.16624 -0.00713895 0.98606 0
0.174974 -0.00614367 0.984554 0.00119174
0.175174 -0.00665315 0.984515 0.00359319
-0.078375 0.0195592 0.996732 0.0123717
-0.0771517 0.0123818 0.996942 0.0125342
-0.0750851 0.00816113 0.997144 0.00737354
-0.0670998 0.00153267 0.997745 0
-0.0636259 -0.00300427 0.997969 0
-0.0692488 0.00529403 0.997585 0
-0.0703955 0.0010657 0.997519 0
-0.0694035 -0.00225518 0.997586 0
-0.0672363 -0.00225733 0.997734 0
-0.0703121 0.000750022 0.997525 0
-0.0808938 0.0120652 0.99665 0.0130444
-0.0834593 0.0156065 0.996389 0.0187498
-0.0796421 0.00985203 0.996775 0.0188015
-0.0735186 0.00197766 0.997292 0.00535154
-0.0726116 0.00984566 0.997312 0.0103651
-0.0758123 0.0152799 0.997005 0.013465
-0.0760631 0.0184434 0.996932 0.0153389
0.166651 -0.00873556 0.985977 0
0.170707 -0.011235 0.985258 0
0.168988 -0.0123907 0.98554 0.0033131
-0.0788678 0.0168561 0.996743 0.00634023
-0.0735295 0.0133699 0.997203 0.00607675
-0.0724873 0.00837556 0.997334 0.00233413
-0.0680155 0.00471019 0.997673 0
-0.0670387 0.00114157 0.99775 0
-0.0670837 -0.000780555 0.997747 0
-0.0676669 -0.000372029 0.997708 0
-0.0716003 -0.0003431 0.997433 0
-0.067933 -0.00520337 0.997676 0
-0.0724454 -0.00191999 0.997371 0.00209184
-0.0809406 0.0112073 0.996656 0.0154953
-0.0791195 0.0129214 0.996781 0.0135793
-0.0771313 0.00514281 0.997008 0.0108379
-0.0728197 0.00392567 0.997337 0.00645303
-0.0709928 0.00980531 0.997429 0.00320414
-0.072636 0.0106207 0.997302 0.00495407
-0.0718583 0.00919515 0.997373 0.00823241
0.160902 -0.00862968 0.986933 0.000888819
0.165773 -0.010587 0.986107 0.00415504
0.171622 -0.0146134 0.985054 0.0055645
-0.0712662 0.011257 0.997394 0.00275807
-0.0725617 0.0100248 0.997313 0.00459953
-0.0686273 0.0139201 0.997545 0.00551183
-0.0668445 0.00524632 0.99775 0
-0.0653633 -0.000107686 0.997862 0
-0.0645856 0.000648898 0.997912 0
-0.0668744 -0.00044211 0.997761 0
-0.0732493 0.00623277 0.997294 0.00444393
-0.0687368 -0.001697 0.997633 0
-0.0755518 0.00523289 0.997128 0.00832351
-0.0722579 0.00735049 0.997359 0.00647774
-0.0785212 0.0122812 0.996837 0.0125129
-0.0747805 0.00515807 0.997187 0.00938035
-0.0719568 0.00317874 0.997403 0.00356311
-0.0707987 0.00899563 0.99745 0.00284403
-0.0728987 0.00745558 0.997312 0.00884276
-0.0723525 0.00824903 0.997345 0.0078381
-0.0686518 0.00473034 0.997629 0.000913899
0.146631 -0.0110292 0.98913 0
0.156411 -0.0114733 0.987625 0.00283247
0.166938 -0.0160537 0.985837 0.00689884
0.175556 -0.0163142 0.984334 0.00613574
-0.0758461 0.0105332 0.997064 0.00723062
-0.0737496 0.0129052 0.997193 0.00672344
-0.0677456 0.00749568 0.997674 0
-0.0659934 0.00873498 0.997782 0.00248372
-0.0678442 0.00383898 0.997689 0
-0.0646507 3.81945e-05 0.997908 0
-0.0691762 3.79679e-05 0.997604 0
-0.0687126 0.00651032 0.997615 0.00220209
-0.0711125 0.00474244 0.997457 0.00706982
-0.0727758 0.00727571 0.997322 0.00703705
-0.0778506 0.0122574 0.99689 0.0139303
-0.0748763 0.0121329 0.997119 0.00768217
-0.0729852 0.0100925 0.997282 0.0055851
-0.0709959 0.00529687 0.997463 0.00536702
-0.0723166 0.0049584 0.997369 0.00772157
-0.077891 0.0115612 0.996895 0.00888793
-0.0752214 0.0105038 0.997111 0.00669436
-0.0745365 0.0099976 0.997168 0.00898006
0.145264 -0.0160582 0.989263 0
0.152309 -0.0161897 0.9882 0.000208385
0.171409 -0.0194106 0.985009 0.00132405
0.179467 -0.0175381 0.983608 0.0072726
-0.0766277 0.0113228 0.996995 0.00756134
-0.0780804 0.00663419 0.996925 0.0101555
-0.0717909 0.00686724 0.997396 0.0102009
-0.0718082 0.00436715 0.997409 0.00519627
-0.0699218 0.00432838 0.997543 0.00294471
-0.0698034 0.00400721 0.997553 0.00461117
-0.0715473 0.00595527 0.997419 0.00321096
-0.0710817 0.00544901 0.997456 0.00356171
-0.0741196 -0.000232207 0.997249 0.00657587
-0.0705156 0.00420015 0.997502 0.00235604
-0.0751119 0.00727049 0.997149 0.0107596
-0.0755326 0.00554359 0.997128 0.00737677
-0.0748559 0.00817524 0.997161 0.00469241
-0.0748496 0.00608057 0.997176 0.00814297
-0.0740812 0.00468385 0.997241 0.007419
-0.0777112 0.0145176 0.99687 0.0167338
-0.0781375 0.0170838 0.996796 0.0110152
-0.0790939 0.0165383 0.99673 0.0121777
0.158505 -0.0212634 0.987129 0.00278087
0.169184 -0.0199798 0.985382 0.00312646
0.180513 -0.0201999 0.983365 0.00807325
-0.0777739 0.011002 0.99691 0.00758411
-0.0757665 0.00317412 0.99712 0.00871297
-0.0752295 0.00245122 0.997163 0.00478389
-0.0752568 0.00645205 0.997143 0.00847461
-0.0720132 0.00570232 0.997387 0.00328913
-0.0723501 0.00341722 0.997373 0.00226599
-0.0749578 0.00431506 0.997177 0.00611799
-0.0728468 0.00114464 0.997342 0.00401944
-0.0695487 -0.000727815 0.997578 0
-0.0709544 0.0061821 0.99746 0
-0.07582 0.00666457 0.997099 0.00727477
-0.0752043 0.00563021 0.997152 0.00921597
-0.0761899 0.00380159 0.997086 0.0115346
-0.0721142 0.000296979 0.997396 0.00412288
-0.072613 0.00478679 0.997349 0.00780124
-0.0758022 0.0136166 0.99703 0.01589
-0.0799361 0.0183168 0.996632 0.0167798
0.156901 -0.0211955 0.987387 0.00253772
0.171255 -0.0194471 0.985035 0.00628861
0.180308 -0.0206341 0.983394 0.00720218
0.183752 -0.0220838 0.982724 0.00832754
-0.0738457 1.8394e-05 0.99727 0
-0.0703852 -0.00233825 0.997517 0
-0.072852 -0.00240643 0.99734 0
-0.0757772 0.00518667 0.997111 0.00564955
-0.0763123 0.00528334 0.99707 0.00934008
-0.0781785 0.0088561 0.9969 0.00666885
-0.0762401 0.00557111 0.997074 0.00443754
-0.072913 0.00831457 0.997304 0.00241887
-0.0710491 0.00554645 0.997457 0
-0.0701616 0.00622077 0.997516 0
-0.0770667 0.0078736 0.996995 0.00830487
-0.076671 0.00655184 0.997035 0.00973893
-0.0747896 0.00136306 0.997198 0.00767305
-0.0721801 0.000989546 0.997391 0.00470568
-0.070553 -0.00168858 0.997507 0.00514188
-0.0715593 0.00968977 0.997389 0.00444551
-0.0741417 0.0132223 0.99716 0.00727967
-0.0781344 0.0157563 0.996818 0.0124464
0.15672 -0.0234029 0.987366 0.00205162
0.167779 -0.0229733 0.985557 0.00729523
0.175566 -0.0238782 0.984178 0.00831125
0.18012 -0.0249448 0.983328 0.00417248
-0.0698185 0.00060769 0.997559 0
-0.0708752 -0.00138162 0.997484 0
-0.0798463 0.0103863 0.996753 0.0137733
-0.080435 0.00821483 0.996726 0.0130581
-0.0773817 0.00361608 0.996995 0.00521277
-0.0774554 0.00207391 0.996994 0.00568705
-0.0717413 0.000450574 0.997423 0
-0.0704101 0.00561918 0.997502 0
-0.0758424 0.00365798 0.997113 0.00421081
-0.0780721 0.00763991 0.996918 0.00714736
-0.077586 0.0117918 0.996916 0.00691457
-0.0753223 0.00253402 0.997156 0.00551002
-0.0730776 0.000971306 0.997326 0.00577093
-0.0687545 -0.00504829 0.997621 0
-0.0676227 0.00153674 0.99771 0
-0.0700765 0.00627766 0.997522 0.00213695
-0.0691568 0.00599673 0.997588 0.00470461
-0.0698649 0.00880952 0.997518 0.00917257
0.161114 -0.0212228 0.986708 0.0101377
0.174338 -0.0217608 0.984445 0.0163176
0.189568 -0.0268203 0.981501 0.0136109
-0.0704102 0.00537365 0.997504 0
-0.0683386 0.00470157 0.997651 0
-0.0689907 0.00263244 0.997614 0
-0.0784611 0.00622064 0.996898 0.0119643
-0.0767521 0.00405403 0.997042 0.0108125
-0.0741876 -0.00270215 0.997241 0.00223709
-0.0781728 -0.000329819 0.99694 0.00834777
-0.0709106 -0.00465872 0.997472 0
-0.0732165 0.00357567 0.99731 0.00284177
-0.0754381 0.00323942 0.997145 0.00226384
-0.0795321 0.00766217 0.996803 0.00591504
-0.0767708 0.00159213 0.997047 0.00199342
-0.0731735 -0.00103009 0.997319 0
-0.0703483 -0.00343822 0.997517 0.00099325
-0.0679919 -0.00589359 0.997668 0
-0.0634895 -0.0135131 0.997891 0
-0.0676464 0.000874828 0.997709 0.00198837
0.163711 -0.0226627 0.986248 0.00811269
0.17821 -0.0193433 0.983802 0.0150748
0.202391 -0.0245495 0.978997 0.0152526
-0.0728338 0.0079144 0.997313 0.00377927
-0.0711856 0.00799323 0.997431 0
-0.0672378 -0.000821625 0.997737 0
-0.0752565 0.00182155 0.997163 0.00142417
-0.0798676 0.00313484 0.996801 0.00826725
-0.075231 0.000455566 0.997166 0.00570216
-0.0750074 -0.00105795 0.997182 0.0048415
-0.0771439 -0.000488737 0.99702 0.00468796
-0.0829829 0.00682228 0.996528 0.0149225
-0.0793253 0.00296523 0.996844 0.00336285
-0.0782716 -0.00262933 0.996929 0
-0.0766597 -0.000865598 0.997057 0.00241812
-0.0717197 0.000293334 0.997425 0.000157284
-0.0668541 0.00058794 0.997763 0
-0.0639431 -0.00607106 0.997935 0
-0.0604222 -0.0126606 0.998093 0
-0.0618952 -0.00930525 0.998039 0
0.166079 -0.0219261 0.985869 0.00679936
0.18544 -0.0223542 0.982401 0.00977879
0.197456 -0.0207363 0.980093 0.0115123
-0.0805849 0.0118549 0.996677 0.0158249
-0.0738661 0.00691012 0.997244 0.00346853
-0.070887 0.0028785 0.99748 0
-0.0717838 0.00482261 0.997409 0
-0.0731904 0.00199417 0.997316 0
-0.0731521 -0.00135763 0.99732 0
-0.076342 -0.00237925 0.997079 0.00110729
-0.0802885 0.00221379 0.996769 0.00948592
-0.0821073 0.00149175 0.996622 0.0135707
-0.0921849 0.00735865 0.995715 0.0213432
-0.0865265 0.00443031 0.99624 0.0161995
-0.0819397 -0.0022987 0.996635 0.00748931
-0.0736882 -0.00869129 0.997243 0.00228622
-0.0717832 -0.000819267 0.99742 0.00245469
-0.0678287 0.00406146 0.997689 0
-0.0645749 0.00271031 0.997909 0
-0.0635042 -0.00929547 0.997938 0
-0.0612691 -0.0112603 0.998058 0
0.164293 -0.0187328 0.986234 0.00881989
0.17749 -0.0201025 0.983917 0.00791145
0.188011 -0.0196998 0.981969 0.00952123
-0.080235 0.00854902 0.996739 0.0164758
-0.0763276 0.00200398 0.997081 0.00536862
-0.0704557 0.000222277 0.997515 0
-0.0672391 0.000788325 0.997737 0
-0.0718746 -0.00755666 0.997385 0
-0.0773272 -0.00184079 0.997004 0
-0.0778549 -0.0064314 0.996944 0
-0.0761843 -0.000921921 0.997093 0.00386378
-0.0831182 -0.000425881 0.99654 0.0132606
-0.0900898 0.0015962 0.995932 0.0214749
-0.0861067 -0.00243574 0.996283 0.0140646
-0.0774025 -0.00606947 0.996982 0.00299734
-0.0802044 -0.00179435 0.996777 0.00891771
-0.0752535 0.00263448 0.997161 0.00715504
-0.0704978 0.00776418 0.997482 0.00389487
-0.0669199 5.88687e-05 0.997758 0
-0.0651809 -0.00984452 0.997825 0
-0.0627802 -0.0134199 0.997937 0
0.173889 -0.0132884 0.984676 0.0158818
0.18598 -0.0168811 0.982409 0.0167543
-0.0739113 0.000368112 0.997265 0.0062566
-0.071459 0.000118558 0.997444 0.00143824
-0.0717481 -0.0063216 0.997403 0
-0.0701551 -0.00711693 0.997511 0
-0.0743047 -0.00307061 0.997231 0
-0.0759616 -0.00676621 0.997088 0
-0.0748727 -0.00868389 0.997155 0.00364083
-0.074797 -0.00829295 0.997164 0.00212159
-0.0807612 -0.00732348 0.996707 0.00685125
-0.0819347 -0.00756777 0.996609 0.00520782
-0.0790386 -0.00459628 0.996861 0.00395583
-0.0763628 -0.00201017 0.997078 0.00444394
-0.0726055 -0.000147116 0.997361 0.000761462
-0.0702268 -0.000974331 0.997531 0.00183507
-0.0670703 -0.00340419 0.997742 0
-0.0677545 -0.0111755 0.997639 0
-0.0661483 -0.0159372 0.997683 0
0.151748 -0.0127712 0.988337 0.00606223
0.17003 -0.0129921 0.985353 0.0162549
0.175819 -0.015161 0.984306 0.0152343
-0.0712137 -0.00155369 0.99746 0.00749636
-0.0738535 -0.00384114 0.997262 0.00451898
-0.0730001 0.00105794 0.997331 0.0070788
-0.0763254 -0.000954914 0.997083 0.00885672
-0.0763621 -0.00218526 0.997078 0.00549677
-0.07423 -0.00525214 0.997227 0.00423225
-0.0731004 -0.0141428 0.997224 0
-0.0730164 -0.0130374 0.997245 0
-0.0753838 -0.0121728 0.99708 0
-0.0740877 -0.00724838 0.997225 0
-0.0718664 -0.00396805 0.997406 0
-0.0728843 -0.00548589 0.997325 0
-0.0705947 -0.0030881 0.9975 0
-0.0680893 -0.00430887 0.99767 0
-0.0674148 -0.010311 0.997672 0
-0.0627142 -0.0133972 0.997942 0
-0.0647251 -0.0127109 0.997822 0
0.16234 -0.01195 0.986663 0.0117267
0.171605 -0.0133852 0.985075 0.00966027
-0.0782827 0.00972838 0.996884 0.00997363
-0.0826483 0.010451 0.996524 0.0139637
-0.0754034 0.0028382 0.997149 0.012798
-0.0746376 0.00209355 0.997209 0.010921
-0.0760983 0.00259234 0.997097 0.0116415
-0.0763992 -0.00255815 0.997074 0.00896715
-0.0736908 -0.00943466 0.997236 0.00152788
-0.0745974 -0.00938514 0.99717 0.000959428
-0.075291 -0.0100341 0.997111 0.000276873
-0.0735768 -0.0148808 0.997179 0
-0.0729854 -0.0081077 0.9973 0
-0.0745896 -0.00601884 0.997196 0
-0.0744313 -0.00874431 0.997188 0
-0.0721967 -0.00477471 0.997379 0
-0.0646958 -0.00793354 0.997873 0
-0.0665872 -0.00775684 0.99775 0
-0.0626462 -0.0103461 0.997982 0
0.162841 -0.0128925 0.986568 0
0.171335 -0.0120597 0.985139 0.00760077
-0.0885998 0.0133913 0.995977 0.015975
-0.0884121 0.0125063 0.996005 0.0172618
-0.0824181 0.00866313 0.99656 0.0156054
-0.0773586 0.0025355 0.997 0.00834616
-0.0734759 -0.00487507 0.997285 0.00606516
-0.074874 -0.0073796 0.997166 0.00565932
-0.0742556 -0.00650886 0.997218 0
-0.0802022 -0.000643744 0.996778 0.00608382
-0.0791898 -0.00464252 0.996849 0.00617758
-0.0815202 -0.0036026 0.996665 0.0098154
-0.077841 -0.0050331 0.996953 0.00532368
-0.078429 -0.00249475 0.996917 0.00346223
-0.0747969 -0.00824638 0.997165 0
-0.0725638 -0.00962842 0.997317 0
-0.0675009 -0.00977104 0.997671 0
-0.0662459 -0.00291408 0.997799 0
-0.0669154 -0.00397673 0.997751 0
-0.0719799 -0.00457101 0.997396 0.00176997
0.159408 -0.0126842 0.987131 0
0.171554 -0.0130977 0.985088 0
0.178334 -0.0127843 0.983887 0.00102462
-0.0887524 0.0100957 0.996003 0.0167727
-0.0880911 0.0170329 0.995967 0.0191058
-0.0869594 0.0107448 0.996154 0.0200114
-0.0808317 0.00495109 0.996715 0.0137892
-0.0756946 -0.00350574 0.997125 0.00415207
-0.074957 -0.00601054 0.997169 0.00291434
-0.0759838 -0.00635195 0.997089 0
-0.0831537 0.00122032 0.996536 0.0124405
-0.0866175 0.00579099 0.996225 0.0184416
-0.0865807 0.00789479 0.996214 0.0192959
-0.0838455 0.00436836 0.996469 0.0131697
-0.081605 0.00216277 0.996662 0.010618
-0.0790427 6.1271e-05 0.996871 0.00408693
-0.0723722 -0.00597482 0.99736 0
-0.0698545 -0.00791814 0.997526 0
-0.0685669 -0.00431212 0.997637 0
-0.076596 -0.00139044 0.997061 0.0104129
-0.0724737 -0.00250243 0.997367 0.00470669
0.16015 -0.0112529 0.987028 0.00263965
0.172801 -0.0124025 0.984879 0
0.183731 -0.011408 0.98291 0
-0.0941164 0.0124692 0.995483 0.0201806
-0.0895131 0.00806901 0.995953 0.0179339
-0.0828815 0.00756146 0.996531 0.0142843
-0.0810059 0.00505031 0.996701 0.0124177
-0.0783477 -0.000601771 0.996926 0.00539617
-0.0770165 -0.00566524 0.997014 0.00376327
-0.0762379 -0.00106367 0.997089 0.0069174
-0.0819254 0.0043141 0.996629 0.0161435
-0.0839561 0.00749195 0.996441 0.0206198
-0.0812214 0.00317223 0.996691 0.0173073
-0.0803652 -0.00117905 0.996765 0.0155355
-0.0811544 0.00286659 0.996697 0.0106316
-0.0815664 0.00681819 0.996645 0.0156126
-0.0788356 -0.00135236 0.996887 0.0123836
-0.0757792 -0.000209281 0.997125 0.00897336
-0.0736043 -0.00291735 0.997283 0.00657603
-0.077186 -0.00376264 0.99701 0.0155659
-0.0777667 -0.00579758 0.996955 0.0193092
0.165113 -0.00953945 0.986229 0
0.179045 -0.0132014 0.983752 0
0.185172 -0.0130793 0.982619 0
-0.0902216 0.0111715 0.995859 0.0177078
-0.0863646 0.00557412 0.996248 0.0113851
-0.08225 0.00314245 0.996607 0.0106624
-0.0793634 0.00489026 0.996834 0.00969077
-0.0759057 -0.000716548 0.997115 0.000798082
-0.0746782 -0.00280041 0.997204 0
-0.0785595 0.000689857 0.996909 0.00552307
-0.0827106 0.00685966 0.99655 0.0165845
-0.083395 0.00921133 0.996474 0.0212048
-0.0785469 0.00367517 0.996904 0.0122508
-0.07997 -0.00123614 0.996797 0.0111712
-0.0763528 -8.22688e-05 0.997081 0.00824069
-0.0871716 0.0114487 0.996128 0.0200442
-0.0869394 0.00606481 0.996195 0.0210794
-0.0801218 0.000874105 0.996785 0.0122114
-0.0791088 -0.00197232 0.996864 0.0108736
-0.0757114 -0.00534176 0.997115 0.0103854
-0.0770071 -0.00545107 0.997016 0.0179581
0.165407 -0.00399805 0.986217 0.000902281
0.178745 -0.00748533 0.983867 0
0.192392 -0.00778746 0.981287 0
-0.082111 0.00811333 0.99659 0.00607673
-0.0798222 0.00545516 0.996794 0.00514112
-0.0735432 -0.00319424 0.997287 0
-0.0760832 -0.00151531 0.9971 0.000414173
-0.079324 0.00437816 0.996839 0.00161281
-0.07727 0.000327269 0.99701 0
-0.0781582 0.00556829 0.996925 0.0041751
-0.0805342 0.0074495 0.996724 0.00971655
-0.080778 0.0105026 0.996677 0.0150174
-0.0822684 0.00648688 0.996589 0.0128128
-0.0861745 0.00478729 0.996269 0.0167768
-0.0860025 0.00610378 0.996276 0.0140596
-0.0895266 0.0141685 0.995884 0.0209078
-0.0883359 0.0110397 0.99603 0.0222751
-0.0824642 0.00601444 0.996576 0.0159577
-0.0760778 0.000485436 0.997102 0.0100543
-0.0773115 0.00571444 0.996991 0.0166094
0.163073 -0.00432042 0.986605 0
0.179564 -0.00421327 0.983737 0
0.191208 -0.00422682 0.981541 0
-0.0764263 0.00910981 0.997034 0
-0.0727412 0.00180621 0.997349 0
-0.074412 -0.000330632 0.997228 0
-0.0748693 0.000816609 0.997193 0
-0.0757606 0.00143394 0.997125 0
-0.0776067 -0.000766833 0.996984 0
-0.0800004 0.0075969 0.996766 0.00266925
-0.0809415 0.0086973 0.996681 0.0075665
-0.0861604 0.0111969 0.996218 0.0117092
-0.0893594 0.00779977 0.995969 0.0178025
-0.0840495 0.00985465 0.996413 0.00903041
-0.0854277 0.014088 0.996245 0.0109415
-0.0872533 0.0167968 0.996045 0.0145628
-0.0869865 0.0114422 0.996144 0.017198
-0.0807821 0.00614064 0.996713 0.00689045
-0.0727923 0.00421489 0.997338 0.010139
0.163574 -0.00057883 0.986531 0
0.180297 -0.00332378 0.983607 0
0.197702 -0.00537393 0.980247 0
-0.0769445 0.0131936 0.996948 0
-0.0742271 0.00759336 0.997213 0
-0.07294 -5.46314e-05 0.997336 0
-0.071052 0.00258377 0.997469 0
-0.0684189 0.000178319 0.997657 0
-0.0737627 0.000629108 0.997276 0
-0.0748279 0.00407535 0.997188 0
-0.0770377 0.00720811 0.997002 0
-0.0809803 0.0131743 0.996629 0.0065884
-0.0835963 0.014058 0.996401 0.00817282
-0.0925502 0.0161548 0.995577 0.0203116
-0.092535 0.0213746 0.99548 0.0157645
-0.0894062 0.0197718 0.995799 0.0133609
-0.085318 0.0194418 0.996164 0.0138464
-0.0842772 0.0180354 0.996279 0.0172736
-0.0785269 0.00793047 0.99688 0.00374361
0.164194 -0.000176591 0.986428 0
0.176899 -0.00121336 0.984228 0
0.187995 -1.0372e-05 0.98217 0.000824911
-0.0756243 0.0171396 0.996989 0
-0.07762 0.0117365 0.996914 0
-0.0761059 0.0057376 0.997083 0
-0.0731929 0.00797657 0.997286 0
-0.0739644 0.00933701 0.997217 0
-0.0724623 0.00463587 0.99736 0
-0.0734786 0.00417488 0.997288 0
-0.0776253 0.00621671 0.996963 0
-0.0815759 0.0136853 0.996573 0.00228366
-0.0866752 0.0187202 0.996061 0.0112485
-0.0904268 0.0186212 0.995729 0.0149607
-0.0893132 0.0183426 0.995835 0.011421
-0.0858528 0.0183017 0.99614 0.0104817
-0.0837318 0.0187291 0.996312 0.0114524
-0.0805855 0.0179327 0.996586 0.011833
0.165688 0.00149392 0.986177 0
0.179005 -0.000631587 0.983848 0
0.194114 0.00268471 0.980975 0
0.200621 0.00294412 0.979665 0
-0.0776245 0.0156861 0.996859 0
-0.0759647 0.0105911 0.997054 0
-0.0782899 0.0140688 0.996831 0
-0.0799745 0.0155849 0.996675 0
-0.0784123 0.0105661 0.996865 0
-0.0768628 0.0126438 0.996961 0
-0.078222 0.0134445 0.996845 0
-0.0827862 0.0185626 0.996394 0.00224066
-0.0811026 0.0114047 0.996641 0.00206565
-0.0846585 0.0163443 0.996276 0.00610239
-0.0857366 0.0117922 0.996248 0.00761627
-0.0836869 0.0132052 0.996405 0.00370815
-0.0794894 0.0123226 0.99676 0.00314588
-0.0736101 0.00747323 0.997259 0
0.172555 0.00624002 0.98498 0
0.182223 0.00534488 0.983243 0
0.189116 0.00568455 0.981938 0
-0.0807278 0.0232685 0.996465 0
-0.0825387 0.0237749 0.996304 0.00243587
-0.077443 0.0217674 0.996759 0
-0.080262 0.0254936 0.996448 0
-0.0820328 0.0224741 0.996376 0
-0.0765618 0.0217231 0.996828 0
-0.0841475 0.0210275 0.996231 0.00458439
-0.0858691 0.0240479 0.996016 0.00318793
-0.0845043 0.022351 0.996172 0.00183858
-0.0887346 0.0254031 0.995731 0.00809419
-0.0843107 0.014884 0.996328 0.00620892
-0.0863132 0.0140316 0.996169 0.00879455
-0.0833139 0.0171771 0.996375 0.00383921
-0.0780388 0.0130491 0.996865 0
-0.0754 0.0127591 0.997072 0
0.175567 0.0115976 0.984399 0.00250053
0.186381 0.00970065 0.98243 0
0.196924 0.0112441 0.980354 0
0.202572 0.0144702 0.979161 0
-0.0830052 0.0287897 0.996133 0
-0.0796083 0.0297549 0.996382 0
-0.0777549 0.0292861 0.996542 0
-0.0774791 0.0245267 0.996692 0
-0.0818374 0.0284057 0.996241 0
-0.0808148 0.0232239 0.996459 0
-0.083288 0.0276283 0.996142 0.00431606
-0.086874 0.0262838 0.995872 0.0101106
-0.0889399 0.0274492 0.995659 0.00272806
-0.0909398 0.0290554 0.995432 0.0087091
-0.0901067 0.0242116 0.995638 0.00732254
-0.0845874 0.018629 0.996242 0.00471511
-0.0816575 0.019215 0.996475 0
-0.076185 0.011595 0.997026 0
-0.0746338 0.013991 0.997113 0
0.178937 0.014224 0.983758 0.00407865
0.190727 0.0191626 0.981456 0.00673078
0.197404 0.0190402 0.980137 0.00281225
0.204381 0.0177864 0.97873 0.00360035
-0.0813788 0.0368576 0.996002 0
-0.0797987 0.0351884 0.99619 0
-0.0789723 0.0351699 0.996256 0
-0.0766938 0.0291687 0.996628 0
-0.0784791 0.0261634 0.996572 0
-0.0809284 0.0284424 0.996314 0.00427516
-0.0833598 0.0306913 0.996047 0.00222096
-0.090525 0.0375902 0.995185 0.00873881
-0.089623 0.0308152 0.995499 0.00731327
-0.0893788 0.0283592 0.995594 0.00832127
-0.086439 0.024539 0.995955 0.00148367
-0.0840298 0.0251323 0.996146 0.00145487
0.19296 0.0212763 0.980976 0.00358221
0.208529 0.0221965 0.977764 0.00222412
0.215328 0.0221789 0.97629 0.00165969
-0.0872884 0.0480298 0.995025 0
-0.0872275 0.0476606 0.995048 0.00387869
-0.0860948 0.043125 0.995353 0.00275915
-0.0842497 0.0383923 0.995705 0.00184997
-0.0826353 0.0332336 0.996026 0.000579951
-0.0806071 0.0288896 0.996327 0.00289083
-0.0880861 0.0332414 0.995558 0.00664804
-0.0822071 0.0308504 0.996138 0
-0.0838024 0.0390953 0.995715 0
-0.0881347 0.0355559 0.995474 0.00277462
-0.086956 0.0346397 0.99561 0
-0.0887969 0.033146 0.995498 0.00242056
-0.0856955 0.0331742 0.995769 0
0.195959 0.0302455 0.980146 0.000898783
0.209886 0.0290613 0.977294 0.00177003
0.216255 0.0281761 0.97593 0.000685149
0.228341 0.0317624 0.973063 0
-0.092141 0.0512271 0.994427 0.00384252
-0.086465 0.0488573 0.995056 0.00513727
-0.0840989 0.0401098 0.99565 0.00417822
-0.0839588 0.0393649 0.995691 0.000397502
-0.0831345 0.043666 0.995581 0.0093677
-0.0859296 0.0427327 0.995384 0.00314256
-0.08494 0.0421036 0.995496 0.000716068
-0.081981 0.0419436 0.995751 0
-0.0872986 0.0420221 0.995295 0
-0.0884531 0.0448896 0.995068 0.00306691
-0.0887402 0.0417634 0.995179 0.00181387
-0.0829102 0.0416951 0.995684 0
0.195331 0.0386963 0.979974 0.00450292
0.216531 0.0357375 0.975621 0.00307126
0.220588 0.0364002 0.974688 0.00495393
0.232522 0.037713 0.97186 0
-0.0907214 0.0606834 0.994026 0.00255834
-0.0855193 0.0585246 0.994616 0.00774715
-0.085032 0.0515067 0.995046 0.00342293
-0.0800828 0.0499271 0.995537 0.00327605
-0.0842809 0.0432977 0.995501 0.00144085
-0.0844372 0.0468102 0.995329 0.00400141
-0.0872158 0.0576995 0.994517 0.00660487
-0.0824046 0.0521772 0.995232 0.000400896
-0.0843621 0.0490817 0.995226 0.0011066
-0.0861736 0.0506381 0.994992 0
-0.0823539 0.0473096 0.99548 0
-0.0863935 0.0505513 0.994978 0.00394519
-0.0830158 0.0477027 0.995406 0.000215565
0.198467 0.0480869 0.978927 0.00364492
0.210176 0.0470961 0.976529 0.00706219
0.213659 0.0484536 0.975706 0.00696147
0.233058 0.0463368 0.971358 0.00474693
-0.088456 0.0679903 0.993757 0.00134803
-0.0846518 0.0631188 0.994409 0.00123596
-0.0783378 0.0535405 0.995488 0
-0.082679 0.0579776 0.994888 0.0017745
-0.0800714 0.0582168 0.995088 0
-0.0825055 0.0618072 0.994672 0.0010294
-0.0852931 0.0669908 0.994101 0.00250523
-0.0858421 0.0652638 0.994169 0.0064837
-0.0856135 0.058795 0.994592 0.00145285
-0.0843796 0.0549854 0.994915 0
-0.0818765 0.0542577 0.995164 0
-0.0819058 0.055252 0.995107 0
-0.0837674 0.0507535 0.995192 0
0.198006 0.0556476 0.97862 0.00584742
0.208458 0.0558246 0.976437 0.00755128
0.21851 0.05709 0.974163 0.0034087
0.230991 0.0549958 0.9714 0.00292586
-0.0841519 0.0705924 0.993949 0
-0.0841364 0.0660074 0.994266 0
-0.0833736 0.0677686 0.994211 0.00112782
-0.0796739 0.0684706 0.994467 0
-0.0812458 0.0693482 0.994279 0
-0.0836114 0.0683799 0.99415 0.000293327
-0.0916256 0.070534 0.993292 0.012584
-0.083012 0.0695694 0.994117 0.00506692
-0.0875615 0.0662273 0.993955 0.00642411
-0.0844163 0.0630655 0.994433 0.00147225
-0.0867968 0.06418 0.994157 0
-0.0855813 0.0612542 0.994446 0.000827739
0.193291 0.0617247 0.979198 0.00389054
0.209775 0.065177 0.975575 0.00500091
0.217084 0.0640317 0.974051 0.0033123
-0.0896299 0.081548 0.992631 0.00458089
-0.0889043 0.0822511 0.992638 0.00419215
-0.0820957 0.0783554 0.99354 0.00173249
-0.0761553 0.0721062 0.994485 0
-0.0808603 0.0719708 0.994124 0
-0.0787448 0.0732433 0.994201 0.000173449
-0.0864774 0.0772302 0.993256 0.0106735
-0.0888222 0.0768181 0.993081 0.0105721
-0.0872332 0.0729056 0.993517 0.0066595
-0.0873497 0.0743034 0.993403 0.00451996
-0.0896699 0.0704419 0.993477 0.000843325
-0.0892643 0.0717789 0.993418 0.00215253
0.194544 0.0683401 0.97851 0
0.204007 0.0673406 0.97665 0
0.217461 0.07067 0.973507 0
-0.0908024 0.0894435 0.991844 0.00650993
-0.0896643 0.0895477 0.991938 0.00663802
-0.0846107 0.0863149 0.992668 0.00630431
-0.0816631 0.0866284 0.992888 0.00612904
-0.0783965 0.0828175 0.993476 0
-0.0794049 0.0866638 0.993068 0.00210465
-0.0850879 0.0847737 0.992761 0.00725265
-0.0905699 0.0885261 0.991948 0.0121557
-0.0943354 0.0880684 0.991637 0.0140269
-0.0930108 0.0857144 0.991969 0.0139278
-0.089939 0.0844548 0.99236 0.00451382
-0.0876252 0.0877235 0.992283 0
0.195588 0.077802 0.977595 0
0.203392 0.0763737 0.976114 0
0.215489 0.0767158 0.973488 0.00017401
-0.0909161 0.0955434 0.991265 0.00712089
-0.0875132 0.098733 0.991258 0.00632081
-0.0869235 0.101287 0.991053 0.00764638
-0.081201 0.101887 0.991476 0.00484568
-0.0820603 0.0946832 0.99212 0.0064363
-0.0853712 0.0971131 0.991605 0.00574226
-0.0924742 0.104444 0.990222 0.0166012
-0.100984 0.105676 0.98926 0.0240712
-0.0974159 0.105194 0.989669 0.0197655
-0.0963722 0.10254 0.990049 0.0151904
-0.0924697 0.0966388 0.991015 0.00860678
-0.0891708 0.0935931 0.991609 0.00311976
0.186726 0.0861715 0.978625 0
0.198342 0.0824515 0.976659 0.000486593
0.216025 0.082326 0.972911 0.000811818
-0.0961296 0.111886 0.98906 0.00964121
-0.0937608 0.111332 0.98935 0.00933675
-0.0927617 0.113228 0.989229 0.0108575
-0.0901165 0.11867 0.988836 0.0122541
-0.0877372 0.117025 0.989246 0.0133843
-0.0891073 0.117611 0.989054 0.0140062
-0.0919176 0.116109 0.988974 0.0188107
-0.098456 0.119556 0.987934 0.021705
-0.102321 0.122456 0.987185 0.0237076
-0.101479 0.123227 0.987176 0.0202656
-0.0946971 0.10803 0.989627 0.011475
-0.0909543 0.105013 0.990303 0.00493049
-0.0852754 0.0968596 0.991638 0
0.188403 0.0927782 0.9777 0.00457761
0.203242 0.0876569 0.975197 0.00264373
-0.0941529 0.129555 0.987092 0.0124426
-0.0967228 0.126963 0.98718 0.0141971
-0.0972481 0.130481 0.98667 0.0145526
-0.0948501 0.133045 0.986561 0.0187145
-0.0893516 0.125597 0.98805 0.0154465
-0.0889548 0.127464 0.987846 0.0150747
-0.0897211 0.125254 0.98806 0.0174482
-0.0940929 0.132851 0.98666 0.0210323
-0.0963762 0.13465 0.986195 0.0187795
-0.0991692 0.129794 0.986569 0.0184583
-0.0963439 0.12238 0.987796 0.0159678
-0.09004 0.113438 0.989457 0.00766221
-0.0869893 0.117415 0.989266 0.00318388
0.192324 0.0967167 0.976554 0.00583756
0.204513 0.0927356 0.974461 0.00180909
-0.0967667 0.137794 0.985723 0.0154097
-0.0971375 0.137329 0.985751 0.016047
-0.0985324 0.136893 0.985673 0.0176162
-0.0900535 0.129776 0.987445 0.0129508
-0.089248 0.129098 0.987608 0.0124002
-0.0876927 0.12787 0.987907 0.0102126
-0.0937778 0.135614 0.986314 0.0166738
-0.0985322 0.143628 0.984714 0.0182051
-0.0944066 0.139139 0.985762 0.0126055
-0.0927205 0.128985 0.987302 0.00926003
-0.0872092 0.127681 0.987974 0.00818895
-0.0906035 0.123622 0.988184 0.00781818
0.190888 0.102244 0.976272 0
0.199088 0.102452 0.974612 0.000310363
0.208397 0.102173 0.972693 0.00118181
-0.0964622 0.140634 0.985351 0.0147869
-0.0835485 0.130945 0.987863 0.000107883
-0.0895411 0.134262 0.986892 0.00968928
-0.0894544 0.139851 0.986124 0.0123436
-0.0917901 0.141063 0.985736 0.00827954
-0.0894047 0.135869 0.986685 0.00771952
-0.0890288 0.132303 0.987203 0.00569591
-0.0898679 0.136378 0.986572 0.00663271
-0.0699608 0.122296 0.990025 0
0.181561 0.111845 0.976999 0.00031878
0.196597 0.112187 0.974045 0.000435039
-0.0798182 0.136292 0.987448 0
-0.0840798 0.143546 0.986065 0.00516163
-0.0886822 0.142731 0.985781 0.00688486
-0.08883 0.146952 0.985147 0.00550616
-0.0860078 0.137226 0.986799 0
-0.0858246 0.136971 0.98685 0.000617671
-0.0872681 0.139896 0.986313 0
-0.0857669 0.143394 0.985942 0
-0.0787635 0.135574 0.987631 0
-0.0767399 0.129229 0.988641 0
-0.0718808 0.125204 0.989524 0
-0.0692829 0.121384 0.990185 0
0.185088 0.119449 0.975435 0.00218406
0.198283 0.121864 0.972539 0.00619261
-0.0834324 0.144474 0.985985 0.000647642
-0.0850143 0.143886 0.985936 0
-0.086227 0.148708 0.985115 0.00128594
-0.0824576 0.142127 0.986408 0
-0.0832104 0.141887 0.986379 0
-0.0846437 0.14088 0.986402 0
-0.0830169 0.143662 0.986139 0
-0.079419 0.135449 0.987596 0
-0.0783191 0.129215 0.988519 0
-0.0735328 0.126517 0.989235 0
-0.0707011 0.133556 0.988516 0
-0.0703626 0.146095 0.986765 0.00648104
0.172292 0.133584 0.975946 0.0098947
0.187296 0.131466 0.973467 0.00976011
0.197624 0.132475 0.971285 0.00856395
-0.0855028 0.150192 0.984953 0
-0.0844685 0.150532 0.98499 0.00137298
-0.0841219 0.152691 0.984687 0.000827184
-0.0841907 0.152631 0.984691 0.00037448
-0.0825816 0.149125 0.985364 0
-0.0810748 0.146503 0.985882 0
-0.0816306 0.144503 0.986131 0
-0.0840023 0.147718 0.985456 0
-0.0794254 0.143005 0.98653 0
-0.0788381 0.137055 0.987421 0
-0.0741461 0.137321 0.987748 0
-0.0720861 0.142422 0.987177 0
-0.0692438 0.151913 0.985965 0.00503448
0.152581 0.145038 0.97759 0.0138612
0.157449 0.143299 0.977075 0.0132876
0.171177 0.145328 0.974463 0.0131458
0.187291 0.146998 0.971243 0.0126543
0.200143 0.145185 0.96895 0.0121775
-0.0833326 0.15017 0.985142 0
-0.085516 0.156119 0.984029 0
-0.0855064 0.156814 0.98392 0
-0.0818625 0.156415 0.984293 0
-0.0820404 0.154556 0.984572 0
-0.0821975 0.154003 0.984645 0
-0.0812635 0.155328 0.984515 0
-0.0810949 0.151882 0.985066 0
-0.081377 0.149624 0.985389 1.83084e-05
-0.0782455 0.151241 0.985395 0.00248578
-0.0748465 0.15578 0.984952 0.00581423
-0.0709223 0.15642 0.985141 0.00494372
-0.0580926 0.153239 0.98648 0
0.13646 0.151423 0.979004 0.0142275
0.147519 0.149607 0.977679 0.0132486
0.157473 0.156315 0.975073 0.0177611
0.166063 0.150243 0.974603 0.00958466
0.182731 0.15281 0.971215 0.0057391
-0.0831784 0.164333 0.982892 0
-0.0860477 0.167017 0.982192 0
-0.0817784 0.16105 0.983552 0
-0.0830353 0.164924 0.982805 0
-0.0827747 0.164675 0.982868 0
-0.0825758 0.163194 0.983132 0
-0.0826085 0.162515 0.983242 0
-0.0832802 0.164147 0.982914 0.00692581
-0.0819446 0.160288 0.983663 0.00726073
-0.0763579 0.158962 0.984327 0.00501119
-0.0699235 0.161066 0.984464 0.00434719
-0.0647346 0.160219 0.984956 0.00300424
-0.0583134 0.156748 0.985916 0.00164273
-0.0510895 0.15904 0.985949 0
-0.0471547 0.170143 0.98429 0.000909603
-0.0461973 0.173191 0.983804 0.00730415
0.136841 0.162637 0.977151 0.0132347
0.146408 0.157271 0.976642 0.0116427
0.156577 0.161964 0.974295 0.0100288
0.166726 0.164692 0.972152 0.00816612
0.180767 0.160575 0.970329 0.00281711
-0.0854102 0.171406 0.981491 0
-0.0872626 0.173411 0.980976 0.00346816
-0.0857274 0.173432 0.981108 0.00336721
-0.0826767 0.17482 0.981123 0.00349118
-0.0838243 0.179636 0.980155 0.0100819
-0.079514 0.167808 0.982608 0.00762441
-0.0762472 0.159067 0.984319 0.00267078
-0.0705007 0.16529 0.983722 0.00434114
-0.067005 0.170063 0.983153 0.00537961
-0.0619947 0.170301 0.98344 0.00742609
-0.0530463 0.169001 0.984187 0.00011246
-0.0475195 0.177461 0.98298 0.00466611
-0.0441469 0.175983 0.983403 0.00821668
-0.0353511 0.187273 0.981672 0.00974253
-0.0271704 0.185646 0.982241 0.00792871
0.135456 0.166516 0.97669 0.00533552
0.143745 0.170145 0.974878 0.00821734
0.151716 0.168889 0.973889 0.00809491
-0.08469 0.179622 0.980083 0.00407725
-0.0854659 0.180149 0.979919 0.00294906
-0.0819344 0.183957 0.979513 0.00337591
-0.0804122 0.182195 0.979969 0.0018512
-0.0738529 0.169129 0.982823 0
-0.07061 0.173095 0.982371 0.00109451
-0.0663277 0.174649 0.982394 0.00572375
-0.0603699 0.169946 0.983603 0.00488795
-0.0549122 0.181381 0.981879 0.00319421
-0.0474983 0.184406 0.981702 0.00328197
-0.036431 0.181089 0.982792 0.00158047
-0.0340383 0.190646 0.981069 0.00997605
-0.0273083 0.190099 0.981385 0.00710098
-0.0222197 0.191798 0.981183 0.00483916
-0.00608584 0.192691 0.981241 0.00201855
0.0633422 0.192021 0.979344 0.00107911
0.101736 0.177659 0.978819 0
0.13723 0.176266 0.97473 0.00598438
0.147708 0.174 0.973605 0.00299397
-0.0836948 0.195651 0.977096 0.00838238
-0.0764779 0.179864 0.980714 0.00284301
-0.0702626 0.186722 0.979897 0.0046614
-0.0649437 0.18156 0.981233 0.00212641
-0.0651595 0.194748 0.978687 0.0101671
-0.0564928 0.197259 0.978722 0.00503804
-0.0465331 0.192019 0.980287 0.00241986
-0.040834 0.194797 0.979993 0.00894536
-0.031046 0.193419 0.980625 0.00386608
-0.0235244 0.189977 0.981507 0.00348722
-0.0216158 0.199534 0.979653 0.00589854
-0.0149238 0.205318 0.978581 0.00452759
-0.00671224 0.203201 0.979114 0.00326109
0.0546192 0.202145 0.977831 0
0.060946 0.200137 0.977871 0.000783451
0.0677021 0.193373 0.978787 0
0.0782498 0.192913 0.978091 0
0.0854617 0.190556 0.977949 0
0.0889042 0.188553 0.978031 0
0.0953593 0.186453 0.977825 0
0.103973 0.181525 0.977874 0
0.137076 0.179206 0.974215 1.7094e-05
-0.0705678 0.190171 0.979212 0.000438029
-0.0666053 0.191605 0.97921 0.00628655
-0.0612676 0.194428 0.979001 0.00408834
-0.0554826 0.197485 0.978735 0.00514766
-0.0477713 0.202794 0.978055 0.00543806
-0.0377297 0.202627 0.978529 0.000961927
-0.0307078 0.204394 0.978407 0.00623174
-0.0217426 0.20472 0.978579 0.00633006
-0.0144877 0.207387 0.978152 0.00441573
-0.00413935 0.207875 0.978147 0.00735304
0.0405413 0.203658 0.978202 0.00238748
0.0531503 0.204923 0.977334 0
0.0585769 0.204306 0.977153 0.00102012
0.0685028 0.201572 0.977075 0.000536304
0.0779347 0.206363 0.975367 0.00101407
0.0823355 0.200438 0.976241 0
0.0901392 0.199737 0.975695 0
0.0944806 0.193057 0.976628 0
0.102199 0.197765 0.974907 0
-0.0614755 0.199563 0.977955 0.00354447
-0.0513369 0.207989 0.976783 0.00504317
-0.0214331 0.210447 0.97737 0.00584441
-0.014891 0.214361 0.976641 0.00517921
-0.00519834 0.210609 0.977557 0.00363192
0.0412319 0.212119 0.976374 0.000664744
0.0546645 0.210409 0.976084 0
0.0609399 0.212252 0.975313 0.00294624
0.0672246 0.212275 0.974895 0.00212813
0.0739091 0.212361 0.974392 0.0031664
0.0816168 0.211579 0.973947 0
0.0886162 0.212016 0.97324 0.000259039
0.0941891 0.207462 0.973698 0.000317842
0.103492 0.208126 0.972611 0.00116793
-0.013362 0.223614 0.974586 0.00564888
-0.00628656 0.224561 0.97444 0.00698139
0.0395737 0.223122 0.973987 0.00408327
0.052116 0.216757 0.974833 0.000560952
0.0614778 0.214254 0.974841 0.00354028
0.0782741 0.221575 0.971997 0.00405093
0.0881581 0.216329 0.972332 0
0.0954367 0.21869 0.971116 0.000402873
0.103553 0.213165 0.971513 0
-0.00515028 0.232486 0.972586 0.00743637
0.0388048 0.233716 0.97153 0.00675279
0.101343 0.222717 0.969601 0
0.0563561 -0.233465 0.970731 0.00596814
0.0630981 -0.236163 0.969663 0.010122
0.0378269 -0.223307 0.974014 0.00201259
0.0579835 -0.225875 0.972429 0.00279527
0.0645772 -0.224409 0.972353 0
0.0746658 -0.223712 0.971791 0.000976357
0.0795166 -0.22413 0.97131 0.000560299
0.0377532 -0.217122 0.975414 0
0.0571262 -0.217976 0.974281 0
0.068354 -0.218966 0.973335 0
0.0757296 -0.216735 0.973289 0.00269968
0.081931 -0.217876 0.972531 0.00147777
-0.049192 -0.18245 0.981984 0.00199882
-0.0359353 -0.189271 0.981267 0.00133612
-0.025053 -0.196732 0.980137 0
0.0369694 -0.207903 0.977451 0
0.0596475 -0.210259 0.975825 0
0.0689839 -0.210383 0.975182 0
0.075458 -0.206934 0.975441 0
0.0837468 -0.206151 0.97493 0.00328665
0.0893773 -0.201298 0.975444 0.00256962
-0.0529333 -0.180803 0.982094 0
-0.0516856 -0.183081 0.981738 0.00487997
-0.0417759 -0.181859 0.982437 0
-0.039292 -0.18079 0.982736 0.00799169
-0.0290624 -0.182729 0.982734 0
-0.0201804 -0.186609 0.982227 0
-0.0152537 -0.187933 0.982063 0
-0.00961165 -0.189685 0.981798 0
0.00147695 -0.189934 0.981796 0.00246936
0.036801 -0.193511 0.980408 0.00197355
0.0596843 -0.19847 0.978288 0
0.0693896 -0.198313 0.97768 0
0.0753469 -0.194345 0.978035 0.00152763
0.0853702 -0.196412 0.976798 0.000456594
0.0901603 -0.194581 0.976734 0.00194664
0.0961914 -0.194939 0.976087 0.00386212
0.14971 -0.187313 0.970825 0
-0.0609393 -0.16544 0.984335 0.00918499
-0.0550903 -0.17145 0.983651 0
-0.0488871 -0.174261 0.983485 0
-0.0462258 -0.169514 0.984443 0.00604845
-0.0406948 -0.171071 0.984418 0.0104856
-0.029537 -0.175905 0.983964 0.000876078
-0.0202457 -0.181132 0.98325 0
-0.0168796 -0.180354 0.983457 0
-0.00715442 -0.179863 0.983666 0
0.00259099 -0.182257 0.983248 0
0.0691786 -0.187673 0.979792 0.00043251
0.0738429 -0.1847 0.980017 0.00484574
0.0854604 -0.189596 0.978136 0.00439663
0.0919733 -0.185595 0.978312 0.00251769
0.0979804 -0.183574 0.978111 0.00284122
0.111069 -0.183298 0.976763 0.00533274
0.119547 -0.184877 0.975463 0.00587132
0.150725 -0.177786 0.972458 0
0.159069 -0.176628 0.971339 0
-0.0663064 -0.158478 0.985134 0.0116766
-0.0629504 -0.15562 0.985809 0.00916699
-0.0553518 -0.162988 0.985074 0.00165202
-0.0507504 -0.165665 0.984875 0
-0.0489968 -0.163842 0.985269 0.0105331
-0.0374763 -0.16398 0.985752 0.00561756
-0.0253967 -0.170611 0.985011 0
-0.0218008 -0.17164 0.984918 0
-0.0163951 -0.173929 0.984622 0
-0.00563657 -0.172641 0.984969 0
0.00101081 -0.172499 0.985009 0
0.0928149 -0.178967 0.979467 0.00543341
0.100443 -0.175789 0.97929 0.00230451
0.109282 -0.173928 0.978676 0.00658224
0.118811 -0.176105 0.977175 0.00178548
0.15109 -0.165988 0.974484 0
0.157441 -0.167593 0.973203 0
-0.0805835 -0.139828 0.986891 0.0183859
-0.0781118 -0.140071 0.987056 0.0193626
-0.0720474 -0.14091 0.987397 0.0127796
-0.0714986 -0.146084 0.986685 0.0158477
-0.0607449 -0.150467 0.986747 0.0061902
