# .PCD v0.7 - Point Cloud Data file format
VERSION 0.7
FIELDS x y z
SIZE 4 4 4
TYPE F F F
COUNT 1 1 1
WIDTH 1445
HEIGHT 1
VIEWPOINT 0 0 0 1 0 0 0
POINTS 1445
DATA ascii
-0.095657401 0.12919019 -0.23713739
-0.095454335 0.12921901 -0.23709132
-0.097266003 0.12924349 -0.23722801
-0.096547 0.12929 -0.2372205
-0.096234001 0.12927601 -0.23722801
-0.096028663 0.12926701 -0.23721467
-0.095849998 0.12925699 -0.23721699
-0.095752999 0.129256 -0.23723701
-0.095509671 0.12930967 -0.23717034
-0.095358253 0.12931325 -0.23710975
-0.095181003 0.12928399 -0.237115
-0.096914999 0.108712 -0.23704
-0.096831001 0.108704 -0.237058
-0.095624 0.1086805 -0.237028
-0.095510341 0.10868367 -0.23694099
-0.095320001 0.108699 -0.23692501
-0.092909001 0.108648 -0.236885
-0.091310002 0.108715 -0.23698001
-0.091166496 0.108708 -0.23700276
-0.091026999 0.108701 -0.23701701
-0.098903999 0.108883 -0.237057
-0.098730005 0.10887899 -0.23703735
-0.098462 0.108864 -0.23704199
-0.098067999 0.108837 -0.23702499
-0.097585998 0.108894 -0.23702499
-0.097443752 0.108846 -0.2370075
-0.097280607 0.1088176 -0.23696402
-0.097116001 0.10883024 -0.23694587
-0.096946999 0.10882175 -0.23696025
-0.096790999 0.1088125 -0.23692925
-0.096606255 0.10880224 -0.23693074
-0.09638799 0.10878933 -0.23694199
-0.096197166 0.10878234 -0.23697917
-0.096038997 0.10877117 -0.23698318
-0.095851004 0.10882699 -0.23695534
-0.095687665 0.10876999 -0.23697866
-0.091311999 0.108789 -0.236885
-0.091154434 0.10881342 -0.236936
-0.090996251 0.1088115 -0.23692624
-0.090887502 0.108805 -0.2369445
-0.090700999 0.108833 -0.237002
-0.104128 0.109077 -0.237048
-0.103347 0.109042 -0.23704199
-0.10321733 0.109036 -0.23703568
-0.1030678 0.10899 -0.2370148
-0.1028775 0.1090145 -0.2370005
-0.10268267 0.10903233 -0.236995
-0.1025085 0.1090345 -0.23699926
-0.10233 0.1090235 -0.23701701
-0.10212661 0.1090378 -0.23701401
-0.10197826 0.10900676 -0.23703599
-0.10188 0.109041 -0.23698799
-0.101219 0.10903034 -0.23701434
-0.101124 0.10903675 -0.2369885
-0.100821 0.109021 -0.2369675
-0.1006475 0.109014 -0.23700249
-0.10050475 0.10900874 -0.23700526
-0.10032275 0.1089965 -0.23701599
-0.10017233 0.109027 -0.23700134
-0.1000295 0.1090145 -0.23702401
-0.099760003 0.109079 -0.237037
-0.099610992 0.10904766 -0.23703933
-0.099444255 0.10902575 -0.2369965
-0.099247135 0.10898837 -0.23697901
-0.099109195 0.1089712 -0.23696461
-0.098941505 0.10899501 -0.23694675
-0.098752998 0.108972 -0.23694374
-0.0985085 0.1089775 -0.23694175
-0.098324247 0.10896575 -0.23695299
-0.098176502 0.10895717 -0.236946
-0.097986758 0.10892826 -0.2369515
-0.097800002 0.10896359 -0.23695838
-0.097635999 0.10898681 -0.2369478
-0.097496003 0.10896 -0.2369
-0.090703003 0.108905 -0.236912
-0.090472251 0.1089735 -0.23696849
-0.090305336 0.10901367 -0.23701699
-0.105178 0.10920849 -0.23705301
-0.10486267 0.109166 -0.23701799
-0.10468968 0.10918366 -0.23699082
-0.10451416 0.10917783 -0.2369955
-0.10429578 0.10916511 -0.23698142
-0.1041582 0.1091684 -0.2369812
-0.103952 0.10918 -0.2369765
-0.103744 0.109172 -0.23699626
-0.1035645 0.10916525 -0.23701675
-0.10338925 0.109156 -0.23697476
-0.103225 0.10916201 -0.23693243
-0.10305733 0.10909299 -0.23691301
-0.1028785 0.1090875 -0.23692551
-0.1027 0.10911851 -0.236911
-0.102509 0.109145 -0.236899
-0.1023305 0.1091345 -0.23691049
-0.10215485 0.10915915 -0.23692158
-0.1019765 0.10915451 -0.23695201
-0.101878 0.1091515 -0.23695299
-0.10163233 0.10917667 -0.23698567
-0.10145866 0.10916684 -0.23698099
-0.10128633 0.10914501 -0.23693967
-0.101148 0.109149 -0.23692501
-0.100648 0.109125 -0.23689599
-0.1005055 0.1091205 -0.23690501
-0.100324 0.109108 -0.2369085
-0.100173 0.10912025 -0.236919
-0.099987604 0.1091166 -0.23693641
-0.099816598 0.1091712 -0.23694701
-0.099626496 0.109184 -0.23693849
-0.099444002 0.109137 -0.23690051
-0.099312 0.109128 -0.23688599
-0.090233661 0.10915933 -0.23693717
-0.090110004 0.10917751 -0.23698084
-0.10536834 0.10934167 -0.23702268
-0.10520478 0.10935934 -0.23696521
-0.10487825 0.109302 -0.23691624
-0.104644 0.109331 -0.236884
-0.10449767 0.10935 -0.23689866
-0.1042565 0.109311 -0.23689601
-0.1041515 0.10930049 -0.236911
-0.103951 0.109291 -0.23690701
-0.103744 0.1092825 -0.2369055
-0.1035635 0.1093125 -0.236912
-0.103432 0.109269 -0.236904
-0.101876 0.109262 -0.23689
-0.101589 0.109323 -0.236885
-0.089893498 0.1093535 -0.237002
-0.106062 0.109552 -0.237056
-0.10587 0.109612 -0.23704299
-0.105714 0.10958233 -0.23703367
-0.105543 0.109544 -0.23701219
-0.10538033 0.10951517 -0.23694468
-0.1052295 0.1095085 -0.23689801
-0.089890666 0.10953867 -0.23691434
-0.089590333 0.10957933 -0.23703134
-0.10665601 0.109709 -0.23705034
-0.10649475 0.10972501 -0.2370275
-0.10628723 0.10971511 -0.23702312
-0.10611033 0.10970367 -0.23701712
-0.10594838 0.109702 -0.2369965
-0.10572725 0.1097185 -0.2369795
-0.105549 0.109714 -0.236927
-0.105422 0.109666 -0.236885
-0.089573756 0.10971525 -0.23695925
-0.089414664 0.10972067 -0.237009
-0.089257002 0.109737 -0.237051
-0.10684039 0.109908 -0.2370216
-0.106667 0.10988333 -0.23698418
-0.10650019 0.10988901 -0.23697181
-0.10628317 0.109901 -0.23695885
-0.10610599 0.1098895 -0.23695515
-0.10593516 0.10987783 -0.23694384
-0.10574067 0.10985533 -0.23691833
-0.10559 0.109827 -0.236881
-0.089572504 0.1098265 -0.23689699
-0.089385197 0.1098768 -0.23692541
-0.089195445 0.10988133 -0.23697887
-0.089038335 0.10991033 -0.23699701
-0.10684575 0.11007825 -0.23696202
-0.1066635 0.11006825 -0.23691574
-0.10648701 0.11005849 -0.23691875
-0.10626929 0.11006457 -0.23691599
-0.10610066 0.11007467 -0.23692124
-0.10593837 0.11005487 -0.23691949
-0.105769 0.109981 -0.23688599
-0.089161754 0.11006525 -0.23691425
-0.089036673 0.11005834 -0.23691864
-0.088909499 0.1100525 -0.2369975
-0.107112 0.110281 -0.237045
-0.10686475 0.11024575 -0.236913
-0.106616 0.110178 -0.23688801
-0.106529 0.110174 -0.23688699
-0.10627533 0.110186 -0.23689198
-0.10609633 0.110224 -0.23689133
-0.1059605 0.110216 -0.236893
-0.088863 0.110238 -0.23696876
-0.10716266 0.11043149 -0.23700468
-0.088815503 0.1104235 -0.23695201
-0.107282 0.11059 -0.237047
-0.1071826 0.1106264 -0.23696379
-0.088809334 0.11060933 -0.23693167
-0.107364 0.1107805 -0.23703501
-0.10721367 0.11078133 -0.23692632
-0.088803999 0.110759 -0.236917
-0.107468 0.11097033 -0.23703168
-0.10736 0.11096499 -0.23697601
-0.1072755 0.110922 -0.23691401
-0.10752819 0.1111678 -0.23700979
-0.107358 0.111114 -0.23690701
-0.10754233 0.11130866 -0.23696132
-0.10772949 0.11152449 -0.23701349
-0.10757834 0.11149649 -0.23693299
-0.1079025 0.11173899 -0.23703951
-0.10774675 0.111693 -0.23697676
-0.107617 0.111645 -0.236894
-0.10792933 0.11185316 -0.23701768
-0.10775139 0.111863 -0.236931
-0.108192 0.112132 -0.23706
-0.108078 0.11205912 -0.23702988
-0.10792455 0.11203778 -0.23695999
-0.107782 0.112027 -0.236899
-0.1082525 0.11226425 -0.23704225
-0.1080795 0.11223533 -0.23698999
-0.1079336 0.1122156 -0.23691499
-0.10826951 0.11239434 -0.23702466
-0.10807388 0.11242066 -0.2369549
-0.107973 0.11241233 -0.23689668
-0.10847733 0.11264399 -0.23705034
-0.10830617 0.11258283 -0.23700301
-0.10810489 0.11259589 -0.23694611
-0.107968 0.11256 -0.236884
-0.10848675 0.11278025 -0.237039
-0.10829975 0.1127675 -0.23698649
-0.10808988 0.11275601 -0.23693226
-0.10861 0.112974 -0.237058
-0.1084718 0.112951 -0.2370342
-0.10829317 0.11295433 -0.23697384
-0.108083 0.11294293 -0.23692726
-0.10860467 0.11312201 -0.23705633
-0.1084822 0.11313 -0.23702478
-0.10828599 0.113141 -0.23697451
-0.10810167 0.11313117 -0.23693484
-0.107998 0.113158 -0.236882
-0.1085975 0.113309 -0.237055
-0.1084675 0.1133015 -0.23701525
-0.108271 0.11331119 -0.236967
-0.10809466 0.11331766 -0.23692645
-0.107992 0.11330799 -0.23688699
-0.10859001 0.113496 -0.23705702
-0.10845967 0.11348832 -0.23702683
-0.1082808 0.113492 -0.2369798
-0.10808767 0.11350366 -0.23692434
-0.107985 0.113495 -0.23689
-0.108584 0.113646 -0.237058
-0.108452 0.113675 -0.237038
-0.108265 0.113663 -0.23699251
-0.108082 0.11365265 -0.23692267
-0.10797767 0.11368067 -0.23689567
-0.10844449 0.11386133 -0.23704016
-0.10825767 0.11385 -0.23699598
-0.10807411 0.11383911 -0.23693268
-0.10797051 0.113867 -0.23689699
-0.1084375 0.11404775 -0.23703751
-0.10825025 0.1140365 -0.237003
-0.108067 0.11402583 -0.23693401
-0.1079645 0.114017 -0.236904
-0.10841834 0.114185 -0.23704267
-0.1082346 0.11420801 -0.23700421
-0.10805933 0.11421278 -0.23694378
-0.1079425 0.11422174 -0.23690975
-0.1083835 0.114345 -0.23704949
-0.1082444 0.1143888 -0.2370154
-0.108078 0.1144015 -0.23696449
-0.10794816 0.11439117 -0.23691817
-0.10822874 0.11455975 -0.23702401
-0.10807175 0.1145515 -0.23697351
-0.10794066 0.11457767 -0.23692523
-0.10823733 0.11469933 -0.23703533
-0.10809188 0.11474887 -0.23699825
-0.10791799 0.11476942 -0.23693456
-0.10809367 0.114928 -0.2370225
-0.1078921 0.11492467 -0.23694012
-0.108064 0.11510372 -0.23703484
-0.10791767 0.11510289 -0.2369829
-0.10777751 0.11512724 -0.23690951
-0.108009 0.1153 -0.23702499
-0.10790984 0.11529083 -0.23699449
-0.10777099 0.11527775 -0.23692875
-0.1080025 0.1154495 -0.23704
-0.10790222 0.11547756 -0.23700356
-0.1077635 0.11546434 -0.23693033
-0.107928 0.11565556 -0.23702423
-0.10771816 0.11564901 -0.23692368
-0.1078776 0.11580639 -0.23703261
-0.10774817 0.1158385 -0.2369535
-0.107635 0.115831 -0.23690166
-0.10785019 0.1159844 -0.2370276
-0.10774025 0.11602601 -0.23696449
-0.1076275 0.116017 -0.23689499
-0.107822 0.116148 -0.237032
-0.1077508 0.11618581 -0.236994
-0.107621 0.116168 -0.23692
-0.10775478 0.11636744 -0.23701876
-0.1075778 0.11636721 -0.23691878
-0.107747 0.11655434 -0.237027
-0.107562 0.11653899 -0.236928
-0.10772272 0.11672986 -0.23703587
-0.10755401 0.11672717 -0.23694433
-0.107419 0.116791 -0.236882
-0.10770225 0.11692625 -0.23703551
-0.10754575 0.1169145 -0.2369605
-0.107414 0.116903 -0.23688799
-0.107657 0.117075 -0.237038
-0.1075302 0.1170866 -0.2369618
-0.10737179 0.11710401 -0.23689759
-0.107649 0.11726233 -0.23705433
-0.10754021 0.1172682 -0.2369806
-0.1073565 0.117276 -0.23690425
-0.1076435 0.117449 -0.23703399
-0.1075245 0.11744 -0.236985
-0.1073406 0.11744881 -0.23691401
-0.10753399 0.117618 -0.23700473
-0.10735019 0.11762919 -0.23692319
-0.107217 0.117642 -0.236885
-0.107509 0.117815 -0.23700601
-0.107335 0.1178015 -0.23692749
-0.1072105 0.117792 -0.2368985
-0.10751766 0.11795434 -0.237019
-0.10735988 0.11800025 -0.23694587
-0.107203 0.11798 -0.23690732
-0.10753733 0.11815801 -0.23705299
-0.1074065 0.1181815 -0.23696849
-0.10723675 0.11817 -0.2369175
-0.10708649 0.118162 -0.23688349
-0.1075305 0.118345 -0.23705399
-0.10740051 0.11833101 -0.236976
-0.10722917 0.11835734 -0.23692133
-0.107079 0.11834867 -0.23688801
-0.10752366 0.11853134 -0.23704399
-0.10739317 0.11851883 -0.23697434
-0.10722225 0.1185445 -0.2369245
-0.1070715 0.118536 -0.23688599
-0.107517 0.118682 -0.237055
-0.10738575 0.118706 -0.23697799
-0.1072155 0.11869524 -0.23693876
-0.10706433 0.11872267 -0.23688699
-0.10751 0.1188685 -0.237049
-0.10737734 0.11889517 -0.23699899
-0.10720783 0.11888283 -0.23694782
-0.10705701 0.1189095 -0.23688799
-0.1075045 0.1190185 -0.237049
-0.10736975 0.119082 -0.23700774
-0.10720025 0.1190705 -0.236955
-0.1070505 0.119061 -0.23691049
-0.10736475 0.11923125 -0.2369945
-0.10719284 0.11925784 -0.23695934
-0.10702175 0.11922825 -0.23690525
-0.10735667 0.11941916 -0.237013
-0.10718524 0.1194445 -0.23696148
-0.10699175 0.1194315 -0.2369035
-0.10734899 0.119607 -0.23701699
-0.1071805 0.1195935 -0.23695101
-0.10698485 0.11961917 -0.23689766
-0.1073415 0.119795 -0.23702133
-0.10717267 0.11978167 -0.23695983
-0.10697699 0.119807 -0.2369065
-0.10733425 0.1199825 -0.23702098
-0.1071655 0.119969 -0.23695499
-0.1069715 0.119957 -0.23690575
-0.106857 0.119908 -0.236882
-0.107329 0.120132 -0.2370145
-0.10715783 0.120157 -0.23696636
-0.10698675 0.12012725 -0.23691525
-0.10689399 0.120188 -0.236893
-0.107366 0.120323 -0.23704134
-0.10720471 0.120332 -0.23697928
-0.1070005 0.120335 -0.23692299
-0.1069125 0.120328 -0.23689599
-0.1073585 0.120511 -0.23704049
-0.1071865 0.12049732 -0.23697518
-0.106993 0.120522 -0.23692034
-0.10690566 0.120515 -0.23689401
-0.10735234 0.12069634 -0.237023
-0.10722017 0.12068833 -0.23699315
-0.10705221 0.12069039 -0.2369388
-0.106901 0.120664 -0.236883
-0.1073455 0.120883 -0.237012
-0.10721324 0.12087525 -0.2369895
-0.107035 0.12086175 -0.23692925
-0.10689349 0.120852 -0.236884
-0.1073395 0.1210335 -0.237019
-0.10720617 0.12106199 -0.23698266
-0.10702833 0.12104884 -0.23692352
-0.1068875 0.121001 -0.2368845
-0.10735425 0.12122326 -0.23702401
-0.10719926 0.1212485 -0.23697625
-0.107021 0.121236 -0.23692174
-0.10732549 0.121408 -0.2370075
-0.1071935 0.1213995 -0.23697825
-0.107004 0.1214058 -0.2369076
-0.10731866 0.12159467 -0.23700301
-0.10718667 0.12158566 -0.23696584
-0.107063 0.121575 -0.23692466
-0.1073105 0.121783 -0.237014
-0.10718025 0.121771 -0.23694775
-0.1070565 0.121762 -0.236917
-0.107306 0.1219325 -0.23699799
-0.10717317 0.12195799 -0.236944
-0.10699451 0.12194651 -0.23690385
-0.1073328 0.122137 -0.23701119
-0.107166 0.12214576 -0.2369455
-0.1070415 0.122137 -0.236926
-0.10733375 0.12231299 -0.23703201
-0.10716025 0.12229625 -0.236946
-0.1069795 0.1223215 -0.23690826
-0.107284 0.12249467 -0.23699701
-0.1071525 0.12248417 -0.23695666
-0.107028 0.12247566 -0.236926
-0.1069175 0.122506 -0.23689499
-0.107189 0.12267583 -0.2369765
-0.1070205 0.122663 -0.236931
-0.1069115 0.122656 -0.236899
-0.1072156 0.12285139 -0.23699442
-0.10705384 0.12285583 -0.236955
-0.106904 0.12284467 -0.23691
-0.1072258 0.12303599 -0.2370152
-0.10704625 0.123045 -0.23696175
-0.1068525 0.1230295 -0.2368985
-0.10721 0.12320775 -0.23701426
-0.10704049 0.123195 -0.2369675
-0.10684516 0.1232175 -0.23690249
-0.10720216 0.12339716 -0.23702599
-0.10703299 0.12338366 -0.23696816
-0.10683775 0.12340599 -0.23691049
-0.10719475 0.123585 -0.237032
-0.107025 0.12357301 -0.2369805
-0.106832 0.12355676 -0.23691174
-0.10671433 0.12358367 -0.23688801
-0.107174 0.12372267 -0.237032
-0.1070096 0.1237454 -0.23698659
-0.10682417 0.12374484 -0.23691465
-0.1067075 0.123771 -0.236882
-0.107171 0.12394021 -0.23704679
-0.10701861 0.1239282 -0.23700121
-0.1068165 0.123934 -0.23692451
-0.1067015 0.123923 -0.23689249
-0.1071285 0.12411 -0.237039
-0.1070035 0.124101 -0.237002
-0.10680079 0.1241074 -0.23693021
-0.10663883 0.12410966 -0.23689967
-0.10712034 0.12429967 -0.23705067
-0.10699599 0.12429034 -0.23701216
-0.10681061 0.1242906 -0.2369488
-0.10663075 0.124299 -0.2369155
-0.1071125 0.12448899 -0.237056
-0.10698774 0.12447975 -0.23702551
-0.1067945 0.1244655 -0.236965
-0.1066245 0.1244505 -0.23692475
-0.107108 0.124601 -0.237059
-0.10696801 0.12461867 -0.23703499
-0.10679521 0.1246414 -0.2369878
-0.10664633 0.12464317 -0.23694682
-0.106559 0.124714 -0.236938
-0.10693201 0.124818 -0.23704232
-0.1068215 0.124849 -0.237012
-0.10669825 0.1248375 -0.23698075
-0.106554 0.124828 -0.236956
-0.106325 0.124847 -0.23688699
-0.106815 0.125001 -0.237029
-0.10669125 0.124991 -0.23699799
-0.10654467 0.12502134 -0.23699033
-0.10629401 0.12501726 -0.236909
-0.106809 0.125117 -0.23705199
-0.1066825 0.12518235 -0.23702748
-0.1065365 0.125211 -0.237011
-0.106264 0.12518701 -0.23692125
-0.106638 0.12537 -0.23705
-0.10653 0.12536299 -0.23702499
-0.10624659 0.1253628 -0.2369432
-0.10609426 0.125384 -0.23689975
-0.10594 0.125431 -0.236884
-0.106524 0.12548 -0.237057
-0.10626975 0.12553625 -0.237
-0.10610925 0.12555926 -0.23694201
-0.10596234 0.12556133 -0.23691233
-0.10575449 0.125534 -0.23688599
-0.106284 0.12569401 -0.237046
-0.1061465 0.125718 -0.236992
-0.10596021 0.12572721 -0.23695001
-0.10575974 0.125737 -0.23691276
-0.105577 0.1257935 -0.23689049
-0.088137999 0.12581401 -0.236885
-0.106128 0.12589681 -0.2370332
-0.1059678 0.12591599 -0.237003
-0.105781 0.12592301 -0.23696551
-0.105584 0.12591542 -0.23692299
-0.088129997 0.125937 -0.23695999
-0.105936 0.126082 -0.237049
-0.1057735 0.12607899 -0.23700601
-0.10557088 0.12607463 -0.23695827
-0.10542843 0.12610999 -0.23691842
-0.088211507 0.1260885 -0.23693401
-0.088119999 0.12609899 -0.237041
-0.105751 0.12622133 -0.23703735
-0.1055895 0.12627162 -0.23701
-0.10539187 0.12627849 -0.23693974
-0.088283002 0.12626375 -0.23694324
-0.088198997 0.12629101 -0.237027
-0.105546 0.12641451 -0.2370365
-0.10539629 0.12642971 -0.23698485
-0.10524901 0.12648 -0.23691399
-0.088304199 0.12645821 -0.23699899
-0.10538942 0.12661771 -0.23701759
-0.10522186 0.12663214 -0.236948
-0.088342004 0.12659401 -0.236993
-0.1053425 0.126818 -0.23705401
-0.105244 0.12680875 -0.23701501
-0.10506975 0.12679049 -0.23693325
-0.10488901 0.12682125 -0.236904
-0.10469225 0.12686475 -0.23689774
-0.10451167 0.12685201 -0.23689999
-0.104248 0.126862 -0.23689
-0.088389002 0.12682 -0.23692299
-0.088330001 0.126831 -0.237059
-0.105339 0.126932 -0.237049
-0.10519934 0.12699267 -0.23701267
-0.1050595 0.12698567 -0.23698449
-0.1048882 0.12699661 -0.23696479
-0.1046806 0.12699381 -0.23693521
-0.104512 0.12700561 -0.2369556
-0.10424151 0.12698349 -0.236945
-0.10409874 0.126973 -0.23692301
-0.103914 0.1270425 -0.23691
-0.088382661 0.12697466 -0.23694034
-0.088328004 0.12697302 -0.23698767
-0.10503433 0.12716766 -0.23703332
-0.10486975 0.12717675 -0.2370185
-0.10469624 0.1271615 -0.236993
-0.10451501 0.12715617 -0.23700432
-0.104232 0.12714151 -0.23700601
-0.10411225 0.12715501 -0.23700526
-0.10395043 0.12718643 -0.23696999
-0.10377949 0.1271885 -0.236903
-0.088425994 0.12716201 -0.236911
-0.088354327 0.127159 -0.23701601
-0.10486349 0.127295 -0.23705751
-0.104703 0.127306 -0.23703434
-0.104509 0.12727533 -0.23704065
-0.104225 0.127261 -0.23705401
-0.1039865 0.127326 -0.2370325
-0.1038115 0.12735325 -0.23699501
-0.10364467 0.12734467 -0.23690633
-0.103477 0.127432 -0.23689499
-0.088455997 0.1273454 -0.2369688
-0.103761 0.127508 -0.237028
-0.10358678 0.12752712 -0.23697066
-0.1034455 0.1275475 -0.2369215
-0.088574 0.12758499 -0.236903
-0.088468 0.1275046 -0.23702061
-0.103529 0.127708 -0.23702832
-0.1034365 0.127707 -0.23698749
-0.1032405 0.1276875 -0.236901
-0.10214701 0.12772433 -0.23688567
-0.10198 0.127747 -0.236904
-0.101837 0.127737 -0.23688599
-0.088565499 0.12771 -0.23697799
-0.088499002 0.12767901 -0.237055
-0.103404 0.12782501 -0.23703501
-0.10322899 0.12788732 -0.236984
-0.1030235 0.12790674 -0.23691049
-0.1028455 0.12789926 -0.236902
-0.10266601 0.127931 -0.23691399
-0.10250521 0.12789121 -0.2369024
-0.102317 0.12788475 -0.23689675
-0.1021535 0.12786649 -0.23691675
-0.101974 0.12786475 -0.2369355
-0.1017918 0.12790741 -0.23692921
-0.101644 0.127956 -0.23690601
-0.088752002 0.12789901 -0.23689801
-0.0886475 0.12786299 -0.236957
-0.088556997 0.12783299 -0.237055
-0.10301425 0.128067 -0.23697701
-0.10283601 0.12806 -0.23697001
-0.10266025 0.12804875 -0.236948
-0.10248601 0.128042 -0.23696066
-0.10232123 0.12806721 -0.23697233
-0.102142 0.12806632 -0.23699516
-0.1019732 0.1280494 -0.2370114
-0.10177075 0.128094 -0.2370275
-0.1015965 0.12807375 -0.23695551
-0.1014506 0.1280732 -0.23691919
-0.08878275 0.128059 -0.236945
-0.088638999 0.127987 -0.237038
-0.103007 0.12818849 -0.2370365
-0.1028275 0.1282185 -0.237021
-0.102651 0.12820974 -0.23701251
-0.10247666 0.1282025 -0.23702501
-0.10231167 0.12822734 -0.23703901
-0.102173 0.128224 -0.23704299
-0.101719 0.12820999 -0.237057
-0.101574 0.12822133 -0.23702399
-0.10143066 0.12822466 -0.23697732
-0.10127437 0.12825474 -0.236927
-0.10114 0.128314 -0.236894
-0.100411 0.12827501 -0.236885
-0.099950001 0.128262 -0.23693374
-0.09981633 0.12825866 -0.23693366
-0.099665493 0.128324 -0.23691049
-0.088812999 0.12822001 -0.23699699
-0.1014075 0.12836501 -0.23704299
-0.10125601 0.12844567 -0.23700899
-0.1011325 0.128434 -0.236948
-0.10089201 0.12841749 -0.2369135
-0.10073266 0.12842001 -0.23690899
-0.10051057 0.12841502 -0.23691943
-0.10037666 0.12843284 -0.23693383
-0.10007101 0.12842333 -0.23696367
-0.099851504 0.12845699 -0.23699301
-0.099658757 0.12844574 -0.23696001
-0.099494502 0.12844625 -0.23690824
-0.089704335 0.12845767 -0.23695733
-0.089545995 0.1284315 -0.23692799
-0.089394175 0.12842534 -0.23693234
-0.089159995 0.1284135 -0.23693499
-0.101191 0.128564 -0.237051
-0.101124 0.12855899 -0.237032
-0.100881 0.12858224 -0.23700875
-0.1006976 0.1285942 -0.2370002
-0.1005226 0.12857139 -0.23700061
-0.10035634 0.12862366 -0.23703234
-0.100062 0.128582 -0.237019
-0.099843495 0.12861376 -0.237028
-0.09964975 0.12860525 -0.2370165
-0.099444501 0.1285885 -0.23698249
-0.099257007 0.1286502 -0.2369308
-0.099102996 0.12867101 -0.23688599
-0.097972997 0.12862401 -0.23688801
-0.097841002 0.12862051 -0.236911
-0.097668998 0.12866533 -0.236937
-0.090122998 0.12864199 -0.23689801
-0.089938 0.128608 -0.236985
-0.089710504 0.128574 -0.237048
-0.089535996 0.1285595 -0.23702699
-0.089384668 0.128552 -0.23702167
-0.089149997 0.12854201 -0.237039
-0.099296004 0.12874866 -0.23702665
-0.099108398 0.12878901 -0.23696539
-0.098913506 0.12878574 -0.236947
-0.09875834 0.12878999 -0.23693435
-0.098543495 0.12878549 -0.236928
-0.098377325 0.128786 -0.23693484
-0.098198503 0.12880024 -0.23696427
-0.098007835 0.12878783 -0.23697251
-0.097829998 0.12878549 -0.23700333
-0.097628675 0.12879933 -0.23700202
-0.097462498 0.12879734 -0.23695634
-0.097359002 0.1287825 -0.23691601
-0.090212665 0.128784 -0.236957
-0.090112999 0.1287735 -0.23700699
-0.099085003 0.128925 -0.237057
-0.098949999 0.12891349 -0.23703149
-0.098765999 0.12890451 -0.23701951
-0.098553337 0.12889068 -0.23699467
-0.098396495 0.12889001 -0.2370135
-0.097426996 0.128921 -0.237032
-0.097303808 0.12894659 -0.2369628
-0.097133666 0.12902565 -0.23696667
-0.096957333 0.12901533 -0.23693566
-0.096763998 0.12903249 -0.23695451
-0.096572503 0.129016 -0.2369065
-0.0963865 0.12901624 -0.23696099
-0.096197329 0.12900633 -0.23695099
-0.09601 0.128997 -0.2369535
-0.095826499 0.1289845 -0.236922
-0.095649496 0.12897649 -0.23693851
-0.095483251 0.12902476 -0.23692599
-0.090446502 0.12888975 -0.23691949
-0.090273753 0.128916 -0.23702149
-0.096756503 0.1291205 -0.23703749
-0.096563995 0.129107 -0.2370085
-0.096386671 0.12910634 -0.23705566
-0.096190333 0.12909432 -0.23703067
-0.096043997 0.129089 -0.237045
-0.095641494 0.1290665 -0.237032
-0.095461667 0.12913233 -0.23700766
-0.095307 0.129154 -0.23695767
-0.095122002 0.129186 -0.236957
-0.095035002 0.129181 -0.236949
-0.094746001 0.12923899 -0.236918
-0.092061505 0.1291995 -0.236956
-0.091868505 0.12919649 -0.23699549
-0.091698006 0.129107 -0.2369495
-0.0915315 0.1290935 -0.23692399
-0.095250003 0.12926801 -0.236974
-0.095114 0.12927601 -0.23704299
-0.094980501 0.129255 -0.236958
-0.094834998 0.129243 -0.23692
-0.093092002 0.108652 -0.236817
-0.093014002 0.108649 -0.2367935
-0.092717998 0.108712 -0.236727
-0.092625 0.108709 -0.236781
-0.096346498 0.10889649 -0.23682499
-0.096199669 0.108892 -0.23683566
-0.096041672 0.10888133 -0.23683167
-0.095912002 0.108879 -0.23686001
-0.095672995 0.1088675 -0.23686451
-0.095496252 0.10881825 -0.23681225
-0.095295601 0.108799 -0.2367622
-0.095143341 0.108785 -0.23677467
-0.093148328 0.10873034 -0.23671032
-0.092914 0.108721 -0.23672201
-0.092408501 0.1087715 -0.23675501
-0.091315001 0.108862 -0.236753
-0.091247 0.108861 -0.236817
-0.099064499 0.1090405 -0.236857
-0.0986875 0.109026 -0.23688
-0.098325498 0.10907701 -0.2368345
-0.098176666 0.109069 -0.23684998
-0.098017797 0.1090278 -0.236847
-0.097859003 0.109054 -0.236844
-0.097427994 0.10900533 -0.23684435
-0.09727525 0.10898625 -0.236807
-0.097118624 0.10897687 -0.236775
-0.09694925 0.10896925 -0.23679374
-0.096792497 0.1089595 -0.2367795
-0.096608251 0.1089495 -0.23677599
-0.096411504 0.108956 -0.23675449
-0.096201003 0.108966 -0.23674732
-0.09604267 0.10895533 -0.23675667
-0.095868498 0.10898675 -0.23675975
-0.095690668 0.10896667 -0.23675299
-0.095541 0.108932 -0.236711
-0.091315001 0.108935 -0.236701
-0.091169253 0.1089285 -0.23676576
-0.090989403 0.10898121 -0.2368006
-0.090887338 0.10898934 -0.236799
-0.090703003 0.1090165 -0.23681301
-0.090521 0.109049 -0.236856
-0.10318901 0.10925449 -0.23686551
-0.1030565 0.10920316 -0.23683333
-0.102878 0.1091985 -0.23684375
-0.10271534 0.10920634 -0.23685001
-0.102509 0.109218 -0.23684549
-0.1023305 0.109207 -0.2368605
-0.102062 0.109195 -0.23687901
-0.1012275 0.109227 -0.2368705
-0.101115 0.10919634 -0.23686235
-0.100821 0.1091685 -0.23684201
-0.100649 0.109197 -0.23683199
-0.1005055 0.109193 -0.236844
-0.10032374 0.10921775 -0.2368215
-0.1001718 0.10921919 -0.23684499
-0.1000145 0.10921726 -0.23684101
-0.099444002 0.109212 -0.2368485
-0.099242806 0.109171 -0.23682483
-0.099089831 0.10915317 -0.23678567
-0.098903172 0.109141 -0.23677416
-0.098687753 0.10913575 -0.23678401
-0.098518804 0.10914781 -0.23677579
-0.098311998 0.109175 -0.236746
-0.098176837 0.10917968 -0.23675667
-0.098003499 0.109169 -0.23675567
-0.097809248 0.10916325 -0.23679601
-0.097628996 0.10915574 -0.23678699
-0.097461998 0.10913033 -0.23675466
-0.097275004 0.109098 -0.23672199
-0.097168997 0.109092 -0.2367065
-0.090703003 0.109126 -0.236733
-0.090474248 0.1091575 -0.236781
-0.090292498 0.1092215 -0.23683649
-0.104877 0.10941251 -0.2368505
-0.10470434 0.10938033 -0.23684067
-0.104556 0.109402 -0.236834
-0.10431275 0.1093695 -0.2368595
-0.1041505 0.10937551 -0.23687401
-0.103949 0.1094025 -0.23686001
-0.103742 0.10939375 -0.23684651
-0.10356151 0.109424 -0.23685801
-0.103379 0.109355 -0.23684061
-0.10321567 0.10936784 -0.23679316
-0.10305483 0.10935133 -0.23675217
-0.10287625 0.109346 -0.23676351
-0.10269825 0.10934025 -0.23676425
-0.102508 0.109329 -0.23676875
-0.10232867 0.10935533 -0.23677449
-0.10215801 0.1093423 -0.23680231
-0.1019965 0.10934862 -0.23681088
-0.1018755 0.1093735 -0.23682401
-0.10164633 0.10937367 -0.236835
-0.10145825 0.1093515 -0.23683551
-0.10126266 0.10934033 -0.236802
-0.1011225 0.1093315 -0.23677951
-0.1008195 0.109316 -0.23675349
-0.100648 0.1093085 -0.2367565
-0.10050499 0.109304 -0.23675925
-0.10030899 0.109352 -0.23673333
-0.10017083 0.10935884 -0.23676266
-0.099998675 0.10934484 -0.2367595
-0.099807501 0.10933951 -0.2368
-0.099626251 0.1093315 -0.2368165
-0.099451795 0.10934339 -0.2367548
-0.099269003 0.10929249 -0.23672925
-0.097935997 0.109279 -0.236702
-0.097808003 0.1092735 -0.2367295
-0.097627997 0.109266 -0.23671401
-0.090456337 0.10929301 -0.23671967
-0.09026657 0.10935371 -0.23678716
-0.090109505 0.109362 -0.23685101
-0.1051885 0.109562 -0.2368595
-0.1048755 0.109524 -0.2367965
-0.104687 0.10951626 -0.23677701
-0.1045022 0.109532 -0.23677161
-0.10429111 0.10953433 -0.236783
-0.10414817 0.109523 -0.23679733
-0.1039465 0.1095505 -0.236802
-0.103739 0.10954225 -0.23679
-0.10356025 0.1095345 -0.23679426
-0.1033855 0.1095255 -0.23674975
-0.1032135 0.10949725 -0.23671851
-0.102835 0.109458 -0.236707
-0.102648 0.109449 -0.23671301
-0.102552 0.109443 -0.23670401
-0.10216668 0.109499 -0.23671432
-0.1019865 0.10950676 -0.2367315
-0.101872 0.1095215 -0.23677799
-0.1016202 0.1095304 -0.23677199
-0.10145701 0.10949825 -0.236744
-0.10126267 0.10945166 -0.23671667
-0.101147 0.109444 -0.23672
-0.10016933 0.10947067 -0.23670633
-0.099967003 0.109456 -0.23672199
-0.099805005 0.109488 -0.23673651
-0.099640667 0.10946766 -0.23673399
-0.090206333 0.10950401 -0.23673832
-0.090101399 0.1095318 -0.2367578
-0.10536268 0.10971133 -0.23683967
-0.10519984 0.10969151 -0.23680252
-0.10488867 0.10965934 -0.23673733
-0.104685 0.109626 -0.2367225
-0.10452775 0.10969675 -0.23673326
-0.10428834 0.10968167 -0.23671998
-0.1041594 0.109717 -0.23672521
-0.10394301 0.1096975 -0.236742
-0.10373574 0.10968925 -0.236738
-0.10357333 0.10966999 -0.23672266
-0.101939 0.109635 -0.236706
-0.101871 0.109632 -0.236707
-0.1016685 0.1096595 -0.236726
-0.090134002 0.109623 -0.23672
-0.089885995 0.109725 -0.23685199
-0.1056765 0.109938 -0.236863
-0.10553739 0.1099136 -0.23682301
-0.105374 0.10988484 -0.23677516
-0.10519733 0.10983983 -0.23673166
-0.103939 0.109847 -0.23671749
-0.103747 0.109827 -0.23671234
-0.089883499 0.1098735 -0.23678949
-0.089571245 0.10993625 -0.23683475
-0.089446999 0.109968 -0.236844
-0.105857 0.110132 -0.23687799
-0.10571951 0.11008925 -0.23683798
-0.10554175 0.11008425 -0.23677649
-0.10538434 0.11005834 -0.23672767
-0.089878999 0.11005834 -0.23672967
-0.089568496 0.110085 -0.23676825
-0.089393251 0.11007675 -0.2368115
-0.089253001 0.1100695 -0.2368575
-0.106796 0.110298 -0.236862
-0.1066674 0.11026879 -0.23685262
-0.10647341 0.1102584 -0.2368516
-0.10628621 0.1102794 -0.23685661
-0.10609433 0.11029733 -0.23687033
-0.10590649 0.110266 -0.23685901
-0.105716 0.110237 -0.236792
-0.10555333 0.11022067 -0.23672833
-0.089566499 0.110197 -0.23672199
-0.089378998 0.1102468 -0.23674798
-0.089189224 0.11025133 -0.23680489
-0.089033216 0.11024368 -0.23683991
-0.088905998 0.110312 -0.236854
-0.10683825 0.1104465 -0.23681949
-0.10665475 0.11043725 -0.2367925
-0.10647775 0.11042801 -0.23680976
-0.10626999 0.11041817 -0.23681064
-0.10608463 0.11043487 -0.23681989
-0.10592066 0.11043312 -0.23680088
-0.10572933 0.11037266 -0.23673533
-0.089174002 0.11042859 -0.23673281
-0.089029826 0.11042867 -0.23675734
-0.088904001 0.1104225 -0.236816
-0.106835 0.11059575 -0.23677625
-0.10664984 0.110623 -0.2367485
-0.10647383 0.1106135 -0.23675035
-0.10627475 0.11059476 -0.23674165
-0.10612 0.11061557 -0.23672815
-0.1059314 0.1106114 -0.23672518
-0.089126997 0.110546 -0.236718
-0.0890164 0.1105694 -0.2367162
-0.088899337 0.110608 -0.23675366
-0.107099 0.110837 -0.2368665
-0.1068386 0.1107658 -0.23674619
-0.106689 0.110773 -0.236728
-0.10645366 0.11078534 -0.23671268
-0.106335 0.110752 -0.236702
-0.106138 0.11078149 -0.23671018
-0.105981 0.110732 -0.236702
-0.0888495 0.1107945 -0.23679151
-0.10722633 0.11100333 -0.23686399
-0.107095 0.1109845 -0.236829
-0.106869 0.1109685 -0.23672551
-0.106162 0.1108955 -0.23670551
-0.088843338 0.1109815 -0.23677033
-0.107357 0.111186 -0.236863
-0.10723575 0.11114075 -0.23680724
-0.10709099 0.1111335 -0.23679051
-0.088793501 0.111168 -0.23681399
-0.10737925 0.11135325 -0.23683751
-0.10723049 0.11132466 -0.23676418
-0.107086 0.11131734 -0.23674268
-0.088790499 0.1113165 -0.236763
-0.10740125 0.11152226 -0.236816
-0.10722475 0.1115105 -0.23673549
-0.1070805 0.111502 -0.23670951
-0.088786498 0.1114645 -0.236718
-0.10756034 0.11169133 -0.23685034
-0.1073858 0.111691 -0.23677602
-0.10723266 0.111647 -0.23671301
-0.088776998 0.111726 -0.23670299
-0.107698 0.111947 -0.236871
-0.10756949 0.1118655 -0.23681301
-0.10740219 0.11187021 -0.23674759
-0.088774003 0.1118 -0.23670299
-0.10772333 0.11207333 -0.236853
-0.1075645 0.11204976 -0.23677474
-0.107405 0.11202833 -0.23672099
-0.088762499 0.1120635 -0.23673099
-0.107852 0.112253 -0.236867
-0.1077248 0.1122306 -0.2368176
-0.10755816 0.11223549 -0.23675235
-0.10743433 0.11222767 -0.23671435
-0.088756502 0.112214 -0.23674601
-0.1078855 0.1124035 -0.23685436
-0.10773599 0.11240999 -0.23680639
-0.10755199 0.112421 -0.23673475
-0.088748336 0.11240233 -0.23676334
-0.1078968 0.11259858 -0.2368376
-0.10772175 0.1125805 -0.236781
-0.10754675 0.1125695 -0.23672152
-0.10742 0.1126 -0.236706
-0.0887435 0.112587 -0.23671401
-0.10790201 0.11277755 -0.23683268
-0.10771533 0.11276533 -0.23676451
-0.10753181 0.1127548 -0.23671059
-0.088737994 0.112737 -0.2367055
-0.10789567 0.11296333 -0.23681836
-0.107708 0.112952 -0.2367665
-0.1075325 0.112941 -0.236715
-0.108002 0.113084 -0.23687799
-0.10789033 0.11311233 -0.23680799
-0.10771786 0.11314929 -0.23676457
-0.10757 0.1130915 -0.236708
-0.088721998 0.11315 -0.23671401
-0.107917 0.11330117 -0.23682451
-0.10773399 0.11332633 -0.23676933
-0.10790925 0.1134875 -0.2368315
-0.1077285 0.11347499 -0.23676835
-0.107554 0.113501 -0.236709
-0.10790166 0.11367417 -0.23683883
-0.10774472 0.11365257 -0.23678772
-0.1075915 0.11369 -0.23672749
-0.088702999 0.1136 -0.236737
-0.1078945 0.11386 -0.23683901
-0.10775475 0.1138505 -0.23680249
-0.10758575 0.113838 -0.23672451
-0.10745651 0.113832 -0.236708
-0.1078885 0.1140095 -0.23684201
-0.1077475 0.11403783 -0.23680316
-0.10757851 0.11402535 -0.23673016
-0.107452 0.113945 -0.236706
-0.1078762 0.1141812 -0.23685499
-0.10774 0.11422399 -0.23680951
-0.10757075 0.11421225 -0.23674199
-0.1074415 0.114205 -0.23670501
-0.1078475 0.114381 -0.2368605
-0.10773325 0.11437325 -0.2368225
-0.10756334 0.11439899 -0.23674633
-0.10741225 0.1144095 -0.23672
-0.10784 0.11456767 -0.23687132
-0.1077255 0.11456066 -0.23683216
-0.10755575 0.11458425 -0.23675151
-0.10738525 0.114575 -0.23672
-0.088664994 0.114611 -0.236716
-0.107834 0.114717 -0.236876
-0.1077185 0.114747 -0.2368345
-0.1075495 0.11473425 -0.236762
-0.10736921 0.1147476 -0.23673499
-0.10770983 0.11493483 -0.23686384
-0.107541 0.11492184 -0.23678251
-0.1073786 0.11492799 -0.23674521
-0.088652 0.114949 -0.23671
-0.1076645 0.11512 -0.23686001
-0.10753375 0.1151085 -0.2367875
-0.1073635 0.1150995 -0.23675275
-0.1072135 0.11509 -0.236711
-0.088646993 0.115062 -0.236729
-0.1076575 0.11527 -0.236873
-0.10752534 0.11529633 -0.23681267
-0.1073555 0.11528534 -0.2367605
-0.10720567 0.11527733 -0.23671965
-0.088634998 0.115326 -0.236761
-0.10765 0.11545634 -0.23687899
-0.1075175 0.11548351 -0.23682651
-0.10734825 0.115472 -0.2367685
-0.1071975 0.115464 -0.236727
-0.088631332 0.11547434 -0.23672301
-0.1075115 0.1156335 -0.23683101
-0.107341 0.115659 -0.23676634
-0.10716825 0.11564974 -0.23673099
-0.1070635 0.1157165 -0.23671049
-0.0886245 0.115662 -0.23672201
-0.10752725 0.11580225 -0.23683675
-0.10737482 0.11584816 -0.23679017
-0.1071825 0.115839 -0.23675451
-0.107059 0.1158285 -0.2367125
-0.088616997 0.11581349 -0.236752
-0.10754199 0.116009 -0.236846
-0.1073685 0.1159985 -0.23680282
-0.10717601 0.115988 -0.236765
-0.10705101 0.11601583 -0.23672467
-0.106904 0.116082 -0.236701
-0.088610329 0.11600033 -0.23673934
-0.107534 0.11619633 -0.23686634
-0.10738428 0.11617671 -0.23682812
-0.10721119 0.1161924 -0.23678701
-0.10704325 0.116203 -0.23674025
-0.1068995 0.11619399 -0.23670399
-0.088604495 0.116187 -0.23671299
-0.107394 0.11637575 -0.2368425
-0.107215 0.116365 -0.23679399
-0.107037 0.11635301 -0.23675051
-0.10689133 0.116382 -0.23672199
-0.088593997 0.116378 -0.23676901
-0.1073782 0.1165484 -0.23685761
-0.10720734 0.11655182 -0.23681118
-0.10702967 0.116539 -0.236753
-0.106884 0.1165675 -0.2367215
-0.088586502 0.1165665 -0.236771
-0.10738 0.1167135 -0.23686399
-0.10719924 0.11674 -0.23682576
-0.107022 0.11672675 -0.236764
-0.106878 0.1167185 -0.236736
-0.088583499 0.116712 -0.23672301
-0.1073305 0.116898 -0.23686099
-0.10718139 0.11691161 -0.2368308
-0.10701334 0.11691466 -0.23678733
-0.10686967 0.11690634 -0.236755
-0.088574328 0.11690301 -0.23675667
-0.107325 0.117011 -0.236875
-0.10719579 0.1170928 -0.23684721
-0.10700575 0.1171025 -0.23679724
-0.1068625 0.117093 -0.23675799
-0.088569999 0.11705 -0.236727
-0.10717775 0.1172645 -0.23685549
-0.10699975 0.1172515 -0.23680151
-0.106855 0.11727967 -0.23675601
-0.10717034 0.11745182 -0.23686315
-0.10699201 0.117439 -0.23680751
-0.1068465 0.117467 -0.23678049
-0.1071085 0.117635 -0.23684949
-0.10698426 0.11762675 -0.236821
-0.10684 0.117619 -0.236798
-0.107104 0.117747 -0.236857
-0.10699444 0.11781515 -0.23683156
-0.10683233 0.11780533 -0.23680101
-0.088540494 0.1178395 -0.23671299
-0.10702258 0.11798956 -0.23685198
-0.1068255 0.1179915 -0.236798
-0.106599 0.117972 -0.236708
-0.088534504 0.11799 -0.236724
-0.1069625 0.1181515 -0.23684701
-0.10681767 0.11817933 -0.23681267
-0.10659134 0.11816 -0.23671401
-0.088526994 0.11817767 -0.23671867
-0.1069745 0.1183215 -0.23685175
-0.1068645 0.1183695 -0.23682724
-0.106584 0.11834601 -0.236717
-0.088519499 0.1183655 -0.23672
-0.1069845 0.118529 -0.23685899
-0.10685825 0.11851899 -0.236829
-0.10658 0.118458 -0.236715
-0.10697701 0.11871567 -0.23685765
-0.106851 0.11870584 -0.2368307
-0.106568 0.118758 -0.236718
-0.10697 0.118902 -0.23685601
-0.10684349 0.1188935 -0.2368395
-0.106566 0.118831 -0.236708
-0.088413998 0.118851 -0.236742
-0.1069635 0.119054 -0.236873
-0.10683583 0.119081 -0.23684599
-0.1065545 0.119094 -0.236727
-0.1069545 0.119279 -0.23688
-0.106828 0.119269 -0.236856
-0.1065485 0.119245 -0.23673099
-0.106822 0.11941899 -0.2368615
-0.106542 0.11943 -0.23672567
-0.10681483 0.119606 -0.23686333
-0.106489 0.11961475 -0.23671751
-0.106807 0.1197935 -0.23686901
-0.10649633 0.11980333 -0.23672433
-0.1067884 0.11999559 -0.23687001
-0.1064838 0.1199682 -0.2367326
-0.0883715 0.119945 -0.23675299
-0.106848 0.120134 -0.23688
-0.106739 0.120165 -0.236853
-0.106468 0.12013975 -0.2367295
-0.08836367 0.120134 -0.236764
-0.1068415 0.12032 -0.236874
-0.1067325 0.120316 -0.236863
-0.10646067 0.120327 -0.236733
-0.088357002 0.120286 -0.236774
-0.106834 0.12050733 -0.23686899
-0.10672566 0.12050267 -0.23685567
-0.1064535 0.1205145 -0.23673549
-0.106851 0.12070867 -0.23686934
-0.1067185 0.12069 -0.23686001
-0.10644617 0.12070134 -0.236733
-0.10681999 0.120882 -0.23686934
-0.106711 0.12087667 -0.23685533
-0.106439 0.1208885 -0.23673099
-0.088340998 0.120806 -0.236702
-0.10683634 0.12108333 -0.236866
-0.106704 0.121064 -0.236857
-0.10643326 0.121038 -0.23672649
-0.10684325 0.12122175 -0.2368665
-0.106699 0.121212 -0.23683801
-0.10643661 0.1212096 -0.23671679
-0.106379 0.121296 -0.236702
-0.10683633 0.12140816 -0.23685999
-0.10669199 0.12139967 -0.23683234
-0.10646451 0.121415 -0.236737
-0.1069535 0.121605 -0.236875
-0.1068295 0.1215945 -0.23684901
-0.10668451 0.121588 -0.2368395
-0.10645733 0.12160266 -0.23673368
-0.106948 0.12175401 -0.236872
-0.1068156 0.12176701 -0.23685321
-0.106678 0.12177267 -0.23682535
-0.1064505 0.1217885 -0.236728
-0.1063595 0.121782 -0.236701
-0.1068234 0.12194739 -0.23684959
-0.1066705 0.12196 -0.23682651
-0.1064445 0.12194 -0.236733
-0.106353 0.12197 -0.236701
-0.1069335 0.12212799 -0.2368685
-0.1068095 0.12211825 -0.2368435
-0.106665 0.12210999 -0.23682401
-0.10643701 0.122127 -0.23673899
-0.106347 0.12211933 -0.23670267
-0.106929 0.122242 -0.23687699
-0.10680199 0.12230617 -0.23684432
-0.106658 0.12229734 -0.236825
-0.1064295 0.122315 -0.236747
-0.1063395 0.122307 -0.23670501
-0.10679474 0.12249375 -0.23685001
-0.1066505 0.122484 -0.23682499
-0.106422 0.122502 -0.23674567
-0.106332 0.12249533 -0.23671167
-0.1067808 0.1226666 -0.23685761
-0.10664267 0.12267333 -0.23683466
-0.1064155 0.122689 -0.23673999
-0.1067872 0.1228502 -0.2368758
-0.1066355 0.122861 -0.236836
-0.1064085 0.122841 -0.23675701
-0.106269 0.12290449 -0.236702
-0.10668325 0.1230155 -0.2368575
-0.10640133 0.12302867 -0.23675966
-0.106266 0.1229795 -0.23670551
-0.10667583 0.12320367 -0.23686266
-0.106394 0.1232155 -0.23676001
-0.1063045 0.123208 -0.23671299
-0.106668 0.123393 -0.236873
-0.1063865 0.123369 -0.236784
-0.10629633 0.123396 -0.23672168
-0.1062 0.123465 -0.236702
-0.106606 0.12357966 -0.23687066
-0.106383 0.123481 -0.23677599
-0.10633349 0.1235895 -0.236753
-0.1061295 0.1235745 -0.2367045
-0.106019 0.123608 -0.236711
-0.1065985 0.123767 -0.236875
-0.1063275 0.12374049 -0.236763
-0.106135 0.1237488 -0.23672001
-0.10601234 0.12376001 -0.23672168
-0.1065925 0.123918 -0.2368785
-0.10632 0.12392851 -0.23676383
-0.106145 0.123932 -0.23673539
-0.1059595 0.123944 -0.23672502
-0.105824 0.123972 -0.23670501
-0.10631175 0.12411825 -0.23678499
-0.10612825 0.124106 -0.2367515
-0.10595299 0.1240955 -0.23673199
-0.10581767 0.12412199 -0.23671234
-0.1063045 0.1242715 -0.23681
-0.10612033 0.124295 -0.23676383
-0.10594483 0.124286 -0.23675632
-0.10577025 0.12431 -0.23671299
-0.106296 0.12446167 -0.2368315
-0.1061125 0.12448575 -0.23678
-0.10593675 0.124476 -0.236775
-0.10573134 0.12446067 -0.23672415
-0.1056085 0.124451 -0.236708
-0.088114001 0.124427 -0.236717
-0.10628825 0.1246515 -0.2368505
-0.10610574 0.12463675 -0.2367965
-0.1059204 0.124649 -0.2367864
-0.10574215 0.12464015 -0.23674527
-0.1056226 0.1246592 -0.23673359
-0.10625775 0.12482175 -0.2368595
-0.1060975 0.12482783 -0.23681666
-0.1059304 0.1248338 -0.23680739
-0.105747 0.12484375 -0.236773
-0.1056046 0.12483899 -0.2367328
-0.106228 0.12499 -0.23686101
-0.10608976 0.1250165 -0.2368255
-0.1059145 0.12500601 -0.23680826
-0.10574 0.12499651 -0.23679401
-0.10556822 0.12501045 -0.23674244
-0.105478 0.12508599 -0.236719
-0.10608274 0.1251705 -0.236854
-0.10590584 0.12519683 -0.23683549
-0.10573149 0.12518716 -0.23681666
-0.10558542 0.12519728 -0.2367827
-0.10547251 0.1252 -0.236736
-0.08817067 0.12518533 -0.23671366
-0.1060315 0.125321 -0.236871
-0.105883 0.12537502 -0.23686166
-0.10572276 0.125379 -0.23684701
-0.1055695 0.12536599 -0.23680735
-0.10543559 0.12536819 -0.23671839
-0.088161007 0.12538001 -0.23675701
-0.105846 0.12553701 -0.236871
-0.10567699 0.12552899 -0.236848
-0.10556089 0.12555712 -0.23683302
-0.10540972 0.12555987 -0.23675443
-0.088152006 0.12554049 -0.23682199
-0.105671 0.125645 -0.23687001
-0.10553849 0.12572974 -0.23686126
-0.10539316 0.12573117 -0.23679934
-0.105261 0.12574901 -0.236728
-0.088232666 0.12572666 -0.23677301
-0.088143498 0.12569851 -0.23687401
-0.105491 0.125861 -0.23687799
-0.10537658 0.12590215 -0.23683114
-0.105216 0.1259176 -0.23674861
-0.105065 0.125966 -0.236702
-0.088381 0.12595201 -0.23671301
-0.088250004 0.12593633 -0.23681533
-0.10533834 0.12607567 -0.23685467
-0.1051975 0.12609625 -0.236789
-0.10502867 0.12609567 -0.23672234
-0.088336244 0.12607349 -0.2367865
-0.10519025 0.12625025 -0.236819
-0.10500517 0.12627533 -0.23675551
-0.1048396 0.12628159 -0.23673001
-0.10467134 0.126305 -0.236715
-0.1045325 0.12632349 -0.23670501
-0.088416003 0.126342 -0.236738
-0.088364497 0.12623149 -0.236827
-0.10515925 0.12642449 -0.23684499
-0.1049945 0.12647299 -0.2368245
-0.10482125 0.12646051 -0.23678599
-0.104651 0.12644824 -0.23675549
-0.1045265 0.126441 -0.23674551
-0.1042725 0.1264265 -0.236733
-0.10414167 0.12650967 -0.23674233
-0.103987 0.12652799 -0.236716
-0.088425994 0.12647267 -0.23677634
-0.10500201 0.12661533 -0.23685934
-0.10483859 0.12662759 -0.23683739
-0.1046425 0.12660524 -0.23680501
-0.1045114 0.12662241 -0.2368032
-0.10426134 0.12662567 -0.23681533
-0.10411724 0.12665375 -0.2367935
-0.10393751 0.12664351 -0.23674476
-0.088427752 0.12661499 -0.23680025
-0.1048065 0.12673651 -0.23686799
-0.1046345 0.12676175 -0.236849
-0.1045085 0.1267595 -0.236866
-0.104252 0.126783 -0.23687001
-0.104108 0.12681374 -0.2368585
-0.10392851 0.126803 -0.236807
-0.103768 0.12682401 -0.236735
-0.103561 0.126884 -0.236709
-0.08847966 0.12680355 -0.23677689
-0.10390567 0.126948 -0.236858
-0.1037514 0.12699881 -0.236801
-0.1035644 0.1269944 -0.23674262
-0.10347401 0.1270325 -0.236743
-0.088486999 0.12699801 -0.23681419
-0.1036825 0.127175 -0.236847
-0.10357025 0.12716401 -0.236812
-0.10346726 0.12715149 -0.236784
-0.103267 0.1272115 -0.236736
-0.103104 0.127239 -0.236706
-0.102229 0.127195 -0.23670401
-0.101864 0.127259 -0.23670401
-0.088598505 0.1271445 -0.23673701
-0.088505253 0.12715276 -0.23683099
-0.10355267 0.127308 -0.23686235
-0.10345221 0.12733281 -0.2368466
-0.103258 0.12736851 -0.23678401
-0.10306767 0.12736666 -0.23673368
-0.1028745 0.12738201 -0.2367115
-0.10269751 0.12737501 -0.23671201
-0.10252266 0.127369 -0.23673368
-0.10233983 0.12736583 -0.236744
-0.10218018 0.12735499 -0.23676683
-0.10200266 0.1273485 -0.23674899
-0.101858 0.127377 -0.23673999
-0.088623598 0.1273562 -0.2367702
-0.088523 0.1273085 -0.23686001
-0.103249 0.127529 -0.236848
-0.10304575 0.12751001 -0.23677099
-0.10285719 0.12752602 -0.23677178
-0.10268833 0.12753449 -0.23677634
-0.10251368 0.127528 -0.23679155
-0.10235842 0.12753643 -0.23679288
-0.102169 0.12755425 -0.23683798
-0.10199175 0.127547 -0.23682401
-0.101804 0.12753201 -0.236782
-0.10161425 0.1275315 -0.23671451
-0.088771999 0.127572 -0.236742
-0.088638663 0.127524 -0.23680432
-0.1030345 0.127709 -0.23684649
-0.10286421 0.12771781 -0.2368422
-0.1026775 0.12773201 -0.2368405
-0.10250317 0.12772501 -0.23685366
-0.102341 0.12770917 -0.23684533
-0.102203 0.12766799 -0.236863
-0.101985 0.127666 -0.23686799
-0.10178 0.12767699 -0.23684067
-0.10160486 0.12769829 -0.23678257
-0.10144676 0.12772886 -0.236747
-0.100438 0.12779801 -0.236711
-0.100109 0.12771034 -0.236733
-0.099937007 0.127739 -0.236717
-0.088791668 0.12770534 -0.23677367
-0.088659495 0.12769401 -0.236838
-0.102671 0.12785 -0.23687801
-0.102444 0.127839 -0.23688
-0.1023645 0.12782699 -0.23686251
-0.101744 0.12780499 -0.236863
-0.10159433 0.12789567 -0.23685801
-0.10142375 0.12789775 -0.23681425
-0.1012625 0.1278785 -0.2367425
-0.10091999 0.12793601 -0.23671949
-0.10070366 0.12793766 -0.23671734
-0.10053299 0.12792662 -0.23673339
-0.10040575 0.12791425 -0.236743
-0.100099 0.1279085 -0.23679599
-0.099928498 0.1278985 -0.23677801
-0.099787496 0.12788999 -0.23674001
-0.088927001 0.12784299 -0.236738
-0.088836595 0.1278898 -0.2368104
-0.101386 0.12801901 -0.236874
-0.10127157 0.12805744 -0.2368187
-0.10115499 0.128069 -0.23677135
-0.10091075 0.12809625 -0.23678151
-0.10073725 0.128086 -0.23677349
-0.10053999 0.12807649 -0.23677017
-0.10039775 0.1280715 -0.236784
-0.1000905 0.1280655 -0.23684201
-0.099919498 0.12805849 -0.236836
-0.09977825 0.12805025 -0.23680501
-0.099605203 0.1280854 -0.2367578
-0.099459402 0.12810419 -0.23671821
-0.097912997 0.128141 -0.23671199
-0.089966998 0.12815399 -0.236738
-0.089741498 0.12814951 -0.23674801
-0.089533329 0.12813501 -0.23672898
-0.089390002 0.1281275 -0.2367215
-0.089180999 0.128117 -0.236727
-0.088913999 0.128048 -0.236845
-0.101145 0.128233 -0.236854
-0.10090175 0.1282555 -0.2368405
-0.10072801 0.12824576 -0.236836
-0.10053066 0.12823583 -0.23683351
-0.10038066 0.12821834 -0.23684299
-0.100085 0.12818301 -0.236871
-0.099630997 0.1282374 -0.2368454
-0.099439502 0.12825434 -0.23677599
-0.099284247 0.1282535 -0.2367225
-0.098206997 0.128298 -0.236702
-0.098024331 0.12827165 -0.23672168
-0.097878002 0.12826633 -0.23672466
-0.089959502 0.1282765 -0.23679599
-0.089733496 0.1282725 -0.23681299
-0.089538798 0.12825219 -0.23679599
-0.089397207 0.12825862 -0.23678501
-0.089171499 0.128245 -0.23682401
-0.100677 0.128363 -0.236873
-0.099416502 0.12839726 -0.23685525
-0.099251993 0.12842613 -0.23680498
-0.099082008 0.1284364 -0.23673721
-0.098890752 0.12845176 -0.23674351
-0.098690994 0.12845467 -0.23673134
-0.098543748 0.12843324 -0.23673101
-0.098374374 0.12842651 -0.23672998
-0.098200247 0.12841749 -0.23674598
-0.098031498 0.12841825 -0.23677349
-0.097855002 0.1284135 -0.23678501
-0.097669497 0.12843876 -0.23676901
-0.097483665 0.12850232 -0.23674965
-0.097379997 0.12848701 -0.236702
-0.090214998 0.128472 -0.236736
-0.090137497 0.1284325 -0.23675451
-0.089949995 0.1284385 -0.236866
-0.089772001 0.128397 -0.236875
-0.099249497 0.12855849 -0.23686999
-0.099046998 0.12860799 -0.23681735
-0.098880254 0.12861601 -0.23683351
-0.098695748 0.12860501 -0.23681599
-0.098534249 0.1285955 -0.23681027
-0.098364115 0.1285895 -0.23681387
-0.098189741 0.12858075 -0.2368315
-0.098036326 0.12856866 -0.236854
-0.097846501 0.12853751 -0.23686251
-0.097660497 0.128565 -0.236862
-0.09747567 0.12862499 -0.23681433
-0.097326599 0.128613 -0.23675561
-0.097186998 0.128635 -0.236708
-0.096159004 0.128668 -0.23671199
-0.096033998 0.12865999 -0.2367215
-0.095866002 0.12862666 -0.236726
-0.095716 0.128646 -0.236726
-0.090436667 0.12863232 -0.23673099
-0.090255998 0.1286014 -0.23677799
-0.090129003 0.128557 -0.23683199
-0.098646 0.128723 -0.23685899
-0.098555997 0.128719 -0.236865
-0.098329999 0.128711 -0.23687901
-0.098277003 0.12870599 -0.236875
-0.097275242 0.12876675 -0.2368335
-0.097131394 0.12877801 -0.23676781
-0.096956998 0.12882701 -0.23677725
-0.096780755 0.12881726 -0.23677251
-0.096566603 0.12879679 -0.23675421
-0.096393004 0.12880358 -0.23676801
-0.096214332 0.12879001 -0.23677067
-0.096026257 0.12878251 -0.2367785
-0.095840998 0.12877551 -0.2367955
-0.095664501 0.128766 -0.23679349
-0.095485665 0.12880601 -0.23677166
-0.095363997 0.12883334 -0.23674302
-0.090548001 0.12871701 -0.236745
-0.090442851 0.12876758 -0.23683201
-0.090298332 0.12874366 -0.23684566
-0.097237997 0.128883 -0.23684999
-0.097129501 0.128922 -0.23686451
-0.096901998 0.12895399 -0.23688
-0.096771002 0.12894499 -0.2368785
-0.096578002 0.128933 -0.2368575
-0.096395247 0.12892425 -0.23685277
-0.096204668 0.12891866 -0.23687632
-0.096018001 0.12890601 -0.2368505
-0.095834501 0.12889549 -0.236838
-0.095655501 0.12889099 -0.23687451
