-0.120791 -0.010373 0.992624 0
-0.121541 -0.0104138 0.992532 0
-0.121134 -0.0105117 0.992581 0
-0.12268 -0.0105933 0.99239 0
-0.12301 -0.0108537 0.992346 0
-0.124805 -0.010981 0.992121 0
-0.12402 -0.0109271 0.99222 0
-0.124302 -0.0109153 0.992184 0
-0.122606 -0.0108185 0.992396 0
-0.121167 -0.0107439 0.992574 0
-0.119207 -0.0106857 0.992812 0
-0.119116 -0.0105953 0.992824 0
-0.120453 -0.0105259 0.992663 0
-0.119439 -0.0102723 0.992788 0
-0.119305 -0.0100871 0.992806 0
-0.118162 -0.00989872 0.992945 0
-0.115532 -0.00981515 0.993255 0
-0.115446 -0.0095606 0.993268 0
-0.116217 -0.00932319 0.99318 0
-0.119144 -0.00903588 0.992836 0
-0.119843 -0.00884498 0.992753 0
-0.121615 -0.00867601 0.992539 0
-0.122231 -0.00855922 0.992465 0
-0.123342 -0.00835926 0.992329 0
-0.123024 -0.00812001 0.99237 0
-0.121137 -0.00777833 0.992605 0
-0.121498 -0.00756145 0.992563 0
-0.121757 -0.00728462 0.992533 0
-0.120585 -0.00704148 0.992678 0
-0.121421 -0.00682292 0.992578 0
-0.120078 -0.00671347 0.992742 0
-0.121071 -0.00651204 0.992623 0
-0.119892 -0.00633897 0.992767 0
-0.119951 -0.0061057 0.992761 0
-0.119579 -0.0059288 0.992807 0
-0.119446 -0.00579979 0.992824 0
-0.119068 -0.00575916 0.992869 0
-0.120326 -0.00567721 0.992718 0
-0.120408 -0.00551673 0.992709 0
-0.120782 -0.00538633 0.992664 0
-0.120048 -0.00529165 0.992754 0
-0.118074 -0.00515996 0.992991 0
-0.120255 -0.00515854 0.99273 0
-0.120721 -0.00513765 0.992673 0
-0.119388 -0.00507016 0.992835 0
-0.118593 -0.00505411 0.99293 0
-0.119419 -0.00498963 0.992831 0
-0.119157 -0.00490069 0.992863 0
-0.117159 -0.00483876 0.993101 0
-0.116819 -0.0047586 0.993142 0
-0.118482 -0.00468232 0.992945 0
-0.119444 -0.0045938 0.99283 0
-0.119659 -0.0044612 0.992805 0
-0.118196 -0.00441107 0.992981 0
-0.118071 -0.00432383 0.992996 0
-0.117301 -0.00424262 0.993087 6.81327e-05
-0.117762 -0.00424365 0.993033 0.000445151
-0.117763 -0.004149 0.993033 0
-0.116069 -0.00404678 0.993233 0
-0.113654 -0.00391324 0.993513 0
-0.113548 -0.003896 0.993525 0
-0.114798 -0.00382787 0.993382 0
-0.11684 -0.00386703 0.993143 0.00115262
-0.117012 -0.00381069 0.993123 0.00252935
-0.117708 -0.00371672 0.993041 0.00416681
-0.112557 -0.00358602 0.993639 0.00167544
-0.111013 -0.00344451 0.993813 0.00115081
-0.111824 -0.00333004 0.993722 0
-0.110251 -0.00318887 0.993899 0
-0.111819 -0.00310261 0.993724 0
-0.109571 -0.00298941 0.993974 0
-0.108362 -0.00294393 0.994107 0
-0.110818 -0.00298559 0.993836 0
-0.106533 -0.00295862 0.994305 0
-0.106684 -0.00300689 0.994288 0
-0.103762 -0.00300602 0.994598 0
-0.101627 -0.00307737 0.994818 0
-0.100813 -0.00319934 0.9949 0
-0.101253 -0.00321942 0.994855 0
-0.100325 -0.00342276 0.994949 0
-0.0986594 -0.00353622 0.995115 0
-0.0997592 -0.0035688 0.995005 0
-0.101524 -0.00367385 0.994826 0
-0.0991378 -0.00386278 0.995066 0
-0.0985215 -0.00380324 0.995128 0.00147561
-0.0988644 -0.00415155 0.995092 0.000148315
-0.100113 -0.00433398 0.994967 0.00125306
-0.10005 -0.00447194 0.994972 0.000285186
-0.0973294 -0.00469729 0.995241 0.000495642
-0.095909 -0.0048902 0.995378 0
-0.0949871 -0.00504307 0.995466 0
-0.0962828 -0.00505499 0.995341 0.000647434
-0.0958705 -0.00506686 0.995381 0
-0.0943875 -0.00514632 0.995522 0
-0.0938299 -0.00517504 0.995575 0
-0.0950463 -0.00520978 0.995459 0.00126754
-0.0937831 -0.00506194 0.99558 0.000827479
-0.09334 -0.00495186 0.995622 0
-0.0928448 -0.00483903 0.995669 0
-0.0923787 -0.00441206 0.995714 0
-0.0927926 -0.00406252 0.995677 0
-0.0938598 -0.00382639 0.995578 0
-0.0950442 -0.00349571 0.995467 0
-0.0940219 -0.00318721 0.995565 0
-0.0920903 -0.00271935 0.995747 0
-0.0895119 -0.00233757 0.995983 0
-0.0888756 -0.00178049 0.996041 0
-0.0898897 -0.00123457 0.995951 0
-0.0886122 -0.000945501 0.996066 0
-0.0869915 -0.000284418 0.996209 5.89351e-05
-0.0876772 0.000162653 0.996149 0
-0.0882913 0.000587392 0.996094 0.00145277
-0.0892674 0.000903791 0.996007 0.00221745
-0.0871938 0.00145119 0.99619 0
-0.0871179 0.00151057 0.996197 0.000187412
-0.0854023 0.00194043 0.996345 0
-0.0842063 0.00235182 0.996446 0
-0.0847057 0.00280107 0.996402 0
-0.0838163 0.00307832 0.996476 0
-0.0851969 0.0035637 0.996358 0
-0.0875369 0.00403124 0.996153 0.00144613
-0.085851 0.0043072 0.996299 0.000939641
-0.0862583 0.00482019 0.996261 0.00435782
-0.0862096 0.00523206 0.996263 0.00760898
-0.0848391 0.00535594 0.99638 0.0045358
-0.0847816 0.0056298 0.996384 0.0017436
-0.0832378 0.00614138 0.996511 0.00287252
-0.0851879 0.00645762 0.996344 0.00224942
-0.0821471 0.0067873 0.996597 0
-0.0812644 0.00719468 0.996667 0
-0.0811633 0.00708734 0.996676 0
-0.0822741 0.00713568 0.996584 0
-0.0814767 0.00684031 0.996652 0
-0.0807382 0.00700902 0.996711 0
-0.081587 0.00687645 0.996643 0
-0.078408 0.00686825 0.996898 0
-0.075665 0.00683347 0.99711 0
-0.0730944 0.00672249 0.997302 0
-0.0729326 0.00668288 0.997314 0
-0.0720407 0.00641469 0.997381 0
-0.0723481 0.00641647 0.997359 0
-0.0729761 0.0065202 0.997312 0
-0.071447 0.00642237 0.997424 0
-0.0729876 0.00623393 0.997313 0
-0.0742955 0.00670704 0.997214 0.00608205
-0.0723213 0.00631919 0.997361 0.00131309
-0.0728062 0.00591686 0.997329 0.00310316
-0.072364 0.00611091 0.99736 0.00518787
-0.0732373 0.00583555 0.997297 0.00401406
-0.0732985 0.0058612 0.997293 0.00317716
-0.0723564 0.00546315 0.997364 0.00260752
-0.0745483 0.00565351 0.997201 0.00521057
-0.0742177 0.00528288 0.997228 0.00351355
-0.0729408 0.00521557 0.997323 0.00284976
-0.0727643 0.0053891 0.997335 0.00321254
-0.0739543 -0.14831 0.986172 0.0124204
-0.0739126 -0.142546 0.987025 0.0116939
-0.0746255 -0.134532 0.988095 0.00751006
-0.0714791 -0.124884 0.989593 0.0020589
-0.0693481 -0.117868 0.990605 0
-0.0692214 -0.11366 0.991105 0
-0.07014 -0.111928 0.991238 0.00163323
-0.0710757 -0.111326 0.991239 0.00531046
-0.0728898 -0.11075 0.991172 0.00852028
-0.073846 -0.106893 0.991524 0.00718393
-0.0740425 -0.102679 0.991955 0.00574612
-0.0729791 -0.0982474 0.992482 0.00310626
-0.0724865 -0.0944424 0.992888 0
-0.0699213 -0.0903392 0.993454 0
-0.0704002 -0.0886178 0.993575 0
-0.0680683 -0.0852153 0.994035 0
-0.0689768 -0.0824727 0.994203 0
-0.0680493 -0.0795735 0.994504 0
-0.0683111 -0.0768527 0.9947 0
-0.069647 -0.0750199 0.994747 0
-0.0680412 -0.0737277 0.994955 0
-0.0693846 -0.0703381 0.995107 0
-0.069673 -0.0691757 0.995169 0
-0.0711119 -0.067976 0.995149 0
-0.0673322 -0.0647968 0.995624 0
-0.0702256 -0.0637446 0.995492 0
-0.0733123 -0.0624137 0.995354 0
-0.0737824 -0.0602725 0.995451 0
-0.0712954 -0.0586183 0.995731 0
-0.073485 -0.0570277 0.995664 0
-0.076266 -0.0568547 0.995465 0
-0.0759945 -0.0542428 0.995632 0
-0.0765308 -0.0521135 0.995704 0
-0.0763895 -0.0507336 0.995787 0
-0.0770267 -0.0499035 0.995779 0
-0.076719 -0.0494676 0.995825 0.000471928
-0.076996 -0.0489952 0.995827 0
-0.0791328 -0.0479333 0.995711 0.000867355
-0.0797226 -0.0469584 0.99571 0.00274193
-0.0800087 -0.0456916 0.995746 0.000266852
-0.0811703 -0.0445938 0.995702 0.00215537
-0.0815036 -0.0426787 0.995759 0
-0.0798376 -0.0409892 0.995965 2.61591e-05
-0.0800983 -0.0393111 0.996011 0
-0.0821373 -0.0377525 0.995906 0
-0.082803 -0.0354884 0.995934 0
-0.0814411 -0.0335693 0.996113 0
-0.0799027 -0.0317422 0.996297 0
-0.0827312 -0.0306561 0.9961 0
-0.0865615 -0.0292099 0.995818 0.00208871
-0.0869205 -0.0269306 0.995851 0.00258613
-0.087 -0.0250221 0.995894 0.00220986
-0.0872155 -0.0242085 0.995895 0.00433578
-0.0880072 -0.0225802 0.995864 0.0038738
-0.0884993 -0.0204444 0.995866 0.00327933
-0.0870839 -0.018648 0.996026 0.000859629
-0.0864903 -0.0167196 0.996112 0
-0.0876696 -0.0150927 0.996035 0.00027195
-0.0913488 -0.0139597 0.995721 0.00489
-0.0905245 -0.0116184 0.995826 0.00290431
-0.0940115 -0.0103741 0.995517 0.00606759
-0.095794 -0.00920671 0.995359 0.00714721
-0.0952483 -0.00808106 0.995421 0.00660936
-0.0964546 -0.00745461 0.99531 0.00652321
-0.0965494 -0.00674318 0.995305 0.00697888
-0.0970665 -0.0051729 0.995264 0.00394194
-0.0988132 -0.00412593 0.995097 0.00669666
-0.102261 -0.00410759 0.994749 0.00993607
-0.104331 -0.00209099 0.99454 0.012167
-0.104861 -0.00123659 0.994486 0.0105412
-0.103411 -0.000775913 0.994638 0.0100757
-0.104312 -0.000998405 0.994544 0.0109155
-0.105792 -0.00038019 0.994388 0.0114678
-0.105447 -0.00103657 0.994424 0.0091859
-0.105527 -0.000909816 0.994416 0.00798373
-0.102722 -0.00105005 0.99471 0.00271964
-0.101006 -0.000619824 0.994886 0.000109768
-0.102198 -0.00100335 0.994764 0.00117088
-0.103629 -0.00132293 0.994615 0.00328678
-0.100423 -0.000661556 0.994945 0
-0.100888 -0.00149257 0.994897 0
-0.102996 -0.00243517 0.994679 0.000270718
-0.102612 -0.0025966 0.994718 0
-0.102793 -0.00306189 0.994698 8.92047e-05
-0.101688 -0.00371193 0.994809 0
-0.102738 -0.00415775 0.9947 0.00082541
-0.102936 -0.00432417 0.994678 0.00251289
-0.103747 -0.00402351 0.994596 0
-0.104615 -0.00499593 0.9945 0
-0.10416 -0.00589333 0.994543 0
-0.103458 -0.00651368 0.994612 0
-0.101574 -0.00702582 0.994803 0
-0.0992438 -0.00727261 0.995037 0
-0.0984763 -0.00773948 0.995109 0
-0.0993715 -0.00770222 0.995021 0
-0.100853 -0.00865905 0.994864 0.00107575
-0.103449 -0.0100641 0.994584 0.00614869
-0.105334 -0.0113009 0.994373 0.00895481
-0.106233 -0.0117035 0.994272 0.00779377
-0.107488 -0.0119537 0.994135 0.00616146
-0.106109 -0.0127601 0.994273 0.00474391
-0.104669 -0.0130205 0.994422 0.00658634
-0.105173 -0.0129615 0.99437 0.00217239
-0.107896 -0.0143072 0.994059 0.00502789
-0.110172 -0.0150932 0.993798 0.00569261
-0.111924 -0.0154181 0.993597 0.0075832
-0.113013 -0.0163329 0.993459 0.00851375
-0.113118 -0.0167598 0.99344 0.00756755
-0.115723 -0.0175842 0.993126 0.010957
-0.118779 -0.0184998 0.992748 0.0109018
-0.118023 -0.0182858 0.992843 0.00964812
-0.115832 -0.0178222 0.993109 0.00687547
-0.115595 -0.0175484 0.993141 0.00567573
-0.114924 -0.01779 0.993215 0.00148634
-0.116596 -0.0187989 0.993001 0.00363765
-0.113947 -0.0185847 0.993313 0.000929941
-0.112072 -0.0186603 0.993525 0
-0.111253 -0.018521 0.99362 0
-0.111246 -0.0190409 0.99361 1.74325e-05
-0.112019 -0.0187565 0.993529 0
-0.110761 -0.0187197 0.993671 0.0021858
-0.109848 -0.0188795 0.993769 0.00257723
-0.109509 -0.0188722 0.993807 0.00354803
-0.112372 -0.0194974 0.993475 0.00965028
-0.112542 -0.0192164 0.993461 0.00608912
-0.112266 -0.0193872 0.993489 0.00624034
-0.11221 -0.0194735 0.993494 0.0065142
-0.112281 -0.0198072 0.993479 0.00805208
-0.112369 -0.0199437 0.993466 0.00966384
-0.112996 -0.0201954 0.99339 0.00823342
-0.114253 -0.0205502 0.993239 0.0109701
-0.114327 -0.0205291 0.993231 0.0115835
-0.116231 -0.020761 0.993005 0.0138044
-0.118435 -0.0209889 0.99274 0.0136351
-0.117064 -0.0206872 0.992909 0.0112951
-0.11767 -0.0209455 0.992832 0.0113153
-0.120139 -0.021274 0.992529 0.0128696
-0.120984 -0.0213027 0.992426 0.0117113
-0.11914 -0.0214128 0.992646 0.0114907
-0.122977 -0.0217092 0.992172 0.0134892
-0.124153 -0.0219357 0.992021 0.0144994
-0.12159 -0.0219654 0.992337 0.0147139
-0.121748 -0.0219246 0.992319 0.0140336
-0.124259 -0.0220762 0.992004 0.0160784
-0.124303 -0.0222081 0.991996 0.0137734
-0.122509 -0.0224475 0.992213 0.0151381
-0.125421 -0.0226656 0.991845 0.0151187
-0.124745 -0.022683 0.99193 0.0160699
-0.122628 -0.0226438 0.992194 0.0166938
-0.122998 -0.022525 0.992151 0.0157481
-0.122256 -0.0227232 0.992238 0.0186378
-0.123146 -0.0224502 0.992135 0.0189107
-0.122808 -0.0224901 0.992176 0.0186894
-0.121922 -0.0222466 0.99229 0.0157481
-0.122057 -0.0222426 0.992274 0.0148396
-0.121457 -0.0220145 0.992353 0.0157993
-0.119858 -0.0217144 0.992554 0.013923
-0.1199 -0.0216655 0.99255 0.0119113
-0.119772 -0.0212735 0.992573 0.0109667
-0.118302 -0.0209079 0.992758 0.00945661
-0.119046 -0.0213622 0.992659 0.00901623
-0.117497 -0.0213421 0.992844 0.00643267
-0.116743 -0.0207848 0.992945 0.00162539
-0.116673 -0.0208664 0.992951 0.00252991
-0.114596 -0.0205864 0.993199 0.00122578
-0.113823 -0.0206992 0.993285 0.00277351
-0.112896 -0.0203777 0.993398 0.000725953
-0.113499 -0.020606 0.993324 0
-0.113637 -0.0205718 0.993309 0
-0.113729 -0.0202204 0.993306 2.89095e-05
-0.114537 -0.0203937 0.99321 0.00160989
-0.11502 -0.0203574 0.993155 0.00248109
-0.115324 -0.0197302 0.993132 0
-0.117772 -0.0203232 0.992833 0.00445461
-0.116673 -0.0201137 0.992967 0.0028079
-0.116313 -0.0196516 0.993018 0.00166555
-0.11493 -0.0191349 0.993189 1.48578e-05
-0.115442 -0.0189881 0.993133 0
-0.113958 -0.0186466 0.993311 0
-0.114375 -0.0183868 0.993268 0
-0.114349 -0.0182489 0.993273 0
-0.115183 -0.0185716 0.993171 0.00184363
-0.116752 -0.0188059 0.992983 0.00342528
-0.115796 -0.0186428 0.993098 0.00338886
-0.115969 -0.0184958 0.993081 0.00209817
-0.113985 -0.0181142 0.993317 0.00159956
-0.112334 -0.0177029 0.993513 0
-0.113287 -0.017426 0.993409 0
-0.113081 -0.01724 0.993436 0.000104885
-0.112691 -0.0172877 0.99348 0
-0.113297 -0.0172797 0.993411 0
-0.112558 -0.0170376 0.993499 0
-0.114335 -0.0167904 0.9933 0
-0.115261 -0.0165226 0.993198 0
-0.114333 -0.0164324 0.993307 0
-0.114387 -0.0160909 0.993306 0
-0.116095 -0.0156787 0.993114 0
-0.116008 -0.0152548 0.993131 0
-0.118207 -0.0148385 0.992878 0
-0.119279 -0.0145568 0.992754 0
-0.119604 -0.0139703 0.992723 0
-0.116272 -0.0137448 0.993122 0
-0.118466 -0.0142259 0.992856 0.000123781
-0.121286 -0.0143119 0.992514 0.00410664
-0.121998 -0.0143881 0.992426 0.00480969
-0.120578 -0.0141396 0.992603 0.00414124
-0.122754 -0.0144639 0.992332 0.00938917
-0.122746 -0.0142213 0.992336 0.00826507
-0.129065 -0.0142285 0.991534 0.0119861
-0.130113 -0.0141052 0.991399 0.0132092
-0.128894 -0.0137999 0.991562 0.0121382
-0.126445 -0.0133822 0.991883 0.00950831
-0.127288 -0.0139041 0.991768 0.0118918
-0.132561 -0.0140774 0.991075 0.0169449
-0.131476 -0.013901 0.991222 0.0152182
-0.129721 -0.0142595 0.991448 0.0154226
-0.129867 -0.0146534 0.991423 0.0158719
-0.130299 -0.0149503 0.991362 0.0163353
-0.13244 -0.0150785 0.991076 0.0169566
-0.13133 -0.0149447 0.991226 0.0150123
-0.131816 -0.0149721 0.991161 0.0139744
-0.13281 -0.014829 0.99103 0.0166137
-0.131035 -0.0147269 0.991268 0.0159608
-0.130458 -0.0148034 0.991343 0.0134701
-0.132209 -0.0150063 0.991108 0.0149597
-0.131679 -0.014636 0.991184 0.0141418
-0.132476 -0.0147382 0.991077 0.0128144
-0.131813 -0.0143319 0.991171 0.0121253
-0.132004 -0.0144037 0.991145 0.0100226
-0.135894 -0.0142884 0.99062 0.0114226
-0.135438 -0.0143472 0.990682 0.00949143
-0.135162 -0.0142724 0.990721 0.00894473
-0.13409 -0.0142004 0.990867 0.0108056
-0.132122 -0.0140685 0.991134 0.0079721
-0.132082 -0.0135498 0.991146 0.00339755
-0.132143 -0.0134606 0.991139 0.00119335
-0.129285 -0.0132719 0.991519 0
-0.127641 -0.0130864 0.991734 0
-0.128572 -0.0131561 0.991613 0
-0.126702 -0.0131196 0.991854 0
-0.127199 -0.0131763 0.99179 0
-0.127641 -0.0130423 0.991735 0
-0.127679 -0.0130634 0.991729 0.000789783
-0.127168 -0.0130927 0.991795 0.0025489
-0.128197 -0.0127868 0.991666 0.00111306
-0.126251 -0.0126768 0.991917 0
-0.12521 -0.0126217 0.99205 0
-0.122994 -0.0123819 0.99233 0
-0.123721 -0.012565 0.992238 0
-0.121318 -0.0123116 0.992537 0
-0.118877 -0.0121275 0.992835 0
-0.118213 -0.0120437 0.992915 0
-0.119173 -0.0119858 0.992801 0
-0.120174 -0.0119788 0.992681 0.00223337
-0.120572 -0.0117314 0.992635 0.00179086
-0.119794 -0.0116376 0.992731 0.00166254
-0.12037 -0.0114322 0.992663 0.00264837
-0.12 -0.0114246 0.992708 0.00303533
-0.120187 -0.0113956 0.992686 0.00292074
-0.120104 -0.011321 0.992697 0.0014305
-0.119633 -0.0112568 0.992754 0.00338604
-0.116848 -0.0110478 0.993088 0
-0.118804 -0.0112425 0.992854 0.000695886
-0.119169 -0.0112126 0.992811 0.00148803
-0.121284 -0.0112838 0.992554 0.0023551
-0.120086 -0.0112108 0.9927 0.00283286
-0.119117 -0.0112565 0.992816 0.00278543
-0.117507 -0.0111684 0.993009 0.000428429
-0.117155 -0.0111966 0.993051 0.00116542
-0.117303 -0.0110699 0.993034 0
-0.117575 -0.0109697 0.993003 0.000456361
-0.118812 -0.0109994 0.992856 0.00280221
-0.11768 -0.0109304 0.992991 0.00116702
-0.117108 -0.0108628 0.99306 0.00152144
-0.117285 -0.0109407 0.993038 0.00216008
-0.119793 -0.0110003 0.992738 0.00425373
-0.119375 -0.0109923 0.992788 0.00356866
-0.120305 -0.0110226 0.992676 0.00444266
-0.120621 -0.0109227 0.992639 0.00516346
-0.119963 -0.0108087 0.99272 0.0041089
-0.119236 -0.0107382 0.992808 0.0046073
-0.119349 -0.01065 0.992795 0.00290691
-0.120221 -0.0105543 0.992691 0.00264906
-0.118445 -0.0104484 0.992906 0.000979282
-0.114301 -0.0103638 0.993392 0
-0.115131 -0.0104022 0.993296 0
-0.115341 -0.0106279 0.993269 0
-0.117118 -0.0106803 0.993061 0
-0.11543 -0.0105046 0.99326 0
-0.115304 -0.0105491 0.993274 0
-0.112536 -0.0105827 0.993591 0
-0.111402 -0.0107034 0.993718 0
-0.111642 -0.0107574 0.99369 0
-0.111774 -0.0109516 0.993673 0
-0.114165 -0.0111202 0.9934 0
-0.113357 -0.011185 0.993491 0
-0.113731 -0.0113046 0.993447 0
-0.115345 -0.0114376 0.99326 0
-0.115395 -0.0115409 0.993253 0
-0.115801 -0.0117627 0.993203 0
-0.116232 -0.0117183 0.993153 0
-0.115397 -0.0115672 0.993252 0
-0.115773 -0.0115362 0.993209 0
-0.11685 -0.0117029 0.993081 0
-0.116866 -0.0114666 0.993081 0
-0.117342 -0.0115219 0.993025 0
-0.116014 -0.0113828 0.993182 0
-0.11623 -0.0113375 0.993158 0
-0.115613 -0.0109809 0.993234 0
-0.115438 -0.0108814 0.993255 0
-0.114382 -0.0106154 0.99338 0
-0.113099 -0.0103137 0.99353 0
-0.113823 -0.0101717 0.993449 0
-0.113738 -0.0099611 0.993461 0
-0.115697 -0.00969409 0.993237 0
-0.114399 -0.00949715 0.993389 0
-0.112785 -0.00914135 0.993577 0
-0.112862 -0.00892093 0.993571 0
-0.113799 -0.00868035 0.993466 0
-0.115337 -0.00849446 0.99329 0
-0.115363 -0.00826571 0.993289 0
-0.115032 -0.00802379 0.993329 0
-0.115088 -0.00770537 0.993325 0
-0.115601 -0.00746851 0.993268 0
-0.115946 -0.00717934 0.99323 0
-0.116657 -0.00691724 0.993148 0
-0.115368 -0.00665426 0.993301 0
-0.115902 -0.0064628 0.99324 0
-0.115245 -0.00619844 0.993318 0
-0.11744 -0.00597837 0.993062 0
-0.112997 -0.00567544 0.993579 0
-0.114528 -0.0054605 0.993405 0
-0.115472 -0.00530318 0.993297 0
-0.114326 -0.00497231 0.993431 0
-0.115298 -0.00482691 0.993319 0
-0.114319 -0.00457539 0.993434 0
-0.113614 -0.00428348 0.993516 0
-0.113087 -0.00401636 0.993577 0
-0.11457 -0.00383083 0.993408 0
-0.114545 -0.00367385 0.993411 0
-0.115868 -0.00353547 0.993258 0
-0.113858 -0.0033644 0.993491 0
-0.111 -0.00318485 0.993815 0
-0.114363 -0.00310102 0.993434 0
-0.116006 -0.00300106 0.993244 0
-0.119357 -0.00283202 0.992847 0
-0.11983 -0.00254274 0.992791 0.00290275
-0.119477 -0.00238871 0.992834 0.00442668
-0.118027 -0.00219517 0.993008 0.00332315
-0.118225 -0.00198375 0.992985 0.00362379
-0.11705 -0.00188832 0.993124 0.00427624
-0.112331 -0.0016754 0.993669 0.00292675
-0.111205 -0.00152434 0.993796 0.00188316
-0.112664 -0.00134112 0.993632 0.00329595
-0.110729 -0.00115963 0.99385 0.00317832
-0.109198 -0.00101149 0.99402 0.00481922
-0.107216 -0.00084041 0.994235 0.00521232
-0.106972 -0.000653023 0.994262 0.00703512
-0.106872 -0.000469604 0.994273 0.00706164
-0.105605 -0.000293571 0.994408 0.00537449
-0.104648 -0.000201003 0.994509 0.00587766
-0.104198 -5.05071e-05 0.994557 0.00537165
-0.0996808 0.000111358 0.995019 0.00157944
-0.0989881 0.00024012 0.995089 0
-0.0995314 0.000394295 0.995034 0
-0.0995406 0.000538995 0.995033 0.00151063
-0.0992688 0.000600736 0.995061 0.00337745
-0.0987052 0.000760219 0.995116 0.00395258
-0.100166 0.000789069 0.99497 0.00304702
-0.0979429 0.00073825 0.995192 0.00558317
-0.0988307 0.000751927 0.995104 0.0057198
-0.0975357 0.000780624 0.995232 0.0064516
-0.0953077 0.000730599 0.995448 0.00606331
-0.0952046 0.000641115 0.995457 0.00412574
-0.0929241 0.000555827 0.995673 0.00087483
-0.0919461 0.000446426 0.995764 0
-0.0917911 0.000347302 0.995778 0.000289211
-0.09066 0.000215496 0.995882 0
-0.0939613 0.000116799 0.995576 0.00285794
-0.0926251 -1.63588e-05 0.995701 0.00336515
-0.0913743 -0.00039069 0.995817 0.00289126
-0.0909615 -0.00066035 0.995854 0.00334495
-0.090147 -0.000804444 0.995928 0.00413616
-0.0911271 -0.000849924 0.995839 0.00308752
-0.0897041 -0.00106242 0.995968 0.00279004
-0.0860763 -0.00138008 0.996288 0
-0.0855265 -0.00157204 0.996335 0.00115566
-0.0835691 -0.00178225 0.9965 0.00161533
-0.0832514 -0.00190346 0.996527 0.00208037
-0.0816391 -0.0020883 0.99666 0.000728931
-0.0795824 -0.00207167 0.996826 0
-0.0763161 -0.00206338 0.997082 0
-0.0761137 -0.00212093 0.997097 0
-0.0769555 -0.00221757 0.997032 0
-0.0758867 -0.00202429 0.997114 0
-0.0741555 -0.00215695 0.997244 0
-0.0705952 -0.00195613 0.997503 0
-0.0717469 -0.00180563 0.997421 0
-0.0720333 -0.00176943 0.997401 0
-0.0728498 -0.00149842 0.997342 0
-0.0726228 -0.00119067 0.997359 0
-0.0704249 -0.00102689 0.997517 0
-0.0703767 -0.000885838 0.99752 0
-0.0708018 -0.000624557 0.99749 0
-0.0705121 -0.000423182 0.997511 0
-0.0693724 -0.000366264 0.997591 0
-0.0682946 -0.000202113 0.997665 0
-0.0679415 3.18596e-05 0.997689 0
-0.0691274 0.000474622 0.997608 0
-0.067402 0.000505128 0.997726 0
-0.0684747 0.000469862 0.997653 0
-0.0678466 0.000755626 0.997695 0
-0.0676421 0.000991352 0.997709 0
-0.0662096 0.00138896 0.997805 0
-0.0668904 0.00149998 0.997759 0
-0.0659563 0.00163913 0.997821 3.30447e-05
-0.0659085 0.00166625 0.997824 0.00211497
-0.0651061 0.00132383 0.997878 0
-0.0625964 0.00140516 0.998038 0
-0.0629681 0.00119826 0.998015 0.000198402
-0.0631571 0.00129875 0.998003 0.00348308
-0.0635662 0.00133976 0.997977 0.000409406
-0.06305 0.00152217 0.998009 0
-0.0633741 0.00158413 0.997989 0.000941998
-0.0625863 0.00121417 0.998039 0
-0.0622262 0.00104278 0.998061 0
-0.0633951 0.000888232 0.997988 0
-0.0607774 0.00066442 0.998151 0
-0.0594876 0.000354427 0.998229 0
-0.0594615 -1.6972e-05 0.998231 0
-0.0592022 -0.0001219 0.998246 0
-0.0561493 -0.000549587 0.998422 0
-0.0549402 -0.000983438 0.998489 0
-0.0559348 -0.00107185 0.998434 0
-0.0571861 -0.00153238 0.998362 0
-0.0564913 -0.00206452 0.998401 0
-0.0562117 -0.00257591 0.998416 0
-0.056531 -0.00282061 0.998397 0
-0.0557084 -0.00310143 0.998442 0
-0.0556394 -0.00352298 0.998445 0
-0.0562965 -0.00412042 0.998406 0
-0.0568042 -0.00417183 0.998377 0.000858547
-0.0582038 -0.00469836 0.998294 0.00412358
-0.0582875 -0.00506005 0.998287 0.00563917
-0.0584682 -0.00555104 0.998274 0.00331324
-0.059197 -0.00613917 0.998227 0.00531846
-0.057944 -0.00651917 0.998298 0.0067264
-0.05822 -0.00701369 0.998279 0.00656989
-0.0488778 -0.157234 0.986351 0
-0.047483 -0.153446 0.987016 0
-0.0468416 -0.146798 0.988057 0
-0.0484484 -0.142602 0.988594 0
-0.048085 -0.139514 0.989052 0
-0.0479228 -0.133763 0.989854 0
-0.0505572 -0.132693 0.989867 0.00507798
-0.0514572 -0.131874 0.98993 0.00697615
-0.0514636 -0.128234 0.990408 0.00672288
-0.0504568 -0.12328 0.991088 0.00567107
-0.0521457 -0.12163 0.991205 0.00915459
-0.0520356 -0.117994 0.99165 0.00758219
-0.0508437 -0.113643 0.99222 0.00321533
-0.0513862 -0.111966 0.992383 0.00341341
-0.0540072 -0.110191 0.992442 0.00709121
-0.0546382 -0.108568 0.992586 0.00836792
-0.0523805 -0.105136 0.993077 0.00592159
-0.0528513 -0.102317 0.993347 0.00683016
-0.0515765 -0.0989709 0.993753 0.00401553
-0.0549334 -0.099493 0.993521 0.011244
-0.0550353 -0.0958377 0.993874 0.00977193
-0.0525046 -0.091607 0.99441 0.0040406
-0.0520386 -0.0876411 0.994792 0.000719383
-0.0519997 -0.0866845 0.994878 0.00357421
-0.0543551 -0.0862032 0.994794 0.00850215
-0.0546081 -0.0834574 0.995014 0.00684903
-0.0547148 -0.0810123 0.99521 0.00420391
-0.053954 -0.078938 0.995418 0.00344841
-0.055492 -0.0783653 0.995379 0.00737523
-0.0542002 -0.0755811 0.995665 0.00425583
-0.0542198 -0.0738255 0.995796 0.00225189
-0.0564805 -0.0710454 0.995873 0
-0.0586825 -0.0689184 0.995895 0
-0.0592836 -0.0680509 0.995919 0
-0.0577171 -0.0665488 0.996112 0
-0.0583477 -0.0652311 0.996163 0
-0.0589142 -0.0644958 0.996177 0.00236401
-0.0601776 -0.0633473 0.996176 0.00430465
-0.0592986 -0.0619853 0.996314 0.00355055
-0.0603526 -0.0602446 0.996357 0.00129088
-0.0620347 -0.0602822 0.996252 0.00949091
-0.0635794 -0.0583784 0.996268 0.00920633
-0.0629906 -0.0565502 0.996411 0.00401633
-0.0630655 -0.0555992 0.996459 0.00268321
-0.0608943 -0.0543964 0.996661 0.00294845
-0.0605422 -0.0539192 0.996708 0.00312587
-0.0639618 -0.0533981 0.996523 0.00579076
-0.0617277 -0.052099 0.996732 0.00216113
-0.0586147 -0.0511603 0.996969 0
-0.0579328 -0.0500357 0.997066 0
-0.0576322 -0.0495895 0.997106 0
-0.0588995 -0.0487123 0.997075 0
-0.0568402 -0.0479437 0.997231 0
-0.0567469 -0.0469671 0.997283 0
-0.0556891 -0.0456564 0.997404 0
-0.0539554 -0.0445406 0.997549 0
-0.0573849 -0.043244 0.997415 0
-0.058505 -0.0416148 0.997419 0
-0.0600902 -0.0389427 0.997433 0
-0.0603336 -0.0361304 0.997524 0
-0.0591402 -0.0343504 0.997658 0
-0.0578769 -0.0329164 0.997781 0
-0.0605131 -0.0308238 0.997691 0
-0.0599323 -0.0282334 0.997803 0
-0.0612542 -0.0265144 0.99777 0
-0.0645745 -0.0248041 0.997605 0
-0.0683353 -0.0227061 0.997404 0
-0.0705531 -0.0215307 0.997276 0.00111343
-0.0726311 -0.0205412 0.997147 0.00185749
-0.0726003 -0.0191052 0.997178 0.00166683
-0.0743914 -0.0182999 0.997061 0.00620749
-0.0752473 -0.0181064 0.997001 0.0068528
-0.0756366 -0.017312 0.996985 0.00619969
-0.0774953 -0.0165726 0.996855 0.00623737
-0.0827711 -0.0170193 0.996423 0.0113473
-0.0892764 -0.0165126 0.99587 0.0106803
-0.0887155 -0.0167218 0.995917 0.0103746
-0.0853816 -0.0162168 0.996216 0.00589036
-0.0899838 -0.0167319 0.995803 0.00820352
-0.0901768 -0.0172238 0.995777 0.00829375
-0.0905035 -0.0174591 0.995743 0.00565711
-0.09225 -0.0181711 0.99557 0.0079934
-0.0919295 -0.0185417 0.995593 0.00692318
-0.0949599 -0.0189268 0.995301 0.00784279
-0.0972451 -0.0180684 0.995096 0.00854549
-0.0970072 -0.0178808 0.995123 0.00992898
-0.0978949 -0.0180209 0.995034 0.00956186
-0.099421 -0.0182594 0.994878 0.0114309
-0.101874 -0.0188528 0.994619 0.0130172
-0.103107 -0.0190336 0.994488 0.0113573
-0.104213 -0.0187809 0.994378 0.0127809
-0.105106 -0.0188532 0.994282 0.0142622
-0.105668 -0.0191905 0.994216 0.0135182
-0.106879 -0.0190529 0.99409 0.0138134
-0.107207 -0.0184556 0.994065 0.00918949
-0.107589 -0.0186757 0.99402 0.0107343
-0.104552 -0.018373 0.99435 0.00545262
-0.106804 -0.0189869 0.994099 0.00745202
-0.104921 -0.0191441 0.994296 0.00535045
-0.10287 -0.0192569 0.994508 0.00453339
-0.105782 -0.0193923 0.9942 0.00320678
-0.103927 -0.0199874 0.994384 0.00474109
-0.105633 -0.0201282 0.994201 0.00906669
-0.10601 -0.0209834 0.994144 0.0105816
-0.106122 -0.0205649 0.99414 0.0107205
-0.110001 -0.0215262 0.993698 0.013348
-0.110278 -0.0218675 0.99366 0.0155437
-0.107896 -0.0212018 0.993936 0.01274
-0.105175 -0.0220677 0.994209 0.0143519
-0.106244 -0.0221972 0.994092 0.013801
-0.103711 -0.0222504 0.994358 0.0117464
-0.0996161 -0.0219695 0.994783 0.00848873
-0.1006 -0.0222123 0.994679 0.0119115
-0.0996688 -0.0223158 0.99477 0.00920269
-0.101605 -0.0223875 0.994573 0.00887348
-0.104661 -0.0226996 0.994249 0.0105592
-0.103383 -0.0229221 0.994378 0.00943958
-0.103325 -0.0236447 0.994367 0.0103945
-0.104667 -0.0236414 0.994226 0.00965798
-0.109348 -0.0241069 0.993711 0.0104634
-0.109365 -0.0244086 0.993702 0.00988814
-0.107463 -0.0243534 0.993911 0.00863986
-0.105188 -0.0245978 0.994148 0.00737399
-0.100833 -0.0242427 0.994608 0.000576567
-0.104653 -0.024768 0.9942 0.000452632
-0.105939 -0.0249164 0.99406 0
-0.10993 -0.0251246 0.993622 0
-0.111695 -0.0258955 0.993405 0.00424563
-0.111083 -0.0260946 0.993469 0.00452017
-0.115564 -0.026377 0.99295 0.00363317
-0.116955 -0.0267388 0.992777 0.0038514
-0.113072 -0.0265101 0.993233 0.000577226
-0.113553 -0.0270444 0.993164 0.000410643
-0.117114 -0.0270501 0.99275 0
-0.118809 -0.0271911 0.992545 0
-0.121954 -0.0276784 0.99215 0.00138917
-0.121838 -0.0280819 0.992153 0.00142931
-0.118989 -0.0282985 0.992492 0.00314765
-0.117176 -0.0279018 0.992719 0.0021112
-0.122223 -0.027936 0.992109 0.0046227
-0.124363 -0.0281865 0.991836 0.00736198
-0.126387 -0.028313 0.991577 0.0105741
-0.127639 -0.0284896 0.991412 0.0134155
-0.126852 -0.0284619 0.991513 0.0157491
-0.129013 -0.0285991 0.99123 0.0182569
-0.129309 -0.0284038 0.991197 0.019038
-0.129676 -0.0280678 0.991159 0.0198305
-0.126927 -0.0278632 0.991521 0.0211582
-0.122912 -0.0269255 0.992052 0.0202141
-0.128112 -0.0266487 0.991402 0.0218013
-0.128107 -0.0257709 0.991425 0.0205843
-0.124514 -0.0246542 0.991912 0.0170049
-0.122453 -0.0234719 0.992197 0.0155574
-0.122854 -0.0226151 0.992167 0.0143834
-0.122041 -0.0220129 0.992281 0.0131853
-0.119322 -0.0210357 0.992633 0.00884926
-0.1141 -0.0199528 0.993269 0.0046182
-0.115557 -0.0194505 0.99311 0.00755475
-0.113721 -0.0192315 0.993326 0.00584593
-0.114838 -0.0190439 0.993202 0.00586967
-0.113973 -0.0186785 0.993308 0.00680204
-0.113659 -0.0186169 0.993345 0.00708729
-0.107891 -0.0184477 0.993992 0.00171821
-0.104229 -0.0181901 0.994387 0
-0.102511 -0.0182797 0.994564 0
-0.103713 -0.0177877 0.994448 0
-0.104542 -0.0179833 0.994358 0.000703519
-0.101376 -0.0178932 0.994687 0.000923873
-0.100347 -0.0174602 0.994799 0.000295358
-0.100118 -0.017026 0.99483 0
-0.102738 -0.0172306 0.994559 0.00118871
-0.102025 -0.0173348 0.994631 0.000518606
-0.102925 -0.0176937 0.994532 0.00114368
-0.103568 -0.0176394 0.994466 0.00235601
-0.103661 -0.0179132 0.994451 0.0011242
-0.100829 -0.0178416 0.994744 0
-0.0999379 -0.0183528 0.994824 0
-0.0997943 -0.0188733 0.994829 0
-0.0989404 -0.0194406 0.994903 0
-0.101857 -0.0201067 0.994596 0
-0.1013 -0.0206915 0.994641 0
-0.099798 -0.0209615 0.994787 0
-0.0995878 -0.0211938 0.994803 0
-0.100476 -0.0210441 0.994717 0
-0.100253 -0.0212115 0.994736 0
-0.102345 -0.0215167 0.994516 0.0012155
-0.10027 -0.0216037 0.994726 0
-0.0997523 -0.0218526 0.994772 0
-0.103928 -0.0220464 0.99434 0
-0.10379 -0.0222102 0.994351 0
-0.105127 -0.0224432 0.994206 0.00137058
-0.104626 -0.0219933 0.994268 0
-0.105025 -0.02194 0.994228 0.00432543
-0.106059 -0.0220199 0.994116 0.00374367
-0.103718 -0.0223505 0.994356 0.00354731
-0.105089 -0.021932 0.994221 0.00162387
-0.108747 -0.0211669 0.993844 0
-0.106992 -0.0209583 0.994039 0.000634849
-0.109368 -0.0210478 0.993779 0.0013224
-0.108251 -0.0214069 0.993893 0.00299579
-0.111544 -0.0212569 0.993532 0.00474849
-0.114953 -0.0212593 0.993143 0.00582748
-0.113113 -0.0211887 0.993356 0.00349893
-0.113272 -0.0206292 0.99335 0.000944614
-0.113876 -0.020639 0.993281 0.00434092
-0.114119 -0.0207013 0.993251 0.00574932
-0.114796 -0.020124 0.993185 0.00427798
-0.115826 -0.0194827 0.993078 0.00396467
-0.118201 -0.0192783 0.992803 0.00532057
-0.119682 -0.0191312 0.992628 0.00615012
-0.118087 -0.0184632 0.992832 0.00260257
-0.11851 -0.0181261 0.992787 0.00185114
-0.118079 -0.0179726 0.992841 0.00160276
-0.122182 -0.0175548 0.992352 0.00567509
-0.124025 -0.016728 0.992138 0.00408436
-0.120178 -0.0158044 0.992627 0.000337651
-0.120208 -0.0149526 0.992636 0
-0.116724 -0.0145261 0.993058 0
-0.11673 -0.0138061 0.993068 0
-0.119636 -0.0127387 0.992736 0
-0.119348 -0.0122445 0.992777 0
-0.119124 -0.0118118 0.992809 0
-0.116988 -0.0118248 0.993063 0
-0.116747 -0.011587 0.993094 0
-0.115968 -0.0112721 0.993189 0
-0.113467 -0.0106929 0.993484 0
-0.112334 -0.0104496 0.993616 0
-0.112966 -0.00984207 0.99355 0
-0.111887 -0.00978075 0.993673 0
-0.115417 -0.00935593 0.993273 0.00182746
-0.114769 -0.00871054 0.993354 0.0034596
-0.116908 -0.00835795 0.993107 0.00498692
-0.116264 -0.00824854 0.993184 0.00623446
-0.112545 -0.00790266 0.993615 0.00590245
-0.112875 -0.00774824 0.993579 0.00502936
-0.116047 -0.00761514 0.993214 0.00719705
-0.116153 -0.00773065 0.993201 0.0111428
-0.11919 -0.00787122 0.99284 0.0131192
-0.114214 -0.00803622 0.993424 0.0121057
-0.113631 -0.00793957 0.993491 0.010675
-0.113128 -0.00825697 0.993546 0.0110754
-0.112181 -0.00831643 0.993653 0.00977559
-0.109139 -0.00819499 0.993993 0.00417287
-0.107613 -0.00825359 0.994159 0.00243469
-0.108582 -0.00846083 0.994051 0.00207832
-0.107588 -0.00882676 0.994156 0.00367038
-0.105126 -0.00901853 0.994418 2.149e-05
-0.106209 -0.0092745 0.994301 0.00126886
-0.10661 -0.00919478 0.994258 0
-0.107603 -0.0093764 0.99415 0
-0.102824 -0.00929394 0.994656 0
-0.102098 -0.00938972 0.99473 0
-0.104862 -0.00951361 0.994441 0
-0.103302 -0.00949438 0.994605 0
-0.103587 -0.00939233 0.994576 0
-0.100332 -0.00922822 0.994911 0
-0.0978555 -0.00894395 0.99516 0
-0.097725 -0.00900674 0.995173 0
-0.0979865 -0.00891006 0.995148 0
-0.0990711 -0.0092916 0.995037 0
-0.0974044 -0.00949758 0.9952 0
-0.0945818 -0.00962221 0.995471 0
-0.0961302 -0.00922924 0.995326 0
-0.0988531 -0.00897594 0.995062 0
-0.0996223 -0.00858138 0.994988 0
-0.0980712 -0.00817645 0.995146 0
-0.0981334 -0.00798933 0.995141 0
-0.099853 -0.00769244 0.994972 0
-0.0996637 -0.00738423 0.994994 0
-0.100693 -0.00715767 0.994892 0
-0.10236 -0.00708464 0.994722 0
-0.102014 -0.00715897 0.994757 0
-0.100972 -0.00693879 0.994865 0
-0.102088 -0.00688853 0.994752 0
-0.104 -0.00680226 0.994554 0
-0.104918 -0.00683915 0.994457 0
-0.104179 -0.00685649 0.994535 0
-0.102899 -0.00715538 0.994666 0
-0.100931 -0.00749556 0.994865 0
-0.102299 -0.00780907 0.994723 0
-0.0997863 -0.00814668 0.994976 0
-0.097944 -0.00839093 0.995157 0
-0.0980232 -0.00864096 0.995147 0
-0.0994811 -0.00893552 0.994999 0
-0.096293 -0.00913316 0.995311 0
-0.0967814 -0.0092991 0.995262 0
-0.0960869 -0.00944379 0.995328 0
-0.0977168 -0.00956587 0.995168 0
-0.0999949 -0.00969909 0.994941 0
-0.100681 -0.00977837 0.994871 0
-0.101408 -0.00959031 0.994799 0
-0.103175 -0.00947695 0.994618 0
-0.104545 -0.00930432 0.994477 0.000370346
-0.101207 -0.00928598 0.994822 0
-0.101272 -0.0092079 0.994816 0
-0.0995762 -0.00917825 0.994988 0
-0.104115 -0.0093638 0.994521 0.000572098
-0.103037 -0.00957079 0.994631 0
-0.100582 -0.00988869 0.99488 0
-0.0971528 -0.0103908 0.995215 0
-0.0980331 -0.0106025 0.995127 0
-0.0978988 -0.0107845 0.995138 0
-0.0972787 -0.0110527 0.995196 0
-0.0981859 -0.0113036 0.995104 0
-0.0991488 -0.0114951 0.995006 0
-0.0994283 -0.0117622 0.994975 0
-0.101971 -0.0120089 0.994715 0
-0.0995474 -0.0122744 0.994957 0
-0.0955814 -0.0126042 0.995342 0
-0.0974961 -0.0128717 0.995153 0
-0.0995038 -0.0130725 0.994951 0
-0.099233 -0.0130672 0.994978 0
-0.100028 -0.0131864 0.994897 0
-0.0999656 -0.0131356 0.994904 0
-0.102196 -0.0130694 0.994678 0
-0.103058 -0.0129587 0.994591 0
-0.102033 -0.0128755 0.994698 0
-0.103927 -0.0128226 0.994502 0
-0.103743 -0.012666 0.994523 0
-0.102552 -0.0123657 0.994651 0
-0.0996858 -0.0120409 0.994946 0
-0.10228 -0.011719 0.994687 0
-0.10431 -0.0113085 0.99448 0
-0.105366 -0.0108604 0.994374 0
-0.108558 -0.010366 0.994036 0
-0.108841 -0.00988745 0.99401 0
-0.10878 -0.00924412 0.994023 0
-0.107571 -0.00870528 0.994159 0
-0.106399 -0.00813784 0.99429 0
-0.107772 -0.00756859 0.994147 0
-0.108808 -0.00705299 0.994038 0
-0.107014 -0.00630091 0.994237 0
-0.107657 -0.00562151 0.994172 0
-0.109358 -0.00486625 0.993991 0
-0.112548 -0.00410047 0.993638 0.00501585
-0.112297 -0.00327379 0.993669 0.00640332
-0.110059 -0.00245876 0.993922 0.0072956
-0.111535 -0.00161444 0.993759 0.00946318
-0.117777 -0.000739265 0.99304 0.0153594
-0.114045 0.000157156 0.993475 0.0145148
-0.113941 0.000974603 0.993487 0.0148104
-0.110898 0.00197654 0.99383 0.0107097
-0.108492 0.00266396 0.994094 0.0113631
-0.105341 0.00336628 0.994431 0.0115509
-0.102402 0.00408666 0.994735 0.00829334
-0.102765 0.00480982 0.994694 0.00777311
-0.0964911 0.00547242 0.995319 0.00630084
-0.0955504 0.00613502 0.995406 0.0050765
-0.0925992 0.00681895 0.99568 0.00164
-0.0935209 0.00749117 0.995589 0.00150143
-0.0953342 0.00808236 0.995413 0.00397234
-0.0938929 0.00870402 0.995544 0.0037466
-0.0932156 0.00924454 0.995603 0.00404916
-0.0927636 0.00994837 0.995638 0.00695703
-0.0940451 0.0107359 0.99551 0.010081
-0.0928342 0.0110082 0.995621 0.00902884
-0.0925682 0.0113252 0.995642 0.00685227
-0.0896079 0.0115409 0.99591 0.00149807
-0.0872203 0.011856 0.996118 0
-0.087801 0.0122044 0.996063 0.000455026
-0.0878097 0.0127597 0.996056 0
-0.0878851 0.013301 0.996042 0.000783687
-0.0859841 0.0137774 0.996201 0
-0.0862859 0.0143838 0.996167 0.00295646
-0.0848312 0.0147627 0.996286 0.000902369
-0.0817529 0.0151803 0.996537 0
-0.0793452 0.0155782 0.996725 0
-0.0793811 0.0159978 0.996716 0
-0.0760251 0.0163555 0.996972 0
-0.0765446 0.016642 0.996927 0
-0.0728397 0.0167923 0.997202 0
-0.0706502 0.0169938 0.997356 0
-0.0693853 0.0171373 0.997443 0
-0.0711634 0.0173086 0.997314 0
-0.0690152 0.0173055 0.997465 0
-0.0682404 0.0173066 0.997519 0
-0.0687264 0.0173012 0.997486 0
-0.0666961 0.0172414 0.997624 0
-0.0649572 0.0171752 0.99774 0
-0.0655883 0.0171198 0.9977 0
-0.0657478 0.0170495 0.997691 0
-0.0649033 0.0169217 0.997748 0
-0.0614048 0.0167566 0.997972 0
-0.0630891 0.0166549 0.997869 0
-0.0599432 0.0163411 0.998068 0
-0.061024 0.016236 0.998004 0
-0.0579041 0.0160309 0.998194 0
-0.0597821 0.0159165 0.998085 0
-0.0595664 0.0158093 0.998099 0
-0.0575721 0.0156153 0.998219 0
-0.060111 0.0154302 0.998072 0
-0.0605906 0.0154502 0.998043 0
-0.0618028 0.0154191 0.997969 0
-0.0616073 0.0154181 0.997981 0
-0.0641104 0.0154671 0.997823 0
-0.0648352 0.0153574 0.997778 0.0011917
-0.0616429 0.0151338 0.997984 0
-0.0646171 0.0151428 0.997795 0.00350216
-0.0630387 0.0150208 0.997898 0.00475046
-0.0640933 0.0150032 0.997831 0.00603093
-0.0635456 0.0148202 0.997869 0.00458312
-0.064993 0.0146382 0.997778 0.00423731
-0.0672436 0.0145997 0.99763 0.00812108
-0.0650401 0.0145239 0.997777 0.0109363
-0.0647773 0.0143784 0.997796 0.0121003
-0.0678244 0.0141182 0.997597 0.0151977
-0.0679488 0.0137397 0.997594 0.0147344
-0.0659569 0.0136119 0.99773 0.01715
-0.0625816 0.0132823 0.997951 0.0140749
-0.062336 0.0129047 0.997972 0.0154935
-0.0625637 0.0123873 0.997964 0.0160383
-0.0616355 0.0118631 0.998028 0.0129687
-0.0599044 0.0115352 0.998137 0.0101336
-0.0549255 0.0114131 0.998425 0.00885256
-0.0556016 0.0110315 0.998392 0.0104936
-0.0533756 0.0107145 0.998517 0.0101762
-0.0531137 0.0103956 0.998534 0.0125222
-0.0546792 0.00992314 0.998455 0.0122141
-0.0525281 0.009877 0.998571 0.0114598
-0.0497351 0.00963226 0.998716 0.0052501
-0.0468644 0.00932882 0.998858 0.000282882
-0.0469019 0.0089298 0.99886 0
-0.0465271 0.00854024 0.998881 0
-0.0423177 0.0086994 0.999066 0
-0.0412481 0.0085111 0.999113 0
-0.0414769 0.00831726 0.999105 0
-0.0401917 0.00810721 0.999159 0
-0.039721 0.00762327 0.999182 0
-0.0362486 0.00762077 0.999314 0
-0.0382334 0.00687574 0.999245 0.00329082
-0.037213 0.00653408 0.999286 0
-0.0408148 0.00552426 0.999151 0.00531307
-0.0388819 0.00502446 0.999231 0.00349783
-0.0382551 0.00429329 0.999259 0.00328574
-0.039897 0.00371113 0.999197 0.00907937
-0.0398002 0.00297066 0.999203 0.0132899
-0.0391746 0.00215856 0.99923 0.0148055
-0.0394916 0.000942876 0.999219 0.016288
-0.039636 -0.000230613 0.999214 0.0168212
-0.0391373 -0.00148375 0.999233 0.0137559
-0.037451 -0.00249568 0.999295 0.0134724
-0.0380252 -0.00402787 0.999269 0.0152028
-0.0377668 -0.00543964 0.999272 0.015981
-0.036166 -0.0065058 0.999325 0.0139582
-0.0376999 -0.00838913 0.999254 0.0107828
-0.0360901 -0.00949864 0.999303 0.0108797
-0.0371352 -0.0114587 0.999245 0.0121444
-0.0363524 -0.0128573 0.999256 0.0107329
-0.0355639 -0.0142081 0.999266 0.00865876
-0.0345931 -0.0158199 0.999276 0.00987094
-0.0326907 -0.0164735 0.99933 0.00762889
-0.0307795 -0.0171581 0.999379 0.00418469
-0.0321999 -0.0192622 0.999296 0.00433093
-0.0312391 -0.020376 0.999304 0.00262989
-0.0304303 -0.0214745 0.999306 0.00231414
-0.0451023 -0.188054 0.981123 0
-0.0430553 -0.180978 0.982544 0
-0.0443859 -0.174235 0.983703 0
-0.045843 -0.168117 0.984701 0
-0.0486513 -0.16089 0.985773 0
-0.0489069 -0.157218 0.986352 0
-0.0468879 -0.151623 0.987326 0
-0.0468832 -0.147067 0.988015 0
-0.0471615 -0.142363 0.98869 0
-0.048283 -0.137694 0.989297 0
-0.0482195 -0.135884 0.989551 0.00225824
-0.0469704 -0.133023 0.989999 0.00427588
-0.0473056 -0.131905 0.990133 0.00751104
-0.0463301 -0.127139 0.990802 0.00643572
-0.045027 -0.125227 0.991106 0.00773103
-0.0449423 -0.119731 0.991789 0.00323327
-0.0443554 -0.116953 0.992146 0.0041015
-0.0460969 -0.11541 0.992248 0.00840225
-0.0471052 -0.113334 0.99244 0.0103899
-0.0470866 -0.110062 0.992809 0.00877166
-0.0479735 -0.108206 0.99297 0.00948198
-0.0461978 -0.102605 0.993649 0.00140103
-0.0452874 -0.0986651 0.99409 0.000906734
-0.0468659 -0.0963615 0.994242 0.0014399
-0.0465187 -0.0964337 0.994252 0.00696897
-0.0451195 -0.0923734 0.994702 0.00219368
-0.0435525 -0.089308 0.995051 0.000733663
-0.0452082 -0.0862077 0.995251 0
-0.0471661 -0.0834596 0.995394 0
-0.0468326 -0.0832276 0.995429 0.00333873
-0.0476523 -0.0810065 0.995574 0.00303541
-0.0460458 -0.07868 0.995836 0
-0.0466469 -0.0768875 0.995948 0.000187326
-0.0457303 -0.0748972 0.996142 0
-0.045897 -0.0734143 0.996245 0
-0.0471405 -0.0723454 0.996265 0
-0.0482941 -0.0709281 0.996312 0.00131606
-0.0503481 -0.0694862 0.996312 0.00175784
-0.0541383 -0.06808 0.99621 0.00386289
-0.0567664 -0.0672104 0.996123 0.00821574
-0.0597851 -0.0657217 0.996045 0.0101588
-0.0581377 -0.0648738 0.996199 0.00969816
-0.0587119 -0.0625707 0.996312 0.00906427
-0.0603849 -0.0618691 0.996256 0.010616
-0.060546 -0.0608377 0.99631 0.00976721
-0.0607092 -0.0592251 0.996397 0.00709378
-0.0609985 -0.0587175 0.996409 0.00904244
-0.0591065 -0.0578955 0.996571 0.0057359
-0.0623298 -0.0568037 0.996438 0.00676063
-0.0617521 -0.0566464 0.996483 0.00951576
-0.0612404 -0.055919 0.996555 0.00686573
-0.0631251 -0.0555406 0.996459 0.00893622
-0.0588301 -0.0534917 0.996834 0.00504844
-0.0578565 -0.0530055 0.996917 0.00455739
-0.0590902 -0.0524996 0.996871 0.00305517
-0.057083 -0.0523379 0.996997 0.00294791
-0.0599851 -0.0521937 0.996834 0.00434826
-0.0546903 -0.0505106 0.997225 0
-0.0540495 -0.0496767 0.997302 0
-0.0521033 -0.047232 0.997524 0
-0.0538156 -0.0462086 0.997481 0
-0.0534996 -0.0460239 0.997507 0
-0.0543679 -0.0452434 0.997495 0
-0.0531994 -0.0424626 0.997681 0
-0.0556693 -0.0404678 0.997629 0
-0.0552695 -0.038566 0.997726 0
-0.0541326 -0.0353441 0.997908 0
-0.057143 -0.0329118 0.997823 0
-0.0597879 -0.0320013 0.997698 0
-0.0610713 -0.0305247 0.997667 0.00160269
-0.064791 -0.0294475 0.997464 0.00197452
-0.068249 -0.0272333 0.997297 0.00462969
-0.0706959 -0.0258053 0.997164 0.00488621
-0.0711323 -0.0249432 0.997155 0.00592799
-0.0746898 -0.0247387 0.9969 0.00840494
-0.0742647 -0.0231005 0.996971 0.00535068
-0.0756689 -0.0212568 0.996906 0.000690498
-0.0808536 -0.0212027 0.9965 0.00470756
-0.0826004 -0.0204326 0.996373 0.00539751
-0.0859902 -0.0201383 0.996092 0.00580536
-0.0865264 -0.0200972 0.996047 0.00650798
-0.0901751 -0.0199461 0.995726 0.00828504
-0.089744 -0.0201722 0.995761 0.00738837
-0.0941661 -0.0206212 0.995343 0.00894637
-0.0973479 -0.0204579 0.99504 0.0113345
-0.0982681 -0.0200521 0.994958 0.0122239
-0.100423 -0.0203786 0.994736 0.0140205
-0.0979167 -0.0201601 0.99499 0.014989
-0.0975264 -0.0193058 0.995046 0.0104702
-0.100615 -0.0197665 0.994729 0.00838144
-0.0999586 -0.0195858 0.994799 0.00810811
-0.0993351 -0.0195819 0.994861 0.00804359
-0.0981018 -0.0191884 0.994991 0.00832493
-0.10145 -0.0188948 0.994661 0.00830624
-0.102101 -0.0190022 0.994592 0.00850437
-0.101589 -0.0197207 0.994631 0.00783076
-0.100858 -0.0198425 0.994703 0.00696899
-0.104175 -0.0197729 0.994362 0.00853713
-0.1076 -0.0203247 0.993986 0.0125391
-0.111139 -0.0205731 0.993592 0.0126724
-0.108602 -0.0207339 0.993869 0.0105251
-0.114049 -0.0212671 0.993247 0.0156527
-0.111227 -0.0212439 0.993568 0.0128067
-0.109283 -0.0209313 0.99379 0.00865341
-0.111358 -0.0212037 0.993554 0.0095797
-0.112793 -0.0219452 0.993376 0.0120636
-0.11256 -0.0215923 0.99341 0.00951212
-0.112195 -0.0215425 0.993453 0.00998651
-0.113465 -0.0220297 0.993298 0.0114604
-0.112313 -0.02213 0.993427 0.0153916
-0.109977 -0.0220621 0.993689 0.0143854
-0.107121 -0.0222888 0.993996 0.0134771
-0.107425 -0.0226148 0.993956 0.0152792
-0.105507 -0.0227195 0.994159 0.0105029
-0.105795 -0.0229256 0.994124 0.0110359
-0.106487 -0.0230705 0.994046 0.00995781
-0.103918 -0.0232009 0.994315 0.0102719
-0.1029 -0.0234813 0.994415 0.00781254
-0.0996726 -0.0236222 0.99474 0.00610505
-0.0988284 -0.0241839 0.994811 0.00731242
-0.104164 -0.0245924 0.994256 0.0125921
-0.105969 -0.0244837 0.994068 0.0106944
-0.108187 -0.0251238 0.993813 0.0107864
-0.107002 -0.0253784 0.993935 0.00875794
-0.108481 -0.0256252 0.993768 0.00709571
-0.108832 -0.0256927 0.993728 0.00494978
-0.108219 -0.0257257 0.993794 0.00298998
-0.10993 -0.0262269 0.993593 0.00231567
-0.10934 -0.0265753 0.993649 0.00121947
-0.111238 -0.0270653 0.993425 0.00081873
-0.113286 -0.0276351 0.993178 0.000988703
-0.113703 -0.0279007 0.993123 0.00279902
-0.115227 -0.0281649 0.99294 0.00309708
-0.114176 -0.0280148 0.993065 0.00175112
-0.112723 -0.0282165 0.993226 0.000309142
-0.112496 -0.0283365 0.993248 0
-0.115449 -0.0286696 0.9929 0.000249806
-0.117952 -0.0288081 0.992601 0
-0.119059 -0.0289289 0.992466 0.00215297
-0.116388 -0.0285649 0.992793 0
-0.115813 -0.0288747 0.992851 0
-0.120941 -0.0289768 0.992237 0.00174001
-0.119648 -0.0291771 0.992388 0.00348581
-0.122878 -0.0297057 0.991977 0.00690494
-0.126022 -0.0301427 0.991569 0.0127283
-0.128157 -0.0306699 0.99128 0.0160992
-0.129216 -0.0304974 0.991147 0.0157249
-0.127852 -0.0300305 0.991338 0.0144455
-0.126747 -0.0298407 0.991486 0.0148482
-0.124318 -0.0289691 0.99182 0.0122039
-0.122493 -0.0281554 0.99207 0.0123367
-0.121911 -0.0276333 0.992156 0.0132011
-0.121683 -0.0264449 0.992217 0.0130564
-0.121732 -0.0262035 0.992217 0.0151836
-0.118995 -0.025505 0.992567 0.0138865
-0.114234 -0.0245248 0.993151 0.011808
-0.11433 -0.0238067 0.993158 0.0103764
-0.113173 -0.0226929 0.993316 0.00974258
-0.116526 -0.0222689 0.992938 0.0137336
-0.117449 -0.0219111 0.992837 0.0167519
-0.113912 -0.0206448 0.993276 0.0107916
-0.115433 -0.0203984 0.993106 0.0101025
-0.112013 -0.0197175 0.993511 0.0073834
-0.110647 -0.0192434 0.993673 0.00526946
-0.108852 -0.0188238 0.99388 0.00539941
-0.108994 -0.0182965 0.993874 0.00410527
-0.107471 -0.0179749 0.994046 0.00486181
-0.103713 -0.0179088 0.994446 0.00403931
-0.0993532 -0.0175195 0.994898 0.00232356
-0.0978172 -0.0170825 0.995058 0
-0.0967636 -0.0168675 0.995164 0
-0.0977093 -0.0166606 0.995076 0
-0.0963521 -0.0165246 0.99521 0
-0.0970834 -0.016394 0.995141 0.00115736
-0.096153 -0.0162286 0.995234 0.000543844
-0.0984448 -0.0164719 0.995006 0.00104979
-0.0948269 -0.0169541 0.995349 0
-0.0942224 -0.01718 0.995403 0
-0.0988956 -0.0173344 0.994947 0
-0.0991642 -0.0177025 0.994914 0
-0.0980741 -0.0181926 0.995013 0
-0.0984296 -0.0187537 0.994967 0
-0.101981 -0.0191255 0.994603 0
-0.104637 -0.019641 0.994316 0
-0.102978 -0.0199996 0.994483 0.000557477
-0.101971 -0.0204609 0.994577 0
-0.102934 -0.0206675 0.994474 0
-0.101888 -0.0208027 0.994578 0
-0.103449 -0.02119 0.994409 0
-0.10251 -0.0217151 0.994495 0
-0.101648 -0.0216905 0.994584 0
-0.0997005 -0.0217242 0.99478 0
-0.101215 -0.0216314 0.994629 0
-0.102001 -0.0217025 0.994548 0
-0.0993106 -0.022065 0.994812 0
-0.100359 -0.022437 0.994698 0.000635205
-0.0983272 -0.0224794 0.9949 0.000364758
-0.100994 -0.0223336 0.994636 0.00229834
-0.100682 -0.0224712 0.994665 0.000425115
-0.0988635 -0.0227868 0.99484 0.000851729
-0.101445 -0.022671 0.994583 0.00212611
-0.100275 -0.02298 0.994694 0.00188424
-0.109041 -0.0235385 0.993758 0.00381338
-0.108523 -0.0234388 0.993818 0.00298435
-0.107796 -0.0234406 0.993897 0.00633081
-0.114777 -0.0235537 0.993112 0.0104509
-0.115448 -0.0235676 0.993034 0.00590178
-0.116737 -0.0235485 0.992884 0.00459067
-0.116923 -0.0228982 0.992877 0.0038704
-0.116401 -0.0226037 0.992945 0.00403042
-0.118105 -0.0220207 0.992757 0.00337304
-0.119136 -0.0214501 0.992646 0.00260871
-0.118813 -0.0209677 0.992695 0.00272448
-0.116252 -0.0202722 0.993013 0.000142648
-0.118237 -0.0194404 0.992795 0.0019943
-0.119127 -0.0185859 0.992705 2.4411e-05
-0.122717 -0.0178604 0.992281 0.00399138
-0.120283 -0.0170468 0.992593 0.0032247
-0.116286 -0.0162423 0.993083 0
-0.114808 -0.0153206 0.99327 0.000402981
-0.116592 -0.0140382 0.993081 0
-0.120248 -0.0137972 0.992648 0.00326111
-0.116586 -0.0129083 0.993097 0.000465522
-0.115632 -0.0123694 0.993215 0
-0.11511 -0.0112738 0.993289 0
-0.113428 -0.0101458 0.993494 0
-0.113569 -0.00958516 0.993484 0
-0.111802 -0.008475 0.993694 0
-0.111044 -0.00807966 0.993783 0
-0.108343 -0.00728844 0.994087 0
-0.106174 -0.00702626 0.994323 0
-0.105989 -0.00657568 0.994345 0
