# .PCD v0.7 - Point Cloud Data file format
VERSION 0.7
FIELDS x y z
SIZE 4 4 4
TYPE F F F
COUNT 1 1 1
WIDTH 1478
HEIGHT 1
VIEWPOINT 0 0 0 1 0 0 0
POINTS 1478
DATA ascii
-0.033812001 0.15510499 -0.224454
-0.033808999 0.155177 -0.22445799
-0.033806 0.155249 -0.224457
-0.033803001 0.15531901 -0.22444899
-0.033801001 0.15539099 -0.224445
-0.033798002 0.155461 -0.22443999
-0.033794999 0.155533 -0.22443999
-0.033792999 0.15560301 -0.22443999
-0.033790998 0.155674 -0.224426
-0.033787999 0.155746 -0.224419
-0.033785 0.155816 -0.22442099
-0.033782002 0.15588801 -0.22442099
-0.033780001 0.155958 -0.22442
-0.033776999 0.15603 -0.224418
-0.033774 0.1561 -0.224418
-0.033771001 0.15617201 -0.22442099
-0.033767998 0.156242 -0.224425
-0.033766001 0.156314 -0.224417
-0.033764001 0.156386 -0.22440299
-0.033760998 0.156455 -0.22439399
-0.033758 0.156527 -0.22439399
-0.033755001 0.156597 -0.2244
-0.033753 0.15666901 -0.224401
-0.033750001 0.156739 -0.224397
-0.033748001 0.156811 -0.224389
-0.033746 0.156881 -0.224374
-0.033744 0.15695199 -0.224356
-0.033741001 0.157022 -0.22436
-0.033737 0.157095 -0.224374
-0.033734001 0.15716501 -0.224383
-0.033730999 0.15723699 -0.22438499
-0.033728998 0.157306 -0.224373
-0.033727001 0.157378 -0.22435801
-0.033723999 0.15745001 -0.224354
-0.033721 0.15752 -0.224362
-0.033718001 0.15759 -0.22435901
-0.033716001 0.157662 -0.22434101
-0.033714 0.157731 -0.224333
-0.033711001 0.157803 -0.224328
-0.033709001 0.157875 -0.224324
-0.033705998 0.15794501 -0.224328
-0.033702999 0.15801699 -0.224326
-0.0337 0.158087 -0.224325
-0.033697002 0.158159 -0.224327
-0.033695001 0.15822899 -0.224327
-0.033691999 0.158299 -0.224318
-0.033690002 0.15837 -0.22431
-0.033686999 0.15844101 -0.22431201
-0.033684 0.158512 -0.224309
-0.033682 0.158584 -0.224301
-0.033679999 0.158654 -0.22429501
-0.033677001 0.15872601 -0.22428501
-0.033675 0.158796 -0.224282
-0.033672001 0.158868 -0.22428
-0.033670001 0.15893701 -0.22427
-0.033666998 0.159007 -0.224259
-0.033665001 0.159079 -0.22425701
-0.033661999 0.15914901 -0.22425701
-0.033659998 0.15922099 -0.224246
-0.033658002 0.159292 -0.22423001
-0.033654999 0.159362 -0.224222
-0.033652 0.15943401 -0.224227
-0.033649001 0.159504 -0.22422899
-0.033645999 0.159576 -0.22422899
-0.033643998 0.159646 -0.224225
-0.033642001 0.159716 -0.224216
-0.033638999 0.159787 -0.224204
-0.033636998 0.159857 -0.22419199
-0.033634 0.15992901 -0.22419301
-0.033631001 0.159999 -0.224205
-0.033628002 0.160071 -0.224205
-0.033626001 0.16014101 -0.22419199
-0.033624001 0.16021299 -0.224176
-0.033620998 0.160283 -0.224172
-0.033619002 0.160354 -0.224171
-0.033615999 0.16042399 -0.224167
-0.033613998 0.160496 -0.224153
-0.033612002 0.160566 -0.224141
-0.033608999 0.16063499 -0.22413
-0.033606999 0.160707 -0.224114
-0.033604998 0.160777 -0.224108
-0.033601999 0.160849 -0.224113
-0.033599 0.160919 -0.224115
-0.033596002 0.160991 -0.22411899
-0.033592999 0.161061 -0.22411799
-0.033590999 0.16113099 -0.22410201
-0.033589002 0.161202 -0.224086
-0.033585999 0.161272 -0.224089
-0.033583999 0.16134401 -0.224077
-0.033581998 0.161413 -0.224057
-0.033580001 0.161483 -0.224042
-0.033578001 0.16155501 -0.22403
-0.033574998 0.161625 -0.22403599
-0.033571001 0.161697 -0.22405
-0.033569001 0.16176701 -0.22404701
-0.033567 0.161836 -0.224021
-0.033565 0.161908 -0.22400101
-0.033562999 0.16197801 -0.22400001
-0.03356 0.16204999 -0.223992
-0.033558 0.162119 -0.223978
-0.033555001 0.16218901 -0.22398099
-0.033551998 0.16226199 -0.22398899
-0.033550002 0.162331 -0.22397301
-0.033549 0.162402 -0.22394399
-0.033546999 0.16247199 -0.22393
-0.033544 0.162542 -0.22393399
-0.033541001 0.162614 -0.223941
-0.033537999 0.16268399 -0.223931
-0.033537 0.162753 -0.223905
-0.033535 0.16282301 -0.223882
-0.033532999 0.16289499 -0.22386999
-0.033530001 0.162965 -0.22387201
-0.033527002 0.163037 -0.22387201
-0.033525001 0.16310599 -0.223859
-0.033523001 0.163176 -0.22384299
-0.033519998 0.16324601 -0.22384401
-0.033518001 0.16331799 -0.223842
-0.033514999 0.163387 -0.22383
-0.033512998 0.163459 -0.223828
-0.03351 0.16352899 -0.22383299
-0.033507001 0.163601 -0.22383299
-0.033504002 0.163671 -0.223831
-0.033500999 0.16374101 -0.22383
-0.033498999 0.16381299 -0.22383
-0.033496998 0.163883 -0.22381601
-0.033495001 0.16395301 -0.223801
-0.033491999 0.164024 -0.223793
-0.033489998 0.164094 -0.22377899
-0.033488002 0.16416401 -0.22376999
-0.033484999 0.16423599 -0.223776
-0.033481002 0.164306 -0.223784
-0.033477999 0.164378 -0.22379
-0.033475 0.16444799 -0.22379699
-0.033472002 0.16452 -0.22379699
-0.033470001 0.16459 -0.22379699
-0.033466998 0.164662 -0.223802
-0.033464 0.16473199 -0.22379801
-0.033461001 0.164804 -0.223794
-0.033457998 0.164876 -0.22380801
-0.033454001 0.164946 -0.223821
-0.033452 0.165016 -0.223821
-0.033448 0.165089 -0.223829
-0.033445001 0.165161 -0.223842
-0.033442002 0.165233 -0.22384401
-0.033438999 0.16530301 -0.223848
-0.033436 0.16537499 -0.22386
-0.033431999 0.165448 -0.22387899
-0.033429001 0.165518 -0.223893
-0.033425 0.16559 -0.22389901
-0.033422001 0.16566201 -0.223914
-0.033418 0.16573501 -0.22393399
-0.033415001 0.16580699 -0.223942
-0.033411998 0.165877 -0.22394601
-0.033408001 0.165949 -0.223975
-0.033403002 0.166022 -0.224007
-0.033399001 0.166095 -0.224029
-0.033395 0.166169 -0.22405501
-0.033390999 0.166242 -0.224087
-0.033387002 0.16631401 -0.224116
-0.033381999 0.16638701 -0.22414801
-0.033378001 0.166462 -0.22418
-0.033372998 0.166537 -0.224222
-0.033367999 0.166609 -0.224263
-0.033363 0.166685 -0.224315
-0.033357002 0.16676 -0.224361
-0.033353001 0.166832 -0.22439501
-0.033348002 0.166907 -0.224433
-0.033342998 0.166982 -0.22447699
-0.033337999 0.16705699 -0.22453199
-0.033332001 0.16713201 -0.22458801
-0.033326 0.167208 -0.22465
-0.033319999 0.167285 -0.22472
-0.034215 0.138686 -0.226329
-0.034219999 0.13878 -0.226145
-0.034221001 0.138862 -0.22606701
-0.034221999 0.138946 -0.225967
-0.034221999 0.139026 -0.22589301
-0.034223001 0.13910501 -0.22582699
-0.034221001 0.139182 -0.225787
-0.034223001 0.139264 -0.225693
-0.034224 0.139346 -0.225604
-0.034223001 0.139423 -0.22556201
-0.034221999 0.13950001 -0.225512
-0.034221001 0.139577 -0.225466
-0.034221001 0.13965601 -0.22541
-0.034219999 0.139731 -0.225371
-0.034217998 0.139806 -0.22534101
-0.034217 0.139881 -0.225301
-0.034216002 0.13995799 -0.225261
-0.034215 0.14003301 -0.225225
-0.034212999 0.14010499 -0.225208
-0.034210999 0.14018001 -0.22519
-0.034209002 0.140256 -0.225154
-0.034208 0.140329 -0.225128
-0.034205001 0.140403 -0.225117
-0.034203 0.14047401 -0.225107
-0.034201 0.14054801 -0.225087
-0.034198999 0.14062101 -0.225059
-0.034196999 0.14069501 -0.22504
-0.034196001 0.14076801 -0.22501799
-0.034193002 0.14084201 -0.22500201
-0.034191001 0.14091399 -0.22499099
-0.034189001 0.14098699 -0.224975
-0.034187 0.14106099 -0.224957
-0.034185 0.141133 -0.22494701
-0.034182001 0.141204 -0.22494
-0.03418 0.141278 -0.22492801
-0.034177002 0.14135 -0.22492
-0.034175001 0.141422 -0.224916
-0.034171999 0.14149199 -0.224913
-0.034170002 0.141565 -0.22489899
-0.034168001 0.14163899 -0.224879
-0.034166001 0.14171 -0.22486401
-0.034162998 0.141784 -0.22485401
-0.034161001 0.141856 -0.224842
-0.034157999 0.141928 -0.22484
-0.034155998 0.14199799 -0.22484501
-0.034153 0.14207 -0.224843
-0.034150001 0.142142 -0.224841
-0.034147002 0.142212 -0.22484601
-0.034143999 0.14228199 -0.22484399
-0.034141999 0.142355 -0.224832
-0.034139998 0.142427 -0.224822
-0.034136999 0.142499 -0.224823
-0.034134001 0.14256901 -0.224823
-0.034131002 0.14264099 -0.224819
-0.034129001 0.142713 -0.224814
-0.034125999 0.142783 -0.224812
-0.034123 0.142855 -0.224814
-0.034120001 0.14292499 -0.224822
-0.034116998 0.142995 -0.22482499
-0.034113999 0.143067 -0.22482701
-0.034111001 0.14313699 -0.224831
-0.034109 0.143209 -0.224832
-0.034106001 0.143281 -0.22482599
-0.034102999 0.143351 -0.224828
-0.0341 0.14342301 -0.22483499
-0.034097001 0.143493 -0.22483701
-0.034093998 0.143565 -0.22483701
-0.034091 0.143635 -0.22483701
-0.034088999 0.143705 -0.224838
-0.034086 0.143777 -0.22484
-0.034083001 0.143847 -0.22484399
-0.034079999 0.14391901 -0.224849
-0.034077 0.14399099 -0.224847
-0.034074001 0.144061 -0.22484501
-0.034070998 0.144133 -0.22484501
-0.034068 0.14420301 -0.224852
-0.034065001 0.14427499 -0.22485401
-0.034063 0.144345 -0.22485401
-0.034060001 0.14441501 -0.224861
-0.034056999 0.14448699 -0.224865
-0.034054 0.144559 -0.22486299
-0.034051001 0.144629 -0.22486401
-0.034047998 0.144701 -0.22487
-0.034045 0.14477099 -0.22487199
-0.034042001 0.144843 -0.224868
-0.03404 0.144915 -0.22486299
-0.034037001 0.144987 -0.22486299
-0.034033999 0.14505699 -0.224859
-0.034031998 0.145129 -0.224858
-0.034029 0.145199 -0.22486199
-0.034026001 0.14526901 -0.22487199
-0.034023002 0.14534099 -0.22487199
-0.034021001 0.145413 -0.224859
-0.034017999 0.145484 -0.22485299
-0.034015 0.145556 -0.224857
-0.034012001 0.14562599 -0.22486199
-0.034008998 0.145697 -0.224868
-0.034006 0.145767 -0.224878
-0.034003001 0.14583901 -0.224879
-0.034000002 0.14591099 -0.22487099
-0.033998001 0.145982 -0.224859
-0.033996001 0.146054 -0.224849
-0.033992998 0.14612401 -0.22485401
-0.033989999 0.14619599 -0.224856
-0.033987999 0.146268 -0.22484399
-0.033985 0.14634 -0.22483499
-0.033982001 0.146412 -0.22483499
-0.033978999 0.14648201 -0.224839
-0.033976998 0.14655399 -0.22483701
-0.033973999 0.146625 -0.224832
-0.033971999 0.146697 -0.224822
-0.033969 0.146769 -0.224822
-0.033967 0.14683899 -0.224813
-0.033964001 0.146911 -0.224801
-0.033961002 0.146983 -0.22480699
-0.033957999 0.147053 -0.22481801
-0.033955 0.14712501 -0.224822
-0.033952001 0.147195 -0.22482
-0.033950001 0.147267 -0.22481801
-0.033946998 0.147339 -0.224815
-0.033944 0.14740901 -0.224813
-0.033941001 0.14748099 -0.224813
-0.033939 0.147552 -0.22480799
-0.033936001 0.147622 -0.224806
-0.033932999 0.14769401 -0.224814
-0.03393 0.147764 -0.22481801
-0.033927001 0.147836 -0.224815
-0.033925001 0.147908 -0.22480901
-0.033922002 0.14797799 -0.22480901
-0.033918999 0.14805 -0.224806
-0.033916999 0.148122 -0.224804
-0.033914 0.148194 -0.224804
-0.033911001 0.14826401 -0.224802
-0.033909 0.14833599 -0.224793
-0.033907 0.148407 -0.224777
-0.033904001 0.148479 -0.224769
-0.033900999 0.148551 -0.224768
-0.033899002 0.148623 -0.22476
-0.033897001 0.14869399 -0.224742
-0.033893999 0.148766 -0.224741
-0.033891 0.148835 -0.224757
-0.033886999 0.14890701 -0.22477099
-0.033884998 0.148977 -0.224767
-0.033882 0.149048 -0.22475401
-0.033879999 0.149122 -0.224738
-0.033877999 0.14919201 -0.224728
-0.033876002 0.14926501 -0.22471701
-0.033872999 0.149335 -0.224713
-0.03387 0.149406 -0.224721
-0.033865999 0.149478 -0.224737
-0.033863001 0.14954799 -0.22474401
-0.033861 0.14962 -0.224738
-0.033858001 0.149692 -0.224728
-0.033856001 0.14976101 -0.224719
-0.033852998 0.14983299 -0.22471499
-0.033851001 0.149905 -0.224713
-0.033847999 0.149977 -0.224704
-0.033845998 0.150048 -0.22468799
-0.033844002 0.15012001 -0.22467799
-0.033840999 0.15019 -0.22468001
-0.033838 0.150262 -0.224683
-0.033835001 0.150334 -0.22467899
-0.033833001 0.15040401 -0.224675
-0.033829998 0.150474 -0.224682
-0.033826999 0.150546 -0.224684
-0.033824999 0.150618 -0.224672
-0.033822 0.15069 -0.224666
-0.03382 0.15076201 -0.22466099
-0.033817001 0.150831 -0.224655
-0.033815 0.150903 -0.224647
-0.033812001 0.150975 -0.22464199
-0.033808999 0.15104701 -0.224638
-0.033806998 0.151117 -0.22463
-0.033805002 0.151188 -0.224617
-0.033801999 0.15126 -0.22460701
-0.033799 0.15132999 -0.224613
-0.033796001 0.151402 -0.224621
-0.033794001 0.151474 -0.22461601
-0.033790998 0.151544 -0.224608
-0.033787999 0.15161601 -0.22461399
-0.033785999 0.151686 -0.224611
-0.033783 0.151758 -0.22459701
-0.033780001 0.15183 -0.224599
-0.033776999 0.15189999 -0.224608
-0.033775002 0.151972 -0.224602
-0.033773001 0.152043 -0.22458801
-0.033769999 0.152115 -0.22458
-0.033767998 0.15218499 -0.224575
-0.033766001 0.152257 -0.22455899
-0.033762999 0.152328 -0.22454301
-0.033760998 0.15239801 -0.224546
-0.033757001 0.15246999 -0.224556
-0.033753999 0.15254 -0.22455999
-0.033752002 0.152612 -0.224556
-0.033748999 0.152684 -0.224549
-0.033746999 0.15275399 -0.22454099
-0.033744 0.152826 -0.224537
-0.033741999 0.152898 -0.22453
-0.033739001 0.15296701 -0.224526
-0.033736002 0.15303899 -0.224526
-0.033734001 0.153109 -0.224521
-0.033730999 0.153181 -0.22451501
-0.033728 0.153253 -0.224517
-0.033725001 0.15332299 -0.22452299
-0.033721998 0.153395 -0.224526
-0.033720002 0.153465 -0.224518
-0.033718001 0.15353701 -0.22450399
-0.033714999 0.15360899 -0.224499
-0.033713002 0.153678 -0.22449499
-0.033709999 0.15375 -0.22449499
-0.033707 0.153822 -0.22449601
-0.033704001 0.153892 -0.22449601
-0.033702001 0.153964 -0.224492
-0.033698998 0.154034 -0.224494
-0.033696 0.15410601 -0.224499
-0.033693001 0.154176 -0.22449701
-0.033690002 0.154248 -0.224493
-0.033688001 0.154318 -0.224492
-0.033684999 0.15439001 -0.22449
-0.033682 0.15446 -0.224484
-0.033679001 0.154532 -0.224489
-0.033677001 0.15460201 -0.224491
-0.033674002 0.15467399 -0.224479
-0.033672001 0.154745 -0.224465
-0.033670001 0.154815 -0.22446001
-0.033666998 0.15488701 -0.224462
-0.033663999 0.15495899 -0.22445799
-0.033661999 0.155029 -0.224447
-0.033659998 0.1551 -0.22443099
-0.033658002 0.15517201 -0.224417
-0.033654999 0.155242 -0.224418
-0.033651002 0.155312 -0.224436
-0.033647999 0.155385 -0.224448
-0.033645 0.15545499 -0.224446
-0.033643 0.155526 -0.224439
-0.033640001 0.155596 -0.224429
-0.033636998 0.15566801 -0.22443099
-0.033635002 0.15573999 -0.22442199
-0.033633001 0.155809 -0.2244
-0.033631001 0.155881 -0.224398
-0.033627 0.15595201 -0.22441299
-0.033624001 0.15602399 -0.224417
-0.033622 0.156093 -0.224409
-0.033619002 0.156165 -0.22440299
-0.033615999 0.15623701 -0.224402
-0.033613 0.156307 -0.224408
-0.033611 0.156379 -0.224408
-0.033608001 0.15644901 -0.224401
-0.033606 0.15652101 -0.224389
-0.033603001 0.156591 -0.224383
-0.033599999 0.156663 -0.22439601
-0.033597 0.15673301 -0.22440401
-0.033594001 0.15680499 -0.224398
-0.033592001 0.156875 -0.22439
-0.033589002 0.156946 -0.22438499
-0.033587001 0.15701599 -0.22436699
-0.033585999 0.157087 -0.22434101
-0.033583 0.157159 -0.224338
-0.033578999 0.15723 -0.22436
-0.033576 0.1573 -0.22438
-0.033573002 0.157372 -0.224371
-0.033571001 0.157444 -0.224355
-0.033569001 0.15751299 -0.224343
-0.033567 0.157583 -0.224334
-0.033564001 0.157655 -0.224336
-0.033560999 0.15772501 -0.22434001
-0.033558 0.15779699 -0.224338
-0.033555001 0.157867 -0.224343
-0.033551998 0.157939 -0.22433899
-0.033550002 0.158011 -0.22432899
-0.033548001 0.15808 -0.22431999
-0.033546001 0.158152 -0.224306
-0.033543002 0.158222 -0.224298
-0.033541001 0.158292 -0.224299
-0.033537 0.158364 -0.224305
-0.033535 0.158434 -0.224307
-0.033532001 0.15850601 -0.224301
-0.033528998 0.15857799 -0.224298
-0.033527002 0.158648 -0.224292
-0.033525001 0.158719 -0.224278
-0.033523001 0.15878899 -0.224263
-0.033519998 0.158861 -0.224251
-0.033518001 0.15893 -0.22424699
-0.033514999 0.15899999 -0.22425
-0.033512 0.159072 -0.22425
-0.03351 0.159142 -0.224246
-0.033507001 0.159214 -0.224245
-0.033504002 0.15928601 -0.22424901
-0.033500999 0.159356 -0.224253
-0.033498 0.159428 -0.224243
-0.033496 0.15949801 -0.22422799
-0.033493999 0.15956999 -0.224222
-0.033491001 0.15964 -0.224222
-0.033488002 0.15970901 -0.224223
-0.033486001 0.15978099 -0.22421899
-0.033482999 0.159851 -0.22421101
-0.03348 0.159923 -0.22421201
-0.033477999 0.15999299 -0.22420999
-0.033475 0.160065 -0.2242
-0.033473 0.160135 -0.22419199
-0.033470001 0.160207 -0.224189
-0.033468001 0.160276 -0.224177
-0.033466 0.160348 -0.22416499
-0.033463001 0.160418 -0.224172
-0.033459999 0.16049001 -0.224176
-0.033457998 0.16056 -0.22416601
-0.033454999 0.160632 -0.224153
-0.033452999 0.16070101 -0.224139
-0.033452 0.160771 -0.224117
-0.033449002 0.160842 -0.224106
-0.033447001 0.16091201 -0.22409999
-0.033445001 0.16098399 -0.224086
-0.033443 0.161053 -0.224071
-0.033440001 0.16112401 -0.224075
-0.033436999 0.16119599 -0.22408099
-0.033434 0.161266 -0.224079
-0.033431001 0.161337 -0.22407401
-0.033429001 0.16140699 -0.224068
-0.033426002 0.161477 -0.224066
-0.033424001 0.161549 -0.224057
-0.033422999 0.16161799 -0.224021
-0.033420999 0.16169 -0.22400101
-0.033418 0.16176 -0.224014
-0.033413999 0.16182999 -0.224024
-0.033411998 0.161902 -0.22402
-0.033408999 0.161972 -0.22401699
-0.033406999 0.162044 -0.224005
-0.033404998 0.162113 -0.223983
-0.033403002 0.162183 -0.22397
-0.033401001 0.16225401 -0.22396
-0.033397999 0.162324 -0.22395
-0.033395998 0.162396 -0.223941
-0.033394001 0.162466 -0.22392701
-0.033392001 0.162535 -0.223911
-0.033388998 0.162607 -0.22390699
-0.033386 0.162677 -0.223914
-0.033383001 0.16274901 -0.223914
-0.033381 0.162819 -0.223906
-0.033379 0.16288801 -0.223883
-0.033378001 0.162958 -0.22386099
-0.033374999 0.16303 -0.22386099
-0.033372 0.1631 -0.22386
-0.033369999 0.16316999 -0.223848
-0.033367999 0.163241 -0.223842
-0.033365 0.163311 -0.22383299
-0.033363 0.163381 -0.223821
-0.033360001 0.163453 -0.22382499
-0.033357002 0.163523 -0.22383
-0.033353999 0.16359501 -0.223828
-0.033351999 0.163665 -0.22382601
-0.033349 0.163737 -0.22383
-0.033346001 0.163807 -0.223827
-0.033342998 0.163877 -0.22382499
-0.033341002 0.163949 -0.22382499
-0.033337999 0.164019 -0.223822
-0.033335 0.16409101 -0.22383
-0.033332001 0.16416299 -0.223832
-0.033328999 0.164233 -0.223831
-0.033326998 0.16430201 -0.22381701
-0.033325002 0.164372 -0.22379901
-0.033323001 0.164442 -0.22378799
-0.033319999 0.16451301 -0.223784
-0.033317 0.164584 -0.22379801
-0.033312999 0.164656 -0.22380801
-0.033310998 0.164728 -0.223809
-0.033307001 0.16479801 -0.223819
-0.033303998 0.16486999 -0.22383299
-0.033301 0.16494 -0.22383
-0.033298999 0.165012 -0.223828
-0.033296 0.16508199 -0.22383
-0.033291999 0.165154 -0.223838
-0.033289 0.165227 -0.223847
-0.033286002 0.165297 -0.22385301
-0.033282001 0.165369 -0.22387099
-0.033279002 0.16544101 -0.223886
-0.033275999 0.165511 -0.223892
-0.033273 0.165584 -0.22390001
-0.033268999 0.165656 -0.223912
-0.033264998 0.165728 -0.223933
-0.033261999 0.16580001 -0.223949
-0.033257999 0.16587301 -0.223969
-0.033254001 0.16594499 -0.223995
-0.03325 0.16601799 -0.224014
-0.033247001 0.166088 -0.22402801
-0.033243001 0.166163 -0.22405399
-0.033238001 0.166235 -0.224088
-0.033234 0.16631 -0.22411899
-0.033229999 0.166383 -0.224145
-0.033225 0.166455 -0.224177
-0.033220999 0.166528 -0.224213
-0.033216 0.166603 -0.22425701
-0.033209998 0.166678 -0.224308
-0.033204999 0.16675299 -0.22435001
-0.033199999 0.16682599 -0.22439399
-0.033195 0.16690101 -0.224448
-0.033188999 0.166976 -0.224502
-0.033183001 0.167053 -0.224558
-0.033178002 0.167129 -0.22462
-0.033172 0.16720399 -0.22467899
-0.034125 0.138687 -0.226289
-0.034129001 0.138779 -0.22612301
-0.034132 0.138868 -0.22598299
-0.034132 0.138946 -0.225923
-0.034131002 0.13902301 -0.225878
-0.034131002 0.139102 -0.22581799
-0.034131002 0.139181 -0.225756
-0.034131002 0.13926101 -0.225688
-0.034132 0.139341 -0.22559801
-0.034131002 0.13942 -0.225548
-0.034131002 0.139497 -0.225503
-0.03413 0.13957401 -0.225455
-0.034129001 0.139649 -0.22541501
-0.034127999 0.139724 -0.22537901
-0.034125999 0.139801 -0.225343
-0.034125 0.139874 -0.22531199
-0.034123 0.13995001 -0.225282
-0.034122001 0.140025 -0.225254
-0.034120001 0.1401 -0.225218
-0.034118999 0.140174 -0.225191
-0.034116998 0.140249 -0.22516701
-0.034115002 0.140322 -0.225143
-0.034113001 0.140396 -0.225127
-0.034111001 0.140468 -0.22510999
-0.034109 0.140543 -0.225086
-0.034107 0.140617 -0.22506601
-0.034104999 0.140688 -0.225054
-0.034102999 0.140762 -0.225041
-0.034100998 0.140835 -0.22501899
-0.034099001 0.140907 -0.225005
-0.034095999 0.140981 -0.22499301
-0.034093998 0.14105301 -0.22498
-0.034092002 0.141124 -0.22497199
-0.034090001 0.14119799 -0.22496
-0.034088001 0.141271 -0.22493701
-0.034086 0.141343 -0.224923
-0.034083001 0.141417 -0.224911
-0.034081001 0.141488 -0.224897
-0.034079 0.14156 -0.22488999
-0.034076001 0.141634 -0.224878
-0.034074001 0.141706 -0.22486199
-0.034072001 0.14177901 -0.22485
-0.03407 0.14185099 -0.224841
-0.034067001 0.141923 -0.22483701
-0.034063999 0.141993 -0.224839
-0.034061 0.142065 -0.22484
-0.034058999 0.14213701 -0.22483601
-0.034056 0.142207 -0.224834
-0.034053002 0.142279 -0.22483499
-0.034049999 0.142349 -0.22483701
-0.034047 0.14242101 -0.22483701
-0.034044001 0.14249299 -0.22483701
-0.034042001 0.142565 -0.224832
-0.03404 0.142636 -0.22482
-0.034037001 0.14270601 -0.22482
-0.034033999 0.142776 -0.22482701
-0.034031 0.142848 -0.224833
-0.034028001 0.14291801 -0.224839
-0.034024999 0.142988 -0.224839
-0.034022 0.143062 -0.224834
-0.034019999 0.143132 -0.224828
-0.034017 0.143204 -0.224832
-0.034014001 0.14327399 -0.224841
-0.034010999 0.143344 -0.224841
-0.034008 0.143416 -0.224839
-0.034005001 0.143488 -0.22483701
-0.034003001 0.14356001 -0.22483601
-0.034000002 0.14363 -0.224838
-0.033996999 0.1437 -0.22483601
-0.033994 0.14377201 -0.224839
-0.033991002 0.143842 -0.224843
-0.033989001 0.143916 -0.22483499
-0.033985998 0.143988 -0.224824
-0.033984002 0.144058 -0.22482
-0.033980999 0.14413001 -0.224828
-0.033976998 0.144198 -0.22484399
-0.033973999 0.14427 -0.22485299
-0.033971 0.14433999 -0.22485299
-0.033968002 0.144412 -0.224851
-0.033964999 0.144484 -0.224852
-0.033962999 0.144554 -0.22485
-0.03396 0.14462601 -0.22485
-0.033957001 0.14469799 -0.22484601
-0.033953998 0.144768 -0.22485299
-0.033950999 0.14483801 -0.22486299
-0.033948001 0.144908 -0.224867
-0.033945002 0.14498 -0.22487199
-0.033941999 0.14505 -0.224878
-0.033939 0.14512201 -0.224874
-0.033937 0.14519399 -0.224869
-0.033934001 0.145266 -0.22486299
-0.033930998 0.145338 -0.224861
-0.033929002 0.145408 -0.22486299
-0.033925999 0.145478 -0.224866
-0.033923 0.14555 -0.22486199
-0.033920001 0.145622 -0.224858
-0.033916999 0.145694 -0.224861
-0.033914998 0.14576399 -0.224859
-0.033911999 0.145835 -0.22485299
-0.033909 0.145907 -0.22485401
-0.033907 0.14597701 -0.22485401
-0.033904001 0.14604899 -0.22485
-0.033900999 0.146121 -0.22484399
-0.033899002 0.146193 -0.224841
-0.033895999 0.146263 -0.224851
-0.033893 0.14633299 -0.22485501
-0.033890001 0.146405 -0.22484399
-0.033888001 0.146477 -0.224834
-0.033884998 0.146549 -0.224834
-0.033883002 0.14662001 -0.22482599
-0.033879999 0.14669199 -0.224819
-0.033877999 0.146764 -0.224811
-0.033875 0.146836 -0.224805
-0.033872001 0.146906 -0.224814
-0.033868 0.14697599 -0.224832
-0.033865001 0.147047 -0.22484
-0.033861998 0.147118 -0.22484
-0.033860002 0.14718799 -0.22483701
-0.033858001 0.14726 -0.22482499
-0.033854999 0.147332 -0.224823
-0.033852 0.147404 -0.224828
-0.033849001 0.147476 -0.224824
-0.033847 0.14754599 -0.224812
-0.033844002 0.147617 -0.22480699
-0.033840999 0.14769 -0.224813
-0.033838 0.14776 -0.22482701
-0.033835001 0.14782999 -0.224831
-0.033831999 0.147902 -0.22483
-0.033829 0.147974 -0.224824
-0.033826999 0.148045 -0.224812
-0.033824999 0.14811701 -0.224797
-0.033822998 0.14818899 -0.224785
-0.03382 0.148261 -0.22478899
-0.033817001 0.148331 -0.224785
-0.033815 0.14840201 -0.224774
-0.033812001 0.14847399 -0.22476999
-0.033808999 0.148544 -0.224778
-0.033806 0.148617 -0.22478899
-0.033803999 0.14868601 -0.22478101
-0.033801001 0.14875799 -0.22477099
-0.033799 0.14883 -0.224766
-0.033796001 0.148902 -0.22475401
-0.033794001 0.148973 -0.22474401
-0.033790998 0.14904501 -0.224738
-0.033789001 0.14911699 -0.224737
-0.033785999 0.149187 -0.224731
-0.033783998 0.149259 -0.224721
-0.033780999 0.149331 -0.224728
-0.033778001 0.14940099 -0.22473399
-0.033775002 0.149473 -0.224732
-0.033771999 0.149543 -0.22473399
-0.033769 0.149615 -0.224739
-0.033767 0.149685 -0.224731
-0.033764001 0.149756 -0.22471701
-0.033762001 0.14983 -0.22470599
-0.03376 0.1499 -0.2247
-0.033757001 0.14997201 -0.2247
-0.033753999 0.150042 -0.22470701
-0.033751 0.150114 -0.224705
-0.033748001 0.150186 -0.224703
-0.033744998 0.15025599 -0.224705
-0.033743002 0.150328 -0.224692
-0.033741999 0.150399 -0.224666
-0.033739001 0.150471 -0.224656
-0.033736002 0.150543 -0.224665
-0.033732999 0.150613 -0.224673
-0.03373 0.150685 -0.224665
-0.033728 0.150756 -0.224647
-0.033725999 0.15082601 -0.224646
-0.033723 0.15089799 -0.22465
-0.033720002 0.15097 -0.224648
-0.033718001 0.151042 -0.224641
-0.033714999 0.15111201 -0.224635
-0.033712 0.15118399 -0.224631
-0.033709999 0.151254 -0.22463199
-0.033707 0.151326 -0.22463
-0.033704001 0.151398 -0.22463
-0.033700999 0.15146799 -0.224628
-0.033698998 0.151539 -0.224617
-0.033697002 0.151611 -0.22460701
-0.033693999 0.15168101 -0.224611
-0.033691 0.15175299 -0.22461601
-0.033688001 0.151825 -0.22460601
-0.033686999 0.151896 -0.224584
-0.033684999 0.151968 -0.22455999
-0.033682 0.15203799 -0.22456101
-0.033679001 0.15211 -0.224575
-0.033675998 0.15218 -0.224581
-0.033673 0.15225001 -0.22457799
-0.033670001 0.15232199 -0.224572
-0.033668 0.152394 -0.224562
-0.033666 0.152466 -0.224553
-0.033663001 0.152537 -0.224545
-0.033661 0.15260699 -0.224537
-0.033658002 0.152679 -0.22453301
-0.033654999 0.152749 -0.224536
-0.033652999 0.152821 -0.224534
-0.03365 0.15289301 -0.224526
-0.033647001 0.152963 -0.224527
-0.033643998 0.153035 -0.22453301
-0.033640999 0.15310501 -0.224537
-0.033638999 0.15317699 -0.22453199
-0.033636 0.153248 -0.22452
-0.033634 0.153318 -0.224508
-0.033631999 0.15339001 -0.2245
-0.033629 0.15346199 -0.22450501
-0.033626001 0.153532 -0.22451299
-0.033622999 0.153604 -0.224509
-0.03362 0.15367401 -0.224508
-0.033617999 0.15374599 -0.2245
-0.033615999 0.153817 -0.224484
-0.033613998 0.153889 -0.224473
-0.033611 0.15395901 -0.22446901
-0.033608001 0.154029 -0.224471
-0.033604998 0.154101 -0.224481
-0.033601999 0.154171 -0.224484
-0.033599 0.15424301 -0.224482
-0.033596002 0.154313 -0.22449
-0.033592999 0.154385 -0.224491
-0.033590999 0.15445501 -0.224485
-0.033588 0.15452699 -0.224479
-0.033585999 0.154599 -0.22446799
-0.033583 0.154669 -0.224466
-0.033580001 0.154741 -0.224472
-0.033578001 0.15481099 -0.22446799
-0.033574998 0.154882 -0.224461
-0.033572 0.154954 -0.224457
-0.033569999 0.15502401 -0.224455
-0.033567 0.155094 -0.224452
-0.033564001 0.155166 -0.224452
-0.033560999 0.15523601 -0.224454
-0.033558998 0.15530799 -0.22445101
-0.033555999 0.15538 -0.224443
-0.033553001 0.15545 -0.224445
-0.033551 0.155522 -0.224445
-0.033548001 0.155591 -0.224436
-0.033546001 0.155663 -0.22442999
-0.033543002 0.155735 -0.224426
-0.033541001 0.15580501 -0.22442301
-0.033537999 0.15587699 -0.224419
-0.033535998 0.155947 -0.224409
-0.033532999 0.156018 -0.2244
-0.033530001 0.15608799 -0.22440401
-0.033527002 0.156161 -0.224408
-0.033523999 0.156231 -0.22441401
-0.033521 0.156303 -0.224417
-0.033519 0.15637399 -0.224409
-0.033516999 0.156444 -0.224393
-0.033514 0.156516 -0.22438399
-0.033512 0.15658601 -0.224382
-0.033509001 0.15665799 -0.22438399
-0.033505999 0.156728 -0.224383
-0.033503 0.1568 -0.224381
-0.033500999 0.15686999 -0.224383
-0.033498 0.156942 -0.224381
-0.033495001 0.157011 -0.22437599
-0.033493001 0.157083 -0.22437
-0.033489998 0.157153 -0.224364
-0.033488002 0.157225 -0.22435901
-0.033484999 0.157295 -0.22435699
-0.033482 0.15736701 -0.224353
-0.03348 0.157438 -0.224338
-0.033477999 0.157508 -0.224328
-0.033475999 0.15757801 -0.224324
-0.033473 0.15764999 -0.224324
-0.033470001 0.15772 -0.224327
-0.033466998 0.157792 -0.22433101
-0.033464 0.15786199 -0.224335
-0.033461001 0.157934 -0.224338
-0.033457998 0.158004 -0.224334
-0.033456001 0.158076 -0.22431999
-0.033454001 0.15814701 -0.224301
-0.033452 0.158217 -0.224297
-0.033449002 0.158287 -0.224305
-0.033445001 0.15835901 -0.224315
-0.033442002 0.158429 -0.22431999
-0.033440001 0.158501 -0.224314
-0.033438001 0.158573 -0.2243
-0.033436 0.15864301 -0.22428299
-0.033434 0.158714 -0.22426499
-0.033431001 0.158784 -0.22425701
-0.033427998 0.158856 -0.224264
-0.033425 0.158926 -0.224272
-0.033422999 0.158996 -0.224264
-0.03342 0.159068 -0.224253
-0.033418 0.159137 -0.224245
-0.033415001 0.159209 -0.224241
-0.033411998 0.159281 -0.224243
-0.033410002 0.15935101 -0.224244
-0.033406999 0.15942299 -0.224242
-0.033404 0.159493 -0.224236
-0.033402 0.159565 -0.22422899
-0.033399001 0.15963501 -0.224225
-0.033397 0.159705 -0.224215
-0.033395 0.159776 -0.2242
-0.033392001 0.15984599 -0.224198
-0.033388998 0.159918 -0.224206
-0.033386 0.159988 -0.224213
-0.033383999 0.16006 -0.224197
-0.033381999 0.16012999 -0.224179
-0.033379 0.160202 -0.224181
-0.033376001 0.160272 -0.22418401
-0.033374 0.16034301 -0.224176
-0.033372 0.160413 -0.22416399
-0.033369001 0.160485 -0.224159
-0.033365998 0.16055501 -0.22415701
-0.033364002 0.16062699 -0.224151
-0.033362001 0.160696 -0.224142
-0.033358999 0.16076601 -0.224134
-0.033357002 0.16083799 -0.22413
-0.033353999 0.160908 -0.224125
-0.033351999 0.16098 -0.22410899
-0.033349998 0.16104899 -0.22409099
-0.033348002 0.161119 -0.224086
-0.033344999 0.161191 -0.224088
-0.033342 0.16126101 -0.22409
-0.03334 0.16133299 -0.224078
-0.033337001 0.161402 -0.224067
-0.033333998 0.16147199 -0.224069
-0.033332001 0.161544 -0.224069
-0.033328999 0.161614 -0.224068
-0.033326 0.161686 -0.22406401
-0.033323999 0.16175599 -0.22405
-0.033321999 0.161828 -0.224043
-0.033319 0.161897 -0.224033
-0.033317 0.16196699 -0.22401901
-0.033314999 0.162039 -0.224006
-0.033312999 0.162109 -0.223998
-0.033310998 0.16217799 -0.223986
-0.033309001 0.16225 -0.22397099
-0.033305999 0.16232 -0.223961
-0.033303998 0.16239101 -0.223949
-0.033302002 0.162461 -0.223938
-0.033298999 0.162531 -0.22393399
-0.033296999 0.16260301 -0.223928
-0.033295002 0.162672 -0.22391599
-0.033291999 0.162742 -0.223903
-0.033289999 0.16281401 -0.22389901
-0.033287 0.162884 -0.223891
-0.033284999 0.162953 -0.223878
-0.033282999 0.16302501 -0.22387201
-0.03328 0.163095 -0.223876
-0.033277001 0.163167 -0.223877
-0.033275001 0.16323701 -0.22386099
-0.033273 0.163307 -0.22384501
-0.033271 0.163376 -0.223836
-0.033268001 0.16344801 -0.22382399
-0.033264998 0.163518 -0.223828
-0.033263002 0.16359 -0.223829
-0.033259999 0.16366 -0.223819
-0.033257 0.16373 -0.223823
-0.033254001 0.163802 -0.22383299
-0.033250999 0.163874 -0.223832
-0.033248998 0.16394401 -0.22382399
-0.033245999 0.164014 -0.223822
-0.033243999 0.164086 -0.223821
-0.033241 0.164156 -0.22381499
-0.033238001 0.16422699 -0.223813
-0.033234999 0.164298 -0.22382
-0.033232 0.16437 -0.22382
-0.033229999 0.16443899 -0.22381601
-0.033227 0.164509 -0.223809
-0.033225 0.164581 -0.223809
-0.033222001 0.16465101 -0.223811
-0.033218998 0.16472299 -0.223811
-0.033216 0.164793 -0.223814
-0.033213001 0.164865 -0.22381601
-0.033209998 0.16493499 -0.223822
-0.033206999 0.165007 -0.223831
-0.033204 0.16508 -0.223839
-0.033199999 0.16515 -0.223849
-0.033197001 0.165222 -0.223851
-0.033194002 0.16529199 -0.22385401
-0.033190999 0.165364 -0.223866
-0.033188 0.165436 -0.223876
-0.033185001 0.16550601 -0.223885
-0.033181001 0.16557901 -0.223895
-0.033177 0.16565099 -0.223915
-0.033174001 0.165723 -0.223933
-0.03317 0.165796 -0.22394601
-0.033165999 0.165868 -0.223976
-0.033162002 0.165941 -0.224006
-0.033158001 0.166013 -0.22402599
-0.033154 0.166086 -0.224057
-0.033149 0.166161 -0.224087
-0.033144999 0.166233 -0.224113
-0.033140998 0.166306 -0.224135
-0.033137001 0.16637801 -0.22416499
-0.033132002 0.166453 -0.224216
-0.033126999 0.166528 -0.22425801
-0.033121999 0.166601 -0.224288
-0.033117 0.166676 -0.224328
-0.033112001 0.166749 -0.224378
-0.033107001 0.166824 -0.224424
-0.033101998 0.166899 -0.22446699
-0.033096999 0.16697399 -0.224511
-0.033091001 0.16704901 -0.224571
-0.033085 0.167124 -0.224631
-0.033078998 0.167202 -0.224709
-0.034040999 0.138767 -0.226189
-0.034044001 0.138855 -0.22604699
-0.034046002 0.13893899 -0.225942
-0.034045 0.139018 -0.22589
-0.034045 0.13909601 -0.22583
-0.034045 0.139175 -0.22576401
-0.034046002 0.139257 -0.225674
-0.034046002 0.139336 -0.22562
-0.034045 0.139411 -0.22557899
-0.034044001 0.13948999 -0.225529
-0.034042999 0.13956501 -0.22548901
-0.034042001 0.139642 -0.225449
-0.034042001 0.13971999 -0.225385
-0.034040999 0.13979501 -0.22534201
-0.034038998 0.139871 -0.22531401
-0.034038 0.139946 -0.225288
-0.034035999 0.140019 -0.225262
-0.034033999 0.140093 -0.225237
-0.034033 0.140168 -0.225207
-0.034031 0.140242 -0.225183
-0.034029 0.14031699 -0.225163
-0.034026999 0.14039101 -0.225141
-0.034024999 0.140462 -0.225124
-0.034023002 0.140536 -0.225106
-0.034021001 0.140609 -0.225086
-0.034019001 0.14068501 -0.225063
-0.034017999 0.14075799 -0.22503699
-0.034015998 0.14083201 -0.225017
-0.034012999 0.140903 -0.225007
-0.034010999 0.140975 -0.224994
-0.034008998 0.141049 -0.224976
-0.034007002 0.141122 -0.224962
-0.034003999 0.141192 -0.224962
-0.034001 0.14126401 -0.224961
-0.033999 0.14133801 -0.22494701
-0.033996999 0.14141101 -0.224929
-0.033994999 0.14148299 -0.224921
-0.033992 0.141555 -0.22491001
-0.033989999 0.141627 -0.22490001
-0.033987001 0.141699 -0.22490001
-0.033984002 0.141771 -0.22490101
-0.033982001 0.14184199 -0.224889
-0.033980001 0.141914 -0.22487099
-0.033976998 0.141986 -0.224865
-0.033975001 0.142058 -0.224868
-0.033971999 0.14213 -0.224866
-0.033969 0.14219999 -0.22486401
-0.033967 0.142271 -0.224859
-0.033964001 0.142343 -0.22485299
-0.033961002 0.142415 -0.22485299
-0.033957999 0.14248499 -0.22485401
-0.033955 0.142557 -0.224856
-0.033953 0.142627 -0.22485401
-0.033950001 0.142699 -0.22485
-0.033946998 0.14277101 -0.224849
-0.033945002 0.14284299 -0.224847
-0.033941999 0.142915 -0.224841
-0.033939999 0.142987 -0.224834
-0.033937 0.143058 -0.224824
-0.033934999 0.14312799 -0.22482
-0.033930998 0.1432 -0.22483
-0.033927999 0.143271 -0.224839
-0.033925999 0.14334001 -0.22483701
-0.033923 0.14341199 -0.224839
-0.033920001 0.143483 -0.22484601
-0.033916999 0.143555 -0.22485
-0.033913001 0.14362501 -0.224856
-0.033909999 0.143693 -0.22487099
-0.033907 0.143765 -0.224869
-0.033904999 0.143837 -0.224861
-0.033902001 0.14390901 -0.224857
-0.0339 0.14398099 -0.224856
-0.033897001 0.144051 -0.224856
-0.033893999 0.144123 -0.22486199
-0.033891 0.14419299 -0.224867
-0.033886999 0.144263 -0.224875
-0.033884 0.144335 -0.22488099
-0.033882 0.14440501 -0.224879
-0.033879001 0.14447699 -0.224878
-0.033876002 0.144549 -0.224874
-0.033872999 0.144619 -0.224878
-0.03387 0.14469101 -0.22488099
-0.033867002 0.144761 -0.224885
-0.033863999 0.144831 -0.22489101
-0.033861 0.144903 -0.224894
-0.033858001 0.14497501 -0.224896
-0.033856001 0.145045 -0.22489201
-0.033852998 0.145117 -0.224894
-0.033849999 0.14518701 -0.22490101
-0.033847 0.14525899 -0.224895
-0.033845 0.145331 -0.224887
-0.033842001 0.145402 -0.22487999
-0.033840001 0.145474 -0.224874
-0.033837002 0.145546 -0.224868
-0.033833999 0.14561599 -0.22487
-0.033831 0.145688 -0.224875
-0.033829 0.145758 -0.224877
-0.033826001 0.14583001 -0.224875
-0.033822998 0.14590199 -0.224874
-0.033821002 0.145972 -0.224868
-0.033817999 0.146046 -0.224858
-0.033815999 0.146117 -0.22484601
-0.033813 0.14618701 -0.224841
-0.033810999 0.14625899 -0.224839
-0.033808 0.146331 -0.22483499
-0.033805002 0.146403 -0.224834
-0.033801999 0.14647301 -0.224842
-0.033799 0.146543 -0.22485
-0.033796001 0.146615 -0.224847
-0.033794001 0.146687 -0.224829
-0.033792 0.14675801 -0.224823
-0.033789001 0.14682899 -0.224829
-0.033785999 0.146901 -0.224832
-0.033783 0.146971 -0.22483601
-0.033780001 0.14704099 -0.22484601
-0.033776999 0.147113 -0.224849
-0.033774 0.147185 -0.22483701
-0.033771999 0.147256 -0.224831
-0.033769 0.147328 -0.224829
-0.033767 0.14739799 -0.22482599
-0.033764001 0.14747 -0.22482
-0.033760998 0.147542 -0.224814
-0.033758 0.14761201 -0.224821
-0.033755001 0.14768399 -0.224829
-0.033752002 0.147754 -0.22482701
-0.033750001 0.147826 -0.22482599
-0.033746999 0.147898 -0.224822
-0.033744998 0.14797001 -0.224812
-0.033741999 0.148041 -0.224802
-0.033739001 0.148111 -0.22480699
-0.033736002 0.148184 -0.224811
-0.033734001 0.14825501 -0.224803
-0.033730999 0.148325 -0.224804
-0.033728 0.148398 -0.22481801
-0.033725001 0.148467 -0.22481599
-0.033723 0.14853901 -0.22479799
-0.033720002 0.14861099 -0.224793
-0.033716999 0.148681 -0.224797
-0.033714999 0.148755 -0.22478899
-0.033712 0.148825 -0.224784
-0.033709999 0.14889599 -0.22477999
-0.033707999 0.148968 -0.224768
-0.033705 0.14904 -0.22476
-0.033702001 0.149112 -0.22476099
-0.033698998 0.14918201 -0.22476099
-0.033697002 0.14925399 -0.224757
-0.033693999 0.149326 -0.22475
-0.033691999 0.149395 -0.224742
-0.033689 0.14946701 -0.22474
-0.033686001 0.14953899 -0.224739
-0.033682998 0.149609 -0.22474299
-0.033679999 0.149681 -0.224751
-0.033677001 0.14975099 -0.224751
-0.033675 0.149823 -0.224746
-0.033672001 0.149895 -0.22474
-0.033670001 0.149967 -0.22472601
-0.033668 0.150038 -0.224713
-0.033665001 0.15010799 -0.22471499
-0.033661999 0.150181 -0.22472499
-0.033659 0.150251 -0.224727
-0.033656999 0.15032201 -0.224714
-0.033656001 0.15039501 -0.22467799
-0.033654001 0.15046699 -0.22465
-0.033651002 0.150539 -0.224657
-0.033647001 0.150609 -0.224677
-0.033643998 0.150681 -0.224677
-0.033642001 0.15075099 -0.22467799
-0.033638 0.150822 -0.22468799
-0.033636 0.150894 -0.22469001
-0.033633001 0.15096501 -0.22468001
-0.033631001 0.15103699 -0.224665
-0.033629 0.151109 -0.22465301
-0.033626001 0.151178 -0.224645
-0.033624001 0.15125 -0.22464
-0.033620998 0.15132201 -0.224638
-0.033619002 0.151392 -0.22463401
-0.033615999 0.151464 -0.224622
-0.033613998 0.151536 -0.22461499
-0.033611 0.15160701 -0.22460701
-0.033608999 0.15167899 -0.22459701
-0.033606 0.151749 -0.224594
-0.033604 0.151821 -0.224594
-0.033601001 0.15189099 -0.224592
-0.033597998 0.151963 -0.224595
-0.033594999 0.152033 -0.22460499
-0.033592001 0.152105 -0.22460701
-0.03359 0.15217499 -0.224595
-0.033587001 0.152247 -0.224584
-0.033585001 0.152318 -0.22457799
-0.033581998 0.15238801 -0.22458
-0.033578999 0.15245999 -0.22458699
-0.033576 0.152532 -0.224585
-0.033574 0.152602 -0.224573
-0.033572 0.152674 -0.224558
-0.033569999 0.15274499 -0.224546
-0.033567 0.152817 -0.22454
-0.033564001 0.152887 -0.22454201
-0.033560999 0.152959 -0.224547
-0.033558 0.15302899 -0.224547
-0.033555999 0.153101 -0.224535
-0.033553999 0.153173 -0.224528
-0.033551 0.15324301 -0.22453
-0.033548001 0.15331499 -0.22453
-0.033544999 0.153387 -0.22452401
-0.033543002 0.153457 -0.22452299
-0.033539999 0.153529 -0.224525
-0.033537 0.15359899 -0.22452299
-0.033535 0.15367 -0.22451399
-0.033532001 0.153742 -0.224502
-0.033530001 0.15381201 -0.224494
-0.033527002 0.15388399 -0.22449499
-0.033523999 0.153954 -0.224499
-0.033521 0.154026 -0.22450501
-0.033518001 0.15409601 -0.224511
-0.033516001 0.15416799 -0.22450399
-0.033512998 0.154239 -0.22449
-0.033511002 0.154309 -0.22449
-0.033507999 0.15438101 -0.224491
-0.033505999 0.154451 -0.224481
-0.033503 0.154523 -0.224481
-0.033500001 0.15459301 -0.22448599
-0.033498 0.15466499 -0.224472
-0.033495001 0.154737 -0.224464
-0.033491999 0.154807 -0.224474
-0.033489 0.15487701 -0.22447699
-0.033486001 0.15494899 -0.22447699
-0.033482999 0.155021 -0.224479
-0.033481002 0.155091 -0.224474
-0.033477999 0.15516201 -0.224462
-0.033475999 0.155232 -0.224452
-0.033473998 0.155304 -0.224435
-0.033472002 0.155375 -0.224417
-0.033470001 0.15544499 -0.224415
-0.033466 0.155518 -0.22443099
-0.033461999 0.155588 -0.22445001
-0.033459 0.15566 -0.224454
-0.033457 0.15572999 -0.22445001
-0.033454001 0.155802 -0.224443
-0.033452 0.155873 -0.22443099
-0.03345 0.15594301 -0.22442301
-0.033447001 0.15601499 -0.22442
-0.033443999 0.156085 -0.22442199
-0.033441 0.156157 -0.22442199
-0.033438001 0.15622699 -0.224424
-0.033436 0.156299 -0.224425
-0.033433001 0.156369 -0.22442301
-0.033429999 0.156441 -0.224419
-0.033427998 0.15651099 -0.22441401
-0.033425 0.156582 -0.22440401
-0.033422999 0.156652 -0.224398
-0.033420999 0.15672401 -0.224389
-0.033418 0.15679599 -0.224383
-0.033415001 0.156866 -0.224383
-0.033413 0.156938 -0.22437701
-0.033410002 0.15700801 -0.224372
-0.033408001 0.157079 -0.22436599
-0.033404998 0.157149 -0.224356
-0.033403002 0.157221 -0.22435699
-0.033399001 0.157291 -0.22436699
-0.033395998 0.157363 -0.22436699
-0.033394001 0.157433 -0.224354
-0.033392001 0.15750501 -0.224346
-0.033388998 0.157575 -0.224354
-0.033386 0.157647 -0.224355
-0.033383001 0.157717 -0.22434901
-0.033381 0.15778901 -0.224347
-0.033378001 0.157858 -0.224343
-0.033376001 0.15793 -0.224338
-0.033372998 0.158002 -0.224328
-0.033371001 0.15807199 -0.22432201
-0.033367001 0.158144 -0.224333
-0.033364002 0.158214 -0.224343
-0.033360999 0.15828399 -0.224345
-0.033358999 0.158356 -0.224336
-0.033357002 0.158426 -0.224314
-0.033355001 0.15849701 -0.22429401
-0.033353001 0.15856899 -0.22428
-0.033349998 0.158639 -0.22428299
-0.033346999 0.158711 -0.224287
-0.033344001 0.15878101 -0.224287
-0.033342 0.15885299 -0.224288
-0.033339001 0.158923 -0.224282
-0.033337001 0.15899201 -0.22427601
-0.033333998 0.15906399 -0.224277
-0.033330999 0.159134 -0.224269
-0.033328999 0.159206 -0.224261
-0.033326 0.15927801 -0.224259
-0.033323001 0.159348 -0.22426
-0.033321001 0.15942 -0.22424801
-0.033319 0.15948901 -0.224236
-0.033317 0.15956099 -0.224227
-0.033314001 0.159631 -0.22422101
-0.033312 0.159701 -0.224217
-0.03331 0.15977199 -0.2242
-0.033307999 0.159842 -0.22418
-0.033305001 0.159914 -0.224186
-0.033301 0.15998399 -0.22420301
-0.033298001 0.16005599 -0.224205
-0.033296 0.160126 -0.22419301
-0.033294 0.160198 -0.224178
-0.033291001 0.16026799 -0.22417399
-0.033289 0.160339 -0.22417
-0.033286002 0.160409 -0.22416399
-0.033282999 0.16048101 -0.22416499
-0.03328 0.160551 -0.224169
-0.033278 0.160623 -0.224167
-0.033275001 0.160693 -0.22416399
-0.033273 0.160763 -0.224152
-0.033271 0.160834 -0.22413599
-0.033268999 0.16090401 -0.22412699
-0.033266 0.16097599 -0.224125
-0.033263002 0.161046 -0.22412699
-0.033261001 0.161116 -0.224114
-0.033259001 0.16118699 -0.22409201
-0.033257 0.161257 -0.22408
-0.033254001 0.161329 -0.22407199
-0.033252001 0.16139799 -0.224059
-0.03325 0.161468 -0.224057
-0.033245999 0.161541 -0.224071
-0.033243001 0.161613 -0.22407401
-0.033241 0.16168199 -0.224062
-0.033239 0.161752 -0.224052
-0.033236999 0.161824 -0.224041
-0.033234 0.16189399 -0.224029
-0.033232 0.161963 -0.224015
-0.033229999 0.162035 -0.223994
-0.033227999 0.162104 -0.22398201
-0.033225998 0.162174 -0.22398201
-0.033222999 0.162246 -0.223983
-0.033220999 0.16231599 -0.223965
-0.033218998 0.162387 -0.22394501
-0.033216 0.162458 -0.223956
-0.033211999 0.16253 -0.22397199
-0.033209998 0.1626 -0.22396
-0.033209 0.162669 -0.22393
-0.033206001 0.16274101 -0.22391701
-0.033204 0.162811 -0.223919
-0.033201002 0.162881 -0.223923
-0.033197999 0.16295201 -0.22391
-0.033197001 0.163022 -0.22389001
-0.033194002 0.163094 -0.223884
-0.033192001 0.163164 -0.223877
-0.033190001 0.163233 -0.22386099
-0.033188 0.163303 -0.22384299
-0.033185001 0.16337501 -0.22384
-0.033181999 0.163445 -0.223848
-0.033179998 0.163515 -0.22384
-0.033177 0.16358601 -0.223829
-0.033174001 0.16365901 -0.22384501
-0.03317 0.163729 -0.223859
-0.033167999 0.163801 -0.223855
-0.033165 0.16387101 -0.22385401
-0.033163 0.16394 -0.22384401
-0.033160999 0.16401 -0.22382399
-0.033158001 0.16408201 -0.22381701
-0.033156 0.164152 -0.22381499
-0.033153001 0.164224 -0.223809
-0.033151001 0.16429301 -0.22380801
-0.033147 0.16436601 -0.22381601
-0.033144001 0.164436 -0.223832
-0.033140998 0.164508 -0.223838
-0.033137999 0.16457801 -0.223827
-0.033135999 0.164648 -0.223829
-0.033132002 0.16472 -0.223841
-0.033128999 0.164792 -0.223838
-0.033126999 0.16486201 -0.22383
-0.033124 0.16493399 -0.22383399
-0.033121001 0.165004 -0.223847
-0.033117 0.165076 -0.223855
-0.033115 0.16514599 -0.223855
-0.033110999 0.165218 -0.22386301
-0.033108 0.165291 -0.22387999
-0.033105001 0.165361 -0.22388799
-0.033101998 0.165433 -0.223892
-0.033098001 0.16550501 -0.223905
-0.033094998 0.16557699 -0.22390901
-0.033092 0.165647 -0.223915
-0.033087999 0.16572 -0.223941
-0.033084001 0.165792 -0.22397199
-0.03308 0.165865 -0.22400001
-0.033075999 0.165939 -0.22401799
-0.033071999 0.16601001 -0.224034
-0.033068001 0.16608199 -0.224061
-0.033064 0.16615701 -0.224095
-0.033059001 0.16622999 -0.224125
-0.033055 0.166302 -0.224153
-0.033050001 0.16637699 -0.224189
-0.033046 0.16644999 -0.22422799
-0.033041 0.16652501 -0.22426599
-0.033036001 0.16659699 -0.224306
-0.033031002 0.16667201 -0.224344
-0.033027001 0.166747 -0.22438
-0.033022001 0.16682 -0.224425
-0.033016998 0.166895 -0.224473
-0.033011001 0.16697 -0.224519
-0.033004999 0.167045 -0.224583
-0.033 0.16711999 -0.224631
-0.032993998 0.167198 -0.22469699
-0.033953 0.138753 -0.22627001
-0.033955999 0.138844 -0.22611199
-0.033957999 0.138928 -0.22600999
-0.033957999 0.139008 -0.22593801
-0.033959001 0.139088 -0.225861
-0.033959001 0.13916899 -0.225787
-0.033959001 0.139249 -0.225719
-0.03396 0.139327 -0.225647
-0.033959001 0.139406 -0.22558901
-0.033957999 0.139483 -0.225549
-0.033957001 0.139558 -0.22551399
-0.033955999 0.139635 -0.225466
-0.033955999 0.139714 -0.22540601
-0.033955 0.139791 -0.225354
-0.033953998 0.13986801 -0.22531401
-0.033953 0.13994101 -0.22528499
-0.033950999 0.14001501 -0.225265
-0.033948001 0.14008801 -0.225253
-0.033946998 0.140164 -0.22522099
-0.033946 0.140237 -0.22519
-0.033943001 0.140311 -0.22518
-0.033941001 0.140384 -0.22515801
-0.033939 0.140458 -0.22513799
-0.033937 0.140531 -0.22512101
-0.033934999 0.140605 -0.225099
-0.033934001 0.14068 -0.225071
-0.033932 0.140753 -0.225049
-0.03393 0.140825 -0.22503801
-0.033927001 0.14089701 -0.225026
-0.033925001 0.140971 -0.225014
-0.033923 0.14104401 -0.224999
-0.033921 0.14111599 -0.224979
-0.033918999 0.14118899 -0.22496299
-0.033916999 0.141261 -0.22495501
-0.033914 0.141333 -0.224952
-0.033911001 0.141405 -0.224942
-0.033909 0.141478 -0.22492801
-0.033907 0.14155 -0.224922
-0.033904001 0.14162201 -0.224915
-0.033902001 0.14169399 -0.224905
-0.033899002 0.141766 -0.22490101
-0.033897001 0.141838 -0.224898
-0.033893999 0.141908 -0.224898
-0.033891 0.14197899 -0.22489201
-0.033888999 0.142051 -0.22488201
-0.033886001 0.142125 -0.224879
-0.033884 0.142197 -0.22487099
-0.033881001 0.142267 -0.224869
-0.033877999 0.14233699 -0.22487999
-0.033875 0.142409 -0.22488201
-0.033872999 0.142481 -0.224866
-0.033870999 0.142554 -0.22485
-0.033868 0.142626 -0.22484501
-0.033865001 0.14269599 -0.224847
-0.033861998 0.142768 -0.22484501
-0.033860002 0.14284 -0.22484399
-0.033856999 0.14291 -0.224848
-0.033854 0.14297999 -0.22485401
-0.033851001 0.143052 -0.22485299
-0.033847999 0.143122 -0.22485501
-0.033845 0.143194 -0.224859
-0.033842999 0.14326601 -0.22485299
-0.033840001 0.14333799 -0.22484601
-0.033837002 0.143408 -0.22484399
-0.033833999 0.14348 -0.22485
-0.033831 0.14354999 -0.22485299
-0.033829 0.143621 -0.224841
-0.033826001 0.143693 -0.224839
-0.033822998 0.143764 -0.22485299
-0.03382 0.14383399 -0.224866
-0.033815999 0.143904 -0.224874
-0.033814002 0.143976 -0.224874
-0.033810999 0.14404599 -0.22487099
-0.033808999 0.144118 -0.22486299
-0.033806 0.14419 -0.224861
-0.033803001 0.144262 -0.224867
-0.033799998 0.14433201 -0.22486401
-0.033797 0.14440399 -0.22486199
-0.033794001 0.144476 -0.22486199
-0.033792 0.144545 -0.22486299
-0.033787999 0.14461599 -0.224875
-0.033785 0.144686 -0.22488099
-0.033783 0.144758 -0.22487999
-0.033780001 0.14483 -0.224874
-0.033778001 0.14490101 -0.224866
-0.033775002 0.14497299 -0.22486199
-0.033771999 0.145043 -0.224867
-0.033769 0.145114 -0.224879
-0.033764999 0.14518601 -0.224887
-0.033762999 0.145256 -0.224886
-0.03376 0.145328 -0.224888
-0.033757001 0.14539801 -0.224894
-0.033753999 0.145468 -0.224897
-0.033751 0.14554 -0.224897
-0.033748001 0.145612 -0.224895
-0.033744998 0.14568201 -0.224895
-0.033743002 0.14575399 -0.22489201
-0.033741001 0.145825 -0.224874
-0.033737998 0.145899 -0.224866
-0.033735 0.145969 -0.224875
-0.033732001 0.14603899 -0.224877
-0.03373 0.146111 -0.224869
-0.033727001 0.146183 -0.224865
-0.033725001 0.146255 -0.22486199
-0.033721998 0.14632501 -0.22486
-0.033718999 0.14639699 -0.224858
-0.033716001 0.146468 -0.224859
-0.033713002 0.146538 -0.224861
-0.033709999 0.14661001 -0.22486299
-0.033707999 0.146681 -0.224866
