-0.1117 -0.00247744 0.993739 0.0495254
-0.113843 0.00410569 0.99349 0.0553868
-0.114948 0.009479 0.993326 0.0574313
-0.118389 0.0112736 0.992903 0.0636788
-0.120684 0.0172675 0.992541 0.0704316
-0.121353 0.0139014 0.992512 0.0718439
-0.121516 0.0163554 0.992455 0.0695042
-0.120732 0.0204353 0.992475 0.0693925
-0.120856 0.0173761 0.992518 0.0681455
-0.119575 0.0168948 0.992681 0.0635403
-0.117451 0.00642476 0.993058 0.0602274
-0.114733 0.00248759 0.993393 0.0551815
-0.11373 -0.0019848 0.99351 0.0541268
-0.115197 -0.00292469 0.993338 0.0567851
-0.114587 0.00226675 0.993411 0.055182
-0.112006 -0.00651366 0.993686 0.0462459
-0.110255 -0.0081634 0.99387 0.0407036
-0.105209 -0.0188422 0.994272 0.0298038
-0.103292 -0.0218541 0.994411 0.0252471
-0.101105 -0.0277025 0.99449 0.0166708
-0.0981843 -0.0282136 0.994768 0.00680316
-0.0969644 -0.0311268 0.994801 0.00101037
-0.0961576 -0.0329595 0.99482 0
-0.0957289 -0.031393 0.994912 0.0046872
-0.0973111 -0.0270218 0.994887 0.0091787
-0.0982377 -0.0273808 0.994786 0.00996542
-0.0974502 -0.0263338 0.994892 0.00719018
-0.097096 -0.032834 0.994733 0.00437269
-0.0947509 -0.0320889 0.994984 0.00119726
-0.0950019 -0.0332754 0.994921 0.00539115
-0.094703 -0.0327218 0.994968 0.00485795
-0.0969357 -0.029781 0.994845 0.00606888
-0.0978266 -0.0260084 0.994864 0.00727902
-0.099706 -0.0253085 0.994695 0.0164605
-0.10069 -0.0208285 0.9947 0.0195518
-0.101285 -0.0227638 0.994597 0.0236489
-0.102716 -0.0215543 0.994477 0.0251628
-0.103654 -0.0264382 0.994262 0.0252563
-0.101558 -0.0320921 0.994312 0.0162956
-0.0985736 -0.0374535 0.994425 0.00826143
-0.0965809 -0.0426653 0.99441 0.00388401
-0.0968163 -0.0387185 0.994549 0.00615559
-0.0973469 -0.0434485 0.994302 0.00743991
-0.0971584 -0.0435693 0.994315 0.00471317
-0.0956116 -0.0525303 0.994032 0
-0.0945605 -0.0530927 0.994102 0
-0.093439 -0.0592819 0.993859 0
-0.0928937 -0.0612619 0.99379 0
-0.0925659 -0.064659 0.993605 0
-0.0933537 -0.0660152 0.993442 0
-0.0918455 -0.0699103 0.993316 0
-0.0903245 -0.0738695 0.993169 0
-0.0900391 -0.0736567 0.993211 0
-0.0901969 -0.0657898 0.993749 0
-0.0914442 -0.0587687 0.994075 0
-0.0918953 -0.0589948 0.99402 0
-0.0908667 -0.0583522 0.994152 0
-0.0897707 -0.0588447 0.994223 0
-0.0899995 -0.0548808 0.994429 0
-0.0900938 -0.0471438 0.994817 0
-0.0904595 -0.0451436 0.994876 0
-0.0914016 -0.045832 0.994759 0
-0.091386 -0.0457895 0.994762 0
-0.0901146 -0.0404511 0.99511 0
-0.0924557 -0.0388955 0.994957 0.00535149
-0.0938271 -0.0358613 0.994942 0.011543
-0.0957178 -0.038898 0.994648 0.0133693
-0.0962533 -0.0392992 0.994581 0.0116147
-0.0952704 -0.0376914 0.994738 0.00976217
-0.0935035 -0.0406066 0.994791 0.00897294
-0.0930659 -0.0448336 0.99465 0.006386
-0.0934503 -0.0463876 0.994543 0.00700905
-0.0961923 -0.0400657 0.994556 0.0112672
-0.0972217 -0.0383388 0.994524 0.0126989
-0.0960226 -0.0370592 0.994689 0.0122593
-0.0962568 -0.0352621 0.994732 0.015831
-0.097514 -0.0356825 0.994594 0.0187706
-0.0986061 -0.0371847 0.994432 0.0211661
-0.0993103 -0.0361319 0.9944 0.0214759
-0.100381 -0.0329921 0.994402 0.0230224
-0.0996219 -0.0290123 0.994602 0.0260859
-0.100743 -0.0228641 0.99465 0.0318131
-0.100757 -0.0281044 0.994514 0.0305051
-0.101807 -0.0272611 0.994431 0.0316965
-0.102898 -0.0216482 0.994456 0.0312865
-0.102507 -0.0189839 0.994551 0.0326035
-0.100474 -0.0172074 0.994791 0.0322043
-0.0977099 -0.016338 0.995081 0.0261585
-0.0961427 -0.0187943 0.99519 0.0213791
-0.0953472 -0.0221697 0.995197 0.0163911
-0.0953382 -0.0240045 0.995156 0.0116424
-0.0951966 -0.0199816 0.995258 0.0130608
-0.0943471 -0.0232135 0.995269 0.0135184
-0.0912171 -0.0239959 0.995542 0.0040643
-0.0898362 -0.0330348 0.995409 0
-0.089268 -0.0377745 0.995291 0
-0.0891666 -0.0427487 0.995099 0
-0.088169 -0.052872 0.994701 0
-0.0878681 -0.0558224 0.994567 0
-0.0868073 -0.0637074 0.994186 0
-0.086719 -0.064659 0.994132 0
-0.0870755 -0.0665925 0.993973 0
-0.0874484 -0.0663163 0.993959 0
-0.0863652 -0.061909 0.994338 0
-0.0868316 -0.0632107 0.994216 0
-0.0867745 -0.0622966 0.994278 0
-0.0866581 -0.0621375 0.994298 0
-0.0875082 -0.0673933 0.993882 0
-0.0877219 -0.0633363 0.994129 0
-0.0879664 -0.0630132 0.994128 0
-0.0881881 -0.0560209 0.994527 0
-0.0887316 -0.053133 0.994637 0
-0.0888302 -0.0465623 0.994958 0
-0.0893268 -0.0509044 0.994701 0
-0.0889573 -0.0569916 0.994404 0
-0.0880821 -0.0613188 0.994224 0
-0.0875797 -0.0614611 0.99426 0
-0.0874506 -0.0654236 0.994018 0
-0.0878667 -0.0645867 0.994036 0
-0.0877043 -0.0714771 0.993579 0
-0.0888252 -0.0665134 0.993824 0
-0.0888059 -0.0686764 0.993679 0.00399641
-0.0893408 -0.0634065 0.993981 0.00741498
-0.091166 -0.0674043 0.993552 0.0124628
-0.0937072 -0.053875 0.994141 0.0188996
-0.0949507 -0.0560931 0.9939 0.0212853
-0.0977913 -0.0512961 0.993884 0.0311715
-0.097181 -0.0523502 0.993889 0.0336073
-0.0953249 -0.0592564 0.993681 0.0301213
-0.0960093 -0.0598202 0.993581 0.0301264
-0.0975701 -0.0616521 0.993317 0.0327272
-0.0991114 -0.0650562 0.992947 0.0357132
-0.0994052 -0.0625516 0.993079 0.0365879
-0.0972776 -0.0773771 0.992245 0.0315542
-0.0917708 -0.0817168 0.992422 0.0162627
-0.0879508 -0.0939756 0.991682 0.000736874
-0.0877249 -0.0937612 0.991722 0
-0.0881316 -0.101277 0.990947 0
-0.0891556 -0.0928638 0.991679 0
-0.0894542 -0.0924165 0.991694 0.00142537
-0.0914987 -0.0870882 0.99199 0.0120907
-0.0948016 -0.0794902 0.992317 0.0230203
-0.0981489 -0.076681 0.992213 0.0294872
-0.0994249 -0.0706345 0.992535 0.0307959
-0.0987658 -0.0648842 0.992993 0.031325
-0.0979179 -0.0697194 0.992749 0.0309977
-0.0951384 -0.0690347 0.993067 0.0229556
-0.090494 -0.0834175 0.992397 0.00916986
-0.089581 -0.0833325 0.992487 0.00235244
-0.0893017 -0.0979328 0.991178 0
-0.0872748 -0.09687 0.991463 0
-0.0867356 -0.0962863 0.991567 0
-0.0856381 -0.100332 0.991262 0
-0.0849046 -0.102053 0.991149 0
-0.086093 -0.107998 0.990416 0
-0.0863216 -0.105066 0.990712 0
-0.0842187 -0.108542 0.990518 0
-0.0837546 -0.107602 0.99066 0
-0.0831743 -0.111235 0.990307 0
-0.082231 -0.117114 0.989708 0
-0.083072 -0.118195 0.989509 0
-0.0830294 -0.124482 0.988742 0
-0.0812581 -0.135826 0.987395 0
-0.0814102 -0.130979 0.988037 0
-0.0821707 -0.140306 0.986693 0
-0.0842326 -0.134503 0.987327 0
-0.0853443 -0.136001 0.987026 0
-0.0865695 -0.124162 0.988478 0
-0.0873702 -0.117724 0.989195 0
-0.0886604 -0.108968 0.990084 0.00333912
-0.0911508 -0.103839 0.990409 0.0138654
-0.0907365 -0.105824 0.990236 0.0138234
-0.0910267 -0.107992 0.989976 0.0123832
-0.088288 -0.108286 0.990192 0.00338624
-0.0860426 -0.107948 0.990426 0
-0.0874572 -0.0997656 0.99116 0.00590959
-0.0881137 -0.0971214 0.991364 0.00626088
-0.0910891 -0.0908612 0.991689 0.0169968
-0.0941423 -0.08246 0.992138 0.0240906
-0.0944212 -0.0777979 0.992488 0.0266271
-0.095244 -0.0694893 0.993026 0.0295596
-0.0954323 -0.0662887 0.993226 0.0308923
-0.0944639 -0.0671493 0.993261 0.027708
-0.0955621 -0.0626933 0.993447 0.0322391
-0.0956727 -0.06171 0.993498 0.0313109
-0.0935261 -0.0626168 0.993646 0.0248198
-0.0947646 -0.058107 0.993802 0.0260723
-0.0940245 -0.0611534 0.99369 0.0240188
-0.0927562 -0.0622867 0.993739 0.0176664
-0.0884793 -0.074689 0.993274 0
-0.0877128 -0.0863527 0.992396 0
-0.0871707 -0.0835346 0.992685 0
-0.088291 -0.0791699 0.992944 0
-0.0881714 -0.0842446 0.992536 0
-0.0862731 -0.0863875 0.992519 0
-0.0869783 -0.0855316 0.992532 0
-0.0869422 -0.0843347 0.992637 0
-0.0875579 -0.0735273 0.993442 0
-0.0887761 -0.067152 0.993785 0
-0.0894483 -0.0573333 0.99434 0
-0.0905278 -0.0468369 0.994792 0.00135044
-0.0919984 -0.0391514 0.994989 0.00660053
-0.0930999 -0.0370369 0.994968 0.00938978
-0.0949945 -0.0326545 0.994942 0.0157778
-0.0943825 -0.0236558 0.995255 0.01172
-0.0926712 -0.0268213 0.995335 0.00463631
-0.0921103 -0.0171463 0.995601 0.00516842
-0.091279 -0.0121512 0.995751 0
-0.0918654 -0.00786228 0.99574 0
-0.0911 -0.015164 0.995726 0
-0.0907833 -0.0185265 0.995698 0
-0.0920688 -0.0168918 0.995609 0
-0.0927865 -0.00856707 0.995649 0.00114896
-0.0927526 0.00648059 0.995668 0.00298919
-0.0921046 0.00579082 0.995733 0
-0.0918715 0.0104192 0.995716 0
-0.090419 0.00132095 0.995903 0
-0.0901685 0.00410894 0.995918 0
-0.0902285 0.00651545 0.9959 0
-0.0903065 0.0120883 0.995841 0
-0.0900608 0.00856713 0.995899 0
-0.0897972 0.0185914 0.995787 0
-0.0900428 0.0214842 0.995706 0
-0.0897315 0.0190611 0.995784 0
-0.0902319 0.0287205 0.995507 0
-0.0911089 0.0282667 0.99544 0.00175721
-0.091191 0.0266905 0.995476 0.000234561
-0.0916677 0.0348618 0.995179 0.0035884
-0.0916803 0.0244595 0.995488 0.0050424
-0.0912641 0.0242913 0.99553 0.00526828
-0.0898642 0.0102657 0.995901 0.00117078
-0.0896793 0.0162599 0.995838 0
-0.0896073 0.014637 0.99587 0
-0.0890484 0.00856224 0.99599 0
-0.0883339 0.0149924 0.995978 0
-0.0871586 0.00286873 0.99619 0
-0.0877172 0.0103283 0.996092 0
-0.087933 0.0133512 0.996037 0
-0.0889091 0.0288365 0.995622 0
-0.0896666 0.0461956 0.9949 0
-0.0903363 0.0512496 0.994592 0.0014254
-0.0915408 0.0563373 0.994206 0.0103704
-0.0921649 0.0611459 0.993865 0.0141501
-0.0922133 0.0651993 0.993602 0.0144025
-0.0917605 0.0660258 0.99359 0.0115483
-0.0935668 0.0873802 0.991771 0.0164599
-0.092593 0.0993689 0.990733 0.011814
-0.0915044 0.0920022 0.991545 0.00859231
-0.0911242 0.0963484 0.991168 0.00728136
-0.0907989 0.0953603 0.991293 0.00539078
-0.0896352 0.0876819 0.992108 0.00190032
-0.0904651 0.100976 0.990767 0.00667958
-0.0918112 0.110421 0.989635 0.0111742
-0.0936121 0.1311 0.986939 0.0182503
-0.0952564 0.149892 0.984103 0.0229761
-0.0985446 0.170989 0.980332 0.0328341
-0.100923 0.180261 0.978427 0.0429373
-0.101187 0.177385 0.978926 0.0462675
-0.0978538 0.1569 0.982755 0.0406397
-0.0951177 0.14857 0.984317 0.0312564
-0.0919619 0.12832 0.98746 0.0185837
-0.0924996 0.132868 0.986808 0.0252984
-0.0906587 0.127097 0.987739 0.019129
-0.0899203 0.126808 0.987843 0.0139802
-0.0872883 -0.291003 0.952732 0.000240441
-0.0879718 -0.270303 0.958748 0.00374748
-0.0873856 -0.272004 0.95832 0
-0.0880876 -0.284203 0.954709 0
-0.0875603 -0.302108 0.949244 0
-0.0877126 -0.309065 0.946988 0
-0.0874172 -0.312392 0.945922 0
-0.0880368 -0.29518 0.951377 0
-0.0880428 -0.281503 0.955513 0
-0.0888141 -0.270675 0.958565 0
-0.0889912 -0.261083 0.961205 0
-0.0904471 -0.24666 0.964872 0
-0.0910494 -0.236753 0.967294 0
-0.0918446 -0.226568 0.969655 0
-0.093583 -0.21116 0.972961 0.00797808
-0.0933106 -0.204062 0.974501 0.00504588
-0.0937727 -0.201204 0.975051 0.00527426
-0.0955321 -0.194934 0.976153 0.0165645
-0.0977436 -0.190539 0.976801 0.0253301
-0.099675 -0.183704 0.977915 0.0340568
-0.101351 -0.181354 0.978181 0.0406752
-0.10291 -0.175756 0.97904 0.0445642
-0.105769 -0.16555 0.980513 0.0565926
-0.106662 -0.163368 0.980782 0.0575513
-0.107908 -0.149604 0.98284 0.0609222
-0.109606 -0.134842 0.984786 0.0664868
-0.110689 -0.122511 0.986275 0.0684638
-0.111041 -0.125499 0.98586 0.0633875
-0.110338 -0.109821 0.987808 0.0628047
-0.109995 -0.11144 0.987665 0.0623052
-0.110298 -0.108777 0.987928 0.0619701
-0.110236 -0.0963499 0.989224 0.0596767
-0.109877 -0.111452 0.987677 0.056639
-0.110209 -0.110772 0.987716 0.0538441
-0.10901 -0.112613 0.987641 0.0503433
-0.108729 -0.104704 0.988542 0.0504201
-0.10942 -0.103096 0.988635 0.049922
-0.110324 -0.0910931 0.989712 0.0489777
-0.109462 -0.0913999 0.98978 0.0462677
-0.109121 -0.0849622 0.990391 0.0478209
-0.108093 -0.0807607 0.990855 0.0450743
-0.109749 -0.0848985 0.990327 0.0487546
-0.108157 -0.075087 0.991294 0.0447577
-0.10828 -0.0837782 0.990584 0.0453605
-0.106935 -0.085614 0.990573 0.0432633
-0.107362 -0.0800433 0.990993 0.0437354
-0.106574 -0.0899053 0.990232 0.0441806
-0.106864 -0.0848814 0.990644 0.0423914
-0.106923 -0.0845477 0.990666 0.040088
-0.108895 -0.0679314 0.991729 0.0443923
-0.110102 -0.0645054 0.991825 0.0482862
-0.109168 -0.0501679 0.992756 0.0456197
-0.1072 -0.0551468 0.992707 0.0401789
-0.10717 -0.0563905 0.99264 0.040354
-0.10748 -0.0535484 0.992764 0.0407162
-0.105965 -0.0455994 0.993324 0.0396214
-0.103933 -0.0464616 0.993499 0.0284515
-0.104928 -0.0419147 0.993596 0.0322879
-0.104506 -0.0550889 0.992997 0.0288772
-0.105667 -0.0508361 0.993101 0.0313932
-0.106529 -0.0513471 0.992983 0.0347568
-0.104964 -0.0494786 0.993244 0.0318644
-0.105338 -0.0433178 0.993493 0.0327621
-0.106071 -0.0367765 0.993678 0.0339775
-0.108539 -0.0289606 0.99367 0.0362858
-0.109056 -0.0248001 0.993726 0.0357244
-0.10713 -0.024692 0.993938 0.0322319
-0.10896 -0.0198742 0.993847 0.0361414
-0.109321 -0.00878289 0.993968 0.0341919
-0.107697 -0.00557262 0.994168 0.0291919
-0.10789 -0.00536559 0.994148 0.0246587
-0.108704 -0.0130882 0.993988 0.0270471
-0.105026 -0.00222396 0.994467 0.020675
-0.104882 0.00550546 0.994469 0.0212712
-0.102683 0.00010564 0.994714 0.0132555
-0.101603 0.00919122 0.994783 0.0102766
-0.107762 0.0254872 0.99385 0.029619
-0.113644 0.0303701 0.993057 0.0470081
-0.116059 0.050335 0.991966 0.055269
-0.114358 0.0466352 0.992344 0.0524545
-0.109416 0.0342144 0.993407 0.0406639
-0.107382 0.0268947 0.993854 0.0334314
-0.110592 0.0342791 0.993275 0.03835
-0.11018 0.0254692 0.993585 0.0400113
-0.10755 0.0280096 0.993805 0.0347973
-0.103393 0.0118476 0.99457 0.0223533
-0.0996585 0.00559176 0.995006 0.0115552
-0.0971814 -0.00873216 0.995228 0.000247274
-0.0966918 -0.00708743 0.995289 0
-0.0939232 -0.0234756 0.995303 0
-0.0927231 -0.0283779 0.995287 0
-0.092455 -0.0331427 0.995165 0
-0.0931646 -0.0236185 0.995371 0
-0.0942295 -0.0186512 0.995376 0
-0.0942651 -0.0145838 0.99544 0
-0.0933537 -0.0222806 0.995384 0
-0.0929933 -0.0281013 0.99527 0
-0.0921992 -0.0369459 0.995055 0
-0.0911396 -0.0419898 0.994952 0
-0.0903455 -0.0494306 0.994683 0
-0.0886633 -0.0561034 0.99448 0
-0.0862683 -0.0725629 0.993626 0
-0.0860517 -0.0769742 0.993313 0
-0.0859531 -0.0834003 0.992802 0
-0.0847042 -0.0880332 0.99251 0
-0.083478 -0.0926994 0.992189 0
-0.0822701 -0.100569 0.991523 0
-0.0818089 -0.101686 0.991447 0
-0.0820056 -0.106454 0.99093 0
-0.0818094 -0.111393 0.990403 0
-0.0815868 -0.110834 0.990484 0
-0.0814288 -0.117162 0.989769 0
-0.0807098 -0.115449 0.990029 0
-0.0815762 -0.113154 0.990223 0
-0.0831512 -0.109055 0.990552 0
-0.0842232 -0.106403 0.99075 0
-0.0849669 -0.109129 0.99039 0
-0.0850268 -0.0984063 0.991507 0
-0.0842997 -0.101898 0.991217 0
-0.0855779 -0.0949713 0.991795 0
-0.0869823 -0.0950501 0.991665 0
-0.0875133 -0.0891773 0.992164 0
-0.0887626 -0.0763934 0.993119 0
-0.0890109 -0.0755557 0.993161 0
-0.0893874 -0.0662615 0.99379 0
-0.0909214 -0.0547644 0.994351 0
-0.0921188 -0.0486995 0.994556 0
-0.0931395 -0.0388065 0.994896 0
-0.0948022 -0.0298465 0.995049 0
-0.0954318 -0.0229473 0.995171 0
-0.0991916 -0.0122748 0.994993 0.0161826
-0.104828 -0.00329676 0.994485 0.0295339
-0.109613 0.00149748 0.993973 0.0415153
-0.112769 0.0106706 0.993564 0.0510849
-0.115957 0.0102041 0.993202 0.0579591
-0.116537 0.00783721 0.993155 0.0600991
-0.117226 0.0131552 0.993018 0.0638286
-0.119351 0.0149197 0.99274 0.0669695
-0.119642 0.0143756 0.992713 0.0674336
-0.120848 0.0175529 0.992516 0.0711048
-0.123566 0.0183856 0.992166 0.0758471
-0.120949 0.011057 0.992597 0.0682883
-0.120294 0.00959245 0.992692 0.0670346
-0.117802 0.00658236 0.993015 0.0621452
-0.116381 -0.00370906 0.993198 0.0589066
-0.115747 0.00184251 0.993277 0.0560752
-0.116394 -0.00249606 0.9932 0.0568662
-0.117863 -0.001395 0.993029 0.0588991
-0.116126 -0.00725755 0.993208 0.0587038
-0.115022 -0.00308643 0.993358 0.0578604
-0.111834 -0.0123049 0.993651 0.0477078
-0.108032 -0.0158827 0.994021 0.0365162
-0.105044 -0.0223321 0.994217 0.0263381
-0.102575 -0.0256147 0.994395 0.0166925
-0.0973943 -0.0409485 0.994403 0.00273474
-0.0955831 -0.0418208 0.994543 0
-0.0950352 -0.0496966 0.994233 0
-0.0955287 -0.0436388 0.99447 0
-0.0956296 -0.0445095 0.994421 0
-0.0956029 -0.0388117 0.994663 0
-0.0949077 -0.0435412 0.994533 0
-0.094428 -0.0443913 0.994541 0
-0.0942356 -0.0459106 0.994491 0
-0.094491 -0.0449612 0.99451 0
-0.0941681 -0.0436791 0.994598 0
-0.0934847 -0.0456757 0.994572 0
-0.0938393 -0.0431403 0.994652 0
-0.0945563 -0.0366601 0.994844 0
-0.0952122 -0.0361238 0.994801 0
-0.0956344 -0.0346807 0.994812 0
-0.0973795 -0.0356936 0.994607 0.0045042
-0.0985312 -0.0368162 0.994453 0.00901988
-0.0984215 -0.0352053 0.994522 0.00799137
-0.0988105 -0.0381953 0.994373 0.00874036
-0.0982371 -0.0374356 0.994459 0.00613647
-0.0960193 -0.0452392 0.994351 0.00101016
-0.0965819 -0.0392987 0.994549 0.00168021
-0.0958161 -0.0508696 0.994098 0
-0.0955605 -0.0484761 0.994243 0
-0.0953148 -0.0569363 0.993818 0
-0.0940705 -0.0599025 0.993762 0
-0.093692 -0.0683866 0.99325 0
-0.093348 -0.0697689 0.993186 0
-0.0929889 -0.0739751 0.992915 0
-0.0923655 -0.0753832 0.992868 0
-0.0921129 -0.0770134 0.992766 0
-0.0909081 -0.0753766 0.993003 0
-0.0908074 -0.0747682 0.993058 0
-0.0910994 -0.0704235 0.993349 0
-0.0911601 -0.0717683 0.993247 0
-0.0914483 -0.062788 0.993828 0
-0.0914795 -0.0584945 0.994088 0
-0.0906792 -0.0537347 0.994429 0
-0.0914834 -0.049264 0.994587 0
-0.0921879 -0.0443663 0.994753 0
-0.0925802 -0.0444168 0.994714 0
-0.0931553 -0.0449144 0.994638 0.0027102
-0.09359 -0.0407465 0.994777 0.00731201
-0.09418 -0.0341319 0.99497 0.010491
-0.0941988 -0.0399177 0.994753 0.0108239
-0.0963142 -0.0380696 0.994623 0.0141041
-0.0958078 -0.0457857 0.994346 0.0136284
-0.0979715 -0.0399361 0.994388 0.0178757
-0.0972803 -0.0384239 0.994515 0.0177009
-0.0973322 -0.037868 0.994531 0.0202637
-0.0987889 -0.0377745 0.994391 0.0233211
-0.0994784 -0.0399471 0.994238 0.0224586
-0.100846 -0.0363971 0.994236 0.0270903
-0.101057 -0.0364315 0.994213 0.0251446
-0.100288 -0.0356684 0.994319 0.0242859
-0.0989296 -0.0325861 0.994561 0.0223213
-0.0994061 -0.0377539 0.99433 0.0228718
-0.100162 -0.0384168 0.994229 0.0230403
-0.100834 -0.0415949 0.994033 0.0263274
-0.10257 -0.0344273 0.99413 0.0314706
-0.101921 -0.0307808 0.994316 0.0305376
-0.101974 -0.02225 0.994538 0.0343447
-0.103702 -0.0239176 0.994321 0.0372147
-0.105336 -0.0189202 0.994257 0.0384205
-0.104695 -0.0263954 0.994154 0.0368226
-0.10369 -0.0242297 0.994314 0.0346278
-0.101555 -0.0238404 0.994544 0.0322666
-0.0994153 -0.0151975 0.99493 0.0276163
-0.0964489 -0.0248557 0.995028 0.0172115
-0.0947087 -0.0227999 0.995244 0.0103681
-0.0941856 -0.0327333 0.995016 0.00586058
-0.0915286 -0.0301962 0.995345 0
-0.0902637 -0.0345199 0.995319 0
-0.0900704 -0.034161 0.995349 0
-0.0901596 -0.0392294 0.995154 0
-0.0892687 -0.0465247 0.99492 0
-0.0888832 -0.0599917 0.994234 0
-0.0877803 -0.0580603 0.994446 0
-0.0868338 -0.0624763 0.994262 0
-0.0865857 -0.0657272 0.994074 0
-0.0865808 -0.0686494 0.993877 0
-0.0867034 -0.0735542 0.993515 0
-0.0872537 -0.0756093 0.993313 0
-0.0858243 -0.071814 0.993719 0
-0.0854326 -0.0706142 0.993838 0
-0.0871136 -0.0646827 0.994096 0
-0.0874114 -0.0624814 0.994211 0
-0.0876655 -0.0706755 0.99364 0
-0.0881421 -0.0696288 0.993671 0
-0.0869795 -0.0666648 0.993977 0
-0.0868704 -0.0589871 0.994472 0
-0.0886911 -0.057306 0.994409 0
-0.0888139 -0.0553456 0.994509 0
-0.0892496 -0.0585965 0.994284 0
-0.0885496 -0.0636008 0.994039 0
-0.0881861 -0.0571436 0.994464 0
-0.0880261 -0.0584912 0.994399 0
-0.0906084 -0.0520828 0.994524 0.00555373
-0.0906552 -0.0542052 0.994406 0.0078053
-0.0922963 -0.0566934 0.994116 0.0115451
-0.0916438 -0.0575896 0.994125 0.0146342
-0.0919942 -0.0544205 0.994271 0.016972
-0.0937942 -0.0553143 0.994054 0.0189951
-0.0941842 -0.0541646 0.99408 0.0190923
-0.0955414 -0.0563001 0.993832 0.0218806
-0.095956 -0.0549291 0.993869 0.0239302
-0.0967511 -0.0554763 0.993761 0.0306719
-0.0967991 -0.0516434 0.993963 0.0322897
-0.0967207 -0.0577548 0.993634 0.0311933
-0.0962822 -0.057112 0.993714 0.028487
-0.0955179 -0.0685089 0.993067 0.0228081
-0.0954668 -0.0693331 0.993015 0.0246378
-0.0962449 -0.0724347 0.992719 0.026344
-0.0940958 -0.0762476 0.992639 0.0199409
-0.0908434 -0.0858666 0.992156 0.00727658
-0.088532 -0.0909897 0.991909 0
-0.0885241 -0.0985085 0.991191 0
-0.0881883 -0.103825 0.990678 0
-0.0883822 -0.0987052 0.991184 0
-0.0892159 -0.0908926 0.991856 0
-0.0941453 -0.0818863 0.992185 0.0167064
-0.0970365 -0.0752443 0.992433 0.0259336
-0.0977572 -0.0762632 0.992284 0.0266129
-0.0984975 -0.0769025 0.992161 0.0297987
-0.096733 -0.0718866 0.992711 0.0266719
-0.0951812 -0.0761699 0.992541 0.0220405
-0.0931667 -0.0738708 0.992906 0.0144574
-0.0912105 -0.0789046 0.992701 0.00838014
-0.0892645 -0.0835041 0.992501 0.00125235
-0.0879826 -0.0941423 0.991663 0
-0.0866157 -0.101452 0.991063 0
-0.0861788 -0.100505 0.991197 0
-0.0863794 -0.0994118 0.99129 0
-0.0859585 -0.0971396 0.991552 0
-0.0852061 -0.108793 0.990406 0
-0.084979 -0.109308 0.990369 0
-0.083662 -0.113907 0.989962 0
-0.0830021 -0.117468 0.989602 0
-0.082693 -0.114262 0.990003 0
-0.0834781 -0.113623 0.990011 0
-0.0829271 -0.122423 0.989007 0
-0.0822311 -0.128699 0.988268 0
-0.0822455 -0.136532 0.987216 0
-0.0819746 -0.135899 0.987326 0
-0.0835386 -0.133363 0.98754 0
-0.0847513 -0.127851 0.988166 0
-0.0850225 -0.131688 0.987638 0
-0.0869417 -0.130483 0.987631 0
-0.0868992 -0.131357 0.987519 0
-0.0871706 -0.121351 0.988775 0
-0.0875291 -0.119917 0.988918 0
-0.0879529 -0.111421 0.989874 0
-0.0883026 -0.113489 0.989608 0.00134173
-0.0890863 -0.113387 0.989549 0.00507248
-0.0876405 -0.107701 0.990313 0.00156338
-0.0877601 -0.105388 0.990551 0.00434541
-0.088007 -0.0957662 0.991506 0.00783889
-0.0908479 -0.0902685 0.991765 0.0138548
-0.0939089 -0.0795168 0.9924 0.0224399
-0.0972316 -0.0718066 0.992668 0.0341814
-0.0986155 -0.0615743 0.993219 0.0417231
-0.100121 -0.052091 0.993611 0.0437695
-0.100661 -0.0554683 0.993373 0.0449892
-0.0975663 -0.0571638 0.993586 0.0376811
-0.0995531 -0.0553614 0.993491 0.040833
-0.10088 -0.0493264 0.993675 0.0456944
-0.100397 -0.0497525 0.993703 0.0441922
-0.0987844 -0.0531132 0.99369 0.0380023
-0.0957982 -0.0588081 0.993662 0.0269099
-0.0891216 -0.0700224 0.993556 0.00308782
-0.0882078 -0.0851034 0.99246 0
-0.087696 -0.0872719 0.992317 0
-0.0871476 -0.0847391 0.992585 0
-0.0877156 -0.0820392 0.992762 0
-0.0875172 -0.0829019 0.992707 0
-0.0872864 -0.0838934 0.992644 0
-0.0868473 -0.0858485 0.992516 0
-0.0882682 -0.0749343 0.993274 0
-0.089436 -0.0682935 0.993648 0
-0.0904706 -0.0548129 0.99439 0
-0.0926935 -0.0385187 0.994949 0.00980631
-0.0928205 -0.0379955 0.994958 0.00930869
-0.0927606 -0.0355982 0.995052 0.00944907
-0.0933082 -0.0293801 0.995204 0.00987264
-0.0932259 -0.0264574 0.995293 0.00783592
-0.0909242 -0.0271023 0.995489 0
-0.0912653 -0.0255793 0.995498 0
-0.0912907 -0.0218137 0.995585 0
-0.09101 -0.0164919 0.995713 0
-0.0909039 -0.0185189 0.995687 0
-0.0912676 -0.0180736 0.995662 0
-0.0914756 -0.0190994 0.995624 0
-0.0918511 -0.00532849 0.995759 0
-0.0930407 0.0044996 0.995652 0
-0.0923333 0.00370185 0.995721 0
-0.0924104 0.00911704 0.995679 0
-0.0913381 0.005728 0.995803 0
-0.0908979 0.00922026 0.995817 0
-0.0903301 3.02774e-07 0.995912 0
-0.0900929 0.00369965 0.995926 0
-0.0911812 0.00666989 0.995812 0
-0.0902864 0.0105269 0.99586 0
-0.0902174 0.0144263 0.995818 0
-0.0903658 0.017978 0.995746 0
-0.0910239 0.0249428 0.995536 0
-0.0912649 0.0232899 0.995554 0
-0.0907866 0.0251377 0.995553 0
-0.0910732 0.0288381 0.995427 0
-0.091242 0.0205186 0.995617 0.00334156
-0.09049 0.0235923 0.995618 0.00227134
-0.090698 0.0222393 0.99563 0.00451118
-0.0898001 0.0233244 0.995687 0
-0.0898185 0.0227301 0.995699 0
-0.0896767 0.0240769 0.99568 0
-0.0890087 0.0244247 0.995731 0
-0.0878471 0.0119418 0.996062 0
-0.0881668 0.0244264 0.995806 0
-0.0884549 0.0272148 0.995708 0
-0.0895036 0.0405389 0.995161 0
-0.0906495 0.0465631 0.994794 0.00464857
-0.09132 0.0468251 0.99472 0.0110494
-0.0923233 0.0640913 0.993664 0.0126352
-0.0937163 0.0781144 0.99253 0.0173419
-0.0936942 0.0712118 0.993051 0.0178578
-0.093707 0.0823386 0.992189 0.0173338
-0.094384 0.091113 0.991358 0.0197055
-0.0954647 0.101946 0.990199 0.0222147
-0.0937575 0.0959348 0.990962 0.0202815
-0.0934178 0.109996 0.989532 0.0167861
-0.0926121 0.101599 0.990505 0.015122
-0.0929743 0.113388 0.989191 0.0153254
-0.0947976 0.125155 0.987598 0.0205377
-0.0954093 0.128327 0.987132 0.0259122
-0.0967004 0.14037 0.985366 0.0294896
-0.0993889 0.16786 0.980788 0.0375005
-0.102472 0.190985 0.97623 0.0466542
-0.102789 0.193436 0.975714 0.0483461
-0.103516 0.193454 0.975633 0.0514144
-0.100321 0.164322 0.981292 0.0437478
-0.0972284 0.149389 0.983987 0.0344805
-0.0940716 0.140002 0.985672 0.0238916
-0.0907128 0.111096 0.989661 0.0173844
-0.0879629 0.0942077 0.991659 0.010837
-0.0853227 0.075722 0.993472 0.00436048
-0.0855549 0.0913352 0.992138 0.0067043
-0.0876938 -0.277304 0.956772 0
-0.087671 -0.289333 0.953205 0
-0.0879647 -0.287369 0.953772 0
-0.0877209 -0.300338 0.949791 0
-0.0874364 -0.30627 0.947921 0
-0.0876699 -0.311602 0.94616 0
-0.0876789 -0.302431 0.94913 0
-0.0883188 -0.290042 0.95293 0
-0.0887053 -0.27507 0.957323 0
-0.0892853 -0.266218 0.959769 0
-0.0908252 -0.258404 0.961758 0
-0.0913964 -0.245768 0.96501 0
-0.0918832 -0.234763 0.9677 0
-0.0934458 -0.221027 0.970781 0.00370253
-0.0937297 -0.211935 0.972779 0.0033957
-0.094869 -0.201344 0.974916 0.00703005
-0.096693 -0.190874 0.976841 0.0187605
-0.099776 -0.192062 0.976298 0.0305291
-0.101131 -0.181638 0.978151 0.0362407
-0.103695 -0.176144 0.978887 0.0484932
-0.106518 -0.165045 0.980517 0.0594321
-0.108015 -0.152855 0.982328 0.0624809
-0.108733 -0.151224 0.982501 0.066185
-0.109993 -0.151854 0.982264 0.0682835
-0.110372 -0.139878 0.983998 0.0682588
-0.111768 -0.126026 0.985711 0.0702575
-0.112408 -0.120785 0.986294 0.0721663
-0.111315 -0.112695 0.987375 0.0671545
-0.113344 -0.110598 0.987381 0.0695825
-0.112386 -0.110844 0.987463 0.0671009
-0.111344 -0.101986 0.988535 0.0605883
-0.111923 -0.104866 0.988168 0.0612989
-0.11121 -0.103592 0.988383 0.0583572
-0.1103 -0.0994053 0.988915 0.0553412
-0.110972 -0.101707 0.988606 0.0567526
-0.110538 -0.102085 0.988615 0.0533273
-0.109682 -0.0975998 0.989163 0.0505472
-0.108792 -0.0842056 0.990492 0.0484884
-0.108385 -0.085401 0.990434 0.0457081
-0.109369 -0.0713445 0.991438 0.0502309
-0.109211 -0.0780855 0.990947 0.0492475
-0.111117 -0.0734088 0.991092 0.0539824
-0.109548 -0.074406 0.991193 0.0498245
-0.108371 -0.0724659 0.991466 0.0465813
-0.108652 -0.0715503 0.991502 0.0460125
-0.109889 -0.073277 0.991239 0.0492385
-0.109365 -0.0731329 0.991308 0.0469097
-0.109754 -0.077338 0.990946 0.0478899
-0.110616 -0.0634445 0.991836 0.0509988
-0.111002 -0.0560157 0.99224 0.0534533
-0.111789 -0.046906 0.992624 0.0534735
-0.108615 -0.0544375 0.992592 0.0419907
-0.108235 -0.0525006 0.992738 0.0419351
-0.107191 -0.0512422 0.992917 0.039932
-0.105957 -0.0478666 0.993218 0.0374647
-0.105103 -0.047952 0.993305 0.0353083
-0.105939 -0.039203 0.9936 0.0348998
-0.107221 -0.0403814 0.993415 0.0383474
-0.107767 -0.0385551 0.993428 0.0377707
-0.10842 -0.0396355 0.993315 0.0384359
-0.106102 -0.0404778 0.993531 0.0329669
-0.104276 -0.0410268 0.993702 0.0276002
-0.10559 -0.0312556 0.993918 0.0300918
-0.106364 -0.0265877 0.993972 0.031015
-0.105443 -0.0233537 0.994151 0.0279726
-0.105424 -0.0189653 0.994246 0.0253266
-0.106897 -0.0215746 0.994036 0.0276902
-0.107849 -0.0150296 0.994054 0.0276076
-0.104157 -0.0139329 0.994463 0.0162698
-0.102656 -0.0134599 0.994626 0.0132238
-0.103821 -0.0144392 0.994491 0.0155067
-0.10122 -0.00694905 0.99484 0.00824157
-0.102598 -0.00224334 0.99472 0.0107141
-0.101255 -0.00792403 0.994829 0.00826415
-0.101445 0.000726815 0.994841 0.0102372
-0.106269 0.016846 0.994195 0.0274866
-0.108925 0.0210326 0.993827 0.0371228
-0.11239 0.0378251 0.992944 0.0463958
-0.110819 0.0366628 0.993164 0.0404629
-0.105635 0.0192859 0.994218 0.0283731
-0.105095 0.0175539 0.994307 0.0271212
-0.108592 0.0279033 0.993695 0.0360248
-0.109024 0.0305377 0.99357 0.0355926
-0.105961 0.0236128 0.99409 0.0309238
-0.101717 0.0044557 0.994803 0.0168661
-0.0974809 -0.00618832 0.995218 0.000320353
-0.0967798 -0.0140063 0.995207 0
-0.0958174 -0.0127657 0.995317 0
-0.094166 -0.017035 0.995411 0
-0.0929042 -0.0284759 0.995268 0
-0.0937051 -0.02589 0.995263 0
-0.0953037 -0.0208619 0.99523 0
-0.0955601 -0.00912974 0.995382 0
-0.0957679 -0.0043609 0.995394 0
-0.0948802 -0.0125466 0.99541 0
-0.094481 -0.0171636 0.995379 0
-0.094112 -0.0296112 0.995121 0
-0.0929143 -0.0335365 0.995109 0
-0.0916108 -0.0394969 0.995011 0
-0.0903487 -0.04373 0.99495 0
-0.0886076 -0.0543976 0.99458 0
-0.0886957 -0.0622002 0.994115 0
-0.088288 -0.0702082 0.993618 0
-0.0868794 -0.0702215 0.993741 0
-0.0857126 -0.0771443 0.993329 0
-0.0842195 -0.0849901 0.992816 0
-0.0835832 -0.0873747 0.992663 0
-0.0844759 -0.0930641 0.99207 0
-0.0841266 -0.094892 0.991926 0
-0.0833215 -0.0993146 0.991561 0
-0.0832095 -0.101199 0.99138 0
-0.082665 -0.102561 0.991286 0
-0.0837569 -0.0966807 0.991785 0
-0.0849734 -0.0936273 0.991975 0
-0.0858203 -0.0974726 0.991531 0
-0.0866663 -0.0955136 0.991648 0
-0.0866315 -0.0896679 0.992197 0
-0.0867162 -0.0893329 0.99222 0
-0.0882926 -0.0780143 0.993035 0
-0.0891261 -0.0806917 0.992746 0
-0.0905396 -0.0703239 0.993407 0
-0.0916672 -0.060126 0.993973 0
-0.092607 -0.0514013 0.994375 0
-0.0934246 -0.0431949 0.994689 0
-0.093561 -0.04056 0.994787 0
-0.0938749 -0.0337766 0.995011 0
-0.0956156 -0.0325161 0.994887 0
-0.0970186 -0.0297782 0.994837 0.000973421
-0.100861 -0.0142268 0.994799 0.0135623
-0.105885 -0.00407696 0.99437 0.0299911
-0.109008 0.0014329 0.99404 0.0406498
-0.111599 0.0090601 0.993712 0.0476466
-0.115143 0.0108066 0.99329 0.0554672
-0.116814 0.0144723 0.993048 0.0591603
-0.117499 0.0131228 0.992986 0.059852
-0.118267 0.0199973 0.99278 0.0637386
-0.118797 0.0145252 0.992812 0.0667816
-0.120106 0.0186056 0.992587 0.0688305
-0.12088 0.00963017 0.99262 0.0690259
-0.122144 0.0110332 0.992451 0.0708381
-0.119731 0.00387053 0.992799 0.0644642
-0.117342 -0.00284861 0.993087 0.0604526
-0.114031 -0.00665663 0.993455 0.0540611
-0.113614 -0.00706721 0.9935 0.052574
-0.112921 -0.0114212 0.993538 0.0485921
-0.114571 -0.00471417 0.993404 0.0518081
-0.116494 -0.00415776 0.993183 0.0543737
-0.114089 -0.0104874 0.993415 0.0511239
-0.111431 -0.0122648 0.993696 0.0477885
-0.108385 -0.0232947 0.993836 0.0394329
-0.106641 -0.0236576 0.994016 0.0309143
-0.103582 -0.031577 0.99412 0.0202211
-0.101483 -0.0279831 0.994444 0.0104835
-0.0973775 -0.045074 0.994226 0.00181425
-0.0954549 -0.0504053 0.994157 0
-0.0953578 -0.0531573 0.994023 0
-0.0962 -0.049951 0.994108 0
-0.0959281 -0.0530408 0.993974 0
-0.0960043 -0.0479084 0.994227 0
-0.0943555 -0.0598977 0.993735 0
-0.0931216 -0.0582185 0.993951 0
-0.0935794 -0.0603694 0.99378 0
-0.0936795 -0.0588205 0.993863 0
-0.0936333 -0.0591721 0.993847 0
-0.0935966 -0.0603193 0.993781 0
-0.0932527 -0.0558067 0.994077 0
-0.0935756 -0.0545068 0.994119 0
-0.0944111 -0.0513968 0.994206 0
-0.0951651 -0.0515787 0.994124 0
-0.0957614 -0.0556841 0.993846 0
-0.0961265 -0.0479529 0.994213 0
-0.0957635 -0.0529509 0.993995 0
-0.0949945 -0.0556893 0.993919 0
-0.0949645 -0.0616441 0.99357 0
-0.0956832 -0.0573496 0.993758 0
-0.0967513 -0.0518467 0.993957 0
-0.0962886 -0.0490338 0.994145 0
-0.0951602 -0.0556354 0.993906 0
-0.0939346 -0.063167 0.993572 0
-0.0948611 -0.0718582 0.992894 0
-0.0939472 -0.072804 0.992912 0
-0.0934431 -0.0764449 0.992686 0
-0.0928062 -0.0759046 0.992787 0
-0.0918347 -0.078598 0.992667 0
-0.0915174 -0.0801607 0.992572 0
-0.0922042 -0.0776552 0.992707 0
-0.0918492 -0.07479 0.99296 0
-0.0922617 -0.0691202 0.993333 0
-0.0931577 -0.0639813 0.993594 0
-0.0928468 -0.0570794 0.994043 0
-0.0924448 -0.0524925 0.994333 0
-0.0930402 -0.0495603 0.994428 0.0023024
-0.0947049 -0.0430648 0.994573 0.00739063
-0.0964154 -0.0383218 0.994603 0.0126291
-0.0961828 -0.0388938 0.994603 0.0125011
-0.0956437 -0.0409249 0.994574 0.0122482
-0.0956832 -0.0424753 0.994505 0.0150914
-0.0972602 -0.0377368 0.994543 0.0178491
-0.0966266 -0.038221 0.994587 0.0155508
-0.0970738 -0.034932 0.994664 0.0165733
-0.0967472 -0.0450779 0.994288 0.0155065
-0.0972416 -0.0390064 0.994496 0.0162579
-0.0986888 -0.0361714 0.994461 0.0213531
-0.100904 -0.0331599 0.994343 0.0283313
-0.102843 -0.0335988 0.99413 0.0335958
-0.105345 -0.029929 0.993985 0.0393518
-0.106493 -0.0302261 0.993854 0.0422053
-0.105047 -0.0314663 0.993969 0.0377944
-0.104419 -0.0363125 0.99387 0.0350669
-0.102159 -0.0331356 0.994216 0.0292939
-0.100676 -0.03837 0.994179 0.0263491
-0.102344 -0.0339727 0.994169 0.0299598
-0.10063 -0.0411862 0.994071 0.0261815
-0.100024 -0.0352005 0.994362 0.0242437
-0.102467 -0.0341142 0.994151 0.0320165
-0.102963 -0.025274 0.994364 0.0331559
-0.104663 -0.0218244 0.994268 0.0372277
-0.104132 -0.0194236 0.994374 0.0349981
-0.10367 -0.0271434 0.994241 0.0347757
-0.103099 -0.0278066 0.994282 0.035226
-0.101016 -0.0283308 0.994481 0.0299911
-0.0984532 -0.0211116 0.994918 0.0225033
-0.0953833 -0.0292912 0.99501 0.01033
-0.092391 -0.0275911 0.99534 0
-0.0912757 -0.0386365 0.995076 0
-0.0901722 -0.0401484 0.995117 0
-0.0891409 -0.0471438 0.994903 0
-0.0880446 -0.0520689 0.994755 0
-0.0884078 -0.0487026 0.994893 0
-0.0883339 -0.0522941 0.994717 0
-0.0876367 -0.0587819 0.994417 0
-0.0869275 -0.0634379 0.994193 0
-0.0864419 -0.0675937 0.993961 0
-0.0864696 -0.0645964 0.994158 0
-0.0874915 -0.0673457 0.993886 0
-0.0874959 -0.067305 0.993889 0
-0.0872218 -0.0708502 0.993666 0
-0.0865602 -0.0722842 0.993621 0
-0.0859201 -0.069333 0.993887 0
-0.0872223 -0.0663992 0.993973 0
-0.0878978 -0.061261 0.994244 0
-0.0883462 -0.0646987 0.993986 0
-0.0886265 -0.06375 0.994023 0
-0.0877889 -0.0640515 0.994078 0
-0.0878114 -0.0583314 0.994428 0
-0.0891259 -0.0545899 0.994523 0
-0.0894527 -0.0491334 0.994778 0
-0.0898947 -0.0510989 0.99464 0
-0.0908258 -0.0515125 0.994534 0
-0.0893418 -0.0519515 0.994645 0
-0.0910757 -0.0514058 0.994516 0.00842991
-0.0936728 -0.0435592 0.99465 0.016327
-0.0960743 -0.0469243 0.994267 0.0232518
-0.0968383 -0.0440471 0.994325 0.0266377
-0.095779 -0.0503541 0.994128 0.0258118
-0.0961322 -0.0436862 0.994409 0.0290536
-0.0966204 -0.0469182 0.994215 0.0284819
-0.0959032 -0.0464439 0.994307 0.0249876
-0.0964402 -0.051663 0.993997 0.0239789
-0.0959184 -0.0477869 0.994241 0.0252946
-0.0951497 -0.0600539 0.99365 0.0258027
-0.0941641 -0.0534359 0.994122 0.0242634
-0.0932623 -0.0671004 0.993378 0.0174776
-0.0913745 -0.0633956 0.993797 0.0109351
-0.0914019 -0.0691731 0.993409 0.00982317
-0.0908166 -0.0714841 0.993299 0.00806133
-0.0906982 -0.0804248 0.992626 0.00656714
-0.089815 -0.0850394 0.992321 0.00336695
-0.0893742 -0.0904837 0.99188 0
-0.0885598 -0.0924773 0.991769 0
-0.0885836 -0.0913047 0.991875 0
-0.0888376 -0.0979065 0.991223 0
-0.0889337 -0.0947742 0.991518 0
-0.0904781 -0.0901661 0.991808 0.00264086
-0.0949317 -0.0798058 0.99228 0.0151958
-0.0967137 -0.0768278 0.992343 0.0232024
-0.0975235 -0.075318 0.992379 0.0261337
-0.096311 -0.0776567 0.992317 0.0231699
-0.0960325 -0.0836125 0.99186 0.0230325
-0.0965322 -0.079518 0.992148 0.0266479
-0.0949047 -0.0770333 0.992501 0.0197828
-0.0918711 -0.0795349 0.992589 0.0103732
-0.0881413 -0.0851029 0.992466 0
-0.0871484 -0.0962167 0.991538 0
-0.0874358 -0.103216 0.990808 0
-0.0868349 -0.102701 0.990915 0
-0.0864146 -0.103639 0.990854 0
-0.0852151 -0.105662 0.990744 0
-0.0843249 -0.114589 0.989828 0
-0.0837454 -0.11401 0.989944 0
-0.0841939 -0.120968 0.989079 0
-0.0844026 -0.115259 0.989743 0
-0.0837087 -0.122671 0.988911 0
-0.0833782 -0.120932 0.989153 0
-0.0832538 -0.123385 0.98886 0
-0.0827604 -0.123085 0.988939 0
-0.0834123 -0.129918 0.98801 0
-0.0837441 -0.129355 0.988056 0
-0.0840431 -0.127799 0.988233 0
-0.0841184 -0.128611 0.988121 0
-0.0848114 -0.133754 0.987379 0
-0.08521 -0.13743 0.986839 0
-0.0850601 -0.141302 0.986306 0
-0.0870219 -0.129371 0.98777 0
-0.0867329 -0.131045 0.987575 0
-0.0872093 -0.123072 0.988558 0
-0.0877471 -0.115862 0.989382 0
-0.0868242 -0.120089 0.988959 0
-0.0868223 -0.112599 0.98984 0
-0.087048 -0.112114 0.989875 0.00138955
-0.0896237 -0.0963433 0.991305 0.0113536
-0.0924349 -0.0883761 0.991789 0.0181786
-0.0964548 -0.075538 0.992467 0.0296294
-0.0990413 -0.0646646 0.99298 0.0407171
-0.102722 -0.0581982 0.993006 0.0527409
-0.102727 -0.0562683 0.993117 0.0513276
-0.103265 -0.0530022 0.993241 0.0501928
-0.100224 -0.0548226 0.993453 0.0424137
-0.10014 -0.0531559 0.993552 0.0417983
-0.0991644 -0.0555607 0.993519 0.0407107
-0.100527 -0.0529243 0.993526 0.0447422
-0.0995934 -0.0573063 0.993377 0.0405406
-0.0979588 -0.0547847 0.993681 0.033103
-0.0907408 -0.0685298 0.993514 0.00800933
-0.0882307 -0.0758091 0.993211 0
-0.0867484 -0.0892552 0.992224 0
-0.0867362 -0.0892498 0.992225 0
-0.0877739 -0.0809787 0.992844 0
-0.0871527 -0.0798414 0.99299 0
-0.0869867 -0.0803696 0.992962 0
-0.0882346 -0.0855929 0.992415 0
-0.0878759 -0.0818141 0.992766 0
-0.0885421 -0.0693024 0.993659 0
-0.089209 -0.0639128 0.99396 0
-0.0902414 -0.0480358 0.994761 0
-0.0906291 -0.0420516 0.994996 0.00367321
-0.0919129 -0.036165 0.99511 0.00168714
-0.0912286 -0.0343924 0.995236 0
-0.0903137 -0.0327184 0.995376 0
-0.0901617 -0.0226482 0.99567 0
-0.0905483 -0.0232185 0.995621 0
-0.0911176 -0.0211465 0.995616 0
-0.0915126 -0.0252513 0.995484 0
-0.0910043 -0.0195954 0.995658 0
-0.091871 -0.00973518 0.995723 0
-0.0916678 -0.0119133 0.995718 0.00174034
-0.091232 -0.0101275 0.995778 0
-0.091297 -0.00282237 0.99582 0
-0.0916942 0.00207683 0.995785 0
-0.0920008 0.00574258 0.995742 0
-0.0920401 0.00195158 0.995753 0
-0.0916599 0.00534675 0.995776 0
-0.09086 0.0118054 0.995794 0
-0.0909208 0.00716723 0.995832 0
-0.0905389 -0.000601005 0.995893 0
-0.091166 0.0111959 0.995773 0
-0.0905532 0.00891731 0.995852 0
-0.0900778 0.0109227 0.995875 0
-0.0898191 0.013477 0.995867 0
-0.0901385 0.0208698 0.995711 0
-0.0912978 0.0311507 0.995336 0
-0.0913491 0.0337318 0.995247 0.0012937
-0.0916621 0.0255508 0.995462 0.00516401
-0.0925571 0.0229087 0.995444 0.0107895
-0.0908581 0.0187656 0.995687 0.00748132
-0.089959 0.0227113 0.995686 0.00418942
-0.0894858 0.0255314 0.995661 0
-0.089507 0.0338928 0.995409 0
-0.0896445 0.0392304 0.995201 0
-0.0895114 0.0339931 0.995405 0
-0.0891902 0.0394219 0.995234 0
-0.0892541 0.0311058 0.995523 0.00099849
-0.0898975 0.0434344 0.995003 0.00508813
-0.0915117 0.0520751 0.994442 0.0127907
-0.0928655 0.062076 0.993742 0.0170405
-0.0937972 0.0680184 0.993265 0.0211714
-0.0942492 0.0751772 0.992706 0.0215911
-0.0944981 0.0775433 0.9925 0.021786
-0.0966576 0.100709 0.99021 0.028253
-0.0979806 0.11999 0.987928 0.0315966
-0.0981639 0.123908 0.987426 0.032043
-0.0972599 0.123587 0.987556 0.0302607
-0.0966172 0.129287 0.986889 0.0273868
-0.0962286 0.126477 0.987291 0.0263416
-0.0961611 0.12949 0.986907 0.0254931
-0.0970163 0.139482 0.985461 0.0272331
-0.0960296 0.135799 0.986072 0.0269071
-0.0983201 0.150132 0.983765 0.0349318
-0.102172 0.182673 0.97785 0.0470071
-0.104345 0.204946 0.973195 0.0519555
-0.103528 0.204223 0.973435 0.0492025
-0.10153 0.181486 0.978138 0.043814
-0.0988884 0.163691 0.981543 0.0336077
-0.0964003 0.143995 0.984872 0.0295304
-0.0930116 0.123378 0.987991 0.0183708
-0.0876913 0.0939981 0.991703 0.00224684
-0.0862733 0.085038 0.992636 0
-0.0836999 0.0659468 0.994306 0
-0.0822461 0.0530614 0.995198 0
-0.0882645 -0.284153 0.954708 0
-0.088208 -0.289251 0.953181 0
-0.0887009 -0.279153 0.956141 0
-0.0881829 -0.296923 0.950821 0
-0.0882585 -0.297931 0.950499 0
-0.0884656 -0.304357 0.948441 0
-0.0884601 -0.294387 0.951583 0
-0.088323 -0.287647 0.953655 0
-0.0893783 -0.285856 0.954095 0
-0.0901029 -0.265582 0.959868 0
-0.0907986 -0.25668 0.962222 0
-0.0917274 -0.248408 0.964302 0
-0.0918915 -0.240818 0.96621 0
-0.0926194 -0.227556 0.96935 0
-0.0936618 -0.212261 0.972714 0.00485684
-0.0958987 -0.208068 0.973402 0.0136213
-0.0987854 -0.201158 0.974565 0.0248649
-0.100331 -0.191632 0.976325 0.0315422
-0.101843 -0.180301 0.978325 0.0398049
-0.103425 -0.170363 0.979939 0.044623
-0.105572 -0.157828 0.981807 0.0539813
-0.107113 -0.153149 0.982381 0.0593946
-0.108645 -0.137133 0.984576 0.0645724
-0.110165 -0.138143 0.984266 0.0698446
-0.111545 -0.135812 0.984435 0.0726908
-0.114266 -0.130982 0.984778 0.0797246
-0.114388 -0.126387 0.985364 0.0788908
-0.114184 -0.119893 0.986199 0.0749975
-0.113817 -0.116263 0.986675 0.0725714
-0.113837 -0.106336 0.987792 0.0688719
-0.114001 -0.102665 0.988162 0.0665222
-0.111838 -0.107213 0.987926 0.0602485
-0.110353 -0.102872 0.988554 0.0562904
-0.109494 -0.104551 0.988474 0.0534575
-0.109642 -0.100976 0.988829 0.0518164
-0.110376 -0.0835656 0.990371 0.053561
-0.109536 -0.0894234 0.989952 0.0512551
-0.108637 -0.0778429 0.991029 0.0507966
-0.10846 -0.0674164 0.991812 0.0496132
-0.109687 -0.073679 0.991232 0.049932
-0.111362 -0.0646023 0.991678 0.0536375
-0.110843 -0.0773143 0.990826 0.0529657
-0.110517 -0.0687121 0.991496 0.0506261
-0.110118 -0.0668556 0.991667 0.0489432
-0.108878 -0.0666848 0.991816 0.04479
-0.108795 -0.0656556 0.991894 0.0450967
-0.109433 -0.0659791 0.991802 0.04566
-0.110284 -0.0606689 0.992047 0.0481716
-0.109679 -0.0592581 0.992199 0.0472059
-0.110434 -0.0612544 0.991994 0.049057
-0.110407 -0.0507331 0.992591 0.0491043
-0.111227 -0.0428791 0.992869 0.050567
-0.109717 -0.042393 0.993058 0.046748
-0.107808 -0.0481273 0.993006 0.0420427
-0.106151 -0.0519469 0.992992 0.0391155
-0.106584 -0.0497982 0.993056 0.0402552
-0.109029 -0.0418909 0.993155 0.0456807
-0.108607 -0.038471 0.99334 0.0432494
-0.107258 -0.0345767 0.99363 0.0393044
-0.107837 -0.0295006 0.993731 0.0374198
-0.105992 -0.0338195 0.993792 0.0320436
-0.1051 -0.0384833 0.993717 0.0291291
-0.104139 -0.0395537 0.993776 0.0254045
-0.105638 -0.0239747 0.994116 0.0286739
-0.105341 -0.0264394 0.994085 0.0269289
-0.105356 -0.0176789 0.994277 0.0255096
-0.107728 -0.0103955 0.994126 0.0327139
-0.109397 -0.00223428 0.993996 0.0348325
-0.104824 -0.0123386 0.994414 0.0201947
-0.102412 -0.0155348 0.994621 0.011313
-0.100921 -0.0165247 0.994757 0.0081319
-0.100752 -0.00910439 0.99487 0.00721406
-0.103502 0.00178118 0.994628 0.013023
-0.105663 -0.000872069 0.994402 0.020923
-0.106374 0.0114984 0.99426 0.0256097
-0.108282 0.0145463 0.994014 0.0324926
-0.108974 0.0214061 0.993814 0.0363098
-0.109273 0.0232316 0.99374 0.0374155
-0.105451 0.0272561 0.994051 0.0273106
-0.103124 0.0105425 0.994613 0.018619
-0.103533 0.00754059 0.994597 0.0217433
-0.106736 0.0149611 0.994175 0.0299713
-0.107996 0.0211938 0.993925 0.0324574
-0.105167 0.0134707 0.994363 0.0265061
-0.0998269 -0.000833478 0.995004 0.0124361
-0.0963182 -0.010282 0.995297 0
-0.0963475 -0.0191834 0.995163 0
-0.0954297 -0.0177998 0.995277 0
-0.093963 -0.0151871 0.99546 0
-0.0941707 -0.0212899 0.995328 0
-0.0943955 -0.0162528 0.995402 0
-0.094999 -0.0201469 0.995273 0
-0.0956646 -0.00869942 0.995376 0
-0.0953633 -0.00484167 0.995431 0
-0.0948276 -0.0130191 0.995409 0
-0.0936692 -0.0254376 0.995278 0
-0.093154 -0.0376633 0.994939 0
-0.0917181 -0.0424797 0.994879 0
-0.0914359 -0.0406509 0.994981 0
-0.090244 -0.0513742 0.994594 0
-0.0891075 -0.0544001 0.994535 0
-0.0883411 -0.0641584 0.994022 0
-0.0882042 -0.0637266 0.994062 0
-0.0861766 -0.0775931 0.993254 0
-0.0854383 -0.0736608 0.993617 0
-0.0847878 -0.0816991 0.993044 0
-0.084255 -0.0814385 0.993111 0
-0.0840672 -0.089135 0.992465 0
-0.0837145 -0.0875361 0.992638 0
-0.0835617 -0.0945579 0.992006 0
-0.0841136 -0.0881551 0.992549 0
-0.08436 -0.0929237 0.992093 0
-0.0845313 -0.0930928 0.992063 0
-0.0852577 -0.0905767 0.992233 0
-0.086281 -0.0899493 0.992202 0
-0.0867857 -0.0906592 0.992093 0
-0.0876992 -0.0802424 0.99291 0
-0.0890392 -0.0736325 0.993303 0
-0.089333 -0.0668386 0.993757 0
-0.090899 -0.0640321 0.993799 0
-0.0920885 -0.0569431 0.994121 0
-0.0924109 -0.0533411 0.994291 0
-0.0936491 -0.0414266 0.994743 0
-0.0952174 -0.0363028 0.994794 0
-0.0959462 -0.0307245 0.994912 0
-0.0964519 -0.0290084 0.994915 0
-0.0962286 -0.0328132 0.994818 0
-0.0973917 -0.0276909 0.994861 0.00205439
-0.101614 -0.017176 0.994676 0.0149865
-0.105173 -0.00619357 0.994435 0.0269878
-0.106585 -0.00793751 0.994272 0.0304353
-0.108706 -0.00419785 0.994065 0.037215
-0.109872 -0.00496649 0.993933 0.0412297
-0.111688 0.000528821 0.993743 0.0456071
-0.113055 0.00272337 0.993585 0.0490735
-0.11326 0.00802858 0.993533 0.0505301
-0.113212 0.00438457 0.993561 0.0513719
-0.116823 0.00607566 0.993134 0.0584519
-0.119265 0.00623579 0.992843 0.0640919
-0.118323 0.00429132 0.992966 0.0631111
-0.11794 0.000873708 0.99302 0.061347
-0.116347 -0.000244657 0.993209 0.057588
-0.113936 -0.0121528 0.993414 0.0520241
-0.113097 -0.0173169 0.993433 0.0490881
-0.111673 -0.0196439 0.993551 0.0471529
-0.112392 -0.0202594 0.993457 0.0468813
-0.115099 -0.00995305 0.993304 0.0522833
-0.114443 -0.00940208 0.993385 0.0518373
-0.110555 -0.0170817 0.993723 0.0429103
-0.108719 -0.0212537 0.993845 0.0375658
-0.104425 -0.0282799 0.994131 0.0240018
-0.102499 -0.0368515 0.99405 0.0176198
-0.100744 -0.0348809 0.994301 0.00959724
-0.0994746 -0.042674 0.994125 0.00708784
-0.0976097 -0.0411649 0.994373 0.00227743
-0.0963601 -0.0495334 0.994113 0
-0.0959126 -0.0500443 0.994131 0
-0.0960632 -0.0546122 0.993876 0
-0.0960176 -0.0514085 0.994051 0
-0.0947162 -0.058638 0.993776 0
-0.093939 -0.0624413 0.993618 0
-0.0936669 -0.0601714 0.993784 0
-0.0935521 -0.0624848 0.993652 0
-0.0935168 -0.0625962 0.993648 0
-0.0939543 -0.0612176 0.993693 0
-0.0933678 -0.0593116 0.993863 0
-0.0935473 -0.0650113 0.99349 0
-0.0934024 -0.0589206 0.993883 0
-0.0942049 -0.0637466 0.99351 0
-0.0947624 -0.0613851 0.993605 0
-0.0951005 -0.0583282 0.993757 0
-0.0954978 -0.0603358 0.993599 0
-0.0952021 -0.0633962 0.993437 0
-0.0944301 -0.0635653 0.9935 0
-0.0947612 -0.0666774 0.993265 0
-0.0948665 -0.0601038 0.993674 0
-0.0957727 -0.0603927 0.993569 0
-0.0963167 -0.0531625 0.99393 0
-0.0950016 -0.0659053 0.993293 0
-0.0945081 -0.0674391 0.993237 0
-0.094826 -0.0741125 0.992731 0
-0.0944335 -0.0745784 0.992734 0
-0.0935405 -0.0708 0.993095 0
-0.0941079 -0.0725682 0.992914 0
-0.0936526 -0.0771777 0.992609 0
-0.0930376 -0.0771779 0.992667 0
-0.0931336 -0.0736905 0.992923 0
-0.0939356 -0.061661 0.993667 0.00209926
-0.0949806 -0.0602743 0.993653 0.00561423
-0.0966282 -0.0520083 0.993961 0.00964688
-0.0972469 -0.053513 0.993821 0.0129902
-0.0953738 -0.0522653 0.994069 0.0114404
-0.0964323 -0.0508353 0.994041 0.0122976
-0.0959947 -0.0532925 0.993954 0.0106397
-0.0954505 -0.0465538 0.994345 0.00925366
-0.095269 -0.0455054 0.994411 0.0112005
-0.0948926 -0.0477238 0.994343 0.0106056
-0.0969429 -0.0434668 0.99434 0.0173376
-0.0960325 -0.0470999 0.994263 0.0123654
-0.0950713 -0.0412594 0.994615 0.00977939
-0.0950117 -0.0435376 0.994524 0.0108045
-0.0958056 -0.0400334 0.994595 0.0120399
-0.0985092 -0.0370874 0.994445 0.0203083
-0.100451 -0.034195 0.994354 0.0268907
-0.102638 -0.0307233 0.994244 0.0335478
-0.104482 -0.0316816 0.994022 0.0389685
-0.10616 -0.0293838 0.993915 0.0419113
-0.105002 -0.0312164 0.993982 0.0384589
-0.10443 -0.0340374 0.99395 0.0375778
-0.102934 -0.0285255 0.994279 0.0333842
-0.100777 -0.0403054 0.994092 0.0256101
-0.0992622 -0.0414984 0.994196 0.0218136
-0.0980633 -0.049918 0.993927 0.0172409
-0.0974082 -0.0482754 0.994073 0.0139273
-0.0987828 -0.0400601 0.994302 0.0185423
-0.10012 -0.0327916 0.994435 0.0247354
-0.100255 -0.0289778 0.99454 0.0250499
-0.10005 -0.03052 0.994514 0.0245879
-0.0989697 -0.039315 0.994313 0.0212479
-0.0983091 -0.0375673 0.994447 0.0186301
-0.0954936 -0.0371889 0.994735 0.012765
-0.0934419 -0.0290623 0.995201 0.00592491
-0.0915671 -0.0349308 0.995186 0.000450698
-0.091431 -0.0326735 0.995275 0
-0.0905446 -0.0426345 0.994979 0
-0.090704 -0.0416491 0.995007 0
-0.0889432 -0.0504229 0.99476 0
-0.0885668 -0.0509537 0.994766 0
-0.087994 -0.0525733 0.994733 0
-0.0878648 -0.0523285 0.994757 0
-0.0878751 -0.0640109 0.994073 0
-0.0881168 -0.0640302 0.99405 0
-0.0873027 -0.0675525 0.993889 0
-0.0877088 -0.0611168 0.99427 0
-0.088203 -0.0661146 0.993906 0
-0.0881394 -0.0568407 0.994485 0
-0.0882845 -0.0688226 0.993715 0
-0.0881175 -0.0654514 0.993957 0
-0.0874135 -0.068849 0.99379 0
-0.08769 -0.0645612 0.994053 0
-0.0879444 -0.0618419 0.994204 0
-0.088219 -0.0564495 0.9945 0
-0.0885834 -0.0627889 0.994088 0
-0.0883392 -0.0629131 0.994102 0
-0.0884461 -0.0603354 0.994252 0
-0.0892394 -0.0479462 0.994856 0
-0.0896492 -0.052143 0.994608 0
-0.090193 -0.042051 0.995036 0
-0.0905015 -0.051824 0.994547 0
-0.0922821 -0.0445936 0.994734 0.00725624
-0.0934048 -0.0489598 0.994424 0.0137028
