# .PCD v0.7 - Point Cloud Data file format
VERSION 0.7
FIELDS x y z
SIZE 4 4 4
TYPE F F F
COUNT 1 1 1
WIDTH 1373
HEIGHT 1
VIEWPOINT 0 0 0 1 0 0 0
POINTS 1373
DATA ascii
-0.016280333 0.16309385 -0.22252917
-0.016143667 0.16308866 -0.22254999
-0.015935667 0.16307233 -0.22250998
-0.015713168 0.16307284 -0.22256131
-0.015497168 0.16309683 -0.22255768
-0.015277833 0.16312216 -0.2225825
-0.015119251 0.16311291 -0.22258168
-0.0095389998 0.163067 -0.222597
-0.0092867492 0.16311137 -0.222573
-0.0090853861 0.16311261 -0.22254321
-0.0089170001 0.16309716 -0.2225455
-0.0086949999 0.16308767 -0.22253501
-0.0084831668 0.16307949 -0.22253816
-0.0082975002 0.16310251 -0.22252199
-0.0080895834 0.16310766 -0.22251564
-0.0079111671 0.16311416 -0.22249334
-0.0077024442 0.16310489 -0.22248179
-0.0074816667 0.16309316 -0.22245783
-0.0073563331 0.16308367 -0.222417
-0.0071308003 0.1630874 -0.22242698
-0.001130625 0.16308126 -0.22242175
-0.00082133332 0.16307633 -0.22258432
-0.019007999 0.16322599 -0.222591
-0.018856285 0.16329913 -0.22257359
-0.018659167 0.16327818 -0.22253852
-0.018421 0.163303 -0.22251299
-0.018203 0.16328299 -0.22249299
-0.018093999 0.1633255 -0.22246276
-0.017699501 0.16329384 -0.22247584
-0.017483501 0.16328116 -0.22244667
-0.017295668 0.16328201 -0.22243635
-0.0171478 0.1633072 -0.2224474
-0.0167096 0.16330561 -0.22246298
-0.016487835 0.16331133 -0.22246633
-0.016290998 0.16331501 -0.22250715
-0.016136667 0.16329901 -0.22252567
-0.015926667 0.163285 -0.22252066
-0.015705166 0.16328382 -0.22255601
-0.015490666 0.16327313 -0.22255267
-0.015271501 0.16329876 -0.22257726
-0.015112333 0.16332166 -0.2225555
-0.0095304996 0.16331249 -0.22257999
-0.0092998007 0.16331719 -0.2225554
-0.0091075385 0.16331786 -0.2225537
-0.0089312494 0.16331787 -0.22253451
-0.0086873332 0.163298 -0.22251934
-0.0084751667 0.16329217 -0.22253549
-0.008290167 0.16328083 -0.22253202
-0.0081270915 0.16327545 -0.22251654
-0.0079255719 0.16330671 -0.22248171
-0.0076946667 0.16331588 -0.22246902
-0.0074740001 0.163304 -0.22244418
-0.007348333 0.16329567 -0.22241567
-0.0071450002 0.163214 -0.222409
-0.0010924999 0.16328333 -0.22241734
-0.00081333332 0.16328867 -0.22257467
-0.019049 0.16354901 -0.2225945
-0.0189295 0.16351214 -0.22257538
-0.0187 0.16349167 -0.22253257
-0.018414 0.16347867 -0.22251134
-0.018107601 0.1635094 -0.2224848
-0.017691834 0.16350417 -0.22246735
-0.017476 0.16349249 -0.22243601
-0.01727525 0.163462 -0.2224085
-0.017151443 0.16347367 -0.22242478
-0.016775999 0.163495 -0.22242701
-0.016545666 0.16352634 -0.22247534
-0.016308887 0.16351521 -0.22247666
-0.016128667 0.163509 -0.22251566
-0.01592 0.16349466 -0.222497
-0.015698165 0.16349401 -0.22253549
-0.015524833 0.16348584 -0.22254516
-0.015309223 0.163478 -0.22256745
-0.015105125 0.16349974 -0.22256413
-0.0095236665 0.16348933 -0.22257666
-0.0093098003 0.16348779 -0.22254619
-0.0091022216 0.16350967 -0.22252777
-0.0089316666 0.16351968 -0.22251368
-0.0086793331 0.16351067 -0.22251435
-0.0084663341 0.16350549 -0.2225415
-0.0082825003 0.16349183 -0.22251983
-0.0081120832 0.16348176 -0.22251485
-0.0079370011 0.16348062 -0.22249737
-0.0077231997 0.1635164 -0.22246981
-0.0075094444 0.16351956 -0.22245312
-0.0073385001 0.163544 -0.222413
-0.0071148002 0.1635108 -0.22241381
-0.0010629999 0.163422 -0.22240201
-0.00080633332 0.16349934 -0.22255135
-0.019042 0.16372533 -0.22259067
-0.018929668 0.16371423 -0.22256777
-0.018739333 0.16370566 -0.22253482
-0.018501164 0.1636955 -0.2225185
-0.018129401 0.16368321 -0.2224998
-0.017773001 0.16371667 -0.22245102
-0.017510446 0.16370688 -0.22244123
-0.01731425 0.1636745 -0.22240852
-0.017143333 0.16368556 -0.22242254
-0.016769668 0.16367035 -0.22240967
-0.016539499 0.16370049 -0.22245726
-0.01629075 0.163717 -0.22247387
-0.016120667 0.16372067 -0.222516
-0.015911 0.16370799 -0.22251068
-0.015689833 0.1637065 -0.22253467
-0.015515666 0.16370034 -0.22256298
-0.015301 0.16369078 -0.22256947
-0.015092183 0.16367017 -0.22256745
-0.011082 0.163774 -0.222598
-0.010992 0.1637315 -0.22258699
-0.010034333 0.163748 -0.22259033
-0.0099291997 0.16376081 -0.22258019
-0.0095163332 0.16370066 -0.22255902
-0.0092941672 0.16368516 -0.22254016
-0.0091108186 0.1636821 -0.22252183
-0.008934143 0.16370942 -0.22248642
-0.0086723333 0.16372034 -0.22249234
-0.0084579997 0.163719 -0.22254415
-0.0082743336 0.16370434 -0.22251749
-0.0081045004 0.16369234 -0.22250007
-0.0079207774 0.16368334 -0.22248799
-0.0077334 0.16368899 -0.22247839
-0.0074900002 0.16371086 -0.22244558
-0.0073313336 0.16372234 -0.22242133
-0.0071029998 0.16370933 -0.22241384
-0.00080149999 0.163673 -0.222514
-0.00079700002 0.16377901 -0.22251099
-0.01891375 0.16391836 -0.22257902
-0.018730333 0.16391917 -0.22255017
-0.01854125 0.16389224 -0.22252475
-0.0183965 0.163937 -0.22250649
-0.0181085 0.16387634 -0.2224745
-0.0177655 0.163895 -0.2224585
-0.017503113 0.16391644 -0.22242355
-0.017329667 0.16390467 -0.22240366
-0.017135223 0.16389734 -0.2224192
-0.016765 0.163811 -0.222404
-0.016533667 0.16387583 -0.22243851
-0.016308 0.16388686 -0.22245298
-0.016113501 0.163899 -0.22252201
-0.015902666 0.16392067 -0.22250932
-0.0156825 0.16391684 -0.22251736
-0.015507333 0.16391267 -0.222561
-0.015292444 0.16390355 -0.22257511
-0.015054286 0.16389787 -0.22257042
-0.014643 0.16394199 -0.22258399
-0.014277 0.163856 -0.222599
-0.011239 0.163855 -0.222589
-0.011107665 0.16387033 -0.22259168
-0.010985001 0.16391033 -0.22259633
-0.010119142 0.16391087 -0.22258143
-0.0099288747 0.16391838 -0.22255062
-0.009509 0.163911 -0.22254001
-0.0092863329 0.16389616 -0.22253366
-0.0090959165 0.16388775 -0.2225215
-0.0089102499 0.16388288 -0.2225101
-0.0086645 0.1639 -0.222509
-0.0084599992 0.16391441 -0.22252259
-0.008266666 0.16391601 -0.22250684
-0.0080969995 0.16390391 -0.22248922
-0.0079134442 0.16389343 -0.22246867
-0.0077183335 0.16388333 -0.22245367
-0.0075068749 0.16388251 -0.22244225
-0.0073245 0.163899 -0.22241899
-0.0071200002 0.16385201 -0.222408
-0.00079099997 0.163923 -0.222526
-0.018923286 0.16408958 -0.22257586
-0.0187132 0.16411582 -0.22254319
-0.018579667 0.164124 -0.22252934
-0.01839 0.16411434 -0.222506
-0.018101333 0.16408667 -0.2224565
-0.017759666 0.16406967 -0.22244032
-0.017510502 0.164106 -0.22241817
-0.017259667 0.16406733 -0.22240199
-0.017135667 0.16408516 -0.22241402
-0.016524835 0.16408883 -0.22244884
-0.016286887 0.16408099 -0.2224759
-0.016108334 0.16407134 -0.22248334
-0.015896 0.16412933 -0.22247899
-0.015665999 0.1641126 -0.22251201
-0.015501334 0.16411966 -0.22251932
-0.015330167 0.16411316 -0.22253032
-0.015105 0.16410281 -0.22256227
-0.014637333 0.16408335 -0.22258699
-0.014459 0.164148 -0.222581
-0.011986 0.164168 -0.222589
-0.010505 0.1641385 -0.222587
-0.010107819 0.16407618 -0.22257982
-0.0099378573 0.16409071 -0.222553
-0.0095016668 0.16412233 -0.222524
-0.0092778336 0.16411017 -0.22254182
-0.0090866666 0.16410275 -0.22254415
-0.0089088893 0.16408923 -0.2225302
-0.0086573334 0.164078 -0.22251266
-0.0084363995 0.16408481 -0.222519
-0.0082512004 0.1641134 -0.22249739
-0.0080896672 0.164114 -0.22246832
-0.0079044439 0.16410823 -0.2224838
-0.0077101667 0.16409634 -0.22245185
-0.0074997498 0.164076 -0.2224315
-0.0073460001 0.164077 -0.22241433
-0.00078400003 0.164101 -0.2225215
-0.019020334 0.16429101 -0.22259234
-0.01890789 0.16427967 -0.22256589
-0.0187268 0.1642856 -0.22253342
-0.018575 0.164297 -0.2224955
-0.018382333 0.164325 -0.22248967
-0.0180925 0.16430016 -0.22246568
-0.017752668 0.16427833 -0.222418
-0.017541001 0.1642866 -0.22241879
-0.017215 0.164397 -0.22240099
-0.017123001 0.164249 -0.22240201
-0.016976001 0.164379 -0.22240201
-0.0167435 0.164342 -0.22240901
-0.016517499 0.16429918 -0.22243369
-0.016319001 0.1642945 -0.22247434
-0.016149668 0.16428484 -0.222472
-0.015891001 0.16430199 -0.22244549
-0.0156778 0.1642838 -0.222507
-0.015494499 0.164296 -0.22251724
-0.0153134 0.16431001 -0.22253001
-0.015097002 0.16431479 -0.22255634
-0.014630334 0.16429301 -0.22256134
-0.014456 0.16422001 -0.222587
-0.014305 0.16431975 -0.22257726
-0.013706 0.164398 -0.222599
-0.013036501 0.164324 -0.2225955
-0.01198 0.16431099 -0.22259751
-0.0109695 0.16430101 -0.222599
-0.010498334 0.16431533 -0.22258234
-0.010098909 0.16430198 -0.22257991
-0.0099216662 0.16428342 -0.22255689
-0.0094945002 0.16429999 -0.22253101
-0.0092695011 0.16432349 -0.22254384
-0.0090795001 0.16431326 -0.22252108
-0.0089013334 0.16430055 -0.22251622
-0.0086486666 0.16429134 -0.22251934
-0.0084796669 0.16428535 -0.22252899
-0.0083105005 0.16428474 -0.22251263
-0.0080707995 0.16431601 -0.2224993
-0.0078964438 0.16432077 -0.22247855
-0.0077023334 0.1643085 -0.22244434
-0.0075245001 0.16429734 -0.2224135
-0.0073939995 0.16429132 -0.222417
-0.00077833328 0.16427635 -0.22250466
-0.019012334 0.16450299 -0.22258733
-0.018899333 0.16449167 -0.22256477
-0.018709501 0.16448216 -0.22252385
-0.018567001 0.16447566 -0.22251201
-0.018376499 0.164499 -0.222472
-0.018085167 0.16451 -0.2224475
-0.017744333 0.16449033 -0.22241867
-0.017524499 0.16448334 -0.22241585
-0.016971499 0.1644865 -0.222415
-0.01674 0.164446 -0.22240099
-0.016508333 0.16451299 -0.22245151
-0.016303798 0.16448858 -0.2224474
-0.016141335 0.16449766 -0.22247551
-0.015884668 0.16447766 -0.22243734
-0.015662 0.16447833 -0.22248399
-0.015487667 0.16447283 -0.22251467
-0.015325 0.1644806 -0.22252122
-0.015113167 0.16452441 -0.22252618
-0.014998333 0.16451932 -0.22254001
-0.014622 0.16450633 -0.22256868
-0.014297334 0.164497 -0.22258182
-0.013927333 0.16447334 -0.222597
-0.013668001 0.16449 -0.2226
-0.013507667 0.16457433 -0.222579
-0.013032 0.16443101 -0.222599
-0.011974 0.164454 -0.222598
-0.010912 0.16448979 -0.2225904
-0.01049 0.16452734 -0.22257967
-0.010093416 0.16450731 -0.22257183
-0.009913777 0.16449554 -0.22254865
-0.0094873337 0.16447733 -0.22253101
-0.0092551997 0.16451779 -0.2225142
-0.0090963747 0.16451976 -0.22252527
-0.0089197503 0.16451399 -0.22250569
-0.008642667 0.16450034 -0.22248633
-0.0084729996 0.16449499 -0.22250201
-0.0082926666 0.16448577 -0.22249357
-0.008105875 0.16448262 -0.22249287
-0.0079055997 0.1645159 -0.2224499
-0.00771775 0.16450149 -0.22241825
-0.0075164996 0.16450901 -0.22241034
-0.00077166664 0.16448599 -0.22247167
-0.019004665 0.16471367 -0.22257467
-0.018892113 0.16470155 -0.22254822
-0.018701833 0.16469251 -0.22251548
-0.018559666 0.16468634 -0.22249432
-0.018369334 0.164676 -0.22247167
-0.018077498 0.16471967 -0.22243483
-0.017736001 0.16470234 -0.22242033
-0.0175258 0.16468099 -0.2224106
-0.017119 0.16469784 -0.22241682
-0.0165 0.1647255 -0.22244768
-0.0162958 0.16472641 -0.2224218
-0.016134666 0.16470633 -0.22244816
-0.015874999 0.16469233 -0.222462
-0.015653834 0.16469149 -0.222489
-0.015480001 0.16468368 -0.22250549
-0.015309334 0.16467683 -0.22250934
-0.015107624 0.16469873 -0.22249888
-0.014991333 0.16472867 -0.22250967
-0.014614333 0.16471733 -0.22255433
-0.014438001 0.16471334 -0.22256432
-0.014289167 0.16470917 -0.22258133
-0.013917999 0.16472149 -0.22259149
-0.013779 0.164755 -0.2226
-0.013515713 0.16468957 -0.22258155
-0.013239499 0.164763 -0.22259349
-0.0130566 0.1647304 -0.2225872
-0.011965 0.164701 -0.22258601
-0.011570667 0.16472067 -0.22257835
-0.0112275 0.16472325 -0.22257549
-0.011103666 0.16474535 -0.222571
-0.010893333 0.16468601 -0.22257084
-0.010484001 0.16470399 -0.22256899
-0.010085333 0.16471951 -0.22256525
-0.0099061113 0.16470701 -0.22253667
-0.0094796671 0.16468833 -0.22251934
-0.0092644002 0.1646906 -0.22251999
-0.0090884287 0.16469228 -0.22253184
-0.0089045456 0.16472018 -0.22250555
-0.0086346669 0.164712 -0.22247434
-0.0084649995 0.16470534 -0.22248566
-0.0083298339 0.164699 -0.22246915
-0.0081192488 0.16468491 -0.22246884
-0.0079234 0.1646845 -0.2224251
-0.0076469998 0.164656 -0.222403
-0.007553 0.16472334 -0.22240967
-0.00076600001 0.16469367 -0.22242266
-0.019041 0.16496399 -0.22258849
-0.018913085 0.16491409 -0.2225346
-0.018695502 0.16490066 -0.22247618
-0.018552 0.164896 -0.22247934
-0.018363001 0.16488367 -0.22243667
-0.018095333 0.164887 -0.22243367
-0.017996501 0.16496199 -0.22242549
-0.017728334 0.164914 -0.222414
-0.017551666 0.16490901 -0.22241001
-0.017098 0.16486558 -0.22240959
-0.016723001 0.16487134 -0.22241032
-0.016480001 0.164885 -0.222414
-0.0162882 0.1649112 -0.22242939
-0.016126664 0.1649175 -0.22243951
-0.015866667 0.164905 -0.22246166
-0.0156544 0.164892 -0.22250299
-0.01549 0.16490614 -0.22249457
-0.015301834 0.1648875 -0.22249432
-0.015100499 0.16487615 -0.22250158
-0.014986 0.164901 -0.22247849
-0.014607999 0.16492601 -0.22252268
-0.014430333 0.16492333 -0.22254567
-0.014282334 0.16491984 -0.22255917
-0.014066334 0.164905 -0.22256666
-0.013912667 0.164894 -0.22255902
-0.013731 0.16489317 -0.22258516
-0.013495333 0.16488154 -0.22258036
-0.013284999 0.164886 -0.2225872
-0.0130508 0.164911 -0.2225624
-0.012846 0.164887 -0.222598
-0.012503666 0.164904 -0.22257733
-0.012307 0.164968 -0.222583
-0.011959 0.16487665 -0.22257167
-0.011748667 0.16487134 -0.22258532
-0.011519999 0.16493075 -0.22258125
-0.0112415 0.1649195 -0.22256801
-0.011111125 0.16492125 -0.22257763
-0.0108845 0.16490035 -0.22257949
-0.010475334 0.16488467 -0.22259735
-0.010070777 0.16490734 -0.22255489
-0.0098971119 0.16492167 -0.22254811
-0.0094716661 0.16490133 -0.22251467
-0.009248334 0.16488917 -0.22252183
-0.0090820007 0.16488323 -0.22252202
-0.0089145564 0.16489121 -0.22249204
-0.0086276671 0.16492133 -0.22244668
-0.0084573338 0.16491801 -0.22248201
-0.0083224997 0.16490966 -0.22245133
-0.0081115002 0.16489692 -0.22246106
-0.007892333 0.16488189 -0.222423
-0.0076659997 0.16491699 -0.222405
-0.007547 0.164865 -0.22241201
-0.00075599999 0.164911 -0.222454
-0.01905825 0.16510475 -0.22257575
-0.018898001 0.16511782 -0.2225201
-0.018687667 0.16511135 -0.22246884
-0.018545 0.165105 -0.22245766
-0.018353999 0.16509734 -0.22244966
-0.018136 0.16507865 -0.22243166
-0.017990999 0.1651025 -0.22241801
-0.016716 0.165048 -0.222407
-0.016439332 0.16507733 -0.22244366
-0.016299199 0.16508339 -0.2224348
-0.016120501 0.165094 -0.222432
-0.015858332 0.16511834 -0.22246833
-0.015682667 0.16511901 -0.22248133
-0.015507777 0.165107 -0.22247165
-0.015295501 0.16509517 -0.22245501
-0.015093249 0.165086 -0.22248425
-0.014981001 0.16507532 -0.22245467
-0.014603 0.165097 -0.222478
-0.014424 0.1651005 -0.222544
-0.0142662 0.1651158 -0.2225498
-0.014058334 0.16511667 -0.22256367
-0.013905 0.165106 -0.22254567
-0.013724166 0.16510268 -0.22255717
-0.013513142 0.165084 -0.22256859
-0.013301875 0.16509362 -0.22257638
-0.013053751 0.16506825 -0.22256051
-0.012838 0.1650995 -0.22259149
-0.0124582 0.1651278 -0.22257158
-0.012302333 0.16510634 -0.22256868
-0.012095001 0.16509901 -0.222578
-0.011951667 0.16508734 -0.22256069
-0.011740667 0.16508234 -0.222578
-0.0115234 0.16508521 -0.22256222
-0.01132825 0.16510251 -0.22257175
-0.011114111 0.16512257 -0.22255367
-0.010877334 0.1651095 -0.22255586
-0.01047 0.16502699 -0.222596
-0.0100864 0.16507371 -0.22255239
-0.0098954998 0.16511612 -0.22254576
-0.0094623333 0.16511734 -0.22253734
-0.0092513999 0.1650822 -0.22247282
-0.0090870997 0.1651013 -0.2225019
-0.0089080911 0.16507263 -0.222478
-0.0086803334 0.16511267 -0.22244734
-0.0084505007 0.165096 -0.2224865
-0.0083263991 0.16510519 -0.22241978
-0.0081042498 0.16510658 -0.22243555
-0.0079189995 0.16507 -0.22240968
-0.0076899999 0.16503833 -0.22240865
-0.00075100001 0.1650845 -0.22242099
-0.000566 0.1650975 -0.22258949
-0.019051667 0.16528016 -0.2225645
-0.018909223 0.16528867 -0.22250734
-0.0186805 0.16532117 -0.22244917
-0.018538333 0.16531301 -0.22242399
-0.018346 0.16530965 -0.22245099
-0.018130001 0.16525351 -0.222417
-0.016432 0.16528666 -0.22242266
-0.016306499 0.16526276 -0.22242001
-0.0161034 0.1652576 -0.22244461
-0.015851999 0.16532566 -0.22243066
-0.015676999 0.16532634 -0.22243834
-0.01550011 0.16531722 -0.222459
-0.015288499 0.16530333 -0.22242732
-0.015086167 0.16529574 -0.2224604
-0.014973332 0.16528635 -0.22244167
-0.014507 0.1652745 -0.22250082
-0.0142786 0.1652842 -0.22252059
-0.014051 0.165295 -0.22257051
-0.013897333 0.16531833 -0.22254331
-0.013716 0.16531567 -0.22255766
-0.013524001 0.16530633 -0.22256084
-0.01330475 0.16530626 -0.22256751
-0.01306675 0.16526824 -0.2225835
-0.0128992 0.1652896 -0.22256741
-0.012489001 0.16532399 -0.22253667
-0.0123465 0.16531815 -0.222542
-0.012088 0.165309 -0.222561
-0.011944334 0.16529733 -0.22253199
-0.011734667 0.165291 -0.22253299
-0.011507832 0.16528234 -0.22255336
-0.011321667 0.16527833 -0.22255784
-0.011096857 0.16530943 -0.22251599
-0.010870666 0.16531883 -0.22252117
-0.010460667 0.16530733 -0.22256833
-0.010087667 0.16528666 -0.22254586
-0.0099195456 0.16528398 -0.22254263
-0.0094556659 0.16532667 -0.22250567
-0.009275333 0.16531134 -0.22247468
-0.0091000004 0.16530216 -0.22245975
-0.0089252219 0.16528822 -0.22244467
-0.0087051662 0.16527666 -0.22242884
-0.008444 0.16527168 -0.22246867
-0.0083253337 0.16530967 -0.22242399
-0.0080976002 0.1653024 -0.22241049
-0.0079720002 0.16523799 -0.22241101
-0.00056033331 0.16527332 -0.22257
-0.019077875 0.16549988 -0.22254275
-0.018912699 0.1654679 -0.22248928
-0.018715333 0.16549999 -0.22245282
-0.018531 0.16552401 -0.22241133
-0.018338332 0.16552033 -0.22243868
-0.016426999 0.165427 -0.22241101
-0.016323 0.16542201 -0.222408
-0.016056331 0.16547935 -0.22242399
-0.015845001 0.165502 -0.22242549
-0.015672 0.165464 -0.222416
-0.015494125 0.16551724 -0.22242574
-0.01529 0.1655034 -0.2224278
-0.01507409 0.16549636 -0.22242273
-0.014967499 0.16545999 -0.222417
-0.0145005 0.165483 -0.22247016
-0.014263167 0.1654785 -0.22249933
-0.014046001 0.16546799 -0.22253768
-0.013890001 0.16552667 -0.22251767
-0.0136998 0.1655118 -0.22254619
-0.013517167 0.16551535 -0.22252983
-0.013298889 0.16550456 -0.22252853
-0.013081334 0.165497 -0.22255433
-0.012910166 0.16548383 -0.22253184
-0.012484 0.1654975 -0.2225005
-0.0123294 0.1655142 -0.22252722
-0.01208 0.16552167 -0.22255534
-0.011939 0.16550232 -0.22248267
-0.011726334 0.16550332 -0.22253267
-0.011500834 0.16549116 -0.22252466
-0.011314833 0.165488 -0.22253484
-0.01111225 0.16548213 -0.22251488
-0.010876999 0.16551501 -0.2224994
-0.010798 0.16559801 -0.222506
-0.010455 0.16551334 -0.22251399
-0.010080334 0.16549745 -0.22252877
-0.0099055003 0.16548483 -0.22250175
-0.0094495006 0.165501 -0.222488
-0.0092676664 0.16552234 -0.22246234
-0.0090925843 0.16551267 -0.22244327
-0.0089257145 0.16547899 -0.222418
-0.0087430002 0.16547251 -0.22242177
-0.0084379995 0.16547866 -0.22242433
-0.0083560003 0.165406 -0.222417
-0.0080415001 0.16549149 -0.22241125
-0.0005194 0.1654958 -0.22252741
-0.019069875 0.16569588 -0.22254848
-0.018917 0.16568799 -0.22248501
-0.018720625 0.16566712 -0.222445
-0.018332999 0.16566101 -0.222426
-0.015839498 0.16564399 -0.222427
-0.015467251 0.1656815 -0.2224085
-0.015321 0.16565999 -0.222405
-0.015048335 0.16571377 -0.22242147
-0.014957501 0.16574199 -0.222405
-0.014492667 0.165695 -0.222463
-0.014256 0.16568917 -0.22247867
-0.014038 0.16568033 -0.22253333
-0.013884 0.165703 -0.22250199
-0.0137114 0.16568179 -0.222536
-0.013510499 0.16572434 -0.22250301
-0.013291777 0.1657141 -0.22250478
-0.013074666 0.16570665 -0.22252534
-0.012903334 0.16569349 -0.22250783
-0.012477666 0.165673 -0.22249532
-0.0123438 0.1656836 -0.22251201
-0.0120735 0.16569701 -0.22254249
-0.011930333 0.16571634 -0.22248667
-0.011719 0.16571434 -0.22251767
-0.011493499 0.16570283 -0.22251351
-0.011306167 0.16570234 -0.22254652
-0.011093444 0.16568734 -0.22252634
-0.0109205 0.165704 -0.22247651
-0.010793 0.16570599 -0.2225185
-0.010448 0.16572367 -0.22249301
-0.010073666 0.16570622 -0.22249991
-0.0098979166 0.16569467 -0.22248174
-0.0094439993 0.165675 -0.222458
-0.0092620002 0.1656975 -0.222441
-0.009085333 0.1657235 -0.22242641
-0.008959 0.16564301 -0.222406
-0.0087815002 0.165667 -0.22240549
-0.0084340004 0.165618 -0.222405
-0.00050433335 0.16569284 -0.22250916
-0.019060124 0.16592813 -0.22256362
-0.018908001 0.16590177 -0.22249712
-0.018700751 0.16587751 -0.22243424
-0.018518999 0.165841 -0.222405
-0.015395999 0.16587633 -0.22242033
-0.0150625 0.16592716 -0.22242367
-0.0149784 0.16590801 -0.22241759
-0.014572666 0.16590934 -0.222459
-0.014310624 0.16589113 -0.22245
-0.014074749 0.16590574 -0.22247276
-0.013878666 0.16587567 -0.22247534
-0.013696999 0.16587433 -0.22249635
-0.013504 0.1658995 -0.22248875
-0.013308858 0.16591658 -0.22248957
-0.0131194 0.1659328 -0.22250381
-0.012896501 0.16590233 -0.22248016
-0.012468333 0.16588767 -0.22251068
-0.012327 0.16587849 -0.2224905
-0.012068 0.16587199 -0.22252466
-0.011923499 0.165894 -0.22248501
-0.011713333 0.16591933 -0.22246401
-0.011485334 0.16591467 -0.22250517
-0.011299 0.16591184 -0.22251849
-0.011085446 0.16589899 -0.22252133
-0.010913999 0.16588165 -0.22247534
-0.010787334 0.16588132 -0.22249366
-0.010441501 0.1658995 -0.222482
-0.010067999 0.1659129 -0.22244944
-0.0099008176 0.16589572 -0.22243454
-0.0097979996 0.165968 -0.222442
-0.0094363326 0.16588666 -0.22244799
-0.009256334 0.16587132 -0.22241199
-0.009106 0.16590135 -0.22242151
-0.0089969998 0.165898 -0.2224195
-0.00049766665 0.16590133 -0.22247417
-0.019071499 0.16610783 -0.22256285
-0.018918093 0.16612047 -0.22249402
-0.0187575 0.16611674 -0.22242302
-0.015391 0.166017 -0.222404
-0.0150555 0.166104 -0.22241725
-0.014565334 0.16611934 -0.22244167
-0.014337999 0.16611318 -0.2224295
-0.014111334 0.16609983 -0.22245117
-0.013872 0.166085 -0.22245033
-0.013690333 0.16608368 -0.22246833
-0.013498834 0.16607317 -0.22246116
-0.01332125 0.16610199 -0.22246325
-0.0131134 0.166114 -0.22248301
-0.012889001 0.16611283 -0.22246201
-0.012460999 0.166098 -0.22249234
-0.012319 0.16609117 -0.22248299
-0.012060333 0.16608368 -0.22250901
-0.011917 0.16607167 -0.22248535
-0.011707 0.166096 -0.222458
-0.011478667 0.16612351 -0.22247617
-0.011293334 0.16611899 -0.22247416
-0.011103429 0.16609785 -0.22247715
-0.0109424 0.16610959 -0.22246261
-0.010779333 0.16609266 -0.222486
-0.010436001 0.16607234 -0.22245167
-0.0100545 0.16611625 -0.22244535
-0.0099680005 0.166115 -0.22241099
-0.0097970003 0.166035 -0.22241201
-0.0094296671 0.16609633 -0.22242101
-0.0090878 0.16603401 -0.2224102
-0.0089919996 0.1660395 -0.222413
-0.00048200003 0.16609959 -0.22245979
-0.000363 0.166043 -0.22247399
-0.019102599 0.16628641 -0.22254038
-0.018911364 0.16631755 -0.22247209
-0.018739199 0.16629681 -0.22241941
-0.015044 0.16623233 -0.22241467
-0.014561 0.16625699 -0.22241201
-0.014341401 0.16630819 -0.2224108
-0.014103167 0.16631185 -0.22244768
-0.013864334 0.16629533 -0.22243233
-0.013683833 0.16629167 -0.22243719
-0.013491333 0.16628383 -0.22244485
-0.0133145 0.1662785 -0.22246419
-0.0131336 0.1662838 -0.22247382
-0.012965667 0.16632567 -0.22244833
-0.012796999 0.16632199 -0.22245
-0.012454334 0.16630733 -0.22246468
-0.012310834 0.16630365 -0.22248232
-0.012053333 0.16629201 -0.22247934
-0.011909001 0.166283 -0.22247767
-0.011700667 0.166272 -0.22244532
-0.011473 0.16629775 -0.22245076
-0.011286666 0.16632733 -0.22244285
-0.011113834 0.16631734 -0.22244583
-0.01096925 0.16628824 -0.22243425
-0.010773 0.16630132 -0.22245233
-0.010428667 0.16628367 -0.22243865
-0.010060715 0.16628613 -0.22243258
-0.00043850002 0.166297 -0.22250149
-0.019085998 0.16647799 -0.22250183
-0.018912401 0.1664968 -0.22244279
-0.018761335 0.16652267 -0.22241133
-0.014340001 0.16651399 -0.222423
-0.014095833 0.16652317 -0.22243117
-0.013856334 0.166508 -0.22242999
-0.013675333 0.16650417 -0.22243632
-0.013482167 0.16649917 -0.22246467
-0.013307001 0.16648866 -0.22244217
-0.013113666 0.16647933 -0.22245599
-0.012959501 0.166501 -0.22244
-0.012790499 0.1664985 -0.22244501
-0.012448001 0.16651599 -0.22242968
-0.012304001 0.16651234 -0.2224555
-0.012047666 0.16649933 -0.22243834
-0.011903 0.16649033 -0.22243667
-0.011693667 0.166481 -0.22242565
-0.011467666 0.16647249 -0.2224275
-0.011280499 0.16650249 -0.222425
-0.011107333 0.16652568 -0.2224105
-0.010983667 0.16651867 -0.22242667
-0.010765667 0.16651134 -0.22243534
-0.010420666 0.16649634 -0.22243567
-0.010047666 0.16647565 -0.22241545
-0.0004666 0.16648582 -0.22247438
-0.019080168 0.16668467 -0.22245717
-0.018971249 0.16665874 -0.22242549
-0.0143272 0.16666479 -0.2224246
-0.014092 0.16666001 -0.2224025
-0.01385 0.1666835 -0.222416
-0.0136598 0.1667006 -0.22241941
-0.0134755 0.16670734 -0.22243017
-0.013299334 0.16670035 -0.22243434
-0.013107001 0.16668884 -0.22242634
-0.012952667 0.16667867 -0.22243901
-0.0127865 0.16663599 -0.22241551
-0.012440001 0.16672766 -0.22242399
-0.012308399 0.1667068 -0.22241899
-0.012037667 0.16671534 -0.22246365
-0.011896 0.16669834 -0.222407
-0.0116845 0.166729 -0.222413
-0.0114516 0.16666901 -0.22241859
-0.011300251 0.16666025 -0.22241525
-0.0111005 0.16670302 -0.22240874
-0.010947333 0.16668034 -0.22240967
-0.010762 0.166649 -0.222403
-0.010088 0.166618 -0.222404
-0.00042233334 0.16669166 -0.22251832
-0.019073 0.16689284 -0.22243117
-0.018974999 0.16688733 -0.22241199
-0.013996501 0.166904 -0.222406
-0.01362 0.166852 -0.22240201
-0.013485334 0.166871 -0.22241266
-0.013270751 0.16689225 -0.2224185
-0.013032333 0.16690134 -0.22244668
-0.012945 0.166889 -0.22241867
-0.0124335 0.166904 -0.22241601
-0.012342 0.16689849 -0.22241201
-0.012030666 0.16692467 -0.22243667
-0.011677667 0.16690533 -0.222414
-0.0114305 0.16691101 -0.22240674
-0.011317 0.16689168 -0.22241402
-0.01106 0.16681001 -0.222417
-0.00041566664 0.16690232 -0.22248869
-0.019378001 0.16714799 -0.222589
-0.019064333 0.16710649 -0.22244
-0.0189685 0.167063 -0.222404
-0.013992 0.16700999 -0.222403
-0.013243 0.16704801 -0.22240999
-0.013094 0.1670405 -0.2224105
-0.012428001 0.167046 -0.22241801
-0.012024499 0.1671 -0.22242901
-0.011399 0.16717599 -0.222407
-0.00040933336 0.16711001 -0.22244799
-0.019372666 0.16728735 -0.22257566
-0.019068601 0.16730382 -0.22242519
-0.012019999 0.16723999 -0.2224135
-0.011396 0.167248 -0.222409
-0.00030933332 0.167273 -0.22258735
-0.019366 0.16749601 -0.22254534
-0.019107999 0.167459 -0.22240201
-0.00030499999 0.16747634 -0.22251801
-0.00019833333 0.16748299 -0.222574
-0.019552 0.16775849 -0.222592
-0.019360667 0.16770135 -0.22249299
-0.00030066667 0.16767834 -0.22243802
-0.00019566667 0.16768099 -0.22246666
-0.0195475 0.167898 -0.2225675
-0.019353665 0.16791034 -0.22246867
-0.00029033332 0.16789933 -0.22247499
-0.00014799999 0.16789278 -0.2225692
-0.019625001 0.168154 -0.2226
-0.019542333 0.16807 -0.22253267
-0.019347001 0.168118 -0.22243834
-0.00028299997 0.16811167 -0.22246468
-0.0001505 0.16814326 -0.22258575
-0.019620666 0.16829167 -0.22258832
-0.019536 0.16827698 -0.222495
-0.019339666 0.168328 -0.22242399
-0.00027600001 0.16832167 -0.22243632
-0.00012375 0.16831499 -0.22255576
-0.019613 0.16850267 -0.22257201
-0.019528667 0.16848767 -0.22247934
-0.019335 0.168467 -0.222409
-0.00026900001 0.16850001 -0.22243351
-0.0001278 0.1684844 -0.2225112
-0.019606667 0.16870999 -0.22253567
-0.019520333 0.16869932 -0.22248299
-0.00026299999 0.16867535 -0.22241832
-0.0001305 0.16869301 -0.2225545
-0.019601 0.168852 -0.222534
-0.019547399 0.168927 -0.22248361
-0.00014666667 0.16890199 -0.22250567
-0.019672001 0.169075 -0.22259501
-0.0195594 0.16912019 -0.22244561
-0.00014 0.16911101 -0.22246833
-0.019662 0.16932249 -0.2225935
-0.019542001 0.16930149 -0.22247475
-0.019656332 0.16949801 -0.22257501
-0.019534832 0.16948001 -0.22248201
-0.00013 0.169457 -0.222405
-0.019647667 0.16971065 -0.22258167
-0.019526666 0.16969199 -0.22247635
-0.019640001 0.169891 -0.222597
-0.019517833 0.16990566 -0.22248483
-0.00021649999 0.1698565 -0.22242701
-0.019500602 0.1701068 -0.22250021
-0.00029 0.170184 -0.22244599
-0.0195098 0.170284 -0.22253719
-0.00036800001 0.170395 -0.222425
-0.019471999 0.17046325 -0.22253326
-0.019254332 0.17052434 -0.22241932
-0.011537 0.170531 -0.22240999
-0.000363 0.17047299 -0.222459
-0.0194405 0.17066351 -0.22256
-0.019244999 0.1707105 -0.222473
-0.011529666 0.17067933 -0.22244267
-0.019234333 0.17089935 -0.22253267
-0.013460999 0.1709365 -0.222403
-0.011520666 0.17089534 -0.22245766
-0.011303401 0.17089641 -0.2224402
-0.011159 0.170947 -0.22241899
-0.00052450004 0.17087451 -0.22245499
-0.019226 0.17105199 -0.222591
-0.018902667 0.17109717 -0.22243051
-0.013674 0.171196 -0.22243001
-0.01347425 0.17112075 -0.22243075
-0.013303165 0.17111582 -0.22245002
-0.01314975 0.17112224 -0.22242549
-0.012074 0.171193 -0.22240201
-0.011868667 0.17111667 -0.22242267
-0.011721499 0.1711475 -0.222443
-0.011508333 0.17112066 -0.22252367
-0.011284833 0.17110366 -0.22248483
-0.01111 0.17111 -0.22246318
-0.01090575 0.17113174 -0.22243226
-0.010588 0.171129 -0.222404
-0.0098653324 0.17117 -0.22241168
-0.0096850004 0.17112102 -0.22242339
-0.0095965005 0.17113149 -0.222464
-0.009234 0.17114501 -0.222407
-0.018873168 0.17127602 -0.22250783
-0.01872889 0.17130569 -0.22244668
-0.018573999 0.171342 -0.222417
-0.015444 0.171351 -0.222414
-0.013880667 0.17132668 -0.22243333
-0.013666499 0.171313 -0.222487
-0.013493399 0.1712964 -0.2225312
-0.01329225 0.17130749 -0.22252598
-0.0131096 0.17131101 -0.222469
-0.012925667 0.17131199 -0.22245616
-0.012715667 0.17132168 -0.22244
-0.0126 0.171372 -0.22247399
-0.012261666 0.17128234 -0.22245668
-0.012117 0.171314 -0.222468
-0.0118565 0.17131099 -0.22251301
-0.0117105 0.17130899 -0.222543
-0.011498 0.1713105 -0.222587
-0.01127375 0.17129575 -0.22255699
-0.01108925 0.171287 -0.22253701
-0.010916666 0.17130899 -0.22251266
-0.010750335 0.17128883 -0.22246552
-0.010579 0.17128234 -0.22246067
-0.010232 0.17130551 -0.22247399
-0.0098583335 0.17128718 -0.22246367
-0.0097108325 0.17128484 -0.222489
-0.0095865 0.17128849 -0.22254199
-0.0092246672 0.17129999 -0.22247668
-0.0090430006 0.1713185 -0.22243801
-0.008893 0.1713295 -0.22243425
-0.0087850001 0.171344 -0.22242799
-0.0078574996 0.17137149 -0.22244301
-0.0076954002 0.1713492 -0.22243118
-0.0075142505 0.17132199 -0.22244149
-0.0073859999 0.171351 -0.222431
-0.00085474999 0.17131625 -0.22242948
-0.00076799997 0.17133234 -0.22248067
-0.018833 0.171453 -0.22257601
-0.0187038 0.17149529 -0.22253311
-0.0185265 0.17149432 -0.22248034
-0.018358333 0.17153133 -0.22245233
-0.018106 0.171538 -0.222406
-0.0174705 0.171478 -0.22246501
-0.017263666 0.17154832 -0.22242701
-0.015866999 0.1715875 -0.22244799
-0.015608 0.17151099 -0.222499
-0.015434 0.17150734 -0.22248934
-0.0153108 0.1715062 -0.22245178
-0.015147333 0.17153166 -0.22243434
-0.0148445 0.171534 -0.222417
-0.014729 0.171599 -0.22241899
-0.014352 0.171588 -0.22244699
-0.014126332 0.17151649 -0.22246735
-0.0139162 0.1714952 -0.222508
-0.013658 0.171435 -0.222562
-0.013284 0.17145824 -0.222574
-0.013108749 0.171481 -0.22253899
-0.012913 0.17150901 -0.22255801
-0.012761001 0.17149299 -0.22252899
-0.0125925 0.171489 -0.22252801
-0.01225 0.171444 -0.22255801
-0.0121075 0.17143799 -0.22256601
-0.011032 0.17140201 -0.22258399
-0.010722334 0.17147534 -0.22257733
-0.010568 0.171443 -0.22255599
-0.010224 0.171425 -0.222541
-0.0098604998 0.171427 -0.22254474
-0.0097019998 0.17140567 -0.22257133
-0.0095800003 0.171405 -0.2226
-0.0092124995 0.1714965 -0.222574
-0.0090325 0.17148 -0.222534
-0.0088743744 0.17150013 -0.22253612
-0.0087049166 0.17149366 -0.22250074
-0.0085516665 0.171483 -0.222489
-0.0083153332 0.17149366 -0.22246166
-0.0080911992 0.17151079 -0.22249261
-0.0078774998 0.17149132 -0.22250299
-0.0077132857 0.17148058 -0.2225083
-0.0074913334 0.171468 -0.22252734
-0.0073138578 0.17148699 -0.22246429
-0.007125333 0.17151485 -0.2224675
-0.0068219998 0.171536 -0.22240201
-0.0066954996 0.1715285 -0.222404
-0.0065449998 0.171524 -0.22240099
-0.0063169999 0.17159399 -0.22244701
-0.0061347499 0.17155173 -0.2224455
-0.005988 0.171589 -0.222496
-0.0057624998 0.17154199 -0.222472
-0.0054910001 0.17152075 -0.22245649
-0.005351 0.17154901 -0.22243799
-0.001662 0.17159501 -0.22240999
-0.0013379999 0.1715565 -0.222449
-0.0011318 0.171526 -0.2224296
-0.00092580001 0.17149739 -0.22248718
-0.00079299998 0.171444 -0.22255801
-0.018479001 0.17165001 -0.222555
-0.018348334 0.17166834 -0.22255433
-0.018097 0.171628 -0.22251099
-0.017459001 0.17163999 -0.222569
-0.017255668 0.17167801 -0.22248767
-0.017095499 0.17172669 -0.22247702
-0.016877165 0.17173319 -0.22243701
-0.016753333 0.17173801 -0.22243135
-0.016452 0.17176101 -0.22247601
-0.016275499 0.1717155 -0.222464
-0.016128 0.17171174 -0.222468
-0.015959667 0.17169766 -0.222508
-0.015425 0.17166001 -0.22254799
-0.015276667 0.17167401 -0.22254801
-0.015122 0.1717145 -0.22252683
-0.014891416 0.17169452 -0.22250043
-0.0147488 0.17170238 -0.222506
-0.014346 0.171673 -0.222519
-0.012585 0.171608 -0.22259
-0.0086709997 0.17165101 -0.2226
-0.0083609996 0.171636 -0.222571
-0.0070819999 0.17165901 -0.22251426
-0.0068109999 0.17166699 -0.22252551
-0.0066924999 0.1716505 -0.22248387
-0.0064922501 0.17164525 -0.22248399
-0.006322667 0.171709 -0.22254567
-0.0061240001 0.171683 -0.22257599
-0.0054643336 0.17167099 -0.222562
-0.0052978336 0.17170401 -0.22251034
-0.0051359995 0.1717048 -0.2224592
-0.0048535001 0.17173901 -0.222417
-0.003698 0.17174259 -0.22247322
-0.0035290001 0.17175701 -0.22244799
-0.0018110001 0.171683 -0.222452
-0.0017063332 0.17168766 -0.222508
-0.001331 0.171674 -0.222498
-0.001158 0.171666 -0.222486
-0.017275 0.17181499 -0.222587
-0.017082201 0.1718872 -0.22256461
-0.01687975 0.1718775 -0.22254074
-0.016727999 0.17185 -0.222532
-0.016445 0.171846 -0.222551
-0.016264001 0.171845 -0.222592
-0.015155 0.17186999 -0.222596
-0.014894 0.171859 -0.222599
-0.0048965001 0.1718705 -0.22252101
-0.0047353334 0.17185582 -0.22245467
-0.0036464999 0.1718595 -0.22258151
-0.00352075 0.17187874 -0.222532
-0.0032975003 0.17190801 -0.22247215
-0.003116 0.17196099 -0.222486
-0.0028455001 0.17202601 -0.22248751
-0.0027670001 0.172022 -0.222506
-0.00346 0.151767 -0.222399
-0.0044384999 0.15235099 -0.22239751
-0.0034395 0.15229701 -0.222397
-0.00364 0.152492 -0.22239
-0.0034895004 0.15249451 -0.22238788
-0.003428 0.152612 -0.22238199
-0.00422 0.153045 -0.22238499
-0.0034586666 0.15313534 -0.22239333
-0.0042070001 0.15336201 -0.222398
-0.0041173333 0.15328734 -0.22239065
-0.0034669999 0.1533045 -0.222386
-0.003399 0.153354 -0.22239399
-0.0042824997 0.15347201 -0.222397
-0.003603 0.15344399 -0.222386
-0.003508857 0.15350972 -0.22238131
-0.0033935001 0.153495 -0.222388
-0.0040994999 0.15374599 -0.222399
-0.0034659998 0.15360701 -0.22239301
-0.0044689998 0.153946 -0.222398
-0.004379 0.15386701 -0.222399
-0.0041856668 0.153926 -0.22238798
-0.0038226668 0.153908 -0.22237332
-0.0042946669 0.154121 -0.222395
-0.0041795 0.154102 -0.22237501
-0.003876857 0.15412442 -0.22238229
-0.003643 0.15418699 -0.22239999
-0.0035379999 0.15412775 -0.22238976
-0.0049109999 0.154249 -0.222397
-0.0043097776 0.15428667 -0.22238299
-0.0041256668 0.15427633 -0.2223805
-0.0039090002 0.15428786 -0.22238114
-0.0036376668 0.15432766 -0.222396
-0.0034894168 0.15431692 -0.22237773
-0.003361 0.154342 -0.22238299
-0.0049029998 0.154461 -0.222394
-0.0043017776 0.15449791 -0.22237833
-0.0040952498 0.15446874 -0.22237675
-0.0039007498 0.15446986 -0.22236562
-0.0036869999 0.15451665 -0.222381
-0.0034715715 0.15451743 -0.222387
-0.0032911666 0.15451534 -0.2223715
-0.0053619999 0.15476 -0.22239301
-0.0043117143 0.15469971 -0.22235687
-0.0040998003 0.15471381 -0.22237802
-0.0039258334 0.15469201 -0.22235699
-0.0037089996 0.154682 -0.22237283
-0.0034770002 0.15469401 -0.22237457
-0.0032946002 0.15474221 -0.2223794
-0.0053590001 0.15482999 -0.22239999
-0.0046103336 0.15487234 -0.22239666
-0.0042855553 0.15492088 -0.2223758
-0.0041016671 0.15491001 -0.22236651
-0.0039173332 0.1549045 -0.22235934
-0.0037016666 0.15489198 -0.2223555
-0.0034911111 0.15488467 -0.22238323
-0.0033275713 0.15488943 -0.22236273
-0.0028515002 0.1549595 -0.22239399
-0.0053470004 0.15514651 -0.222387
-0.0048750001 0.155167 -0.22239999
-0.0046035 0.15504849 -0.2223935
-0.0044826665 0.15512466 -0.22238767
-0.004269714 0.155112 -0.22237656
-0.0040940004 0.15512218 -0.22235782
-0.0039094999 0.15511532 -0.22235216
-0.0036933331 0.15510385 -0.22235467
-0.0034833332 0.15509567 -0.22237676
-0.0033227499 0.15507999 -0.22234125
-0.002847 0.155099 -0.22237501
-0.002328 0.1551775 -0.22239551
-0.0053383997 0.1553506 -0.22237679
-0.0050499998 0.155379 -0.22239099
-0.0048710001 0.15530632 -0.222387
-0.0045068334 0.15528934 -0.22236817
-0.0042796247 0.1552825 -0.22235861
-0.0040867496 0.1552985 -0.22236376
-0.0039013335 0.15532683 -0.22234733
-0.0037026 0.155301 -0.2223504
-0.0034883004 0.1553144 -0.22235551
-0.0033536665 0.1552915 -0.22232616
-0.0031963333 0.15529101 -0.22239067
-0.002841 0.155241 -0.22238199
-0.0023185997 0.15530299 -0.2223852
-0.0052970001 0.15552172 -0.22237216
-0.005045 0.15551966 -0.22237635
-0.0048619998 0.15551934 -0.22239399
-0.0044985004 0.15550067 -0.22236849
-0.0042641107 0.15548521 -0.22236198
-0.0040801666 0.15547433 -0.22235584
-0.0038945 0.155504 -0.22235101
-0.003762 0.15552734 -0.22232766
-0.0035009168 0.15551798 -0.22232074
-0.0033449999 0.15550466 -0.22233917
-0.0031896669 0.15550067 -0.22235699
-0.0028289999 0.155558 -0.222386
-0.0052777999 0.1556716 -0.22237739
-0.0050370004 0.155698 -0.22239199
-0.0045094001 0.15569839 -0.22235461
-0.0043015713 0.15571043 -0.22236185
-0.004114667 0.15568735 -0.22234352
-0.0038876664 0.15568 -0.22234683
-0.0037544998 0.155706 -0.222341
-0.0034827776 0.15570721 -0.22235319
-0.0033369998 0.15571634 -0.22233617
-0.0031823332 0.15571134 -0.22233735
-0.0028245002 0.15566501 -0.22239101
-0.0050313333 0.15587266 -0.22236399
-0.0045713335 0.15592833 -0.22235233
-0.0043163332 0.15591322 -0.22235513
-0.0041064443 0.15589923 -0.22234434
-0.0038803332 0.15589117 -0.22233634
-0.0037470001 0.15588267 -0.22234833
-0.0035021 0.1558744 -0.22235361
-0.0033356666 0.15591849 -0.22235681
-0.0031733334 0.15592434 -0.22235566
-0.0028156666 0.15591134 -0.22236633
-0.0052852007 0.1561114 -0.2223876
-0.0051039997 0.1560885 -0.222372
-0.0048406664 0.15608267 -0.222389
-0.0045649996 0.156104 -0.22234499
-0.0042989999 0.15611476 -0.2223475
-0.0040982221 0.15611111 -0.222343
-0.0038718332 0.15610316 -0.22233982
-0.0037390001 0.15609367 -0.22234865
-0.0035055557 0.15608688 -0.22234477
-0.0033538749 0.15608025 -0.22232839
-0.0031655 0.156102 -0.2223805
-0.0028063331 0.15612467 -0.22238801
-0.0054810001 0.15632674 -0.22237551
-0.005297625 0.15632886 -0.22238587
-0.0050956667 0.15629983 -0.22237182
-0.0048330002 0.15629368 -0.22237401
-0.0045579998 0.15628034 -0.22235267
-0.0043135714 0.15628658 -0.22233942
-0.0040908889 0.15632156 -0.22232588
-0.0038651666 0.15631284 -0.22230901
-0.0037320002 0.15630434 -0.22232901
-0.003497889 0.15629777 -0.22233064
-0.0033402222 0.15628165 -0.22231245
-0.0031600001 0.15627666 -0.22235167
-0.0028009999 0.156266 -0.222396
-0.0027979999 0.15633599 -0.222395
-0.0056750001 0.156554 -0.22239099
-0.0055005001 0.156505 -0.22237301
-0.0053069 0.1565097 -0.22237988
-0.0050880001 0.15651117 -0.22236116
-0.0048246668 0.15650533 -0.22236933
-0.0045500002 0.15649234 -0.22234
-0.0042955559 0.15647621 -0.22233278
-0.0041280002 0.15650049 -0.22232825
-0.0038911249 0.15651762 -0.22232349
-0.0037229999 0.156517 -0.22233967
-0.0034903337 0.15650843 -0.22231513
-0.0033312223 0.15649489 -0.22233002
-0.0031533334 0.156486 -0.22231533
-0.0027930001 0.15647835 -0.22238199
-0.0056715002 0.1566585 -0.22239
-0.0054939999 0.15664849 -0.22238451
-0.0053128186 0.15669255 -0.22237673
-0.0051207501 0.156708 -0.22236824
-0.0048889997 0.1567322 -0.22236781
-0.0045420001 0.15670265 -0.22233701
-0.0042869998 0.15668844 -0.22234045
-0.0041216663 0.15667634 -0.2223205
-0.0039085718 0.15668942 -0.22233585
-0.0037136667 0.15672968 -0.222359
-0.0034814444 0.15672132 -0.22233145
-0.0033241112 0.15670511 -0.22230557
-0.0031463334 0.15669666 -0.22229667
-0.002785 0.15668966 -0.22238433
-0.0054825 0.156932 -0.222396
-0.0053040995 0.15687801 -0.2223767
-0.0051530004 0.156904 -0.22237751
-0.0048817997 0.15691559 -0.22236881
-0.0045333332 0.15691601 -0.22234599
-0.0042778892 0.15690155 -0.22235267
-0.0041123335 0.15689 -0.22233665
-0.003932667 0.15688367 -0.2223525
-0.0037622 0.1568874 -0.22231419
-0.0034743333 0.15689833 -0.222333
-0.0033157775 0.15691723 -0.22230676
-0.0031359999 0.15691233 -0.22233701
-0.002779 0.156865 -0.222367
-0.0054775001 0.15707201 -0.222398
-0.0052872729 0.15709664 -0.22238798
-0.0051470003 0.15707999 -0.22237168
-0.0048639998 0.15707067 -0.22236533
-0.0045249998 0.15712868 -0.22234599
-0.0042701112 0.15711278 -0.22234634
-0.0041041668 0.15710132 -0.22233582
-0.0039261668 0.157093 -0.2223165
-0.0037465002 0.157083 -0.22230719
-0.0034685554 0.15707323 -0.22231299
-0.0033012498 0.15712027 -0.22231886
-0.0031270001 0.15712468 -0.22234635
-0.0027650001 0.157185 -0.222388
-0.002229 0.157013 -0.222399
-0.0052677142 0.15731041 -0.22238587
-0.0051537501 0.15731125 -0.222377
-0.0049763336 0.15728499 -0.22237499
-0.0047943336 0.15728267 -0.22237533
-0.0045205001 0.1573015 -0.222307
-0.0042621428 0.15730201 -0.22231099
-0.0041121431 0.15732157 -0.22230028
-0.0039186669 0.1573035 -0.22230218
-0.0037381668 0.15729533 -0.22230315
-0.0034804286 0.15727343 -0.22228001
-0.0033272221 0.15729733 -0.22231966
-0.003122 0.157299 -0.22231549
-0.0027603332 0.157325 -0.22237666
-0.00246325 0.15730849 -0.22238649
-0.0023576666 0.15725733 -0.22238666
-0.0052768001 0.15749958 -0.22238779
-0.005132 0.157436 -0.222399
-0.0049699997 0.15749367 -0.22233398
-0.0047863335 0.15749501 -0.22237533
-0.0045133336 0.15747768 -0.22230834
-0.0042980001 0.15748081 -0.2223212
-0.0041158749 0.15751451 -0.22229424
-0.0039115003 0.15751399 -0.222279
-0.0037303332 0.15750651 -0.22229566
-0.0034849998 0.1574965 -0.22228317
-0.0033176669 0.1574849 -0.22230768
-0.0031163332 0.15747301 -0.22228999
-0.0027534999 0.157502 -0.2223745
-0.0024840001 0.157593 -0.222398
-0.002262 0.157582 -0.222399
-0.0052847145 0.157726 -0.22236829
-0.0051863333 0.15771966 -0.22239268
-0.0049609994 0.15770768 -0.22235368
-0.0047783335 0.15770634 -0.22236501
-0.004505333 0.15768899 -0.22230132
-0.0042823334 0.15767616 -0.22229832
-0.0041278573 0.15768658 -0.22229216
-0.0039036665 0.15772517 -0.22227401
-0.0037231667 0.15771717 -0.22227816
-0.0034753333 0.15771084 -0.22231281
-0.0033111665 0.15769416 -0.22227092
-0.0031079997 0.157685 -0.22229433
-0.002749 0.15767433 -0.22232835
-0.002416 0.1576975 -0.2223925
-0.0022729998 0.15772401 -0.22239232
-0.0056672497 0.15789649 -0.2223925
-0.0054429998 0.15795401 -0.222396
-0.0052987146 0.15789016 -0.22238085
-0.0051475 0.157894 -0.22237575
-0.0049533336 0.15791766 -0.22233899
-0.004772 0.15791465 -0.22233133
-0.0044976668 0.15790033 -0.222296
-0.0042746668 0.15788667 -0.22228836
-0.0041105552 0.15787777 -0.22229576
-0.0038975 0.157901 -0.22226049
-0.0037069998 0.15791421 -0.2222774
-0.0034685002 0.15792017 -0.2222835
-0.0033030836 0.15790592 -0.22227077
-0.0031000001 0.15789767 -0.22228833
-0.0027419999 0.15788533 -0.22230466
-0.0024347999 0.15788701 -0.2223798
-0.002354 0.157802 -0.22239099
-0.0056149997 0.15810633 -0.22238134
-0.0054396666 0.15809333 -0.22235799
-0.0052858889 0.15807945 -0.2223509
-0.0051406664 0.158071 -0.22237985
-0.0049476665 0.158126 -0.22229134
-0.004764 0.15812634 -0.22232835
-0.0044896672 0.15811133 -0.22228433
-0.0042659999 0.15809917 -0.2222925
-0.004102 0.15809 -0.22229868
-0.0038910003 0.15807651 -0.22224967
-0.0037177999 0.15808441 -0.2222738
-0.0034617502 0.158097 -0.22228351
-0.0032955001 0.15811716 -0.22225986
-0.0030913334 0.15810899 -0.22229135
-0.0027346667 0.15809567 -0.22228634
-0.0024409997 0.1580704 -0.2223644
-0.0023040001 0.15808621 -0.22237201
-0.0021903331 0.15807067 -0.22235733
-0.0056833755 0.15831187 -0.222394
-0.0054326667 0.15830366 -0.22233634
-0.005278111 0.15829089 -0.22234556
-0.005134 0.15827931 -0.22234184
-0.0049395002 0.15830401 -0.22231099
-0.0047575003 0.15830201 -0.2223115
-0.0044806669 0.15832567 -0.22229968
-0.0042585004 0.15831016 -0.22228067
-0.0040947776 0.15830022 -0.22227889
-0.0038821667 0.15829 -0.2222665
-0.0037024999 0.15827984 -0.22225149
-0.003456 0.15827183 -0.22226398
-0.0032834001 0.15831311 -0.22224203
-0.0030843334 0.15831999 -0.22226967
-0.0027249998 0.15831034 -0.22231168
-0.0024583333 0.158296 -0.22235465
-0.0023121668 0.15829208 -0.22237092
-0.0021826669 0.15828134 -0.22235267
-0.001854 0.158343 -0.22239301
-0.005601 0.158461 -0.22239301
-0.005467 0.15852049 -0.22236425
-0.0052692224 0.15850332 -0.22235343
-0.0051259999 0.15849149 -0.22233766
-0.0049319998 0.15848233 -0.22232668
-0.0047500003 0.15848066 -0.22233033
-0.0044740001 0.158502 -0.22230199
-0.0042503332 0.15852217 -0.222278
-0.004087111 0.15851122 -0.22226712
-0.0038743333 0.15850116 -0.22225916
-0.003695 0.15849067 -0.22223884
-0.0034490002 0.15848117 -0.22223432
-0.0033437498 0.15847325 -0.22221401
-0.0030775 0.1584965 -0.222268
-0.0027176666 0.158521 -0.222296
-0.0024526666 0.15850432 -0.22230767
-0.0023042501 0.15850382 -0.22236268
-0.002173 0.15849566 -0.222367
-0.001849 0.158485 -0.22238366
-0.0058499998 0.15875199 -0.222396
-0.0057113334 0.15862866 -0.222395
-0.0055041667 0.1586995 -0.22236516
-0.0052615553 0.15871467 -0.22234821
-0.0051176664 0.15870385 -0.22234017
-0.0049233329 0.15869567 -0.22233899
-0.0047426666 0.158691 -0.22231199
-0.004468 0.15867667 -0.22227933
-0.0042874999 0.15870599 -0.2223165
-0.0041003632 0.15871792 -0.22226873
-0.0038660001 0.15871283 -0.22225799
-0.0036868332 0.15870284 -0.22223516
-0.0034410001 0.15869351 -0.22223182
-0.0032928749 0.15869913 -0.22222511
-0.0031153334 0.15867034 -0.22222233
-0.0027104998 0.15869799 -0.2222995
-0.002443 0.15871833 -0.22233166
-0.0022983334 0.15871219 -0.22232009
-0.002167 0.15870501 -0.22232467
-0.0018406668 0.15869834 -0.22239268
-0.0058921664 0.158893 -0.22238183
-0.0056932499 0.158906 -0.22239549
-0.0055150003 0.15889141 -0.22235461
-0.0052486248 0.1589155 -0.22232386
-0.0051098331 0.15891482 -0.22233064
-0.0049156663 0.158906 -0.22231667
-0.0047353334 0.15890168 -0.22229667
-0.0044593331 0.15888967 -0.22229068
-0.0042806664 0.15888399 -0.22232102
-0.004143429 0.15888943 -0.22227858
-0.003892875 0.15891738 -0.22225839
-0.0036778331 0.1589155 -0.22224633
-0.0034673333 0.15890767 -0.22223933
-0.0033169165 0.1588985 -0.22225529
-0.0030962501 0.15889925 -0.22221574
-0.0027046667 0.15887301 -0.22228134
-0.0024363333 0.15892868 -0.222302
-0.0022791999 0.15891191 -0.22233739
-0.0021593333 0.15891567 -0.22231533
-0.0018335 0.158875 -0.222396
-0.0058846674 0.15910417 -0.22236818
-0.0057081669 0.159099 -0.22237568
-0.0055085998 0.1590734 -0.2223458
-0.005298167 0.159096 -0.22233416
-0.0051335553 0.159127 -0.22231279
-0.0049079997 0.15911733 -0.22231133
-0.0047260001 0.159115 -0.22231901
-0.0044516665 0.15910132 -0.22228234
-0.0042720004 0.15909635 -0.22232099
-0.0041282224 0.15908132 -0.22228289
-0.0039291666 0.15908167 -0.222261
-0.0036841668 0.15911883 -0.2222655
-0.003459 0.15911932 -0.22223699
-0.0033088333 0.15911075 -0.22225165
-0.0031183334 0.15909867 -0.22225583
-0.0026979998 0.15908366 -0.22225632
-0.0024305 0.15910301 -0.222289
-0.0022939998 0.15908131 -0.22232831
-0.0021525002 0.15909299 -0.222315
-0.001823 0.15915799 -0.2223895
-0.0062460001 0.1592 -0.222399
-0.0058519999 0.15933275 -0.22237
-0.0057001668 0.15931033 -0.22237165
-0.0055706669 0.15930367 -0.22234567
-0.0053082225 0.15928656 -0.22233778
-0.0051263333 0.1593045 -0.22232234
-0.0049015 0.15929399 -0.22230899
-0.0047163335 0.15932967 -0.22234166
-0.0044439998 0.15931232 -0.22226667
-0.0042636669 0.15930732 -0.22232266
-0.0041204449 0.15929244 -0.22226967
-0.0039366665 0.159282 -0.22226618
-0.003717625 0.15928462 -0.22227974
-0.0034504998 0.159299 -0.22227201
-0.0032907999 0.15930799 -0.2222573
-0.0031096665 0.15931118 -0.22226016
-0.0026873334 0.15929867 -0.22229566
-0.0024230003 0.15928067 -0.22228968
-0.0022918 0.15927269 -0.2223182
-0.0021666 0.15928559 -0.22231641
-0.0018185 0.159298 -0.222368
-0.0058583999 0.15951499 -0.2223818
-0.0056926669 0.15952116 -0.22235866
-0.005562 0.15951633 -0.22235633
-0.0053003333 0.15949756 -0.22232822
-0.0051197778 0.15948123 -0.22231743
-0.0048936666 0.15947233 -0.22232766
-0.0047110002 0.159504 -0.2223065
-0.0044340002 0.15952666 -0.22229798
-0.0042553334 0.15952067 -0.22232634
-0.0041115559 0.15950567 -0.22228257
