# .PCD v0.7 - Point Cloud Data file format
VERSION 0.7
FIELDS x y z
SIZE 4 4 4
TYPE F F F
COUNT 1 1 1
WIDTH 1372
HEIGHT 1
VIEWPOINT 0 0 0 1 0 0 0
POINTS 1372
DATA ascii
-0.075685717 0.127459 -0.22702599
-0.0755715 0.12750401 -0.227047
-0.075336337 0.12751834 -0.22710501
-0.075068332 0.12751533 -0.227045
-0.074901998 0.12749512 -0.22703412
-0.074723497 0.12745449 -0.22705799
-0.074479997 0.12747668 -0.22707234
-0.074249789 0.1275142 -0.22710159
-0.074075662 0.12751684 -0.22714984
-0.073932 0.12757801 -0.22718599
-0.082613997 0.127791 -0.22719599
-0.082314402 0.127737 -0.22718461
-0.082057998 0.127762 -0.227182
-0.081917003 0.127757 -0.2271775
-0.081319496 0.1277895 -0.227183
-0.081045248 0.12770325 -0.22716999
-0.080891006 0.12770987 -0.22712372
-0.080722831 0.12769082 -0.22711967
-0.080563664 0.12768067 -0.22709966
-0.080221996 0.12770349 -0.22707251
-0.080093004 0.12769201 -0.2270675
-0.079863995 0.12772034 -0.227073
-0.079750001 0.127712 -0.22709833
-0.079581 0.12769432 -0.22710399
-0.079269335 0.12767732 -0.22711901
-0.079135172 0.12767783 -0.22706567
-0.078907996 0.12766799 -0.227009
-0.077773497 0.12760401 -0.2270155
-0.077509001 0.12765801 -0.22701049
-0.077327006 0.12766968 -0.22701268
-0.075568996 0.127616 -0.22700199
-0.075333998 0.12766799 -0.22702999
-0.074475497 0.12765849 -0.2270245
-0.074263602 0.12769221 -0.22703663
-0.074071497 0.12770025 -0.22708751
-0.073877797 0.12770361 -0.22716038
-0.073779002 0.127781 -0.22719701
-0.082831003 0.12795 -0.22718801
-0.082671337 0.12791717 -0.22717883
-0.082481995 0.127895 -0.22717899
-0.08229842 0.12790571 -0.227136
-0.082095169 0.12791015 -0.22715151
-0.081912994 0.127903 -0.22713651
-0.081701994 0.12788367 -0.22715934
-0.081445001 0.1278985 -0.227182
-0.081317 0.12789975 -0.22713651
-0.0811252 0.127912 -0.2271212
-0.080911107 0.12792078 -0.22705391
-0.080718167 0.12791099 -0.22703999
-0.0805595 0.12786451 -0.227026
-0.080219001 0.1278505 -0.227026
-0.080089502 0.12783825 -0.22702199
-0.079861 0.127869 -0.22702
-0.079745002 0.12789351 -0.227054
-0.079577498 0.12788051 -0.22702
-0.079266995 0.127864 -0.227017
-0.074207 0.12781601 -0.227019
-0.074057199 0.12786759 -0.227037
-0.073890999 0.12788199 -0.22709182
-0.073732749 0.12793174 -0.22717139
-0.084262989 0.1281116 -0.227192
-0.084059998 0.128158 -0.22719
-0.083928667 0.12813067 -0.227184
-0.083675504 0.12813601 -0.2271955
-0.083531998 0.12817675 -0.22718576
-0.083357498 0.128153 -0.227184
-0.083081335 0.12810166 -0.22718532
-0.082827002 0.12809466 -0.22714366
-0.082684256 0.12808785 -0.2271374
-0.082477003 0.12807535 -0.22714265
-0.082315996 0.12807974 -0.22710364
-0.082081601 0.128113 -0.2270896
-0.081907496 0.12812133 -0.22707416
-0.081696004 0.12810068 -0.22710268
-0.081441 0.12808134 -0.22711766
-0.081312001 0.12808083 -0.22709365
-0.081141599 0.12808961 -0.22706361
-0.080907203 0.1280942 -0.22701399
-0.080713496 0.12805501 -0.2270125
-0.073870398 0.1280708 -0.22702181
-0.073722668 0.128105 -0.22711165
-0.084873997 0.12834901 -0.22718599
-0.084703997 0.12830299 -0.22719049
-0.084482998 0.12832467 -0.22718167
-0.08430922 0.12831621 -0.22715534
-0.084090002 0.1283192 -0.22715721
-0.083893433 0.12828572 -0.2271537
-0.083715364 0.12829207 -0.22714873
-0.083511829 0.12830299 -0.22715168
-0.083352998 0.12829751 -0.22715351
-0.083075665 0.12831932 -0.22712167
-0.082821332 0.12831335 -0.22708632
-0.082693703 0.12829779 -0.2271004
-0.082522199 0.1283098 -0.22708139
-0.082299665 0.12828776 -0.22705089
-0.082093798 0.12828919 -0.2270402
-0.081902504 0.12830275 -0.2270285
-0.081689999 0.128319 -0.227046
-0.08143533 0.12830067 -0.22704799
-0.081316195 0.1282852 -0.22702479
-0.081151254 0.12827575 -0.22702125
-0.080987997 0.128214 -0.227001
-0.073712744 0.12827887 -0.22705261
-0.073413998 0.128326 -0.22719599
-0.073279999 0.1283925 -0.22718599
-0.085900001 0.12854999 -0.227194
-0.08565817 0.12850134 -0.22718215
-0.085501499 0.12852624 -0.22718474
-0.085274994 0.12855025 -0.22716752
-0.085141338 0.12850966 -0.22718434
-0.084869675 0.12849499 -0.22715832
-0.084698997 0.12848432 -0.22715299
-0.084477998 0.12850401 -0.227146
-0.084290706 0.12851085 -0.22712041
-0.084092997 0.12852201 -0.22711782
-0.083902836 0.12851401 -0.22710083
-0.083715923 0.1285011 -0.227117
-0.083506994 0.12848423 -0.2271049
-0.083348997 0.12847935 -0.22710067
-0.083071001 0.128502 -0.22707051
-0.082815498 0.12849149 -0.227063
-0.082697779 0.12852189 -0.22705799
-0.082529336 0.12851083 -0.22704048
-0.082293145 0.12849186 -0.22702514
-0.082087994 0.12847582 -0.22700842
-0.081899494 0.12841001 -0.22700751
-0.081685998 0.128463 -0.227009
-0.073690996 0.1284315 -0.22701401
-0.073411666 0.12847432 -0.22712968
-0.073277749 0.12850326 -0.227139
-0.0730744 0.1285108 -0.2271668
-0.072800003 0.12858599 -0.227173
-0.086617999 0.12879699 -0.2272
-0.086567998 0.12879901 -0.22719
-0.086351 0.12875301 -0.2271865
-0.086181998 0.12870599 -0.22718066
-0.085895658 0.12869434 -0.227158
-0.085658751 0.12867038 -0.22716551
-0.085501671 0.12868679 -0.22715801
-0.085270748 0.12869425 -0.2271405
-0.085135005 0.12872468 -0.22714134
-0.084862672 0.12870933 -0.22712667
-0.084692001 0.12869801 -0.22712667
-0.084472001 0.12868334 -0.227117
-0.08430887 0.12868513 -0.22709437
-0.084087998 0.128702 -0.22707449
-0.083888195 0.1287152 -0.2270596
-0.083709992 0.12871799 -0.22706385
-0.083500884 0.12870099 -0.22705477
-0.083342999 0.12869634 -0.22705066
-0.083065994 0.12868135 -0.22703266
-0.08281 0.12867166 -0.22702499
-0.082702599 0.128695 -0.22703001
-0.082459003 0.12868801 -0.22701851
-0.082373999 0.12864999 -0.227008
-0.073408499 0.1286585 -0.227044
-0.073274843 0.12868783 -0.22705483
-0.073089004 0.12869 -0.22708139
-0.072693005 0.12870459 -0.22715361
-0.087578505 0.128961 -0.2271875
-0.087278999 0.12894499 -0.227185
-0.087003499 0.128934 -0.227192
-0.086654499 0.12892775 -0.22719075
-0.086533748 0.12890275 -0.22718376
-0.0863465 0.128897 -0.22716099
-0.086174995 0.128921 -0.22714765
-0.085889004 0.12890799 -0.22713266
-0.085670829 0.12889433 -0.22713399
-0.085524999 0.12888181 -0.22712502
-0.085298121 0.12888312 -0.22711886
-0.085129499 0.128905 -0.2271125
-0.084856004 0.12892334 -0.2271
-0.084683992 0.12891167 -0.22710599
-0.08446566 0.12889867 -0.22708166
-0.084291115 0.12888999 -0.22706968
-0.084081672 0.12888016 -0.22705883
-0.083900802 0.1288888 -0.22702682
-0.083704248 0.12890588 -0.22703114
-0.083475426 0.12890472 -0.22701527
-0.083338 0.128877 -0.22701
-0.083062001 0.12882499 -0.227009
-0.082805999 0.128815 -0.227005
-0.082722336 0.12883566 -0.22700934
-0.073062338 0.12884434 -0.22702734
-0.072705001 0.12890184 -0.22710349
-0.072434001 0.128984 -0.22718599
-0.087903999 0.12913467 -0.22718966
-0.087528668 0.12911133 -0.22718501
-0.087308601 0.12911019 -0.22717822
-0.087188005 0.12911434 -0.227181
-0.08699733 0.12911065 -0.227184
-0.086663336 0.12909067 -0.22716731
-0.08652734 0.12908067 -0.22716749
-0.086340666 0.12907499 -0.22714268
-0.086169496 0.12909999 -0.22711849
-0.085882001 0.12912233 -0.22709632
-0.085663833 0.12910832 -0.22711067
-0.085532449 0.12910599 -0.227075
-0.085302778 0.12908933 -0.22708879
-0.085123658 0.12908334 -0.227091
-0.084849998 0.1291035 -0.22706699
-0.084679 0.12909201 -0.2270705
-0.084457994 0.129114 -0.22705667
-0.084327497 0.12910683 -0.22704451
-0.084115446 0.12909655 -0.22703001
-0.083871998 0.12903966 -0.227005
-0.08371675 0.12906763 -0.22702938
-0.072716795 0.1290998 -0.22705278
-0.072429001 0.12912734 -0.22716701
-0.072352 0.129159 -0.227176
-0.088464998 0.12939499 -0.227185
-0.088232003 0.129334 -0.22719175
-0.088018499 0.129343 -0.22719601
-0.087884337 0.12929933 -0.22717465
-0.087501168 0.12927699 -0.22716767
-0.087320603 0.12928359 -0.22714981
-0.087182499 0.12929299 -0.227153
-0.086990334 0.12932535 -0.22715433
-0.086663254 0.12929638 -0.22714674
-0.086531855 0.12930657 -0.22713129
-0.08633367 0.12928933 -0.22711734
-0.086162992 0.12927733 -0.227111
-0.085875005 0.129299 -0.227099
-0.085656501 0.12932317 -0.22708601
-0.085525222 0.12931988 -0.22705422
-0.085295886 0.12930423 -0.227056
-0.085117333 0.12929867 -0.22704799
-0.084844671 0.12928165 -0.22704166
-0.084672667 0.12927 -0.22705467
-0.084451668 0.12932767 -0.22702266
-0.084363997 0.12932301 -0.22702233
-0.084089503 0.129292 -0.22701526
-0.083718002 0.129224 -0.22700199
-0.072650246 0.1292755 -0.22704101
-0.072422996 0.12930751 -0.227136
-0.072318338 0.12931333 -0.22717233
-0.089531496 0.12951225 -0.22719601
-0.089316003 0.12958901 -0.227193
-0.089043997 0.129575 -0.227182
-0.088710003 0.129521 -0.22718874
-0.088461503 0.129502 -0.227172
-0.088261507 0.129519 -0.22718084
-0.088063329 0.12952316 -0.22717552
-0.087876342 0.12951167 -0.2271685
-0.087494172 0.12949084 -0.22714315
-0.087305166 0.12948233 -0.22712983
-0.087177001 0.12947233 -0.22712934
-0.086984999 0.1295045 -0.2271235
-0.086676665 0.1295225 -0.227118
-0.086540781 0.12951112 -0.22709878
-0.086326003 0.12950367 -0.22709702
-0.086155333 0.12948968 -0.22709501
-0.08586967 0.12947834 -0.22706699
-0.085650995 0.129502 -0.2270595
-0.085519336 0.12949783 -0.22703631
-0.085314706 0.12950943 -0.22702715
-0.085145593 0.12952861 -0.22702381
-0.084839001 0.129462 -0.22700599
-0.084666006 0.12948366 -0.22702634
-0.084445 0.12950501 -0.22701401
-0.072601996 0.129434 -0.22701301
-0.072418667 0.12948935 -0.22708833
-0.072300337 0.12948216 -0.22712551
-0.090233997 0.12978201 -0.22719499
-0.089692138 0.12970541 -0.22718416
-0.089526333 0.12967235 -0.22718255
-0.089312002 0.129695 -0.2271855
-0.089039005 0.12971632 -0.227176
-0.088703334 0.12969866 -0.22717567
-0.088454328 0.12967932 -0.22717033
-0.088328503 0.129678 -0.22715867
-0.088104002 0.12970217 -0.22716199
-0.087862201 0.12971239 -0.22712579
-0.087486662 0.12970434 -0.22711967
-0.087297998 0.12969701 -0.22710216
-0.08716967 0.12968634 -0.22710334
-0.086979002 0.12968333 -0.22709601
-0.08667025 0.12970001 -0.22710198
-0.086533561 0.12972511 -0.22707857
-0.086319 0.12971766 -0.22706966
-0.086148329 0.12970434 -0.22706799
-0.085862666 0.12969267 -0.22703634
-0.085644506 0.12967901 -0.22704868
-0.085498147 0.12966529 -0.22701143
-0.085281 0.12973 -0.22700199
-0.085100003 0.129797 -0.227006
-0.084440999 0.129613 -0.22700299
-0.072411999 0.12970434 -0.22705199
-0.072294496 0.12969933 -0.22707151
-0.091570497 0.12988999 -0.227199
-0.090500198 0.1299136 -0.22719078
-0.090229005 0.12992434 -0.22717465
-0.089694671 0.12989867 -0.22717834
-0.089518882 0.12988533 -0.22716501
-0.089306332 0.12987433 -0.22715633
-0.089031003 0.12992834 -0.22717302
-0.088695832 0.12991135 -0.22716151
-0.088447332 0.12989266 -0.22714867
-0.088321835 0.12989284 -0.22712733
-0.088110879 0.12987287 -0.22713074
-0.087893665 0.12989484 -0.2271205
-0.087479502 0.12991817 -0.22710185
-0.087290503 0.12990983 -0.2270885
-0.08716166 0.12989832 -0.227091
-0.086971007 0.12989567 -0.22709566
-0.086663999 0.12987734 -0.22709399
-0.086527169 0.12990201 -0.22707117
-0.086313002 0.129896 -0.227056
-0.086141668 0.12991934 -0.22703834
-0.085855 0.12990566 -0.22702666
-0.085636832 0.12989217 -0.22703767
-0.085498616 0.12987837 -0.22701362
-0.085366003 0.12987667 -0.22701199
-0.085096002 0.129903 -0.22700149
-0.084652998 0.129838 -0.22700199
-0.072405331 0.12991966 -0.227018
-0.072287165 0.12991349 -0.22705168
-0.090510428 0.130053 -0.22719513
-0.0902225 0.130101 -0.2271685
-0.090043999 0.13012801 -0.22719133
-0.089687116 0.13011134 -0.22716321
-0.089511111 0.13009788 -0.22715633
-0.089298338 0.130087 -0.227153
-0.089024499 0.13010651 -0.22715899
-0.088674001 0.13010861 -0.2271456
-0.088439666 0.13010567 -0.227134
-0.088313498 0.13010401 -0.22713166
-0.088139005 0.13009401 -0.22713117
-0.087901995 0.13008387 -0.22711989
-0.087458998 0.13011619 -0.22708818
-0.087282665 0.13012217 -0.22708017
-0.087154001 0.13011165 -0.22708566
-0.086963661 0.13010967 -0.22707133
-0.086656161 0.13008982 -0.22708316
-0.086520672 0.13007911 -0.22705966
-0.08630567 0.130071 -0.22706532
-0.086134501 0.13009501 -0.2270475
-0.085848495 0.13008299 -0.227016
-0.085635602 0.1300914 -0.22702079
-0.085455 0.13007951 -0.22701526
-0.085359 0.130054 -0.22700599
-0.085090503 0.130044 -0.227001
-0.072272398 0.13011441 -0.2270238
-0.071950339 0.13009466 -0.22718501
-0.091551997 0.130348 -0.2272
-0.090563327 0.130299 -0.22719467
-0.090287007 0.1302966 -0.22717781
-0.090037003 0.13030399 -0.2271945
-0.089679003 0.13032299 -0.227164
-0.089503333 0.13031065 -0.22714567
-0.08929 0.130298 -0.227148
-0.089017995 0.13028266 -0.227153
-0.088697203 0.13028121 -0.22714062
-0.088431664 0.13031767 -0.22712834
-0.088305674 0.13031666 -0.22712535
-0.088131331 0.13030751 -0.2271145
-0.087894559 0.13029745 -0.22710299
-0.087499499 0.13027376 -0.22708201
-0.087300599 0.13030741 -0.22706918
-0.087146662 0.13032435 -0.22706465
-0.086956002 0.13032232 -0.227064
-0.086648323 0.13030167 -0.2270745
-0.086513557 0.13029334 -0.22703712
-0.086298324 0.130284 -0.22704934
-0.086127661 0.130272 -0.22703631
-0.085840002 0.13033199 -0.227001
-0.085650004 0.13031833 -0.22701032
-0.085428998 0.130381 -0.227001
-0.072276503 0.130237 -0.22700751
-0.071943 0.130309 -0.22715832
-0.091532245 0.13050875 -0.22719474
-0.090519778 0.13050888 -0.22718689
-0.09029717 0.13049567 -0.22718282
-0.090031505 0.130445 -0.22718999
-0.089671999 0.13049968 -0.2271625
-0.089495562 0.13052334 -0.22713621
-0.089282006 0.13051133 -0.22714233
-0.08901 0.13049532 -0.22714533
-0.088690802 0.1304664 -0.22712418
-0.088483334 0.13051201 -0.22711234
-0.088289402 0.13051501 -0.2271128
-0.088123001 0.13051884 -0.22711717
-0.087898128 0.13050249 -0.22709176
-0.087797001 0.130575 -0.227081
-0.087526329 0.13049133 -0.22703667
-0.087310672 0.13047822 -0.22706825
-0.087140501 0.130502 -0.227053
-0.086948998 0.13049799 -0.22707051
-0.086641334 0.13051634 -0.22704999
-0.086505331 0.13050491 -0.22703545
-0.08629033 0.13049667 -0.22704034
-0.086120002 0.13048434 -0.22702765
-0.085836999 0.130402 -0.227001
-0.085642502 0.130494 -0.227016
-0.085426003 0.13045099 -0.227001
-0.071936995 0.13052601 -0.22711568
-0.091510832 0.13070484 -0.22718783
-0.091245003 0.13076 -0.227194
-0.090664998 0.13076401 -0.2271965
-0.090512 0.13072167 -0.22717588
-0.090320341 0.13066201 -0.22719167
-0.090092003 0.1307092 -0.22719459
-0.089685142 0.13066742 -0.22715642
-0.089515999 0.13070175 -0.22713575
-0.089274667 0.13072366 -0.22712898
-0.089003995 0.13067201 -0.227135
-0.089000002 0.130779 -0.22712199
-0.088742338 0.13069899 -0.227108
-0.088506334 0.13067849 -0.22710918
-0.088300601 0.13068481 -0.22711639
-0.088106595 0.1307168 -0.22711179
-0.087922335 0.13072585 -0.22709198
-0.087792002 0.13071533 -0.22707467
-0.087517999 0.13070299 -0.22703733
-0.087302662 0.13069034 -0.22706133
-0.087132998 0.13067734 -0.22706199
-0.086943001 0.13067667 -0.22704268
-0.086633503 0.13072933 -0.22703683
-0.086497441 0.13071734 -0.22702678
-0.086282335 0.13070934 -0.22703433
-0.086112328 0.13069767 -0.22701333
-0.085826002 0.130684 -0.22700401
-0.085635997 0.13067167 -0.22701333
-0.071931005 0.130705 -0.22709
-0.09148331 0.1309229 -0.22718731
-0.091239497 0.13090199 -0.2271955
-0.091057003 0.130962 -0.227199
-0.090658002 0.13094001 -0.227199
-0.090505503 0.13089834 -0.22716866
-0.090369001 0.130961 -0.227191
-0.090102337 0.13090785 -0.22718532
-0.08969117 0.13089049 -0.22715567
-0.089509092 0.13087933 -0.22713049
-0.089267999 0.1309 -0.22712451
-0.088995002 0.13092034 -0.22711766
-0.088734336 0.13091101 -0.22710633
-0.088498168 0.13089067 -0.22710733
-0.088284165 0.13088234 -0.22710867
-0.088118404 0.1308872 -0.22710362
-0.087915495 0.13090199 -0.2270865
-0.087783329 0.13092667 -0.22707967
-0.087509997 0.13091433 -0.22703832
-0.087294891 0.13090301 -0.2270501
-0.087125994 0.13089167 -0.22703798
-0.086935006 0.13088866 -0.22703634
-0.086626999 0.130906 -0.22703199
-0.086471833 0.13090533 -0.22702052
-0.086274005 0.13092133 -0.22703068
-0.086103998 0.13090833 -0.22701967
-0.071924999 0.13088466 -0.22706699
-0.0915085 0.13110174 -0.2271865
-0.091273747 0.1311345 -0.22719176
-0.091052331 0.13110299 -0.22718632
-0.090653002 0.131082 -0.22718799
-0.090498671 0.13107511 -0.22717135
-0.090364002 0.13110299 -0.22718051
-0.090094157 0.13111967 -0.2271785
-0.08968284 0.13110183 -0.22715367
-0.089501172 0.13109042 -0.22713043
-0.089261331 0.13107699 -0.22712034
-0.088988498 0.131098 -0.227107
-0.08872667 0.13112433 -0.22709501
-0.088508599 0.1310908 -0.22709301
-0.088294141 0.131106 -0.22709629
-0.088102005 0.13108516 -0.22709866
-0.087909333 0.13107933 -0.22708
-0.087777004 0.13110399 -0.227071
-0.087501667 0.13112633 -0.22703566
-0.087298758 0.13110849 -0.22702725
-0.087138504 0.13112299 -0.22702825
-0.086927675 0.13110065 -0.22702332
-0.086644329 0.13108332 -0.22703099
-0.086512879 0.13108437 -0.22701576
-0.086267501 0.1310975 -0.227027
-0.086095996 0.13112099 -0.22700633
-0.071917661 0.13109799 -0.22705133
-0.091808498 0.13125201 -0.2271975
-0.091508999 0.13127185 -0.22717671
-0.091293 0.13131699 -0.22717822
-0.091044329 0.13131566 -0.22717535
-0.090644993 0.131294 -0.22719
-0.090490669 0.1312869 -0.22716753
-0.090357006 0.13127901 -0.22718799
-0.090116672 0.131285 -0.22718532
-0.089998998 0.131329 -0.227166
-0.08967483 0.13131434 -0.22715001
-0.089493088 0.13130225 -0.22712757
-0.089253329 0.13128968 -0.22711267
-0.088981666 0.13127433 -0.22710834
-0.088720001 0.1313 -0.22709951
-0.088569999 0.13132167 -0.22708601
-0.088311225 0.13130856 -0.22708347
-0.088093996 0.13129833 -0.22708715
-0.087901503 0.13129184 -0.22707133
-0.087771662 0.13128233 -0.22703767
-0.087495506 0.13130349 -0.227029
-0.087323248 0.13129476 -0.22703075
-0.087152503 0.13131933 -0.22702599
-0.086919665 0.13131301 -0.22701602
-0.08663667 0.13129501 -0.22702466
-0.086503498 0.13128634 -0.22702099
-0.086261004 0.131275 -0.22701399
-0.086089499 0.13129801 -0.22700951
-0.071909994 0.13131201 -0.22703266
-0.092471004 0.13153601 -0.2272
-0.091614999 0.1315275 -0.22718701
-0.091509111 0.1314829 -0.22717844
-0.091320202 0.1314878 -0.22718661
-0.091035999 0.13152701 -0.22717799
-0.090635501 0.13154051 -0.227184
-0.090482883 0.13149911 -0.22715412
-0.090348996 0.13149066 -0.22718734
-0.090169005 0.13147666 -0.22717233
-0.089993 0.13147034 -0.22717135
-0.089656994 0.13151219 -0.22713718
-0.089502797 0.13150789 -0.22711858
-0.089306198 0.13152 -0.22711019
-0.088973999 0.131487 -0.22709532
-0.088713668 0.13147734 -0.22707634
-0.088563502 0.13149899 -0.22708151
-0.088303111 0.13152045 -0.22707966
-0.088086002 0.13150901 -0.22708617
-0.087893009 0.13150318 -0.22707234
-0.087762989 0.13149367 -0.22705333
-0.087487996 0.13147934 -0.22703266
-0.087316997 0.13147217 -0.22702233
-0.087136194 0.13151661 -0.2270222
-0.086911328 0.13152499 -0.227017
-0.08662834 0.13150699 -0.22702168
-0.086491577 0.13150828 -0.22701657
-0.08625301 0.13148634 -0.227017
-0.086082332 0.131475 -0.22700699
-0.071905002 0.13145401 -0.227024
-0.092467502 0.131643 -0.227191
-0.091745749 0.13169125 -0.22719
-0.091501109 0.13169456 -0.22717364
-0.091295838 0.13168484 -0.2271765
-0.091029495 0.13170201 -0.227184
-0.090629004 0.13171834 -0.22716899
-0.090475 0.13171099 -0.22714768
-0.090341665 0.13170268 -0.22716634
-0.090162002 0.13169134 -0.22713967
-0.089984663 0.13168234 -0.227171
-0.089671798 0.13168199 -0.227138
-0.089499749 0.13171762 -0.22711286
-0.08931417 0.13171899 -0.22710252
-0.088965662 0.131698 -0.22709501
-0.088705339 0.13168867 -0.22707732
-0.088556327 0.131675 -0.22708267
-0.088296168 0.13169667 -0.22708
-0.088077493 0.13172066 -0.22708666
-0.087885164 0.13171516 -0.22706415
-0.087754332 0.13170433 -0.227055
-0.087480664 0.13169134 -0.22701734
-0.087308496 0.13168283 -0.22702317
-0.087146401 0.13168679 -0.2270222
-0.086904496 0.13170201 -0.22701949
-0.086619996 0.13171767 -0.227027
-0.086497664 0.13168716 -0.22702067
-0.086297669 0.13170032 -0.22701167
-0.086071 0.13175701 -0.22701199
-0.091783337 0.13192333 -0.22717364
-0.091503099 0.1319133 -0.2271767
-0.091306001 0.1318844 -0.22716419
-0.091067247 0.1319005 -0.227171
-0.090622 0.13189399 -0.22717199
-0.09046644 0.13192222 -0.22715333
-0.090333343 0.13191468 -0.22716933
-0.090153001 0.13190199 -0.22715467
-0.089976333 0.13189334 -0.22717267
-0.089681759 0.13186374 -0.227126
-0.089527562 0.13189456 -0.22711809
-0.089291796 0.1319164 -0.2270886
-0.088957667 0.13190933 -0.22709368
-0.088697664 0.13190134 -0.22706968
-0.088547997 0.131887 -0.22707866
-0.08828944 0.13187289 -0.22707912
-0.088071004 0.131898 -0.227081
-0.087868601 0.1319126 -0.22705261
-0.087746657 0.13191767 -0.22704099
-0.087471999 0.13190199 -0.22702901
-0.087300003 0.13189399 -0.22703166
-0.087130494 0.13188349 -0.22702633
-0.086897999 0.13187833 -0.22701234
-0.086612999 0.1318945 -0.22702751
-0.086563326 0.131929 -0.22702034
-0.086315833 0.13191251 -0.22700851
-0.086069003 0.131827 -0.227009
-0.092462249 0.13208374 -0.22718576
-0.092384003 0.132099 -0.22719
-0.092053503 0.1321155 -0.22719699
-0.091777503 0.132102 -0.22715101
-0.091511257 0.13211975 -0.22717917
-0.091365002 0.13211399 -0.227176
-0.091104001 0.13209619 -0.22718066
-0.090614997 0.13207 -0.22717933
-0.090460002 0.132099 -0.22714366
-0.090325661 0.13212734 -0.22715068
-0.090144671 0.13211267 -0.22715767
-0.089968674 0.13210534 -0.22715867
-0.089700006 0.13209401 -0.227121
-0.089517586 0.132083 -0.22710717
-0.089315608 0.13208739 -0.22709242
-0.08894933 0.132122 -0.22709198
-0.088689335 0.13211334 -0.22706766
-0.088539995 0.13209833 -0.22708233
-0.088324003 0.1320855 -0.22708015
-0.088108331 0.13207766 -0.22706968
-0.087880798 0.13208339 -0.2270536
-0.087738998 0.132129 -0.22703533
-0.087463327 0.13211399 -0.22703099
-0.087291993 0.13210633 -0.22702967
-0.087122001 0.13209583 -0.22702634
-0.086890996 0.132054 -0.227017
-0.086606331 0.132071 -0.22702165
-0.086557001 0.132107 -0.227009
-0.086347751 0.1321075 -0.22700751
-0.071575001 0.13214201 -0.22719499
-0.092441998 0.13231234 -0.22718567
-0.092374504 0.132346 -0.227191
-0.092046671 0.13229199 -0.22719367
-0.091770001 0.132277 -0.22716433
-0.091501445 0.13230778 -0.22716877
-0.091357 0.13232599 -0.22716701
-0.091096006 0.13230868 -0.22717865
-0.090606667 0.132282 -0.22718567
-0.090468422 0.132266 -0.22715299
-0.090358503 0.1323055 -0.227154
-0.090136327 0.132324 -0.22716232
-0.089961 0.132318 -0.22714634
-0.089691997 0.13230599 -0.22712433
-0.089509092 0.13229442 -0.22711368
-0.089291997 0.13228317 -0.22711051
-0.088942498 0.13229901 -0.227091
-0.088681005 0.13232467 -0.22707398
-0.088531338 0.132309 -0.22709399
-0.088316344 0.13229766 -0.22707015
-0.088100448 0.13228989 -0.2270641
-0.087864332 0.13228132 -0.22704433
-0.087732002 0.13230601 -0.227034
-0.087456338 0.13232668 -0.22701
-0.0872835 0.13231732 -0.22703381
-0.087113999 0.13230716 -0.22702467
-0.086880505 0.13233751 -0.227007
-0.086600997 0.132213 -0.22702201
-0.086556502 0.13228099 -0.22701533
-0.071569674 0.13228367 -0.22718935
-0.092433006 0.132524 -0.22719701
-0.092338197 0.13253438 -0.227192
-0.092038669 0.132504 -0.22719432
-0.091761328 0.132487 -0.22717534
-0.091500454 0.13248082 -0.22716473
-0.091349497 0.132503 -0.227174
-0.091178 0.13252532 -0.22717066
-0.090997331 0.13251334 -0.22718666
-0.090600997 0.132423 -0.227183
-0.090503126 0.1324985 -0.22715476
-0.090350665 0.13248083 -0.22717118
-0.090130001 0.13250101 -0.22715649
-0.089951664 0.13252833 -0.22717531
-0.089683674 0.13251799 -0.227116
-0.089500248 0.13250417 -0.22713244
-0.089283496 0.13249384 -0.22711951
-0.088934995 0.13247399 -0.22710466
-0.088673502 0.13249999 -0.22708499
-0.088523336 0.13252133 -0.22708468
-0.088308007 0.13251066 -0.22706749
-0.088103615 0.13249312 -0.22706325
-0.087876141 0.13250329 -0.22705515
-0.087725006 0.13248233 -0.22703065
-0.087449506 0.132503 -0.22701499
-0.087268196 0.132515 -0.22702459
-0.087106168 0.13251917 -0.22701268
-0.086873002 0.13251366 -0.22701366
-0.086579248 0.132478 -0.22700825
-0.086369999 0.13255 -0.22700199
-0.071562 0.13249634 -0.22718699
-0.092441671 0.13271099 -0.22719367
-0.092326 0.13266 -0.22719449
-0.092030004 0.132715 -0.2271975
-0.091752999 0.13269834 -0.227181
-0.09149 0.13268499 -0.22716625
-0.091342993 0.13267833 -0.22716968
-0.091170996 0.13270199 -0.22716999
-0.090989329 0.13272534 -0.22717966
-0.090505667 0.13270167 -0.22716123
-0.090342164 0.1326915 -0.22717983
-0.090122998 0.13267733 -0.22716101
-0.089945495 0.132705 -0.227165
-0.089675665 0.13272934 -0.22711901
-0.089491837 0.13271584 -0.22713415
-0.089313999 0.13269076 -0.22712
-0.089197502 0.132735 -0.227111
-0.088927001 0.13268401 -0.227111
-0.088666342 0.13267599 -0.22709
-0.088516995 0.132698 -0.22707349
-0.088299327 0.13272116 -0.2270785
-0.088128 0.13271534 -0.22706883
-0.087908752 0.13269649 -0.22706486
-0.087737501 0.132714 -0.22703126
-0.087442666 0.13267934 -0.22701167
-0.0872778 0.13268641 -0.22701558
-0.087090604 0.1327168 -0.22700422
-0.086868003 0.132654 -0.22700401
-0.086562403 0.13272099 -0.22700861
-0.086364664 0.13269132 -0.22700433
-0.071519807 0.1327216 -0.22719559
-0.09244334 0.13287599 -0.22719282
-0.092301995 0.13289399 -0.22719567
-0.092066497 0.13292925 -0.2271885
-0.091746002 0.13291234 -0.22715501
-0.091498502 0.13288949 -0.22716792
-0.091359995 0.13290641 -0.22716601
-0.091164671 0.13287866 -0.22715767
-0.090983495 0.13290301 -0.227166
-0.090497673 0.13291354 -0.22715089
-0.090334505 0.13290383 -0.22716732
-0.090114675 0.13288933 -0.22716133
-0.08993867 0.13288133 -0.22715867
-0.089667998 0.13290501 -0.2271325
-0.089483112 0.13290489 -0.22711843
-0.089357495 0.1329405 -0.22711775
-0.089190662 0.13291267 -0.22710466
-0.088918664 0.13289733 -0.22710101
-0.088658333 0.132888 -0.227089
-0.088509999 0.132874 -0.22708166
-0.088293247 0.13289849 -0.22707
-0.088119663 0.13292618 -0.22706901
-0.08793667 0.13291916 -0.22706349
-0.087750494 0.13290949 -0.22703917
-0.0874345 0.132892 -0.22700551
-0.087262668 0.13288316 -0.22701234
-0.087092504 0.13287202 -0.22701125
-0.086858496 0.132901 -0.22700399
-0.086573996 0.132919 -0.22700866
-0.086356334 0.13290334 -0.22700433
-0.071521603 0.13293579 -0.2271928
-0.092435338 0.13308816 -0.22718233
-0.092346005 0.13308667 -0.227183
-0.092073672 0.13311766 -0.22719432
-0.09173733 0.133123 -0.22716133
-0.091501214 0.13310811 -0.22716624
-0.091358662 0.13310485 -0.22716232
-0.091156997 0.133092 -0.22715168
-0.090976 0.13307799 -0.22717433
-0.090489335 0.13312533 -0.22715677
-0.090326495 0.13311584 -0.22715966
-0.090106331 0.13310067 -0.22716634
-0.089929998 0.13309266 -0.22716634
-0.089660667 0.13308001 -0.22714166
-0.089511625 0.13308151 -0.22713113
-0.089366004 0.1330985 -0.22710876
-0.089182325 0.13312267 -0.22711568
-0.088910669 0.13310868 -0.227102
-0.088649996 0.13309933 -0.22709198
-0.088501997 0.13308601 -0.22707433
-0.088286005 0.13307451 -0.22707416
-0.088112995 0.13310251 -0.22706974
-0.087929994 0.1330955 -0.22705625
-0.087742001 0.13312085 -0.22704367
-0.087425999 0.13310234 -0.22701134
-0.0872458 0.13310941 -0.22700939
-0.087070324 0.13308366 -0.227008
-0.086851336 0.13307734 -0.22700866
-0.086567499 0.1330955 -0.227008
-0.071520001 0.13308901 -0.22718601
-0.092432007 0.1332856 -0.22718959
-0.092359006 0.13329767 -0.22719367
-0.092079401 0.133268 -0.22719741
-0.091730505 0.13329899 -0.22715899
-0.091493107 0.1333199 -0.227164
-0.091350667 0.13331568 -0.22716232
-0.091147661 0.13330133 -0.22717066
-0.090967678 0.13328934 -0.22718067
-0.090482831 0.13330233 -0.22715133
-0.090311006 0.13331339 -0.22716479
-0.090098001 0.13331266 -0.22715734
-0.089922003 0.13330533 -0.22716367
-0.089652993 0.13329268 -0.22713567
-0.089497894 0.13328344 -0.22712547
-0.089359336 0.13327549 -0.22710769
-0.089176506 0.133301 -0.227089
-0.088903002 0.133322 -0.22709633
-0.088642657 0.13331233 -0.22707599
-0.088493668 0.13329734 -0.22707732
-0.088278167 0.13328649 -0.22706383
-0.088106334 0.1332795 -0.22706498
-0.08792267 0.13327201 -0.22706483
-0.087726399 0.1333178 -0.22703759
-0.087417662 0.13331367 -0.22701664
-0.087246329 0.13330667 -0.22700882
-0.087118335 0.13329901 -0.22701733
-0.086843506 0.13328999 -0.22700199
-0.086535998 0.13327067 -0.22701617
-0.086337 0.133398 -0.22700199
-0.071531005 0.13327833 -0.22718866
-0.092442662 0.13351133 -0.22718434
-0.092395 0.13351034 -0.22719133
-0.092003003 0.133422 -0.22719
-0.091998503 0.133527 -0.22719601
-0.091723673 0.13347535 -0.227166
-0.091477863 0.13351014 -0.22716486
-0.091336407 0.13351341 -0.22716579
-0.091139339 0.13351333 -0.22717202
-0.090959668 0.13350199 -0.22717701
-0.090475544 0.13347834 -0.22715367
-0.090320393 0.13348421 -0.22715721
-0.090089671 0.133524 -0.22716534
-0.089913666 0.13351667 -0.22716533
-0.089644998 0.133505 -0.22712667
-0.08948978 0.13349611 -0.22711778
-0.08935117 0.13348667 -0.22711082
-0.089168996 0.13347667 -0.22710566
-0.088895999 0.133497 -0.22708899
-0.088634335 0.13352366 -0.22707367
-0.088485338 0.13350999 -0.227075
-0.088270001 0.1334985 -0.22705953
-0.088097997 0.13349134 -0.22706634
-0.087914832 0.13348334 -0.2270655
-0.087736197 0.133489 -0.22704658
-0.087410003 0.13352633 -0.22701101
-0.087258004 0.1335015 -0.22702375
-0.087124497 0.1335355 -0.22701032
-0.086834997 0.13350134 -0.22701167
-0.086527832 0.13348265 -0.22701083
-0.086335003 0.133468 -0.22700199
-0.071525 0.13341901 -0.227199
-0.093424499 0.133673 -0.227198
-0.092433996 0.13372134 -0.227194
-0.092327856 0.13374057 -0.22719085
-0.091715001 0.133687 -0.22718032
-0.091485754 0.13368225 -0.22716537
-0.091342404 0.13368259 -0.2271686
-0.09113133 0.133726 -0.227163
-0.090951331 0.13371466 -0.22717434
-0.090487428 0.13368072 -0.22716057
-0.090328373 0.13369213 -0.22714637
-0.090083495 0.133701 -0.22715351
-0.089906 0.133729 -0.22715467
-0.089637004 0.133717 -0.22711635
-0.089480996 0.13370723 -0.22713488
-0.08934366 0.1337 -0.22709249
-0.089161664 0.13369 -0.227084
-0.088889666 0.13367499 -0.22708301
-0.088627502 0.1337 -0.227071
-0.088477664 0.13372134 -0.22707234
-0.088261336 0.13370951 -0.22707051
-0.088089831 0.13370299 -0.22706516
-0.087906331 0.13369499 -0.22706883
-0.087719835 0.13368499 -0.22704832
-0.0874025 0.13370201 -0.22701901
-0.0872695 0.13369501 -0.22703549
-0.08710289 0.13372234 -0.22701512
-0.086826332 0.13371266 -0.227018
-0.086519502 0.13369466 -0.22700869
-0.086323999 0.13374899 -0.22700299
-0.086168669 0.13367534 -0.22700198
-0.093413502 0.133956 -0.22719499
-0.093346998 0.13395 -0.22719499
-0.092427999 0.133864 -0.2272
-0.09230157 0.13391115 -0.22719143
-0.091982 0.13395 -0.22719601
-0.091706336 0.133898 -0.22718032
-0.091471337 0.13388479 -0.22716276
-0.091327995 0.13387966 -0.22717768
-0.091124505 0.13390249 -0.227162
-0.090943664 0.13392566 -0.22716801
-0.090493672 0.13390316 -0.22715966
-0.090328343 0.13389522 -0.22714414
-0.090076663 0.13387765 -0.22715199
-0.089899004 0.13390499 -0.227156
-0.089629002 0.13392834 -0.22711401
-0.08947356 0.13391921 -0.22711822
-0.089334838 0.13391067 -0.22710918
-0.089152999 0.133901 -0.22708599
-0.088880338 0.133885 -0.22710268
-0.08862067 0.13387634 -0.227075
-0.088470504 0.13389701 -0.22708049
-0.088253833 0.13392183 -0.2270595
-0.088081837 0.1339155 -0.22705734
-0.0878985 0.13390766 -0.22705984
-0.087712325 0.13389766 -0.22703536
-0.087329328 0.13387516 -0.22702765
-0.087083288 0.13391285 -0.2270157
-0.086818002 0.13392401 -0.227019
-0.08652325 0.13392501 -0.227008
-0.086320996 0.133821 -0.22700299
-0.071502998 0.13398901 -0.227199
-0.093409002 0.13406201 -0.22719701
-0.092417002 0.13414501 -0.227198
-0.092307001 0.13402499 -0.22719733
-0.091975994 0.13412701 -0.22718167
-0.091699004 0.13411067 -0.22716068
-0.09146288 0.13409589 -0.22716543
-0.091320671 0.13409317 -0.22715734
-0.091118 0.13407801 -0.227162
-0.090936497 0.134102 -0.227181
-0.090485662 0.13411534 -0.22715183
-0.090320662 0.13410777 -0.22712888
-0.090068668 0.13408966 -0.227145
-0.089892663 0.13408233 -0.22714633
-0.089623004 0.13410699 -0.2271045
-0.089460857 0.13411215 -0.22708227
-0.089326501 0.13412251 -0.22710782
-0.089145005 0.13411367 -0.22708301
-0.088873662 0.13409834 -0.22707666
-0.088611998 0.13408832 -0.22707933
-0.088463664 0.13407467 -0.22707565
-0.088246748 0.1340975 -0.22706601
-0.088066399 0.1341134 -0.2270426
-0.087890841 0.13411982 -0.22704883
-0.087703831 0.13410933 -0.22703551
-0.087308995 0.1340732 -0.2270122
-0.087103836 0.13406484 -0.2270115
-0.0869065 0.134102 -0.22702101
-0.086502999 0.13411801 -0.22701634
-0.092412002 0.134287 -0.22718734
-0.092364669 0.134287 -0.22719367
-0.091968998 0.134304 -0.227182
-0.091691338 0.13432366 -0.22714667
-0.091461755 0.13429938 -0.22716615
-0.091325708 0.13431443 -0.22713915
-0.091109999 0.13428934 -0.22716333
-0.090930007 0.13427867 -0.22716402
-0.090467796 0.13431239 -0.22715339
-0.090312451 0.13431889 -0.22713076
-0.090061001 0.13430233 -0.227134
-0.089884669 0.13429433 -0.227135
-0.089617006 0.13428333 -0.22707868
-0.089467995 0.13428512 -0.22706187
-0.089320496 0.1342995 -0.22708601
-0.089137666 0.13432567 -0.22706901
-0.088864662 0.13430901 -0.227091
-0.088604331 0.13430034 -0.22707267
-0.088455997 0.13428567 -0.22706532
-0.088260993 0.13425726 -0.22706249
-0.088110998 0.13429114 -0.22705285
-0.087884001 0.13429625 -0.22704349
-0.08769583 0.13432132 -0.22702901
-0.087300003 0.13431339 -0.22700679
-0.087124169 0.13429016 -0.22701098
-0.086918809 0.13429321 -0.2270104
-0.086504668 0.13428333 -0.22700967
-0.071792997 0.13436399 -0.227005
-0.071491003 0.13430849 -0.22719
-0.093323998 0.13455001 -0.227192
-0.092721999 0.134593 -0.2272
-0.092457332 0.13450482 -0.2271805
-0.092288494 0.13449666 -0.22717465
-0.092139006 0.13448633 -0.22717701
-0.09196233 0.13447966 -0.22718133
-0.0916835 0.134497 -0.22717699
-0.091472991 0.13452299 -0.22717233
-0.091333777 0.13451511 -0.2271529
-0.091101669 0.134501 -0.22716101
-0.090921663 0.13448967 -0.227171
-0.090482205 0.13448361 -0.2271388
-0.090295568 0.13451056 -0.22712156
-0.090053 0.13451366 -0.22712667
-0.08987733 0.13450666 -0.22712533
-0.089608006 0.13449501 -0.22708935
-0.089452229 0.13448435 -0.22709979
-0.089313991 0.1344765 -0.22708283
-0.0891295 0.1345 -0.2271
-0.088856339 0.13452034 -0.22709601
-0.088521995 0.13450535 -0.22706266
-0.088273667 0.13448733 -0.22704335
-0.08810389 0.13448255 -0.22705343
-0.087876834 0.13447249 -0.2270505
-0.087680206 0.134518 -0.22702141
-0.087305337 0.13451134 -0.22700799
-0.087137006 0.13452075 -0.22701301
-0.086987339 0.13449167 -0.22700699
-0.086796664 0.13448866 -0.22700733
-0.086516999 0.1344 -0.227005
-0.071787335 0.134506 -0.22701199
-0.071487002 0.134414 -0.22718801
-0.093597002 0.13478 -0.227199
-0.09333425 0.13470925 -0.227193
-0.093000002 0.134745 -0.2272
-0.092718497 0.134698 -0.227193
-0.092310578 0.13470925 -0.22716703
-0.092130996 0.13469668 -0.22718132
-0.091954 0.134691 -0.22718935
-0.091676675 0.13467467 -0.227171
-0.091466501 0.13469899 -0.22716624
-0.091325872 0.13471726 -0.22714962
-0.091093667 0.13471366 -0.227153
-0.090913676 0.13470232 -0.22716235
-0.090464503 0.134681 -0.22713584
-0.09030813 0.134682 -0.22711138
-0.090045668 0.134726 -0.22710834
-0.089869671 0.13471933 -0.22711067
-0.089602001 0.134636 -0.227097
-0.089500621 0.13471025 -0.22710012
-0.089336224 0.13468912 -0.22708045
-0.089122675 0.13467766 -0.22709532
-0.0888495 0.134698 -0.22708949
-0.088513665 0.13471682 -0.22706567
-0.088265665 0.13469833 -0.22703399
-0.088095337 0.13469389 -0.22705677
-0.087868504 0.13468416 -0.22705416
-0.087690398 0.134689 -0.22702439
-0.087297328 0.13472334 -0.22700584
-0.087107666 0.13471383 -0.22700983
-0.086981997 0.134633 -0.22700401
-0.086508997 0.13461401 -0.22700199
-0.093427002 0.134983 -0.22719701
-0.093350805 0.134891 -0.22719081
-0.092994995 0.13488567 -0.22719133
-0.092711993 0.134875 -0.22719067
-0.092494503 0.13489801 -0.22719601
-0.092301838 0.13492034 -0.22717641
-0.092122339 0.13490868 -0.227184
-0.091945328 0.13490234 -0.227193
-0.091669001 0.13488734 -0.227162
-0.091459177 0.134875 -0.22717933
-0.09132015 0.13488857 -0.22714186
-0.091086 0.13492566 -0.22714333
-0.090905994 0.134914 -0.22715001
-0.090457328 0.13489316 -0.22711669
-0.090291552 0.13488434 -0.22710879
-0.090039 0.134902 -0.22711301
-0.089862496 0.134895 -0.227117
-0.089503996 0.13491344 -0.22709544
-0.089328334 0.13490134 -0.22707455
-0.089115329 0.13488935 -0.22707367
-0.088842668 0.13487367 -0.22709067
-0.088491797 0.1349134 -0.22705321
-0.088256992 0.13490967 -0.22704899
-0.088098504 0.13489725 -0.227053
-0.087880567 0.13490671 -0.22704186
-0.087674342 0.13488616 -0.22702666
-0.08729025 0.13489975 -0.227009
-0.087100744 0.13489026 -0.22700949
-0.071770996 0.134895 -0.2270295
-0.093421996 0.135122 -0.22719167
-0.093341395 0.13513061 -0.2271928
-0.093161002 0.13518 -0.22719701
-0.092987001 0.13509767 -0.22719167
-0.092703663 0.135087 -0.22719099
-0.092487998 0.13507468 -0.22718801
-0.092328168 0.13509832 -0.22717249
-0.092154332 0.13512383 -0.22718418
-0.091937669 0.13511433 -0.227184
-0.091660671 0.135098 -0.22716002
-0.091451667 0.13508701 -0.22716366
-0.091313004 0.1350801 -0.22713444
-0.091078997 0.13510251 -0.22713801
-0.090898335 0.13512667 -0.22714067
-0.090474993 0.13508949 -0.22711924
-0.09030427 0.13510436 -0.22710274
-0.090032667 0.13507934 -0.22709768
-0.089855671 0.13507266 -0.22711432
-0.089496002 0.13512556 -0.22708654
-0.089320555 0.13511333 -0.22706366
-0.089107998 0.135102 -0.22706102
-0.088834666 0.13508567 -0.22707999
-0.0885152 0.1350864 -0.22705039
-0.088249661 0.13512234 -0.22703533
-0.088122509 0.13512002 -0.22705035
-0.087899335 0.13510945 -0.22704601
-0.087666333 0.13509718 -0.2270245
-0.087217331 0.13507301 -0.22701032
-0.071763001 0.13507167 -0.22705834
-0.093415998 0.135263 -0.2272
-0.093361497 0.135295 -0.22719499
-0.093158998 0.13525 -0.22719499
-0.092979006 0.13531034 -0.22718601
-0.092695333 0.13529833 -0.22719266
-0.092479996 0.13528667 -0.22719066
-0.092321001 0.13527456 -0.22717555
-0.092148006 0.1353015 -0.22717099
-0.091929339 0.135327 -0.22718467
-0.091652334 0.13530968 -0.22716232
-0.091443501 0.13529867 -0.22716315
-0.091304779 0.13529167 -0.22713311
-0.091072999 0.13528001 -0.22712334
-0.090892002 0.13530299 -0.227128
-0.090492666 0.13531934 -0.22710668
-0.090304673 0.13531026 -0.22708958
-0.090024002 0.13529067 -0.227108
-0.089847334 0.13528334 -0.22711867
-0.089489162 0.13530199 -0.22708984
-0.089312777 0.13532512 -0.22705913
-0.089100003 0.135314 -0.22705801
-0.088827334 0.13529867 -0.22706634
-0.088492841 0.1352825 -0.22704168
-0.088243 0.1353 -0.22702751
-0.088115498 0.135297 -0.22704975
-0.087939501 0.13532217 -0.22705166
-0.087703444 0.13531256 -0.22702622
-0.087210499 0.13525 -0.227008
-0.071756005 0.135286 -0.22703433
-0.093566999 0.135556 -0.227198
-0.093327999 0.135483 -0.227192
-0.092970669 0.13552099 -0.22718334
-0.092688002 0.13551001 -0.227176
-0.092471994 0.13549934 -0.227183
-0.092313215 0.13548689 -0.22716811
-0.092141002 0.13547701 -0.22717781
-0.091922499 0.13550249 -0.22718
-0.091643997 0.13552101 -0.22716166
-0.091435999 0.13551116 -0.22714598
-0.091296554 0.13550378 -0.22713099
-0.091065325 0.13549133 -0.227117
-0.090885341 0.13548066 -0.22711967
-0.090485498 0.13549501 -0.227112
-0.090329669 0.135524 -0.22708358
-0.090106167 0.13550967 -0.22710051
-0.089839004 0.13549535 -0.22711533
-0.089482561 0.13547911 -0.22708233
-0.089306168 0.135502 -0.22705168
-0.089090668 0.13552468 -0.22707732
-0.088819332 0.13551001 -0.227062
-0.088484667 0.13549365 -0.22703999
-0.088235997 0.13547499 -0.22703733
-0.088109165 0.1354735 -0.22704066
-0.087933242 0.135499 -0.22703901
-0.087684125 0.1355145 -0.22702514
-0.087118998 0.135563 -0.227001
-0.071747996 0.13549967 -0.22701733
-0.093561001 0.13569801 -0.227199
-0.093349002 0.13561299 -0.22719701
-0.093141004 0.135708 -0.2271945
-0.092963502 0.13569701 -0.2271875
-0.092679329 0.13572133 -0.22718233
-0.092464 0.13570966 -0.22717834
-0.092305452 0.13569866 -0.22715844
-0.092133172 0.13568866 -0.22717182
-0.091916002 0.13568 -0.22717166
-0.091637999 0.13569799 -0.227156
-0.091424599 0.1357092 -0.227119
-0.091290213 0.13571656 -0.22709312
-0.091057993 0.13570367 -0.22709334
-0.090877675 0.135692 -0.22711267
-0.090478338 0.13567133 -0.22711533
-0.090323173 0.13570099 -0.22707933
-0.090081006 0.13570619 -0.22708721
-0.08983133 0.13570766 -0.22710834
-0.089475006 0.13569111 -0.22706734
-0.089299448 0.13567822 -0.22704786
-0.089084998 0.13570151 -0.22706001
-0.088811338 0.13572265 -0.22705667
-0.08849261 0.1356934 -0.2270308
-0.088270254 0.13570726 -0.22704324
-0.088101506 0.13568632 -0.22703034
-0.0879265 0.13567583 -0.22703551
-0.087718509 0.13567917 -0.22703631
-0.0876 0.13573 -0.227006
-0.071738996 0.13571201 -0.22703534
-0.093494996 0.135978 -0.227199
-0.093335003 0.135965 -0.227199
-0.093134008 0.13588433 -0.22719
-0.092957497 0.1358375 -0.22719401
-0.092673004 0.13589799 -0.227171
-0.092456341 0.13592233 -0.22716933
-0.09229745 0.13591044 -0.22715381
-0.092124827 0.13590051 -0.22716968
-0.091908 0.13589066 -0.22717167
-0.091631673 0.13587566 -0.22713535
-0.091449343 0.13586999 -0.227125
-0.091304101 0.13591389 -0.2271179
-0.091049008 0.135915 -0.227102
-0.090869665 0.135903 -0.22711134
-0.090470664 0.135884 -0.22710435
-0.090317003 0.13587767 -0.22706488
-0.090111002 0.13587961 -0.22707781
-0.089867502 0.13593975 -0.2270785
-0.089487001 0.13589457 -0.22705816
-0.089310907 0.13589846 -0.227045
-0.089078665 0.135879 -0.22704168
-0.088805005 0.13589901 -0.22704649
-0.088542998 0.13592499 -0.22703399
-0.088306837 0.13590485 -0.22703016
-0.088093668 0.13589768 -0.22702102
-0.087919168 0.13588817 -0.22701967
-0.087725163 0.13588116 -0.22702718
-0.087598003 0.1358 -0.227006
-0.071731001 0.13592534 -0.22703433
-0.093523599 0.13610499 -0.2271934
-0.093309574 0.13610485 -0.22719041
-0.092948668 0.13608499 -0.22719033
-0.092666 0.13607599 -0.22716701
-0.092449501 0.136098 -0.22716799
-0.092289232 0.13612233 -0.22715156
-0.092117332 0.13611317 -0.22715551
-0.091899998 0.13610266 -0.22716534
-0.091623664 0.13608734 -0.22713466
-0.091439001 0.136079 -0.22716735
-0.091308996 0.13608399 -0.22712378
-0.091040999 0.13612632 -0.22710967
-0.090861671 0.13611633 -0.22710566
-0.090462334 0.13609533 -0.227107
-0.090309441 0.13608967 -0.22705276
-0.090175003 0.13608132 -0.227091
-0.0899055 0.13609999 -0.22707851
-0.089492172 0.13611718 -0.22706868
-0.089310087 0.136104 -0.22705358
-0.08907 0.13609099 -0.227045
-0.088800997 0.136005 -0.22703999
-0.088796496 0.13611101 -0.227045
-0.088536501 0.13610199 -0.227034
-0.088299505 0.136117 -0.22701383
-0.088085331 0.13610999 -0.227018
-0.087911002 0.13610084 -0.2270125
-0.087742001 0.136077 -0.22701299
-0.087590002 0.136012 -0.22700299
-0.071723506 0.13610201 -0.227047
-0.094292335 0.13630033 -0.22719467
-0.093618497 0.136301 -0.22719601
-0.093295999 0.13630161 -0.2271876
-0.093117662 0.136307 -0.22719999
-0.092941009 0.13629733 -0.22716999
-0.092658669 0.13628666 -0.227158
-0.092441998 0.13627432 -0.22717799
-0.092282832 0.13629884 -0.22714268
-0.092109166 0.13632517 -0.22714984
-0.091891669 0.13631533 -0.22716467
-0.091614999 0.13629866 -0.22713834
-0.091430999 0.136291 -0.22716565
-0.09129525 0.13628118 -0.22712582
-0.091033995 0.13630199 -0.227109
-0.090853333 0.136327 -0.22710967
-0.090455331 0.13630833 -0.22707933
-0.090301439 0.13630199 -0.22704667
-0.090167664 0.13629366 -0.22707467
-0.089898996 0.13627683 -0.22706933
-0.089473799 0.1363142 -0.22706321
-0.089302175 0.13631575 -0.22704549
-0.089061342 0.13630167 -0.22705533
-0.088789336 0.13628699 -0.22705434
-0.088529326 0.13627766 -0.22703767
-0.088274196 0.1363138 -0.2270138
-0.088100001 0.13630551 -0.22701374
-0.087902509 0.13631183 -0.2270195
-0.087756336 0.13630734 -0.22702001
-0.071716666 0.13627933 -0.22704701
-0.0943105 0.13651401 -0.22719699
-0.093485169 0.13649549 -0.22719266
-0.093274802 0.136512 -0.22718981
-0.093109332 0.13651967 -0.22719534
-0.092931993 0.136508 -0.22719501
-0.092649668 0.13649867 -0.22717202
-0.092434324 0.13648634 -0.22717233
-0.092276782 0.13647601 -0.22712535
-0.092102744 0.13650151 -0.227148
-0.091884337 0.136527 -0.227153
-0.091606997 0.13651033 -0.22714435
-0.091423005 0.13650234 -0.22715665
-0.091317326 0.13649355 -0.22711778
-0.091112167 0.13648434 -0.22711916
-0.090846501 0.13650399 -0.227107
-0.090447001 0.13651967 -0.227084
-0.09029299 0.1365131 -0.22705176
-0.090160333 0.13650566 -0.22705133
-0.089909807 0.13647559 -0.227054
-0.0898 0.136556 -0.227065
-0.089488998 0.13648459 -0.22706261
-0.089287274 0.13652135 -0.22703701
-0.089053668 0.13651435 -0.227044
-0.088781662 0.13649966 -0.22704667
-0.088521995 0.13648967 -0.227017
-0.088376001 0.13640501 -0.22701301
-0.088169664 0.13648801 -0.22701566
-0.087886401 0.13651019 -0.2270098
-0.087749004 0.13652 -0.22700649
-0.071993999 0.13644201 -0.22700299
-0.071707331 0.13649134 -0.22706068
-0.094272718 0.13672444 -0.22719072
-0.093601003 0.13676 -0.227199
-0.093476385 0.13667488 -0.22718912
-0.093311377 0.1366795 -0.22719263
-0.0931025 0.136696 -0.2271935
-0.092924334 0.13672067 -0.22717901
-0.092641674 0.13671 -0.22716565
-0.092426337 0.13669933 -0.227157
-0.092268556 0.13668779 -0.22712867
-0.0920965 0.136678 -0.22713584
-0.091877997 0.136704 -0.227135
-0.091600999 0.13665199 -0.22713999
-0.0914886 0.136732 -0.22713521
-0.091309004 0.13670544 -0.22711799
-0.091104172 0.13669632 -0.22711749
-0.090840004 0.13668066 -0.22709735
-0.090440005 0.136696 -0.227082
-0.09028478 0.13672489 -0.227053
-0.090153001 0.136719 -0.22704101
-0.089971997 0.13670401 -0.22705168
-0.089795329 0.13669734 -0.22705834
-0.089470834 0.1366815 -0.22705667
-0.089309379 0.13668776 -0.22703287
-0.089084245 0.136729 -0.227036
-0.088774003 0.136711 -0.22703899
-0.088513665 0.13670133 -0.22701533
-0.088366501 0.13665301 -0.22700401
-0.088192001 0.13664199 -0.22700599
-0.087742001 0.1366965 -0.227005
-0.071700335 0.13670467 -0.22703934
-0.0942045 0.136897 -0.227198
-0.09350273 0.13690308 -0.22718495
-0.093296006 0.13688235 -0.2271879
-0.093096666 0.13687266 -0.22717333
-0.092918001 0.1368975 -0.22716349
-0.092634 0.13692234 -0.22715335
-0.092418998 0.13691133 -0.22713934
-0.092267878 0.13689011 -0.22713077
-0.092104279 0.13690142 -0.22712614
-0.091871671 0.13688099 -0.22712566
-0.091481999 0.1369164 -0.2271274
-0.091301449 0.13691755 -0.22710268
-0.091096334 0.1369085 -0.22710751
-0.090831995 0.13689299 -0.2271
-0.090433329 0.13687301 -0.22708233
-0.090278499 0.1369015 -0.22704132
-0.090145499 0.136895 -0.227046
-0.089962997 0.136916 -0.22706001
-0.089787334 0.13690966 -0.22704767
-0.089462996 0.13689417 -0.22704799
-0.089309886 0.13688201 -0.22702511
-0.089132801 0.13688941 -0.227016
-0.088765331 0.136923 -0.22704566
-0.088505663 0.136914 -0.22700532
-0.088355497 0.136934 -0.227016
-0.087736502 0.136838 -0.22700199
-0.071691334 0.13691734 -0.22705632
-0.094283 0.13709199 -0.22719499
-0.093679003 0.13711832 -0.22717966
-0.093504593 0.1371021 -0.22717889
-0.093308918 0.13710245 -0.22716509
-0.093089007 0.13708466 -0.227165
-0.092912339 0.13707434 -0.22714166
-0.092627496 0.137099 -0.227144
-0.092410661 0.13712199 -0.227145
-0.09228266 0.13711201 -0.227112
-0.092117324 0.13710411 -0.22713333
-0.091862999 0.13709299 -0.22713268
-0.091539502 0.137073 -0.22712924
-0.091307878 0.13711213 -0.22709438
-0.091088332 0.13711952 -0.2271045
-0.09082333 0.13710333 -0.22710033
-0.090425335 0.13708533 -0.22707467
-0.090271667 0.13707788 -0.22703767
-0.090138339 0.137071 -0.227051
-0.089956008 0.13712732 -0.22703733
-0.089778997 0.13712101 -0.22705202
-0.089466199 0.13709161 -0.2270474
-0.089311898 0.13710189 -0.22701521
-0.089109838 0.13708517 -0.22701685
-0.088759005 0.1370995 -0.22702751
-0.088350996 0.137041 -0.227011
-0.087727003 0.13708501 -0.22700566
-0.0716855 0.13709399 -0.22703999
-0.094280839 0.13728949 -0.22719066
-0.094110005 0.13731951 -0.22719474
-0.093915999 0.13731901 -0.22719167
-0.093724251 0.1372965 -0.22718775
-0.093507677 0.13732089 -0.2271798
-0.093308665 0.1373086 -0.2271601
-0.093080997 0.13729601 -0.227166
-0.092903994 0.13728635 -0.22714268
-0.092620999 0.13727567 -0.227136
-0.0924045 0.137299 -0.22713199
-0.092274003 0.13732301 -0.22711949
-0.092108995 0.13731556 -0.22713846
-0.091854997 0.13730367 -0.22713566
-0.091577671 0.13728668 -0.22712301
-0.091317363 0.13728 -0.22709411
-0.091167003 0.1373025 -0.22709399
-0.090905666 0.137321 -0.2270845
-0.090418003 0.13729601 -0.22705932
-0.090264283 0.1372803 -0.22702585
