-0.13818 -0.0281653 0.990007 0.00155996
-0.128289 -0.0294261 0.9913 0.00419334
-0.116843 -0.0236122 0.99287 0.00384898
-0.109135 -0.0226046 0.99377 0.0052564
-0.106509 -0.0219908 0.994069 0.00604327
-0.100014 -0.0170611 0.99484 0.00857419
-0.0933347 -0.0169498 0.99549 0.00472848
-0.0888806 -0.0179967 0.99588 0.00614361
-0.0859589 -0.0136326 0.996205 0.00933247
-0.0800256 -0.0128239 0.99671 0.0106736
-0.0721792 -0.0164432 0.997256 0.0107883
-0.0679925 -0.0150951 0.997572 0.0124023
-0.0608658 -0.0112234 0.998083 0.0126417
-0.0557579 -0.0144354 0.99834 0.00814603
-0.0533053 -0.0189541 0.998398 0.00425893
-0.0520739 -0.0205263 0.998432 0.00022397
-0.0517111 -0.0202088 0.998458 0.00397377
-0.0451096 -0.0192851 0.998796 0
-0.0466093 -0.0192946 0.998727 0
0.225745 -0.00850985 0.974149 0.0043647
0.237813 -0.00977105 0.971262 0.000847557
-0.136147 -0.0294046 0.990252 0
-0.126927 -0.0328078 0.991369 0.00111443
-0.114934 -0.02674 0.993013 0.001984
-0.108972 -0.025965 0.993706 0.00341647
-0.104433 -0.02089 0.994313 0.0052112
-0.0983367 -0.0180848 0.994989 0.00754673
-0.0951252 -0.0170843 0.995319 0.00755866
-0.0865689 -0.0205176 0.996035 0.0034983
-0.0837655 -0.0123784 0.996409 0.00670803
-0.0784738 -0.0130355 0.996831 0.0102961
-0.0705357 -0.0222122 0.997262 0.00670051
-0.0654257 -0.0192197 0.997672 0.00886873
-0.0612545 -0.0174484 0.99797 0.00851965
-0.0599547 -0.0202028 0.997997 0.00706858
-0.0545995 -0.0236308 0.998229 0.00200534
-0.0532428 -0.0180489 0.998418 0.00217688
-0.0499767 -0.0239802 0.998462 0.0020175
-0.0428459 -0.019528 0.998891 0
-0.0427175 -0.0226265 0.998831 0
0.229875 -0.0110437 0.973158 0
0.237761 -0.0118712 0.971251 0
-0.156004 -0.0212265 0.987528 0.00474379
-0.132357 -0.0270346 0.990833 0
-0.12681 -0.0274646 0.991547 0
-0.114934 -0.0278397 0.992983 0
-0.10713 -0.0278393 0.993855 0.00256579
-0.0995089 -0.021154 0.994812 0.00148812
-0.0949078 -0.0183261 0.995317 0.000681645
-0.092262 -0.0169606 0.99559 0.00574643
-0.0868561 -0.018586 0.996047 0.00708089
-0.0795063 -0.0127048 0.996753 0.0066744
-0.0756793 -0.0151235 0.997018 0.00821059
-0.0695503 -0.0173119 0.997428 0.00631849
-0.0639037 -0.021158 0.997732 0.00502128
-0.061424 -0.0173202 0.997961 0.00571845
-0.0592603 -0.0238202 0.997958 0.00591687
-0.0570228 -0.0237905 0.998089 0.00405455
-0.0535245 -0.0207301 0.998351 0.0023606
-0.0525734 -0.018148 0.998452 0.000975642
-0.046106 -0.0260793 0.998596 0
-0.0429359 -0.0279802 0.998686 0
0.226331 -0.0114492 0.973983 0
0.232389 -0.00889583 0.972582 0
0.242795 -0.0122281 0.97 0
-0.136318 -0.0222185 0.990416 0
-0.128382 -0.0259704 0.991385 0
-0.113459 -0.0248989 0.993231 0
-0.10723 -0.0226222 0.993977 0.000876124
-0.101952 -0.0198969 0.99459 0.000319109
-0.0948545 -0.0207057 0.995276 0.00028248
-0.090594 -0.0225158 0.995633 0.000262194
-0.0834833 -0.020554 0.996297 0.00228425
-0.0794166 -0.0181045 0.996677 0.0035173
-0.0744879 -0.0192452 0.997036 0.00356223
-0.0675412 -0.0185929 0.997543 0.00492391
-0.0631354 -0.0169475 0.997861 0.0074861
-0.0619541 -0.0187407 0.997903 0.00637371
-0.0567876 -0.0213041 0.998159 0.00374987
-0.0571968 -0.0200428 0.998162 0.00196273
-0.0533327 -0.0216279 0.998343 0
-0.0530542 -0.0239381 0.998305 0
-0.044454 -0.027318 0.998638 0
0.226259 -0.00898765 0.974026 0.00267465
0.236581 -0.0117821 0.97154 0
-0.150852 -0.0290851 0.988128 0
-0.139528 -0.0233681 0.989942 0
-0.129731 -0.0206099 0.991335 0
-0.114696 -0.0220519 0.993156 0
-0.108274 -0.0169429 0.993977 0
-0.101853 -0.0182632 0.994632 0
-0.0939292 -0.0215384 0.995346 0
-0.0936257 -0.0223513 0.995357 0.00159311
-0.0838128 -0.0176849 0.996325 0.0053014
-0.0768233 -0.0212549 0.996818 0.00231175
-0.0741331 -0.0221809 0.997002 0.00521555
-0.0700084 -0.0177673 0.997388 0.00535764
-0.0645628 -0.0194369 0.997724 0.00680845
-0.0590848 -0.0204643 0.998043 0.0042615
-0.0534751 -0.0190997 0.998387 0.00209088
-0.0538412 -0.0243969 0.998251 0
-0.0516826 -0.0255336 0.998337 0.000387905
-0.0521714 -0.0267048 0.998281 0
-0.0513144 -0.0240755 0.998392 0
-0.0442733 -0.0249999 0.998707 0
0.225065 -0.00821446 0.974309 0.00809427
0.227994 -0.00891329 0.973622 0.00248674
-0.158901 -0.0301953 0.986833 0
-0.140015 -0.0279527 0.989755 0
-0.130372 -0.0200255 0.991263 0
-0.11629 -0.0245278 0.992912 0
-0.108633 -0.0216229 0.993847 0.000700763
-0.106209 -0.0181616 0.994178 0.00586211
-0.096918 -0.0202287 0.995087 0.00375102
-0.0919885 -0.0186561 0.995585 0.00455861
-0.0858531 -0.0172012 0.996159 0.00688305
-0.0794642 -0.0207953 0.996621 0.00621865
-0.0743879 -0.0206188 0.997016 0.00569934
-0.0698107 -0.0209171 0.997341 0.00569129
-0.0640472 -0.0232457 0.997676 0.00352596
-0.059688 -0.0229798 0.997953 0.00420374
-0.0537924 -0.0206958 0.998338 0.00289568
-0.0507857 -0.0276667 0.998326 0
-0.0500317 -0.0303699 0.998286 0
-0.045248 -0.0290708 0.998553 0
-0.0493991 -0.027258 0.998407 0
-0.0418333 -0.0298121 0.99868 0
0.222828 -0.00609912 0.974839 0.00282619
0.229913 -0.0108839 0.97315 0
-0.158158 -0.0302662 0.98695 0
-0.150383 -0.0307493 0.98815 0
-0.142308 -0.0259833 0.989481 0
-0.13172 -0.02367 0.991004 0
-0.119801 -0.0272081 0.992425 0.00209474
-0.109989 -0.0185749 0.993759 0.00432073
-0.109345 -0.018162 0.993838 0.00825759
-0.104099 -0.0153027 0.994449 0.00967411
-0.0947336 -0.016273 0.99537 0.0071157
-0.0848591 -0.0182127 0.996226 0.00948445
-0.0785786 -0.0260515 0.996567 0.00761199
-0.0733644 -0.026195 0.996961 0.00461001
-0.071304 -0.0193158 0.997268 0.00678807
-0.0633606 -0.0240573 0.997701 0.00430955
-0.0591319 -0.0220686 0.998006 0.00284691
-0.0554557 -0.0221299 0.998216 0
-0.050381 -0.0263342 0.998383 0
-0.0495981 -0.0283936 0.998366 0
-0.048298 -0.0257535 0.998501 0
-0.0481341 -0.0286012 0.998431 0
-0.0454499 -0.0303894 0.998504 0
0.225951 -0.00259838 0.974135 0
0.227653 -0.00262583 0.973739 0.00281695
0.236446 -0.00342315 0.971639 0.00152626
-0.157901 -0.0259883 0.987113 0
-0.14451 -0.0262094 0.989156 0
-0.131514 -0.0211043 0.99109 0
-0.119508 -0.0241315 0.99254 0.00285215
-0.114 -0.0205877 0.993267 0.00984642
-0.107083 -0.0165875 0.994112 0.0121196
-0.0985395 -0.0173253 0.994982 0.0102179
-0.0879582 -0.0195828 0.995932 0.00830746
-0.0828126 -0.0222805 0.996316 0.00908205
-0.0804649 -0.0249797 0.996444 0.011475
-0.0768206 -0.0198533 0.996847 0.0108024
-0.0687226 -0.0242155 0.997342 0.00786557
-0.060595 -0.0238705 0.997877 0.00118081
-0.0568626 -0.0233082 0.99811 0.000192558
-0.0496056 -0.0303755 0.998307 0
-0.0469245 -0.0330561 0.998351 0
-0.0465735 -0.0309963 0.998434 0
-0.0465215 -0.026588 0.998563 0
0.223278 -0.00150938 0.974754 0.00303372
0.227971 -0.00352916 0.973661 0
0.238816 -0.00219104 0.971062 0.00457075
-0.159923 -0.0319182 0.986613 0
-0.154591 -0.0265246 0.987622 0
-0.147101 -0.0204082 0.988911 0.00195841
-0.134602 -0.0183425 0.99073 0.00673139
-0.121946 -0.0212212 0.99231 0.00786487
-0.114783 -0.0215453 0.993157 0.0134888
-0.108064 -0.0229271 0.993879 0.0123596
-0.100763 -0.0135497 0.994818 0.0122392
-0.0931035 -0.0222731 0.995407 0.0125152
-0.0856687 -0.0243871 0.996025 0.0101076
-0.0809711 -0.0264804 0.996365 0.0112228
-0.0754983 -0.0270601 0.996779 0.00925304
-0.0717755 -0.0240527 0.997131 0.00891169
-0.0629356 -0.0309611 0.997537 0.00317202
-0.0565662 -0.0295373 0.997962 0.00259301
-0.0522076 -0.0251499 0.99832 0.00234697
-0.0481731 -0.0315776 0.99834 0
-0.0463302 -0.0302971 0.998467 0
-0.04685 -0.0300384 0.99845 0
0.22272 0.000136634 0.974882 0.00838107
0.229326 0.00193072 0.973348 0.00959596
-0.160667 -0.0308765 0.986526 0
-0.155797 -0.0277786 0.987398 0
-0.147698 -0.0202666 0.988825 0.000958247
-0.135032 -0.016669 0.990701 0.00691105
-0.121407 -0.0220698 0.992357 0.00829211
-0.117257 -0.0222963 0.992851 0.0149142
-0.109614 -0.0173221 0.993823 0.0165201
-0.10651 -0.0151394 0.994196 0.0217542
-0.0973778 -0.0212737 0.99502 0.015859
-0.0888041 -0.0248229 0.99574 0.012954
-0.0872278 -0.0226969 0.99593 0.0115614
-0.0804259 -0.0244523 0.996461 0.00979296
-0.0729021 -0.0275925 0.996957 0.0051694
-0.0630491 -0.0289704 0.99759 0.00116127
-0.0556817 -0.0294684 0.998014 0
-0.0514447 -0.0286469 0.998265 0
-0.0477507 -0.0314981 0.998363 0
-0.0486099 -0.0316944 0.998315 0
0.227803 -0.00803437 0.973674 0.0076079
-0.154472 -0.0243578 0.987697 0
-0.146963 -0.0203686 0.988932 0.00300957
-0.137395 -0.0159242 0.990388 0.00879146
-0.126062 -0.0187803 0.991845 0.0137619
-0.118412 -0.0199243 0.992765 0.0159208
-0.113087 -0.0193072 0.993398 0.018873
-0.107864 -0.0142113 0.994064 0.0270893
-0.0976824 -0.022657 0.99496 0.0205923
-0.0915033 -0.0230317 0.995538 0.017755
-0.0871794 -0.0228281 0.995931 0.0120795
-0.0783724 -0.0282053 0.996525 0.00333684
-0.0734939 -0.0272353 0.996924 0.00141489
-0.0660182 -0.0292676 0.997389 0.00172762
-0.0599244 -0.0347339 0.997598 0
-0.054439 -0.0327353 0.99798 0
-0.0507808 -0.0316841 0.998207 0
-0.0482398 -0.027944 0.998445 0
0.225161 -0.00276564 0.974318 0.0101709
0.234219 -0.0051776 0.97217 0.00519474
-0.159185 -0.0280715 0.98685 0.00044119
-0.150284 -0.0235593 0.988362 0.00604861
-0.138324 -0.0200447 0.990184 0.0104447
-0.126474 -0.016338 0.991835 0.0131651
-0.118047 -0.0200144 0.992806 0.0169498
-0.113724 -0.0182083 0.993346 0.020467
-0.107612 -0.0184027 0.994023 0.0239281
-0.0982198 -0.020747 0.994948 0.0195278
-0.0909437 -0.0214157 0.995626 0.0142583
-0.0842107 -0.0270529 0.996081 0.00966952
-0.0761331 -0.0291056 0.996673 0.0033436
-0.0738816 -0.0260944 0.996926 0.00645526
-0.0681351 -0.0291689 0.99725 0.00278699
-0.0627335 -0.0279413 0.997639 0.00146671
-0.0531561 -0.0338337 0.998013 0
-0.051537 -0.0309871 0.99819 0
0.222708 -0.00399053 0.974877 0.0129573
0.236005 -0.0066197 0.971729 0.00693135
-0.163321 -0.023716 0.986288 0
-0.159457 -0.0254812 0.986876 0.00330256
-0.149752 -0.0203876 0.988513 0.00703816
-0.137269 -0.0180676 0.990369 0.00988907
-0.126746 -0.021859 0.991694 0.0158031
-0.119884 -0.0176467 0.992631 0.0205823
-0.115627 -0.0172036 0.993144 0.0209485
-0.106374 -0.0177838 0.994167 0.019212
-0.096335 -0.0269481 0.994984 0.0137441
-0.0909277 -0.0252411 0.995538 0.0141337
-0.0870712 -0.0253699 0.995879 0.014145
-0.0797295 -0.0230378 0.99655 0.0075014
-0.071546 -0.0242077 0.997144 0.0064615
-0.0635404 -0.029093 0.997555 0.00301408
-0.0543765 -0.0323171 0.997997 0.000204184
0.220685 -0.0126778 0.975263 0.00342956
0.231907 -0.0102835 0.972684 0.00942327
-0.165896 -0.0291336 0.985713 0
-0.163047 -0.0275223 0.986234 0
-0.160068 -0.0235329 0.986825 0.00557193
-0.147572 -0.018241 0.988883 0.00654988
-0.137694 -0.0189158 0.990294 0.0122764
-0.130163 -0.0170499 0.991346 0.0178665
-0.131362 -0.019259 0.991147 0.0180443
-0.11727 -0.017214 0.992951 0.0164556
-0.113339 -0.0141648 0.993455 0.0160404
-0.106768 -0.020668 0.994069 0.0173253
-0.0975366 -0.0255372 0.994904 0.0157823
-0.0888423 -0.0328986 0.995502 0.0131029
-0.0854132 -0.027094 0.995977 0.0101945
-0.0734088 -0.0303831 0.996839 0.00424059
-0.0697187 -0.0247754 0.997259 0.00342963
-0.0613534 -0.0287592 0.997702 0.00219064
0.221965 -0.0163045 0.974918 0.00284244
-0.16947 -0.0201899 0.985328 0
-0.161266 -0.0195761 0.986717 0
-0.158906 -0.0207374 0.987076 0.00546521
-0.143898 -0.0233177 0.989318 0.00498074
-0.135906 -0.0211086 0.990497 0.0085594
-0.130483 -0.0233273 0.991176 0.00756257
-0.127534 -0.02061 0.99162 0.0163581
-0.117178 -0.0131898 0.993023 0.0137
-0.111908 -0.0144319 0.993614 0.0150777
-0.103611 -0.020907 0.994398 0.0129477
-0.0956341 -0.0203755 0.995208 0.012678
-0.0878816 -0.0261276 0.995788 0.00962761
-0.0831115 -0.0262036 0.996196 0.00691482
-0.0730812 -0.0335472 0.996762 0
-0.0668572 -0.0255268 0.997436 0.00179103
0.220936 -0.0181732 0.975119 0.000143408
0.225639 -0.0170814 0.974061 0.00374042
-0.168125 -0.0225274 0.985508 0
-0.160611 -0.0241627 0.986722 0
-0.15589 -0.0231638 0.987503 0
-0.146965 -0.0244356 0.98884 0.00468751
-0.135897 -0.0253544 0.990399 0.0082002
-0.128861 -0.0249489 0.991349 0.00505292
-0.124527 -0.019687 0.992021 0.00926653
-0.115379 -0.0147188 0.993212 0.00745593
-0.108497 -0.0162593 0.993964 0.00833794
-0.1008 -0.0261174 0.994564 0.00777876
-0.0963868 -0.0261294 0.995001 0.00773419
-0.0882801 -0.0248695 0.995785 0.00849808
-0.085282 -0.027891 0.995966 0.00360924
-0.0771149 -0.0269169 0.996659 0.00309125
-0.0664596 -0.0290154 0.997367 0.000200894
0.229047 -0.0213169 0.973182 0.000476009
0.232479 -0.0180934 0.972433 0
-0.165014 -0.0239412 0.986001 0
-0.161072 -0.0242102 0.986646 0
-0.153734 -0.0258848 0.987773 0.000682273
-0.149329 -0.0280356 0.98839 0.00458331
-0.139778 -0.0242786 0.989885 0.00510383
-0.13151 -0.0229584 0.991049 0.00636822
-0.122882 -0.0205978 0.992207 0.00511236
-0.116226 -0.0179948 0.99306 0.00675409
-0.109002 -0.0229699 0.993776 0.00422405
-0.101659 -0.0279529 0.994427 0.00532803
-0.0942821 -0.0252231 0.995226 0.00443571
-0.0855511 -0.0265741 0.995979 0.00159951
-0.0827655 -0.0284253 0.996164 0
-0.0757092 -0.0271111 0.996761 0.000700582
0.233215 -0.018816 0.972243 0.00305679
0.241279 -0.0200742 0.970248 0
-0.163034 -0.0223021 0.986368 0
-0.158552 -0.0240884 0.987057 0
-0.152194 -0.0297525 0.987903 0.00027816
-0.146343 -0.0276672 0.988847 0.00313838
-0.136909 -0.02494 0.99027 0.00390429
-0.130357 -0.0285089 0.991057 0.00310317
-0.123738 -0.0262427 0.991968 0.0031824
-0.115585 -0.0212628 0.99307 0.00372842
-0.107825 -0.0261994 0.993825 0.00383379
-0.100952 -0.0283056 0.994489 0.000861721
-0.0959225 -0.0232033 0.995118 0
-0.086125 -0.0289231 0.995864 0.00117365
-0.0732449 -0.0325647 0.996782 0
0.235489 -0.0237375 0.971587 0
0.245179 -0.0223894 0.969219 0
-0.169005 -0.0204587 0.985403 0
-0.163573 -0.0257751 0.986194 0.000489676
-0.152821 -0.0261156 0.987909 0
-0.1428 -0.0300073 0.989296 0
-0.136697 -0.0256298 0.990281 0.00171529
-0.130492 -0.027776 0.99106 0.000358782
-0.124729 -0.0292614 0.991759 0.000552725
-0.11412 -0.0289932 0.993044 0.00032905
-0.109212 -0.0358044 0.993373 0.000790756
-0.102663 -0.0280015 0.994322 0.00125624
-0.098102 -0.0261687 0.994832 0.00185043
-0.0846109 -0.0275809 0.996032 0
-0.0707235 -0.0347106 0.996892 0
0.232844 -0.0243382 0.972209 0
0.245408 -0.0232434 0.969141 0
-0.175473 -0.0242805 0.984185 0.00391148
-0.167429 -0.0275959 0.985498 0.00202658
-0.158928 -0.0247812 0.986979 0.00139011
-0.149952 -0.029464 0.988254 0
-0.138373 -0.0306754 0.989905 0
-0.13035 -0.036082 0.990811 0
-0.123548 -0.0332762 0.991781 0
-0.113159 -0.0344 0.992981 0.00160718
-0.109082 -0.0345911 0.993431 0.00290087
-0.102962 -0.0304238 0.99422 0
-0.0980429 -0.0287662 0.994766 0.000159628
-0.0814805 -0.0297287 0.996231 0
0.238163 -0.0227733 0.970958 0
0.245287 -0.0252923 0.96912 0
-0.17307 -0.0302942 0.984444 0.0034251
-0.169144 -0.0266046 0.985232 0.00257203
-0.158246 -0.0286624 0.986984 0
-0.1509 -0.0339369 0.987966 0
-0.140271 -0.0363011 0.989448 0
-0.134099 -0.0345657 0.990365 0
-0.12284 -0.0322497 0.991902 0
-0.109865 -0.0329128 0.993401 0
-0.105146 -0.03907 0.993689 0
-0.0989251 -0.0305067 0.994627 0
-0.0918297 -0.030135 0.995319 0
-0.0860512 -0.0302985 0.99583 0
0.238622 -0.0249897 0.970791 0.000192941
0.245555 -0.0247536 0.969067 0
-0.181059 -0.0232051 0.983198 0.00735016
-0.169688 -0.0281185 0.985097 0
-0.160102 -0.0299926 0.986645 0
-0.152305 -0.0357859 0.987685 0
-0.139972 -0.0316239 0.98965 0
-0.133448 -0.0281873 0.990655 0
-0.126002 -0.0299532 0.991578 0.000207445
-0.113642 -0.0309506 0.99304 0.00210909
-0.105085 -0.031728 0.993957 0
-0.0984614 -0.0362942 0.994479 0
-0.094869 -0.0387754 0.994734 0
0.242074 -0.0287685 0.969831 0
0.248419 -0.0303404 0.968177 0
-0.180062 -0.0235629 0.983373 0.00426239
-0.170949 -0.024834 0.984967 0
-0.16363 -0.02531 0.986197 0
-0.15349 -0.0321442 0.987627 0
-0.141869 -0.034163 0.989296 0
-0.136033 -0.0307085 0.990228 0
-0.12382 -0.0299149 0.991854 0.00117834
-0.115646 -0.0333078 0.992732 0.00252484
-0.109757 -0.0336216 0.99339 0.00405535
-0.0996557 -0.0353405 0.994394 0.00243486
-0.0940783 -0.0394369 0.994783 0.00285927
0.241349 -0.0270647 0.970061 0
0.250361 -0.0280067 0.967747 0
-0.18224 -0.0242343 0.982955 0.00291463
-0.173503 -0.0237704 0.984546 0.000114238
-0.164446 -0.0279228 0.985991 0
-0.155756 -0.0311588 0.987304 0
-0.143438 -0.0324682 0.989127 0
-0.136879 -0.0327324 0.990047 0.00039894
-0.127453 -0.0306646 0.99137 0.00602826
-0.116039 -0.0347742 0.992636 0.00456324
-0.11006 -0.0302142 0.993466 0.00542509
-0.104082 -0.0307679 0.994093 0.00320833
0.248378 -0.0289937 0.968229 0
0.253488 -0.0289648 0.966905 0
-0.181618 -0.0216693 0.98313 0.0032163
-0.178471 -0.0245623 0.983639 0.00192783
-0.166731 -0.0299764 0.985547 0
-0.153961 -0.031277 0.987582 0
-0.145814 -0.032667 0.988773 0.000949188
-0.136116 -0.0358188 0.990045 0
-0.123863 -0.0372428 0.9916 0
-0.11387 -0.0344054 0.9929 0.00238428
-0.11308 -0.0328298 0.993043 0.00570933
-0.109044 -0.0338458 0.993461 0.00453677
0.250547 -0.0303262 0.967629 0
0.26096 -0.0276949 0.964952 0
-0.184841 -0.0248548 0.982454 0.00352542
-0.174918 -0.0256376 0.984249 0.000266798
-0.165131 -0.0333284 0.985708 0
-0.156145 -0.026777 0.987371 0.00118156
-0.145657 -0.0338292 0.988757 0.00189685
-0.13886 -0.0327761 0.98977 0.00282017
-0.124972 -0.0337216 0.991587 0.000621205
-0.112303 -0.0329598 0.993127 0.00439188
-0.108238 -0.034436 0.993528 0.00235902
0.247614 -0.0330089 0.968296 0
0.257729 -0.0294511 0.965768 0
-0.184944 -0.0258041 0.98241 0.00174186
-0.179613 -0.0296304 0.983291 0.000348974
-0.167298 -0.0307438 0.985427 0.000626986
-0.156589 -0.0244439 0.987361 0.000159871
-0.146347 -0.029436 0.988795 0.00161127
-0.136129 -0.0340614 0.990105 0.00511001
-0.124058 -0.0331513 0.991721 0.00424047
0.24741 -0.0345537 0.968295 0
0.259931 -0.0319767 0.965098 0
-0.202575 -0.0368518 0.978573 0
-0.185532 -0.0290102 0.98221 0.000198884
-0.180257 -0.0307351 0.983139 0
-0.17104 -0.0288514 0.984842 0.000333703
-0.158387 -0.0280719 0.986978 0.00024622
-0.152126 -0.0310574 0.987873 0.00267735
-0.140286 -0.0278119 0.98972 0.003289
0.253312 -0.0421032 0.966468 0
0.265414 -0.0418043 0.963228 0
-0.205471 -0.0351565 0.978032 0
-0.192856 -0.0314371 0.980723 0.00336837
-0.182179 -0.0352189 0.982634 2.08655e-05
-0.1739 -0.0299132 0.984309 0.000166022
-0.166116 -0.0263934 0.985753 0.00243975
-0.150091 -0.0333539 0.988109 0.00236419
-0.142414 -0.0296419 0.989363 0.00385103
0.253963 -0.038658 0.966441 0
0.260059 -0.0410681 0.964719 0
-0.205775 -0.0310687 0.978106 0
-0.192377 -0.0353916 0.980683 0.0039995
-0.184608 -0.0336849 0.982235 0
-0.175513 -0.0312681 0.98398 0
-0.16689 -0.0323732 0.985444 0
-0.153462 -0.0326898 0.987614 0.00425881
-0.145132 -0.0307577 0.988934 0.00558972
0.246703 -0.0401297 0.96826 0.00187267
0.253763 -0.0358959 0.9666 0.0022795
-0.210386 -0.0348679 0.976996 0
-0.208028 -0.0339716 0.977533 0.00174359
-0.198283 -0.0379651 0.979409 0.00620807
-0.18792 -0.0367481 0.981497 0.00274228
-0.1787 -0.0338329 0.983322 0.00319225
-0.167809 -0.0359474 0.985164 0.00154624
-0.155884 -0.0325556 0.987239 0.0075103
0.240883 -0.0357415 0.969896 0.00147207
0.245515 -0.0316365 0.968876 0.00182745
-0.209972 -0.0406251 0.976863 0
-0.208058 -0.0403857 0.977282 0.000136642
-0.196395 -0.0395615 0.979726 0.00356439
-0.189121 -0.0343226 0.981354 0.00478823
-0.177683 -0.0367144 0.983403 0.00355577
-0.171959 -0.0372229 0.984401 0.00340758
-0.160438 -0.0377031 0.986326 0.00850062
0.226244 -0.0356812 0.973417 0.00100123
0.235328 -0.0335308 0.971337 0.00201051
-0.212458 -0.0351489 0.976538 0.00451736
-0.211275 -0.0377066 0.976699 0.00531386
-0.198222 -0.0329911 0.979602 0.00744631
-0.190531 -0.027823 0.981287 0.00617645
-0.182294 -0.0299578 0.982788 0.00617706
-0.174184 -0.0387842 0.983949 0.0040705
-0.16366 -0.0368904 0.985827 0.00686346
0.223926 -0.037184 0.973897 0.00164244
0.231976 -0.0380946 0.971975 0.00251975
0.237551 -0.0366736 0.970682 0.00161417
-0.217455 -0.0340732 0.975475 0.00970986
-0.212914 -0.0349425 0.976446 0.00918652
-0.19668 -0.0303529 0.979998 0.00373633
-0.187599 -0.0349536 0.981624 0.00166677
-0.179643 -0.0374253 0.98302 0.00175628
0.226848 -0.0339349 0.973339 0.0053774
0.233531 -0.0367116 0.971656 0.00145689
-0.219361 -0.0370762 0.974939 0.0049192
-0.212663 -0.034341 0.976522 0.0106091
-0.197173 -0.0315423 0.979861 0.00547743
-0.191673 -0.0360903 0.980795 0.006707
-0.181041 -0.0396265 0.982677 0.00499173
0.232266 -0.0379974 0.97191 0
0.234305 -0.0355119 0.971514 0
-0.216174 -0.0363231 0.975679 0.00824736
-0.210929 -0.0357223 0.976848 0.00742057
-0.193608 -0.0390132 0.980303 0.00649257
-0.190665 -0.0417092 0.980769 0.00569114
-0.179292 -0.0465732 0.982693 0.0022586
0.231936 -0.0368047 0.972035 0
0.235175 -0.0382839 0.971199 0
-0.215205 -0.0382572 0.975819 0.0076069
-0.212216 -0.0370624 0.97652 0.00929799
-0.192231 -0.0402254 0.980525 0.00440084
-0.186007 -0.0463845 0.981453 0.00446788
-0.177959 -0.0507571 0.982728 0.00113905
0.238984 -0.0418471 0.970121 0
0.241997 -0.0423355 0.969353 0
-0.223525 -0.041649 0.973808 0.00933265
-0.217756 -0.0399094 0.975187 0.00939746
-0.20745 -0.0440513 0.977253 0.00517526
-0.187209 -0.0542694 0.98082 0.000980859
-0.184033 -0.0474394 0.981775 0.00313178
-0.182619 -0.0424702 0.982266 0.00438688
0.239517 -0.0415445 0.970003 0
0.241427 -0.0426721 0.96948 0
-0.222756 -0.0472288 0.973729 0.00712603
-0.216109 -0.0453866 0.975314 0.00601391
-0.203342 -0.050328 0.977813 0.00531934
-0.186389 -0.0472741 0.981338 0.00229807
-0.183143 -0.0422098 0.98218 0.00569842
-0.176741 -0.0412419 0.983393 0.00355329
0.240529 -0.0429048 0.969693 0
0.247697 -0.0427878 0.967892 0
-0.223873 -0.0461601 0.973525 0.010163
-0.215147 -0.0435701 0.975609 0.00469172
-0.205023 -0.0506412 0.977446 0.00190415
-0.188137 -0.0506121 0.980838 0.000511248
-0.182499 -0.0491155 0.981979 0.00237623
-0.178845 -0.0496688 0.982623 0.00450394
0.240036 -0.0487375 0.96954 0
0.243876 -0.0506339 0.968484 0
-0.221271 -0.0463065 0.974112 0.00681316
-0.212714 -0.045622 0.976049 0.00335313
-0.204824 -0.0472316 0.977659 0.00281868
-0.18808 -0.0485248 0.980954 0.00181517
-0.18228 -0.0497195 0.981989 0
0.245242 -0.0510326 0.968118 0
0.249545 -0.0518628 0.966973 0
-0.222043 -0.0492138 0.973794 0.00563195
-0.212209 -0.0470756 0.97609 0.00362682
-0.203403 -0.0490152 0.977868 0
-0.183811 -0.0542983 0.981461 0
-0.18164 -0.055591 0.981793 0
0.245715 -0.0520972 0.967941 0
-0.221605 -0.0484723 0.973931 0.00367672
-0.212155 -0.0479431 0.976059 0.000970381
-0.203004 -0.0503037 0.977885 0
-0.18234 -0.0558821 0.981646 0
-0.176979 -0.0593683 0.982422 0
0.25044 -0.0507009 0.966803 0
-0.227477 -0.0469905 0.972649 0.00208811
-0.220162 -0.0440553 0.974468 0.00269623
-0.211824 -0.0509263 0.97598 0
-0.201121 -0.0505988 0.978259 0
0.250486 -0.0541132 0.966607 0
-0.232344 -0.0455473 0.971567 0.0043286
-0.2259 -0.0461493 0.973057 0.00076517
-0.220474 -0.0439614 0.974402 0
-0.209501 -0.051058 0.976474 0
-0.19737 -0.0495016 0.979079 0
0.252139 -0.0548969 0.966133 0
-0.221706 -0.0436718 0.974135 0
-0.213748 -0.0446541 0.975868 0
-0.209241 -0.0497861 0.976596 0
-0.195775 -0.0478428 0.979481 0
0.246754 -0.0467149 0.967952 0.00554708
-0.219504 -0.051547 0.974249 0
-0.209707 -0.0499037 0.97649 0
-0.203827 -0.0503998 0.977709 0
-0.196333 -0.0515874 0.979179 0
0.249976 -0.0475531 0.967084 0.00764701
-0.215146 -0.0512354 0.975237 0
-0.206514 -0.0541149 0.976946 0
-0.202227 -0.0530113 0.977903 0
-0.199269 -0.0525418 0.978535 0
0.256621 -0.047934 0.965323 0.0111128
-0.211339 -0.0545675 0.975888 0
-0.206166 -0.0533013 0.977064 0
-0.204387 -0.0527558 0.977467 0
-0.201081 -0.0542318 0.978072 0
-0.19892 -0.0535207 0.978553 0
0.241644 -0.0534822 0.96889 0.0143177
-0.221201 -0.0530836 0.973782 0
-0.219053 -0.0538324 0.974227 0
-0.21161 -0.0503866 0.976055 0
-0.206201 -0.0543333 0.977 0
-0.205218 -0.0481944 0.977529 0
-0.200058 -0.0507368 0.978469 0
0.242695 -0.0508137 0.968771 0.0177121
0.248443 -0.0530454 0.967193 0.0160949
-0.221211 -0.0542734 0.973715 0
-0.217356 -0.0555388 0.974511 0
-0.211698 -0.057426 0.975647 0
-0.209496 -0.0541647 0.976308 0
-0.202119 -0.0535511 0.977896 0
0.244061 -0.0511004 0.968413 0.0201454
0.247831 -0.0550287 0.967239 0.0190876
-0.218344 -0.0606443 0.973986 0
-0.217905 -0.0579933 0.974245 0
-0.210622 -0.0569919 0.975905 0
-0.207147 -0.0582199 0.976576 0
-0.203384 -0.0580292 0.977378 0
0.248749 -0.0529467 0.96712 0.0201146
-0.221013 -0.0593499 0.973463 0
-0.216231 -0.0589013 0.974564 0
-0.207589 -0.0601374 0.976366 0
-0.205419 -0.062327 0.976688 0
-0.201247 -0.0572767 0.977865 0
0.257141 -0.0582838 0.964615 0.0174175
-0.220796 -0.0593305 0.973514 0
-0.216622 -0.0585291 0.9745 0
-0.208309 -0.0652141 0.975886 0
-0.203309 -0.0635091 0.977053 0
-0.201684 -0.059552 0.977639 0
0.259366 -0.0588994 0.963981 0.00681565
0.279254 -0.058907 0.958409 0.0115869
-0.223101 -0.0597953 0.97296 0
-0.217629 -0.0616188 0.974085 0
-0.20999 -0.0621523 0.975726 0
-0.205744 -0.0628847 0.976583 0
-0.200716 -0.0605136 0.977779 0
0.263222 -0.0600335 0.962866 0.00659069
-0.221022 -0.0586769 0.973502 0
-0.216896 -0.0560101 0.974587 0
-0.213224 -0.0625624 0.974998 0
-0.207104 -0.060648 0.976437 0
0.266077 -0.0616512 0.961978 0.0063294
0.279348 -0.0610434 0.958247 0.00654038
-0.22209 -0.0592737 0.973223 0
-0.220153 -0.0584256 0.973714 0
-0.215205 -0.0622394 0.974584 0
-0.212402 -0.0609411 0.97528 0
0.265725 -0.0595054 0.962211 0.00600563
0.278925 -0.0645892 0.958138 0.00178612
-0.222247 -0.0596089 0.973166 0
-0.222294 -0.0589369 0.973197 0
-0.214897 -0.0617848 0.97468 0
0.267075 -0.0624037 0.961653 0.00360196
0.278133 -0.0654512 0.95831 0.00577304
-0.225372 -0.0621628 0.972288 0
-0.222238 -0.0594131 0.97318 0
-0.215936 -0.0613523 0.974478 0
0.27446 -0.0660469 0.959328 0.00631913
-0.219817 -0.0634191 0.973477 0
-0.217825 -0.0661749 0.973742 0
0.2789 -0.063746 0.958202 0.0100263
-0.218373 -0.0656039 0.973658 0
-0.217241 -0.0638906 0.974025 0.000678493
0.277516 -0.0626558 0.958676 0.0120085
-0.220833 -0.0639853 0.97321 0
-0.21496 -0.0629809 0.97459 0
0.285102 -0.0620673 0.956486 0.014831
-0.220837 -0.0603342 0.973443 0.000465896
-0.215628 -0.0588917 0.974698 0.00126212
0.287017 -0.0577832 0.956181 0.0126484
-0.2351 -0.0572448 0.970284 0
-0.223317 -0.0559177 0.973141 0.00245849
-0.213526 -0.0572409 0.975259 0.00206042
0.283261 -0.0565924 0.957372 0.0144689
-0.228992 -0.0546248 0.971895 0
-0.216318 -0.0565148 0.974686 0
-0.212073 -0.0582088 0.975519 0
0.282924 -0.0534072 0.957654 0.0124469
-0.230927 -0.054864 0.971423 0
-0.220484 -0.0520022 0.974003 0.00188338
0.284039 -0.0520704 0.957398 0.011727
-0.228873 -0.0472823 0.972308 0
-0.225241 -0.0472516 0.973157 0.00386309
0.282864 -0.0476045 0.957978 0.00898437
-0.23051 -0.0441396 0.972068 0
-0.225943 -0.0434566 0.973171 6.70893e-05
0.27717 -0.0431383 0.959852 0.00401811
-0.245813 -0.0397981 0.9685 0.000895398
-0.234426 -0.0395502 0.971329 0.00105749
-0.232877 -0.0385655 0.971741 0.00065979
0.276219 -0.0410282 0.960219 0.0033699
-0.261815 -0.031615 0.9646 0.00212246
-0.258079 -0.0325092 0.965577 0.00115587
-0.238201 -0.0363244 0.970536 0
-0.238285 -0.0346237 0.970578 0
0.28804 -0.0310093 0.957116 0.00615882
-0.258368 -0.0301375 0.965576 0.00060165
-0.239192 -0.0324743 0.970429 0
0.287166 -0.0291779 0.957437 0.0060188
-0.258031 -0.0245035 0.965826 0.00184425
-0.248227 -0.0239817 0.968405 0.00403363
-0.261552 -0.0214721 0.96495 0
-0.259196 -0.021034 0.965596 0
-0.247014 -0.0193734 0.968818 0.00110328
-0.264308 -0.0163459 0.9643 0
-0.258126 -0.0181208 0.965941 0
-0.243101 -0.0170273 0.969852 0
-0.275007 -0.00433771 0.961432 0.0019292
-0.262699 -0.0071907 0.964851 0
-0.243609 -0.0097905 0.969824 0
-0.267211 -0.000860295 0.963638 0
-0.255011 -0.00159584 0.966937 0
-0.249702 0.000328482 0.968323 0.00411724
-0.264132 0.00948224 0.96444 0.000737066
-0.259875 0.0116554 0.965572 0.00136564
-0.24617 0.0104922 0.96917 0.00419837
-0.272054 0.020589 0.962062 0.00556681
-0.262933 0.0241845 0.964511 0.00540695
-0.249307 0.0231812 0.968147 0.00794102
-0.281986 0.0293125 0.958971 0.00302225
-0.274571 0.0295679 0.961112 0.00580846
-0.268839 0.0321502 0.962649 0.00638832
-0.247509 0.0371336 0.968174 0.0101993
-0.282147 0.037999 0.958618 0
-0.277275 0.038797 0.960007 0.000101833
-0.272577 0.0404218 0.961284 0.00318302
-0.245635 0.0418615 0.968458 0.00675771
-0.281424 0.0530868 0.958114 0.000329209
-0.276665 0.055082 0.959387 0.00269744
-0.266551 0.0507916 0.962481 0.00250771
-0.244492 0.0534631 0.968176 0.00595631
-0.279772 0.0680259 0.957654 0.000814941
-0.265935 0.0649481 0.9618 0
-0.245262 0.0607032 0.967555 0.00275649
-0.272403 0.0698839 0.959642 0
-0.262127 0.0723502 0.962318 0.00053575
-0.242169 0.069036 0.967775 0.0019873
-0.277025 0.0841813 0.957168 0.00436067
-0.266403 0.0869013 0.959936 0.00532249
-0.259021 0.0850051 0.962124 0.00219456
-0.251064 0.0881541 0.963948 0.00643202
-0.270001 0.0917068 0.958483 0.00154431
-0.263839 0.0889384 0.960458 0.00446619
-0.258812 0.0899367 0.961732 0.00440964
-0.249263 0.0921794 0.964039 0.00254411
-0.270346 0.0971413 0.95785 0.00106513
-0.265649 0.0977971 0.959097 0.00370906
-0.260503 0.0984002 0.960446 0.00431537
-0.252999 0.102383 0.962034 0.00642119
-0.272146 0.105297 0.956477 0.00330729
-0.264646 0.104387 0.958679 0.00441755
-0.256877 0.104338 0.960795 0.00345238
-0.253125 0.106639 0.961538 0.00394585
-0.27146 0.111799 0.955934 0.00864978
-0.263675 0.114227 0.957824 0.00636077
-0.265218 0.113896 0.957438 0.00757273
-0.248606 0.111251 0.962194 0.00362058
-0.261493 0.125361 0.95703 0.00446765
-0.255367 0.122796 0.959015 0.00229637
-0.239038 0.118511 0.963751 0
-0.255325 0.129003 0.95821 0
-0.238566 0.12426 0.963144 0
-0.237271 0.132226 0.962402 0
0.299549 0.15825 0.940865 0.00227715
-0.237502 0.142817 0.960831 0
-0.231345 0.143927 0.962167 0
0.305783 0.173017 0.936249 0.00952249
-0.235828 0.146401 0.960704 0
-0.228657 0.155387 0.961026 0
-0.22456 0.160594 0.961136 4.41755e-05
0.290724 0.183712 0.939005 0.00801799
0.305423 0.179574 0.935131 0.0095992
-0.230448 0.164481 0.959083 0.001935
-0.229917 0.174055 0.957519 0.00492327
-0.216724 0.181072 0.959293 0.00148544
0.271271 0.186253 0.94431 0.00649042
0.280499 0.189566 0.940949 0.00797129
0.296537 0.18956 0.93602 0.0058026
-0.232245 0.179736 0.955907 0.00309388
-0.230395 0.187519 0.954858 0.0063589
-0.217736 0.191267 0.957083 0.00694121
-0.209597 0.192196 0.958713 0.00552708
-0.205667 0.196927 0.958603 0.00860665
-0.19408 0.191408 0.962131 0.00801791
0.249681 0.187868 0.949929 0.0014759
0.272347 0.198112 0.941583 0.00787786
0.282251 0.202528 0.937719 0.00898696
0.29702 0.197776 0.934165 0.00958055
-0.220306 0.189578 0.956831 0.000712043
-0.218304 0.198205 0.955541 0.00803203
-0.216543 0.209068 0.953625 0.0118775
-0.205063 0.208188 0.956351 0.0126011
-0.198604 0.209339 0.957462 0.0108783
0.250658 0.201977 0.946771 0.00428269
0.268139 0.205989 0.9411 0.00444274
0.277144 0.210652 0.937452 0.00890826
0.295571 0.209495 0.932068 0.00826231
-0.223697 0.200494 0.953814 0.00421523
-0.220163 0.21476 0.951528 0.00464354
-0.214411 0.218155 0.952069 0.0107928
-0.208572 0.221823 0.952519 0.012076
-0.195062 0.2152 0.95689 0.00720831
-0.17933 0.213226 0.960404 0.00861426
-0.181186 0.214609 0.959747 0.0112088
0.252598 0.216469 0.943046 0.0050455
0.275405 0.221679 0.93542 0.009022
-0.219168 0.225917 0.949172 0.00941135
-0.213703 0.226678 0.950236 0.00939712
-0.205772 0.224724 0.952448 0.00951154
-0.20095 0.233013 0.951485 0.0102571
-0.181836 0.232662 0.955408 0.0151173
0.2346 0.22608 0.945437 0.00677323
-0.178734 0.241867 0.953705 0.0135087
-0.172001 0.240406 0.955312 0.0143516
0.236129 0.244253 0.940523 0.00881018
-0.174709 0.245611 0.953494 0.0114299
-0.168339 0.248669 0.953848 0.0122599
-0.15448 0.245246 0.957074 0.00601596
-0.115324 0.230634 0.966182 0
-0.111393 0.22503 0.967963 0
0.231157 0.256917 0.938381 0.00971336
0.238497 0.260029 0.935684 0.0121731
-0.172877 0.250607 0.952528 0.0113246
-0.166625 0.254145 0.952705 0.0088961
-0.156826 0.255809 0.953922 0.00844788
-0.146689 0.248062 0.957574 0.00549115
-0.138994 0.240783 0.960575 0
-0.133624 0.237953 0.962041 0.000481209
-0.126667 0.241968 0.961981 0
-0.121415 0.243538 0.962262 0
-0.116738 0.236753 0.964531 0
-0.113079 0.234536 0.965508 0
-0.105716 0.240488 0.964878 0.00127075
-0.0999108 0.247289 0.963777 0.00767478
-0.0428482 0.243748 0.968892 0.00448861
-0.0414269 0.249746 0.967425 0.00595234
-0.040676 0.257547 0.965409 0.00852268
-0.020066 0.240689 0.970395 0.00122124
-0.0202973 0.243451 0.969701 0.00352917
-0.0193251 0.220119 0.975281 0
-0.0228676 0.221937 0.974793 0
0.229471 0.271203 0.934769 0.0146727
0.234288 0.270465 0.933787 0.0115161
0.240094 0.2693 0.932648 0.0100407
-0.151684 0.261978 0.953079 0.00448047
-0.145211 0.257292 0.955361 0.00259901
-0.13807 0.242285 0.96033 0
-0.131479 0.240831 0.96162 0
-0.127282 0.252312 0.959238 0
-0.120802 0.256993 0.958833 0
-0.119375 0.256908 0.959035 0
-0.113304 0.250101 0.961567 0.000756951
-0.106034 0.247017 0.963192 0.000766799
-0.0976976 0.247035 0.964069 0.00645703
-0.0884012 0.259457 0.9617 0.010179
-0.0789938 0.26105 0.962088 0.00735631
-0.0703977 0.253766 0.9647 0.00252755
-0.0639706 0.26769 0.961379 0.00872131
-0.0506825 0.251475 0.966536 0
-0.0470894 0.253944 0.966072 0.00168877
-0.0417224 0.245831 0.968414 0
-0.041544 0.266551 0.962925 0.0042329
-0.0389848 0.263442 0.963887 0.00634129
-0.0368574 0.257231 0.965647 0.004032
-0.0312591 0.242209 0.96972 0.00394371
-0.0245155 0.267623 0.963212 0.00407714
-0.0224828 0.261392 0.964971 0.0041615
-0.02077 0.249366 0.968187 0
-0.0185345 0.24305 0.969837 0
-0.017391 0.241375 0.970276 0
-0.0192828 0.256985 0.966223 0.00610804
-0.0212109 0.252743 0.967301 0.00713523
-0.0201145 0.245912 0.969083 0.0056005
-0.0191891 0.251643 0.96763 0.00339636
-0.0146675 0.244641 0.969503 0
-0.0151765 0.232953 0.97237 0
-0.0163345 0.24258 0.969994 0
-0.0181695 0.247184 0.968798 0
-0.0182652 0.233282 0.972238 0
-0.0199052 0.236066 0.971533 0
-0.0196303 0.226656 0.973777 0
-0.0204951 0.227039 0.97367 0
-0.0229865 0.237836 0.971033 0.00714375
-0.0228232 0.227905 0.973416 0.00020308
-0.0241455 0.230503 0.972772 0
-0.03208 0.234616 0.971559 0.00482946
-0.0334463 0.24415 0.96916 0.00791866
0.219126 0.286173 0.932785 0.0142038
0.229577 0.279004 0.932444 0.0106546
0.238938 0.281696 0.929277 0.00977025
-0.144095 0.264828 0.953469 0.00382624
-0.14126 0.250481 0.95776 0.00118875
-0.133976 0.250825 0.958717 0
-0.126819 0.263624 0.956253 0
-0.120105 0.264177 0.956967 0
-0.119275 0.263807 0.957172 0
-0.0980794 0.256764 0.961485 0.00481472
-0.0886559 0.258245 0.962003 0.00781784
-0.0785899 0.25708 0.963189 0.000986376
-0.0698595 0.264408 0.961877 0.00673594
-0.0616508 0.267604 0.961555 0.004409
-0.0532436 0.263769 0.963115 0
-0.0472608 0.272513 0.960991 0.00249059
-0.0441085 0.271976 0.961293 0.00143901
-0.0426562 0.279932 0.959072 0.00769108
-0.0396819 0.279337 0.959373 0.0075248
-0.0357423 0.273382 0.961241 0.00649318
-0.0312931 0.257548 0.965759 0.00540215
-0.0284011 0.253066 0.967032 0
-0.0263432 0.262846 0.964478 0
-0.0241711 0.274639 0.961243 0.000459442
-0.0226696 0.274565 0.961301 0.00375853
-0.0224231 0.272274 0.961958 0.0030139
-0.0187608 0.250236 0.968003 0
-0.0171575 0.255208 0.966734 0
-0.0188774 0.25806 0.965944 0.00258362
-0.0199058 0.2587 0.965752 0.00497861
-0.0186132 0.25955 0.96555 0.00352915
-0.01773 0.254866 0.966814 0
-0.0136682 0.246496 0.969047 0
-0.0153238 0.250666 0.967952 0
-0.0152043 0.254651 0.966913 0
-0.0172544 0.253343 0.967223 0
-0.0203899 0.248333 0.96846 0
-0.0216714 0.233603 0.972091 0
-0.0214108 0.232609 0.972335 0
-0.0214588 0.230758 0.972775 0.00318745
-0.0210415 0.2356 0.971622 0.00598544
-0.021978 0.236577 0.971364 0.00534546
-0.0211881 0.234522 0.97188 0.00678618
-0.0206732 0.234786 0.971827 0
-0.0234306 0.229881 0.972937 0
-0.0241554 0.239035 0.970711 0
-0.0248399 0.229026 0.973103 0
-0.0250888 0.225504 0.973919 0
-0.025597 0.226918 0.973577 0
-0.0277884 0.234624 0.971689 0.00288909
-0.029058 0.235047 0.97155 0.00195472
-0.0306043 0.232332 0.972155 0.00184271
-0.0331847 0.252579 0.967007 0.00924763
-0.0343977 0.260449 0.964875 0.0071888
-0.033786 0.256532 0.965945 0.00383281
-0.0367467 0.257976 0.965452 0.0041144
-0.0410361 0.260446 0.964616 0.00762497
-0.0455388 0.256609 0.965442 0.0042146
-0.0482244 0.258343 0.964849 0.00236464
-0.0482207 0.256479 0.965346 0
-0.0497793 0.241834 0.96904 0
0.177823 0.318574 0.931069 0.0184583
0.192007 0.312782 0.930216 0.0178404
0.202007 0.305246 0.930601 0.0183038
0.20994 0.308338 0.927821 0.0178458
0.217642 0.295034 0.930369 0.0145004
0.225948 0.289201 0.930221 0.0131511
-0.0799583 0.268574 0.959935 0.00470017
-0.0731997 0.269038 0.960344 0.00409905
-0.0545502 0.282715 0.957652 0.00252346
-0.0266018 0.283014 0.958747 0.00253781
-0.0234951 0.276386 0.960759 0
-0.0219512 0.282602 0.958986 0.000383245
-0.0136019 0.253272 0.967299 0
-0.0139822 0.256826 0.966356 0
-0.0218179 0.251859 0.967518 0.00228203
-0.0197605 0.233772 0.972091 0.00301358
-0.0204648 0.24004 0.970547 0.00515755
-0.0229236 0.249025 0.968226 0.0111092
-0.0218866 0.251022 0.967734 0.00783283
-0.0234506 0.242604 0.969842 0
-0.0248198 0.240698 0.970283 0
-0.0242321 0.236484 0.971333 0
-0.0264561 0.238866 0.970692 0.0012701
-0.0245715 0.229663 0.97296 0
-0.0255306 0.229714 0.972923 0
-0.0295685 0.239758 0.970382 0.000221363
-0.0307747 0.244452 0.969173 0.00319686
-0.0341469 0.267474 0.96296 0.00358516
-0.0351149 0.257793 0.965562 0.00191528
-0.0363686 0.270979 0.961898 0.00347524
-0.0380283 0.262359 0.964221 0.00223957
-0.0420914 0.275453 0.960393 0.00910442
-0.0415981 0.255713 0.965857 0.00403057
-0.0450832 0.260781 0.964345 0.00773261
-0.044236 0.261832 0.964099 0.00247279
-0.0469987 0.260285 0.964387 0
-0.0489664 0.263753 0.963347 0
-0.0509054 0.268931 0.961813 0.00159957
-0.0519234 0.248781 0.967167 0
-0.0527886 0.264587 0.962916 0.00102693
-0.0480896 0.277246 0.959595 0
-0.0492584 0.277125 0.95957 0.000128954
-0.0476394 0.269234 0.961896 0
-0.0511204 0.270649 0.96132 6.29852e-05
-0.0552287 0.274161 0.960097 0.00365967
-0.0551283 0.268926 0.961582 0.00122571
-0.0568196 0.284403 0.957019 0.00243529
0.163877 0.342486 0.92512 0.0117452
0.171101 0.342615 0.923764 0.0143403
0.18065 0.336475 0.924203 0.0196492
0.182965 0.343581 0.921127 0.0210537
0.19297 0.325741 0.925557 0.0171928
0.203337 0.325006 0.923594 0.018088
0.210441 0.314837 0.925523 0.0178624
-0.0424009 0.266114 0.963009 0.0067971
-0.0427487 0.263883 0.963607 0.00396172
-0.0522991 0.261384 0.963817 0.000350849
-0.0532494 0.286173 0.956697 0.00404643
-0.0469175 0.281431 0.958434 0
-0.0486164 0.271762 0.961136 0
-0.0486217 0.280393 0.958653 0
-0.0512739 0.280895 0.958368 0.00044115
-0.0529696 0.277159 0.959363 0.00348932
-0.0533447 0.280917 0.958248 0.000655001
-0.0548747 0.285148 0.956911 0.00177146
-0.0540901 0.278991 0.958769 0
-0.0527876 0.268863 0.961731 0.00209509
-0.0505576 0.266439 0.962525 0.000911338
-0.049777 0.266053 0.962672 0.000888209
-0.0127327 0.310096 0.95062 0.0113831
-0.0125124 0.324677 0.945742 0.0140317
-0.00672068 0.323037 0.946362 0.0138715
-0.00507779 0.324784 0.945775 0.0123899
0.0423331 0.330832 0.94274 0.0143068
0.0906364 0.322218 0.942317 0.00653377
0.0964763 0.316633 0.943629 0.00707381
0.142448 0.342009 0.928837 0.0113339
0.156515 0.356981 0.920906 0.0150398
0.16512 0.351726 0.921425 0.0126428
0.173297 0.353328 0.919308 0.0149923
-0.0101558 0.337507 0.941268 0.0143119
-0.00746634 0.339078 0.940729 0.0134731
-0.00472711 0.357978 0.933718 0.0157009
0.00125744 0.365184 0.930934 0.0143336
0.0160372 0.365728 0.930584 0.0109954
0.0283426 0.348317 0.936948 0.0107281
0.0382821 0.339882 0.939689 0.0106421
0.0442105 0.328564 0.943446 0.0118927
0.0720177 0.339717 0.937766 0.0151943
0.0909328 0.335358 0.937692 0.00771611
0.0983099 0.321888 0.94166 0.0072619
0.107485 0.329613 0.937978 0.00669189
0.0317996 -0.299075 0.9537 0.0326785
0.0519529 -0.304134 0.951212 0.0308396
0.0163576 -0.297207 0.954673 0.0255026
0.0216991 -0.300843 0.953427 0.0271275
0.036152 -0.29003 0.956335 0.0275298
0.0490572 -0.296287 0.953838 0.0256315
0.0599013 -0.283562 0.957081 0.0284913
-0.040826 -0.2749 0.960606 0.013273
-0.0362926 -0.279925 0.959336 0.0177309
-0.0281204 -0.281042 0.959283 0.0163559
-0.0201457 -0.272739 0.961877 0.0106675
0.00788585 -0.277326 0.960743 0.0170047
0.0110694 -0.282959 0.959068 0.0227633
0.0163676 -0.288983 0.957194 0.0252998
0.0219859 -0.286267 0.957898 0.0248133
0.0353494 -0.280905 0.959084 0.0247367
0.0511781 -0.283424 0.957628 0.0236598
0.0665597 -0.276104 0.95882 0.0170795
0.0768617 -0.275321 0.958275 0.0152605
0.0824691 -0.268471 0.959751 0.0138269
-0.0517957 -0.26487 0.962892 0.0131995
-0.0485421 -0.262384 0.963742 0.0139045
-0.0441852 -0.266517 0.962817 0.0157842
-0.0343968 -0.266533 0.963212 0.0186007
-0.0288542 -0.269277 0.962631 0.0156877
-0.0191596 -0.265665 0.963875 0.0119666
-0.0132115 -0.261691 0.965061 0.0103276
-0.00729728 -0.263278 0.964692 0.0125114
0.00160239 -0.270825 0.962627 0.0116605
0.00643529 -0.269518 0.962974 0.0151489
0.0108663 -0.273391 0.961842 0.0172933
0.0157856 -0.269558 0.962855 0.0240682
0.0212855 -0.268821 0.962955 0.0254472
0.0376478 -0.269761 0.962191 0.0239507
0.0539184 -0.268756 0.961698 0.0193601
0.0688986 -0.263442 0.962212 0.0167173
0.0774928 -0.265744 0.960924 0.0166327
0.0827725 -0.26726 0.960063 0.014946
0.0922304 -0.264265 0.96003 0.00916476
0.101377 -0.262056 0.959713 0.012958
0.107973 -0.262415 0.958895 0.00826934
0.11453 -0.264331 0.957608 0.00703024
0.123387 -0.27406 0.953765 0.0126651
0.133416 -0.276241 0.951783 0.00875218
-0.0647229 -0.218145 0.973768 0.00519761
-0.0636247 -0.226517 0.971927 0.00574946
-0.061841 -0.236881 0.969569 0.0136131
-0.0626335 -0.239407 0.968897 0.0143949
-0.0635916 -0.254486 0.964984 0.0197016
-0.0611096 -0.254687 0.965091 0.0193781
-0.0582743 -0.258081 0.964364 0.0175767
-0.0547675 -0.251686 0.966258 0.0150287
-0.0508788 -0.253052 0.966114 0.0125307
-0.0454585 -0.258462 0.964951 0.0184727
-0.0349389 -0.255114 0.96628 0.0175182
-0.0266057 -0.259489 0.965379 0.0104395
-0.0178405 -0.258206 0.965925 0.0085438
-0.0147675 -0.255418 0.966718 0.011886
-0.00500466 -0.253837 0.967234 0.0117885
0.00135141 -0.260018 0.965603 0.0117792
0.00744015 -0.260726 0.965384 0.0121862
0.0110514 -0.260005 0.965544 0.0144541
0.0148047 -0.26087 0.96526 0.019122
0.0552247 -0.262182 0.963437 0.0164249
0.0727652 -0.25955 0.962984 0.0144827
0.0797771 -0.257834 0.96289 0.0163826
0.0842573 -0.258405 0.962355 0.0120445
0.0910108 -0.256825 0.962163 0.00249415
0.101943 -0.257617 0.960854 0.00654544
0.105597 -0.257928 0.960376 0.00759665
0.112012 -0.256381 0.960064 0.00891553
0.124244 -0.267739 0.955447 0.00811565
0.137211 -0.271218 0.952688 0.0127929
0.143274 -0.266234 0.953201 0.020931
-0.0681853 -0.212803 0.974713 0.00911471
-0.0665931 -0.214333 0.974488 0.00413191
-0.0676022 -0.213313 0.974642 0.0126799
-0.0645255 -0.229924 0.971067 0.01744
-0.0650134 -0.233307 0.970227 0.0198873
-0.0615392 -0.242496 0.968199 0.018314
-0.0623286 -0.249839 0.966279 0.0200493
-0.0619007 -0.248298 0.966704 0.0232874
-0.0610484 -0.24892 0.966598 0.0200579
-0.0593777 -0.247765 0.966999 0.0192856
-0.055966 -0.243785 0.968213 0.0175531
-0.0504897 -0.248474 0.967322 0.012093
-0.0460035 -0.250258 0.967086 0.0188632
-0.0322655 -0.24789 0.968251 0.0149491
-0.026101 -0.245501 0.969045 0.0117255
-0.0177577 -0.24973 0.968153 0.0107776
-0.011831 -0.246583 0.96905 0.0116748
-0.00281323 -0.244324 0.96969 0.00688338
0.00161516 -0.248225 0.968701 0.00590287
0.00786954 -0.24672 0.969055 0.00591056
0.0758266 -0.250466 0.965151 0.0123878
0.0802224 -0.250026 0.96491 0.0156107
0.0838945 -0.250416 0.964496 0.00963873
0.0918045 -0.250102 0.963857 0.00397572
0.100976 -0.246964 0.963749 0.00445108
0.104765 -0.247134 0.963301 0.00799186
0.111958 -0.250525 0.961615 0.00302324
0.123369 -0.258759 0.958031 0.0106678
0.135835 -0.257582 0.956661 0.0183885
0.142307 -0.255818 0.956193 0.018364
0.147868 -0.251797 0.956417 0.014823
-0.0688346 -0.203068 0.976742 0.00291061
-0.0658402 -0.204705 0.976607 0
-0.0650797 -0.205158 0.976563 0
-0.0628204 -0.204473 0.976854 0
-0.0669492 -0.201623 0.977172 0.00400561
-0.0682255 -0.203793 0.976634 0.00934704
-0.0677207 -0.205014 0.976413 0.00748295
-0.0672915 -0.205563 0.976328 0.00868323
-0.0673206 -0.208183 0.97577 0.0131401
-0.0668287 -0.217495 0.973771 0.0212746
-0.0675908 -0.222005 0.9727 0.0208673
-0.0637529 -0.233563 0.97025 0.0219012
-0.0635709 -0.23256 0.970502 0.017341
-0.0626095 -0.233846 0.970256 0.0221999
-0.064312 -0.232873 0.970378 0.0238607
-0.0597823 -0.230045 0.971342 0.0193909
-0.0564072 -0.235821 0.970158 0.0158042
-0.012912 -0.241507 0.970313 0.0105673
-0.00305187 -0.240838 0.970561 0.00235589
0.0012057 -0.23688 0.971538 0.00290875
0.0852545 -0.244926 0.965786 0.00461948
0.0929717 -0.245024 0.965049 0.00557081
0.125622 -0.250294 0.959986 0.0137293
0.134241 -0.246782 0.959728 0.0171567
0.141759 -0.248129 0.958299 0.0213799
0.149595 -0.245335 0.957827 0.0162291
0.155121 -0.244722 0.957104 0.0108815
-0.0647887 -0.195671 0.978527 0.00322785
-0.0677896 -0.198178 0.977819 0.00283416
-0.0675048 -0.199409 0.977588 0.000139784
-0.0661483 -0.200847 0.977387 0
-0.0647702 -0.195662 0.97853 0.000488642
-0.0656671 -0.200013 0.97759 0
-0.0647872 -0.198552 0.977947 0
-0.0687314 -0.195854 0.978221 0.00185839
-0.0664424 -0.197683 0.978012 0.00294606
-0.0654426 -0.194434 0.97873 0.00360916
-0.0671056 -0.195444 0.978416 0.00613935
-0.0688582 -0.194452 0.978492 0.0109332
-0.0680815 -0.201136 0.977195 0.0166003
-0.0693847 -0.211637 0.974882 0.0221258
-0.0690758 -0.216317 0.973877 0.0218678
-0.0656709 -0.219982 0.973291 0.0191024
-0.0644743 -0.222323 0.972839 0.021783
-0.0625097 -0.222509 0.972925 0.0207036
-0.0641857 -0.221893 0.972956 0.0244999
0.135782 -0.240403 0.961129 0.023283
0.141252 -0.243711 0.959506 0.0197892
0.148582 -0.23872 0.959654 0.0124195
0.156894 -0.24023 0.957953 0.0134496
-0.0507115 -0.19446 0.979599 0.00385992
-0.0553587 -0.189233 0.980371 0.00465937
-0.0545241 -0.189232 0.980417 0.00247676
-0.0628979 -0.189953 0.979776 0.0078031
-0.065728 -0.183466 0.980826 0.0101217
-0.0627075 -0.187377 0.980285 0.00523577
-0.0654446 -0.187958 0.979994 0.00682099
-0.0659318 -0.189166 0.979729 0.00232529
-0.066121 -0.189713 0.979611 0.000671676
-0.0677603 -0.192519 0.978951 0.00283917
-0.0662368 -0.192182 0.979121 0.00145902
-0.0665842 -0.189773 0.979568 0
-0.0673158 -0.187389 0.979976 0.00288361
-0.0645597 -0.192287 0.979213 0
-0.0684338 -0.187972 0.979787 0.0058475
-0.0662095 -0.190474 0.979457 0.00142047
-0.0634745 -0.18916 0.979893 0.0012958
-0.0693681 -0.191715 0.978996 0.00701547
-0.066971 -0.19358 0.978796 0.0104257
0.148956 -0.233323 0.960923 0.011889
0.155527 -0.233818 0.959761 0.0097104
-0.0480576 -0.181699 0.982179 0.00581239
-0.0477978 -0.180984 0.982324 0.00502114
-0.0521053 -0.180148 0.982258 0.00947496
-0.0521722 -0.180955 0.982107 0.00996707
-0.0540555 -0.18127 0.981947 0.00877996
-0.0576243 -0.180351 0.981913 0.00689029
-0.0622352 -0.183008 0.981139 0.0111243
-0.0642317 -0.177379 0.982044 0.0119511
-0.0641223 -0.179281 0.981706 0.00925466
-0.0636657 -0.18054 0.981505 0.001361
-0.0658476 -0.178067 0.981813 0.00579908
-0.0679506 -0.181585 0.981025 0.00364423
-0.065193 -0.181564 0.981216 0
-0.0652375 -0.183273 0.980895 0.00233962
-0.067096 -0.183367 0.980752 0
-0.0656782 -0.179887 0.981492 0.00272494
-0.0647539 -0.182753 0.981024 0.00147278
-0.0678986 -0.185389 0.980317 0.00275514
-0.0680638 -0.184447 0.980483 0.00722023
-0.0676114 -0.18623 0.980177 0.00570722
-0.0686348 -0.18754 0.979856 0.0059654
0.157259 -0.230448 0.960293 0.00526948
0.172033 -0.231875 0.957412 0.00344918
0.179862 -0.226849 0.957178 0.00844474
-0.0468826 -0.17263 0.98387 0.00994128
-0.0463165 -0.177575 0.983017 0.00863303
-0.0474075 -0.174756 0.98347 0.0103466
-0.0482873 -0.174998 0.983384 0.00897704
-0.0451408 -0.18018 0.982597 0.00219353
-0.0476102 -0.175698 0.983292 0.009733
-0.0497826 -0.174936 0.98332 0.0082865
-0.0510971 -0.175052 0.983232 0.011271
-0.05142 -0.174828 0.983255 0.0103279
-0.0563378 -0.170682 0.983714 0.0138874
-0.0587624 -0.17445 0.982911 0.0149353
-0.0615065 -0.175606 0.982537 0.0124842
-0.0648049 -0.171513 0.983048 0.0149586
-0.0630399 -0.172863 0.982926 0.00585399
-0.0624137 -0.180768 0.981543 0.0010458
-0.0654725 -0.173755 0.98261 0.00416556
-0.0649964 -0.175961 0.982249 0
-0.064844 -0.175018 0.982428 0
-0.0653023 -0.175908 0.982238 0.000666251
-0.0668676 -0.179805 0.981427 0
