# .PCD v0.7 - Point Cloud Data file format
VERSION 0.7
FIELDS x y z
SIZE 4 4 4
TYPE F F F
COUNT 1 1 1
WIDTH 1379
HEIGHT 1
VIEWPOINT 0 0 0 1 0 0 0
POINTS 1379
DATA ascii
-0.054974001 -0.016027 -0.26329201
-0.054970998 -0.015947999 -0.2633
-0.054967001 -0.015869999 -0.263311
-0.054963998 -0.015791999 -0.26331699
-0.054961 -0.015716 -0.26331499
-0.054958001 -0.015639 -0.26330501
-0.054954998 -0.015561 -0.26329899
-0.054953001 -0.015483 -0.263291
-0.054949999 -0.015407 -0.26328
-0.054947998 -0.01533 -0.26326001
-0.054946002 -0.015252 -0.26323199
-0.054945 -0.015177 -0.26319599
-0.054942999 -0.0151 -0.26317501
-0.054939002 -0.015021 -0.26318899
-0.054933999 -0.014943 -0.263221
-0.054928999 -0.014864 -0.26326099
-0.054924 -0.014785 -0.26329899
-0.054919001 -0.014704 -0.26334101
-0.054914001 -0.014625 -0.26338699
-0.054908998 -0.014546 -0.26342899
-0.054903999 -0.014468 -0.26346299
-0.054899 -0.014389 -0.26350099
-0.054894 -0.014308 -0.263533
-0.054889999 -0.01423 -0.26356
-0.054885 -0.014151 -0.26358199
-0.054882001 -0.014073 -0.263596
-0.054878 -0.013995 -0.26360801
-0.054873001 -0.013914 -0.26364401
-0.054868001 -0.013835 -0.263686
-0.054862998 -0.013754 -0.263726
-0.054857001 -0.013675 -0.26377201
-0.054852001 -0.013594 -0.263818
-0.054846998 -0.013516 -0.263854
-0.054841999 -0.013435 -0.263897
-0.054837 -0.013356 -0.26392701
-0.054832999 -0.013276 -0.263953
-0.054827999 -0.013197 -0.26397499
-0.054823 -0.013116 -0.26401699
-0.054251999 0.002198 -0.26313001
-0.054253001 0.002265 -0.263062
-0.054256 0.002326 -0.262945
-0.054256 0.0023950001 -0.26288599
-0.054256 0.0024659999 -0.26283401
-0.054257002 0.0025299999 -0.26275
-0.054258 0.002598 -0.26268101
-0.054258 0.0026670001 -0.26261699
-0.054258 0.0027360001 -0.26255801
-0.054258 0.0028039999 -0.26250601
-0.054258 0.002875 -0.26245701
-0.054257002 0.0029460001 -0.262409
-0.054256 0.0030169999 -0.26236299
-0.054256 0.003088 -0.26232201
-0.054255001 0.0031590001 -0.26228201
-0.054253999 0.0032329999 -0.26224399
-0.054251999 0.003306 -0.26221699
-0.054249998 0.0033789999 -0.262191
-0.054249 0.003453 -0.26215699
-0.054246999 0.0035260001 -0.262133
-0.054244999 0.003602 -0.26211199
-0.054242998 0.003675 -0.26209199
-0.054241002 0.0037509999 -0.26208001
-0.054237999 0.003828 -0.26207
-0.054235 0.0039039999 -0.26206499
-0.054232001 0.0039820001 -0.26206499
-0.054228999 0.0040600002 -0.262063
-0.054226 0.0041379998 -0.26206899
-0.054221999 0.004218 -0.262079
-0.054219 0.0042969999 -0.26208499
-0.054214999 0.004377 -0.262095
-0.054211002 0.0044570002 -0.26210999
-0.054207999 0.0045349998 -0.26211599
-0.054203998 0.004615 -0.26211801
-0.054200999 0.0046930001 -0.262124
-0.054196998 0.0047729998 -0.262128
-0.054194 0.0048509999 -0.26212999
-0.054191001 0.004927 -0.26213199
-0.054187998 0.0050070002 -0.262133
-0.054184999 0.0050829998 -0.26213101
-0.054182 0.005161 -0.26212901
-0.054179002 0.0052390001 -0.26212499
-0.054175999 0.0053150002 -0.262119
-0.054173999 0.0053900001 -0.26210001
-0.054172002 0.0054640002 -0.26207799
-0.054170001 0.0055419998 -0.262068
-0.054166999 0.0056170002 -0.262054
-0.054166 0.005688 -0.26202101
-0.054164 0.0057620001 -0.26200101
-0.054161001 0.0058400002 -0.26199299
-0.054157998 0.0059179999 -0.261989
-0.054156002 0.0059910002 -0.26197299
-0.054152999 0.0060669999 -0.26196399
-0.054150999 0.006145 -0.261958
-0.054148 0.0062199999 -0.261944
-0.054145999 0.006296 -0.26192999
-0.054143 0.0063720001 -0.261922
-0.054141 0.0064480002 -0.26190901
-0.054138999 0.0065230001 -0.261893
-0.054136001 0.0065990002 -0.26188901
-0.054133002 0.0066769999 -0.26188701
-0.054129999 0.006753 -0.26188001
-0.054804999 -0.025463 -0.26435301
-0.054804999 -0.025381999 -0.264283
-0.054806001 -0.025303001 -0.26418701
-0.054806001 -0.025222 -0.26412901
-0.054804001 -0.025145 -0.26409799
-0.054802001 -0.025067 -0.26407599
-0.054800998 -0.024987999 -0.26404199
-0.0548 -0.024909001 -0.26398799
-0.0548 -0.024828 -0.26392999
-0.054799002 -0.02475 -0.26387799
-0.054798 -0.024673 -0.26383299
-0.054797001 -0.024594 -0.26379299
-0.054795999 -0.024514999 -0.26373899
-0.054795001 -0.024436001 -0.26369101
-0.054793999 -0.024357 -0.263641
-0.054793 -0.024278 -0.26360399
-0.054791 -0.0242 -0.26357999
-0.054788999 -0.024123 -0.263556
-0.054786999 -0.024044 -0.26352799
-0.054786 -0.023965999 -0.26349401
-0.054784 -0.023889 -0.26347199
-0.054781999 -0.023810999 -0.263457
-0.054779999 -0.023731999 -0.26343101
-0.054777998 -0.023654001 -0.263405
-0.054776002 -0.023576999 -0.263385
-0.054774001 -0.023499001 -0.263363
-0.054770999 -0.023422001 -0.26335201
-0.054768 -0.023344001 -0.26334199
-0.054765999 -0.023266001 -0.26333001
-0.054763 -0.023188001 -0.26332799
-0.054760002 -0.023112001 -0.26332399
-0.054756999 -0.023033001 -0.26331401
-0.054754999 -0.022957001 -0.26330101
-0.054752 -0.022879001 -0.26329499
-0.054747999 -0.022801001 -0.26330301
-0.054745998 -0.022724999 -0.26330101
-0.054742999 -0.022645 -0.263293
-0.054740001 -0.022569999 -0.26328301
-0.054738 -0.022492001 -0.263266
-0.054736 -0.022414999 -0.263246
-0.054733999 -0.022337001 -0.26322201
-0.054731999 -0.022258 -0.26319599
-0.054729 -0.022182001 -0.26318201
-0.054726001 -0.022104001 -0.26319101
-0.054722 -0.022027001 -0.26321301
-0.054717999 -0.021949001 -0.26323301
-0.054713 -0.021872001 -0.26326099
-0.054708999 -0.021794001 -0.26327699
-0.054706 -0.021716001 -0.26328301
-0.054703001 -0.021640001 -0.26328301
-0.054699998 -0.021562001 -0.26328799
-0.054696001 -0.021484001 -0.26329401
-0.054692999 -0.021407999 -0.263298
-0.05469 -0.021330001 -0.2633
-0.054687001 -0.021252001 -0.263298
-0.054685 -0.021174001 -0.26327899
-0.054682001 -0.021097001 -0.26325899
-0.054680001 -0.021019001 -0.26324901
-0.054676998 -0.020941 -0.26325101
-0.054673001 -0.020865001 -0.263257
-0.054669999 -0.020787001 -0.26325899
-0.054667 -0.020709001 -0.263262
-0.054664001 -0.020633001 -0.26325601
-0.054662 -0.020555999 -0.26324001
-0.054659002 -0.020478001 -0.263226
-0.054655999 -0.020400001 -0.26322201
-0.054653998 -0.020322001 -0.26320601
-0.054652002 -0.020246999 -0.26319101
-0.054648999 -0.020168999 -0.26317701
-0.054646999 -0.020091999 -0.26315501
-0.054644998 -0.020013999 -0.263127
-0.054644 -0.019936999 -0.26309499
-0.054641999 -0.019859999 -0.26306
-0.054641001 -0.019783 -0.26302201
-0.054639 -0.019704999 -0.26300001
-0.054636002 -0.019629 -0.263004
-0.054630999 -0.019551 -0.26303399
-0.054627001 -0.019474 -0.26306501
-0.054621998 -0.019396 -0.263089
-0.054618001 -0.019319 -0.26311499
-0.054614 -0.019241 -0.263127
-0.054611001 -0.019161999 -0.26314101
-0.054607 -0.019086 -0.26315901
-0.054602999 -0.019007999 -0.26317501
-0.054598998 -0.018929999 -0.263192
-0.054595999 -0.018852999 -0.26319599
-0.054593001 -0.018776 -0.26318401
-0.054591 -0.018697999 -0.263172
-0.054588001 -0.018619999 -0.263156
-0.054584999 -0.018542999 -0.26315001
-0.054581001 -0.018466 -0.26316699
-0.054577999 -0.018387999 -0.26316899
-0.054575 -0.018309999 -0.26316699
-0.054572001 -0.018231999 -0.26317301
-0.054568999 -0.018155999 -0.26316699
-0.054567002 -0.018079 -0.26314801
-0.054563999 -0.018000999 -0.26313999
-0.054561 -0.017925 -0.26314601
-0.054558001 -0.017847 -0.26314199
-0.054556001 -0.01777 -0.26312199
-0.054554 -0.017692 -0.26309201
-0.054552998 -0.017617 -0.26305899
-0.054551002 -0.01754 -0.26303101
-0.054547999 -0.017462 -0.263017
-0.054545999 -0.017387001 -0.262995
-0.054545 -0.017309001 -0.26296899
-0.054542001 -0.017231001 -0.26296401
-0.054538 -0.017154999 -0.26297599
-0.054535002 -0.017077001 -0.26298001
-0.054531999 -0.016999001 -0.26298401
-0.054527 -0.016921001 -0.263004
-0.054522999 -0.016842 -0.26303199
-0.054517999 -0.016765 -0.26306301
-0.054513 -0.016687 -0.26310501
-0.054508001 -0.016608 -0.26315299
-0.054503001 -0.016528999 -0.263181
-0.054499 -0.016450999 -0.26319501
-0.054496001 -0.016372999 -0.26320499
-0.054492999 -0.016295001 -0.26320899
-0.05449 -0.016218999 -0.263208
-0.054485999 -0.016140999 -0.26321
-0.054483 -0.016062001 -0.26322201
-0.054478999 -0.015984001 -0.26323801
-0.054474998 -0.015906001 -0.26325601
-0.054471001 -0.015827 -0.26326999
-0.054467998 -0.015751 -0.26327401
-0.054465 -0.015674001 -0.26326701
-0.054462999 -0.015596 -0.26324901
-0.05446 -0.015518 -0.263235
-0.054458 -0.015443 -0.26322299
-0.054455001 -0.015365 -0.26321501
-0.054451998 -0.015287 -0.26320601
-0.054450002 -0.015212 -0.26318601
-0.054448001 -0.015134 -0.26316601
-0.054446001 -0.015056 -0.263154
-0.054443002 -0.01498 -0.263154
-0.054437999 -0.0149 -0.26317799
-0.054432999 -0.014821 -0.26322001
-0.054428 -0.014742 -0.26326501
-0.054421999 -0.014663 -0.263311
-0.054416999 -0.014582 -0.263365
-0.054411002 -0.014503 -0.26341301
-0.054407001 -0.014424 -0.263441
-0.054402001 -0.014344 -0.26346701
-0.054397002 -0.014265 -0.26350099
-0.054393001 -0.014187 -0.263531
-0.054389 -0.014108 -0.263551
-0.054384001 -0.01403 -0.26357299
-0.05438 -0.013949 -0.26360199
-0.054375 -0.01387 -0.26364201
-0.054370001 -0.01379 -0.26367801
-0.054365002 -0.013711 -0.26370999
-0.054359999 -0.013632 -0.26374999
-0.054354001 -0.013551 -0.263798
-0.054349001 -0.01347 -0.26384601
-0.054343998 -0.013391 -0.26388001
-0.054340001 -0.013311 -0.26390001
-0.054336 -0.013233 -0.26391599
-0.054331001 -0.013152 -0.26395199
-0.054324001 -0.01307 -0.26403201
-0.053759001 0.0020260001 -0.26322299
-0.053753 0.0021820001 -0.26321101
-0.053757001 0.0022390001 -0.26308399
-0.05376 0.0023010001 -0.262968
-0.053761002 0.0023690001 -0.26289299
-0.053762 0.0024329999 -0.26281101
-0.053762998 0.002501 -0.26273799
-0.053764001 0.002568 -0.26266
-0.053764001 0.002636 -0.26260501
-0.053764001 0.0027050001 -0.26254299
-0.053764001 0.0027739999 -0.26248801
-0.053764001 0.002845 -0.26243201
-0.053762998 0.0029140001 -0.262382
-0.053762998 0.0029839999 -0.262337
-0.053762 0.003058 -0.26229501
-0.053761002 0.0031270001 -0.26224899
-0.05376 0.0031999999 -0.262214
-0.053759001 0.003271 -0.26217401
-0.053757999 0.0033420001 -0.262137
-0.053757001 0.0034149999 -0.26210299
-0.053755 0.003489 -0.262077
-0.053753 0.0035639999 -0.26205501
-0.053750999 0.003638 -0.262036
-0.053748 0.0037150001 -0.26202601
-0.053746 0.003791 -0.26201999
-0.053743001 0.0038689999 -0.262018
-0.053739998 0.003947 -0.262014
-0.053737 0.0040230001 -0.26200899
-0.053734001 0.0041009998 -0.26201299
-0.05373 0.0041809999 -0.26201701
-0.053727001 0.0042590001 -0.26201701
-0.053723998 0.0043370002 -0.262025
-0.053720001 0.0044169999 -0.26203901
-0.053716 0.0044979998 -0.26205301
-0.053711999 0.0045779999 -0.262063
-0.053707998 0.0046580001 -0.26207101
-0.053704999 0.0047360002 -0.26208001
-0.053700998 0.0048159999 -0.26209
-0.053698 0.004894 -0.26209199
-0.053695001 0.0049720001 -0.26209
-0.053692002 0.0050479998 -0.26208001
-0.053690001 0.0051239999 -0.26206699
-0.053686999 0.0052009998 -0.262059
-0.053684 0.0052769999 -0.26205501
-0.053681999 0.005355 -0.26204899
-0.053679001 0.0054310001 -0.262043
-0.053676002 0.0055089998 -0.26203099
-0.053674001 0.0055820001 -0.262016
-0.053672001 0.0056560002 -0.26199201
-0.053670999 0.0057290001 -0.26196
-0.053668998 0.0058019999 -0.26194099
-0.053665999 0.0058800001 -0.261933
-0.053663999 0.0059560002 -0.26192299
-0.053661 0.0060319998 -0.261915
-0.053658001 0.00611 -0.261911
-0.053654999 0.0061849998 -0.261906
-0.053653002 0.0062609999 -0.26189199
-0.053651001 0.0063370001 -0.26187599
-0.053647999 0.0064130002 -0.26187199
-0.053645 0.0064900001 -0.261866
-0.053642001 0.0065680002 -0.26186499
-0.053638998 0.0066459998 -0.261861
-0.053636 0.006722 -0.26185301
-0.054510999 -0.025478 -0.264258
-0.054513 -0.025397001 -0.26415399
-0.054512002 -0.025318 -0.264099
-0.054512002 -0.025239 -0.26403499
-0.054510999 -0.02516 -0.26399499
-0.054508999 -0.025083 -0.263973
-0.054506999 -0.025002001 -0.26393101
-0.054506999 -0.024923 -0.26387599
-0.054506999 -0.024844 -0.263818
-0.054506 -0.024765 -0.26376799
-0.054505002 -0.024687 -0.26371199
-0.054505002 -0.024607999 -0.26366201
-0.054503001 -0.024530999 -0.26362801
-0.054501999 -0.024452001 -0.263583
-0.054501001 -0.024372 -0.26354501
-0.054499999 -0.024295 -0.26350901
-0.054497998 -0.024216 -0.263475
-0.054496001 -0.024139 -0.26344299
-0.054494999 -0.02406 -0.26341
-0.054492999 -0.023982 -0.26337799
-0.054492 -0.023905 -0.26334599
-0.05449 -0.023825999 -0.263318
-0.054488 -0.023747999 -0.263302
-0.054485001 -0.023669999 -0.26328999
-0.054483 -0.023592999 -0.263273
-0.054481 -0.023514999 -0.263253
-0.054478001 -0.023437999 -0.263239
-0.054476 -0.023360001 -0.26322299
-0.054473002 -0.023282001 -0.26321101
-0.054471001 -0.023204001 -0.26320401
-0.054467998 -0.023128999 -0.263192
-0.054466002 -0.023049001 -0.26317799
-0.054462999 -0.022972999 -0.263174
-0.05446 -0.022895001 -0.263174
-0.054457001 -0.022817001 -0.263172
-0.054453999 -0.022740999 -0.26317099
-0.054451 -0.022663999 -0.26316899
-0.054448001 -0.022585999 -0.26316899
-0.054444999 -0.022507999 -0.26316699
-0.054442 -0.022430001 -0.26315299
-0.054439999 -0.022355 -0.26313001
-0.054437999 -0.022275001 -0.2631
-0.054435998 -0.022198001 -0.263078
-0.054432999 -0.022120001 -0.26307601
-0.054428998 -0.022043001 -0.26309401
-0.054425001 -0.021966999 -0.263116
-0.054421 -0.021888999 -0.26313701
-0.054418001 -0.021811999 -0.26315099
-0.054414 -0.021733999 -0.263161
-0.054409999 -0.021655999 -0.26316699
-0.054407001 -0.021579999 -0.26317501
-0.054404002 -0.021501999 -0.263183
-0.054400001 -0.021426 -0.26318601
-0.054397002 -0.021348 -0.26318201
-0.054395001 -0.021269999 -0.263174
-0.054391999 -0.021191999 -0.26316401
-0.054389998 -0.021114999 -0.26314801
-0.054386999 -0.021036999 -0.263134
-0.054384001 -0.020958999 -0.26313499
-0.054381002 -0.020883 -0.263145
-0.054377999 -0.020804999 -0.263145
-0.054375 -0.020726999 -0.26313901
-0.054372001 -0.020651 -0.26313299
-0.054368999 -0.020574 -0.263125
-0.054366998 -0.020496 -0.26311401
-0.054364 -0.02042 -0.2631
-0.054361999 -0.020342 -0.26309001
-0.054359 -0.020265 -0.26307201
-0.054357 -0.020187 -0.26305199
-0.054354999 -0.02011 -0.263033
-0.054352999 -0.020034 -0.263019
-0.054350998 -0.019955 -0.262997
-0.054349001 -0.019879 -0.262963
-0.054347999 -0.019802 -0.262927
-0.054345999 -0.019725 -0.26290801
-0.054343 -0.019647 -0.26290599
-0.054338999 -0.019571001 -0.262916
-0.054335002 -0.019492 -0.26293999
-0.054329999 -0.019415 -0.26297399
-0.054324999 -0.019337 -0.263008
-0.054320998 -0.01926 -0.26302701
-0.054318 -0.019182 -0.26304299
-0.054313999 -0.019104 -0.26305899
-0.054310001 -0.019026 -0.26306501
-0.054306999 -0.01895 -0.26306701
-0.054304 -0.018872 -0.26306701
-0.054301001 -0.018794 -0.26306099
-0.054299001 -0.018718001 -0.26305401
-0.054296002 -0.01864 -0.26303801
-0.054294001 -0.018563 -0.263028
-0.05429 -0.018487001 -0.26303601
-0.054287001 -0.018408 -0.263044
-0.054283001 -0.01833 -0.26304501
-0.054281 -0.018253 -0.26304099
-0.054278001 -0.018177001 -0.26303899
-0.054274 -0.018099001 -0.26304299
-0.054271001 -0.018021001 -0.26303899
-0.054269001 -0.017945001 -0.26302901
-0.054265998 -0.017867001 -0.26301599
-0.054264002 -0.017790001 -0.263004
-0.054262001 -0.017713999 -0.262986
-0.054260001 -0.017636999 -0.26295799
-0.054258 -0.017558999 -0.26293001
-0.054257002 -0.017481999 -0.26289701
-0.054255001 -0.017407 -0.262869
-0.054251999 -0.017329 -0.26285899
-0.054249 -0.017251 -0.26286501
-0.054244999 -0.017174 -0.26289099
-0.05424 -0.017096 -0.262925
-0.054235 -0.017016999 -0.26295599
-0.054230999 -0.016938999 -0.26298001
-0.054226998 -0.016860001 -0.262988
-0.054223999 -0.016783999 -0.26299801
-0.054219 -0.016705999 -0.26303399
-0.054214001 -0.016627001 -0.263064
-0.05421 -0.016549001 -0.263082
-0.054207001 -0.01647 -0.26309001
-0.054203998 -0.016394001 -0.26309499
-0.054200999 -0.016316 -0.26309299
-0.054196998 -0.016238 -0.26309901
-0.054193001 -0.01616 -0.26311699
-0.054189999 -0.016082 -0.263129
-0.054186001 -0.016006 -0.26313299
-0.054182999 -0.015928 -0.263136
-0.05418 -0.01585 -0.26314199
-0.054175999 -0.015772 -0.26314399
-0.054173 -0.015694 -0.26314199
-0.054171 -0.015618 -0.263138
-0.054168001 -0.01554 -0.263134
-0.054164998 -0.015462 -0.26312301
-0.054163001 -0.015387 -0.263109
-0.054159999 -0.015309 -0.26309699
-0.054157998 -0.015231 -0.26307899
-0.054156002 -0.015156 -0.26306099
-0.054152999 -0.015078 -0.26304999
-0.05415 -0.015002 -0.26305199
-0.054145999 -0.014922 -0.26306799
-0.054141 -0.014843 -0.26310799
-0.054136001 -0.014764 -0.263154
-0.054129999 -0.014685 -0.26320601
-0.054124001 -0.014604 -0.263264
-0.054118998 -0.014525 -0.26330599
-0.054113999 -0.014446 -0.26334399
-0.054109 -0.014365 -0.26337999
-0.054104 -0.014287 -0.26340699
-0.054101001 -0.014208 -0.263419
-0.054097001 -0.01413 -0.263441
-0.054093 -0.014052 -0.263459
-0.054088 -0.013971 -0.26348501
-0.054083001 -0.013892 -0.26352701
-0.054078002 -0.013814 -0.26356301
-0.054072 -0.013732 -0.26361299
-0.054067999 -0.013654 -0.26364699
-0.054062001 -0.013573 -0.26368701
-0.054058 -0.013494 -0.26371399
-0.054053999 -0.013416 -0.263742
-0.054048002 -0.013335 -0.26378399
-0.054042999 -0.013254 -0.26382801
-0.054037999 -0.013175 -0.26385799
-0.054032002 -0.013094 -0.26391399
-0.054025002 -0.013012 -0.26400599
-0.053468 0.001924 -0.26316601
-0.053468 0.001994 -0.26311201
-0.053467002 0.0020649999 -0.26306799
-0.053466 0.002138 -0.26302499
-0.053466 0.0022090001 -0.262979
-0.053466 0.0022780001 -0.262918
-0.053467002 0.0023439999 -0.262842
-0.053470001 0.0024059999 -0.26273301
-0.053470999 0.002472 -0.262651
-0.053470999 0.002541 -0.26259801
-0.053472001 0.0026070001 -0.26251599
-0.053472001 0.0026759999 -0.26245499
-0.053472001 0.0027449999 -0.26239699
-0.053472001 0.002815 -0.26234499
-0.053472001 0.0028840001 -0.26229399
-0.053472001 0.0029529999 -0.26223001
-0.053470999 0.003024 -0.262191
-0.053470001 0.0030950001 -0.26214901
-0.053470001 0.0031659999 -0.26210299
-0.053468999 0.003237 -0.26205799
-0.053468 0.003308 -0.262016
-0.053467002 0.0033809999 -0.26198801
-0.053465001 0.003455 -0.26196101
-0.053463001 0.0035280001 -0.261933
-0.053461 0.003604 -0.261913
-0.053459 0.0036790001 -0.26189899
-0.053456001 0.003755 -0.261888
-0.053454001 0.0038310001 -0.26188001
-0.053451002 0.0039090002 -0.26187599
-0.053447999 0.0039869999 -0.26187801
-0.053444002 0.004065 -0.26188201
-0.053440999 0.0041450001 -0.26188999
-0.053436998 0.0042229998 -0.26189899
-0.053433999 0.0043009999 -0.26189899
-0.053431001 0.004379 -0.26190099
-0.053427 0.0044590002 -0.261915
-0.053422999 0.0045389999 -0.26192701
-0.05342 0.004617 -0.261931
-0.053415999 0.0046979999 -0.26194301
-0.053412002 0.0047780001 -0.26196101
-0.053408001 0.0048580002 -0.261971
-0.053405002 0.0049359999 -0.26197201
-0.053401999 0.005014 -0.26197001
-0.053399999 0.0050900001 -0.261958
-0.053397 0.0051660002 -0.26194999
-0.053394001 0.0052439999 -0.26195201
-0.053390998 0.0053209998 -0.26194301
-0.053389002 0.0053949999 -0.26192299
-0.053387001 0.0054700002 -0.26190501
-0.053385001 0.0055439998 -0.26188901
-0.053383 0.00562 -0.261868
-0.053381 0.0056949998 -0.26185399
-0.053378001 0.0057689999 -0.26183799
-0.053376 0.0058470001 -0.26182601
-0.053373002 0.0059219999 -0.26182199
-0.053369999 0.005998 -0.26181501
-0.053367998 0.0060760002 -0.26180699
-0.053365 0.0061519998 -0.261805
-0.053362001 0.0062299999 -0.261801
-0.053358998 0.0063080001 -0.26179501
-0.053355999 0.0063829999 -0.26179001
-0.053353 0.0064610001 -0.26179001
-0.053350002 0.0065390002 -0.26179001
-0.053346999 0.0066149998 -0.261778
-0.053344999 0.0066889999 -0.261758
-0.054258 -0.025405999 -0.26416299
-0.054258 -0.025327001 -0.264103
-0.054257002 -0.025248 -0.26405901
-0.054256 -0.02517 -0.264011
-0.054255001 -0.02509 -0.263978
-0.054255001 -0.025012 -0.26391801
-0.054253999 -0.024932999 -0.26385599
-0.054253001 -0.024854001 -0.263814
-0.054253001 -0.024775 -0.263762
-0.054251999 -0.024696 -0.26370999
-0.054251 -0.024617 -0.263661
-0.054249998 -0.024537999 -0.263623
-0.054249 -0.024459001 -0.26358101
-0.054248001 -0.024382001 -0.263533
-0.054246999 -0.024303 -0.263491
-0.054244999 -0.024224 -0.26345801
-0.054244 -0.024147 -0.26342401
-0.054242 -0.024068 -0.26338801
-0.054241002 -0.02399 -0.263356
-0.054239001 -0.023913 -0.26332799
-0.054237001 -0.023836 -0.26330701
-0.054235 -0.023758 -0.26328099
-0.054233 -0.023678999 -0.26326099
-0.054230999 -0.023600999 -0.263239
-0.054228999 -0.023523999 -0.263219
-0.054226 -0.023445999 -0.263201
-0.054223999 -0.023367999 -0.263192
-0.054221001 -0.023290001 -0.26318401
-0.054219 -0.023215 -0.26316801
-0.054216001 -0.023136999 -0.263156
-0.054212999 -0.023058999 -0.26315799
-0.05421 -0.022980999 -0.263154
-0.054207999 -0.022903999 -0.263143
-0.054205 -0.022828 -0.26313901
-0.054200999 -0.02275 -0.26314101
-0.054198001 -0.022671999 -0.26313901
-0.054196 -0.022593999 -0.263129
-0.054193001 -0.022515999 -0.26311401
-0.054191001 -0.022441 -0.2631
-0.054187998 -0.022363 -0.26309001
-0.054186001 -0.022284999 -0.26308
-0.054184001 -0.022208 -0.26306
-0.054180998 -0.022129999 -0.26305199
-0.054177999 -0.022054 -0.26305899
-0.054173999 -0.021976 -0.263073
-0.054170001 -0.021899 -0.26309699
-0.054164998 -0.021821 -0.26311699
-0.054161999 -0.021741999 -0.263129
-0.054157998 -0.021666 -0.26313901
-0.054154001 -0.02159 -0.263154
-0.054150999 -0.021512 -0.263156
-0.054148 -0.021434 -0.263152
-0.054145001 -0.021356 -0.26314801
-0.054143 -0.021278 -0.26313999
-0.054140002 -0.021203 -0.26312599
-0.054138001 -0.021125 -0.26311299
-0.054136001 -0.021048 -0.26309699
-0.054133002 -0.02097 -0.263091
-0.054129001 -0.020892 -0.26310101
-0.054125998 -0.020815 -0.263109
-0.054122001 -0.020737 -0.26311299
-0.05412 -0.020661 -0.26310799
-0.054117002 -0.020584 -0.263096
-0.054115001 -0.020506 -0.26308399
-0.054111999 -0.020428 -0.26307201
-0.054109 -0.020351 -0.26306
-0.054106999 -0.020275 -0.263055
-0.054104 -0.020197 -0.26304501
-0.054102 -0.02012 -0.26302499
-0.054099999 -0.020042 -0.262995
-0.054099001 -0.019965 -0.26296499
-0.054097001 -0.019889999 -0.26294199
-0.054094002 -0.019812001 -0.26292601
-0.054092001 -0.019734001 -0.26290399
-0.054090001 -0.019657001 -0.26289001
-0.054086 -0.019579001 -0.262896
-0.054081999 -0.019502001 -0.262916
-0.054078002 -0.019424001 -0.26294899
-0.054072998 -0.019347001 -0.26297501
-0.05407 -0.019269001 -0.26298901
-0.054065999 -0.019192999 -0.26300299
-0.054062001 -0.019114001 -0.263017
-0.054058999 -0.019036001 -0.26302299
-0.054056 -0.018959999 -0.263024
-0.054053001 -0.018882001 -0.26302001
-0.054049 -0.018804001 -0.26302201
-0.054046001 -0.018727999 -0.26302201
-0.054044001 -0.018650999 -0.263006
-0.054040998 -0.018572999 -0.26299599
-0.054037999 -0.018497 -0.26300499
-0.054033998 -0.018418999 -0.263019
-0.054031 -0.018340001 -0.26302701
-0.054026999 -0.018262001 -0.26302901
-0.054025002 -0.018186999 -0.26302299
-0.054021999 -0.018108999 -0.26300901
-0.054019999 -0.018030999 -0.26300001
-0.054017 -0.017955 -0.26299399
-0.054014001 -0.017878 -0.26298201
-0.054012001 -0.0178 -0.26296601
-0.05401 -0.017724 -0.26295
-0.054007001 -0.017647 -0.26293501
-0.054005001 -0.017569 -0.26291701
-0.054003 -0.017492 -0.26289499
-0.054001 -0.017416 -0.262867
-0.053998999 -0.017339 -0.26284301
-0.053996 -0.017261 -0.26284599
-0.053991999 -0.017184 -0.26287001
-0.053987999 -0.017106 -0.262898
-0.053982999 -0.017027 -0.26292801
-0.053978 -0.016951 -0.26296201
-0.053973999 -0.016872 -0.26299
-0.053969 -0.016793 -0.26301801
-0.053964999 -0.016714999 -0.26303601
-0.053962 -0.016636999 -0.26304901
-0.053957999 -0.016561 -0.26306701
-0.053954002 -0.016481999 -0.26307499
-0.053950999 -0.016403999 -0.26307499
-0.053948 -0.016326001 -0.263073
-0.053945001 -0.016248999 -0.263069
-0.053941999 -0.016173 -0.26307601
-0.053938001 -0.016093999 -0.26309001
-0.053934 -0.016016001 -0.263098
-0.053931002 -0.015938001 -0.26311001
-0.053927001 -0.015860001 -0.26311201
-0.053924002 -0.015783999 -0.26311201
-0.053920999 -0.015706001 -0.26311699
-0.053918 -0.015628001 -0.26311499
-0.053916 -0.01555 -0.26310301
-0.053913001 -0.015474 -0.26309499
-0.053909998 -0.015397 -0.263091
-0.053907 -0.015319 -0.263087
-0.053904999 -0.015243 -0.26307201
-0.053902999 -0.015166 -0.263046
-0.053901002 -0.01509 -0.26302201
-0.053897999 -0.015012 -0.26301599
-0.053893998 -0.014934 -0.263044
-0.053888001 -0.014855 -0.26308799
-0.053883001 -0.014774 -0.26313001
-0.053877998 -0.014695 -0.26316899
-0.053872 -0.014616 -0.26322299
-0.053865999 -0.014535 -0.263289
-0.053861 -0.014456 -0.26332301
-0.053856999 -0.014377 -0.26335099
-0.053851999 -0.014299 -0.26337901
-0.053847998 -0.01422 -0.26340699
-0.053844001 -0.01414 -0.263423
-0.05384 -0.014062 -0.263439
-0.053835001 -0.013983 -0.26346901
-0.053830002 -0.013904 -0.26350999
-0.053824998 -0.013823 -0.26355001
-0.053819999 -0.013745 -0.26358199
-0.053815 -0.013664 -0.26361799
-0.05381 -0.013585 -0.26366401
-0.053805001 -0.013504 -0.26369399
-0.053801 -0.013426 -0.26371801
-0.053794999 -0.013345 -0.26377001
-0.053789999 -0.013266 -0.263818
-0.053785 -0.013185 -0.263854
-0.053780001 -0.013104 -0.26389799
-0.053771999 -0.013022 -0.26399201
-0.053219002 0.001761 -0.26320401
-0.053218 0.001834 -0.26316601
-0.053217001 0.001905 -0.26312801
-0.053215001 0.001981 -0.263098
-0.053213999 0.002054 -0.26306701
-0.053211998 0.0021269999 -0.26303101
-0.053211 0.002202 -0.26300699
-0.053208999 0.0022760001 -0.26298201
-0.053208999 0.0023469999 -0.26292399
-0.053210001 0.002411 -0.26284301
-0.053210001 0.002482 -0.26278701
-0.053211998 0.002543 -0.26269001
-0.053215001 0.002605 -0.262584
-0.053215001 0.0026759999 -0.26252499
-0.053215999 0.0027419999 -0.262449
-0.053217001 0.002808 -0.26237401
-0.053217001 0.002875 -0.262306
-0.053217001 0.0029440001 -0.262252
-0.053217001 0.0030149999 -0.26220301
-0.053217001 0.003083 -0.26214701
-0.053215999 0.003154 -0.26210001
-0.053215001 0.0032250001 -0.26205799
-0.053215001 0.003296 -0.262012
-0.053213999 0.003367 -0.261971
-0.053213 0.0034409999 -0.26193699
-0.053210001 0.003516 -0.26192099
-0.053208001 0.0035900001 -0.26190501
-0.053206 0.003665 -0.261886
-0.053204 0.0037390001 -0.261866
-0.053201001 0.003817 -0.26185799
-0.053199001 0.0038920001 -0.261852
-0.053195 0.00397 -0.26185301
-0.053192001 0.0040489999 -0.261861
-0.053188998 0.004129 -0.26186499
-0.053185001 0.0042070001 -0.26186499
-0.053181998 0.0042849998 -0.26186699
-0.053179 0.0043629999 -0.261875
-0.053174999 0.0044430001 -0.26188299
-0.053171001 0.0045230002 -0.26189101
-0.053167 0.0046029999 -0.26191401
-0.053162999 0.0046839998 -0.26192799
-0.053160001 0.0047619999 -0.26193401
-0.053157002 0.0048420001 -0.26193801
-0.053153001 0.0049200002 -0.26194599
-0.053149 0.0049999999 -0.26195601
-0.053146001 0.005078 -0.26196
-0.053142998 0.0051560001 -0.26195401
-0.053141002 0.0052319998 -0.26194301
-0.053139001 0.0053050001 -0.26192501
-0.053135999 0.0053810002 -0.26190701
-0.053134002 0.0054560001 -0.26188701
-0.053133 0.0055280002 -0.26185599
-0.053130999 0.005601 -0.261834
-0.053128999 0.0056770002 -0.26181799
-0.053126 0.0057529998 -0.261812
-0.053123001 0.0058329999 -0.26181701
-0.053119998 0.0059090001 -0.26181501
-0.053117 0.0059859999 -0.26180899
-0.053114001 0.0060620001 -0.261801
-0.053111002 0.0061400002 -0.261801
-0.053107999 0.0062199999 -0.26180899
-0.053103998 0.006298 -0.26181
-0.053102002 0.0063740001 -0.26179999
-0.053098999 0.0064500002 -0.26178801
-0.053096998 0.0065230001 -0.26177001
-0.053095002 0.0065990002 -0.26175499
-0.053091999 0.0066749998 -0.261749
-0.053954002 -0.025425 -0.26431999
-0.053955 -0.025345 -0.264231
-0.053955 -0.025265001 -0.264155
-0.053954002 -0.025187001 -0.264119
-0.053952999 -0.025109001 -0.264065
-0.053952999 -0.025028 -0.26400301
-0.053952001 -0.024948999 -0.26394901
-0.053952001 -0.024870001 -0.26389199
-0.053952001 -0.024792001 -0.263832
-0.053950999 -0.024713 -0.26378
-0.053950001 -0.024634 -0.26373401
-0.053948998 -0.024555 -0.263686
-0.053948998 -0.024475999 -0.26363501
-0.053947002 -0.024397001 -0.26359099
-0.053946 -0.024320001 -0.26355499
-0.053945001 -0.024241 -0.263515
-0.053943001 -0.024164001 -0.26347899
-0.053943001 -0.024085 -0.26343301
-0.053941 -0.024006 -0.26339799
-0.053939 -0.023928 -0.263372
-0.053936999 -0.023851 -0.26334599
-0.053934999 -0.023773 -0.26332799
-0.053932 -0.023695 -0.26332
-0.053929999 -0.023618 -0.26330101
-0.053929001 -0.023541 -0.26326901
-0.053925999 -0.023460999 -0.26324901
-0.053924002 -0.023384999 -0.263235
-0.053920999 -0.023305999 -0.26322901
-0.053918999 -0.023229999 -0.26321501
-0.053916998 -0.023151999 -0.26319799
-0.053913001 -0.023073999 -0.26320001
-0.053909998 -0.022995999 -0.26320201
-0.053908002 -0.022918999 -0.263188
-0.053904999 -0.022841001 -0.26317599
-0.053902 -0.022764999 -0.26317301
-0.053899001 -0.022686999 -0.26316699
-0.053897001 -0.022609999 -0.26315901
-0.053893998 -0.022531999 -0.26315501
-0.053890999 -0.022456 -0.26314899
-0.053888999 -0.022377999 -0.26313099
-0.053886998 -0.022301 -0.26311401
-0.053884 -0.022222999 -0.263096
-0.053881999 -0.022144999 -0.263082
-0.053879 -0.022066999 -0.26308399
-0.053874999 -0.021991 -0.26310399
-0.05387 -0.021912999 -0.26312599
-0.053865999 -0.021836 -0.263145
-0.053863 -0.021757999 -0.26315701
-0.053858999 -0.021682 -0.26316899
-0.053856 -0.021604 -0.26317501
-0.053851999 -0.021526 -0.263179
-0.053849 -0.02145 -0.263183
-0.053846002 -0.021372 -0.26318601
-0.053842999 -0.021294 -0.26318401
-0.05384 -0.021215999 -0.26317799
-0.053838 -0.021137999 -0.26316601
-0.053835999 -0.021063 -0.26314199
-0.053833 -0.020985 -0.26313001
-0.053830002 -0.020907 -0.26313701
-0.053826001 -0.020829 -0.26313901
-0.053823002 -0.020753 -0.263147
-0.053819999 -0.020675 -0.263147
-0.053817 -0.020597 -0.26313499
-0.053815 -0.020519 -0.263125
-0.053812001 -0.020444 -0.26312
-0.053808998 -0.020366 -0.26310799
-0.053807002 -0.020288 -0.26308799
-0.053805001 -0.020211 -0.26307401
-0.053801998 -0.020133 -0.263062
-0.053800002 -0.020057 -0.26304701
-0.053798001 -0.01998 -0.26302901
-0.053796001 -0.019902 -0.26300499
-0.053794 -0.019825 -0.262977
-0.053792998 -0.019748 -0.262945
-0.053789999 -0.019672001 -0.262932
-0.053787 -0.019594001 -0.262936
-0.053783 -0.019516001 -0.262954
-0.053778999 -0.019439001 -0.26297399
-0.053775001 -0.019361001 -0.26299599
-0.053769998 -0.019284001 -0.263024
-0.053766001 -0.019206 -0.26304701
-0.053762 -0.019127 -0.26306501
-0.053759001 -0.019049 -0.263071
-0.053755 -0.018973 -0.263073
-0.053752001 -0.018895 -0.26307499
-0.053748999 -0.018817 -0.263069
-0.053746998 -0.018742001 -0.263064
-0.053743999 -0.018664001 -0.26305801
-0.053741001 -0.018586 -0.26304799
-0.053739 -0.018510001 -0.26303601
-0.053734999 -0.018432001 -0.263042
-0.053732 -0.018354001 -0.26305401
-0.053727999 -0.018276 -0.26305699
-0.053725999 -0.018200001 -0.26304901
-0.053723 -0.018122001 -0.26303899
-0.053720001 -0.018045001 -0.263037
-0.053716999 -0.017968999 -0.263033
-0.053715002 -0.017890999 -0.263017
-0.053713001 -0.017813999 -0.26299801
-0.053709999 -0.017738 -0.262988
-0.053707998 -0.017659999 -0.26297599
-0.053704999 -0.017581999 -0.26296201
-0.053702999 -0.017504999 -0.26294401
-0.053700998 -0.017429 -0.26291901
-0.053699002 -0.017352 -0.26289099
-0.053697001 -0.017274 -0.26288101
-0.053693 -0.017198 -0.26289299
-0.053688999 -0.01712 -0.26291499
-0.053684 -0.017041 -0.26295099
-0.053679001 -0.016961999 -0.26298401
-0.053674001 -0.016883001 -0.26302201
-0.05367 -0.016806999 -0.26305199
-0.053665999 -0.016728001 -0.26307201
-0.053661998 -0.016650001 -0.26308799
-0.053659 -0.016572 -0.26309201
-0.053654999 -0.016494 -0.26310199
-0.053651001 -0.016418001 -0.26311699
-0.053647999 -0.016340001 -0.26311699
-0.053645 -0.016262 -0.263107
-0.053642001 -0.016184 -0.263111
-0.053638 -0.016106 -0.263127
-0.053635001 -0.016029 -0.26313701
-0.053631999 -0.015951 -0.263138
-0.053628001 -0.015873 -0.26313999
-0.053624999 -0.015795 -0.26314399
-0.053622 -0.015717 -0.26315001
-0.053617999 -0.015641 -0.263154
-0.053615 -0.015563 -0.26315001
-0.053613 -0.015486 -0.26313901
-0.053610001 -0.01541 -0.263127
-0.053608 -0.015332 -0.26312101
-0.053605001 -0.015254 -0.26311499
-0.053603001 -0.015177 -0.26309499
-0.053599998 -0.015101 -0.26307899
-0.053596999 -0.015023 -0.26308
-0.053592999 -0.014945 -0.26310199
-0.053587999 -0.014866 -0.26313999
-0.053582001 -0.014785 -0.263188
-0.053576998 -0.014706 -0.263228
-0.053571999 -0.014627 -0.26326999
-0.053567 -0.014548 -0.263322
-0.053560998 -0.014467 -0.26336801
-0.053557001 -0.014389 -0.26339599
-0.053552002 -0.01431 -0.26342899
-0.053546999 -0.014231 -0.263457
-0.053544 -0.014151 -0.26346901
-0.053539999 -0.014075 -0.263475
-0.053536002 -0.013995 -0.26349899
-0.053530999 -0.013916 -0.26354501
-0.053525999 -0.013837 -0.263583
-0.053521 -0.013756 -0.26361701
-0.053516001 -0.013678 -0.26364899
-0.053511001 -0.013597 -0.263693
-0.053505 -0.013516 -0.263733
-0.053500999 -0.013437 -0.263758
-0.053497002 -0.013359 -0.26378
-0.053491 -0.013278 -0.26383001
-0.053486001 -0.013197 -0.26387799
-0.053481001 -0.013118 -0.26392001
-0.053474002 -0.013036 -0.26399201
-0.052917998 0.001824 -0.26318499
-0.052917 0.001898 -0.263156
-0.052914999 0.0019729999 -0.26312399
-0.052914001 0.002046 -0.26309201
-0.052912001 0.0021220001 -0.26307899
-0.052909002 0.0022 -0.263071
-0.052905999 0.0022780001 -0.263071
-0.052901 0.00236 -0.26309299
-0.052896999 0.002443 -0.26311699
-0.052893002 0.0025229999 -0.263127
-0.052891999 0.002594 -0.263089
-0.052891999 0.002665 -0.26304001
-0.052894 0.0027280001 -0.262936
-0.05291 0.002751 -0.262582
-0.052910998 0.002817 -0.26251301
-0.052912001 0.0028830001 -0.262427
-0.052912999 0.0029500001 -0.26235399
-0.052914001 0.0030159999 -0.262288
-0.052914001 0.003085 -0.26223099
-0.052914001 0.003156 -0.26217499
-0.052912999 0.0032250001 -0.26212499
-0.052912001 0.003298 -0.26209399
-0.052910998 0.0033710001 -0.26206201
-0.05291 0.0034419999 -0.26201999
-0.052908 0.003515 -0.261987
-0.052905999 0.0035890001 -0.26196501
-0.052903999 0.0036619999 -0.26194501
-0.052901998 0.0037380001 -0.26192501
-0.052900001 0.0038139999 -0.26191401
-0.052896999 0.0038920001 -0.26190799
-0.052894 0.0039670002 -0.261906
-0.052891001 0.0040449998 -0.26190999
-0.052887 0.0041260002 -0.26192001
-0.052884001 0.0042039999 -0.26191601
-0.052882001 0.0042790002 -0.26190901
-0.052878998 0.0043569999 -0.26190701
-0.052875001 0.004437 -0.26191899
-0.052871 0.0045179999 -0.26192901
-0.052868001 0.0045960001 -0.26193699
-0.052864 0.0046740002 -0.26193899
-0.052859999 0.0047539999 -0.26195499
-0.052855998 0.004836 -0.26197499
-0.052852001 0.004917 -0.261989
-0.052848998 0.0049950001 -0.261998
-0.052846 0.0050730002 -0.261996
-0.052843001 0.0051509999 -0.26199201
-0.052839998 0.005227 -0.26198599
-0.052836999 0.0053039999 -0.26198
-0.052834 0.00538 -0.26197499
-0.052832 0.0054580001 -0.26196101
-0.052831002 0.005529 -0.26192901
-0.052829001 0.0056030001 -0.26190299
-0.052827001 0.0056779999 -0.261888
-0.052823 0.0057560001 -0.26189399
-0.052820001 0.0058360002 -0.26190001
-0.052816998 0.0059119998 -0.26189399
-0.052813999 0.005988 -0.261888
-0.052811 0.0060680001 -0.261886
-0.052808002 0.0061440002 -0.26188499
-0.052804999 0.0062219999 -0.26188099
-0.052802 0.006298 -0.261875
-0.0528 0.0063729999 -0.261859
-0.052797999 0.006449 -0.261841
-0.052795999 0.0065219998 -0.26182601
-0.052793998 0.0065979999 -0.26180601
-0.052790999 0.006672 -0.261792
-0.053156 -0.025149001 -0.264025
-0.053156 -0.025069 -0.263955
-0.053156 -0.02499 -0.263881
-0.053156 -0.024909999 -0.26382101
-0.053155001 -0.024831001 -0.263769
-0.053155001 -0.024754001 -0.26371601
-0.053153999 -0.024673 -0.26366201
-0.053153999 -0.024594 -0.26360801
-0.053153001 -0.024515999 -0.263556
-0.053151999 -0.024439 -0.26351601
-0.053149998 -0.024359001 -0.26348299
-0.053149 -0.024281999 -0.26344299
-0.053148001 -0.024203001 -0.26340699
-0.053146001 -0.024124 -0.26337099
-0.053144 -0.024046 -0.26335099
-0.053142 -0.023969 -0.263331
-0.05314 -0.023891 -0.26330599
-0.053139001 -0.023814 -0.26326799
-0.053137001 -0.023735 -0.26323599
-0.053135 -0.023657 -0.26321799
-0.053132001 -0.02358 -0.263208
-0.053130001 -0.023502 -0.263197
-0.053126998 -0.023426 -0.26318499
-0.053123999 -0.023347 -0.26317501
-0.053121999 -0.023271 -0.26315501
-0.053119998 -0.023193 -0.26313701
-0.053117 -0.023116 -0.26312801
-0.053114999 -0.023038 -0.263116
-0.053112 -0.02296 -0.26310799
-0.053109001 -0.022882 -0.26310599
-0.053105999 -0.022806 -0.26310599
-0.053103 -0.022728 -0.26310399
-0.053100001 -0.022651 -0.26309699
-0.053096998 -0.022573 -0.26309499
-0.053094 -0.022495 -0.263089
-0.053091999 -0.022419 -0.26307899
-0.053089999 -0.02234 -0.26305699
-0.053087998 -0.022264 -0.26303199
-0.053086001 -0.022185 -0.26301
-0.053082999 -0.022109 -0.26300201
-0.05308 -0.022031 -0.26301
-0.053075999 -0.021954 -0.26303199
-0.053072002 -0.021876 -0.26304999
-0.053068001 -0.0218 -0.26306501
-0.053064 -0.021721 -0.26308101
-0.053059999 -0.021645 -0.26309699
-0.053057 -0.021567 -0.26310501
-0.053052999 -0.021489 -0.263109
-0.05305 -0.021411 -0.26311499
-0.053045999 -0.021335 -0.26312101
-0.053043 -0.021257 -0.26312
-0.053041 -0.021179 -0.26310399
-0.053038999 -0.021102 -0.26308399
-0.053036001 -0.021024 -0.26306999
-0.053034 -0.020948 -0.263062
-0.053031001 -0.02087 -0.26306099
-0.053027999 -0.020792 -0.26306099
-0.053025 -0.020716 -0.26305699
-0.053022001 -0.020639 -0.263051
-0.053018998 -0.020561 -0.26304099
-0.053017002 -0.020485001 -0.26303101
-0.053013999 -0.020407001 -0.26302201
-0.053011 -0.020330001 -0.26301399
-0.053009 -0.020252001 -0.26300201
-0.053006001 -0.020174 -0.26299199
-0.053004 -0.020098001 -0.26297799
-0.053002 -0.020021001 -0.26295501
-0.052999999 -0.019943999 -0.26293299
-0.052997999 -0.019866001 -0.26289901
-0.052997001 -0.019788999 -0.26286101
-0.052995 -0.019711999 -0.262831
-0.052993 -0.019636 -0.26282799
-0.052988999 -0.019557999 -0.26284599
-0.052983999 -0.019478999 -0.26288
-0.052979 -0.019401999 -0.26291001
-0.052974999 -0.019326 -0.262934
-0.052971002 -0.019247999 -0.26294801
-0.052967999 -0.019169999 -0.262952
-0.052963998 -0.019091001 -0.262959
-0.052960999 -0.019014999 -0.26297301
-0.052956998 -0.018936999 -0.26298699
-0.052953999 -0.018859001 -0.26298299
-0.052951001 -0.018782999 -0.26297301
-0.052949 -0.018705999 -0.26296201
-0.052946001 -0.018627999 -0.26294801
-0.052944001 -0.018552 -0.262936
-0.052940998 -0.018474 -0.26293799
-0.052937001 -0.018395999 -0.26294401
-0.052933998 -0.018317999 -0.26295
-0.052931 -0.018242 -0.26295701
-0.052928001 -0.018164 -0.26294899
-0.052925002 -0.018085999 -0.262941
-0.052923001 -0.018011 -0.26293099
-0.052919999 -0.017933 -0.26291901
-0.052917 -0.017855 -0.26291499
-0.052914001 -0.017779 -0.262914
-0.052910998 -0.017701 -0.26290399
-0.052909002 -0.017624 -0.26289201
-0.052905999 -0.017546 -0.26288199
-0.052903999 -0.01747 -0.26286599
-0.052903 -0.017393 -0.26282299
-0.052901998 -0.017316001 -0.262777
-0.052898999 -0.017240001 -0.262779
-0.052894 -0.017162001 -0.262815
-0.052889001 -0.017083 -0.262849
-0.052885 -0.017006001 -0.26287499
-0.052880999 -0.016928 -0.26290199
-0.052875999 -0.016849 -0.26292601
-0.052871998 -0.016771 -0.26295
-0.052868001 -0.016692 -0.26297599
-0.052864 -0.016616 -0.26299801
-0.052859999 -0.016535999 -0.26301399
-0.052855998 -0.01646 -0.26301801
-0.052854002 -0.016381999 -0.26300901
-0.052850999 -0.016303999 -0.262997
-0.052848 -0.016228 -0.26298901
-0.052845001 -0.01615 -0.262997
-0.052841 -0.016071999 -0.263017
-0.052836999 -0.015992999 -0.26304099
-0.052832998 -0.015915001 -0.26304999
-0.052829999 -0.015838999 -0.26305601
-0.052825999 -0.015760999 -0.263062
-0.052823 -0.015683001 -0.26306999
-0.052820001 -0.015605 -0.26307201
-0.052816998 -0.015527 -0.26306799
-0.052813001 -0.015451 -0.263071
-0.052811 -0.015373 -0.26306701
-0.052808002 -0.015295 -0.26304901
-0.052806001 -0.015218 -0.263035
-0.052804001 -0.015142 -0.263019
-0.052801002 -0.015064 -0.26301101
-0.052795999 -0.014986 -0.26303801
-0.052790999 -0.014907 -0.26308599
-0.052786 -0.014826 -0.26313001
-0.052779999 -0.014747 -0.263174
-0.052774999 -0.014668 -0.26322001
-0.05277 -0.014589 -0.26325199
-0.052765001 -0.014511 -0.26328599
-0.052761 -0.01443 -0.26331401
-0.052756999 -0.014352 -0.263338
-0.052751999 -0.014273 -0.26336399
-0.052747998 -0.014195 -0.26339099
-0.052744001 -0.014116 -0.26340899
-0.05274 -0.014038 -0.263421
-0.052735001 -0.013957 -0.26345101
-0.052730002 -0.013878 -0.26350099
-0.052724998 -0.013797 -0.26354501
-0.052719001 -0.013719 -0.263585
-0.052714001 -0.013638 -0.263625
-0.052708998 -0.013559 -0.263661
-0.052703999 -0.013478 -0.263699
-0.052700002 -0.0134 -0.26372901
-0.052694999 -0.013321 -0.26375601
-0.052691001 -0.013241 -0.263776
-0.052687 -0.013162 -0.2638
-0.052682001 -0.013081 -0.26383999
-0.052673999 -0.012997 -0.26394001
-0.052127998 0.001554 -0.26316899
-0.052127998 0.001623 -0.26311299
-0.052127 0.001696 -0.26306999
-0.052127 0.001767 -0.263024
-0.052124999 0.00184 -0.26299
-0.052124001 0.001916 -0.26295999
-0.052122001 0.001989 -0.26293099
-0.05212 0.0020649999 -0.26291099
-0.052118 0.00214 -0.262903
-0.052113999 0.0022179999 -0.262903
-0.052111 0.002298 -0.262909
-0.052106 0.002383 -0.26294699
-0.052101001 0.0024659999 -0.262981
-0.052097 0.0025460001 -0.26298401
-0.052095 0.0026219999 -0.26297599
-0.052090999 0.0027020001 -0.26298401
-0.052111998 0.0027119999 -0.26254001
-0.052110001 0.002786 -0.262514
-0.052111 0.0028520001 -0.262445
-0.052113 0.0029160001 -0.26234901
-0.052113999 0.0029819999 -0.26228201
-0.052113999 0.0030509999 -0.26222199
-0.052113 0.003122 -0.26217699
-0.052111998 0.0031930001 -0.26213101
-0.052111998 0.0032639999 -0.26208499
-0.052111 0.003335 -0.26203999
-0.052110001 0.0034060001 -0.26200399
-0.052108001 0.003482 -0.261978
-0.052106999 0.003553 -0.261949
-0.052104998 0.0036279999 -0.26192901
-0.052103002 0.003704 -0.26190901
-0.052101001 0.0037769999 -0.26188901
-0.052097999 0.003853 -0.26188001
-0.052095 0.0039309999 -0.26187399
-0.052092001 0.004007 -0.26187
-0.052088998 0.0040850001 -0.26187
-0.052085999 0.0041629998 -0.26187
-0.052083001 0.0042409999 -0.26186699
-0.052080002 0.0043190001 -0.26186901
-0.052076001 0.0043970002 -0.261877
-0.052073002 0.0044769999 -0.261877
-0.052071001 0.004553 -0.26187101
-0.052067 0.0046310001 -0.261875
-0.052064002 0.0047109998 -0.26188499
-0.052060001 0.0047909999 -0.26189399
-0.052056 0.0048690001 -0.261902
-0.052053001 0.0049490002 -0.26190799
-0.052049998 0.0050269999 -0.26190999
-0.052046999 0.005103 -0.26189601
-0.052044999 0.0051770001 -0.26188001
-0.052042 0.005254 -0.261875
-0.05204 0.0053300001 -0.26186699
-0.052037001 0.0054080002 -0.261859
-0.052034002 0.0054839998 -0.26185301
-0.052032001 0.0055570002 -0.26183301
-0.052030001 0.0056329998 -0.26181
-0.052028 0.0057080002 -0.26179999
-0.052023999 0.0057859998 -0.26180199
-0.052021999 0.0058639999 -0.26179799
-0.052019 0.0059400001 -0.261792
-0.052016001 0.0060180002 -0.26178899
-0.052012999 0.0060939998 -0.261785
-0.05201 0.006172 -0.26177701
-0.052007999 0.0062480001 -0.261769
-0.052005 0.006323 -0.26176101
-0.051746 -0.024195001 -0.26343101
-0.051745001 -0.024117 -0.26339599
-0.051743001 -0.024038 -0.26336601
-0.051741 -0.023961 -0.263338
-0.051739998 -0.023883 -0.26330999
-0.051736999 -0.023804 -0.26328799
-0.051736001 -0.023727 -0.26326001
-0.051734 -0.023649 -0.263235
-0.051732 -0.023572 -0.26320899
-0.051729999 -0.023494 -0.26318499
-0.051727001 -0.023417 -0.26317099
-0.051725 -0.023339 -0.26316699
-0.051722001 -0.023260999 -0.26316601
-0.051718999 -0.023182999 -0.263154
-0.051716998 -0.023105999 -0.263136
-0.051713999 -0.023027999 -0.263136
-0.051709998 -0.022950999 -0.26314801
-0.051707 -0.022872999 -0.26315001
-0.051704001 -0.022795999 -0.263145
-0.051701002 -0.02272 -0.26314101
-0.051697999 -0.022642 -0.26313901
-0.051695 -0.022564 -0.263145
-0.051690999 -0.022488 -0.26315501
-0.051688001 -0.022409 -0.263163
-0.051684 -0.022330999 -0.263174
-0.051679999 -0.022255 -0.26318401
-0.051677 -0.022177 -0.26318401
-0.051674001 -0.022098999 -0.263188
-0.051670998 -0.022023 -0.263192
-0.051667001 -0.021945 -0.26319399
-0.051663999 -0.021867 -0.26319301
-0.051662002 -0.021788999 -0.26317301
-0.051660001 -0.021712 -0.26315501
-0.051656999 -0.021633999 -0.263161
-0.051653001 -0.021558 -0.26316899
-0.051649999 -0.02148 -0.26317301
-0.051647 -0.021402 -0.26317
-0.051645 -0.021323999 -0.26314801
-0.051642999 -0.021247 -0.26312599
-0.05164 -0.021171 -0.263118
-0.051637001 -0.021090999 -0.26310799
-0.051635999 -0.021016 -0.26308501
-0.051633 -0.020938 -0.263073
-0.051630002 -0.02086 -0.26307699
-0.051626001 -0.020784 -0.26308501
-0.051623002 -0.020706 -0.26308501
-0.051619999 -0.020628 -0.26307899
-0.051617999 -0.02055 -0.26307201
-0.051614001 -0.020471999 -0.26307401
-0.051610999 -0.020396 -0.263078
-0.051608 -0.020318 -0.26308
-0.051605001 -0.02024 -0.263082
-0.051601 -0.020164 -0.26308399
-0.051598001 -0.020086 -0.263089
-0.051594999 -0.020008 -0.26308501
-0.051592 -0.019929999 -0.26308501
-0.051589001 -0.019854 -0.26308501
-0.051585998 -0.019776 -0.26308301
-0.051583 -0.019699 -0.26308301
-0.051580001 -0.019623 -0.26308
-0.051577002 -0.019545 -0.26307201
-0.051573999 -0.019467 -0.26306599
-0.051571999 -0.019389 -0.263046
-0.051569998 -0.019312 -0.26302201
-0.051566999 -0.019236 -0.26302299
-0.051564001 -0.019158 -0.26303101
-0.051561002 -0.01908 -0.263033
-0.051557999 -0.019004 -0.26302499
-0.051555 -0.018926 -0.26302099
-0.051552001 -0.018849 -0.26300901
-0.051550001 -0.018771 -0.26300201
-0.051546998 -0.018693 -0.26300001
-0.051545002 -0.018617 -0.26297599
-0.051543001 -0.018540001 -0.26295599
-0.051539999 -0.018462 -0.26295599
-0.051536001 -0.018384 -0.262963
-0.051532999 -0.018308001 -0.26296499
-0.05153 -0.018230001 -0.26296499
-0.051525999 -0.018152 -0.26297101
-0.051523 -0.018076001 -0.26297101
-0.051520001 -0.017998001 -0.262977
-0.051516 -0.017919 -0.26299399
-0.051511999 -0.017841 -0.26301
-0.051509 -0.017763 -0.26301599
-0.051506002 -0.017687 -0.26301399
-0.051502999 -0.017609 -0.26301199
-0.051499002 -0.017531 -0.26301599
-0.051495999 -0.017455 -0.26302099
-0.051493 -0.017377 -0.26302499
-0.051488999 -0.017299 -0.263035
-0.051486 -0.017221 -0.26303899
-0.051483002 -0.017143 -0.26303101
-0.051481001 -0.017067 -0.263019
-0.051477998 -0.016989 -0.26301801
-0.051474001 -0.016911 -0.263026
-0.05147 -0.016833 -0.26303801
-0.051467001 -0.016757 -0.263044
-0.051463999 -0.016679 -0.263046
-0.051461 -0.016601 -0.26304799
-0.051458001 -0.016523 -0.26304701
-0.051454999 -0.016445 -0.263035
-0.051452 -0.016369 -0.26302701
-0.051449999 -0.016292 -0.26302099
-0.051447 -0.016214 -0.26300299
-0.051444001 -0.016138 -0.26300499
-0.051440001 -0.01606 -0.263026
-0.051436 -0.015981 -0.263046
-0.051431999 -0.015903 -0.26305601
-0.051429 -0.015825 -0.26306999
-0.051424999 -0.015747 -0.26308599
-0.051421002 -0.015667999 -0.26310399
-0.051417001 -0.01559 -0.263118
-0.051413 -0.015512 -0.26313901
-0.051408 -0.015433 -0.26316699
-0.051403999 -0.015354 -0.26319301
-0.051399998 -0.015276 -0.26321301
-0.051396001 -0.015198 -0.26322901
-0.051392 -0.015119 -0.26324701
-0.051387999 -0.015041 -0.26326299
-0.051383998 -0.014963 -0.263273
-0.051380999 -0.014885 -0.263282
-0.051376998 -0.014807 -0.26328999
-0.051374 -0.014731 -0.26329601
-0.051371001 -0.01465 -0.263298
-0.051368002 -0.014575 -0.263298
-0.051364001 -0.014494 -0.26330999
-0.051359002 -0.014416 -0.263336
-0.051355001 -0.014337 -0.26336899
-0.051350001 -0.014259 -0.26339701
-0.051346 -0.01418 -0.26341301
-0.051343001 -0.014102 -0.263421
-0.051339 -0.014024 -0.263437
-0.051332999 -0.013943 -0.26348501
-0.051328 -0.013862 -0.263531
-0.051323 -0.013783 -0.26357299
-0.051316999 -0.013702 -0.263623
-0.051312 -0.013623 -0.26366699
-0.051306002 -0.013542 -0.263715
-0.0513 -0.013461 -0.26377201
-0.050737999 0.001754 -0.26279899
-0.050737999 0.001825 -0.26273301
-0.050737999 0.001896 -0.26268399
-0.050737999 0.0019640001 -0.26262999
-0.050737001 0.0020349999 -0.26257899
-0.050737001 0.002106 -0.26253501
-0.050735999 0.002177 -0.26248699
-0.050735001 0.0022499999 -0.26244599
-0.050733998 0.002321 -0.26240599
-0.050733998 0.0023920001 -0.262362
-0.050733 0.0024629999 -0.262321
-0.050732002 0.002536 -0.262279
-0.050731 0.0026080001 -0.262243
-0.050730001 0.0026809999 -0.2622
-0.050728999 0.002752 -0.26216599
-0.050726999 0.0028250001 -0.26213601
