-0.00550684 -0.161884 0.986794 0.0131616
-0.00192579 -0.160286 0.987069 0.00547285
-0.000789041 -0.162908 0.986641 0
0.000135894 -0.162394 0.986726 0
0.00125953 -0.162428 0.98672 0
0.00195151 -0.161549 0.986863 0
0.00265166 -0.153482 0.988148 0
0.00393279 -0.151479 0.988453 0
0.00470395 -0.150533 0.988594 0
0.00433203 -0.153197 0.988186 0
0.00420104 -0.148385 0.988921 0
0.00383794 -0.145227 0.989391 0
0.00338975 -0.149881 0.988698 0
0.00358497 -0.144845 0.989448 0
0.00340666 -0.139782 0.990176 0
0.00198614 -0.136892 0.990584 0
-0.0459096 -0.131137 0.990301 0
-0.0466167 -0.127832 0.9907 0
-0.0482814 -0.134574 0.989727 0
-0.0495743 -0.131672 0.990053 0
-0.0504208 -0.130572 0.990156 0
-0.0506686 -0.137379 0.989222 0
-0.0517088 -0.136237 0.989326 0
-0.0559596 -0.132689 0.989577 0.0121246
0.176605 -0.273775 0.945441 0.0160299
0.185542 -0.276665 0.942884 0.0212169
-0.128204 -0.210248 0.969206 0
-0.123644 -0.20777 0.970332 0
-0.118836 -0.205077 0.971505 0
-0.11622 -0.201857 0.972495 0.0039441
-0.112805 -0.202 0.972867 0.0026824
-0.108661 -0.205521 0.972602 0.0049675
-0.106694 -0.205518 0.97282 0.00930151
-0.104449 -0.206906 0.972769 0.0094356
-0.0984835 -0.203792 0.974048 0.0150695
-0.000464806 -0.15321 0.988194 0.00617531
0.000629729 -0.156954 0.987606 0.000629133
0.00221425 -0.155838 0.98778 0
0.00265146 -0.152182 0.988349 0
0.00327714 -0.153189 0.988191 0
0.00367178 -0.150313 0.988632 0
0.0042869 -0.149978 0.98868 0
0.00563696 -0.137863 0.990435 0
0.00600726 -0.142469 0.989781 0
0.00574709 -0.138572 0.990336 0
0.00525791 -0.136389 0.990641 0
0.0046761 -0.141908 0.989869 0
0.00418399 -0.142694 0.989758 0
0.00450535 -0.139287 0.990242 0
0.00470362 -0.128592 0.991686 0
0.00300957 -0.126623 0.991946 0
-0.019021 -0.120785 0.992496 0.00504317
-0.044744 -0.124938 0.991155 0.00921401
-0.0458433 -0.125678 0.991011 0.0109239
-0.046042 -0.123796 0.991239 0
-0.0470734 -0.124441 0.99111 0
-0.0484311 -0.13472 0.989699 0
-0.0499995 -0.132383 0.989937 0
-0.0508853 -0.1356 0.989456 0
-0.0516997 -0.138892 0.988957 0
-0.0526415 -0.138148 0.989012 0
0.176744 -0.268792 0.946844 0.0205124
0.184489 -0.271868 0.944485 0.0231789
0.18631 -0.270071 0.944643 0.0197282
-0.127405 -0.200802 0.971312 0.000960533
-0.121895 -0.199446 0.972298 0
-0.117407 -0.19797 0.973151 0
-0.115614 -0.203186 0.97229 0
-0.11271 -0.202461 0.972783 0
0.00253217 -0.148502 0.988909 0
0.00390323 -0.146152 0.989255 0
0.0042981 -0.146992 0.989128 0
0.00483328 -0.149143 0.988804 0
0.00529811 -0.145303 0.989373 0
0.00583265 -0.143326 0.989658 0
0.00657892 -0.135199 0.990797 0
0.00727328 -0.131599 0.991276 0
0.00698491 -0.130921 0.991368 0
0.00639116 -0.125301 0.992098 0
0.00582382 -0.127721 0.991793 0
0.00512962 -0.131984 0.991239 0
0.00564904 -0.128915 0.99164 0
0.00555777 -0.12426 0.992234 0
0.00530145 -0.123324 0.992352 0
0.00408426 -0.120182 0.992743 0
0.00298849 -0.119217 0.992864 0
-0.0402068 -0.117212 0.992293 0.00452691
-0.0454771 -0.120639 0.991654 0.012434
-0.0461871 -0.120963 0.991582 0.0127269
-0.0465276 -0.121968 0.991443 0.00335084
-0.0470271 -0.121566 0.991469 0
-0.0473538 -0.121277 0.991489 0
-0.0489941 -0.128411 0.99051 0
-0.0508117 -0.126964 0.990605 0
-0.0517782 -0.130169 0.990139 0
-0.0523548 -0.132181 0.989842 0
-0.0533613 -0.127394 0.990416 0
0.18245 -0.256716 0.94911 0.0230684
-0.1314 -0.199486 0.971051 0.0112434
-0.117819 -0.191992 0.974299 0
0.00524757 -0.138296 0.990377 0
0.00551512 -0.140609 0.99005 0
0.00648773 -0.133313 0.991053 0
0.00688161 -0.131334 0.991314 0
0.00750857 -0.135689 0.990723 0
0.0076914 -0.129312 0.991574 0
0.00839398 -0.124708 0.992158 0
0.0080636 -0.12573 0.992032 0
0.00731378 -0.126182 0.99198 0
0.00668576 -0.127448 0.991823 0
0.00630621 -0.127747 0.991787 0
0.00623546 -0.124321 0.992222 0
0.00612347 -0.124676 0.992179 0
0.00625844 -0.122546 0.992443 0
0.00518449 -0.11872 0.992914 0
0.0040609 -0.116244 0.993212 0
0.00256033 -0.116866 0.993144 0
0.00138596 -0.113301 0.99356 0
-0.006102 -0.114531 0.993401 0
-0.00797212 -0.119373 0.992817 0
-0.0219592 -0.117126 0.992874 0.000514255
-0.0403257 -0.114454 0.99261 0
-0.0454716 -0.114468 0.992386 0.0146303
-0.0464122 -0.114265 0.992365 0.0106585
-0.0472689 -0.113925 0.992364 0.00822916
-0.0473273 -0.117452 0.99195 0
-0.0478555 -0.118335 0.99182 0
-0.0498263 -0.127722 0.990558 0
-0.0512522 -0.1222 0.991181 0
-0.0522301 -0.121591 0.991205 0
-0.0526907 -0.117849 0.991633 0
0.190534 -0.254678 0.94807 0.0219118
-0.145382 -0.195017 0.969965 0.015578
-0.131678 -0.194614 0.972001 0.0155317
0.00724562 -0.137145 0.990524 0
0.00822403 -0.126005 0.991996 0
0.00900268 -0.127736 0.991767 0
0.00903731 -0.120149 0.992715 0
0.0089902 -0.120108 0.99272 0
0.0086652 -0.123011 0.992367 0
0.00834977 -0.118683 0.992897 0
0.00792943 -0.121645 0.992542 0
0.00729302 -0.122085 0.992493 0
0.00721244 -0.120508 0.992686 0
0.00700731 -0.119624 0.992795 0
0.00702247 -0.119227 0.992842 0
0.00634637 -0.120727 0.992665 0
0.00535145 -0.113082 0.993571 0
0.00186144 -0.111695 0.993741 0
-0.00170053 -0.108661 0.994077 0.00466555
-0.00576616 -0.112919 0.993587 0
-0.00782616 -0.113702 0.993484 0
-0.00916304 -0.112667 0.993591 0
-0.0170039 -0.118597 0.992797 0
-0.0179195 -0.11624 0.99306 0
-0.0192624 -0.115169 0.993159 0
-0.0360237 -0.112115 0.993042 0
-0.0405381 -0.109961 0.993109 0
-0.0454034 -0.107332 0.993186 0.00952958
-0.0466605 -0.109368 0.992905 0.0125775
-0.0471289 -0.112314 0.992554 0.00573331
-0.0480622 -0.113193 0.99241 0.00609425
-0.0488476 -0.115536 0.992101 0.00621476
-0.0505183 -0.120023 0.991485 0
-0.0518277 -0.119112 0.991527 0
-0.0528823 -0.112646 0.992227 0
-0.0530409 -0.113862 0.99208 0
0.188492 -0.246059 0.95075 0.0230628
0.203775 -0.249693 0.946641 0.0207595
-0.146635 -0.192044 0.97037 0.0205524
0.00928376 -0.118014 0.992968 8.27667e-05
0.0102771 -0.113569 0.993477 0
0.0102641 -0.114155 0.99341 0
0.0101162 -0.115417 0.993266 0
0.00991498 -0.115479 0.99326 0
0.00935637 -0.116319 0.993168 0
0.00870855 -0.115669 0.99325 0
0.0082095 -0.116872 0.993113 0
0.0079756 -0.118576 0.992913 0
0.00784979 -0.118632 0.992907 0
0.00734002 -0.122398 0.992454 0
0.00658028 -0.119142 0.992855 0
0.00491769 -0.114776 0.993379 0
-0.000671857 -0.109268 0.994012 0
-0.00201778 -0.10311 0.994668 0.00157265
-0.00575767 -0.110894 0.993816 0.00543972
-0.00907363 -0.103356 0.994603 0
-0.0140612 -0.10947 0.993891 0
-0.017244 -0.112016 0.993557 0
-0.0178739 -0.111851 0.993564 0
-0.0193045 -0.114581 0.993226 0
-0.0221696 -0.114613 0.993163 0
-0.0332284 -0.105705 0.993842 0
-0.0362588 -0.110273 0.99324 0
-0.0405302 -0.103384 0.993815 0
-0.0462882 -0.101985 0.993708 0.0138235
-0.0478099 -0.103856 0.993443 0.0191212
-0.0479975 -0.104913 0.993322 0.0133805
-0.0496169 -0.106334 0.993092 0.0198577
-0.0509393 -0.107992 0.992846 0
-0.0518178 -0.110987 0.99247 0
-0.0531325 -0.109498 0.992566 0
-0.0534374 -0.11272 0.992189 0
0.198811 -0.240098 0.950172 0.0195255
0.205846 -0.239601 0.948799 0.0149223
-0.156223 -0.189548 0.969364 0.0246683
-0.14804 -0.187262 0.971091 0.0271797
0.0106735 -0.11385 0.993441 0
0.0114686 -0.108064 0.994078 0.000386652
0.0113155 -0.107532 0.994137 0
0.0109398 -0.110284 0.99384 0
0.0106351 -0.114072 0.993416 0
0.0099406 -0.110703 0.993804 0
0.00949385 -0.109671 0.993923 0
0.00908777 -0.11048 0.993837 0
0.00866951 -0.111481 0.993729 0
0.00851317 -0.113525 0.993499 0
0.00810591 -0.114237 0.99342 0
0.00717724 -0.1139 0.993466 0
0.00547179 -0.111457 0.993754 0
0.00358254 -0.110134 0.99391 0
0.00250145 -0.105095 0.994459 0
-0.000399085 -0.0989649 0.995091 0
-0.00170395 -0.102238 0.994758 0.00587075
-0.00314867 -0.101483 0.994832 0.00756087
-0.00550958 -0.097399 0.99523 0
-0.00730584 -0.0985392 0.995106 0.000479561
-0.00899484 -0.0962552 0.995316 0
-0.0126007 -0.0963196 0.995271 0
-0.0140913 -0.10396 0.994482 0
-0.0152971 -0.104595 0.994397 0
-0.017025 -0.1018 0.994659 0
-0.0178985 -0.101996 0.994624 0
-0.0192317 -0.103211 0.994474 0
-0.0221896 -0.109363 0.993754 0
-0.0277922 -0.111059 0.993425 0
-0.0317812 -0.108196 0.993621 0
-0.0336047 -0.109959 0.993368 0
-0.0364552 -0.104416 0.993865 0
-0.0410651 -0.101543 0.993983 0.00166554
-0.0467991 -0.0977885 0.994106 0.0188955
-0.0478681 -0.104083 0.993416 0.0167276
-0.0488704 -0.102121 0.993571 0.0193517
0.19716 -0.231769 0.952581 0.0192788
0.207246 -0.233269 0.950071 0.0170926
-0.155029 -0.184069 0.97061 0.0255891
-0.14544 -0.18037 0.972787 0.0261754
0.0121402 -0.104021 0.994501 0
0.0118158 -0.101077 0.994808 0
0.0115179 -0.103882 0.994523 0
0.0108601 -0.103938 0.994524 0
0.0109183 -0.103712 0.994547 0
0.00981705 -0.10248 0.994687 0
0.00944794 -0.109245 0.99397 0
0.00913954 -0.111291 0.993746 0
0.0087053 -0.112295 0.993637 0
0.00768085 -0.107993 0.994122 0
0.00589069 -0.102307 0.994735 0
0.00393485 -0.0990203 0.995078 0
0.00283405 -0.0982956 0.995153 0
0.000213266 -0.0957136 0.995409 0
-0.00150509 -0.0925606 0.995706 0.00358806
-0.00319176 -0.0928195 0.995678 0.0048838
-0.00441873 -0.0919177 0.995757 0.00748293
-0.005665 -0.0897379 0.995949 0.00213992
-0.0072355 -0.0875122 0.996137 0
-0.0087533 -0.082243 0.996574 0
-0.0113783 -0.0907402 0.99581 0
-0.0138306 -0.0937935 0.995496 0
-0.015151 -0.09312 0.99554 0
-0.0165767 -0.0992242 0.994927 0
-0.0176241 -0.102887 0.994537 0
-0.0192965 -0.0991153 0.994889 0
-0.0222466 -0.0967467 0.99506 0
-0.0279298 -0.10738 0.993826 0
-0.0321012 -0.106846 0.993757 0
-0.0337853 -0.106316 0.993758 0
-0.0367713 -0.105182 0.993773 0
-0.041282 -0.096829 0.994445 0
-0.0461075 -0.0957679 0.994335 0.0154156
0.1909 -0.221737 0.956237 0.0146764
0.205357 -0.228411 0.95166 0.016922
0.207344 -0.23202 0.950355 0.0100978
-0.157156 -0.169893 0.972851 0.0213367
-0.151165 -0.177058 0.972522 0.0219132
-0.143388 -0.17567 0.973951 0.0247851
0.0128454 -0.0987851 0.995026 0
0.0127282 -0.0987722 0.995029 0
0.0124335 -0.0954754 0.995354 0
0.0116921 -0.0959577 0.995317 0
0.01124 -0.0979537 0.995128 0
0.00967072 -0.10588 0.994332 0
0.00972571 -0.103999 0.99453 0
0.00914536 -0.104507 0.994482 0
0.00703462 -0.0937541 0.995571 0
0.0047941 -0.0892611 0.995997 0
0.00284783 -0.0907889 0.995866 0
0.00143262 -0.0929212 0.995672 0
-0.00105351 -0.0881419 0.996107 0
-0.00294329 -0.0836455 0.996491 0.0015764
-0.00443305 -0.085265 0.996348 0.000710401
-0.00570639 -0.0822088 0.996599 0
-0.0070787 -0.0819184 0.996614 0
-0.00871771 -0.0850285 0.99634 0
-0.010438 -0.0908245 0.995812 0
-0.0133125 -0.0893274 0.995913 0
-0.0151204 -0.0869025 0.996102 0
-0.0166477 -0.0966365 0.99518 0
-0.0177037 -0.100679 0.994761 0
-0.0193459 -0.0974674 0.995051 0
-0.02256 -0.095892 0.995136 0
-0.0281203 -0.102866 0.994298 0
-0.0320513 -0.100037 0.994467 0
-0.0339043 -0.102722 0.994132 0
-0.0368544 -0.103018 0.993997 0
-0.0414477 -0.0932869 0.994776 0
-0.0457054 -0.0870175 0.995158 0.0089762
0.201788 -0.225865 0.95303 0.010692
0.210084 -0.224025 0.951671 0.0137257
0.222266 -0.225427 0.948567 0.0182761
-0.155543 -0.164931 0.973963 0.0206833
0.0134351 -0.093388 0.995539 0
0.0131291 -0.0916731 0.995703 0
0.0121555 -0.0941377 0.995485 0
0.0107612 -0.0917949 0.99572 0
0.00947299 -0.0975713 0.995183 0
0.00482649 -0.0870384 0.996193 0
0.00278883 -0.0873346 0.996175 0
0.00122575 -0.0812868 0.99669 0
-0.000941745 -0.0780803 0.996947 0.00268116
-0.00312479 -0.0794851 0.996831 0.00316133
-0.00480513 -0.0761327 0.997086 0.00585345
-0.00586142 -0.07899 0.996858 0
-0.00711969 -0.078736 0.99687 0.0030571
-0.00884679 -0.0804551 0.996719 0.00465511
-0.0105766 -0.0849684 0.996328 0
-0.013386 -0.0815218 0.996582 0
-0.0154022 -0.0827679 0.99645 0
-0.0166102 -0.0855665 0.996194 0
-0.0178931 -0.0925011 0.995552 0
-0.0195616 -0.0984414 0.994951 0
-0.0228266 -0.0927896 0.995424 0
-0.0283948 -0.0995189 0.99463 0
-0.0317967 -0.0947482 0.994993 0
-0.0337789 -0.0985656 0.994557 0
-0.0368254 -0.0962746 0.994673 0
0.208693 -0.211785 0.954774 0.0138559
0.216799 -0.216399 0.95193 0.0139054
-0.167874 -0.162802 0.972273 0.0245743
-0.160062 -0.15885 0.974242 0.0219145
-0.155516 -0.159061 0.974943 0.0243132
0.0142537 -0.0859834 0.996195 0
0.00491056 -0.0814954 0.996662 0
0.00300755 -0.077434 0.996993 0
0.00141476 -0.0777432 0.996972 0
-0.000960917 -0.0795286 0.996832 0.00336406
-0.0026204 -0.0753214 0.997156 0.00320341
-0.00466475 -0.0715084 0.997429 0.00444929
-0.00618077 -0.0678519 0.997676 0.0101972
-0.0105687 -0.0746606 0.997153 0.00188783
-0.0123172 -0.0807863 0.996655 0
-0.0146764 -0.0848895 0.996282 0.000670312
-0.0168476 -0.0844004 0.996289 0
-0.018224 -0.0895342 0.995817 0
-0.0198029 -0.0927786 0.99549 0
-0.0232004 -0.0894463 0.995721 0
-0.0283 -0.0921134 0.995346 0
-0.0321603 -0.0920603 0.995234 0.00069186
-0.0334474 -0.0920462 0.995193 0.00151685
-0.0374665 -0.0889092 0.995335 0.0110166
0.21641 -0.210357 0.953371 0.0158623
-0.183414 -0.163991 0.969261 0.0270378
-0.17415 -0.157063 0.972113 0.0302378
-0.171789 -0.157282 0.972497 0.0336335
-0.156848 -0.152602 0.975762 0.0176317
-0.150956 -0.153002 0.976628 0.0175133
0.00767474 -0.0758627 0.997089 0
0.00526638 -0.0734518 0.997285 0
0.00321077 -0.0751896 0.997164 0
0.00124577 -0.0743583 0.997231 0
-0.00104844 -0.0753294 0.997158 0
-0.00267831 -0.0766196 0.997057 0.000250518
-0.00478923 -0.0693861 0.997578 0.00212188
-0.00610227 -0.0671088 0.997727 0.0110079
-0.00923892 -0.0703833 0.997477 0.00730038
-0.0108429 -0.0750572 0.99712 0.00185962
-0.0126422 -0.0735843 0.997209 0
-0.0150587 -0.0845679 0.996304 0
-0.0171497 -0.0828339 0.996416 0
-0.0179841 -0.0858092 0.996149 0
-0.0209643 -0.0861576 0.996061 0
-0.0287034 -0.0904276 0.995489 0
-0.0325151 -0.0898403 0.995425 0
-0.0372337 -0.0880167 0.995423 0.00740385
0.226834 -0.203529 0.95243 0.0136694
-0.182528 -0.149762 0.971728 0.0165396
-0.181781 -0.155405 0.970981 0.0242681
-0.174896 -0.152596 0.97269 0.02413
-0.173892 -0.152773 0.972842 0.0286664
-0.167083 -0.147998 0.974772 0.0287489
-0.156504 -0.145918 0.976839 0.020138
0.00784293 -0.0755803 0.997109 0
0.00598657 -0.0712376 0.997441 0
0.00307743 -0.0664177 0.997787 0
0.00114275 -0.0649414 0.997888 0
-0.00104812 -0.0672027 0.997739 0
-0.00276676 -0.0643729 0.997922 0
-0.00491591 -0.0659577 0.99781 0.00012815
-0.00604271 -0.0681014 0.99766 0.00727418
-0.00772409 -0.0681 0.997649 0.00481504
-0.00922818 -0.0672329 0.997695 0.00451863
-0.0113176 -0.066676 0.99771 0.00926462
-0.013361 -0.0674352 0.997634 0.00644988
-0.0154941 -0.0664123 0.997672 0
-0.0174273 -0.0671334 0.997592 0
-0.0208637 -0.0808907 0.996505 0
-0.0210372 -0.0731669 0.997098 0
-0.029056 -0.087046 0.99578 0
-0.0320832 -0.0779136 0.996444 0.00205898
0.224711 -0.191562 0.95541 0.0164515
-0.176687 -0.142132 0.973951 0.0101812
-0.178104 -0.145303 0.973224 0.0226757
-0.17579 -0.147993 0.97324 0.0273296
-0.171863 -0.14386 0.97456 0.029531
-0.157538 -0.140628 0.977449 0.0219918
0.00625132 -0.0687208 0.997616 0
0.00279654 -0.0629858 0.998011 0
0.00095701 -0.0556631 0.998449 0.000377372
-0.000583669 -0.0595254 0.998227 0
-0.00294739 -0.0594307 0.998228 0
-0.00521775 -0.0578042 0.998314 0.00452219
-0.00812664 -0.0593884 0.998202 0.00474677
-0.00965665 -0.062842 0.997977 0.00930844
-0.0114943 -0.0603047 0.998114 0.00991695
-0.0134291 -0.0613976 0.998023 0
-0.0173529 -0.0667589 0.997618 0
-0.0320675 -0.0753595 0.996641 0
0.226934 -0.185526 0.956076 0.0197333
-0.188165 -0.136811 0.972562 0.024143
-0.177718 -0.134912 0.97479 0.015165
-0.176105 -0.135827 0.974955 0.024586
0.00368779 -0.0559906 0.998424 0
0.00041173 -0.0515285 0.998671 0
-0.00375652 -0.0551932 0.998469 0.00336269
-0.00533185 -0.056497 0.998389 0.0039455
-0.0102212 -0.0547395 0.998448 0.0193905
0.232465 -0.17826 0.956129 0.0281262
-0.198639 -0.123639 0.972243 0.0328487
-0.193313 -0.126709 0.972921 0.02969
-0.184259 -0.126239 0.974737 0.0223298
0.00364753 -0.0570675 0.998364 0
0.0013802 -0.0517208 0.998661 0
-0.194139 -0.115473 0.974154 0.0294682
-0.189653 -0.11583 0.974995 0.0270455
-0.185924 -0.118343 0.975411 0.0277978
-0.19319 -0.104799 0.975549 0.0223087
-0.187531 -0.105826 0.976541 0.019487
-0.186159 -0.109212 0.976431 0.0223289
0.245645 -0.155739 0.956767 0.028212
0.257852 -0.159039 0.953005 0.0308769
-0.19297 -0.0929343 0.976794 0.0260631
-0.188746 -0.0947788 0.977441 0.0258582
0.241485 -0.148254 0.959013 0.0307264
0.249112 -0.151674 0.956524 0.0283194
0.24867 -0.150634 0.956803 0.0223373
-0.203299 -0.0873578 0.975212 0.0268348
-0.194801 -0.0860619 0.97706 0.0231308
-0.189292 -0.0836256 0.978353 0.0206234
0.235509 -0.135063 0.962441 0.0311217
0.243361 -0.142064 0.959475 0.0288957
0.244701 -0.145134 0.958675 0.0210126
-0.200162 -0.0767061 0.976755 0.0244296
-0.190496 -0.0750199 0.978817 0.019083
-0.186624 -0.0719675 0.979792 0.0193465
0.236086 -0.136355 0.962118 0.0245877
0.240655 -0.138192 0.960723 0.0207018
-0.201073 -0.0650319 0.977415 0.0292516
-0.191206 -0.0659298 0.979333 0.0223365
0.242752 -0.135317 0.960604 0.0224969
-0.201976 -0.0566228 0.977752 0.033312
-0.192286 -0.0599956 0.979503 0.0261315
-0.19449 -0.0532236 0.979459 0.0313147
-0.203491 -0.0521255 0.977688 0.0130694
-0.203549 -0.0513966 0.977715 0.0253794
0.237561 -0.115153 0.964523 0.0128189
-0.207721 -0.0446526 0.977169 0.0234906
-0.198819 -0.0459283 0.978959 0.0197149
0.233548 -0.107334 0.966403 0.0139063
-0.204023 -0.0390968 0.978185 0.0206792
-0.200195 -0.0386776 0.978992 0.0253447
0.233443 -0.106646 0.966505 0.0150192
-0.206603 -0.0336347 0.977847 0.0289923
-0.201457 -0.0313654 0.978995 0.0230123
-0.203899 -0.0220286 0.978744 0.0337681
0.246216 -0.0816462 0.96577 0.0253785
-0.200574 -0.0155039 0.979556 0.0324622
0.24387 -0.0765304 0.966784 0.0252616
-0.200056 -0.0086021 0.979747 0.0356333
0.24446 -0.0708901 0.967064 0.0283511
0.246844 -0.0690413 0.966593 0.0255616
0.237474 -0.0663761 0.969124 0.0219174
0.246972 -0.0666745 0.966726 0.0263763
0.245464 -0.0578188 0.96768 0.0283403
-0.194831 0.00505652 0.980824 0.0250714
0.242581 -0.0519666 0.968738 0.0280388
0.246697 -0.0566569 0.967435 0.0248777
-0.193694 0.0117791 0.980991 0.0198333
-0.191155 0.0122513 0.981484 0.0238456
0.244306 -0.0516405 0.968322 0.0257523
-0.190698 0.0119702 0.981576 0.0176032
-0.185947 0.0181545 0.982392 0.0187933
0.241099 -0.0464778 0.969387 0.0229586
-0.188989 0.0208509 0.981758 0.0185995
-0.187295 0.0232527 0.982028 0.0244935
0.241188 -0.0398518 0.96966 0.0258503
-0.186398 0.0247113 0.982164 0.0172843
0.242646 -0.0381767 0.969363 0.0287234
0.241908 -0.0362346 0.969622 0.0229606
-0.192221 0.0279805 0.980953 0.0245847
-0.18713 0.0269001 0.981967 0.0201229
0.239004 -0.0310157 0.970523 0.0193911
-0.190702 0.0346303 0.981037 0.023962
-0.186839 0.0350707 0.981764 0.0241097
0.239607 -0.0216087 0.970629 0.0221386
-0.187497 0.0400345 0.981449 0.0217375
-0.18329 0.0356218 0.982413 0.0193757
0.238646 -0.0116589 0.971037 0.0234203
-0.186485 0.0367858 0.981769 0.00739988
0.236942 -0.00888895 0.971483 0.0219886
-0.188363 0.0361921 0.981432 0.0050441
-0.187466 0.0362107 0.981603 0.0112542
0.24023 0.000584995 0.970716 0.0266665
-0.190176 0.0397457 0.980945 0.00703961
-0.187364 0.0413309 0.981421 0.00659761
-0.184164 0.0424671 0.981978 0.00671106
0.237616 0.00797635 0.971326 0.0226469
-0.192535 0.0452529 0.980246 0.0123235
-0.185502 0.0438863 0.981663 0.00609774
-0.180995 0.039905 0.982674 0.00101745
0.23732 0.0169686 0.971283 0.022484
0.244171 0.0163828 0.969594 0.0196794
-0.190458 0.0486782 0.980488 0.00907608
-0.183813 0.0415654 0.982082 0.00286569
-0.180126 0.0483339 0.982455 0.00374787
-0.17168 0.0485211 0.983957 0
0.239094 0.0253908 0.970664 0.0267159
-0.188534 0.0483064 0.980878 0.00391956
-0.183742 0.0496616 0.981719 0.00309027
-0.178949 0.0546468 0.98234 0.00244956
-0.170063 0.0598831 0.983612 0
0.240777 0.0336816 0.969996 0.0292652
-0.182826 0.0568218 0.981502 0.00301294
-0.176593 0.0603731 0.982431 0
-0.169106 0.0639009 0.983524 0
0.0231564 0.117524 0.9928 0
0.0235334 0.121523 0.99231 0
0.0228042 0.121743 0.9923 0
0.0206135 0.122385 0.992269 0
0.0032234 0.0927611 0.995683 0
0.234406 0.032838 0.971584 0.0261097
-0.181113 0.0648433 0.981322 0
-0.175797 0.066484 0.982179 0
-0.167562 0.0721316 0.983219 0
0.0217246 0.108845 0.993821 0
0.0224813 0.114731 0.993142 0
0.0232358 0.113506 0.993266 0
0.0228912 0.119825 0.992531 0
0.0231894 0.130934 0.99112 0.00061037
0.0218446 0.12954 0.991333 0.000607726
0.0205826 0.131992 0.991037 0.00237926
0.0192933 0.126591 0.991767 0.00366466
0.018192 0.11835 0.992805 0
0.0181049 0.123076 0.992232 0.00566156
0.00574475 0.106544 0.994291 0.00203357
0.0024792 0.0994377 0.995041 0
-0.000849677 0.0983139 0.995155 0
-0.00341605 0.0910318 0.995842 0
-0.00518284 0.0980198 0.995171 0
-0.00763216 0.0943609 0.995509 0
0.23433 0.0379531 0.971416 0.0264607
-0.174945 0.0736149 0.981822 0
-0.167794 0.0775458 0.982768 0.00151666
-0.163682 0.0780453 0.983421 0
-0.158532 0.0868921 0.983523 0
0.0180763 0.120522 0.992546 0
0.0210274 0.106878 0.99405 0
0.0215513 0.115926 0.993024 0
0.022278 0.123742 0.992064 0
0.0229301 0.121803 0.992289 0
0.0225119 0.124333 0.991985 0
0.0220376 0.132371 0.990955 0.0020567
0.0185468 0.133984 0.99081 0.00697534
0.0181092 0.132769 0.990982 0.00909881
0.0179517 0.134492 0.990752 0.0108575
0.0174812 0.140234 0.989964 0.0179465
0.014599 0.119412 0.992737 0.00824392
0.0125135 0.123085 0.992317 0.0069643
0.0100825 0.128713 0.991631 0.00989072
0.00554438 0.123047 0.992385 0.0128607
0.00235911 0.112167 0.993687 0.0062086
-0.00299972 0.102022 0.994778 0
-0.0044108 0.0962889 0.995344 0
-0.00657559 0.0979658 0.995168 0
-0.00821539 0.0973631 0.995215 0
0.227352 0.0380684 0.973068 0.0262207
0.230354 0.0368241 0.97241 0.0239193
-0.165726 0.0843695 0.982556 0
-0.163722 0.0906335 0.982334 0.00401549
-0.157296 0.0884967 0.983578 0
0.0179879 0.138014 0.990267 0.00737822
0.0180505 0.128222 0.991581 0
0.0194589 0.11418 0.99327 0
0.0209689 0.117525 0.992849 0
0.0178453 0.144129 0.989398 0.0109911
0.0177123 0.145171 0.989248 0.0139426
0.017082 0.149424 0.988626 0.0199825
0.0166434 0.149089 0.988684 0.0187552
0.0145517 0.140094 0.990031 0.017754
0.0122606 0.145995 0.989209 0.0198047
0.00957891 0.143107 0.989661 0.0195157
0.00525812 0.142897 0.989724 0.0189709
-0.00948586 0.105828 0.994339 0
-0.0118587 0.100198 0.994897 0
0.23459 0.0466064 0.970976 0.0286775
-0.164615 0.0896494 0.982275 0
-0.16111 0.0917565 0.982662 0
-0.156992 0.0901047 0.983481 0
0.00845836 0.19599 0.980569 0.0382367
0.0123551 0.191834 0.98135 0.0378275
0.0136412 0.184961 0.982651 0.0309972
0.0152077 0.177671 0.983972 0.0252503
0.0161533 0.17106 0.985128 0.0195842
0.0169753 0.166006 0.985979 0.0223496
0.0174638 0.156457 0.98753 0.0220685
0.0184604 0.161873 0.986639 0.0228928
0.0185257 0.138043 0.990253 0.0015723
0.0193372 0.131679 0.991104 0
0.0163362 0.159109 0.987126 0.0234809
0.016165 0.163824 0.986357 0.0282627
0.0151118 0.164017 0.986342 0.0279443
0.0117794 0.155582 0.987753 0.0245091
0.00900815 0.14604 0.989238 0.0201867
0.0046573 0.146969 0.98913 0.0199618
-0.0123966 0.111451 0.993693 0
-0.0128988 0.114651 0.993322 0
-0.0141186 0.110297 0.993798 0
-0.0222422 0.123297 0.99212 0.0182012
0.228201 0.0493088 0.972365 0.0271528
-0.159743 0.0956588 0.982513 0.00226814
-0.155417 0.0978002 0.982996 0.00151491
-0.146798 0.0971579 0.984383 0
-0.0753924 0.141951 0.986998 0.0178061
-0.0706531 0.154794 0.985417 0.023276
0.000251086 0.158262 0.987397 0.0109029
0.00567416 0.178662 0.983894 0.0217647
0.00878613 0.182867 0.983098 0.0232977
0.0107434 0.189922 0.98174 0.0273656
0.0126482 0.195118 0.980698 0.0308836
0.0147637 0.17945 0.983656 0.0223621
0.0157314 0.168823 0.985521 0.0163215
0.0167923 0.170516 0.985212 0.0167991
0.0177833 0.182049 0.983129 0.0285391
0.0181142 0.181005 0.983315 0.029952
0.0183513 0.178681 0.983736 0.0290464
0.0186201 0.16811 0.985592 0.0249578
0.0185997 0.147557 0.988879 0.00388669
0.0189633 0.149507 0.988579 0.0041385
0.0156283 0.161119 0.986811 0.0221751
0.0152518 0.175562 0.98435 0.0340623
0.0080641 0.152895 0.98821 0.0208464
-0.0139481 0.117799 0.992939 0.00128184
-0.015575 0.111003 0.993698 0
-0.0186902 0.112491 0.993477 0.00188102
-0.0202906 0.111339 0.993575 0.00124298
-0.0226509 0.120441 0.992462 0.0123575
-0.0241346 0.121269 0.992326 0.0122282
-0.0262632 0.115663 0.992941 0.00761714
-0.0366148 0.116334 0.992535 0.0178671
-0.0381608 0.108939 0.993316 0.0144074
-0.0404793 0.10914 0.993202 0.0116705
-0.0412081 0.106086 0.993503 0.00984664
-0.0420023 0.107815 0.993283 0.00752325
0.226132 0.0518893 0.972714 0.0243675
-0.154546 0.10421 0.982474 0.00256877
-0.146171 0.106208 0.983541 0
-0.140672 0.11347 0.983532 0
-0.134439 0.120642 0.983551 0
-0.131748 0.122854 0.983641 0
-0.12927 0.122402 0.984026 1.9586e-05
-0.0743575 0.14896 0.986044 0.0158582
-0.0696792 0.152975 0.985771 0.0166703
-0.0658893 0.162529 0.984501 0.0199974
-0.0200306 0.180876 0.983302 0.0154439
-0.0133534 0.171044 0.985173 0.00842999
-0.00522212 0.152659 0.988265 0
0.0011539 0.1648 0.986326 0.00550645
0.00581825 0.176823 0.984226 0.0161515
0.00890957 0.18945 0.98185 0.0230298
0.015918 0.169482 0.985405 0.0108303
0.0173686 0.18388 0.982795 0.0221381
0.0182213 0.202482 0.979116 0.0349511
0.0185826 0.20176 0.979259 0.0402846
0.0189772 0.201776 0.979248 0.0405512
0.018669 0.183296 0.98288 0.0302601
0.0188895 0.167036 0.98577 0.0197181
-0.0179565 0.120234 0.992583 0.00888267
-0.0214106 0.110874 0.993604 0.00184118
-0.0235094 0.114777 0.993113 0.00721348
-0.0247136 0.119785 0.992492 0.00873716
-0.0265361 0.115336 0.992972 0.00792244
-0.0291081 0.117508 0.992645 0.00910414
-0.0307257 0.114436 0.992955 0.0104845
-0.0316078 0.12107 0.992141 0.0154801
-0.032762 0.127461 0.991302 0.0183345
-0.0341104 0.123205 0.991795 0.0206632
-0.0360642 0.120247 0.992089 0.0161406
-0.0387847 0.122353 0.991729 0.0174371
-0.0398884 0.120347 0.99193 0.013439
-0.0407654 0.117096 0.992284 0.0117525
-0.0416626 0.112277 0.992803 0.00555738
-0.0425742 0.110738 0.992937 0.00770698
-0.0436166 0.111176 0.992843 0.0101958
-0.0443954 0.110211 0.992916 0.014599
0.219439 0.0644511 0.973495 0.0299789
-0.14547 0.115925 0.982548 0
-0.139422 0.115376 0.983489 0
-0.133607 0.122169 0.983475 0
-0.130991 0.124559 0.983528 0
-0.128568 0.129678 0.983185 0
-0.12663 0.126681 0.983828 0
-0.109797 0.145307 0.983275 0
-0.072934 0.149137 0.986123 0.0150462
-0.0677067 0.153438 0.985836 0.0128903
-0.0648332 0.168168 0.983624 0.019532
-0.0612458 0.170899 0.983383 0.0183028
-0.0587803 0.184176 0.981134 0.027007
-0.0536085 0.184729 0.981326 0.0238117
-0.0490581 0.190532 0.980455 0.0260046
-0.036159 0.196587 0.979819 0.031563
-0.0305318 0.197195 0.979889 0.0244664
-0.0258819 0.193446 0.980769 0.0206314
-0.0211308 0.196982 0.980179 0.0189677
-0.0188449 0.188337 0.981924 0.0135031
-0.0120213 0.175914 0.984332 0.00578955
-0.00499207 0.160989 0.986944 0.000253928
0.00193796 0.169401 0.985545 0.00374869
0.00476039 0.18008 0.98364 0.0126605
0.00775043 0.182268 0.983218 0.0118363
-0.0230145 0.117832 0.992767 0.00546683
-0.0242944 0.121639 0.992277 0.00438571
-0.0259066 0.126606 0.991615 0.0116246
-0.0275855 0.122491 0.992086 0.0076304
-0.0300193 0.125647 0.991621 0.0108671
-0.0311638 0.123059 0.99191 0.0112714
-0.0325415 0.12613 0.99148 0.0105131
-0.0337033 0.131217 0.990781 0.0126037
-0.0349069 0.136424 0.990035 0.0199914
-0.0370403 0.12387 0.991607 0.016942
-0.038647 0.123915 0.99154 0.0148958
-0.0404144 0.124751 0.991365 0.0148659
-0.0413848 0.120957 0.991795 0.0133136
-0.0427471 0.113599 0.992607 0.00620305
-0.0437116 0.118257 0.99202 0.0128463
-0.044703 0.124084 0.991264 0.0172411
0.215031 0.0727179 0.973896 0.0293753
0.219763 0.071052 0.972962 0.0288945
-0.138733 0.125132 0.982393 0
-0.133547 0.128189 0.982717 0
-0.131171 0.132411 0.982477 0
-0.128763 0.132503 0.982783 0
-0.126449 0.137241 0.982433 0
-0.123379 0.137837 0.98274 0
-0.120231 0.139151 0.982945 0
-0.118309 0.14424 0.982445 0
-0.114855 0.147628 0.982351 0.000636345
-0.110782 0.147037 0.982908 0
-0.10743 0.144641 0.983635 0
-0.102209 0.156932 0.982306 0.0104757
-0.0984585 0.153537 0.983225 0.00732147
-0.0829654 0.150803 0.985076 0.0145458
-0.070584 0.164007 0.983931 0.0140785
-0.0667888 0.158496 0.985098 0.00976425
-0.0653329 0.160882 0.984809 0.0123636
-0.0595042 0.17367 0.983005 0.016382
-0.0567448 0.184216 0.981246 0.0203556
-0.0523397 0.184896 0.981363 0.0193514
-0.0479897 0.191014 0.980413 0.021765
-0.0422502 0.199594 0.978967 0.0308241
-0.0375428 0.201681 0.978731 0.0304413
-0.0306895 0.209842 0.977254 0.0267424
-0.0257372 0.201848 0.979079 0.0200715
-0.0207849 0.196807 0.980222 0.0137638
-0.0174493 0.197099 0.980228 0.0145965
-0.0110028 0.177862 0.983994 0.00381033
-0.00362762 0.175276 0.984513 0.00285592
-0.0287314 0.127871 0.991375 0.00706769
-0.0304827 0.132036 0.990776 0.0116789
-0.031854 0.123902 0.991783 0.00962923
-0.032885 0.129228 0.991069 0.00942255
-0.0345875 0.134153 0.990357 0.0119104
-0.0368715 0.133117 0.990414 0.0167445
-0.0384953 0.131864 0.99052 0.0179181
-0.0405281 0.129056 0.990809 0.0159443
-0.0462732 0.131273 0.990266 0.0153219
0.217631 0.0835673 0.972447 0.0303109
-0.132663 0.130735 0.982501 0
-0.120167 0.147797 0.98169 0
-0.117581 0.151394 0.981455 0
-0.114251 0.155021 0.981282 0
-0.110167 0.153601 0.981973 0
-0.105812 0.151331 0.982804 0
-0.101449 0.151637 0.983216 0.00283735
-0.0974521 0.15578 0.982973 0.00713773
-0.0946563 0.164097 0.981892 0.0120581
-0.0896379 0.173372 0.980769 0.0204892
-0.0822677 0.16256 0.983263 0.016248
-0.068581 0.17281 0.982565 0.0136849
-0.0654374 0.171542 0.983001 0.0131977
-0.0542609 0.18348 0.981525 0.0142347
-0.0512242 0.184742 0.981451 0.0160036
-0.0467561 0.1953 0.979628 0.0226328
-0.0407637 0.211387 0.976552 0.02869
-0.0364771 0.219799 0.974863 0.031701
-0.0295397 0.213236 0.976554 0.0229372
-0.0233741 0.208089 0.977831 0.0197891
-0.0195165 0.200695 0.979459 0.0129574
-0.0314124 0.127985 0.991278 0.00747665
-0.046824 0.142408 0.9887 0.0165016
-0.0485544 0.162988 0.985433 0.0112976
0.205284 0.0943912 0.97414 0.027607
-0.117507 0.160373 0.980037 0.000516522
-0.113858 0.161206 0.980331 7.93682e-05
-0.109836 0.159587 0.981055 0
-0.10449 0.159209 0.9817 0
-0.100404 0.163628 0.9814 0.00382972
-0.096763 0.166673 0.981253 0.00955894
-0.0944132 0.178897 0.979327 0.0161471
-0.0883434 0.184388 0.978875 0.0173489
-0.0821144 0.187786 0.978772 0.0219081
-0.0670676 0.188986 0.979687 0.0187994
-0.0640566 0.195961 0.978517 0.0184954
-0.0495341 0.129955 0.990282 0.0120666
-0.0487434 0.134353 0.989734 0.00776751
-0.0490412 0.130491 0.990236 0.00788822
-0.0485785 0.132643 0.989973 0.00597917
-0.0489978 0.147161 0.987898 0.0192724
-0.0481022 0.173504 0.983658 0.0122252
-0.0496111 0.143888 0.988349 0
-0.0547004 0.141402 0.98844 0.014696
-0.0549416 0.146753 0.987646 0.0112417
-0.0551231 0.148776 0.987333 0.00929608
-0.0550862 0.140494 0.988548 0.004331
-0.0554697 0.137727 0.988916 0.00518129
-0.0552947 0.139371 0.988695 0.00494747
-0.0545663 0.140698 0.988548 0
-0.0544923 0.139154 0.98877 0
0.203336 0.098556 0.974136 0.0236709
-0.065703 0.200819 0.977423 0.0188021
-0.0625126 0.20376 0.977023 0.0187034
-0.0498532 0.139392 0.988982 0.0141044
-0.049029 0.139148 0.989057 0.00468039
-0.0488748 0.135633 0.989553 0.00529339
-0.0487029 0.139634 0.989005 0.00631515
-0.0486185 0.150961 0.987343 0.0160837
-0.0481117 0.175428 0.983316 0.016962
-0.0482232 0.182166 0.982085 0.0187594
-0.0481991 0.18309 0.981914 0.021366
-0.0478298 0.190957 0.980432 0.016307
-0.0478065 0.19121 0.980384 0.0148804
-0.047354 0.193388 0.979979 0.012194
-0.0491066 0.15885 0.986081 0
-0.0493657 0.153874 0.986857 0
-0.0498737 0.142095 0.988596 0
-0.0497787 0.138612 0.989095 0
-0.0505484 0.132408 0.989906 0
-0.051654 0.125324 0.99077 0
-0.051779 0.131622 0.989947 0
-0.0523102 0.133338 0.989689 0.002687
-0.0529733 0.131478 0.989903 0.00483804
-0.0532353 0.14031 0.988675 0.012253
-0.0535302 0.140236 0.98867 0.0155263
-0.054049 0.154448 0.986521 0.0192419
-0.0542714 0.150216 0.987162 0.00817077
-0.0545461 0.146066 0.98777 0.00579642
-0.0546864 0.14672 0.987665 0.00474058
-0.0546618 0.137561 0.988984 0
-0.0548462 0.135442 0.989266 0.0034782
-0.0543683 0.140358 0.988607 0.000155503
-0.0542757 0.145415 0.987881 0
-0.0537344 0.147495 0.987602 0
-0.0541224 0.153442 0.986674 0
-0.0542607 0.153262 0.986695 0.00253992
0.170716 0.112313 0.978898 0.0205522
0.180496 0.116223 0.976685 0.027661
0.183823 0.109809 0.976806 0.0252524
0.18984 0.109135 0.975731 0.0240948
-0.0486695 0.142109 0.988654 0.00362571
-0.0482888 0.153699 0.986937 0.013042
-0.0479754 0.18289 0.981962 0.0171262
-0.0479206 0.198225 0.978984 0.0214786
-0.0477101 0.204387 0.977727 0.0215125
-0.0488256 0.165307 0.985033 0
-0.049125 0.159291 0.986009 0
-0.0496534 0.149959 0.987445 0
-0.0496433 0.147821 0.987768 0
-0.0505192 0.133345 0.989781 0
-0.0508414 0.136066 0.989394 0
-0.0516326 0.143486 0.988305 0.00301561
-0.0523392 0.142058 0.988474 0.00808803
-0.052629 0.140689 0.988654 0.00828983
-0.0545271 0.146231 0.987747 0.00445266
-0.054221 0.138754 0.988841 0.00107446
-0.0542261 0.143651 0.988142 0.0046371
-0.0542559 0.148716 0.98739 0.00136324
-0.0538061 0.153465 0.986688 0
-0.0532836 0.159556 0.98575 0
-0.0530868 0.159084 0.985837 0
-0.0535966 0.163914 0.985018 0.00584114
-0.0551642 0.149991 0.987147 0
-0.0564332 0.156899 0.986001 0
-0.0575608 0.153093 0.986534 0.000630213
-0.0577954 0.165673 0.984486 0.00638232
-0.0574732 0.164715 0.984665 0.00487157
-0.0578646 0.167089 0.984242 0.00484271
-0.0589466 0.176447 0.982543 0.00933739
-0.0594524 0.166697 0.984214 0.0107429
-0.0599166 0.164411 0.984571 0.0130297
-0.0592099 0.168578 0.983908 0.0133242
-0.0563332 0.160914 0.985359 0.0110953
-0.0533521 0.162707 0.985231 0.0126155
-0.0522952 0.16648 0.984657 0.0178727
0.170808 0.115184 0.978549 0.0194685
0.177904 0.113715 0.977455 0.0228606
0.183592 0.109566 0.976877 0.0235982
0.190808 0.111572 0.975266 0.0255811
-0.0521021 0.151497 0.987084 0.00934618
-0.0525177 0.144335 0.988134 0.00809061
-0.0531187 0.171824 0.983694 0.00458575
-0.0545352 0.155329 0.986356 0
-0.0557469 0.163758 0.984924 0.00123172
-0.0565909 0.165217 0.984632 0.00322585
-0.0568855 0.160038 0.98547 0.00113808
-0.0569051 0.168113 0.984124 0.00389321
-0.0576543 0.17987 0.981999 0.0117241
-0.0576034 0.171233 0.983545 0.00889305
-0.0589588 0.183196 0.981307 0.013813
-0.0593933 0.177747 0.982282 0.0139825
-0.0597802 0.176684 0.982451 0.0153933
-0.0584826 0.172019 0.983356 0.0117323
-0.0580077 0.178518 0.982225 0.0156356
-0.0562856 0.18208 0.981672 0.0125035
-0.0545459 0.168141 0.984253 0.01279
-0.0535192 0.184218 0.981427 0.0197339
-0.0526852 0.170396 0.983966 0.017172
-0.0389357 0.177608 0.983331 0.0148004
-0.0340765 0.18364 0.982403 0.0194161
-0.0551808 0.167207 0.984376 0.00194313
-0.0560049 0.17022 0.983813 0.00201492
-0.0560811 0.165719 0.984577 0.00317637
-0.0503953 0.194665 0.979574 0.0276266
-0.0476964 0.19482 0.979679 0.0253871
-0.0421474 0.185081 0.981819 0.0166921
-0.0407451 0.18109 0.982622 0.0111431
-0.0394238 0.187799 0.981416 0.0168523
-0.0344856 0.1881 0.981544 0.0164948
-0.0292513 0.192063 0.980947 0.0175307
-0.0248898 0.189064 0.981649 0.0134114
-0.0221069 0.191451 0.981253 0.0158554
0.143795 0.109628 0.983516 0.0103012
-0.0483834 0.197089 0.979191 0.0251357
-0.0467609 0.196314 0.979425 0.022319
-0.0218865 0.196593 0.980241 0.011593
-0.0150857 0.218219 0.975783 0.0174683
-0.0113355 0.210671 0.977491 0.0121721
-0.00565759 0.194068 0.980972 0.0042662
0.004994 0.191701 0.981441 0
0.0140539 0.195736 0.980556 0
0.0618479 0.216595 0.974301 0.0334035
0.115095 0.135411 0.984082 0.00627345
0.127845 0.127412 0.983576 0.0113285
0.130781 0.12236 0.983832 0.0109725
0.143451 0.127738 0.981379 0.0178561
0.0165913 0.191529 0.981347 0
0.0218475 0.183281 0.982818 0
0.0267078 0.188321 0.981744 0
0.0332754 0.191123 0.981002 0
0.0428147 0.211449 0.976451 0.0115941
0.0504378 0.234317 0.970851 0.0232052
0.0545698 0.230413 0.971562 0.0259106
0.0556177 0.211209 0.975857 0.0256369
0.0594538 0.216995 0.974361 0.0269569
0.0665407 0.233426 0.970095 0.0374598
0.0698737 0.217585 0.973537 0.0310861
0.0782003 0.201095 0.976445 0.0308937
0.0884376 0.201317 0.975526 0.0338115
0.0927435 0.195587 0.976291 0.0337008
0.0966721 0.180645 0.978786 0.0322672
0.10155 0.187333 0.977033 0.0329076
0.1097 0.16477 0.980213 0.0229757
0.0324387 0.197276 0.979811 0
0.0771632 0.208192 0.97504 0.0323843
0.015934 -0.270515 0.962584 0.00914923
0.0196736 -0.275628 0.961063 0.0102009
0.021637 -0.276626 0.960734 0.0129949
0.00734468 -0.266544 0.963795 0.00248177
0.0103567 -0.271216 0.962463 0.00617631
0.012311 -0.269365 0.962959 0.0084302
0.013014 -0.264673 0.96425 0.0113108
0.0165921 -0.270675 0.962528 0.0156095
0.0202563 -0.272432 0.961962 0.0158827
0.0250133 -0.280047 0.95966 0.0170516
0.00666579 -0.264535 0.964353 0.00388099
0.00953193 -0.267495 0.963512 0.00605109
0.0110663 -0.265748 0.963979 0.00425431
0.0118558 -0.261919 0.965017 0.0116156
0.0158467 -0.270508 0.962587 0.0198149
0.0201549 -0.274728 0.961311 0.0214565
0.0240646 -0.278484 0.960139 0.0204227
0.0258716 -0.280524 0.959498 0.0213601
0.0272854 -0.280219 0.959548 0.0189857
0.0286012 -0.280404 0.959456 0.0202371
0.0309005 -0.27662 0.960482 0.0133036
0.0455148 -0.29057 0.955771 0.0111314
0.0523694 -0.297528 0.953276 0.00381392
0.0534021 -0.296827 0.953437 0.00296661
0.0572857 -0.302629 0.951385 0
0.0585937 -0.301182 0.951765 0
0.00354705 -0.264918 0.964265 0.00277926
0.00475957 -0.260653 0.965421 0.00716289
0.00752753 -0.261738 0.96511 0.0126429
0.00989444 -0.262695 0.964828 0.0131046
0.0118182 -0.266307 0.963816 0.0149364
0.0145229 -0.268651 0.963128 0.0179089
0.019335 -0.276249 0.960892 0.0226589
0.02329 -0.278476 0.960161 0.026398
0.024387 -0.277049 0.960546 0.0209034
0.0256927 -0.278294 0.960152 0.0170281
0.0260167 -0.274663 0.961188 0.0121937
0.0267947 -0.273294 0.961557 0.00623757
0.0279929 -0.274235 0.961255 0.00740272
0.0305361 -0.277018 0.960379 0.00759401
0.0440714 -0.2839 0.957841 0.0111747
0.0480293 -0.291013 0.955513 0
0.0502599 -0.293934 0.954503 0.00236734
0.0539316 -0.297836 0.953092 0.00515256
0.0547628 -0.295432 0.953793 0.000482814
0.0571447 -0.298492 0.9527 0
-0.00492673 -0.250632 0.96807 0.00764188
0.000904883 -0.255563 0.966792 0.016526
0.00309367 -0.254299 0.967121 0.0115316
0.00584398 -0.256826 0.96644 0.0196587
0.00830332 -0.259854 0.965612 0.0174365
0.00981121 -0.259256 0.965759 0.0162753
0.0127006 -0.264277 0.964363 0.0149542
0.017145 -0.268451 0.963141 0.0247083
0.0203748 -0.267231 0.963417 0.0215376
0.0213207 -0.265836 0.963782 0.0120632
0.02303 -0.268935 0.962883 0.0137985
0.024948 -0.272523 0.961826 0.0137957
0.0259431 -0.270146 0.96247 0.00806354
0.0260995 -0.269593 0.962621 0.00514423
0.0286224 -0.271147 0.962112 0.00805923
0.0349347 -0.277591 0.960064 0.00905892
0.0414084 -0.28199 0.958523 0
0.0457141 -0.284097 0.957705 0.000780839
0.0487673 -0.288646 0.956193 0.00413878
0.0525989 -0.294359 0.954246 0.00680322
0.0534838 -0.294456 0.954167 0
0.0558445 -0.296899 0.953275 0
0.0609701 -0.299722 0.952076 0
0.0680922 -0.303888 0.950271 0
-0.0128123 -0.243968 0.969699 0.0190287
-0.00657453 -0.24713 0.96896 0.00605483
-0.0013714 -0.252045 0.967715 0.0188876
0.00142849 -0.249448 0.968387 0.0149828
0.00309995 -0.248862 0.968534 0.0170161
0.00587127 -0.252027 0.967702 0.0166032
0.00880373 -0.258779 0.965896 0.014708
0.0145959 -0.260225 0.965438 0.0153596
0.0176909 -0.261168 0.965131 0.0131096
0.0190599 -0.26168 0.964967 0.00941728
0.0204843 -0.2649 0.964058 0.0109256
0.022416 -0.266746 0.963506 0.0039623
0.0236467 -0.26682 0.963456 0
0.0245716 -0.267813 0.963158 0
0.0272342 -0.270289 0.962394 0.00202895
0.0333577 -0.274717 0.960946 0
0.0401714 -0.279297 0.959364 0
0.0442337 -0.280737 0.958765 0
0.0464162 -0.286106 0.957073 0
0.0501234 -0.29088 0.955446 0
0.0513044 -0.288588 0.956078 0
0.0536737 -0.291952 0.954926 0
0.0592182 -0.294698 0.953754 0
0.0664522 -0.296719 0.95265 0
-0.0298958 -0.23218 0.972213 0
-0.0136431 -0.243415 0.969826 0.0247116
-0.00810446 -0.243138 0.969958 0.0203095
-0.00376313 -0.247938 0.968769 0.023547
-0.00104889 -0.248118 0.968729 0.0228607
0.00108946 -0.24713 0.968982 0.0155735
0.0162733 -0.257833 0.966052 0.0111861
0.0186616 -0.262578 0.96473 0.00358537
0.0228668 -0.26584 0.963746 0
0.0239014 -0.270368 0.96246 0
0.047946 -0.284104 0.957594 0.000363412
0.0508658 -0.289603 0.955794 0
0.0578343 -0.29285 0.954408 0
0.0650738 -0.294303 0.953494 0
0.0667009 -0.290291 0.954611 0
0.0712913 -0.293495 0.953299 0
0.0772826 -0.297154 0.951697 0
-0.0327067 -0.224341 0.973962 0
-0.0318748 -0.224097 0.974045 0
-0.0263999 -0.230732 0.972659 0.00518615
-0.0217748 -0.235149 0.971716 0.0232153
-0.0159167 -0.241071 0.970377 0.0277215
-0.00998865 -0.238981 0.970973 0.0256905
-0.00587577 -0.242394 0.97016 0.0244685
-0.00406605 -0.242171 0.970225 0.0211692
-0.00145277 -0.243883 0.969804 0.0147853
0.0570943 -0.293468 0.954262 0
0.0645056 -0.286494 0.955908 0
0.0693079 -0.287827 0.955171 0
0.0730402 -0.289718 0.954321 0
0.0747458 -0.290503 0.95395 0
-0.0342065 -0.217036 0.975564 0
-0.0330017 -0.220145 0.974909 0
-0.0284444 -0.222933 0.974419 0.000670632
-0.0276866 -0.223865 0.974227 0.0140457
-0.0247911 -0.230817 0.972681 0.0233765
-0.0241818 -0.233712 0.972005 0.0245282
-0.0215093 -0.235492 0.971638 0.0203635
-0.0180214 -0.234526 0.971943 0.0309013
-0.0108886 -0.240623 0.970558 0.0245159
-0.00743923 -0.237325 0.971402 0.0227074
-0.00485532 -0.240655 0.970599 0.0165621
0.0632232 -0.280635 0.95773 0
0.0680211 -0.283026 0.956697 0
0.071694 -0.286394 0.955426 0
0.0732164 -0.287806 0.954886 0
0.07571 -0.286848 0.95498 0
-0.0321636 -0.218293 0.975353 0.019208
-0.0289156 -0.221182 0.974804 0.0147073
-0.0276213 -0.226436 0.973634 0.01618
-0.0262989 -0.229494 0.972955 0.0169289
-0.0227583 -0.230818 0.972731 0.0177641
-0.0202759 -0.230208 0.97293 0.0289995
-0.0118285 -0.239214 0.970895 0.026737
0.0666034 -0.276535 0.958693 0.00485827
0.0684274 -0.276208 0.958659 0.000418191
0.0719486 -0.279749 0.957373 0.00495718
0.0750647 -0.281868 0.956512 0.0030333
-0.037662 -0.206644 0.977691 0.00185441
-0.0349538 -0.210779 0.976909 0.0100598
-0.0343676 -0.210981 0.976886 0.00843002
-0.0333759 -0.209748 0.977186 0.0107221
-0.0317801 -0.212241 0.9767 0.0161979
-0.0292495 -0.216691 0.975802 0.0146033
-0.0283163 -0.21936 0.975233 0.0138356
-0.0255027 -0.224165 0.974218 0.0200905
-0.0224824 -0.22247 0.97468 0.0213
0.0684496 -0.273985 0.959295 0.00552276
0.0712971 -0.276554 0.95835 0.0107405
0.0737638 -0.276622 0.958144 0.00759939
0.0864396 -0.282958 0.955229 0.0149208
-0.0425811 -0.197809 0.979315 0.00435202
-0.0401222 -0.201528 0.978661 0.00317562
-0.0380249 -0.205587 0.9779 0.00379768
-0.0368006 -0.207946 0.977448 0.00531663
-0.0359758 -0.207133 0.977651 0.0106893
-0.0341619 -0.206401 0.977871 0.0148959
-0.0320428 -0.209391 0.977307 0.0174786
-0.0305933 -0.215958 0.975923 0.017992
-0.0279114 -0.218759 0.97538 0.0178713
-0.0240024 -0.219927 0.975221 0.021222
0.0833449 -0.275615 0.957648 0.0140313
0.0940283 -0.2817 0.954884 0.0142009
0.0995056 -0.282695 0.954035 0.0160633
-0.0440438 -0.192062 0.980394 0.0080903
-0.0424242 -0.195191 0.979847 0.00716788
-0.0421166 -0.194547 0.979989 0.00902978
-0.0401623 -0.198397 0.979299 0.00202231
-0.0382917 -0.203701 0.978284 0.00763882
-0.037193 -0.203647 0.978338 0.010777
-0.0365703 -0.204692 0.978143 0.0174307
-0.0354297 -0.208004 0.977486 0.0190388
-0.0337994 -0.209421 0.977241 0.024066
-0.0306982 -0.211595 0.976875 0.0203937
-0.0263829 -0.215972 0.976043 0.0225419
0.0818676 -0.272277 0.95873 0.0126474
0.0926727 -0.273068 0.957521 0.016876
0.0969226 -0.275594 0.956375 0.0140307
0.10319 -0.279368 0.954623 0.0103805
0.111851 -0.283021 0.952569 0.0145624
0.125131 -0.287233 0.949652 0.0122277
-0.0446442 -0.186973 0.98135 0.00622586
-0.0447922 -0.189237 0.980909 0.0132206
-0.0435263 -0.191641 0.980499 0.00884958
-0.0425768 -0.191316 0.980605 0.0118569
-0.041026 -0.19246 0.980447 0.0147696
-0.0395681 -0.19496 0.980013 0.0113634
-0.0383224 -0.197304 0.979593 0.0152256
-0.0385406 -0.19924 0.979193 0.0268152
-0.0334959 -0.207348 0.977694 0.0192522
0.0916809 -0.268767 0.958832 0.0166463
0.103956 -0.273928 0.956115 0.0139473
0.109728 -0.27649 0.954732 0.0103195
0.124709 -0.284278 0.950597 0.0135254
0.135003 -0.287791 0.94813 0.00710485
-0.046503 -0.178936 0.982761 0.00327017
-0.0462171 -0.185289 0.981597 0.00811976
-0.045907 -0.185321 0.981605 0.0148064
-0.0447107 -0.183808 0.981945 0.0131734
-0.0433253 -0.185375 0.981712 0.0127388
-0.0424854 -0.185116 0.981798 0.0154742
-0.0407916 -0.190185 0.9809 0.0200267
-0.0400312 -0.196228 0.979741 0.0313409
-0.0363826 -0.204971 0.978092 0.0283478
0.111813 -0.276282 0.95455 0.0158648
0.123753 -0.279739 0.952067 0.0161779
0.129404 -0.281937 0.950666 0.0103302
0.135738 -0.28418 0.949114 0.0124089
0.142267 -0.287227 0.947238 0.0123526
-0.0480242 -0.173465 0.983668 0
-0.0473546 -0.177554 0.982971 0.00348341
-0.0474539 -0.18097 0.982343 0.0101497
-0.0466739 -0.178548 0.982824 0.012536
-0.0463629 -0.174763 0.983518 0.0171712
-0.0438527 -0.180615 0.982576 0.018082
-0.0437167 -0.183397 0.982066 0.0289342
-0.0428365 -0.183751 0.982039 0.0324891
-0.0395339 -0.197883 0.979428 0.0383221
0.136084 -0.283658 0.94922 0.01319
0.141794 -0.285577 0.947808 0.0129024
0.143767 -0.284667 0.947784 0.00797927
0.145068 -0.284595 0.947608 0.0052616
-0.062852 -0.211341 0.97539 0.00783054
-0.0541046 -0.212389 0.975686 0.00565385
-0.0498466 -0.167707 0.984576 0
-0.0494021 -0.17241 0.983786 0
-0.049096 -0.169976 0.984224 0.0028805
-0.0479219 -0.167663 0.984679 0.0180177
-0.0474834 -0.173371 0.983711 0.0279506
-0.0457903 -0.178486 0.982876 0.0312869
-0.0445219 -0.183204 0.982066 0.0265787
0.141958 -0.277702 0.950121 0.00814578
0.14519 -0.281161 0.948614 0.00776912
0.150318 -0.283257 0.947191 0.00934106
-0.062429 -0.207616 0.976216 0.0120329
-0.0583421 -0.211661 0.9756 0.0107531
-0.0543039 -0.212678 0.975612 0.0131259
-0.0173781 -0.175666 0.984296 0.0255882
-0.0509977 -0.157597 0.986186 0
-0.0513833 -0.151055 0.987189 1.29451e-05
-0.0528477 -0.147818 0.987602 0.00848779
-0.0519712 -0.157765 0.986108 0.00390298
-0.0518809 -0.161495 0.985509 0
-0.0517149 -0.166056 0.984759 0
-0.0510597 -0.165245 0.98493 0
-0.0502197 -0.164127 0.98516 0
-0.049284 -0.163528 0.985307 0.0151321
-0.0496585 -0.162227 0.985503 0.02194
-0.0482968 -0.17246 0.983832 0.027797
-0.046831 -0.180489 0.982461 0.0276942
0.148915 -0.281273 0.948003 0.00860937
0.152512 -0.279638 0.947915 0.0098166
0.155953 -0.279379 0.947431 0.0108112
-0.0644896 -0.209282 0.975727 0.0148388
-0.061403 -0.206128 0.976596 0.0114875
-0.058554 -0.205467 0.976911 0.00807805
-0.0567742 -0.202375 0.977661 0.0124405
-0.0538033 -0.19894 0.978534 0.00922759
-0.0520415 -0.199978 0.978417 0.00985391
-0.0506878 -0.196719 0.979149 0.0144005
-0.0487912 -0.200438 0.978491 0.00950186
-0.0178372 -0.179531 0.983591 0.0143746
-0.0150257 -0.174048 0.984622 0.0181699
-0.0535028 -0.148354 0.987486 0
-0.0533818 -0.155274 0.986428 0
-0.0531752 -0.157406 0.986101 0
-0.052745 -0.156395 0.986285 0
-0.0515068 -0.162219 0.98541 0.00296909
-0.0512734 -0.160257 0.985743 0.0165508
-0.0509794 -0.159354 0.985904 0.016726
0.151974 -0.27389 0.949678 0.0146703
0.155281 -0.276343 0.948432 0.0123666
0.164028 -0.27963 0.945992 0.0107031
-0.0710802 -0.212959 0.974472 0.0163047
-0.0665337 -0.210376 0.975354 0.0119285
-0.0653564 -0.21551 0.974312 0.0141353
-0.0614388 -0.207992 0.976199 0.0158857
-0.0588347 -0.204482 0.977101 0.0150901
-0.0557643 -0.202974 0.977595 0.00978384
-0.0525773 -0.198222 0.978746 0.00696777
-0.0511985 -0.195434 0.979379 0.0137822
-0.0491936 -0.193709 0.979825 0.00934859
-0.0475371 -0.196201 0.979411 0.00575151
-0.0458694 -0.194167 0.979895 0.0074861
-0.0314563 -0.182637 0.982677 0.0107882
-0.0180672 -0.179295 0.983629 0.00708702
-0.0156442 -0.171041 0.98514 0.00874461
-0.013096 -0.166473 0.985959 0.0129417
-0.0117345 -0.166794 0.985922 0.0102787
-0.0543207 -0.136749 0.989115 0.0138477
-0.054466 -0.136434 0.989151 0.0150949
-0.054952 -0.140537 0.988549 0.0136712
-0.0550608 -0.139653 0.988669 0.00475458
-0.0546865 -0.140244 0.988606 0.000672227
-0.0544938 -0.150682 0.987079 0
0.154408 -0.270783 0.950176 0.0144561
0.164999 -0.274865 0.947219 0.0176029
-0.094662 -0.203058 0.97458 0.0100737
-0.0911819 -0.202815 0.974963 0.0178322
-0.0858134 -0.204639 0.975069 0.0144624
-0.0799933 -0.208013 0.97485 0.0142941
-0.0737034 -0.20786 0.975378 0.0124473
-0.0699847 -0.210675 0.975048 0.0127428
-0.0655849 -0.207644 0.976003 0.00964019
