# .PCD v0.7 - Point Cloud Data file format
VERSION 0.7
FIELDS x y z
SIZE 4 4 4
TYPE F F F
COUNT 1 1 1
WIDTH 1443
HEIGHT 1
VIEWPOINT 0 0 0 1 0 0 0
POINTS 1443
DATA ascii
-0.001662 0.094925001 -0.22310001
0.0066304998 0.094949 -0.22308499
0.0067330003 0.094943501 -0.22308999
0.0068549998 0.094939999 -0.223078
0.0071679996 0.094961002 -0.22306201
0.0072544999 0.094958 -0.223057
0.0073365001 0.094952002 -0.2230515
0.0074209999 0.094946995 -0.22304749
0.0075115003 0.094936997 -0.22304749
0.0076285 0.094967499 -0.22303949
0.0077 0.094962999 -0.223032
0.0085960003 0.094919004 -0.223001
0.0086620003 0.094985001 -0.223006
0.016323 0.094953001 -0.22301751
-0.0042535001 0.095047504 -0.22308049
-0.0041410001 0.095042497 -0.2230785
-0.00403 0.095035002 -0.223087
-0.0039499998 0.095031999 -0.223041
-0.0038600001 0.095028996 -0.22305
-0.0037725 0.095061004 -0.2230655
-0.0036805002 0.095056996 -0.22305851
-0.0035755001 0.095051005 -0.223042
-0.0034465 0.095048003 -0.22306475
-0.0033267501 0.095041998 -0.2230645
-0.0032290001 0.095064998 -0.223048
-0.003153 0.095066004 -0.223068
-0.0030960001 0.095060997 -0.22307201
-0.00294 0.095057003 -0.223097
-0.0027439999 0.095050998 -0.223078
-0.001845 0.095005997 -0.22309799
-0.001752 0.095071003 -0.223096
-0.001657 0.095063999 -0.223097
0.0066339998 0.095054999 -0.2230835
0.0067365002 0.095048502 -0.22308201
0.0068579996 0.095044002 -0.223059
0.0071720001 0.095064998 -0.22304501
0.0072590001 0.095063999 -0.22306401
0.00734 0.095057003 -0.22304
0.0074229999 0.095048003 -0.22300801
0.0075150002 0.095043004 -0.22304501
0.0076305 0.095037997 -0.22303
0.0077030002 0.095034003 -0.223031
0.016326999 0.095058002 -0.223003
-0.0042249998 0.095151499 -0.2230825
-0.0041493336 0.095136337 -0.22308534
-0.0040499996 0.095154338 -0.22309166
-0.003945 0.095138498 -0.223049
-0.003855 0.095136002 -0.22307351
-0.0037690001 0.095164999 -0.223056
-0.0036770001 0.09516 -0.22304
-0.003571 0.095158003 -0.22306301
-0.0034420001 0.095154501 -0.223077
-0.0033460001 0.095147997 -0.223061
-0.0032510001 0.095138334 -0.22305132
-0.00315 0.095136002 -0.22307099
-0.003092 0.095132999 -0.22308201
-0.002937 0.095158994 -0.22307751
-0.0027389999 0.095156997 -0.223085
-0.001749 0.095141001 -0.22309799
0.006151 0.095153004 -0.223095
0.0066384999 0.095160998 -0.22308099
0.0067405002 0.095154002 -0.223077
0.0068609999 0.095149003 -0.22304501
0.0071740001 0.095135003 -0.223042
0.0072610001 0.095133997 -0.223056
0.0073434999 0.095160998 -0.2230265
0.0074280002 0.095190004 -0.223001
0.0075185001 0.095148996 -0.22303849
0.0076345 0.095143005 -0.22302249
0.0077069998 0.095138997 -0.22303
0.01633 0.095129997 -0.22300901
-0.0042209998 0.095257998 -0.22308899
-0.0041689998 0.095255002 -0.22308099
-0.0040589999 0.095251001 -0.22309101
-0.003939 0.095247 -0.223083
-0.003851 0.095242001 -0.223079
-0.003766 0.095237002 -0.22305401
-0.003675 0.095229998 -0.22304
-0.0035664998 0.095264003 -0.223065
-0.00348 0.095232002 -0.223085
-0.003369 0.095255002 -0.22307475
-0.0032717499 0.095247254 -0.2230615
-0.0031712498 0.095240742 -0.22306201
-0.003088 0.095239505 -0.2230895
-0.002933 0.095264003 -0.223068
0.0061539998 0.095259003 -0.223085
0.0065319999 0.095241003 -0.223094
0.0066409996 0.095230997 -0.223076
0.0067450004 0.095261 -0.22308275
0.0068655 0.095255002 -0.223049
0.0071780002 0.095241994 -0.223039
0.0072649997 0.095238507 -0.22304049
0.0073469998 0.095264003 -0.22300699
0.0074319998 0.095261998 -0.223019
0.0075229998 0.095255002 -0.22304
0.0076390002 0.095248997 -0.223029
0.007712 0.095246002 -0.223038
0.0079899998 0.095299996 -0.22301599
0.0081550004 0.095224001 -0.223001
0.0083495006 0.095255002 -0.22300699
0.00844 0.095282003 -0.223004
0.016333001 0.095200002 -0.223012
-0.0042170002 0.09533 -0.223097
-0.0041645002 0.095361002 -0.223088
-0.0040676668 0.095345668 -0.22309667
-0.0039355 0.095353 -0.22308201
-0.0038465001 0.095348001 -0.223077
-0.003761 0.095343001 -0.2230745
-0.0036705001 0.095338002 -0.22304851
-0.0035639999 0.095367 -0.223038
-0.0034754998 0.095338002 -0.22309551
-0.003364 0.095361501 -0.22308651
-0.003242 0.095353 -0.223094
-0.0031665 0.095347501 -0.22307649
-0.003085 0.095343001 -0.22307099
-0.00293 0.095335998 -0.223074
0.0061585 0.095364004 -0.22307999
0.0065355003 0.095346004 -0.223085
0.0066452501 0.095338002 -0.22308101
0.0067489999 0.095366001 -0.2230815
0.0068700002 0.095361002 -0.22305
0.007181 0.095347002 -0.22302499
0.0072679999 0.095343001 -0.223029
0.0074359998 0.095334999 -0.223041
0.0075270003 0.095361002 -0.22303599
0.0076432498 0.095355995 -0.22303025
0.0077160001 0.095351502 -0.223037
0.0079929996 0.095371999 -0.223024
0.0084419996 0.095353998 -0.223002
-0.0042134998 0.095434994 -0.22309349
-0.00416 0.095467001 -0.22309799
-0.0039300001 0.095461003 -0.223096
-0.0038409999 0.095455997 -0.223096
-0.003756 0.095452003 -0.223093
-0.003665 0.095445 -0.223065
-0.0035610001 0.095438004 -0.223048
-0.0034709999 0.095444001 -0.22309799
-0.003389 0.095434003 -0.223094
-0.0031629999 0.095452994 -0.22306851
-0.0030799999 0.095449999 -0.223085
-0.0029269999 0.095408 -0.223092
0.0061619999 0.095468 -0.223077
0.00654 0.095453002 -0.223087
0.0066494998 0.095442995 -0.223076
0.0067520002 0.095438004 -0.22308901
0.0068729999 0.095432997 -0.22306
0.0071855001 0.095450997 -0.22301799
0.007274 0.095451996 -0.223058
0.0073544998 0.095442995 -0.223022
0.0074394997 0.095439494 -0.2230335
0.0075309998 0.095467001 -0.223039
0.0076465001 0.095460996 -0.2230235
0.0077189999 0.095458001 -0.22303
0.0079960003 0.095441997 -0.22302499
0.0084480001 0.095495 -0.223001
0.0085345004 0.095455006 -0.22301
0.0086150002 0.095412999 -0.22300699
-0.0042090002 0.095540002 -0.223096
-0.0041570002 0.095536999 -0.223096
-0.0039280001 0.095531002 -0.22310001
-0.0038375 0.095560998 -0.223093
-0.0037519999 0.095556498 -0.2230905
-0.0036609999 0.095517002 -0.22309101
-0.0035550001 0.095546998 -0.22308001
-0.0034675002 0.095548004 -0.22308451
-0.0031580001 0.0955595 -0.2230835
0.0061659999 0.095541 -0.223094
0.0065434999 0.095559001 -0.22309199
0.0066530001 0.095549501 -0.22307149
0.0067643337 0.095555 -0.22308631
0.0068770004 0.095539004 -0.223061
0.007191 0.095560998 -0.22305299
0.007278 0.095558003 -0.22305401
0.0073589999 0.095550999 -0.22303601
0.0074430001 0.095546 -0.22303
0.0075340001 0.095536999 -0.22303499
0.0076494999 0.095532 -0.223023
0.0077220001 0.095527999 -0.223037
0.0079990001 0.095513999 -0.22303499
0.0080030002 0.095586002 -0.223047
0.0081660002 0.095508002 -0.223004
0.0082565006 0.095541 -0.22301
0.0085389996 0.095559999 -0.223011
0.0087339999 0.095550001 -0.223013
-0.004154 0.095609002 -0.223096
-0.0038340001 0.095665999 -0.22309101
-0.0037479999 0.095660999 -0.223094
-0.0034630001 0.095654003 -0.223093
0.005812 0.095697001 -0.22309899
0.006548 0.095665 -0.22309799
0.0066574998 0.095656 -0.223078
0.0067595001 0.095649004 -0.223075
0.006881 0.095642999 -0.223047
0.0071939998 0.095631003 -0.22305401
0.0072814999 0.095661998 -0.223041
0.0073635001 0.095656 -0.22303951
0.0074474998 0.095651001 -0.223029
0.0075385002 0.095642999 -0.22303951
0.0076549998 0.095640257 -0.22304451
0.0077275001 0.095637001 -0.223058
0.0080049997 0.095656 -0.22304299
0.0081709996 0.095647998 -0.223002
0.0085420003 0.095632002 -0.22301801
0.0086676665 0.095670998 -0.22301066
0.0087385001 0.095656998 -0.223019
0.016855666 0.095655672 -0.22309868
0.0065509998 0.095734999 -0.223094
0.0066716666 0.095750667 -0.22308634
0.006763 0.095720001 -0.223087
0.0068859998 0.095752001 -0.223069
0.0071970001 0.095702998 -0.223052
0.007243 0.095772505 -0.22306049
0.0073680002 0.095762998 -0.22304501
0.0074519999 0.095757999 -0.223039
0.0075429999 0.095751002 -0.22305
0.0076589999 0.095747001 -0.2230505
0.0077320002 0.095744997 -0.22306301
0.0080095008 0.095761001 -0.223037
0.0081765 0.095757499 -0.22302401
0.0082670003 0.095789 -0.22301701
0.0085460003 0.095739 -0.22301799
0.0086610001 0.095767006 -0.2230245
0.0087644998 0.095763505 -0.22302151
0.0167 0.095761999 -0.223093
0.016842 0.095749997 -0.223093
0.0066553336 0.095845997 -0.22308968
0.0068910001 0.095858999 -0.22308099
0.0072459998 0.095844001 -0.2230695
0.007371 0.095835 -0.22305299
0.0074550002 0.095830999 -0.223047
0.0075470004 0.095855996 -0.223046
0.0076635 0.095853254 -0.22305775
0.0077364999 0.095851004 -0.22307199
0.008014 0.095867999 -0.223046
0.0081810001 0.095864996 -0.223031
0.0082700001 0.095861003 -0.223021
0.0084619997 0.095849 -0.22300801
0.0085500004 0.095844001 -0.223012
0.0086645 0.0958395 -0.22303149
0.0087675005 0.095835499 -0.22303149
0.008893 0.095896997 -0.223012
0.0090349996 0.09589 -0.223003
0.016760999 0.095850326 -0.22308467
0.016863333 0.095867664 -0.22308867
0.0066689998 0.095941 -0.223093
0.0068939999 0.095931001 -0.223086
0.0072502503 0.095951006 -0.22307099
0.0073744999 0.095939994 -0.2230455
0.0074594999 0.095937997 -0.22305501
0.0075500002 0.095959999 -0.223041
0.0076679997 0.095960498 -0.2230635
0.007741 0.095959 -0.223086
0.0080169998 0.095940001 -0.223052
0.0081839999 0.095936999 -0.223037
0.0082729999 0.095931001 -0.22302499
0.0083760004 0.095927998 -0.223014
0.0084665008 0.095954999 -0.223014
0.0085550006 0.095952496 -0.22304
0.0086375 0.095947996 -0.2230365
0.008748333 0.095941998 -0.22303666
0.0088685006 0.095968001 -0.22301349
0.0090380004 0.095963001 -0.22301801
0.0167055 0.095937498 -0.22306901
0.01685 0.095964 -0.223092
0.016900999 0.095960997 -0.223096
0.0065620001 0.096019 -0.22309899
0.0068974998 0.096036002 -0.223086
0.0072544999 0.096056998 -0.22307649
0.0073799998 0.096046999 -0.22306401
0.007464 0.096042998 -0.22305
0.007555 0.096035004 -0.223067
0.007642 0.096032999 -0.223076
0.0077306665 0.09605366 -0.22308333
0.0080215 0.096046001 -0.22306401
0.0081885001 0.096042998 -0.22304699
0.0082775 0.096038997 -0.2230445
0.0083814999 0.096036002 -0.22304299
0.008471 0.096061997 -0.223019
0.00856 0.096060999 -0.22305501
0.0086420001 0.096055999 -0.223057
0.0087533332 0.096049666 -0.22305101
0.0088724997 0.096040502 -0.22302499
0.0090420004 0.096035004 -0.223032
0.016711 0.096046001 -0.223088
0.016852999 0.096036002 -0.22309799
0.016904 0.096032001 -0.223093
0.0069019999 0.096143 -0.223096
0.0072150002 0.096132003 -0.22308899
0.0073442496 0.096160501 -0.22308999
0.0074685002 0.096151002 -0.223067
0.0075594997 0.096141994 -0.223084
0.007646 0.096106999 -0.22310001
0.0077050002 0.096138999 -0.22309101
0.0080270004 0.096155003 -0.223083
0.0081940005 0.096151002 -0.22306401
0.0082830004 0.096147001 -0.22306
0.0083860001 0.096143998 -0.22305501
0.0084739998 0.096134 -0.223023
0.0085629998 0.096130997 -0.223057
0.0086460002 0.096130997 -0.223083
0.0087357508 0.096159995 -0.22308174
0.0088275 0.096153006 -0.2230505
0.0089040007 0.096149996 -0.22305399
0.0090469997 0.096143499 -0.223052
0.0092200004 0.096169002 -0.22302499
0.0095870001 0.096150003 -0.223002
0.0097375 0.096142501 -0.22300451
0.016856 0.096106 -0.223096
0.016907001 0.096101999 -0.223093
0.007218 0.096202001 -0.22310001
0.0073890002 0.096263997 -0.22308899
0.0074740001 0.096258998 -0.223092
0.0075639999 0.096252002 -0.223094
0.0080300001 0.096229002 -0.223095
0.0081979996 0.096224003 -0.223086
0.0082875006 0.096256003 -0.223083
0.0083910003 0.096253 -0.22307101
0.0084799994 0.096243501 -0.22306299
0.0085674999 0.096239999 -0.22307199
0.0086515006 0.096238002 -0.2230985
0.0088325003 0.0962625 -0.2230795
0.0089100003 0.096258998 -0.223077
0.009052 0.096252002 -0.223066
0.0092230001 0.096238002 -0.223021
0.0095930006 0.096258998 -0.22303
0.0097435005 0.096252248 -0.22303849
0.0098290006 0.096255995 -0.22302033
0.0099130003 0.096271001 -0.223001
0.0082919998 0.096362002 -0.223087
0.0083959997 0.096359 -0.223087
0.0084840003 0.096350998 -0.223074
0.0085730003 0.096346997 -0.223094
0.0088355001 0.096333995 -0.22308451
0.0089119999 0.096329004 -0.22308099
0.009056 0.096323997 -0.223087
0.0092270002 0.096313 -0.223049
0.0096000005 0.096372001 -0.22308201
0.0097500002 0.096364498 -0.22308299
0.0098430002 0.096353501 -0.223041
0.0099475002 0.096341506 -0.223014
0.010144 0.096329004 -0.22300699
0.016376 0.096332997 -0.223002
0.0084880004 0.096423 -0.22307999
0.008862 0.096401997 -0.223085
0.0089159999 0.096403003 -0.223097
0.0098580001 0.096449666 -0.22307301
0.0099532502 0.096451752 -0.223052
0.0100625 0.096442498 -0.223038
0.010149 0.096437 -0.223023
0.010236 0.096468002 -0.22300801
0.010594 0.096455 -0.223014
0.0163805 0.096440002 -0.22300451
0.0099600004 0.096562997 -0.223097
0.010069 0.096555002 -0.223087
0.010155 0.096547998 -0.22306
0.010239 0.096539997 -0.223022
0.010321 0.096537001 -0.22300699
0.010423 0.096541002 -0.223032
0.010598 0.096527003 -0.22303
0.010670001 0.096561499 -0.22303
0.01075 0.096556246 -0.2230355
0.010842999 0.096562661 -0.22302334
0.01095425 0.096543998 -0.22301549
0.011068 0.0965425 -0.22302401
0.011161 0.096573003 -0.223024
0.011341 0.09657 -0.22302
0.011619 0.096562997 -0.223069
0.011792 0.096546002 -0.22301599
0.011836 0.096541002 -0.223002
0.016385 0.096547 -0.223011
0.010160999 0.096658498 -0.22308899
0.010244001 0.096648 -0.22303551
0.010324501 0.096643001 -0.22300801
0.010428 0.096651003 -0.2230565
0.010628 0.096648999 -0.22306335
0.010756001 0.096668005 -0.22307751
0.0108555 0.096660003 -0.223046
0.0109605 0.096655503 -0.223049
0.011074 0.096652001 -0.223068
0.011166 0.096648 -0.22306
0.011345 0.096643001 -0.22305401
0.011623 0.096635997 -0.223097
0.011798 0.096625 -0.223078
0.011854599 0.096661195 -0.22307281
0.011941999 0.096644498 -0.22304201
0.012036 0.096651338 -0.22303401
0.016391 0.096657999 -0.22304401
0.01025 0.096761003 -0.223083
0.010331 0.096754 -0.22305
0.010434 0.096759997 -0.22309101
0.010645 0.096747503 -0.2230925
0.010735 0.096741997 -0.22309799
0.010859501 0.096734002 -0.22307101
0.0109645 0.096728504 -0.22308201
0.011078 0.096726999 -0.223088
0.011171499 0.096757002 -0.223084
0.011349 0.096717998 -0.22308201
0.011949 0.096758999 -0.22309799
0.012055499 0.096748002 -0.2230615
0.012182 0.096740998 -0.223019
0.013633 0.096744001 -0.223006
0.0137315 0.096738502 -0.223002
0.016121 0.096767001 -0.223014
0.016396999 0.096768998 -0.223083
0.010887 0.096807003 -0.223095
0.012159334 0.096840344 -0.22306533
0.013463 0.096896 -0.223032
0.0135525 0.096855499 -0.22302499
0.013638999 0.096855 -0.223052
0.013739 0.096851751 -0.22306651
0.013912 0.096871004 -0.223022
0.016035 0.096841998 -0.22301701
0.016124999 0.096841 -0.22304399
0.0164 0.096841 -0.22309799
0.012363 0.096951999 -0.22304501
0.012534 0.096941002 -0.223012
0.012627 0.096934997 -0.223014
0.01275 0.096927501 -0.22302499
0.012822499 0.096995503 -0.2230275
0.0130185 0.096945502 -0.223015
0.013266001 0.096939996 -0.223037
0.013466 0.096969001 -0.223037
0.013558 0.096968003 -0.22306199
0.013644 0.096963003 -0.223066
0.013917 0.096947998 -0.22307201
0.014036 0.096942998 -0.223048
0.015945001 0.096965671 -0.22302
0.0160415 0.096955001 -0.22306699
0.0161305 0.096950002 -0.22307
0.012368999 0.097061999 -0.22308099
0.012541 0.097054496 -0.223069
0.012633 0.097046003 -0.22306001
0.012707001 0.097042501 -0.22307301
0.012851334 0.097066335 -0.22304334
0.012958 0.097056001 -0.22303
0.013025 0.097057998 -0.22306199
0.013272 0.097051002 -0.22307201
0.01347 0.097043 -0.22305299
0.013562 0.097039998 -0.22307201
0.013647 0.097034998 -0.223079
0.014041 0.09702 -0.223086
0.014116 0.097039998 -0.2230175
0.015862999 0.097064003 -0.223023
0.015941 0.097064495 -0.223046
0.016047001 0.097066 -0.223093
0.016136 0.097061001 -0.223096
0.012547 0.097163998 -0.22309899
0.012852 0.097144 -0.22308201
0.0129335 0.097134501 -0.22307199
0.01303 0.097133003 -0.22309899
0.013276 0.097125001 -0.223096
0.013475 0.097117998 -0.22309101
0.013565 0.097112 -0.223092
0.014122 0.097150996 -0.223047
0.014202 0.097143002 -0.223006
0.014726 0.097190998 -0.223004
0.015306 0.097162999 -0.22300699
0.015728001 0.097139999 -0.22303399
0.015867 0.097135998 -0.223041
0.0159445 0.097136497 -0.2230605
0.014126 0.097225003 -0.223077
0.014238 0.097263671 -0.22303367
0.014446 0.097274497 -0.223003
0.014581 0.097268999 -0.223014
0.014664 0.097267002 -0.223033
0.014731 0.097267002 -0.223038
0.014878 0.09725 -0.22301
0.015042 0.097246997 -0.22302499
0.015127 0.097240999 -0.22302701
0.015225 0.097236 -0.22301701
0.015311 0.097240001 -0.223051
0.01548 0.097227998 -0.223024
0.015733499 0.097249001 -0.22305401
0.015873 0.097248502 -0.223078
0.015940333 0.097234666 -0.22308533
0.014215 0.097367004 -0.22310001
0.014304 0.097364999 -0.223097
0.0144515 0.097353503 -0.22306299
0.014586 0.097347997 -0.223066
0.014669 0.097344004 -0.223065
0.014735 0.097341999 -0.223075
0.014883 0.097324997 -0.223048
0.015048999 0.097359002 -0.223077
0.015132 0.097318001 -0.223067
0.015231 0.097313002 -0.223065
0.015316 0.097314999 -0.223085
0.015485 0.097305 -0.223066
0.015737999 0.097355999 -0.22306199
0.0145 0.097427003 -0.223095
0.014673 0.097418003 -0.22309899
0.014888 0.097401999 -0.223086
0.011998 0.091999002 -0.22299901
0.011639 0.092051499 -0.22298601
0.011735249 0.092042498 -0.22297475
0.011829 0.092074998 -0.22298799
0.011912 0.092069998 -0.22299001
0.012172 0.092064999 -0.223
0.011665 0.092155002 -0.222983
0.011738 0.092147 -0.22295851
0.011831 0.092143998 -0.22296099
0.011914 0.092138998 -0.222966
0.012003 0.092141002 -0.22299901
0.012174 0.092134997 -0.222984
0.012514 0.092151001 -0.22298101
0.012640666 0.092156671 -0.22298901
0.012707001 0.092140004 -0.222992
0.011448 0.092239998 -0.22299799
0.0116695 0.092261001 -0.22298351
0.01174225 0.092252254 -0.22295424
0.011833999 0.092246994 -0.222947
0.011917001 0.092243999 -0.22295
0.0120055 0.092243999 -0.222967
0.0121775 0.092240006 -0.2229875
0.0123505 0.092234001 -0.222987
0.012445 0.092262 -0.22298799
0.012518 0.092257999 -0.22297999
0.012636499 0.092248 -0.22297549
0.012739999 0.092242002 -0.222985
0.013733 0.092269003 -0.223
0.011452001 0.092345499 -0.22298601
0.011642667 0.092345335 -0.22297466
0.011746 0.092358001 -0.2229435
0.011838 0.092353001 -0.22294
0.011921 0.092348002 -0.222947
0.012008 0.092347004 -0.222928
0.012181 0.092344999 -0.22297101
0.012353 0.092338003 -0.222967
0.012446 0.092331998 -0.22296999
0.012521001 0.092361003 -0.222959
0.012639499 0.092352994 -0.222955
0.01274275 0.092345752 -0.22295825
0.012839001 0.092344001 -0.222986
0.013087 0.092371002 -0.22298799
0.013286 0.092363 -0.222985
0.013376 0.092358001 -0.22297999
0.013462 0.092353001 -0.222995
0.013561 0.092347503 -0.222987
0.013735 0.092335999 -0.222985
0.013934 0.092399001 -0.222976
0.011455 0.092449002 -0.222965
0.011652499 0.092436001 -0.222956
0.0117495 0.09246175 -0.222929
0.011841999 0.092458501 -0.222939
0.011925001 0.092454001 -0.22294399
0.012011 0.092450999 -0.22291
0.012182999 0.092447504 -0.22293049
0.012357 0.092442006 -0.22295
0.012449499 0.092435502 -0.22295299
0.012523 0.092464 -0.222927
0.012643499 0.092459001 -0.2229495
0.012746001 0.0924505 -0.222938
0.012841 0.092445999 -0.222945
0.013089 0.092437997 -0.22296201
0.013288 0.092432998 -0.222969
0.013378 0.092460006 -0.222946
0.0134655 0.092459001 -0.22297099
0.01356475 0.092453495 -0.22297874
0.013737001 0.092440501 -0.22295299
0.0138585 0.092442006 -0.2229785
0.013936 0.092465997 -0.222945
0.011458 0.092553496 -0.22294399
0.01165675 0.092542998 -0.22295901
0.011752499 0.092565998 -0.2229085
0.011845 0.092563003 -0.22291701
0.011928 0.092557997 -0.22292601
0.012015 0.092556 -0.222905
0.012186 0.092551 -0.22290599
0.012359 0.092543997 -0.222912
0.012452 0.092538998 -0.222929
0.012525 0.092533998 -0.222913
0.01264725 0.092563502 -0.22294074
0.012747999 0.092520505 -0.2229265
0.012843 0.092513002 -0.222919
0.01309 0.092539996 -0.2229135
0.013290999 0.092537999 -0.2229595
0.013382 0.092565 -0.222929
0.013468 0.092560001 -0.222936
0.013567 0.092555501 -0.222948
0.013739 0.092542998 -0.222918
0.013861 0.092542998 -0.222945
0.013938 0.092536002 -0.222937
0.014023 0.092538998 -0.222982
0.014112 0.092537001 -0.222991
0.014218 0.092532001 -0.222996
0.010676 0.092694998 -0.222991
0.010756333 0.092667662 -0.22299467
0.011009 0.09268 -0.222995
0.011189 0.092676997 -0.222995
0.011462 0.092657998 -0.22293399
0.01166 0.092647001 -0.222937
0.011847 0.092633002 -0.222913
0.01193 0.092626996 -0.22290599
0.012455 0.092609003 -0.22291499
0.0125295 0.092638999 -0.222912
0.012629 0.092667997 -0.22291601
0.013294 0.092642002 -0.222936
0.013384 0.092634998 -0.222921
0.0134705 0.092664495 -0.22291401
0.01356975 0.092659496 -0.22291824
0.013865 0.092648998 -0.2229315
0.013942 0.092641994 -0.22292849
0.0140245 0.092639506 -0.2229325
0.014114 0.092639998 -0.2229525
0.014221 0.092635497 -0.222969
0.014311 0.092669003 -0.222986
0.010520499 0.092739001 -0.222996
0.010678 0.092765003 -0.222974
0.0107505 0.092760503 -0.2229735
0.01092 0.092757002 -0.222992
0.011011 0.092749 -0.222973
0.011191 0.092747003 -0.222977
0.011464 0.092730001 -0.222937
0.011663 0.092750497 -0.22291599
0.01185 0.092703 -0.222913
0.0132975 0.092746004 -0.2229225
0.013386 0.092703998 -0.222912
0.013868 0.092752002 -0.22290801
0.013944 0.092744999 -0.222904
0.014027 0.092743002 -0.222901
0.014116 0.092743002 -0.22291
0.014224 0.092739001 -0.222949
0.014312 0.092738003 -0.22296099
0.014405 0.092735 -0.222996
0.010096 0.092863001 -0.223
0.010177 0.092858002 -0.222987
0.010454 0.092848003 -0.22299901
0.0106545 0.092835501 -0.22298199
0.010762666 0.092853002 -0.22297032
0.0108405 0.092863999 -0.222983
0.010923 0.092859 -0.222969
0.011014 0.092854001 -0.22295201
0.0111935 0.092849001 -0.2229535
0.011468 0.092834994 -0.22292501
0.014227 0.092842996 -0.222923
0.014315 0.092841998 -0.2229365
0.01444825 0.092836246 -0.22296301
0.014559 0.092869997 -0.22299799
0.010181 0.092929997 -0.22299699
0.010458 0.092955001 -0.222994
0.0105555 0.092949003 -0.222986
0.01065875 0.092941999 -0.22297674
0.010748667 0.09294834 -0.22296233
0.010843 0.092967004 -0.222964
0.010926 0.092964001 -0.22295301
0.011017 0.092955999 -0.222932
0.011198 0.092955999 -0.22295401
0.014318 0.092945002 -0.222912
0.014451 0.092940003 -0.22293401
0.01456 0.092937998 -0.222966
0.0147095 0.092959002 -0.222958
0.010018 0.093075998 -0.222994
0.010143001 0.093036249 -0.2229815
0.010284999 0.093035996 -0.22298449
0.010461 0.093057998 -0.222982
0.010559 0.093052998 -0.2229735
0.010662001 0.093045503 -0.22296201
0.010760499 0.093041003 -0.2229555
0.010846 0.093037002 -0.22296
0.010928 0.093033001 -0.22294199
0.0110205 0.093061 -0.222913
0.0112 0.093025997 -0.22295
0.011202 0.093093999 -0.22292601
0.014467333 0.093030669 -0.222914
0.014562 0.093040496 -0.22292951
0.014712 0.093061998 -0.22292601
0.01002 0.093148001 -0.22298799
0.010145999 0.093141004 -0.2229695
0.010288 0.093140997 -0.222957
0.010465 0.093162 -0.22296399
0.01056225 0.093157999 -0.22295702
0.010665501 0.093151003 -0.22295024
0.0107635 0.093145251 -0.22293675
0.0108495 0.093143001 -0.22294749
0.010931 0.093137994 -0.22292301
0.011024 0.093166001 -0.222905
0.014714 0.093131997 -0.22291
0.014881 0.093131997 -0.222973
0.014969 0.093198001 -0.22297899
0.0097949998 0.093232997 -0.22299901
0.0098585002 0.093261495 -0.22299001
0.0099379998 0.093291998 -0.222985
0.010024 0.093252003 -0.222978
0.0101505 0.093247004 -0.22296774
0.0102905 0.093244001 -0.2229355
0.010468 0.093268998 -0.222955
0.0105655 0.093264505 -0.222949
0.0106695 0.093256503 -0.22294
0.010766501 0.0932495 -0.22291851
0.010853 0.093245998 -0.222929
0.010935 0.093241997 -0.222909
0.014883 0.093235999 -0.222941
0.01497 0.093266003 -0.222949
0.015069 0.093263 -0.222969
0.0096979998 0.093381003 -0.222996
0.0097759999 0.093340002 -0.2229985
0.0098305 0.093369 -0.22297901
0.009939 0.093359001 -0.22296099
0.010027 0.093356997 -0.222967
0.0101535 0.093351997 -0.22295749
0.010294 0.093347996 -0.22292
0.01047 0.093336999 -0.22294401
0.0105685 0.093333498 -0.222945
0.01067275 0.09336099 -0.22293101
0.010769 0.093319505 -0.22290799
0.010854 0.093316004 -0.222909
0.010939 0.093346998 -0.222911
0.014886 0.093337998 -0.222912
0.014971 0.093332998 -0.22292
0.015071 0.093330003 -0.22294
0.0097279996 0.093448505 -0.222985
0.0098324995 0.0934375 -0.22295901
0.0099419998 0.093462497 -0.22293299
0.010031 0.093460999 -0.22295401
0.01015675 0.093455002 -0.22293425
0.0102975 0.093454003 -0.22291651
0.010473 0.093440995 -0.22291601
0.010562666 0.093427658 -0.22293733
0.010625999 0.09347 -0.22293499
0.010943 0.093451999 -0.222904
0.015074 0.093434498 -0.22292101
0.015161 0.093441501 -0.222986
0.0097595006 0.093550995 -0.2229645
0.0098357499 0.093541749 -0.2229435
0.0099459998 0.093569003 -0.22293399
0.010034 0.093565002 -0.22294
0.01012 0.093561001 -0.222937
0.010201 0.093557999 -0.222918
0.010301 0.093558997 -0.222905
0.010477 0.093546003 -0.222912
0.010548 0.093543001 -0.22291701
0.010628 0.093539998 -0.2229225
0.015163 0.093543999 -0.222949
0.0097629996 0.093656003 -0.222957
0.0098400004 0.093647495 -0.22294199
0.0099499999 0.093640998 -0.222956
0.010036 0.093635999 -0.22293299
0.010122 0.093633004 -0.222929
0.010203 0.093627997 -0.22291
0.010479 0.093616001 -0.222905
0.0106315 0.093644254 -0.22291151
0.015166 0.093647003 -0.22292501
0.015339 0.093644001 -0.222976
0.0096439999 0.093737498 -0.222992
0.0097476663 0.093751334 -0.22295399
0.0098437499 0.093752496 -0.22293724
0.0099529997 0.0937455 -0.22294301
0.01004 0.093740001 -0.222921
0.010124 0.093700998 -0.22291499
0.015169 0.09375 -0.222902
0.015341 0.093745999 -0.22294299
0.015594 0.093734004 -0.222995
0.0094980001 0.093851998 -0.22299451
0.0096469996 0.093841746 -0.22296825
0.0097320005 0.093844675 -0.22294199
0.0098474994 0.093857497 -0.22292399
0.0099569997 0.093850002 -0.222927
0.010043 0.093843997 -0.222901
0.015343999 0.093850493 -0.222918
0.015598 0.093839005 -0.22299099
0.015737001 0.093869001 -0.222986
0.0095009999 0.093953997 -0.222973
0.0096499994 0.093945503 -0.22295099
0.0097439997 0.093935996 -0.22291499
0.0098606655 0.093950003 -0.22291332
0.0099579999 0.09392 -0.22290801
0.015601 0.093943998 -0.222974
0.015763499 0.093937501 -0.2229635
0.0095035005 0.0940575 -0.22294149
0.00965425 0.094052002 -0.22295275
0.0097205006 0.094044998 -0.2229325
0.015603499 0.094045997 -0.22293401
0.01576725 0.094042502 -0.22295299
0.015849501 0.094043002 -0.222992
0.0091405008 0.094149999 -0.22298899
0.0095070004 0.094160996 -0.222928
0.0096579995 0.094154999 -0.22293651
0.0097239995 0.094150998 -0.222927
0.009966 0.094130002 -0.222904
0.015606 0.094148003 -0.222901
0.015771501 0.094149001 -0.222956
0.015853999 0.094149001 -0.222993
0.0088259997 0.0942 -0.22299901
0.0091439998 0.094254002 -0.222982
0.0095100002 0.094232999 -0.22293399
0.0096610002 0.094260246 -0.22292174
0.009726 0.094218001 -0.222901
0.0098709995 0.09423133 -0.22290666
0.00997 0.094201997 -0.222911
0.015774 0.094252743 -0.22292876
0.015856501 0.094253495 -0.22296599
0.015934 0.094286002 -0.222973
0.0087789996 0.094341002 -0.22299901
0.0089739999 0.094333 -0.222991
0.0091479998 0.094360001 -0.222974
0.0095140003 0.094338998 -0.22293201
0.0096649993 0.094366997 -0.2229255
0.0097310003 0.094360001 -0.222904
0.015858 0.094352998 -0.222909
0.015935 0.094352998 -0.22294299
0.016026 0.094352998 -0.222994
0.0083170002 0.094442002 -0.222996
0.0086399997 0.094419003 -0.223
0.0087582497 0.094449252 -0.22298625
0.008835 0.094443999 -0.222978
0.0089779999 0.094439998 -0.222987
0.0091509996 0.094463997 -0.22295
0.0095170001 0.094443001 -0.222921
0.009668 0.094436496 -0.222921
0.0097340001 0.094431996 -0.222912
0.0159385 0.094457999 -0.222937
0.016029 0.094457999 -0.222968
0.00813 0.094587997 -0.22299799
0.0082169995 0.094548501 -0.22298101
0.00832 0.094543993 -0.22296551
0.0084099993 0.094538495 -0.22298801
0.0085810004 0.094563 -0.222983
0.0087625002 0.094554 -0.222987
0.0088379998 0.094549 -0.22297201
0.0089809997 0.094544001 -0.22297201
0.0091530001 0.094531 -0.222931
0.0095214993 0.094549999 -0.22291601
0.0096636666 0.094530337 -0.22290766
0.015942 0.094563 -0.222928
0.016032999 0.094562002 -0.222955
0.0081320005 0.094658002 -0.22298899
0.0082200002 0.094651997 -0.22295401
0.0083250003 0.094654001 -0.222991
0.0084140003 0.094642997 -0.222983
0.0085419994 0.094635502 -0.222977
0.0087736668 0.094648004 -0.222978
0.0088424999 0.094656006 -0.22297001
0.0089845005 0.094649002 -0.2229555
0.0091565 0.094638005 -0.222927
0.0095250001 0.094655 -0.22291
0.015945001 0.094635002 -0.222923
0.016035 0.094632 -0.22295199
0.0081350002 0.094728 -0.222985
0.0082235001 0.094758004 -0.22295401
0.0084179994 0.094749004 -0.22297299
0.0085467501 0.094742 -0.22298199
0.008653 0.094773002 -0.22298899
0.0087465001 0.094750747 -0.22298425
0.0088459998 0.094760999 -0.222967
0.0089889998 0.094754003 -0.222955
0.0091610001 0.094745003 -0.222936
0.0095294993 0.094761997 -0.2229155
0.015946999 0.094705001 -0.222913
0.016038999 0.094737999 -0.22294199
0.0079715 0.094838001 -0.222995
0.0081395004 0.094834998 -0.222994
0.0082289996 0.094864003 -0.222969
0.0083339997 0.094866 -0.222992
0.0084220003 0.094855003 -0.222974
0.0085100001 0.094851002 -0.22298101
0.0086559998 0.094843 -0.222983
0.0087496666 0.094837002 -0.22296965
0.0088489996 0.094830997 -0.222964
0.0089919996 0.094858497 -0.2229415
0.0091654994 0.0948525 -0.22295099
0.0095340004 0.094866998 -0.222919
0.016040999 0.094841003 -0.222912
0.007975 0.094943002 -0.222995
0.0081430003 0.094939999 -0.22299001
0.0082320003 0.094935998 -0.22297201
0.0083360001 0.094935 -0.222984
0.0084265005 0.094962001 -0.2229825
0.0085416669 0.094967 -0.22298367
0.0086589996 0.094915003 -0.223
0.0087444 0.094936803 -0.22297302
0.0088353334 0.094948672 -0.22295268
0.0089959996 0.094965003 -0.222938
0.0091700004 0.094957002 -0.22294401
0.0095370002 0.094939001 -0.222921
0.0079794992 0.09505 -0.22299799
0.0081475005 0.095046997 -0.222987
0.0082350001 0.095040999 -0.222956
0.0083389999 0.095038995 -0.2229705
0.0084300004 0.095067002 -0.222965
0.0085190004 0.095063999 -0.222995
0.0086324997 0.095055997 -0.2229885
0.0087350002 0.095051996 -0.2229815
0.0088304998 0.095043004 -0.222956
0.0089990003 0.095035002 -0.22294
0.0091730002 0.095062003 -0.222929
0.0095405001 0.095044002 -0.22291699
0.0096709998 0.095072001 -0.222904
0.0097120004 0.095069997 -0.222903
0.007425 0.095118001 -0.222994
0.0079840003 0.095156997 -0.22299799
0.0081519997 0.095154002 -0.223
0.0082390001 0.095147997 -0.222964
0.008343 0.095145002 -0.222973
0.0084319999 0.095137 -0.222957
0.0085209999 0.095133997 -0.22298799
0.0086359996 0.095163003 -0.22298449
0.0087394994 0.095157497 -0.2229815
0.0088342503 0.095149994 -0.222955
0.0090034995 0.095143005 -0.2229545
0.0091770003 0.095167004 -0.222927
0.009544 0.095149003 -0.22291
0.0096739996 0.095141999 -0.22290599
0.007987 0.095227003 -0.223
0.0081569999 0.095293999 -0.222983
0.0082444996 0.095255002 -0.222987
0.008436 0.095209002 -0.222983
0.0085244998 0.095238 -0.22297099
0.0086404998 0.095268995 -0.2229895
0.0087435003 0.095263496 -0.22298649
0.0088384999 0.095255002 -0.222956
0.0090079997 0.095250003 -0.22296099
0.0091800001 0.095238999 -0.222938
0.0095485002 0.095256999 -0.2229175
0.016334999 0.095269002 -0.22299799
0.0073489998 0.095334001 -0.22299901
0.0081590004 0.095362999 -0.222969
0.0082489997 0.095362 -0.222991
0.0083520003 0.095358998 -0.222984
0.0085300002 0.095348001 -0.22299901
0.0086435005 0.095339499 -0.22299349
0.0087455008 0.095333502 -0.222974
0.0088424999 0.095360503 -0.22295025
0.0090114996 0.095355004 -0.2229555
0.0091845002 0.095346004 -0.22294301
0.0095530003 0.095362999 -0.22291499
0.0096819997 0.095353998 -0.22290701
0.0097460002 0.095351994 -0.22290799
0.016337 0.095339 -0.222982
0.0081620002 0.095435999 -0.22298799
0.0082520004 0.095431998 -0.222993
0.0083550001 0.095429003 -0.22297999
0.0084450003 0.095422998 -0.222996
0.0086583337 0.095456667 -0.22299032
0.0087497495 0.09544 -0.22297749
0.0088465 0.0954675 -0.22295499
0.009017 0.095463999 -0.222978
0.0091890004 0.095453002 -0.22294
0.0095560001 0.095432997 -0.222921
0.009687 0.095463 -0.222921
0.0097505003 0.095458001 -0.22291125
0.0163405 0.095443994 -0.222974
0.0081679998 0.095578 -0.22299799
0.0083594993 0.095535994 -0.22299249
0.0084509999 0.095564999 -0.22299901
0.0086515006 0.095551997 -0.22299349
0.008777 0.095547996 -0.222992
0.0088499999 0.095539004 -0.222967
0.009021 0.095536001 -0.222994
0.0091935005 0.095559001 -0.222956
0.0095600002 0.095540002 -0.2229235
0.009691 0.095568001 -0.22291601
0.0097550005 0.095564 -0.222912
0.016344 0.095549002 -0.22297101
0.0082599996 0.095643997 -0.223
0.0083640004 0.095642999 -0.22299699
0.0084530003 0.095634997 -0.222995
0.008622 0.095624998 -0.222991
0.0087815002 0.095653996 -0.22299349
0.0088542504 0.095645495 -0.22297099
0.0090244999 0.095641002 -0.22298649
0.009199 0.095668003 -0.222977
0.0095640002 0.095645003 -0.222922
0.0096939998 0.095637999 -0.222918
0.0097580003 0.095635995 -0.222921
0.0098860003 0.095696002 -0.222905
0.0099474993 0.095656 -0.222912
0.010027 0.095684998 -0.222903
0.016348001 0.095654994 -0.22296351
0.0082630003 0.095716 -0.223
0.0083680004 0.095748 -0.222996
0.0084565002 0.095740005 -0.2229905
0.0088590002 0.095752001 -0.222978
0.0090290001 0.095746003 -0.22298899
0.0092019998 0.095739998 -0.22298101
0.0095690005 0.095752999 -0.22293851
0.0096969996 0.095710002 -0.22292399
0.0097499993 0.095749997 -0.22292681
0.0098660002 0.095768005 -0.2229085
0.016352 0.095760003 -0.22296
0.0083720004 0.095854998 -0.223
0.0088546667 0.095849 -0.222991
0.0090319999 0.095817998 -0.222991
0.0092054997 0.095845997 -0.222985
0.0095739998 0.095861003 -0.222959
0.0097456658 0.095851004 -0.222937
0.0098689999 0.09584 -0.22292
0.0099539999 0.095830999 -0.22290599
0.010035 0.095896997 -0.22290701
0.010208 0.09589 -0.222902
0.016354 0.095830001 -0.22295
0.0092099998 0.095951997 -0.222986
0.0095769996 0.095932998 -0.222965
0.0097505003 0.095958672 -0.22295384
0.0098737497 0.095947757 -0.22293401
0.0099589992 0.095938995 -0.222927
0.010039 0.095968999 -0.22292399
0.010125 0.095964998 -0.22291
0.010211 0.095962003 -0.22290599
0.010395 0.095962003 -0.22291
0.016085001 0.095973 -0.222901
0.0163575 0.095936 -0.222938
0.0092140008 0.096057497 -0.222984
0.0095815007 0.096039504 -0.2229705
0.0097340001 0.096070498 -0.22299099
0.0098279994 0.09606 -0.2229535
0.0099325003 0.096049502 -0.222939
0.010041 0.096041001 -0.22292399
0.010129 0.096037 -0.222918
0.010255 0.096031502 -0.2229075
0.010398 0.096032999 -0.222923
0.010576 0.096091002 -0.222913
0.0106715 0.096049502 -0.2229075
0.010733999 0.096059673 -0.22292501
0.010803 0.096078001 -0.222903
0.010961 0.096070997 -0.222904
0.016086999 0.096045002 -0.222901
0.016363 0.096043997 -0.222957
0.0098315002 0.096134 -0.222974
0.0099382503 0.09615875 -0.222965
0.010047 0.096149996 -0.22295299
0.010134 0.096145503 -0.22294849
0.010246 0.096128337 -0.22292866
0.010302 0.096173003 -0.22292399
0.010402 0.096139506 -0.22292501
0.010579 0.096162997 -0.222929
0.01065 0.096160002 -0.222931
0.01073 0.096156999 -0.222945
0.010806 0.096150003 -0.222919
0.010964 0.096143 -0.222919
0.016093001 0.096187003 -0.22290599
0.016368501 0.096153997 -0.2229825
0.0098639997 0.096203998 -0.222995
0.009974 0.096263997 -0.222983
0.010052 0.096258 -0.22298101
0.01014 0.096256003 -0.222987
0.010225 0.096251003 -0.22296099
0.010305 0.096243002 -0.222929
0.010406 0.096244 -0.22291601
0.010582 0.096233003 -0.222937
0.010654 0.096233003 -0.222955
0.010733999 0.09623 -0.22296199
0.0108345 0.096256748 -0.22292751
0.01093875 0.096249998 -0.22292849
0.011053 0.096284002 -0.222929
0.011146 0.096279003 -0.222928
0.011324 0.096274003 -0.222911
0.016052 0.096260503 -0.22291151
0.016372999 0.096261002 -0.222994
0.010056 0.096332997 -0.22299699
0.010229999 0.096359 -0.222983
0.010311 0.096354 -0.22295401
0.010411 0.096353501 -0.222938
0.010588501 0.096345 -0.222974
0.010658501 0.096340999 -0.2229645
0.010738749 0.096337505 -0.22297725
0.01084 0.096366502 -0.222959
0.010944501 0.096361503 -0.22296101
0.011058 0.096355997 -0.222959
0.01115 0.096354 -0.22296
0.011327 0.096344002 -0.222921
0.011779999 0.096357495 -0.22292
0.011826 0.096389003 -0.22290801
0.016100001 0.096331 -0.22292399
0.010317 0.096464999 -0.222991
0.010418 0.096465997 -0.22299799
0.010664 0.096451998 -0.222996
0.010744 0.096446499 -0.223
0.010844 0.096440002 -0.222986
0.010949 0.096434504 -0.2229875
0.011062 0.096431002 -0.222987
0.0111555 0.096461996 -0.222985
0.011332501 0.096453503 -0.222946
0.011609999 0.096444502 -0.222969
0.011787 0.096468002 -0.222964
0.011854 0.0964595 -0.2229335
0.011962499 0.096453503 -0.22293201
0.012078 0.096446 -0.22291601
0.015939999 0.096478 -0.222901
0.016014 0.096440002 -0.22291499
0.016104501 0.096439004 -0.2229425
0.010871 0.096511997 -0.222996
0.011884 0.096533999 -0.222987
0.011935 0.096532002 -0.22297999
0.012057333 0.096548997 -0.222978
0.012172 0.096588999 -0.22293501
0.012779 0.096554004 -0.222903
0.013537 0.096594997 -0.22291701
0.013622 0.096589997 -0.22290599
0.015943 0.096551001 -0.222921
0.016021 0.096551001 -0.22295401
0.016109999 0.096547998 -0.222967
0.012177 0.096663997 -0.222977
0.012345 0.096651003 -0.222918
0.012517 0.096643999 -0.222904
0.012647 0.096635498 -0.22291
0.012783 0.096628003 -0.22292501
0.012827 0.096698001 -0.222909
0.012938 0.096688002 -0.222911
0.0130025 0.096648999 -0.2229135
0.013251 0.096678004 -0.222927
0.013449 0.096670002 -0.22291601
0.013541 0.096669003 -0.222949
0.013663501 0.096664503 -0.222955
0.013753 0.096657 -0.22294401
0.013897 0.096643999 -0.222904
0.015867 0.096660256 -0.222921
0.015949 0.096661001 -0.222949
0.016025499 0.096659005 -0.22297299
0.0161155 0.096657 -0.222991
0.012349 0.096726 -0.222946
0.012522999 0.096755996 -0.22294101
0.01265275 0.096745998 -0.2229415
0.0127875 0.096736498 -0.22294101
0.0128565 0.0967675 -0.222927
0.012942 0.096759997 -0.22293501
0.013007 0.096758001 -0.22293399
0.013255 0.096752003 -0.222945
0.013454 0.096744999 -0.222948
0.013545 0.096741997 -0.222965
0.013904501 0.096756503 -0.22296
0.014023 0.096751496 -0.2229225
0.015873 0.096771002 -0.22295949
0.015954001 0.096770003 -0.22296999
0.016031001 0.096767001 -0.22298899
0.0123555 0.096837997 -0.22298349
0.01253 0.096868001 -0.222984
0.012659 0.096857995 -0.22298801
0.012794 0.096846998 -0.22297999
0.012861 0.096842498 -0.2229555
0.012946 0.096835002 -0.222967
0.013013 0.096835002 -0.22297999
0.013259 0.096827 -0.22298101
0.013459 0.096823998 -0.223
0.014031 0.096865997 -0.22299001
0.014106 0.096856996 -0.222958
0.015711 0.096841 -0.22291701
0.015852001 0.096842997 -0.222964
0.015928999 0.096841998 -0.222973
0.012874667 0.09693867 -0.22298032
0.012951501 0.096945502 -0.2229895
0.014164333 0.096948333 -0.22295099
0.014280001 0.096954502 -0.2229255
0.014564 0.096973002 -0.222911
0.014647 0.096970998 -0.222914
0.015025 0.096947998 -0.222909
0.01511 0.096942998 -0.22290599
0.015716501 0.096951999 -0.22294751
0.015856 0.096950002 -0.22297099
0.015904 0.096915998 -0.222982
0.014198 0.097069003 -0.222982
0.014286 0.097066 -0.22297101
0.014389 0.097052 -0.22290599
0.014478 0.097052 -0.222928
0.014569 0.097048 -0.222939
0.014651 0.097043 -0.222939
0.014716 0.097038999 -0.222918
0.014869 0.097098999 -0.222946
0.0150315 0.097060502 -0.22295001
0.015116001 0.097054496 -0.22294301
0.015241333 0.097034335 -0.22292399
0.015301 0.097085997 -0.222957
0.0154675 0.0970385 -0.22292599
0.015722999 0.097065002 -0.22299799
0.014289 0.097138003 -0.22297899
0.014394 0.097129002 -0.222946
0.014482 0.097126 -0.22296
0.0145745 0.097158 -0.22296849
0.014657499 0.097154498 -0.22297899
0.014721 0.097116001 -0.22296
0.014874 0.097176 -0.22297999
0.015038 0.097172 -0.222993
0.015123 0.097167 -0.222986
0.01522 0.097158998 -0.222966
0.015475 0.097152002 -0.22297999
0.014293 0.097211003 -0.222987
0.014397 0.097200997 -0.222968
0.014486 0.097200997 -0.222978
0.012749 0.092586502 -0.222892
0.012844 0.092583001 -0.222893
0.011754001 0.092634998 -0.22289449
0.011931 0.092694998 -0.222881
0.0120175 0.092658505 -0.222875
0.012189 0.092655495 -0.2228855
0.012362 0.092648998 -0.222891
0.012456 0.092678003 -0.22289599
0.01267 0.092665002 -0.22288901
0.01275 0.092654496 -0.222857
0.012846 0.092652 -0.222876
0.013093 0.092644997 -0.22288699
0.013742 0.092647001 -0.222893
0.011758 0.092740998 -0.22288725
0.011852 0.092772 -0.22289599
0.011933 0.092763998 -0.222859
0.01202 0.092761002 -0.222845
0.012191 0.092758 -0.222849
0.012365 0.092753001 -0.222875
0.012458 0.092745997 -0.22287001
0.012532 0.092743002 -0.222884
0.0126505 0.092734002 -0.22287151
0.01275325 0.092758998 -0.22284223
0.012850501 0.092758 -0.22288001
0.0130965 0.092748001 -0.2228705
0.013388 0.092773996 -0.22289599
0.013472 0.092766002 -0.222863
0.013546 0.092765003 -0.22288901
0.0136 0.092762001 -0.222899
0.013745 0.092752002 -0.222875
0.011666 0.092855006 -0.22289199
0.0117615 0.092845 -0.22287649
0.011853 0.092841998 -0.222868
0.011936 0.092834003 -0.222857
0.012023 0.092832997 -0.222845
0.012195 0.092862502 -0.2228395
0.012368999 0.092858002 -0.22286201
0.012461 0.09285 -0.22284749
0.012535 0.092847005 -0.22286099
0.012654 0.092838496 -0.22285926
0.012757 0.092864498 -0.22283599
0.012854 0.092862003 -0.222867
0.0131 0.092854001 -0.222872
0.013344999 0.092846498 -0.2228895
0.013474 0.092836 -0.222847
0.013547 0.092831999 -0.222859
0.013602 0.092831999 -0.22288799
0.013747999 0.092854001 -0.22284201
0.01387 0.092855498 -0.2228725
0.013947 0.092848495 -0.2228705
0.01403 0.092846498 -0.22287449
0.014119 0.092846498 -0.22289249
0.011471 0.092937 -0.22289599
0.011669 0.092958502 -0.22287449
0.011764249 0.09294825 -0.2228495
0.011856 0.092943996 -0.22284651
0.011939 0.092939004 -0.222848
0.012026 0.092938006 -0.22283399
0.012198 0.092967004 -0.222826
0.012372 0.092963003 -0.222847
0.012464 0.092952996 -0.222829
0.012538 0.092950001 -0.222835
0.0126575 0.092942998 -0.22284949
0.012759499 0.092933998 -0.2228335
0.012855 0.092931002 -0.22285099
0.013104 0.092959002 -0.22285551
0.0133485 0.092950754 -0.22286926
0.013478 0.092941001 -0.2228495
0.013550499 0.092937998 -0.222855
0.013605 0.092936501 -0.222875
0.01375 0.092955999 -0.22280601
0.013873 0.092959002 -0.22284301
0.013949 0.092951998 -0.222839
0.014032 0.092950001 -0.222844
0.014122 0.092950001 -0.22286101
0.01423 0.092947997 -0.2229
0.011474 0.093042001 -0.22287801
0.011671999 0.093062997 -0.222856
0.011767 0.093052998 -0.2228235
0.011859 0.093048997 -0.22282501
0.011942 0.093043 -0.222826
0.012029 0.093039997 -0.22280601
0.012201 0.093037002 -0.22282401
0.012375 0.093032002 -0.222844
0.012467001 0.093058005 -0.22281051
0.012541 0.093053505 -0.222812
0.0126605 0.093047507 -0.22282825
0.012762999 0.093039244 -0.22281951
0.012858 0.093034998 -0.22282049
0.013107 0.093062997 -0.222845
0.013351 0.093052998 -0.2228445
0.013481 0.093045004 -0.222826
0.013554 0.093042001 -0.22284
0.013608 0.093041003 -0.22285201
0.013876 0.093063504 -0.22283751
0.013952 0.093055002 -0.22281399
0.014035 0.093052998 -0.22281051
0.014124 0.093052998 -0.2228335
0.014232 0.093050003 -0.222872
0.01432 0.093047 -0.22287551
0.014412 0.093078002 -0.222882
0.011203 0.093162999 -0.22289699
0.011476 0.093144 -0.22285099
0.011681666 0.093154334 -0.22283067
0.011795 0.093120001 -0.222813
0.0118625 0.093153 -0.2228125
0.011944 0.093112998 -0.222813
0.012203 0.093107 -0.222812
0.012377 0.093102001 -0.222828
0.012544 0.093158998 -0.22280601
0.012643 0.093153 -0.222822
0.012862 0.093140997 -0.22282
0.01311 0.093133003 -0.222837
0.013338666 0.093147002 -0.222821
0.013483 0.093115002 -0.222808
0.013557 0.093145996 -0.22281149
0.0136105 0.093143001 -0.222818
0.013879 0.093167998 -0.22281399
0.014128 0.093158998 -0.222826
0.014235 0.093153998 -0.222847
0.014324 0.093152002 -0.222865
0.014456499 0.093145996 -0.22288099
0.014564 0.093144 -0.222893
0.014716 0.093199 -0.22288901
0.011026 0.093238004 -0.22289599
0.011205 0.093232997 -0.222883
0.011479501 0.093249001 -0.222835
0.011655 0.093237996 -0.22282201
0.011866 0.093258001 -0.222802
0.012547 0.093229003 -0.22280601
0.012645 0.093221001 -0.22280701
0.012864 0.093209997 -0.222812
0.013111 0.093200997 -0.222817
0.013312 0.093263 -0.222803
0.013614 0.093248002 -0.222811
0.014131 0.093263507 -0.2228125
0.0142375 0.093256503 -0.22281599
0.014325 0.093218997 -0.222831
0.014417 0.093250006 -0.22284201
0.014534 0.093246996 -0.22286175
0.014718 0.093268998 -0.22286899
0.010771001 0.093387499 -0.2228955
0.010857 0.093386002 -0.22289801
0.011030501 0.093342498 -0.222893
0.011208 0.093335003 -0.2228685
0.011483 0.093353003 -0.222827
0.011658 0.093341999 -0.222812
0.011869 0.093327999 -0.222802
0.013315 0.093335003 -0.222801
0.01442 0.093355 -0.222819
0.0145375 0.093353003 -0.22285649
0.01472 0.093337998 -0.222855
0.010749333 0.093459666 -0.22288866
0.010859 0.093456 -0.22289599
0.011034 0.093447 -0.222883
0.011212 0.093442 -0.22286201
0.011487 0.093458995 -0.222819
0.011662 0.093447 -0.22280699
0.014422 0.093424 -0.222804
0.014540249 0.093456753 -0.22282974
0.014722 0.093440995 -0.222828
0.014888 0.093441501 -0.22288001
0.014974 0.093437001 -0.22288799
0.010726999 0.093530998 -0.22288799
0.0108325 0.093560241 -0.22287975
0.010946 0.093557 -0.22288701
0.011037501 0.093552001 -0.22287101
0.011215501 0.093545496 -0.22284651
0.014726 0.093546003 -0.22281601
0.014892 0.093547001 -0.222875
0.014976 0.093539 -0.222857
0.015077 0.093539 -0.222899
0.010205 0.093698002 -0.222895
0.010305 0.093664005 -0.2228965
0.010482 0.093686 -0.222895
0.01055 0.093647495 -0.222886
0.0107305 0.093636759 -0.22287801
0.010834999 0.093663 -0.222847
0.010949 0.093661003 -0.222865
0.01104 0.093653999 -0.22284999
0.011218 0.093649 -0.222817
0.014728 0.093617 -0.22281399
0.0148945 0.093649507 -0.22284299
0.0149795 0.093644001 -0.22284201
0.0150795 0.093641996 -0.22287399
0.010126 0.093769997 -0.22289599
0.010207 0.093764998 -0.22287899
0.010309 0.093768999 -0.222892
0.010484 0.093754999 -0.22288901
0.010553 0.09375 -0.222866
0.010634501 0.093747005 -0.2228885
0.010734 0.093740501 -0.222864
0.0108375 0.093732998 -0.222847
0.010951 0.093731001 -0.222857
0.011043 0.093759 -0.222828
0.0112225 0.093754999 -0.22282851
0.014898 0.093754001 -0.222826
0.014984 0.093750998 -0.222848
0.015083 0.093748003 -0.222864
0.010128 0.093840003 -0.222876
0.01021 0.093835004 -0.22287101
0.010311 0.093837999 -0.222876
0.010487 0.09386 -0.22286901
0.0105565 0.093854994 -0.222853
0.010637751 0.093851753 -0.222873
0.010737251 0.093845248 -0.22284649
0.010842251 0.093839251 -0.2228515
0.010955 0.093835995 -0.22284499
0.011047 0.093864001 -0.22282401
0.011227 0.093860999 -0.222828
0.014899 0.093822002 -0.22280499
0.014985 0.093818001 -0.222818
0.0150855 0.093850501 -0.222836
0.015172 0.093854994 -0.22287899
0.0098200003 0.093998 -0.222892
0.0099600004 0.093987003 -0.222886
0.010046 0.093947999 -0.222882
0.010131 0.093943998 -0.22286451
0.0102135 0.093942001 -0.2228685
0.010314 0.093943 -0.22286099
0.01049 0.093964003 -0.222854
0.010561 0.093961 -0.22285099
0.010640999 0.093955994 -0.22285849
0.01074 0.093948498 -0.222821
0.0108455 0.093945503 -0.222848
0.010959 0.093941003 -0.222844
0.01105 0.093934998 -0.222819
0.011229 0.093930997 -0.222812
0.015174 0.093956999 -0.222845
0.015347 0.093952999 -0.22288799
0.0097749997 0.094036996 -0.22289599
0.0098534999 0.094066501 -0.222893
0.0099630002 0.094057001 -0.222884
0.01005 0.094053 -0.222872
0.010135 0.094049998 -0.22286899
0.010217 0.094047002 -0.22286201
0.010318 0.094048001 -0.222855
0.010493 0.094034001 -0.222855
0.010563 0.094030999 -0.222847
0.010653333 0.094051339 -0.22286767
0.010744 0.094053745 -0.222822
0.0108495 0.094049998 -0.22284126
0.010962 0.094045505 -0.22283599
0.011052 0.094002999 -0.22280701
0.015175 0.094024003 -0.222809
0.0153485 0.094054997 -0.222846
0.0097789997 0.094141997 -0.22288699
0.0098564997 0.094136499 -0.222895
0.010053501 0.094159 -0.22287101
0.010139501 0.094155997 -0.22286901
0.0102215 0.094152004 -0.2228615
0.010322 0.094153002 -0.2228545
0.010497499 0.094140001 -0.222854
0.010567 0.094136 -0.22283599
0.01064 0.094145663 -0.22285801
0.010749 0.094161496 -0.22283399
0.010853 0.094154499 -0.22282201
0.010966 0.094149999 -0.22282501
0.015352 0.094159 -0.22282299
0.0097639998 0.09426067 -0.22287901
0.0098310001 0.094279997 -0.22289801
0.0099719996 0.094270997 -0.22289699
0.010058 0.094264999 -0.222865
0.010143 0.094260998 -0.22286201
0.010225 0.094259001 -0.222859
0.010326 0.09426 -0.222858
0.010536 0.094243497 -0.2228415
