# .PCD v0.7 - Point Cloud Data file format
VERSION 0.7
FIELDS x y z
SIZE 4 4 4
TYPE F F F
COUNT 1 1 1
WIDTH 1372
HEIGHT 1
VIEWPOINT 0 0 0 1 0 0 0
POINTS 1372
DATA ascii
-0.032938 0.122677 -0.22603649
-0.048055001 0.122956 -0.22619151
-0.04791525 0.12292938 -0.2261375
-0.047748253 0.12290449 -0.226045
-0.032370001 0.122959 -0.226181
-0.048074249 0.12310299 -0.2261765
-0.047920331 0.12310532 -0.22607566
-0.047766 0.123071 -0.226006
-0.032307602 0.12311961 -0.22610882
-0.0482505 0.1233325 -0.22616199
-0.048071999 0.12329099 -0.22607099
-0.047925569 0.12326714 -0.22603801
-0.032248002 0.12327433 -0.22605467
-0.032104999 0.12331674 -0.22612363
-0.031851999 0.123367 -0.22608399
-0.048586 0.123598 -0.22618701
-0.048244666 0.12351366 -0.22613834
-0.048088331 0.12350934 -0.22604834
-0.047981001 0.123436 -0.226004
-0.032066502 0.123458 -0.22601399
-0.031850502 0.1234785 -0.22601801
-0.031587999 0.123423 -0.226092
-0.031308666 0.12352834 -0.22607167
-0.031160999 0.123534 -0.22618701
-0.049035002 0.123767 -0.22619
-0.048926163 0.12372783 -0.22614919
-0.048717167 0.12368149 -0.2261305
-0.048585501 0.1237115 -0.22611201
-0.048240498 0.1236965 -0.2260755
-0.048069999 0.12370725 -0.22601724
-0.031223999 0.123625 -0.22600301
-0.031114001 0.1236475 -0.226072
-0.030823 0.123735 -0.226136
-0.049247999 0.12394933 -0.22615767
-0.049089003 0.12391823 -0.22613321
-0.048922777 0.12391421 -0.2260651
-0.048730332 0.12385734 -0.22603267
-0.0485835 0.1238625 -0.22602201
-0.048238002 0.123809 -0.22603101
-0.030824 0.123813 -0.22604799
-0.030691501 0.123875 -0.22607726
-0.049442001 0.124113 -0.22617701
-0.049272671 0.12408534 -0.22612417
-0.049102001 0.12411029 -0.22605072
-0.048954502 0.12406451 -0.226007
-0.03049475 0.12407824 -0.22611324
-0.049608499 0.124335 -0.2261855
-0.049481004 0.12429733 -0.22613616
-0.049304832 0.12429484 -0.22606267
-0.0491504 0.124246 -0.2260294
-0.030449999 0.124225 -0.226052
-0.030352 0.124322 -0.226099
-0.049650833 0.12452 -0.22613966
-0.049476001 0.1245175 -0.22605915
-0.049341004 0.12451566 -0.22602166
-0.030352 0.124438 -0.226007
-0.049712997 0.1246954 -0.22613361
-0.049496397 0.124707 -0.2260268
-0.030187666 0.12470933 -0.22607833
-0.049903501 0.12491184 -0.22616117
-0.049735501 0.12488317 -0.22612017
-0.04957325 0.12486374 -0.22603349
-0.02985475 0.12493825 -0.22610499
-0.029742001 0.124963 -0.226143
-0.050021 0.125175 -0.22619499
-0.049916666 0.12510478 -0.2261329
-0.049729999 0.12510251 -0.22605832
-0.049589999 0.125027 -0.226005
-0.029852999 0.12508875 -0.22602099
-0.029691836 0.12510766 -0.22607267
-0.050016001 0.12532033 -0.22618
-0.049909443 0.12532 -0.22610934
-0.049746502 0.12533626 -0.226042
-0.029266 0.12537199 -0.22615799
-0.050028335 0.125512 -0.22618099
-0.049902331 0.12549849 -0.22610885
-0.049704999 0.12551661 -0.2260268
-0.029144 0.1254755 -0.22609851
-0.028864499 0.12556249 -0.22610199
-0.0504715 0.12577599 -0.226192
-0.050299 0.1257665 -0.22617751
-0.050076641 0.1256882 -0.22617655
-0.049895555 0.12567611 -0.22610524
-0.049718402 0.1256876 -0.2260354
-0.028767999 0.125707 -0.226009
-0.05091 0.12594301 -0.22617701
-0.050717998 0.12590699 -0.22617199
-0.050501496 0.12591524 -0.22613461
-0.050295997 0.12591401 -0.22612566
-0.050105229 0.12590078 -0.2261378
-0.049914669 0.1258911 -0.22610669
-0.049710799 0.125872 -0.22604001
-0.045038499 0.125982 -0.22600901
-0.044858001 0.125967 -0.22600199
-0.044785 0.125963 -0.22600099
-0.051024333 0.12614167 -0.22617833
-0.050932501 0.12608968 -0.22613733
-0.05072983 0.12608017 -0.22609651
-0.050520714 0.12609258 -0.22607143
-0.050292503 0.12609725 -0.22605325
-0.050099663 0.12611967 -0.22607411
-0.049908414 0.1261085 -0.22606242
-0.049716748 0.12611975 -0.2260325
-0.045032497 0.12612434 -0.22601266
-0.044884998 0.126136 -0.22600234
-0.0447805 0.12606899 -0.22600299
-0.043735001 0.126195 -0.22600099
-0.042799 0.126142 -0.22600099
-0.051256999 0.126396 -0.22618601
-0.051029 0.126314 -0.22611649
-0.050927665 0.12630916 -0.22605933
-0.050725002 0.12629899 -0.2260235
-0.050521601 0.126248 -0.226017
-0.050304998 0.126232 -0.22601335
-0.050084002 0.126293 -0.2260242
-0.049893219 0.12630111 -0.22602122
-0.049710751 0.12629849 -0.22601275
-0.045434002 0.12636501 -0.22600099
-0.045351997 0.126251 -0.2260015
-0.045034666 0.12629101 -0.22602099
-0.044902831 0.12631549 -0.22602148
-0.044748999 0.12633525 -0.22601925
-0.044026501 0.12631649 -0.22601199
-0.043730497 0.12630101 -0.226004
-0.043016002 0.126331 -0.22601449
-0.042962998 0.126366 -0.226005
-0.042795002 0.126248 -0.226006
-0.051253997 0.12650451 -0.22614899
-0.051048003 0.126496 -0.226082
-0.050947998 0.1264915 -0.22603534
-0.050041001 0.126408 -0.22600099
-0.049810998 0.12646601 -0.22600099
-0.049729999 0.126461 -0.22600199
-0.047174998 0.126563 -0.22600301
-0.046652999 0.12657499 -0.226008
-0.045844 0.126452 -0.226006
-0.045768 0.126554 -0.2260125
-0.045459997 0.1265208 -0.22601143
-0.045304999 0.1265126 -0.2260056
-0.045103561 0.12648655 -0.22601546
-0.044928111 0.12648845 -0.22601843
-0.044721998 0.126495 -0.226028
-0.044482004 0.12652034 -0.22601266
-0.044018999 0.12649399 -0.22602133
-0.043804001 0.12641101 -0.226007
-0.043722998 0.126479 -0.22601266
-0.043552998 0.126471 -0.22600199
-0.043070752 0.12650551 -0.22601025
-0.042959999 0.12643801 -0.226004
-0.051249001 0.12668499 -0.22611167
-0.051043671 0.12667833 -0.22603166
-0.050982252 0.12665699 -0.226013
-0.047339 0.126752 -0.226006
-0.047084332 0.12671633 -0.22600365
-0.046875667 0.12672533 -0.22600134
-0.0466915 0.12672 -0.22600749
-0.046523333 0.12675701 -0.22600567
-0.04628 0.126624 -0.22600099
-0.046002001 0.126678 -0.22600999
-0.045999002 0.126748 -0.226014
-0.045721501 0.1266965 -0.22601549
-0.045492873 0.12671313 -0.22601901
-0.045287337 0.12671034 -0.22602232
-0.04509411 0.12669833 -0.2260361
-0.044906497 0.12668534 -0.22601992
-0.044714499 0.12667282 -0.22603635
-0.044474497 0.126698 -0.22602299
-0.044211999 0.12672333 -0.22601032
-0.04401033 0.12670802 -0.22602333
-0.043894749 0.126719 -0.2260035
-0.043753501 0.12669367 -0.22601767
-0.043540999 0.126757 -0.226009
-0.043078501 0.12672976 -0.22600248
-0.051515497 0.126938 -0.22619751
-0.051241666 0.126901 -0.22607833
-0.051037498 0.126856 -0.226014
-0.050988998 0.126819 -0.226005
-0.047720667 0.12696433 -0.22601001
-0.047449 0.1269175 -0.226013
-0.047333002 0.12689333 -0.22601767
-0.047091831 0.126883 -0.22600983
-0.046868503 0.126902 -0.22600299
-0.046683751 0.1268965 -0.2260235
-0.046501998 0.12692167 -0.22601466
-0.046268668 0.126908 -0.226016
-0.045910001 0.12688451 -0.22601683
-0.04571417 0.12687384 -0.22602051
-0.045509282 0.12688614 -0.226019
-0.045278668 0.1269235 -0.2260285
-0.045085333 0.12691122 -0.22604609
-0.044897247 0.12689792 -0.2260381
-0.044705499 0.12688483 -0.22605266
-0.044467002 0.12687467 -0.22603267
-0.0442045 0.126901 -0.22602001
-0.044003502 0.126886 -0.22603151
-0.043888833 0.12693833 -0.22601335
-0.043744501 0.12690599 -0.22603184
-0.043534998 0.12689768 -0.22602201
-0.043120198 0.1268882 -0.22601481
-0.042891998 0.12690866 -0.226009
-0.042746253 0.126941 -0.226005
-0.028184002 0.126885 -0.226171
-0.051511001 0.12711833 -0.22615068
-0.051234331 0.12711532 -0.22606401
-0.051026501 0.127142 -0.226006
-0.049047668 0.12711369 -0.22600466
-0.0489695 0.127094 -0.226006
-0.048455 0.12717199 -0.22600199
-0.047671597 0.12711421 -0.22601481
-0.047466502 0.12711316 -0.22603466
-0.047289602 0.12712041 -0.22600582
-0.047090665 0.1270939 -0.22603734
-0.046861004 0.12708034 -0.22601767
-0.046676334 0.12707366 -0.22603782
-0.046494 0.12709874 -0.22603226
-0.046259332 0.12712 -0.22603466
-0.045900833 0.12709767 -0.22603868
-0.045705002 0.12708633 -0.22604017
-0.045499247 0.12706862 -0.22604112
-0.045296602 0.1271082 -0.2260572
-0.045069121 0.12711489 -0.22605687
-0.044888079 0.12710999 -0.226059
-0.044697002 0.12709866 -0.22605516
-0.044458002 0.12708767 -0.22604632
-0.044196997 0.12707834 -0.22602534
-0.043898005 0.12710786 -0.226024
-0.043735832 0.12711982 -0.22603667
-0.043526668 0.127111 -0.22602399
-0.043098334 0.12708633 -0.22602034
-0.042914998 0.12708339 -0.22601342
-0.042718999 0.12709999 -0.22600774
-0.042409003 0.127121 -0.22601032
-0.042133 0.127106 -0.22600099
-0.028181 0.12706999 -0.22608
-0.027926669 0.12715833 -0.22618634
-0.051504001 0.127296 -0.22614799
-0.051228002 0.127294 -0.22604701
-0.049042668 0.127232 -0.22600733
-0.048966002 0.12720101 -0.226006
-0.048722498 0.12729099 -0.2260215
-0.048450001 0.127314 -0.2260015
-0.048103001 0.127296 -0.22600099
-0.047875002 0.127294 -0.2260104
-0.047706999 0.12727143 -0.22601886
-0.04747786 0.12732758 -0.22604072
-0.047271837 0.12731634 -0.2260375
-0.047081999 0.12730667 -0.22604622
-0.046850998 0.12729101 -0.22604966
-0.046667162 0.12728566 -0.22605568
-0.046486665 0.12727566 -0.22604264
-0.046251498 0.12729651 -0.2260565
-0.045891505 0.12730934 -0.22605699
-0.045696001 0.12729849 -0.2260595
-0.045521334 0.12729166 -0.22605567
-0.045306779 0.12727934 -0.22607231
-0.04507786 0.12728629 -0.22608216
-0.044885635 0.12731609 -0.22608866
-0.044703573 0.12732185 -0.22607915
-0.044449002 0.12730032 -0.22606534
-0.044188336 0.12729234 -0.226034
-0.043913715 0.12728272 -0.2260253
-0.043729249 0.1272985 -0.2260315
-0.043518003 0.127323 -0.22603767
-0.043104202 0.1272862 -0.22602081
-0.042901833 0.12728943 -0.22602116
-0.0427115 0.12727834 -0.22601749
-0.042460997 0.12731366 -0.22601765
-0.042003497 0.127345 -0.226006
-0.027898835 0.12730692 -0.22608991
-0.02773425 0.12731251 -0.22615626
-0.051497668 0.12747601 -0.22613233
-0.051223502 0.1274375 -0.226025
-0.048768669 0.12747532 -0.22600932
-0.048526 0.127534 -0.22601099
-0.048094001 0.127509 -0.22601533
-0.047880888 0.12749332 -0.22601591
-0.047715496 0.12748416 -0.22603934
-0.047556199 0.127491 -0.2260364
-0.047295 0.12750915 -0.22606985
-0.047072336 0.127519 -0.22607177
-0.046842333 0.12750433 -0.22605933
-0.046658169 0.12749784 -0.22607149
-0.046477672 0.12748884 -0.22605534
-0.046243999 0.12747434 -0.22606833
-0.045911666 0.12747666 -0.22607468
-0.045714632 0.12752101 -0.226074
-0.045512836 0.12750484 -0.22605951
-0.045298334 0.12749223 -0.2260769
-0.045061555 0.12747878 -0.22608322
-0.0448975 0.12750268 -0.22607934
-0.044716775 0.12752545 -0.22609109
-0.044440001 0.12751333 -0.22608
-0.044180002 0.12750433 -0.22604567
-0.043892886 0.12748489 -0.22603358
-0.043722004 0.12747566 -0.22604084
-0.0435105 0.127501 -0.226045
-0.043080669 0.12751234 -0.2260385
-0.042892579 0.12750302 -0.22603701
-0.0427025 0.127492 -0.22603184
-0.042574 0.12748833 -0.22600865
-0.042395335 0.12747701 -0.226013
-0.041999001 0.127451 -0.226004
-0.027818 0.127452 -0.22600999
-0.027693752 0.12749425 -0.22608
-0.027497001 0.12753749 -0.22613749
-0.05167 0.127736 -0.22618699
-0.051490664 0.12769133 -0.226101
-0.051213998 0.12768768 -0.22601634
-0.0493045 0.127792 -0.226007
-0.049128 0.127781 -0.22600199
-0.048842002 0.12762199 -0.22600099
-0.048702333 0.12768409 -0.22601189
-0.048520338 0.12767465 -0.22602133
-0.048085663 0.12772165 -0.22602367
-0.047872558 0.12770668 -0.22601812
-0.047706664 0.12769699 -0.22605066
-0.047539499 0.12768935 -0.22603768
-0.047311377 0.12768175 -0.22607975
-0.047064666 0.1276955 -0.226092
-0.046832997 0.12771635 -0.22608501
-0.046648998 0.12771049 -0.22609067
-0.046468332 0.12770049 -0.226081
-0.046234336 0.127685 -0.22609234
-0.045959666 0.12767033 -0.22608702
-0.045706373 0.12771624 -0.22608449
-0.045503836 0.12771782 -0.22607332
-0.045315426 0.12769744 -0.22608443
-0.045111123 0.12770513 -0.22608736
-0.044915915 0.12768191 -0.22609691
-0.044709668 0.127703 -0.22609599
-0.044431668 0.12772767 -0.22607233
-0.044171002 0.12771767 -0.22605498
-0.043884002 0.12769789 -0.22604322
-0.043713167 0.12768982 -0.22604334
-0.043503668 0.12768033 -0.22604133
-0.043073751 0.12769026 -0.22604576
-0.042893384 0.12772168 -0.22604132
-0.042693499 0.12770468 -0.226044
-0.042565331 0.127701 -0.22601767
-0.042387001 0.127692 -0.2260035
-0.041701 0.127792 -0.226004
-0.041441999 0.127746 -0.22601449
-0.027672 0.12765799 -0.226016
-0.027493333 0.12772267 -0.22605665
-0.051663 0.127914 -0.22618735
-0.051484 0.12790667 -0.22607534
-0.051205996 0.127901 -0.22601032
-0.049255747 0.1278965 -0.2260125
-0.049052499 0.127957 -0.226005
-0.048966501 0.12791418 -0.22602417
-0.048695572 0.127877 -0.22601615
-0.048488431 0.12789671 -0.22601657
-0.048077501 0.12789901 -0.22604451
-0.047863666 0.12791935 -0.22602656
-0.047697667 0.12790966 -0.22606467
-0.047530163 0.12790067 -0.22607066
-0.047292106 0.12788467 -0.22609067
-0.047064625 0.12786414 -0.22610037
-0.046883669 0.12791066 -0.22608466
-0.046683002 0.12792432 -0.22611399
-0.046504553 0.12791532 -0.22610521
-0.046225335 0.12789899 -0.22610533
-0.045950998 0.12788333 -0.22609667
-0.045719571 0.12788899 -0.22608714
-0.045486402 0.12791519 -0.22609361
-0.045324832 0.12792166 -0.22609882
-0.045112669 0.12790978 -0.22609299
-0.044907417 0.12789558 -0.22609933
-0.044702224 0.12788065 -0.22610633
-0.044425003 0.12790599 -0.226068
-0.044163503 0.127895 -0.22606501
-0.043875001 0.12791088 -0.22605745
-0.043704003 0.12790249 -0.22606216
-0.043494999 0.12789367 -0.226044
-0.043135334 0.12787168 -0.22604734
-0.0429058 0.127903 -0.22604421
-0.042713374 0.12792988 -0.22603974
-0.042557333 0.12791501 -0.22601502
-0.042379998 0.127869 -0.226017
-0.041737501 0.12786651 -0.2260015
-0.041468002 0.12794021 -0.2260108
-0.027197002 0.12791234 -0.22613466
-0.051656 0.12809201 -0.2261875
-0.051475 0.12811966 -0.22608268
-0.051197331 0.12811367 -0.22602065
-0.049294285 0.12805559 -0.22601686
-0.049122497 0.1281385 -0.226015
-0.048923001 0.12811601 -0.22602201
-0.048710249 0.12813026 -0.2260125
-0.048505556 0.12809989 -0.2260281
-0.048070669 0.12807633 -0.22604966
-0.0478855 0.12809774 -0.2260455
-0.047724109 0.12812433 -0.22607122
-0.047520835 0.12811333 -0.22609015
-0.047327504 0.12810034 -0.22610033
-0.047115333 0.12808777 -0.22611624
-0.046905164 0.12807816 -0.22610717
-0.046675999 0.12810251 -0.226117
-0.04648475 0.12811899 -0.22611727
-0.046217997 0.12811367 -0.22609501
-0.045941997 0.12809734 -0.226106
-0.045700997 0.12808123 -0.22609343
-0.045497 0.12808719 -0.2261014
-0.045317002 0.12809849 -0.22612025
-0.045104552 0.12812355 -0.22609323
-0.044898834 0.12810908 -0.22610502
-0.044693887 0.12809478 -0.22610433
-0.044417668 0.12808333 -0.22608101
-0.044156 0.12807266 -0.22607534
-0.043892197 0.12811221 -0.22606102
-0.043728996 0.12811691 -0.2260651
-0.043486666 0.128107 -0.22604966
-0.043125998 0.12808366 -0.22606599
-0.042925272 0.12808163 -0.22605181
-0.042716336 0.12809916 -0.22604351
-0.0425505 0.128095 -0.226008
-0.042369667 0.12811868 -0.22602099
-0.042093664 0.12810333 -0.226007
-0.041956004 0.12814167 -0.22600333
-0.041688502 0.128113 -0.226007
-0.041469749 0.12810451 -0.22601275
-0.041277997 0.1281295 -0.22600301
-0.041141 0.12819199 -0.22600301
-0.027134666 0.12812734 -0.22610633
-0.051684998 0.12829049 -0.2261775
-0.051467501 0.128296 -0.226096
-0.051189002 0.12832767 -0.22601499
-0.049963001 0.128399 -0.226005
-0.049717501 0.12833075 -0.22600624
-0.0495065 0.12837251 -0.226004
-0.049320798 0.12830439 -0.2260232
-0.049113624 0.12828763 -0.22603436
-0.048906002 0.12829155 -0.22601634
-0.048714001 0.1283118 -0.22603258
-0.048496332 0.12831244 -0.22605045
-0.048061669 0.12828965 -0.22605968
-0.047877502 0.12827466 -0.22606134
-0.047716837 0.12830119 -0.22608584
-0.047503002 0.12831059 -0.22611098
-0.047317833 0.12831335 -0.22612017
-0.047106553 0.1283011 -0.22612733
-0.046896163 0.12829117 -0.22612469
-0.046668332 0.12827933 -0.22613366
-0.046519499 0.12828434 -0.22612435
-0.046255499 0.12832825 -0.22612451
-0.045931999 0.12830766 -0.22613899
-0.045691777 0.12829399 -0.22611322
-0.045479666 0.12828566 -0.22611298
-0.04530983 0.1282755 -0.22612451
-0.045096669 0.12830116 -0.2261105
-0.044890415 0.12832317 -0.22610341
-0.044685222 0.12830845 -0.22610876
-0.044408336 0.12829667 -0.22609667
-0.044147331 0.12828633 -0.22608601
-0.043905199 0.12828401 -0.22607461
-0.043710858 0.12830958 -0.22607113
-0.043478001 0.12832101 -0.22605234
-0.043118332 0.128299 -0.22605699
-0.042910162 0.12828866 -0.22605665
-0.042709116 0.12827699 -0.22605112
-0.042543333 0.128273 -0.22601134
-0.042361997 0.128295 -0.226043
-0.042086497 0.128282 -0.226004
-0.041940998 0.12830766 -0.22600769
-0.041678999 0.128362 -0.226004
-0.041422501 0.1282465 -0.2260085
-0.041280199 0.1282872 -0.22600642
-0.041136499 0.128299 -0.226004
-0.02710275 0.12827 -0.22608849
-0.051642001 0.12848634 -0.22615333
-0.051460668 0.12847434 -0.22608966
-0.051183999 0.128471 -0.226008
-0.050002001 0.12854099 -0.22600099
-0.0499295 0.12850249 -0.22600599
-0.049680401 0.128539 -0.22601521
-0.049500499 0.12851417 -0.22601517
-0.049321502 0.12850399 -0.22603351
-0.049104333 0.12849167 -0.22604002
-0.048895363 0.12848608 -0.22603598
-0.048722401 0.1284824 -0.2260488
-0.048487719 0.12850501 -0.22606143
-0.048397001 0.128593 -0.226053
-0.048052002 0.12850167 -0.22608535
-0.047868501 0.12848783 -0.22607517
-0.047709223 0.128479 -0.22609645
-0.047513198 0.12848219 -0.22612861
-0.047301002 0.128512 -0.22612341
-0.047097553 0.12851378 -0.22614177
-0.046931002 0.12848875 -0.22615126
-0.046714403 0.12850741 -0.22615318
-0.046525329 0.12848617 -0.22613567
-0.046343997 0.1284755 -0.22614674
-0.046197999 0.128536 -0.22615901
-0.045922998 0.128521 -0.22615534
-0.045682225 0.12850656 -0.22613621
-0.045471329 0.12849833 -0.22611934
-0.045301169 0.12848949 -0.22613049
-0.045089003 0.12847856 -0.22612357
-0.044882376 0.12849937 -0.22612838
-0.04469886 0.12851201 -0.226127
-0.044532001 0.12851699 -0.22610401
-0.044398502 0.12854451 -0.22610551
-0.04413867 0.12849933 -0.22609033
-0.043887001 0.12848251 -0.22608049
-0.043723252 0.12848212 -0.22608027
-0.043470502 0.128498 -0.226064
-0.043110002 0.12851299 -0.226054
-0.042901915 0.12850308 -0.22604935
-0.042700555 0.12849055 -0.22605245
-0.042534333 0.12848501 -0.22602899
-0.042355668 0.12847434 -0.22602366
-0.042077001 0.12853201 -0.22600099
-0.041932497 0.12852199 -0.22600834
-0.041672666 0.12850533 -0.22601266
-0.040987998 0.12847 -0.226004
-0.027010666 0.128479 -0.22612566
-0.026937 0.128546 -0.226184
-0.051669501 0.12871951 -0.22615424
-0.051453669 0.12869 -0.22606432
-0.051178999 0.128612 -0.22600099
-0.050059665 0.12868734 -0.226016
-0.049945142 0.12871115 -0.22600946
-0.04972614 0.12868914 -0.22601701
-0.049482599 0.128712 -0.22603199
-0.049312335 0.12871633 -0.22605018
-0.04909578 0.1287051 -0.22604966
-0.048895299 0.12868531 -0.22606039
-0.048728 0.12868962 -0.226074
-0.0485336 0.1286844 -0.2260724
-0.048391998 0.1286965 -0.226083
-0.048043001 0.12871467 -0.226099
-0.047859665 0.12870067 -0.22608668
-0.047700331 0.12869167 -0.22610889
-0.047496837 0.128681 -0.2261285
-0.047312401 0.12868379 -0.2261256
-0.04707925 0.12871775 -0.22615261
-0.046964999 0.12872434 -0.22615899
-0.046720166 0.1287065 -0.22616716
-0.046516165 0.12869884 -0.22615266
-0.046382666 0.128692 -0.22615699
-0.046193 0.12867934 -0.22615667
-0.045915499 0.12869799 -0.226174
-0.045712668 0.12872134 -0.22614683
-0.04550622 0.12871379 -0.22614199
-0.045293003 0.12870316 -0.22613434
-0.045080557 0.12869221 -0.2261281
-0.044882722 0.12867208 -0.22612652
-0.044726398 0.12870941 -0.22612941
-0.044590503 0.12869799 -0.22612
-0.044390332 0.12872267 -0.22612368
-0.044129331 0.12871332 -0.22611034
-0.043878168 0.12869583 -0.22609015
-0.043706 0.12868622 -0.22608143
-0.043463003 0.12867667 -0.22607601
-0.043101337 0.128727 -0.22606735
-0.042893004 0.12871601 -0.22606331
-0.042691782 0.12870446 -0.22606033
-0.042525332 0.128699 -0.22604032
-0.042347003 0.12868834 -0.226034
-0.042071 0.12867467 -0.22600667
-0.041927502 0.128665 -0.226008
-0.041664999 0.12872 -0.22600432
-0.027003501 0.128659 -0.226126
-0.026966501 0.12869051 -0.226162
-0.051828999 0.12892033 -0.22618599
-0.051698338 0.12891616 -0.22614534
-0.051445335 0.128904 -0.22605599
-0.051165 0.128968 -0.22600199
-0.050051332 0.12890133 -0.22601332
-0.049911499 0.12889175 -0.22601782
-0.049708664 0.12888101 -0.22602034
-0.049494799 0.1288836 -0.226035
-0.049305249 0.128894 -0.2260505
-0.049086552 0.12891711 -0.22606945
-0.048897669 0.12890656 -0.2260561
-0.048727002 0.12889422 -0.22609001
-0.048515666 0.12888183 -0.2260915
-0.048384 0.12887467 -0.22609933
-0.048034668 0.12892766 -0.22610234
-0.047850329 0.12891233 -0.22610985
-0.04769133 0.12890455 -0.22611965
-0.047488168 0.12889451 -0.22613232
-0.047294497 0.12888201 -0.22614418
-0.047093146 0.12889014 -0.22616085
-0.0469575 0.128902 -0.226172
-0.046711501 0.12892066 -0.22617267
-0.046507165 0.12891217 -0.22616552
-0.046373997 0.128906 -0.22616732
-0.046184 0.12889333 -0.226164
-0.045908332 0.12887633 -0.22617532
-0.045705501 0.12889901 -0.22614701
-0.04548775 0.1289185 -0.22613373
-0.045284335 0.12891684 -0.22614117
-0.045081254 0.12889737 -0.22613375
-0.044902302 0.12890062 -0.22613828
-0.044731669 0.12888211 -0.22612688
-0.044583663 0.128876 -0.22612633
-0.044384502 0.128902 -0.22610101
-0.044121336 0.12892734 -0.22610267
-0.043869834 0.12891017 -0.22608684
-0.043697555 0.12890023 -0.22608545
-0.043454666 0.12888934 -0.22607934
-0.043094501 0.128906 -0.22605351
-0.042875201 0.1289151 -0.2260706
-0.042693753 0.12891012 -0.22606251
-0.042538501 0.12893175 -0.22602674
-0.04233833 0.12890233 -0.226036
-0.042063002 0.12888867 -0.22601201
-0.041909665 0.12890218 -0.22600734
-0.026993001 0.12890834 -0.226142
-0.051839333 0.12911266 -0.22617133
-0.051692497 0.129096 -0.22611725
-0.051438332 0.129117 -0.22603633
-0.051158998 0.12910999 -0.22600733
-0.050948501 0.129132 -0.22600749
-0.050664999 0.129005 -0.226004
-0.050266501 0.12912899 -0.22600648
-0.050042998 0.12911467 -0.22600967
-0.049903333 0.12910551 -0.22601259
-0.04969978 0.12909409 -0.22603665
-0.049477 0.12908132 -0.22604948
-0.049298 0.12907234 -0.22605367
-0.049077999 0.12910986 -0.22607514
-0.048888221 0.12911823 -0.22608399
-0.048718337 0.12910712 -0.22609867
-0.048507165 0.12909533 -0.22609766
-0.048375998 0.12908733 -0.22610234
-0.048027001 0.129105 -0.22611749
-0.0478415 0.12912582 -0.22612168
-0.047682002 0.12911722 -0.226142
-0.04747967 0.12910783 -0.22613449
-0.047285665 0.12909466 -0.22615634
-0.047095716 0.12907314 -0.22616242
-0.046975248 0.12907875 -0.22618024
-0.046704002 0.1290985 -0.22618
-0.0464902 0.12911099 -0.22616699
-0.046365667 0.12911965 -0.226162
-0.046175331 0.12910666 -0.22616701
-0.045900669 0.12909101 -0.22616298
-0.045699164 0.12907816 -0.22613783
-0.045504574 0.12909113 -0.22613844
-0.045267798 0.12911561 -0.2261446
-0.045099333 0.1291215 -0.22613966
-0.044910084 0.12910859 -0.22614251
-0.044723555 0.12909622 -0.22612101
-0.044575334 0.12908967 -0.22612099
-0.044377998 0.12908034 -0.22609967
-0.044114001 0.129106 -0.226106
-0.043861832 0.12912418 -0.22608267
-0.043688782 0.12911378 -0.22609067
-0.043446001 0.12910368 -0.22607701
-0.043087002 0.12908299 -0.226072
-0.042888004 0.12908719 -0.22607179
-0.042716749 0.12909925 -0.22605775
-0.042551998 0.12912767 -0.22604267
-0.042330999 0.129116 -0.226017
-0.042053998 0.12910199 -0.22601366
-0.041885331 0.12909022 -0.22601223
-0.041697197 0.1290936 -0.22600761
-0.026896499 0.12904799 -0.22612101
-0.026773501 0.1290765 -0.226106
-0.052645501 0.129361 -0.2261775
-0.052566998 0.12936001 -0.226155
-0.052294001 0.12931067 -0.22613366
-0.051897913 0.12928616 -0.22611944
-0.051687669 0.12927699 -0.22607183
-0.051431999 0.12929651 -0.226016
-0.051150996 0.12932333 -0.22600432
-0.050916668 0.12930751 -0.22601001
-0.050650999 0.129361 -0.226006
-0.050382502 0.12931299 -0.226006
-0.050035499 0.129292 -0.226016
-0.0499059 0.12932011 -0.22601128
-0.049691223 0.12930712 -0.22603957
-0.049468163 0.12929434 -0.22605582
-0.049289498 0.12928499 -0.22606383
-0.049097836 0.12927432 -0.22608133
-0.048899777 0.12930934 -0.22608699
-0.048709776 0.12932089 -0.22610344
-0.048498169 0.12930834 -0.22611149
-0.048365999 0.1293 -0.22612767
-0.048020002 0.12928332 -0.22611535
-0.047834501 0.1293045 -0.22612099
-0.047675502 0.1292955 -0.22613017
-0.04748914 0.12933215 -0.22614859
-0.047276333 0.12930699 -0.22617699
-0.047102168 0.12929749 -0.22616951
-0.046971597 0.12930739 -0.22617641
-0.0467108 0.129291 -0.22618361
-0.0465018 0.1292828 -0.22617581
-0.046357498 0.129297 -0.22618
-0.046166997 0.12932067 -0.22617133
-0.045892 0.12930566 -0.22616833
-0.045690667 0.12929185 -0.22614384
-0.045528006 0.12928599 -0.22615266
-0.0453225 0.12928538 -0.22613364
-0.045092501 0.12929951 -0.22613575
-0.044893909 0.12931508 -0.22615834
-0.04471489 0.12931 -0.22612943
-0.044566002 0.12930267 -0.226146
-0.044368997 0.12929434 -0.22610267
-0.044107001 0.12928332 -0.22610734
-0.043853998 0.129302 -0.22609301
-0.043671284 0.12930728 -0.22608797
-0.043437004 0.12931766 -0.226089
-0.043079335 0.12929767 -0.22605701
-0.042884402 0.12927979 -0.226088
-0.042731874 0.129288 -0.22604738
-0.042544499 0.12930551 -0.22605149
-0.0423235 0.12929401 -0.22602901
-0.042045668 0.12931533 -0.22602065
-0.041878004 0.12928487 -0.22600985
-0.041705504 0.12928525 -0.22600964
-0.041551001 0.129357 -0.226006
-0.052837331 0.12947701 -0.226166
-0.052687198 0.12948701 -0.22612958
-0.052564502 0.12950751 -0.226081
-0.052291498 0.12949449 -0.226036
-0.051904999 0.12949142 -0.22602861
-0.0516815 0.129493 -0.22602217
-0.051426999 0.12943999 -0.22600649
-0.051143497 0.129501 -0.226008
-0.050880998 0.129592 -0.22600099
-0.050645337 0.12950367 -0.22601032
-0.050316859 0.12949757 -0.22600958
-0.050028998 0.12946999 -0.22601832
-0.049878225 0.12950723 -0.22602367
-0.049682666 0.12952057 -0.22604278
-0.049459498 0.12950699 -0.22606717
-0.049280003 0.12949666 -0.22608601
-0.049100328 0.12948699 -0.22609632
-0.048909452 0.12948209 -0.22610639
-0.048691858 0.12951271 -0.22610915
-0.048489835 0.12952067 -0.2261145
-0.048356999 0.12951232 -0.22615401
-0.048011001 0.12949534 -0.22613867
-0.047828 0.12948216 -0.22611199
-0.047704834 0.12947549 -0.22613268
-0.047507167 0.12950133 -0.226146
-0.047268 0.12952116 -0.22618084
-0.047093999 0.129511 -0.22617199
-0.046963602 0.1294928 -0.22618559
-0.046723001 0.1295085 -0.2261875
-0.046484333 0.12948084 -0.22618084
-0.046350669 0.12947534 -0.22618234
-0.046159998 0.129498 -0.22617251
-0.045883 0.12951833 -0.22618265
-0.045682002 0.12950517 -0.22614835
-0.045519665 0.12949999 -0.22615333
-0.045303445 0.12948954 -0.22613965
-0.045085337 0.12947883 -0.22613716
-0.044903778 0.12948923 -0.22614942
-0.044698752 0.12951376 -0.22614114
-0.044558663 0.12951733 -0.22612067
-0.044359338 0.12950699 -0.22613066
-0.044098664 0.12949701 -0.22611101
-0.043898001 0.12948267 -0.22611333
-0.043725997 0.1294734 -0.22608618
-0.043486331 0.12950933 -0.226099
-0.043071002 0.12951066 -0.226062
-0.042886112 0.12950124 -0.22607721
-0.042730886 0.12949312 -0.22605623
-0.042537827 0.12948416 -0.22604334
-0.042316332 0.12947267 -0.22603101
-0.042038999 0.129493 -0.22601449
-0.041890502 0.12959051 -0.22601201
-0.041714497 0.129474 -0.226004
-0.041267499 0.12952299 -0.226004
-0.0410925 0.12944201 -0.22600299
-0.052832335 0.12969433 -0.22609234
-0.052675832 0.12969035 -0.22605015
-0.052561998 0.12965199 -0.226025
-0.051602997 0.12966749 -0.226014
-0.051417999 0.12968799 -0.22600099
-0.051136333 0.12967867 -0.22601233
-0.050867289 0.12971057 -0.22601955
-0.050637335 0.12971599 -0.226005
-0.050501671 0.12970833 -0.22601168
-0.050243996 0.12969799 -0.2260135
-0.05006475 0.12970275 -0.22603175
-0.049895801 0.1296737 -0.22604761
-0.049708664 0.12970017 -0.22604267
-0.049472146 0.12972215 -0.22606485
-0.049271669 0.12970985 -0.22609015
-0.049091335 0.12970015 -0.22610734
-0.048893083 0.12968758 -0.2261195
-0.048703752 0.12968549 -0.2261125
-0.048482001 0.12969875 -0.22612625
-0.048347998 0.12972566 -0.22616135
-0.048004001 0.129674 -0.226134
-0.047882002 0.12971824 -0.22613724
-0.047728665 0.12968946 -0.22614489
-0.047500115 0.12967911 -0.2261512
-0.047261 0.1296995 -0.22617376
-0.047085498 0.12972467 -0.226171
-0.046949502 0.12972 -0.22619601
-0.046750333 0.129705 -0.22618432
-0.046476167 0.12969567 -0.22617365
-0.046342667 0.12968968 -0.22617699
-0.046152998 0.12967665 -0.22617202
-0.045876 0.129697 -0.226181
-0.045673337 0.12971817 -0.22615635
-0.045510996 0.12971334 -0.22615699
-0.045294777 0.12970223 -0.22614855
-0.045076501 0.129691 -0.22615433
-0.044887245 0.12967826 -0.22615518
-0.04470871 0.12968758 -0.22613242
-0.044551499 0.129695 -0.226136
-0.044351328 0.12972067 -0.22612767
-0.044089664 0.12971067 -0.22612166
-0.043889668 0.12969667 -0.22611034
-0.04373122 0.12968755 -0.22609101
-0.0435085 0.12967749 -0.22609751
-0.043060999 0.12972367 -0.226088
-0.042877778 0.12971589 -0.22607334
-0.042722221 0.12970679 -0.22606155
-0.042529833 0.12969849 -0.22603667
-0.042308003 0.12968533 -0.22603934
-0.042032 0.12967233 -0.22601067
-0.041886501 0.1296985 -0.22601451
-0.041703999 0.129724 -0.226004
-0.053138003 0.1299625 -0.22615999
-0.052827001 0.129912 -0.22602701
-0.052708998 0.12983599 -0.226004
-0.051128332 0.12989134 -0.22601067
-0.050874628 0.12988336 -0.22601701
-0.050630502 0.129893 -0.22601199
-0.050492998 0.12992084 -0.226014
-0.0503092 0.1299284 -0.2260216
-0.050100222 0.12990145 -0.22603168
-0.049897779 0.12988722 -0.22605512
-0.049734112 0.12987822 -0.22605021
-0.049553402 0.1298842 -0.2260544
-0.049295999 0.12991625 -0.22609675
-0.049083333 0.12991433 -0.22610199
-0.048901599 0.1298947 -0.2261301
-0.048706457 0.12989618 -0.22612628
-0.048474502 0.12987582 -0.22614585
-0.048340999 0.12990251 -0.22615901
-0.047913164 0.1299165 -0.22615783
-0.047719441 0.12990244 -0.22615968
-0.047491111 0.12989178 -0.22616921
-0.047254 0.12987666 -0.22618268
-0.047092002 0.12989166 -0.226191
-0.046942502 0.12989825 -0.2261925
-0.046742667 0.12992035 -0.22617199
-0.046458401 0.1299088 -0.22617678
-0.046334665 0.12990333 -0.22617133
-0.046144664 0.12989134 -0.22617202
-0.045868333 0.12987365 -0.22619335
-0.045666002 0.129897 -0.22616199
-0.0454944 0.1299132 -0.22615859
-0.045296624 0.12990737 -0.22616388
-0.045086425 0.12991557 -0.22616158
-0.044895399 0.1298867 -0.22614911
-0.044711638 0.12988771 -0.22613138
-0.044543669 0.12987266 -0.22615033
-0.044344001 0.1298985 -0.22613201
-0.044082001 0.129924 -0.22611733
-0.043881331 0.12991066 -0.22610766
-0.043722998 0.12990144 -0.22608775
-0.043500334 0.12989134 -0.22609098
-0.043054998 0.12990251 -0.2260745
-0.042864289 0.12990956 -0.22605658
-0.042714778 0.12992133 -0.22604367
-0.042521164 0.12991184 -0.22604035
-0.042300001 0.12989999 -0.22602732
-0.042024001 0.12988633 -0.22600533
-0.041879833 0.12987649 -0.22601266
-0.053226002 0.130144 -0.226191
-0.053133503 0.130106 -0.22613549
-0.052822001 0.130055 -0.226005
-0.051119339 0.13010399 -0.22602166
-0.050859883 0.13008678 -0.22602336
-0.050688997 0.1300755 -0.22602151
-0.050486248 0.13009849 -0.22601901
-0.050309002 0.13012667 -0.226036
-0.050103001 0.13010612 -0.22603615
-0.049901001 0.13010889 -0.22604351
-0.049726114 0.13009256 -0.22604142
-0.049534667 0.130082 -0.22606666
-0.049313001 0.13008928 -0.22609428
-0.049066205 0.1301126 -0.22611241
-0.048904669 0.13011655 -0.22612534
-0.048706084 0.13010424 -0.22612618
-0.048465669 0.13008915 -0.226153
-0.048334669 0.130082 -0.22614901
-0.047889002 0.1301136 -0.22617058
-0.047710776 0.13011567 -0.22616789
-0.04752567 0.13010818 -0.22618318
-0.047322858 0.13008471 -0.226179
-0.047091253 0.13009924 -0.22618726
-0.046938002 0.1300045 -0.2261965
-0.046735503 0.130098 -0.226172
-0.046467599 0.130108 -0.22618639
-0.046324998 0.130116 -0.22619534
-0.046136003 0.13010468 -0.22617768
-0.045860332 0.130087 -0.22619301
-0.045659333 0.13007484 -0.22615518
-0.0455052 0.1300838 -0.22617018
-0.045320999 0.1300965 -0.22616374
-0.045104221 0.13012077 -0.22615498
-0.044897221 0.13010845 -0.2261561
-0.044710919 0.13009535 -0.22613217
-0.044535 0.13008733 -0.22615166
-0.044337664 0.13007767 -0.22611968
-0.044075001 0.13010299 -0.226115
-0.043873001 0.13012533 -0.22610867
-0.043714777 0.13011576 -0.22608635
-0.043491837 0.13010566 -0.22608952
-0.043048996 0.130082 -0.22604732
-0.042870373 0.13008237 -0.22605601
-0.042707998 0.13010067 -0.22603349
-0.042513337 0.13012683 -0.22603266
-0.042291999 0.13011467 -0.22602433
-0.041871171 0.13009034 -0.22601467
-0.053221669 0.130288 -0.22617
-0.053127334 0.13028467 -0.22612698
-0.051110331 0.13031733 -0.22603101
-0.050866146 0.13029055 -0.22603858
-0.050710376 0.130299 -0.22602239
-0.050478503 0.13027583 -0.22602968
-0.050302252 0.13030499 -0.22603148
-0.050117999 0.130316 -0.22604001
-0.049909249 0.13031559 -0.22605425
-0.049717441 0.13030557 -0.22604169
-0.049526334 0.13029532 -0.22607017
-0.049292777 0.13028166 -0.22609234
-0.049076803 0.13028419 -0.22611079
-0.048887998 0.13030829 -0.22614014
-0.0487177 0.13031229 -0.22612312
-0.048492875 0.13031413 -0.22613862
-0.048326332 0.13029534 -0.226147
-0.047914602 0.1302872 -0.2261616
-0.047693856 0.13030913 -0.22616072
-0.047517333 0.13032234 -0.22618036
-0.047334168 0.13030933 -0.22618699
-0.047072399 0.1302658 -0.22619422
-0.046939496 0.13030824 -0.22618276
-0.046728667 0.13027599 -0.226174
-0.046514999 0.130282 -0.22618361
-0.046318501 0.13029501 -0.226189
-0.046127003 0.13031733 -0.22619599
-0.045853503 0.1302655 -0.22619
-0.045650002 0.13028784 -0.22617733
-0.045488339 0.13028334 -0.22616701
-0.04531467 0.13027583 -0.22615217
-0.045097169 0.13029884 -0.22615485
-0.04488866 0.13032179 -0.22616209
-0.044702668 0.13030975 -0.22612883
-0.044527005 0.130301 -0.22614335
-0.044329334 0.130291 -0.22612266
-0.044067997 0.130281 -0.22610833
-0.0438665 0.130303 -0.22609
-0.043698143 0.13030815 -0.22609557
-0.043526754 0.13030425 -0.226089
-0.043397501 0.130353 -0.226073
-0.043040004 0.13029534 -0.226061
-0.042855445 0.13028589 -0.22607899
-0.042701222 0.13027833 -0.226037
-0.042507 0.13030575 -0.22602201
-0.0422845 0.130294 -0.22602099
-0.041862503 0.13030466 -0.22601467
-0.041654665 0.13031633 -0.22600301
-0.0416 0.13036101 -0.226008
-0.053233497 0.13052174 -0.2261575
-0.053120002 0.13049901 -0.226097
-0.051104501 0.130496 -0.22601449
-0.050867837 0.13051501 -0.22604899
-0.050703999 0.13051371 -0.22602871
-0.050469831 0.1304885 -0.22604001
-0.050295338 0.13048233 -0.22603281
-0.050131202 0.1304882 -0.2260392
-0.0498906 0.13051422 -0.22606258
-0.049708333 0.13051833 -0.22606176
-0.049518336 0.13050883 -0.22606717
-0.049329162 0.13049799 -0.22607833
-0.049105886 0.13048589 -0.22610389
-0.048897248 0.13048163 -0.226135
-0.048723999 0.13049833 -0.22611801
-0.048496112 0.13051933 -0.22614922
-0.048317667 0.13050868 -0.22615467
-0.047890831 0.13048567 -0.22615801
-0.047705628 0.13048224 -0.22615013
-0.047509998 0.1305005 -0.22619176
-0.047325835 0.130523 -0.22618516
-0.047032502 0.13052425 -0.22619076
-0.046946999 0.13043199 -0.226193
-0.046721 0.13049133 -0.22615767
-0.046491001 0.1304635 -0.22619474
-0.046345398 0.1304882 -0.22619081
-0.045841999 0.1305505 -0.2261955
-0.045641333 0.13050149 -0.22618483
-0.045479834 0.13049717 -0.22616868
-0.045305163 0.13048817 -0.226171
-0.045090005 0.13047722 -0.22615711
-0.044881999 0.13050084 -0.22615469
-0.044706557 0.13050888 -0.22613131
-0.044550598 0.13052979 -0.2261422
-0.044321332 0.13050634 -0.22610867
-0.044059664 0.13049567 -0.22611099
-0.043858666 0.13048166 -0.22611
-0.043707874 0.13048138 -0.22608398
-0.0435615 0.130503 -0.22609499
-0.043392502 0.13049549 -0.226069
-0.043032002 0.13051 -0.22605534
-0.042861287 0.13049057 -0.22607987
-0.042711634 0.13049982 -0.22604455
-0.042499498 0.13048334 -0.226027
-0.042278003 0.13047166 -0.22601168
-0.041874856 0.13053001 -0.22600926
-0.041753002 0.130531 -0.22600275
-0.053246167 0.13071917 -0.22615767
-0.053112332 0.13071333 -0.22608201
-0.051561497 0.130735 -0.226005
-0.051097002 0.13067265 -0.22602433
-0.050855599 0.1307136 -0.22603559
-0.050757002 0.1307205 -0.226023
-0.050506443 0.13070457 -0.22604486
-0.05028617 0.13069533 -0.22604817
-0.050112996 0.13068618 -0.22604601
-0.049905099 0.1306864 -0.22605762
-0.049701501 0.130696 -0.22606266
-0.049510166 0.13072316 -0.2260555
-0.049320165 0.1307105 -0.22609399
-0.049097337 0.13069934 -0.22610921
-0.04888178 0.13068566 -0.22613877
-0.048716333 0.13067622 -0.22612935
-0.048535004 0.130698 -0.22616825
-0.0483444 0.13071141 -0.226145
-0.047898598 0.13068579 -0.22616541
-0.047699902 0.13069472 -0.22615841
-0.047503334 0.13067834 -0.22618467
-0.047318503 0.13070101 -0.2261935
-0.047088802 0.13071041 -0.2261916
-0.046915598 0.1307326 -0.22617979
-0.046713002 0.13066751 -0.22618251
-0.046483997 0.13069667 -0.22618501
-0.046369247 0.13067174 -0.22617525
-0.046113331 0.13067533 -0.22618401
-0.045836501 0.1306935 -0.22619301
-0.045669001 0.13071734 -0.22618067
-0.045513228 0.13071166 -0.22617888
-0.045296837 0.13070183 -0.22618018
-0.045125503 0.130693 -0.226153
-0.044904668 0.1306805 -0.22616041
-0.044726141 0.13068929 -0.226128
-0.044553004 0.1306935 -0.22613651
-0.044312999 0.13072033 -0.22611034
-0.044051666 0.13070966 -0.22610134
-0.043850001 0.130695 -0.22612034
-0.043692444 0.13068622 -0.22608535
-0.04355533 0.13067999 -0.226081
-0.043384999 0.13067234 -0.22608399
-0.043024 0.13072467 -0.22605133
-0.042864501 0.13071667 -0.22604948
-0.042711671 0.13070834 -0.22603023
-0.042490829 0.130697 -0.22603399
-0.042270001 0.13068567 -0.22601466
-0.041878499 0.13068175 -0.22600475
-0.0260565 0.1307655 -0.22605851
-0.053252999 0.13088633 -0.22616132
-0.053127751 0.13092776 -0.22608924
-0.051088665 0.13088733 -0.22602467
-0.050859202 0.1308856 -0.2260274
-0.050749499 0.130898 -0.22603524
-0.050498333 0.13091834 -0.22603999
-0.050278172 0.13090867 -0.22604269
-0.050104171 0.13089918 -0.22605933
-0.049886584 0.1308849 -0.22606474
-0.049694669 0.13087434 -0.22605613
-0.049502749 0.1308995 -0.22607425
-0.049312171 0.13092451 -0.22608799
-0.049100123 0.1309045 -0.22611062
-0.048885804 0.1309073 -0.22613409
-0.048707999 0.13088967 -0.22612756
-0.048527669 0.13087548 -0.22617434
-0.048355002 0.1308834 -0.22614701
-0.047953997 0.13091867 -0.226166
-0.047708753 0.1309015 -0.22616649
-0.047494996 0.13089199 -0.22618432
-0.047336999 0.130899 -0.22619225
-0.047133602 0.1308848 -0.226192
-0.046922199 0.1309036 -0.22618699
-0.046702664 0.13091634 -0.22619599
-0.046475332 0.13091166 -0.22618265
-0.046381999 0.13090467 -0.22617267
-0.046104331 0.13088866 -0.22619466
-0.045832001 0.13080101 -0.226198
-0.045662999 0.130898 -0.22615999
-0.04549475 0.13091674 -0.22617763
-0.045288835 0.13091634 -0.22616851
-0.045116499 0.13090684 -0.22617202
-0.044896081 0.13089524 -0.22616242
-0.044710889 0.13088201 -0.22614431
-0.044545829 0.13087283 -0.22613502
-0.044306502 0.130898 -0.22610101
-0.044043001 0.13092367 -0.22610867
-0.04384267 0.13091034 -0.22609234
-0.04368411 0.13089977 -0.22608201
-0.043547001 0.13089468 -0.22608399
-0.043375999 0.13088633 -0.22609533
-0.043016501 0.13090199 -0.22606051
-0.042851999 0.13091619 -0.2260534
-0.04269233 0.13092132 -0.226036
-0.042491399 0.130926 -0.22602141
-0.042261671 0.13089967 -0.226008
-0.041820001 0.130804 -0.22600099
-0.041657001 0.130936 -0.22600099
-0.026048001 0.13090649 -0.22612101
-0.053293504 0.13107875 -0.22617924
-0.053154599 0.13108459 -0.22611079
-0.05108 0.13109933 -0.22603233
-0.050846834 0.13108434 -0.22602449
-0.050742835 0.13107584 -0.22602634
-0.050509196 0.13109 -0.22604501
-0.050301753 0.13113238 -0.22604413
-0.050096501 0.13111301 -0.22604716
-0.049904779 0.13109957 -0.22607777
-0.049713667 0.13108857 -0.22606193
-0.049495835 0.13107835 -0.22606884
-0.049304999 0.1311025 -0.22609451
-0.049116001 0.13111541 -0.226108
-0.048896998 0.13111515 -0.22612734
-0.048699334 0.13110311 -0.22613825
-0.048519999 0.13109033 -0.22615767
-0.048337832 0.131082 -0.22616483
-0.047946997 0.131097 -0.22616449
-0.047701251 0.13111617 -0.22614627
-0.047486831 0.13110633 -0.2261775
-0.047355667 0.13109633 -0.22618432
-0.047109198 0.131069 -0.22619382
-0.046946332 0.131027 -0.226191
-0.046696499 0.13109601 -0.22617099
-0.046468001 0.131089 -0.226192
-0.046337999 0.13113019 -0.22618039
-0.046096336 0.13110234 -0.22618566
-0.045821 0.13108601 -0.22619568
-0.045655996 0.13107467 -0.22616701
-0.045510713 0.13108985 -0.22617443
-0.045281999 0.13109499 -0.22616126
-0.045108497 0.13112067 -0.22616132
-0.044888083 0.13110943 -0.22615506
-0.044702888 0.13109644 -0.226136
-0.044537336 0.1310865 -0.22614001
-0.044299666 0.13107666 -0.22610168
-0.044036999 0.1311025 -0.22609299
-0.043834001 0.13112368 -0.22610332
-0.043676004 0.13111478 -0.22607657
-0.043538999 0.13110866 -0.22607534
-0.043368328 0.131101 -0.22607632
-0.043009996 0.13108067 -0.22605467
-0.042853396 0.13108718 -0.2260664
-0.042696003 0.13110012 -0.22603501
-0.042474497 0.13112532 -0.22603132
-0.042254999 0.131079 -0.226006
-0.0418205 0.13108975 -0.22600299
-0.041653998 0.131007 -0.22600099
-0.026040001 0.13108534 -0.22613434
-0.02595 0.131152 -0.226179
-0.053264331 0.13129167 -0.22617
-0.053137332 0.13128366 -0.22610718
-0.051071331 0.13131267 -0.22604366
-0.050837833 0.13129783 -0.22603349
-0.050735328 0.13129 -0.22601251
-0.050528664 0.13127567 -0.22605766
-0.050305497 0.13130133 -0.22605418
-0.050078999 0.1313116 -0.2260468
-0.049896672 0.13131322 -0.22607467
-0.04970542 0.13130251 -0.22606075
-0.049486998 0.13129167 -0.22607851
-0.049297672 0.13127984 -0.22609784
-0.049127799 0.13128699 -0.22611001
-0.048903286 0.13128901 -0.22612643
-0.048710085 0.13132372 -0.22613873
-0.048511669 0.13130467 -0.22615165
-0.04832967 0.13129567 -0.22615333
-0.047940332 0.131276 -0.22615732
-0.047716711 0.13131014 -0.22615457
-0.047517333 0.13132177 -0.22618079
-0.047295 0.13130766 -0.22619033
-0.047107503 0.1313335 -0.22619
-0.046689 0.13127466 -0.22617866
-0.0464595 0.131303 -0.22619501
-0.046336666 0.131331 -0.22617467
-0.046088997 0.131317 -0.22616734
-0.045812335 0.1313 -0.22619766
-0.045646999 0.13128935 -0.22616899
-0.045491442 0.13128299 -0.22617099
-0.045275334 0.13127317 -0.22615886
-0.045101751 0.1313 -0.226156
-0.044900753 0.13131613 -0.22614688
-0.044720337 0.13131225 -0.22613384
-0.04452917 0.13130082 -0.22613318
-0.044289667 0.13128968 -0.22613268
-0.044030335 0.13128133 -0.22607966
-0.043826498 0.131301 -0.22612
-0.043660376 0.13131812 -0.22609076
-0.043529671 0.131322 -0.22609366
-0.043359999 0.13131465 -0.22607899
-0.043003 0.13125899 -0.22604999
-0.042863857 0.13129799 -0.22606228
-0.042719889 0.1312809 -0.22603077
-0.042523146 0.13129072 -0.22602884
-0.042243503 0.131364 -0.226007
-0.026036667 0.13130432 -0.22602999
-0.025948001 0.13129801 -0.22610669
-0.0257225 0.13131651 -0.22617951
-0.053276751 0.131524 -0.226165
-0.053129833 0.13149834 -0.22608548
-0.051529001 0.131552 -0.22600301
-0.051063668 0.13152701 -0.22602534
-0.050828833 0.13151084 -0.22604483
-0.050726172 0.131503 -0.22602801
-0.050520167 0.13148934 -0.22606117
-0.05029878 0.13147934 -0.2260481
-0.050091602 0.13148379 -0.226053
-0.049881503 0.1315175 -0.22607262
-0.049696743 0.13151576 -0.22606744
-0.04947817 0.13150501 -0.22608916
-0.049289498 0.13149385 -0.22609866
-0.049110334 0.13148569 -0.22611882
-0.04891311 0.13147368 -0.22612745
-0.048701111 0.13150676 -0.22615001
-0.048503164 0.13151799 -0.22615665
-0.048321337 0.1315095 -0.22615318
-0.047931667 0.13149001 -0.22616135
-0.047725499 0.13148275 -0.22615887
-0.04751033 0.13149966 -0.22618733
-0.04728733 0.13152151 -0.2261765
-0.047110401 0.13149861 -0.22617559
-0.046935998 0.13157451 -0.22619599
-0.046681669 0.131488 -0.22616701
-0.046452668 0.13148099 -0.22618766
-0.046323799 0.131487 -0.22618417
-0.046081997 0.131495 -0.22617251
-0.045804996 0.13151367 -0.22618401
-0.045638997 0.131503 -0.22616933
-0.045526337 0.13149785 -0.22616982
-0.045310333 0.13148989 -0.22615558
-0.045094665 0.13147767 -0.22615866
-0.044910431 0.13148899 -0.22614686
-0.04470491 0.13151927 -0.22614102
-0.044520166 0.13151485 -0.22614235
-0.044281665 0.13150434 -0.22611801
-0.044020999 0.13149466 -0.22609967
-0.043819666 0.13148101 -0.22610731
-0.043680336 0.13148384 -0.22608633
-0.043549001 0.131515 -0.22607701
-0.043352999 0.131494 -0.22607401
-0.042886779 0.13150412 -0.22605234
-0.042711332 0.13149522 -0.22603311
-0.042514503 0.13147487 -0.22602652
-0.042238999 0.13147099 -0.226014
-0.025946001 0.131442 -0.226032
-0.025675202 0.13150761 -0.22612
-0.0532915 0.1317215 -0.22615533
-0.053122003 0.13171132 -0.22608183
-0.051338501 0.131714 -0.226007
-0.051055998 0.131704 -0.2260395
-0.050845999 0.13172601 -0.22603966
-0.050754 0.13169616 -0.22602116
-0.050511833 0.13170217 -0.22606117
-0.050290115 0.13169278 -0.22605342
-0.050073668 0.13168167 -0.226062
-0.049890283 0.13168986 -0.22607015
-0.04969025 0.13169399 -0.2260575
-0.049488571 0.13172987 -0.22608085
-0.049280997 0.13170733 -0.22609715
-0.049102332 0.13169916 -0.22611232
-0.048904665 0.131687 -0.22613165
-0.048711088 0.13168119 -0.22613026
-0.048495501 0.131695 -0.22617425
-0.048313171 0.13172384 -0.2261555
-0.047922999 0.13170201 -0.22617567
-0.047710333 0.13168767 -0.22615544
-0.047503445 0.13167831 -0.22618511
-0.047280502 0.13170099 -0.2261685
-0.047092497 0.131726 -0.2261875
-0.046938002 0.1317022 -0.22619459
-0.046673 0.13170235 -0.22616701
-0.046479397 0.13171099 -0.22618282
-0.046307836 0.13168667 -0.22617716
-0.046075668 0.13167433 -0.22615534
-0.045698203 0.131708 -0.226156
-0.045518499 0.13171233 -0.2261595
-0.04530222 0.13170445 -0.22614956
-0.045086835 0.13169201 -0.22614467
-0.044893999 0.13168256 -0.22614633
-0.044713557 0.13169323 -0.22613843
-0.044513751 0.13169324 -0.226133
-0.044274002 0.13171799 -0.22611634
-0.044012666 0.131708 -0.22609265
-0.043812003 0.131695 -0.22609766
-0.043683335 0.13168633 -0.22607768
-0.043555003 0.13168083 -0.22609015
-0.043345999 0.13167201 -0.22607334
-0.042878002 0.13171744 -0.22605675
-0.042703222 0.13170911 -0.22602646
-0.042505626 0.13170713 -0.22602311
-0.025634 0.13168925 -0.22605175
-0.0255068 0.1317154 -0.2261472
-0.0532845 0.131899 -0.22615701
-0.053113002 0.131925 -0.22609417
-0.051826999 0.131998 -0.22600099
-0.05133133 0.13189167 -0.22600435
-0.051048998 0.13188234 -0.226034
-0.050838999 0.1319035 -0.226044
-0.0507375 0.13189684 -0.22602002
-0.050503835 0.13191634 -0.22605084
-0.050323997 0.13190767 -0.22605217
-0.050109558 0.13189822 -0.22605623
-0.049874775 0.13188277 -0.22606625
-0.049711779 0.13187277 -0.22606455
-0.049507167 0.13189934 -0.22607283
-0.049272496 0.13192083 -0.22609867
-0.0490935 0.13191283 -0.22611882
-0.04889622 0.13190089 -0.22613478
-0.048695669 0.131888 -0.22613426
-0.048488837 0.1318735 -0.22616716
-0.048305999 0.1319015 -0.22615226
-0.047915667 0.131917 -0.22615135
-0.047701109 0.13190077 -0.22617009
-0.047495782 0.1318921 -0.22616942
-0.04727317 0.13187782 -0.22617869
-0.047070667 0.13191533 -0.22618265
-0.046918664 0.13188301 -0.22619466
-0.046665002 0.13191633 -0.22616267
-0.046480831 0.1319115 -0.2261685
-0.046299998 0.13190116 -0.22616734
-0.046067331 0.13188867 -0.22615801
-0.045724601 0.1318814 -0.22616
-0.045502599 0.1319124 -0.22615719
-0.045293886 0.13191912 -0.22614734
-0.045078497 0.131907 -0.22614533
-0.044885665 0.13189644 -0.2261458
-0.044698756 0.13188381 -0.226117
-0.044507336 0.13187216 -0.22612101
-0.044266999 0.131898 -0.22610301
-0.044005003 0.13192333 -0.22608532
-0.043804001 0.13190834 -0.22608967
-0.043675333 0.13190134 -0.22606732
-0.043547168 0.13189517 -0.22608298
-0.043338332 0.13188566 -0.22606568
-0.04290875 0.13189825 -0.22605374
-0.042720418 0.13192408 -0.22602975
-0.042512286 0.13190314 -0.22601299
-0.025495501 0.131918 -0.22606333
-0.053277668 0.13207717 -0.22615469
-0.053105999 0.132102 -0.2260955
-0.051824 0.13207 -0.226005
-0.051323 0.13210566 -0.22600366
-0.051040664 0.13209534 -0.22603434
-0.050831664 0.13208102 -0.22604533
-0.05073075 0.13206576 -0.22602187
-0.050487597 0.1321156 -0.22603878
-0.050316673 0.1321215 -0.22603451
-0.050100777 0.13211134 -0.22606257
-0.049866445 0.13209622 -0.22606856
-0.049703002 0.1320861 -0.22607242
-0.049499776 0.13207678 -0.22608379
-0.04926575 0.132099 -0.2260945
-0.049076997 0.1321124 -0.2261072
-0.048887666 0.13211444 -0.22613624
-0.048687164 0.13210174 -0.22613724
-0.048481669 0.13208884 -0.22614433
-0.048299331 0.13208017 -0.22614519
-0.047908999 0.13209499 -0.2261495
-0.047692887 0.13211478 -0.2261688
-0.047477998 0.13209687 -0.22617012
-0.047264833 0.13209216 -0.22617932
-0.047078833 0.13208216 -0.22617848
