-0.045219 -0.00492992 0.998965 0
-0.0460475 -0.00414807 0.998931 0.0015631
-0.0461441 -0.00347701 0.998929 0.00657366
-0.0473064 -0.00295957 0.998876 0.0108746
-0.0496697 -0.00217987 0.998763 0.0132808
-0.0473902 -0.00148757 0.998875 0.010903
-0.0462307 -0.00097002 0.99893 0.00720975
-0.0441851 -0.000734138 0.999023 0.000447003
-0.0453653 9.07827e-05 0.99897 0.00223325
-0.0447987 0.000797131 0.998996 0.0005267
-0.0469607 0.00195007 0.998895 0.00792259
-0.0430852 0.00269918 0.999068 0
-0.0431778 0.00433525 0.999058 0.00103121
-0.0443603 0.00545969 0.999001 0
-0.0445738 0.00662729 0.998984 0
-0.0434536 0.00756517 0.999027 0
-0.0447444 0.00837922 0.998963 0
-0.0451672 0.00971504 0.998932 0.000793974
-0.0465678 0.0103531 0.998861 0
-0.0489372 0.0114117 0.998737 0.00419037
-0.0497316 0.0125396 0.998684 0.00762723
-0.0500994 0.0134188 0.998654 0.00782974
-0.050134 0.0139921 0.998644 0.00848475
-0.0482139 0.0143597 0.998734 0.00127801
-0.0477986 0.015057 0.998743 0
-0.0438969 0.0153679 0.998918 0
-0.0417934 0.0156816 0.999003 0
-0.0424214 0.0162052 0.998968 0
-0.0408283 0.0168955 0.999023 0
-0.041303 0.017592 0.998992 0
-0.0399704 0.0183707 0.999032 0
-0.0407573 0.0188537 0.998991 0
-0.039188 0.0192036 0.999047 0
-0.0381769 0.0196563 0.999078 0
-0.0422021 0.0207322 0.998894 0
-0.0426926 0.0215378 0.998856 0
-0.0427983 0.0217768 0.998846 0
-0.0428324 0.0222713 0.998834 0
-0.0424236 0.0226186 0.998844 0
-0.0421457 0.0228623 0.99885 0
-0.0395664 0.0228338 0.998956 0
-0.0398986 0.0234095 0.99893 0
-0.0400834 0.0234273 0.998922 0
-0.0381685 0.023758 0.998989 0
-0.0396678 0.0241282 0.998922 0
-0.0386404 0.0243783 0.998956 0
-0.0379364 0.024486 0.99898 0
-0.039867 0.0248482 0.998896 0
-0.0390089 0.0250145 0.998926 0
-0.0394432 0.0250797 0.998907 0
-0.0418563 0.0256529 0.998794 0
-0.0387292 0.0257767 0.998917 0
-0.0391204 0.0259179 0.998898 0
-0.0381473 0.0267262 0.998915 0
-0.0391649 0.0269643 0.998869 0
-0.0402819 0.0270642 0.998822 0
-0.0410404 0.0275419 0.998778 0.00182613
-0.0397149 0.0275191 0.998832 0
-0.0381278 0.0273464 0.998899 0
-0.038987 0.0271927 0.99887 0
-0.039358 0.0271592 0.998856 0
-0.0391675 0.0269087 0.99887 0
-0.0408113 0.0263548 0.998819 0
-0.0441613 0.0269256 0.998662 0.00313327
-0.0462594 0.0268049 0.99857 0.00756567
-0.046014 0.0260282 0.998602 0.00317745
-0.0475039 0.0256902 0.998541 0.00533165
-0.0486495 0.0260093 0.998477 0.0140383
-0.0496351 0.0267257 0.99841 0.016845
-0.0504848 0.0259211 0.998388 0.0142152
-0.0527789 0.0255974 0.998278 0.0147925
-0.051059 0.0246601 0.998391 0.00823254
-0.0478299 0.0243216 0.998559 0.00346244
-0.0463294 0.0238151 0.998642 0.00278374
-0.0475578 0.0232885 0.998597 0.00451978
-0.0470916 0.022229 0.998643 0.00145013
-0.0452437 0.0210877 0.998753 0.00199218
-0.0431657 0.0199315 0.998869 0.000372634
-0.0414912 0.019065 0.998957 0
-0.0429087 0.0184285 0.998909 0
-0.0407686 0.0178943 0.999008 0
-0.0386834 0.0174116 0.9991 0
-0.0386188 0.0171514 0.999107 0
-0.0392706 0.0171657 0.999081 0.0016713
-0.0388272 0.016553 0.999109 0.00251661
-0.0371739 0.0156799 0.999186 0
-0.0385363 0.0156816 0.999134 0
-0.0352213 0.0147172 0.999271 0
-0.0358653 0.013793 0.999261 0
-0.0372246 0.0131015 0.999221 0
-0.0394172 0.0124262 0.999146 0.00153772
-0.0396573 0.0121313 0.99914 0.00690004
-0.0371368 0.0108204 0.999252 0.00266977
-0.0362598 0.00998142 0.999293 0.00269114
-0.0409728 0.0103206 0.999107 0.0116202
-0.0426744 0.00957779 0.999043 0.0104569
-0.0436228 0.0094299 0.999004 0.0153995
-0.0439892 0.00926544 0.998989 0.0197692
-0.0454454 0.00845516 0.998931 0.0206068
-0.0417614 0.00758024 0.999099 0.017544
-0.0404221 0.00637412 0.999162 0.0125955
-0.0407041 0.00568461 0.999155 0.0130107
-0.0435261 0.00470686 0.999041 0.0121549
-0.0419056 0.00426377 0.999112 0.00912875
-0.0435696 0.00433215 0.999041 0.00843769
-0.0452529 0.00360594 0.998969 0.0119591
-0.0455762 0.00332645 0.998955 0.0149018
-0.0454043 0.00269506 0.998965 0.0142954
-0.0477304 0.00179715 0.998859 0.0177447
-0.0492686 0.00183252 0.998784 0.0178036
-0.0499596 0.00100381 0.998751 0.0167027
-0.0489258 -0.000118742 0.998802 0.0139409
-0.0481528 -0.001096 0.998839 0.011692
-0.0498694 -0.00141005 0.998755 0.0131536
-0.0483693 -0.0022464 0.998827 0.0140969
-0.049808 -0.00340678 0.998753 0.0156054
-0.0452582 -0.00479628 0.998964 0.0109
-0.0475236 -0.00515711 0.998857 0.0147873
-0.0458223 -0.00620555 0.99893 0.0153881
-0.0444584 -0.0072932 0.998985 0.0130052
-0.0398844 -0.00886757 0.999165 0.00419481
-0.0354996 -0.0105643 0.999314 0
-0.0347776 -0.0117013 0.999327 0
-0.0329226 -0.0123554 0.999382 0
-0.0338517 -0.0135038 0.999336 0
-0.033646 -0.0138867 0.999337 0
-0.0376532 -0.0140736 0.999192 0
-0.0400997 -0.0143746 0.999092 0
-0.038612 -0.0150199 0.999141 0.00172837
-0.0413971 -0.0155603 0.999022 0.00577772
-0.0389066 -0.0161503 0.999112 0.000984103
-0.0389454 -0.0166645 0.999102 0.00217542
-0.0403285 -0.0175297 0.999033 0.000317379
-0.0392746 -0.0182139 0.999062 0
-0.04286 -0.0184621 0.99891 0
-0.0440502 -0.0185238 0.998858 0.00426126
-0.0439629 -0.0185307 0.998861 0.0105025
-0.0446249 -0.0193013 0.998817 0.0100363
-0.0437821 -0.0193368 0.998854 0.0107904
-0.0442387 -0.020216 0.998816 0.00967543
-0.0431518 -0.0205948 0.998856 0.0116742
-0.0426907 -0.0211114 0.998865 0.0075699
-0.0414304 -0.0214598 0.998911 0.00349803
-0.0404627 -0.0218602 0.998942 0
-0.0413682 -0.022533 0.99889 0
-0.0422678 -0.0227898 0.998846 0
-0.0385085 -0.0234507 0.998983 0
-0.0378317 -0.0233089 0.999012 0
-0.0410022 -0.0235498 0.998882 0
-0.0426377 -0.0238362 0.998806 0.000745198
-0.042178 -0.0237364 0.998828 0.00600518
-0.0404633 -0.0230945 0.998914 0.00589822
-0.0395283 -0.0227288 0.99896 0.00201839
-0.0393312 -0.0223234 0.998977 0.00234382
-0.0430244 -0.0216436 0.99884 0.00574244
-0.0422051 -0.0207795 0.998893 0.00597689
-0.0419119 -0.0203311 0.998914 0.00449087
-0.0421717 -0.0193242 0.998923 0.0023261
-0.0401038 -0.0182754 0.999028 0
-0.0407682 -0.017574 0.999014 0.00181688
-0.0450016 -0.016376 0.998853 0.0124745
-0.0448749 -0.0156801 0.99887 0.0153307
-0.0450888 -0.0143866 0.998879 0.013365
-0.0455127 -0.0132857 0.998875 0.0130838
-0.0430706 -0.0135549 0.99898 0.0073116
-0.0408563 -0.0129364 0.999081 0.000868736
-0.0399624 -0.0125107 0.999123 0
-0.0402711 -0.0117046 0.99912 0
-0.0424697 -0.0108462 0.999039 0
-0.0407566 -0.00994589 0.99912 0
-0.0418592 -0.0088463 0.999084 0
-0.0416231 -0.00688093 0.99911 0
-0.0420792 -0.00548947 0.999099 0
-0.0420075 -0.00372394 0.99911 0
-0.0428034 -0.00218435 0.999081 0
-0.0411489 -0.0011865 0.999152 0
-0.0405271 -0.000379902 0.999178 0
-0.0406445 0.00132023 0.999173 0
-0.041207 0.00274954 0.999147 0
-0.0420101 0.00540993 0.999103 0.00168333
-0.0443526 0.00834773 0.998981 0.00725289
-0.0487856 0.0107377 0.998752 0.0130186
-0.0502391 0.0130087 0.998653 0.0185071
-0.0504761 0.0153955 0.998607 0.0197631
-0.0482152 0.0167196 0.998697 0.0158378
-0.0481206 0.0183962 0.998672 0.0103104
-0.0477009 0.0204571 0.998652 0.0105368
-0.0461632 0.022498 0.998681 0.0094409
-0.0452559 0.0245183 0.998675 0.00766044
-0.046062 0.0274136 0.998562 0.0114223
-0.046408 0.0303852 0.99846 0.0135844
-0.0465776 0.0333495 0.998358 0.0137606
-0.0444875 0.0347654 0.998405 0.0100588
-0.0438308 0.0361904 0.998383 0.00809395
-0.0397984 0.036396 0.998545 0.00229482
-0.0425755 0.0385872 0.998348 0.00611857
-0.0419882 0.0406468 0.998291 0.00821237
-0.0419104 0.0426463 0.998211 0.0113921
-0.0416297 0.0442412 0.998153 0.0115297
-0.0399147 0.0458176 0.998152 0.0096955
-0.0402756 0.0477192 0.998048 0.0118447
-0.0396923 0.0492057 0.998 0.0110191
-0.0415139 0.0517926 0.997795 0.0145571
-0.0442325 0.0556382 0.997471 0.0194698
-0.0448447 0.0576288 0.99733 0.0174657
-0.0445101 0.058666 0.997285 0.0156511
-0.0444235 0.0610804 0.997144 0.0158203
-0.0428337 0.0619895 0.997157 0.0118926
-0.0433572 0.0641127 0.997 0.0129634
-0.0414343 0.063695 0.997109 0.00515095
-0.0413821 0.0663445 0.996938 0.00827666
-0.0402732 0.0686661 0.996826 0.0095302
-0.0396397 0.0700849 0.996753 0.0111592
-0.0387097 0.0714999 0.996689 0.00959219
-0.036759 0.0719805 0.996728 0.00626585
-0.0354002 0.0720416 0.996773 0.00305968
-0.036613 0.0747278 0.996532 0.00600353
-0.0354295 0.0773039 0.996378 0.00688042
-0.0344308 0.0786039 0.996311 0.006595
-0.0335924 0.0810532 0.996144 0.00733439
-0.0367972 0.0843236 0.995759 0.011403
-0.0355457 0.0871067 0.995565 0.0127839
-0.0344551 0.0887555 0.995457 0.0116251
-0.0315904 0.0884023 0.995584 0.00589103
-0.0319214 0.0883135 0.995581 0.004462
-0.0325847 0.0899764 0.995411 0.00404767
-0.0316904 0.0912807 0.995321 0.00296993
-0.0328817 0.0924477 0.995174 0.00268876
-0.033008 0.0939482 0.99503 0.00331984
-0.0344192 0.0960163 0.994784 0.00370243
-0.0363819 0.0990638 0.994416 0.00685325
-0.0361496 0.102447 0.994081 0.00772319
-0.0347917 0.103081 0.994064 0.00393008
-0.035429 0.104865 0.993855 0.00542081
-0.0353453 0.105457 0.993796 0.00457192
-0.0355317 0.109296 0.993374 0.00811283
-0.0362208 0.111722 0.993079 0.00789167
-0.0357409 0.112689 0.992987 0.00670343
-0.0347167 0.115191 0.992737 0.0054051
-0.0357805 0.11879 0.992275 0.0104845
-0.0362493 0.120481 0.992054 0.00909802
-0.0361673 0.122409 0.991821 0.00751051
-0.0356489 0.123528 0.991701 0.00741026
-0.0355208 0.128435 0.991081 0.00918646
-0.0361241 0.134051 0.990316 0.0124065
-0.0367751 0.136481 0.98996 0.0127657
-0.0361996 0.134808 0.99021 0.0079901
-0.0352057 0.135921 0.990094 0.0055362
-0.0357571 0.133415 0.990415 0.000354056
-0.0354051 0.135725 0.990114 0.00235867
-0.0353713 0.134291 0.99031 0
-0.0362852 0.139854 0.989507 0.003253
-0.0358544 0.140585 0.989419 0.00142732
-0.0346197 0.140951 0.989411 0
-0.0331249 0.144049 0.989016 0
-0.034068 0.145726 0.988738 0
-0.0454414 -0.0391483 0.9982 0
-0.0445323 -0.0387461 0.998256 0.000422592
-0.0450357 -0.0386881 0.998236 0.00477347
-0.0447141 -0.0385776 0.998255 0.00121309
-0.0475209 -0.0380698 0.998145 0.00646454
-0.0478956 -0.0375753 0.998145 0.00604612
-0.0490102 -0.0375046 0.998094 0.0113409
-0.0498767 -0.0370029 0.99807 0.00974539
-0.04801 -0.0362079 0.99819 0.00634581
-0.0493728 -0.0363444 0.998119 0.00889773
-0.0501724 -0.0356798 0.998103 0.00843663
-0.0495998 -0.0354918 0.998138 0.00874533
-0.0500317 -0.0351191 0.99813 0.00565488
-0.0500524 -0.0340016 0.998168 0.00104088
-0.0498307 -0.0336351 0.998191 0
-0.0489794 -0.0330259 0.998254 0
-0.0479929 -0.0324452 0.998321 0
-0.0492747 -0.0320337 0.998271 0.000898178
-0.0503709 -0.0313834 0.998237 0.00467458
-0.0515599 -0.030608 0.998201 0.00398996
-0.049477 -0.0300748 0.998322 0
-0.0494806 -0.029379 0.998343 0.000878332
-0.0487195 -0.0286401 0.998402 0
-0.0476479 -0.0278246 0.998477 0
-0.0483294 -0.0269516 0.998468 0
-0.0503878 -0.0262708 0.998384 0.00407135
-0.0497805 -0.025522 0.998434 0.00396965
-0.0513501 -0.0247918 0.998373 0.00472592
-0.0507535 -0.0242454 0.998417 0.00678773
-0.0509102 -0.0233581 0.99843 0.0103425
-0.0514259 -0.0225595 0.998422 0.012789
-0.054329 -0.0218544 0.998284 0.0165241
-0.0521601 -0.021167 0.998414 0.015913
-0.05137 -0.0207454 0.998464 0.0166741
-0.0511203 -0.0202953 0.998486 0.0151383
-0.0521071 -0.0194915 0.998451 0.0157628
-0.0506994 -0.0187615 0.998538 0.0115888
-0.0520875 -0.0179899 0.99848 0.0145554
-0.0498811 -0.0174031 0.998604 0.00862909
-0.046682 -0.0166995 0.99877 0.00737402
-0.0478989 -0.0155671 0.998731 0.00997943
-0.048542 -0.0147358 0.998712 0.00749434
-0.0485351 -0.0140364 0.998723 0.00642564
-0.0481681 -0.0136131 0.998746 0.00883894
-0.0475655 -0.0125782 0.998789 0.00838318
-0.0510999 -0.0113245 0.998629 0.0114439
-0.0542436 -0.0106952 0.99847 0.0136663
-0.0513359 -0.0102803 0.998629 0.0119563
-0.0526683 -0.00965618 0.998565 0.0107706
-0.0508258 -0.00885407 0.998668 0.00969951
-0.0488106 -0.0082932 0.998774 0.00578031
-0.0508305 -0.00739589 0.99868 0.00702335
-0.0531369 -0.00688178 0.998564 0.0108593
-0.0560164 -0.00590155 0.998412 0.0147217
-0.0555717 -0.0051441 0.998441 0.0166581
-0.0554973 -0.00432075 0.99845 0.0160741
-0.0566689 -0.0034692 0.998387 0.0198457
-0.0551128 -0.00282624 0.998476 0.0187496
-0.0550518 -0.00175103 0.998482 0.0188949
-0.0541027 -0.000651611 0.998535 0.0196357
-0.0531247 0.000236889 0.998588 0.0166656
-0.0539245 0.0013511 0.998544 0.0148666
-0.0550566 0.00250486 0.99848 0.0138147
-0.0568006 0.00368975 0.998379 0.0213038
-0.058051 0.00511163 0.9983 0.0248622
-0.0604009 0.0063133 0.998154 0.0288306
-0.0566623 0.0074855 0.998365 0.0256268
-0.0591422 0.00881767 0.998211 0.0270835
-0.0546313 0.008831 0.998468 0.0156145
-0.0572632 0.00999327 0.998309 0.0179512
-0.0503197 0.0101446 0.998682 0.00685235
-0.0517964 0.010791 0.998599 0.00770217
-0.0534565 0.0114974 0.998504 0.00789084
-0.0535125 0.0121176 0.998494 0.00559095
-0.0516388 0.0128684 0.998583 0.00575079
-0.0513809 0.0133564 0.99859 0.0051177
-0.0522975 0.0140342 0.998533 0.0069662
-0.0524721 0.0144311 0.998518 0.00107386
-0.053878 0.0154532 0.998428 0.00342656
-0.0531487 0.0161022 0.998457 0.00584387
-0.0518997 0.0169442 0.998509 0.00892316
-0.053881 0.0183758 0.998378 0.0137361
-0.0521674 0.0190447 0.998457 0.0125647
-0.0508341 0.0191151 0.998524 0.00570785
-0.0481583 0.0195429 0.998648 0
-0.0463652 0.0203072 0.998718 0
-0.0457492 0.0209812 0.998733 0
-0.0448065 0.0215647 0.998763 0
-0.0460025 0.0224528 0.998689 0
-0.0439629 0.0227887 0.998773 0
-0.0399882 0.0228763 0.998938 0
-0.0397635 0.0234412 0.998934 0
-0.0372797 0.0234255 0.99903 0
-0.0371966 0.0238819 0.999023 0
-0.0366895 0.0244069 0.999029 0
-0.0372114 0.0248422 0.998999 0
-0.039884 0.025313 0.998884 0
-0.0386005 0.0257106 0.998924 0
-0.0377579 0.0262069 0.998943 0
-0.0425854 0.0270675 0.998726 0.00195242
-0.040801 0.026991 0.998803 8.85426e-05
-0.0388479 0.0273368 0.998871 0
-0.0406917 0.0276892 0.998788 0.00130209
-0.0428423 0.0282307 0.998683 0.00186997
-0.0426997 0.0288758 0.998671 0.0037653
-0.0441592 0.0296097 0.998586 0.0117135
-0.0440196 0.0300543 0.998579 0.0108409
-0.0437741 0.0295998 0.998603 0.00638305
-0.0431485 0.0297039 0.998627 0.00486849
-0.0401899 0.0295489 0.998755 0.00527666
-0.0396172 0.0292083 0.998788 0.0012479
-0.0411927 0.0298047 0.998707 0.0066634
-0.0447815 0.0297509 0.998554 0.00811024
-0.0439543 0.0294555 0.998599 0.00535498
-0.0394575 0.0286938 0.998809 0
-0.0404873 0.0284965 0.998774 0
-0.0411319 0.0282907 0.998753 0
-0.0409645 0.0278545 0.998772 0
-0.0391238 0.0273946 0.998859 0
-0.0367258 0.0266498 0.99897 0
-0.0359816 0.0262044 0.999009 0
-0.0369088 0.02623 0.998974 0
-0.0393539 0.0254563 0.998901 0
-0.0406116 0.0253367 0.998854 0
-0.0416857 0.025001 0.998818 0
-0.0396051 0.0250871 0.9989 0
-0.0365683 0.0242702 0.999036 0
-0.0403288 0.0243475 0.99889 0
-0.0391028 0.02341 0.998961 0
-0.0377977 0.0226865 0.999028 0
-0.0392079 0.0220914 0.998987 0
-0.04064 0.0221087 0.998929 0
-0.0388011 0.0211196 0.999024 0
-0.0371312 0.020492 0.9991 0
-0.036925 0.0195342 0.999127 0
-0.0381733 0.0191856 0.999087 0.00127404
-0.0372143 0.0184677 0.999137 0.000728969
-0.0361879 0.0177431 0.999187 0.00216083
-0.0370872 0.0171941 0.999164 0.00102607
-0.037604 0.0169638 0.999149 0.00390474
-0.038393 0.0169024 0.99912 0.00996736
-0.0386795 0.0159894 0.999124 0.0109473
-0.0392676 0.0155257 0.999108 0.0126161
-0.0393007 0.0146108 0.999121 0.0149403
-0.0388478 0.0131641 0.999158 0.014893
-0.0395579 0.0124017 0.99914 0.0129355
-0.042424 0.0116648 0.999032 0.0177412
-0.0424442 0.0105468 0.999043 0.0200465
-0.0408307 0.00944102 0.999121 0.0170795
-0.0434321 0.00914828 0.999015 0.0165256
-0.0420845 0.00874145 0.999076 0.018453
-0.0423667 0.0083362 0.999067 0.0180547
-0.0413668 0.00783897 0.999113 0.0171728
-0.0431024 0.00698032 0.999046 0.0198911
-0.0442943 0.00590786 0.999001 0.0220718
-0.0419764 0.00410867 0.99911 0.01584
-0.0418413 0.00299698 0.99912 0.0187368
-0.0398159 0.00231167 0.999204 0.0130953
-0.0422597 0.00151242 0.999106 0.0160635
-0.0433583 0.000733795 0.999059 0.0154843
-0.0438342 0.000335608 0.999039 0.0106024
-0.0426307 -0.000447584 0.999091 0.0107506
-0.0398791 -0.00124047 0.999204 0.00661994
-0.0397405 -0.00177947 0.999208 0.00300782
-0.0376084 -0.00241604 0.99929 0.0020037
-0.0428244 -0.0023531 0.99908 0.0152141
-0.0460566 -0.00330824 0.998933 0.0234212
-0.0483683 -0.0035745 0.998823 0.0304264
-0.0506988 -0.00465313 0.998703 0.0325948
-0.0501391 -0.00637043 0.998722 0.0259324
-0.0452604 -0.00725502 0.998949 0.0151593
-0.0438081 -0.0080691 0.999007 0.0102198
-0.0379017 -0.00915317 0.99924 0
-0.0378183 -0.010493 0.999229 0
-0.0371296 -0.0115958 0.999243 0
-0.0388829 -0.0121933 0.999169 0
-0.0379562 -0.0128693 0.999196 0
-0.0391396 -0.0131864 0.999147 0
-0.0413339 -0.0137877 0.99905 0.00372919
-0.0408871 -0.0147145 0.999055 0.00228569
-0.0395382 -0.0156933 0.999095 0
-0.0356026 -0.0165284 0.999229 0
-0.037601 -0.017155 0.999146 0
-0.0417361 -0.017399 0.998977 0.00197157
-0.0417644 -0.0179263 0.998967 0.00454331
-0.0428875 -0.0184012 0.99891 0.00887188
-0.0443713 -0.0182489 0.998848 0.0108284
-0.0453542 -0.0187115 0.998796 0.0109047
-0.0444547 -0.0191176 0.998828 0.00786842
-0.0457645 -0.0192772 0.998766 0.00615929
-0.0492767 -0.0194954 0.998595 0.0110903
-0.0508629 -0.0195109 0.998515 0.0167064
-0.0502556 -0.019458 0.998547 0.019289
-0.049397 -0.0197318 0.998584 0.0187502
-0.0474662 -0.0201067 0.99867 0.0212614
-0.043477 -0.0209994 0.998834 0.00958382
-0.0412432 -0.0213487 0.998921 0.00524757
-0.0411568 -0.0216793 0.998917 0.00141148
-0.0395761 -0.0222387 0.998969 0
-0.0369435 -0.0224485 0.999065 0
-0.0356763 -0.0225564 0.999109 0
-0.0354524 -0.0224971 0.999118 0
-0.0381095 -0.0219768 0.999032 0
-0.0405539 -0.0216677 0.998942 0
-0.0406832 -0.0218003 0.998934 0
-0.0409057 -0.0218991 0.998923 0
-0.0403563 -0.0212165 0.99896 0
-0.0404568 -0.0206273 0.998968 0
-0.0395293 -0.0197501 0.999023 0
-0.0395217 -0.018817 0.999041 0
-0.0414806 -0.0177739 0.998981 0
-0.040617 -0.0172437 0.999026 0
-0.0403285 -0.0163354 0.999053 0
-0.0409008 -0.0160632 0.999034 0
-0.0430541 -0.0148659 0.998962 0
-0.0422475 -0.014233 0.999006 0
-0.0425908 -0.0130242 0.999008 0
-0.0404052 -0.0127209 0.999102 0
-0.0378923 -0.0120302 0.999209 0
-0.037714 -0.0117985 0.999219 0
-0.0373359 -0.0108394 0.999244 0
-0.0382633 -0.00912088 0.999226 0
-0.0381785 -0.00781692 0.99924 0
-0.0375082 -0.00596955 0.999278 0
-0.037661 -0.00499223 0.999278 0
-0.0385237 -0.00396009 0.99925 0
-0.0388589 -0.00280154 0.999241 0
-0.0374219 -0.00129034 0.999299 2.43008e-05
-0.0392209 0.00140759 0.99923 0.0117747
-0.0389337 0.00332339 0.999236 0.00942375
-0.0398183 0.00456301 0.999197 0.00972239
-0.03971 0.00632607 0.999191 0.00716091
-0.0375544 0.00782339 0.999264 0.00972511
-0.0367845 0.00992182 0.999274 0.00895408
-0.0410449 0.0123242 0.999081 0.0140989
-0.0455455 0.0144841 0.998857 0.0176877
-0.0444885 0.0164495 0.998874 0.0164444
-0.0420067 0.0175793 0.998963 0.0112087
-0.0401343 0.0194851 0.999004 0.0144893
-0.039065 0.0207292 0.999022 0.00833963
-0.0383616 0.0230275 0.998999 0.00340535
-0.0396726 0.0257825 0.99888 0.00517009
-0.0422854 0.0285843 0.998697 0.00912485
-0.0422774 0.0317504 0.998601 0.0122614
-0.042292 0.0337635 0.998535 0.00634016
-0.0418168 0.0362689 0.998467 0.00869231
-0.0446995 0.0394444 0.998221 0.0120598
-0.0469643 0.0416788 0.998027 0.0140331
-0.0469334 0.0440196 0.997928 0.0157288
-0.0498395 0.0473623 0.997634 0.0235489
-0.0476059 0.0486121 0.997683 0.0219224
-0.0469923 0.0504663 0.99762 0.0233332
-0.0470883 0.0524118 0.997515 0.0232146
-0.0461342 0.0537457 0.997488 0.0215359
-0.0418218 0.0540347 0.997663 0.0144739
-0.0389889 0.0552574 0.997711 0.00945281
-0.0379416 0.055911 0.997715 0.00422639
-0.0377236 0.0577396 0.997619 0.0077747
-0.0366284 0.0589348 0.99759 0.006491
-0.0378877 0.0605969 0.997443 0.00967167
-0.0406352 0.0621267 0.997241 0.0127407
-0.0375728 0.0627389 0.997322 0.00848383
-0.0374587 0.0633406 0.997289 0.00458228
-0.0380581 0.0662511 0.997077 0.00769051
-0.0372291 0.0678284 0.997002 0.00836462
-0.0363284 0.0686317 0.99698 0.00758717
-0.0376003 0.0705796 0.996797 0.00878038
-0.0380292 0.0709201 0.996757 0.00632048
-0.0368126 0.0721193 0.996716 0.00435246
-0.0368782 0.0721832 0.996709 0
-0.0356885 0.0738174 0.996633 0
-0.0377877 0.0758581 0.996402 0.00217572
-0.036843 0.0763143 0.996403 0
-0.0364273 0.0773967 0.996335 0
-0.0343438 0.0781219 0.996352 0
-0.032276 0.0794838 0.996313 0
-0.0308081 0.0812081 0.996221 0
-0.0304203 0.0826109 0.996118 0
-0.0298345 0.0844457 0.995981 0
-0.0287938 0.0862473 0.995858 0
-0.0301973 0.0886182 0.995608 0
-0.0294232 0.0896065 0.995543 0
-0.0298378 0.0922106 0.995292 0
-0.0309625 0.0946129 0.995033 0
-0.031834 0.0969333 0.994782 0
-0.0326581 0.0979766 0.994653 0
-0.0326201 0.0995436 0.994498 0
-0.0317759 0.101388 0.994339 0
-0.0322672 0.103159 0.994141 0
-0.0329837 0.105734 0.993847 0
-0.0330192 0.10798 0.993605 0
-0.0324683 0.108734 0.99354 0
-0.032294 0.111534 0.993236 0
-0.0323921 0.114163 0.992934 0
-0.0303988 0.11531 0.992864 0
-0.0302805 0.115125 0.992889 0
-0.0302189 0.117684 0.992591 0
-0.0288389 0.117759 0.992623 0
-0.0289269 0.119908 0.992364 0
-0.0281433 0.121854 0.992149 0
-0.0275903 0.123973 0.991902 0
-0.0286201 0.127195 0.991465 0
-0.0269395 0.129446 0.99122 0
-0.0272546 0.130894 0.991022 0
-0.0269291 0.132931 0.990759 0
-0.0271805 0.13501 0.990471 0
-0.0280752 0.137558 0.990096 0
-0.0293194 0.140281 0.989677 0
-0.0457579 -0.0414764 0.998091 0
-0.0475451 -0.0406418 0.998042 0
-0.0479038 -0.0408373 0.998017 0.00626917
-0.0496131 -0.0406414 0.997941 0.00706499
-0.0500449 -0.0400572 0.997943 0.00888343
-0.0515056 -0.0399327 0.997874 0.00809364
-0.0508526 -0.0394182 0.997928 0.00719896
-0.0515235 -0.0386677 0.997923 0.00898714
-0.0531864 -0.0391972 0.997815 0.0153146
-0.0532269 -0.0388442 0.997827 0.0143906
-0.0529039 -0.0378293 0.997883 0.0114154
-0.050816 -0.0372411 0.998013 0.00352852
-0.0506769 -0.0364638 0.998049 0.000488156
-0.0507665 -0.0358096 0.998068 0
-0.051356 -0.0356536 0.998044 0
-0.0509263 -0.0354977 0.998071 0
-0.0524465 -0.0345023 0.998028 0.00215354
-0.050846 -0.0337983 0.998134 0
-0.0508722 -0.0330755 0.998157 0.0028863
-0.0506991 -0.0321515 0.998196 0
-0.0515709 -0.0312338 0.998181 0.00301975
-0.0505855 -0.0306976 0.998248 0.00292501
-0.0492152 -0.0299507 0.998339 0.000952861
-0.0489544 -0.0289725 0.998381 0
-0.049703 -0.0281889 0.998366 0
-0.0491124 -0.0274311 0.998417 0
-0.0490785 -0.0265417 0.998442 0
-0.0490792 -0.0256839 0.998465 0
-0.0497436 -0.0246213 0.998458 0.00129426
-0.0493778 -0.0237866 0.998497 0.00245708
-0.0503739 -0.0229364 0.998467 0.00415691
-0.0522413 -0.0221102 0.99839 0.00906652
-0.0529281 -0.0213142 0.998371 0.0114574
-0.0511293 -0.0206803 0.998478 0.00824776
-0.0502265 -0.020117 0.998535 0.0121701
-0.049762 -0.0194264 0.998572 0.0127879
-0.0510866 -0.0186309 0.99852 0.0132938
-0.053182 -0.0176334 0.998429 0.0132915
-0.0538181 -0.0169343 0.998407 0.0116668
-0.0558404 -0.0159671 0.998312 0.0152647
-0.0569479 -0.0154366 0.998258 0.0194737
-0.0550772 -0.0146918 0.998374 0.016317
-0.0558441 -0.0139812 0.998342 0.0151539
-0.0529229 -0.0133158 0.99851 0.0149331
-0.0519128 -0.0125995 0.998572 0.0109739
-0.0522776 -0.0121737 0.998558 0.0113071
-0.0539064 -0.0115498 0.998479 0.0172229
-0.0524454 -0.0109566 0.998564 0.0139573
-0.050939 -0.0103497 0.998648 0.0127191
-0.0498737 -0.00975136 0.998708 0.0128585
-0.0507286 -0.00891004 0.998673 0.0127881
-0.0492602 -0.00808625 0.998753 0.0107352
-0.0523705 -0.0074173 0.9986 0.0149454
-0.051553 -0.00692964 0.998646 0.010448
-0.0504315 -0.00613085 0.998709 0.00728605
-0.0495127 -0.00523119 0.99876 0.00675905
-0.0489635 -0.00443954 0.998791 0.0087434
-0.0498734 -0.00344109 0.99875 0.00510704
-0.0472114 -0.00266433 0.998881 0.00268625
-0.0443488 -0.00138366 0.999015 0.000458139
-0.0430906 -6.94137e-05 0.999071 0.000718123
-0.0454593 0.00131213 0.998965 0.00271382
-0.0472121 0.0023729 0.998882 0.00354231
-0.0471338 0.00353091 0.998882 0.00495792
-0.0434372 0.00409717 0.999048 0.0030636
-0.0455017 0.00508295 0.998951 0.00341145
-0.044562 0.00644427 0.998986 0.000364691
-0.0485908 0.00771428 0.998789 0.00659353
-0.0531026 0.00899807 0.998549 0.0105439
-0.0571726 0.0102498 0.998312 0.0187614
-0.0590608 0.0112074 0.998191 0.0199236
-0.0545576 0.0112109 0.998448 0.0119913
-0.0519053 0.011751 0.998583 0.00596169
-0.0491316 0.0120597 0.998719 0.00350196
-0.0447649 0.0122531 0.998922 0
-0.0436785 0.0129233 0.998962 0
-0.0437376 0.0137038 0.998949 0
-0.043614 0.0143186 0.998946 0
-0.0486543 0.0155396 0.998695 0.00452898
-0.0489813 0.0163167 0.998666 0.00635674
-0.047638 0.017145 0.998718 0.00831576
-0.0493146 0.0178722 0.998623 0.00891155
-0.0463716 0.0180253 0.998762 0
-0.0457552 0.0187958 0.998776 0
-0.0464681 0.0198287 0.998723 0
-0.0483265 0.0206866 0.998617 0
-0.0452718 0.0209328 0.998755 0
-0.0464546 0.0215179 0.998689 0
-0.0453739 0.0224177 0.998718 0
-0.0413424 0.0227421 0.998886 0
-0.0411796 0.0234693 0.998876 0
-0.041152 0.0242462 0.998859 0.00202592
-0.0435622 0.0249127 0.99874 0.00466172
-0.0422618 0.0254555 0.998782 0.00554809
-0.0379084 0.0254036 0.998958 0.000723672
-0.0370429 0.0255802 0.998986 0
-0.038341 0.0262387 0.99892 0.00183076
-0.0408706 0.0274053 0.998789 0.0109045
-0.0417622 0.0273222 0.998754 0.00393816
-0.0392153 0.0272724 0.998859 0
-0.0401882 0.0274688 0.998814 0
-0.0397381 0.0276115 0.998829 0
-0.0387288 0.0280621 0.998856 0
-0.0397655 0.0282921 0.998808 0
-0.0433546 0.028972 0.99864 0
-0.0461026 0.0298412 0.998491 0.00621365
-0.0471851 0.0299668 0.998437 0.0072416
-0.0467367 0.0301154 0.998453 0.00635493
-0.0482097 0.0303339 0.998377 0.00736274
-0.04399 0.0300412 0.99858 0.00270422
-0.0432295 0.0297687 0.998622 0.000479699
-0.0433374 0.0299265 0.998612 0
-0.0429975 0.0296618 0.998635 0
-0.0414448 0.0297479 0.998698 0
-0.0410959 0.0301814 0.998699 0.00368053
-0.0420681 0.0303403 0.998654 0.00528397
-0.0462845 0.0307586 0.998455 0.0125367
-0.0488983 0.0305103 0.998338 0.0128752
-0.0453731 0.0292703 0.998541 0.00432774
-0.0425787 0.02879 0.998678 0.001517
-0.0425432 0.028529 0.998687 0.00246843
-0.0415149 0.0283966 0.998734 0.00412428
-0.0458403 0.028419 0.998544 0.00570806
-0.0435429 0.0277829 0.998665 0.00356342
-0.0467364 0.0279399 0.998516 0.00776003
-0.0427913 0.0272349 0.998713 0.00441207
-0.0453384 0.0272204 0.998601 0.00807008
-0.0479259 0.0265199 0.998499 0.00598616
-0.0477689 0.0257501 0.998526 0.00276142
-0.044844 0.0248812 0.998684 0
-0.0432476 0.0246473 0.99876 0
-0.0409015 0.0241413 0.998872 0
-0.0404528 0.0227929 0.998921 0
-0.041227 0.0222411 0.998902 0
-0.0405052 0.0218929 0.998939 0
-0.0425146 0.0212934 0.998869 0.00121343
-0.0457956 0.021162 0.998727 0.00771859
-0.0421352 0.0200736 0.99891 0.00657696
-0.0421697 0.0183341 0.998942 0.0060116
-0.040207 0.0170265 0.999046 0.00362345
-0.0383493 0.0161425 0.999134 0.00138469
-0.0328101 0.0153105 0.999344 0
-0.0350541 0.0147664 0.999276 0.00227568
-0.0384607 0.0140329 0.999162 0.00592423
-0.0409349 0.0129472 0.999078 0.00830325
-0.0405 0.0121705 0.999105 0.0101115
-0.0395799 0.0114455 0.999151 0.012577
-0.041363 0.0110454 0.999083 0.0162931
-0.0444229 0.0110891 0.998951 0.0205356
-0.0460628 0.0108864 0.998879 0.0248255
-0.0468737 0.0105515 0.998845 0.0303963
-0.0458405 0.00949512 0.998904 0.0243431
-0.0478532 0.00868441 0.998817 0.0244908
-0.0473196 0.0074265 0.998852 0.0254113
-0.0489123 0.00646683 0.998782 0.0201348
-0.0451912 0.00501842 0.998966 0.0194034
-0.0446853 0.00377426 0.998994 0.019881
-0.0444345 0.00296026 0.999008 0.0191106
-0.0436342 0.00209595 0.999045 0.0215441
-0.0424732 0.00100032 0.999097 0.0191133
-0.0440731 0.000122936 0.999028 0.0204274
-0.0423943 -0.000662145 0.999101 0.0124281
-0.040757 -0.00120777 0.999168 0.0100675
-0.0408694 -0.00155871 0.999163 0.00967386
-0.0432888 -0.00265045 0.999059 0.0131004
-0.044902 -0.00368428 0.998985 0.0184252
-0.0500739 -0.00434 0.998736 0.0224838
-0.0510039 -0.00461122 0.998688 0.0216106
-0.0472176 -0.0060876 0.998866 0.0159347
-0.0491942 -0.00717433 0.998764 0.0176287
-0.0486064 -0.00780241 0.998788 0.0169758
-0.0506517 -0.00902458 0.998676 0.0155778
-0.0557173 -0.00979244 0.998399 0.0185632
-0.0516453 -0.010862 0.998606 0.0137806
-0.0468166 -0.0112993 0.99884 0.007708
-0.0466355 -0.012033 0.99884 0.00216327
-0.0485982 -0.0117417 0.998749 0.00436274
-0.049804 -0.0128904 0.998676 0.00730028
-0.0481836 -0.0134846 0.998747 0.00834976
-0.0485371 -0.014307 0.998719 0.00751765
-0.0460302 -0.0154846 0.99882 0.00612227
-0.0456859 -0.0162859 0.998823 0.00594658
-0.0413054 -0.0168691 0.999004 0.00138734
-0.040307 -0.0175049 0.999034 0
-0.0381248 -0.0180724 0.99911 0.000652366
-0.0386819 -0.0186733 0.999077 4.50778e-05
-0.0355704 -0.0194117 0.999179 0
-0.0379747 -0.0197114 0.999084 0
-0.0390363 -0.020162 0.999034 0
-0.0406128 -0.0204907 0.998965 0
-0.0426978 -0.0202021 0.998884 0
-0.0425409 -0.0206038 0.998882 0
-0.0435863 -0.0200468 0.998848 0
-0.0452268 -0.0191783 0.998793 0.00100023
-0.0438985 -0.0197745 0.99884 0.00167375
-0.0441408 -0.0201998 0.998821 0
-0.0426682 -0.0204575 0.99888 0
-0.042785 -0.0205286 0.998873 0
-0.0437503 -0.0210459 0.998821 0
-0.0442788 -0.021005 0.998798 0
-0.0423617 -0.0212922 0.998875 0
-0.0419656 -0.021541 0.998887 0
-0.0408215 -0.0209554 0.998947 0
-0.0441246 -0.0204633 0.998816 0
-0.041824 -0.0204371 0.998916 0
-0.0419203 -0.0201995 0.998917 0
-0.0380708 -0.0201988 0.999071 0
-0.0395297 -0.0197113 0.999024 0
-0.043438 -0.0187243 0.998881 0
-0.0434704 -0.0180539 0.998892 0
-0.0426772 -0.017987 0.998927 0.00405243
-0.0446032 -0.017336 0.998854 0.00718513
-0.0417896 -0.0159847 0.998999 0.00391094
-0.0395961 -0.0146731 0.999108 0.00375033
-0.0402272 -0.0137008 0.999097 0.00596691
-0.0402019 -0.0135353 0.9991 0
-0.04426 -0.012624 0.99894 0.000826654
-0.0399484 -0.0116416 0.999134 0.00221081
-0.0367783 -0.0108297 0.999265 0
-0.0365828 -0.009675 0.999284 0
-0.0350673 -0.00859393 0.999348 0
-0.0365032 -0.00742564 0.999306 0
-0.0343667 -0.00653306 0.999388 0
-0.031487 -0.00528593 0.99949 0
-0.0309818 -0.00383507 0.999513 0
-0.0319047 -0.00238322 0.999488 0
-0.0334058 -0.00106332 0.999441 0
-0.0335915 0.000577328 0.999435 0
-0.032606 0.0018429 0.999467 0
-0.0333416 0.00319842 0.999439 0
-0.0307347 0.00443691 0.999518 0
-0.0301972 0.00606826 0.999526 0
-0.0335663 0.00788224 0.999405 0
-0.0333696 0.00982962 0.999395 0.00527363
-0.0379388 0.0121408 0.999206 0.0106185
-0.0391066 0.0139865 0.999137 0.0120854
-0.0419467 0.0160618 0.998991 0.0150103
-0.0417062 0.0178312 0.998971 0.0143866
-0.0396533 0.0190639 0.999032 0.00622827
-0.0441143 0.022081 0.998782 0.0142876
-0.042628 0.0247978 0.998783 0.0164383
-0.0421251 0.0267884 0.998753 0.017685
-0.0437344 0.0288137 0.998628 0.0149929
-0.0415272 0.0310628 0.998654 0.0100724
-0.0395928 0.0331898 0.998665 0.00769572
-0.040453 0.0355344 0.998549 0.0127655
-0.0423916 0.0386239 0.998354 0.0156862
-0.0418172 0.0397347 0.998335 0.0127839
-0.0415209 0.0424136 0.998237 0.0155934
-0.0436481 0.0456518 0.998003 0.0211921
-0.0465364 0.048478 0.99774 0.0271548
-0.0470788 0.0512402 0.997576 0.0282528
-0.045173 0.0527413 0.997586 0.0282491
-0.0448879 0.0552479 0.997463 0.0303868
-0.0446559 0.056968 0.997377 0.0291065
-0.0467092 0.0584762 0.997195 0.0284635
-0.0453899 0.0592275 0.997212 0.0238306
-0.0433555 0.0593486 0.997295 0.0186593
-0.0406119 0.0598386 0.997382 0.0183955
-0.0391079 0.0605498 0.997399 0.0155003
-0.0404569 0.0613747 0.997295 0.0137173
-0.0384905 0.062312 0.997314 0.0125583
-0.0378341 0.0615529 0.997386 0.00707371
-0.0374025 0.0622613 0.997359 0.00200122
-0.0394881 0.0635872 0.997195 0.00160602
-0.0401459 0.0648011 0.99709 0.000680081
-0.0387616 0.0658867 0.997074 0.000454004
-0.0377272 0.0669875 0.99704 0
-0.0363778 0.0683063 0.997001 0
-0.0380235 0.0697688 0.996838 0
-0.0341237 0.0708881 0.9969 0
-0.0338647 0.0721174 0.996821 0
-0.0351559 0.072745 0.996731 0
-0.0330736 0.0741005 0.996702 0
-0.0321689 0.0757136 0.996611 0
-0.0320744 0.0772592 0.996495 0
-0.0316922 0.0797614 0.99631 0
-0.0307424 0.0810007 0.99624 0
-0.0307757 0.0821712 0.996143 0
-0.0301936 0.0842448 0.995988 0
-0.030479 0.0869671 0.995745 0
-0.0304165 0.0890531 0.995562 0
-0.0304756 0.0903425 0.995444 0
-0.0313203 0.0926345 0.995207 0
-0.0320365 0.0945394 0.995005 0
-0.031903 0.0969507 0.994778 0
-0.0317271 0.0993448 0.994547 0
-0.0313949 0.100828 0.994408 0
-0.0318956 0.103694 0.994098 0
-0.0314641 0.10653 0.993811 0
-0.0318914 0.107496 0.993694 0
-0.0309134 0.108983 0.993563 0
-0.0306195 0.111848 0.993254 0
-0.0293309 0.113275 0.993131 0
-0.030022 0.115622 0.992839 0
-0.0305904 0.11701 0.99266 0
-0.0294421 0.117971 0.992581 0
-0.028975 0.118596 0.99252 0
-0.0287156 0.121455 0.992182 0
-0.0279793 0.124506 0.991824 0
-0.0275083 0.126412 0.991596 0
-0.0274937 0.128173 0.991371 0
-0.0284227 0.130015 0.991105 0
-0.0290997 0.131077 0.990945 0
-0.0301539 0.133317 0.990615 0
-0.0301284 0.135235 0.990355 0
-0.0288866 0.137824 0.990035 0
-0.0285519 0.140168 0.989716 0
-0.0457868 -0.0420566 0.998066 0
-0.0474775 -0.04173 0.998 0
-0.0458624 -0.0419188 0.998068 0
-0.045666 -0.0415627 0.998092 0
-0.0461309 -0.0413052 0.998081 0
-0.0456918 -0.041436 0.998096 0
-0.0442651 -0.0412164 0.998169 0
-0.0456163 -0.040686 0.99813 0
-0.0466265 -0.0403338 0.998098 0
-0.0480786 -0.0393506 0.998068 0
-0.0494379 -0.0387845 0.998024 0
-0.0493684 -0.0382739 0.998047 0
-0.0498111 -0.0380316 0.998034 0
-0.0493134 -0.0377835 0.998068 0
-0.05009 -0.0373416 0.998046 0
-0.0504 -0.0367015 0.998055 0
-0.0505229 -0.0360565 0.998072 0
-0.051921 -0.0350936 0.998034 0
-0.0525671 -0.0344197 0.998024 0
-0.0513157 -0.0335197 0.99812 0
-0.0507758 -0.0327417 0.998173 0
-0.0493711 -0.0317808 0.998275 0
-0.0490891 -0.0311038 0.99831 0
-0.0468241 -0.0307031 0.998431 0
-0.0488001 -0.0295518 0.998371 0
-0.0485335 -0.0287064 0.998409 0
-0.050962 -0.0271292 0.998332 0
-0.0516863 -0.0260775 0.998323 0
-0.0516894 -0.0250082 0.99835 0
-0.052024 -0.023909 0.99836 0
-0.0509104 -0.0233948 0.998429 0
-0.0523067 -0.0224264 0.998379 0
-0.0510131 -0.0217256 0.998462 0
-0.0503266 -0.0208748 0.998515 0
-0.0495442 -0.0199107 0.998573 0
-0.0508293 -0.0191663 0.998523 0
-0.053269 -0.0181955 0.998414 0
-0.05434 -0.0173139 0.998372 0.00213899
-0.0529235 -0.0166846 0.998459 0.00419397
-0.0540103 -0.0161371 0.99841 0.00837805
-0.0548033 -0.0155381 0.998376 0.00862384
-0.0529164 -0.0147187 0.99849 0.00438364
-0.0509521 -0.0142178 0.9986 0.00402558
-0.048109 -0.0136495 0.998749 0.00293598
-0.0457538 -0.0131937 0.998866 0.000319836
-0.045024 -0.0125927 0.998907 0.00139118
-0.0462848 -0.0117683 0.998859 0.003112
-0.0443965 -0.0108952 0.998955 0.00235674
-0.0445428 -0.0103766 0.998954 0.00435355
-0.0453586 -0.00971521 0.998924 0.00477045
-0.0468199 -0.00890483 0.998864 0.00430563
-0.0479366 -0.00822683 0.998816 0.00700394
-0.0477019 -0.00743321 0.998834 0.00384131
-0.0466077 -0.00672132 0.998891 0.00425721
-0.0458704 -0.00576132 0.998931 0
-0.0472857 -0.0048233 0.99887 0.000325562
-0.0469967 -0.00381411 0.998888 0
-0.0470782 -0.00280015 0.998887 0
-0.0458309 -0.00166117 0.998948 0
-0.0475443 -0.000593262 0.998869 0.00172856
-0.0460751 0.000193594 0.998938 0.00129447
-0.0459954 0.00126292 0.998941 0.0026379
-0.0455873 0.00254166 0.998957 0.000620306
-0.0487861 0.00347381 0.998803 0.0073146
-0.051454 0.0046527 0.998664 0.012879
-0.0530337 0.00589668 0.998575 0.0145363
-0.0570993 0.00752701 0.99834 0.0240579
-0.0556458 0.00842456 0.998415 0.0171645
-0.052202 0.00906008 0.998595 0.0106748
-0.0544581 0.0103763 0.998462 0.0120527
-0.0540112 0.0110376 0.998479 0.0115338
-0.0544161 0.0119152 0.998447 0.0114664
-0.0499302 0.0121727 0.998679 0.00430213
-0.0505597 0.0127455 0.99864 0.00526673
-0.0502648 0.0134338 0.998646 0.00755054
-0.0489494 0.0138516 0.998705 0.0038785
-0.0455026 0.0141449 0.998864 0.00345452
-0.0459517 0.0145892 0.998837 0.00223043
-0.0445276 0.015113 0.998894 0.0025366
-0.0478099 0.0163102 0.998723 0.0095385
-0.0522902 0.0172624 0.998483 0.0141193
-0.0489016 0.0178432 0.998644 0.0143022
-0.0484316 0.0182272 0.99866 0.00870391
-0.0458183 0.0184581 0.998779 0.00441757
-0.0438126 0.0190756 0.998858 0.00459739
-0.0472941 0.0205105 0.99867 0.011229
-0.0486804 0.0217024 0.998579 0.0153758
-0.0493435 0.0226535 0.998525 0.0169129
-0.0472666 0.0225981 0.998627 0.0069972
-0.043639 0.0228684 0.998786 0.00214948
-0.0397759 0.0233994 0.998935 0
-0.0356946 0.0234499 0.999088 0
-0.0364318 0.0240717 0.999046 0
-0.0392645 0.0247603 0.998922 0
-0.0396478 0.0254621 0.998889 0
-0.0395893 0.0257931 0.998883 0
-0.041706 0.0264449 0.99878 0
-0.0452367 0.0277165 0.998592 0.00666261
-0.0470472 0.0283506 0.99849 0.0106054
-0.0470732 0.0285124 0.998484 0.00938341
-0.0459745 0.0289325 0.998524 0.0106587
-0.0474834 0.0294949 0.998436 0.0137149
-0.0503815 0.0301376 0.998275 0.0167632
-0.048596 0.0302208 0.998361 0.0133967
-0.04744 0.0299747 0.998424 0.0114437
-0.0477035 0.0303381 0.998401 0.0112285
-0.0539227 0.0311593 0.998059 0.0170982
-0.050853 0.0307252 0.998233 0.0132027
-0.0495195 0.0305724 0.998305 0.00983424
-0.0443133 0.0302117 0.998561 0.0045239
-0.0448465 0.0301716 0.998538 0.00265308
-0.0475521 0.0311056 0.998384 0.0098433
-0.0454934 0.0311197 0.99848 0.00822478
-0.0452722 0.0312245 0.998487 0.00906874
-0.0437545 0.030736 0.998569 0.00414037
-0.0446587 0.0306682 0.998531 0.00370871
-0.0485773 0.0306438 0.998349 0.00581246
-0.0475281 0.0304255 0.998406 0.00461777
-0.047634 0.0306985 0.998393 0.00874397
-0.0523507 0.0313917 0.998135 0.0152815
-0.048615 0.0310904 0.998334 0.0131325
-0.049954 0.0302287 0.998294 0.0075996
-0.0513913 0.0296584 0.998238 0.00524125
-0.0444515 0.0288848 0.998594 0
-0.0477998 0.02903 0.998435 0.00534957
-0.0471758 0.0287844 0.998472 0.00770702
-0.0443614 0.0279569 0.998624 0.00366503
-0.0443271 0.0277863 0.998631 0.0055603
-0.045648 0.027932 0.998567 0.0103345
-0.04307 0.0270137 0.998707 0.00701442
-0.0435497 0.0265237 0.998699 0.0114288
-0.0420579 0.0256537 0.998786 0.00619157
-0.0444772 0.0247266 0.998704 0.00154208
-0.0444373 0.0243162 0.998716 0.00159379
-0.0466677 0.0236555 0.99863 0.0046092
-0.0448489 0.0222825 0.998745 0.00197758
-0.040463 0.0208137 0.998964 0
-0.0394432 0.0202461 0.999017 0
-0.0408566 0.0195103 0.998975 0
-0.0410104 0.0187427 0.998983 0.000546687
-0.0426301 0.0175893 0.998936 0.00251919
-0.0415125 0.0169621 0.998994 0.00729411
-0.0398357 0.0159101 0.99908 0.00633918
-0.0372974 0.0142492 0.999203 0.00477783
-0.0374394 0.0135378 0.999207 0.00647645
-0.0363965 0.0133072 0.999249 0.00894132
-0.0400698 0.0126247 0.999117 0.0144364
-0.0428142 0.0120607 0.99901 0.0205455
-0.0415188 0.0109307 0.999078 0.0179626
-0.0389772 0.0099196 0.999191 0.0147801
-0.0409135 0.00874305 0.999124 0.0147848
-0.0416445 0.00800696 0.9991 0.0167627
-0.039092 0.00720192 0.99921 0.0170099
-0.0385839 0.0061761 0.999236 0.00963545
-0.0368776 0.00488006 0.999308 0.00279717
-0.0370092 0.00382581 0.999308 0.00119918
-0.0435405 0.00435018 0.999042 0.0132157
-0.0484196 0.00453976 0.998817 0.0231241
-0.049222 0.0039403 0.99878 0.0281096
-0.0497542 0.00289545 0.998757 0.0268616
-0.0488811 0.00174174 0.998803 0.0233448
-0.0473049 0.000926993 0.99888 0.0191714
-0.0473431 -0.000204033 0.998879 0.0174357
-0.0426667 -0.00172355 0.999088 0.0127312
-0.0415993 -0.00291971 0.99913 0.00215478
-0.0418233 -0.00394214 0.999117 0.00255904
-0.046503 -0.00448281 0.998908 0.00609827
-0.0492207 -0.00532427 0.998774 0.00964321
-0.0489855 -0.00654555 0.998778 0.0113855
-0.0533981 -0.00741635 0.998546 0.0155678
-0.0486072 -0.00867835 0.99878 0.012465
-0.0456583 -0.00925092 0.998914 0.0061509
-0.0457836 -0.0104138 0.998897 0
-0.0460331 -0.0110657 0.998879 0.0042976
-0.0422075 -0.0120617 0.999036 0
-0.0463732 -0.0123975 0.998847 0
-0.0451726 -0.0132673 0.998891 0
-0.0466297 -0.0135437 0.99882 0
-0.0447384 -0.0140184 0.9989 0
-0.0433149 -0.0152252 0.998945 0
-0.042912 -0.0156046 0.998957 0
-0.0420933 -0.0160366 0.998985 0
-0.0413207 -0.0163648 0.999012 0.00746086
-0.041645 -0.0172322 0.998984 0.00876444
-0.0383042 -0.0182245 0.9991 0.00168441
-0.0389394 -0.019255 0.999056 0
-0.0360255 -0.0205354 0.99914 0
-0.0364003 -0.0206644 0.999124 0
-0.0375585 -0.0206864 0.99908 0
-0.0379416 -0.020754 0.999064 0
-0.0388831 -0.0209691 0.999024 0
-0.0429858 -0.0213968 0.998847 0.00270282
-0.0446247 -0.021077 0.998781 0.00281399
-0.0469559 -0.021067 0.998675 0.00743387
-0.0490717 -0.0213758 0.998566 0.0144605
-0.0530186 -0.0209508 0.998374 0.0188712
-0.0550272 -0.0207868 0.998268 0.0201379
-0.054628 -0.020399 0.998298 0.0164003
-0.0510969 -0.020811 0.998477 0.0075728
-0.0476578 -0.0203233 0.998657 0.00175284
-0.0485142 -0.0205708 0.998611 0.00234559
-0.0485954 -0.0203591 0.998611 0.000841813
-0.0473585 -0.0203726 0.99867 0
-0.0478551 -0.0205921 0.998642 0
-0.0483476 -0.0200069 0.99863 0
-0.0492302 -0.0196314 0.998595 0
-0.0477519 -0.0190668 0.998677 0
-0.0478954 -0.0183239 0.998684 0.00186839
-0.0470875 -0.0178655 0.998731 0.00526752
-0.0484687 -0.0169726 0.998681 0.0130294
-0.04608 -0.0167681 0.998797 0.011176
-0.0461504 -0.0155991 0.998813 0.010471
-0.0434926 -0.015251 0.998937 0.00576414
-0.0386142 -0.0146361 0.999147 0.00234088
-0.0376046 -0.013783 0.999198 0
-0.035992 -0.0130105 0.999267 0
-0.0386039 -0.0121717 0.99918 0
-0.0336182 -0.011768 0.999366 0
-0.0308202 -0.0108175 0.999466 0
-0.0314378 -0.00973938 0.999458 0
-0.0317027 -0.00849636 0.999461 0
-0.0348129 -0.00647552 0.999373 0
-0.0323899 -0.00518897 0.999462 0
-0.0309307 -0.00398859 0.999514 0
-0.0276785 -0.00380034 0.99961 0
-0.0278764 -0.00215196 0.999609 0
-0.0287038 -0.00117701 0.999587 0
-0.0272519 0.000378358 0.999629 0
-0.0301236 0.00198833 0.999544 0.00077806
-0.0337426 0.00396925 0.999423 0.00609541
-0.0354277 0.00547911 0.999357 0.00540993
-0.031309 0.00606947 0.999491 0
-0.032709 0.00754308 0.999436 0
-0.0339695 0.00897244 0.999383 0
-0.0358212 0.0110022 0.999298 0
-0.0387311 0.0133414 0.999161 0.00368753
-0.0413516 0.0152411 0.999028 0.00733025
-0.0441867 0.0173101 0.998873 0.00584192
-0.0447419 0.0198171 0.998802 0.00931622
-0.0445491 0.0224316 0.998755 0.0117418
-0.0468368 0.0251078 0.998587 0.0175458
-0.044482 0.0264776 0.998659 0.0121519
-0.046205 0.0289606 0.998512 0.0154393
-0.0484725 0.032428 0.998298 0.025368
-0.0481529 0.0345123 0.998244 0.0207187
-0.0469093 0.0360506 0.998248 0.0191662
-0.0442728 0.0370454 0.998332 0.0130685
-0.0405599 0.038381 0.99844 0.00532731
-0.0419243 0.0419453 0.99824 0.0129461
-0.0438244 0.0435939 0.998088 0.0147455
-0.0441979 0.0447538 0.99802 0.0113807
-0.0466066 0.0473686 0.99779 0.0148164
-0.0497284 0.0501343 0.997504 0.0191497
-0.0446961 0.0513099 0.997682 0.0173078
-0.0429419 0.0515429 0.997747 0.0112005
-0.0418954 0.0530932 0.99771 0.0130724
-0.0414869 0.05485 0.997632 0.0150254
-0.0405065 0.0563771 0.997588 0.0142319
-0.0424987 0.0577868 0.997424 0.014609
-0.040419 0.0578674 0.997506 0.0116414
-0.0389779 0.0595321 0.997465 0.0116313
-0.0365418 0.0602952 0.997512 0.0102279
-0.0371015 0.0626869 0.997343 0.0129333
-0.0362385 0.0629263 0.99736 0.0105458
-0.038721 0.0633909 0.997237 0.00648419
-0.0388494 0.0643844 0.997169 0.0072268
-0.0378798 0.065174 0.997155 0.00371303
-0.0386934 0.0659375 0.997073 0.000836891
-0.0412938 0.0671913 0.996885 0
-0.038587 0.0677729 0.996954 0
-0.0355553 0.0683752 0.997026 0
-0.0355936 0.0695865 0.996941 0
-0.0364612 0.0715869 0.996768 0
-0.0362546 0.0720193 0.996744 0
-0.0355286 0.0736087 0.996654 0
-0.0370834 0.0744556 0.996535 0
-0.0371827 0.0762091 0.996398 0
-0.0363087 0.0779466 0.996296 0
-0.0371846 0.0801378 0.99609 0
-0.0370156 0.0821767 0.99593 0
-0.036455 0.0838027 0.995815 0
-0.0367549 0.0855881 0.995652 0
-0.0377751 0.0875421 0.995444 0
-0.0369245 0.0896649 0.995287 0
-0.037263 0.0911976 0.995135 0
-0.0370118 0.0938859 0.994895 0
-0.0387228 0.0969426 0.994536 0
-0.0380635 0.0982965 0.994429 0
-0.0391095 0.100281 0.99419 0
-0.0380761 0.101694 0.994087 0
-0.0374282 0.103139 0.993963 0
-0.0388449 0.103102 0.993912 0
-0.0403852 0.104508 0.993704 0
-0.0396744 0.105422 0.993636 0
-0.0407545 0.106014 0.993529 0
-0.0400439 0.110115 0.993112 0
-0.040312 0.113546 0.992715 0
-0.0392666 0.115234 0.992562 0
-0.0393411 0.116917 0.992362 0
-0.0387023 0.119105 0.992127 0
-0.0385947 0.121223 0.991875 0
-0.0375422 0.123803 0.991596 0
-0.0386961 0.126008 0.991274 0
-0.0363376 0.127619 0.991157 0
-0.0383161 0.131663 0.990554 0.00131458
-0.0376822 0.132569 0.990457 0
-0.0375514 0.135021 0.990131 0
-0.0354629 0.1382 0.989769 0
-0.0342734 0.138999 0.989699 0
-0.048631 -0.0429832 0.997891 0
-0.0488777 -0.042983 0.997879 0
-0.0497518 -0.042571 0.997854 0
-0.0502791 -0.0420471 0.99785 0
-0.0500578 -0.041546 0.997882 0
-0.0501846 -0.0412295 0.997889 0
-0.0506974 -0.0408548 0.997878 0
-0.0514042 -0.0409592 0.997838 0.00130105
-0.0510139 -0.0404664 0.997878 0.000205529
-0.0507625 -0.0401355 0.997904 0
-0.0520269 -0.0403285 0.997831 0.00411533
-0.0523519 -0.0396521 0.997841 0.00442697
-0.0522337 -0.0390185 0.997872 0
-0.0530145 -0.0385901 0.997848 0
-0.0515932 -0.0381923 0.997938 0
-0.0509325 -0.0376509 0.997992 0
-0.0513895 -0.0370636 0.997991 0
-0.0512368 -0.036275 0.998027 0
-0.0518905 -0.0354574 0.998023 0
-0.0525992 -0.0342243 0.998029 0
-0.0529023 -0.0334464 0.998039 0
-0.0536235 -0.0326557 0.998027 0
-0.0539896 -0.0318902 0.998032 0.000705919
-0.0528197 -0.0308514 0.998127 0
-0.0530077 -0.0301044 0.99814 0.0012806
-0.0525217 -0.0288864 0.998202 0
-0.052286 -0.0280382 0.998239 0
-0.0531421 -0.0271696 0.998217 0.004765
-0.0537102 -0.0260446 0.998217 0.000630703
-0.0531637 -0.0249586 0.998274 0
-0.0512161 -0.0241086 0.998397 0
-0.0524842 -0.0228667 0.99836 0.000137023
-0.0508065 -0.0220763 0.998465 0
-0.0522614 -0.0209365 0.998414 0
-0.049501 -0.0198523 0.998577 0
-0.0491013 -0.0189372 0.998614 0.00151282
-0.04906 -0.0183555 0.998627 0.00516339
-0.0511272 -0.0176515 0.998536 0.0100283
-0.0519049 -0.0166928 0.998513 0.0125939
-0.0499969 -0.0158868 0.998623 0.014443
-0.0494892 -0.0151441 0.99866 0.0109927
-0.0468886 -0.0142886 0.998798 0.00651643
-0.0444555 -0.0134117 0.998921 0.00197701
-0.0437624 -0.0126318 0.998962 0.00617912
-0.0424579 -0.0118921 0.999027 0.00661625
-0.0426986 -0.0113412 0.999024 0.00838239
-0.0441333 -0.0106136 0.998969 0.00793088
-0.0429293 -0.0105485 0.999022 0.00656101
-0.0452006 -0.00959527 0.998932 0.0108325
-0.0432863 -0.00915144 0.999021 0.0058118
-0.0435727 -0.00833995 0.999015 0.00653219
-0.0456004 -0.0076459 0.998931 0.00834688
-0.0425748 -0.0069117 0.999069 0.00212949
-0.043556 -0.00583531 0.999034 0
-0.0427695 -0.0049212 0.999073 0.00360381
-0.0471477 -0.00369245 0.998881 0.0150377
-0.0449079 -0.00290315 0.998987 0.00822192
-0.0446234 -0.00221933 0.999001 0.00846488
-0.0467943 -0.00116661 0.998904 0.0101485
-0.050524 -9.08514e-05 0.998723 0.013445
-0.0517791 0.00068132 0.998658 0.0143227
-0.0514596 0.00150958 0.998674 0.0140005
-0.0509265 0.00209837 0.9987 0.0120993
-0.050514 0.0031383 0.998718 0.0155336
-0.0520072 0.00404941 0.998639 0.0134111
-0.0549814 0.00577946 0.998471 0.0202031
-0.0577203 0.0075395 0.998304 0.0259751
-0.0567773 0.00891647 0.998347 0.0224254
-0.0568362 0.0100004 0.998333 0.0223156
-0.0554056 0.0111157 0.998402 0.0231454
-0.0527559 0.0114819 0.998541 0.0166514
-0.0512851 0.0122252 0.998609 0.0129311
-0.0476422 0.0126642 0.998784 0.00674936
-0.0474587 0.0133409 0.998784 0.00796807
-0.0478227 0.0139055 0.998759 0.00457912
-0.0431242 0.0142311 0.998968 0.00127133
-0.0400826 0.0145335 0.999091 0
-0.0374814 0.0150445 0.999184 0
-0.0371734 0.0151817 0.999193 0
-0.039823 0.0158025 0.999082 0
-0.0415191 0.0164316 0.999003 0
-0.041937 0.0171057 0.998974 0
-0.0402407 0.0177288 0.999033 0
-0.0413106 0.0186249 0.998973 0
-0.0448587 0.0196107 0.998801 0.00709911
-0.0471666 0.0203767 0.998679 0.0098317
-0.0492958 0.0213505 0.998556 0.0132008
-0.0482974 0.0221078 0.998588 0.0173694
-0.0464287 0.0225488 0.998667 0.0128097
-0.0460317 0.0232882 0.998668 0.0100648
-0.0445049 0.0238191 0.998725 0.00735206
-0.0442902 0.024154 0.998727 0.00384126
-0.0428305 0.0250772 0.998768 0.00732354
-0.0409864 0.0249685 0.998848 0.00174081
-0.040746 0.0252947 0.998849 0
-0.0365176 0.0255213 0.999007 0
-0.0390704 0.0263562 0.998889 0
-0.0409178 0.0270151 0.998797 0
-0.0438098 0.0281916 0.998642 0.00418929
-0.0430728 0.0287698 0.998658 0.00734615
-0.0472976 0.0297595 0.998437 0.0128474
-0.0469807 0.029939 0.998447 0.0133005
-0.0462258 0.0299747 0.998481 0.0124211
