-0.0242092 -0.0472426 0.99859 0
-0.0229921 -0.0450065 0.998722 0
-0.0232838 -0.0394454 0.99895 0
-0.0252795 -0.0384379 0.998941 0
-0.0298811 -0.036417 0.99889 0
-0.0390365 -0.0273211 0.998864 0
-0.0365181 -0.0249187 0.999022 0
-0.0345753 -0.0209191 0.999183 0
-0.0376565 -0.0214707 0.99906 0
-0.0400027 -0.0205362 0.998989 0
-0.0399815 -0.0128227 0.999118 0.00866177
-0.0413656 -0.013427 0.999054 0.0142697
-0.0467347 -0.0145715 0.998801 0.0185102
-0.0511389 -0.0120536 0.998619 0.018632
-0.0514932 -0.0158341 0.998548 0.0195516
-0.0494004 -0.0176732 0.998623 0.0172664
-0.0477247 -0.0230056 0.998596 0.00414109
-0.0418193 -0.0199622 0.998926 0.00197968
-0.0362218 -0.0492742 0.998128 0
-0.0350107 -0.049822 0.998144 0
-0.0416005 -0.0484968 0.997957 0
-0.0397489 -0.0451727 0.998188 0
-0.042416 -0.0426843 0.998188 0
-0.0362098 -0.0444214 0.998356 0
-0.0275041 -0.0488359 0.998428 0
-0.0253307 -0.0495206 0.998452 0
-0.0193001 -0.0539106 0.998359 0
-0.0135187 -0.0580138 0.998224 0
-0.0151625 -0.0595012 0.998113 0
-0.0216297 -0.0573755 0.998118 0
-0.0136654 -0.0572402 0.998267 0
-0.0155495 -0.0507023 0.998593 0
-0.0197084 -0.0453227 0.998778 0
-0.0259139 -0.0456453 0.998622 0
-0.0257567 -0.0409123 0.998831 0
-0.0248801 -0.032072 0.999176 0
-0.0231438 -0.0281612 0.999335 0
-0.0278327 -0.0244946 0.999312 0
-0.0364116 -0.0241852 0.999044 0
-0.0324805 -0.022602 0.999217 0
-0.0344846 -0.0203924 0.999197 0
-0.0378239 -0.0178886 0.999124 0
-0.0382899 -0.0211438 0.999043 0.000863043
-0.0412472 -0.0183395 0.998981 0.00745429
-0.0409717 -0.0517576 0.997819 0
-0.0401177 -0.0456214 0.998153 0
-0.0388552 -0.0434384 0.9983 0
-0.0400551 -0.0393899 0.998421 0.00281881
-0.0421 -0.037344 0.998415 0.00153269
-0.040578 -0.0385334 0.998433 0
-0.0364834 -0.041879 0.998456 0
-0.0303374 -0.0485996 0.998358 0
-0.0238671 -0.0472281 0.998599 0
-0.0179262 -0.0527189 0.998448 0
-0.0148407 -0.0538561 0.998438 0
-0.0133325 -0.060796 0.998061 0
-0.0163784 -0.0617936 0.997955 0
-0.0181798 -0.0606752 0.997992 0
-0.0196925 -0.047801 0.998663 0
-0.0205637 -0.0477823 0.998646 0
-0.021444 -0.0470075 0.998664 0
-0.029474 -0.03795 0.998845 0
-0.0239193 -0.029177 0.999288 0
-0.0268922 -0.0220482 0.999395 0
-0.0367594 -0.0139666 0.999227 0.00534882
-0.0376877 -0.0094863 0.999245 0.00403608
-0.0385524 -0.0105268 0.999201 0.0100086
-0.0454358 -0.054644 0.997472 0
-0.0450051 -0.053699 0.997542 0
-0.0412357 -0.0509947 0.997847 0
-0.0419349 -0.0487903 0.997928 0
-0.0418574 -0.0418647 0.998246 0
-0.0414672 -0.0331984 0.998588 0.00773986
-0.0405649 -0.0375342 0.998472 0.0020714
-0.0381541 -0.0329022 0.99873 0.00119368
-0.0324062 -0.0373769 0.998776 0
-0.0330482 -0.0462791 0.998382 0
-0.0215478 -0.0498736 0.998523 0
-0.0158391 -0.0577149 0.998208 0
-0.0166381 -0.0595276 0.998088 0
-0.0180194 -0.0613081 0.997956 0
-0.0172915 -0.0607544 0.998003 0
-0.023079 -0.051009 0.998431 0
-0.0215565 -0.0490207 0.998565 0
-0.0212251 -0.0403054 0.998962 0
-0.0221873 -0.0437979 0.998794 0
-0.0309126 -0.032721 0.998986 0
-0.0289432 -0.0288668 0.999164 0
-0.0322802 -0.0178158 0.99932 0
-0.0308956 -0.0162498 0.99939 0
-0.0388752 -0.00567068 0.999228 0.00859405
-0.0383177 -0.011702 0.999197 0.00446184
-0.0475412 -0.0479079 0.99772 0
-0.0492159 -0.0449257 0.997777 0
-0.045141 -0.0426418 0.99807 0
-0.0449431 -0.0420443 0.998104 0
-0.0439731 -0.0444816 0.998042 0
-0.0405462 -0.0469251 0.998075 0
-0.0366843 -0.0445257 0.998335 0
-0.0405677 -0.0429141 0.998255 0
-0.042015 -0.0359252 0.998471 0.00515373
-0.0415008 -0.0316367 0.998637 0.000805812
-0.0381716 -0.031066 0.998788 0
-0.0335529 -0.0395001 0.998656 0
-0.0283237 -0.0438225 0.998638 0
-0.0242427 -0.0519932 0.998353 0
-0.0159514 -0.0554585 0.998334 0
-0.0170714 -0.0590263 0.99811 0
-0.019453 -0.0559073 0.998246 0
-0.0209596 -0.0516401 0.998446 0
-0.0266529 -0.0475244 0.998514 0
-0.0270091 -0.0422497 0.998742 0
-0.0292232 -0.0391281 0.998807 0
-0.0275705 -0.0397653 0.998829 0
-0.0310272 -0.033385 0.998961 0
-0.0350045 -0.0277196 0.999003 0
-0.033247 -0.012965 0.999363 0
-0.0325394 -0.0120106 0.999398 0
-0.0380818 -0.00468923 0.999264 0.00204718
-0.0350299 -0.00750786 0.999358 0.00466956
-0.0446748 -0.0494937 0.997775 0
-0.0477565 -0.0466075 0.997771 0
-0.0523047 -0.0444992 0.997639 0
-0.0480072 -0.0405233 0.998025 0
-0.0440977 -0.0441834 0.99805 0
-0.0424774 -0.0438959 0.998133 0
-0.0435424 -0.0390544 0.998288 0
-0.04333 -0.0437182 0.998104 0
-0.0427894 -0.0434341 0.99814 0
-0.0393442 -0.0400512 0.998423 0
-0.0397944 -0.0364294 0.998544 0
-0.0375087 -0.0354907 0.998666 0
-0.0360123 -0.0364129 0.998688 0
-0.0365914 -0.0395191 0.998549 0
-0.0271406 -0.043562 0.998682 0
-0.0235096 -0.0417734 0.99885 0
-0.0250929 -0.0459751 0.998627 0
-0.0228352 -0.0453491 0.99871 0
-0.0217956 -0.0469255 0.998661 0
-0.0224677 -0.0480965 0.99859 0
-0.02913 -0.0368021 0.998898 0
-0.02908 -0.0352821 0.998954 0
-0.0305613 -0.0359814 0.998885 0
-0.0308213 -0.0307292 0.999052 0
-0.0344443 -0.020706 0.999192 0
-0.0405604 -0.0195604 0.998986 0
-0.0327279 -0.0151526 0.999349 0
-0.0330933 -0.00934343 0.999409 0
-0.0336984 -0.0132354 0.999344 0
-0.0462444 -0.0450757 0.997913 0
-0.0492074 -0.0421104 0.9979 0
-0.0488621 -0.042008 0.997922 0
-0.0449023 -0.0396585 0.998204 0
-0.0428562 -0.0429998 0.998155 0
-0.0476075 -0.0329979 0.998321 0
-0.0424754 -0.0410287 0.998255 0
-0.0457652 -0.0372066 0.998259 0
-0.0400006 -0.0311499 0.998714 0
-0.0386498 -0.0324269 0.998727 0
-0.0368753 -0.0354338 0.998691 0
-0.0360189 -0.0403393 0.998537 0
-0.0332017 -0.0414699 0.998588 0
-0.031626 -0.0423637 0.998602 0
-0.0264159 -0.0405421 0.998829 0
-0.02447 -0.0443379 0.998717 0
-0.030804 -0.0414372 0.998666 0
-0.0232858 -0.0434008 0.998786 0
-0.0254473 -0.0410674 0.998832 0
-0.0308395 -0.038423 0.998786 0
-0.0366221 -0.0228105 0.999069 0
-0.0333362 -0.0270243 0.999079 0
-0.0350409 -0.018036 0.999223 0
-0.0384024 -0.0136851 0.999169 0
-0.0313926 -0.0165914 0.999369 0
-0.0313301 -0.0150076 0.999397 0
-0.0469097 -0.0402194 0.998089 0
-0.0481137 -0.0384314 0.998102 0
-0.0453238 -0.0399462 0.998173 0
-0.0452365 -0.0403742 0.99816 0
-0.0445188 -0.0365152 0.998341 0
-0.0454111 -0.0372884 0.998272 0
-0.0453952 -0.0337524 0.998399 0
-0.0449249 -0.0358721 0.998346 0
-0.0444223 -0.0368443 0.998333 0
-0.0434713 -0.0315524 0.998556 0
-0.0417054 -0.029416 0.998697 0
-0.0397841 -0.0340365 0.998628 0
-0.034189 -0.042219 0.998523 0
-0.0317832 -0.0439265 0.998529 0
-0.030697 -0.0396181 0.998743 0
-0.0244641 -0.0422218 0.998809 0
-0.0282135 -0.039224 0.998832 0
-0.0291528 -0.0362845 0.998916 0
-0.028592 -0.038513 0.998849 0
-0.0349185 -0.0205516 0.999179 0
-0.0363531 -0.0188343 0.999162 0
-0.0297469 6.56368e-05 0.999557 0
-0.0322068 -0.00542812 0.999466 0
-0.0291297 -0.0103103 0.999523 0
-0.0448027 -0.035751 0.998356 0.00142621
-0.0435996 -0.0366612 0.998376 0.00309953
-0.0448179 -0.0322379 0.998475 0.000412218
-0.0444583 -0.0299331 0.998563 0.000257808
-0.0431743 -0.0321229 0.998551 0
-0.0439942 -0.0285303 0.998624 0
-0.0463361 -0.0268314 0.998565 0.00074912
-0.0448606 -0.0336728 0.998426 0.000948561
-0.046175 -0.024097 0.998643 9.18077e-05
-0.0444145 -0.0288646 0.998596 0
-0.0344285 -0.0410639 0.998563 0
-0.0320421 -0.0323204 0.998964 0
-0.0311118 -0.0345405 0.998919 0
-0.0338063 -0.0284788 0.999023 0
-0.0341468 -0.0298941 0.99897 0
-0.0316032 -0.0309301 0.999022 0
-0.0372565 -0.0306496 0.998836 0
-0.0370583 -0.0282479 0.998914 0
-0.0370074 -0.022031 0.999072 0
-0.0348431 -0.0167043 0.999253 0
-0.0313885 -0.00241754 0.999504 0
-0.0275919 -0.00965866 0.999573 0
-0.028914 -0.00189155 0.99958 0
-0.0468343 -0.0307535 0.998429 0.00474103
-0.0436316 -0.0280986 0.998652 0.00334795
-0.0433227 -0.0276658 0.998678 0
-0.0458613 -0.0269979 0.998583 0.00217987
-0.0458261 -0.0231341 0.998682 0.00473602
-0.0477244 -0.0230629 0.998594 0.00769449
-0.0471023 -0.0154308 0.998771 0.0122051
-0.0419413 -0.0298466 0.998674 0.00254183
-0.0352694 -0.037381 0.998679 0
-0.0387555 -0.0298819 0.998802 0
-0.0352974 -0.0259327 0.99904 0
-0.0335416 -0.0289299 0.999019 0
-0.0353165 -0.0210557 0.999154 0
-0.0403927 -0.0212332 0.998958 0
-0.0394763 -0.0251724 0.998903 0
-0.0388435 -0.0236582 0.998965 0.000685689
-0.0317496 -0.00605303 0.999478 0
-0.0271005 -0.0104762 0.999578 0
-0.0307748 -0.00105662 0.999526 0
-0.044122 -0.0252633 0.998707 0.00470097
-0.0421655 -0.0254054 0.998788 0
-0.0419284 -0.023973 0.998833 0
-0.0465796 -0.0183245 0.998747 0.00807281
-0.0462926 -0.0150375 0.998815 0.00841905
-0.0447679 -0.0158863 0.998871 0.0126977
-0.0419427 -0.0211469 0.998896 0.00825012
-0.0350721 -0.027908 0.998995 0
-0.0358239 -0.0244282 0.99906 0
-0.040241 -0.0191327 0.999007 0.00287602
-0.0419417 -0.00771042 0.99909 0.00732732
-0.043622 -0.018884 0.99887 0
-0.0441276 -0.0184392 0.998856 0.00920661
-0.0440122 -0.00851019 0.998995 0.0135458
-0.0301778 -0.00488885 0.999533 0
-0.027572 -0.00231715 0.999617 0
-0.0300866 -0.00314122 0.999542 0
-0.0329208 -0.00636836 0.999438 0
-0.0344694 0.00163136 0.999404 0
-0.0389043 0.0109193 0.999183 0.00668584
-0.044603 0.00515593 0.998991 0.00366979
-0.0543397 -0.0314509 0.998027 0.00233411
-0.057689 -0.0217566 0.998097 0.00848736
-0.0563698 -0.0252008 0.998092 0.0111697
-0.0447677 -0.0197178 0.998803 0.00410264
-0.0423645 -0.0194658 0.998913 0.0029443
-0.0405114 -0.0191452 0.998996 0
-0.0428529 -0.0191662 0.998897 0.00344323
-0.0421793 -0.0218959 0.99887 0.00317783
-0.042942 -0.0200207 0.998877 0.0129484
-0.0375968 -0.0265042 0.998941 0
-0.0393689 -0.0248095 0.998917 0.00499438
-0.0409974 -0.0144745 0.999054 0.00877177
-0.0466679 -0.00241096 0.998908 0.0157004
-0.0502417 -0.0104108 0.998683 0.0163169
-0.0505018 -0.00905825 0.998683 0.0227456
-0.0457464 0.000195464 0.998953 0.0195196
-0.0313811 -0.00218688 0.999505 0
-0.0312188 -0.00335364 0.999507 0
-0.0325769 -0.000180276 0.999469 0
-0.0346591 -0.00235177 0.999396 0
-0.0395232 0.00446952 0.999209 0.00385711
-0.0406276 0.0123435 0.999098 0.0100236
-0.0424678 -0.000464443 0.999098 0
-0.0603811 -0.0214231 0.997945 0.00908506
-0.0573382 -0.0250553 0.99804 0.00519966
-0.0560462 -0.0233133 0.998156 0.00818587
-0.0584356 -0.0256143 0.997963 0.0132803
-0.0457497 -0.0163232 0.99882 0.00439285
-0.0417361 -0.0195407 0.998938 0.00363736
-0.0433161 -0.0150402 0.998948 0.00770067
-0.0434387 -0.0160591 0.998927 0.0095923
-0.0426377 -0.0167505 0.99895 0.0116332
-0.0415751 -0.0182867 0.998968 0.00980452
-0.0431091 -0.0186995 0.998895 0.0153364
-0.0445126 -0.00920755 0.998966 0.0223535
-0.0525886 -0.00178446 0.998615 0.0292337
-0.0479894 -0.00115608 0.998847 0.0187202
-0.0461893 0.00258305 0.998929 0.0192461
-0.0310407 0.00190367 0.999516 0
-0.0334467 0.0114632 0.999375 0
-0.0394929 0.00433729 0.99921 0.00639623
-0.0439759 0.0175755 0.998878 0.0203792
-0.0439198 0.0148891 0.998924 0.0156398
-0.0391431 0.00477054 0.999222 0.00227527
-0.0404698 0.00448066 0.999171 0.000779491
-0.0420639 0.00688907 0.999091 0
0.166406 0.0440455 0.985073 0.0281012
-0.0592749 -0.0195747 0.99805 0.00581165
-0.0543336 -0.0279241 0.998132 0
-0.0567153 -0.0267632 0.998032 0.00716001
-0.0592195 -0.0230228 0.99798 0.0150078
-0.0527154 -0.0245109 0.998309 0.00131359
-0.0452806 -0.0108201 0.998916 0.00862816
-0.0479037 -0.00826872 0.998818 0.0161536
-0.0444122 -0.00946891 0.998968 0.0121196
-0.0432477 -0.0138981 0.998968 0.00884522
-0.0475842 -0.00726158 0.998841 0.0295005
-0.0496926 -0.000879444 0.998764 0.0293093
-0.055826 0.0072655 0.998414 0.0392059
-0.0472301 0.000515442 0.998884 0.0200784
-0.0448672 0.00152559 0.998992 0.0197022
-0.0301866 0.00460228 0.999534 0
-0.0324009 0.00651971 0.999454 0.00174698
-0.0344817 0.0106054 0.999349 0.00257813
-0.0411136 0.0111337 0.999092 0.0129009
-0.0429227 0.0200071 0.998878 0.0211787
-0.042773 0.0173288 0.998935 0.0159011
-0.0398819 0.00653504 0.999183 0
-0.0389031 0.00410037 0.999235 0
-0.0413307 0.00627786 0.999126 0
0.16897 0.0462297 0.984537 0.0329395
-0.0610112 -0.0173884 0.997986 0.0057689
-0.0570231 -0.0214547 0.998142 0.00414662
-0.0559873 -0.0245394 0.99813 0.0063738
-0.0594452 -0.0224626 0.997979 0.0144762
-0.0533557 -0.023054 0.998309 0.0078263
-0.0452642 -0.00688907 0.998951 0.0105634
-0.0500617 -0.0035637 0.99874 0.0232053
-0.0471161 -0.00562357 0.998874 0.019248
-0.0500122 -0.00133403 0.998748 0.0372677
-0.0528085 0.00811608 0.998572 0.0390302
-0.048369 0.00347379 0.998823 0.0281744
-0.0463723 0.00503666 0.998912 0.0230777
-0.0331492 0.00834691 0.999416 0.00666766
-0.0350539 0.00991758 0.999336 0.0103741
-0.0412959 0.0173694 0.998996 0.0149131
-0.0380381 0.0154098 0.999157 0.0043048
-0.0400278 0.00410934 0.99919 0
-0.0410304 0.000921178 0.999157 0
-0.0397248 0.0023193 0.999208 0
-0.0422025 0.00861668 0.999072 0
0.167554 0.0529919 0.984438 0.0343975
-0.0615431 -0.0137849 0.998009 0.00630767
-0.0555688 -0.0221026 0.99821 0
-0.058665 -0.0175142 0.998124 0.00763341
-0.0597405 -0.0160202 0.998085 0.011856
-0.0605737 -0.0108978 0.998104 0.0216238
-0.0440807 -0.0183549 0.998859 0
-0.0491576 0.00165599 0.99879 0.0221009
-0.0461397 -0.00125427 0.998934 0.0198996
-0.0456706 -0.00672444 0.998934 0.014737
-0.0584367 0.0134839 0.9982 0.0455999
-0.051001 0.00775272 0.998668 0.0315861
-0.0462567 0.00801662 0.998897 0.0255507
-0.0435348 0.00877727 0.999013 0.0245212
-0.0353092 0.0123651 0.9993 0.013123
-0.0347636 0.0163548 0.999262 0.00938775
-0.038137 0.0175725 0.999118 0.0126832
-0.0387145 0.0160689 0.999121 0.00378921
-0.0394594 0.00392791 0.999213 0
-0.0435687 0.0113739 0.998986 0
0.166703 0.0590764 0.984236 0.0292827
-0.0569415 -0.0169476 0.998234 0
-0.0560029 -0.0136801 0.998337 0
-0.0575458 -0.0187325 0.998167 0.00306791
-0.060212 -0.0166805 0.998046 0.00868394
-0.0596538 -0.00817569 0.998186 0.0160067
-0.0443314 -0.0157985 0.998892 0
-0.0503623 0.00907245 0.99869 0.0278187
-0.0483127 0.00636704 0.998812 0.0205809
-0.0436184 -0.00575053 0.999032 0.012358
-0.041244 -0.00729292 0.999123 0.012341
-0.0632741 0.0185408 0.997824 0.0521329
-0.0603195 0.0199528 0.99798 0.0505614
-0.0468508 0.0157877 0.998777 0.0285088
-0.0410601 0.0115386 0.99909 0.0203865
-0.0336941 0.0196718 0.999239 0.0178091
-0.0364344 0.00762674 0.999307 0
-0.042693 0.0105925 0.999032 0
0.163512 0.0728184 0.98385 0.0392561
-0.05764 -0.018563 0.998165 0
-0.0568047 -0.0159986 0.998257 0
-0.0606783 -0.0126682 0.998077 0.00891064
-0.0644802 -0.00871927 0.997881 0.0170071
-0.0583731 -0.0040396 0.998287 0.0153722
-0.0398315 -0.0176685 0.99905 0
-0.0460191 0.00270104 0.998937 0.0268825
-0.0457884 0.00218367 0.998949 0.0226433
-0.0428063 -0.000674279 0.999083 0.0151426
-0.0636289 0.0332742 0.997419 0.0572297
-0.0483301 0.0187618 0.998655 0.0287871
-0.039567 0.0134002 0.999127 0.0111419
-0.0324075 0.0162739 0.999342 0.0179944
-0.0388376 0.0246648 0.998941 0.0223037
-0.0370919 0.0203866 0.999104 0.0141642
-0.0339981 0.0068992 0.999398 0.000248663
-0.0344979 0.00600468 0.999387 0
-0.0325624 -0.00440219 0.99946 0
-0.0433967 0.0168456 0.998916 0.0036849
-0.0575616 -0.0138631 0.998246 0
-0.056185 -0.0192128 0.998235 0
-0.0576687 -0.0119989 0.998264 0.000168394
-0.0661763 -0.00445505 0.997798 0.0171455
-0.0402899 -0.0164376 0.999053 0
-0.0421317 0.00359172 0.999106 0.00848604
-0.0453316 0.00767757 0.998942 0.0207867
-0.0431787 -0.00029244 0.999067 0.0209805
-0.0418944 0.00226059 0.999119 0.0162788
-0.0565881 0.0289889 0.997977 0.0442497
-0.0480805 0.0169 0.9987 0.0198447
-0.0426595 0.0138391 0.998994 0.0157198
-0.03588 0.021649 0.999122 0.0225725
-0.0340558 0.011395 0.999355 0.00504442
-0.0332399 0.00212905 0.999445 0
-0.0305482 0.00463133 0.999523 0
-0.0303085 -0.00796746 0.999509 0
-0.0559063 -0.017017 0.998291 0
-0.0560784 -0.0143939 0.998323 0
-0.0562549 -0.00945716 0.998372 0.00223603
-0.0424897 0.00418086 0.999088 0.00897488
-0.0444093 0.00582779 0.998996 0.0188932
-0.0467381 0.00637217 0.998887 0.0192883
-0.0421331 0.00337629 0.999106 0.0155848
-0.0432082 0.000749075 0.999066 0.0147881
-0.0396354 0.0111012 0.999153 0.00681031
-0.0321432 0.00775904 0.999453 0.00502216
-0.0329755 0.00702995 0.999431 0
-0.0317355 0.0080067 0.999464 0
-0.0319277 0.000628077 0.99949 0
-0.0317339 -0.00199162 0.999494 0
-0.0522485 -0.0186429 0.99846 0
-0.0558038 -0.0156719 0.998319 0
-0.04406 0.0043054 0.99902 0.0109326
-0.0427266 0.00203167 0.999085 0.00955499
-0.0444729 0.0043058 0.999001 0.0105744
-0.0412262 0.00276065 0.999146 0.0116174
-0.0413503 0.00473588 0.999133 0.00634622
-0.0411108 0.00320238 0.999149 0.0138297
-0.0364145 0.00979708 0.999289 0.00286144
-0.0288828 0.00317205 0.999578 0
-0.0315485 0.00579464 0.999485 0
-0.0338747 0.00402108 0.999418 0
-0.0327352 0.000115446 0.999464 0
-0.0529011 -0.0182003 0.998434 0
-0.0555179 -0.0118194 0.998388 0
-0.042389 0.00146903 0.9991 0.0130142
-0.0404987 0.00415467 0.999171 0.00542032
-0.0398522 0.00513067 0.999192 0.00614194
-0.0379928 0.00351012 0.999272 0.00391381
-0.0413102 0.00893139 0.999107 0.0123415
-0.0301103 0.000874638 0.999546 0
-0.031556 0.00227729 0.999499 0
-0.0346982 0.0034786 0.999392 0
-0.0586519 -0.00318582 0.998273 0.00683382
-0.0594896 -0.00357662 0.998223 0.0080903
-0.0342006 0.00782457 0.999384 0
0.15534 0.126012 0.979791 0.0435724
-0.058678 -0.00260278 0.998274 0.00505054
-0.0626227 6.79855e-05 0.998037 0.00802345
-0.0341829 0.0110721 0.999354 0
0.15303 0.131601 0.97942 0.0351306
-0.0548864 -0.0126207 0.998413 0
-0.0591104 0.00505838 0.998239 0.0096701
-0.0610164 0.0061323 0.998118 0.00644678
-0.0328799 0.0160938 0.99933 0.000359998
0.153541 0.136237 0.978706 0.0391801
-0.0583995 0.00778851 0.998263 0.00310044
-0.0574403 0.00533763 0.998335 0.00204213
-0.0332261 0.025027 0.999134 0.00409495
-0.0429672 0.0421276 0.998188 0.00695113
-0.0416865 0.0460667 0.998068 0.00473095
0.148001 0.148721 0.977741 0.0358423
0.154248 0.137201 0.97846 0.0340064
-0.0558854 0.00661865 0.998415 0
-0.0592479 0.013105 0.998157 0.00146352
-0.0599091 0.015347 0.998086 0.00279075
-0.0306544 0.0317048 0.999027 0.00754765
-0.0337911 0.0407164 0.998599 0.0145638
-0.0331497 0.036462 0.998785 0.00669097
-0.0326635 0.0310267 0.998985 0.00515318
-0.0391555 0.0509577 0.997933 0.0107732
-0.0431143 0.0515602 0.997739 0.0105116
-0.0423266 0.0505372 0.997825 0.00790294
-0.0411764 0.0505479 0.997872 0.00685562
-0.0400032 0.0421179 0.998311 0.00407973
-0.0426118 0.0449622 0.998079 0.00687279
-0.0433116 0.0517639 0.99772 0.00595477
-0.0546734 0.119881 0.991282 0.0266884
0.147614 0.148213 0.977877 0.0302551
-0.0552331 0.00950857 0.998428 0
-0.0577819 0.0137626 0.998234 0.000879036
-0.0590137 0.0203247 0.99805 0.00177456
-0.060183 0.0287761 0.997772 0.00859665
-0.032223 0.0322361 0.998961 0.00873929
-0.0325239 0.0392037 0.998702 0.00904563
-0.0327324 0.0417341 0.998592 0.00537692
-0.03207 0.037923 0.998766 0.00461868
-0.0330902 0.0423604 0.998554 0.00642225
-0.0338992 0.0378977 0.998706 0.00506417
-0.0353219 0.034168 0.998792 0.00869149
-0.0371222 0.0445618 0.998317 0.0124347
-0.0310551 0.0480661 0.998361 0.00390401
-0.0400884 0.0520536 0.997839 0.0116654
-0.0423731 0.0506076 0.997819 0.00934474
-0.0425612 0.0509126 0.997796 0.010186
-0.0396705 0.0544185 0.99773 0.00381237
-0.0401424 0.0539576 0.997736 0.00772461
-0.0419543 0.0448607 0.998112 0.00391648
-0.0414659 0.0506635 0.997855 0.00327439
-0.043619 0.0547434 0.997547 0.0110299
-0.0500791 0.119072 0.991622 0.0267151
-0.0537276 0.120149 0.991301 0.0287701
-0.0527599 0.118149 0.991593 0.0213865
-0.0521428 0.123064 0.991028 0.0236886
-0.0487199 0.114457 0.992233 0.019464
0.14577 0.154324 0.977208 0.0285689
0.150438 0.15267 0.97676 0.0321179
-0.0552121 0.0144161 0.998371 0
-0.059752 0.0244962 0.997913 0.00687223
-0.0556579 0.0222845 0.998201 0.00499325
-0.0284064 0.0334317 0.999037 0.0139866
-0.0314651 0.0376578 0.998795 0.0137985
-0.0328089 0.0499921 0.998211 0.0122772
-0.0322597 0.0369505 0.998796 0
-0.033852 0.0398858 0.998631 0.00796092
-0.0324002 0.0443942 0.998489 0.00442521
-0.0333212 0.0442123 0.998466 0.00674452
-0.0327168 0.0367789 0.998788 0.00382628
-0.0347171 0.0380726 0.998672 0.00571398
-0.0296979 0.044318 0.998576 0.00253249
-0.0327479 0.045306 0.998436 0
-0.0333372 0.0453783 0.998413 0
-0.031697 0.0496083 0.998266 0.00302936
-0.0312127 0.0503783 0.998242 0.00867777
-0.033563 0.0536218 0.997997 0.0120626
-0.0399314 0.0535261 0.997768 0.0115122
-0.0417186 0.0521864 0.997766 0.0100529
-0.041365 0.0498565 0.997899 0.00808956
-0.0396377 0.0617029 0.997307 0.00331911
-0.0411631 0.0588117 0.99742 0.00587144
-0.0424526 0.0574909 0.997443 0.0116043
-0.0462448 0.0854784 0.995266 0.00960752
-0.0472783 0.0925303 0.994587 0.0180563
-0.0480891 0.093652 0.994443 0.0237281
-0.0470582 0.104886 0.99337 0.0248983
-0.0529666 0.129438 0.990172 0.0372496
-0.050046 0.1284 0.990459 0.0339815
-0.0484469 0.124071 0.99109 0.028494
-0.0501509 0.121923 0.991272 0.026438
-0.0523336 0.128794 0.99029 0.0272252
-0.0514859 0.132766 0.989809 0.0284353
-0.0502499 0.123072 0.991125 0.0239201
-0.0492549 0.121692 0.991345 0.0215962
-0.0499669 0.115358 0.992067 0.0197331
-0.00196768 0.145626 0.989338 0.0189898
0.00549037 0.152641 0.988266 0.0169104
0.00498716 0.150505 0.988597 0.015913
0.135531 0.157597 0.978159 0.0273303
0.142535 0.154186 0.977707 0.03188
0.142115 0.155111 0.977621 0.0303761
-0.0588018 0.0226517 0.998013 0.00406487
-0.0562646 0.0244958 0.998115 0.0048937
-0.0559585 0.0270261 0.998067 0.00589331
-0.0350522 0.0375705 0.998679 0.0207216
-0.0253739 0.028934 0.999259 0.00927602
-0.0329386 0.0484705 0.998281 0.00442422
-0.0326139 0.0529642 0.998064 0.00971865
-0.0307391 0.0481442 0.998367 0.0101749
-0.0324712 0.0452922 0.998446 0.00464013
-0.0297553 0.0414307 0.998698 0
-0.0314205 0.0398236 0.998713 0
-0.0329651 0.0425336 0.998551 0
-0.0318097 0.0557488 0.997938 0.00974853
-0.0420437 0.063156 0.997118 0.010054
-0.0424242 0.0623716 0.997151 0.0149775
-0.0473513 0.0892945 0.994879 0.0117848
-0.0478064 0.0929225 0.994525 0.0164495
-0.0466575 0.0932276 0.994551 0.0207719
-0.0484108 0.102439 0.993561 0.0238654
-0.0507987 0.112358 0.992368 0.0296406
-0.0517789 0.124531 0.990864 0.0318389
-0.0490751 0.131584 0.990089 0.0300076
-0.0486395 0.124891 0.990978 0.0271775
-0.049746 0.1239 0.991047 0.0248178
-0.0494013 0.130688 0.990192 0.025498
-0.0453501 0.137276 0.989494 0.0222698
-0.0422662 0.139647 0.989299 0.0218318
-0.0268138 0.124562 0.991849 0.00376533
-0.0214709 0.126883 0.991685 0.00302369
-0.00778263 0.155846 0.987751 0.0198229
-0.00142645 0.14476 0.989466 0.0159157
0.000954477 0.157075 0.987586 0.0184823
0.00533937 0.156378 0.987683 0.0137381
0.010308 0.159838 0.987089 0.0170906
0.0148841 0.151944 0.988277 0.0138108
0.0702272 0.123638 0.989839 0
0.123197 0.185975 0.9748 0.0567593
0.135378 0.167305 0.976566 0.0349591
-0.0571475 0.0311319 0.99788 0.00559061
-0.0575385 0.0342282 0.997756 0.00610685
-0.0551528 0.0343561 0.997887 0.00358388
-0.0479771 0.0441436 0.997873 0.0324087
-0.0465118 0.0473438 0.997795 0.0336299
-0.0454561 0.0455328 0.997928 0.0281564
-0.0446416 0.0442719 0.998022 0.0289487
-0.0464925 0.0508545 0.997623 0.0331337
-0.0423953 0.0510724 0.997795 0.0333618
-0.0340287 0.0486437 0.998236 0.0200273
-0.0320267 0.0410231 0.998645 0.0157344
-0.033593 0.0395547 0.998653 0.0167754
-0.0229255 0.02019 0.999533 0.0068887
-0.0229536 0.0280687 0.999342 0.00490345
-0.0497307 0.0976543 0.993977 0.0210851
-0.0494783 0.108838 0.992827 0.0249473
-0.0515726 0.129181 0.990279 0.0323076
-0.0463244 0.141289 0.988884 0.0251828
-0.0419743 0.140874 0.989137 0.0183885
-0.0366979 0.134138 0.990283 0.0137606
-0.0327595 0.123933 0.99175 0.00895006
-0.0261629 0.131733 0.99094 0.00497686
-0.0235035 0.128775 0.991395 0.00620827
-0.0214765 0.131478 0.991086 0.00664839
-0.0178732 0.155791 0.987628 0.0183447
-0.00940571 0.162871 0.986603 0.020088
0.00698598 0.163388 0.986537 0.0155787
0.0106425 0.165315 0.986183 0.0195841
0.0134575 0.1689 0.985541 0.01757
0.0151252 0.177989 0.983916 0.0213461
0.0166212 0.186447 0.982324 0.0227803
0.0183442 0.188303 0.98194 0.0229874
0.0612714 0.127601 0.989931 0
0.0663212 0.130893 0.989176 0
0.0707758 0.132275 0.988683 0
0.071034 0.127657 0.989271 0
0.0816594 0.145304 0.986011 0.00904986
0.0867651 0.156638 0.983838 0.0158811
0.103993 0.179118 0.978316 0.0384624
0.122079 0.183514 0.975407 0.0479384
-0.0530811 0.0373033 0.997893 0.00474589
-0.0555604 0.0520562 0.997097 0.0118446
-0.0480351 0.0520643 0.997488 0.0318611
-0.0478849 0.0538263 0.997402 0.0310096
-0.0470446 0.0524515 0.997515 0.0296128
-0.0448737 0.052212 0.997627 0.0302741
-0.0463981 0.0525991 0.997537 0.0323346
-0.043754 0.059348 0.997278 0.0361236
-0.0422775 0.0635005 0.997086 0.0376359
-0.0275493 0.0572588 0.997979 0.0179122
-0.0313409 0.0490381 0.998305 0.0186006
-0.0329544 0.0489293 0.998258 0.0210707
-0.0312832 0.0453537 0.998481 0.0187064
-0.0340885 0.0463264 0.998345 0.0212332
-0.0327107 0.053149 0.998051 0.0242747
-0.0181758 0.0240152 0.999546 0.00847585
-0.0244884 0.020868 0.999482 0.0101823
-0.023801 0.0256127 0.999389 0.00798353
-0.0437595 0.142551 0.98882 0.0246583
-0.0240975 0.129322 0.99131 0.0068637
0.016616 0.19881 0.979897 0.0249871
0.0189331 0.199705 0.979673 0.0234288
0.0241542 0.189529 0.981578 0.0231262
0.0262571 0.17278 0.98461 0.0105042
0.0313235 0.171864 0.984623 0.00838165
0.0372759 0.172835 0.984245 0.00865091
0.0435583 0.161239 0.985954 0.00688204
0.0527867 0.149142 0.987406 0
0.0563517 0.13754 0.988892 0
0.0841753 0.153389 0.984574 0.0100888
0.0874019 0.158099 0.983547 0.0116328
0.0935389 0.174201 0.980257 0.017276
0.0963012 0.177908 0.979324 0.0222468
0.107202 0.192614 0.975401 0.0425214
-0.0545966 0.0503936 0.997236 0.00909186
-0.0589395 0.0672139 0.995996 0.0143533
-0.0478675 0.0578108 0.997179 0.0303555
-0.0491409 0.0572885 0.997148 0.0320357
-0.0460728 0.0590013 0.997194 0.0338777
-0.0436673 0.0626798 0.997078 0.0342427
-0.0426328 0.069105 0.996698 0.0368166
-0.0424895 0.0688265 0.996723 0.0359334
-0.0264925 0.0586659 0.997926 0.0189452
-0.0299021 0.0551632 0.99803 0.0213559
-0.0295343 0.0563406 0.997975 0.0203363
-0.0285562 0.0534426 0.998163 0.0185634
-0.0302755 0.0554738 0.998001 0.022344
-0.0316016 0.0541715 0.998031 0.0207556
-0.0284053 0.0473845 0.998473 0.0186521
-0.0260282 0.0464843 0.99858 0.0185242
-0.02435 0.0477482 0.998563 0.0267608
-0.0209713 0.036457 0.999115 0.0239708
-0.0205208 0.0353087 0.999166 0.0197561
-0.021927 0.0389973 0.998999 0.0162828
-0.020981 0.0360598 0.999129 0.00927286
-0.0186964 0.0247592 0.999519 0.00431616
-0.0198745 0.0266764 0.999447 0.00808667
0.0260682 0.184862 0.982419 0.0172035
0.0287023 0.178017 0.983609 0.0125498
0.0334698 0.178875 0.983302 0.00975674
0.0360605 0.178929 0.983201 0.00552103
0.0936834 0.174895 0.98012 0.02101
-0.0514667 0.0611294 0.996802 0.0233659
-0.050616 0.0652331 0.996585 0.0315329
-0.052707 0.0696683 0.996177 0.0352228
-0.0496997 0.0645626 0.996675 0.0340808
-0.0424181 0.0782556 0.996031 0.0373133
-0.0422437 0.0712164 0.996566 0.0331003
-0.0432639 0.0737002 0.996342 0.0393745
-0.0428917 0.0755353 0.99622 0.0389475
-0.0299751 0.0618744 0.997634 0.0267965
-0.0293117 0.0551085 0.99805 0.02241
-0.0271378 0.0542196 0.99816 0.0179779
-0.0246398 0.0532667 0.998276 0.0238171
-0.0223739 0.0505058 0.998473 0.0245349
-0.0198393 0.0477528 0.998662 0.0223359
-0.0200524 0.0404737 0.998979 0.0173087
-0.0207201 0.0498303 0.998543 0.0188747
-0.0214229 0.0465216 0.998688 0.0146193
-0.0430615 0.0770765 0.996095 0.0360612
-0.0435316 0.0806159 0.995794 0.0387755
-0.0433685 0.0805811 0.995804 0.0375013
-0.0462415 0.0896019 0.994904 0.0424408
-0.0449589 0.0856326 0.995312 0.043019
-0.0393477 0.0819134 0.995862 0.0346253
-0.0344643 0.0596625 0.997624 0.0160209
-0.032315 0.0572733 0.997835 0.0152427
-0.0298059 0.063025 0.997567 0.0180285
-0.0248812 0.0496271 0.998458 0.0193263
-0.0438464 0.0794088 0.995877 0.0384351
-0.046821 0.0939294 0.994477 0.0434802
-0.0421459 0.084075 0.995568 0.036608
-0.0407768 0.0871947 0.995356 0.0346123
-0.0420186 0.0819823 0.995748 0.0321576
-0.0396196 0.067831 0.99691 0.0311682
-0.0364257 0.0644076 0.997259 0.0255799
-0.0336461 0.0648743 0.997326 0.0176969
-0.0362842 0.0674639 0.997062 0.017722
-0.0356815 0.0562376 0.99778 0.0166052
-0.0434597 0.0885561 0.995123 0.0395955
-0.0402885 0.086655 0.995423 0.0327602
-0.044001 0.0829811 0.995579 0.0313632
-0.0416797 0.0712918 0.996584 0.031534
0.0259326 -0.109479 0.993651 0.0154436
0.0168806 -0.108496 0.993954 0.0154994
0.0151928 -0.105073 0.994348 0.0183436
0.0257703 -0.110729 0.993517 0.0180216
0.0375843 -0.121319 0.991902 0.00649477
-0.00191812 -0.0900625 0.995934 0.00807268
0.0187015 -0.10959 0.993801 0.0119994
0.01492 -0.103717 0.994495 0.0207153
0.024011 -0.107535 0.993911 0.025836
0.028153 -0.110023 0.99353 0.0235339
0.0362458 -0.117222 0.992444 0.0109806
-0.00550681 -0.0842773 0.996427 0.0110729
-0.00242784 -0.087649 0.996148 0.00322956
0.0181525 -0.106568 0.99414 0.00475859
0.018873 -0.107664 0.994008 0.000140642
0.0171408 -0.106745 0.994139 0.0170224
0.0187579 -0.105317 0.994262 0.0171457
0.0138969 -0.103453 0.994537 0.0266302
0.0216872 -0.104823 0.994254 0.0314486
0.0338228 -0.116896 0.992568 0.016055
-0.0236406 -0.0706014 0.997224 0.0216444
-0.00988312 -0.0864671 0.996206 0.0135714
-0.00584129 -0.0873955 0.996157 0
-0.00404418 -0.0915991 0.995788 0
-0.00230026 -0.0985256 0.995132 0
0.0173852 -0.108871 0.993904 0.000680047
0.0194112 -0.110642 0.993671 0
0.0206119 -0.111612 0.993538 0.000554856
0.0207277 -0.110749 0.993632 0.00148441
0.011577 -0.0987017 0.99505 0.0254826
0.00830865 -0.0963411 0.995314 0.0295808
0.00910666 -0.0965568 0.995286 0.0307921
0.0133786 -0.0960612 0.995286 0.0363264
0.0329969 -0.114514 0.992873 0.0119367
-0.023032 -0.0736638 0.997017 0.0213832
-0.0102109 -0.0858815 0.996253 0.0132879
-0.00546263 -0.0939329 0.995564 2.84705e-05
-0.00422811 -0.0949788 0.99547 0
-0.00938923 -0.0938757 0.99554 0.00655486
0.00229849 -0.101709 0.994812 0.00828309
0.00469435 -0.105359 0.994423 0.00596045
0.00529618 -0.101645 0.994807 0.0118031
0.00599229 -0.102008 0.994766 0.0133775
0.0126875 -0.108737 0.99399 0.0139043
0.0146894 -0.108236 0.994017 0.00889821
0.012992 -0.103842 0.994509 0.00580154
0.017558 -0.107466 0.994054 0.00978144
0.0156469 -0.105188 0.994329 0.0161879
0.00862718 -0.0953966 0.995402 0.0269293
0.00934815 -0.0941411 0.995515 0.0277849
0.00936399 -0.0925855 0.995661 0.0371753
0.0121866 -0.0933912 0.995555 0.031679
0.0174492 -0.099924 0.994842 0.0258776
0.0241288 -0.107594 0.993902 0.0204469
0.0331091 -0.115389 0.992768 0.0155165
-0.0137135 -0.0868823 0.996124 0.00914941
-0.0124067 -0.0912487 0.995751 0.00470973
-0.00759204 -0.0968395 0.995271 0.0022108
-0.0105223 -0.0931189 0.995599 0.0123999
-0.00269094 -0.0979637 0.995186 0.0138845
0.00180375 -0.0992641 0.995059 0.0147423
0.00105743 -0.0996496 0.995022 0.0208237
0.00467695 -0.102913 0.994679 0.0233642
0.00853729 -0.104268 0.994513 0.0184273
0.0123844 -0.106219 0.994266 0.0100527
0.0124999 -0.101512 0.994756 0.00797865
0.0131768 -0.10042 0.994858 0.012651
0.010054 -0.0996982 0.994967 0.0194023
0.0054143 -0.091945 0.995749 0.0322432
0.00305524 -0.0864041 0.996256 0.0352295
0.00542741 -0.0880002 0.996106 0.0359979
0.0119622 -0.0958344 0.995325 0.0241622
0.0173019 -0.0977158 0.995064 0.019346
0.0262224 -0.108486 0.993752 0.015785
0.0368712 -0.114234 0.992769 0.01149
0.0519299 -0.123651 0.990966 0.0101991
-0.0262563 -0.0763374 0.996736 0.0180199
-0.0159388 -0.0839368 0.996344 0.00314348
-0.0156259 -0.089207 0.99589 0.00915323
-0.0144765 -0.0893066 0.995899 0.0127919
-0.015692 -0.0899775 0.99582 0.015184
-0.00569061 -0.0930204 0.995648 0.0138119
-0.00251037 -0.0956686 0.99541 0.0197172
-0.000537614 -0.097077 0.995277 0.0259676
0.00187902 -0.0982152 0.995163 0.0301011
0.00692591 -0.101089 0.994853 0.0237165
0.00715967 -0.0996579 0.994996 0.0199068
0.00809039 -0.0969392 0.995257 0.0156311
0.0047165 -0.0959528 0.995375 0.0232032
0.00494614 -0.0959311 0.995376 0.0274352
0.00249281 -0.0893472 0.995997 0.0347838
0.00616158 -0.0921005 0.995731 0.0302742
0.0125733 -0.0961245 0.99529 0.024095
0.0195216 -0.102199 0.994572 0.0123487
0.0283136 -0.107077 0.993847 0.0178509
0.0377062 -0.109239 0.9933 0.0101078
-0.0289998 -0.0724722 0.996949 0.00917084
-0.019309 -0.0836007 0.996312 0.00876458
-0.0169474 -0.0870174 0.996063 0.0050656
-0.016103 -0.0885729 0.995939 0.00798023
-0.0166982 -0.08633 0.996127 0.017361
-0.0152349 -0.0899669 0.995828 0.0142629
-0.0153227 -0.0831142 0.996422 0.0321386
-0.0105961 -0.0892558 0.995952 0.0338032
-0.00850442 -0.0914376 0.995775 0.0352314
-0.00379449 -0.0912402 0.995822 0.0371347
-0.00012735 -0.0933618 0.995632 0.0318412
0.00325432 -0.0950312 0.995469 0.0276935
0.00344191 -0.0902821 0.99591 0.0308366
4.6837e-05 -0.0880953 0.996112 0.031466
0.000431237 -0.0875821 0.996157 0.0347285
0.00456271 -0.0914543 0.995799 0.0294962
0.0106104 -0.0965405 0.995272 0.0254442
0.0125673 -0.0976219 0.995144 0.024747
0.0203482 -0.102352 0.99454 0.0144251
0.025541 -0.10305 0.994348 0.020399
0.0377003 -0.110906 0.993116 0.00827869
-0.0267293 -0.0768349 0.996686 0.00426746
-0.0166719 -0.0853434 0.996212 0.000650159
-0.0144641 -0.0883242 0.995987 0.00299256
-0.0152163 -0.0930605 0.995544 0.00909989
-0.015122 -0.0943888 0.995421 0.0127692
-0.0156463 -0.092357 0.995603 0.0189684
-0.0192496 -0.0839175 0.996287 0.0397531
-0.0187737 -0.0767277 0.996875 0.0396541
-0.0155551 -0.0813918 0.996561 0.0442043
-0.00691586 -0.0903376 0.995887 0.0409521
-0.00756455 -0.083603 0.99647 0.0406148
-0.000177221 -0.090038 0.995938 0.0338523
0.000398188 -0.0900126 0.995941 0.0323669
-0.00106664 -0.0900746 0.995934 0.0352854
0.00141062 -0.0891491 0.996017 0.035898
0.00743099 -0.0920205 0.995729 0.0280155
0.011221 -0.0938134 0.995526 0.0261202
0.0143002 -0.0991021 0.994974 0.0242572
0.020253 -0.105375 0.994226 0.0178579
0.0303818 -0.105656 0.993939 0.00960653
0.0399147 -0.110844 0.993036 0.00617876
0.0415166 -0.113245 0.992699 0
-0.0254017 -0.0767294 0.996728 0.00643052
-0.0169989 -0.0882249 0.995956 0.00344288
-0.0139416 -0.0917479 0.995685 0.00536198
-0.0188985 -0.0910755 0.995665 0.0117723
-0.018943 -0.0910655 0.995665 0.0174195
-0.0205359 -0.0887855 0.995839 0.0251723
-0.0229148 -0.081038 0.996448 0.0388314
-0.0235288 -0.0736096 0.99701 0.0430124
-0.0203498 -0.0756894 0.996924 0.0472049
-0.016888 -0.0761351 0.996954 0.0504237
-0.0145264 -0.0769913 0.996926 0.050047
-0.0090832 -0.0828352 0.996522 0.0438468
-0.00430884 -0.0830383 0.996537 0.0386092
-0.00196976 -0.0876384 0.99615 0.0338396
0.00427412 -0.0905803 0.99588 0.0276019
0.0092682 -0.0899418 0.995904 0.0227799
0.0107233 -0.0949835 0.995421 0.0202354
0.0168302 -0.0990508 0.99494 0.0163043
0.0238444 -0.103823 0.99431 0.00800864
0.0339327 -0.106829 0.993698 0.00280075
0.041087 -0.11532 0.992478 0
0.0395452 -0.113767 0.99272 0
-0.016397 -0.0890803 0.995889 0.00724839
-0.0161935 -0.0919655 0.995631 0.006866
-0.0204026 -0.0862148 0.996068 0.0149777
-0.0290255 -0.0808434 0.996304 0.0323848
-0.0310542 -0.0727569 0.996866 0.0489374
-0.027434 -0.0663271 0.997421 0.0454768
-0.0222267 -0.0709478 0.997232 0.0472301
-0.0225653 -0.0695569 0.997323 0.046322
-0.0175106 -0.0721949 0.997237 0.0500211
-0.0158277 -0.0751931 0.997043 0.0490906
-0.00848084 -0.0781444 0.996906 0.0354211
0.00102464 -0.0823728 0.996601 0.0279722
0.00414741 -0.0852615 0.99635 0.0265433
0.0134727 -0.0938904 0.995491 0.00544428
0.0138514 -0.0952548 0.995357 0.0058033
0.01815 -0.0985961 0.994962 0.00627111
0.0243221 -0.100986 0.99459 0.00361048
0.0334117 -0.106412 0.993761 0
0.0373947 -0.11095 0.993122 0
0.0372674 -0.1161 0.992538 0
0.0355595 -0.113925 0.992853 0.00853632
-0.0223066 -0.0813144 0.996439 0.00727929
-0.0187497 -0.0872508 0.99601 0.00964519
-0.0205725 -0.0847334 0.996191 0.010146
-0.0270618 -0.080265 0.996406 0.0221695
-0.0279629 -0.0811394 0.99631 0.0247621
-0.0305473 -0.0774706 0.996527 0.0302764
-0.02964 -0.0642083 0.997496 0.0423573
-0.0278814 -0.065748 0.997447 0.0507947
-0.0258771 -0.0661232 0.997476 0.0527808
-0.0162629 -0.07636 0.996948 0.0434001
-0.00371562 -0.0832191 0.996524 0.0267675
0.0047642 -0.0869641 0.9962 0.0190393
0.00731715 -0.087731 0.996117 0.011368
0.0166564 -0.097588 0.995088 0
0.0184808 -0.0998269 0.994833 0
0.0240032 -0.102813 0.994411 0
0.0296493 -0.105834 0.993942 0
0.033586 -0.108115 0.993571 0
0.0314702 -0.109853 0.993449 0
0.0322498 -0.110149 0.993392 0
-0.0207455 -0.0838679 0.996261 0
-0.0219859 -0.083124 0.996297 0.00986626
-0.0240346 -0.0803101 0.99648 0.0108065
-0.0288402 -0.077517 0.996574 0.0209051
-0.0335793 -0.0747194 0.996639 0.0323164
-0.0335931 -0.0703653 0.996956 0.0385532
-0.0322449 -0.0608954 0.997623 0.0438253
-0.0267657 -0.0662204 0.997446 0.0468016
0.00584055 -0.090796 0.995852 0.00577372
0.00482067 -0.0904429 0.99589 0.00394531
0.0212929 -0.104845 0.994261 0
0.0280841 -0.111061 0.993417 0
0.0279388 -0.108946 0.993655 0
0.0288368 -0.106982 0.993843 0
0.0282871 -0.105423 0.994025 0
0.0259152 -0.105142 0.99412 0.00260548
0.0297134 -0.109146 0.993582 0.01485
0.023995 -0.107439 0.993922 0.0315384
-0.0225445 -0.0844544 0.996172 0
-0.0218443 -0.0801132 0.996546 0.00109486
-0.0254193 -0.0791055 0.996542 0.010008
-0.0307063 -0.0748478 0.996722 0.0230401
-0.0358021 -0.0699775 0.996906 0.0342741
-0.0350007 -0.0653025 0.997251 0.0391651
-0.0314461 -0.0642543 0.997438 0.0463587
-0.0289548 -0.0677301 0.997283 0.0478855
-0.0260333 -0.0680443 0.997343 0.0444577
-0.0183876 -0.072107 0.997227 0.0366605
0.00867099 -0.0941892 0.995517 0
0.0119591 -0.096659 0.995246 0
0.0233752 -0.107289 0.993953 0
0.028492 -0.110971 0.993415 0
0.0317136 -0.110497 0.99337 0
0.0326807 -0.113981 0.992945 0
0.0227034 -0.101998 0.994526 0.00059072
0.0247313 -0.107295 0.99392 0.0101983
0.0264143 -0.10864 0.99373 0.0207793
0.0204759 -0.108273 0.99391 0.0329994
-0.0254109 -0.0831316 0.996215 0
-0.0292325 -0.0729384 0.996908 0.00996822
-0.0280158 -0.0738953 0.996872 0.0138051
-0.0331878 -0.0724794 0.996818 0.0272433
-0.0378888 -0.0689854 0.996898 0.0379865
-0.0397932 -0.0653249 0.99707 0.0430117
-0.0321542 -0.0638041 0.997444 0.0442252
-0.0162442 -0.073504 0.997163 0.0337304
0.0107798 -0.096807 0.995245 0
0.0183066 -0.101309 0.994687 0
0.0263759 -0.1085 0.993747 0
0.0289038 -0.108552 0.99367 0
0.0308494 -0.109134 0.993548 0
0.0185312 -0.0992764 0.994887 0.00537628
0.0203056 -0.107681 0.993978 0.0203741
0.0204508 -0.106727 0.994078 0.0264269
0.0200739 -0.105462 0.994221 0.0317236
0.0700926 -0.151735 0.985933 0.0221058
-0.0304214 -0.0733073 0.996845 0.0137724
-0.0342863 -0.068829 0.997039 0.0187586
-0.0359102 -0.0686285 0.996996 0.0287898
-0.0397721 -0.0648888 0.9971 0.0372843
-0.0417301 -0.0617003 0.997222 0.0426667
-0.0327357 -0.0578174 0.99779 0.0462673
-0.016009 -0.0699911 0.997419 0.0282916
-0.0132226 -0.0718807 0.997326 0.0262883
0.0200249 -0.100117 0.994774 0
0.0234275 -0.104415 0.994258 0
0.0313304 -0.107739 0.993685 0
0.0182047 -0.0989371 0.994927 0.0105467
0.015819 -0.102311 0.994627 0.0212218
0.0148164 -0.102129 0.994661 0.0329819
0.0167744 -0.105015 0.994329 0.0286611
0.0566656 -0.145522 0.987731 0.0108799
0.0544046 -0.143921 0.988092 0.0197548
0.0668757 -0.148136 0.986703 0.0196084
0.0699202 -0.142098 0.98738 0.0283715
0.0741363 -0.145948 0.98651 0.0265493
-0.0261016 -0.0844573 0.996085 0
-0.0324393 -0.0702407 0.997002 0.0141407
-0.0335775 -0.0666652 0.99721 0.0207365
-0.0390922 -0.0643969 0.997158 0.0361403
-0.0407166 -0.0637579 0.997134 0.0375317
-0.0378325 -0.0626067 0.997321 0.0409461
-0.0288252 -0.0593609 0.99782 0.0376652
-0.0126 -0.0757227 0.997049 0.0218121
0.0158392 -0.0989215 0.994969 0
0.0143164 -0.0972974 0.995152 0
0.0228367 -0.102534 0.994467 0
0.0267412 -0.103594 0.99426 0
0.0194295 -0.100363 0.994761 0.00956286
0.0145168 -0.0979099 0.995089 0.0226766
0.0116977 -0.0968384 0.995231 0.0354096
0.0154741 -0.104208 0.994435 0.0268933
0.0181383 -0.106073 0.994193 0.0219325
0.0203488 -0.107029 0.994048 0.017023
0.0522683 -0.138858 0.988932 0.00932924
0.0534575 -0.139578 0.988767 0.0115301
0.0526815 -0.141262 0.98857 0.0154544
0.0579173 -0.144034 0.987876 0.0197283
0.0668895 -0.146573 0.986936 0.014165
0.0717947 -0.143329 0.987068 0.0278424
0.0770617 -0.144687 0.986472 0.0267086
-0.0273668 -0.0836421 0.99612 0
-0.0330944 -0.0624807 0.997497 0.0210411
-0.0388241 -0.062033 0.997319 0.0342098
-0.0426707 -0.0587376 0.997361 0.0417389
-0.0384245 -0.063238 0.997258 0.0407591
-0.0262681 -0.0631274 0.99766 0.0373049
-0.00904133 -0.0764815 0.99703 0.0205889
-0.00332335 -0.0808155 0.996724 0.0119086
-0.000109476 -0.0824989 0.996591 0.00175049
0.0139961 -0.0949448 0.995384 0
0.0201414 -0.100767 0.994706 0
0.0215895 -0.0970536 0.995045 0
0.015043 -0.0931531 0.995538 0.0153018
0.00961176 -0.0932155 0.9956 0.030013
0.00860329 -0.0974812 0.9952 0.0344178
0.0096379 -0.0978644 0.995153 0.0330802
0.0107541 -0.098344 0.995094 0.0294853
0.0112249 -0.100925 0.994831 0.0276937
0.00903248 -0.0971071 0.995233 0.036598
0.0425801 -0.132804 0.990227 0.0149546
0.0486758 -0.134638 0.989699 0.013067
0.0534014 -0.138565 0.988913 0.0120404
0.0538383 -0.141257 0.988508 0.0152079
0.0542369 -0.13929 0.988765 0.0131272
0.0652993 -0.145331 0.987226 0.0146835
0.0683972 -0.137736 0.988104 0.0232931
0.0738179 -0.140225 0.987364 0.0205047
-0.0366851 -0.0641957 0.997263 0.0355177
-0.0420728 -0.0620527 0.997186 0.045312
-0.0404013 -0.0592679 0.997424 0.0450847
-0.0240617 -0.069967 0.997259 0.0338937
-0.00476009 -0.0803919 0.996752 0.00963547
0.00794041 -0.0917362 0.995752 0
0.0154628 -0.0961727 0.995245 0
0.0208467 -0.0981449 0.994954 0
0.021175 -0.0960432 0.995152 0
0.0145418 -0.0928273 0.995576 0.0174143
0.00564235 -0.0942651 0.995531 0.0343462
0.0030707 -0.0918851 0.995765 0.0310072
0.00268399 -0.0922748 0.99573 0.0392776
0.00411943 -0.0934297 0.995617 0.0369308
0.00687966 -0.0936344 0.995583 0.0378461
0.0315406 -0.118246 0.992483 0.0207451
0.0349705 -0.123483 0.99173 0.0245295
0.0486127 -0.132507 0.989989 0.0125636
0.0485652 -0.132454 0.989999 0.0106162
0.0440657 -0.131024 0.990399 0.0148432
0.0495068 -0.132956 0.989885 0.0107029
0.0558066 -0.133048 0.989537 0.0161627
0.0709888 -0.137209 0.987995 0.0198407
0.0753744 -0.134325 0.988067 0.0226462
-0.0329386 -0.0667459 0.997226 0.0196094
-0.0367148 -0.0624107 0.997375 0.0354368
-0.0391595 -0.064159 0.997171 0.0449646
-0.0339175 -0.068932 0.997045 0.0369597
-0.0282896 -0.0665136 0.997384 0.0390028
-0.018967 -0.0752702 0.996983 0.0259735
-0.0067063 -0.0784637 0.996894 0.0109537
0.00558064 -0.0893759 0.995982 0
0.0108401 -0.0928555 0.995621 0.0127521
0.00173282 -0.0924307 0.995718 0.027491
-0.000534024 -0.0879157 0.996128 0.0321992
-0.000597456 -0.0909111 0.995859 0.0370885
-2.92696e-05 -0.0899591 0.995945 0.0368693
0.00503884 -0.0916004 0.995783 0.0433694
0.0135718 -0.100274 0.994867 0.0320013
0.0187751 -0.104739 0.994322 0.0253259
0.0222639 -0.108377 0.99386 0.0242895
0.0226586 -0.109684 0.993708 0.0247675
0.0289209 -0.114707 0.992978 0.0239591
0.0329473 -0.120819 0.992128 0.0266068
0.045817 -0.126859 0.990862 0.0134903
0.0451849 -0.127945 0.990752 0.0108592
0.0422871 -0.125857 0.991147 0.0124574
0.0440295 -0.127213 0.990898 0.0107846
0.0578899 -0.130321 0.98978 0.0143595
0.0639625 -0.129612 0.9895 0.0225921
0.0775992 -0.135227 0.987771 0.0204825
-0.035968 -0.0690422 0.996965 0.0250265
-0.0376268 -0.0642226 0.997226 0.0350724
-0.0364851 -0.0638942 0.997289 0.0372745
-0.0307352 -0.0758828 0.996643 0.0326885
-0.0231141 -0.0710685 0.997204 0.0292941
-0.0195096 -0.0750202 0.996991 0.0217135
-0.0144563 -0.0775822 0.996881 0.0243204
-0.00728896 -0.0833136 0.996497 0.0098997
-0.00162259 -0.0875101 0.996162 0.0303467
-0.00411945 -0.0828508 0.996553 0.0378146
0.00593506 -0.0931806 0.995632 0.0322402
0.00823814 -0.0982587 0.995127 0.0332395
0.0141646 -0.1047 0.994403 0.0219702
0.0175206 -0.106687 0.994138 0.0240346
0.0197217 -0.109857 0.993752 0.0219517
0.0205916 -0.107574 0.993984 0.0315188
0.0336469 -0.117462 0.992507 0.0266173
0.0356102 -0.121916 0.991901 0.0207246
0.0400373 -0.125803 0.991247 0.011092
0.040842 -0.123885 0.991456 0.00851202
0.0449098 -0.124414 0.991214 0.00572755
0.0529647 -0.122781 0.991019 0.0136732
0.0682923 -0.129794 0.989186 0.0162529
0.0717032 -0.130431 0.988861 0.0148243
-0.0344615 -0.0660525 0.997221 0.0237699
-0.0328699 -0.0678204 0.997156 0.0245923
-0.0273721 -0.0740469 0.996879 0.019213
-0.0209532 -0.0747803 0.99698 0.0222759
-0.0134457 -0.0804792 0.996666 0.0128458
-0.00804607 -0.0835461 0.996471 0.00274753
0.000254206 -0.087456 0.996168 0.0304465
-0.00174032 -0.0862574 0.996271 0.039462
0.00143208 -0.0906978 0.995877 0.0359307
0.00737246 -0.0971082 0.995247 0.033129
0.0131555 -0.101615 0.994737 0.0205937
0.0148763 -0.104513 0.994412 0.0205019
0.0187484 -0.106125 0.994176 0.021262
0.0254777 -0.110635 0.993535 0.0175858
0.0406132 -0.122593 0.991626 0.00474268
0.056345 -0.123754 0.990712 0.00852633
0.0665678 -0.124943 0.989928 0.0191899
0.0772736 -0.130762 0.988398 0.0216415
0.08162 -0.133186 0.987725 0.0207528
-0.0289502 -0.0712913 0.997035 0.00840638
-0.0301348 -0.0703294 0.997069 0.014105
-0.0288712 -0.0693455 0.997175 0.0155275
-0.0196187 -0.0752888 0.996969 0.0172849
-0.0110139 -0.0808138 0.996668 0.000162087
-0.00796748 -0.0809548 0.996686 0
-0.0048054 -0.0875119 0.996152 0
-0.00298764 -0.0861863 0.996275 0.0421524
0.00794458 -0.0949617 0.995449 0.0300979
0.015003 -0.103424 0.994524 0.0268985
0.0198907 -0.104923 0.994281 0.0172291
0.0603252 -0.1232 0.990547 0.00879106
0.0764079 -0.12876 0.988728 0.0144151
0.0754235 -0.127601 0.988954 0.0202548
0.0814499 -0.133519 0.987694 0.0178391
-0.0283026 -0.0687033 0.997236 0.00178931
-0.0284306 -0.0694404 0.997181 0.00337947
-0.0298528 -0.0666005 0.997333 0.00832021
-0.0301021 -0.0679805 0.997232 0.0134634
-0.0129738 -0.0763046 0.997 0
-0.00228181 -0.0872729 0.996182 0
0.010293 -0.100315 0.994902 0.0226036
0.0599404 -0.121074 0.990832 0.00921083
0.0744137 -0.127943 0.988986 0.0134673
0.0777612 -0.130762 0.988359 0.0147274
-0.0259849 -0.0705554 0.997169 0
-0.0266567 -0.0699686 0.997193 0
-0.028018 -0.0672332 0.997344 0
-0.0307514 -0.0612858 0.997646 0.00759811
-0.0149371 -0.0753473 0.997045 0
-0.00419601 -0.0852968 0.996347 0
0.0672131 -0.123694 0.990041 0.0147361
0.0756051 -0.126552 0.989075 0.0210358
-0.0239543 -0.0752438 0.996877 0
-0.0261881 -0.0715049 0.997096 0
-0.0276467 -0.0690235 0.997232 0
-0.027073 -0.0646927 0.997538 0
-0.0262736 -0.0644635 0.997574 0
-0.00219217 -0.0880177 0.996117 0
0.0673941 -0.121899 0.990252 0.0134073
0.0718916 -0.123452 0.989743 0.0271457
0.0748267 -0.123294 0.989545 0.027878
0.0808855 -0.127968 0.988474 0.0239139
-0.0250589 -0.0788825 0.996569 0
-0.026403 -0.0796988 0.996469 0
-0.0275897 -0.0737312 0.996896 0
-0.0283181 -0.071086 0.997068 0
-0.024191 -0.0703832 0.997227 0
0.0744867 -0.122525 0.989666 0.0230523
0.0743376 -0.122773 0.989647 0.0196347
-0.0267455 -0.0816502 0.996302 0
-0.0242243 -0.0791135 0.996571 0
-0.0256586 -0.0748892 0.996862 0
-0.0254622 -0.0734466 0.996974 0
-0.0240497 -0.0739511 0.996972 0
-0.0248485 -0.0733861 0.996994 0.000695883
0.0737811 -0.120842 0.989926 0.0126677
0.0752276 -0.118715 0.990074 0.0101063
0.0773229 -0.117599 0.990046 0.0109905
-0.0312068 -0.0726242 0.996871 0
-0.0275062 -0.0740048 0.996879 0
-0.0284762 -0.0720591 0.996994 0
-0.0260143 -0.0700653 0.997203 0
-0.0269406 -0.0659864 0.997457 0
-0.0238902 -0.074953 0.996901 0
-0.0134622 -0.0838479 0.996388 0
0.0737859 -0.11564 0.990547 0.00767407
0.0789272 -0.11832 0.989834 0.00780843
-0.0325104 -0.0688454 0.997097 0
-0.0296173 -0.0692463 0.99716 0
-0.0316135 -0.0690138 0.997115 0
-0.0303865 -0.0676205 0.997248 0
0.0732839 -0.115995 0.990543 0.00812014
0.0768607 -0.118792 0.98994 0.0101305
0.0820865 -0.119732 0.989407 0.0120368
-0.0343039 -0.0690113 0.997026 0
-0.0323407 -0.0712053 0.996937 0
-0.0337326 -0.0696231 0.997003 0
-0.0303614 -0.0691195 0.997146 0
0.0720433 -0.114941 0.990756 0.00954944
0.0782348 -0.117626 0.989971 0.0141537
0.0758864 -0.118679 0.990029 0.0121175
-0.0425231 -0.0613453 0.99721 0
-0.0387261 -0.0608285 0.997397 0
-0.0363917 -0.0642333 0.997271 0
-0.0368991 -0.0665879 0.997098 0
-0.0317589 -0.0677474 0.997197 0
-0.0209023 -0.0794897 0.996617 0
0.0762729 -0.115127 0.990418 0.00951216
-0.0438194 -0.0617526 0.997129 0
-0.043852 -0.0620511 0.997109 0
-0.0431924 -0.0578293 0.997392 0
-0.0418386 -0.0584896 0.997411 0
-0.0380541 -0.0638426 0.997234 0
-0.0333327 -0.0675669 0.997158 0
