# .PCD v0.7 - Point Cloud Data file format
VERSION 0.7
FIELDS x y z
SIZE 4 4 4
TYPE F F F
COUNT 1 1 1
WIDTH 1383
HEIGHT 1
VIEWPOINT 0 0 0 1 0 0 0
POINTS 1383
DATA ascii
-0.077725999 0.087784998 -0.227018
-0.091495 0.087856002 -0.227017
-0.091128498 0.087839 -0.2270245
-0.091045998 0.087834999 -0.22702
-0.0908425 0.087822005 -0.22703251
-0.077546 0.087853998 -0.227092
-0.091946006 0.087946996 -0.2270695
-0.077462003 0.087916002 -0.227073
-0.077362001 0.087978996 -0.22704101
-0.0921285 0.0880595 -0.22706899
-0.092052497 0.088056251 -0.22704576
-0.091945 0.088014998 -0.2270225
-0.077257 0.088046998 -0.227082
-0.092201501 0.088133499 -0.227043
-0.092127003 0.088161997 -0.227009
-0.077170998 0.088178001 -0.22701
-0.077096999 0.088248 -0.227072
-0.092447504 0.088358507 -0.227056
-0.077045999 0.088351503 -0.22703299
-0.092445999 0.088462003 -0.22701
-0.076846004 0.088450998 -0.227061
-0.076815002 0.088519 -0.227018
-0.076734997 0.088510998 -0.227046
-0.076632001 0.088509001 -0.22708701
-0.076536 0.088574998 -0.22706001
-0.092705503 0.088650495 -0.227073
-0.092703998 0.088753998 -0.22704101
-0.092702001 0.088821001 -0.227017
-0.0928455 0.088935494 -0.2270875
-0.092843004 0.089038998 -0.227055
-0.093115002 0.089163497 -0.2270695
-0.093034253 0.089158997 -0.2270695
-0.092961498 0.089151502 -0.227042
-0.092841998 0.089106999 -0.227025
-0.093446501 0.089254998 -0.22705099
-0.093267001 0.089239493 -0.22703001
-0.093160003 0.08924567 -0.22702666
-0.093865 0.089377001 -0.22709499
-0.093756005 0.0893685 -0.22707349
-0.093925998 0.089447998 -0.22707801
-0.093865 0.089443997 -0.227053
-0.093755499 0.089435503 -0.22703001
-0.0940255 0.089553505 -0.2270775
-0.093955338 0.089541338 -0.22704732
-0.093864001 0.089511 -0.227016
-0.093794003 0.089506 -0.227007
-0.094217002 0.089674003 -0.22709601
-0.094139002 0.089666001 -0.22706001
-0.094024003 0.089654997 -0.22702301
-0.094215997 0.089740999 -0.227052
-0.094137996 0.089735001 -0.22702301
-0.094394997 0.089892998 -0.227093
-0.094215997 0.089809999 -0.227015
-0.094393 0.089960001 -0.22706699
-0.074869998 0.089902997 -0.227063
-0.094391502 0.090063497 -0.227026
-0.074657999 0.090034999 -0.22709399
-0.074657999 0.090102002 -0.227044
-0.074571997 0.090171002 -0.227053
-0.074478 0.090235002 -0.227054
-0.094657004 0.090356499 -0.22706899
-0.074477002 0.090301998 -0.22701
-0.074377999 0.0903375 -0.2270665
-0.094654001 0.090458997 -0.227043
-0.094651498 0.090563506 -0.227016
-0.094792999 0.090682 -0.22709601
-0.094791003 0.090751 -0.227079
-0.094787501 0.090856001 -0.227062
-0.094783001 0.090961002 -0.227072
-0.094779998 0.091031 -0.227072
-0.095146999 0.091194004 -0.22709051
-0.094893999 0.091169998 -0.22709601
-0.094776496 0.091135994 -0.2270665
-0.095454998 0.091274001 -0.227061
-0.095146999 0.091258496 -0.22703549
-0.095036 0.091254003 -0.227074
-0.094962999 0.091247499 -0.2270885
-0.094892003 0.091240004 -0.22707
-0.094773002 0.091238998 -0.227047
-0.095745504 0.091357999 -0.22709
-0.095624 0.091349997 -0.22705799
-0.095454998 0.091340996 -0.227005
-0.095036 0.091320999 -0.227019
-0.0949625 0.091314003 -0.22703651
-0.094892003 0.091306999 -0.22703101
-0.094772004 0.091307998 -0.227015
-0.09584666 0.091455333 -0.22706334
-0.095744245 0.091458499 -0.22702676
-0.095944002 0.091584995 -0.22707051
-0.095874503 0.091537505 -0.227036
-0.096093997 0.091659002 -0.227097
-0.095943004 0.091651998 -0.22703449
-0.096093498 0.091759503 -0.2270395
-0.095964 0.091723002 -0.227006
-0.073032998 0.091715001 -0.22703999
-0.072958 0.091783002 -0.22708
-0.096091002 0.091862999 -0.22701199
-0.072913997 0.091851003 -0.227035
-0.072857998 0.091848001 -0.22706001
-0.072781004 0.091959 -0.22705001
-0.072742 0.092050001 -0.227038
-0.096362002 0.092157997 -0.22709601
-0.096359499 0.092261501 -0.227061
-0.096357003 0.092364997 -0.227035
-0.096354 0.092435002 -0.227024
-0.096353002 0.092501998 -0.227006
-0.096596003 0.092946999 -0.227082
-0.096593 0.093051001 -0.227065
-0.072002999 0.093076997 -0.227017
-0.096591003 0.093152002 -0.227027
-0.071843497 0.093150005 -0.22707701
-0.096588001 0.093255997 -0.22701
-0.071760997 0.093209997 -0.227027
-0.071695998 0.093281999 -0.22709399
-0.096584 0.093362004 -0.22701
-0.071631998 0.093346998 -0.227074
-0.096580997 0.093429998 -0.22701
-0.096767001 0.09358 -0.227091
-0.096577495 0.093535498 -0.2270045
-0.096763998 0.093649998 -0.227093
-0.096573003 0.093639001 -0.227001
-0.096569501 0.093743995 -0.22700301
-0.096565001 0.093851998 -0.227016
-0.096559495 0.093956999 -0.22703099
-0.096556 0.094063997 -0.22703201
-0.096554004 0.094131 -0.227015
-0.09674 0.094279997 -0.227088
-0.096551999 0.094200999 -0.227001
-0.097213998 0.094375998 -0.227097
-0.096738003 0.094347 -0.22706001
-0.097484998 0.094458997 -0.227088
-0.0973555 0.094449505 -0.227061
-0.097213998 0.094442002 -0.227042
-0.097121 0.094442002 -0.227055
-0.097033001 0.094439 -0.227064
-0.096951999 0.094434999 -0.227066
-0.096861005 0.094455332 -0.22707467
-0.096776992 0.094444335 -0.22704132
-0.097635999 0.094564497 -0.22706451
-0.097484998 0.094522998 -0.227024
-0.097355001 0.094515502 -0.2270145
-0.096951999 0.094499998 -0.227009
-0.096891001 0.094499998 -0.227044
-0.097792 0.094686002 -0.227091
-0.097792 0.094747998 -0.22703201
-0.097952999 0.094896004 -0.227001
-0.098470502 0.0956655 -0.22708251
-0.098468997 0.095766 -0.227045
-0.098467 0.095834002 -0.227029
-0.098465003 0.095904 -0.22701199
-0.098531999 0.096055001 -0.22709499
-0.098527998 0.096159503 -0.2270835
-0.098525003 0.096262001 -0.227072
-0.098522998 0.096331999 -0.227062
-0.098518506 0.096437 -0.227055
-0.098514996 0.096542001 -0.22705901
-0.098510504 0.096646994 -0.2270585
-0.098507002 0.096752003 -0.227052
-0.098523669 0.096870005 -0.227062
-0.098499 0.096960999 -0.227045
-0.098495997 0.097030997 -0.227043
-0.098492503 0.097136006 -0.227047
-0.098489001 0.097240999 -0.227036
-0.098484501 0.097346 -0.227033
-0.098480999 0.097451001 -0.22702301
-0.098538995 0.097563997 -0.22709599
-0.098477498 0.097553 -0.2270135
-0.098535001 0.097668 -0.227088
-0.098474003 0.097658001 -0.227006
-0.098532997 0.097736999 -0.227081
-0.098469496 0.097763002 -0.22700951
-0.098528504 0.097844496 -0.227091
-0.098465003 0.09787 -0.227017
-0.098525003 0.097947001 -0.227084
-0.098548248 0.098054498 -0.22708
-0.098545998 0.098155998 -0.22704801
-0.098544501 0.098223001 -0.22702399
-0.098521329 0.098531663 -0.22706266
-0.098552004 0.098654002 -0.227097
-0.098466501 0.098645002 -0.2270385
-0.098549999 0.098724 -0.22708499
-0.098462 0.098751001 -0.22705474
-0.098352998 0.098778002 -0.227016
-0.098422997 0.098862 -0.227099
-0.098063998 0.098835997 -0.22702201
-0.098059997 0.098908 -0.227044
-0.097606003 0.099586003 -0.22701
-0.097603001 0.099656001 -0.227006
-0.097598001 0.099762 -0.227029
-0.097592004 0.099872999 -0.22705901
-0.097589001 0.099942997 -0.22706699
-0.097585 0.10005 -0.227073
-0.097424999 0.100065 -0.22702301
-0.09742 0.10014 -0.227057
-0.097268 0.10013 -0.22701199
-0.097415999 0.100217 -0.227093
-0.097263001 0.10021 -0.227072
-0.097174004 0.1002405 -0.22706601
-0.097085997 0.10027 -0.227062
-0.096987002 0.100266 -0.227064
-0.096896 0.100261 -0.22703201
-0.096847504 0.10033549 -0.227073
-0.096726 0.100324 -0.22702099
-0.096640497 0.100392 -0.227038
-0.096569002 0.100381 -0.227001
-0.094838999 0.100378 -0.227026
-0.093291998 0.100371 -0.227009
-0.093019001 0.100301 -0.227035
-0.092836 0.100357 -0.227025
-0.096720003 0.100401 -0.227083
-0.0965335 0.100454 -0.2270465
-0.095620997 0.100492 -0.227051
-0.095551997 0.1004855 -0.2270595
-0.095455498 0.100479 -0.22707149
-0.095271997 0.1004 -0.227088
-0.094742998 0.100452 -0.227081
-0.094682001 0.100439 -0.227025
-0.094535001 0.100497 -0.22704101
-0.094415002 0.100496 -0.227028
-0.093438998 0.100452 -0.22702
-0.092828996 0.100437 -0.227099
-0.092749 0.100422 -0.227028
-0.092649996 0.100457 -0.2270485
-0.0925465 0.1004845 -0.227044
-0.090736002 0.10047 -0.227019
-0.094651997 0.100515 -0.22709
-0.094580002 0.100504 -0.227074
-0.090728998 0.100552 -0.227097
-0.090635501 0.1005405 -0.2270415
-0.090439998 0.100594 -0.227038
-0.090348005 0.1005955 -0.22702649
-0.090228997 0.100592 -0.227028
-0.090496004 0.100605 -0.227084
-0.087583996 0.100607 -0.22700299
-0.087476999 0.100669 -0.227018
-0.081245497 0.1006625 -0.22701451
-0.081111997 0.100662 -0.227035
-0.081410997 0.10074 -0.22702301
-0.081349999 0.100745 -0.227081
-0.081285 0.100742 -0.227075
-0.081193998 0.100742 -0.22708
-0.086810999 0.100858 -0.22703999
-0.081641003 0.100834 -0.227061
-0.081574 0.100833 -0.22707801
-0.086648002 0.100917 -0.227036
-0.08655566 0.100936 -0.22704799
-0.086452998 0.1009785 -0.227043
-0.086363003 0.100972 -0.22703101
-0.086286999 0.101043 -0.22706001
-0.086020999 0.085960001 -0.226999
-0.086318001 0.086044997 -0.226962
-0.086135998 0.086038001 -0.22699
-0.086049497 0.086030498 -0.226944
-0.085966997 0.086026996 -0.226952
-0.085859999 0.086056501 -0.22694725
-0.085734002 0.086084001 -0.226927
-0.085647002 0.086080998 -0.226946
-0.085547999 0.086075 -0.22697701
-0.086584002 0.086164996 -0.226951
-0.086317003 0.086113997 -0.22691999
-0.086136997 0.086107001 -0.226914
-0.085453004 0.086140998 -0.22693101
-0.085362002 0.086138003 -0.22699501
-0.085276999 0.086198002 -0.226952
-0.086782001 0.086274996 -0.226951
-0.085363001 0.086205997 -0.22691301
-0.085205004 0.086263999 -0.226937
-0.085131496 0.086265504 -0.226983
-0.085047998 0.086262003 -0.226998
-0.084310003 0.086295001 -0.22697499
-0.084233001 0.086291 -0.226979
-0.084115997 0.086282998 -0.22699299
-0.083959997 0.086274996 -0.226982
-0.086859003 0.086351998 -0.226991
-0.086779997 0.086345002 -0.226925
-0.085131496 0.086332999 -0.22692099
-0.085049003 0.086328 -0.226924
-0.084973998 0.08636833 -0.22694099
-0.084843002 0.086383998 -0.22695801
-0.084752999 0.086384997 -0.226961
-0.084665999 0.086346507 -0.22694701
-0.084582001 0.0863415 -0.22694451
-0.084492996 0.086337999 -0.2269465
-0.084369339 0.086342998 -0.22694235
-0.084233001 0.086356997 -0.226928
-0.084115997 0.086350001 -0.226936
-0.083959997 0.086341999 -0.226924
-0.08382 0.086332001 -0.22694799
-0.083725996 0.086328 -0.22694901
-0.083635002 0.086364999 -0.22693899
-0.083457999 0.086384997 -0.226953
-0.083361998 0.086382002 -0.226969
-0.083269998 0.086381003 -0.226992
-0.082203999 0.086398996 -0.22698499
-0.081969 0.086379997 -0.226998
-0.087049 0.086463496 -0.22693899
-0.086962499 0.086427003 -0.226942
-0.086858496 0.086454496 -0.226934
-0.084841996 0.086453997 -0.22692201
-0.084752001 0.086453997 -0.226915
-0.083361 0.086448997 -0.22691999
-0.083269998 0.086450003 -0.22692899
-0.083152667 0.086445004 -0.22697501
-0.082872003 0.086497001 -0.226983
-0.082704 0.086487003 -0.226954
-0.082557 0.086447746 -0.22695801
-0.082428999 0.086406998 -0.226962
-0.082339004 0.086404003 -0.226965
-0.082234502 0.086433999 -0.226934
-0.082138002 0.086464003 -0.22692899
-0.081940502 0.086445495 -0.226927
-0.081844002 0.086443998 -0.22696599
-0.081752002 0.086442001 -0.22699
-0.0873705 0.086556494 -0.22693199
-0.08721 0.086544499 -0.226937
-0.087127745 0.086538501 -0.22693375
-0.083153002 0.086513996 -0.226914
-0.082872003 0.086566001 -0.226926
-0.082704 0.086557001 -0.22691301
-0.081753001 0.086508997 -0.226916
-0.081665002 0.086506002 -0.226935
-0.081561998 0.086507 -0.226973
-0.081468999 0.086570002 -0.226933
-0.080361001 0.086580001 -0.22698
-0.088019997 0.086691 -0.226992
-0.087895997 0.086686 -0.22698
-0.087637 0.086604998 -0.22695
-0.081294999 0.086630002 -0.226934
-0.081104003 0.086689003 -0.22692899
-0.081030995 0.0866815 -0.22695351
-0.080957003 0.086677 -0.22699
-0.080853 0.086673498 -0.22695699
-0.080463 0.086654998 -0.22690099
-0.080201 0.086641997 -0.22691301
-0.088019997 0.086759001 -0.226934
-0.087895997 0.086755 -0.226924
-0.080899 0.086744003 -0.22691099
-0.088238999 0.086842999 -0.226988
-0.088144496 0.086842 -0.22697151
-0.088340998 0.086966 -0.22695565
-0.088237502 0.086946994 -0.2269305
-0.088144004 0.086911 -0.22692999
-0.088561997 0.087075002 -0.226991
-0.088352501 0.087058999 -0.2269135
-0.079406001 0.087095 -0.22693799
-0.088560998 0.087144002 -0.22694901
-0.089694001 0.087270997 -0.226988
-0.08952 0.087265 -0.226992
-0.089240998 0.087251 -0.226992
-0.089015 0.087236002 -0.22699399
-0.088954002 0.087236002 -0.226998
-0.088892996 0.087297998 -0.22697601
-0.088559002 0.087246001 -0.226909
-0.079301 0.087232001 -0.22694001
-0.089969501 0.087354004 -0.22699049
-0.089693002 0.087339997 -0.22694699
-0.089519002 0.087332003 -0.226962
-0.0892395 0.087352499 -0.2269375
-0.089041248 0.087341003 -0.22694924
-0.088952497 0.087337494 -0.2269475
-0.088891998 0.087367997 -0.22694799
-0.079209 0.087371998 -0.22697701
-0.089959331 0.087444663 -0.22692633
-0.089876503 0.087452501 -0.22692201
-0.089691997 0.087408997 -0.22691099
-0.089518003 0.087401003 -0.226923
-0.089066997 0.087448001 -0.226905
-0.088891 0.087435 -0.22691
-0.079061002 0.087496996 -0.2269415
-0.078924 0.087489001 -0.22698
-0.090466999 0.087589003 -0.226969
-0.090219997 0.087541506 -0.22693801
-0.078925997 0.087557003 -0.22690099
-0.078594998 0.087541997 -0.226964
-0.078235 0.087596998 -0.226997
-0.090466 0.087655999 -0.226926
-0.078429997 0.087605 -0.22692101
-0.078336 0.087600999 -0.226959
-0.078158997 0.087663002 -0.22691201
-0.078060001 0.087658003 -0.226987
-0.090465002 0.087725997 -0.22690199
-0.077812999 0.087782003 -0.226923
-0.091225997 0.087840997 -0.227
-0.090966001 0.087855503 -0.22697675
-0.090841994 0.087891504 -0.22698951
-0.090725496 0.087850496 -0.2269695
-0.077636003 0.087852001 -0.227
-0.091495 0.087955505 -0.22692999
-0.091225997 0.087942496 -0.2269295
-0.091127999 0.087940499 -0.22695576
-0.091045 0.087936506 -0.2269605
-0.090964496 0.0879585 -0.22692251
-0.090840995 0.0879585 -0.22695249
-0.090723999 0.087953001 -0.226927
-0.077549003 0.087918997 -0.226964
-0.077466004 0.087981001 -0.226942
-0.091945 0.0880825 -0.2269685
-0.090840504 0.0880275 -0.2269125
-0.077365004 0.088044003 -0.226924
-0.092052497 0.088157497 -0.226978
-0.091945 0.088148996 -0.2269145
-0.077259496 0.088144496 -0.22694799
-0.092201002 0.088235997 -0.22697601
-0.092126504 0.088264495 -0.226945
-0.092051499 0.088226005 -0.2269385
-0.077172004 0.088244997 -0.22694799
-0.092200004 0.088303 -0.22692899
-0.077099003 0.088347003 -0.22695
-0.077045999 0.088453002 -0.226941
-0.092444003 0.088563502 -0.22696
-0.076848 0.088550001 -0.2269405
-0.076737002 0.088578001 -0.22696701
-0.076633997 0.088572003 -0.226991
-0.092442997 0.088665999 -0.226905
-0.076636001 0.088638999 -0.226914
-0.076537997 0.088641003 -0.22696801
-0.076369002 0.088697001 -0.22691999
-0.092701003 0.088891 -0.22698499
-0.092698999 0.088959999 -0.22697
-0.092695996 0.089062497 -0.22694001
-0.092840001 0.089175999 -0.227
-0.092693001 0.089166999 -0.226923
-0.093033999 0.089259505 -0.22699499
-0.09296 0.089252003 -0.22698499
-0.092837997 0.089244001 -0.22698399
-0.092690997 0.089235 -0.226909
-0.093447 0.089355998 -0.226965
-0.093266003 0.089341 -0.226973
-0.093147501 0.089334503 -0.226963
-0.093032494 0.089362003 -0.22694325
-0.092958003 0.089354999 -0.22693801
-0.092836 0.089348003 -0.22694901
-0.093444496 0.089458004 -0.22692049
-0.093264997 0.089408003 -0.226933
-0.093134999 0.089423664 -0.22691333
-0.093030006 0.089465499 -0.226909
-0.092955001 0.089458004 -0.22691201
-0.092834003 0.089450002 -0.226907
-0.075291999 0.089418001 -0.226916
-0.093924001 0.089584 -0.22699501
-0.093863003 0.089578003 -0.22697601
-0.093741 0.089547664 -0.22696233
-0.075198002 0.089555003 -0.22691201
-0.093946502 0.089653507 -0.22697249
-0.093863003 0.089644998 -0.22693101
-0.093752995 0.089637995 -0.22691551
-0.094022498 0.0897585 -0.2269775
-0.093944497 0.089756504 -0.22693574
-0.094214 0.089877002 -0.22699501
-0.094136499 0.089836493 -0.226971
-0.094021 0.089859001 -0.226928
-0.093965001 0.08986 -0.226907
-0.075033002 0.089828998 -0.226962
-0.094212003 0.089947 -0.22697499
-0.094134003 0.089938998 -0.22693799
-0.094019003 0.089929 -0.226905
-0.074871004 0.08997 -0.226992
-0.094210498 0.090048507 -0.22693199
-0.094132997 0.090007998 -0.22691201
-0.074872002 0.090034001 -0.22691999
-0.094388999 0.090167001 -0.22699501
-0.074657999 0.090168998 -0.22699299
-0.094388001 0.090233997 -0.226963
-0.074657999 0.090236001 -0.226941
-0.074571997 0.090236001 -0.226988
-0.094385996 0.090336993 -0.2269205
-0.074571997 0.090305001 -0.22693001
-0.074478 0.090369001 -0.226945
-0.074378997 0.090437002 -0.226971
-0.094649002 0.090666004 -0.226988
-0.094646998 0.090736002 -0.226979
-0.094642997 0.090838999 -0.22696501
-0.094639003 0.090944998 -0.226959
-0.094635502 0.091048002 -0.226959
-0.094631001 0.091153003 -0.22695801
-0.094628498 0.091257498 -0.226935
-0.095146745 0.09135925 -0.22696176
-0.095036 0.091387004 -0.22696701
-0.0949625 0.09138 -0.22698799
-0.094890997 0.091374002 -0.22698499
-0.094772004 0.091372997 -0.22696801
-0.094626002 0.091360003 -0.22691301
-0.095624998 0.091447502 -0.226973
-0.095454 0.0914395 -0.22693649
-0.095191002 0.091461003 -0.226909
-0.095067501 0.091455996 -0.226916
-0.094962001 0.091445997 -0.2269415
-0.094892003 0.091438003 -0.226926
-0.094770998 0.09144 -0.22693001
-0.094622999 0.091430001 -0.226904
-0.095830999 0.091565996 -0.22698601
-0.0957435 0.091559 -0.22697151
-0.095623001 0.091549002 -0.226916
-0.094961002 0.091515005 -0.22690651
-0.095851496 0.091637 -0.22697049
-0.095741503 0.091661751 -0.22692324
-0.095933996 0.091763996 -0.22697067
-0.09585733 0.091727674 -0.22692899
-0.095940001 0.091854498 -0.22693449
-0.072962001 0.091844998 -0.22695599
-0.096088499 0.0919635 -0.2269675
-0.095937997 0.091922998 -0.2269145
-0.072916001 0.091914997 -0.226954
-0.072860003 0.091945499 -0.22694799
-0.096086003 0.092067003 -0.226933
-0.072800003 0.092046 -0.226964
-0.096083999 0.092134997 -0.22691999
-0.072760999 0.092136659 -0.22694999
-0.096082002 0.092203997 -0.22691
-0.072483003 0.092454001 -0.22694699
-0.096350998 0.092569999 -0.226988
-0.072481997 0.092520997 -0.22691099
-0.096349001 0.092638999 -0.226969
-0.096346498 0.092741504 -0.22693899
-0.096344002 0.092844002 -0.226916
-0.096341997 0.092914 -0.22690199
-0.072005004 0.093139 -0.226936
-0.071930997 0.093140997 -0.226998
-0.071932003 0.093204997 -0.226928
-0.0718465 0.093245499 -0.22694674
-0.071760997 0.093273997 -0.22695801
-0.071760997 0.093341 -0.226914
-0.071698003 0.093344003 -0.226989
-0.071655005 0.093431331 -0.226955
-0.096550003 0.094269 -0.226978
-0.096548997 0.094336003 -0.22695599
-0.096735999 0.094480999 -0.22699501
-0.096544996 0.094439499 -0.22694251
-0.097484998 0.094587997 -0.226971
-0.097355001 0.094581001 -0.226962
-0.097213998 0.094540499 -0.22697
-0.097121499 0.094536498 -0.22695801
-0.097033501 0.094535001 -0.2269645
-0.096951999 0.094564997 -0.22694901
-0.096868999 0.094563998 -0.2269825
-0.096766502 0.094552502 -0.2269565
-0.096542999 0.094540998 -0.22690099
-0.097635001 0.094663002 -0.22699399
-0.097484998 0.094653003 -0.22692899
-0.097355001 0.094645999 -0.22690651
-0.097635001 0.094762504 -0.22692999
-0.097792 0.0948475 -0.2269575
-0.097952001 0.094962999 -0.226959
-0.097952001 0.095027998 -0.22691201
-0.070433997 0.095683999 -0.226954
-0.098462999 0.095971003 -0.22699
-0.098462 0.096041001 -0.226972
-0.0984575 0.096144006 -0.22696701
-0.098453999 0.096248001 -0.22696701
-0.098450005 0.096352994 -0.226951
-0.098447002 0.096455999 -0.22693799
-0.098442495 0.096561998 -0.226942
-0.098439001 0.096666001 -0.226941
-0.098435998 0.096735999 -0.22693799
-0.098432496 0.096841 -0.226937
-0.098428003 0.096945003 -0.226936
-0.098424003 0.097051002 -0.226936
-0.098420002 0.097154997 -0.22693101
-0.0984165 0.097259998 -0.226928
-0.098412 0.097364999 -0.226926
-0.098410003 0.097434998 -0.226925
-0.098406002 0.097540006 -0.226916
-0.098402999 0.097644001 -0.226905
-0.098398 0.097749501 -0.22691399
-0.098393001 0.097856998 -0.226924
-0.098463997 0.097938001 -0.22699501
-0.098392002 0.097921997 -0.226905
-0.098460495 0.09804 -0.22697699
-0.098457001 0.098142996 -0.22695801
-0.098514996 0.098288998 -0.226997
-0.098453499 0.098248005 -0.226955
-0.098514996 0.098353997 -0.22696
-0.098449998 0.098352 -0.22693899
-0.098512001 0.098424003 -0.22695801
-0.098446503 0.098455995 -0.226934
-0.098439001 0.098567002 -0.22699399
-0.098365001 0.098559 -0.226945
-0.098361 0.098632999 -0.226971
-0.098075002 0.098681003 -0.226904
-0.098357998 0.098704003 -0.226982
-0.098067999 0.098761 -0.226992
-0.097615004 0.099436 -0.226942
-0.097608998 0.099514 -0.227
-0.097442001 0.099769004 -0.22690199
-0.097438 0.099840999 -0.226918
-0.097431496 0.099954002 -0.226971
-0.097278997 0.099978 -0.226916
-0.097273998 0.100053 -0.22695599
-0.097189002 0.100044 -0.226919
-0.097182997 0.100124 -0.226981
-0.097094998 0.100151 -0.226964
-0.096965335 0.100158 -0.22695267
-0.096818 0.100171 -0.22691201
-0.096810997 0.100251 -0.22698399
-0.096731998 0.100244 -0.226959
-0.096651502 0.10023651 -0.226928
-0.094846003 0.100296 -0.226952
-0.093024999 0.100221 -0.22696701
-0.092843004 0.100276 -0.226955
-0.092761002 0.100266 -0.22691201
-0.096645996 0.1003135 -0.226979
-0.096542999 0.1003345 -0.22693449
-0.095464006 0.100393 -0.226962
-0.095363997 0.100392 -0.22697499
-0.094750002 0.10037 -0.226997
-0.094664998 0.100353 -0.226937
-0.094594002 0.100343 -0.226928
-0.093377002 0.100366 -0.226943
-0.092754997 0.100345 -0.226972
-0.092660002 0.1003365 -0.22694251
-0.092557505 0.1003595 -0.22690901
-0.092409998 0.100385 -0.226905
-0.090742998 0.100388 -0.22693101
-0.096309997 0.100442 -0.22699299
-0.095761001 0.1004425 -0.22694701
-0.095628001 0.10041 -0.226973
-0.095559001 0.1004035 -0.2269755
-0.094635002 0.10043 -0.226999
-0.094565496 0.1004175 -0.2269655
-0.094423003 0.100414 -0.226934
-0.094269 0.100481 -0.226982
-0.093805999 0.100459 -0.226954
-0.093725003 0.100455 -0.22696
-0.093608998 0.100443 -0.226945
-0.093528003 0.10045 -0.22697
-0.092626996 0.100413 -0.22699299
-0.092578001 0.100405 -0.22696701
-0.092403002 0.100467 -0.22699299
-0.092254996 0.100454 -0.226934
-0.090642005 0.10046 -0.2269665
-0.090562001 0.100451 -0.22692899
-0.071597002 0.100422 -0.22691099
-0.090529993 0.10052299 -0.22697449
-0.090446003 0.100513 -0.226972
-0.090355501 0.1005115 -0.22693449
-0.090236999 0.100508 -0.22693001
-0.087709002 0.100595 -0.226916
-0.087636001 0.1006 -0.22697701
-0.087481998 0.100592 -0.226972
-0.081363998 0.10058 -0.22691201
-0.0812525 0.100579 -0.2269275
-0.081119999 0.100576 -0.226927
-0.081021003 0.100571 -0.22690301
-0.073371001 0.100564 -0.22690301
-0.081588 0.100669 -0.226918
-0.081418999 0.100656 -0.22692899
-0.081358001 0.100663 -0.226988
-0.073117003 0.100641 -0.226964
-0.073031001 0.100633 -0.226943
-0.072944999 0.100624 -0.226928
-0.086818002 0.100778 -0.226962
-0.081648998 0.10075 -0.22695801
-0.081580997 0.100749 -0.22698399
-0.086654998 0.100835 -0.22696801
-0.086573005 0.1008295 -0.2269565
-0.086460002 0.100897 -0.22696
-0.086369999 0.10089 -0.226953
-0.086299002 0.100884 -0.226928
-0.081872001 0.100822 -0.22692201
-0.081742495 0.100824 -0.22696599
-0.086252496 0.100958 -0.226972
-0.085552998 0.101136 -0.226934
-0.085312001 0.101199 -0.226955
-0.085236996 0.101187 -0.226905
-0.085459501 0.101207 -0.22697699
-0.085377 0.101207 -0.226991
-0.08523 0.101269 -0.22698499
-0.084619999 0.101371 -0.226932
-0.084519997 0.10137 -0.226928
-0.084466003 0.101365 -0.22692899
-0.084411003 0.101434 -0.226954
-0.086050004 0.086097002 -0.22687599
-0.085966997 0.086093001 -0.22689401
-0.086317003 0.086181 -0.22686
-0.086135998 0.086172998 -0.226862
-0.086048998 0.086165994 -0.22683099
-0.085966997 0.086162001 -0.226841
-0.085859999 0.086158 -0.2268585
-0.085735001 0.086150996 -0.226853
-0.085647002 0.086149 -0.22687399
-0.085550003 0.086143002 -0.226887
-0.086584002 0.086266004 -0.226879
-0.086317003 0.086249001 -0.226805
-0.086135998 0.086241998 -0.226817
-0.086076997 0.086236998 -0.22680201
-0.0858595 0.086226493 -0.226818
-0.085647002 0.086216003 -0.22681899
-0.085550003 0.086209998 -0.22683001
-0.085453004 0.086241499 -0.22684249
-0.085363001 0.086274996 -0.22686
-0.085277997 0.086267002 -0.22689401
-0.086581998 0.086336002 -0.226851
-0.085362002 0.086341999 -0.226816
-0.085241005 0.086333498 -0.226864
-0.085049003 0.086397 -0.226873
-0.083725996 0.086396001 -0.22689
-0.086962499 0.086494997 -0.226891
-0.086778499 0.086446494 -0.226873
-0.086580001 0.086438999 -0.2268135
-0.085205004 0.086400002 -0.226842
-0.085130997 0.086434253 -0.226849
-0.085049003 0.086464003 -0.226823
-0.084962502 0.086458996 -0.226881
-0.084665 0.086450003 -0.22688
-0.084581003 0.086444996 -0.226882
-0.084494002 0.086439997 -0.22684699
-0.084354997 0.086432502 -0.22685701
-0.084233001 0.086425997 -0.22686
-0.084115997 0.086453006 -0.22685751
-0.083960503 0.086443998 -0.22683501
-0.08382 0.086434498 -0.226868
-0.083725996 0.086465001 -0.22683799
-0.083635002 0.086466998 -0.226861
-0.083457999 0.086452 -0.226895
-0.082428999 0.086475998 -0.22689401
-0.082340002 0.086471997 -0.226891
-0.082264997 0.086469002 -0.226891
-0.087049 0.086566001 -0.226864
-0.0869615 0.086564004 -0.22685599
-0.086856999 0.086557001 -0.22686499
-0.086778 0.086549997 -0.226814
-0.084950663 0.086549006 -0.22683235
-0.084840499 0.0865575 -0.226859
-0.084751502 0.086556494 -0.22684899
-0.084664501 0.086551502 -0.22682101
-0.084580496 0.086546496 -0.22682151
-0.084492996 0.086507 -0.226808
-0.084399998 0.086502001 -0.22680999
-0.083633997 0.086535998 -0.22681101
-0.083457999 0.086521 -0.226842
-0.083361998 0.086516999 -0.226858
-0.083269998 0.086551502 -0.226852
-0.083153337 0.086580336 -0.226851
-0.082557 0.086550996 -0.226879
-0.082428999 0.086542003 -0.226835
-0.082340002 0.086539 -0.22683001
-0.082234994 0.0865345 -0.2268405
-0.082138002 0.086533003 -0.22686701
-0.081941999 0.086513996 -0.2268455
-0.0818455 0.0865435 -0.226849
-0.081753999 0.086575001 -0.226832
-0.081666 0.086574003 -0.226853
-0.081564002 0.086572997 -0.226889
-0.087637 0.086673997 -0.226888
-0.087370001 0.086659998 -0.226858
-0.087209001 0.086648002 -0.226872
-0.087127507 0.086641505 -0.22686049
-0.087048002 0.086632997 -0.22682901
-0.086949326 0.086652994 -0.22681333
-0.086855501 0.086660996 -0.22681701
-0.084839001 0.086658999 -0.226805
-0.083129004 0.086647004 -0.22681701
-0.082873002 0.086631998 -0.226864
-0.082703002 0.086658001 -0.226849
-0.082556501 0.086617999 -0.22683451
-0.081468999 0.086639002 -0.22686601
-0.081297003 0.086695999 -0.226842
-0.080638997 0.086663999 -0.22689401
-0.080362 0.086648002 -0.226896
-0.080278002 0.086645998 -0.22688299
-0.087637 0.086741 -0.226842
-0.087369002 0.086727001 -0.226818
-0.087209001 0.086717002 -0.22683001
-0.087127 0.086708501 -0.2268175
-0.081106 0.086755 -0.22682901
-0.081035003 0.086746499 -0.22682101
-0.080959998 0.086742997 -0.22687501
-0.080807999 0.086736999 -0.22686701
-0.080641001 0.086728998 -0.22680099
-0.080363996 0.086714 -0.22681101
-0.080240995 0.086710498 -0.22681299
-0.080101497 0.086741999 -0.2268475
-0.079944998 0.086760998 -0.226827
-0.088018499 0.086861998 -0.22687301
-0.087895498 0.086857498 -0.22686049
-0.080959998 0.086810999 -0.226809
-0.080853999 0.086807996 -0.22682601
-0.088143006 0.086978003 -0.22689199
-0.088017002 0.086965002 -0.22682901
-0.087894 0.086960003 -0.226805
-0.079595998 0.086957999 -0.22684599
-0.088235997 0.087049 -0.22687501
-0.088141501 0.087046996 -0.22685951
-0.079510003 0.087025002 -0.22685599
-0.08835125 0.087161005 -0.22685525
-0.088234499 0.087151498 -0.22682351
-0.088131666 0.087139331 -0.22682101
-0.079407997 0.087160997 -0.22685599
-0.088386998 0.087269001 -0.22685499
-0.079302996 0.087297 -0.226834
-0.088555999 0.087351002 -0.22689199
-0.088385001 0.087338001 -0.226827
-0.089997001 0.087490998 -0.226899
-0.089690998 0.087476999 -0.226882
-0.089516997 0.087467998 -0.22687501
-0.089238003 0.087453999 -0.226879
-0.089013003 0.087442003 -0.22688501
-0.088950999 0.087440997 -0.226881
-0.088553503 0.087455004 -0.226853
-0.079213999 0.087434001 -0.226825
-0.079139002 0.087494001 -0.22684599
-0.089967504 0.087559 -0.2268655
-0.089873999 0.087555997 -0.22688
-0.08969 0.087545998 -0.22684801
-0.089516997 0.087536998 -0.22683699
-0.089237005 0.087557495 -0.22682449
-0.089038253 0.087547496 -0.22684075
-0.088949502 0.087542996 -0.2268385
-0.088888004 0.087539002 -0.226879
-0.088551998 0.087557003 -0.226805
-0.079063497 0.087561995 -0.22682899
-0.090218998 0.087644003 -0.22687501
-0.089956664 0.087650001 -0.22682001
-0.089872502 0.087658495 -0.2268285
-0.089689001 0.087613001 -0.22680999
-0.089515001 0.087604001 -0.226804
-0.088946998 0.087646998 -0.226808
-0.088885002 0.087641001 -0.226854
-0.078925997 0.087623 -0.22682901
-0.078596003 0.087608002 -0.226887
-0.078432001 0.087670997 -0.22682901
-0.078339003 0.087664001 -0.22685
-0.078238003 0.087663002 -0.226878
-0.090462998 0.087794997 -0.22687399
-0.090217501 0.087745503 -0.2268275
-0.088884003 0.087710999 -0.226822
-0.078162 0.087729 -0.226805
-0.078063004 0.087723002 -0.226859
-0.090461999 0.087862998 -0.22685499
-0.077813998 0.087848 -0.226834
-0.07773 0.087848 -0.22688399
-0.090460002 0.087931998 -0.22683901
-0.077730998 0.087913997 -0.226803
-0.077638999 0.087916002 -0.22687
-0.077551998 0.087985002 -0.22686499
-0.091494001 0.088058002 -0.22686
-0.091224998 0.088044003 -0.226859
-0.091127999 0.088041998 -0.2268765
-0.091045 0.088037997 -0.226879
-0.09096425 0.088058755 -0.22685274
-0.090839997 0.088094503 -0.22686651
-0.090722002 0.088055998 -0.22687951
-0.090457998 0.088000998 -0.226809
-0.077468 0.088045001 -0.22685599
-0.091494001 0.088124998 -0.226813
-0.091224 0.088110998 -0.226824
-0.091154002 0.08811 -0.226833
-0.091071747 0.088141002 -0.22682001
-0.090962 0.088161498 -0.22680449
-0.090838999 0.088162497 -0.22682601
-0.090719998 0.088159002 -0.226844
-0.077467002 0.088114001 -0.226809
-0.077364504 0.088145494 -0.226858
-0.092050999 0.088292502 -0.226888
-0.091944247 0.088251494 -0.226854
-0.090804003 0.088229999 -0.226804
-0.090719 0.088226996 -0.22681201
-0.077258997 0.088246003 -0.226877
-0.092200004 0.088370003 -0.226887
-0.092125997 0.088365003 -0.22686499
-0.0920505 0.088361502 -0.2268405
-0.091942504 0.088353999 -0.22680449
-0.077260002 0.088312998 -0.226809
-0.077172004 0.088347003 -0.2268545
-0.092161499 0.088435501 -0.2268495
-0.092049502 0.088429004 -0.226816
-0.077099003 0.088446997 -0.226869
-0.092171334 0.088528328 -0.22682433
-0.092074998 0.088501997 -0.226807
-0.077048004 0.088517003 -0.22684801
-0.076880001 0.088582002 -0.226882
-0.076848 0.088651501 -0.2268545
-0.076738 0.088643998 -0.22689299
-0.092441 0.088734999 -0.22688501
-0.076816998 0.088717997 -0.226807
-0.076738 0.088710003 -0.226826
-0.076636001 0.088705003 -0.22684599
-0.076540001 0.088705003 -0.22686701
-0.076370999 0.088760003 -0.226813
-0.092437997 0.088838995 -0.2268685
-0.092435002 0.088941999 -0.226842
-0.092432499 0.089044496 -0.226813
-0.075580001 0.089143001 -0.226832
-0.075489998 0.089213997 -0.226852
-0.075392 0.089273997 -0.22684801
-0.092688002 0.089339003 -0.2268855
-0.093263999 0.089477003 -0.226896
-0.093180999 0.089472003 -0.22687601
-0.092684999 0.089443997 -0.22687
-0.093442999 0.089560002 -0.22687399
-0.093263 0.089544997 -0.22686601
-0.093144998 0.089538001 -0.226859
-0.093020327 0.089554667 -0.22686768
-0.092954502 0.089559495 -0.226852
-0.092832498 0.089551494 -0.22685
-0.092682004 0.089546502 -0.2268455
-0.093440503 0.089662001 -0.2268385
-0.093260497 0.089646503 -0.22682551
-0.093143001 0.089639753 -0.226817
-0.093035005 0.089647658 -0.22683066
-0.092952996 0.089662001 -0.226804
-0.092830002 0.089653999 -0.226818
-0.09268 0.089648001 -0.226803
-0.075111002 0.089689001 -0.226891
-0.0938605 0.089747503 -0.22688201
-0.093752004 0.0897405 -0.22685926
-0.092827998 0.089723997 -0.226809
-0.09392 0.089855 -0.22687
-0.093859002 0.089850999 -0.22684
-0.093749493 0.089843497 -0.2268195
-0.075034 0.089892998 -0.226878
-0.094017997 0.089996003 -0.226881
-0.093940504 0.089960501 -0.22684675
-0.093855999 0.089953005 -0.22681701
-0.093787998 0.089913003 -0.226817
-0.094131 0.090075999 -0.22688399
-0.094016001 0.090065002 -0.226859
-0.093938001 0.090064496 -0.2268175
-0.093852997 0.090057999 -0.226805
-0.094208002 0.090150997 -0.22689299
-0.094130002 0.090143003 -0.226859
-0.094013996 0.090132996 -0.22683799
-0.093960002 0.090134002 -0.226809
-0.074869499 0.090137497 -0.226879
-0.094205 0.090253994 -0.226868
-0.094126999 0.090247497 -0.226833
-0.094012 0.090202004 -0.226818
-0.074868999 0.090236999 -0.22680201
-0.094203003 0.090356998 -0.22683799
-0.094123997 0.090350002 -0.226816
-0.074657999 0.090335503 -0.22685051
-0.074573003 0.090369001 -0.22686701
-0.094383001 0.090439998 -0.2269
-0.094200999 0.090425 -0.22682001
-0.094160497 0.090457499 -0.226803
-0.074571997 0.090435997 -0.22682101
-0.074478999 0.090433002 -0.226863
-0.0943795 0.090544 -0.22688051
-0.074478999 0.090499997 -0.22681201
-0.074380003 0.090535499 -0.22686699
-0.094375998 0.090646997 -0.22686499
-0.074106 0.090696 -0.226832
-0.094373003 0.090751 -0.22684449
-0.094370998 0.090853997 -0.22681201
-0.073748 0.090883002 -0.226854
-0.094366997 0.090958998 -0.2268075
-0.094621003 0.091499001 -0.226888
-0.095453002 0.091541998 -0.22688
-0.095189497 0.0915635 -0.2268465
-0.09506575 0.091558255 -0.2268745
-0.094960004 0.091582 -0.2268725
-0.094890498 0.091538996 -0.2268665
-0.0947695 0.091542497 -0.2268835
-0.094618998 0.091567002 -0.22687399
-0.095621496 0.091650501 -0.226877
-0.095450498 0.091644004 -0.22684699
-0.0950635 0.091661006 -0.22683099
-0.094958998 0.091649994 -0.22683549
-0.094889 0.091642 -0.22681899
-0.094766997 0.091643997 -0.226841
-0.094617002 0.091636002 -0.22685701
-0.095827997 0.091767997 -0.22688299
-0.095739998 0.091763005 -0.2268725
-0.095619 0.091752999 -0.226841
-0.095448002 0.091746002 -0.226805
-0.095095001 0.091730997 -0.226804
-0.094958 0.091717005 -0.2268095
-0.094765998 0.091711 -0.226814
-0.094614998 0.091737501 -0.2268225
-0.073040001 0.091770999 -0.226849
-0.095848501 0.091838501 -0.22687501
-0.095725663 0.091852665 -0.22683768
-0.095616996 0.091821998 -0.22682101
-0.095936 0.091991499 -0.2268925
-0.095845751 0.091941744 -0.22684124
-0.095771998 0.091934502 -0.22682351
-0.095697999 0.091966003 -0.226816
-0.072947666 0.091954671 -0.22685333
-0.095935002 0.092059001 -0.22687051
-0.095842496 0.092045501 -0.22681999
-0.095696002 0.092036001 -0.22680201
-0.072916001 0.092046 -0.22683699
-0.072860003 0.092045002 -0.22686601
-0.095932007 0.092162497 -0.22684026
-0.095861003 0.092152998 -0.226823
-0.072915003 0.092114002 -0.22680099
-0.072857998 0.092146501 -0.22682199
-0.072798997 0.092179999 -0.226863
-0.096079998 0.092274003 -0.226898
-0.095928997 0.092266001 -0.2268185
-0.072770499 0.092248 -0.22684699
-0.096078001 0.092341997 -0.226881
-0.095927 0.092333496 -0.22680649
-0.072740003 0.092350498 -0.2268365
-0.096074998 0.092445001 -0.22686
-0.096073002 0.092547998 -0.226834
-0.072480999 0.092588998 -0.226882
-0.0960695 0.092650995 -0.22681299
-0.072480001 0.092657998 -0.22684801
-0.096340001 0.092983 -0.226888
-0.096336998 0.093051001 -0.226879
-0.096333995 0.093155995 -0.22686401
-0.096331 0.093258001 -0.22685
-0.072006002 0.093237504 -0.226836
-0.071932003 0.093272001 -0.226877
-0.0963265 0.093363002 -0.226851
-0.071930997 0.093339004 -0.22682901
-0.071845502 0.093346 -0.226889
-0.096322998 0.093468003 -0.226843
-0.071843997 0.093446001 -0.226835
-0.071759999 0.093440503 -0.226852
-0.071699001 0.093473002 -0.22686601
-0.096321002 0.093538001 -0.226833
-0.071666501 0.093539 -0.226841
-0.096316501 0.093641996 -0.2268355
-0.071634002 0.093604997 -0.226816
-0.096312001 0.093748003 -0.226854
-0.071468003 0.093745001 -0.22687501
-0.096307002 0.093853995 -0.22685799
-0.096303999 0.093957998 -0.226843
-0.096302003 0.094028004 -0.226835
-0.096299 0.094094999 -0.22682901
-0.096297003 0.094164997 -0.226818
-0.096294999 0.094232999 -0.226804
-0.097213 0.094639003 -0.226897
-0.097121999 0.094633996 -0.22687501
-0.097034998 0.094663501 -0.2268455
-0.096953496 0.094660498 -0.226852
-0.096871503 0.094656497 -0.22684899
-0.0967675 0.094647251 -0.22685425
-0.096542001 0.094641499 -0.2268445
-0.097484499 0.094752498 -0.22685701
-0.097354248 0.094744496 -0.22683977
-0.097213 0.0947375 -0.2268295
-0.097121 0.094701 -0.22682901
-0.097635001 0.094858997 -0.22683799
-0.097791001 0.094947003 -0.226891
-0.097951002 0.095095001 -0.22687399
-0.097789496 0.095046997 -0.22684151
-0.097949997 0.095163003 -0.22684699
-0.097948998 0.095229998 -0.226815
-0.070656002 0.095469996 -0.226833
-0.070595004 0.095467001 -0.226849
-0.098196 0.095597997 -0.226887
-0.070522003 0.095537998 -0.22687501
-0.098194003 0.095665999 -0.226863
-0.070524 0.095600002 -0.22680201
-0.098192997 0.095733002 -0.22684
-0.070436001 0.095746003 -0.226871
-0.098189995 0.095835507 -0.22681001
-0.070436999 0.095811002 -0.22680099
-0.070344001 0.095845498 -0.226852
-0.070337504 0.096053004 -0.22681999
-0.070331998 0.096161999 -0.22684699
-0.070327997 0.096234001 -0.226858
-0.070324495 0.096340999 -0.22685
-0.070321001 0.096446 -0.226843
-0.070320003 0.096513003 -0.226817
-0.098390996 0.097989 -0.22686701
-0.098389 0.098057002 -0.226843
-0.098385498 0.098161995 -0.22684
-0.098380998 0.098266996 -0.22684599
-0.098379001 0.098337002 -0.22683901
-0.098373994 0.098443501 -0.226854
-0.098081999 0.098600999 -0.22682799
-0.097809002 0.098801002 -0.226832
-0.097634003 0.099072002 -0.226833
-0.097631 0.099143997 -0.226849
-0.097625002 0.099252999 -0.226877
-0.097620003 0.099358998 -0.226896
-0.097458005 0.099444501 -0.22682801
-0.097452 0.099554002 -0.226864
-0.097447 0.099661998 -0.226882
-0.097290002 0.099823996 -0.22681201
-0.097156003 0.099888504 -0.226818
-0.097283997 0.099900998 -0.22686601
-0.097151503 0.099964 -0.226849
-0.097011 0.099955 -0.226818
-0.097103998 0.100034 -0.226868
-0.097006001 0.10003 -0.226862
-0.096914001 0.100024 -0.226836
-0.096826494 0.1000565 -0.226833
-0.096745998 0.1000505 -0.22681899
-0.096662 0.1000825 -0.22682649
-0.096908003 0.100102 -0.2269
-0.096738003 0.100165 -0.22688501
-0.096657 0.1001595 -0.22687501
-0.096585996 0.100149 -0.226831
-0.094857 0.100142 -0.226842
-0.094701998 0.100198 -0.226803
-0.094654001 0.100192 -0.22680099
-0.093032002 0.100141 -0.22688501
-0.092851505 0.1001585 -0.22686401
-0.092767 0.100186 -0.22684599
-0.070176996 0.10013 -0.226859
-0.096539997 0.10024101 -0.22686566
-0.096326001 0.100276 -0.226806
-0.095287003 0.100299 -0.226863
-0.095118001 0.100223 -0.22684699
-0.094852 0.100219 -0.22689401
-0.094761997 0.1002465 -0.2268595
-0.094672002 0.100272 -0.226859
-0.094577499 0.1002595 -0.22683349
-0.093621999 0.100284 -0.22681101
-0.093456 0.100281 -0.22680999
-0.093343005 0.100283 -0.2268645
-0.092665501 0.100258 -0.2268835
-0.092565998 0.100244 -0.22682899
-0.091668002 0.100266 -0.226805
-0.091452003 0.100256 -0.22680099
-0.090628996 0.100296 -0.226805
-0.090572998 0.100294 -0.226807
-0.070265003 0.100203 -0.226834
-0.096318997 0.100356 -0.226878
-0.095771998 0.100321 -0.226827
-0.095634997 0.100331 -0.22689299
-0.095566496 0.1003205 -0.226882
-0.095471501 0.100311 -0.22687
-0.095371 0.100308 -0.22688299
-0.094548002 0.100335 -0.226889
-0.094430998 0.10033 -0.226836
-0.094278 0.100392 -0.22684801
-0.094001003 0.10038 -0.226826
-0.093814999 0.100373 -0.226836
-0.093735002 0.100368 -0.22682799
-0.093617 0.100363 -0.226859
-0.093536496 0.10036451 -0.22686151
-0.093450002 0.10036 -0.22686601
-0.092537999 0.100314 -0.226845
-0.092416003 0.100305 -0.22683699
-0.092261001 0.100375 -0.226862
-0.091994002 0.100358 -0.226817
-0.091737002 0.100348 -0.22684599
-0.091637999 0.100344 -0.226852
-0.091531001 0.1003405 -0.22686151
-0.090750001 0.100306 -0.226851
-0.090660006 0.10035267 -0.22686434
-0.090542004 0.1003665 -0.2268495
-0.090460002 0.100351 -0.226806
-0.090512 0.100436 -0.22688399
-0.090452999 0.100433 -0.22689199
-0.090361506 0.1004315 -0.22687051
-0.090244003 0.100426 -0.226854
-0.081431001 0.100498 -0.226805
-0.081304997 0.100497 -0.226841
-0.081215002 0.100492 -0.226824
-0.071544997 0.100415 -0.22685499
-0.087595999 0.100512 -0.226827
-0.081661999 0.100586 -0.22680999
-0.081593998 0.10059 -0.226854
-0.081423998 0.100577 -0.226869
-0.081370004 0.100502 -0.22685
-0.073305003 0.100559 -0.226888
-0.073224999 0.100553 -0.22685
-0.073123999 0.100559 -0.22688
-0.073040001 0.100544 -0.22681899
-0.072953999 0.100535 -0.22680099
-0.086824998 0.100694 -0.22687501
-0.081717998 0.100661 -0.226824
-0.081655003 0.100668 -0.22689
-0.086634003 0.10075 -0.22686949
-0.086556002 0.100741 -0.226842
-0.086309001 0.100795 -0.22680201
-0.081880003 0.100738 -0.226818
-0.081750497 0.1007405 -0.22687399
-0.086467996 0.100812 -0.22686949
-0.086379997 0.100801 -0.22682101
-0.086218998 0.100873 -0.226886
-0.086021997 0.100856 -0.22680201
-0.081963003 0.100814 -0.226845
-0.085744001 0.10099 -0.226844
-0.085531503 0.1010485 -0.2268265
-0.082640998 0.101056 -0.226807
-0.085466996 0.10112301 -0.22688401
-0.085354 0.1011105 -0.22683701
-0.082750499 0.1011315 -0.22684351
-0.085148998 0.10125 -0.22687601
-0.084662005 0.10129 -0.2268575
-0.084586002 0.101282 -0.226808
-0.083065003 0.101217 -0.22681201
-0.084866002 0.101311 -0.226898
-0.08478 0.101303 -0.226868
-0.084578998 0.101364 -0.22688399
-0.084417 0.101355 -0.226888
-0.084353998 0.101348 -0.226873
-0.084269002 0.101337 -0.22682101
-0.084574997 0.101436 -0.226896
-0.084349997 0.101423 -0.226898
-0.084085003 0.101415 -0.22689401
-0.08602 0.086232997 -0.22678
-0.085965998 0.086231001 -0.226799
-0.085858494 0.0862955 -0.22678301
-0.085734501 0.086254507 -0.22678301
-0.085647002 0.086285003 -0.22677299
-0.085550003 0.086278997 -0.22678199
-0.086314999 0.086352497 -0.22676301
-0.086134501 0.086345002 -0.22675601
-0.0860475 0.086337499 -0.22673151
-0.085964501 0.086333498 -0.2267475
-0.085857496 0.086363502 -0.22674149
-0.085732996 0.086355999 -0.22673
-0.085646003 0.086351998 -0.22672699
-0.085548997 0.086347997 -0.226743
-0.085450999 0.086345002 -0.226794
-0.086313002 0.086455002 -0.22672001
-0.086133003 0.086447999 -0.22670799
-0.085857004 0.086431503 -0.226705
-0.085546002 0.086449996 -0.226712
-0.085450001 0.086448506 -0.2267385
-0.085361496 0.086444497 -0.22674599
-0.085252337 0.086447336 -0.22678266
-0.084310003 0.086497001 -0.22679999
-0.084233999 0.086492002 -0.226797
-0.086577997 0.086542003 -0.22677401
-0.085239999 0.086537495 -0.22672799
-0.085129999 0.086537503 -0.226778
-0.085049003 0.086533003 -0.22676601
-0.084994003 0.086597003 -0.22677501
-0.084491998 0.086576 -0.226778
-0.084353998 0.086568505 -0.22676599
-0.084233001 0.086561002 -0.22675499
-0.084115997 0.086553998 -0.226779
-0.083961003 0.086545996 -0.226744
-0.083820999 0.086535998 -0.22677501
-0.083725996 0.086534001 -0.22678301
-0.083458997 0.086586997 -0.226778
-0.083361998 0.086585999 -0.22679301
-0.082139 0.086599 -0.22679999
-0.081941999 0.086580001 -0.226785
-0.086775497 0.086652502 -0.226771
-0.086576 0.086646006 -0.2267265
-0.085202999 0.086604998 -0.226703
-0.085129499 0.086607002 -0.22673899
-0.085074 0.086638004 -0.2267185
-0.0849595 0.086664498 -0.22677
-0.084749997 0.086658999 -0.22679301
-0.084661998 0.086654998 -0.22677299
-0.084578998 0.086649999 -0.226761
-0.084490001 0.086645998 -0.22675601
-0.084353 0.086637497 -0.226733
-0.084230997 0.086631 -0.22672901
-0.084114499 0.086657003 -0.2267255
-0.083959997 0.086615004 -0.226702
-0.083820999 0.086603999 -0.226714
-0.083725996 0.086599998 -0.22671901
-0.083635002 0.086602002 -0.226751
-0.083361998 0.086652003 -0.22673699
-0.083269998 0.086652003 -0.22677
-0.083199002 0.086653002 -0.22679999
-0.082556002 0.086686499 -0.22677951
-0.0824285 0.086645499 -0.22676951
-0.082339503 0.086641505 -0.22675601
-0.082234748 0.086637996 -0.22676575
-0.082139 0.086668 -0.226742
-0.0819415 0.086649001 -0.2267395
-0.081845999 0.086645 -0.226758
-0.081754997 0.086643003 -0.22676501
-0.081667997 0.08664 -0.226768
-0.081565998 0.086639002 -0.226796
-0.087367997 0.086796001 -0.226787
-0.087208003 0.086783998 -0.226786
-0.087126002 0.086777493 -0.2267715
-0.087047003 0.086735994 -0.2267625
-0.086969338 0.086747341 -0.226762
-0.086854003 0.086763002 -0.22677
-0.086773999 0.086755998 -0.22672901
-0.084958501 0.086732998 -0.2267395
-0.084837496 0.086762503 -0.22675499
-0.084748 0.086763501 -0.22675401
-0.0846605 0.086757004 -0.226732
-0.084577002 0.086752504 -0.226722
-0.084488004 0.086747497 -0.22671601
-0.083269998 0.086721003 -0.22671001
-0.083151504 0.086751334 -0.22674817
-0.082873002 0.086734504 -0.22677499
-0.082703002 0.086759001 -0.22675601
-0.082556002 0.086753502 -0.2267275
-0.082427002 0.086747997 -0.226716
-0.081912003 0.086714998 -0.22670101
-0.081845999 0.086712003 -0.226704
-0.081754997 0.086709999 -0.226715
-0.081667997 0.086707003 -0.226712
-0.081565998 0.086708002 -0.226726
-0.081470504 0.086739004 -0.2267535
-0.081298001 0.086762004 -0.226767
-0.080641001 0.086796001 -0.226749
-0.080465496 0.086752996 -0.22675601
-0.080365002 0.086779997 -0.22672901
-0.080242001 0.086776495 -0.22673401
-0.087635502 0.086843506 -0.22678101
-0.087366998 0.086864002 -0.226753
-0.087208003 0.086851001 -0.226743
-0.087150998 0.086847 -0.22674
-0.087099999 0.086842999 -0.226732
-0.086924002 0.086836003 -0.226752
-0.086852998 0.086832002 -0.22673599
-0.086772002 0.086824 -0.22671001
-0.084925003 0.086800002 -0.226725
-0.084835 0.086865 -0.22673
-0.084747002 0.086865 -0.226704
-0.082870997 0.086837001 -0.226725
-0.082703002 0.086828001 -0.226704
-0.081297003 0.086831003 -0.22671901
-0.081105001 0.086856499 -0.226761
-0.081034005 0.086847998 -0.22675025
-0.080959998 0.086878002 -0.226763
-0.080854498 0.086875007 -0.226759
-0.080103002 0.086841002 -0.226726
-0.079945996 0.086827002 -0.22675
-0.087633997 0.086946003 -0.22673699
-0.087366 0.086933002 -0.226717
-0.087205 0.086954996 -0.226713
-0.087147996 0.086952001 -0.226712
-0.087097004 0.086946994 -0.226706
-0.086922005 0.086939499 -0.226722
-0.086850002 0.086935505 -0.2267115
-0.084831998 0.086934999 -0.226723
-0.082867995 0.086942002 -0.226706
-0.080959 0.086947002 -0.226714
-0.080899999 0.086946003 -0.226716
-0.079690002 0.086960003 -0.226759
-0.088016003 0.087034002 -0.22679999
-0.087891504 0.087062493 -0.22677401
-0.087631002 0.087050498 -0.226711
-0.087200999 0.087059997 -0.226706
-0.087144002 0.087056004 -0.226705
-0.084830999 0.087003998 -0.22670101
-0.079690002 0.087027997 -0.226703
-0.079554498 0.087058 -0.22677
-0.088165 0.087182999 -0.226799
-0.088014498 0.087136 -0.22674701
-0.087889999 0.087165996 -0.22673
-0.088311002 0.08726 -0.22679
-0.088233002 0.087254003 -0.22678
-0.0881375 0.087253004 -0.2267735
-0.088012002 0.087237999 -0.22670899
-0.087888002 0.087233998 -0.226711
-0.079410002 0.087226003 -0.22674701
-0.088307999 0.087364495 -0.22676399
-0.088230498 0.087357499 -0.22674149
-0.088135749 0.087356247 -0.22673875
-0.079306997 0.087362997 -0.226713
-0.088358335 0.087448336 -0.22674935
-0.088382997 0.087541997 -0.22671799
-0.079141997 0.087559998 -0.226742
-0.089993998 0.087696001 -0.22679099
-0.089688003 0.087682001 -0.226777
-0.089514002 0.087673999 -0.226778
-0.089235 0.08766 -0.22678401
-0.089036502 0.087648004 -0.22679499
-0.088548496 0.087660998 -0.226789
-0.079065003 0.087627999 -0.22674149
-0.078928001 0.087688997 -0.22673599
-0.078598 0.087676004 -0.226795
-0.089963496 0.087764502 -0.22676849
-0.089870997 0.087761998 -0.226781
-0.089686997 0.087751001 -0.226749
-0.089511998 0.087742999 -0.226757
-0.089232996 0.087763995 -0.22674499
-0.089034252 0.087752491 -0.22675624
-0.088946 0.087748498 -0.2267445
-0.088884003 0.087777004 -0.22676399
-0.088545002 0.087764002 -0.226778
-0.078598998 0.087742999 -0.226722
-0.078433 0.087737001 -0.226748
-0.078340001 0.087729998 -0.22676399
-0.078240998 0.087761998 -0.2267485
-0.078162 0.087794997 -0.226739
-0.078065 0.087787002 -0.226768
-0.090214998 0.087849997 -0.226788
-0.089963004 0.087832004 -0.2267375
-0.089869499 0.087863505 -0.2267265
-0.089685999 0.087819003 -0.22671901
-0.089511 0.087811001 -0.226731
-0.089230001 0.087866001 -0.22671901
-0.089031503 0.087857001 -0.22672901
-0.088944003 0.087853 -0.226705
-0.088882998 0.087847002 -0.226743
-0.088544004 0.087834001 -0.226753
-0.078065 0.087854996 -0.22670799
-0.090213001 0.087952003 -0.22675949
-0.089961499 0.087901503 -0.22670901
-0.089037664 0.087948672 -0.22671567
