-0.0835907 -0.0178909 0.996339 0
-0.0851818 -0.0179226 0.996204 0.00243259
-0.085296 -0.0178634 0.996195 0.00459246
-0.0864488 -0.0180245 0.996093 0.00730281
-0.0850675 -0.0179304 0.996214 0.00708533
-0.0848932 -0.0176687 0.996233 0.00484544
-0.0875744 -0.0177207 0.996 0.00742144
-0.0884024 -0.0180469 0.995921 0.0100896
-0.0884462 -0.017787 0.995922 0.00901036
-0.0894972 -0.0179379 0.995825 0.0127284
-0.0905318 -0.0179153 0.995732 0.0153458
-0.0933975 -0.0180541 0.995465 0.0189179
-0.0916512 -0.0178024 0.995632 0.017531
-0.0926719 -0.0178168 0.995537 0.0183172
-0.0929017 -0.0178905 0.995515 0.0191696
-0.0913718 -0.0176008 0.995661 0.0166717
-0.0916241 -0.0174297 0.995641 0.0169472
-0.0890365 -0.017174 0.99588 0.0137447
-0.0877931 -0.0168086 0.995997 0.0106127
-0.0846752 -0.016401 0.996274 0.00482665
-0.0850604 -0.0163946 0.996241 0.00694358
-0.0860024 -0.0162939 0.996162 0.00548328
-0.0884898 -0.0163368 0.995943 0.00863215
-0.0895289 -0.0164488 0.995848 0.0121205
-0.0872231 -0.0162665 0.996056 0.0115282
-0.0869998 -0.0161138 0.996078 0.0103824
-0.089426 -0.0160879 0.995863 0.0131323
-0.0891585 -0.0160933 0.995887 0.0137267
-0.0878683 -0.0159057 0.996005 0.0102047
-0.0865481 -0.0159273 0.99612 0.00959136
-0.0863939 -0.0159009 0.996134 0.00907479
-0.0865042 -0.0158739 0.996125 0.00787526
-0.0869718 -0.0161759 0.996079 0.00957619
-0.0870026 -0.0161567 0.996077 0.00904831
-0.0873446 -0.0162244 0.996046 0.0114785
-0.0857052 -0.016159 0.996189 0.00730447
-0.0836415 -0.015984 0.996368 0.000546339
-0.0824894 -0.0161204 0.996462 0
-0.0819039 -0.0161892 0.996509 0
-0.0816868 -0.0163393 0.996524 0
-0.0795372 -0.0163486 0.996698 0
-0.0810932 -0.0164345 0.996571 0
-0.0792583 -0.0165106 0.996717 0
-0.0812155 -0.016637 0.996558 0
-0.0820822 -0.016709 0.996485 0
-0.0803021 -0.0166854 0.996631 0
-0.0819454 -0.0167079 0.996497 0
-0.0811595 -0.016761 0.99656 0
-0.0820128 -0.0168319 0.996489 0
-0.0834482 -0.0168569 0.996369 0
-0.0836281 -0.0167956 0.996355 0
-0.0845331 -0.01686 0.996278 0
-0.0846253 -0.0168545 0.99627 0
-0.0841353 -0.0168285 0.996312 0
-0.0868192 -0.0168655 0.996081 0
-0.088782 -0.0170263 0.995906 0.00340158
-0.0901811 -0.0171235 0.995778 0.00585863
-0.0912394 -0.0172693 0.995679 0.00951292
-0.0900886 -0.0171981 0.995785 0.00891749
-0.0908834 -0.0171457 0.995714 0.00878989
-0.0915218 -0.0171479 0.995655 0.00946823
-0.0930478 -0.0172982 0.995511 0.0129754
-0.0918872 -0.0172801 0.99562 0.0130985
-0.0924288 -0.017412 0.995567 0.0166097
-0.093682 -0.0173604 0.995451 0.016365
-0.0933587 -0.017347 0.995481 0.0173734
-0.0916627 -0.0171387 0.995643 0.0134729
-0.0877234 -0.016883 0.996002 0.00711605
-0.0852579 -0.0168386 0.996217 0.00337124
-0.0843522 -0.0166539 0.996297 0.00370249
-0.0828566 -0.016547 0.996424 0.000271561
-0.082626 -0.0164873 0.996444 0
-0.0829544 -0.0165377 0.996416 0
-0.0827021 -0.0164277 0.996439 0
-0.083728 -0.0163789 0.996354 0
-0.0830416 -0.016306 0.996413 0
-0.0834572 -0.0162117 0.996379 0
-0.0823312 -0.0162051 0.996473 0
-0.0827129 -0.0161167 0.996443 0
-0.0834268 -0.0160023 0.996385 0
-0.083905 -0.0158808 0.996347 0
-0.0859184 -0.0157478 0.996178 2.18292e-05
-0.0853844 -0.0157139 0.996224 0.0027973
-0.0852925 -0.0155787 0.996234 0.00240307
-0.085762 -0.0153951 0.996197 8.93721e-05
-0.0843051 -0.0152587 0.996323 0
-0.0863739 -0.0152056 0.996147 0.00129171
-0.0839983 -0.0150732 0.996352 0.000570691
-0.0861112 -0.01511 0.996171 0.003294
-0.0838441 -0.0149361 0.996367 0
-0.0851806 -0.014941 0.996253 0.00105765
-0.0845829 -0.014899 0.996305 0
-0.0853758 -0.0149512 0.996237 0.00189729
-0.0865111 -0.0150411 0.996137 0.00601169
-0.0857714 -0.0150519 0.996201 0.00522082
-0.0856796 -0.0151852 0.996207 0.00626231
-0.0849497 -0.0151325 0.99627 0.0031681
-0.0840839 -0.0151501 0.996343 0.004436
-0.0852595 -0.0151941 0.996243 0.00552115
-0.0856247 -0.0151389 0.996212 0.00403366
-0.0852083 -0.0151099 0.996249 0.00373245
-0.0863482 -0.0151781 0.996149 0.00870442
-0.0851888 -0.0150994 0.99625 0.00852522
-0.0836121 -0.0147339 0.996389 0.00716427
-0.0839268 -0.014412 0.996368 0.00821698
-0.0799792 -0.0138835 0.9967 0.0020665
-0.080253 -0.0134979 0.996683 0.000682101
-0.0798987 -0.0131677 0.996716 4.56639e-06
-0.0801365 -0.0128637 0.996701 0
-0.0801457 -0.0125699 0.996704 0
-0.0802844 -0.012244 0.996697 0.00127351
-0.082528 -0.0118849 0.996518 0
-0.082257 -0.0115451 0.996544 0
-0.0830412 -0.0112238 0.996483 0
-0.0816267 -0.0108481 0.996604 0
-0.0800266 -0.0105341 0.996737 0
-0.0797475 -0.0101337 0.996764 0
-0.0793287 -0.00977535 0.996801 0
-0.07923 -0.00946523 0.996811 0
-0.0786115 -0.00915347 0.996863 0
-0.0788032 -0.00876983 0.996852 0
-0.0790359 -0.00851811 0.996835 0
-0.0809333 -0.00834242 0.996685 0
-0.0805571 -0.00812709 0.996717 0
-0.0804977 -0.00793289 0.996723 0
-0.0806025 -0.00764991 0.996717 0
-0.0799859 -0.00729502 0.996769 0
-0.0797135 -0.00696326 0.996794 0
-0.0796549 -0.00652099 0.996801 0
-0.0805707 -0.00639564 0.996728 0
-0.0813796 -0.00598828 0.996665 0
-0.0806613 -0.00537056 0.996727 0
-0.0809692 -0.0050519 0.996704 0
-0.0815545 -0.00472207 0.996658 0
-0.0811701 -0.00415896 0.996692 0
-0.0814783 -0.00370254 0.996668 0
-0.0805514 -0.00306881 0.996746 0
-0.0793998 -0.00214568 0.996841 0
-0.0778595 -0.00130614 0.996964 0
-0.0787148 -0.000857558 0.996897 0
-0.0785251 -0.000436324 0.996912 0.000446101
-0.0790788 0.000182771 0.996868 0.00280443
-0.079304 0.000864229 0.99685 0.00402172
-0.0794009 0.00155333 0.996842 0.00251243
-0.0778439 0.00264758 0.996962 0.00172837
-0.0766876 0.00358205 0.997049 0.0021403
-0.0762662 0.00445468 0.997078 0.00445046
-0.0756126 0.0054278 0.997122 0.00586542
-0.0748087 0.00656139 0.997176 0.00530672
-0.0745572 0.00708227 0.997192 0.00412159
-0.0738371 0.00772333 0.99724 0.00217567
-0.0745115 0.00797197 0.997188 0.00252055
-0.0734258 0.00867627 0.997263 0.00231712
-0.0736798 0.0091228 0.99724 0.00346192
-0.0740256 0.00939252 0.997212 0.00449325
-0.0743242 0.00952575 0.997189 0.00488809
-0.0732985 0.0101642 0.997258 0.00351288
-0.0443554 -0.187668 0.981231 0
-0.0447645 -0.180713 0.982517 0
-0.0456969 -0.172183 0.984004 0
-0.0461896 -0.165881 0.985063 0
-0.0466534 -0.160425 0.985945 0
-0.0486572 -0.161562 0.985662 0.00529068
-0.049755 -0.158738 0.986066 0.00849079
-0.0497353 -0.148508 0.98766 0.00317532
-0.0495698 -0.144916 0.988201 0.00345835
-0.0501131 -0.140475 0.988815 0.00463952
-0.0502168 -0.132502 0.98991 0.00145927
-0.0490982 -0.128525 0.99049 0.00218659
-0.0490287 -0.124412 0.991019 0.000900376
-0.0493768 -0.122489 0.991241 0.00502849
-0.0489459 -0.117577 0.991857 0.00442717
-0.0484191 -0.112648 0.992455 0.00315887
-0.0478012 -0.109651 0.99282 0.00232672
-0.048149 -0.108081 0.992975 0.00612654
-0.0473266 -0.103098 0.993545 0.00311636
-0.0461164 -0.0989522 0.994023 0.00450715
-0.0465227 -0.0950763 0.994382 0.0027981
-0.0475613 -0.0919328 0.994629 0.00487807
-0.0468963 -0.0887997 0.994945 0.00495039
-0.0495477 -0.0840782 0.995227 0.00285563
-0.0485566 -0.0804242 0.995577 0.0023426
-0.048633 -0.0766678 0.99587 0.0027549
-0.0480706 -0.0745353 0.996059 0.00381115
-0.0480588 -0.0708239 0.99633 0.00198028
-0.0485226 -0.0676223 0.99653 0
-0.0476909 -0.0644576 0.99678 0
-0.0476653 -0.0619677 0.996939 0
-0.0495311 -0.0587787 0.997042 0
-0.0509131 -0.0564117 0.997109 0
-0.0507841 -0.0545929 0.997216 0
-0.0514827 -0.0526037 0.997287 0
-0.0505483 -0.0504433 0.997447 0
-0.0504027 -0.0493644 0.997508 0.00285895
-0.0500135 -0.0477798 0.997605 0.000554119
-0.0493888 -0.0466573 0.997689 0.00204855
-0.0508481 -0.0460241 0.997645 0.00476318
-0.0528272 -0.0454246 0.99757 0.00625075
-0.0534732 -0.0444617 0.997579 0.00826245
-0.0546761 -0.0438293 0.997542 0.00854031
-0.0540659 -0.0415947 0.997671 0.0052206
-0.0526595 -0.0394074 0.997835 0.00139369
-0.0517419 -0.0365941 0.99799 0
-0.0532953 -0.0368418 0.997899 0.00464537
-0.0536301 -0.0358626 0.997917 0.0023044
-0.0565972 -0.0362731 0.997738 0.00975566
-0.057516 -0.0361825 0.997689 0.0123528
-0.0584069 -0.0339269 0.997716 0.00850012
-0.057054 -0.0326261 0.997838 0.00563922
-0.0614273 -0.0329111 0.997569 0.0111186
-0.0604261 -0.0317362 0.997668 0.00738024
-0.0604127 -0.0310264 0.997691 0.00655449
-0.0590612 -0.0292119 0.997827 0
-0.060122 -0.0282613 0.997791 0
-0.0604358 -0.0280456 0.997778 0
-0.060742 -0.0269899 0.997788 0
-0.062548 -0.0265777 0.997688 0
-0.0620832 -0.0264613 0.99772 0
-0.0640078 -0.0255437 0.997622 0
-0.0647182 -0.0252162 0.997585 0
-0.0656377 -0.0238753 0.997558 0
-0.0658297 -0.0222856 0.997582 0.000502672
-0.066884 -0.020997 0.99754 0.00491317
-0.0659378 -0.0191923 0.997639 0.00302276
-0.0650299 -0.017747 0.997725 0.000287467
-0.0668282 -0.0160927 0.997635 0.00126415
-0.0654842 -0.0149279 0.997742 0.00289046
-0.0648907 -0.0131529 0.997806 0.00373684
-0.064122 -0.0112984 0.997878 0.00135112
-0.0649897 -0.0102339 0.997833 0.00425564
-0.0652117 -0.00924359 0.997829 0.00244218
-0.0664809 -0.00893191 0.997748 0.00672143
-0.0671313 -0.00816513 0.997711 0.00758878
-0.0674088 -0.0073527 0.997698 0.00784812
-0.0695923 -0.00657279 0.997554 0.0082184
-0.0688266 -0.00616193 0.99761 0.00896554
-0.0686895 -0.00599433 0.99762 0.0101429
-0.070192 -0.0059915 0.997515 0.0137054
-0.0702167 -0.00524693 0.997518 0.0121666
-0.0688142 -0.00460934 0.997619 0.0116337
-0.0689912 -0.00442895 0.997607 0.00958827
-0.0699274 -0.00466042 0.997541 0.0104532
-0.0685009 -0.00491139 0.997639 0.00619324
-0.0684902 -0.0048479 0.99764 0.00579312
-0.067297 -0.00507664 0.99772 0.00549763
-0.0678445 -0.005022 0.997683 0.00529528
-0.0662181 -0.00489499 0.997793 0.00259792
-0.065825 -0.00524134 0.997817 0.00217533
-0.0664915 -0.00579215 0.99777 0.00371181
-0.0651266 -0.00606799 0.997859 0.00259403
-0.066252 -0.00674475 0.99778 0.0038149
-0.0646545 -0.00684329 0.997884 0
-0.0662154 -0.00710293 0.99778 0
-0.0654305 -0.00732688 0.99783 0
-0.0648901 -0.00763214 0.997863 0
-0.0663038 -0.00802507 0.997767 0
-0.0650932 -0.00864813 0.997842 0
-0.0661538 -0.00894662 0.997769 0
-0.0634933 -0.00899923 0.997942 0
-0.0639331 -0.00947346 0.997909 0
-0.063813 -0.00985074 0.997913 0
-0.0644136 -0.0101194 0.997872 0
-0.0639921 -0.010358 0.997897 0
-0.0635667 -0.0104077 0.997923 0
-0.0630531 -0.0105626 0.997954 0
-0.0618309 -0.0111391 0.998024 0
-0.0615071 -0.0116932 0.998038 0
-0.0628734 -0.0119408 0.99795 0
-0.0629679 -0.0125358 0.997937 0
-0.0632807 -0.0128937 0.997912 0
-0.0645399 -0.0135422 0.997823 0
-0.0651188 -0.0138339 0.997782 0.00168467
-0.0632424 -0.0142605 0.997896 0.000635914
-0.0637 -0.0147298 0.99786 0.000853231
-0.0630817 -0.0150103 0.997895 0
-0.0644011 -0.0154444 0.997805 0.0015831
-0.0634845 -0.0160319 0.997854 0.00322445
-0.0642552 -0.0165418 0.997796 0.000631533
-0.06315 -0.0168107 0.997862 0
-0.0636478 -0.0175815 0.997818 0
-0.0624496 -0.0180041 0.997886 0
-0.0606154 -0.0179484 0.998 0
-0.0619717 -0.0181478 0.997913 0
-0.0612752 -0.0181567 0.997956 0
-0.0620723 -0.0184994 0.9979 0
-0.0643704 -0.0188457 0.997748 0.00239002
-0.0635786 -0.0191658 0.997793 0.000141085
-0.063406 -0.0194398 0.997798 0
-0.0643117 -0.0196452 0.997736 0.000269585
-0.0647721 -0.019745 0.997705 0.0021549
-0.0650255 -0.0199676 0.997684 0.000118675
-0.0634451 -0.019726 0.99779 0
-0.062336 -0.0195959 0.997863 0
-0.0626601 -0.0193463 0.997847 0
-0.0621312 -0.0191718 0.997884 0
-0.0603929 -0.0185697 0.998002 0
-0.0590139 -0.0183223 0.998089 0
-0.060565 -0.0185624 0.997992 0
-0.0596928 -0.0184716 0.998046 0
-0.0591718 -0.0184271 0.998078 0
-0.0610213 -0.018256 0.99797 0
-0.058627 -0.0175368 0.998126 0
-0.0590033 -0.0175193 0.998104 0
-0.0583033 -0.0173546 0.998148 0
-0.0571836 -0.0171729 0.998216 0
-0.0577983 -0.0171883 0.99818 0
-0.0591773 -0.0173397 0.998097 0
-0.0573041 -0.0168669 0.998214 0
-0.0574638 -0.0167225 0.998208 0
-0.0582661 -0.0166403 0.998162 0
-0.0594545 -0.0167277 0.998091 0
-0.0604258 -0.0170349 0.998027 0
-0.0586936 -0.0168444 0.998134 0
-0.0589909 -0.0168462 0.998116 0
-0.0591557 -0.0169417 0.998105 0
-0.0605683 -0.0172053 0.998016 0
-0.0619584 -0.0169825 0.997934 0
-0.0612042 -0.0172331 0.997976 0
-0.062036 -0.0173344 0.997923 0
-0.0603216 -0.0171673 0.998031 0
-0.0614361 -0.0172253 0.997962 0
-0.0611683 -0.0172104 0.997979 0
-0.0606214 -0.0173923 0.998009 0
-0.0598446 -0.0171247 0.998061 0
-0.059573 -0.0172353 0.998075 0
-0.0582221 -0.0169099 0.99816 0
-0.0584923 -0.0170141 0.998143 0
-0.0595535 -0.0170978 0.998079 0
-0.0602458 -0.017171 0.998036 0
-0.0600782 -0.0170464 0.998048 0
-0.0629037 -0.0168379 0.997878 0
-0.0643241 -0.0168436 0.997787 0.00268779
-0.0623738 -0.016244 0.997921 0
-0.0622095 -0.0158658 0.997937 0
-0.0630652 -0.0158394 0.997884 0.00281507
-0.061611 -0.0155086 0.99798 0
-0.0594074 -0.0151507 0.998119 0
-0.0589131 -0.0150863 0.998149 0
-0.0594854 -0.0150212 0.998116 0
-0.0575486 -0.0146826 0.998235 0
-0.056613 -0.0146212 0.998289 0
-0.056707 -0.0146135 0.998284 0
-0.0577587 -0.0144993 0.998225 0
-0.0564734 -0.0141407 0.998304 0
-0.0551581 -0.0137429 0.998383 0
-0.0562064 -0.0138656 0.998323 0
-0.0548811 -0.0138331 0.998397 0
-0.0551237 -0.0136403 0.998386 0
-0.0562982 -0.0138845 0.998317 0
-0.0573721 -0.0138809 0.998256 0.000196677
-0.0593285 -0.013781 0.998143 0.00176063
-0.0574811 -0.0136992 0.998253 0
-0.0562454 -0.0133193 0.998328 0
-0.0568244 -0.0137396 0.99829 0
-0.0579221 -0.0137998 0.998226 0.00221528
-0.0583422 -0.0138463 0.998201 0.00477282
-0.0592086 -0.0136832 0.998152 0.00477394
-0.0591043 -0.0140879 0.998152 0.00720353
-0.0599571 -0.0137528 0.998106 0.00647334
-0.0584579 -0.0138186 0.998194 0.00520873
-0.0569076 -0.0132364 0.998292 0.000665434
-0.0574543 -0.0130152 0.998263 1.14486e-05
-0.0582246 -0.0131019 0.998218 0.00107367
-0.057827 -0.0130591 0.998241 0.00199173
-0.0569153 -0.012951 0.998295 0.00120981
-0.0575481 -0.0131705 0.998256 0.0022055
-0.058377 -0.0131165 0.998208 0.00153144
-0.0588333 -0.0133587 0.998178 0.00165563
-0.0598785 -0.0135627 0.998114 0.00262557
-0.0613249 -0.0140271 0.998019 0.00609275
-0.0647243 -0.0147322 0.997794 0.0104054
-0.0670638 -0.0152908 0.997632 0.0151255
-0.0684781 -0.0155722 0.997531 0.0163085
-0.0706233 -0.0157827 0.997378 0.0180203
-0.0704037 -0.015812 0.997393 0.0163791
-0.070636 -0.0162962 0.997369 0.018729
-0.071377 -0.0165564 0.997312 0.0187544
-0.0696681 -0.0166441 0.997431 0.0181906
-0.0711839 -0.0169594 0.997319 0.0192904
-0.0696407 -0.0168993 0.997429 0.0171233
-0.066227 -0.0169202 0.997661 0.0148645
-0.0652673 -0.0168403 0.997726 0.0119381
-0.0631973 -0.0168535 0.997859 0.00832604
-0.063014 -0.016994 0.997868 0.00620754
-0.0610428 -0.0167669 0.997994 0.00282664
-0.0594601 -0.0170743 0.998085 0.00260519
-0.058961 -0.0171235 0.998113 0.000378244
-0.0596795 -0.0175672 0.998063 0.00435972
-0.0611635 -0.0178553 0.997968 0.00766514
-0.0591923 -0.0178714 0.998087 0.00614492
-0.0586942 -0.0180123 0.998113 0.00578917
-0.0582303 -0.0179644 0.998142 0.00304419
-0.0564014 -0.0178336 0.998249 0
-0.0554554 -0.017846 0.998302 0
-0.0544699 -0.0178026 0.998357 0
-0.0533281 -0.0178219 0.998418 0
-0.0526807 -0.0178163 0.998452 0
-0.0518908 -0.0179228 0.998492 0
-0.0506847 -0.0181181 0.99855 0
-0.0530016 -0.0182768 0.998427 0.00262971
-0.0511876 -0.0181182 0.998525 0.00103624
-0.0532017 -0.018414 0.998414 0.00283213
-0.0520743 -0.0182739 0.998476 0.000422874
-0.0503519 -0.0183568 0.998563 0
-0.0508662 -0.0184196 0.998536 0
-0.0502824 -0.0184192 0.998565 0
-0.0509978 -0.0185982 0.998526 0
-0.0492068 -0.0186707 0.998614 0
-0.0501237 -0.0188526 0.998565 0
-0.0490041 -0.0188081 0.998621 0
-0.0493012 -0.0190743 0.998602 0
-0.0495706 -0.019221 0.998586 0.00111022
-0.0512766 -0.0194849 0.998494 0.00402398
-0.0511786 -0.0199049 0.998491 0.00760238
-0.0528034 -0.0202886 0.998399 0.0119568
-0.0541055 -0.0204082 0.998327 0.0138197
-0.0541943 -0.0206376 0.998317 0.016673
-0.055654 -0.0208442 0.998232 0.0175308
-0.0537638 -0.0205565 0.998342 0.0157462
-0.0548976 -0.0206787 0.998278 0.019325
-0.0515421 -0.0203244 0.998464 0.0127153
-0.049662 -0.0198713 0.998568 0.00845967
-0.0480409 -0.0193789 0.998657 0.00242576
-0.0450713 -0.0190618 0.998802 0
-0.0447197 -0.0190767 0.998817 0
-0.0430161 -0.0189089 0.998895 0
-0.0395709 -0.0186378 0.999043 0
-0.0395449 -0.0185447 0.999046 0
-0.0387204 -0.0184052 0.999081 0
-0.0391915 -0.0183696 0.999063 0
-0.040781 -0.0181436 0.999003 0
-0.0422162 -0.018059 0.998945 0
-0.0425613 -0.0181273 0.998929 0
-0.0408879 -0.0181993 0.998998 0
-0.0411479 -0.0181955 0.998987 0
-0.0410041 -0.0182306 0.998993 0
-0.0434136 -0.0182599 0.99889 0
-0.0470218 -0.018409 0.998724 0
-0.0460465 -0.018508 0.998768 0
-0.0480658 -0.0185129 0.998673 0.000992852
-0.0463528 -0.0183568 0.998756 0
-0.0450272 -0.0182459 0.998819 0
-0.0444043 -0.0180662 0.99885 0
-0.0447431 -0.0180133 0.998836 0
-0.0456833 -0.017955 0.998795 0
-0.0455989 -0.0178762 0.9988 0
-0.0465979 -0.0178512 0.998754 0
-0.0469802 -0.0178682 0.998736 0
-0.0457962 -0.0178475 0.998791 0
-0.0450375 -0.017656 0.998829 0
-0.044194 -0.0175699 0.998868 0
-0.0439757 -0.0174388 0.99888 0
-0.044918 -0.0172755 0.998841 0
-0.0436478 -0.0172098 0.998899 0
-0.0419079 -0.0170528 0.998976 0
-0.0409648 -0.0168977 0.999018 0
-0.0407629 -0.0168091 0.999027 0
-0.0412817 -0.0166847 0.999008 0
-0.0405522 -0.0167484 0.999037 0
-0.0416494 -0.0166865 0.998993 0
-0.0442192 -0.0168224 0.99888 0
-0.044523 -0.0168558 0.998866 0.000308223
-0.0439111 -0.0169272 0.998892 0.000901668
-0.0455409 -0.0170112 0.998818 0.000861665
-0.0449974 -0.0170456 0.998842 0
-0.0473412 -0.0172685 0.998729 0.00016807
-0.0477407 -0.0173699 0.998709 0.000782713
-0.0484984 -0.0174 0.998672 0.000847908
-0.0464107 -0.0173386 0.998772 0
-0.0456735 -0.0174717 0.998804 0
-0.0461401 -0.017538 0.998781 0
-0.0453945 -0.0176103 0.998814 0
-0.0447357 -0.0177071 0.998842 0
-0.0470569 -0.0177869 0.998734 0
-0.0468947 -0.0179116 0.998739 0
-0.0485994 -0.0180689 0.998655 0.00206254
-0.0505013 -0.0182981 0.998556 0.0072365
-0.0496687 -0.0182419 0.998599 0.00563122
-0.0496051 -0.0183055 0.998601 0.00650647
-0.0510359 -0.0184537 0.998526 0.00817906
-0.0515502 -0.0183556 0.998502 0.00637114
-0.0514217 -0.018547 0.998505 0.00962281
-0.0534824 -0.0186876 0.998394 0.0114249
-0.0518419 -0.0186473 0.998481 0.00755128
-0.0502545 -0.0183792 0.998567 0.00220276
-0.0492259 -0.0181916 0.998622 0
-0.0474196 -0.0182616 0.998708 0
-0.0479247 -0.0181148 0.998687 0
-0.048604 -0.0181825 0.998653 0
-0.0468855 -0.0181607 0.998735 0
-0.0470507 -0.0180792 0.998729 0
-0.0488237 -0.0181314 0.998643 0
-0.048087 -0.0181422 0.998678 0
-0.0482183 -0.0181729 0.998671 0.000977607
-0.0498113 -0.0183825 0.99859 0.00482075
-0.0503443 -0.0184655 0.998561 0.00728914
-0.0498427 -0.0184618 0.998586 0.00676227
-0.0482562 -0.0183551 0.998666 0.00488565
-0.0456983 -0.0182146 0.998789 0.00223672
-0.0451068 -0.0181059 0.998818 0.00168417
-0.0440544 -0.0180513 0.998866 0
-0.0423645 -0.0180195 0.99894 0
-0.0422208 -0.0179266 0.998948 0
-0.0420856 -0.017823 0.998955 0
-0.0427749 -0.0176683 0.998928 0
-0.0435003 -0.0176903 0.998897 0.00205624
-0.0422568 -0.0175713 0.998952 0
-0.0418256 -0.0174074 0.998973 0
-0.0427842 -0.0172866 0.998935 0
-0.0416191 -0.017187 0.998986 0
-0.0418577 -0.0171099 0.998977 0
-0.0399817 -0.0169686 0.999056 0
-0.0400248 -0.0168377 0.999057 0
-0.0394175 -0.0166462 0.999084 0
-0.0387699 -0.0165186 0.999112 0
-0.0390225 -0.0164442 0.999103 0
-0.0409203 -0.0163205 0.999029 0
-0.0414281 -0.0162201 0.99901 0
-0.0423013 -0.0160957 0.998975 0
-0.0425698 -0.0159973 0.998965 0
-0.0412746 -0.0158998 0.999021 0
-0.0412149 -0.0158163 0.999025 0
-0.0416176 -0.0158144 0.999008 0.0024621
-0.0425954 -0.0156707 0.998969 0.00336039
-0.0437613 -0.0154916 0.998922 0.00408807
-0.0408824 -0.0153103 0.999047 7.60855e-05
-0.0402417 -0.0152741 0.999073 0.000533637
-0.0374396 -0.0152132 0.999183 0
-0.0385862 -0.015033 0.999142 0
-0.0373249 -0.0149901 0.999191 0
-0.0364807 -0.015014 0.999222 0
-0.0360119 -0.0150582 0.999238 0
-0.0372517 -0.0150049 0.999193 0
-0.0376436 -0.014825 0.999181 0
-0.0388608 -0.0146128 0.999138 0.00132384
-0.0418152 -0.0145757 0.999019 0.00629512
-0.0424101 -0.0144124 0.998996 0.00676323
-0.0439919 -0.0140166 0.998934 0.0109205
-0.0435308 -0.0137771 0.998957 0.00868639
-0.0411147 -0.0133561 0.999065 0.00315948
-0.0418784 -0.0131815 0.999036 0.00576824
-0.0417275 -0.012686 0.999049 0.00618269
-0.0419135 -0.0122986 0.999045 0.0042166
-0.0397725 -0.0118855 0.999138 0.00209984
-0.0400154 -0.0115593 0.999132 0
-0.0381892 -0.0111619 0.999208 0
-0.0369513 -0.0107429 0.999259 0
-0.036593 -0.0103612 0.999277 0
-0.0356281 -0.00997006 0.999315 0
-0.0367678 -0.00948017 0.999279 0
-0.0371725 -0.00897664 0.999269 0
-0.0363483 -0.00842068 0.999304 0
-0.0366563 -0.00793001 0.999296 0
-0.0371271 -0.00744566 0.999283 0
-0.0370197 -0.00684969 0.999291 0
-0.0359955 -0.00636133 0.999332 0
-0.0346863 -0.00568996 0.999382 0
-0.0356582 -0.00516486 0.999351 0
-0.0353777 -0.004528 0.999364 0
-0.0362337 -0.0037578 0.999336 0
-0.0364768 -0.00324808 0.999329 0
-0.0340786 -0.00265906 0.999416 0
-0.0344764 -0.00197246 0.999404 0
-0.034925 -0.00131676 0.999389 0
-0.0339507 -0.000627135 0.999423 0
-0.0336361 3.7619e-05 0.999434 0
-0.032836 0.000800404 0.99946 0
-0.0339816 0.00150088 0.999421 0
-0.034684 0.00228618 0.999396 0.00231917
-0.0333947 0.00305217 0.999438 0
-0.0344642 0.00381628 0.999399 0.00116678
-0.0330279 0.00464599 0.999444 3.67881e-07
-0.0336106 0.00538534 0.999421 0.00349016
-0.0337064 0.00626565 0.999412 0.0046562
-0.0356946 0.00697123 0.999338 0.0069254
-0.0341884 0.0078349 0.999385 0.00494342
-0.0348764 0.00847882 0.999356 0.00578323
-0.0351564 0.00942806 0.999337 0.00454619
-0.0338831 0.0103433 0.999372 0.00308903
-0.0344788 0.01129 0.999342 0.00530316
-0.0336844 0.0122528 0.999357 0.00752292
-0.0346087 0.012932 0.999317 0.0103283
-0.0354307 0.0132976 0.999284 0.00833009
-0.0347789 0.013889 0.999299 0.0103115
-0.035372 0.0141814 0.999274 0.00960747
-0.0341241 0.0147309 0.999309 0.00907111
-0.0365303 0.0153878 0.999214 0.0116809
-0.0371252 0.0158965 0.999184 0.0126999
-0.0360033 0.0162233 0.99922 0.0111657
-0.0357951 0.0165129 0.999223 0.0103831
-0.0357679 0.0168364 0.999218 0.00947519
-0.0365955 0.017371 0.999179 0.0120414
-0.0366997 0.0176012 0.999171 0.012944
-0.0359281 0.0173293 0.999204 0.00903302
-0.0360432 0.0171816 0.999203 0.00864806
-0.035485 0.0175168 0.999217 0.00737669
-0.0285815 -0.197205 0.979946 0.0036828
-0.0279589 -0.168566 0.985294 0
-0.0292836 -0.163261 0.986148 0.000242394
-0.0300316 -0.156188 0.987271 0
-0.0311524 -0.15059 0.988105 0
-0.0308235 -0.144768 0.988985 0
-0.0325545 -0.141017 0.989472 0
-0.0326796 -0.138777 0.989784 0
-0.0325589 -0.133284 0.990543 0
-0.0319756 -0.127216 0.99136 0
-0.0314571 -0.123837 0.991804 0
-0.032146 -0.118789 0.992399 0
-0.0318935 -0.114327 0.992931 0
-0.0330128 -0.111155 0.993255 0
-0.0320671 -0.106429 0.993803 0
-0.0323183 -0.10413 0.994038 0
-0.0330246 -0.102232 0.994212 0
-0.0338468 -0.0998814 0.994424 0
-0.0313876 -0.097815 0.99471 0
-0.0324958 -0.0935633 0.995083 0
-0.0325336 -0.0910769 0.995312 8.43986e-05
-0.0326965 -0.0861815 0.995743 0
-0.0334936 -0.0833909 0.995954 0
-0.034135 -0.081655 0.996076 0.00111003
-0.0336269 -0.078184 0.996372 0
-0.0330644 -0.0759783 0.996561 0
-0.0351313 -0.0733097 0.99669 0
-0.0360635 -0.0713215 0.996801 0
-0.0362169 -0.0681721 0.997016 0
-0.0362985 -0.0642555 0.997273 0
-0.0423646 -0.0394766 0.998322 0
-0.0428212 -0.0372686 0.998387 0
-0.0454545 -0.0369667 0.998282 0.00269779
-0.0467754 -0.0361375 0.998251 0.00391424
-0.046666 -0.0350857 0.998294 0.00210027
-0.0478164 -0.0345853 0.998257 0.00189495
-0.0494906 -0.0333164 0.998219 0.00107678
-0.0506083 -0.0325741 0.998187 0.00156723
-0.050957 -0.0315279 0.998203 0
-0.0522885 -0.0305641 0.998164 0
-0.0516246 -0.0297819 0.998222 0
-0.0535718 -0.0289585 0.998144 0
-0.0533161 -0.0283173 0.998176 0
-0.0545774 -0.0281731 0.998112 0
-0.0558817 -0.0270995 0.99807 0.00319636
-0.0556977 -0.0252577 0.998128 0.00273306
-0.0562894 -0.0240929 0.998124 0.00309284
-0.0564202 -0.0235832 0.998129 0.00492364
-0.0578888 -0.0221657 0.998077 0.00951006
-0.0576965 -0.0210055 0.998113 0.0113078
-0.0582941 -0.0198294 0.998102 0.0147891
-0.0560834 -0.0179167 0.998265 0.0125987
-0.0560224 -0.0158271 0.998304 0.0106507
-0.0572041 -0.0146944 0.998254 0.0144707
-0.0547461 -0.0123669 0.998424 0.00982845
-0.0550874 -0.0113445 0.998417 0.00998482
-0.0564943 -0.0102906 0.99835 0.0119725
-0.0560442 -0.00979934 0.99838 0.0111876
-0.0553338 -0.00859413 0.998431 0.00934231
-0.0558499 -0.00844835 0.998403 0.00928516
-0.0557895 -0.00752839 0.998414 0.00980364
-0.0563327 -0.00681337 0.998389 0.0117218
-0.0544033 -0.00612747 0.9985 0.0115127
-0.0552075 -0.00582514 0.998458 0.0144628
-0.0544735 -0.00538405 0.998501 0.0108954
-0.0558942 -0.00531699 0.998423 0.0121007
-0.0546434 -0.00514114 0.998493 0.00885086
-0.0551287 -0.00510026 0.998466 0.0107524
-0.0539625 -0.00485778 0.998531 0.00808729
-0.0523593 -0.00447959 0.998618 0.00398867
-0.0529822 -0.00445143 0.998586 0.00133656
-0.0516205 -0.00451002 0.998657 0
-0.0509846 -0.0044207 0.99869 0.000114083
-0.0509745 -0.00490514 0.998688 0.000877329
-0.0495059 -0.00506886 0.998761 0.000192893
-0.0490076 -0.00527073 0.998784 0
-0.0496396 -0.0054643 0.998752 0
-0.050854 -0.00650956 0.998685 0.00190524
-0.0478209 -0.00618947 0.998837 0
-0.048313 -0.0061983 0.998813 0
-0.04943 -0.0065033 0.998756 0
-0.0519809 -0.00755202 0.998619 0
-0.0509829 -0.00840125 0.998664 8.16371e-05
-0.0512054 -0.00889915 0.998648 0
-0.050303 -0.0093994 0.99869 0
-0.0502433 -0.00983633 0.998689 0
-0.0505637 -0.0102653 0.998668 0
-0.0502952 -0.0108895 0.998675 0
-0.0505605 -0.0109953 0.99866 0
-0.0521223 -0.0110065 0.99858 0.00181055
-0.0511221 -0.0117192 0.998624 0.00167751
-0.0492885 -0.0117815 0.998715 0
-0.0483622 -0.0121935 0.998756 0
-0.0495833 -0.0127971 0.998688 0.00345175
-0.0493624 -0.0126832 0.9987 0.0020744
-0.0498066 -0.0132031 0.998672 0.00476906
-0.0496525 -0.0135687 0.998674 0.00398974
-0.0473339 -0.0142834 0.998777 0.00222248
-0.0497172 -0.0148618 0.998653 0.00507175
-0.0491681 -0.0154108 0.998672 0.00551499
-0.0476843 -0.0158287 0.998737 0.00423345
-0.0482354 -0.0164868 0.9987 0.0044384
-0.0451384 -0.0162194 0.998849 0
-0.0461954 -0.0166552 0.998794 0
-0.0458217 -0.0172095 0.998801 0
-0.0479661 -0.0178964 0.998689 0.00068264
-0.0472755 -0.0182064 0.998716 0.000710684
-0.0460903 -0.0182471 0.998771 0
-0.0460076 -0.0187828 0.998765 0
-0.0444672 -0.0187498 0.998835 0
-0.0448809 -0.0189724 0.998812 0
-0.044458 -0.019335 0.998824 0
-0.0452556 -0.0193962 0.998787 0
-0.0452404 -0.0197922 0.99878 0
-0.0455449 -0.0197263 0.998767 0
-0.0462714 -0.0195465 0.998738 0
-0.0460403 -0.0200041 0.998739 0
-0.0452839 -0.0202364 0.998769 0
-0.0448539 -0.0200265 0.998793 0
-0.0432999 -0.0196141 0.99887 0
-0.042222 -0.0192502 0.998923 0
-0.0423515 -0.0187949 0.998926 0
-0.0416506 -0.0191074 0.99895 0
-0.0435259 -0.0189187 0.998873 0
-0.0447494 -0.0183995 0.998829 0
-0.0455466 -0.0182911 0.998795 0
-0.0466121 -0.018481 0.998742 0
-0.0441723 -0.0179341 0.998863 0
-0.043322 -0.0177391 0.998904 0
-0.0428612 -0.0175846 0.998926 0
-0.0444923 -0.0177022 0.998853 0
-0.0446758 -0.0173333 0.998851 0
-0.0445198 -0.0170168 0.998864 0
-0.0450898 -0.0172692 0.998834 0
-0.0451338 -0.0173279 0.998831 0
-0.0452999 -0.0174225 0.998821 0
-0.0441175 -0.0171184 0.99888 0
-0.0461253 -0.0171624 0.998788 0
-0.0461144 -0.0175861 0.998781 0
-0.0470775 -0.0178376 0.998732 0
-0.0464402 -0.0176469 0.998765 0
-0.0471976 -0.0180823 0.998722 0
-0.0496385 -0.01804 0.998604 0
-0.0512651 -0.0182414 0.998518 0
-0.0489274 -0.0180567 0.998639 0
-0.0471094 -0.0177628 0.998732 0
-0.04703 -0.0180073 0.998731 0
-0.0463385 -0.0178699 0.998766 0
-0.0462379 -0.0178983 0.99877 0
-0.0453526 -0.0175644 0.998817 0
-0.0441285 -0.017477 0.998873 0
-0.0423622 -0.0174131 0.998951 0
-0.0431256 -0.0176513 0.998914 0
-0.044626 -0.0175149 0.99885 0
-0.0436099 -0.0170414 0.998903 0
-0.0455585 -0.0169869 0.998817 0.000744717
-0.0472308 -0.0173476 0.998733 0.00259874
-0.0470909 -0.0167926 0.998749 0.0019239
-0.0477449 -0.0162095 0.998728 0.00234393
-0.045151 -0.015775 0.998856 0
-0.0460576 -0.0158665 0.998813 0
-0.0455354 -0.0158998 0.998836 0
-0.0454548 -0.0158635 0.99884 0
-0.0456898 -0.0159563 0.998828 0
-0.0435132 -0.0158738 0.998927 0
-0.0423945 -0.0150343 0.998988 0
-0.0419023 -0.0149812 0.999009 0
-0.0409875 -0.0144705 0.999055 0
-0.0399634 -0.0140077 0.999103 0
-0.0400698 -0.0137502 0.999102 0
-0.039054 -0.013573 0.999145 0
-0.0390766 -0.0138981 0.99914 0
-0.0384573 -0.014093 0.999161 0
-0.0396267 -0.0143016 0.999112 0
-0.0405311 -0.0144223 0.999074 0
-0.0401018 -0.0144338 0.999091 0
-0.0403154 -0.0141077 0.999087 0
-0.0404361 -0.0142381 0.999081 0
-0.0415518 -0.0145803 0.99903 0.00182333
-0.0430383 -0.0146208 0.998966 0.00548421
-0.0451889 -0.0146277 0.998871 0.0104124
-0.0458731 -0.0148831 0.998836 0.012269
-0.0459789 -0.0149204 0.998831 0.0134233
-0.0440781 -0.0145716 0.998922 0.0089879
-0.0417947 -0.0142084 0.999025 0.00580151
-0.0410415 -0.0139135 0.999061 0.00192232
-0.0400528 -0.0136287 0.999105 0.00112283
-0.0392558 -0.0135867 0.999137 0
-0.0398707 -0.0133481 0.999116 0
-0.0395451 -0.0133791 0.999128 0
-0.0406637 -0.0136759 0.999079 0.0020533
-0.0403775 -0.013501 0.999093 0
-0.0393058 -0.0132873 0.999139 0
-0.0412833 -0.01388 0.999051 0.000236505
-0.0424618 -0.0138959 0.999001 0.00108183
-0.0431376 -0.0141201 0.998969 0.000668546
-0.0448621 -0.0145961 0.998887 0.00634445
-0.0466727 -0.0154273 0.998791 0.0110217
-0.0486856 -0.0157165 0.99869 0.0146183
-0.0507441 -0.0161868 0.99858 0.0189477
-0.0533438 -0.0166411 0.998438 0.0237428
-0.0531855 -0.0167949 0.998443 0.0237653
-0.0534891 -0.0171905 0.99842 0.0230146
-0.0529983 -0.0173906 0.998443 0.024536
-0.0503458 -0.0171727 0.998584 0.0188062
-0.0490958 -0.0173032 0.998644 0.0184908
-0.0482062 -0.0172821 0.998688 0.0163346
-0.0451111 -0.0174431 0.99883 0.0124273
-0.0438114 -0.0172434 0.998891 0.0101937
-0.0441691 -0.0172893 0.998874 0.00979793
-0.043159 -0.017322 0.998918 0.0080641
-0.0427038 -0.0175975 0.998933 0.0068215
-0.0418515 -0.0176457 0.998968 0.006895
-0.0392954 -0.0173225 0.999077 0.00175036
-0.0380114 -0.0172957 0.999128 0
-0.0377132 -0.0175418 0.999135 0
-0.0378561 -0.0177088 0.999126 7.07348e-06
-0.0366361 -0.0176154 0.999173 0
-0.0349353 -0.0176801 0.999233 0
-0.0352919 -0.0179428 0.999216 0.000529527
-0.0349684 -0.0179429 0.999227 0
-0.0327643 -0.0180221 0.999301 0
-0.0319362 -0.0180651 0.999327 0
-0.0319871 -0.0180284 0.999326 0
-0.0329626 -0.0183296 0.999288 0.000626121
-0.0330627 -0.018602 0.99928 0.000802124
-0.034706 -0.0190303 0.999216 0.00648169
-0.0353343 -0.0189895 0.999195 0.00611605
-0.0346655 -0.0189716 0.999219 0.006255
-0.0337861 -0.0188574 0.999251 0.00555043
-0.0337785 -0.0189562 0.99925 0.00566167
-0.0348988 -0.0189419 0.999211 0.00640507
-0.0372023 -0.0192584 0.999122 0.00894257
-0.0365747 -0.0195084 0.999141 0.00972903
-0.0331687 -0.0192471 0.999264 0.0071506
-0.0324512 -0.0192733 0.999287 0.00721774
-0.0301917 -0.01905 0.999363 0.00227671
-0.0292685 -0.0191414 0.999388 0.000568738
-0.0296651 -0.0195297 0.999369 0.00424926
-0.0277074 -0.0196364 0.999423 0.00593824
-0.0279675 -0.0196993 0.999415 0.0050218
-0.0273781 -0.0198428 0.999428 0.00515506
-0.029538 -0.0201795 0.99936 0.00746085
-0.0317088 -0.0207021 0.999283 0.0118423
-0.0303282 -0.0209304 0.999321 0.0128968
-0.0303602 -0.0209624 0.999319 0.014764
-0.0281799 -0.0206371 0.99939 0.0107464
-0.0249244 -0.0199633 0.99949 0
-0.0249205 -0.0196828 0.999496 0
-0.0242002 -0.0195197 0.999517 0
-0.0236771 -0.0196046 0.999527 0
-0.0208462 -0.0195439 0.999592 0
-0.0200805 -0.0193682 0.999611 0
-0.018772 -0.0191744 0.99964 0
-0.0186742 -0.0190988 0.999643 0
-0.0177147 -0.0190484 0.999662 0
-0.0206442 -0.0190738 0.999605 0
-0.02186 -0.0191051 0.999578 0
-0.024053 -0.0191123 0.999528 0
-0.0232177 -0.0191595 0.999547 0
-0.0229372 -0.0190533 0.999555 0
-0.0226152 -0.0191387 0.999561 0
-0.0216602 -0.0190841 0.999583 0
-0.0232172 -0.0189841 0.99955 0
-0.0254926 -0.0190198 0.999494 0.000754052
-0.0267089 -0.0193787 0.999455 0.00580512
-0.0245867 -0.0191208 0.999515 0.00244049
-0.0242305 -0.0187824 0.99953 0.000948823
-0.023724 -0.0188868 0.99954 0.000137538
-0.022678 -0.0187195 0.999568 0
-0.0241906 -0.0188541 0.99953 0
-0.0255934 -0.0188728 0.999494 0.00100186
-0.0265246 -0.0189202 0.999469 0.0025915
-0.0275767 -0.018999 0.999439 0.00309838
-0.0285932 -0.0190358 0.99941 0.00320881
-0.0268346 -0.0189234 0.999461 0.000133116
-0.0266554 -0.018877 0.999466 0
-0.0276512 -0.0189351 0.999438 0
-0.0286931 -0.0188881 0.99941 0
-0.0269123 -0.0188446 0.99946 0
-0.0285719 -0.0186125 0.999418 0
-0.0270417 -0.0185742 0.999462 0
-0.0274137 -0.0183854 0.999455 0
-0.0279519 -0.0182048 0.999443 0
-0.0280512 -0.0181121 0.999442 0
-0.0291696 -0.0180643 0.999411 0
-0.0303685 -0.0183423 0.99937 0.00299494
-0.0324935 -0.0183539 0.999303 0.00504261
-0.0352778 -0.0184402 0.999207 0.00638002
-0.0337423 -0.0184004 0.999261 0.00684097
-0.0359023 -0.018552 0.999183 0.00913106
-0.0352335 -0.018314 0.999211 0.00504269
-0.0335957 -0.0180535 0.999272 0.00223809
-0.0324697 -0.0178418 0.999313 0
-0.0321816 -0.0178053 0.999323 0
-0.0317952 -0.0177367 0.999337 0
-0.0309052 -0.0177181 0.999365 0
-0.032366 -0.0178678 0.999316 0
-0.0329688 -0.0178525 0.999297 0
-0.0330386 -0.0179569 0.999293 0
-0.033483 -0.0180193 0.999277 0
-0.0330385 -0.0181085 0.99929 0
-0.0348135 -0.0182191 0.999228 0.00321647
-0.0365297 -0.0184865 0.999162 0.00486509
-0.0363596 -0.0185479 0.999167 0.00540744
-0.0368114 -0.0185411 0.99915 0.00544203
-0.0376759 -0.0187947 0.999113 0.0100736
-0.038097 -0.0188917 0.999095 0.0114366
-0.0395712 -0.0190897 0.999034 0.0123161
-0.038409 -0.0189488 0.999082 0.00827431
-0.0356918 -0.0188328 0.999185 0.00555493
-0.0329913 -0.0187048 0.999281 0.000830366
-0.0327592 -0.0188168 0.999286 0
-0.0332279 -0.0189348 0.999268 0
-0.0339954 -0.0190182 0.999241 0.000238921
-0.0338407 -0.0188752 0.999249 0
-0.0334826 -0.0187996 0.999262 0
-0.0353693 -0.0189027 0.999196 0
-0.0351634 -0.0189004 0.999203 0
-0.0336578 -0.0189923 0.999253 0.000464358
-0.0353688 -0.0191571 0.999191 0.00480317
-0.0350007 -0.0192165 0.999203 0.00460181
-0.0377604 -0.0194043 0.999098 0.00900507
-0.0360343 -0.019054 0.999169 0.00783503
-0.0356483 -0.0188589 0.999186 0.00717922
-0.0347093 -0.0187952 0.999221 0.00567954
-0.0314448 -0.0184829 0.999335 0
-0.0324509 -0.0184028 0.999304 0
-0.0315563 -0.0180491 0.999339 0
-0.0313549 -0.017924 0.999348 0
-0.0314707 -0.0177884 0.999346 0
-0.0306478 -0.0178348 0.999371 0
-0.0311078 -0.017582 0.999361 0
-0.0283567 -0.0173787 0.999447 0
-0.0286972 -0.0172315 0.99944 0
-0.029372 -0.0170948 0.999422 0
-0.0283478 -0.0170243 0.999453 0
-0.0283624 -0.0169072 0.999455 0
-0.029383 -0.0167656 0.999428 0
-0.0301297 -0.0166607 0.999407 0
-0.029588 -0.01646 0.999427 0
-0.0266937 -0.0163535 0.99951 0
-0.0280458 -0.0161674 0.999476 0
-0.0277146 -0.0161148 0.999486 0
-0.0260434 -0.0159981 0.999533 0
-0.0281739 -0.015896 0.999477 0
-0.0263684 -0.0157476 0.999528 0
-0.0292917 -0.0156696 0.999448 0
-0.0286662 -0.0156253 0.999467 0
-0.0273118 -0.0156164 0.999505 0
-0.0274751 -0.0154295 0.999503 0
-0.0278735 -0.0153696 0.999493 0
-0.0294767 -0.0152971 0.999448 0
-0.0273255 -0.0152824 0.99951 0
-0.0269802 -0.0152653 0.999519 0
-0.0284492 -0.0151803 0.99948 0
-0.0299216 -0.0151369 0.999438 0.00279521
-0.0301944 -0.0150886 0.99943 0.00295166
-0.0310774 -0.015067 0.999403 0.00501822
-0.031916 -0.0147095 0.999382 0.00641402
-0.0339874 -0.0145913 0.999316 0.0113909
-0.0322414 -0.0143142 0.999378 0.0100807
-0.0325467 -0.0141215 0.99937 0.0117148
-0.0342472 -0.0139375 0.999316 0.0147406
-0.0346097 -0.0136652 0.999307 0.0146525
-0.034247 -0.0133793 0.999324 0.0119247
-0.0307981 -0.0129104 0.999442 0.00550026
-0.029143 -0.012586 0.999496 0.00426786
-0.0302124 -0.0122153 0.999469 0.00504109
-0.0289259 -0.0118403 0.999511 0.00573543
-0.028646 -0.0115239 0.999523 0.000353458
-0.0276344 -0.0111538 0.999556 0.000356671
-0.0251462 -0.010813 0.999625 0
-0.0236069 -0.0105135 0.999666 0
-0.0228257 -0.0101379 0.999688 0
-0.0229648 -0.0098001 0.999688 0
-0.0225567 -0.00921442 0.999703 0
-0.0230101 -0.00878978 0.999697 0
-0.022352 -0.00839185 0.999715 0
-0.022602 -0.00780738 0.999714 0
-0.0237318 -0.00727365 0.999692 0
-0.0253248 -0.00676778 0.999656 0
-0.0246426 -0.00648295 0.999675 0
-0.0234379 -0.00603613 0.999707 0
-0.0232475 -0.00556319 0.999714 0
-0.0227319 -0.00512803 0.999728 0
-0.0225119 -0.00438369 0.999737 0.00210389
-0.0198106 -0.00360664 0.999797 0
-0.01941 -0.00280741 0.999808 0
-0.0192002 -0.00217855 0.999813 0.00175386
-0.0190592 -0.00125747 0.999818 0.00703067
-0.0203763 -0.000313544 0.999792 0.00970563
-0.0176806 0.000393251 0.999844 0.00376323
-0.0184022 0.00129705 0.99983 0.00244564
-0.0196414 0.00253199 0.999804 0.0067542
-0.01851 0.0035471 0.999822 0.00775726
-0.0189888 0.00471053 0.999809 0.0066226
-0.0180582 0.00567054 0.999821 0.00821518
-0.0189449 0.00686811 0.999797 0.00981189
-0.0175897 0.00768885 0.999816 0.00736997
-0.0176846 0.00864469 0.999806 0.0104828
-0.0173037 0.00968509 0.999803 0.0096373
-0.0176013 0.0108713 0.999786 0.00953569
-0.0160799 0.011839 0.999801 0.0092126
-0.0160919 0.0126522 0.99979 0.00446489
-0.0148637 0.0135993 0.999797 0.00422943
-0.0160227 0.0149658 0.99976 0.00673382
-0.0168389 0.0161526 0.999728 0.00673242
-0.0176022 0.0167038 0.999705 0.00441307
-0.0183523 0.0172081 0.999684 0.00204741
-0.0184875 0.0178716 0.999669 0.00392888
-0.0187343 0.0188585 0.999647 0.00701453
-0.0175796 0.0194185 0.999657 0.00625417
-0.0186333 0.019959 0.999627 0.0051552
-0.019833 0.0209851 0.999583 0.00815459
-0.0192923 0.0217619 0.999577 0.00985166
-0.0193931 0.0222971 0.999563 0.00810744
-0.0185422 0.0224585 0.999576 0.00515059
-0.0180274 0.0227809 0.999578 0.00386331
-0.0186915 0.0239744 0.999538 0.00785435
-0.0181224 0.023664 0.999556 0.00161741
-0.0181497 0.0237368 0.999553 0.0013591
-0.0155788 -0.141553 0.989808 0.00343097
-0.0165229 -0.135691 0.990613 0.00274853
-0.0168065 -0.131289 0.991202 0.00124024
-0.0164573 -0.127403 0.991715 0
-0.0173858 -0.125002 0.992004 0
-0.0177893 -0.120252 0.992584 0
-0.0176876 -0.116533 0.993029 0
-0.0177614 -0.11438 0.993278 0.000669911
-0.0181458 -0.111508 0.993598 0.000954172
-0.0181106 -0.10829 0.993954 0.00209826
-0.0189878 -0.106421 0.99414 0.00180349
-0.018442 -0.102223 0.994591 0
-0.0207269 -0.101249 0.994645 0.00155093
-0.0203861 -0.0990306 0.994875 0.00241862
-0.0207764 -0.0954862 0.995214 0.000356293
-0.021528 -0.0919935 0.995527 0
-0.0203637 -0.0905108 0.995687 0.000857905
-0.0187203 -0.0858959 0.996128 0
-0.0184129 -0.0832311 0.99636 0
-0.0212917 -0.0821633 0.996391 0.000217562
-0.0212805 -0.0805733 0.996521 0
-0.0229374 -0.079019 0.996609 0.00128071
-0.0221506 -0.0758587 0.996873 0.000155754
-0.0225026 -0.0747009 0.996952 0.000927172
-0.0230733 -0.0725784 0.997096 0
-0.0304402 -0.0419801 0.998655 7.54611e-05
-0.0306698 -0.0414869 0.998668 0.0016874
-0.0319515 -0.0412197 0.998639 0.00156361
-0.0317912 -0.0404023 0.998678 0.00390338
-0.0326068 -0.0388422 0.998713 0.00250139
-0.0339595 -0.0380169 0.9987 0.00428579
-0.0354117 -0.0373042 0.998676 0.00479617
-0.0387966 -0.0362878 0.998588 0.00459527
-0.0391889 -0.0354351 0.998603 0.00837916
-0.0399241 -0.0340602 0.998622 0.00724987
-0.0405316 -0.0330689 0.998631 0.00979566
-0.0398523 -0.0315775 0.998707 0.01036
-0.0388825 -0.0308578 0.998767 0.00893457
-0.0397523 -0.0294051 0.998777 0.010693
-0.041869 -0.0279201 0.998733 0.0122031
-0.039785 -0.0260694 0.998868 0.0113849
-0.0404736 -0.0247533 0.998874 0.0136936
-0.0394277 -0.0228424 0.998961 0.0112981
-0.0384688 -0.0212475 0.999034 0.0095742
-0.0368546 -0.0189452 0.999141 0.00534956
-0.0354104 -0.0176339 0.999217 0.00467741
-0.0362576 -0.01671 0.999203 0.00437699
-0.0358051 -0.0149077 0.999248 0.00522561
-0.0356794 -0.0130864 0.999278 0.00346421
-0.0353494 -0.0116513 0.999307 0.00543545
-0.0345274 -0.0104759 0.999349 0.00467537
-0.0332395 -0.00915626 0.999406 0.00321188
-0.0327847 -0.00833341 0.999428 0.000983425
-0.0335535 -0.00806799 0.999404 0.00297333
-0.0342997 -0.00766626 0.999382 0.00317329
-0.0353013 -0.00729782 0.99935 0.00698796
-0.0346534 -0.00677931 0.999376 0.00883164
-0.0347943 -0.00627325 0.999375 0.00941106
-0.0357175 -0.00601212 0.999344 0.00655625
-0.0377643 -0.00590049 0.999269 0.00851932
-0.0353175 -0.00535639 0.999362 0.00358646
-0.0346843 -0.0051375 0.999385 0.00369332
-0.0337949 -0.00459927 0.999418 0.000165434
-0.0341539 -0.00445462 0.999407 0.00149331
-0.0331036 -0.00421483 0.999443 0
-0.0338065 -0.00428799 0.999419 0
-0.0336247 -0.00473903 0.999423 0
-0.0329498 -0.00512717 0.999444 0
-0.0330171 -0.00584709 0.999438 0
-0.032435 -0.00586346 0.999457 0
-0.0308611 -0.00577936 0.999507 0
-0.0314192 -0.0062436 0.999487 0
-0.0338353 -0.00669331 0.999405 0
-0.0331758 -0.00701999 0.999425 0
-0.0330353 -0.00775321 0.999424 0
-0.0332981 -0.00796278 0.999414 0
-0.0332957 -0.00837531 0.99941 0
-0.0330219 -0.00874788 0.999416 0.00307772
-0.03242 -0.00902738 0.999434 0.00222288
-0.0325079 -0.0095578 0.999426 0.00206874
-0.0306663 -0.00967215 0.999483 0.000573103
-0.0314604 -0.0105181 0.99945 0.00319711
-0.0314066 -0.010795 0.999448 0.00384068
-0.0321837 -0.0112533 0.999419 0.00302355
-0.0311708 -0.0118362 0.999444 0.00179111
-0.0325374 -0.0122877 0.999395 0.0052339
-0.0320276 -0.0126517 0.999407 0.00512773
-0.0320704 -0.0127429 0.999404 0.00493748
-0.0314679 -0.0128289 0.999422 0.000868805
-0.0307566 -0.013166 0.99944 0.000173812
-0.0308331 -0.0137567 0.99943 0
-0.0297775 -0.0144869 0.999452 0.000577929
-0.0294189 -0.0151601 0.999452 0.00214288
-0.0301093 -0.0157575 0.999422 0.00179321
-0.0282056 -0.0162254 0.99947 0
-0.0294437 -0.016792 0.999425 0
-0.0272406 -0.0170228 0.999484 0
-0.0265905 -0.0174254 0.999494 0
-0.026275 -0.0177857 0.999497 0
-0.0263665 -0.0181307 0.999488 0
-0.0259024 -0.0182759 0.999497 0
-0.0254514 -0.0182877 0.999509 0
-0.0256262 -0.0189907 0.999491 0
-0.0263006 -0.0194438 0.999465 0
-0.02686 -0.0198279 0.999443 0
-0.028355 -0.0197258 0.999403 0
-0.027451 -0.019611 0.999431 0
-0.0264955 -0.0196421 0.999456 0
-0.0268529 -0.0195169 0.999449 0
-0.0266874 -0.0193695 0.999456 0
-0.0265016 -0.0196953 0.999455 0
-0.0270508 -0.0198302 0.999437 0
-0.0265901 -0.0201624 0.999443 0
-0.0257048 -0.0198429 0.999473 0
-0.0249832 -0.0195852 0.999496 0
-0.0252119 -0.0194586 0.999493 0
-0.0264544 -0.0196693 0.999457 0
-0.0250843 -0.0199075 0.999487 0
-0.0254554 -0.0196952 0.999482 0
-0.0257286 -0.0195689 0.999477 0
-0.0261225 -0.0193618 0.999471 0
-0.0254302 -0.0193251 0.99949 0
-0.0245219 -0.01891 0.99952 0
-0.0233458 -0.0188361 0.99955 0
-0.0239183 -0.0185473 0.999542 0
-0.0240072 -0.0183448 0.999543 0
-0.0243031 -0.0179484 0.999543 0
-0.0236643 -0.0177421 0.999563 0
-0.0231169 -0.017594 0.999578 0
-0.0238319 -0.0176524 0.99956 0
-0.0243273 -0.0174584 0.999552 0
-0.025231 -0.0176 0.999527 0
-0.0249961 -0.0178582 0.999528 0
-0.024863 -0.017813 0.999532 0
-0.0260688 -0.0176974 0.999503 0
-0.0260427 -0.0180623 0.999498 0
-0.026296 -0.0184218 0.999484 0
-0.0255539 -0.0184097 0.999504 0
-0.0245738 -0.0185581 0.999526 0
-0.0266007 -0.0187424 0.99947 0
-0.0266211 -0.0185236 0.999474 0
-0.0284448 -0.0187034 0.99942 0.0020885
-0.0277231 -0.0180583 0.999453 1.52627e-06
-0.0269423 -0.0180627 0.999474 0
-0.0250088 -0.0176263 0.999532 0
-0.0245289 -0.0175867 0.999544 0
-0.0248397 -0.0173787 0.99954 0
-0.0231678 -0.0169653 0.999588 0
-0.0238071 -0.0164992 0.99958 0
-0.0256479 -0.0170089 0.999526 0.0047795
-0.0249027 -0.016543 0.999553 0.00376442
-0.0245142 -0.0163188 0.999566 0.00333692
-0.024476 -0.0162993 0.999568 0.00349946
-0.0239096 -0.0163497 0.99958 0.0017929
-0.0230716 -0.016043 0.999605 0.0006979
-0.0225629 -0.0160408 0.999617 0.00215196
-0.0213625 -0.0156858 0.999649 0
-0.0220948 -0.0155863 0.999634 0
-0.0204917 -0.015776 0.999666 0
-0.020941 -0.0156558 0.999658 0
-0.0188083 -0.0151038 0.999709 0
-0.0181539 -0.0152582 0.999719 0
-0.0182955 -0.0149725 0.99972 0
-0.0186544 -0.0147277 0.999718 0
-0.0191437 -0.0147721 0.999708 0
-0.0195058 -0.0149764 0.999698 0
-0.0195223 -0.0145459 0.999704 0
-0.0195478 -0.0143365 0.999706 0
-0.0191481 -0.0147661 0.999708 0
-0.0190663 -0.0147625 0.999709 0.000803911
-0.0182379 -0.0147192 0.999725 0.000725543
-0.0178221 -0.0147992 0.999732 0.00132012
-0.0190299 -0.0147461 0.99971 0.00248244
-0.0194722 -0.0147491 0.999702 0.00612594
-0.0197056 -0.015147 0.999691 0.00587716
-0.0205734 -0.0151107 0.999674 0.00643433
-0.0198993 -0.0146533 0.999695 0.00448953
-0.0179131 -0.0143444 0.999737 0.00398152
-0.0166995 -0.0142767 0.999759 0.00209899
-0.0176201 -0.0145542 0.999739 0.00304127
-0.0190053 -0.0146795 0.999712 0.00351946
-0.01768 -0.0143789 0.99974 0.000752501
-0.0181819 -0.0142248 0.999734 0.000505812
-0.0173308 -0.0142465 0.999748 0
-0.0196254 -0.0144368 0.999703 0.00262606
-0.0208497 -0.014106 0.999683 0.00417391
-0.0186134 -0.0133894 0.999737 8.18658e-05
-0.0186605 -0.0140205 0.999728 0.00150524
-0.0195587 -0.0144383 0.999704 0.00365277
-0.0206806 -0.0144586 0.999682 0.00399037
-0.0207738 -0.0146173 0.999677 0.00112268
-0.0232665 -0.0150097 0.999617 0.00495745
-0.024412 -0.015499 0.999582 0.00893582
-0.0280975 -0.0161603 0.999475 0.0141228
-0.0299041 -0.0167504 0.999412 0.0185204
-0.0304065 -0.0171627 0.99939 0.0195678
-0.0304162 -0.0173642 0.999386 0.0214526
-0.029682 -0.017396 0.999408 0.0216158
-0.0285398 -0.0177711 0.999435 0.0235257
-0.0264395 -0.0177388 0.999493 0.021068
-0.0240564 -0.0176301 0.999555 0.0161233
-0.0199859 -0.0173953 0.999649 0.0104944
-0.0192503 -0.0171716 0.999667 0.0052392
-0.0180228 -0.017205 0.99969 0.00357198
-0.0183122 -0.0174513 0.99968 0.00437556
-0.0176567 -0.0172873 0.999695 0.0017268
-0.0184941 -0.017474 0.999676 0.00295761
-0.0190443 -0.0174373 0.999667 0.00223652
-0.0188811 -0.0174414 0.99967 0.00184892
-0.0187567 -0.0174013 0.999673 0
-0.0189049 -0.0173598 0.999671 0
-0.0161647 -0.0172756 0.99972 0
-0.0152887 -0.0172707 0.999734 0
-0.0158995 -0.0174711 0.999721 0
-0.0165584 -0.0176893 0.999706 0
-0.0171227 -0.0177676 0.999695 0
-0.0157055 -0.0177248 0.99972 0
-0.0167423 -0.0178695 0.9997 0
-0.0160554 -0.0179399 0.99971 0
-0.0169195 -0.0180999 0.999693 0
-0.0200301 -0.01853 0.999628 0.00395591
-0.0208636 -0.0187342 0.999607 0.00759863
-0.0190266 -0.0187163 0.999644 0.00927121
-0.0186609 -0.0186301 0.999652 0.00963556
-0.0196487 -0.0189714 0.999627 0.0109964
-0.0197657 -0.0189843 0.999624 0.0108282
-0.0210968 -0.0193244 0.999591 0.0149034
-0.0205864 -0.0192934 0.999602 0.0136089
-0.0190728 -0.0192014 0.999634 0.0122504
-0.0182998 -0.0191536 0.999649 0.00907183
-0.019647 -0.0190291 0.999626 0.0111444
-0.0195013 -0.0190541 0.999628 0.0117449
-0.0193113 -0.0187935 0.999637 0.0117981
-0.0159312 -0.0188844 0.999695 0.00787161
-0.0159246 -0.0193617 0.999686 0.00868021
-0.015115 -0.0192266 0.999701 0.00810795
-0.0147997 -0.0190445 0.999709 0.00461639
-0.0136731 -0.0191003 0.999724 0.00473839
-0.0139844 -0.0191434 0.999719 0.00265825
-0.0142837 -0.0192352 0.999713 0.00477906
-0.0143781 -0.0194255 0.999708 0.00442126
-0.0144479 -0.0193242 0.999709 0.00396476
-0.0135709 -0.018722 0.999733 0
-0.0119676 -0.0186394 0.999755 0
-0.0116843 -0.0185053 0.999761 0
-0.0108301 -0.0185451 0.999769 0
-0.0107767 -0.0186513 0.999768 0
-0.00829619 -0.0187504 0.99979 0
-0.00822483 -0.0188023 0.999789 0
-0.00906937 -0.018783 0.999782 0
-0.0112272 -0.0189573 0.999757 0
-0.00974229 -0.0190618 0.999771 0
-0.00973246 -0.0192887 0.999767 0
-0.00869246 -0.0195387 0.999771 0
-0.0107932 -0.0195691 0.99975 0
-0.010554 -0.0196088 0.999752 0
-0.010388 -0.0200319 0.999745 0
-0.0127394 -0.0198972 0.999721 0
-0.0120676 -0.020118 0.999725 0.0026207
-0.0124803 -0.0202752 0.999717 0.00648397
-0.0130615 -0.0202988 0.999709 0.00720648
-0.0119323 -0.0201527 0.999726 0.00289828
-0.0103569 -0.0199789 0.999747 0
-0.011945 -0.0201131 0.999726 0
-0.0134177 -0.0202743 0.999704 0
-0.0133058 -0.0203062 0.999705 0
-0.013171 -0.0203057 0.999707 0
-0.0146339 -0.0202329 0.999688 0
-0.0136757 -0.0200741 0.999705 0
-0.012189 -0.0198919 0.999728 0
-0.0144388 -0.0199655 0.999696 0
-0.0146758 -0.0198062 0.999696 0
-0.0139728 -0.0197846 0.999707 0
-0.0145422 -0.0198232 0.999698 0
