# .PCD v0.7 - Point Cloud Data file format
VERSION 0.7
FIELDS x y z
SIZE 4 4 4
TYPE F F F
COUNT 1 1 1
WIDTH 1649
HEIGHT 1
VIEWPOINT 0 0 0 1 0 0 0
POINTS 1649
DATA ascii
0.049595 -0.073628 -0.233575
0.049598 -0.073553 -0.233568
0.049601 -0.073475 -0.233564
0.049604 -0.073397 -0.233566
0.049607 -0.073319 -0.233568
0.049610 -0.073243 -0.233564
0.049613 -0.073165 -0.233558
0.049616 -0.073087 -0.233556
0.049619 -0.073009 -0.233563
0.049622 -0.072931 -0.233563
0.049626 -0.072853 -0.233569
0.049629 -0.072773 -0.233577
0.049633 -0.072693 -0.233591
0.049637 -0.072612 -0.233599
0.049640 -0.072537 -0.233593
0.049215 -0.102128 -0.239771
0.049216 -0.102046 -0.239742
0.049218 -0.101967 -0.239708
0.049220 -0.101888 -0.239688
0.049223 -0.101806 -0.239684
0.049226 -0.101728 -0.239680
0.049229 -0.101648 -0.239672
0.049232 -0.101566 -0.239660
0.049234 -0.101487 -0.239654
0.049238 -0.101407 -0.239658
0.049241 -0.101329 -0.239659
0.049244 -0.101249 -0.239651
0.049246 -0.101167 -0.239641
0.049249 -0.101089 -0.239635
0.049252 -0.101007 -0.239633
0.049256 -0.100929 -0.239637
0.049259 -0.100849 -0.239641
0.049262 -0.100769 -0.239637
0.049265 -0.100690 -0.239627
0.049268 -0.100610 -0.239620
0.049271 -0.100530 -0.239616
0.049274 -0.100450 -0.239614
0.049277 -0.100370 -0.239614
0.049280 -0.100290 -0.239620
0.049284 -0.100210 -0.239632
0.049287 -0.100132 -0.239634
0.049290 -0.100052 -0.239624
0.049292 -0.099970 -0.239604
0.049295 -0.099893 -0.239593
0.049298 -0.099811 -0.239587
0.049301 -0.099733 -0.239579
0.049304 -0.099653 -0.239583
0.049307 -0.099573 -0.239591
0.049311 -0.099493 -0.239589
0.049314 -0.099413 -0.239593
0.049318 -0.099333 -0.239603
0.049321 -0.099253 -0.239605
0.049323 -0.099173 -0.239594
0.049326 -0.099093 -0.239580
0.049329 -0.099014 -0.239576
0.049332 -0.098934 -0.239578
0.049335 -0.098856 -0.239578
0.049338 -0.098776 -0.239572
0.049341 -0.098696 -0.239560
0.049343 -0.098616 -0.239546
0.049346 -0.098537 -0.239541
0.049350 -0.098456 -0.239553
0.049354 -0.098376 -0.239561
0.049357 -0.098296 -0.239561
0.049360 -0.098216 -0.239557
0.049362 -0.098137 -0.239545
0.049365 -0.098057 -0.239541
0.049369 -0.097977 -0.239551
0.049372 -0.097899 -0.239549
0.049375 -0.097817 -0.239536
0.049377 -0.097739 -0.239528
0.049380 -0.097659 -0.239528
0.049384 -0.097579 -0.239534
0.049388 -0.097499 -0.239548
0.049392 -0.097418 -0.239572
0.049395 -0.097339 -0.239568
0.049397 -0.097259 -0.239550
0.049400 -0.097179 -0.239532
0.049402 -0.097100 -0.239519
0.049405 -0.097020 -0.239519
0.049409 -0.096940 -0.239535
0.049413 -0.096861 -0.239545
0.049416 -0.096781 -0.239543
0.049419 -0.096701 -0.239545
0.049423 -0.096621 -0.239547
0.049425 -0.096542 -0.239533
0.049428 -0.096462 -0.239519
0.049431 -0.096382 -0.239516
0.049434 -0.096302 -0.239528
0.049438 -0.096222 -0.239540
0.049442 -0.096142 -0.239552
0.049445 -0.096061 -0.239558
0.049448 -0.095982 -0.239552
0.049451 -0.095902 -0.239542
0.049454 -0.095822 -0.239530
0.049456 -0.095744 -0.239520
0.049460 -0.095664 -0.239523
0.049463 -0.095584 -0.239529
0.049466 -0.095504 -0.239525
0.049469 -0.095425 -0.239517
0.049471 -0.095345 -0.239507
0.049474 -0.095265 -0.239501
0.049477 -0.095185 -0.239499
0.049481 -0.095105 -0.239505
0.049485 -0.095025 -0.239515
0.049488 -0.094945 -0.239518
0.049491 -0.094865 -0.239518
0.049494 -0.094785 -0.239518
0.049497 -0.094705 -0.239506
0.049500 -0.094625 -0.239498
0.049503 -0.094547 -0.239506
0.049507 -0.094467 -0.239512
0.049510 -0.094385 -0.239512
0.049513 -0.094307 -0.239512
0.049516 -0.094228 -0.239507
0.049519 -0.094148 -0.239505
0.049522 -0.094068 -0.239509
0.049526 -0.093988 -0.239511
0.049529 -0.093908 -0.239513
0.049532 -0.093828 -0.239515
0.049535 -0.093748 -0.239511
0.049538 -0.093668 -0.239509
0.049542 -0.093588 -0.239513
0.049545 -0.093508 -0.239515
0.049548 -0.093428 -0.239510
0.049551 -0.093348 -0.239506
0.049554 -0.093268 -0.239504
0.049557 -0.093188 -0.239500
0.049560 -0.093108 -0.239502
0.049564 -0.093028 -0.239506
0.049567 -0.092948 -0.239506
0.049570 -0.092868 -0.239506
0.049573 -0.092788 -0.239508
0.049576 -0.092708 -0.239511
0.049580 -0.092628 -0.239511
0.049583 -0.092548 -0.239509
0.049586 -0.092468 -0.239509
0.049589 -0.092388 -0.239513
0.049593 -0.092308 -0.239515
0.049596 -0.092228 -0.239521
0.049599 -0.092148 -0.239525
0.049602 -0.092068 -0.239523
0.049605 -0.091988 -0.239517
0.049609 -0.091908 -0.239524
0.049613 -0.091828 -0.239536
0.049616 -0.091748 -0.239546
0.049619 -0.091668 -0.239546
0.049622 -0.091588 -0.239540
0.049626 -0.091508 -0.239540
0.049629 -0.091426 -0.239540
0.049632 -0.091348 -0.239538
0.049635 -0.091268 -0.239540
0.049638 -0.091188 -0.239539
0.049642 -0.091108 -0.239543
0.049645 -0.091026 -0.239545
0.049648 -0.090946 -0.239545
0.049651 -0.090868 -0.239543
0.049654 -0.090787 -0.239539
0.049657 -0.090709 -0.239527
0.049660 -0.090629 -0.239527
0.049663 -0.090549 -0.239533
0.049667 -0.090467 -0.239541
0.049670 -0.090387 -0.239542
0.049673 -0.090307 -0.239538
0.049677 -0.090227 -0.239542
0.049680 -0.090147 -0.239538
0.049682 -0.090067 -0.239530
0.049686 -0.089987 -0.239530
0.049689 -0.089907 -0.239538
0.049692 -0.089827 -0.239536
0.049695 -0.089747 -0.239532
0.049698 -0.089667 -0.239528
0.049701 -0.089587 -0.239525
0.049705 -0.089507 -0.239533
0.049708 -0.089427 -0.239537
0.049711 -0.089348 -0.239527
0.049714 -0.089268 -0.239523
0.049717 -0.089188 -0.239527
0.049720 -0.089108 -0.239523
0.049723 -0.089028 -0.239517
0.049726 -0.088948 -0.239521
0.049730 -0.088868 -0.239530
0.049733 -0.088786 -0.239526
0.049736 -0.088706 -0.239524
0.049739 -0.088626 -0.239524
0.049743 -0.088546 -0.239528
0.049746 -0.088466 -0.239530
0.049749 -0.088386 -0.239524
0.049752 -0.088306 -0.239522
0.049755 -0.088226 -0.239522
0.049758 -0.088146 -0.239518
0.049762 -0.088066 -0.239523
0.049765 -0.087984 -0.239529
0.049768 -0.087904 -0.239533
0.049771 -0.087824 -0.239529
0.049774 -0.087747 -0.239515
0.049777 -0.087667 -0.239513
0.049780 -0.087585 -0.239517
0.049783 -0.087507 -0.239513
0.049786 -0.087425 -0.239509
0.049789 -0.087345 -0.239507
0.049792 -0.087267 -0.239502
0.049795 -0.087187 -0.239496
0.049798 -0.087107 -0.239496
0.049802 -0.087025 -0.239504
0.049805 -0.086945 -0.239508
0.049809 -0.086865 -0.239512
0.049812 -0.086783 -0.239516
0.049815 -0.086703 -0.239512
0.049818 -0.086624 -0.239500
0.049821 -0.086546 -0.239499
0.049824 -0.086464 -0.239499
0.049827 -0.086384 -0.239493
0.049830 -0.086306 -0.239485
0.049833 -0.086224 -0.239479
0.049836 -0.086146 -0.239475
0.049839 -0.086066 -0.239479
0.049843 -0.085984 -0.239495
0.049678 -0.086209 -0.236246
0.049673 -0.086146 -0.236078
0.049669 -0.086079 -0.235955
0.049667 -0.086009 -0.235855
0.049667 -0.085937 -0.235788
0.049667 -0.085866 -0.235724
0.049667 -0.085791 -0.235668
0.049666 -0.085721 -0.235595
0.049665 -0.085651 -0.235517
0.049665 -0.085578 -0.235447
0.049665 -0.085506 -0.235394
0.049666 -0.085431 -0.235348
0.049666 -0.085358 -0.235296
0.049666 -0.085287 -0.235237
0.049666 -0.085214 -0.235175
0.049664 -0.085147 -0.235071
0.049660 -0.085082 -0.234924
0.049659 -0.085014 -0.234849
0.049660 -0.084939 -0.234811
0.049660 -0.084866 -0.234759
0.049661 -0.084793 -0.234719
0.049663 -0.084715 -0.234702
0.049666 -0.084639 -0.234684
0.049667 -0.084566 -0.234646
0.049667 -0.084493 -0.234602
0.049669 -0.084418 -0.234569
0.049671 -0.084342 -0.234553
0.049673 -0.084267 -0.234531
0.049675 -0.084192 -0.234503
0.049677 -0.084116 -0.234484
0.049680 -0.084038 -0.234478
0.049683 -0.083960 -0.234484
0.049687 -0.083880 -0.234502
0.049690 -0.083802 -0.234502
0.049693 -0.083726 -0.234490
0.049695 -0.083648 -0.234481
0.049698 -0.083573 -0.234471
0.049701 -0.083495 -0.234467
0.049704 -0.083417 -0.234465
0.049706 -0.083341 -0.234453
0.049708 -0.083266 -0.234437
0.049711 -0.083188 -0.234424
0.049713 -0.083112 -0.234408
0.049715 -0.083037 -0.234390
0.049717 -0.082961 -0.234372
0.049719 -0.082886 -0.234349
0.049722 -0.082808 -0.234339
0.049724 -0.082732 -0.234329
0.049725 -0.082659 -0.234287
0.049726 -0.082586 -0.234246
0.049728 -0.082511 -0.234226
0.049730 -0.082435 -0.234198
0.049730 -0.082364 -0.234140
0.049730 -0.082294 -0.234087
0.049732 -0.082220 -0.234055
0.049733 -0.082145 -0.234025
0.049735 -0.082072 -0.233996
0.049736 -0.081996 -0.233968
0.049738 -0.081923 -0.233934
0.049739 -0.081850 -0.233898
0.049740 -0.081777 -0.233873
0.049742 -0.081701 -0.233839
0.049743 -0.081628 -0.233813
0.049746 -0.081552 -0.233800
0.049748 -0.081477 -0.233782
0.049751 -0.081401 -0.233772
0.049753 -0.081323 -0.233762
0.049755 -0.081248 -0.233742
0.049757 -0.081172 -0.233725
0.049760 -0.081096 -0.233711
0.049762 -0.081021 -0.233699
0.049765 -0.080943 -0.233699
0.049768 -0.080867 -0.233685
0.049770 -0.080792 -0.233664
0.049772 -0.080718 -0.233648
0.049774 -0.080642 -0.233634
0.049776 -0.080565 -0.233618
0.049778 -0.080491 -0.233597
0.049780 -0.080416 -0.233577
0.049783 -0.080338 -0.233575
0.049787 -0.080260 -0.233589
0.049790 -0.080182 -0.233587
0.049793 -0.080106 -0.233579
0.049796 -0.080028 -0.233574
0.049799 -0.079950 -0.233572
0.049801 -0.079874 -0.233568
0.049804 -0.079799 -0.233554
0.049806 -0.079723 -0.233540
0.049808 -0.079647 -0.233525
0.049811 -0.079572 -0.233511
0.049813 -0.079496 -0.233501
0.049816 -0.079418 -0.233491
0.049819 -0.079342 -0.233489
0.049822 -0.079262 -0.233500
0.049826 -0.079184 -0.233502
0.049828 -0.079108 -0.233492
0.049831 -0.079032 -0.233484
0.049834 -0.078954 -0.233488
0.049838 -0.078874 -0.233494
0.049841 -0.078798 -0.233497
0.049844 -0.078720 -0.233501
0.049847 -0.078640 -0.233503
0.049850 -0.078564 -0.233499
0.049853 -0.078486 -0.233503
0.049857 -0.078408 -0.233505
0.049860 -0.078331 -0.233499
0.049862 -0.078255 -0.233496
0.049866 -0.078174 -0.233506
0.049869 -0.078096 -0.233512
0.049873 -0.078018 -0.233516
0.049876 -0.077940 -0.233518
0.049879 -0.077862 -0.233520
0.049882 -0.077784 -0.233525
0.049886 -0.077704 -0.233531
0.049889 -0.077626 -0.233537
0.049892 -0.077548 -0.233539
0.049895 -0.077470 -0.233535
0.049898 -0.077394 -0.233529
0.049901 -0.077316 -0.233531
0.049905 -0.077238 -0.233534
0.049907 -0.077162 -0.233530
0.049911 -0.077082 -0.233532
0.049914 -0.077007 -0.233530
0.049917 -0.076929 -0.233526
0.049921 -0.076848 -0.233546
0.049925 -0.076768 -0.233564
0.049928 -0.076688 -0.233566
0.049931 -0.076612 -0.233569
0.049935 -0.076532 -0.233573
0.049937 -0.076456 -0.233567
0.049940 -0.076378 -0.233565
0.049944 -0.076300 -0.233571
0.049947 -0.076222 -0.233577
0.049950 -0.076142 -0.233580
0.049954 -0.076064 -0.233584
0.049957 -0.075986 -0.233592
0.049961 -0.075906 -0.233598
0.049964 -0.075828 -0.233602
0.049967 -0.075749 -0.233606
0.049971 -0.075671 -0.233610
0.049974 -0.075593 -0.233613
0.049977 -0.075513 -0.233617
0.049980 -0.075435 -0.233623
0.049984 -0.075357 -0.233623
0.049986 -0.075281 -0.233619
0.049989 -0.075204 -0.233617
0.049993 -0.075126 -0.233619
0.049996 -0.075048 -0.233622
0.049999 -0.074968 -0.233624
0.050001 -0.074894 -0.233610
0.050004 -0.074818 -0.233594
0.050007 -0.074738 -0.233600
0.050011 -0.074660 -0.233608
0.050013 -0.074582 -0.233601
0.050016 -0.074506 -0.233599
0.050019 -0.074428 -0.233601
0.050022 -0.074350 -0.233599
0.050025 -0.074275 -0.233589
0.050028 -0.074197 -0.233585
0.050031 -0.074119 -0.233586
0.050034 -0.074043 -0.233586
0.050037 -0.073965 -0.233582
0.050040 -0.073887 -0.233574
0.050042 -0.073811 -0.233568
0.050045 -0.073736 -0.233557
0.050048 -0.073660 -0.233549
0.050050 -0.073582 -0.233541
0.050053 -0.073506 -0.233539
0.050056 -0.073426 -0.233539
0.050059 -0.073350 -0.233533
0.050061 -0.073277 -0.233516
0.050063 -0.073201 -0.233492
0.050065 -0.073128 -0.233480
0.050069 -0.073048 -0.233482
0.050073 -0.072967 -0.233498
0.050077 -0.072887 -0.233522
0.050081 -0.072807 -0.233533
0.050084 -0.072729 -0.233531
0.050086 -0.072651 -0.233525
0.050089 -0.072575 -0.233517
0.049631 -0.102142 -0.239700
0.049633 -0.102061 -0.239678
0.049636 -0.101981 -0.239664
0.049638 -0.101902 -0.239652
0.049641 -0.101822 -0.239638
0.049644 -0.101742 -0.239632
0.049647 -0.101662 -0.239628
0.049649 -0.101583 -0.239612
0.049652 -0.101503 -0.239600
0.049655 -0.101423 -0.239595
0.049657 -0.101343 -0.239585
0.049660 -0.101264 -0.239581
0.049664 -0.101183 -0.239585
0.049667 -0.101104 -0.239577
0.049669 -0.101024 -0.239569
0.049673 -0.100944 -0.239583
0.049676 -0.100864 -0.239583
0.049679 -0.100784 -0.239575
0.049682 -0.100704 -0.239566
0.049685 -0.100624 -0.239556
0.049688 -0.100545 -0.239552
0.049691 -0.100466 -0.239558
0.049694 -0.100386 -0.239560
0.049697 -0.100307 -0.239554
0.049700 -0.100227 -0.239548
0.049703 -0.100147 -0.239546
0.049706 -0.100067 -0.239549
0.049710 -0.099987 -0.239557
0.049713 -0.099907 -0.239553
0.049716 -0.099827 -0.239547
0.049719 -0.099747 -0.239547
0.049722 -0.099669 -0.239551
0.049725 -0.099589 -0.239547
0.049728 -0.099509 -0.239537
0.049731 -0.099430 -0.239529
0.049734 -0.099350 -0.239528
0.049737 -0.099270 -0.239530
0.049741 -0.099190 -0.239534
0.049743 -0.099110 -0.239526
0.049746 -0.099030 -0.239524
0.049750 -0.098950 -0.239536
0.049753 -0.098872 -0.239538
0.049756 -0.098790 -0.239530
0.049759 -0.098712 -0.239518
0.049762 -0.098630 -0.239513
0.049765 -0.098552 -0.239515
0.049768 -0.098472 -0.239513
0.049771 -0.098393 -0.239507
0.049774 -0.098313 -0.239505
0.049777 -0.098233 -0.239501
0.049780 -0.098153 -0.239499
0.049783 -0.098073 -0.239499
0.049787 -0.097993 -0.239503
0.049790 -0.097915 -0.239512
0.049793 -0.097833 -0.239510
0.049796 -0.097755 -0.239504
0.049799 -0.097675 -0.239502
0.049803 -0.097595 -0.239508
0.049806 -0.097515 -0.239510
0.049809 -0.097435 -0.239502
0.049811 -0.097356 -0.239486
0.049814 -0.097276 -0.239480
0.049817 -0.097196 -0.239471
0.049820 -0.097116 -0.239467
0.049823 -0.097036 -0.239467
0.049826 -0.096956 -0.239467
0.049829 -0.096878 -0.239465
0.049833 -0.096798 -0.239473
0.049836 -0.096718 -0.239483
0.049840 -0.096638 -0.239485
0.049843 -0.096558 -0.239483
0.049846 -0.096478 -0.239490
0.049850 -0.096398 -0.239500
0.049853 -0.096318 -0.239496
0.049855 -0.096238 -0.239476
0.049858 -0.096159 -0.239466
0.049861 -0.096081 -0.239470
0.049865 -0.095998 -0.239488
0.049869 -0.095920 -0.239494
0.049871 -0.095838 -0.239480
0.049873 -0.095761 -0.239463
0.049876 -0.095681 -0.239455
0.049880 -0.095601 -0.239459
0.049883 -0.095521 -0.239463
0.049886 -0.095441 -0.239463
0.049889 -0.095361 -0.239467
0.049893 -0.095281 -0.239465
0.049896 -0.095201 -0.239461
0.049899 -0.095121 -0.239459
0.049902 -0.095041 -0.239460
0.049905 -0.094963 -0.239458
0.049908 -0.094884 -0.239454
0.049911 -0.094804 -0.239450
0.049914 -0.094724 -0.239454
0.049918 -0.094644 -0.239458
0.049921 -0.094564 -0.239460
0.049924 -0.094484 -0.239462
0.049927 -0.094404 -0.239454
0.049930 -0.094324 -0.239453
0.049933 -0.094244 -0.239457
0.049937 -0.094164 -0.239457
0.049939 -0.094084 -0.239447
0.049942 -0.094004 -0.239447
0.049946 -0.093924 -0.239457
0.049949 -0.093844 -0.239457
0.049952 -0.093764 -0.239443
0.049955 -0.093687 -0.239435
0.049958 -0.093607 -0.239434
0.049961 -0.093527 -0.239430
0.049964 -0.093447 -0.239432
0.049967 -0.093367 -0.239434
0.049970 -0.093287 -0.239426
0.049973 -0.093207 -0.239422
0.049977 -0.093127 -0.239434
0.049980 -0.093047 -0.239436
0.049983 -0.092967 -0.239430
0.049986 -0.092887 -0.239433
0.049990 -0.092807 -0.239439
0.049993 -0.092727 -0.239443
0.049996 -0.092647 -0.239443
0.049999 -0.092567 -0.239439
0.050002 -0.092487 -0.239437
0.050006 -0.092407 -0.239439
0.050009 -0.092327 -0.239439
0.050012 -0.092247 -0.239445
0.050016 -0.092167 -0.239459
0.050020 -0.092087 -0.239466
0.050023 -0.092007 -0.239462
0.050026 -0.091927 -0.239460
0.050029 -0.091847 -0.239466
0.050033 -0.091767 -0.239472
0.050036 -0.091687 -0.239472
0.050039 -0.091607 -0.239470
0.050042 -0.091527 -0.239466
0.050045 -0.091447 -0.239464
0.050048 -0.091367 -0.239470
0.050052 -0.091287 -0.239479
0.050055 -0.091205 -0.239479
0.050058 -0.091127 -0.239471
0.050061 -0.091047 -0.239467
0.050064 -0.090967 -0.239473
0.050068 -0.090887 -0.239479
0.050071 -0.090805 -0.239477
0.050074 -0.090727 -0.239475
0.050077 -0.090645 -0.239475
0.050081 -0.090565 -0.239477
0.050084 -0.090487 -0.239478
0.050087 -0.090405 -0.239476
0.050090 -0.090328 -0.239470
0.050093 -0.090246 -0.239468
0.050096 -0.090166 -0.239474
0.050099 -0.090086 -0.239474
0.050102 -0.090006 -0.239466
0.050105 -0.089926 -0.239466
0.050109 -0.089846 -0.239468
0.050112 -0.089766 -0.239461
0.050115 -0.089686 -0.239463
0.050118 -0.089606 -0.239471
0.050122 -0.089526 -0.239471
0.050125 -0.089446 -0.239467
0.050128 -0.089366 -0.239465
0.050131 -0.089286 -0.239467
0.050134 -0.089206 -0.239463
0.050137 -0.089126 -0.239457
0.050140 -0.089046 -0.239461
0.050144 -0.088966 -0.239474
0.050147 -0.088886 -0.239478
0.050150 -0.088804 -0.239472
0.050153 -0.088726 -0.239466
0.050156 -0.088644 -0.239466
0.050159 -0.088567 -0.239460
0.050162 -0.088487 -0.239456
0.050166 -0.088405 -0.239460
0.050169 -0.088325 -0.239464
0.050172 -0.088245 -0.239464
0.050175 -0.088165 -0.239463
0.050178 -0.088085 -0.239463
0.050182 -0.088005 -0.239463
0.050185 -0.087925 -0.239463
0.050188 -0.087845 -0.239463
0.050191 -0.087765 -0.239461
0.050194 -0.087685 -0.239457
0.050197 -0.087605 -0.239451
0.050200 -0.087525 -0.239451
0.050203 -0.087445 -0.239452
0.050206 -0.087366 -0.239448
0.050210 -0.087286 -0.239448
0.050213 -0.087206 -0.239444
0.050215 -0.087126 -0.239434
0.050218 -0.087046 -0.239436
0.050222 -0.086966 -0.239440
0.050225 -0.086886 -0.239442
0.050228 -0.086804 -0.239444
0.050232 -0.086724 -0.239442
0.050235 -0.086644 -0.239439
0.050238 -0.086564 -0.239439
0.050241 -0.086484 -0.239437
0.050244 -0.086404 -0.239439
0.050247 -0.086324 -0.239439
0.050250 -0.086244 -0.239433
0.050253 -0.086165 -0.239429
0.050256 -0.086085 -0.239431
0.050260 -0.086002 -0.239437
0.050264 -0.085922 -0.239451
0.050090 -0.086165 -0.236022
0.050087 -0.086097 -0.235909
0.050085 -0.086027 -0.235811
0.050084 -0.085957 -0.235742
0.050085 -0.085884 -0.235684
0.050085 -0.085810 -0.235626
0.050085 -0.085737 -0.235571
0.050086 -0.085664 -0.235523
0.050086 -0.085591 -0.235467
0.050086 -0.085519 -0.235402
0.050085 -0.085448 -0.235332
0.050086 -0.085373 -0.235280
0.050086 -0.085300 -0.235235
0.050087 -0.085227 -0.235191
0.050088 -0.085152 -0.235149
0.050089 -0.085079 -0.235101
0.050089 -0.085007 -0.235050
0.050090 -0.084934 -0.235008
0.050091 -0.084861 -0.234962
0.050092 -0.084785 -0.234935
0.050094 -0.084710 -0.234899
0.050095 -0.084637 -0.234857
0.050096 -0.084562 -0.234823
0.050097 -0.084489 -0.234780
0.050098 -0.084413 -0.234746
0.050100 -0.084338 -0.234720
0.050101 -0.084265 -0.234691
0.050103 -0.084189 -0.234661
0.050105 -0.084114 -0.234633
0.050106 -0.084039 -0.234605
0.050108 -0.083963 -0.234582
0.050110 -0.083888 -0.234560
0.050111 -0.083815 -0.234528
0.050114 -0.083737 -0.234510
0.050116 -0.083661 -0.234490
0.050118 -0.083586 -0.234467
0.050120 -0.083510 -0.234451
0.050122 -0.083435 -0.234435
0.050124 -0.083359 -0.234405
0.050125 -0.083286 -0.234372
0.050127 -0.083211 -0.234350
0.050129 -0.083135 -0.234326
0.050131 -0.083060 -0.234308
0.050133 -0.082984 -0.234289
0.050135 -0.082909 -0.234267
0.050136 -0.082835 -0.234233
0.050138 -0.082760 -0.234203
0.050139 -0.082687 -0.234172
0.050141 -0.082612 -0.234142
0.050142 -0.082538 -0.234118
0.050144 -0.082463 -0.234084
0.050145 -0.082390 -0.234055
0.050147 -0.082314 -0.234021
0.050148 -0.082241 -0.233989
0.050150 -0.082168 -0.233968
0.050152 -0.082092 -0.233948
0.050154 -0.082017 -0.233926
0.050156 -0.081941 -0.233910
0.050158 -0.081865 -0.233892
0.050160 -0.081790 -0.233873
0.050163 -0.081714 -0.233857
0.050165 -0.081639 -0.233833
0.050166 -0.081565 -0.233809
0.050169 -0.081488 -0.233796
0.050171 -0.081412 -0.233788
0.050174 -0.081336 -0.233780
0.050176 -0.081260 -0.233766
0.050179 -0.081183 -0.233748
0.050180 -0.081109 -0.233727
0.050183 -0.081034 -0.233711
0.050185 -0.080958 -0.233699
0.050188 -0.080880 -0.233689
0.050190 -0.080805 -0.233676
0.050192 -0.080731 -0.233652
0.050194 -0.080656 -0.233628
0.050196 -0.080580 -0.233608
0.050198 -0.080505 -0.233594
0.050201 -0.080429 -0.233587
0.050204 -0.080351 -0.233583
0.050207 -0.080275 -0.233585
0.050210 -0.080197 -0.233583
0.050213 -0.080119 -0.233577
0.050215 -0.080043 -0.233570
0.050218 -0.079968 -0.233558
0.050221 -0.079890 -0.233556
0.050224 -0.079812 -0.233554
0.050227 -0.079736 -0.233548
0.050229 -0.079658 -0.233538
0.050232 -0.079582 -0.233533
0.050235 -0.079505 -0.233529
0.050237 -0.079429 -0.233519
0.050240 -0.079353 -0.233509
0.050243 -0.079275 -0.233507
0.050246 -0.079199 -0.233502
0.050248 -0.079124 -0.233490
0.050251 -0.079046 -0.233488
0.050254 -0.078968 -0.233492
0.050257 -0.078890 -0.233490
0.050260 -0.078814 -0.233477
0.050262 -0.078738 -0.233467
0.050265 -0.078660 -0.233463
0.050268 -0.078585 -0.233455
0.050271 -0.078507 -0.233451
0.050274 -0.078429 -0.233451
0.050277 -0.078351 -0.233460
0.050281 -0.078272 -0.233468
0.050284 -0.078195 -0.233464
0.050287 -0.078117 -0.233460
0.050290 -0.078039 -0.233462
0.050293 -0.077961 -0.233468
0.050296 -0.077883 -0.233468
0.050299 -0.077807 -0.233459
0.050302 -0.077729 -0.233455
0.050305 -0.077651 -0.233463
0.050309 -0.077570 -0.233483
0.050314 -0.077490 -0.233501
0.050317 -0.077412 -0.233509
0.050320 -0.077332 -0.233509
0.050323 -0.077256 -0.233510
0.050327 -0.077178 -0.233514
0.050330 -0.077098 -0.233518
0.050333 -0.077022 -0.233518
0.050336 -0.076944 -0.233514
0.050339 -0.076866 -0.233512
0.050342 -0.076790 -0.233513
0.050345 -0.076710 -0.233511
0.050348 -0.076634 -0.233515
0.050351 -0.076554 -0.233515
0.050355 -0.076476 -0.233521
0.050358 -0.076398 -0.233527
0.050361 -0.076320 -0.233531
0.050365 -0.076240 -0.233538
0.050368 -0.076162 -0.233546
0.050372 -0.076084 -0.233546
0.050375 -0.076006 -0.233548
0.050378 -0.075928 -0.233554
0.050381 -0.075850 -0.233556
0.050385 -0.075770 -0.233558
0.050388 -0.075692 -0.233568
0.050392 -0.075611 -0.233581
0.050395 -0.075533 -0.233585
0.050398 -0.075455 -0.233585
0.050401 -0.075377 -0.233585
0.050405 -0.075299 -0.233587
0.050408 -0.075221 -0.233591
0.050411 -0.075143 -0.233593
0.050414 -0.075065 -0.233592
0.050417 -0.074988 -0.233586
0.050420 -0.074912 -0.233580
0.050423 -0.074834 -0.233580
0.050426 -0.074756 -0.233578
0.050429 -0.074680 -0.233573
0.050432 -0.074600 -0.233575
0.050435 -0.074524 -0.233577
0.050438 -0.074446 -0.233575
0.050441 -0.074366 -0.233579
0.050445 -0.074290 -0.233583
0.050447 -0.074212 -0.233573
0.050450 -0.074136 -0.233568
0.050453 -0.074058 -0.233570
0.050456 -0.073980 -0.233568
0.050459 -0.073903 -0.233562
0.050462 -0.073827 -0.233554
0.050464 -0.073751 -0.233549
0.050467 -0.073673 -0.233547
0.050471 -0.073595 -0.233547
0.050474 -0.073517 -0.233547
0.050477 -0.073439 -0.233549
0.050480 -0.073361 -0.233543
0.050482 -0.073285 -0.233540
0.050486 -0.073207 -0.233540
0.050489 -0.073130 -0.233540
0.050492 -0.073052 -0.233538
0.050495 -0.072974 -0.233542
0.050498 -0.072895 -0.233546
0.050501 -0.072818 -0.233544
0.050504 -0.072742 -0.233535
0.050507 -0.072664 -0.233527
0.050509 -0.072588 -0.233521
0.050001 -0.102081 -0.239659
0.050005 -0.102000 -0.239665
0.050007 -0.101921 -0.239657
0.050010 -0.101841 -0.239647
0.050013 -0.101761 -0.239636
0.050016 -0.101681 -0.239628
0.050018 -0.101602 -0.239620
0.050021 -0.101522 -0.239610
0.050024 -0.101442 -0.239604
0.050027 -0.101362 -0.239602
0.050030 -0.101282 -0.239602
0.050033 -0.101202 -0.239596
0.050036 -0.101123 -0.239591
0.050039 -0.101043 -0.239587
0.050042 -0.100963 -0.239581
0.050044 -0.100883 -0.239567
0.050047 -0.100803 -0.239561
0.050051 -0.100725 -0.239569
0.050054 -0.100643 -0.239567
0.050057 -0.100565 -0.239561
0.050060 -0.100485 -0.239565
0.050064 -0.100405 -0.239580
0.050068 -0.100325 -0.239602
0.050072 -0.100244 -0.239614
0.050074 -0.100165 -0.239596
0.050076 -0.100085 -0.239574
0.050079 -0.100006 -0.239560
0.050082 -0.099926 -0.239560
0.050085 -0.099846 -0.239558
0.050088 -0.099766 -0.239550
0.050091 -0.099688 -0.239555
0.050094 -0.099608 -0.239549
0.050097 -0.099528 -0.239539
0.050100 -0.099449 -0.239533
0.050103 -0.099369 -0.239529
0.050106 -0.099289 -0.239527
0.050109 -0.099209 -0.239517
0.050112 -0.099129 -0.239511
0.050115 -0.099049 -0.239517
0.050119 -0.098969 -0.239528
0.050122 -0.098891 -0.239524
0.050124 -0.098809 -0.239512
0.050127 -0.098732 -0.239508
0.050131 -0.098651 -0.239522
0.050135 -0.098571 -0.239528
0.050138 -0.098491 -0.239528
0.050141 -0.098411 -0.239532
0.050144 -0.098331 -0.239526
0.050147 -0.098252 -0.239517
0.050150 -0.098172 -0.239521
0.050154 -0.098093 -0.239539
0.050158 -0.098011 -0.239545
0.050160 -0.097933 -0.239535
0.050163 -0.097851 -0.239533
0.050167 -0.097773 -0.239533
0.050169 -0.097694 -0.239515
0.050172 -0.097614 -0.239505
0.050175 -0.097534 -0.239512
0.050178 -0.097454 -0.239500
0.050180 -0.097375 -0.239480
0.050183 -0.097295 -0.239480
0.050187 -0.097215 -0.239494
0.050190 -0.097135 -0.239488
0.050193 -0.097055 -0.239484
0.050197 -0.096975 -0.239498
0.050200 -0.096897 -0.239498
0.050202 -0.096817 -0.239485
0.050205 -0.096737 -0.239477
0.050208 -0.096657 -0.239483
0.050212 -0.096577 -0.239487
0.050215 -0.096497 -0.239483
0.050218 -0.096417 -0.239477
0.050221 -0.096338 -0.239471
0.050224 -0.096258 -0.239471
0.050227 -0.096178 -0.239471
0.050230 -0.096100 -0.239468
0.050233 -0.096018 -0.239470
0.050237 -0.095939 -0.239488
0.050241 -0.095857 -0.239492
0.050243 -0.095780 -0.239478
0.050246 -0.095700 -0.239466
0.050249 -0.095620 -0.239466
0.050253 -0.095540 -0.239476
0.050256 -0.095460 -0.239476
0.050259 -0.095380 -0.239473
0.050262 -0.095300 -0.239469
0.050265 -0.095220 -0.239465
0.050268 -0.095140 -0.239461
0.050271 -0.095061 -0.239457
0.050274 -0.094981 -0.239453
0.050277 -0.094903 -0.239451
0.050280 -0.094821 -0.239455
0.050283 -0.094743 -0.239451
0.050286 -0.094663 -0.239452
0.050290 -0.094583 -0.239452
0.050293 -0.094503 -0.239448
0.050295 -0.094423 -0.239444
0.050299 -0.094343 -0.239446
0.050302 -0.094263 -0.239446
0.050305 -0.094183 -0.239446
0.050308 -0.094103 -0.239444
0.050311 -0.094023 -0.239444
0.050315 -0.093943 -0.239447
0.050318 -0.093863 -0.239447
0.050321 -0.093783 -0.239449
0.050325 -0.093703 -0.239459
0.050328 -0.093623 -0.239461
0.050331 -0.093543 -0.239453
0.050334 -0.093463 -0.239451
0.050337 -0.093383 -0.239455
0.050341 -0.093305 -0.239461
0.050344 -0.093223 -0.239458
0.050346 -0.093146 -0.239448
0.050350 -0.093064 -0.239446
0.050353 -0.092986 -0.239444
0.050356 -0.092906 -0.239444
0.050360 -0.092824 -0.239454
0.050363 -0.092746 -0.239464
0.050366 -0.092664 -0.239464
0.050370 -0.092584 -0.239466
0.050373 -0.092505 -0.239474
0.050376 -0.092424 -0.239471
0.050379 -0.092346 -0.239465
0.050382 -0.092264 -0.239465
0.050386 -0.092184 -0.239471
0.050389 -0.092106 -0.239477
0.050393 -0.092024 -0.239483
0.050396 -0.091943 -0.239489
0.050399 -0.091864 -0.239483
0.050402 -0.091784 -0.239473
0.050405 -0.091706 -0.239476
0.050409 -0.091624 -0.239484
0.050412 -0.091544 -0.239484
0.050415 -0.091464 -0.239488
0.050419 -0.091384 -0.239488
0.050422 -0.091304 -0.239486
0.050425 -0.091224 -0.239490
0.050429 -0.091144 -0.239498
0.050431 -0.091064 -0.239492
0.050434 -0.090984 -0.239482
0.050437 -0.090904 -0.239481
0.050440 -0.090824 -0.239479
0.050443 -0.090744 -0.239473
0.050446 -0.090664 -0.239471
0.050450 -0.090584 -0.239483
0.050454 -0.090504 -0.239493
0.050457 -0.090424 -0.239495
0.050460 -0.090344 -0.239495
0.050463 -0.090264 -0.239493
0.050466 -0.090184 -0.239491
0.050470 -0.090104 -0.239492
0.050473 -0.090022 -0.239492
0.050476 -0.089944 -0.239492
0.050479 -0.089863 -0.239484
0.050482 -0.089785 -0.239482
0.050485 -0.089705 -0.239488
0.050489 -0.089623 -0.239488
0.050492 -0.089543 -0.239486
0.050495 -0.089463 -0.239484
0.050498 -0.089383 -0.239478
0.050501 -0.089303 -0.239481
0.050504 -0.089223 -0.239479
0.050507 -0.089143 -0.239475
0.050510 -0.089063 -0.239481
0.050514 -0.088983 -0.239481
0.050517 -0.088903 -0.239479
0.050520 -0.088823 -0.239475
0.050523 -0.088743 -0.239469
0.050526 -0.088663 -0.239473
0.050529 -0.088584 -0.239472
0.050532 -0.088504 -0.239468
0.050535 -0.088424 -0.239466
0.050538 -0.088344 -0.239468
0.050542 -0.088264 -0.239466
0.050545 -0.088184 -0.239470
0.050548 -0.088104 -0.239470
0.050551 -0.088024 -0.239466
0.050554 -0.087944 -0.239460
0.050557 -0.087864 -0.239461
0.050560 -0.087784 -0.239463
0.050563 -0.087704 -0.239459
0.050566 -0.087624 -0.239453
0.050569 -0.087545 -0.239449
0.050572 -0.087465 -0.239443
0.050575 -0.087385 -0.239441
0.050579 -0.087305 -0.239449
0.050582 -0.087223 -0.239451
0.050585 -0.087143 -0.239447
0.050589 -0.087063 -0.239450
0.050592 -0.086983 -0.239454
0.050595 -0.086903 -0.239454
0.050598 -0.086823 -0.239452
0.050601 -0.086743 -0.239446
0.050604 -0.086663 -0.239442
0.050607 -0.086583 -0.239438
0.050610 -0.086503 -0.239436
0.050614 -0.086421 -0.239442
0.050617 -0.086341 -0.239448
0.050620 -0.086261 -0.239443
0.050623 -0.086182 -0.239435
0.050626 -0.086102 -0.239437
0.050630 -0.086021 -0.239445
0.050634 -0.085939 -0.239455
0.050460 -0.086181 -0.236042
0.050457 -0.086114 -0.235918
0.050455 -0.086046 -0.235817
0.050455 -0.085974 -0.235753
0.050454 -0.085901 -0.235691
0.050455 -0.085829 -0.235634
0.050455 -0.085756 -0.235574
0.050455 -0.085683 -0.235520
0.050456 -0.085608 -0.235473
0.050456 -0.085535 -0.235419
0.050456 -0.085463 -0.235355
0.050456 -0.085390 -0.235302
0.050456 -0.085317 -0.235246
0.050457 -0.085244 -0.235194
0.050457 -0.085172 -0.235145
0.050459 -0.085096 -0.235109
0.050459 -0.085023 -0.235067
0.050458 -0.084953 -0.234986
0.050458 -0.084883 -0.234912
0.050459 -0.084808 -0.234880
0.050460 -0.084734 -0.234845
0.050461 -0.084661 -0.234801
0.050462 -0.084588 -0.234753
0.050463 -0.084513 -0.234711
0.050464 -0.084440 -0.234674
0.050465 -0.084365 -0.234646
0.050467 -0.084290 -0.234614
0.050468 -0.084216 -0.234579
0.050469 -0.084141 -0.234545
0.050471 -0.084068 -0.234511
0.050472 -0.083993 -0.234479
0.050474 -0.083919 -0.234446
0.050475 -0.083844 -0.234418
0.050477 -0.083769 -0.234386
0.050478 -0.083696 -0.234354
0.050480 -0.083620 -0.234331
0.050482 -0.083545 -0.234309
0.050484 -0.083469 -0.234283
0.050485 -0.083396 -0.234251
0.050487 -0.083320 -0.234230
0.050489 -0.083243 -0.234214
0.050492 -0.083167 -0.234198
0.050494 -0.083092 -0.234180
0.050496 -0.083016 -0.234157
0.050498 -0.082943 -0.234137
0.050499 -0.082867 -0.234111
0.050501 -0.082792 -0.234085
0.050503 -0.082719 -0.234058
0.050505 -0.082643 -0.234034
0.050507 -0.082568 -0.234014
0.050508 -0.082492 -0.233988
0.050510 -0.082419 -0.233961
0.050512 -0.082343 -0.233941
0.050514 -0.082268 -0.233923
0.050517 -0.082192 -0.233909
0.050519 -0.082116 -0.233893
0.050521 -0.082041 -0.233874
0.050523 -0.081965 -0.233858
0.050525 -0.081890 -0.233838
0.050528 -0.081814 -0.233826
0.050530 -0.081736 -0.233817
0.050533 -0.081661 -0.233803
0.050535 -0.081585 -0.233781
0.050536 -0.081512 -0.233759
0.050539 -0.081436 -0.233749
0.050541 -0.081358 -0.233738
0.050544 -0.081282 -0.233728
0.050547 -0.081205 -0.233716
0.050549 -0.081129 -0.233706
0.050552 -0.081053 -0.233696
0.050554 -0.080978 -0.233683
0.050556 -0.080902 -0.233659
0.050558 -0.080826 -0.233647
0.050561 -0.080751 -0.233639
0.050563 -0.080675 -0.233628
0.050566 -0.080597 -0.233612
0.050568 -0.080522 -0.233604
0.050571 -0.080444 -0.233598
0.050574 -0.080368 -0.233586
0.050576 -0.080292 -0.233575
0.050578 -0.080217 -0.233563
0.050581 -0.080141 -0.233557
0.050584 -0.080063 -0.233557
0.050587 -0.079985 -0.233557
0.050591 -0.079907 -0.233557
0.050593 -0.079831 -0.233548
0.050595 -0.079755 -0.233534
0.050598 -0.079678 -0.233528
0.050601 -0.079600 -0.233528
0.050604 -0.079524 -0.233522
0.050607 -0.079446 -0.233519
0.050611 -0.079368 -0.233529
0.050614 -0.079290 -0.233535
0.050617 -0.079212 -0.233525
0.050619 -0.079136 -0.233519
0.050622 -0.079058 -0.233517
0.050625 -0.078982 -0.233516
0.050628 -0.078904 -0.233508
0.050631 -0.078829 -0.233502
0.050634 -0.078751 -0.233504
0.050637 -0.078673 -0.233508
0.050640 -0.078595 -0.233510
0.050644 -0.078517 -0.233511
0.050647 -0.078439 -0.233511
0.050649 -0.078363 -0.233505
0.050652 -0.078285 -0.233499
0.050655 -0.078207 -0.233497
0.050658 -0.078129 -0.233497
0.050661 -0.078053 -0.233496
0.050665 -0.077975 -0.233502
0.050668 -0.077895 -0.233504
0.050671 -0.077819 -0.233502
0.050674 -0.077741 -0.233498
0.050677 -0.077663 -0.233494
0.050680 -0.077585 -0.233500
0.050684 -0.077507 -0.233507
0.050687 -0.077429 -0.233511
0.050690 -0.077349 -0.233513
0.050694 -0.077271 -0.233521
0.050697 -0.077193 -0.233535
0.050701 -0.077113 -0.233537
0.050704 -0.077035 -0.233539
0.050707 -0.076957 -0.233548
0.050710 -0.076879 -0.233546
0.050714 -0.076801 -0.233546
0.050717 -0.076723 -0.233548
0.050720 -0.076647 -0.233544
0.050723 -0.076569 -0.233542
0.050726 -0.076491 -0.233541
0.050729 -0.076413 -0.233543
0.050732 -0.076335 -0.233547
0.050735 -0.076257 -0.233545
0.050738 -0.076179 -0.233543
0.050741 -0.076101 -0.233543
0.050744 -0.076025 -0.233543
0.050748 -0.075945 -0.233550
0.050752 -0.075865 -0.233562
0.050755 -0.075787 -0.233570
0.050758 -0.075709 -0.233568
0.050761 -0.075631 -0.233570
0.050765 -0.075553 -0.233576
0.050768 -0.075475 -0.233574
0.050771 -0.075397 -0.233575
0.050774 -0.075319 -0.233581
0.050777 -0.075241 -0.233577
0.050780 -0.075165 -0.233565
0.050782 -0.075089 -0.233555
0.050785 -0.075011 -0.233553
0.050788 -0.074933 -0.233558
0.050791 -0.074855 -0.233554
0.050794 -0.074778 -0.233550
0.050797 -0.074702 -0.233550
0.050801 -0.074622 -0.233554
0.050804 -0.074543 -0.233562
0.050807 -0.074465 -0.233565
0.050810 -0.074388 -0.233559
0.050813 -0.074310 -0.233557
0.050816 -0.074232 -0.233561
0.050819 -0.074156 -0.233557
0.050822 -0.074078 -0.233553
0.050826 -0.073998 -0.233559
0.050829 -0.073920 -0.233566
0.050832 -0.073842 -0.233562
0.050835 -0.073766 -0.233552
0.050837 -0.073690 -0.233542
0.050840 -0.073612 -0.233546
0.050844 -0.073534 -0.233548
0.050847 -0.073456 -0.233551
0.050850 -0.073378 -0.233547
0.050852 -0.073303 -0.233541
0.050855 -0.073225 -0.233531
0.050858 -0.073149 -0.233521
0.050861 -0.073071 -0.233530
0.050865 -0.072989 -0.233546
0.050868 -0.072913 -0.233548
0.050871 -0.072835 -0.233546
0.050875 -0.072757 -0.233548
0.050877 -0.072679 -0.233536
0.050880 -0.072603 -0.233526
0.050284 -0.102103 -0.239718
0.050287 -0.102021 -0.239704
0.050290 -0.101941 -0.239694
0.050292 -0.101862 -0.239676
0.050294 -0.101782 -0.239660
0.050297 -0.101702 -0.239650
0.050300 -0.101623 -0.239646
0.050303 -0.101543 -0.239651
0.050307 -0.101463 -0.239651
0.050310 -0.101383 -0.239649
0.050312 -0.101303 -0.239637
0.050315 -0.101223 -0.239625
0.050318 -0.101143 -0.239621
0.050321 -0.101064 -0.239617
0.050324 -0.100984 -0.239609
0.050327 -0.100904 -0.239607
0.050330 -0.100824 -0.239604
0.050333 -0.100744 -0.239604
0.050336 -0.100664 -0.239608
0.050339 -0.100584 -0.239602
0.050342 -0.100504 -0.239602
0.050346 -0.100424 -0.239608
0.050349 -0.100344 -0.239596
0.050351 -0.100265 -0.239582
0.050354 -0.100185 -0.239586
0.050358 -0.100107 -0.239593
0.050361 -0.100026 -0.239597
0.050364 -0.099947 -0.239585
0.050366 -0.099867 -0.239571
0.050369 -0.099787 -0.239571
0.050373 -0.099707 -0.239579
0.050376 -0.099627 -0.239581
0.050379 -0.099547 -0.239575
0.050382 -0.099467 -0.239572
0.050385 -0.099387 -0.239572
0.050388 -0.099307 -0.239568
0.050392 -0.099227 -0.239570
0.050395 -0.099150 -0.239564
0.050397 -0.099068 -0.239550
0.050400 -0.098990 -0.239554
0.050404 -0.098910 -0.239558
0.050406 -0.098830 -0.239542
0.050409 -0.098751 -0.239533
0.050412 -0.098670 -0.239537
0.050415 -0.098591 -0.239537
0.050419 -0.098510 -0.239541
0.050422 -0.098430 -0.239545
0.050426 -0.098350 -0.239547
0.050428 -0.098271 -0.239541
0.050431 -0.098191 -0.239535
0.050434 -0.098113 -0.239531
0.050437 -0.098031 -0.239532
0.050440 -0.097953 -0.239526
0.050443 -0.097871 -0.239520
0.050446 -0.097793 -0.239518
0.050450 -0.097713 -0.239522
0.050453 -0.097633 -0.239526
0.050456 -0.097553 -0.239528
0.050460 -0.097473 -0.239536
0.050464 -0.097393 -0.239546
0.050466 -0.097313 -0.239535
0.050469 -0.097234 -0.239521
0.050472 -0.097154 -0.239517
0.050475 -0.097074 -0.239521
0.050478 -0.096994 -0.239521
0.050481 -0.096916 -0.239521
0.050484 -0.096834 -0.239513
0.050487 -0.096756 -0.239503
0.050490 -0.096676 -0.239507
0.050494 -0.096596 -0.239516
0.050497 -0.096516 -0.239522
0.050501 -0.096436 -0.239526
0.050504 -0.096356 -0.239526
0.050507 -0.096276 -0.239526
0.050510 -0.096196 -0.239524
0.050513 -0.096116 -0.239516
0.050515 -0.096037 -0.239502
0.050519 -0.095957 -0.239500
0.050522 -0.095877 -0.239497
0.050524 -0.095799 -0.239483
0.050527 -0.095719 -0.239489
0.050531 -0.095637 -0.239497
0.050534 -0.095559 -0.239493
0.050537 -0.095479 -0.239495
0.050541 -0.095399 -0.239497
0.050543 -0.095319 -0.239489
0.050546 -0.095239 -0.239479
0.050549 -0.095159 -0.239482
0.050553 -0.095079 -0.239484
0.050556 -0.094999 -0.239488
0.050559 -0.094920 -0.239482
0.050562 -0.094840 -0.239474
0.050565 -0.094760 -0.239476
0.050568 -0.094680 -0.239480
0.050571 -0.094600 -0.239474
0.050574 -0.094522 -0.239472
0.050578 -0.094440 -0.239479
0.050581 -0.094362 -0.239481
0.050584 -0.094280 -0.239479
0.050588 -0.094202 -0.239483
0.050591 -0.094122 -0.239491
0.050594 -0.094040 -0.239489
0.050597 -0.093962 -0.239483
0.050600 -0.093882 -0.239479
0.050603 -0.093802 -0.239475
0.050606 -0.093722 -0.239478
0.050610 -0.093642 -0.239482
0.050613 -0.093562 -0.239476
0.050616 -0.093483 -0.239472
0.050619 -0.093403 -0.239472
0.050622 -0.093323 -0.239470
0.050625 -0.093243 -0.239468
0.050629 -0.093163 -0.239474
0.050632 -0.093083 -0.239480
0.050635 -0.093003 -0.239482
0.050639 -0.092923 -0.239485
0.050642 -0.092843 -0.239485
0.050645 -0.092763 -0.239491
0.050649 -0.092682 -0.239501
0.050652 -0.092602 -0.239503
0.050655 -0.092522 -0.239497
0.050658 -0.092443 -0.239495
0.050661 -0.092363 -0.239495
0.050664 -0.092283 -0.239487
0.050667 -0.092203 -0.239490
0.050671 -0.092123 -0.239500
0.050674 -0.092043 -0.239502
0.050678 -0.091963 -0.239504
0.050681 -0.091881 -0.239502
0.050684 -0.091803 -0.239496
0.050687 -0.091723 -0.239502
0.050691 -0.091641 -0.239506
0.050694 -0.091563 -0.239504
0.050697 -0.091481 -0.239500
0.050700 -0.091403 -0.239497
0.050703 -0.091323 -0.239499
0.050706 -0.091241 -0.239501
0.050709 -0.091163 -0.239499
0.050713 -0.091081 -0.239503
0.050716 -0.091001 -0.239511
0.050720 -0.090921 -0.239513
0.050723 -0.090841 -0.239511
0.050726 -0.090761 -0.239507
0.050729 -0.090681 -0.239505
0.050732 -0.090601 -0.239508
0.050735 -0.090521 -0.239510
0.050739 -0.090441 -0.239512
0.050742 -0.090361 -0.239510
0.050745 -0.090281 -0.239504
0.050748 -0.090202 -0.239500
0.050751 -0.090122 -0.239502
0.050754 -0.090042 -0.239502
0.050757 -0.089962 -0.239502
0.050760 -0.089882 -0.239503
0.050764 -0.089802 -0.239501
0.050767 -0.089722 -0.239503
0.050771 -0.089640 -0.239511
0.050774 -0.089560 -0.239509
0.050776 -0.089480 -0.239501
0.050779 -0.089402 -0.239495
0.050782 -0.089322 -0.239493
0.050786 -0.089240 -0.239493
0.050789 -0.089160 -0.239501
0.050793 -0.089080 -0.239506
0.050796 -0.089000 -0.239502
0.050798 -0.088920 -0.239496
0.050801 -0.088840 -0.239492
0.050804 -0.088761 -0.239490
0.050807 -0.088681 -0.239486
0.050810 -0.088601 -0.239480
0.050814 -0.088521 -0.239488
0.050817 -0.088441 -0.239490
0.050820 -0.088361 -0.239485
0.050823 -0.088281 -0.239485
0.050827 -0.088201 -0.239485
0.050829 -0.088121 -0.239473
0.050832 -0.088041 -0.239471
0.050836 -0.087961 -0.239479
0.050839 -0.087879 -0.239481
0.050842 -0.087801 -0.239473
0.050845 -0.087722 -0.239467
0.050848 -0.087642 -0.239468
0.050852 -0.087560 -0.239476
0.050855 -0.087479 -0.239484
0.050858 -0.087399 -0.239486
0.050862 -0.087319 -0.239488
0.050865 -0.087237 -0.239486
0.050868 -0.087160 -0.239476
0.050871 -0.087078 -0.239476
0.050874 -0.087000 -0.239474
0.050877 -0.086920 -0.239472
0.050880 -0.086838 -0.239474
0.050883 -0.086758 -0.239473
0.050886 -0.086678 -0.239469
0.050889 -0.086598 -0.239465
0.050893 -0.086518 -0.239467
0.050896 -0.086438 -0.239473
0.050899 -0.086356 -0.239475
0.050903 -0.086276 -0.239473
0.050905 -0.086196 -0.239467
0.050909 -0.086116 -0.239467
0.050912 -0.086036 -0.239471
0.050916 -0.085954 -0.239484
0.050745 -0.086193 -0.236118
0.050744 -0.086123 -0.236035
0.050741 -0.086054 -0.235929
0.050740 -0.085984 -0.235838
0.050740 -0.085911 -0.235770
0.050739 -0.085839 -0.235700
0.050739 -0.085768 -0.235631
0.050739 -0.085695 -0.235581
0.050740 -0.085620 -0.235539
0.050741 -0.085547 -0.235490
0.050741 -0.085473 -0.235434
0.050741 -0.085402 -0.235368
0.050740 -0.085332 -0.235303
0.050740 -0.085259 -0.235241
0.050740 -0.085186 -0.235185
0.050740 -0.085113 -0.235128
0.050741 -0.085041 -0.235068
0.050738 -0.084975 -0.234952
0.050737 -0.084903 -0.234883
0.050739 -0.084827 -0.234865
0.050741 -0.084752 -0.234831
0.050741 -0.084679 -0.234788
0.050742 -0.084606 -0.234746
0.050743 -0.084533 -0.234706
0.050744 -0.084460 -0.234649
0.050744 -0.084387 -0.234603
0.050746 -0.084312 -0.234573
0.050746 -0.084239 -0.234525
0.050747 -0.084166 -0.234476
0.050749 -0.084091 -0.234454
0.050751 -0.084015 -0.234432
0.050752 -0.083942 -0.234403
0.050753 -0.083869 -0.234353
0.050754 -0.083796 -0.234313
0.050757 -0.083718 -0.234307
0.050760 -0.083640 -0.234303
0.050761 -0.083567 -0.234270
0.050762 -0.083494 -0.234238
0.050765 -0.083416 -0.234234
0.050768 -0.083338 -0.234232
0.050771 -0.083260 -0.234217
0.050773 -0.083185 -0.234201
0.050775 -0.083111 -0.234175
0.050776 -0.083036 -0.234137
0.050777 -0.082963 -0.234110
0.050780 -0.082885 -0.234100
0.050782 -0.082809 -0.234086
0.050785 -0.082734 -0.234072
0.050787 -0.082658 -0.234054
0.050789 -0.082583 -0.234029
0.050790 -0.082509 -0.233997
0.050792 -0.082434 -0.233977
0.050794 -0.082358 -0.233953
0.050795 -0.082285 -0.233924
0.050798 -0.082209 -0.233910
0.050800 -0.082134 -0.233894
0.050802 -0.082058 -0.233874
0.050804 -0.081983 -0.233857
0.050806 -0.081907 -0.233841
0.050809 -0.081831 -0.233829
0.050811 -0.081756 -0.233813
0.050813 -0.081680 -0.233792
0.050815 -0.081605 -0.233778
0.050818 -0.081527 -0.233766
0.050820 -0.081451 -0.233750
0.050823 -0.081375 -0.233746
0.050826 -0.081298 -0.233736
0.050828 -0.081222 -0.233717
0.050830 -0.081149 -0.233701
0.050832 -0.081073 -0.233683
0.050835 -0.080995 -0.233673
0.050838 -0.080919 -0.233670
0.050840 -0.080842 -0.233662
0.050843 -0.080766 -0.233652
0.050845 -0.080690 -0.233640
0.050848 -0.080614 -0.233628
0.050850 -0.080537 -0.233623
0.050853 -0.080459 -0.233615
0.050855 -0.080385 -0.233601
0.050858 -0.080307 -0.233597
0.050862 -0.080229 -0.233603
0.050865 -0.080151 -0.233603
0.050868 -0.080073 -0.233598
0.050871 -0.079998 -0.233594
0.050873 -0.079920 -0.233586
0.050876 -0.079844 -0.233580
0.050879 -0.079766 -0.233576
0.050882 -0.079688 -0.233573
0.050885 -0.079610 -0.233579
0.050888 -0.079534 -0.233581
0.050892 -0.079454 -0.233583
0.050895 -0.079376 -0.233589
0.050898 -0.079298 -0.233589
0.050901 -0.079222 -0.233585
0.050904 -0.079144 -0.233582
0.050907 -0.079068 -0.233574
0.050909 -0.078991 -0.233566
0.050913 -0.078913 -0.233568
0.050916 -0.078835 -0.233572
0.050919 -0.078759 -0.233569
0.050921 -0.078681 -0.233561
0.050924 -0.078605 -0.233555
0.050927 -0.078527 -0.233553
0.050930 -0.078449 -0.233551
0.050933 -0.078373 -0.233549
0.050936 -0.078295 -0.233548
0.050939 -0.078218 -0.233544
0.050942 -0.078140 -0.233536
0.050945 -0.078064 -0.233534
0.050948 -0.077986 -0.233536
0.050951 -0.077908 -0.233532
0.050954 -0.077832 -0.233531
0.050958 -0.077752 -0.233543
0.050961 -0.077672 -0.233551
0.050964 -0.077594 -0.233555
0.050968 -0.077516 -0.233559
0.050971 -0.077437 -0.233563
0.050974 -0.077359 -0.233567
0.050977 -0.077281 -0.233568
0.050980 -0.077204 -0.233566
0.050983 -0.077126 -0.233564
0.050986 -0.077050 -0.233562
0.050990 -0.076970 -0.233564
0.050993 -0.076894 -0.233564
0.050995 -0.076816 -0.233555
0.050999 -0.076738 -0.233559
0.051002 -0.076660 -0.233567
0.051005 -0.076582 -0.233557
0.051007 -0.076506 -0.233549
0.051011 -0.076428 -0.233559
0.051014 -0.076348 -0.233563
0.051017 -0.076272 -0.233558
0.051020 -0.076194 -0.233558
0.051024 -0.076116 -0.233562
0.051027 -0.076038 -0.233560
0.051030 -0.075960 -0.233564
0.051034 -0.075880 -0.233578
0.051037 -0.075800 -0.233586
0.051041 -0.075722 -0.233591
0.051044 -0.075644 -0.233599
0.051047 -0.075566 -0.233589
0.051049 -0.075490 -0.233579
0.051053 -0.075412 -0.233585
0.051056 -0.075334 -0.233585
0.051059 -0.075256 -0.233582
0.051062 -0.075178 -0.233586
0.051065 -0.075102 -0.233578
0.051067 -0.075027 -0.233564
0.051070 -0.074951 -0.233554
0.051073 -0.074873 -0.233554
0.051076 -0.074793 -0.233561
0.051080 -0.074715 -0.233567
0.051083 -0.074637 -0.233571
0.051086 -0.074559 -0.233563
0.051088 -0.074483 -0.233559
0.051092 -0.074403 -0.233565
0.051095 -0.074325 -0.233570
0.051099 -0.074245 -0.233576
0.051102 -0.074167 -0.233580
0.051105 -0.074091 -0.233576
0.051108 -0.074013 -0.233576
0.051111 -0.073935 -0.233582
0.051114 -0.073857 -0.233570
0.051116 -0.073781 -0.233561
0.051120 -0.073701 -0.233573
0.051124 -0.073621 -0.233585
0.051127 -0.073543 -0.233591
0.051131 -0.073465 -0.233593
0.051134 -0.073387 -0.233595
0.051136 -0.073311 -0.233583
0.051139 -0.073233 -0.233574
0.051142 -0.073157 -0.233576
0.051146 -0.073075 -0.233590
0.051150 -0.072995 -0.233610
0.051154 -0.072914 -0.233626
0.051157 -0.072836 -0.233626
0.051160 -0.072761 -0.233616
0.051162 -0.072683 -0.233607
0.051165 -0.072607 -0.233601
0.050508 -0.102037 -0.239729
0.050510 -0.101958 -0.239708
0.050513 -0.101876 -0.239698
0.050515 -0.101797 -0.239684
0.050518 -0.101719 -0.239680
0.050521 -0.101639 -0.239682
0.050524 -0.101559 -0.239680
0.050527 -0.101477 -0.239670
0.050530 -0.101397 -0.239654
0.050532 -0.101320 -0.239647
0.050536 -0.101238 -0.239649
0.050539 -0.101159 -0.239659
0.050542 -0.101078 -0.239651
0.050545 -0.101000 -0.239643
0.050548 -0.100920 -0.239647
0.050551 -0.100840 -0.239645
0.050554 -0.100760 -0.239635
0.050557 -0.100680 -0.239637
0.050560 -0.100600 -0.239638
0.050563 -0.100520 -0.239624
0.050566 -0.100441 -0.239612
0.050569 -0.100361 -0.239618
0.050573 -0.100280 -0.239628
0.050576 -0.100200 -0.239630
0.050579 -0.100121 -0.239626
0.050582 -0.100041 -0.239614
0.050584 -0.099961 -0.239604
0.050587 -0.099881 -0.239595
0.050590 -0.099801 -0.239597
0.050594 -0.099723 -0.239609
0.050597 -0.099641 -0.239611
0.050600 -0.099563 -0.239611
0.050604 -0.099481 -0.239613
0.050606 -0.099403 -0.239603
0.050609 -0.099324 -0.239591
0.050612 -0.099244 -0.239589
0.050616 -0.099164 -0.239602
0.050619 -0.099084 -0.239608
0.050622 -0.099004 -0.239592
0.050625 -0.098924 -0.239584
0.050628 -0.098844 -0.239586
0.050631 -0.098764 -0.239584
0.050634 -0.098684 -0.239586
0.050638 -0.098604 -0.239592
0.050641 -0.098524 -0.239586
0.050643 -0.098445 -0.239579
0.050646 -0.098365 -0.239569
0.050649 -0.098285 -0.239557
0.050652 -0.098205 -0.239557
0.050655 -0.098127 -0.239559
0.050658 -0.098047 -0.239555
0.050661 -0.097967 -0.239547
0.050664 -0.097888 -0.239539
0.050666 -0.097808 -0.239532
0.050669 -0.097728 -0.239526
0.050673 -0.097648 -0.239534
0.050677 -0.097568 -0.239552
0.050681 -0.097487 -0.239566
0.050684 -0.097407 -0.239564
0.050687 -0.097328 -0.239552
0.050690 -0.097248 -0.239550
0.050693 -0.097168 -0.239552
0.050696 -0.097088 -0.239552
0.050699 -0.097008 -0.239551
0.050702 -0.096930 -0.239553
0.050706 -0.096848 -0.239565
0.050709 -0.096770 -0.239555
0.050711 -0.096689 -0.239527
0.050713 -0.096611 -0.239519
0.050717 -0.096531 -0.239519
0.050720 -0.096451 -0.239519
0.050723 -0.096371 -0.239525
0.050727 -0.096291 -0.239528
0.050730 -0.096211 -0.239530
0.050733 -0.096131 -0.239534
0.050737 -0.096051 -0.239540
0.050740 -0.095971 -0.239534
0.050742 -0.095891 -0.239526
0.050746 -0.095811 -0.239526
0.050748 -0.095731 -0.239518
0.050751 -0.095651 -0.239508
0.050754 -0.095573 -0.239511
0.050758 -0.095492 -0.239509
0.050761 -0.095414 -0.239509
0.050764 -0.095333 -0.239519
0.050767 -0.095253 -0.239519
0.050770 -0.095174 -0.239509
0.050773 -0.095094 -0.239509
0.050777 -0.095014 -0.239513
0.050780 -0.094934 -0.239519
0.050783 -0.094854 -0.239518
0.050786 -0.094774 -0.239504
0.050789 -0.094694 -0.239502
0.050792 -0.094614 -0.239508
0.050795 -0.094534 -0.239504
0.050798 -0.094454 -0.239492
0.050801 -0.094375 -0.239490
0.050805 -0.094294 -0.239502
0.050808 -0.094214 -0.239506
0.050811 -0.094134 -0.239507
0.050814 -0.094054 -0.239503
0.050817 -0.093975 -0.239495
0.050820 -0.093895 -0.239497
0.050824 -0.093815 -0.239495
