# .PCD v0.7 - Point Cloud Data file format
VERSION 0.7
FIELDS x y z
SIZE 4 4 4
TYPE F F F
COUNT 1 1 1
WIDTH 1442
HEIGHT 1
VIEWPOINT 0 0 0 1 0 0 0
POINTS 1442
DATA ascii
-0.0403645 0.101964 -0.22878501
-0.040231999 0.1019595 -0.22877125
-0.040100001 0.101987 -0.228762
-0.040001497 0.1019865 -0.22878
-0.0398685 0.102008 -0.22874451
-0.039576747 0.10199125 -0.22874302
-0.039429501 0.101986 -0.228732
-0.039341003 0.101983 -0.228744
-0.039167002 0.1019755 -0.22872099
-0.038970001 0.101964 -0.22871301
-0.038741998 0.101986 -0.228717
-0.038527001 0.10199799 -0.22868834
-0.038406 0.102007 -0.228692
-0.038300999 0.102038 -0.22867499
-0.037719 0.101976 -0.22867951
-0.037644498 0.101969 -0.22868
-0.037505332 0.101974 -0.22867233
-0.037376501 0.101958 -0.22868299
-0.037285998 0.10199 -0.228689
-0.037041001 0.10198 -0.228699
-0.040831 0.102131 -0.228782
-0.040755335 0.10214167 -0.22878899
-0.040638499 0.102124 -0.228798
-0.040490247 0.10211699 -0.22878525
-0.040359497 0.102107 -0.228771
-0.040225752 0.10210501 -0.22878051
-0.040095001 0.102097 -0.22876699
-0.039997499 0.102095 -0.228782
-0.039864 0.102117 -0.228753
-0.039571501 0.10213549 -0.22873975
-0.039423 0.102133 -0.2287465
-0.039336 0.102127 -0.228735
-0.039160497 0.102121 -0.22873199
-0.038962498 0.102112 -0.228752
-0.0387385 0.102094 -0.228714
-0.038551334 0.102098 -0.22870634
-0.038401999 0.102115 -0.228698
-0.038298 0.102111 -0.228689
-0.038116001 0.102174 -0.228682
-0.037978001 0.102132 -0.228692
-0.037713498 0.102121 -0.22867799
-0.037639 0.102113 -0.2286775
-0.0375585 0.102108 -0.228679
-0.037371002 0.102102 -0.228681
-0.037284002 0.10206 -0.228677
-0.037039001 0.102051 -0.22868
-0.040826 0.10224 -0.228787
-0.040773001 0.102239 -0.228787
-0.0406335 0.102268 -0.2287925
-0.040484998 0.102261 -0.22878775
-0.040354498 0.102252 -0.22876799
-0.040220253 0.10224876 -0.22878024
-0.040089503 0.102241 -0.22876599
-0.039991997 0.10223874 -0.22877276
-0.039860003 0.102225 -0.22874299
-0.039567001 0.102244 -0.22874099
-0.039418999 0.10224 -0.22873899
-0.039329499 0.102273 -0.228752
-0.039154999 0.102266 -0.228733
-0.038957499 0.102255 -0.22873199
-0.038733497 0.102237 -0.22870401
-0.038532 0.1022295 -0.22870651
-0.0383965 0.102225 -0.22871101
-0.038293499 0.102221 -0.228697
-0.038113002 0.102248 -0.228689
-0.037974 0.102241 -0.22870199
-0.03771 0.102229 -0.228671
-0.037633501 0.102257 -0.228673
-0.040822499 0.102347 -0.228781
-0.040767498 0.102347 -0.22879601
-0.040628999 0.102376 -0.228787
-0.040480502 0.10236999 -0.2287885
-0.040348001 0.1023975 -0.228781
-0.040231001 0.102382 -0.22876966
-0.040112667 0.10239867 -0.22875834
-0.039987497 0.10238224 -0.22875652
-0.0398545 0.102369 -0.22874001
-0.039578337 0.102341 -0.22873901
-0.039449666 0.10236067 -0.22873001
-0.039326001 0.102381 -0.22874001
-0.039151002 0.102374 -0.228728
-0.038951501 0.102399 -0.228735
-0.0387275 0.102382 -0.22870201
-0.038525999 0.10237426 -0.22871175
-0.038392 0.102369 -0.2286965
-0.038287997 0.102365 -0.22869501
-0.038108997 0.102356 -0.22868
-0.037969999 0.102349 -0.22868499
-0.0407895 0.102492 -0.22879176
-0.040624499 0.102485 -0.22879401
-0.040476501 0.1024785 -0.22878501
-0.040343001 0.102507 -0.228788
-0.040256001 0.102505 -0.22877599
-0.040108334 0.10251933 -0.228755
-0.039981253 0.10252775 -0.22876725
-0.039848998 0.102512 -0.22873899
-0.039602499 0.102497 -0.22872899
-0.039461754 0.1024935 -0.228726
-0.039322503 0.102488 -0.22872999
-0.039146498 0.102482 -0.228733
-0.038947999 0.102507 -0.228735
-0.038722001 0.102527 -0.228705
-0.038565002 0.102519 -0.22869
-0.038432751 0.102514 -0.22868399
-0.038282499 0.102509 -0.228687
-0.037965499 0.102493 -0.22867149
-0.040877331 0.10265367 -0.22878565
-0.040755332 0.10263417 -0.22877751
-0.0406195 0.10263 -0.22879401
-0.040514499 0.1026255 -0.2287875
-0.040383499 0.10261725 -0.22878149
-0.040252 0.102613 -0.22876501
-0.040132668 0.10261766 -0.228763
-0.039977498 0.1026355 -0.22876251
-0.0398435 0.102658 -0.22873899
-0.039596997 0.102642 -0.228725
-0.039457001 0.102637 -0.22871377
-0.039316498 0.1026325 -0.2287375
-0.039140999 0.102627 -0.22873151
-0.038943999 0.102615 -0.22872651
-0.038718 0.102635 -0.228698
-0.038560003 0.102663 -0.228682
-0.038412336 0.10264534 -0.22867434
-0.038277499 0.102653 -0.228679
-0.041641001 0.102785 -0.228791
-0.041552 0.102745 -0.22879
-0.041430999 0.102754 -0.22878833
-0.041026998 0.102764 -0.228792
-0.040882498 0.10278525 -0.228762
-0.040762801 0.1027704 -0.2287524
-0.040640336 0.10278533 -0.22875901
-0.040509999 0.102768 -0.228763
-0.040378999 0.10276025 -0.22876275
-0.040247001 0.102757 -0.2287555
-0.040113501 0.1027495 -0.22875601
-0.039973751 0.1027435 -0.22875349
-0.039840002 0.102766 -0.228727
-0.039591998 0.1027865 -0.228717
-0.039451748 0.1027815 -0.22870451
-0.039310999 0.102777 -0.228728
-0.039136998 0.1027695 -0.22870001
-0.038938999 0.1027595 -0.22871199
-0.038714997 0.1027425 -0.228681
-0.041662335 0.10290667 -0.22878666
-0.0415475 0.1028875 -0.22876999
-0.0414115 0.1028855 -0.22878225
-0.041280001 0.1028775 -0.228778
-0.041023999 0.1028705 -0.22878
-0.040879 0.10289299 -0.2287485
-0.040775999 0.10292 -0.228724
-0.040649001 0.1029165 -0.22873501
-0.040505998 0.10291 -0.228725
-0.040374998 0.10290225 -0.22872774
-0.040243 0.102899 -0.228727
-0.0401095 0.10289074 -0.22872275
-0.039968751 0.102887 -0.2287365
-0.039837003 0.10287251 -0.2287035
-0.039588001 0.102894 -0.22871099
-0.039448 0.102888 -0.228692
-0.039306998 0.1029195 -0.22869551
-0.039132498 0.102911 -0.2286725
-0.038934998 0.102902 -0.2286845
-0.042083997 0.10300901 -0.22879468
-0.041670248 0.103039 -0.22877902
-0.0415425 0.103031 -0.22876501
-0.041406751 0.103029 -0.22876574
-0.041275002 0.103021 -0.2287595
-0.041019 0.103013 -0.2287675
-0.0408745 0.103001 -0.2287495
-0.040772498 0.1030275 -0.228716
-0.040645003 0.103025 -0.2287395
-0.040502999 0.103018 -0.228714
-0.040369999 0.1030455 -0.22871426
-0.040238 0.1030415 -0.22871301
-0.040104751 0.103034 -0.22870526
-0.039964251 0.1030295 -0.22871301
-0.039832003 0.103015 -0.228686
-0.039584503 0.103002 -0.22869751
-0.039444249 0.1029975 -0.22868875
-0.039303999 0.103025 -0.228672
-0.039129 0.103021 -0.22867399
-0.04219 0.103181 -0.22879399
-0.042066 0.10313851 -0.22878374
-0.041945335 0.103142 -0.22878999
-0.041652668 0.10316966 -0.22876935
-0.041536503 0.103176 -0.22876501
-0.041401248 0.10317325 -0.22876126
-0.0412695 0.103165 -0.22876
-0.041014001 0.103157 -0.22875699
-0.04086975 0.10314525 -0.228742
-0.040767998 0.10313751 -0.228717
-0.040640999 0.1031325 -0.22873025
-0.040498503 0.1031255 -0.2287095
-0.040366001 0.1031535 -0.2287045
-0.040233999 0.103149 -0.228708
-0.040099751 0.10317799 -0.22868976
-0.039959498 0.103173 -0.2286965
-0.039826497 0.10316 -0.228687
-0.0395795 0.1031455 -0.228681
-0.039490499 0.103142 -0.22868401
-0.039387003 0.103141 -0.22868299
-0.038926002 0.103153 -0.228671
-0.042371001 0.103334 -0.228799
-0.042188 0.103253 -0.22879501
-0.042060249 0.10328349 -0.22878349
-0.041933 0.1032735 -0.22878174
-0.041674662 0.10326733 -0.228769
-0.041533001 0.103284 -0.22875699
-0.041397497 0.10328101 -0.2287555
-0.041263998 0.103311 -0.2287575
-0.041008502 0.103303 -0.22875249
-0.040863998 0.1032905 -0.22874175
-0.040762246 0.1032815 -0.22871999
-0.0406355 0.1032785 -0.228724
-0.040493499 0.103269 -0.228701
-0.0403625 0.103262 -0.2287015
-0.040229999 0.103259 -0.22870851
-0.040095501 0.1032865 -0.22868749
-0.039955501 0.103281 -0.22869849
-0.039820999 0.103304 -0.228678
-0.039485499 0.103286 -0.228673
-0.039338 0.103282 -0.22867925
-0.038922999 0.103227 -0.228672
-0.042366497 0.103442 -0.22879949
-0.0420545 0.1034285 -0.22878724
-0.041927002 0.1034195 -0.22879149
-0.041657001 0.103399 -0.22876349
-0.041528001 0.103394 -0.2287645
-0.04139325 0.1033895 -0.2287575
-0.04126 0.103419 -0.228752
-0.041003998 0.103411 -0.22874799
-0.0408585 0.103434 -0.22873551
-0.040756501 0.1034265 -0.22871749
-0.040629998 0.1034225 -0.228724
-0.040487498 0.103415 -0.22870851
-0.040356997 0.103406 -0.228697
-0.040224999 0.103402 -0.22869301
-0.040091749 0.10339449 -0.228686
-0.0399515 0.10338925 -0.22869225
-0.039568499 0.103434 -0.22867599
-0.039478 0.103466 -0.228671
-0.039332002 0.1034275 -0.22867849
-0.042035997 0.10356066 -0.22879033
-0.04192175 0.1035635 -0.2287855
-0.041651502 0.103544 -0.22875974
-0.041522503 0.103538 -0.22875901
-0.041387752 0.1035345 -0.2287575
-0.0412555 0.103528 -0.22875801
-0.0410005 0.1035185 -0.22874999
-0.040854499 0.103542 -0.228735
-0.040751249 0.10357125 -0.22871549
-0.040624 0.1035675 -0.228728
-0.040482499 0.103559 -0.22869599
-0.040351253 0.103551 -0.2286965
-0.040218502 0.103548 -0.2287055
-0.040086001 0.103539 -0.22868751
-0.039946001 0.10353351 -0.22868699
-0.039563999 0.103543 -0.228681
-0.039475001 0.10354 -0.22867601
-0.039372001 0.103538 -0.228671
-0.042059332 0.10365834 -0.22878332
-0.041917499 0.1036725 -0.228789
-0.041645501 0.10368951 -0.22876951
-0.0415175 0.103682 -0.22875649
-0.041426502 0.103681 -0.22874901
-0.041293748 0.10367501 -0.22875699
-0.040994503 0.1036645 -0.228753
-0.040849999 0.103652 -0.22873899
-0.040747501 0.103679 -0.22870851
-0.0406195 0.1036765 -0.2287285
-0.040477999 0.103667 -0.228698
-0.040360671 0.10368466 -0.22870167
-0.040242001 0.10370534 -0.228709
-0.0401235 0.103687 -0.228692
-0.039972667 0.10368049 -0.22869168
-0.039559998 0.103651 -0.228681
-0.039473001 0.103612 -0.228672
-0.039337669 0.10365701 -0.22867866
-0.038903002 0.103733 -0.228673
-0.042040497 0.1037905 -0.22878525
-0.041920334 0.10379335 -0.22878766
-0.041640997 0.10379849 -0.22877151
-0.041540999 0.10384133 -0.22875966
-0.041421503 0.103825 -0.228737
-0.041288503 0.1038195 -0.22875549
-0.040988997 0.103808 -0.22874799
-0.040870503 0.1038 -0.22874901
-0.04076767 0.10378999 -0.22872351
-0.040615499 0.1037845 -0.22872749
-0.040473498 0.103777 -0.22871
-0.040385 0.103808 -0.22871
-0.040252998 0.1038015 -0.2287045
-0.040119998 0.103793 -0.228672
-0.039996751 0.103826 -0.22868301
-0.039854251 0.10381775 -0.22869399
-0.039556 0.103759 -0.228678
-0.039318003 0.10378925 -0.22867775
-0.042160001 0.103976 -0.228789
-0.042034999 0.1039355 -0.2287865
-0.041908253 0.103924 -0.2287775
-0.041676 0.103907 -0.22874799
-0.041552998 0.1039365 -0.2287495
-0.041416999 0.103935 -0.228752
-0.041268665 0.10395133 -0.22875333
-0.040983498 0.103952 -0.228742
-0.040864997 0.103945 -0.22874799
-0.040762503 0.10393434 -0.22871535
-0.04061025 0.10392975 -0.22872549
-0.040468 0.103921 -0.22870401
-0.0403805 0.103917 -0.22871
-0.040249251 0.10391 -0.22869575
-0.040114 0.103939 -0.228687
-0.0399925 0.103935 -0.2286915
-0.039903 0.103932 -0.22870301
-0.039268501 0.1039305 -0.228673
-0.042343002 0.104058 -0.228798
-0.042186331 0.104074 -0.228788
-0.042069502 0.104083 -0.2287845
-0.041931 0.10407233 -0.22878134
-0.041670501 0.104052 -0.2287495
-0.04154925 0.104045 -0.228744
-0.041413002 0.104043 -0.22874299
-0.041294668 0.10404801 -0.22874232
-0.04098 0.10406 -0.228736
-0.040859997 0.10408799 -0.2287325
-0.040757503 0.10407799 -0.22870649
-0.040606 0.1040715 -0.22870299
-0.040462501 0.104065 -0.2287
-0.040375501 0.104059 -0.2286935
-0.040244251 0.104054 -0.228689
-0.040108502 0.10405 -0.228708
-0.039987996 0.10404401 -0.22869276
-0.039863665 0.10404801 -0.22868668
-0.042339999 0.104132 -0.2288
-0.042151 0.104194 -0.22879
-0.042064998 0.104192 -0.228787
-0.041926172 0.104216 -0.228772
-0.041665003 0.104196 -0.22874701
-0.041543752 0.104189 -0.22873724
-0.041408002 0.104187 -0.22872749
-0.041275248 0.10417899 -0.22873674
-0.040976003 0.104169 -0.2287305
-0.040856998 0.104194 -0.228714
-0.040742397 0.1042148 -0.22870021
-0.040600002 0.1042165 -0.22869924
-0.040457502 0.104211 -0.228698
-0.040369499 0.104205 -0.22869399
-0.040238 0.1041995 -0.22869825
-0.040103503 0.1041935 -0.228698
-0.039984502 0.1041515 -0.2286745
-0.039893501 0.104184 -0.22869501
-0.039347 0.10419 -0.228672
-0.042177331 0.10431534 -0.22878933
-0.0420615 0.1042995 -0.22877699
-0.041921999 0.10432434 -0.228769
-0.041660003 0.104341 -0.2287395
-0.041538499 0.10433351 -0.2287325
-0.0414025 0.10433049 -0.228728
-0.041270249 0.1043225 -0.22872324
-0.040971003 0.104311 -0.22871199
-0.040852502 0.104303 -0.228714
-0.040761501 0.10431375 -0.22870025
-0.040633999 0.104328 -0.228707
-0.040505499 0.104321 -0.22869951
-0.040363997 0.104349 -0.22869501
-0.040232498 0.10434375 -0.22869401
-0.0400985 0.104338 -0.228689
-0.039977502 0.1043315 -0.22867775
-0.039888501 0.10433 -0.22868699
-0.042413 0.104496 -0.22879399
-0.042328 0.1044555 -0.228791
-0.042188 0.1044475 -0.2287765
-0.042056501 0.104443 -0.22876701
-0.041917998 0.104433 -0.22876567
-0.041654497 0.1044845 -0.228734
-0.04153325 0.10447799 -0.22872823
-0.041397497 0.104474 -0.22870949
-0.041265249 0.1044675 -0.22871526
-0.040965497 0.104456 -0.228707
-0.040847503 0.104448 -0.22871099
-0.040754601 0.1044328 -0.22869639
-0.040649667 0.10444867 -0.22870333
-0.040501501 0.1044285 -0.228697
-0.04036 0.104457 -0.228689
-0.040229 0.104451 -0.228688
-0.040092498 0.104483 -0.228688
-0.039960332 0.10446334 -0.22867501
-0.039883502 0.104474 -0.22868401
-0.042438 0.10461766 -0.22877766
-0.0423235 0.104599 -0.22876251
-0.0421835 0.10459075 -0.2287595
-0.042052001 0.104587 -0.22875199
-0.041913662 0.10457549 -0.22874551
-0.041650999 0.104593 -0.228725
-0.041529499 0.1045855 -0.22871751
-0.041393001 0.104582 -0.228714
-0.04126025 0.10461 -0.22869724
-0.040959999 0.104601 -0.22870499
-0.040841497 0.104592 -0.228708
-0.040773332 0.10457266 -0.22868867
-0.040655747 0.10458025 -0.22868526
-0.040496498 0.10457225 -0.22868049
-0.040358 0.104529 -0.22868501
-0.04022475 0.10456 -0.2286815
-0.040089 0.104591 -0.228673
-0.039933 0.104584 -0.228673
-0.039879002 0.104582 -0.228688
-0.042576 0.10468701 -0.2287865
-0.042449497 0.1047135 -0.228761
-0.042319499 0.104739 -0.22872901
-0.042179503 0.10473201 -0.22872277
-0.042047001 0.1047305 -0.22873801
-0.041934997 0.10472 -0.228718
-0.041856997 0.104716 -0.2287315
-0.041648 0.1046985 -0.22870001
-0.041526001 0.104692 -0.22870025
-0.041390501 0.1046885 -0.228686
-0.041256499 0.104718 -0.2286855
-0.040957 0.104708 -0.22868501
-0.040836997 0.104735 -0.22868401
-0.040621001 0.104687 -0.228672
-0.039877001 0.104653 -0.22867601
-0.043083999 0.104893 -0.228793
-0.042948004 0.104861 -0.22879
-0.042571001 0.104829 -0.22876501
-0.042446997 0.10482 -0.22873451
-0.042316999 0.104845 -0.22869299
-0.042174999 0.10484 -0.228723
-0.042043999 0.1048705 -0.2286925
-0.0419305 0.10486175 -0.22869201
-0.041853003 0.104857 -0.228706
-0.0416435 0.10484 -0.22867349
-0.041537333 0.10482333 -0.22867699
-0.041297998 0.104792 -0.228681
-0.043080501 0.105002 -0.228793
-0.042956501 0.10499249 -0.2287735
-0.042567 0.104972 -0.22874349
-0.042442001 0.1049625 -0.22872201
-0.042312503 0.104953 -0.22869301
-0.042172 0.1049475 -0.22871101
-0.042040002 0.104977 -0.228686
-0.041915666 0.10499199 -0.22867365
-0.041848 0.105 -0.22868499
-0.041638002 0.104986 -0.22867501
-0.043167502 0.10508 -0.228798
-0.043076001 0.105108 -0.228781
-0.042952001 0.1051015 -0.22878051
-0.042562 0.105114 -0.22872499
-0.042436752 0.105107 -0.228714
-0.0423075 0.105098 -0.2286935
-0.042182337 0.10507933 -0.22869301
-0.042063665 0.105099 -0.22868367
-0.0419215 0.105114 -0.2286725
-0.041843999 0.105108 -0.228679
-0.043163002 0.105188 -0.2288
-0.043072499 0.105218 -0.228781
-0.042948004 0.10521 -0.22877401
-0.042556502 0.105259 -0.2287205
-0.0424315 0.105251 -0.22871099
-0.042301998 0.105242 -0.22868
-0.042207502 0.105237 -0.228687
-0.042072996 0.10523225 -0.228686
-0.041907337 0.10521001 -0.22867501
-0.041840002 0.1052165 -0.2286815
-0.043250501 0.105371 -0.22879499
-0.043096002 0.10537666 -0.22878766
-0.04294325 0.10535301 -0.22875874
-0.042552002 0.105368 -0.228724
-0.042411998 0.105382 -0.22870366
-0.042296 0.10542 -0.228673
-0.0422015 0.105382 -0.228692
-0.042067498 0.10537724 -0.22868401
-0.041942999 0.105406 -0.22867499
-0.0418345 0.10536 -0.22867501
-0.043105997 0.1055105 -0.2287865
-0.042950664 0.105487 -0.228765
-0.042897999 0.105533 -0.22876699
-0.042547502 0.105477 -0.228727
-0.042466 0.105472 -0.2287145
-0.042336002 0.105497 -0.2286845
-0.042197 0.105491 -0.228692
-0.042104498 0.105523 -0.228689
-0.04194 0.105478 -0.228671
-0.04183 0.10547 -0.22867399
-0.043085665 0.105642 -0.22878867
-0.042970002 0.105644 -0.228763
-0.042893499 0.105643 -0.228769
-0.042542502 0.105622 -0.22872201
-0.042460501 0.105616 -0.22871301
-0.042331003 0.1056065 -0.22869651
-0.0421925 0.105599 -0.22869751
-0.042100001 0.105631 -0.22868501
-0.043051001 0.105762 -0.22879399
-0.042966001 0.105754 -0.228764
-0.042888999 0.105751 -0.22877
-0.042536497 0.105766 -0.22872999
-0.0424545 0.105762 -0.22872201
-0.04232575 0.10575101 -0.22869375
-0.042186998 0.105745 -0.228699
-0.042067334 0.10575033 -0.228678
-0.043231502 0.105878 -0.228799
-0.043091752 0.105873 -0.22879
-0.042961001 0.105863 -0.228773
-0.042884998 0.10586 -0.228765
-0.042531997 0.1059095 -0.228715
-0.042448498 0.105908 -0.22872099
-0.042319998 0.10589699 -0.2287
-0.042181499 0.105889 -0.2286965
-0.042091999 0.105849 -0.22867601
-0.043086752 0.10601699 -0.22878174
-0.042956002 0.1060065 -0.2287645
-0.042879499 0.106005 -0.2287605
-0.042528 0.106017 -0.22871
-0.042445 0.106016 -0.228717
-0.042314999 0.106041 -0.22868775
-0.0421765 0.106032 -0.22868499
-0.043321498 0.106171 -0.2288
-0.043220498 0.106167 -0.228793
-0.043080751 0.1061625 -0.228781
-0.042951003 0.10615 -0.228746
-0.0428745 0.106148 -0.22874799
-0.0425235 0.1061275 -0.2287145
-0.0424405 0.106124 -0.22870949
-0.042266998 0.106146 -0.228681
-0.042172998 0.10614 -0.22868
-0.043216001 0.106277 -0.22879501
-0.043076999 0.10627051 -0.2287785
-0.042973336 0.10630967 -0.22874767
-0.042869501 0.106292 -0.22873449
-0.042517997 0.106271 -0.228708
-0.042436 0.106267 -0.22869301
-0.0422635 0.106254 -0.2286725
-0.042169999 0.106212 -0.228671
-0.043311998 0.106425 -0.228797
-0.043211997 0.106383 -0.2287855
-0.043118 0.106381 -0.228773
-0.042984501 0.106407 -0.22874799
-0.042865001 0.1064 -0.228734
-0.042512499 0.106416 -0.22869951
-0.042430498 0.106411 -0.228689
-0.043623 0.106582 -0.2288
-0.043353997 0.10653475 -0.22878376
-0.043206997 0.106528 -0.228772
-0.043113001 0.1065245 -0.22875899
-0.042980999 0.10651399 -0.22872899
-0.042861998 0.1065075 -0.2287205
-0.042481001 0.10654599 -0.22868299
-0.043587498 0.1066885 -0.22877701
-0.043481499 0.106688 -0.22878149
-0.043351002 0.10667575 -0.22874349
-0.043203499 0.10666899 -0.22873601
-0.043109 0.106667 -0.22872999
-0.042977251 0.10665575 -0.228701
-0.042857997 0.10664999 -0.22869301
-0.043754499 0.1068095 -0.22878349
-0.04363 0.10678025 -0.2287645
-0.043478999 0.106793 -0.22874799
-0.043347001 0.10681575 -0.22870725
-0.043200001 0.106809 -0.22868949
-0.043105997 0.106807 -0.228689
-0.042931002 0.106759 -0.228671
-0.043825999 0.1069195 -0.228781
-0.043750748 0.10691699 -0.22877175
-0.043642003 0.10690551 -0.22874524
-0.043512251 0.1069015 -0.22874051
-0.043343998 0.106923 -0.228687
-0.043195501 0.1069525 -0.22867601
-0.043843668 0.10707767 -0.22877733
-0.04374475 0.10706151 -0.22877051
-0.043637253 0.107048 -0.22872825
-0.043506999 0.107045 -0.228727
-0.043355335 0.10702 -0.22868066
-0.043191001 0.10706 -0.228672
-0.043838996 0.10719834 -0.22877534
-0.043740001 0.10720599 -0.22876324
-0.043631751 0.1071925 -0.22872226
-0.04350175 0.10718925 -0.22872025
-0.04338 0.10718 -0.228689
-0.043858003 0.10729834 -0.22878332
-0.0437355 0.1073145 -0.2287585
-0.043626498 0.1073375 -0.22872224
-0.043496501 0.1073335 -0.22871599
-0.043374501 0.107324 -0.2286835
-0.043961 0.1074 -0.228799
-0.043876 0.107433 -0.22878799
-0.043756668 0.10742434 -0.22876368
-0.043622501 0.1074455 -0.2287195
-0.043492001 0.1074415 -0.2287125
-0.043369502 0.107468 -0.228671
-0.043871 0.107577 -0.22877499
-0.043751001 0.10756934 -0.22876699
-0.043618247 0.1075545 -0.228717
-0.043488249 0.1075505 -0.22871201
-0.043365002 0.107578 -0.22868299
-0.043949999 0.10769 -0.22879601
-0.043865502 0.107721 -0.228774
-0.043745 0.10771534 -0.22876783
-0.043612499 0.1077 -0.22872201
-0.043482251 0.107696 -0.228715
-0.043360002 0.107688 -0.228688
-0.043861002 0.107833 -0.228788
-0.043739166 0.10786 -0.22877334
-0.043606497 0.107845 -0.22872302
-0.043477248 0.10784 -0.22870399
-0.043355502 0.10783 -0.228672
-0.043855499 0.107942 -0.228799
-0.04373467 0.10797 -0.22877432
-0.043601003 0.10799 -0.2287225
-0.043472499 0.107983 -0.22869
-0.043349497 0.1079755 -0.228673
-0.0438505 0.108087 -0.228793
-0.043741398 0.1080706 -0.22876839
-0.043624666 0.10810267 -0.22873032
-0.043468501 0.1080915 -0.228688
-0.043343 0.108158 -0.22867499
-0.04388725 0.10823175 -0.22878352
-0.043751001 0.10822351 -0.2287655
-0.043620501 0.10821117 -0.22872716
-0.043463003 0.1082035 -0.22870499
-0.043338999 0.108232 -0.22868501
-0.043248001 0.108225 -0.22867499
-0.0440115 0.108381 -0.228799
-0.043881997 0.10837675 -0.22877701
-0.043745749 0.108367 -0.22875926
-0.043614835 0.1083565 -0.22872549
-0.043469999 0.10833666 -0.22871034
-0.043363001 0.10835433 -0.22869034
-0.043244999 0.108297 -0.22867499
-0.044008002 0.108491 -0.22879501
-0.043878499 0.10848451 -0.22877
-0.043741502 0.10850976 -0.2287325
-0.043610334 0.10849849 -0.22870284
-0.04349 0.108491 -0.22868699
-0.043416001 0.10849001 -0.228687
-0.044093002 0.108641 -0.228791
-0.044004001 0.1085975 -0.228778
-0.043875251 0.1085905 -0.22874251
-0.043738998 0.108615 -0.228701
-0.043636501 0.1086065 -0.22867349
-0.04355 0.108599 -0.228673
-0.044134252 0.1087525 -0.22878174
-0.044000998 0.1087375 -0.22874001
-0.043871999 0.1087295 -0.22869901
-0.043737501 0.1086845 -0.228681
-0.044264 0.108868 -0.228793
-0.044129997 0.1088955 -0.22876427
-0.043995999 0.108881 -0.22872299
-0.043881997 0.10886133 -0.22867733
-0.043754 0.108902 -0.228672
-0.0442595 0.108977 -0.22879499
-0.044125497 0.109006 -0.2287655
-0.0439905 0.109026 -0.22872201
-0.043861501 0.109019 -0.2286835
-0.043717001 0.108998 -0.22867467
-0.044121001 0.10911451 -0.2287665
-0.043985002 0.109137 -0.228737
-0.043857001 0.1091285 -0.228691
-0.043717999 0.109192 -0.22867399
-0.044116497 0.109225 -0.228774
-0.04401033 0.10926133 -0.22874767
-0.043866668 0.10922799 -0.22870301
-0.043746665 0.109268 -0.22868033
-0.044019751 0.10939725 -0.22875676
-0.043888003 0.109387 -0.22870851
-0.043742001 0.109378 -0.22868685
-0.04399867 0.10953134 -0.22877133
-0.0438825 0.109532 -0.22871101
-0.043746598 0.109519 -0.22871161
-0.043624997 0.10955566 -0.22868831
-0.043962002 0.109654 -0.22879601
-0.043877002 0.109644 -0.22872999
-0.0437565 0.10967575 -0.22873451
-0.0436306 0.10966142 -0.22871479
-0.043870501 0.1097605 -0.22877851
-0.043751501 0.10978749 -0.22875151
-0.043614667 0.10980067 -0.22871168
-0.043437999 0.109833 -0.228671
-0.043745499 0.10990001 -0.2287785
-0.0436204 0.109897 -0.228738
-0.043467 0.1099075 -0.228677
-0.043704502 0.110043 -0.22878
-0.043604165 0.1100355 -0.22874232
-0.0434625 0.110019 -0.22869125
-0.043356001 0.110054 -0.228681
-0.043733999 0.1101925 -0.22878924
-0.043624002 0.1101855 -0.22876175
-0.043485504 0.11016967 -0.22871535
-0.043351501 0.110162 -0.22868499
-0.043694999 0.110298 -0.22878399
-0.043610003 0.11031934 -0.22876734
-0.0435105 0.110318 -0.228734
-0.043380748 0.1103125 -0.22871625
-0.043259501 0.110302 -0.22867799
-0.043691002 0.110372 -0.228792
-0.043622661 0.11041967 -0.228787
-0.043494668 0.110452 -0.22874399
-0.043374252 0.11046 -0.2287295
-0.043252498 0.11045 -0.228698
-0.043159999 0.110478 -0.228671
-0.043608751 0.110553 -0.22879125
-0.043510333 0.11055034 -0.22874498
-0.0433705 0.1105685 -0.22872651
-0.043248001 0.110561 -0.228707
-0.043106999 0.1105485 -0.22867149
-0.043595333 0.110686 -0.22878301
-0.043495752 0.1106835 -0.22873999
-0.043366 0.1106785 -0.22872825
-0.043245003 0.1106675 -0.22868651
-0.043612398 0.1108516 -0.22878699
-0.04349 0.1108295 -0.228746
-0.043359999 0.110825 -0.22873402
-0.043239001 0.1108135 -0.228687
-0.043095 0.1108405 -0.22867849
-0.042950001 0.110837 -0.228673
-0.043618333 0.110955 -0.22879434
-0.04348325 0.11097675 -0.228764
-0.043353502 0.11097325 -0.228753
-0.043232001 0.110962 -0.22871101
-0.043090001 0.11095275 -0.2286965
-0.042944498 0.110949 -0.22868851
-0.042856999 0.110905 -0.228673
-0.043477498 0.1110905 -0.22878599
-0.043348499 0.1110855 -0.22877151
-0.043224998 0.1111115 -0.22874251
-0.043083504 0.11110099 -0.22870949
-0.042938501 0.111096 -0.228699
-0.042847998 0.111125 -0.228682
-0.043331668 0.11118367 -0.22878234
-0.043219 0.111224 -0.228771
-0.043127999 0.111215 -0.22874101
-0.042980999 0.1112085 -0.228715
-0.0428425 0.111237 -0.22870401
-0.042731334 0.11123967 -0.22867668
-0.043214001 0.111337 -0.228791
-0.043122001 0.11133 -0.22877699
-0.042975251 0.111321 -0.22873899
-0.042837001 0.11135 -0.22872999
-0.042714 0.11133949 -0.22869399
-0.042983666 0.11146167 -0.228783
-0.042831 0.111463 -0.228754
-0.042708002 0.111453 -0.22872925
-0.042318001 0.111464 -0.22867601
-0.042233001 0.111534 -0.228671
-0.042824998 0.111578 -0.228788
-0.04270025 0.1116035 -0.2287655
-0.042312 0.111578 -0.22870401
-0.042185999 0.1116045 -0.22868299
-0.041958999 0.111665 -0.22867601
-0.042695001 0.1117175 -0.228789
-0.042304002 0.1117295 -0.22874549
-0.042181 0.11171775 -0.22870301
-0.042050999 0.111709 -0.22869
-0.041909501 0.11173899 -0.22868851
-0.041584998 0.111791 -0.228671
-0.042296998 0.111881 -0.22877699
-0.042173248 0.1118685 -0.22873701
-0.042043999 0.1118585 -0.2287125
-0.041949503 0.111853 -0.22871301
-0.041816 0.11184575 -0.22868749
-0.041581001 0.111868 -0.228691
-0.041368 0.111927 -0.22868501
-0.041292001 0.111922 -0.22867499
-0.042291999 0.111993 -0.228793
-0.0421675 0.1119835 -0.22876999
-0.042063665 0.11202701 -0.22877701
-0.041942 0.112004 -0.22874901
-0.041809503 0.11199401 -0.22870551
-0.041654252 0.11198275 -0.228689
-0.041575998 0.11198 -0.228714
-0.041365001 0.112003 -0.228698
-0.041289002 0.111996 -0.228682
-0.041198999 0.111992 -0.22867399
-0.040672999 0.112047 -0.228677
-0.040553998 0.11204 -0.22868399
-0.040337 0.112028 -0.228672
-0.040259998 0.112025 -0.228677
-0.041937001 0.112115 -0.228763
-0.041788001 0.112134 -0.228742
-0.041645251 0.11213949 -0.22875801
-0.041567501 0.1121355 -0.228769
-0.041359499 0.1121145 -0.22872201
-0.041282501 0.1121115 -0.22872201
-0.041162331 0.11211634 -0.22869635
-0.040925 0.112132 -0.22869501
-0.040669002 0.112123 -0.22869299
-0.040484503 0.11213049 -0.22870325
-0.040360749 0.1121465 -0.22871649
-0.040253501 0.112142 -0.22872299
-0.04010525 0.11213376 -0.22871
-0.039974999 0.1121245 -0.228697
-0.039841499 0.1121215 -0.2286955
-0.039709002 0.112149 -0.22868
-0.039612502 0.1121455 -0.2286775
-0.039478 0.112135 -0.228678
-0.038947999 0.112185 -0.228688
-0.038772002 0.112181 -0.22869
-0.038575999 0.112167 -0.22867499
-0.038350001 0.112156 -0.228677
-0.038105 0.112145 -0.22867399
-0.041932002 0.112196 -0.228799
-0.041839998 0.112193 -0.2288
-0.041352 0.112235 -0.22878601
-0.041274998 0.11223 -0.228782
-0.0411385 0.11226051 -0.22876474
-0.041005 0.1122545 -0.22875601
-0.040917002 0.11225 -0.228755
-0.040661998 0.1122405 -0.228742
-0.040500399 0.112239 -0.22876199
-0.040354997 0.112261 -0.22875151
-0.040247001 0.112257 -0.228763
-0.040099502 0.1122485 -0.228744
-0.039966002 0.1122795 -0.228753
-0.039832748 0.1122755 -0.22874799
-0.039701998 0.112267 -0.228735
-0.039605003 0.11226401 -0.22873551
-0.039471999 0.11225151 -0.22872099
-0.039181251 0.11223325 -0.22870725
-0.039032999 0.11223 -0.22870401
-0.038943999 0.112264 -0.228716
-0.038768999 0.112257 -0.228706
-0.038570002 0.112248 -0.228717
-0.038343001 0.11227199 -0.22872201
-0.038142499 0.112262 -0.228709
-0.038008001 0.1122565 -0.22870401
-0.037903499 0.1122545 -0.228707
-0.037724499 0.1122445 -0.22869301
-0.037586 0.1122385 -0.228698
-0.037319999 0.112263 -0.228678
-0.037245002 0.112257 -0.22869
-0.037120998 0.1122505 -0.2286815
-0.036977999 0.112243 -0.228671
-0.036885001 0.112318 -0.228696
-0.036641002 0.112305 -0.228689
-0.036331668 0.11225634 -0.22868134
-0.036187999 0.11227649 -0.2286755
-0.036052998 0.112273 -0.22868
-0.035948999 0.112271 -0.22868299
-0.035561502 0.112254 -0.228677
-0.035401002 0.112318 -0.22868
-0.035308 0.1123145 -0.2286965
-0.035148501 0.112306 -0.228682
-0.034998 0.112307 -0.228681
-0.034908999 0.112303 -0.228687
-0.034780003 0.11228999 -0.228672
-0.034545999 0.112278 -0.228672
-0.040911 0.112366 -0.22879501
-0.040654998 0.11236 -0.228799
-0.040459 0.112343 -0.22878751
-0.040349998 0.112338 -0.228781
-0.040243 0.112335 -0.228791
-0.040079001 0.11235067 -0.22877999
-0.039825998 0.1123915 -0.22879201
-0.039694998 0.112383 -0.228778
-0.039597999 0.1123805 -0.2287825
-0.039463501 0.11240549 -0.22877201
-0.039188333 0.11237633 -0.22876133
-0.039059002 0.112396 -0.22875267
-0.038936999 0.11237951 -0.22876
-0.038761999 0.112372 -0.22874299
-0.038564 0.11236399 -0.22875901
-0.038337 0.112388 -0.228755
-0.038137 0.1123765 -0.228737
-0.038001999 0.112373 -0.22874101
-0.037895001 0.1124095 -0.22875899
-0.037716001 0.1124 -0.228746
-0.037577 0.11239401 -0.228752
-0.037315 0.112344 -0.22871999
-0.037262004 0.112389 -0.22874101
-0.037115 0.11236449 -0.22870898
-0.036972001 0.11235949 -0.22870499
-0.036881 0.112394 -0.22872201
-0.036637001 0.112383 -0.228717
-0.036426 0.112401 -0.228706
-0.036335498 0.11239649 -0.22872075
-0.036196336 0.11238033 -0.22871333
-0.036076669 0.112402 -0.22872466
-0.035941999 0.112388 -0.22872701
-0.035767499 0.112376 -0.22871
-0.035555251 0.11237075 -0.228726
-0.035430666 0.112374 -0.22870867
-0.035304002 0.1123895 -0.2287185
-0.035192002 0.112386 -0.22871
-0.035045497 0.11238199 -0.2287015
-0.034905002 0.112382 -0.228717
-0.034773998 0.11240526 -0.22870749
-0.034616753 0.11239849 -0.22870401
-0.0345155 0.11239225 -0.22870301
-0.034395333 0.11241701 -0.22868033
-0.034175999 0.11241 -0.228673
-0.033916999 0.112397 -0.22867601
-0.039070003 0.112501 -0.228798
-0.038756002 0.112489 -0.22878601
-0.038557999 0.11248 -0.228793
-0.038331002 0.1125005 -0.228783
-0.038174 0.1124925 -0.228773
-0.038040999 0.11248925 -0.22878
-0.03771 0.112513 -0.22878
-0.037571002 0.112509 -0.228788
-0.037279997 0.11252 -0.22878166
-0.037106249 0.11252 -0.22877151
-0.036962502 0.112516 -0.228774
-0.036874499 0.1125105 -0.228764
-0.036630001 0.112499 -0.22875801
-0.036419999 0.112518 -0.228742
-0.0363295 0.112511 -0.2287565
-0.036217999 0.11251 -0.22876
-0.036086001 0.112506 -0.22875699
-0.035934001 0.11254101 -0.228772
-0.035759002 0.11253 -0.228761
-0.035547003 0.11252425 -0.22877076
-0.0354155 0.11251275 -0.2287425
-0.035298001 0.11250575 -0.2287515
-0.035185002 0.1125025 -0.22875449
-0.035039499 0.11249726 -0.22873276
-0.034899503 0.112495 -0.22874349
-0.034768 0.1125195 -0.22874001
-0.034610003 0.112514 -0.22874901
-0.034509003 0.11250851 -0.22874349
-0.03438833 0.11253384 -0.22873032
-0.034169499 0.112526 -0.228716
-0.033911001 0.1125115 -0.22870201
-0.03361275 0.1125 -0.22870049
-0.033535 0.112496 -0.228701
-0.033073999 0.112512 -0.228672
-0.032876998 0.112574 -0.228689
-0.037054501 0.112671 -0.228799
-0.036867499 0.112661 -0.22878599
-0.036623999 0.112613 -0.228791
-0.036414001 0.1126325 -0.22877601
-0.036335334 0.112614 -0.22878633
-0.036212001 0.1126245 -0.22879
-0.036095999 0.11260966 -0.22879
-0.035753001 0.112647 -0.22879601
-0.035595 0.112642 -0.228799
-0.035423599 0.1126586 -0.22877741
-0.035279665 0.11264533 -0.22878899
-0.035177499 0.1126545 -0.228792
-0.035031248 0.1126515 -0.228782
-0.034891501 0.112649 -0.22878399
-0.034762003 0.1126365 -0.228779
-0.034632999 0.112631 -0.2287785
-0.034527399 0.11261781 -0.22877899
-0.034382667 0.11264967 -0.22876199
-0.034162998 0.112644 -0.228764
-0.033902001 0.1126665 -0.22875899
-0.033604749 0.1126525 -0.22874075
-0.033526 0.11265 -0.228751
-0.033381 0.112633 -0.228708
-0.033068001 0.1126265 -0.228709
-0.032979 0.11262099 -0.228709
-0.032829002 0.1126475 -0.228701
-0.032697 0.112643 -0.22869
-0.032565001 0.112636 -0.228686
-0.032330003 0.11267066 -0.22868133
-0.032233 0.11269 -0.22867399
-0.0061949999 0.112701 -0.22870401
-0.0061069997 0.1126565 -0.22870401
-0.036408 0.112745 -0.22879601
-0.0361205 0.11277 -0.228797
-0.035402499 0.1127755 -0.228787
-0.035285503 0.1127695 -0.22879651
-0.035078 0.112761 -0.228791
-0.034711 0.112747 -0.228799
-0.034628 0.112743 -0.2288
-0.034504332 0.11276167 -0.228799
-0.034388199 0.1127546 -0.22877701
-0.034157999 0.11272 -0.228792
-0.033898 0.112779 -0.22876699
-0.033597503 0.112803 -0.22876599
-0.033519 0.112801 -0.22877699
-0.033373497 0.112785 -0.2287395
-0.033061497 0.112776 -0.228728
-0.0329725 0.11277 -0.22872201
-0.032824751 0.11275899 -0.22870824
-0.032692 0.112753 -0.22869051
-0.032559499 0.112749 -0.22870499
-0.032334998 0.1127705 -0.22869501
-0.032184001 0.11279999 -0.228679
-0.032048002 0.1127925 -0.228679
-0.03190567 0.11279734 -0.228687
-0.0061889999 0.112784 -0.22876
-0.035374999 0.112848 -0.228789
-0.035282999 0.1128425 -0.2287925
-0.034373999 0.112873 -0.228798
-0.0338935 0.112888 -0.228769
-0.033592999 0.112915 -0.2287785
-0.033514 0.112913 -0.228789
-0.033369001 0.112896 -0.228747
-0.033054002 0.1129285 -0.228764
-0.0329655 0.112922 -0.2287505
-0.032817997 0.11291 -0.228734
-0.032685 0.1129045 -0.22871801
-0.032552503 0.112898 -0.22872299
-0.032329999 0.11288249 -0.22870299
-0.032178499 0.11291251 -0.22869301
-0.032042 0.112909 -0.22871301
-0.031914502 0.1128995 -0.22870451
-0.031783998 0.1129275 -0.228686
-0.031608 0.112958 -0.22868501
-0.0062910002 0.11290399 -0.22872166
-0.033589501 0.112992 -0.22879249
-0.033365998 0.11297 -0.228753
-0.033048 0.113042 -0.228787
-0.032958999 0.113037 -0.228791
-0.032795664 0.11304966 -0.22877668
-0.032677002 0.11305749 -0.228762
-0.032545 0.11305 -0.228756
-0.032323003 0.113034 -0.228734
-0.032172251 0.1130285 -0.22873351
-0.032035999 0.113023 -0.22874001
-0.03190925 0.11301225 -0.228726
-0.031776998 0.113044 -0.228726
-0.031641997 0.11304 -0.22872449
-0.031524502 0.1130285 -0.22870499
-0.031406 0.1130535 -0.228682
-0.031128 0.113083 -0.22869501
-0.030951001 0.113071 -0.22868501
-0.030850001 0.113071 -0.22867399
-0.030753 0.113068 -0.228677
-0.030595001 0.113058 -0.228673
-0.030540001 0.113056 -0.228672
-0.0065299999 0.11308 -0.22869
-0.006424 0.11305533 -0.22871101
-0.0063439999 0.1130515 -0.2287885
-0.032343999 0.113155 -0.22879501
-0.032120001 0.113147 -0.228799
-0.032028999 0.113139 -0.228781
-0.031902999 0.1131295 -0.22877
-0.031773001 0.113123 -0.228764
-0.031635001 0.1131565 -0.22877049
-0.0315185 0.11314499 -0.22874449
-0.031416997 0.113152 -0.22874735
-0.031122999 0.113166 -0.228743
-0.030946 0.113152 -0.228727
-0.030846 0.113147 -0.228692
-0.030746 0.113186 -0.228728
-0.030623751 0.11318 -0.22873351
-0.030480251 0.11317199 -0.22872674
-0.030278001 0.1131555 -0.22869399
-0.030096 0.113185 -0.228705
-0.029963501 0.1131795 -0.228696
-0.029841 0.113174 -0.22869401
-0.029656 0.113167 -0.2287
-0.029441999 0.113153 -0.228677
-0.0293095 0.11322001 -0.2286935
-0.029193001 0.113219 -0.228716
-0.029104 0.113212 -0.228706
-0.028847 0.113206 -0.22868299
-0.0285095 0.113182 -0.2286745
-0.031339999 0.11325 -0.2288
-0.031118 0.113243 -0.228773
-0.030941 0.113231 -0.22875699
-0.030841 0.11323 -0.228744
-0.03042 0.113291 -0.228791
-0.030270001 0.113278 -0.228769
-0.030088 0.1133065 -0.228771
-0.029957 0.113263 -0.228764
-0.029834 0.113258 -0.22876
-0.029650001 0.11325 -0.228754
-0.029435001 0.1132715 -0.228735
-0.029303499 0.113304 -0.2287495
-0.029188 0.113298 -0.228756
-0.029099001 0.11329 -0.228738
-0.028842 0.113287 -0.228727
-0.028528502 0.11330399 -0.22872633
-0.028409667 0.11330599 -0.22870235
-0.028290499 0.11328699 -0.22869626
-0.028127499 0.1133185 -0.22870749
-0.027992999 0.113312 -0.228699
-0.027908999 0.11331 -0.22869501
-0.027809 0.113308 -0.228689
-0.027628001 0.113302 -0.228705
-0.027466999 0.113286 -0.22867499
-0.027308 0.113353 -0.22868399
-0.026892001 0.113337 -0.22867499
-0.0068296664 0.113269 -0.22870634
-0.0067119999 0.1132915 -0.22876349
-0.029331001 0.113386 -0.228791
-0.029093999 0.113371 -0.22878399
-0.028836999 0.113368 -0.228771
-0.028523501 0.1134275 -0.22879201
-0.028393 0.113415 -0.22877
-0.028282 0.11341 -0.228771
-0.028168 0.113405 -0.22877599
-0.028044665 0.11342499 -0.22877033
-0.027903 0.113394 -0.228751
-0.027803 0.113391 -0.22874901
-0.027623 0.113383 -0.228751
-0.027458999 0.1134065 -0.228742
-0.027302001 0.113434 -0.228732
-0.027121 0.1134265 -0.2287325
-0.026972 0.113419 -0.228719
-0.026845001 0.11341549 -0.2287125
-0.026595999 0.1134375 -0.22870851
-0.026511 0.113474 -0.22872899
-0.026365001 0.113456 -0.228682
-0.025882 0.113444 -0.22869501
-0.025791001 0.113435 -0.228678
-0.025698001 0.113428 -0.22867399
-0.025495 0.113421 -0.228672
-0.025149999 0.11348 -0.22868399
-0.0068549998 0.113434 -0.228728
-0.0067540002 0.1134445 -0.228788
-0.026838001 0.113501 -0.228789
-0.026551001 0.113559 -0.228791
-0.025876001 0.113527 -0.228753
-0.025783001 0.113523 -0.22877
-0.025690001 0.11355 -0.22874501
-0.025544999 0.113547 -0.22875425
-0.025277 0.1135705 -0.22876701
-0.025142999 0.113565 -0.228754
-0.025053 0.113554 -0.22874001
-0.024947001 0.113551 -0.228734
-0.0246785 0.1135755 -0.22872549
-0.024505999 0.1136105 -0.22876149
-0.024388 0.113597 -0.22872901
-0.024223 0.11358 -0.22867499
-0.0068490002 0.11355 -0.22875801
-0.024335001 0.113676 -0.228797
-0.024216 0.113668 -0.228761
-0.023678001 0.1136785 -0.22873199
-0.023587501 0.11367901 -0.228742
-0.023466334 0.113715 -0.228772
-0.023354501 0.1136995 -0.22873601
-0.023228001 0.11369351 -0.2287305
-0.0230665 0.113681 -0.22868401
-0.021184999 0.113744 -0.228673
-0.0070139999 0.113658 -0.228679
-0.0068430002 0.113667 -0.228788
-0.023348499 0.1137815 -0.22877899
-0.023222499 0.1137765 -0.2287855
-0.0230595 0.1137675 -0.228762
-0.0221455 0.1137975 -0.22873101
-0.022 0.1138315 -0.22875001
-0.021915 0.1138225 -0.22873199
-0.02178875 0.11381726 -0.2287305
-0.0216625 0.113813 -0.22872701
-0.021504 0.113816 -0.22872467
-0.021369001 0.113825 -0.228715
-0.021179 0.113829 -0.22874101
-0.021007 0.113815 -0.228696
-0.020879 0.1138065 -0.22867849
-0.020724 0.113877 -0.22871201
-0.020594001 0.113869 -0.22868499
-0.020470999 0.113865 -0.228697
-0.019247999 0.113874 -0.228687
-0.019076999 0.113872 -0.22868
-0.0070969998 0.113852 -0.228687
-0.0070054997 0.1138155 -0.228725
-0.021571999 0.113931 -0.228792
-0.021362999 0.113908 -0.228765
-0.021174001 0.113908 -0.228773
-0.020998999 0.1139365 -0.22875699
-0.02087 0.113931 -0.2287645
-0.020718001 0.11396 -0.22876599
-0.020589 0.11395 -0.22873199
-0.020488 0.11395 -0.228753
-0.019808 0.113908 -0.228689
-0.019719001 0.1139485 -0.228727
-0.019588251 0.1139395 -0.22871299
-0.0194542 0.11394159 -0.2287242
-0.019299749 0.11394075 -0.22871575
-0.019071 0.113958 -0.22874799
-0.018812001 0.113938 -0.22869
-0.01746 0.1139515 -0.22868
-0.017387999 0.113943 -0.228671
-0.0071780002 0.114005 -0.228701
-0.0070905001 0.113969 -0.22872099
-0.006999 0.113934 -0.228771
-0.019391 0.114055 -0.228798
-0.01932 0.114044 -0.228773
-0.019237 0.114038 -0.22877499
-0.017358501 0.11402 -0.22870451
-0.017285001 0.114013 -0.228689
-0.0071740001 0.114081 -0.22872099
-0.0070850002 0.114083 -0.228735
-0.0069949999 0.114013 -0.228791
-0.012845 0.074832499 -0.228642
-0.012632 0.074854001 -0.228654
-0.013897 0.075005002 -0.228659
-0.01366 0.074986003 -0.228652
-0.013573 0.074983001 -0.22864
-0.013441 0.074937001 -0.22863699
-0.0132975 0.074930504 -0.2286455
-0.013125 0.074960001 -0.228633
-0.012993 0.074950002 -0.228635
-0.012842 0.074946001 -0.228606
-0.0126295 0.0749695 -0.22861201
-0.0125375 0.074964494 -0.22862101
-0.01240575 0.074954003 -0.22863451
-0.012279 0.074983001 -0.22862101
-0.012081 0.074975997 -0.228635
-0.011861 0.074951001 -0.22867
-0.011806 0.074950002 -0.22867
-0.014861001 0.075093001 -0.228643
-0.014496 0.075111002 -0.22864699
-0.014366 0.075101495 -0.22863999
-0.014238 0.075097002 -0.228636
-0.014095 0.075053006 -0.2286375
-0.013896 0.07508 -0.228627
-0.0136585 0.075100496 -0.228598
-0.0135715 0.075096995 -0.228576
-0.013439 0.075052001 -0.2285805
-0.0132955 0.075082496 -0.22856599
-0.0131235 0.0750755 -0.22856399
-0.0129915 0.075066499 -0.228563
-0.012841 0.075020999 -0.22857501
-0.012628 0.075084001 -0.22854599
-0.012536 0.07508 -0.228552
-0.0124045 0.0750705 -0.22856149
-0.012278 0.075099006 -0.228558
-0.012002 0.075071 -0.22858433
-0.011889501 0.075031504 -0.22859749
-0.011777 0.075063251 -0.228614
-0.011639 0.075087503 -0.22865149
-0.014996666 0.075190336 -0.22865801
-0.0148815 0.075204 -0.2286475
-0.014493 0.075225003 -0.2286025
-0.014363499 0.075216249 -0.22859249
-0.014237 0.075211495 -0.22857499
-0.014107667 0.075194336 -0.22855835
-0.013894 0.075194001 -0.2285735
-0.013656 0.075216003 -0.22854599
-0.011748 0.075176001 -0.22854801
-0.011638 0.075202249 -0.22858199
-0.011506 0.075192496 -0.22861099
-0.01136 0.075221002 -0.228641
-0.015171 0.075333998 -0.2286545
-0.014982751 0.075325742 -0.22863276
-0.01487875 0.075316504 -0.228617
-0.01449 0.075337 -0.228572
-0.014345667 0.075351 -0.22856568
-0.014232 0.075358003 -0.228559
-0.0138895 0.075341001 -0.22854599
-0.01136 0.075298503 -0.22858399
-0.0111405 0.075318001 -0.228625
-0.015166 0.075480998 -0.22864199
-0.015007 0.075472504 -0.2286295
-0.014898501 0.075465001 -0.22861201
-0.014488 0.075410999 -0.228558
-0.0143575 0.075437501 -0.22854999
-0.014228 0.075469002 -0.22854701
-0.0109385 0.075451002 -0.22861201
-0.010841 0.075446993 -0.228618
-0.0107535 0.075477496 -0.22864601
-0.015814999 0.075618997 -0.228664
-0.015431 0.075567998 -0.22865801
-0.015162 0.075590998 -0.22862799
-0.015002 0.075620003 -0.22861099
-0.014893499 0.075611494 -0.22859865
-0.010754 0.0755575 -0.228572
-0.010653 0.075581998 -0.22861749
-0.010458 0.075607002 -0.228641
-0.016035002 0.075777501 -0.2286645
-0.015911 0.075773999 -0.22866
-0.015812 0.075730503 -0.228635
-0.015694499 0.075721502 -0.228654
-0.0154265 0.075715497 -0.22863001
-0.015158501 0.0757 -0.2286225
-0.014999 0.075730003 -0.228589
-0.014889333 0.075720668 -0.228595
-0.010652 0.075698003 -0.228544
-0.010457 0.075723499 -0.22858101
-0.010274 0.0757045 -0.228644
-0.0161935 0.075861499 -0.2286545
-0.0160335 0.075853497 -0.22864249
-0.015930001 0.075850502 -0.228651
-0.0158085 0.075880498 -0.228588
-0.0156915 0.075871497 -0.22859749
-0.015423 0.075866506 -0.22858
-0.0151545 0.075850502 -0.228579
-0.014994999 0.075841002 -0.228578
-0.014886334 0.075832002 -0.22856934
-0.0104525 0.075870499 -0.228551
-0.010272 0.075819001 -0.22859199
-0.01027 0.075893 -0.22857501
-0.0099989995 0.075871997 -0.22867
-0.017425001 0.076004997 -0.22864801
-0.017335 0.076002002 -0.22866
-0.016845001 0.076048002 -0.228623
-0.016734 0.076001495 -0.22863451
-0.016425001 0.075987503 -0.228644
-0.01619225 0.075976998 -0.22857775
-0.0160315 0.0759665 -0.22858599
-0.015928501 0.075964004 -0.2285895
-0.015689 0.075985 -0.228549
-0.010268 0.075967997 -0.22855701
-0.0099603338 0.075994 -0.22862601
-0.0098135006 0.076007001 -0.228634
-0.0097319996 0.076002002 -0.228662
-0.017422501 0.076118499 -0.22859401
-0.0173335 0.076117501 -0.22859499
-0.017248999 0.076112494 -0.228596
-0.016930999 0.076093003 -0.2286045
-0.016874334 0.076101668 -0.22859699
-0.016425001 0.076105997 -0.228542
-0.0099410005 0.076095499 -0.22857299
-0.0098135006 0.076085001 -0.2285835
-0.0096962508 0.076114506 -0.22859401
-0.0095543331 0.076115333 -0.228626
-0.018998001 0.076243997 -0.228669
-0.018800251 0.076282501 -0.22865751
-0.018650999 0.076292999 -0.2286565
-0.018426001 0.0762465 -0.228646
-0.018255999 0.076235503 -0.228642
-0.018083001 0.076233 -0.228614
-0.017898999 0.076258004 -0.228586
-0.017752999 0.076251 -0.228552
-0.0095384996 0.076219 -0.22855499
-0.0093064997 0.076239005 -0.22859651
-0.0091260001 0.076261997 -0.228642
-0.019017333 0.076367669 -0.22866301
-0.01894 0.076388001 -0.228661
-0.018797334 0.076374002 -0.22864668
-0.018635334 0.076389998 -0.22863734
-0.018421 0.076394998 -0.22861999
-0.018252499 0.076385498 -0.228596
-0.018079 0.07638 -0.228585
-0.017896 0.076368503 -0.228568
-0.0093019996 0.076388501 -0.22856399
-0.0091229994 0.076374002 -0.228609
-0.019514 0.076566003 -0.22866599
-0.019244 0.076549001 -0.22866
-0.019024249 0.076502502 -0.22865151
-0.01891475 0.076495498 -0.22865875
-0.018793499 0.076483838 -0.228634
-0.018657999 0.07649067 -0.22862367
-0.018417999 0.076504998 -0.22859401
-0.018247999 0.076533496 -0.2285665
-0.018076001 0.076490998 -0.228561
-0.017893 0.076479003 -0.228544
-0.0091184992 0.076521002 -0.2285905
-0.0089039998 0.076537997 -0.228661
-0.0087540001 0.076526001 -0.22867
-0.019987 0.076664001 -0.228669
-0.019843001 0.076653004 -0.22866701
-0.019742999 0.076649003 -0.228651
-0.019512 0.076640002 -0.228654
-0.019242 0.076623 -0.228646
-0.019239999 0.076696999 -0.228631
-0.01902 0.076649249 -0.22862725
-0.018910751 0.076644249 -0.22862375
-0.018789666 0.076632164 -0.22859667
-0.018640999 0.076625749 -0.22859475
-0.018415 0.076616004 -0.228568
-0.018245 0.076641999 -0.22854801
-0.0091150003 0.076632001 -0.22857501
-0.0089004999 0.076646999 -0.228652
-0.0087505002 0.076636001 -0.228655
-0.020254999 0.076788001 -0.228654
-0.020065 0.076776996 -0.22864601
-0.0199585 0.076771498 -0.228646
-0.019863501 0.076767251 -0.22863476
-0.0197405 0.076760501 -0.228606
-0.019508999 0.076750502 -0.228625
-0.019238001 0.076771997 -0.228607
-0.019017 0.076762006 -0.22858649
-0.018900333 0.076780669 -0.22857599
-0.018798999 0.0767655 -0.22855075
-0.018625 0.076760329 -0.22855699
-0.0091120005 0.076742001 -0.228549
-0.008897 0.076757997 -0.22863901
-0.008746 0.076782003 -0.228635
-0.021243 0.076949999 -0.22866701
-0.021098001 0.076921999 -0.22864966
-0.020988001 0.076939002 -0.22863901
-0.020885 0.076932006 -0.22864835
-0.020740665 0.076885499 -0.22863333
-0.020517001 0.076881006 -0.228588
-0.020253001 0.076901004 -0.228614
-0.020063 0.076889999 -0.228606
-0.019947667 0.07690867 -0.22858466
-0.019860748 0.076918006 -0.22856925
-0.019739 0.076875001 -0.228551
-0.019508 0.076863997 -0.228567
-0.019237 0.076847002 -0.22857299
-0.019016001 0.076837003 -0.22856051
-0.0189055 0.076866999 -0.228552
-0.0091065001 0.076888002 -0.22855151
-0.0088935001 0.076867998 -0.228616
-0.008742 0.076893002 -0.228626
-0.022155 0.077077001 -0.228651
-0.022023499 0.077069506 -0.2286565
-0.021901 0.077062503 -0.22866499
-0.021671999 0.077048004 -0.228644
-0.021242 0.077024996 -0.22863001
-0.0211115 0.0770225 -0.2286025
-0.020987 0.077016003 -0.228599
-0.020883834 0.077046163 -0.22858751
-0.020739667 0.076999001 -0.22856466
-0.020250499 0.0770135 -0.228563
-0.020060498 0.077003002 -0.22856
-0.019981001 0.076963998 -0.22856
-0.0091019999 0.076996997 -0.228552
-0.0090990001 0.077068999 -0.228558
-0.0088884998 0.077014998 -0.228609
-0.0087379999 0.077002004 -0.228623
-0.023169 0.077206999 -0.22866599
-0.023086 0.077202998 -0.228663
-0.023003999 0.077198997 -0.22866499
-0.022794999 0.077141501 -0.22865549
-0.022605 0.077175997 -0.228652
-0.022430999 0.077166997 -0.22864901
-0.022302501 0.0771605 -0.228643
-0.022152999 0.077150002 -0.228633
-0.022009 0.077169336 -0.22862034
-0.021899 0.077174999 -0.22862099
-0.0216695 0.077161998 -0.22859299
-0.02124 0.077140003 -0.22857699
-0.021124998 0.077124335 -0.22855799
-0.020985 0.077128001 -0.228552
-0.020904001 0.0771605 -0.2285485
-0.0090945 0.077178001 -0.2285555
-0.0088825002 0.077159002 -0.228617
-0.0087324996 0.077147998 -0.22862101
-0.023423001 0.077259004 -0.22866949
-0.023209499 0.07728 -0.228664
-0.0230815 0.077312998 -0.2286575
-0.022943251 0.077304497 -0.22865301
-0.022791 0.077289 -0.22862899
-0.0226015 0.077284001 -0.228643
-0.022428 0.077276997 -0.228632
-0.022299001 0.077270001 -0.22862676
-0.022148501 0.077259004 -0.2286285
-0.022031331 0.077267997 -0.22860533
-0.021896001 0.077286005 -0.228597
-0.0216645 0.077307999 -0.2285765
-0.0212355 0.077287003 -0.228549
-0.020981001 0.077238999 -0.228541
-0.020880001 0.077233002 -0.228545
-0.0088775 0.0773075 -0.22859001
-0.0087270001 0.077294499 -0.228607
-0.0086030001 0.077316999 -0.22866701
-0.023727499 0.077418 -0.22866499
-0.023450332 0.077418335 -0.22866367
-0.023331501 0.077395998 -0.22866
-0.0232055 0.077389002 -0.228661
-0.023078 0.077421002 -0.228652
-0.022939 0.077413499 -0.22864851
-0.022785999 0.077435501 -0.22861451
-0.022595499 0.077428497 -0.22864199
-0.022422999 0.077422999 -0.228614
