# .PCD v0.7 - Point Cloud Data file format
VERSION 0.7
FIELDS x y z
SIZE 4 4 4
TYPE F F F
COUNT 1 1 1
WIDTH 1393
HEIGHT 1
VIEWPOINT 0 0 0 1 0 0 0
POINTS 1393
DATA ascii
-0.10030933 0.091001332 -0.22953002
-0.10017883 0.090999335 -0.2295825
-0.10001066 0.090948336 -0.22966965
-0.105552 0.091196001 -0.22967
-0.10524251 0.091159247 -0.2296405
-0.10503637 0.091170095 -0.22961244
-0.1048455 0.091178507 -0.229559
-0.10464501 0.091168255 -0.229535
-0.10447299 0.091162249 -0.22951226
-0.104333 0.091118999 -0.22950099
-0.1003025 0.091179997 -0.22953501
-0.10017025 0.091181502 -0.22961076
-0.105547 0.091338001 -0.22966067
-0.105277 0.091357 -0.22963551
-0.10503688 0.091341123 -0.22960424
-0.10483867 0.091357671 -0.22955666
-0.10463817 0.091346167 -0.22953184
-0.10448725 0.091323502 -0.22951125
-0.10033933 0.091360837 -0.22953482
-0.10016266 0.091361843 -0.22962034
-0.1055405 0.091515005 -0.2296505
-0.10527033 0.09153533 -0.22962368
-0.10503059 0.091518916 -0.22958849
-0.104832 0.091535002 -0.2295475
-0.104647 0.091512658 -0.22951765
-0.104502 0.091485001 -0.229507
-0.10033175 0.091541499 -0.22955176
-0.10015599 0.091540501 -0.22961801
-0.10579567 0.091703661 -0.22967267
-0.10553434 0.091693006 -0.22963767
-0.105264 0.091712505 -0.229617
-0.10503586 0.091692433 -0.22958985
-0.1048708 0.091732398 -0.22954281
-0.104667 0.091775 -0.22950201
-0.10047066 0.091722339 -0.22951601
-0.10032367 0.091722004 -0.22956868
-0.10014751 0.091720998 -0.229638
-0.105914 0.091917999 -0.22968
-0.105789 0.091882005 -0.22966351
-0.10552634 0.091906667 -0.22962634
-0.10525767 0.091889672 -0.22960167
-0.10504511 0.091876552 -0.22958533
-0.104876 0.091897503 -0.2295385
-0.1046625 0.091883004 -0.229509
-0.10051 0.091903754 -0.2295325
-0.100316 0.091903001 -0.2295865
-0.10015333 0.091889001 -0.22964133
-0.10591 0.09206 -0.22965567
-0.10578267 0.092059672 -0.22965801
-0.1055205 0.092083 -0.22961099
-0.10525151 0.092067003 -0.22958651
-0.10503176 0.092079878 -0.22956963
-0.1048816 0.092061602 -0.22952819
-0.104656 0.092060335 -0.229506
-0.10073 0.092051998 -0.22953001
-0.10050251 0.092051499 -0.22956775
-0.10030875 0.092049748 -0.22961774
-0.10019225 0.092102252 -0.2296495
-0.1059035 0.092236996 -0.229646
-0.105776 0.092237502 -0.22964999
-0.105514 0.092259668 -0.22959666
-0.10524434 0.092245996 -0.22958666
-0.10503814 0.092252143 -0.22956286
-0.10488167 0.092266671 -0.229518
-0.10097 0.092318997 -0.22951899
-0.10072032 0.092236668 -0.22958033
-0.1004935 0.092234164 -0.22960699
-0.10034499 0.092231996 -0.22964101
-0.100253 0.092269495 -0.229664
-0.1059376 0.09243419 -0.22964421
-0.10577134 0.092410661 -0.22960567
-0.1055085 0.092436999 -0.2295735
-0.1052385 0.092422001 -0.229568
-0.10502456 0.092443995 -0.22954457
-0.10487767 0.092383333 -0.22950268
-0.10107701 0.092423998 -0.229515
-0.10096399 0.092427999 -0.22954601
-0.100711 0.092422001 -0.22963101
-0.100531 0.092418998 -0.2296605
-0.1003865 0.09241575 -0.22966
-0.106149 0.092654496 -0.229671
-0.105915 0.092630751 -0.22962776
-0.10576349 0.092592001 -0.2296195
-0.10550133 0.092615001 -0.22956733
-0.10523234 0.092598997 -0.22955035
-0.10501833 0.092620999 -0.22953252
-0.1011025 0.09260866 -0.22954649
-0.100955 0.092613004 -0.22959201
-0.100705 0.092532001 -0.22966599
-0.106274 0.092838004 -0.22966799
-0.10614434 0.09279567 -0.22965217
-0.10594461 0.092793003 -0.2296344
-0.105757 0.092769332 -0.22961234
-0.105495 0.092791498 -0.229552
-0.1052255 0.092776999 -0.22954351
-0.10501837 0.092789747 -0.22952212
-0.10121951 0.092794001 -0.2295105
-0.101094 0.092790745 -0.22957501
-0.1009455 0.092796996 -0.22963649
-0.115246 0.093015 -0.229679
-0.115153 0.092971995 -0.2296745
-0.106444 0.093025997 -0.229678
-0.10631426 0.092981994 -0.22965825
-0.10613775 0.092973247 -0.22964275
-0.10591821 0.0929728 -0.2296042
-0.10574967 0.092981666 -0.22958799
-0.10548901 0.092968665 -0.22953899
-0.10522 0.092952661 -0.22951567
-0.105055 0.092944004 -0.229506
-0.10123375 0.09299425 -0.22952402
-0.10108534 0.092972666 -0.22960036
-0.100937 0.09297967 -0.22966968
-0.1152425 0.0931205 -0.22966099
-0.115149 0.093079001 -0.229671
-0.115015 0.093106002 -0.22966251
-0.106613 0.093179002 -0.229679
-0.106461 0.09316875 -0.22966249
-0.10630768 0.093159668 -0.22964567
-0.10613183 0.093150161 -0.2296235
-0.10593259 0.093146205 -0.2295976
-0.1057435 0.093157999 -0.229571
-0.1054825 0.093145996 -0.22952449
-0.1052135 0.09313 -0.229505
-0.1012495 0.093155995 -0.229527
-0.1010775 0.093153745 -0.2296185
-0.100931 0.093124002 -0.22968
-0.11485 0.093350999 -0.22967701
-0.1136 0.093326494 -0.22967049
-0.113318 0.093351997 -0.229678
-0.10681533 0.093348496 -0.22967166
-0.10662975 0.093339495 -0.22966474
-0.1064858 0.093325801 -0.22964361
-0.10630175 0.093335502 -0.2296225
-0.10612601 0.093325503 -0.229596
-0.10590579 0.093327001 -0.22957101
-0.10573766 0.09333434 -0.22954834
-0.105476 0.093324333 -0.22951967
-0.1012415 0.093338005 -0.229545
-0.1010768 0.0933218 -0.2296416
-0.11513349 0.093470998 -0.22967249
-0.11490425 0.093546994 -0.2296675
-0.11409 0.093530998 -0.22968
-0.11359334 0.093504667 -0.22966468
-0.11346333 0.093500994 -0.22967166
-0.11336867 0.09354534 -0.22967434
-0.10681817 0.093503155 -0.22965734
-0.10664725 0.093500003 -0.22965525
-0.10646161 0.093509801 -0.22963221
-0.10629517 0.093514502 -0.229618
-0.10611933 0.093504339 -0.22959368
-0.1059198 0.093500599 -0.22957221
-0.1057315 0.093511 -0.2295385
-0.10137 0.093521997 -0.229506
-0.10123301 0.093520001 -0.2295725
-0.1010965 0.093516998 -0.22963899
-0.114995 0.093639001 -0.229643
-0.1148375 0.093670502 -0.22967151
-0.114613 0.093765996 -0.229652
-0.11366625 0.093685254 -0.22967401
-0.113489 0.093677998 -0.22965449
-0.1133495 0.093673505 -0.22966525
-0.113213 0.093731493 -0.22966051
-0.1128875 0.093718 -0.2296735
-0.107163 0.093741 -0.22966701
-0.107015 0.093734503 -0.22966501
-0.106812 0.093680345 -0.22964032
-0.10664117 0.093675666 -0.22963132
-0.10647301 0.093681 -0.22961982
-0.10628875 0.093691252 -0.22960524
-0.10611375 0.093679748 -0.22956926
-0.105903 0.093696833 -0.22954799
-0.10572567 0.093687333 -0.22951101
-0.1013615 0.093738005 -0.229508
-0.10122517 0.09370067 -0.22958483
-0.101089 0.093698673 -0.229654
-0.114982 0.093927003 -0.22967
-0.11461 0.093837999 -0.22965799
-0.113903 0.093947001 -0.229679
-0.1136758 0.093849801 -0.229669
-0.11350575 0.093875498 -0.22965376
-0.113343 0.093852162 -0.22966351
-0.11312441 0.093879595 -0.22966819
-0.11288 0.093897998 -0.229679
-0.11276 0.093893997 -0.22968
-0.112515 0.093956999 -0.22967701
-0.112341 0.093950003 -0.229674
-0.1075715 0.093936503 -0.229673
-0.10739317 0.0938605 -0.22966367
-0.10720275 0.093886249 -0.22965674
-0.10701 0.093877003 -0.22965899
-0.10679785 0.093872145 -0.22962442
-0.1066345 0.09388683 -0.22960167
-0.1064575 0.093878172 -0.229598
-0.10628366 0.093865998 -0.229572
-0.1061075 0.093856335 -0.22954617
-0.10589725 0.093872994 -0.22952451
-0.105719 0.093864001 -0.22950399
-0.1013555 0.093882002 -0.2295195
-0.10121825 0.093879998 -0.22958276
-0.101082 0.093877003 -0.22965151
-0.114865 0.094136 -0.22967701
-0.114822 0.094065003 -0.22968
-0.114212 0.094039671 -0.22967465
-0.11407 0.094064996 -0.22967151
-0.1138995 0.094053 -0.22966701
-0.1137325 0.094043002 -0.22966701
-0.11352475 0.094035998 -0.22964475
-0.1133355 0.094063669 -0.22964616
-0.11314029 0.094039425 -0.22964916
-0.11294271 0.094072714 -0.22966371
-0.112755 0.094033338 -0.22965999
-0.1125115 0.094062001 -0.22966251
-0.112338 0.094021998 -0.22967599
-0.112232 0.094086997 -0.22967701
-0.107821 0.094017997 -0.229674
-0.10775634 0.094086342 -0.22966667
-0.10756775 0.094043002 -0.22965676
-0.10737719 0.094056994 -0.22962859
-0.10719766 0.094061494 -0.229627
-0.107005 0.094051667 -0.22962099
-0.10680663 0.094042242 -0.22959413
-0.10662875 0.094062746 -0.22957677
-0.106452 0.094053507 -0.22956873
-0.1062785 0.094041258 -0.22953676
-0.1061015 0.094034001 -0.22953376
-0.10594133 0.094058335 -0.22953434
-0.10134801 0.094062664 -0.22952799
-0.10121167 0.094058998 -0.22957499
-0.10107499 0.094057001 -0.22965233
-0.11486199 0.094241001 -0.22966051
-0.1141445 0.094214998 -0.229671
-0.11406333 0.094244003 -0.22966732
-0.113895 0.094160996 -0.22966699
-0.11372533 0.094222337 -0.22966667
-0.11351833 0.094213337 -0.2296335
-0.1133285 0.094242007 -0.229637
-0.11315025 0.094227999 -0.22963876
-0.11293945 0.094230227 -0.22964112
-0.11274733 0.094246991 -0.22965501
-0.112505 0.094240665 -0.22965766
-0.1123285 0.094271004 -0.22966599
-0.11222734 0.094230004 -0.229671
-0.112088 0.0942185 -0.22967418
-0.108815 0.094280005 -0.22967499
-0.10796849 0.094278 -0.2296755
-0.107752 0.094226778 -0.22963987
-0.1075625 0.094217338 -0.22962148
-0.1073916 0.0942268 -0.22960658
-0.10719226 0.094236501 -0.22959626
-0.10699899 0.094228998 -0.229598
-0.10680088 0.094234876 -0.22955564
-0.10663972 0.094249137 -0.22955085
-0.10644717 0.094228506 -0.22953384
-0.106272 0.094219334 -0.22952767
-0.10613667 0.094211332 -0.22951265
-0.1059355 0.094235003 -0.2295105
-0.101342 0.094205998 -0.22953101
-0.10127967 0.094252668 -0.22955298
-0.10111325 0.094237499 -0.2296295
-0.1141845 0.094360501 -0.22967499
-0.1140555 0.094424002 -0.229678
-0.113885 0.094411999 -0.2296755
-0.113719 0.094400004 -0.229665
-0.11351034 0.094425671 -0.22962148
-0.11332233 0.094418503 -0.229625
-0.11314366 0.094405174 -0.22962816
-0.1129574 0.094398603 -0.22964482
-0.11278134 0.094435334 -0.22962433
-0.11241025 0.094416745 -0.229662
-0.112221 0.094406001 -0.229652
-0.1120614 0.094402805 -0.22966421
-0.11171967 0.094465673 -0.22966866
-0.111501 0.094445005 -0.229672
-0.109051 0.094439998 -0.229679
-0.10880967 0.094421506 -0.22966933
-0.108628 0.094449662 -0.2296695
-0.108455 0.094411336 -0.22965933
-0.108272 0.094475001 -0.22964901
-0.1079645 0.094418496 -0.2296515
-0.10774667 0.094401173 -0.22960617
-0.1075476 0.0944134 -0.229588
-0.1073755 0.09442284 -0.22957098
-0.10718632 0.094412662 -0.2295735
-0.106994 0.094402999 -0.22956467
-0.1068145 0.094421245 -0.22953326
-0.1066565 0.094415493 -0.2295375
-0.10644075 0.09440501 -0.22951676
-0.1063105 0.094397999 -0.2295135
-0.101417 0.094489999 -0.229506
-0.10128751 0.094422005 -0.22956251
-0.101106 0.094417833 -0.22963066
-0.11400867 0.094598003 -0.22967666
-0.113878 0.094588995 -0.22966899
-0.11371233 0.094576664 -0.22964799
-0.11350399 0.094604 -0.2296135
-0.1133155 0.094596997 -0.22962099
-0.11313801 0.0945815 -0.22960448
-0.112961 0.094578005 -0.22964281
-0.11279517 0.094602339 -0.2296195
-0.11249167 0.094595335 -0.22963934
-0.11226583 0.094585992 -0.22963883
-0.11204178 0.094575115 -0.22966488
-0.11192749 0.094609 -0.22967699
-0.11169274 0.094593495 -0.22964925
-0.11149625 0.094585747 -0.229655
-0.111306 0.094578251 -0.2296665
-0.11113499 0.094618797 -0.22965738
-0.111008 0.094673 -0.22967701
-0.110738 0.094623506 -0.22966
-0.110637 0.094627656 -0.229656
-0.110493 0.094610497 -0.229672
-0.110216 0.094641998 -0.229679
-0.110079 0.094635002 -0.2296775
-0.1098175 0.094575495 -0.229662
-0.109714 0.094608329 -0.229672
-0.109553 0.094600327 -0.22965634
-0.1092805 0.0946275 -0.22964749
-0.10911167 0.094583996 -0.22965866
-0.10899438 0.094587743 -0.22966363
-0.10883586 0.094588421 -0.22965755
-0.10864101 0.094582997 -0.22963759
-0.10847933 0.094597004 -0.22963201
-0.1082695 0.094578996 -0.2296195
-0.10795967 0.094592668 -0.22960734
-0.10774078 0.094577335 -0.22958568
-0.10756 0.094583005 -0.2295614
-0.10737025 0.094596997 -0.22954275
-0.1071815 0.094587758 -0.2295365
-0.106988 0.094578505 -0.22953799
-0.106821 0.094581753 -0.22951449
-0.1066864 0.0945784 -0.22951739
-0.10648 0.094515003 -0.229507
-0.106307 0.094506003 -0.229504
-0.1014115 0.094599999 -0.229523
-0.10128 0.094603501 -0.22957599
-0.1010985 0.094598502 -0.229645
-0.1141225 0.094787002 -0.229674
-0.1140415 0.094779998 -0.22967249
-0.1138705 0.094769001 -0.229674
-0.1137055 0.094756 -0.229653
-0.11349633 0.094783664 -0.22962083
-0.11330933 0.094774008 -0.22960615
-0.11313134 0.094759323 -0.2296025
-0.11295523 0.094754115 -0.22962318
-0.1127885 0.094779998 -0.2296115
-0.112486 0.094772503 -0.22962451
-0.1122595 0.094763994 -0.22962925
-0.11204572 0.094767287 -0.22965313
-0.111922 0.09478467 -0.22964966
-0.11168667 0.094770335 -0.22963834
-0.11148999 0.094762832 -0.22964068
-0.111301 0.094752826 -0.2296315
-0.11112125 0.094779506 -0.22962999
-0.11096025 0.094795749 -0.22966549
-0.11073349 0.094764002 -0.22963449
-0.1106108 0.094774403 -0.22962239
-0.110489 0.094783664 -0.22962733
-0.110212 0.094781004 -0.22965334
-0.1100745 0.094774999 -0.22965081
-0.10985913 0.094769858 -0.22965799
-0.109709 0.094783001 -0.22963199
-0.109548 0.094774999 -0.22962201
-0.1092775 0.094764002 -0.229597
-0.1091065 0.094758004 -0.22962001
-0.10898167 0.094754331 -0.22963701
-0.10882299 0.094777778 -0.22962213
-0.10865933 0.094769835 -0.22962718
-0.10848866 0.094761997 -0.22961666
-0.10826334 0.094755672 -0.22960101
-0.10795251 0.094770506 -0.22960401
-0.10773445 0.094787896 -0.22954954
-0.10754467 0.094779998 -0.22953516
-0.10739025 0.094756998 -0.22951999
-0.10717551 0.094763339 -0.22951184
-0.106984 0.094719 -0.22951749
-0.1015945 0.094753996 -0.22951999
-0.1014388 0.094796404 -0.2295368
-0.10127199 0.094785333 -0.22959067
-0.10111275 0.094765 -0.22966599
-0.11386549 0.094911002 -0.2296735
-0.113698 0.094935335 -0.22965634
-0.11348899 0.094962001 -0.229625
-0.1133025 0.094952747 -0.229608
-0.11312425 0.094937757 -0.22960076
-0.11295671 0.094947144 -0.2296083
-0.11278149 0.094958335 -0.22960933
-0.112479 0.094949 -0.22961199
-0.11225266 0.094942003 -0.22962733
-0.11201937 0.094939254 -0.22964388
-0.1119155 0.094963506 -0.2296475
-0.11168025 0.094947502 -0.22962201
-0.1114845 0.094937749 -0.22960949
-0.111294 0.094963826 -0.22959952
-0.11111566 0.094955832 -0.22960401
-0.1109409 0.094952896 -0.22964011
-0.110728 0.094939329 -0.22961134
-0.1106212 0.094946206 -0.22961259
-0.110483 0.094961002 -0.229607
-0.110207 0.094954997 -0.229615
-0.11006875 0.094951004 -0.22963101
-0.10987833 0.094947003 -0.22962645
-0.10970366 0.094956674 -0.22959702
-0.10954168 0.094951667 -0.22960599
-0.10927001 0.094944336 -0.22959869
-0.10910067 0.094934337 -0.22960299
-0.10897556 0.094930664 -0.22962202
-0.1088175 0.094952166 -0.22959118
-0.108654 0.094944 -0.22959024
-0.1084914 0.094957806 -0.2295852
-0.10825733 0.094964661 -0.22955734
-0.10794733 0.094946332 -0.229573
-0.1077285 0.094963998 -0.22952516
-0.10755467 0.094944 -0.22950667
-0.10741 0.094916999 -0.22950301
-0.10162866 0.094936997 -0.22953151
-0.10144075 0.094963998 -0.2295545
-0.10126375 0.094966747 -0.22961001
-0.101128 0.094929002 -0.22967499
-0.1136905 0.095115498 -0.2296665
-0.11348215 0.095141672 -0.22962534
-0.113295 0.095131665 -0.2296115
-0.11311734 0.095115833 -0.22959702
-0.112934 0.095120132 -0.2296185
-0.11277525 0.095136002 -0.229597
-0.1124725 0.095127001 -0.229609
-0.11224625 0.095119506 -0.22961551
-0.1120545 0.095141172 -0.22961916
-0.11193249 0.095141999 -0.2296335
-0.11167433 0.095123656 -0.22960533
-0.11147901 0.095113494 -0.22958632
-0.111288 0.095140748 -0.22958425
-0.11111 0.095131502 -0.22958076
-0.11093599 0.095126502 -0.22959983
-0.110722 0.095116004 -0.229581
-0.11060667 0.095142007 -0.22957766
-0.11047599 0.095140003 -0.22960468
-0.11020133 0.09513066 -0.22958899
-0.1100635 0.095125832 -0.22959916
-0.10989871 0.095113598 -0.22960219
-0.109732 0.095144667 -0.22956501
-0.109536 0.095128998 -0.229589
-0.1092645 0.095119998 -0.22957751
-0.10909333 0.095146 -0.22957599
-0.10896923 0.095140778 -0.22957844
-0.108812 0.095128775 -0.22956689
-0.10864783 0.095121503 -0.22957951
-0.108468 0.095126398 -0.22955719
-0.1082505 0.095142998 -0.229552
-0.107941 0.095123 -0.2295565
-0.10774 0.095087998 -0.22951099
-0.1016215 0.095117249 -0.22953475
-0.101434 0.0951095 -0.2295735
-0.10125674 0.095114753 -0.22963899
-0.1136815 0.095331997 -0.229679
-0.113475 0.095321007 -0.22963025
-0.11328825 0.095310003 -0.229608
-0.11311024 0.095295504 -0.2296005
-0.11293389 0.09532389 -0.22960466
-0.11276817 0.095315002 -0.22959869
-0.112465 0.095307 -0.22960967
-0.112239 0.095298499 -0.2296145
-0.11204825 0.095318496 -0.22960651
-0.1119255 0.095319495 -0.22962901
-0.11169133 0.095289327 -0.22959232
-0.11148914 0.095327295 -0.22957656
-0.11130399 0.095300749 -0.22957151
-0.11114872 0.095309712 -0.22956188
-0.11097157 0.095313296 -0.2295706
-0.110797 0.095295511 -0.22956783
-0.110601 0.095317498 -0.229554
-0.1104705 0.095312998 -0.22957301
-0.110195 0.095308006 -0.2295765
-0.1100494 0.095320195 -0.22955342
-0.10990278 0.095325559 -0.22957267
-0.109743 0.095310003 -0.22954901
-0.10953066 0.095301665 -0.229551
-0.109261 0.095224999 -0.22956
-0.109173 0.095325753 -0.22954175
-0.10896367 0.095316 -0.22954868
-0.10880683 0.095302843 -0.22953033
-0.10863459 0.095316604 -0.22954102
-0.1084622 0.095309205 -0.22953081
-0.10824466 0.095320009 -0.22953933
-0.10793533 0.095299333 -0.22953534
-0.102607 0.095300496 -0.229516
-0.102522 0.095333003 -0.22950301
-0.101773 0.095295668 -0.22951366
-0.10161301 0.095300667 -0.22956516
-0.10142517 0.095293999 -0.22960515
-0.1012715 0.095280498 -0.22966225
-0.11346766 0.0955 -0.22963215
-0.11328116 0.095488839 -0.22961116
-0.11310401 0.095472492 -0.22958966
-0.11292683 0.095502324 -0.22960533
-0.11276175 0.09549275 -0.2295915
-0.11246 0.095481001 -0.22957951
-0.11223225 0.095477499 -0.229615
-0.1120415 0.095496498 -0.22959983
-0.11192017 0.095495008 -0.22960152
-0.11173034 0.095479667 -0.22957434
-0.1115606 0.095486797 -0.2295676
-0.11136825 0.095499001 -0.22955725
-0.1111865 0.095489502 -0.22955149
-0.11098534 0.095481336 -0.22956015
-0.1107742 0.09549199 -0.22954099
-0.11059483 0.095493831 -0.22954184
-0.110465 0.095489658 -0.22954701
-0.11019 0.095481664 -0.22953667
-0.11006141 0.095488802 -0.22952239
-0.10989732 0.09550067 -0.22954369
-0.109721 0.095473669 -0.22952668
-0.109525 0.095477 -0.22952151
-0.1091848 0.095487796 -0.22951901
-0.10898133 0.095442332 -0.22951533
-0.10883855 0.095467776 -0.22951587
-0.10865066 0.095447667 -0.22950934
-0.10841849 0.095504001 -0.22952801
-0.10824 0.095461003 -0.22951899
-0.107931 0.095439002 -0.229516
-0.1028375 0.095528997 -0.229514
-0.1026665 0.095482498 -0.2295225
-0.10252666 0.095492832 -0.22953618
-0.10235267 0.095523335 -0.229536
-0.102191 0.095500499 -0.229514
-0.101918 0.095482998 -0.22952151
-0.1017645 0.095478505 -0.229541
-0.101604 0.09548451 -0.22959974
-0.10141651 0.095477007 -0.22963676
-0.11346025 0.095679998 -0.22964075
-0.1132735 0.095668249 -0.22961849
-0.1130965 0.095651492 -0.2295925
-0.11292055 0.095678896 -0.22958755
-0.112755 0.095669836 -0.22958118
-0.11245266 0.095660664 -0.22958501
-0.11222583 0.095654666 -0.22960533
-0.11203425 0.095676258 -0.22960626
-0.1119125 0.095675498 -0.22961074
-0.111724 0.095656 -0.229559
-0.11154535 0.095685504 -0.22955202
-0.11136267 0.095675163 -0.22953634
-0.11118016 0.095666341 -0.22953735
-0.11097966 0.095657006 -0.22953354
-0.1108004 0.095664002 -0.22953579
-0.11058825 0.095671996 -0.22953174
-0.1104595 0.095665 -0.22951999
-0.11018451 0.095658004 -0.229517
-0.110007 0.095610999 -0.229504
-0.10989123 0.095676452 -0.22952233
-0.109681 0.095625997 -0.229518
-0.109522 0.095582001 -0.22950099
-0.109247 0.095647998 -0.229504
-0.108869 0.0956285 -0.2295025
-0.108415 0.095609002 -0.229507
-0.10288725 0.095675245 -0.229527
-0.10272551 0.095665 -0.22954699
-0.10254624 0.09567 -0.22960648
-0.1023605 0.095662996 -0.22959274
-0.1021736 0.095669791 -0.22954901
-0.10198016 0.095670499 -0.22954117
-0.10175633 0.095661335 -0.22956432
-0.10159516 0.095669173 -0.22963782
-0.10142434 0.095613338 -0.22966866
-0.11345249 0.09586034 -0.22965734
-0.11327521 0.095835604 -0.22963139
-0.11310828 0.095843852 -0.22960056
-0.11294025 0.095859997 -0.22959875
-0.11278417 0.095853835 -0.2296045
-0.112445 0.095840998 -0.22959399
-0.11220701 0.095855802 -0.22962061
-0.11202734 0.095853508 -0.22959749
-0.11190566 0.095854335 -0.22961284
-0.11171766 0.095834337 -0.22954933
-0.1115385 0.095862001 -0.22954351
-0.11135574 0.095853508 -0.22953425
-0.11117375 0.095843494 -0.22952574
-0.110973 0.095834337 -0.22952418
-0.11085733 0.095867328 -0.22953665
-0.11063781 0.095809594 -0.229513
-0.110453 0.095840998 -0.22950333
-0.11018 0.095762998 -0.229509
-0.109998 0.095824003 -0.22950301
-0.10989501 0.095846996 -0.2295094
-0.103003 0.095930003 -0.22950999
-0.10287883 0.095858335 -0.22955398
-0.10271666 0.095850669 -0.22958468
-0.1025458 0.095842004 -0.2296488
-0.10235225 0.095813997 -0.22964776
-0.10218201 0.095850207 -0.2296032
-0.10197026 0.095857248 -0.22959301
-0.10174701 0.095845498 -0.22960201
-0.10160067 0.095842004 -0.22966866
-0.1134935 0.096042998 -0.229673
-0.113349 0.096035995 -0.22966
-0.11314479 0.096009403 -0.2296108
-0.11295813 0.096051 -0.22961113
-0.11280457 0.096025288 -0.22961585
-0.1126775 0.096065998 -0.22961101
-0.11243633 0.096024334 -0.22962232
-0.11222 0.096030802 -0.22962718
-0.11202 0.096033752 -0.22960551
-0.11189826 0.096034497 -0.22961999
-0.1117105 0.096014 -0.2295575
-0.11153201 0.096041001 -0.22954035
-0.11134899 0.096031167 -0.22952616
-0.11116716 0.096021168 -0.22951765
-0.11096815 0.096001856 -0.22951271
-0.110851 0.096042998 -0.22952101
-0.1029975 0.096038997 -0.22953001
-0.10287025 0.096041247 -0.229578
-0.10270751 0.096034497 -0.22962201
-0.102572 0.096005 -0.229679
-0.102149 0.096010327 -0.22966333
-0.1019615 0.096008502 -0.2296505
-0.1017395 0.095994502 -0.22964349
-0.113489 0.096150003 -0.22967701
-0.1133415 0.096215665 -0.22966333
-0.11316267 0.096200824 -0.22963966
-0.11296017 0.096222162 -0.22961418
-0.11281726 0.096216999 -0.229628
-0.11267149 0.096211001 -0.2296305
-0.11243 0.096202001 -0.229616
-0.11219279 0.096213996 -0.22962038
-0.11201283 0.096213669 -0.22961466
-0.1118915 0.096211165 -0.22961152
-0.111703 0.096193671 -0.22956334
-0.111525 0.096219495 -0.229536
-0.1113425 0.09620925 -0.22951725
-0.111146 0.096185334 -0.22950433
-0.11093566 0.096225329 -0.22951417
-0.11084399 0.096223332 -0.22952366
-0.11056875 0.096205756 -0.229509
-0.10303434 0.096220829 -0.22952984
-0.102862 0.096224338 -0.22960685
-0.102699 0.09621834 -0.229653
-0.102026 0.096124999 -0.22967701
-0.1132865 0.096394002 -0.229673
-0.113155 0.096380994 -0.22965299
-0.11295222 0.096403211 -0.22963101
-0.1128095 0.096398331 -0.22964434
-0.11266333 0.096391328 -0.22964601
-0.112423 0.096380673 -0.22961366
-0.11220579 0.096388996 -0.229633
-0.112005 0.096393749 -0.229624
-0.11188425 0.096390992 -0.22961549
-0.1116955 0.096374005 -0.22957
-0.111518 0.096398003 -0.22953899
-0.11133534 0.096387327 -0.22951716
-0.11112975 0.096394256 -0.22950774
-0.11095133 0.096404672 -0.22951098
-0.110837 0.096400999 -0.22952199
-0.110602 0.096386999 -0.22951451
-0.10302575 0.096404254 -0.22955625
-0.102853 0.096408747 -0.22963725
-0.102692 0.096366003 -0.22967701
-0.11312525 0.096541002 -0.22966501
-0.11294416 0.096585162 -0.22965164
-0.11280149 0.096579492 -0.229662
-0.11265551 0.096574001 -0.229664
-0.112414 0.096564002 -0.229647
-0.11223949 0.096559502 -0.229652
-0.1120875 0.096579999 -0.22963567
-0.11190334 0.096571662 -0.22962369
-0.11168899 0.096552998 -0.22957067
-0.1115105 0.096578002 -0.22954801
-0.11132801 0.096566997 -0.22952451
-0.11114575 0.09655825 -0.2295215
-0.1109585 0.096584246 -0.22951375
-0.11085334 0.096583493 -0.22953783
-0.1106315 0.096570827 -0.22951867
-0.1105115 0.096596003 -0.22951299
-0.103248 0.096553996 -0.22951999
-0.10301825 0.096552745 -0.22959176
-0.102902 0.0965565 -0.22965901
-0.1129715 0.096697003 -0.2296695
-0.1127695 0.096721999 -0.22967049
-0.112651 0.096683003 -0.22967701
-0.112409 0.096675999 -0.229674
-0.112234 0.096669003 -0.229671
-0.1120795 0.096762002 -0.22965699
-0.11189584 0.096752666 -0.22963367
-0.1116805 0.096733004 -0.22958499
-0.11150301 0.096758001 -0.22955601
-0.11132067 0.096748829 -0.22953551
-0.1111615 0.096755505 -0.22951949
-0.1109772 0.096744791 -0.229527
-0.1108465 0.096762002 -0.22953349
-0.11062324 0.096753001 -0.22954275
-0.11046125 0.096739501 -0.22952449
-0.10356066 0.096746497 -0.22950934
-0.10337584 0.096742667 -0.22952019
-0.10323933 0.096738338 -0.22955199
-0.10300967 0.09673766 -0.22962384
-0.102897 0.096667998 -0.22967701
-0.1120245 0.096902996 -0.22967401
-0.11188149 0.09692537 -0.2296541
-0.111673 0.096914329 -0.2296
-0.111495 0.096939504 -0.22956949
-0.11131225 0.096929498 -0.2295565
-0.11113125 0.096918248 -0.22953527
-0.1109548 0.096932992 -0.22954361
-0.11083833 0.096944332 -0.22955351
-0.1106155 0.096933998 -0.22955833
-0.11045351 0.096921332 -0.22953816
-0.10446367 0.096934997 -0.22953033
-0.1043222 0.096945211 -0.22952859
-0.10413734 0.096969001 -0.22950733
-0.103934 0.096982002 -0.229509
-0.1037695 0.096935004 -0.2295175
-0.10355175 0.096930996 -0.229541
-0.103367 0.096927248 -0.22955202
-0.103231 0.096922502 -0.229579
-0.103045 0.0969235 -0.22964349
-0.102958 0.096885003 -0.229665
-0.111846 0.097103328 -0.22967131
-0.1116655 0.097095996 -0.2296135
-0.11147879 0.097108804 -0.22960261
-0.11130368 0.097113997 -0.22958499
-0.1111225 0.097101666 -0.22956432
-0.1109612 0.097108804 -0.22956678
-0.1108305 0.097126499 -0.22957274
-0.11060775 0.097115748 -0.229577
-0.11044499 0.097103998 -0.22956525
-0.110125 0.097194999 -0.22950201
-0.104615 0.097120002 -0.22951901
-0.1044535 0.097124502 -0.229597
-0.104322 0.097117998 -0.22957601
-0.1041475 0.09710525 -0.22953475
-0.10396725 0.097094752 -0.22952498
-0.10376033 0.097121 -0.22955568
-0.1035522 0.097100995 -0.2295682
-0.10342626 0.097131744 -0.22958474
-0.10326766 0.097109668 -0.22960185
-0.103038 0.097070999 -0.229665
-0.11165634 0.097280331 -0.22964768
-0.1114874 0.0972846 -0.22962019
-0.111296 0.0972955 -0.2296
-0.1111145 0.097283997 -0.22958452
-0.1109465 0.097276501 -0.229582
-0.110824 0.097272001 -0.2295845
-0.11059866 0.0973 -0.2296025
-0.11043733 0.097285174 -0.22957617
-0.1101195 0.097305 -0.22951451
-0.10480434 0.097287327 -0.22951233
-0.10464567 0.097282328 -0.22954465
-0.104445 0.097275496 -0.229646
-0.10431325 0.097269498 -0.2296275
-0.104137 0.097294174 -0.22959733
-0.10395766 0.097280502 -0.22956951
-0.10375249 0.097304001 -0.229579
-0.10357749 0.097298503 -0.229581
-0.103443 0.097299501 -0.22961825
-0.103274 0.097284339 -0.22963834
-0.11164799 0.097464003 -0.22967499
-0.11146341 0.097472407 -0.22963199
-0.111314 0.097459249 -0.22961275
-0.11115129 0.09746743 -0.22959714
-0.1109563 0.097468145 -0.22959173
-0.11081567 0.097455002 -0.22960983
-0.1105915 0.097479999 -0.22961201
-0.1104285 0.0974705 -0.229616
-0.110064 0.097486749 -0.22953475
-0.109931 0.097544 -0.22950201
-0.10482312 0.097466618 -0.22952013
-0.1046575 0.097454004 -0.22955783
-0.104439 0.097387999 -0.22967701
-0.1043065 0.097383998 -0.229673
-0.10411099 0.097470336 -0.22965102
-0.10394775 0.097469002 -0.229626
-0.103745 0.097452998 -0.229608
-0.103569 0.097451501 -0.22963899
-0.10343575 0.097447999 -0.22965051
-0.103297 0.097447 -0.229669
-0.111464 0.097633503 -0.22965923
-0.11133 0.097661495 -0.22963649
-0.11118776 0.097652994 -0.2296225
-0.11097199 0.097639658 -0.22960617
-0.1108075 0.097637251 -0.2296315
-0.11058334 0.097662508 -0.22963153
-0.11041916 0.097656667 -0.22965717
-0.1100648 0.097651407 -0.2295796
-0.10988151 0.097668506 -0.22951952
-0.10482249 0.097637661 -0.22951983
-0.1046495 0.0976355 -0.22956949
-0.10394076 0.0976175 -0.229653
-0.10373566 0.097639672 -0.22965269
-0.103562 0.097599 -0.229669
-0.103479 0.097560003 -0.22966599
-0.11135433 0.097799338 -0.22966766
-0.11117917 0.097837172 -0.22965349
-0.11096333 0.097824439 -0.22963589
-0.1108 0.097818829 -0.22964449
-0.110575 0.097845003 -0.22965175
-0.1100475 0.0978195 -0.22960749
-0.10986 0.097831108 -0.22953145
-0.109758 0.097857997 -0.229507
-0.108416 0.097898997 -0.229516
-0.108326 0.097902 -0.22950201
-0.106436 0.097892001 -0.229522
-0.1063485 0.097852498 -0.22952801
-0.106175 0.097875997 -0.229505
-0.1048141 0.09782178 -0.22954679
-0.104654 0.0978048 -0.22958159
-0.10458 0.097889997 -0.229617
-0.1109945 0.097975001 -0.2296695
-0.110835 0.097985998 -0.2296685
-0.110605 0.097994998 -0.22967401
-0.1100304 0.097988397 -0.22963019
-0.10986199 0.098008402 -0.229564
-0.109767 0.098018669 -0.22952966
-0.10845525 0.098012999 -0.22952899
-0.10832 0.098015502 -0.229535
-0.1064305 0.098002002 -0.22953901
-0.10629949 0.097993754 -0.229533
-0.106167 0.098024666 -0.22953832
-0.1050215 0.098009497 -0.229525
-0.10482975 0.098005995 -0.22957149
-0.104724 0.098004505 -0.22958724
-0.1045745 0.098000005 -0.2296375
-0.1106 0.098103002 -0.229679
-0.109983 0.098186001 -0.22965801
-0.1098632 0.098187402 -0.2295994
-0.10973854 0.098187 -0.22955579
-0.1095805 0.098205 -0.229506
-0.1085665 0.098232999 -0.22950751
-0.10844734 0.09819416 -0.229544
-0.108311 0.098200329 -0.22957134
-0.108131 0.098224498 -0.229533
-0.10646 0.098195195 -0.22952819
-0.10628983 0.098181836 -0.22958416
-0.1061155 0.098201752 -0.2295385
-0.105953 0.098203994 -0.22951233
-0.10578 0.098217003 -0.229508
-0.105546 0.098278001 -0.22950999
-0.105283 0.098270997 -0.229513
-0.10501333 0.098192997 -0.22954868
-0.104821 0.098191172 -0.22960734
-0.10471516 0.098190166 -0.22962199
-0.10456634 0.098184668 -0.22966266
-0.1098666 0.0983686 -0.2296482
-0.109729 0.098373659 -0.22960185
-0.1095735 0.098353997 -0.2295365
-0.10941 0.098449998 -0.229504
-0.1085605 0.098378003 -0.22951299
-0.1084405 0.098373003 -0.22953725
-0.1083035 0.098380998 -0.22957799
-0.1081235 0.098372996 -0.2295685
-0.10644833 0.098346658 -0.22951901
-0.106282 0.09836325 -0.229597
-0.1060978 0.098373801 -0.22957881
-0.10593083 0.09837684 -0.22954899
-0.10574576 0.098379999 -0.22953799
-0.10554101 0.098387502 -0.229524
-0.1052765 0.098384999 -0.229546
-0.105005 0.098377496 -0.229577
-0.1048115 0.098379254 -0.229652
-0.1047065 0.098374754 -0.22965325
-0.10456 0.098330997 -0.229678
-0.1098535 0.098500997 -0.229671
-0.10971425 0.098548122 -0.22963162
-0.10956367 0.098540999 -0.22959034
-0.109404 0.098563001 -0.22953549
-0.1091335 0.098551497 -0.229507
-0.108841 0.098571002 -0.22950301
-0.108557 0.098483004 -0.22950301
-0.10841325 0.098529257 -0.229517
-0.10829733 0.098558001 -0.22956
-0.108116 0.098555334 -0.22958434
-0.107807 0.098595999 -0.22950999
-0.106433 0.098555498 -0.22951224
-0.10627484 0.098543167 -0.22959702
-0.1061064 0.098554 -0.2296232
-0.10592125 0.098563753 -0.22959274
-0.10571276 0.098542497 -0.229555
-0.105533 0.098537505 -0.229562
-0.1052695 0.098532997 -0.22956601
-0.10499699 0.098526999 -0.2296125
-0.104829 0.098525003 -0.22965601
-0.104669 0.098484002 -0.22967
-0.10967634 0.098725341 -0.22965133
-0.1095545 0.098728001 -0.2296315
-0.109396 0.098711997 -0.229572
-0.10912433 0.098737337 -0.229544
-0.1089555 0.098756999 -0.22950849
-0.10882512 0.098724373 -0.22950776
-0.108384 0.098722994 -0.22950301
-0.1082915 0.098733999 -0.22953799
-0.108109 0.098735005 -0.229579
-0.10780033 0.098742664 -0.22953467
-0.10644925 0.098719254 -0.22952175
-0.1062675 0.098723754 -0.22959925
-0.10609 0.098722994 -0.229646
-0.10591375 0.098713249 -0.22962549
-0.105753 0.098741002 -0.229643
-0.10558716 0.098726511 -0.2296145
-0.10526001 0.09872067 -0.22961867
-0.104989 0.098678 -0.229654
-0.1096485 0.098881498 -0.2296655
-0.109547 0.098877996 -0.22966999
-0.10938668 0.098899335 -0.229618
-0.1091155 0.098922998 -0.229579
-0.10894901 0.098904498 -0.229525
-0.10882417 0.098899335 -0.229532
-0.10867775 0.098941498 -0.2295115
-0.10843756 0.098919287 -0.22951314
-0.108285 0.098912664 -0.22953099
-0.108102 0.098914325 -0.22957867
-0.1077915 0.098927498 -0.229569
-0.10757399 0.098909833 -0.22952466
-0.107383 0.098936498 -0.22951099
-0.1072025 0.098931998 -0.22950351
-0.1069665 0.098957002 -0.22950801
-0.10681933 0.098917998 -0.22951834
-0.10662886 0.098892711 -0.22951828
-0.10646925 0.098913997 -0.22955948
-0.1062605 0.098904341 -0.22960399
-0.10610549 0.098887742 -0.2296575
-0.1059075 0.098827496 -0.22966701
-0.10559934 0.098901667 -0.22965832
-0.105251 0.098871998 -0.229672
-0.109378 0.09905 -0.22966801
-0.10910749 0.099073 -0.22962201
-0.108939 0.099092662 -0.229578
-0.10881468 0.099087104 -0.22957969
-0.10866457 0.09909343 -0.22954956
-0.108451 0.099097006 -0.229553
-0.10827599 0.099097498 -0.229568
-0.10809501 0.099094003 -0.229581
-0.107783 0.099082001 -0.2296275
-0.10756456 0.099097453 -0.22957277
-0.1073755 0.099086337 -0.22954267
-0.10719449 0.099082492 -0.22953717
-0.107014 0.099087797 -0.22953661
-0.1068105 0.099101499 -0.22954649
-0.10663075 0.099088505 -0.22955075
-0.10647083 0.099090166 -0.22959334
-0.106252 0.099088252 -0.2296315
-0.1090995 0.099224001 -0.22966599
-0.10892899 0.099280998 -0.22962999
-0.10880483 0.099275 -0.22963135
-0.1086485 0.099260174 -0.22960301
-0.10846059 0.099241599 -0.2295928
-0.10831175 0.099282756 -0.22961301
-0.108087 0.099244505 -0.22961801
-0.10777333 0.09926834 -0.22966801
-0.10755516 0.099283993 -0.22961551
-0.1073655 0.0992755 -0.2295955
-0.1071845 0.099270754 -0.22959375
-0.106996 0.099259749 -0.229583
-0.106802 0.099255502 -0.22960499
-0.10662034 0.099279337 -0.22961283
-0.106512 0.099262603 -0.22963361
-0.106348 0.099229336 -0.22964932
-0.108922 0.099428505 -0.22965899
-0.10879833 0.099388994 -0.22967
-0.10863983 0.099413164 -0.22965683
-0.108477 0.099404 -0.22964975
-0.1083035 0.099434249 -0.2296575
-0.10808 0.099361002 -0.22967599
-0.107563 0.09941975 -0.22966549
-0.10735725 0.099426992 -0.22964698
-0.10717601 0.099424005 -0.22964752
-0.10698725 0.099414498 -0.22964302
-0.106793 0.099408999 -0.229663
-0.106636 0.099435002 -0.22967
-0.103021 0.088184997 -0.229495
-0.103017 0.088293001 -0.22949299
-0.103747 0.088443004 -0.229496
-0.10301033 0.08847034 -0.22948499
-0.1027905 0.088502005 -0.229491
-0.102694 0.088535003 -0.229498
-0.102332 0.088515997 -0.229499
-0.1035575 0.088682994 -0.22949851
-0.10303801 0.088664331 -0.22948067
-0.10281233 0.088656664 -0.22948666
-0.1026905 0.088641003 -0.22947299
-0.102591 0.088638 -0.229498
-0.10234925 0.088676006 -0.22947875
-0.10373 0.088871002 -0.2295
-0.103597 0.088828504 -0.22948925
-0.103368 0.088852003 -0.229497
-0.1032795 0.088881999 -0.22949401
-0.10305 0.088830173 -0.2294585
-0.10283467 0.088823669 -0.22947466
-0.102722 0.0888322 -0.229458
-0.10254979 0.088827595 -0.22948499
-0.10236524 0.088837743 -0.22946775
-0.10218 0.088827506 -0.22949201
-0.10197 0.088817999 -0.22948399
-0.1017765 0.088881999 -0.2294905
-0.101636 0.088910997 -0.22949401
-0.103903 0.089091003 -0.229498
-0.1037632 0.089028403 -0.22948639
-0.10359066 0.089006163 -0.22948034
-0.103363 0.088993333 -0.229488
-0.10324024 0.089021496 -0.229482
-0.10304275 0.089009255 -0.229467
-0.1028555 0.089002997 -0.229477
-0.10271521 0.089016996 -0.22944617
-0.10253567 0.089023836 -0.22944717
-0.1023595 0.089014001 -0.2294445
-0.102175 0.089002669 -0.22945933
-0.10196483 0.088994332 -0.2294565
-0.101782 0.089001998 -0.229479
-0.1016315 0.089017004 -0.22949049
-0.104074 0.089203998 -0.22949299
-0.1038985 0.089197002 -0.22949401
-0.1037665 0.089192003 -0.2294825
-0.10358425 0.089183249 -0.22947299
-0.103356 0.089204334 -0.22945966
-0.10323433 0.089198329 -0.22946101
-0.10303649 0.089186169 -0.22945066
-0.10285 0.089178659 -0.22945233
-0.1027284 0.089187197 -0.22942778
-0.102529 0.089200996 -0.22943099
-0.1023535 0.089190498 -0.2294265
-0.102169 0.089177996 -0.229433
-0.10195767 0.089205496 -0.22942616
-0.10176533 0.089199163 -0.22945833
-0.10158333 0.089194 -0.22947516
-0.101404 0.089257501 -0.229486
-0.101237 0.089242503 -0.22948501
-0.1040685 0.089346997 -0.229488
-0.10389151 0.089376003 -0.22949651
-0.10376034 0.08937034 -0.22947682
-0.10357717 0.089361839 -0.22947234
-0.1033495 0.089382999 -0.229453
-0.10322775 0.089375749 -0.229454
-0.10303025 0.0893635 -0.22943576
-0.1028445 0.089354001 -0.229425
-0.102712 0.089384831 -0.22941066
-0.10252383 0.089377008 -0.22940733
-0.10234732 0.089367002 -0.22940898
-0.10216334 0.08935567 -0.22941302
-0.10195149 0.089381754 -0.22940901
-0.10176 0.089374997 -0.22942525
-0.10157825 0.089368746 -0.229441
-0.10140099 0.089361504 -0.2294675
-0.10123199 0.089383997 -0.2294745
-0.10108633 0.089383669 -0.22948533
-0.10388499 0.089553997 -0.22948951
-0.103753 0.089548498 -0.22948025
-0.103571 0.0895385 -0.22945875
-0.103343 0.089558661 -0.22943634
-0.10322151 0.089552827 -0.22943766
-0.103024 0.089539327 -0.22941732
-0.10283867 0.089530669 -0.22940402
-0.10270625 0.089560747 -0.2293845
-0.102517 0.089553997 -0.22939301
-0.10234175 0.089543253 -0.22938123
-0.10215667 0.08956667 -0.22938067
-0.10194633 0.089557834 -0.229376
-0.10175484 0.089549333 -0.22939301
-0.101573 0.089544661 -0.22940283
-0.101395 0.08953733 -0.22943898
-0.10122651 0.089560501 -0.22944576
-0.10108 0.089561 -0.22946599
-0.100828 0.089580998 -0.229495
-0.104051 0.089776002 -0.22949851
-0.103879 0.08973033 -0.229469
-0.10374617 0.089726664 -0.22947581
-0.1035645 0.089715995 -0.22944665
-0.1033365 0.089736998 -0.229433
-0.10321525 0.089729749 -0.22942124
-0.1030072 0.089735605 -0.22939081
-0.10283033 0.089743666 -0.22939734
-0.10270067 0.089736499 -0.229361
-0.1025115 0.089729331 -0.22936849
-0.10233616 0.089718662 -0.22935332
-0.10215 0.089743495 -0.2293745
-0.10194075 0.089732997 -0.22934699
-0.101767 0.089713335 -0.22934766
-0.10159381 0.089726999 -0.22936881
-0.10138934 0.089746006 -0.22938766
-0.10122067 0.089736663 -0.22942483
-0.10107433 0.089736998 -0.22944568
-0.100824 0.089722663 -0.22946934
-0.1006435 0.089753501 -0.22947949
-0.100547 0.089790002 -0.229497
-0.104046 0.089918002 -0.22949201
-0.1038725 0.089908004 -0.229468
-0.10374 0.089902997 -0.2294545
-0.1035488 0.089912795 -0.2294286
-0.10332999 0.089914657 -0.22942267
-0.1032085 0.089907832 -0.22942032
-0.103038 0.089896008 -0.229386
-0.10286967 0.089930661 -0.22935867
-0.10267967 0.089900337 -0.22933434
-0.10250574 0.089905001 -0.22934124
-0.1023206 0.089916006 -0.22933622
-0.10214434 0.089919664 -0.22934633
-0.101996 0.089837 -0.22932599
-0.1018555 0.089926258 -0.22932525
-0.10160715 0.089874431 -0.22933201
-0.10145833 0.089938663 -0.22934467
-0.1012565 0.089914501 -0.22938751
-0.10107 0.089910999 -0.229399
-0.1008185 0.089897998 -0.22944501
-0.10063849 0.089895993 -0.22947
-0.10049375 0.089893997 -0.22948851
-0.100395 0.089997999 -0.22948751
-0.104042 0.090024002 -0.229481
-0.10393439 0.090104401 -0.22947478
-0.10373417 0.090079665 -0.22944117
-0.1035604 0.090084806 -0.2294192
-0.1033235 0.090092003 -0.229415
-0.1032025 0.090084001 -0.22940201
-0.10305651 0.090078995 -0.2294005
-0.1028734 0.090082005 -0.2293448
-0.1026782 0.090103999 -0.2293286
-0.1024918 0.090067804 -0.22932759
-0.10233933 0.090049334 -0.22932732
-0.10146767 0.09010417 -0.22933201
-0.10125056 0.090090781 -0.22936453
-0.10106299 0.090089001 -0.22939067
-0.10081267 0.090074003 -0.22941834
-0.10063267 0.090071999 -0.22944666
-0.10053733 0.090073667 -0.22947067
-0.1004355 0.090103999 -0.22948
-0.10378979 0.090253793 -0.22944781
-0.1035894 0.090272203 -0.2294158
-0.1034965 0.090315998 -0.2294285
-0.10323656 0.090263665 -0.22939287
-0.10305101 0.090253331 -0.22936635
-0.10285733 0.090285003 -0.229331
-0.10269734 0.090257667 -0.22933866
-0.101507 0.09025 -0.229322
-0.101244 0.090268165 -0.22935301
-0.1010565 0.090266004 -0.229376
-0.100806 0.090285331 -0.229388
-0.10062467 0.090285338 -0.22944033
-0.10053066 0.090285003 -0.229441
-0.1003942 0.090267599 -0.2294718
-0.104266 0.090470999 -0.229499
-0.104187 0.090536997 -0.229495
-0.10402566 0.090451337 -0.22947933
-0.1038105 0.090440005 -0.22944534
-0.1036366 0.090445198 -0.22940762
-0.103492 0.090458006 -0.22940901
-0.10323033 0.090441011 -0.22937918
-0.103043 0.090466999 -0.229367
-0.10287284 0.090451829 -0.22933352
-0.102725 0.090377003 -0.22932801
-0.10122416 0.090420328 -0.22934116
-0.10107725 0.090460747 -0.22937125
-0.100801 0.090425998 -0.229376
-0.100797 0.090501003 -0.229399
-0.10057175 0.090461999 -0.22942325
-0.10042299 0.090459004 -0.22945499
-0.10426 0.090647995 -0.2294905
-0.1041835 0.090640999 -0.229479
-0.104019 0.090627998 -0.22946501
-0.10380425 0.090616994 -0.22943151
-0.10362067 0.090643167 -0.22939534
-0.10348633 0.09063267 -0.22938599
-0.10322367 0.090617664 -0.2293689
-0.103036 0.090644002 -0.229359
-0.102935 0.090594001 -0.229322
-0.101227 0.090585999 -0.229323
-0.10109949 0.090619996 -0.22935501
-0.10079267 0.090640999 -0.22937267
-0.10056517 0.090639003 -0.22940917
-0.10039224 0.090656996 -0.22947448
-0.10425367 0.090825997 -0.22947401
-0.10417601 0.090819992 -0.22948165
-0.104013 0.090806335 -0.22945601
-0.10379767 0.090794832 -0.229425
-0.10361375 0.090821505 -0.229396
-0.1034785 0.090811998 -0.2293945
-0.10321667 0.0907965 -0.22936966
-0.103057 0.090840496 -0.22934726
-0.101215 0.090871997 -0.22932599
-0.10109317 0.0907965 -0.22934283
-0.100785 0.09082 -0.229381
-0.10055749 0.090819001 -0.229423
-0.10037933 0.090806007 -0.22946833
-0.1042455 0.091005996 -0.229496
-0.104169 0.090998001 -0.22948301
-0.1040055 0.090984002 -0.22945249
-0.1037818 0.090993397 -0.2294164
-0.10360733 0.090998672 -0.22938435
-0.10347199 0.090989999 -0.22939199
-0.10324817 0.090975165 -0.22935267
-0.1030785 0.091003001 -0.22935276
-0.101213 0.090942003 -0.22932599
-0.10103 0.091011003 -0.229331
-0.10077734 0.091000669 -0.229396
-0.10055033 0.090998501 -0.22942866
-0.10040033 0.090998329 -0.22948366
-0.104262 0.091185242 -0.22949001
-0.104162 0.091178 -0.22948934
-0.10399932 0.091161333 -0.22944866
-0.103792 0.091165401 -0.22941521
-0.1036 0.091178 -0.22938725
-0.1034655 0.091169 -0.22939
-0.10323159 0.091174006 -0.2293472
-0.1030715 0.091180831 -0.22934817
-0.101204 0.091155 -0.229321
-0.10106759 0.091169201 -0.22934639
-0.1007705 0.091179498 -0.22940001
-0.10054225 0.091179751 -0.229449
-0.100393 0.091177501 -0.22949651
-0.104424 0.091371 -0.22949499
-0.1042886 0.091343202 -0.22947939
-0.104156 0.091354996 -0.22947049
-0.103993 0.091339 -0.229432
-0.10377649 0.091363668 -0.22940151
-0.10359284 0.091356836 -0.22939265
-0.10345867 0.091346659 -0.22938101
-0.1032424 0.091346398 -0.22934759
-0.103065 0.091358997 -0.22934249
-0.1010826 0.091354206 -0.2293442
-0.10076233 0.091360331 -0.22941333
-0.100534 0.091361165 -0.22947352
-0.104587 0.091557004 -0.2295
-0.10443825 0.091550253 -0.22948375
-0.10427216 0.091540836 -0.22946866
-0.10415 0.091531336 -0.22945134
-0.103986 0.091517329 -0.22942834
-0.10376975 0.091541499 -0.22939549
-0.103587 0.09153375 -0.2293725
-0.103453 0.091522001 -0.22935849
-0.10322633 0.091544501 -0.2293395
-0.10305833 0.091536842 -0.22933483
-0.1012244 0.091531999 -0.22932979
-0.10105281 0.091527201 -0.22935581
-0.10075501 0.091540001 -0.229432
-0.10052625 0.091541 -0.22948849
-0.10462775 0.091663502 -0.22948851
-0.10448117 0.091717839 -0.22947533
-0.104282 0.091706336 -0.22945267
-0.10416833 0.091723002 -0.22944666
-0.1039795 0.091695502 -0.22942349
-0.10376334 0.091719173 -0.22938867
-0.103581 0.091709666 -0.22935466
-0.10344666 0.091699667 -0.229343
-0.10321975 0.091722757 -0.22933525
-0.10307 0.091727339 -0.22932966
-0.1012265 0.091698498 -0.229339
-0.10105626 0.091694497 -0.22938575
-0.10074633 0.091723002 -0.22946066
-0.100566 0.091720998 -0.229491
-0.104477 0.091888137 -0.22947785
-0.10430566 0.091898344 -0.22944367
-0.1041755 0.091889001 -0.22942817
-0.10397299 0.091872334 -0.22940965
-0.10375676 0.091896743 -0.22938101
-0.10357425 0.09188775 -0.22934599
-0.10343949 0.091877505 -0.229339
-0.10322221 0.091887005 -0.22932939
-0.10306433 0.091870338 -0.22932732
-0.101524 0.091963999 -0.229329
-0.1013878 0.091903605 -0.229339
-0.10121801 0.091879494 -0.22936653
-0.10104766 0.091876 -0.22941215
-0.1007375 0.091904998 -0.22949299
-0.104811 0.092136003 -0.229487
-0.10452533 0.092052162 -0.2294625
-0.10434826 0.092078499 -0.2294485
-0.10416825 0.092067495 -0.22943349
-0.10396534 0.092085667 -0.22940068
-0.10375033 0.0920735 -0.2293645
-0.1035675 0.092064835 -0.22934334
-0.10343301 0.092055999 -0.22934
-0.10324951 0.092081994 -0.22933
-0.103095 0.092037998 -0.229332
-0.101707 0.092116997 -0.22932801
-0.1015645 0.092071503 -0.22932699
-0.1014148 0.092078999 -0.22936039
-0.10120875 0.092062749 -0.2294075
-0.10103875 0.092058748 -0.22944748
-0.104808 0.092207998 -0.229491
-0.10465 0.092234999 -0.229476
-0.10451782 0.092264675 -0.22944985
-0.1043425 0.092255831 -0.22942835
-0.10416183 0.092245169 -0.22942384
-0.103959 0.092263505 -0.229387
-0.10374375 0.092252001 -0.229361
-0.103576 0.092232339 -0.229342
-0.1034255 0.092234001 -0.22934049
-0.10321466 0.092234008 -0.22932167
-0.10175201 0.092249401 -0.22933181
-0.10163334 0.092303 -0.22933365
-0.10146883 0.092253678 -0.22936416
-0.10129017 0.092249177 -0.22941333
-0.1011205 0.092241503 -0.22946668
-0.10097601 0.092206001 -0.229476
-0.10483667 0.092473336 -0.22948533
-0.10464466 0.092411995 -0.22945434
-0.10451175 0.092441998 -0.229432
-0.10433576 0.092432752 -0.2294215
-0.10415599 0.092421748 -0.22940449
-0.103952 0.092440002 -0.22938167
-0.10373717 0.092429005 -0.229352
-0.10355399 0.092421502 -0.22933035
-0.1034195 0.092410997 -0.2293265
-0.10177749 0.092444003 -0.22932699
-0.10164375 0.092437997 -0.22935499
-0.10146074 0.09243425 -0.2293815
-0.10128225 0.092430241 -0.22943574
-0.101147 0.092425495 -0.22948951
-0.10485125 0.09260501 -0.22947149
-0.104637 0.092625327 -0.22944267
-0.1045055 0.092618495 -0.22941816
-0.1043295 0.092610337 -0.22940718
-0.10414866 0.092600167 -0.22940685
-0.103946 0.092617005 -0.22936749
-0.10373025 0.092607245 -0.22934499
-0.103592 0.092600003 -0.22932449
-0.10341249 0.092590004 -0.229325
-0.1019645 0.092590496 -0.22932474
-0.10177001 0.092624001 -0.22934432
-0.101636 0.092617996 -0.22936833
-0.1014525 0.092615835 -0.22940516
-0.10127317 0.092613496 -0.22947334
-0.104962 0.092864998 -0.229499
-0.10484484 0.092781998 -0.22945966
-0.104631 0.092802003 -0.229425
-0.10449875 0.09279675 -0.229415
-0.10432375 0.092786998 -0.22938675
-0.10414276 0.092776753 -0.229388
-0.10393933 0.092794992 -0.22935902
-0.10373239 0.092771195 -0.22934341
-0.1036335 0.092781 -0.2293345
-0.103403 0.092840001 -0.229325
-0.102037 0.092701003 -0.229324
-0.101801 0.092814662 -0.22934835
-0.1016285 0.092797503 -0.22937325
-0.101445 0.092795998 -0.22941874
-0.1013105 0.092796996 -0.22947851
-0.1049966 0.092980199 -0.22949378
-0.1048262 0.0929792 -0.229449
-0.10462499 0.092978001 -0.22940801
-0.10449317 0.092972495 -0.2293905
-0.10431717 0.092964344 -0.22937965
-0.10413617 0.092954837 -0.22937733
-0.103933 0.092971995 -0.229348
-0.1037585 0.092964999 -0.22933799
-0.10362625 0.092959501 -0.22933149
-0.10202549 0.092954502 -0.2293455
-0.10181334 0.092982166 -0.22935349
-0.1016205 0.0929785 -0.22939248
-0.10143632 0.092977673 -0.22944516
-0.10130399 0.092941001 -0.22949299
-0.10521 0.093235999 -0.2295
-0.105 0.093151778 -0.22948132
-0.104844 0.093150601 -0.22942682
-0.1046175 0.093157001 -0.22940999
-0.1044865 0.093149506 -0.22937825
-0.10431001 0.093143247 -0.22937998
-0.10412099 0.093153603 -0.22937278
-0.103926 0.09315034 -0.229348
-0.10375234 0.093142666 -0.22932868
-0.10366867 0.093139328 -0.22932267
-0.102018 0.09313333 -0.22935565
-0.10180525 0.093162999 -0.22937301
-0.10161225 0.093159243 -0.22941449
-0.1014285 0.093158744 -0.22945851
-0.1052065 0.093341999 -0.229482
-0.104994 0.093328662 -0.22946584
-0.1048146 0.093331799 -0.22940819
-0.10461033 0.093336008 -0.22941168
-0.10447934 0.093329169 -0.22938584
-0.1043035 0.093320496 -0.22937417
-0.10412999 0.093325391 -0.2293648
-0.103919 0.093328997 -0.22934701
-0.10374551 0.093320996 -0.229324
-0.102328 0.093364999 -0.22932599
-0.102239 0.093359999 -0.22933
-0.10201 0.093314998 -0.229377
-0.1018104 0.093328595 -0.229376
-0.10160467 0.093340002 -0.22942799
-0.10142151 0.093338661 -0.22946817
-0.10547 0.093501002 -0.229499
-0.10520033 0.093518339 -0.22946501
-0.10500186 0.09349601 -0.22945486
-0.10487783 0.093508996 -0.22942682
-0.10465633 0.093526006 -0.22939034
-0.10447275 0.093506493 -0.2293745
-0.10429675 0.093498498 -0.22936326
-0.104115 0.093523175 -0.22935466
-0.10391267 0.093506671 -0.22933535
-0.103736 0.093569003 -0.229322
-0.10292549 0.093499005 -0.2293275
-0.102686 0.093520001 -0.229323
-0.10219741 0.093515798 -0.229334
-0.102004 0.093491338 -0.22936065
-0.1017792 0.093503602 -0.22940162
-0.10159725 0.093520001 -0.22943349
-0.1014565 0.093516998 -0.229467
-0.10546366 0.093677334 -0.22948533
-0.1051935 0.093696997 -0.2294585
-0.1050055 0.093683243 -0.22943975
-0.10490125 0.093678996 -0.22943026
