-0.169465 -0.15471 0.973317 0.00959272
-0.166925 -0.154131 0.973848 0.00956272
0.152586 -0.216992 0.964174 0
0.156758 -0.222241 0.962308 0
-0.186434 -0.158212 0.969645 0.0172349
-0.180789 -0.155491 0.971153 0.0138269
-0.178341 -0.155002 0.971684 0.0152287
0.159687 -0.219419 0.962474 0
0.167522 -0.223861 0.960116 0.00260343
-0.195234 -0.156192 0.96824 0.0223653
-0.183269 -0.14773 0.971899 0.0207794
0.167179 -0.222336 0.96053 0.00182037
0.173385 -0.227451 0.95823 0
-0.190794 -0.155629 0.969215 0.0212625
-0.185592 -0.151874 0.970819 0.0191774
-0.177432 -0.142066 0.973825 0.0183124
0.168207 -0.223734 0.960026 0
-0.194311 -0.151115 0.96923 0.0232293
-0.183449 -0.146611 0.972035 0.0177644
-0.179146 -0.145526 0.973 0.0137843
0.166752 -0.22008 0.961123 0
-0.191891 -0.144771 0.97068 0.0214444
-0.183589 -0.139182 0.9731 0.0206576
0.158055 -0.210652 0.964699 0
0.167942 -0.218731 0.961224 0
-0.178241 -0.135743 0.974579 0.0187624
-0.181487 -0.136139 0.973924 0.0220198
0.15942 -0.209329 0.964762 0
0.163658 -0.213687 0.963096 0
0.16718 -0.216987 0.961752 0
-0.180388 -0.13472 0.974326 0.0203159
-0.180921 -0.131512 0.974665 0.0225516
0.165034 -0.211072 0.963438 0
0.164772 -0.21038 0.963634 0
0.16465 -0.209973 0.963744 0.00213975
-0.178765 -0.126984 0.975663 0.0247544
-0.169705 -0.123573 0.977717 0.0214268
0.167508 -0.209515 0.963351 0
0.17637 -0.212968 0.961009 0
0.175305 -0.207377 0.962426 0
-0.171267 -0.125557 0.977191 0.0208213
-0.157676 -0.117874 0.98043 0.0201026
0.171119 -0.208854 0.962859 0
0.182215 -0.207674 0.961077 0
-0.176917 -0.125569 0.976183 0.0245204
-0.165468 -0.12219 0.978616 0.0195966
-0.159357 -0.117015 0.980262 0.0218912
0.174818 -0.201263 0.963811 0
0.182644 -0.207672 0.960996 0
-0.180932 -0.128316 0.975089 0.00787473
-0.171953 -0.125212 0.977115 0.00734209
-0.172053 -0.119157 0.977854 0.0188115
-0.161545 -0.115194 0.980119 0.0190629
0.189369 -0.205866 0.960083 0
-0.171398 -0.127282 0.976945 0.000535433
-0.17168 -0.121014 0.977692 0.00673447
-0.167187 -0.120612 0.97852 0.00761228
-0.16187 -0.114801 0.980112 0.0163481
-0.163567 -0.114207 0.979899 0.0209506
0.182035 -0.19981 0.962777 0.00289256
0.183629 -0.198845 0.962674 0.000353733
-0.174689 -0.130235 0.975973 0
-0.16999 -0.127158 0.977207 0
-0.166967 -0.119342 0.978713 0.00727762
-0.164858 -0.117169 0.979333 0.00923139
0.181065 -0.194453 0.964056 0
0.190123 -0.195326 0.962134 0.001701
-0.164288 -0.122131 0.978823 0
-0.176805 -0.125553 0.976205 0.0045088
-0.167277 -0.122631 0.978254 0.000267111
0.197555 -0.194119 0.96088 0
-0.167674 -0.123126 0.978124 0.00245715
-0.159253 -0.121847 0.97969 0.000837075
0.205827 -0.194133 0.959139 0
0.222254 -0.195105 0.955268 0
-0.172717 -0.121373 0.977465 0.00660285
-0.163353 -0.117306 0.979569 0.00349329
0.21858 -0.190571 0.95703 0
-0.177174 -0.117784 0.977106 0.0151575
-0.166748 -0.115983 0.979154 0.0131742
0.215724 -0.183347 0.959087 0
0.222613 -0.185128 0.957168 0
-0.206053 -0.120155 0.971136 0.0221576
-0.184043 -0.115108 0.976155 0.0161347
-0.172339 -0.114077 0.97841 0.0127981
0.207056 -0.173742 0.962778 0
0.213656 -0.177333 0.960679 0
-0.194958 -0.115003 0.974046 0.0201392
-0.184703 -0.11171 0.976425 0.0171728
0.199142 -0.167273 0.965589 0
0.206841 -0.171168 0.963285 0
-0.186656 -0.11128 0.976103 0.0196579
-0.178343 -0.108265 0.977994 0.0171672
0.191196 -0.158116 0.968733 0.000693378
-0.190724 -0.108334 0.975647 0.0160757
-0.183408 -0.105943 0.977311 0.0151907
0.184715 -0.15191 0.970981 0.00292627
-0.175504 -0.104198 0.978949 0.0103949
-0.165204 -0.101675 0.981004 0.00796428
0.183129 -0.150083 0.971565 0.00401803
-0.179926 -0.0992802 0.978657 0.0100648
-0.174836 -0.0976865 0.97974 0.00941508
0.185704 -0.147002 0.971547 0.000343558
-0.159957 -0.0939199 0.982646 0.00173893
-0.156079 -0.0948578 0.983179 0.00337012
0.189564 -0.139748 0.971872 0
-0.156908 -0.0919892 0.98332 0
-0.150838 -0.0896336 0.984487 0
0.196225 -0.131937 0.971642 0
-0.159911 -0.0840338 0.983548 0
-0.155648 -0.083493 0.984278 0
-0.161686 -0.0798741 0.983604 0.00270934
-0.15537 -0.07702 0.984849 0.000300722
-0.151269 -0.074243 0.985701 0
-0.162962 -0.0735856 0.983884 0.0049532
-0.158349 -0.07005 0.984895 0.00541589
-0.149435 -0.0669796 0.9865 0.0042837
-0.145948 -0.0658128 0.987101 0
-0.139213 -0.0643146 0.988172 0
-0.160217 -0.0653313 0.984918 0
-0.146053 -0.0634139 0.987242 0
0.216197 -0.0887699 0.972306 0.00446844
0.227008 -0.0864081 0.970052 0.00957133
-0.165707 -0.0637315 0.984114 0
-0.159565 -0.0631683 0.985164 0
0.22111 -0.0803557 0.971933 0.0109018
-0.190963 -0.0573765 0.979919 0
-0.181913 -0.0572763 0.981645 0.00088043
-0.165051 -0.0585182 0.984548 0.00115977
0.229043 -0.075423 0.97049 0.0116127
-0.198844 -0.0479174 0.978859 0.0103656
-0.186938 -0.0497788 0.98111 0.00577283
0.234871 -0.0663286 0.969761 0.0143657
0.250053 -0.0659043 0.965987 0.0175238
-0.213378 -0.0390975 0.976187 0.0194337
-0.198744 -0.0435045 0.979085 0.0134411
0.241871 -0.0578737 0.968581 0.0145663
0.246211 -0.0549243 0.967659 0.012059
-0.213822 -0.031456 0.976366 0.0105814
-0.199121 -0.0332629 0.97941 0.00804439
-0.219377 -0.023455 0.975358 0.0141523
-0.198005 -0.0254127 0.979872 0.0123921
0.255599 -0.0352292 0.966141 0.01254
-0.221143 -0.017711 0.975081 0.0152509
0.253043 -0.0269683 0.967079 0.0137038
-0.231374 -0.0106878 0.972806 0.00637764
0.252194 -0.0227219 0.96741 0.00550158
-0.226104 -0.00414169 0.974094 0.00165305
-0.202821 -0.00948718 0.97917 0
-0.228571 0.00242412 0.973524 0.00378111
-0.205114 -0.00201076 0.978736 0.00287481
-0.201059 -0.00497236 0.979566 0.0011366
0.251034 -0.0129327 0.967892 0.00398034
-0.226195 0.00398295 0.974074 0.000851399
-0.210455 -0.00112922 0.977603 0.000223493
-0.202551 -0.0041443 0.979263 0.000772899
0.246877 -0.00605441 0.969028 0.00461439
-0.21379 0.00358904 0.976873 0
0.237099 -0.00380179 0.971478 0
-0.21531 0.00790496 0.976514 0.00316962
0.235651 0.000488069 0.971838 0
-0.207413 0.0085903 0.978216 0.00239422
-0.22225 0.0180453 0.974823 0.0125533
-0.215614 0.019539 0.976283 0.00816933
-0.21148 0.023684 0.977095 0.00782109
-0.202875 0.0222514 0.978952 0.00810296
-0.209474 0.0248854 0.977497 0.00325266
-0.206593 0.0276339 0.978037 0.00286779
-0.192506 0.0219787 0.98105 0.00733111
-0.21078 0.031952 0.977011 0.00962421
-0.214099 0.0378462 0.976078 0.0227777
-0.198165 0.0355464 0.979524 0.0166565
-0.206781 0.0441194 0.977392 0.0183771
-0.193484 0.0394383 0.98031 0.0166358
-0.207339 0.0509367 0.976942 0.0205633
-0.208167 0.0530916 0.976651 0.0238748
-0.19775 0.0522268 0.97886 0.0255555
-0.192537 0.0538357 0.979812 0.026065
-0.178705 0.0502463 0.982619 0.0212963
-0.20664 0.057973 0.976698 0.0162669
-0.205009 0.0573576 0.977078 0.0178326
-0.195271 0.0570152 0.979091 0.0171839
-0.189164 0.0544825 0.980433 0.0180462
-0.18464 0.055598 0.981232 0.0197638
-0.180365 0.0537284 0.982131 0.0212878
-0.209848 0.0649698 0.975573 0.0112136
-0.200641 0.0619611 0.977704 0.0124715
-0.203034 0.0657826 0.97696 0.0160235
-0.199285 0.0652727 0.977765 0.0149606
-0.192823 0.0625091 0.97924 0.02151
-0.189266 0.0630267 0.979901 0.0225175
-0.209652 0.0716694 0.975146 0.0105216
-0.212389 0.0737099 0.974401 0.0138814
-0.204599 0.0731137 0.976111 0.0147396
-0.201818 0.0713524 0.976821 0.0211541
-0.190906 0.0699457 0.979113 0.0197667
-0.173791 0.0617952 0.982842 0.0188316
0.221122 0.0735123 0.972472 0
-0.214948 0.0759619 0.973667 0.00729341
-0.211152 0.078415 0.974303 0.0108161
-0.204123 0.077365 0.975883 0.0144793
-0.181971 0.0667959 0.981033 0.0133759
-0.180473 0.0669901 0.981296 0.0176522
-0.171962 0.0636285 0.983046 0.0165784
0.228003 0.0807321 0.970308 0
-0.21271 0.0831029 0.973575 0.0129591
-0.205083 0.080931 0.975393 0.0137727
-0.194029 0.0765094 0.978008 0.0143514
-0.180042 0.0692015 0.981222 0.0133652
0.212028 0.0859109 0.97348 0
0.218428 0.0862255 0.972036 0
-0.206251 0.0844539 0.974848 0.0126491
-0.199837 0.0806799 0.976502 0.0119623
-0.187653 0.0758295 0.979304 0.015374
0.214834 0.0951621 0.972003 0.00703205
-0.193983 0.0828115 0.977503 0.0129692
-0.190447 0.0815969 0.9783 0.0162881
0.218314 0.104692 0.970247 0.009461
-0.203403 0.0894487 0.975001 0.00962667
-0.188296 0.0826567 0.978628 0.00859401
0.20131 0.103744 0.974018 0.00611228
0.219425 0.108306 0.969599 0.00642499
-0.198467 0.0885274 0.976101 0.00625002
-0.186646 0.0836426 0.97886 0.00633435
0.204327 0.113943 0.972249 0.00981132
0.209331 0.112236 0.971382 0.00629848
-0.186642 0.0877922 0.978497 0.00545441
0.199854 0.116288 0.972901 0.00834598
0.220343 0.121158 0.967869 0.00821542
-0.18156 0.087476 0.979481 6.10307e-05
-0.174252 0.0860273 0.980936 0
0.20187 0.119823 0.972055 0.00305185
0.201577 0.115277 0.972665 0
-0.187305 0.0934434 0.977847 0.000727298
-0.189692 0.0992429 0.976815 0.00427717
0.200173 0.121683 0.972175 0
-0.205708 0.116011 0.971713 0.0130742
-0.210446 0.122188 0.969939 0.0126696
-0.22287 0.157746 0.962001 0.0131305
0.191436 0.147522 0.970355 0
0.198519 0.15187 0.968259 0
-0.22137 0.158378 0.962243 0.0139283
-0.219543 0.156212 0.963015 0.0189325
-0.203732 0.147488 0.967854 0.0145403
0.197528 0.153592 0.96819 0.000495077
0.194989 0.148844 0.969445 0
-0.221404 0.161744 0.961675 0.0184683
-0.225569 0.169062 0.959446 0.0199603
-0.195778 0.140753 0.970495 0.0082233
-0.186741 0.134472 0.973162 0.00645577
-0.166856 0.12808 0.977627 0.00580307
0.187408 0.155664 0.96987 0.00711342
-0.199734 0.149452 0.968385 0.00930594
-0.174531 0.130815 0.975923 0.00329474
-0.174302 0.136827 0.975139 0.00643756
-0.168116 0.135135 0.976461 0.00551362
0.176311 0.156084 0.971881 0.00510646
0.173503 0.147846 0.973673 0.00089668
-0.170482 0.140636 0.975273 0.00323761
-0.17443 0.144109 0.974067 0.00546503
0.170187 0.160978 0.972174 0.00892377
0.177939 0.160734 0.970826 0.00725593
-0.167815 0.142327 0.97549 0
-0.15689 0.135654 0.978255 0
0.169942 0.17541 0.969717 0.0118613
0.170872 0.169609 0.970585 0.0127121
-0.154791 0.13518 0.978655 0
-0.155527 0.137025 0.978282 0
0.175061 0.177738 0.968382 0.00791326
-0.155268 0.140454 0.977837 0
-0.15607 0.144614 0.977102 0.00251469
0.170485 0.177232 0.96929 0.0100558
0.17577 0.181117 0.967627 0.00976265
-0.170308 0.164729 0.971524 0.00729063
-0.158062 0.152707 0.97555 0
-0.159667 0.160928 0.973965 0.00276531
-0.159687 0.164476 0.973369 0.00195533
-0.15841 0.167285 0.973099 0.00202365
-0.142349 0.157752 0.977165 0
-0.164553 0.186095 0.968654 0.0104831
-0.138142 0.165003 0.976571 0
-0.131419 0.160849 0.97819 0
-0.128743 0.161241 0.978482 0.002111
-0.126886 0.168858 0.977439 0.00291381
-0.145958 0.183777 0.972071 0.00607958
-0.135569 0.174971 0.975195 0.00232053
-0.133927 0.178775 0.974732 0.00456876
-0.119137 0.163463 0.97933 0
-0.121155 0.159627 0.979715 0
-0.121576 0.162347 0.979215 0
0.140373 0.19247 0.971211 0.00232087
-0.128211 0.171393 0.976825 0
-0.13545 0.184559 0.973443 0.00493487
-0.133102 0.182056 0.974238 0.00665743
0.130293 0.203274 0.970414 0.00593603
0.135886 0.198137 0.970709 0.00378713
-0.141715 0.198649 0.969771 0.0133739
-0.132039 0.189035 0.973053 0.01187
-0.1304 0.190106 0.973065 0.00447812
0.117818 0.193862 0.973928 0
0.122095 0.203271 0.97148 0
0.122324 0.204395 0.971216 0.00183961
0.135987 0.214919 0.967118 0.0101184
-0.14102 0.207188 0.968084 0.0156807
-0.131135 0.190914 0.972808 0.00209003
-0.122899 0.181301 0.975718 0.00148365
0.117765 0.199087 0.97288 0
0.119201 0.200923 0.972328 0
-0.120112 0.185907 0.975198 0.00151387
-0.112762 0.17855 0.977448 0.00223449
-0.108825 0.180231 0.977586 0
-0.104112 0.177209 0.978651 0.00369485
0.114979 0.202712 0.972465 0.00139097
0.12354 0.209941 0.969878 0
-0.109466 0.192217 0.975228 0.00723181
-0.10787 0.194683 0.974917 0.00934192
-0.0917956 0.173011 0.980633 0.00309902
-0.0927919 0.182653 0.978789 0.00394819
0.120008 0.210879 0.970118 0.00159228
-0.093051 0.197326 0.975912 0.00674993
0.0453217 0.197318 0.979291 0
0.0501964 0.2024 0.978016 0
0.0580487 0.195834 0.978918 0
0.0599927 0.197745 0.978416 0.00012439
-0.053945 0.214107 0.97532 0.00839226
-0.0497093 0.215376 0.975265 0.0133474
-0.0436078 0.213587 0.97595 0.0145322
0.0432346 0.207571 0.977264 0
-0.0445994 0.219036 0.974697 0.0123999
-0.0416125 0.209484 0.976926 0.0080872
0.00342169 0.206805 0.978376 0.00767769
0.0173713 0.207023 0.978182 0.000650533
-0.0799418 -0.220031 0.972212 0.0159402
-0.0698351 -0.21857 0.973319 0.0128167
-0.0653763 -0.214221 0.974595 0.00562758
-0.0630419 -0.216102 0.974334 0.00823889
-0.0515945 -0.220366 0.974052 0.00365395
-0.0495244 -0.217238 0.974862 0
-0.0389575 -0.209047 0.977129 0.00168419
-0.0335343 -0.209792 0.977171 0
-0.0288853 -0.210307 0.977209 0
-0.0327298 -0.21497 0.976072 0.0120713
-0.0296804 -0.21219 0.976778 0.0137706
-0.0156083 -0.215495 0.97638 0.0178206
-0.101841 -0.216124 0.97104 0.0128707
-0.096246 -0.216954 0.971426 0.0133583
-0.0886331 -0.220538 0.971343 0.0220577
-0.0801277 -0.220132 0.972174 0.0169256
-0.0707913 -0.212355 0.974625 0.0171072
-0.0668909 -0.204747 0.976527 0.0108782
-0.0601204 -0.204905 0.976934 0.00516319
-0.0514202 -0.209967 0.976355 0.00305269
-0.0491234 -0.20252 0.978045 0.000120294
-0.0367191 -0.202068 0.978683 0
-0.0321291 -0.204328 0.978375 0
-0.0286995 -0.197905 0.979801 0.00191623
-0.0309624 -0.207623 0.977719 0.0109669
-0.0294682 -0.200507 0.979249 0.0142112
-0.0152081 -0.206399 0.97835 0.0145874
-0.00555221 -0.206623 0.978405 0.0252777
0.00147576 -0.206338 0.97848 0.0228075
-0.103693 -0.204865 0.973282 0.00985631
-0.10122 -0.212088 0.971994 0.0132654
-0.0969236 -0.210523 0.972772 0.0159496
-0.0843704 -0.206315 0.974841 0.0143674
-0.00797368 -0.193131 0.981141 0.0254677
0.00134557 -0.191858 0.981422 0.0220731
0.00828748 -0.191472 0.981463 0.0220195
0.0158583 -0.200988 0.979465 0.0207775
-0.104313 -0.193417 0.975555 0.0063885
-0.101052 -0.192846 0.976012 0.0118491
-0.100569 -0.203702 0.973854 0.0141539
-0.0931545 -0.207691 0.973749 0.0144255
0.0097597 -0.183362 0.982997 0.0223344
0.0141302 -0.190036 0.981675 0.0212838
0.02029 -0.185303 0.982472 0.0153193
0.0263638 -0.1832 0.982722 0.0107231
0.0293014 -0.189087 0.981523 0.0145559
0.0367362 -0.193439 0.980424 0.0174529
0.0472542 -0.197454 0.979173 0.0142185
0.0516746 -0.20462 0.977477 0.0117107
-0.107578 -0.182556 0.977292 0.00203708
-0.107982 -0.1786 0.977979 0.000739441
-0.102878 -0.180019 0.978269 0.00408608
-0.102242 -0.181211 0.978115 0.0038953
-0.102685 -0.185367 0.97729 0.00528153
-0.100426 -0.182651 0.978035 0.00858569
0.0133846 -0.178062 0.983928 0.0210295
0.0185071 -0.173729 0.98462 0.0142654
0.0215345 -0.173133 0.984663 0.0162202
0.0253379 -0.177041 0.983877 0.0164705
0.0333255 -0.180983 0.982922 0.0207937
0.0441068 -0.192219 0.98036 0.0160497
0.0485726 -0.196579 0.979284 0.0136918
0.0479922 -0.195963 0.979436 0.0200963
0.0547044 -0.200628 0.978139 0.0245847
0.0619529 -0.210559 0.975616 0.0237265
-0.116573 -0.171954 0.978183 0.00430131
-0.1138 -0.173739 0.978194 0.00704796
-0.106983 -0.172699 0.979147 0.00285434
-0.107298 -0.176686 0.978401 0.00567079
-0.104101 -0.171205 0.97972 0.00621253
-0.102021 -0.171666 0.979858 0.00642368
-0.101813 -0.178257 0.978702 0.0103022
-0.09999 -0.175275 0.979429 0.0116078
0.0151636 -0.165243 0.986136 0.0181392
0.0404169 -0.185941 0.981729 0.0201613
0.0437726 -0.186501 0.981479 0.0219819
0.0465298 -0.189987 0.980683 0.0207002
0.0515592 -0.192425 0.979956 0.0215546
0.0600373 -0.203059 0.977324 0.0241826
0.075118 -0.21495 0.973732 0.0184305
-0.127191 -0.165922 0.977902 0.0114877
-0.116357 -0.165418 0.979335 0.00710472
-0.116405 -0.169128 0.978696 0.0118241
-0.109413 -0.167593 0.979766 0.00855671
-0.104774 -0.166653 0.980433 0.00845151
-0.103024 -0.161837 0.981425 0.00306705
-0.10164 -0.16578 0.980911 0.00552587
0.056964 -0.20029 0.978079 0.0230252
0.0691219 -0.206962 0.975904 0.0183057
0.0825669 -0.218218 0.972401 0.0204446
0.0930381 -0.220463 0.970948 0.0159538
0.0978916 -0.216414 0.971382 0.00909209
0.100632 -0.219113 0.970496 0.00507615
0.10002 -0.216985 0.971037 0.00606664
0.106514 -0.225014 0.968516 0.00356976
-0.138429 -0.166358 0.9763 0.0153495
-0.131143 -0.161087 0.978188 0.0129686
-0.1261 -0.158408 0.979288 0.00977176
-0.117763 -0.158743 0.980272 0.00853848
-0.114443 -0.160225 0.980424 0.0084533
0.0657317 -0.201267 0.977329 0.0196347
0.0792629 -0.204069 0.975742 0.0194974
0.0901236 -0.210598 0.97341 0.0100479
0.0940134 -0.210729 0.973013 0.0094504
0.0947639 -0.207135 0.973712 0.00597779
0.0963734 -0.214301 0.972002 0.00423461
0.101452 -0.218768 0.970488 0.00384054
0.102566 -0.222556 0.96951 0.00922458
0.1071 -0.220595 0.969468 0.0163294
-0.14491 -0.16889 0.974924 0.017264
-0.144246 -0.17082 0.974686 0.0208264
-0.13357 -0.16069 0.977925 0.012341
-0.12384 -0.14999 0.980901 0.00657703
0.0762752 -0.195785 0.977676 0.0155581
0.0954589 -0.207627 0.973539 0.0051304
0.0977238 -0.209413 0.972932 0.00542025
0.10089 -0.21428 0.971548 0.00723686
0.111577 -0.218767 0.969377 0.00521313
-0.147701 -0.163194 0.975475 0.012666
-0.145006 -0.16312 0.975892 0.0157644
-0.137832 -0.15849 0.977693 0.0111254
-0.135965 -0.160166 0.977681 0.0127412
0.100353 -0.208421 0.972877 0.0110284
0.111756 -0.214843 0.970234 0.00785462
0.118194 -0.224326 0.96732 0.00983536
-0.144876 -0.15843 0.976684 0.00735225
-0.143193 -0.16348 0.976099 0.00658449
-0.141092 -0.15619 0.977598 0.0121487
-0.135796 -0.155387 0.978475 0.0105544
0.113934 -0.215016 0.969942 0.00709847
0.117408 -0.215431 0.969435 0.00750975
-0.153154 -0.156533 0.975726 0.0028885
-0.141716 -0.150142 0.978455 0.00162888
-0.13983 -0.14802 0.979049 0.00394833
-0.138128 -0.150938 0.978845 0.00325804
-0.131591 -0.144977 0.980645 0.00662844
0.112855 -0.209114 0.971357 0.00891461
0.115727 -0.213393 0.970088 0.00715794
-0.15327 -0.154059 0.976102 0
-0.152922 -0.155002 0.976007 0.00064579
-0.144141 -0.14954 0.978193 0
-0.135424 -0.14077 0.980736 0.00117228
-0.13626 -0.141443 0.980524 0.00421279
-0.135029 -0.142159 0.980591 0.00662081
0.107708 -0.199653 0.973929 0.00353136
0.111681 -0.20418 0.972542 0.00117489
0.114865 -0.204011 0.972207 0.00647607
0.120939 -0.209854 0.970224 0.00890464
0.125045 -0.212721 0.969079 0.0115423
0.132468 -0.221851 0.96604 0.00914742
0.136468 -0.219948 0.965919 0.0155912
-0.155584 -0.148733 0.976561 0.00143215
-0.146332 -0.144621 0.978607 0
-0.146313 -0.141845 0.979016 0
-0.144455 -0.143409 0.979064 0
-0.140856 -0.137394 0.98045 0.0045761
-0.12989 -0.136418 0.982099 0
0.107052 -0.192656 0.97541 0.00231953
0.107541 -0.191787 0.975527 0.00541058
0.116062 -0.20175 0.972536 0.00657004
0.11891 -0.204587 0.971599 0.00941276
0.122422 -0.207112 0.970627 0.010029
0.131932 -0.209149 0.968943 0.0125177
0.133357 -0.209553 0.968661 0.0105394
0.14114 -0.212364 0.966944 0.0083021
-0.167212 -0.151753 0.974172 0.0123967
-0.152216 -0.14452 0.977724 0.00426231
-0.149208 -0.141108 0.978686 0.000339442
-0.145283 -0.137567 0.97978 0
0.104064 -0.187049 0.976823 0.00135756
0.10822 -0.190443 0.975715 0.0050164
0.128853 -0.203667 0.970524 0.00981775
0.14212 -0.208194 0.967707 0.00562225
0.142552 -0.210368 0.967173 0.00135058
-0.176527 -0.154664 0.972069 0.0139266
-0.165686 -0.146466 0.975241 0.0126096
-0.146018 -0.134864 0.980046 0.00717644
-0.14576 -0.136599 0.979844 0
0.136536 -0.200864 0.970057 0.00383265
0.142786 -0.207409 0.967778 0.00374831
-0.175928 -0.142977 0.973965 0.0219063
-0.170881 -0.146187 0.974387 0.0168728
-0.169192 -0.138622 0.975786 0.0213299
0.145803 -0.204176 0.968015 0.00373981
0.154355 -0.21419 0.964519 0
0.164967 -0.220741 0.96128 0.000650672
-0.177245 -0.146364 0.973222 0.0162447
-0.172285 -0.137932 0.975342 0.0173224
-0.167566 -0.133722 0.97675 0.0178222
-0.161575 -0.132373 0.977942 0.0194199
0.155723 -0.211476 0.964898 0
0.158921 -0.217147 0.963115 0
-0.175581 -0.14204 0.974164 0.0163464
-0.168789 -0.134942 0.976371 0.0177138
-0.165309 -0.128696 0.977809 0.0177162
0.147341 -0.204567 0.9677 0
0.151029 -0.209822 0.966005 0
-0.181951 -0.141097 0.973132 0.0205082
-0.162893 -0.126353 0.97852 0.0156161
0.152293 -0.209327 0.965913 0
0.154425 -0.207388 0.965993 0
-0.178808 -0.133203 0.974825 0.023704
-0.161137 -0.124123 0.979096 0.0175938
0.149317 -0.201001 0.968144 0
-0.174418 -0.127267 0.976412 0.0221693
-0.171193 -0.122977 0.977533 0.0244943
-0.159067 -0.116528 0.980367 0.0213055
0.153022 -0.204993 0.966728 0
0.157452 -0.207594 0.96546 0
-0.170624 -0.120281 0.977967 0.0246156
-0.166254 -0.115806 0.979259 0.0288836
-0.157716 -0.111421 0.981179 0.0252258
0.153494 -0.206198 0.966397 0
0.158208 -0.205035 0.965883 0
0.165764 -0.207748 0.964035 0
-0.161082 -0.116188 0.980078 0.0236851
-0.158358 -0.113053 0.980888 0.0257535
-0.154303 -0.108995 0.981993 0.0252198
0.145297 -0.200872 0.968782 0
0.154445 -0.201829 0.967167 0
0.164795 -0.205785 0.964622 0
0.169579 -0.205968 0.963753 0
0.175098 -0.204007 0.963183 0
-0.156138 -0.114819 0.981039 0.0218737
-0.152546 -0.110259 0.982127 0.0238341
0.146961 -0.198347 0.969052 0
0.152591 -0.197143 0.968427 0
0.152795 -0.193272 0.969175 0
0.159468 -0.196114 0.967528 0
0.167813 -0.196776 0.96598 0
-0.151537 -0.110039 0.982308 0.0193698
-0.147523 -0.105792 0.983384 0.0205901
0.17132 -0.200006 0.964701 0
0.174579 -0.201327 0.963841 0
-0.156956 -0.109713 0.981493 0.0128785
-0.154592 -0.108522 0.982 0.0170169
-0.146247 -0.104519 0.983711 0.0183255
-0.140292 -0.103279 0.984709 0.017686
0.179822 -0.198538 0.963456 0
0.178451 -0.195944 0.964241 0
-0.159371 -0.116986 0.980263 0.00270992
-0.152547 -0.113549 0.981751 0.000790341
-0.150988 -0.107172 0.982709 0.00965584
-0.14619 -0.104356 0.983737 0.0123188
-0.139871 -0.0994549 0.985162 0.0158135
0.174909 -0.192385 0.965606 0
0.177536 -0.190948 0.965412 0
-0.15921 -0.115365 0.980481 0
-0.15601 -0.11825 0.980652 0
-0.147051 -0.110702 0.982915 0.000101126
-0.140916 -0.102812 0.984669 0.00601366
-0.140392 -0.0996267 0.985071 0.0111081
-0.136815 -0.0983889 0.985698 0.00884238
0.174128 -0.187534 0.966701 0
0.186818 -0.189913 0.963863 0
-0.156847 -0.115197 0.980882 0.00184104
-0.152105 -0.115199 0.981628 0
-0.14065 -0.105228 0.984452 0.00113812
0.193013 -0.186423 0.963324 0
0.195693 -0.188151 0.962446 0
-0.157446 -0.114619 0.980853 0.00666533
-0.154208 -0.11244 0.98162 0.00329448
-0.148183 -0.10831 0.983011 0.00147131
0.195354 -0.180975 0.96389 0
-0.168814 -0.115799 0.978822 0.0105066
-0.165806 -0.113193 0.979641 0.0113957
-0.157684 -0.110168 0.981325 0.00950592
0.201065 -0.178623 0.963155 0
-0.1639 -0.110157 0.980307 0.0113291
-0.153529 -0.104238 0.982631 0.00924369
0.188665 -0.166628 0.967802 0
0.209963 -0.174613 0.96199 0
-0.173981 -0.109709 0.978619 0.0151633
-0.168467 -0.107505 0.979827 0.0139721
0.190004 -0.163462 0.96808 0
-0.17872 -0.105274 0.978252 0.0167745
-0.169464 -0.101462 0.9803 0.0142366
0.182587 -0.158254 0.97037 0
0.18753 -0.156116 0.969773 0.000501682
-0.177393 -0.101528 0.978889 0.0141726
-0.174875 -0.100354 0.979463 0.0182822
-0.161141 -0.0969049 0.982162 0.011881
0.178952 -0.149577 0.972421 0
0.186708 -0.151022 0.970738 0
-0.169975 -0.101964 0.980159 0.0123052
-0.162628 -0.0973611 0.981872 0.0130918
-0.156156 -0.0940445 0.983245 0.0117717
0.163398 -0.141417 0.976372 0
0.170297 -0.145197 0.974637 0
-0.165864 -0.0946447 0.981596 0.00761866
-0.164272 -0.0923918 0.982079 0.0122331
0.167917 -0.139005 0.975952 0
0.174658 -0.141336 0.974433 0
-0.157591 -0.0905988 0.98334 0.00698716
-0.160488 -0.0875521 0.983147 0.0105369
0.170644 -0.137446 0.975699 0
0.178285 -0.136741 0.974431 0
-0.153903 -0.0859907 0.984337 0
-0.144316 -0.0848067 0.985891 0
-0.148706 -0.0839827 0.985309 0.00178387
0.186475 -0.129776 0.973851 0
-0.150785 -0.0836319 0.985023 0
-0.142832 -0.0799255 0.986515 0
0.175401 -0.121369 0.976987 0.00208381
0.188761 -0.125142 0.974017 0
-0.150383 -0.0765896 0.985657 0.00164823
-0.142239 -0.0737638 0.98708 0.00147155
0.182383 -0.116463 0.976306 0
-0.155532 -0.0716545 0.985229 0.00734511
-0.14169 -0.0692888 0.987483 4.42396e-05
0.165124 -0.105999 0.98056 0.00452187
-0.150326 -0.0657068 0.986451 0.00181458
-0.144671 -0.067964 0.987143 0
-0.139127 -0.0670629 0.988001 0
0.158514 -0.0960647 0.982672 0.00867787
-0.144751 -0.062061 0.98752 0
-0.13903 -0.0659712 0.988088 0
-0.140366 -0.0651928 0.987951 0
-0.141741 -0.0630571 0.987893 0
-0.136021 -0.0613652 0.988804 0
-0.15185 -0.0619911 0.986458 0
-0.143362 -0.0611931 0.987777 0
0.218682 -0.0837524 0.972195 0.00780772
-0.161233 -0.0549752 0.985384 0.000998449
-0.154679 -0.0566679 0.986338 0
-0.145053 -0.0570288 0.987779 0
0.210618 -0.0753501 0.97466 0.00843607
-0.170472 -0.0496645 0.98411 0.00688232
-0.163795 -0.0493256 0.98526 0.00896093
-0.150704 -0.0552912 0.987032 0.00183882
0.218853 -0.0677396 0.973404 0.00747975
0.224721 -0.0673196 0.972095 0.0124756
-0.181131 -0.0401972 0.982637 0.010248
-0.175496 -0.0386484 0.983721 0.0101527
-0.166661 -0.0404701 0.985183 0.00616324
0.218122 -0.0598433 0.974085 0.0102414
0.23511 -0.0541063 0.970462 0.0177297
-0.190281 -0.0328596 0.98118 0.00954281
-0.179867 -0.0326129 0.98315 0.0098476
-0.158713 -0.0353666 0.986691 0.00283052
0.228385 -0.0431283 0.972615 0.018263
0.248422 -0.0428607 0.967703 0.0129727
-0.200752 -0.0301003 0.97918 0.00996947
-0.180809 -0.0282258 0.983113 0.00645257
-0.179174 -0.0267107 0.983455 0.00494283
-0.16258 -0.0297278 0.986247 0.000499653
-0.161543 -0.0277869 0.986474 0.0005569
0.23684 -0.0357865 0.970889 0.0168481
0.242933 -0.033993 0.969447 0.0130889
-0.203588 -0.018039 0.97889 0.0105804
-0.201313 -0.0178347 0.979365 0.00660399
-0.185415 -0.0204367 0.982448 0.000313666
-0.171558 -0.0236144 0.984891 0
-0.157624 -0.0232783 0.987225 0
-0.15602 -0.0221522 0.987505 0
0.234422 -0.0293604 0.971691 0.0109691
0.242483 -0.0279302 0.969754 0.0118985
-0.202001 -0.0141112 0.979284 0.00179835
-0.202667 -0.014923 0.979134 0
-0.190924 -0.0147374 0.981494 0.000348444
-0.181383 -0.0164807 0.983274 0
-0.166365 -0.0183057 0.985894 0
-0.161684 -0.0147176 0.986733 0.00117763
0.234297 -0.0254768 0.971831 0.00512568
0.23593 -0.0251564 0.971444 0.00697861
-0.213555 -0.00555455 0.976915 0
-0.207371 -0.00940612 0.978217 0
-0.19795 -0.0114399 0.980145 0
-0.182954 -0.0126203 0.983041 0
-0.172564 -0.0139309 0.9849 0
-0.167651 -0.0125501 0.985767 0.00318024
0.238899 -0.0167046 0.970901 0.0122794
0.242464 -0.0173936 0.970004 0.00320461
-0.209619 -0.00150771 0.977782 0.0043353
-0.200292 -0.00627385 0.979716 0
-0.188634 -0.00676962 0.982024 0
-0.189339 -0.00777527 0.981881 0.00615841
-0.178386 -0.0110725 0.983898 0.00524468
0.241244 -0.0144311 0.970357 0.00681655
0.246325 -0.015311 0.969066 0.00727618
-0.21023 0.000173555 0.977652 0
-0.201769 -0.00405772 0.979425 0.000569034
-0.189637 -0.00544558 0.981839 0.00438855
-0.18143 -0.00776597 0.983373 0.00242163
0.237572 -0.0102974 0.971315 0
-0.206887 0.00103842 0.978364 0
-0.194818 -0.00100321 0.980839 0
-0.195452 -0.00246199 0.98071 0.00366577
0.232184 -0.00306348 0.972667 0
-0.205605 0.00380967 0.978628 0
-0.190421 -0.00116719 0.981702 0
-0.203113 0.00721478 0.979129 0.00132782
-0.201364 0.00677311 0.979493 0.00563132
-0.217074 0.0155533 0.976031 0.0132795
-0.196125 0.0108303 0.980519 0.00894526
-0.185403 0.0108597 0.982603 0.00799763
-0.17447 0.0110554 0.9846 0.00274721
-0.189427 0.0159885 0.981765 0.00453896
-0.191879 0.016045 0.981287 0.00606731
-0.179643 0.0153323 0.983612 0.00819133
-0.185433 0.0200492 0.982452 0.00678392
-0.187752 0.0210801 0.98199 0.0130231
-0.180188 0.023836 0.983343 0.0141844
-0.196344 0.027796 0.980141 0.0153513
-0.191165 0.0309362 0.98107 0.0160968
-0.190644 0.0350479 0.981033 0.0189318
-0.182455 0.0307978 0.982732 0.0230739
-0.185607 0.0377865 0.981897 0.0236286
-0.191215 0.0387442 0.980783 0.0159719
-0.193969 0.0429492 0.980067 0.0188945
-0.182921 0.0376336 0.982407 0.021229
-0.189931 0.0408133 0.980949 0.0246335
-0.193594 0.0458568 0.980009 0.0290767
-0.179862 0.04244 0.982776 0.0284373
0.211998 0.0461597 0.976179 0
-0.206 0.0513895 0.977202 0.0249134
-0.200258 0.0504453 0.978444 0.0233991
-0.19811 0.0473317 0.979036 0.0263759
-0.192958 0.0516749 0.979845 0.0309815
-0.182253 0.0507769 0.98194 0.0290024
-0.165079 0.043602 0.985316 0.0232159
0.215944 0.0507424 0.975086 0
-0.175795 0.0530795 0.982995 0.0244954
0.21711 0.0566068 0.974504 0
-0.169349 0.0550163 0.984019 0.0161857
-0.155251 0.0505394 0.986582 0.01661
0.212825 0.0634585 0.975027 0
0.221645 0.0671469 0.972813 0
-0.173024 0.0605428 0.983055 0.0172177
-0.161607 0.0562107 0.985253 0.017459
0.212687 0.0691801 0.974668 0
-0.168002 0.0645739 0.983669 0.0154613
-0.153746 0.057519 0.986435 0.015267
0.207313 0.0756219 0.975348 0
-0.173599 0.0679627 0.982469 0.0184123
-0.157081 0.0599117 0.985767 0.0155212
0.205917 0.0841878 0.974941 0
-0.174338 0.0704847 0.98216 0.0161643
-0.170781 0.0698152 0.982833 0.0171884
0.197446 0.0916812 0.976017 0.000941619
0.204652 0.0911096 0.974585 0.00594215
-0.174216 0.0750257 0.981845 0.0141363
-0.161009 0.0630511 0.984937 0.0112754
0.187682 0.0962548 0.977502 0.00596173
0.197214 0.0974715 0.975503 0.00314985
-0.175588 0.0747727 0.98162 0.0138842
-0.162873 0.0676412 0.984326 0.00947156
0.182604 0.0982488 0.978265 0.00435618
0.195616 0.101581 0.975405 0.00536318
-0.172184 0.0760802 0.982122 0.00679831
-0.165716 0.0699476 0.98369 0.00762535
0.179455 0.103036 0.978355 0.00701836
0.190958 0.109202 0.975505 0.0128594
-0.175288 0.0819973 0.981097 0.00260131
-0.15613 0.0698161 0.985266 0
0.190157 0.113957 0.975117 0.00711888
-0.159462 0.0741689 0.984414 0
0.19116 0.116635 0.974605 0.00495164
-0.173126 0.0885405 0.980912 0.00506268
0.191602 0.119164 0.974212 0
-0.187576 0.101634 0.976978 0.0094385
0.198902 0.14314 0.96951 0
0.185039 0.142294 0.972375 0
0.200891 0.147884 0.968387 0
-0.215676 0.146023 0.965485 0.0159185
0.189853 0.149175 0.970414 0
-0.218626 0.151059 0.964046 0.0116236
-0.20128 0.13732 0.969861 0.0109916
-0.204971 0.138315 0.968946 0.0140872
0.193441 0.143805 0.970516 0
0.190575 0.145965 0.97076 0
0.191257 0.149516 0.970086 0
-0.214801 0.151515 0.964834 0.0138719
-0.21497 0.152502 0.96464 0.0154584
-0.206667 0.14516 0.967583 0.0160821
-0.194237 0.135203 0.971592 0.0134707
-0.183406 0.127263 0.974765 0.0122271
0.189079 0.144939 0.971206 0
0.192141 0.144609 0.970654 0
0.19591 0.150502 0.969004 0
-0.203375 0.144053 0.968446 0.0161231
-0.19578 0.13793 0.970899 0.0134143
-0.188927 0.135008 0.972666 0.0145334
-0.172913 0.119789 0.977626 0.00692191
0.185524 0.151296 0.970922 0.00342849
0.188663 0.148342 0.970773 0
-0.179723 0.131263 0.97492 0.00774234
-0.178835 0.135478 0.974507 0.0076791
-0.164321 0.119375 0.979157 0.00373679
-0.15303 0.116043 0.981385 1.16839e-05
0.157098 0.144301 0.976984 0.00825403
0.160206 0.14066 0.97701 0.00537759
0.164971 0.138336 0.976549 0.0042901
0.180213 0.15208 0.9718 0.00879514
-0.154647 0.119145 0.980759 0.000606197
-0.150694 0.118902 0.981404 0.000834358
0.158132 0.149772 0.975993 0.00540248
0.166627 0.151137 0.974368 0.00605864
-0.152449 0.126652 0.980162 0
-0.152841 0.125764 0.980216 3.59647e-07
0.154005 0.152417 0.976244 0.00812083
0.165082 0.161298 0.973001 0.0106657
-0.159202 0.135613 0.977887 0
-0.150089 0.124526 0.980799 0
-0.154422 0.131684 0.97919 0.00477668
0.16405 0.167664 0.972099 0.00830284
-0.15265 0.128287 0.979919 0
-0.155455 0.138229 0.978124 0.00240942
-0.149795 0.130839 0.980022 0
0.16442 0.178091 0.97018 0.0184591
0.164221 0.169412 0.971767 0.00883559
-0.157509 0.143786 0.976994 0.00257816
-0.154406 0.142964 0.977609 0.000422076
-0.149144 0.137671 0.979185 0
0.16841 0.186691 0.967876 0.0218555
0.167515 0.180123 0.969275 0.0190814
-0.14521 0.146345 0.978518 0.000656299
-0.146193 0.146985 0.978275 0.00197579
-0.133181 0.139003 0.981296 0
0.155424 0.17826 0.971631 0.0177994
0.16894 0.193329 0.96648 0.022269
-0.138088 0.148112 0.979283 0
-0.127233 0.143049 0.981503 0
-0.122197 0.141143 0.982419 0
-0.109072 0.133406 0.985041 0
-0.109576 0.138026 0.984348 0
0.151566 0.180236 0.971876 0.0090952
-0.133761 0.161333 0.977793 0.00121418
-0.124248 0.15543 0.980002 0
-0.115192 0.14873 0.982146 0
-0.114573 0.146329 0.982579 0.00176305
-0.113066 0.147782 0.982536 0
-0.120363 0.152411 0.98096 0.00246835
0.138599 0.182551 0.973378 0
0.145878 0.17899 0.972976 0
0.15128 0.181827 0.971624 0
-0.116765 0.152426 0.981393 0
-0.123653 0.162849 0.978872 0.000512245
-0.124529 0.165401 0.978333 0.000492875
-0.125249 0.166118 0.978119 0.0055122
0.110928 0.183961 0.976654 0
0.114245 0.187604 0.975578 0.00847216
0.122732 0.192118 0.973667 0.00800897
0.130535 0.189889 0.973089 0.00201627
0.14037 0.187439 0.972195 0
-0.134535 0.184052 0.973666 0.00998895
-0.127388 0.170297 0.977124 0.00580625
-0.123651 0.170653 0.977542 0.00363565
-0.123599 0.177057 0.976409 0.00695235
0.111655 0.191463 0.975128 0
0.113052 0.193814 0.974503 0
0.119021 0.19405 0.973745 0.00144067
0.127581 0.195913 0.972287 0.00595886
-0.13174 0.183613 0.974131 0.00882746
-0.126476 0.174725 0.97646 0.00586731
-0.121548 0.171805 0.977604 0.00540926
-0.120045 0.172044 0.977747 0.00683052
0.112919 0.193114 0.974657 0.00164617
0.114692 0.188204 0.97541 0
-0.122419 0.184674 0.975146 0.00528233
-0.115881 0.179917 0.976832 0.00687777
-0.111904 0.183673 0.976597 0.00797046
-0.108583 0.18658 0.976421 0.0100748
-0.104266 0.179296 0.978254 0.00807461
0.112801 0.194004 0.974494 0
0.1175 0.200217 0.97268 0.00319741
-0.106731 0.172489 0.979212 0.000524955
-0.107871 0.186451 0.976524 0.00859469
-0.105345 0.185142 0.977049 0.00833858
-0.098334 0.178165 0.979075 0.0115833
-0.0954933 0.178448 0.979304 0.00760087
0.105563 0.194749 0.975156 0.00128264
0.112897 0.195194 0.974245 0
-0.100409 0.184655 0.977661 0.00551276
-0.0878523 0.173808 0.980853 0.0024963
-0.0890333 0.185812 0.978543 0.00433148
-0.0870296 0.186496 0.978593 0.00254999
0.107283 0.199122 0.974085 0.0015786
-0.0864524 0.182019 0.979487 0.00185134
-0.0921656 0.20603 0.974196 0.00834154
-0.0880834 0.218628 0.971825 0.0142421
0.0477493 0.186543 0.981286 9.06062e-05
0.053649 0.187729 0.980755 0
0.058933 0.191906 0.979642 0.00139083
0.0666336 0.192317 0.979068 0.00253123
-0.0902406 0.23264 0.968367 0.019053
-0.0683464 0.213524 0.974544 0.0124212
-0.053217 0.207648 0.976755 0.0123987
0.0395468 0.197703 0.979464 0
0.0477064 0.195618 0.979519 0
0.0653801 0.195921 0.978438 0
-0.0573126 0.214049 0.97514 0.0109135
-0.045389 0.196536 0.979445 0.00897919
-0.0415924 0.204581 0.977966 0.0144987
-0.0310449 0.184883 0.98227 0.00239949
-0.00100641 0.192508 0.981295 0.00600426
0.00140059 0.199215 0.979955 0.00795237
0.00811163 0.194768 0.980816 0.00739943
0.0194651 0.199525 0.979699 0
0.0258344 0.200569 0.979339 0
0.0344443 0.21219 0.976621 0.00407362
0.0390152 0.209189 0.977097 0
0.00591994 0.199826 0.979813 0.00594278
0.00857716 0.205234 0.978675 0.00778418
-0.0663354 -0.202983 0.976933 0.0148465
-0.0587638 -0.201672 0.977689 0.00474878
-0.051822 -0.202473 0.977916 0.00430309
-0.0471722 -0.193777 0.979911 0.000960076
-0.0329107 -0.197138 0.979823 0.000139141
-0.0289843 -0.200767 0.97921 0
-0.0316329 -0.202559 0.978759 0.0115336
-0.0309422 -0.199542 0.979401 0.0148327
-0.0835403 -0.200247 0.976177 0.0110359
-0.0805227 -0.202957 0.975871 0.0148072
-0.0703822 -0.203007 0.976645 0.0204019
-0.0657629 -0.198394 0.977914 0.0147441
-0.057087 -0.195701 0.979001 0.005428
-0.0490042 -0.193269 0.979921 0.00654203
-0.0478989 -0.190018 0.980611 0.00278553
-0.0373336 -0.19364 0.980362 0
-0.0361225 -0.189132 0.981287 0.00316325
-0.0301182 -0.189319 0.981454 0.00299589
-0.0328381 -0.190372 0.981163 0.0114766
-0.0320721 -0.192455 0.980782 0.0164435
-0.020109 -0.195558 0.980486 0.0196279
0.0031873 -0.183982 0.982924 0.0210185
-0.0945591 -0.194132 0.976407 0.0121847
-0.0934395 -0.198775 0.975581 0.0160519
-0.0838667 -0.193517 0.977506 0.0101164
-0.0768174 -0.188029 0.979155 0.00757622
-0.0708376 -0.190928 0.979045 0.0183919
-0.0678634 -0.193755 0.9787 0.0154132
-0.056072 -0.187756 0.980614 0.00815167
-0.0459441 -0.18258 0.982117 0.0031234
-0.0481207 -0.184798 0.981598 0.00545925
-0.0391085 -0.180148 0.982862 0.00451023
-0.0326414 -0.181779 0.982797 0.00176625
-0.0318336 -0.179749 0.983197 0.00717972
-0.0324681 -0.18307 0.982564 0.0105789
-0.0263756 -0.190155 0.9814 0.0114973
-0.0200719 -0.187798 0.982003 0.0196079
-0.00550432 -0.179757 0.983696 0.0168782
-0.000888533 -0.17676 0.984254 0.0228409
0.00773821 -0.180945 0.983463 0.0261752
-0.0990112 -0.1801 0.978653 0.00775289
-0.0962728 -0.188272 0.977387 0.0102995
-0.0915232 -0.187781 0.977938 0.0132358
-0.0824291 -0.182631 0.97972 0.0119041
-0.0773691 -0.179711 0.980672 0.0126807
-0.0172636 -0.181968 0.983153 0.0164269
-0.00775644 -0.165137 0.98624 0.0204998
0.0028202 -0.170047 0.985432 0.0193804
0.0075029 -0.178152 0.983974 0.0227098
0.0102054 -0.167874 0.985756 0.014546
0.0252952 -0.173378 0.98453 0.0160987
0.0292434 -0.175634 0.984021 0.0229749
-0.0987063 -0.168937 0.980672 0.00788987
-0.0983106 -0.176512 0.979377 0.0105684
-0.0929299 -0.177562 0.979712 0.00914706
-0.0877124 -0.176853 0.980321 0.00690125
-0.00683381 -0.162228 0.98673 0.0162055
0.00238715 -0.166823 0.985984 0.0202413
0.00540163 -0.162147 0.986752 0.0164823
0.00804285 -0.159949 0.987092 0.0156998
0.0183738 -0.162789 0.98649 0.0183319
0.0194121 -0.165447 0.986028 0.0175631
0.021801 -0.164419 0.98615 0.0184736
0.0287102 -0.172273 0.984631 0.0235891
0.0385222 -0.18355 0.982255 0.0203691
0.0390039 -0.180474 0.982806 0.0250649
-0.110651 -0.163602 0.980301 0.00995233
-0.10435 -0.159878 0.981606 0.00445251
-0.10301 -0.161238 0.981525 0.00402288
-0.0999313 -0.16158 0.981787 0.00131181
-0.0976721 -0.164986 0.981448 0.00627948
-0.0957642 -0.165126 0.981612 0.00971706
-0.0930955 -0.168533 0.98129 0.00873673
-0.0877687 -0.167399 0.981975 0.00507016
-0.00193988 -0.148926 0.988846 0.0169333
0.00184239 -0.150597 0.988593 0.0153843
0.0044556 -0.147347 0.989075 0.0236492
0.0162827 -0.156588 0.98753 0.0164387
0.016834 -0.157002 0.987455 0.0206186
0.021454 -0.158489 0.987128 0.019027
0.0267682 -0.167126 0.985572 0.0201421
0.0325352 -0.169409 0.985009 0.0215963
0.0385252 -0.175436 0.983737 0.0229013
0.0436141 -0.182333 0.982269 0.026558
0.0479719 -0.187768 0.981041 0.0280798
0.0589158 -0.199118 0.978203 0.0206432
-0.116732 -0.153682 0.981201 0.0066193
-0.112709 -0.157669 0.981039 0.00444268
-0.112733 -0.159262 0.980779 0.00913899
-0.104728 -0.154411 0.98244 0.00704177
-0.100138 -0.149117 0.983736 0.00642491
-0.0970508 -0.148142 0.984192 0.00416589
-0.0977716 -0.153551 0.983292 0.00972921
-0.094113 -0.159361 0.982724 0.0115236
-0.0915069 -0.158026 0.983186 0.0103773
-0.0870556 -0.16229 0.982895 0.00583468
0.00175365 -0.142022 0.989862 0.0155175
0.00422684 -0.139824 0.990167 0.0183044
0.014528 -0.148433 0.988816 0.0167142
0.0140942 -0.150469 0.988514 0.0220676
0.0174461 -0.15153 0.988299 0.0228946
0.0280614 -0.160328 0.986665 0.0207276
0.0323213 -0.168596 0.985155 0.0195037
0.0382555 -0.172519 0.984263 0.0249384
0.0426627 -0.17773 0.983154 0.0232047
0.0466066 -0.186287 0.981389 0.0268505
0.0560332 -0.188569 0.98046 0.0186785
0.0635494 -0.196943 0.978353 0.0271289
0.0914244 -0.204309 0.974628 0.0075745
0.0913046 -0.20377 0.974752 0.00778246
-0.118125 -0.147447 0.981991 0.00697841
-0.114963 -0.14711 0.982416 0.0090696
-0.108416 -0.148022 0.983023 0.00840241
-0.104223 -0.145633 0.983834 0.00759553
-0.101328 -0.141173 0.984786 0.00745505
-0.0979635 -0.140044 0.985287 0.0105683
-0.0949353 -0.145225 0.984834 0.00697982
-0.0930923 -0.149385 0.984387 0.0102994
-0.0874842 -0.148516 0.985033 0.00856042
0.000907982 -0.130912 0.991394 0.0125543
0.00133143 -0.131009 0.99138 0.0168403
0.0411663 -0.177117 0.983329 0.0242909
0.046438 -0.177584 0.983009 0.0216809
0.0524217 -0.178795 0.982489 0.0272621
0.0607275 -0.186078 0.980657 0.0251813
0.078265 -0.192017 0.978266 0.0121749
0.0873685 -0.192656 0.977369 0.00426229
0.0895395 -0.196728 0.976361 0.00515376
0.0888195 -0.200644 0.97563 0.00536544
0.0920568 -0.202604 0.974924 0.00807491
0.0932953 -0.200095 0.975325 0.00563284
-0.132938 -0.157178 0.978582 0.00807657
-0.13316 -0.154877 0.978919 0.0128573
-0.130288 -0.151958 0.979762 0.0144153
-0.118152 -0.144157 0.982476 0.00822277
-0.11713 -0.143393 0.98271 0.0113752
-0.109346 -0.13746 0.984453 0.00751009
-0.103774 -0.137413 0.985063 0.00945486
-0.100912 -0.138521 0.985205 0.00735167
-0.0977675 -0.13215 0.986396 0.00880529
-0.095415 -0.135782 0.986133 0.012153
-0.0901185 -0.136875 0.986481 0.0103318
0.00070999 -0.125204 0.992131 0.0128118
0.0545183 -0.178391 0.982448 0.0187407
0.0597308 -0.175526 0.982661 0.0193077
0.0762257 -0.181652 0.980404 0.00768809
0.0846466 -0.189125 0.978298 0.00548657
0.0824375 -0.190337 0.978252 0.0105334
0.0840262 -0.194202 0.977356 0.0054021
0.0857897 -0.19372 0.977299 0.00507198
0.0928564 -0.199594 0.975469 0.00185799
0.0960902 -0.201629 0.974737 0.00592216
0.106517 -0.203932 0.973173 0.0103234
-0.132966 -0.151831 0.979422 0.0104829
-0.128944 -0.150032 0.980237 0.0101724
-0.124836 -0.141126 0.982089 0.00912183
-0.121516 -0.137476 0.983023 0.0129909
-0.118499 -0.134646 0.983783 0.0170348
-0.11071 -0.135396 0.984587 0.0121727
-0.105469 -0.128036 0.986146 0.0126719
-0.102961 -0.130914 0.986033 0.0161107
-0.0958094 -0.128588 0.987059 0.00756177
-0.0953149 -0.129946 0.986929 0.0147551
-0.0908023 -0.127235 0.987708 0.00990593
0.0598453 -0.168366 0.983906 0.0163422
0.07161 -0.174203 0.982103 0.00467117
0.0824292 -0.186679 0.978957 0.00471079
0.0808945 -0.185324 0.979342 0.00567372
0.0823841 -0.187236 0.978854 0.00460737
0.089954 -0.190062 0.977642 6.01467e-05
0.0971472 -0.19332 0.976314 0.00594721
0.107556 -0.203879 0.97307 0.00822748
-0.131188 -0.143134 0.98097 0.00681345
-0.130068 -0.142688 0.981184 0.0125375
-0.125421 -0.143275 0.981703 0.00846879
-0.124203 -0.138928 0.982483 0.0111082
-0.112462 -0.125366 0.985716 0.0142842
-0.107315 -0.126585 0.986134 0.00868235
-0.102315 -0.122937 0.987126 0.0146609
-0.0927785 -0.121074 0.988298 0.00874602
-0.0904459 -0.122505 0.988338 0.00621946
-0.0887488 -0.122721 0.988465 0.0120631
0.0563717 -0.158979 0.985671 0.00694376
0.0948215 -0.186101 0.977944 0.00232742
0.104437 -0.195287 0.97517 0.0076286
0.109194 -0.201014 0.973484 0.00788011
-0.12963 -0.139943 0.981637 0.00412811
-0.128087 -0.135239 0.982499 0.00576911
-0.123216 -0.135906 0.98303 0.0101645
-0.119924 -0.131276 0.984065 0.00942281
-0.1016 -0.119002 0.987682 0.0123283
-0.0891241 -0.112415 0.989656 0.0106997
-0.0869598 -0.116693 0.989354 0.0105512
0.0992242 -0.188665 0.977016 0.00641965
0.106907 -0.194883 0.974983 0.00304202
-0.133802 -0.13598 0.981635 0.00203272
-0.129374 -0.134468 0.982436 0
-0.13045 -0.13581 0.982109 0.00419278
-0.122279 -0.128538 0.984137 0.00247011
-0.119858 -0.127649 0.984551 0.00504223
-0.119106 -0.126624 0.984774 0.00956648
-0.0944597 -0.10471 0.990007 0.0101124
-0.0897488 -0.107116 0.990188 0.00932624
-0.0843204 -0.107582 0.990614 0.00663251
-0.0813734 -0.107086 0.990914 0.00662375
0.0957905 -0.180482 0.978903 0.00721665
0.102216 -0.188389 0.976761 0
0.110439 -0.194561 0.974653 0.0154402
0.114149 -0.196585 0.973819 0.01013
0.125035 -0.206678 0.970387 0.00914872
-0.14558 -0.135819 0.979979 0
-0.135362 -0.13131 0.982056 0
-0.133223 -0.129685 0.982565 0.00213365
-0.134106 -0.132156 0.982115 0.00259492
-0.126749 -0.129585 0.983434 0.000920272
-0.120538 -0.1257 0.984718 0.00134313
-0.117579 -0.122163 0.985521 0.00493749
-0.094602 -0.102903 0.990183 0.0127561
-0.0868151 -0.101186 0.991072 0.0103623
0.0916228 -0.171499 0.980915 0.00307362
0.0989028 -0.180651 0.978562 0.00402456
0.099967 -0.178077 0.978926 0.00209026
0.104528 -0.18568 0.977035 0.00781959
0.105146 -0.188197 0.976487 0.00854124
0.112262 -0.193303 0.974696 0.0124772
0.117998 -0.195706 0.973538 0.00955029
0.122535 -0.200711 0.971957 0.0131736
0.128219 -0.201382 0.971084 0.0107159
-0.140573 -0.131151 0.981345 0
-0.137522 -0.128861 0.982081 0
-0.131524 -0.125504 0.983336 0
-0.126235 -0.121127 0.984578 0.000186869
-0.130301 -0.12246 0.983883 0.00524905
-0.123037 -0.12003 0.985117 0.00232797
-0.115572 -0.11523 0.986593 0.000259399
-0.113435 -0.116924 0.986641 0.0046612
0.0915717 -0.169461 0.981274 0.00375139
0.0945692 -0.172005 0.980546 0.00627824
0.0981686 -0.177914 0.979137 0.0102823
0.0980796 -0.179736 0.978813 0.013491
0.10445 -0.184256 0.977313 0.0138142
0.111789 -0.187248 0.975931 0.0105354
0.11896 -0.19285 0.97399 0.0112719
0.127584 -0.198152 0.971832 0.00467568
0.135489 -0.199432 0.9705 0
-0.147924 -0.13047 0.980355 0.00550527
-0.142461 -0.128247 0.981457 0.00486743
-0.133574 -0.122959 0.983381 0
-0.127834 -0.117848 0.984769 0
-0.125816 -0.11614 0.985232 0
-0.123811 -0.114304 0.9857 0.00115168
-0.122935 -0.11408 0.985836 0
-0.115494 -0.111936 0.986981 0
-0.113049 -0.112054 0.987251 0.00428781
0.0879169 -0.167263 0.981985 0.00751053
0.0888113 -0.167403 0.98188 0.00778625
0.118764 -0.188447 0.974876 0.00236944
0.127645 -0.193104 0.97284 0.00532003
0.132106 -0.19627 0.97161 0.00296483
0.143669 -0.203181 0.968544 0.00260335
-0.160952 -0.12724 0.978726 0.0165068
-0.146594 -0.124643 0.981312 0.00674968
-0.13938 -0.123614 0.982493 0.00119826
-0.131522 -0.117847 0.984284 0
-0.124577 -0.113459 0.985702 0
-0.125046 -0.112177 0.985789 0
-0.117935 -0.109022 0.987019 0
-0.121625 -0.107629 0.986724 0
-0.113496 -0.105972 0.987871 0
0.127526 -0.192581 0.972959 0.00240335
0.140308 -0.200253 0.969645 0
-0.160223 -0.125386 0.979085 0.0147018
-0.154442 -0.122667 0.980357 0.0109032
-0.143989 -0.118438 0.982466 0.00624751
-0.140717 -0.1171 0.9831 0.00639107
-0.13372 -0.113632 0.984483 0.00154829
-0.12237 -0.109098 0.98647 0
-0.11997 -0.107359 0.986956 0
-0.116383 -0.104465 0.987695 0
-0.114191 -0.10048 0.988364 0
0.127768 -0.190908 0.973257 0.00325519
0.135742 -0.197159 0.970929 0.00533681
0.141109 -0.201838 0.9692 0
-0.156656 -0.120666 0.980254 0.0128863
-0.152882 -0.118998 0.981054 0.0108554
-0.144037 -0.113357 0.983058 0.00956248
-0.139815 -0.11125 0.983908 0.00394319
-0.130043 -0.109502 0.985443 0.00399051
0.130539 -0.190944 0.972882 0.00418732
0.140385 -0.197043 0.970292 0
0.149879 -0.20367 0.967499 0
-0.151044 -0.115511 0.981755 0.0184841
-0.152105 -0.115064 0.981644 0.0172846
-0.14755 -0.111268 0.982776 0.0152993
-0.142035 -0.108523 0.983895 0.0131522
-0.137647 -0.106236 0.984768 0.0096629
-0.123701 -0.103827 0.986873 0
-0.104904 -0.0891496 0.990478 0.00577376
0.138672 -0.195972 0.970755 0
0.143296 -0.195513 0.970176 0
-0.145753 -0.108712 0.98333 0.0194139
-0.141102 -0.107546 0.984136 0.0139479
-0.134515 -0.105467 0.985283 0.00988588
-0.136172 -0.106016 0.984996 0.0125957
0.137006 -0.19559 0.971068 0
0.145186 -0.198647 0.969258 0
-0.149207 -0.104611 0.983257 0.0225954
-0.139422 -0.102061 0.984959 0.018263
-0.134688 -0.102944 0.985526 0.0141078
0.130147 -0.192649 0.972599 0
0.139679 -0.199188 0.969956 0
-0.151473 -0.106821 0.982673 0.0237125
-0.14414 -0.102997 0.984183 0.0221388
-0.137358 -0.100271 0.985433 0.0183328
0.127871 -0.18947 0.973525 0
0.146286 -0.201609 0.96848 0
-0.146686 -0.105093 0.983585 0.0219254
-0.134612 -0.0985276 0.985988 0.0143787
-0.133994 -0.0982424 0.9861 0.0158497
0.137105 -0.190717 0.972023 0
0.143535 -0.19626 0.96999 0
0.149865 -0.1966 0.968963 0
0.152952 -0.195657 0.968671 0
-0.143015 -0.103002 0.984346 0.0211301
-0.13671 -0.100051 0.985546 0.0193998
-0.133948 -0.0953762 0.986388 0.0205723
-0.129949 -0.0932237 0.987128 0.0185361
0.131511 -0.185694 0.973767 0
0.136212 -0.18733 0.972807 0
0.141972 -0.188155 0.971824 0
0.147448 -0.190007 0.970647 0
0.157932 -0.192914 0.968422 0
0.165405 -0.194296 0.966897 0
-0.13905 -0.100712 0.985151 0.0191529
-0.134431 -0.0976515 0.9861 0.020827
-0.130523 -0.0912272 0.987239 0.0194971
-0.124178 -0.0895817 0.988208 0.0173724
0.12218 -0.176229 0.976737 0
0.132018 -0.177888 0.975155 0
0.140827 -0.182271 0.973111 0
0.150026 -0.185932 0.971041 0
0.157947 -0.189363 0.96912 0
0.180607 -0.198987 0.963216 0
-0.136341 -0.0950026 0.986096 0.0178015
-0.126853 -0.093738 0.987482 0.0156053
-0.12476 -0.0914496 0.987963 0.0164337
-0.121545 -0.0890802 0.988581 0.0169182
0.118081 -0.171203 0.978134 0
0.123543 -0.171633 0.977384 0
0.134294 -0.175013 0.975364 0
0.140906 -0.176394 0.974182 0
0.152887 -0.183491 0.971059 0
0.161933 -0.188974 0.968538 0
0.165902 -0.186894 0.96827 0.00147892
-0.138577 -0.0986506 0.985426 0.0112534
-0.132276 -0.0965173 0.986503 0.0113512
-0.128177 -0.0911253 0.987556 0.0144354
-0.128387 -0.0889103 0.987731 0.0176587
-0.122957 -0.0859386 0.988684 0.0166438
0.157948 -0.179752 0.970949 0.000518193
0.168438 -0.183975 0.968391 0
-0.136241 -0.0997487 0.985641 0.00566487
