0.196167 -0.0313356 0.98007 0.00352278
0.188058 -0.0345027 0.981552 0.00538433
0.178228 -0.0326835 0.983446 0.00214359
0.172006 -0.0325451 0.984558 0.00303308
0.161985 -0.0373786 0.986085 0.00554089
-0.0522926 -0.0213755 0.998403 0.00679186
-0.0580741 -0.0223946 0.998061 0.00619137
-0.0603513 -0.0209018 0.997958 0.00204379
-0.0628186 -0.0181048 0.997861 0.000446004
-0.0636391 -0.0191317 0.99779 0.00332028
-0.0621198 -0.0253955 0.997746 0.000813085
-0.0694781 -0.0270599 0.997216 0
-0.0690267 -0.0276899 0.99723 0
-0.0695406 -0.0321371 0.997061 0
-0.0809858 -0.0284254 0.99631 0
-0.0840834 -0.0268736 0.996096 0
-0.0869189 -0.019535 0.996024 0
-0.0950872 -0.0259328 0.995131 0
-0.100015 -0.0192141 0.9948 0
-0.10591 -0.0198599 0.994177 0
-0.119465 -0.0188726 0.992659 0.00054634
-0.127464 -0.0139308 0.991745 0
0.204355 -0.0331993 0.978334 0.00467642
0.199691 -0.0329855 0.979303 0.0045699
0.196386 -0.0348204 0.979908 0.00312794
0.188672 -0.0356205 0.981394 0.00538038
0.185427 -0.0380652 0.981921 0.00352236
0.177451 -0.0326978 0.983586 0.00859371
0.164633 -0.03439 0.985755 0.00706707
0.165475 -0.0348256 0.985599 0.00703182
-0.0527873 -0.0221533 0.99836 0.00729302
-0.0518914 -0.0248057 0.998345 0.00437097
-0.0559506 -0.022883 0.998171 0.00364252
-0.0591663 -0.0219287 0.998007 0.00687401
-0.0636255 -0.0201815 0.99777 0.00621577
-0.0636506 -0.0205842 0.99776 0.00584657
-0.0688476 -0.0206074 0.997414 0.00571806
-0.0693084 -0.0253149 0.997274 0.00249614
-0.0714338 -0.0285354 0.997037 0.00178797
-0.0722128 -0.029852 0.996942 0
-0.0771612 -0.0339252 0.996441 0
-0.082803 -0.0283232 0.996163 0
-0.0860454 -0.0288452 0.995874 0
-0.0928715 -0.0286973 0.995264 0
-0.0991377 -0.0237863 0.994789 0
-0.103315 -0.0201403 0.994445 0
-0.115782 -0.0198268 0.993077 0
-0.122165 -0.0145109 0.992404 0
-0.13259 -0.0142386 0.991069 0.00377404
0.204261 -0.0332585 0.978351 0.00330172
0.203603 -0.0351514 0.978422 0.00474055
0.197164 -0.031849 0.979853 0.00300998
0.184485 -0.0297088 0.982386 0.00606385
0.176223 -0.0358064 0.983699 0.00903988
0.171741 -0.0391125 0.984365 0.00590715
0.1653 -0.0363427 0.985574 0.00678678
-0.0469803 -0.0282988 0.998495 0.00372805
-0.0521569 -0.0222509 0.998391 0.00568364
-0.0537083 -0.0295795 0.998119 0.00514923
-0.0593566 -0.0270738 0.99787 0.00736221
-0.0630225 -0.0254995 0.997686 0.00806496
-0.0651549 -0.0239194 0.997588 0.00914708
-0.0692072 -0.0138362 0.997506 0.0106647
-0.066135 -0.022002 0.997568 0.00554212
-0.0696521 -0.0228399 0.99731 0.00177472
-0.0699475 -0.0295513 0.997113 0
-0.0735814 -0.0276939 0.996905 0
-0.0767477 -0.0342915 0.996461 0
-0.0814411 -0.0301773 0.996221 0
-0.0882319 -0.0276235 0.995717 0
-0.0919521 -0.0289303 0.995343 0
-0.0988205 -0.0259027 0.994768 0
-0.100492 -0.0248625 0.994627 0
-0.115351 -0.0222104 0.993076 0
-0.121799 -0.0146349 0.992447 0
0.20706 -0.0338388 0.977743 0.0035254
0.201316 -0.0311735 0.97903 0.00518953
0.191474 -0.0332073 0.980936 0.00361879
0.180107 -0.0348772 0.983029 0.00107991
0.175416 -0.0420828 0.983595 0.00366122
0.169037 -0.0457321 0.984548 0.000317623
0.167419 -0.0391939 0.985107 0.00222896
-0.049215 -0.0274494 0.998411 0.000560051
-0.0512025 -0.0223503 0.998438 0.00111876
-0.055253 -0.0257123 0.998141 0.000859555
-0.062112 -0.0246595 0.997764 0.00915518
-0.0645387 -0.024656 0.997611 0.0104876
-0.0655457 -0.0247852 0.997542 0.00990755
-0.0661586 -0.0220807 0.997565 0.00803119
-0.0654712 -0.0229877 0.99759 0.00480768
-0.0680313 -0.0287466 0.997269 0
-0.0718421 -0.0294617 0.996981 0
-0.0728086 -0.0307152 0.996873 0
-0.0781621 -0.0267924 0.996581 0
-0.0737518 -0.0329682 0.996732 0
-0.0817254 -0.0344236 0.99606 0
-0.0858659 -0.0324442 0.995778 0
-0.0904513 -0.0283173 0.995498 0
-0.0999644 -0.0276375 0.994607 0
-0.102247 -0.0287975 0.994342 0
-0.120633 -0.016523 0.99256 0
0.207024 -0.0363171 0.977662 0.00292337
0.192709 -0.034218 0.980659 0.0055014
0.189056 -0.033118 0.981408 0.00155309
0.179166 -0.0383169 0.983073 0.0040119
0.175424 -0.0419047 0.983601 0.000489773
0.174216 -0.0411062 0.983849 0
0.172094 -0.0413067 0.984214 0.000401854
-0.049107 -0.0274858 0.998415 0
-0.0535971 -0.0254567 0.998238 0.000871411
-0.0547432 -0.0213629 0.998272 0.00154659
-0.0625044 -0.0232415 0.997774 0.00538228
-0.0654728 -0.0270286 0.997488 0.00596584
-0.0670356 -0.0258695 0.997415 0.00903651
-0.0673847 -0.0221382 0.997481 0.0103309
-0.0687677 -0.0252036 0.997314 0.00275014
-0.0712326 -0.0271564 0.99709 0
-0.0699508 -0.0262075 0.997206 0
-0.0730048 -0.0305335 0.996864 0
-0.0758905 -0.0307365 0.996642 0
-0.074795 -0.0328432 0.996658 0
-0.0796511 -0.035589 0.996187 0
-0.0887343 -0.0345278 0.995457 0
-0.0975961 -0.0263201 0.994878 0
-0.101416 -0.0232232 0.994573 0
-0.114126 -0.0201972 0.993261 0
0.191391 -0.0376878 0.98079 0.00330925
0.182258 -0.0409866 0.982396 0.000765254
0.17609 -0.0345582 0.983767 0.00245319
0.175341 -0.0342284 0.983913 0.000611033
0.170912 -0.0373434 0.984578 0.00340488
-0.0467122 -0.0276486 0.998526 0
-0.0505122 -0.0296256 0.998284 0
-0.0524211 -0.0299037 0.998177 0
-0.0565817 -0.0259604 0.99806 0.00358321
-0.0635195 -0.025971 0.997643 0.0084389
-0.062313 -0.0294523 0.997622 0.00269954
-0.0645774 -0.0251196 0.997597 0.00646677
-0.0670043 -0.0245579 0.99745 0.00746226
-0.067229 -0.0270276 0.997371 0.00358211
-0.069536 -0.0276204 0.997197 0
-0.0710728 -0.0288131 0.997055 0
-0.0738921 -0.0311504 0.99678 0
-0.0749043 -0.0262482 0.996845 0
-0.0775643 -0.0349703 0.996374 0
-0.0789853 -0.0332513 0.996321 0
-0.0838214 -0.0335373 0.995916 0
-0.0916566 -0.0266665 0.995434 0
-0.101242 -0.0247878 0.994553 0
0.200176 -0.0353788 0.979121 0.00205714
0.193195 -0.0332378 0.980597 0.00332561
0.189307 -0.0350653 0.981292 0.00298608
0.182143 -0.0366493 0.982589 0.000469965
0.17868 -0.0278378 0.983513 0.00388415
0.171922 -0.0271184 0.984737 0.00526323
0.167443 -0.0382422 0.98514 0
-0.0371913 -0.011819 0.999238 0.0114389
-0.0497399 -0.0298935 0.998315 0
-0.0522774 -0.0251524 0.998316 0
-0.0576691 -0.028987 0.997915 0
-0.0608367 -0.0239608 0.99786 0.00283001
-0.0621234 -0.0259434 0.997731 0.000894326
-0.0631552 -0.0234181 0.997729 0.00153046
-0.0670128 -0.0249496 0.99744 0.00359295
-0.0679251 -0.0257759 0.997357 0.00256178
-0.0683341 -0.0258029 0.997329 0
-0.0716967 -0.0263629 0.997078 0
-0.0718135 -0.0256146 0.997089 0
-0.0740717 -0.0272589 0.99688 0
-0.0758994 -0.0292657 0.996686 0
-0.0795363 -0.0301506 0.996376 0
-0.0862934 -0.0326785 0.995734 0
-0.0943232 -0.025998 0.995202 0
-0.107536 -0.0257782 0.993867 0
0.195996 -0.0387301 0.979839 0
0.186069 -0.0309127 0.98205 0.000355544
0.179688 -0.0332005 0.983163 0.00280198
0.174356 -0.0350815 0.984058 0
0.164857 -0.0402493 0.985496 0
-0.0355782 -0.00894549 0.999327 0.00963245
-0.0501074 -0.0287116 0.998331 0
-0.0534709 -0.0315156 0.998072 0
-0.0551664 -0.0305944 0.998008 0
-0.0604571 -0.0257233 0.997839 0
-0.0604273 -0.0263079 0.997826 0
-0.0599291 -0.0285454 0.997794 0
-0.0653675 -0.0325327 0.997331 0
-0.0634968 -0.0262758 0.997636 0
-0.0655438 -0.0263161 0.997503 0
-0.0684069 -0.0269931 0.997292 0
-0.0719094 -0.0251832 0.997093 0
-0.0747824 -0.0298502 0.996753 0
-0.0797883 -0.0278566 0.996423 0
-0.0850372 -0.0223005 0.996128 0
-0.087688 -0.0204603 0.995938 0
-0.0929987 -0.0219429 0.995424 0
-0.107518 -0.0228133 0.993941 0
0.195944 -0.0367892 0.979925 0
0.186485 -0.0337095 0.981879 0
0.179076 -0.038623 0.983077 0
0.175935 -0.0406587 0.983562 0
0.165209 -0.0395466 0.985465 0
0.153739 -0.0377371 0.987391 0
-0.0444093 -0.00340183 0.999008 0.0163284
-0.039096 -0.00615868 0.999216 0.0100551
-0.0460036 -0.0190871 0.998759 0
-0.0482932 -0.0291816 0.998407 0
-0.0505189 -0.0287189 0.99831 0
-0.0564756 -0.0269841 0.998039 0
-0.0597496 -0.027373 0.997838 0
-0.0617406 -0.0273158 0.997718 0
-0.0618791 -0.0289079 0.997665 0
-0.0617959 -0.0304145 0.997625 0
-0.0616167 -0.0273643 0.997725 0
-0.0653281 -0.0295071 0.997428 0
-0.0673012 -0.0288537 0.997315 0
-0.0740557 -0.0255988 0.996926 0
-0.0763208 -0.0271362 0.996714 0
-0.0762892 -0.020959 0.996865 0
-0.0878239 -0.0172332 0.995987 0
-0.0900965 -0.0131563 0.995846 0.000362898
-0.0947967 -0.0135119 0.995405 0
-0.0979972 -0.0231389 0.994918 0
0.198559 -0.0382987 0.97934 0
0.182853 -0.0336658 0.982564 0.000455609
0.180379 -0.0428723 0.982662 0
0.173352 -0.0384836 0.984108 0
0.161649 -0.0339193 0.986265 0.00147254
-0.0410187 -0.00560218 0.999143 0.0154871
-0.041054 -0.00580571 0.99914 0.0100066
-0.0436128 -0.0158923 0.998922 0
-0.0436848 -0.0228086 0.998785 0
-0.0481955 -0.0286619 0.998427 0
-0.0516019 -0.0334415 0.998108 0
-0.0516206 -0.0288477 0.99825 0
-0.0595879 -0.0292733 0.997794 0
-0.0603529 -0.0288127 0.997761 0
-0.0588697 -0.028276 0.997865 0
-0.0597288 -0.027318 0.997841 0
-0.062342 -0.0278754 0.997666 0
-0.0649851 -0.02806 0.997492 0
-0.0687397 -0.0311131 0.997149 0
-0.0707424 -0.0281028 0.997099 0
-0.0752568 -0.0251767 0.996846 0
-0.0773417 -0.0242837 0.996709 0
-0.0862052 -0.0196645 0.996083 0
0.196431 -0.0309287 0.98003 0.00730257
0.182539 -0.0373453 0.982489 0.000845212
0.17598 -0.0363275 0.983723 0.00112863
0.169882 -0.0346419 0.984855 0.00144415
0.162236 -0.0311691 0.98626 0.0024767
0.152383 -0.0380689 0.987588 0
0.146732 -0.0339404 0.988594 0
-0.0362381 -0.00649658 0.999322 0.011502
-0.0388873 -0.0078683 0.999213 0.0109906
-0.0443182 -0.00567928 0.999001 0.010153
-0.0414818 -0.0202786 0.998933 0
-0.046355 -0.0229829 0.998661 0
-0.0502198 -0.0291358 0.998313 0
-0.0504354 -0.0311773 0.998241 0
-0.0498218 -0.0325589 0.998227 0
-0.0578156 -0.0260972 0.997986 0
-0.0558482 -0.0278348 0.998051 0
-0.0560443 -0.029356 0.997997 0
-0.0577351 -0.0258249 0.997998 0
-0.0641299 -0.0303374 0.99748 0
-0.0654617 -0.0320813 0.997339 0
-0.0672046 -0.0290889 0.997315 0
-0.0714733 -0.0260893 0.997101 0
-0.0748061 -0.024934 0.996886 0
-0.0792384 -0.0210802 0.996633 0
-0.0857582 -0.0227566 0.996056 0
0.197457 -0.034238 0.979714 0.00852429
0.193719 -0.0319657 0.980536 0.010841
0.183106 -0.0373067 0.982385 0.00444019
0.174635 -0.0347548 0.98402 0.00377423
0.16722 -0.0297388 0.985471 0.00224582
0.162407 -0.0326299 0.986184 0.00178823
0.150626 -0.0299302 0.988138 0.00146231
0.150308 -0.0354631 0.988003 0.0035385
-0.0337585 -0.00694432 0.999406 0.00810859
-0.038557 -0.00847466 0.99922 0.00935584
-0.0398087 -0.019389 0.999019 0.00532092
-0.0409873 -0.0250302 0.998846 0
-0.0408634 -0.0258094 0.998831 0
-0.0432597 -0.0247025 0.998758 0
-0.0474168 -0.0280069 0.998482 0
-0.0468921 -0.0257666 0.998568 0
-0.0492145 -0.0286896 0.998376 0
-0.0536824 -0.025547 0.998231 0
-0.057413 -0.0226301 0.998094 0
-0.0597333 -0.0258156 0.997881 0
-0.0600643 -0.0311398 0.997709 0
-0.0630203 -0.0273369 0.997638 0
-0.0693059 -0.0285182 0.997188 0
-0.0720004 -0.0244816 0.997104 0
-0.0740196 -0.0275837 0.996875 0
-0.0864521 -0.0273645 0.99588 0
0.178855 -0.0310503 0.983385 0.0133547
0.174624 -0.0299751 0.984179 0.00747005
0.166444 -0.0354955 0.985412 0.00398243
0.16217 -0.0374156 0.986053 2.88391e-06
0.154036 -0.0318877 0.98755 0.00655369
0.150376 -0.0300315 0.988173 0.00764846
-0.0295591 -0.0160014 0.999435 0.00176071
-0.0315957 -0.0143357 0.999398 0.0012809
-0.0347295 -0.0104711 0.999342 0.00382201
-0.0385076 -0.0184714 0.999088 0.00148069
-0.0398504 -0.0291238 0.998781 0
-0.0423466 -0.0256309 0.998774 0
-0.0442444 -0.0244403 0.998722 0
-0.0479942 -0.0269428 0.998484 0
-0.0500968 -0.0292177 0.998317 0
-0.0502793 -0.0250746 0.99842 0
-0.0544013 -0.024923 0.998208 0
-0.0552451 -0.0250043 0.99816 0
-0.0557872 -0.0260842 0.998102 0
-0.0565555 -0.0319316 0.997889 0
-0.0615224 -0.0308612 0.997629 0
-0.0655571 -0.0282832 0.997448 0
-0.0692004 -0.0241254 0.997311 0
-0.0717981 -0.0318228 0.996911 0
0.184943 -0.025589 0.982416 0.012548
0.180633 -0.0292521 0.983116 0.0125021
0.175531 -0.0284804 0.984062 0.0108823
0.170612 -0.0313586 0.984839 0.00845246
0.162826 -0.0328944 0.986106 0.00967054
0.149065 -0.027993 0.988431 0.0109807
-0.0272554 -0.0208178 0.999412 0.000688529
-0.0281269 -0.0194284 0.999416 0
-0.0316391 -0.0194671 0.99931 0
-0.0373872 -0.0181486 0.999136 0
-0.0418437 -0.0334651 0.998564 0
-0.0422472 -0.0302706 0.998649 0
-0.0446549 -0.0279495 0.998611 0
-0.0492999 -0.0283194 0.998382 0
-0.0526318 -0.0236672 0.998334 0
-0.0527666 -0.0270098 0.998242 0
-0.054742 -0.0271948 0.99813 0
-0.0539731 -0.02411 0.998251 0
-0.0538031 -0.0223913 0.9983 0
-0.0547123 -0.0267267 0.998144 0
-0.0590306 -0.0284797 0.99785 0
-0.0638218 -0.0319898 0.997449 0
-0.0672363 -0.0262244 0.997392 0
-0.0712549 -0.0290263 0.997036 0
0.183924 -0.0382154 0.982197 0.00761665
0.17861 -0.0274819 0.983536 0.0109519
0.174042 -0.03075 0.984258 0.011582
0.167654 -0.0288286 0.985424 0.0112705
0.15405 -0.0277852 0.987672 0.0087669
0.150071 -0.026086 0.988331 0.00804275
-0.0248721 -0.0266275 0.999336 0.000241817
-0.0282819 -0.0232271 0.99933 0
-0.0319774 -0.0240278 0.9992 0
-0.0388025 -0.0230398 0.998981 0
-0.0418243 -0.0299178 0.998677 0
-0.0434688 -0.0319436 0.998544 0
-0.0452577 -0.0241094 0.998684 0
-0.0476499 -0.0261308 0.998522 0
-0.0483059 -0.0241939 0.99854 0
-0.0529584 -0.0232115 0.998327 0
-0.0539361 -0.0241176 0.998253 0
-0.0552063 -0.0243328 0.998178 0
-0.0556572 -0.0237263 0.998168 0
-0.0591711 -0.0215586 0.998015 0
-0.0641646 -0.025543 0.997612 0
-0.063631 -0.0267626 0.997615 0
-0.0679765 -0.0296217 0.997247 0
-0.0707814 -0.0297547 0.997048 0
0.181858 -0.0349782 0.982702 0.00755403
0.177527 -0.0321817 0.98359 0.00947207
0.175501 -0.0318621 0.983964 0.0102257
0.171197 -0.0324246 0.984703 0.00867919
0.158429 -0.0273634 0.986991 0.00753302
0.153898 -0.02567 0.987753 0.00943706
-0.014873 -0.0292036 0.999463 0.00188259
-0.0255056 -0.0250774 0.99936 0
-0.0272543 -0.0255317 0.999302 0
-0.0324796 -0.0271732 0.999103 0
-0.0386237 -0.0223801 0.999003 0
-0.0433741 -0.0273648 0.998684 0
-0.042635 -0.0245071 0.99879 0
-0.0462192 -0.0288308 0.998515 0
-0.0497813 -0.028907 0.998342 0
-0.0480504 -0.025952 0.998508 0
-0.0506567 -0.0206255 0.998503 0
-0.0545559 -0.0226317 0.998254 0
-0.0568547 -0.023227 0.998112 0
-0.0571589 -0.0175218 0.998211 0
-0.0599424 -0.0209998 0.997981 0
-0.0610172 -0.0247943 0.997829 0
-0.0652328 -0.0279063 0.99748 0
-0.0684209 -0.0299163 0.997208 0
-0.0723331 -0.0288812 0.996962 0
0.181578 -0.0361178 0.982713 0.0104443
0.176186 -0.0351403 0.983729 0.00957689
0.174959 -0.0352941 0.983943 0.00820304
0.170914 -0.0295986 0.984841 0.00869874
0.162499 -0.0281808 0.986306 0.00985095
0.157172 -0.0284102 0.987163 0.00754077
-0.0283539 -0.0247386 0.999292 0.00118783
-0.031277 -0.0279198 0.999121 0
-0.0322314 -0.0277227 0.999096 0
-0.0367959 -0.0203597 0.999115 0
-0.0415374 -0.0322252 0.998617 0
-0.0428896 -0.0266896 0.998723 0
-0.0470502 -0.031546 0.998394 0
-0.0472363 -0.0312392 0.998395 0
-0.0471231 -0.0258078 0.998556 0
-0.0507412 -0.0206785 0.998498 0
-0.0511533 -0.0208098 0.998474 0
-0.054134 -0.0253046 0.998213 0
-0.0584354 -0.0192594 0.998105 0
-0.0568784 -0.0212801 0.998154 0
-0.0592881 -0.0198519 0.998043 0
-0.0624405 -0.0240757 0.997758 0
-0.0635398 -0.0251719 0.997662 0
-0.0684616 -0.0297397 0.99721 0
-0.0741848 -0.0336047 0.996678 0
0.18232 -0.040424 0.982408 0.00188294
0.180478 -0.0433636 0.982623 0.00509993
0.178698 -0.0331543 0.983345 0.0072522
0.169003 -0.0313683 0.985116 0.00806285
0.158944 -0.0268135 0.986923 0.0115387
0.155597 -0.0315057 0.987318 0.0100728
0.101526 -0.0229297 0.994569 0
-0.0300608 -0.0231399 0.99928 0.00105464
-0.0327182 -0.0280381 0.999071 0
-0.0336467 -0.030277 0.998975 0
-0.0368226 -0.0233821 0.999048 0
-0.0441359 -0.0294422 0.998592 0
-0.0444593 -0.0269556 0.998648 0
-0.0458075 -0.0215101 0.998719 0
-0.048328 -0.0252353 0.998513 0.000586327
-0.046345 -0.0244894 0.998625 0
-0.0496776 -0.0266724 0.998409 0
-0.0487805 -0.0227803 0.99855 0
-0.057204 -0.0170323 0.998217 0
-0.0558933 -0.0208525 0.998219 0
-0.0540805 -0.0219102 0.998296 0
-0.0590822 -0.0171139 0.998106 0
-0.06183 -0.0238545 0.997802 0
-0.0654876 -0.0241753 0.99756 0
-0.0693367 -0.0265761 0.997239 0
-0.0738036 -0.0246508 0.996968 0
0.190814 -0.04255 0.980704 0
0.187066 -0.0426529 0.981421 0.00166771
0.184854 -0.04086 0.981916 0.00210115
0.177963 -0.039206 0.983256 0.00494317
0.168144 -0.0302351 0.985299 0.00853721
0.157113 -0.0245292 0.987276 0.0143295
0.15292 -0.0230495 0.98797 0.0162178
-0.029786 -0.025712 0.999226 0
-0.0316335 -0.0243182 0.999204 0
-0.032804 -0.0244518 0.999163 0
-0.0386792 -0.0277195 0.998867 0
-0.0434454 -0.0226235 0.9988 0
-0.0445764 -0.0258416 0.998672 0
-0.0455916 -0.0193522 0.998773 0
-0.0461189 -0.0170434 0.998791 0
-0.0484537 -0.0199405 0.998626 0
-0.0527279 -0.021663 0.998374 0
-0.0507246 -0.0213824 0.998484 0
-0.0552369 -0.0161394 0.998343 0
-0.0565872 -0.021259 0.998171 0
-0.0574816 -0.0187634 0.99817 0
-0.0597375 -0.0187954 0.998037 0
-0.0615937 -0.0242707 0.997806 0
-0.0679719 -0.0201316 0.997484 0
-0.0704246 -0.0246722 0.997212 0
-0.0731856 -0.0286245 0.996907 0
0.186933 -0.0390519 0.981596 0.000793628
0.183491 -0.0392171 0.982239 0.00178282
0.177412 -0.0358423 0.983484 0.00623032
0.169149 -0.0320053 0.985071 0.00723968
0.157596 -0.0278052 0.987112 0.00983052
0.150647 -0.0263478 0.988236 0.0095498
0.146383 -0.0239404 0.988938 0.00556842
-0.0110674 -0.0274103 0.999563 0
-0.0188786 -0.020393 0.999614 0
-0.028086 -0.0276663 0.999223 0
-0.0317284 -0.0233942 0.999223 0
-0.0327062 -0.0213201 0.999238 0
-0.0373499 -0.0275032 0.998924 0
-0.0405814 -0.0236674 0.998896 0
-0.0405002 -0.0257326 0.998848 0
-0.0445573 -0.0241064 0.998716 0
-0.0471321 -0.013648 0.998795 0
-0.0505987 -0.0147571 0.99861 0.00035235
-0.0500691 -0.0208319 0.998528 0
-0.0527913 -0.0159755 0.998478 0
-0.0561621 -0.0175422 0.998268 0
-0.0530107 -0.020608 0.998381 0
-0.0560341 -0.023095 0.998162 0
-0.0620285 -0.0173243 0.997924 0
-0.0611337 -0.0230393 0.997864 0
-0.0691504 -0.0177798 0.997448 0
-0.0721279 -0.0222082 0.997148 0
-0.074306 -0.0238662 0.99695 0
0.181334 -0.0367755 0.982734 0.00600731
0.175146 -0.032449 0.984007 0.0135902
0.168598 -0.0299043 0.985231 0.0140715
0.153902 -0.0308845 0.987603 0.00658949
0.148509 -0.0280381 0.988513 0.00993107
0.130596 -0.0305647 0.990964 0.00669401
0.0987992 -0.0290306 0.994684 0
-0.0115619 -0.0313788 0.999441 0
-0.0183673 -0.0241212 0.99954 0
-0.0308224 -0.0273243 0.999151 0
-0.0288404 -0.0215078 0.999353 0
-0.0305073 -0.0225411 0.99928 0
-0.0383976 -0.0251913 0.998945 0
-0.039871 -0.0260765 0.998865 0
-0.0425851 -0.0206909 0.998879 0
-0.0450349 -0.0223867 0.998735 0
-0.0498586 -0.0157821 0.998632 0
-0.0477853 -0.0169866 0.998713 0
-0.0537339 -0.0182279 0.998389 0
-0.0538538 -0.0216144 0.998315 0
-0.0527556 -0.0214716 0.998377 0
-0.053699 -0.0189451 0.998377 0
-0.0569756 -0.0168791 0.998233 0
-0.0608605 -0.0149057 0.998035 0
-0.0640522 -0.0189192 0.997767 0
-0.0683093 -0.0203964 0.997456 0
-0.0714783 -0.0200302 0.997241 0
0.180696 -0.027927 0.983142 0.0134699
0.176761 -0.0260726 0.983908 0.0170808
0.168826 -0.0274449 0.985264 0.0162436
0.153304 -0.0315355 0.987676 0.0102655
0.151532 -0.0322083 0.987928 0.00843052
0.146638 -0.0336715 0.988617 0.00995682
0.132161 -0.026068 0.990885 0.00817999
0.117323 -0.0275906 0.99271 0.00406886
0.110155 -0.0297338 0.99347 0
0.0949739 -0.0233588 0.995206 0
-0.0134272 -0.0250665 0.999596 0
-0.0149738 -0.027685 0.999505 0
-0.0178299 -0.0244519 0.999542 0
-0.028955 -0.0234315 0.999306 0
-0.0305707 -0.0204694 0.999323 0
-0.0329368 -0.0220978 0.999213 0
-0.0360898 -0.0261085 0.999007 0
-0.0416292 -0.0219136 0.998893 0
-0.0432678 -0.0217969 0.998826 0
-0.0457028 -0.0140327 0.998856 0
-0.0486189 -0.0164003 0.998683 0
-0.0515016 -0.015152 0.998558 0.000520312
-0.0515549 -0.0217879 0.998432 0.000863352
-0.0531527 -0.0187553 0.99841 0
-0.0501908 -0.0214613 0.998509 0
-0.0558366 -0.014056 0.998341 0
-0.0570793 -0.0163726 0.998235 0
-0.0636805 -0.014824 0.99786 0
-0.0656396 -0.018524 0.997671 0
-0.0676572 -0.019258 0.997523 0
-0.0730951 -0.0216621 0.99709 0
-0.0757942 -0.0184446 0.996953 0
0.179698 -0.0237413 0.983435 0.0102839
0.176256 -0.0236904 0.984059 0.00832387
0.17098 -0.0237509 0.984988 0.0139366
0.155626 -0.0320251 0.987297 0.0111519
0.153988 -0.0305577 0.9876 0.0120757
0.147986 -0.0267196 0.988628 0.00976594
0.130781 -0.0312007 0.99092 0.00630114
0.119548 -0.0304906 0.99236 0.00353921
0.106445 -0.0268382 0.993956 0.000447452
0.00867338 -0.0348313 0.999356 0
0.0038297 -0.0277425 0.999608 0
-0.0138145 -0.0340794 0.999324 0
-0.0164321 -0.0248908 0.999555 0
-0.0204455 -0.0256716 0.999461 0
-0.028214 -0.0271859 0.999232 0
-0.0302941 -0.0184628 0.999371 0
-0.0314135 -0.0194383 0.999317 0
-0.0363578 -0.0249303 0.999028 0
-0.0412999 -0.0223056 0.998898 0
-0.041821 -0.0180287 0.998962 0
-0.0439492 -0.0149855 0.998921 0
-0.0491617 -0.0178023 0.998632 0
-0.0495061 -0.0215827 0.998541 0
-0.0525366 -0.0255006 0.998293 0
-0.0542471 -0.0220988 0.998283 0.00183631
-0.0531329 -0.022605 0.998332 0
-0.0536029 -0.0232321 0.998292 0
-0.0589206 -0.0204039 0.998054 0
-0.0627465 -0.0174583 0.997877 0
-0.0649729 -0.0230581 0.997621 0.000713285
-0.0693503 -0.0202004 0.997388 0
-0.0731921 -0.0217163 0.997081 0
0.180821 -0.0259023 0.983175 0.00247097
0.177806 -0.0269149 0.983697 0.00500925
0.170851 -0.0198546 0.985097 0.0100762
0.158858 -0.0286637 0.986885 0.0125704
0.156298 -0.0263502 0.987358 0.00953901
0.146675 -0.0258253 0.988848 0.00786207
0.12746 -0.0238223 0.991558 0.00356253
0.122602 -0.0301257 0.991999 0.00232669
0.107481 -0.0268318 0.993845 0.00119769
0.096342 -0.0175105 0.995194 0
0.0134676 -0.0303344 0.999449 0
0.0112714 -0.0321194 0.999421 0
0.00521024 -0.0263437 0.999639 0.000672104
-0.00493721 -0.0242335 0.999694 0.00271023
-0.0157338 -0.0321169 0.99936 0
-0.0187232 -0.0302897 0.999366 0
-0.0219546 -0.0338114 0.999187 0
-0.0259691 -0.0250894 0.999348 0
-0.0290699 -0.0206522 0.999364 0
-0.0317836 -0.0214915 0.999264 0
-0.0342021 -0.0247363 0.999109 0
-0.0412255 -0.0195262 0.998959 0
-0.0435142 -0.0175067 0.998899 0
-0.0445159 -0.0134581 0.998918 0
-0.0493555 -0.015842 0.998656 0
-0.0520545 -0.0178189 0.998485 0
-0.0511752 -0.0197296 0.998495 0
-0.0525626 -0.0257799 0.998285 0
-0.053968 -0.027647 0.99816 0
-0.0546496 -0.0293663 0.998074 0
-0.0607441 -0.0245805 0.997851 0.000796612
-0.061777 -0.0197168 0.997895 0.00447468
-0.0651422 -0.0205583 0.997664 0.00338769
-0.0687829 -0.0206814 0.997417 0.00100803
-0.0737428 -0.0166611 0.997138 0.00112792
-0.0754214 -0.0139536 0.997054 0.00242981
0.178096 -0.0299511 0.983557 0.0032154
0.178748 -0.033783 0.983315 0.000952966
0.171319 -0.0224701 0.984959 0.00595313
0.154793 -0.0281307 0.987546 0.0074668
0.145833 -0.0311185 0.98882 0.00831201
0.133266 -0.0281306 0.990681 0.00700333
0.119754 -0.0254793 0.992477 0.00711987
0.100927 -0.0183706 0.994724 0.00309584
0.0949054 -0.0143822 0.995382 0.000482435
0.013326 -0.0217952 0.999674 0.00333952
0.0131865 -0.0310601 0.99943 0.00274332
0.00620124 -0.0227661 0.999722 0.00183616
-0.00691245 -0.023053 0.99971 0.00202424
-0.017643 -0.0242246 0.999551 0
-0.0251756 -0.0318676 0.999175 0
-0.0287858 -0.0276722 0.999203 0
-0.0284276 -0.0257477 0.999264 0
-0.0317225 -0.0288329 0.999081 0
-0.0349246 -0.0243487 0.999093 0
-0.0375641 -0.0230577 0.999028 0
-0.0424434 -0.0240531 0.998809 0
-0.04618 -0.020729 0.998718 0
-0.0498472 -0.0195443 0.998566 0
-0.0495418 -0.0179251 0.998611 0
-0.0547967 -0.0171145 0.998351 0.000153935
-0.0536812 -0.022205 0.998311 0.00117022
-0.0539056 -0.0242298 0.998252 0
-0.0580178 -0.0324051 0.997789 0.000846592
-0.0617596 -0.0271825 0.997721 0.00252941
-0.0617015 -0.01914 0.997911 0.0029739
-0.0637291 -0.0240177 0.997678 0.00122572
-0.0662052 -0.0201798 0.997602 0.00277798
-0.0748447 -0.0153523 0.997077 0.00312657
0.17628 -0.0306992 0.983861 0.00677044
0.171937 -0.0295628 0.984664 0.00469562
0.15836 -0.0276118 0.986995 0.00661329
0.147822 -0.0324134 0.988483 0.00838813
0.131366 -0.0266816 0.990975 0.00632337
0.120793 -0.0258009 0.992342 0.00416709
0.10881 -0.0203425 0.993854 0.00620863
0.0962066 -0.0237436 0.995078 0.00111955
0.00940944 -0.0296793 0.999515 0
0.00312711 -0.0245109 0.999695 0
-0.00208465 -0.022353 0.999748 0.000271981
-0.013319 -0.0213427 0.999683 0
-0.0240665 -0.0246102 0.999407 0.00122332
-0.0270112 -0.0274468 0.999258 0
-0.0296394 -0.0276354 0.999179 0
-0.0300253 -0.0267362 0.999192 0
-0.0323258 -0.0256567 0.999148 0
-0.0379844 -0.0213647 0.99905 0
-0.0392269 -0.0240248 0.998941 0
-0.0415054 -0.0261357 0.998796 0
-0.0466444 -0.0218385 0.998673 0
-0.0484402 -0.0148081 0.998716 0
-0.0515022 -0.0180632 0.99851 0.000400912
-0.0525651 -0.02384 0.998333 0
-0.0561303 -0.0252782 0.998103 0.00164119
-0.0579607 -0.0274398 0.997942 0
-0.0603475 -0.0285767 0.997768 0.00145466
-0.0635448 -0.0212433 0.997753 0.00224907
-0.065149 -0.0239405 0.997588 0
-0.0662341 -0.0167451 0.997664 0
-0.0717817 -0.0168688 0.997278 0.00135831
-0.0736462 -0.0194077 0.997096 0
0.178223 -0.0331594 0.983431 0.00157804
0.174176 -0.0337306 0.984137 0.00421655
0.159254 -0.032148 0.986714 0.00684665
0.145373 -0.0278651 0.988985 0.00844696
0.131424 -0.0255297 0.990997 0.0134724
0.119796 -0.0281664 0.992399 0.00892664
0.105696 -0.0241691 0.994105 0.00340051
0.0981777 -0.0272064 0.994797 0
0.0126918 -0.0309502 0.99944 0
0.00844081 -0.0319673 0.999453 0
0.00361541 -0.0243558 0.999697 0
-0.00297486 -0.0200303 0.999795 0
-0.00999135 -0.0201641 0.999747 0
-0.0114619 -0.025002 0.999622 0
-0.015434 -0.0231394 0.999613 0.00435633
-0.021483 -0.0243822 0.999472 0
-0.0291841 -0.0288572 0.999157 0
-0.0274922 -0.0326338 0.999089 0
-0.0298601 -0.0266587 0.999199 0
-0.0351879 -0.0225164 0.999127 0
-0.0399689 -0.0268756 0.998839 0
-0.0410669 -0.0234267 0.998882 0
-0.0440928 -0.0210564 0.998806 0
-0.0470186 -0.0261609 0.998551 0
-0.0516568 -0.0248888 0.998355 0
-0.0514791 -0.0274255 0.998297 0
-0.0535884 -0.0308569 0.998086 0
-0.0568773 -0.026686 0.998024 0.00182793
-0.0565483 -0.0273071 0.998026 0.000452326
-0.0614835 -0.0197207 0.997913 0.00123927
-0.0642248 -0.0239634 0.997648 0.00024554
-0.0663278 -0.0190037 0.997617 0
0.181351 -0.0375719 0.9827 0.0010533
0.174939 -0.0322855 0.98405 0.000864694
0.170086 -0.0291501 0.984998 0.00526981
0.158255 -0.0328093 0.986853 0.00746068
0.145424 -0.0303591 0.988903 0.00837531
0.134834 -0.0309013 0.990386 0.0125331
0.123061 -0.0267707 0.992038 0.0129204
0.106012 -0.0285157 0.993956 0.00677114
0.0982942 -0.0232102 0.994887 0.00568071
0.0342947 -0.0223362 0.999162 0.00530544
0.013261 -0.0316317 0.999412 0
0.00745896 -0.0277955 0.999586 0
0.00149207 -0.0261889 0.999656 0
-0.00294909 -0.0216778 0.999761 0
-0.00667414 -0.0222286 0.999731 0
-0.0105089 -0.0223244 0.999696 0
-0.0168123 -0.0262217 0.999515 0.000711873
-0.0230635 -0.0193937 0.999546 0.00150111
-0.0270736 -0.0318823 0.999125 0
-0.0287234 -0.0308765 0.99911 0
-0.0305887 -0.0337554 0.998962 0
-0.0347239 -0.0299224 0.998949 0
-0.0399555 -0.0212615 0.998975 0
-0.0414046 -0.0222015 0.998896 0
-0.0450944 -0.0175689 0.998828 0
-0.0461174 -0.0272091 0.998565 0
-0.0490234 -0.0255338 0.998471 0
-0.0507417 -0.0274094 0.998336 0
-0.055239 -0.0355567 0.99784 0
-0.0546918 -0.027048 0.998137 0
-0.0532562 -0.0218714 0.998341 0
-0.0585688 -0.0237245 0.998001 0
-0.0620802 -0.0268557 0.99771 0
-0.0676031 -0.0215724 0.997479 0
0.175644 -0.0312207 0.983959 0
0.176611 -0.0363237 0.98361 0
0.171446 -0.0337545 0.984615 0.00414105
0.158515 -0.0299891 0.986901 0.00993961
0.149541 -0.0338058 0.988178 0.0108419
0.13578 -0.0247843 0.990429 0.013722
0.121229 -0.0237156 0.992341 0.013464
0.105348 -0.0256814 0.994104 0.0126814
0.0990063 -0.0213318 0.994858 0.0104079
0.0851856 -0.0242637 0.99607 0.00850887
0.0114793 -0.0269765 0.99957 0.00259641
0.00485146 -0.0285927 0.999579 0
-0.00129936 -0.0275758 0.999619 0
-0.0102345 -0.0241047 0.999657 0
-0.0166317 -0.0233647 0.999589 0
-0.0245833 -0.0133123 0.999609 0.00211383
-0.0316796 -0.0213034 0.999271 0
-0.0300002 -0.0267694 0.999191 0
-0.0321096 -0.0312393 0.998996 0
-0.0352813 -0.0296583 0.998937 0
-0.0388571 -0.0195969 0.999053 0
-0.0412506 -0.0236869 0.998868 0
-0.0442811 -0.0212773 0.998793 0
-0.0441163 -0.0285585 0.998618 0
-0.0491117 -0.0288251 0.998377 0
-0.0517411 -0.0306308 0.998191 0
-0.0511054 -0.0311497 0.998207 0
-0.0506058 -0.0203247 0.998512 0
-0.0547574 -0.0207369 0.998284 0
-0.0559821 -0.0251085 0.998116 0
-0.0583923 -0.0285727 0.997885 0
-0.0653423 -0.0214044 0.997633 0
-0.0697195 -0.0192726 0.99738 0
0.176953 -0.0350446 0.983595 0
0.176413 -0.0364621 0.983641 0
0.173972 -0.0345616 0.984144 0.000191777
0.161856 -0.0324343 0.986281 0.0106085
0.154711 -0.0283835 0.987552 0.0148091
0.147789 -0.029085 0.988591 0.0169046
0.133173 -0.0240507 0.990801 0.0191302
0.118066 -0.026028 0.992665 0.0185677
0.10394 -0.0142398 0.994482 0.0181032
0.0955255 -0.021484 0.995195 0.0151233
0.0804201 -0.0216439 0.996526 0.0111775
0.0103367 -0.0249496 0.999635 8.20319e-06
0.00409538 -0.0267207 0.999635 0
-0.00322582 -0.0308516 0.999519 0
-0.0141702 -0.0260552 0.99956 0
-0.0184242 -0.0240699 0.999541 6.45821e-05
-0.0236758 -0.0232964 0.999448 0
-0.0282954 -0.0250325 0.999286 0
-0.0317528 -0.0216651 0.999261 0
-0.0321104 -0.0189008 0.999306 0
-0.0344184 -0.030054 0.998955 0
-0.0376686 -0.0264324 0.998941 0
-0.0397737 -0.0295416 0.998772 0
-0.0452771 -0.0219584 0.998733 0
-0.0467972 -0.0280205 0.998511 0
-0.0509245 -0.0226807 0.998445 0
-0.053743 -0.0219864 0.998313 0.00130263
-0.052087 -0.0234278 0.998368 0
-0.0508064 -0.0225004 0.998455 0
-0.0547029 -0.0214882 0.998271 0
-0.0564669 -0.0290592 0.997981 0
-0.0585471 -0.028306 0.997883 0
-0.0687112 -0.0211638 0.997412 0
0.17837 -0.035369 0.983328 0
0.172786 -0.0364732 0.984284 0
0.157812 -0.0310263 0.986982 0.00988634
0.153425 -0.0277623 0.98777 0.0121053
0.148905 -0.0253816 0.988526 0.0185598
0.133453 -0.0237689 0.99077 0.02041
0.116535 -0.0235065 0.992908 0.0178335
0.101327 -0.0116775 0.994785 0.0184483
0.094883 -0.0100707 0.995438 0.0172349
0.0838591 -0.0198532 0.99628 0.0101174
0.0664322 -0.0247108 0.997485 0.00469292
0.00910343 -0.0260499 0.999619 0.000360307
0.00284258 -0.0282286 0.999597 0.000205002
-0.00252641 -0.0314001 0.999504 0
-0.0127674 -0.0276261 0.999537 0
-0.0188638 -0.023775 0.999539 0.000259582
-0.0259342 -0.0246594 0.999359 0
-0.0279556 -0.0213772 0.999381 0
-0.02932 -0.024016 0.999282 0
-0.0323488 -0.0218374 0.999238 0
-0.0334952 -0.020202 0.999235 0
-0.036423 -0.0263552 0.998989 0
-0.0396384 -0.0235469 0.998937 0
-0.0417523 -0.0268152 0.998768 0
-0.0453507 -0.024498 0.998671 0
-0.0466149 -0.0255815 0.998585 0
-0.0494 -0.0247435 0.998473 0
-0.0525837 -0.0243139 0.99832 0
-0.0550973 -0.0245285 0.99818 0
-0.0553337 -0.0289114 0.998049 0
-0.0551323 -0.0234036 0.998205 0
-0.0593352 -0.0221867 0.997992 0
-0.0610055 -0.0248497 0.997828 0
-0.0717674 -0.0260423 0.997081 0
0.178881 -0.0379548 0.983138 0
0.16994 -0.0328675 0.984906 0
0.162947 -0.0257875 0.986298 0.0072776
0.15546 -0.0203275 0.987633 0.0135669
0.147615 -0.019197 0.988859 0.0181665
0.136123 -0.0163853 0.990556 0.0199114
0.121503 -0.0152498 0.992474 0.0199108
0.0987246 -0.011689 0.995046 0.0194802
0.093785 -0.0123832 0.995516 0.0197463
0.0822048 -0.0147804 0.996506 0.00830589
0.00317335 -0.028894 0.999577 0.00110386
0.00113426 -0.0317938 0.999494 0.000867862
0.00102665 -0.0309411 0.999521 0
-0.0103105 -0.0266524 0.999592 0.000590116
-0.016998 -0.0225037 0.999602 0.00261184
-0.0211468 -0.024387 0.999479 0
-0.0276362 -0.0255673 0.999291 0
-0.0287362 -0.0213039 0.99936 0
-0.0318494 -0.0246222 0.999189 0
-0.0365139 -0.0318365 0.998826 0
-0.0433926 -0.0273232 0.998684 0
-0.0446593 -0.0252622 0.998683 0
-0.0456868 -0.0187156 0.99878 0
-0.0502481 -0.0205267 0.998526 0
-0.0509555 -0.0182078 0.998535 0.0003065
-0.0513038 -0.0208226 0.998466 0.00236821
-0.0558729 -0.0300951 0.997984 0.00265922
-0.0565235 -0.0271155 0.998033 0
-0.0557103 -0.027797 0.99806 0
-0.0577122 -0.0247599 0.998026 0
-0.0639159 -0.0196031 0.997763 0
0.18197 -0.0382235 0.982561 0
0.178625 -0.0415864 0.983038 0
0.173461 -0.0316584 0.984332 0.000506548
0.165646 -0.0244261 0.985883 0.00583188
0.159121 -0.0261566 0.986913 0.011687
0.150052 -0.0158037 0.988552 0.0125422
0.134079 -0.0129992 0.990885 0.0196464
0.120626 -0.0151073 0.992583 0.0210272
0.101871 -0.0191779 0.994613 0.0191981
0.0943751 -0.0209639 0.995316 0.016862
0.0827242 -0.0237108 0.99629 0.00950965
0.0656847 -0.0212385 0.997614 0.0122962
0.0487992 -0.0289097 0.99839 0.0100414
0.00687202 -0.0282769 0.999577 0.00200484
0.00370255 -0.0271501 0.999625 0
-0.00160626 -0.0289154 0.999581 0
-0.0113481 -0.0317118 0.999433 0
-0.0139921 -0.026106 0.999561 0
-0.0215033 -0.0240787 0.999479 0
-0.0276296 -0.0203941 0.99941 0
-0.0271797 -0.0267744 0.999272 0
-0.0320729 -0.0270064 0.999121 0
-0.0346216 -0.031435 0.998906 0
-0.043283 -0.03286 0.998522 0
-0.0449466 -0.028399 0.998586 0
-0.0465062 -0.0213818 0.998689 0
-0.0481312 -0.0175341 0.998687 0
-0.0485542 -0.0118405 0.99875 0.00271211
-0.0500215 -0.0199591 0.998549 0.00177782
-0.0534802 -0.0251458 0.998252 0.00153667
-0.0548419 -0.0289546 0.998075 0
-0.0527468 -0.0298931 0.99816 0
-0.0587047 -0.0196377 0.998082 0
-0.061351 -0.0231531 0.997848 0
0.176035 -0.0323452 0.983852 0
0.173139 -0.027434 0.984515 0.00163798
0.165297 -0.0201193 0.986039 0.00732986
0.157765 -0.0197536 0.987279 0.0122863
0.152637 -0.0200339 0.988079 0.0110295
0.136365 -0.0116113 0.990591 0.0190102
0.124235 -0.0164062 0.992117 0.0201276
0.115363 -0.0159835 0.993195 0.0206824
0.099831 -0.0221684 0.994757 0.0153343
0.0831402 -0.0161496 0.996407 0.0140091
0.0643363 -0.0223382 0.997678 0.011958
0.0621781 -0.0253781 0.997742 0.0112168
0.0442327 -0.0216371 0.998787 0.0159286
0.0323742 -0.0218501 0.999237 0.0056501
0.00969465 -0.028478 0.999547 0.0021611
0.00504069 -0.0327456 0.999451 0
-0.0020393 -0.027015 0.999633 0
-0.00329835 -0.0256465 0.999666 0.00217548
-0.0111185 -0.0259657 0.999601 0
-0.0158774 -0.0267796 0.999515 0.00101995
-0.0226208 -0.0213989 0.999515 0.000648223
-0.0284203 -0.0220458 0.999353 0
-0.0295118 -0.026667 0.999209 0
-0.0321722 -0.0248707 0.999173 0
-0.0343026 -0.0249766 0.999099 0
-0.0408415 -0.0337597 0.998595 0
-0.0445091 -0.0242868 0.998714 0
-0.0448903 -0.0221467 0.998746 0
-0.0446881 -0.0233127 0.998729 0
-0.0502964 -0.0162068 0.998603 0
-0.0511197 -0.0178748 0.998533 0
-0.0548802 -0.019438 0.998304 0.00179477
-0.0565707 -0.024369 0.998101 0
-0.0547815 -0.0209295 0.998279 0
-0.0574339 -0.025081 0.998034 0
-0.0605096 -0.0262582 0.997822 0
0.178829 -0.0353729 0.983244 0
0.173353 -0.032471 0.984324 0.00260414
0.161073 -0.0242545 0.986644 0.00758856
0.157832 -0.0224804 0.98721 0.0117674
0.150457 -0.0181056 0.988451 0.0148646
0.137935 -0.0201638 0.990236 0.0174902
0.131099 -0.0165931 0.99123 0.0214321
0.117371 -0.0179479 0.992926 0.0192244
0.100517 -0.0149503 0.994823 0.0175293
0.0816558 -0.0205775 0.996448 0.0134209
0.0594583 -0.0285175 0.997823 0.0124647
0.0328488 -0.0279546 0.999069 0.0116852
0.0113594 -0.0289513 0.999516 0.00158213
0.00653092 -0.036227 0.999322 0
0.00267815 -0.0325323 0.999467 0
-0.00416057 -0.0312585 0.999503 0.00103966
-0.0158152 -0.0293442 0.999444 0.00394155
-0.0173807 -0.0305432 0.999382 0.00445417
-0.0235165 -0.0261115 0.999382 0.00544513
-0.0277326 -0.0225419 0.999361 0
-0.0313186 -0.0219784 0.999268 0
-0.0324006 -0.0182587 0.999308 0
-0.0360098 -0.0185154 0.99918 0
-0.0400347 -0.0270372 0.998832 0
-0.0418205 -0.0228103 0.998865 0
-0.0446116 -0.0214409 0.998774 0
-0.0465398 -0.0200994 0.998714 0
-0.0476412 -0.0230437 0.998599 0
-0.0508896 -0.0188304 0.998527 0.000672177
-0.0541103 -0.0246758 0.99823 0
-0.057504 -0.0235471 0.998068 0
-0.0552314 -0.0237139 0.998192 0
-0.0567292 -0.0308623 0.997912 0
-0.0582863 -0.0215407 0.998067 0
0.179541 -0.0346811 0.983139 0.00133573
0.177431 -0.0338383 0.983551 0.00769207
0.165415 -0.0264333 0.98587 0.0111961
0.158484 -0.0255996 0.98703 0.00995798
0.149529 -0.0252367 0.988435 0.0123737
0.143477 -0.0233851 0.989377 0.0128138
0.134128 -0.0214435 0.990732 0.0172961
0.119099 -0.0206987 0.992667 0.0156812
0.101757 -0.0237717 0.994525 0.0127942
0.0812484 -0.0220926 0.996449 0.00906417
0.0670758 -0.0271377 0.997379 0.00987602
0.0607582 -0.0291772 0.997726 0.0109415
0.0441133 -0.0326 0.998495 0.00975815
0.0315159 -0.0304328 0.99904 0.0107567
0.0109476 -0.028764 0.999526 0.00158261
0.00975901 -0.0333323 0.999397 0.00176436
0.00546173 -0.0347284 0.999382 0.000285863
-0.00382051 -0.0304837 0.999528 0.00800327
-0.0145205 -0.0261682 0.999552 0.00555582
-0.020257 -0.0261772 0.999452 0.00692218
-0.0247615 -0.0227034 0.999436 0.0082183
-0.0295662 -0.0252155 0.999245 0
-0.0328742 -0.0256004 0.999132 0.000597049
-0.0325173 -0.0305391 0.999004 0
-0.0330232 -0.0267155 0.999098 0
-0.0410691 -0.0266579 0.998801 0
-0.0422139 -0.0229419 0.998845 0
-0.0446765 -0.0230531 0.998735 0
-0.045815 -0.0291057 0.998526 0
-0.0486913 -0.0204602 0.998604 0
-0.0508352 -0.0186892 0.998532 0
-0.05279 -0.0198094 0.998409 0
-0.0566413 -0.0272397 0.998023 0
-0.0557758 -0.0274676 0.998065 0
-0.0617975 -0.0201887 0.997885 0
0.174764 -0.0301559 0.984148 0.00345721
0.164376 -0.028495 0.985986 0.00820972
0.161862 -0.034677 0.986204 0.00789001
0.1529 -0.0370482 0.987547 0.00490915
0.143138 -0.0271739 0.98933 0.00962877
0.132778 -0.0257035 0.990812 0.00945084
0.120612 -0.0319861 0.992184 0.00937094
0.106264 -0.0234139 0.994062 0.00866039
0.0826315 -0.0219074 0.996339 0.0100622
0.0645383 -0.0272858 0.997542 0.0134008
0.0570613 -0.0267024 0.998014 0.0114427
0.0419457 -0.0276313 0.998738 0.0108113
0.03328 -0.0283733 0.999043 0.012082
0.0206767 -0.0285421 0.999379 0.00510455
0.0110026 -0.0217695 0.999702 0.00259721
0.00399724 -0.0312832 0.999503 0.00482474
0.000230496 -0.028513 0.999593 0.00569753
-0.00660486 -0.0272167 0.999608 0.0116516
-0.0155507 -0.0198531 0.999682 0.00650887
-0.0201972 -0.0216586 0.999561 0.00793851
-0.0259915 -0.0189945 0.999482 0.00951492
-0.0309706 -0.0281504 0.999124 0.000616375
-0.0331553 -0.0199062 0.999252 0.00173446
-0.034577 -0.0274497 0.999025 0
-0.0361018 -0.0237763 0.999065 0
-0.0432234 -0.0239933 0.998777 0
-0.0454001 -0.0239214 0.998682 0
-0.0424247 -0.0271505 0.998731 0
-0.0441672 -0.0312712 0.998535 0
-0.0484977 -0.0235192 0.998546 0
-0.0485336 -0.0248217 0.998513 0
-0.0563102 -0.0300301 0.997962 0
-0.0567212 -0.021604 0.998156 0
-0.062801 -0.0230722 0.997759 0
0.176183 -0.0300421 0.983899 0.00247649
0.173141 -0.0276428 0.984509 0.00377061
0.165356 -0.0302845 0.985769 0.00462474
0.160613 -0.0307836 0.986537 0.00403295
0.15258 -0.0352993 0.98766 0.00706678
0.142879 -0.0340554 0.989154 0.0047853
0.130104 -0.0338753 0.990921 0.00623254
0.117208 -0.0263649 0.992757 0.00875336
0.1054 -0.0258772 0.994093 0.0089563
0.0878704 -0.0224364 0.995879 0.010023
0.0672528 -0.0334554 0.997175 0.00751505
0.0578514 -0.0313309 0.997833 0.00930114
0.0516369 -0.0317037 0.998163 0.00772471
0.0385104 -0.0319 0.998749 0.00735129
0.0179205 -0.0279642 0.999448 0.00841661
0.00878847 -0.0244644 0.999662 0.00915446
0.00485836 -0.0246019 0.999686 0.00507238
-0.00288957 -0.0202272 0.999791 0.00767502
-0.00666339 -0.0202846 0.999772 0.0098359
-0.0132119 -0.0212765 0.999686 0.00880846
-0.0211012 -0.0209727 0.999557 0.0113217
-0.0231396 -0.0228839 0.99947 0.00454047
-0.0313901 -0.0186321 0.999334 0.00594049
-0.0359301 -0.0124365 0.999277 0.00630156
-0.0352656 -0.0194187 0.999189 0.00244278
-0.0395199 -0.0222527 0.998971 0
-0.0430906 -0.0314587 0.998576 0
-0.0431595 -0.0272466 0.998697 0
-0.0408879 -0.0275157 0.998785 0
-0.0444954 -0.0372121 0.998316 0
-0.0467536 -0.031691 0.998404 0
-0.0491599 -0.0203142 0.998584 0
-0.0548399 -0.0308457 0.998019 0
-0.0565069 -0.0226769 0.998145 0
-0.0637301 -0.0181964 0.997801 0
-0.0696354 -0.0199774 0.997372 0.004193
0.17517 -0.0276533 0.98415 0.00438716
0.163934 -0.0226183 0.986212 0.00134304
0.159427 -0.0250557 0.986892 0.00149075
0.149002 -0.0279341 0.988442 0.00375988
0.140112 -0.0326233 0.989598 0.00709224
0.130822 -0.0367625 0.990724 0.00494851
0.118477 -0.0354115 0.992325 0.00641032
0.103583 -0.026757 0.994261 0.0110342
0.085965 -0.0325323 0.995767 0.00687598
0.0655228 -0.0324419 0.997324 0.00731345
0.0596375 -0.0332474 0.997666 0.00901519
0.0489937 -0.0325831 0.998267 0.00920788
0.0408947 -0.0303005 0.998704 0.00847866
0.0161632 -0.0253684 0.999547 0.0123144
0.00855206 -0.0238048 0.99968 0.00971321
0.00217355 -0.0226963 0.99974 0.0116106
-0.00149026 -0.0174006 0.999848 0.0111118
-0.00514395 -0.0224636 0.999734 0.0105424
-0.0132011 -0.0230168 0.999648 0.0124496
-0.0211494 -0.020572 0.999565 0.0121061
-0.0261153 -0.0242886 0.999364 0.00792471
-0.0322577 -0.0178885 0.99932 0.00586142
-0.0340567 -0.0181956 0.999254 0.00606519
-0.0367036 -0.0180825 0.999163 0.0032741
-0.0405855 -0.0243931 0.998878 0
-0.0419358 -0.0310906 0.998636 0
-0.0432719 -0.0304844 0.998598 0
-0.0418478 -0.0266522 0.998768 0
-0.044112 -0.0345086 0.99843 0
-0.0475703 -0.0325693 0.998337 0
-0.0500305 -0.026555 0.998395 0
-0.0543441 -0.0243264 0.998226 0
-0.0579329 -0.0171295 0.998174 0
-0.0655822 -0.0189658 0.997667 0.00221895
0.173675 -0.0280811 0.984403 0.00413801
0.172438 -0.0277569 0.984629 0.00676558
0.162048 -0.0297194 0.986335 0.0011401
0.159449 -0.0271603 0.986832 0.00117968
0.146822 -0.0286233 0.988749 0.00456953
0.138866 -0.039243 0.989533 0.00521891
0.129482 -0.0397217 0.990786 0.00906435
0.117585 -0.0333425 0.992503 0.00152603
0.102272 -0.030251 0.994296 0.00399685
0.0833921 -0.0406708 0.995687 0.00437742
0.0682852 -0.0361386 0.997011 0.00461449
0.0573211 -0.030758 0.997882 0.00458967
0.0482125 -0.0341236 0.998254 0.00700706
0.0404501 -0.0342379 0.998595 0.0061657
0.0328467 -0.0353129 0.998836 0.0021195
0.0146902 -0.024488 0.999592 0.00733721
0.00662338 -0.0228454 0.999717 0.0113427
0.00448992 -0.0246051 0.999687 0.01055
-0.00238245 -0.0227193 0.999739 0.00941402
-0.0055225 -0.0267025 0.999628 0.0114618
-0.0145143 -0.0242708 0.9996 0.00841864
-0.0188985 -0.0222353 0.999574 0.0100226
-0.0241948 -0.0234345 0.999433 0.00670741
-0.0307022 -0.0250081 0.999216 0.00691241
-0.0358969 -0.0156594 0.999233 0.0091776
-0.0361749 -0.0169906 0.999201 0.00515639
-0.0408036 -0.02129 0.99894 0.001298
-0.0400098 -0.0255859 0.998872 0
-0.0416244 -0.0288137 0.998718 0
-0.0407716 -0.0322259 0.998649 0
-0.0455209 -0.030105 0.99851 0
-0.0488192 -0.024343 0.998511 0
-0.0485824 -0.0339351 0.998243 0
-0.0637621 -0.0248994 0.997654 0.00405598
0.159326 -0.0353216 0.986594 0.00273924
0.152451 -0.0289795 0.987886 0.00597614
0.145322 -0.0301057 0.988926 0.00247514
0.138255 -0.0377147 0.989678 0.00281591
0.129699 -0.0407958 0.990714 0.00256586
0.114405 -0.0377539 0.992716 0.00426722
0.10143 -0.0355432 0.994208 0.00205399
0.081718 -0.0376188 0.995945 0.00399075
0.0700138 -0.0369359 0.996862 0
0.0620903 -0.0353528 0.997444 0.00258213
0.0532056 -0.0294847 0.998148 0.00396706
0.0407032 -0.0272165 0.998801 0.00513001
0.0315085 -0.0294576 0.999069 0.000949867
0.0141666 -0.0247714 0.999593 0.0038268
0.0100741 -0.0290264 0.999528 0.0074937
0.00609496 -0.0249836 0.999669 0.00675007
-0.00118402 -0.0274431 0.999623 0.0065666
-0.00514695 -0.0272934 0.999614 0.00570271
-0.015756 -0.0198441 0.999679 0.00858016
-0.0166104 -0.0218955 0.999622 0.0077877
-0.0227325 -0.0274212 0.999365 0.00619438
-0.0306869 -0.0204709 0.999319 0.00610781
-0.035039 -0.0187612 0.99921 0.00612328
-0.0339953 -0.0183913 0.999253 0.00382062
-0.0389562 -0.0205775 0.999029 0.00202457
-0.0395413 -0.0245298 0.998917 0
-0.0407314 -0.0238045 0.998887 0
-0.0443358 -0.0235958 0.998738 0
-0.0449017 -0.0290963 0.998568 0
-0.0457321 -0.0259442 0.998617 0
-0.0484894 -0.0347156 0.99822 0
0.159635 -0.0334887 0.986608 0.00240355
0.152584 -0.0296152 0.987847 0.005904
0.148709 -0.0356693 0.988237 0.000474041
0.138877 -0.0373665 0.989604 0
0.131117 -0.0372245 0.990668 0
0.117993 -0.0344384 0.992417 0.00221104
0.10238 -0.0331189 0.994194 0.00219234
0.0861093 -0.0431813 0.995349 0
0.0699916 -0.032417 0.997021 0
0.0599381 -0.0353776 0.997575 0.0013159
0.0542937 -0.0371655 0.997833 0
0.0439512 -0.0341698 0.998449 0
0.0335863 -0.0284132 0.999032 0
0.0174116 -0.0334414 0.999289 0
0.0102518 -0.031417 0.999454 0.00246582
0.00962042 -0.0263849 0.999606 0.0024176
0.000726685 -0.0241232 0.999709 0.00149678
-0.00377058 -0.0277599 0.999608 0.00458275
-0.0123172 -0.0260062 0.999586 0.00694979
-0.0149277 -0.0244117 0.999591 0.00376637
-0.021502 -0.0294711 0.999334 0.00430517
-0.0291107 -0.0226398 0.99932 0.0041728
-0.0320693 -0.0225494 0.999231 0.00705707
-0.0321352 -0.0188787 0.999305 0.00753777
-0.0363398 -0.0206321 0.999126 0.000835558
-0.0398639 -0.022686 0.998948 0
-0.0396371 -0.0234479 0.998939 0
-0.0430567 -0.0232235 0.998803 0
-0.0447046 -0.0280822 0.998605 0.00110347
-0.0451277 -0.0306688 0.99851 0
-0.0471615 -0.033709 0.998318 0.00193218
0.150565 -0.0322833 0.988073 0.00572334
0.146793 -0.0355785 0.988527 0.00402907
0.138415 -0.0298333 0.989925 0.000310863
0.131021 -0.0287053 0.990964 0.000409453
0.121052 -0.0305115 0.992177 0.00300787
0.105748 -0.0314723 0.993895 0.00429426
0.0895608 -0.0352321 0.995358 0
0.0714486 -0.0341773 0.996859 0
0.0623701 -0.0404904 0.997231 0
0.0553283 -0.0382308 0.997736 0
0.0465171 -0.0390553 0.998154 0
0.0365282 -0.0324544 0.998806 0
0.0205807 -0.0340104 0.99921 0
0.0157204 -0.028277 0.999476 0.00186803
0.0117738 -0.0263491 0.999583 0.00069183
0.00428476 -0.0255615 0.999664 0.00111794
-0.00149362 -0.0341039 0.999417 0.00278459
-0.0101311 -0.0304067 0.999486 0.00567118
-0.0154993 -0.0295695 0.999443 0.0044058
-0.0209844 -0.0271453 0.999411 0.00699824
-0.0303779 -0.0268846 0.999177 0.00330835
-0.0303044 -0.0236401 0.999261 0.0061376
-0.0315726 -0.0211078 0.999279 0.00334775
-0.03153 -0.0189115 0.999324 0.000186052
-0.0412819 -0.0236328 0.998868 0.00409621
-0.0401436 -0.022926 0.998931 0
-0.0444347 -0.0303084 0.998552 0
-0.0477194 -0.0236416 0.998581 0.00468081
-0.0497476 -0.0221218 0.998517 0.00610124
0.149526 -0.0271628 0.988385 0.00798081
0.144497 -0.0276355 0.989119 0.00489519
0.139893 -0.0351433 0.989543 0.0021838
0.129523 -0.03446 0.990977 0.00308686
0.118056 -0.0394066 0.992225 0.00234458
0.104363 -0.0351936 0.993916 0.00289555
0.088332 -0.0366437 0.995417 0
0.0767509 -0.0428531 0.996129 0
0.0649657 -0.0439259 0.99692 0
0.0568972 -0.0420427 0.997494 0
0.0453989 -0.0450994 0.99795 0
0.0393996 -0.0417442 0.998351 0
0.0198008 -0.0405028 0.998983 0
0.0154011 -0.0338412 0.999309 0
0.012336 -0.0291513 0.999499 0
0.00226668 -0.0328052 0.999459 0
0.00081464 -0.0269551 0.999636 1.31687e-05
-0.00842182 -0.0327687 0.999427 0
-0.0129222 -0.0315078 0.99942 0
-0.0150294 -0.0306519 0.999417 0
-0.0222681 -0.0288021 0.999337 0.0039873
-0.0278907 -0.0196899 0.999417 0.00481697
-0.030435 -0.0230558 0.999271 0.00535631
-0.0336502 -0.0185158 0.999262 0.00643522
-0.0332873 -0.0201448 0.999243 0.00326553
-0.0435759 -0.0239302 0.998764 0.000352265
-0.0446785 -0.022087 0.998757 0.00144278
-0.0456148 -0.0261299 0.998617 0.00150163
-0.0483803 -0.0239413 0.998542 0.00640494
-0.0496552 -0.0246326 0.998463 0.00690438
0.159112 -0.0369894 0.986567 0.00389689
0.150702 -0.0369954 0.987887 0.00447225
0.140886 -0.0349076 0.98941 0.00108598
0.130965 -0.040245 0.99057 0.00449449
0.11179 -0.0399178 0.99293 0.0045329
0.102766 -0.0354814 0.994073 0.000844489
0.0876309 -0.0379481 0.99543 0.000717089
0.0749939 -0.0459432 0.996125 0
0.0681892 -0.0394024 0.996894 0
0.0621839 -0.0393819 0.997287 0
0.0506927 -0.0463391 0.997639 0
0.0436013 -0.0459717 0.997991 0
0.0241783 -0.0424819 0.998805 0
0.0215581 -0.0385538 0.999024 0
0.0147804 -0.0331525 0.999341 0
0.00471596 -0.0314305 0.999495 0
-9.07581e-05 -0.0322648 0.999479 0
-0.00747237 -0.0323314 0.999449 0
-0.0116325 -0.0310901 0.999449 0
-0.0146638 -0.0346484 0.999292 0
-0.0217053 -0.0303088 0.999305 0.0025552
-0.0255794 -0.0241516 0.999381 0.00437587
-0.0304696 -0.0211825 0.999311 0.00673515
-0.0330183 -0.0191632 0.999271 0.00900096
-0.0356364 -0.017963 0.999203 0.00522739
-0.0438718 -0.0180395 0.998874 0.0012248
-0.0442486 -0.0222938 0.998772 0.00237344
-0.0435064 -0.0262214 0.998709 0.001014
-0.0472312 -0.024985 0.998572 0.00567464
0.156509 -0.0397191 0.986878 0.00016123
0.149584 -0.0383591 0.988005 0.00212929
0.138044 -0.0356636 0.989784 0.00536236
0.127631 -0.0388557 0.99106 0.00626293
0.117186 -0.0416309 0.992237 0.0044519
0.102809 -0.0390973 0.993932 0.00203226
0.0870743 -0.0441801 0.995222 0
0.0748275 -0.0465697 0.996108 0
0.0701904 -0.048145 0.996371 0
