# .PCD v0.7 - Point Cloud Data file format
VERSION 0.7
FIELDS x y z
SIZE 4 4 4
TYPE F F F
COUNT 1 1 1
WIDTH 1592
HEIGHT 1
VIEWPOINT 0 0 0 1 0 0 0
POINTS 1592
DATA ascii
-0.104718 0.162104 -0.23667
-0.104714 0.16217899 -0.23669399
-0.104711 0.16225301 -0.236711
-0.104707 0.16233 -0.236729
-0.104703 0.162404 -0.23675101
-0.104699 0.162479 -0.236779
-0.104694 0.162553 -0.236811
-0.10469 0.16263001 -0.236835
-0.104687 0.16270401 -0.23684201
-0.104684 0.16277801 -0.236848
-0.10468 0.162854 -0.236866
-0.104676 0.162929 -0.23688599
-0.104672 0.16300499 -0.236912
-0.104667 0.16308001 -0.23695201
-0.104663 0.163155 -0.236976
-0.10466 0.163231 -0.23698699
-0.104656 0.163305 -0.237005
-0.104652 0.16338 -0.237031
-0.104648 0.16345599 -0.237051
-0.104644 0.16353101 -0.237069
-0.10464 0.163605 -0.237091
-0.104636 0.163682 -0.237113
-0.104632 0.163756 -0.23714
-0.104628 0.16383301 -0.237174
-0.104623 0.163908 -0.23720799
-0.104619 0.163982 -0.237234
-0.104615 0.164059 -0.237252
-0.104611 0.164133 -0.23728
-0.104606 0.16421001 -0.23732001
-0.104601 0.164285 -0.23737
-0.104596 0.164362 -0.237405
-0.104592 0.164437 -0.237445
-0.104586 0.16451401 -0.23749299
-0.104581 0.164589 -0.237543
-0.104576 0.164664 -0.237589
-0.10457 0.16474099 -0.23764899
-0.104564 0.16481701 -0.23771299
-0.104558 0.164894 -0.237781
-0.104552 0.16497 -0.237845
-0.104547 0.165047 -0.237891
-0.104539 0.165123 -0.23799901
-0.10453 0.16520201 -0.238111
-0.104523 0.165278 -0.238203
-0.105263 0.144931 -0.23714501
-0.105263 0.14501201 -0.23708899
-0.105262 0.14509299 -0.237039
-0.105262 0.14517701 -0.23697101
-0.105261 0.14525799 -0.236919
-0.10526 0.145337 -0.236885
-0.105259 0.14541601 -0.236849
-0.105258 0.14549699 -0.236797
-0.105257 0.145576 -0.236761
-0.105255 0.14565501 -0.236726
-0.105254 0.14573599 -0.23668
-0.105253 0.145814 -0.236654
-0.10525 0.145891 -0.23663799
-0.105248 0.145969 -0.236618
-0.105247 0.146046 -0.236586
-0.105245 0.146125 -0.236562
-0.105243 0.146201 -0.236544
-0.105241 0.14627799 -0.236524
-0.105239 0.146356 -0.23650099
-0.105237 0.146433 -0.236479
-0.105235 0.146511 -0.23645701
-0.105233 0.146588 -0.23643699
-0.105231 0.14666601 -0.236421
-0.105228 0.146742 -0.236407
-0.105227 0.146819 -0.236377
-0.105225 0.146898 -0.236349
-0.105223 0.14697599 -0.23632599
-0.105221 0.147053 -0.236304
-0.105219 0.147131 -0.23628201
-0.105217 0.14720599 -0.23626
-0.105215 0.147284 -0.23624399
-0.105213 0.147361 -0.236222
-0.105212 0.147438 -0.236194
-0.105209 0.147516 -0.236175
-0.105207 0.14759199 -0.236165
-0.105205 0.14766701 -0.236149
-0.105203 0.147745 -0.236121
-0.105201 0.14782199 -0.236101
-0.105199 0.147898 -0.23608901
-0.105197 0.147975 -0.236059
-0.105195 0.14805301 -0.23604
-0.105192 0.148128 -0.23603401
-0.10519 0.148204 -0.236018
-0.105188 0.14828201 -0.23600399
-0.105185 0.14835601 -0.23599599
-0.105183 0.148431 -0.23599
-0.10518 0.148507 -0.235982
-0.105178 0.14858299 -0.235967
-0.105176 0.14865801 -0.235957
-0.105173 0.148734 -0.23595101
-0.10517 0.14881 -0.23595101
-0.105167 0.148884 -0.235947
-0.105165 0.14895999 -0.235939
-0.105162 0.14903399 -0.235934
-0.105159 0.14911 -0.235936
-0.105157 0.149186 -0.235928
-0.105154 0.149261 -0.23591401
-0.105151 0.149335 -0.235918
-0.105148 0.149409 -0.23592401
-0.105145 0.149483 -0.235927
-0.105142 0.14955901 -0.235927
-0.10514 0.14963301 -0.235921
-0.105137 0.149709 -0.235907
-0.105134 0.149785 -0.235909
-0.105131 0.149857 -0.23592
-0.105128 0.149933 -0.23592
-0.105126 0.15000901 -0.23591
-0.105123 0.15008301 -0.235898
-0.10512 0.150158 -0.235898
-0.105117 0.150233 -0.235912
-0.105113 0.150305 -0.235925
-0.105111 0.150381 -0.235925
-0.105108 0.150455 -0.235925
-0.105105 0.150529 -0.235929
-0.105102 0.15060499 -0.235929
-0.105099 0.15067901 -0.235925
-0.105096 0.15075301 -0.235936
-0.105092 0.15082701 -0.235944
-0.10509 0.150901 -0.235944
-0.105087 0.150977 -0.235938
-0.105084 0.151053 -0.235938
-0.105081 0.151127 -0.235944
-0.105077 0.151199 -0.235957
-0.105074 0.15127499 -0.235963
-0.105071 0.15134899 -0.235965
-0.105068 0.15142301 -0.235967
-0.105065 0.15149701 -0.23596901
-0.105062 0.151572 -0.235972
-0.105059 0.151646 -0.235982
-0.105056 0.15172 -0.235994
-0.105052 0.151794 -0.235998
-0.10505 0.15187 -0.235994
-0.105047 0.151944 -0.235992
-0.105044 0.15202001 -0.23599701
-0.105041 0.15209401 -0.236001
-0.105037 0.15216801 -0.236011
-0.105034 0.152242 -0.236019
-0.105031 0.152316 -0.236019
-0.105029 0.152392 -0.23601501
-0.105025 0.152466 -0.236022
-0.105022 0.15254 -0.23602401
-0.105019 0.152614 -0.23603
-0.105016 0.152688 -0.23603401
-0.105013 0.15276401 -0.23603401
-0.10501 0.15283801 -0.236035
-0.105007 0.152913 -0.236045
-0.105004 0.152987 -0.236053
-0.105001 0.153061 -0.236055
-0.104998 0.153137 -0.236055
-0.104995 0.153211 -0.236055
-0.104992 0.153285 -0.23606201
-0.104989 0.153359 -0.236066
-0.104986 0.15343501 -0.236068
-0.104983 0.15350901 -0.23607001
-0.104979 0.15358301 -0.23608001
-0.104976 0.153657 -0.23609801
-0.104973 0.153732 -0.236105
-0.10497 0.153806 -0.23610701
-0.104967 0.153882 -0.23610701
-0.104964 0.153955 -0.236105
-0.104961 0.15403099 -0.23609699
-0.104959 0.15410499 -0.23609599
-0.104955 0.154181 -0.2361
-0.104952 0.154255 -0.23610599
-0.104949 0.154329 -0.23611
-0.104946 0.154405 -0.23611
-0.104943 0.154479 -0.23611
-0.10494 0.154553 -0.23611701
-0.104937 0.15462901 -0.23611701
-0.104934 0.15470301 -0.23611499
-0.104932 0.15477701 -0.23611499
-0.104929 0.154853 -0.23611499
-0.104926 0.154927 -0.236111
-0.104923 0.155003 -0.23611
-0.10492 0.155077 -0.236118
-0.104917 0.15515099 -0.23612601
-0.104914 0.15522499 -0.236128
-0.104911 0.15529899 -0.23612601
-0.104908 0.155375 -0.23612601
-0.104905 0.155449 -0.236129
-0.104902 0.155525 -0.236123
-0.1049 0.15560099 -0.23611701
-0.104897 0.15567499 -0.236121
-0.104893 0.15574899 -0.236127
-0.104891 0.15582301 -0.236128
-0.104888 0.155899 -0.23613
-0.104885 0.155973 -0.236132
-0.104882 0.156047 -0.236132
-0.104879 0.156123 -0.236128
-0.104876 0.15619899 -0.23612399
-0.104873 0.15627301 -0.236127
-0.10487 0.15634701 -0.23613501
-0.104867 0.15642101 -0.236141
-0.104864 0.156497 -0.236139
-0.104861 0.156571 -0.23613299
-0.104858 0.156647 -0.23613501
-0.104855 0.156721 -0.236138
-0.104852 0.156795 -0.23614401
-0.104849 0.15687101 -0.236148
-0.104846 0.15694501 -0.23615
-0.104843 0.157021 -0.236148
-0.10484 0.157095 -0.236148
-0.104838 0.157169 -0.23614299
-0.104835 0.157245 -0.236147
-0.104831 0.15731899 -0.236157
-0.104828 0.15739299 -0.23616099
-0.104826 0.157469 -0.236155
-0.104823 0.157543 -0.236147
-0.10482 0.157619 -0.236146
-0.104817 0.157693 -0.236148
-0.104815 0.15776899 -0.23614401
-0.104812 0.15784299 -0.23614401
-0.104809 0.15791699 -0.23615
-0.104806 0.157993 -0.236149
-0.104803 0.158067 -0.236149
-0.104799 0.158141 -0.23616099
-0.104796 0.158215 -0.236165
-0.104793 0.158291 -0.236165
-0.10479 0.158365 -0.236173
-0.104787 0.158439 -0.236186
-0.104784 0.15851501 -0.236184
-0.104781 0.15858901 -0.236176
-0.104779 0.158663 -0.236176
-0.104775 0.158739 -0.236184
-0.104772 0.158813 -0.236184
-0.104769 0.158889 -0.236185
-0.104766 0.15896299 -0.236193
-0.104763 0.15903699 -0.236191
-0.104761 0.159113 -0.236185
-0.104758 0.159187 -0.23618899
-0.104754 0.159261 -0.23619901
-0.104751 0.159335 -0.236206
-0.104748 0.159411 -0.23621
-0.104745 0.159485 -0.236214
-0.104742 0.159559 -0.23620801
-0.10474 0.15963501 -0.236202
-0.104737 0.15970901 -0.236205
-0.104733 0.159785 -0.236215
-0.10473 0.15986 -0.236231
-0.104726 0.159934 -0.236241
-0.104723 0.160008 -0.236247
-0.10472 0.16008399 -0.23625299
-0.104717 0.16015799 -0.236259
-0.104713 0.16023301 -0.236276
-0.104709 0.16030701 -0.236292
-0.104706 0.160383 -0.23629799
-0.104703 0.160457 -0.23630799
-0.104699 0.160531 -0.236322
-0.104696 0.160606 -0.23634
-0.104692 0.16068 -0.236361
-0.104688 0.16075499 -0.236375
-0.104685 0.16082899 -0.236379
-0.104682 0.16090301 -0.236395
-0.104678 0.160979 -0.236415
-0.104674 0.161054 -0.236433
-0.104671 0.161128 -0.23643801
-0.104667 0.161202 -0.23645
-0.104664 0.161276 -0.236468
-0.10466 0.16135301 -0.23649
-0.104655 0.16142599 -0.236524
-0.104651 0.161502 -0.236542
-0.104648 0.161576 -0.23654699
-0.104645 0.16165 -0.236561
-0.104641 0.161727 -0.236579
-0.104638 0.161801 -0.23658501
-0.104634 0.16187499 -0.236599
-0.10463 0.16195001 -0.23662899
-0.104626 0.16202401 -0.23665
-0.104623 0.1621 -0.236664
-0.104619 0.162175 -0.23668
-0.104615 0.162249 -0.236702
-0.104611 0.162324 -0.236734
-0.104607 0.16240001 -0.236756
-0.104604 0.16247401 -0.23675799
-0.1046 0.162551 -0.236771
-0.104596 0.162625 -0.236799
-0.104592 0.1627 -0.236821
-0.104588 0.162774 -0.236847
-0.104583 0.16285101 -0.236883
-0.104579 0.162926 -0.236913
-0.104575 0.163 -0.23694301
-0.104571 0.163075 -0.23695999
-0.104568 0.163151 -0.236968
-0.104564 0.16322701 -0.236974
-0.104561 0.16330101 -0.23698799
-0.104557 0.163376 -0.23700801
-0.104552 0.163452 -0.23704199
-0.104548 0.163527 -0.237068
-0.104544 0.163601 -0.23708899
-0.10454 0.16367801 -0.237119
-0.104536 0.163753 -0.237149
-0.104532 0.163829 -0.237175
-0.104527 0.163904 -0.237203
-0.104523 0.16397899 -0.23723701
-0.104519 0.164055 -0.23726299
-0.104515 0.16413 -0.237288
-0.10451 0.164206 -0.23732001
-0.104506 0.164281 -0.237352
-0.104501 0.164358 -0.237398
-0.104495 0.164433 -0.237444
-0.104491 0.16451 -0.237482
-0.104485 0.16458499 -0.237532
-0.104481 0.16466001 -0.237572
-0.104475 0.164737 -0.23762199
-0.104469 0.164812 -0.237684
-0.104463 0.16489001 -0.237757
-0.104457 0.164965 -0.23781499
-0.104452 0.165042 -0.237873
-0.104444 0.16511901 -0.237977
-0.104435 0.165197 -0.238093
-0.104429 0.165273 -0.238161
-0.105165 0.14484701 -0.237167
-0.105163 0.144926 -0.23713499
-0.105163 0.145009 -0.237073
-0.105164 0.14509501 -0.236981
-0.105163 0.145174 -0.23694099
-0.105162 0.145255 -0.236899
-0.105161 0.145336 -0.236853
-0.10516 0.14541499 -0.236809
-0.105159 0.145496 -0.236762
-0.105158 0.145577 -0.23672201
-0.105156 0.145652 -0.2367
-0.105153 0.145732 -0.236682
-0.105152 0.14580899 -0.23665
-0.10515 0.145886 -0.236624
-0.105149 0.14596599 -0.23659401
-0.105147 0.146043 -0.236568
-0.105145 0.146121 -0.23654599
-0.105143 0.1462 -0.23651899
-0.105142 0.146277 -0.236489
-0.105139 0.146355 -0.236469
-0.105137 0.14643 -0.236453
-0.105135 0.14650799 -0.236441
-0.105133 0.146584 -0.23642699
-0.105131 0.146661 -0.236403
-0.105129 0.14673901 -0.23638301
-0.105126 0.146814 -0.23637199
-0.105124 0.146892 -0.23635
-0.105123 0.146971 -0.236322
-0.105121 0.147047 -0.236302
-0.105119 0.14712401 -0.23628201
-0.105116 0.147202 -0.23626401
-0.105114 0.147277 -0.23625
-0.105112 0.14735299 -0.23623499
-0.105111 0.147434 -0.236191
-0.10511 0.147513 -0.236155
-0.105107 0.147589 -0.236137
-0.105105 0.147664 -0.236123
-0.105103 0.147742 -0.23610701
-0.105101 0.147818 -0.236095
-0.105098 0.147893 -0.23608001
-0.105097 0.147971 -0.236054
-0.105095 0.148048 -0.23603
-0.105093 0.14812499 -0.23600399
-0.105091 0.148203 -0.23598599
-0.105088 0.148277 -0.235982
-0.105086 0.148353 -0.235976
-0.105083 0.14842901 -0.235975
-0.10508 0.14850201 -0.235971
-0.105078 0.148578 -0.235957
-0.105075 0.148654 -0.23594899
-0.105073 0.14872999 -0.23594099
-0.10507 0.14880501 -0.23593099
-0.105067 0.148881 -0.235929
-0.105065 0.148955 -0.235918
-0.105063 0.149033 -0.235902
-0.10506 0.14910699 -0.235898
-0.105057 0.14918099 -0.235906
-0.105054 0.14925499 -0.23591
-0.105051 0.149331 -0.23590501
-0.105049 0.149406 -0.235897
-0.105046 0.149482 -0.235891
-0.105043 0.14955799 -0.235883
-0.105041 0.14963201 -0.235881
-0.105037 0.14970399 -0.235893
-0.105034 0.14978001 -0.235902
-0.105031 0.149854 -0.23590399
-0.105028 0.149928 -0.235906
-0.105025 0.150002 -0.235906
-0.105022 0.150076 -0.23591
-0.105019 0.150152 -0.235912
-0.105016 0.15022799 -0.23590501
-0.105014 0.150304 -0.23589499
-0.105011 0.150378 -0.235897
-0.105008 0.150452 -0.235899
-0.105005 0.150526 -0.235907
-0.105002 0.1506 -0.23591501
-0.104999 0.150674 -0.235916
-0.104996 0.15075 -0.235916
-0.104993 0.150824 -0.235916
-0.10499 0.15089799 -0.23592199
-0.104987 0.15097199 -0.235928
-0.104984 0.151048 -0.23593099
-0.10498 0.15112101 -0.235939
-0.104977 0.151195 -0.235953
-0.104974 0.151269 -0.23596101
-0.10497 0.151343 -0.235965
-0.104967 0.151419 -0.23596901
-0.104964 0.151493 -0.23597001
-0.104962 0.151567 -0.235964
-0.104959 0.15164299 -0.235962
-0.104956 0.15171701 -0.23597001
-0.104952 0.15179101 -0.23598599
-0.104949 0.15186401 -0.235999
-0.104946 0.15193801 -0.236007
-0.104943 0.152014 -0.236007
-0.10494 0.152088 -0.236007
-0.104937 0.152164 -0.23600499
-0.104934 0.152237 -0.23599701
-0.104932 0.15231299 -0.23598599
-0.104929 0.152389 -0.235984
-0.104926 0.15246101 -0.235994
-0.104922 0.15253501 -0.236008
-0.104919 0.15261 -0.23601601
-0.104916 0.152684 -0.236018
-0.104913 0.15276 -0.23601501
-0.104911 0.152835 -0.236013
-0.104908 0.152909 -0.236009
-0.104905 0.15298501 -0.235999
-0.104902 0.15305901 -0.236003
-0.104899 0.153133 -0.236012
-0.104896 0.153207 -0.23601601
-0.104893 0.153284 -0.23602401
-0.104889 0.153358 -0.23603199
-0.104886 0.15343 -0.23604199
-0.104883 0.153506 -0.23604999
-0.10488 0.15358 -0.236049
-0.104877 0.15365601 -0.236047
-0.104874 0.15373001 -0.23605099
-0.104871 0.153804 -0.23605099
-0.104868 0.15388 -0.23605099
-0.104865 0.153954 -0.236059
-0.104862 0.154028 -0.236064
-0.104859 0.154102 -0.236066
-0.104856 0.154176 -0.236072
-0.104853 0.15425199 -0.236068
-0.10485 0.154328 -0.236066
-0.104847 0.154402 -0.236074
-0.104844 0.154476 -0.236073
-0.104842 0.15455 -0.23607101
-0.104838 0.154626 -0.236075
-0.104835 0.1547 -0.236077
-0.104832 0.15477601 -0.23607901
-0.104829 0.15485001 -0.236085
-0.104826 0.15492401 -0.236092
-0.104823 0.154998 -0.23609599
-0.10482 0.155072 -0.236092
-0.104818 0.155148 -0.23608799
-0.104815 0.155222 -0.23608799
-0.104812 0.155296 -0.236093
-0.104808 0.15537199 -0.236103
-0.104805 0.15544599 -0.236109
-0.104803 0.155522 -0.236101
-0.1048 0.155596 -0.236091
-0.104797 0.155672 -0.23608901
-0.104794 0.155746 -0.236094
-0.104791 0.15582 -0.2361
-0.104788 0.15589599 -0.236094
-0.104786 0.15597001 -0.23609
-0.104782 0.15604401 -0.236102
-0.104779 0.15611801 -0.236118
-0.104776 0.156192 -0.236121
-0.104773 0.156268 -0.23611499
-0.10477 0.156344 -0.23611499
-0.104768 0.156418 -0.236109
-0.104765 0.15649401 -0.236095
-0.104762 0.15656801 -0.23609699
-0.104759 0.156644 -0.23611
-0.104755 0.156716 -0.23612
-0.104752 0.15679 -0.236128
-0.104749 0.156866 -0.236128
-0.104746 0.15694 -0.23613
-0.104743 0.15701599 -0.236131
-0.104741 0.15709201 -0.236121
-0.104738 0.157166 -0.23611499
-0.104736 0.157242 -0.236111
-0.104733 0.157316 -0.236105
-0.10473 0.157392 -0.236111
-0.104727 0.15746599 -0.236118
-0.104724 0.15753999 -0.236118
-0.104721 0.15761399 -0.236122
-0.104718 0.15769 -0.23612
-0.104715 0.157764 -0.236112
-0.104712 0.15784 -0.236114
-0.104709 0.157914 -0.236123
-0.104706 0.157988 -0.23613299
-0.104703 0.158062 -0.236137
-0.1047 0.15813801 -0.236137
-0.104697 0.15821201 -0.236137
-0.104694 0.15828601 -0.236137
-0.104691 0.158362 -0.23613
-0.104689 0.158435 -0.23612399
-0.104686 0.158511 -0.23612601
-0.104683 0.158585 -0.23612601
-0.10468 0.158659 -0.23612601
-0.104677 0.15873501 -0.23613
-0.104674 0.15881 -0.236137
-0.104671 0.158884 -0.236145
-0.104667 0.158958 -0.23615099
-0.104664 0.159034 -0.236157
-0.104661 0.159108 -0.23616099
-0.104658 0.159182 -0.236166
-0.104655 0.15925799 -0.23616999
-0.104652 0.15933201 -0.236176
-0.104649 0.15940601 -0.236176
-0.104646 0.159482 -0.23617999
-0.104642 0.159556 -0.23618799
-0.104639 0.159631 -0.236195
-0.104636 0.159705 -0.236203
-0.104633 0.159779 -0.236213
-0.104629 0.15985499 -0.236223
-0.104626 0.15992901 -0.236229
-0.104623 0.160005 -0.236233
-0.10462 0.160079 -0.23623601
-0.104618 0.160153 -0.236224
-0.104615 0.160229 -0.23622
-0.104611 0.160303 -0.236242
-0.104607 0.16037799 -0.23627
-0.104603 0.16045199 -0.236284
-0.1046 0.16052601 -0.236295
-0.104596 0.160601 -0.23630901
-0.104593 0.160675 -0.236329
-0.104589 0.160751 -0.236343
-0.104585 0.160826 -0.236361
-0.104582 0.1609 -0.236375
-0.104578 0.160974 -0.236388
-0.104574 0.16104899 -0.23641001
-0.10457 0.16112299 -0.23644
-0.104566 0.16119801 -0.236462
-0.104563 0.161272 -0.23647401
-0.104559 0.161348 -0.23648401
-0.104556 0.161422 -0.23649301
-0.104553 0.161497 -0.23650099
-0.104549 0.161571 -0.236523
-0.104545 0.16164599 -0.236543
-0.104541 0.161722 -0.23655701
-0.104537 0.161796 -0.23658299
-0.104533 0.161871 -0.236609
-0.10453 0.161945 -0.236624
-0.104526 0.16202 -0.236644
-0.104521 0.16209599 -0.23667
-0.104518 0.16217101 -0.236692
-0.104514 0.16224501 -0.236716
-0.10451 0.16232 -0.236736
-0.104506 0.162394 -0.236755
-0.104502 0.16247 -0.236773
-0.104498 0.162545 -0.236793
-0.104494 0.16262101 -0.23681299
-0.104491 0.162696 -0.236829
-0.104487 0.16277 -0.236855
-0.104482 0.162845 -0.236889
-0.104478 0.162921 -0.236912
-0.104475 0.16299599 -0.236926
-0.104471 0.16306999 -0.236946
-0.104467 0.163146 -0.23696201
-0.104464 0.163221 -0.236976
-0.104459 0.163297 -0.237002
-0.104455 0.163372 -0.23702601
-0.104451 0.16344801 -0.237045
-0.104447 0.163523 -0.237069
-0.104443 0.163597 -0.237095
-0.104439 0.163674 -0.237119
-0.104435 0.163748 -0.237137
-0.104431 0.16382501 -0.237167
-0.104427 0.163899 -0.237195
-0.104423 0.163974 -0.23722
-0.104419 0.16405 -0.237244
-0.104415 0.164125 -0.23727
-0.10441 0.164202 -0.237308
-0.104405 0.164277 -0.23735
-0.1044 0.164353 -0.237386
-0.104396 0.164428 -0.23741999
-0.104391 0.164505 -0.237462
-0.104386 0.16458 -0.23750401
-0.104381 0.164655 -0.237547
-0.104375 0.16473199 -0.237607
-0.104369 0.16480801 -0.237675
-0.104363 0.164885 -0.237737
-0.104357 0.16496 -0.237799
-0.104353 0.16503701 -0.237835
-0.104347 0.165115 -0.237895
-0.104336 0.16519199 -0.23806299
-0.104326 0.16527 -0.23821101
-0.105076 0.144842 -0.23717999
-0.105077 0.144927 -0.23707999
-0.105077 0.14501201 -0.23700599
-0.105077 0.14509401 -0.236946
-0.105076 0.145173 -0.236911
-0.105074 0.145253 -0.236883
-0.105073 0.14533199 -0.23684099
-0.105072 0.14541399 -0.23678499
-0.105071 0.145493 -0.236737
-0.105069 0.14557099 -0.23672099
-0.105067 0.145648 -0.23670501
-0.105066 0.14572901 -0.236655
-0.105064 0.145805 -0.23663899
-0.105062 0.145882 -0.236619
-0.105061 0.145963 -0.23658
-0.105059 0.14604101 -0.236552
-0.105057 0.146117 -0.236542
-0.105054 0.146194 -0.23652799
-0.105053 0.14627101 -0.236494
-0.105051 0.14635099 -0.236468
-0.105049 0.14642601 -0.236454
-0.105046 0.146502 -0.236444
-0.105044 0.14658 -0.236423
-0.105042 0.146657 -0.23640101
-0.10504 0.146735 -0.23638301
-0.105038 0.14681 -0.236367
-0.105036 0.146888 -0.23635501
-0.105034 0.146965 -0.236331
-0.105032 0.14704099 -0.236311
-0.105031 0.147122 -0.236269
-0.105029 0.147199 -0.236238
-0.105027 0.147277 -0.23621599
-0.105025 0.14735401 -0.23619001
-0.105024 0.147431 -0.23616201
-0.105021 0.14750899 -0.23615
-0.105019 0.147585 -0.236138
-0.105018 0.147662 -0.236104
-0.105016 0.147741 -0.23607001
-0.105014 0.147817 -0.236057
-0.105012 0.147894 -0.236039
-0.10501 0.14797001 -0.23601501
-0.105008 0.148047 -0.236001
-0.105005 0.148123 -0.235993
-0.105003 0.14819901 -0.23597901
-0.105 0.148275 -0.235966
-0.104998 0.14835 -0.235954
-0.104996 0.14842799 -0.235936
-0.104994 0.14850301 -0.235918
-0.104991 0.148579 -0.23591401
-0.104988 0.148653 -0.235916
-0.104986 0.148729 -0.23591
-0.104983 0.148803 -0.235911
-0.10498 0.14887901 -0.23590501
-0.104978 0.148955 -0.235893
-0.104975 0.14903 -0.23588499
-0.104972 0.149104 -0.235883
-0.104969 0.149178 -0.23588599
-0.104966 0.14925399 -0.23588599
-0.104964 0.14932799 -0.23588
-0.104961 0.149404 -0.23587
-0.104959 0.14948 -0.23586801
-0.104955 0.149554 -0.23587599
-0.104952 0.149628 -0.235875
-0.10495 0.149702 -0.235873
-0.104947 0.14977799 -0.23586901
-0.104944 0.14985199 -0.23586901
-0.104941 0.14992601 -0.235879
-0.104938 0.15000001 -0.23588499
-0.104935 0.150076 -0.235884
-0.104932 0.150152 -0.23587599
-0.104929 0.150226 -0.23587801
-0.104926 0.1503 -0.23588599
-0.104923 0.150374 -0.23588599
-0.10492 0.15044799 -0.235889
-0.104917 0.15052199 -0.235901
-0.104914 0.15059599 -0.23590501
-0.10491 0.15067001 -0.235911
-0.104907 0.15074401 -0.23591501
-0.104904 0.15081801 -0.235919
-0.104901 0.150894 -0.23592
-0.104899 0.150968 -0.23592
-0.104895 0.151044 -0.23592401
-0.104892 0.151118 -0.235926
-0.10489 0.15119199 -0.23592
-0.104887 0.15126801 -0.23592
-0.104884 0.151342 -0.235925
-0.104881 0.151418 -0.235925
-0.104878 0.151492 -0.235929
-0.104875 0.151566 -0.235935
-0.104872 0.15164 -0.23594099
-0.104868 0.151713 -0.235954
-0.104865 0.15178899 -0.235962
-0.104862 0.15186299 -0.235956
-0.104859 0.15193699 -0.235954
-0.104856 0.152013 -0.23596001
-0.104853 0.152087 -0.235966
-0.10485 0.152161 -0.23597699
-0.104846 0.152233 -0.23599701
-0.104843 0.152308 -0.236003
-0.10484 0.152384 -0.236001
-0.104838 0.152457 -0.235989
-0.104835 0.15253299 -0.235981
-0.104832 0.15260699 -0.23599
-0.104828 0.15268099 -0.236
-0.104825 0.15275501 -0.23600399
-0.104822 0.152831 -0.23600399
-0.10482 0.152907 -0.235998
-0.104817 0.152981 -0.236
-0.104814 0.153055 -0.236011
-0.10481 0.153129 -0.23601501
-0.104808 0.153203 -0.236011
-0.104805 0.15327901 -0.236011
-0.104801 0.153354 -0.236021
-0.104798 0.153428 -0.23603
-0.104795 0.153502 -0.23603
-0.104793 0.153577 -0.23602401
-0.10479 0.153653 -0.236022
-0.104787 0.153726 -0.23603
-0.104783 0.1538 -0.23604
-0.10478 0.15387601 -0.23604099
-0.104778 0.15395001 -0.236037
-0.104775 0.154026 -0.23604099
-0.104772 0.1541 -0.236045
-0.104768 0.154174 -0.23605099
-0.104765 0.154248 -0.236059
-0.104762 0.154322 -0.23607001
-0.104759 0.154396 -0.23607799
-0.104756 0.15447199 -0.236072
-0.104753 0.154548 -0.23606201
-0.104751 0.154622 -0.23605999
-0.104748 0.154696 -0.236065
-0.104745 0.154772 -0.236065
-0.104742 0.154846 -0.236065
-0.104739 0.15492 -0.23606101
-0.104736 0.15499599 -0.236065
-0.104733 0.15507001 -0.23606899
-0.10473 0.155146 -0.236068
-0.104727 0.15522 -0.23607001
-0.104724 0.155294 -0.23607001
-0.104722 0.15537 -0.236064
-0.104718 0.155444 -0.23607001
-0.104715 0.155518 -0.236076
-0.104712 0.15559401 -0.236073
-0.10471 0.15566801 -0.236075
-0.104706 0.155742 -0.23607901
-0.104704 0.155818 -0.236075
-0.104701 0.155893 -0.236067
-0.104698 0.155968 -0.236073
-0.104695 0.15604199 -0.236076
-0.104692 0.15611701 -0.236072
-0.104689 0.15619101 -0.236076
-0.104686 0.156266 -0.236086
-0.104683 0.15634 -0.236082
-0.10468 0.156415 -0.23607901
-0.104677 0.156489 -0.236081
-0.104674 0.156565 -0.236083
-0.104672 0.15663899 -0.236081
-0.104669 0.15671299 -0.236083
-0.104665 0.15678801 -0.236095
-0.104662 0.156864 -0.236104
-0.104659 0.156938 -0.23609599
-0.104657 0.157013 -0.236084
-0.104654 0.157087 -0.236092
-0.10465 0.157162 -0.23610801
-0.104647 0.15723801 -0.236114
-0.104644 0.15731201 -0.236119
-0.104641 0.157386 -0.23611499
-0.104639 0.157462 -0.236103
-0.104636 0.157535 -0.23609699
-0.104633 0.157611 -0.236095
-0.104631 0.157685 -0.236095
-0.104627 0.15776099 -0.23609801
-0.104625 0.15783501 -0.23609599
-0.104622 0.15790901 -0.23609599
-0.104619 0.157985 -0.23609801
-0.104616 0.158059 -0.2361
-0.104613 0.158133 -0.23610599
-0.10461 0.158207 -0.236113
-0.104607 0.158283 -0.236113
-0.104604 0.15835699 -0.236109
-0.104601 0.15843301 -0.23610701
-0.104598 0.158507 -0.236109
-0.104595 0.158583 -0.23610599
-0.104593 0.158657 -0.236102
-0.10459 0.158731 -0.23610599
-0.104586 0.158805 -0.236112
-0.104583 0.15888099 -0.236122
-0.10458 0.15895601 -0.236132
-0.104577 0.15903001 -0.23613501
-0.104574 0.159105 -0.236131
-0.104571 0.15918 -0.236137
-0.104567 0.159254 -0.236149
-0.104564 0.159328 -0.23615301
-0.104561 0.159402 -0.236157
-0.104559 0.15947799 -0.23615199
-0.104556 0.15955301 -0.236136
-0.104554 0.159629 -0.23613399
-0.10455 0.159702 -0.23615
-0.104546 0.159776 -0.23616999
-0.104543 0.159852 -0.23616999
-0.10454 0.159926 -0.23617101
-0.104537 0.16000199 -0.236183
-0.104533 0.16007499 -0.236201
-0.10453 0.160151 -0.23620699
-0.104527 0.160225 -0.236211
-0.104523 0.160299 -0.236223
-0.10452 0.160375 -0.23623
-0.104517 0.160449 -0.236238
-0.104513 0.160524 -0.23626
-0.104509 0.16059799 -0.23628201
-0.104505 0.16067301 -0.23631001
-0.104501 0.16074701 -0.236332
-0.104498 0.16082101 -0.236339
-0.104494 0.160896 -0.236349
-0.104491 0.16097 -0.23636299
-0.104488 0.161044 -0.236371
-0.104484 0.16112 -0.236387
-0.10448 0.161195 -0.236407
-0.104476 0.16126899 -0.236424
-0.104473 0.16134299 -0.236442
-0.104469 0.16141801 -0.236462
-0.104465 0.161494 -0.23648
-0.104462 0.161568 -0.23649
-0.104458 0.161643 -0.236508
-0.104454 0.161717 -0.236533
-0.10445 0.161792 -0.236553
-0.104446 0.16186801 -0.236571
-0.104442 0.161943 -0.236597
-0.104438 0.162017 -0.236617
-0.104434 0.162092 -0.23663899
-0.10443 0.162166 -0.236673
-0.104426 0.162241 -0.236702
-0.104422 0.16231699 -0.236716
-0.104418 0.16239201 -0.236736
-0.104414 0.162466 -0.236766
-0.10441 0.162541 -0.23678599
-0.104407 0.162617 -0.236798
-0.104402 0.162692 -0.23682401
-0.104398 0.16276599 -0.236853
-0.104394 0.16284101 -0.236881
-0.10439 0.162917 -0.23690701
-0.104386 0.162992 -0.236919
-0.104383 0.163068 -0.236927
-0.104379 0.163142 -0.236949
-0.104375 0.16321699 -0.236975
-0.104371 0.163293 -0.236992
-0.104368 0.163367 -0.23701
-0.104363 0.163444 -0.23704
-0.104359 0.163519 -0.237068
-0.104355 0.16359299 -0.237092
-0.104351 0.16366901 -0.23710801
-0.104348 0.163744 -0.23711701
-0.104344 0.16382 -0.23714299
-0.104339 0.163895 -0.237175
-0.104336 0.16397101 -0.23718899
-0.104332 0.164046 -0.237213
-0.104327 0.164123 -0.237257
-0.104322 0.164197 -0.237293
-0.104318 0.164272 -0.237323
-0.104313 0.164349 -0.23735701
-0.104307 0.164424 -0.237418
-0.104302 0.164501 -0.237472
-0.104298 0.16457599 -0.237496
-0.104293 0.16465101 -0.237542
-0.104286 0.164729 -0.237618
-0.104281 0.164804 -0.23767
-0.104275 0.16488101 -0.237734
-0.104268 0.164957 -0.23780601
-0.104263 0.165034 -0.237848
-0.104257 0.16510899 -0.237932
-0.104247 0.165189 -0.238078
-0.10424 0.16526601 -0.238144
-0.104994 0.14484499 -0.23708899
-0.104992 0.144923 -0.237065
-0.10499 0.14500199 -0.237036
-0.10499 0.145083 -0.236986
-0.104989 0.145165 -0.236928
-0.104989 0.145248 -0.236862
-0.104988 0.145329 -0.23682
-0.104986 0.14540599 -0.236788
-0.104985 0.145485 -0.236756
-0.104984 0.145564 -0.236716
-0.104982 0.14564399 -0.23668601
-0.104981 0.145723 -0.236652
-0.104979 0.14579999 -0.23662999
-0.104977 0.145878 -0.23661
-0.104975 0.14595699 -0.236577
-0.104974 0.146036 -0.23653901
-0.104972 0.14611401 -0.236513
-0.10497 0.146191 -0.23649099
-0.104968 0.14626899 -0.236471
-0.104966 0.146346 -0.236453
-0.104964 0.146422 -0.236435
-0.104962 0.14649899 -0.236421
-0.104959 0.146575 -0.236412
-0.104957 0.146651 -0.23639999
-0.104954 0.146727 -0.23639201
-0.104952 0.14680199 -0.236386
-0.10495 0.14688 -0.23635601
-0.104948 0.14695901 -0.23632599
-0.104947 0.147036 -0.236296
-0.104945 0.14711399 -0.236269
-0.104943 0.147191 -0.23624299
-0.104941 0.147269 -0.23622499
-0.10494 0.147348 -0.236193
-0.104938 0.147425 -0.236155
-0.104937 0.147504 -0.23612501
-0.104935 0.14758 -0.23610701
-0.104933 0.14765701 -0.23608901
-0.104931 0.147735 -0.236068
-0.104929 0.14781 -0.236044
-0.104927 0.147888 -0.236026
-0.104925 0.147965 -0.236008
-0.104922 0.148041 -0.235994
-0.10492 0.148118 -0.235976
-0.104918 0.148194 -0.235952
-0.104916 0.14827199 -0.23594099
-0.104913 0.14834499 -0.23593301
-0.104911 0.148421 -0.235927
-0.104908 0.148497 -0.235925
-0.104906 0.148571 -0.23591299
-0.104903 0.14864799 -0.235897
-0.104901 0.148724 -0.23589
-0.104898 0.148798 -0.23588599
-0.104895 0.148874 -0.23588599
-0.104893 0.148948 -0.23587599
-0.10489 0.14902399 -0.23586801
-0.104887 0.14909799 -0.23587
-0.104884 0.149174 -0.235871
-0.104882 0.149249 -0.235863
-0.104879 0.149325 -0.235851
-0.104877 0.14940099 -0.23584101
-0.104874 0.14947499 -0.235837
-0.104871 0.14954901 -0.235845
-0.104868 0.14962301 -0.23584799
-0.104865 0.149699 -0.235844
-0.104862 0.149773 -0.235846
-0.104859 0.149847 -0.23584799
-0.104856 0.149921 -0.235856
-0.104853 0.149995 -0.23587
-0.10485 0.150069 -0.235873
-0.104847 0.15014499 -0.23586901
-0.104844 0.15021899 -0.23586901
-0.104841 0.15029299 -0.235875
-0.104838 0.15036701 -0.235879
-0.104835 0.15044101 -0.23588599
-0.104832 0.150517 -0.235888
-0.104829 0.150591 -0.23588599
-0.104826 0.150665 -0.235888
-0.104823 0.150741 -0.235882
-0.10482 0.150815 -0.23587801
-0.104817 0.15089101 -0.23588499
-0.104814 0.15096501 -0.235891
-0.104811 0.151039 -0.235897
-0.104808 0.151113 -0.235901
-0.104805 0.151188 -0.235909
-0.104801 0.151262 -0.235921
-0.104798 0.151336 -0.235928
-0.104795 0.151412 -0.23592
-0.104793 0.15148599 -0.23592
-0.104789 0.15155999 -0.235926
-0.104786 0.15163399 -0.23593201
-0.104783 0.15170801 -0.23594099
-0.10478 0.15178201 -0.235947
-0.104777 0.151858 -0.235943
-0.104774 0.151932 -0.235945
-0.104771 0.152006 -0.235955
-0.104767 0.152079 -0.23596901
-0.104764 0.152155 -0.235974
-0.104761 0.152229 -0.23597801
-0.104758 0.152303 -0.235982
-0.104755 0.15237901 -0.23598
-0.104753 0.15245201 -0.235972
-0.10475 0.152528 -0.235966
-0.104747 0.152602 -0.235967
-0.104744 0.152676 -0.235975
-0.104741 0.152752 -0.235975
-0.104738 0.152826 -0.235971
-0.104735 0.15290201 -0.235971
-0.104732 0.15297601 -0.23598
-0.104729 0.15305001 -0.23598599
-0.104726 0.153125 -0.23599
-0.104723 0.153199 -0.235994
-0.10472 0.153275 -0.23599599
-0.104717 0.153349 -0.23599599
-0.104714 0.153423 -0.23599701
-0.104711 0.153497 -0.236003
-0.104708 0.15357099 -0.236013
-0.104704 0.15364701 -0.236017
-0.104701 0.153721 -0.236021
-0.104698 0.153795 -0.236027
-0.104695 0.153869 -0.236036
-0.104692 0.153943 -0.23604199
-0.104689 0.154019 -0.23604199
-0.104686 0.154093 -0.23604199
-0.104683 0.154167 -0.236044
-0.10468 0.15424301 -0.236046
-0.104677 0.15431701 -0.236049
-0.104674 0.154393 -0.236045
-0.104671 0.154467 -0.236049
-0.104668 0.154541 -0.236053
-0.104665 0.154615 -0.236053
-0.104662 0.154689 -0.23605999
-0.104659 0.15476499 -0.236058
-0.104657 0.15484101 -0.236048
-0.104654 0.154915 -0.236046
-0.104651 0.154989 -0.236056
-0.104647 0.155063 -0.236064
-0.104645 0.155139 -0.236059
-0.104643 0.155215 -0.23604301
-0.10464 0.15528899 -0.236039
-0.104637 0.15536299 -0.236047
-0.104633 0.15543699 -0.236059
-0.10463 0.155513 -0.236065
-0.104627 0.155587 -0.236074
-0.104624 0.155661 -0.23607799
-0.104621 0.155737 -0.236072
-0.104619 0.155811 -0.23606201
-0.104616 0.15588699 -0.236054
-0.104613 0.15596101 -0.23606201
-0.10461 0.15603501 -0.23606899
-0.104607 0.156111 -0.236067
-0.104604 0.156185 -0.236063
-0.104601 0.156261 -0.23606101
-0.104598 0.156335 -0.236065
-0.104595 0.156409 -0.236074
-0.104592 0.15648501 -0.236072
-0.104589 0.15655901 -0.23607001
-0.104586 0.156633 -0.236074
-0.104583 0.156707 -0.23608001
-0.10458 0.156783 -0.236082
-0.104578 0.156859 -0.236075
-0.104575 0.15693299 -0.236075
-0.104572 0.15700699 -0.236075
-0.104569 0.157083 -0.236075
-0.104566 0.157157 -0.236077
-0.104563 0.157233 -0.236075
-0.10456 0.157307 -0.236082
-0.104557 0.157381 -0.23608799
-0.104554 0.157455 -0.23608799
-0.104551 0.15753099 -0.236084
-0.104549 0.15760501 -0.23607799
-0.104546 0.15768 -0.236072
-0.104543 0.157756 -0.236065
-0.104541 0.15783 -0.236063
-0.104538 0.157904 -0.236067
-0.104535 0.157978 -0.23606899
-0.104532 0.15805399 -0.236067
-0.104529 0.15812799 -0.236072
-0.104526 0.15820201 -0.236074
-0.104523 0.158278 -0.236064
-0.10452 0.158352 -0.236064
-0.104517 0.158426 -0.236074
-0.104514 0.158502 -0.236082
-0.10451 0.158576 -0.236095
-0.104507 0.15865099 -0.23610701
-0.104504 0.15872499 -0.236105
-0.104501 0.15879899 -0.236109
-0.104498 0.158875 -0.23611701
-0.104495 0.158949 -0.236113
-0.104492 0.159025 -0.23611
-0.104489 0.159099 -0.236112
-0.104486 0.159173 -0.236114
-0.104483 0.15924899 -0.23611601
-0.10448 0.15932301 -0.23612
-0.104477 0.15939701 -0.236128
-0.104474 0.159473 -0.23613299
-0.104471 0.159547 -0.23613501
-0.104468 0.159621 -0.23614299
-0.104465 0.159695 -0.236147
-0.104461 0.159771 -0.236149
-0.104458 0.15984499 -0.23615301
-0.104455 0.15991899 -0.23616
-0.104452 0.159995 -0.236168
-0.104449 0.16007 -0.23616999
-0.104446 0.160143 -0.236166
-0.104443 0.16022 -0.236178
-0.104439 0.160294 -0.2362
-0.104435 0.160368 -0.236211
-0.104432 0.16044199 -0.236219
-0.104429 0.16051701 -0.236231
-0.104424 0.16059101 -0.236261
-0.104421 0.160666 -0.236279
-0.104418 0.160742 -0.236275
-0.104415 0.160816 -0.236286
-0.10441 0.16089 -0.236316
-0.104407 0.160965 -0.23632801
-0.104403 0.16103899 -0.236342
-0.104399 0.16111299 -0.23636401
-0.104395 0.16118801 -0.236386
-0.104392 0.16126201 -0.23639899
-0.104388 0.161339 -0.23641901
-0.104384 0.161411 -0.236439
-0.104381 0.161487 -0.236453
-0.104377 0.161562 -0.236479
-0.104373 0.16163599 -0.23649301
-0.10437 0.16171201 -0.23650201
-0.104366 0.16178501 -0.23653001
-0.104361 0.161861 -0.23655599
-0.104358 0.161936 -0.23657
-0.104354 0.16201 -0.236596
-0.10435 0.162085 -0.23662201
-0.104346 0.162159 -0.23663899
-0.104342 0.16223601 -0.236661
-0.104338 0.16231 -0.23669299
-0.104333 0.162385 -0.23672301
-0.10433 0.162459 -0.23673899
-0.104326 0.162534 -0.23675901
-0.104321 0.16260999 -0.236789
-0.104317 0.16268501 -0.236812
-0.104314 0.16275901 -0.236826
-0.10431 0.162836 -0.236846
-0.104306 0.16291 -0.23687001
-0.104302 0.162985 -0.23689599
-0.104298 0.16306099 -0.236918
-0.104294 0.16313501 -0.236936
-0.10429 0.163212 -0.23696101
-0.104286 0.163287 -0.23698901
-0.104282 0.163361 -0.23701499
-0.104278 0.163436 -0.237041
-0.104274 0.16351201 -0.23706301
-0.10427 0.163587 -0.23707899
-0.104267 0.163663 -0.23708899
-0.104263 0.163739 -0.237101
-0.104259 0.16381399 -0.23713
-0.104254 0.16388801 -0.23717
-0.10425 0.163965 -0.237198
-0.104245 0.16404 -0.237232
-0.10424 0.164115 -0.23727
-0.104237 0.16419099 -0.23728999
-0.104232 0.16426601 -0.23732001
-0.104227 0.164343 -0.23736501
-0.104223 0.164417 -0.23740099
-0.104219 0.16449399 -0.237423
-0.104214 0.16456901 -0.23746499
-0.104207 0.164644 -0.23753899
-0.104202 0.164722 -0.237593
-0.104197 0.16479699 -0.237639
-0.104189 0.164875 -0.23773099
-0.104184 0.16495 -0.237791
-0.104178 0.16502699 -0.237841
-0.104171 0.165105 -0.237919
-0.104162 0.16518199 -0.238047
-0.104155 0.16525801 -0.238149
-0.104918 0.14484 -0.237097
-0.104918 0.144925 -0.237031
-0.104918 0.145005 -0.236973
-0.104916 0.14508501 -0.236945
-0.104915 0.145164 -0.23691
-0.104915 0.145246 -0.23684201
-0.104913 0.145328 -0.23680601
-0.104912 0.14540499 -0.23678
-0.10491 0.145482 -0.236748
-0.104909 0.14556301 -0.236708
-0.104907 0.145641 -0.236682
-0.104906 0.145722 -0.236642
-0.104904 0.145797 -0.23662201
-0.104902 0.14587501 -0.23660401
-0.1049 0.145954 -0.236569
-0.104899 0.146033 -0.236535
-0.104897 0.14611 -0.236509
-0.104895 0.14618599 -0.236499
-0.104892 0.146262 -0.23649301
-0.10489 0.14634 -0.23647501
-0.104888 0.14641701 -0.23645701
-0.104885 0.146493 -0.23645
-0.104883 0.146569 -0.23644
-0.104881 0.146644 -0.23642001
-0.104878 0.146722 -0.236404
-0.104876 0.146798 -0.236394
-0.104874 0.14687499 -0.236378
-0.104872 0.146952 -0.23635
-0.10487 0.14703 -0.236322
-0.104869 0.147109 -0.236287
-0.104867 0.147186 -0.236261
-0.104866 0.147266 -0.236229
-0.104865 0.14734501 -0.23618899
-0.104863 0.147424 -0.236147
-0.104862 0.147503 -0.236109
-0.10486 0.14758 -0.236083
-0.104859 0.14765801 -0.236059
-0.104856 0.147733 -0.236048
-0.104854 0.147809 -0.23604
-0.104852 0.14788499 -0.236022
-0.10485 0.147962 -0.235998
-0.104848 0.148039 -0.235972
-0.104846 0.14811701 -0.235954
-0.104843 0.148193 -0.23594201
-0.104841 0.148268 -0.235929
-0.104839 0.148344 -0.23591299
-0.104837 0.148422 -0.23589499
-0.104834 0.148497 -0.235883
-0.104832 0.148573 -0.23587701
-0.104829 0.14864901 -0.235871
-0.104827 0.14872301 -0.235862
-0.104824 0.148799 -0.235864
-0.104821 0.148873 -0.23587
-0.104818 0.148948 -0.235856
-0.104816 0.14902399 -0.235842
-0.104813 0.14909799 -0.235842
-0.10481 0.14917199 -0.235847
-0.104807 0.149248 -0.235847
-0.104805 0.149322 -0.23584101
-0.104802 0.149398 -0.235837
-0.104799 0.149472 -0.235837
-0.104796 0.14954799 -0.235835
-0.104794 0.14962301 -0.235828
-0.104791 0.14969701 -0.23582201
-0.104788 0.149771 -0.235826
-0.104785 0.149845 -0.23582999
-0.104782 0.149921 -0.23583201
-0.104779 0.149995 -0.23582999
-0.104776 0.150069 -0.235835
-0.104773 0.150144 -0.235843
-0.104769 0.150218 -0.235853
-0.104766 0.15029199 -0.235855
-0.104764 0.15036701 -0.235843
-0.104761 0.150443 -0.235837
-0.104758 0.150518 -0.23584799
-0.104755 0.15059 -0.23586001
-0.104751 0.150666 -0.23586801
-0.104748 0.150738 -0.235874
-0.104745 0.150812 -0.235882
-0.104742 0.150888 -0.23588701
-0.104739 0.150962 -0.23588701
-0.104736 0.15103599 -0.235891
-0.104733 0.15110999 -0.235899
-0.10473 0.15118399 -0.23590299
-0.104726 0.151261 -0.235907
-0.104723 0.151333 -0.235916
-0.104721 0.151409 -0.23591
-0.104718 0.151484 -0.235908
-0.104715 0.151557 -0.235918
-0.104711 0.151631 -0.235926
-0.104708 0.151705 -0.23593099
-0.104705 0.15178099 -0.235939
-0.104702 0.15185501 -0.235939
-0.104699 0.15192901 -0.235935
-0.104696 0.15200301 -0.23594099
-0.104693 0.152077 -0.23595101
-0.104689 0.152151 -0.235962
-0.104686 0.152225 -0.235966
-0.104683 0.152299 -0.23596799
-0.10468 0.152375 -0.23596799
-0.104678 0.15245099 -0.235962
-0.104675 0.15252499 -0.23596101
-0.104672 0.15259901 -0.235967
-0.104669 0.15267301 -0.235973
-0.104666 0.152749 -0.235975
-0.104663 0.152823 -0.23597901
-0.104659 0.152898 -0.23598699
-0.104657 0.152973 -0.23597801
-0.104654 0.153047 -0.235974
-0.104651 0.15312099 -0.23598
-0.104648 0.15319499 -0.23598599
-0.104645 0.153271 -0.23598801
-0.104642 0.153346 -0.23599599
-0.104638 0.15342 -0.236003
-0.104635 0.153494 -0.236007
-0.104633 0.153568 -0.236007
-0.10463 0.153644 -0.236001
-0.104627 0.15372001 -0.235999
-0.104624 0.15379401 -0.236009
-0.104621 0.153868 -0.23601601
-0.104617 0.153942 -0.23602
-0.104614 0.154016 -0.23603199
-0.104611 0.15409 -0.23604199
-0.104608 0.154164 -0.236046
-0.104605 0.15424 -0.23604099
-0.104602 0.154314 -0.236035
-0.104599 0.15439001 -0.236045
-0.104596 0.15446401 -0.236053
-0.104593 0.15453801 -0.236053
-0.10459 0.154614 -0.236045
-0.104588 0.154688 -0.23604
-0.104585 0.154764 -0.236038
-0.104582 0.154838 -0.23604
-0.104579 0.15491199 -0.236046
-0.104576 0.15498599 -0.23605201
-0.104573 0.155062 -0.23604999
-0.10457 0.155136 -0.236053
-0.104567 0.15521 -0.236053
-0.104564 0.155286 -0.236049
-0.104561 0.15536 -0.236049
-0.104558 0.15543599 -0.23605099
-0.104555 0.15550999 -0.236055
-0.104552 0.15558399 -0.236058
-0.104549 0.15565801 -0.236056
-0.104546 0.155734 -0.236058
-0.104543 0.155808 -0.23605999
-0.104541 0.155884 -0.236058
-0.104538 0.155958 -0.23606101
-0.104535 0.156032 -0.236063
-0.104532 0.15610801 -0.236059
-0.104529 0.15618201 -0.23606101
-0.104526 0.15625601 -0.23607101
-0.104523 0.156332 -0.23606899
-0.104521 0.156408 -0.236054
-0.104518 0.156481 -0.236046
-0.104515 0.156555 -0.236054
-0.104511 0.15663201 -0.236064
-0.104508 0.15670601 -0.236066
-0.104506 0.15678 -0.236066
-0.104502 0.156856 -0.236073
-0.104499 0.156928 -0.236085
-0.104496 0.157004 -0.23608699
-0.104493 0.15707999 -0.236081
-0.104491 0.15715399 -0.236067
-0.104488 0.15722901 -0.23606101
-0.104485 0.157304 -0.236076
-0.104481 0.157378 -0.23609
-0.104478 0.157452 -0.23609
-0.104476 0.157528 -0.236084
-0.104473 0.157602 -0.236076
-0.104471 0.15767699 -0.236072
-0.104468 0.15775301 -0.236065
-0.104466 0.157827 -0.236057
-0.104463 0.157901 -0.236057
-0.10446 0.157977 -0.23606101
-0.104457 0.158051 -0.236063
-0.104454 0.158125 -0.236068
-0.10445 0.158199 -0.236076
-0.104447 0.158273 -0.23608001
-0.104444 0.15834901 -0.23608001
-0.104441 0.15842301 -0.23608001
-0.104439 0.158499 -0.23607799
-0.104436 0.158573 -0.23607901
-0.104433 0.158647 -0.236077
-0.10443 0.158723 -0.236077
-0.104427 0.158797 -0.236081
-0.104424 0.15887301 -0.236085
-0.104421 0.15894701 -0.236085
-0.104418 0.15902101 -0.236086
-0.104415 0.159097 -0.236092
-0.104412 0.159171 -0.2361
-0.104408 0.159246 -0.23610801
-0.104405 0.15932 -0.23611
-0.104402 0.15939499 -0.23611
-0.104399 0.15947001 -0.236119
-0.104396 0.15954401 -0.236119
-0.104393 0.159619 -0.23611499
-0.10439 0.159694 -0.236123
-0.104387 0.159768 -0.236139
-0.104383 0.159842 -0.23615301
-0.10438 0.159917 -0.236168
-0.104376 0.15999299 -0.236174
-0.104373 0.16006701 -0.236176
-0.10437 0.16014101 -0.23617999
-0.104367 0.160217 -0.236184
-0.104364 0.160291 -0.236192
-0.10436 0.160365 -0.236205
-0.104357 0.160439 -0.236213
-0.104354 0.160514 -0.236223
-0.104351 0.16058999 -0.236229
-0.104347 0.16066401 -0.23624501
-0.104343 0.16073801 -0.23627
-0.104339 0.160813 -0.23628999
-0.104336 0.160887 -0.236296
-0.104333 0.160961 -0.236302
-0.104329 0.161035 -0.23632
-0.104325 0.161112 -0.236338
-0.104321 0.16118599 -0.23635601
-0.104318 0.16126101 -0.236377
-0.104314 0.16133501 -0.236397
-0.10431 0.16141 -0.23641901
-0.104306 0.161484 -0.236435
-0.104303 0.161558 -0.23644499
-0.104299 0.161633 -0.23646501
-0.104295 0.161709 -0.236498
-0.104291 0.16178399 -0.23651201
-0.104288 0.16185801 -0.23652001
-0.104284 0.16193201 -0.23654801
-0.104279 0.162007 -0.23658
-0.104275 0.162083 -0.236598
-0.104271 0.162158 -0.23662101
-0.104267 0.162232 -0.23664699
-0.104263 0.16230699 -0.236671
-0.104259 0.16238099 -0.23669501
-0.104255 0.162458 -0.236715
-0.104251 0.162532 -0.23673899
-0.104247 0.162607 -0.236773
-0.104242 0.162682 -0.23680601
-0.104239 0.162756 -0.23682401
-0.104235 0.16283201 -0.236838
-0.104231 0.162907 -0.236858
-0.104227 0.162983 -0.23688801
-0.104222 0.163058 -0.23692399
-0.104219 0.163133 -0.23694199
-0.104215 0.16320901 -0.236963
-0.104211 0.16328301 -0.236981
-0.104207 0.16336 -0.236991
-0.104203 0.163434 -0.23701701
-0.104199 0.163509 -0.237049
-0.104195 0.163583 -0.237077
-0.104191 0.16366 -0.237097
-0.104187 0.163734 -0.237122
-0.104183 0.163811 -0.23714601
-0.104179 0.163885 -0.23716401
-0.104175 0.16396201 -0.237188
-0.104171 0.16403601 -0.237216
-0.104166 0.164113 -0.237242
-0.104162 0.164188 -0.237268
-0.104158 0.164262 -0.237304
-0.104153 0.16433901 -0.237333
-0.104149 0.16441301 -0.237359
-0.104144 0.164491 -0.237407
-0.104138 0.164566 -0.237463
-0.104134 0.164643 -0.23750301
-0.104129 0.164718 -0.237545
-0.104123 0.164795 -0.23760299
-0.104115 0.16487101 -0.23770501
-0.104109 0.164947 -0.237775
-0.104104 0.165023 -0.237813
-0.104095 0.16509999 -0.23793501
-0.104087 0.165179 -0.238047
-0.10408 0.16525599 -0.238125
-0.104856 0.144834 -0.237119
-0.104856 0.14492001 -0.237039
-0.104856 0.14500301 -0.236973
-0.104855 0.14508399 -0.23692299
-0.104854 0.145163 -0.236893
-0.104853 0.14524201 -0.23685101
-0.104852 0.14532299 -0.236809
-0.104851 0.145404 -0.236763
-0.104849 0.14548101 -0.236737
-0.104847 0.14556 -0.236708
-0.104845 0.145638 -0.23668399
-0.104844 0.145717 -0.23664799
-0.104843 0.145796 -0.23661201
-0.10484 0.14587399 -0.23659401
-0.104838 0.145951 -0.23657399
-0.104836 0.146027 -0.23655599
-0.104834 0.14610399 -0.23653799
-0.104832 0.146182 -0.236514
-0.10483 0.14625899 -0.23650099
-0.104827 0.14633299 -0.236497
-0.104825 0.146411 -0.236485
-0.104823 0.14648899 -0.236463
-0.104821 0.14656401 -0.23644701
-0.104818 0.14664 -0.236439
-0.104816 0.146716 -0.236432
-0.104813 0.146791 -0.236424
-0.104811 0.146869 -0.236412
-0.104809 0.146945 -0.23638999
-0.104807 0.14702401 -0.23635601
-0.104806 0.147103 -0.236316
-0.104805 0.147182 -0.236276
-0.104803 0.14726099 -0.23625
-0.104802 0.147339 -0.23621599
-0.1048 0.14741801 -0.23617899
-0.104799 0.147497 -0.23613501
-0.104798 0.147576 -0.23609699
-0.104796 0.147653 -0.23607101
-0.104794 0.14772899 -0.236055
-0.104792 0.14780401 -0.23604099
-0.10479 0.147882 -0.23602501
-0.104788 0.14795899 -0.23599701
-0.104786 0.148037 -0.235976
-0.104784 0.148112 -0.235962
-0.104782 0.14818799 -0.235946
-0.10478 0.148266 -0.23592401
-0.104777 0.148341 -0.23591401
-0.104775 0.148417 -0.23590399
-0.104773 0.14849301 -0.235891
-0.10477 0.148568 -0.235879
-0.104767 0.148644 -0.23587701
-0.104765 0.14872 -0.23586699
-0.104762 0.14879601 -0.235861
-0.104759 0.14887001 -0.235865
-0.104757 0.14894401 -0.23586001
-0.104754 0.149021 -0.235846
-0.104751 0.149095 -0.235846
-0.104748 0.149169 -0.235846
-0.104746 0.14924499 -0.235836
-0.104744 0.149321 -0.235826
-0.104741 0.149397 -0.23582099
-0.104738 0.149471 -0.23582099
-0.104735 0.149547 -0.23582099
-0.104732 0.14962099 -0.23582099
-0.10473 0.149694 -0.235817
-0.104727 0.14977001 -0.235817
-0.104723 0.149845 -0.235824
-0.10472 0.149919 -0.235828
-0.104717 0.149993 -0.23582999
-0.104715 0.150067 -0.23582999
-0.104712 0.150143 -0.23582999
-0.104709 0.150217 -0.235834
-0.104705 0.150291 -0.23583899
-0.104702 0.150365 -0.23584899
-0.104699 0.150437 -0.235861
-0.104696 0.15051299 -0.235865
-0.104693 0.15058701 -0.23586699
-0.10469 0.15066101 -0.23587
-0.104687 0.150737 -0.235864
-0.104684 0.150811 -0.235872
-0.10468 0.150885 -0.23588599
-0.104677 0.15096 -0.23589
-0.104674 0.151034 -0.235892
-0.104671 0.151108 -0.235897
-0.104668 0.151182 -0.235897
-0.104665 0.15125801 -0.235901
-0.104662 0.15132999 -0.235911
-0.104659 0.15140601 -0.235917
-0.104656 0.15148 -0.235916
-0.104653 0.151556 -0.235908
-0.10465 0.15163 -0.23591
-0.104647 0.151704 -0.235916
-0.104644 0.15177999 -0.23591401
-0.104641 0.151852 -0.23592401
-0.104638 0.151926 -0.235937
-0.104634 0.152 -0.235945
-0.104631 0.15207499 -0.235955
-0.104628 0.15214901 -0.235967
-0.104624 0.15222301 -0.235973
-0.104622 0.15229701 -0.235972
-0.104619 0.152373 -0.235964
-0.104616 0.152447 -0.23596799
-0.104613 0.152523 -0.235972
-0.10461 0.152597 -0.235972
-0.104607 0.15267099 -0.23597801
-0.104604 0.15274499 -0.235981
-0.104601 0.152821 -0.23597901
-0.104598 0.152895 -0.23597699
-0.104595 0.152969 -0.23597901
-0.104592 0.153043 -0.235985
-0.104589 0.153119 -0.235989
-0.104586 0.153193 -0.235998
-0.104583 0.153267 -0.23599599
-0.10458 0.15334301 -0.235994
-0.104577 0.15341701 -0.236
-0.104574 0.15349101 -0.23600601
-0.104571 0.153565 -0.236008
-0.104568 0.153641 -0.236009
-0.104565 0.153715 -0.236011
-0.104562 0.153789 -0.236017
-0.104558 0.153864 -0.236037
-0.104555 0.153938 -0.23604099
-0.104553 0.15401299 -0.23603
-0.104549 0.15408701 -0.236036
-0.104546 0.154162 -0.236046
-0.104543 0.154238 -0.236044
-0.10454 0.154312 -0.23604999
-0.104537 0.154386 -0.23604999
-0.104534 0.15446199 -0.23605099
-0.104531 0.15453599 -0.236055
-0.104529 0.15461101 -0.236047
-0.104526 0.15468501 -0.236039
-0.104523 0.154761 -0.236037
-0.10452 0.154835 -0.236037
-0.104517 0.154909 -0.236038
-0.104514 0.154985 -0.236044
-0.104511 0.15505899 -0.236048
-0.104508 0.15513299 -0.23604999
-0.104505 0.15520699 -0.236048
-0.104503 0.155283 -0.236044
-0.1045 0.155357 -0.236049
-0.104496 0.155431 -0.236055
-0.104494 0.155507 -0.236053
-0.104491 0.155581 -0.236053
-0.104488 0.155655 -0.23606101
-0.104484 0.15573099 -0.236065
-0.104482 0.15580501 -0.23605999
-0.104479 0.155881 -0.23605201
-0.104476 0.155955 -0.236056
-0.104473 0.156029 -0.23607001
-0.104469 0.156104 -0.23608001
-0.104466 0.156178 -0.236081
-0.104464 0.156253 -0.236077
-0.104461 0.15632901 -0.23607101
-0.104459 0.15640301 -0.236059
-0.104456 0.156479 -0.236055
-0.104453 0.156553 -0.23606101
-0.10445 0.156629 -0.236064
-0.104447 0.156703 -0.236066
-0.104444 0.15677699 -0.236074
-0.104441 0.15685099 -0.236076
-0.104438 0.156927 -0.23607001
-0.104435 0.157001 -0.23607001
-0.104432 0.157077 -0.236077
-0.104429 0.157151 -0.23607901
-0.104426 0.15722699 -0.23607101
-0.104424 0.15730099 -0.236067
-0.10442 0.15737499 -0.236073
-0.104417 0.15744901 -0.236085
-0.104414 0.157525 -0.236086
-0.104411 0.157599 -0.236084
-0.104409 0.157673 -0.236082
-0.104406 0.157749 -0.236076
-0.104403 0.15782499 -0.236068
-0.104401 0.15789799 -0.236067
-0.104398 0.15797199 -0.23607101
-0.104395 0.158048 -0.23607101
-0.104392 0.158122 -0.236073
-0.104388 0.158197 -0.23607901
-0.104386 0.15827 -0.236077
-0.104383 0.158346 -0.236068
-0.10438 0.15842199 -0.236068
-0.104377 0.15849601 -0.236068
-0.104374 0.15857001 -0.23607001
-0.104371 0.15864401 -0.23607799
-0.104368 0.15872 -0.236084
-0.104365 0.158795 -0.236093
-0.104362 0.158869 -0.236095
-0.104359 0.15894499 -0.236091
-0.104356 0.15901799 -0.23608901
-0.104353 0.15909199 -0.236093
