# .PCD v0.7 - Point Cloud Data file format
VERSION 0.7
FIELDS x y z
SIZE 4 4 4
TYPE F F F
COUNT 1 1 1
WIDTH 1317
HEIGHT 1
VIEWPOINT 0 0 0 1 0 0 0
POINTS 1317
DATA ascii
-0.049513616 -0.28190458 -0.33495688
-0.049361251 -0.28193098 -0.33485451
-0.031807002 -0.281964 -0.33480799
-0.031704333 -0.28191403 -0.33486032
-0.031565629 -0.28188151 -0.33495575
-0.04964567 -0.28167808 -0.33497554
-0.0495179 -0.28170902 -0.33490998
-0.049369998 -0.281791 -0.33483499
-0.031494036 -0.28168151 -0.33489954
-0.031327572 -0.28164142 -0.33496585
-0.0498592 -0.28140938 -0.3349916
-0.049692504 -0.28147092 -0.33493599
-0.049524501 -0.28150356 -0.33486688
-0.031474862 -0.28149226 -0.3348203
-0.031300895 -0.28148144 -0.33490855
-0.031134186 -0.28147587 -0.3349528
-0.050683849 -0.28124908 -0.33496803
-0.050497886 -0.28128475 -0.33494711
-0.05030347 -0.28130308 -0.33490643
-0.050114769 -0.28132015 -0.33492324
-0.049876764 -0.28127486 -0.3348906
-0.049697112 -0.28128162 -0.33486146
-0.049538933 -0.28129959 -0.33483207
-0.031282216 -0.28130811 -0.33485094
-0.031111661 -0.28128502 -0.33486202
-0.030915916 -0.28126574 -0.33493963
-0.030782999 -0.28121799 -0.334999
-0.051021498 -0.28103697 -0.33496851
-0.050895315 -0.28106987 -0.33493626
-0.05068633 -0.281093 -0.33487681
-0.050523501 -0.28113025 -0.33484638
-0.0503495 -0.28118148 -0.33482003
-0.050070334 -0.28119767 -0.334829
-0.049768001 -0.28114301 -0.334804
-0.031099271 -0.28113508 -0.33481362
-0.030880166 -0.28110924 -0.33484125
-0.030726472 -0.28106812 -0.33494705
-0.0305556 -0.28104958 -0.33498597
-0.051048376 -0.28090212 -0.33494425
-0.050908752 -0.28088996 -0.33486491
-0.050718594 -0.2809532 -0.3348124
-0.030678332 -0.28094086 -0.33487451
-0.030497203 -0.28089991 -0.33491722
-0.030342923 -0.28084749 -0.33492416
-0.051234167 -0.28068599 -0.33495748
-0.051097661 -0.28071994 -0.33488977
-0.050967861 -0.28074172 -0.33483845
-0.030263333 -0.28075933 -0.33484033
-0.030101229 -0.28067464 -0.33488095
-0.0299716 -0.28065842 -0.33490339
-0.051276602 -0.2804898 -0.33493197
-0.051147141 -0.28052202 -0.33483011
-0.030039333 -0.28054866 -0.334824
-0.029912168 -0.280543 -0.33485448
-0.051420331 -0.28024969 -0.33498266
-0.051321004 -0.28028679 -0.33490118
-0.051194001 -0.28037199 -0.33482301
-0.029645402 -0.28028628 -0.33492297
-0.0295834 -0.280249 -0.33496621
-0.0514355 -0.28009975 -0.3349525
-0.051339947 -0.28008974 -0.33484906
-0.029621601 -0.28012601 -0.33482358
-0.029544333 -0.28009376 -0.33487132
-0.051421333 -0.2799255 -0.33494318
-0.051321711 -0.27987888 -0.33485699
-0.029425003 -0.27993175 -0.33486453
-0.029362751 -0.27987501 -0.33491451
-0.051446248 -0.27971527 -0.33497488
-0.051312 -0.27971512 -0.33487424
-0.051162999 -0.27967274 -0.33480877
-0.029342752 -0.27971649 -0.334912
-0.051439375 -0.27951488 -0.33496061
-0.051301036 -0.27951291 -0.33489829
-0.051135998 -0.2795043 -0.33482689
-0.029281221 -0.27951854 -0.33489659
-0.051652998 -0.27921334 -0.33499733
-0.051483996 -0.27928376 -0.33495778
-0.051291212 -0.27930531 -0.33490354
-0.0511235 -0.27935058 -0.3348259
-0.029259725 -0.27930883 -0.33490202
-0.029143 -0.279248 -0.33499402
-0.052219 -0.27904201 -0.33499199
-0.052072622 -0.27907491 -0.33497477
-0.051903896 -0.27909869 -0.33494848
-0.051669467 -0.27907985 -0.33490166
-0.051507175 -0.2790933 -0.33488905
-0.051293515 -0.27909651 -0.33484593
-0.051176328 -0.27911016 -0.33481917
-0.029232001 -0.2791197 -0.33487749
-0.029100502 -0.27909926 -0.33496442
-0.052462596 -0.27883539 -0.33497998
-0.052273002 -0.27890378 -0.33493328
-0.052081149 -0.27891824 -0.33489171
-0.051927797 -0.27893049 -0.33485579
-0.051655162 -0.27893499 -0.33482704
-0.051519889 -0.27892211 -0.33482519
-0.051315334 -0.27896115 -0.33481684
-0.051182002 -0.27897099 -0.334815
-0.029211 -0.27893949 -0.33481699
-0.029084692 -0.27890933 -0.33491653
-0.028932417 -0.27888167 -0.33496916
-0.028769001 -0.27883935 -0.33499864
-0.052631751 -0.27866074 -0.33498299
-0.052502401 -0.27868217 -0.33492655
-0.052271929 -0.27871099 -0.33484897
-0.052096557 -0.27876699 -0.33482233
-0.0519825 -0.27879351 -0.3348065
-0.029066144 -0.27872857 -0.33485183
-0.028906504 -0.27869993 -0.33489528
-0.028743599 -0.27869377 -0.33495384
-0.052826002 -0.2784515 -0.3349795
-0.052711662 -0.27848816 -0.33494911
-0.0524996 -0.27848482 -0.33486009
-0.052297249 -0.27855074 -0.33481249
-0.029025 -0.27856201 -0.33480701
-0.028888885 -0.27849805 -0.33483478
-0.02870848 -0.27850002 -0.33487368
-0.028568111 -0.27849832 -0.33494964
-0.052851155 -0.27829912 -0.33493522
-0.052713912 -0.2783173 -0.33488378
-0.052538402 -0.27833101 -0.33482221
-0.028677691 -0.27831578 -0.33482489
-0.028499564 -0.27828282 -0.33490682
-0.0283805 -0.27822351 -0.33498201
-0.052886173 -0.27810591 -0.3349016
-0.052736245 -0.27813151 -0.33483249
-0.0286185 -0.27815652 -0.33480299
-0.028461315 -0.27810675 -0.33483863
-0.028331134 -0.27806887 -0.33493125
-0.053018332 -0.27789032 -0.33496901
-0.052875645 -0.27790332 -0.33487037
-0.0527835 -0.27794302 -0.3348085
-0.028280359 -0.27788249 -0.33487824
-0.028178668 -0.27788165 -0.33496234
-0.053039577 -0.27767542 -0.33494884
-0.052891184 -0.27769601 -0.33484572
-0.028265001 -0.27773485 -0.33483016
-0.028091002 -0.27765438 -0.33491147
-0.027987333 -0.27762866 -0.33496067
-0.053092502 -0.27751109 -0.33497161
-0.052963596 -0.27747861 -0.33485097
-0.028032998 -0.27754435 -0.33482334
-0.027912503 -0.27747902 -0.33486852
-0.02770357 -0.2774393 -0.33488989
-0.053026501 -0.27735549 -0.33497602
-0.052881103 -0.27729681 -0.33486152
-0.052775603 -0.2772356 -0.33482361
-0.027824 -0.277345 -0.33481899
-0.027662667 -0.27732676 -0.33484554
-0.027561376 -0.27729464 -0.3348549
-0.053010002 -0.27717799 -0.334999
-0.052884363 -0.27711737 -0.33490771
-0.052747749 -0.27710199 -0.33483076
-0.052877005 -0.27691683 -0.33493134
-0.052714057 -0.27690837 -0.33483267
-0.052598 -0.276871 -0.334802
-0.052854124 -0.27669975 -0.33494851
-0.052688882 -0.27671683 -0.33484685
-0.027114 -0.27669948 -0.334874
-0.052840799 -0.27651581 -0.33496279
-0.05268972 -0.27650306 -0.33487397
-0.052567907 -0.27651191 -0.33482212
-0.027107 -0.27659699 -0.334847
-0.052814335 -0.27627668 -0.3349607
-0.052685749 -0.27629232 -0.33490601
-0.052559845 -0.276301 -0.33483523
-0.0528345 -0.27610299 -0.33497351
-0.05268614 -0.27608198 -0.33490476
-0.052542444 -0.27608857 -0.33483186
-0.027006 -0.27612901 -0.33494002
-0.026999 -0.27602601 -0.33491799
-0.052858002 -0.27596301 -0.33499101
-0.052690312 -0.27590141 -0.33491942
-0.052539945 -0.27588272 -0.33485356
-0.02697625 -0.27592024 -0.3349095
-0.052834999 -0.27568299 -0.33499002
-0.052687891 -0.27572516 -0.33492792
-0.052513901 -0.2756846 -0.33484331
-0.052395001 -0.27565151 -0.33480501
-0.026967 -0.275668 -0.33495599
-0.053241104 -0.2754477 -0.33497757
-0.053090084 -0.27545574 -0.33497122
-0.052901782 -0.27549484 -0.33495966
-0.052675709 -0.27551994 -0.3349188
-0.052521199 -0.27550796 -0.33484608
-0.027013 -0.27546501 -0.33485499
-0.026936876 -0.27548948 -0.33496764
-0.053493004 -0.27527967 -0.33498967
-0.053280827 -0.27527872 -0.33494502
-0.0531011 -0.27528962 -0.33491117
-0.052898124 -0.27528986 -0.33490425
-0.05267233 -0.27531108 -0.33486301
-0.052513082 -0.27531895 -0.33484343
-0.052398998 -0.27526599 -0.33480099
-0.027019 -0.2753382 -0.33484262
-0.026930163 -0.27532783 -0.33494124
-0.053655501 -0.27503332 -0.33498883
-0.053506933 -0.27511856 -0.33496273
-0.053286672 -0.27510145 -0.33490148
-0.053103209 -0.27507773 -0.33486575
-0.052909557 -0.27509147 -0.33485273
-0.052696846 -0.27510363 -0.33482593
-0.052509408 -0.27511331 -0.33482569
-0.027019667 -0.27510965 -0.33484817
-0.026928334 -0.2750946 -0.33496276
-0.053828001 -0.27482 -0.33497801
-0.053670947 -0.274901 -0.33494559
-0.053505994 -0.27491033 -0.33490199
-0.053289276 -0.27491921 -0.33486247
-0.053094752 -0.2748791 -0.33481917
-0.052907217 -0.27488428 -0.33481696
-0.052720163 -0.27494067 -0.33481252
-0.052446 -0.27492738 -0.33480936
-0.027035832 -0.27488443 -0.33487818
-0.026934313 -0.27488372 -0.33495751
-0.053817332 -0.274681 -0.33496332
-0.053663056 -0.27469358 -0.33491912
-0.05350744 -0.27470636 -0.33487612
-0.053279083 -0.27472287 -0.33483037
-0.053158712 -0.27473217 -0.33481088
-0.052890331 -0.27474067 -0.33480465
-0.052503332 -0.27476332 -0.334802
-0.027030455 -0.27468485 -0.33486128
-0.026919236 -0.27466902 -0.3349497
-0.026794501 -0.27464098 -0.334986
-0.053804502 -0.274508 -0.33493799
-0.053663433 -0.27447557 -0.33490232
-0.053514719 -0.2744976 -0.33484921
-0.053330366 -0.27453691 -0.334815
-0.052575 -0.274551 -0.33480099
-0.027020669 -0.27450183 -0.33486137
-0.026915601 -0.27450255 -0.33493569
-0.026787 -0.274537 -0.334968
-0.053679496 -0.27430263 -0.33490759
-0.053510711 -0.27428633 -0.33485103
-0.0533472 -0.2742728 -0.33480757
-0.027031332 -0.27432463 -0.33484614
-0.026961286 -0.27433106 -0.33491966
-0.053674307 -0.27413061 -0.33492744
-0.053515002 -0.27408639 -0.33485246
-0.05333342 -0.27408698 -0.33483776
-0.027247 -0.27404401 -0.33480299
-0.027047001 -0.27411255 -0.3348358
-0.026964922 -0.2741009 -0.33492485
-0.053665664 -0.27392611 -0.33496603
-0.053523947 -0.27390751 -0.33490291
-0.053291496 -0.27387631 -0.33484349
-0.053185001 -0.27381501 -0.33481598
-0.027253002 -0.27387536 -0.33482066
-0.027073126 -0.27390277 -0.33487225
-0.026953813 -0.27388656 -0.33494127
-0.053663999 -0.27373499 -0.33497298
-0.053497635 -0.27371663 -0.33493701
-0.053300995 -0.27369782 -0.33485803
-0.053140532 -0.2736662 -0.33482724
-0.027431499 -0.27360451 -0.33480549
-0.027290078 -0.27368322 -0.33481449
-0.027076 -0.27367985 -0.334878
-0.02692668 -0.27366945 -0.33497083
-0.053506035 -0.27349794 -0.33495298
-0.053294878 -0.27352136 -0.33490631
-0.053102106 -0.27349341 -0.33484975
-0.052967336 -0.27343068 -0.33483163
-0.027427666 -0.27350733 -0.33482203
-0.027304631 -0.27349654 -0.33483014
-0.027160501 -0.2734715 -0.33484799
-0.026917497 -0.27349839 -0.33496669
-0.05346236 -0.273314 -0.33497038
-0.053300314 -0.2733013 -0.33494544
-0.053101577 -0.27331564 -0.334885
-0.052935127 -0.27329063 -0.33483624
-0.052746002 -0.27320099 -0.334804
-0.027296362 -0.27332702 -0.33483949
-0.027139198 -0.27331322 -0.33485979
-0.026904849 -0.27332488 -0.33493921
-0.026787333 -0.27328101 -0.33497801
-0.053417999 -0.273148 -0.33499199
-0.053285167 -0.27309877 -0.33497223
-0.05309185 -0.27310017 -0.33493999
-0.052904829 -0.2731207 -0.33485672
-0.052716926 -0.27310559 -0.33482155
-0.052547663 -0.273072 -0.33480701
-0.047638167 -0.27306297 -0.33481717
-0.04752513 -0.27305412 -0.3348465
-0.047299203 -0.27306387 -0.33483708
-0.047133338 -0.273045 -0.334811
-0.045254249 -0.27305675 -0.33481273
-0.045136496 -0.27306226 -0.3348105
-0.041607998 -0.273018 -0.33481801
-0.041473143 -0.2730363 -0.33482084
-0.041360997 -0.27303648 -0.33480448
-0.02726879 -0.27312028 -0.33483511
-0.027138859 -0.27310443 -0.33486369
-0.026888851 -0.27311453 -0.33491912
-0.026699618 -0.27310964 -0.33495858
-0.026555199 -0.2730827 -0.33497876
-0.053221334 -0.27292499 -0.33498767
-0.053073712 -0.27289233 -0.33497354
-0.052895851 -0.27290207 -0.33489212
-0.052703854 -0.27291209 -0.33485553
-0.052483272 -0.27290854 -0.3348158
-0.052357335 -0.27284667 -0.33480367
-0.051817998 -0.27283001 -0.33481801
-0.051686998 -0.27286568 -0.33481953
-0.051507667 -0.2728931 -0.33482194
-0.051260997 -0.27288225 -0.334824
-0.051155001 -0.2728714 -0.33481678
-0.047896337 -0.27286199 -0.33481398
-0.047672875 -0.27290264 -0.33485776
-0.047527663 -0.27289465 -0.33490744
-0.047291189 -0.27288902 -0.33489653
-0.047103338 -0.27289632 -0.33486944
-0.046916939 -0.27289444 -0.33483624
-0.046734802 -0.27286398 -0.33480683
-0.046544999 -0.27285701 -0.33480299
-0.046100333 -0.27280501 -0.33480635
-0.045872167 -0.27284202 -0.3348085
-0.045687668 -0.27283022 -0.334815
-0.045504779 -0.27287057 -0.33482066
-0.045264211 -0.27291328 -0.33485809
-0.04510067 -0.27291143 -0.33483517
-0.044868831 -0.27286318 -0.33481848
-0.044755749 -0.27285576 -0.3348175
-0.041704115 -0.27287599 -0.33482158
-0.041471329 -0.27288091 -0.33485091
-0.041343801 -0.2728714 -0.33483011
-0.027249644 -0.27290535 -0.33483988
-0.02713378 -0.27289912 -0.3348828
-0.026878119 -0.27290541 -0.33491051
-0.026691666 -0.27290824 -0.33494744
-0.026530139 -0.27290881 -0.33496404
-0.026396001 -0.272845 -0.334997
-0.053065728 -0.27271038 -0.33499184
-0.052897055 -0.27269286 -0.33494127
-0.052710377 -0.27270484 -0.33488503
-0.052486334 -0.27271929 -0.33485025
-0.052328221 -0.27270645 -0.3348166
-0.052084215 -0.27265352 -0.33482605
-0.051910929 -0.27268276 -0.33483711
-0.05169633 -0.27268541 -0.33485726
-0.051515922 -0.27268842 -0.33487362
-0.051318996 -0.27270898 -0.33488244
-0.051110141 -0.27270961 -0.33486035
-0.050918877 -0.27268201 -0.33482313
-0.050744001 -0.27263999 -0.33480501
-0.04944833 -0.27265868 -0.33480701
-0.0492975 -0.27266252 -0.33481675
-0.04910728 -0.27268749 -0.3348223
-0.048891705 -0.27266032 -0.33481219
-0.048723999 -0.27263018 -0.33481133
-0.048467278 -0.27267301 -0.33482054
-0.048307408 -0.27269781 -0.33481413
-0.048103943 -0.27268845 -0.33481705
-0.047882996 -0.27271819 -0.33483708
-0.047667101 -0.27272889 -0.33489662
-0.047532849 -0.2727139 -0.33494076
-0.047286399 -0.27270508 -0.33495393
-0.047093868 -0.27267599 -0.33494186
-0.046902835 -0.27268445 -0.33489487
-0.046690863 -0.27270526 -0.33484933
-0.046458334 -0.2727226 -0.33482501
-0.0463636 -0.2727128 -0.33482081
-0.046078075 -0.27269885 -0.33481923
-0.045904696 -0.27269617 -0.33481911
-0.045683533 -0.2726863 -0.33486205
-0.045519788 -0.27267581 -0.33489904
-0.045256272 -0.27269462 -0.33492136
-0.045107055 -0.27269623 -0.33489493
-0.04488723 -0.27271554 -0.3348684
-0.044707797 -0.2726967 -0.33483541
-0.044505335 -0.27268511 -0.33480987
-0.043666001 -0.27265701 -0.33480698
-0.04347625 -0.27265251 -0.33480698
-0.043236248 -0.27265975 -0.33480874
-0.043164 -0.27265948 -0.33481249
-0.041714143 -0.27269286 -0.33483055
-0.04147109 -0.27270126 -0.33489001
-0.041312002 -0.2726846 -0.33488348
-0.041134 -0.27267098 -0.33482575
-0.039545998 -0.27261949 -0.33480698
-0.039262999 -0.272632 -0.33480701
-0.027244916 -0.27268866 -0.33482555
-0.027135169 -0.27268615 -0.33488449
-0.026864626 -0.27269149 -0.33489826
-0.026690094 -0.2726979 -0.33494881
-0.026518229 -0.27269924 -0.33496597
-0.026388999 -0.27274251 -0.334975
-0.053111333 -0.27255234 -0.33499333
-0.052887466 -0.27248299 -0.33497971
-0.052708767 -0.27247834 -0.33493114
-0.052485429 -0.27250749 -0.33489242
-0.052297603 -0.27251512 -0.33484551
-0.052096903 -0.2724959 -0.33483917
-0.051929496 -0.27249852 -0.33484882
-0.051705536 -0.27249792 -0.33488229
-0.051501956 -0.27248353 -0.33491984
-0.051328003 -0.27246901 -0.33494502
-0.051097337 -0.27249235 -0.33493277
-0.050890822 -0.27251363 -0.33486164
-0.050716668 -0.27250782 -0.33482367
-0.049624834 -0.27247933 -0.33481765
-0.049511611 -0.27250484 -0.33482635
-0.049306009 -0.27251577 -0.33485767
-0.049104679 -0.27250791 -0.33487672
-0.048898075 -0.27250141 -0.33485413
-0.048719641 -0.272488 -0.33485326
-0.048488643 -0.27247724 -0.33485466
-0.048302956 -0.27249062 -0.33485085
-0.048092544 -0.27249584 -0.33485416
-0.047876198 -0.27249539 -0.3348774
-0.047661003 -0.27251488 -0.33492863
-0.047534909 -0.27252737 -0.33497173
-0.047263164 -0.27256069 -0.33497873
-0.047100499 -0.27253076 -0.3349795
-0.046887215 -0.27249745 -0.33494514
-0.046680234 -0.27249131 -0.33490989
-0.046480265 -0.27249625 -0.33486927
-0.04635822 -0.27251264 -0.33484659
-0.04606333 -0.27251932 -0.33484471
-0.045913063 -0.27251253 -0.33486754
-0.045691002 -0.27251542 -0.33489668
-0.045533996 -0.27249411 -0.33494055
-0.045285497 -0.27250326 -0.33497125
-0.045100719 -0.27248773 -0.33495954
-0.04488482 -0.27249208 -0.33492219
-0.044704199 -0.27251559 -0.33487052
-0.044496354 -0.27250636 -0.33482885
-0.044399999 -0.27246299 -0.334804
-0.044070199 -0.2724354 -0.334811
-0.043995999 -0.27244252 -0.33480299
-0.043650858 -0.27249977 -0.33483022
-0.043492001 -0.27250856 -0.33484626
-0.043267101 -0.2725094 -0.33486098
-0.043135639 -0.27251515 -0.33485222
-0.042992 -0.272488 -0.33482498
-0.041821837 -0.27250269 -0.33481184
-0.041732471 -0.27251416 -0.3348431
-0.041464001 -0.27251932 -0.33494374
-0.041323125 -0.27250701 -0.33493972
-0.041076861 -0.27249268 -0.33486649
-0.040994 -0.2724475 -0.334849
-0.039544333 -0.27247748 -0.33481359
-0.039268497 -0.27248558 -0.33485165
-0.039157338 -0.27249044 -0.33481899
-0.037456997 -0.27244547 -0.33481151
-0.037384503 -0.27243298 -0.3348105
-0.027230667 -0.27249068 -0.33483288
-0.027137639 -0.27248374 -0.33489716
-0.026856501 -0.272479 -0.3349151
-0.026701914 -0.27247792 -0.33496788
-0.026533479 -0.27248463 -0.33495715
-0.052867375 -0.272315 -0.33499151
-0.052688215 -0.27228957 -0.3349525
-0.052480418 -0.27228925 -0.3349084
-0.052295294 -0.27230027 -0.33488995
-0.052098893 -0.27231726 -0.33485857
-0.051929839 -0.27232316 -0.33488065
-0.051705882 -0.27232227 -0.33490884
-0.051511448 -0.27230427 -0.33494508
-0.051344749 -0.27231598 -0.33497649
-0.051079549 -0.2723096 -0.33497235
-0.050899778 -0.27229035 -0.33492601
-0.050700478 -0.27230909 -0.33485532
-0.050546113 -0.27229556 -0.33483103
-0.049649667 -0.27228722 -0.33483815
-0.049512599 -0.2722902 -0.33488104
-0.049307 -0.27229348 -0.33493719
-0.049092706 -0.27230793 -0.33496064
-0.048895091 -0.27231008 -0.33492324
-0.048734356 -0.27230263 -0.33490691
-0.048487999 -0.27230501 -0.33489165
-0.048295524 -0.2722947 -0.33488607
-0.048092198 -0.27227405 -0.3349019
-0.04788309 -0.27229074 -0.33493081
-0.047705002 -0.27230224 -0.33498052
-0.047587998 -0.27235901 -0.334999
-0.046852715 -0.27236244 -0.33498058
-0.046672273 -0.27228171 -0.33494952
-0.046495337 -0.27228057 -0.33492666
-0.046350498 -0.27229434 -0.33490142
-0.046064865 -0.27230284 -0.3348746
-0.045910187 -0.27231213 -0.33488294
-0.045684531 -0.27231956 -0.33490944
-0.0455405 -0.27232468 -0.3349579
-0.045384999 -0.27238899 -0.33499199
-0.0450872 -0.27234641 -0.334995
-0.044874188 -0.27229717 -0.33495802
-0.044715993 -0.27229217 -0.33491626
-0.044492584 -0.27231362 -0.33484352
-0.044344917 -0.27232251 -0.3348268
-0.044063397 -0.27230841 -0.33480799
-0.04392577 -0.27225783 -0.33480453
-0.043670055 -0.27227205 -0.33483502
-0.043491352 -0.27228361 -0.33487743
-0.043295432 -0.27229643 -0.33491987
-0.043140586 -0.27229273 -0.33490652
-0.042892948 -0.27230877 -0.33483991
-0.042712636 -0.27229473 -0.3348197
-0.041842457 -0.27229437 -0.33481947
-0.041723367 -0.27229965 -0.3348664
-0.041466445 -0.27232265 -0.33496377
-0.041292384 -0.27233452 -0.33498305
-0.041071754 -0.27231663 -0.33490601
-0.040932748 -0.272306 -0.334865
-0.040771998 -0.27220699 -0.33482
-0.039527703 -0.2722972 -0.33484322
-0.039269835 -0.27230182 -0.33490369
-0.039105523 -0.27228922 -0.33485916
-0.038956668 -0.27229068 -0.334811
-0.037436571 -0.27229556 -0.33482367
-0.037308879 -0.27227199 -0.33483768
-0.037152335 -0.2722545 -0.3348155
-0.027228333 -0.27231982 -0.33483601
-0.027116427 -0.27231115 -0.33491707
-0.026844583 -0.27229342 -0.33494619
-0.026706867 -0.2723023 -0.33496994
-0.026498113 -0.27231991 -0.33498412
-0.052802 -0.27219099 -0.33499101
-0.052698001 -0.27212408 -0.33497322
-0.052502602 -0.27210039 -0.33494702
-0.052286465 -0.27208665 -0.33492538
-0.052108176 -0.27209714 -0.33489144
-0.051934864 -0.27210343 -0.33490089
-0.051699162 -0.27211112 -0.33494231
-0.051505383 -0.27212664 -0.33497691
-0.051015999 -0.272138 -0.334997
-0.05088073 -0.27209327 -0.33497131
-0.050695404 -0.27208823 -0.33490595
-0.050509062 -0.27210504 -0.33486423
-0.050340503 -0.27207899 -0.33480901
-0.050071999 -0.27206099 -0.33480099
-0.049844 -0.27207634 -0.33481064
-0.049687918 -0.2720736 -0.33485183
-0.049522523 -0.272073 -0.33490965
-0.049350712 -0.27210554 -0.33498055
-0.048886072 -0.27210543 -0.33498105
-0.048721671 -0.27210337 -0.33496213
-0.048481997 -0.27212158 -0.33491418
-0.048306867 -0.2721217 -0.33490598
-0.048089944 -0.2721006 -0.33492023
-0.047906872 -0.27208862 -0.33494201
-0.047789 -0.27210301 -0.33497852
-0.047561999 -0.27204299 -0.334995
-0.046685874 -0.27213311 -0.33497337
-0.046522856 -0.2721023 -0.33496585
-0.046340074 -0.27207416 -0.33493119
-0.04605446 -0.27209488 -0.33489376
-0.045916751 -0.27209365 -0.33490187
-0.045693669 -0.27210012 -0.33493409
-0.045546256 -0.2721073 -0.33496839
-0.044855002 -0.27214813 -0.33498183
-0.044699192 -0.27209044 -0.33493987
-0.044484999 -0.27209607 -0.33488807
-0.044337671 -0.27210677 -0.33485273
-0.044054911 -0.27213073 -0.33481348
-0.043922316 -0.27210441 -0.33481818
-0.043682847 -0.27210391 -0.33484119
-0.043502927 -0.27208251 -0.33489555
-0.043326836 -0.27210683 -0.33494082
-0.043122776 -0.27207863 -0.3349573
-0.042870246 -0.27210093 -0.33489388
-0.042694896 -0.27211499 -0.3348428
-0.042554997 -0.27210513 -0.33481044
-0.042139001 -0.27200401 -0.33480299
-0.041869998 -0.27209279 -0.33482215
-0.0417156 -0.27208629 -0.33487305
-0.041522667 -0.27208635 -0.33494601
-0.041044768 -0.27211145 -0.334966
-0.040940445 -0.27212 -0.33492368
-0.040681399 -0.27207658 -0.33482051
-0.040584002 -0.27200699 -0.33480299
-0.039512999 -0.27212116 -0.33484334
-0.039253555 -0.27212155 -0.33492857
-0.039101351 -0.27211532 -0.33490708
-0.038911749 -0.27205926 -0.3348355
-0.037418332 -0.27207467 -0.33481535
-0.037300762 -0.27207357 -0.33485481
-0.037107449 -0.27208677 -0.33482689
-0.036975998 -0.27203101 -0.33480099
-0.027238093 -0.27210864 -0.33484194
-0.027126333 -0.27211368 -0.33491117
-0.026848998 -0.27211109 -0.33497372
-0.026720723 -0.2721422 -0.33498475
-0.026565876 -0.27214199 -0.33499187
-0.052644998 -0.27196652 -0.33498725
-0.052507441 -0.27192655 -0.33497703
-0.052271374 -0.27190685 -0.3349677
-0.052103549 -0.27188164 -0.33492821
-0.05191613 -0.27189049 -0.3349196
-0.051702075 -0.27190229 -0.33497208
-0.051543143 -0.27192685 -0.33499312
-0.050875336 -0.27197599 -0.33499733
-0.050670806 -0.27189779 -0.33495656
-0.050506111 -0.27188939 -0.33490121
-0.050271198 -0.27190891 -0.33482683
-0.050128125 -0.27192813 -0.33481288
-0.049913596 -0.27191031 -0.33482501
-0.049688753 -0.27189651 -0.33486179
-0.049510125 -0.27189794 -0.33492678
-0.048803002 -0.27194899 -0.33499399
-0.048683397 -0.27193278 -0.33499032
-0.048474699 -0.27191159 -0.33495679
-0.048295442 -0.27191308 -0.33493355
-0.048093133 -0.2719214 -0.33492392
-0.047907691 -0.27191633 -0.33494422
-0.04777633 -0.27193034 -0.33495733
-0.046456665 -0.27191934 -0.33497667
-0.046327002 -0.2718983 -0.33496636
-0.046049096 -0.27188241 -0.3349174
-0.045914721 -0.27188152 -0.33491975
-0.045697499 -0.271882 -0.33495113
-0.045555916 -0.2719034 -0.33499387
-0.044698 -0.27195126 -0.3349905
-0.044498354 -0.2718828 -0.33493495
-0.044330612 -0.27189183 -0.3348791
-0.044053249 -0.27192062 -0.33482152
-0.043917339 -0.27191871 -0.33482125
-0.04369517 -0.27192104 -0.33486056
-0.043513004 -0.27191183 -0.33490437
-0.043309554 -0.27192509 -0.33497614
-0.043120332 -0.27191004 -0.33498722
-0.042853467 -0.27188608 -0.33492211
-0.042701833 -0.27190036 -0.33488488
-0.042504381 -0.2719076 -0.33482766
-0.042363331 -0.27187935 -0.33481833
-0.042105712 -0.27188542 -0.33481616
-0.041856363 -0.27188155 -0.33483037
-0.041714884 -0.27188256 -0.33485109
-0.041497372 -0.27186763 -0.33493575
-0.041305091 -0.2718491 -0.33497903
-0.04105375 -0.2719605 -0.33498725
-0.040924668 -0.27190912 -0.33497128
-0.040668063 -0.27191752 -0.3348636
-0.040565997 -0.2718944 -0.33481038
-0.039510105 -0.27190912 -0.33483917
-0.039256167 -0.27190983 -0.33493185
-0.039088447 -0.27191499 -0.33492771
-0.038872249 -0.27189749 -0.33486101
-0.038703185 -0.27185062 -0.33482707
-0.037419666 -0.27188599 -0.33481431
-0.037297733 -0.27189159 -0.33484375
-0.03709729 -0.27188748 -0.334849
-0.036965501 -0.27186251 -0.33482733
-0.027263066 -0.27189031 -0.33484581
-0.027132263 -0.27189445 -0.33492577
-0.026906 -0.27192602 -0.33497602
-0.052445602 -0.2717436 -0.33499083
-0.052281432 -0.27171525 -0.33498836
-0.052104339 -0.27168801 -0.33496064
-0.051914439 -0.27168307 -0.3349641
-0.051708002 -0.27172559 -0.33499402
-0.051548 -0.271754 -0.334999
-0.050668668 -0.27173498 -0.33499315
-0.050490402 -0.27169618 -0.33494008
-0.050260186 -0.27168846 -0.33486265
-0.050089706 -0.27170214 -0.33482543
-0.049893733 -0.27171439 -0.33485886
-0.049698178 -0.2717188 -0.33487412
-0.049515039 -0.2717154 -0.33494088
-0.048491202 -0.27171737 -0.334977
-0.048283871 -0.27170002 -0.33496681
-0.048097178 -0.27171323 -0.33492586
-0.047935147 -0.27170813 -0.33495715
-0.047757141 -0.27171654 -0.33497769
-0.046443 -0.27177599 -0.33499801
-0.046301801 -0.2717475 -0.3349885
-0.046046197 -0.27170381 -0.33494222
-0.045919739 -0.27170166 -0.33492473
-0.045743495 -0.27171767 -0.33497381
-0.04447338 -0.27171588 -0.33495814
-0.044305876 -0.27168652 -0.33490235
-0.044048164 -0.27169684 -0.33484867
-0.043909039 -0.27170303 -0.334847
-0.043692175 -0.27171007 -0.33487889
-0.043516945 -0.27171111 -0.33491316
-0.043359108 -0.27171832 -0.33494401
-0.042841248 -0.27171525 -0.33497497
-0.042702667 -0.27168801 -0.33493912
-0.042490035 -0.27169594 -0.33487371
-0.042312738 -0.27168867 -0.33483741
-0.042114668 -0.27171823 -0.33484995
-0.041862 -0.27171275 -0.33485639
-0.041707471 -0.27169299 -0.33484846
-0.041495997 -0.27170268 -0.33492032
-0.041321084 -0.27171859 -0.33491865
-0.041071624 -0.271736 -0.33494085
-0.040926199 -0.27172181 -0.33488744
-0.04065077 -0.27171585 -0.3348676
-0.040559221 -0.27170467 -0.33484164
-0.039631501 -0.2716555 -0.3348245
-0.039491553 -0.27169585 -0.33485204
-0.039238334 -0.27169684 -0.33493948
-0.039079126 -0.27169839 -0.33495784
-0.038898997 -0.27171335 -0.33491489
-0.038679264 -0.27170572 -0.334842
-0.038527001 -0.27163798 -0.3348155
-0.037281629 -0.27170771 -0.33485168
-0.037111942 -0.2717028 -0.33489108
-0.0369041 -0.27169353 -0.33484182
-0.036771998 -0.2716065 -0.33480948
-0.0292785 -0.27166933 -0.33482417
-0.02918 -0.271604 -0.334822
-0.027631 -0.27162275 -0.33481097
-0.0275112 -0.2716563 -0.33483568
-0.027290156 -0.27170321 -0.33487666
-0.027156752 -0.27174449 -0.33498698
-0.052254252 -0.27155501 -0.33498785
-0.052111883 -0.27152431 -0.33498257
-0.051895332 -0.27153024 -0.33499157
-0.0504779 -0.27151412 -0.3349641
-0.050262544 -0.27148882 -0.33489224
-0.050102554 -0.27148902 -0.33485579
-0.049893778 -0.2714965 -0.3348839
-0.049704671 -0.27150401 -0.33489266
-0.049500372 -0.27150539 -0.33495128
-0.049378 -0.27147499 -0.33499402
-0.048263691 -0.27150962 -0.33499315
-0.048100483 -0.27149692 -0.33495545
-0.047934003 -0.27149874 -0.33497447
-0.047766503 -0.27151901 -0.33499426
-0.046235003 -0.27154303 -0.33498901
-0.0460435 -0.27155125 -0.33497602
-0.045921363 -0.27152383 -0.3349683
-0.045775 -0.27156103 -0.33499599
-0.044427663 -0.27151799 -0.334988
-0.044325002 -0.27151561 -0.33494067
-0.0440786 -0.271494 -0.33487719
-0.043908302 -0.27148375 -0.33487973
-0.043702167 -0.2714918 -0.33489549
-0.043511651 -0.271503 -0.33493319
-0.043357711 -0.27151203 -0.33497912
-0.042807501 -0.2715905 -0.334997
-0.042691331 -0.27152455 -0.33498242
-0.042476319 -0.2715022 -0.33493015
-0.042309698 -0.2714878 -0.33489582
-0.042131059 -0.27150577 -0.33484679
-0.041882496 -0.2715151 -0.33487284
-0.041704666 -0.27151954 -0.33489123
-0.041524891 -0.27152112 -0.33495033
-0.041342001 -0.27153245 -0.33497599
-0.040636376 -0.27150249 -0.33495951
-0.0405345 -0.27149227 -0.33489311
-0.040305 -0.27151966 -0.33481136
-0.03986989 -0.27146137 -0.33481419
-0.039685003 -0.27146474 -0.33483687
-0.039472833 -0.27148145 -0.33487016
-0.039228667 -0.27152866 -0.33496568
-0.0390612 -0.27155 -0.33499739
-0.038933754 -0.27154326 -0.33498377
-0.038682956 -0.27151173 -0.33490643
-0.038550377 -0.27151936 -0.3348389
-0.037610002 -0.27142999 -0.33481199
-0.037475046 -0.27149734 -0.33484289
-0.037309144 -0.27150559 -0.33487031
-0.037106093 -0.27150363 -0.33494833
-0.036903996 -0.27151281 -0.33490911
-0.036698733 -0.27150077 -0.33483651
-0.036598999 -0.27140999 -0.334806
-0.035242997 -0.27147126 -0.33480674
-0.035081819 -0.27148128 -0.33482882
-0.0349725 -0.27144301 -0.33480799
-0.033275999 -0.27143759 -0.33482841
-0.033174001 -0.27142751 -0.33481899
-0.031427667 -0.27141601 -0.33492503
-0.031322185 -0.27146363 -0.33486652
-0.031186 -0.271442 -0.334829
-0.029288519 -0.27151141 -0.33488956
-0.029114902 -0.27148908 -0.33484769
-0.0289368 -0.27145538 -0.33481342
-0.028691001 -0.271411 -0.334806
-0.028021 -0.27144501 -0.33480901
-0.027950251 -0.27144551 -0.33480772
-0.027695701 -0.27148139 -0.33485508
-0.027521601 -0.27150956 -0.33490556
-0.027311251 -0.27152973 -0.33493876
-0.052040998 -0.27136433 -0.33498168
-0.051976502 -0.27135599 -0.33497426
-0.0504332 -0.27135858 -0.3349756
-0.050269667 -0.27131954 -0.33495101
-0.050102733 -0.27129379 -0.33491057
-0.049890071 -0.27128157 -0.33490378
-0.049731001 -0.27128482 -0.33490664
-0.049498003 -0.27129543 -0.33495677
-0.049394 -0.271227 -0.334988
-0.048064817 -0.27131212 -0.33497992
-0.047931798 -0.27129897 -0.334993
-0.045930143 -0.2713756 -0.33498725
-0.044305295 -0.27131823 -0.33496428
-0.0441298 -0.2713142 -0.33493438
-0.043898113 -0.27130076 -0.33491829
-0.043710645 -0.2712703 -0.33493423
-0.043521952 -0.27128544 -0.33495355
-0.043384999 -0.27132201 -0.33499402
-0.04245906 -0.27132919 -0.33496812
-0.042297579 -0.27128604 -0.33492857
-0.042114004 -0.27128297 -0.33490065
-0.041888554 -0.27129999 -0.33489692
-0.041701958 -0.27130395 -0.33493331
-0.041552499 -0.27133167 -0.33495799
-0.040617 -0.2713415 -0.33498049
-0.040536664 -0.27128452 -0.33495417
-0.040321857 -0.27129257 -0.33484644
-0.040094834 -0.27128315 -0.33481565
-0.039872799 -0.27131492 -0.3348698
-0.039715804 -0.27130061 -0.33486158
-0.039468247 -0.27129301 -0.33495045
-0.039393999 -0.271258 -0.33498099
-0.038655125 -0.27130595 -0.33495981
-0.038534272 -0.27130246 -0.33489299
-0.038335502 -0.27129149 -0.33481699
-0.038131498 -0.271267 -0.33481097
-0.037891731 -0.27126226 -0.33483124
-0.03767043 -0.27127329 -0.33485454
-0.037481088 -0.27128249 -0.33487585
-0.037314907 -0.27129129 -0.33490345
-0.037172001 -0.27134949 -0.33497751
-0.036873668 -0.27134883 -0.33496764
-0.036698747 -0.27131554 -0.33490539
-0.036526166 -0.271256 -0.33481649
-0.036308501 -0.27121767 -0.33481082
-0.035834 -0.271229 -0.33480701
-0.035258334 -0.2713238 -0.33489269
-0.035108563 -0.27131081 -0.33491319
-0.03490933 -0.27127704 -0.33487365
-0.0347615 -0.27120799 -0.33481848
-0.0332832 -0.27130279 -0.33492652
-0.033109333 -0.27131167 -0.33487225
-0.032917373 -0.27123886 -0.33484137
-0.031432003 -0.27133751 -0.33497149
-0.031299833 -0.2713117 -0.33492267
-0.03114925 -0.27128249 -0.33483049
-0.030996 -0.27124301 -0.33481601
-0.029913334 -0.27121666 -0.33481833
-0.0296678 -0.27125859 -0.33487782
-0.029584398 -0.27125341 -0.33483702
-0.029277362 -0.27135935 -0.33495376
-0.029086467 -0.2713275 -0.33492029
-0.028915249 -0.271294 -0.33487141
-0.02869813 -0.27128932 -0.33489177
-0.0285255 -0.27129 -0.33484852
-0.028293936 -0.2712802 -0.33486828
-0.028096801 -0.27128035 -0.33488804
-0.027893862 -0.27129409 -0.3348909
-0.027716571 -0.27131602 -0.33494473
-0.027518898 -0.27135843 -0.33496803
-0.050225567 -0.27112314 -0.33497301
-0.05011294 -0.2711128 -0.33493906
-0.04987821 -0.27109736 -0.33492243
-0.049723227 -0.27107123 -0.33492926
-0.049493276 -0.27107945 -0.33498234
-0.047883999 -0.27114999 -0.33499601
-0.044256501 -0.27115601 -0.33498752
-0.0440844 -0.27112621 -0.33497256
-0.043888565 -0.27111804 -0.3349624
-0.043702167 -0.27113 -0.33495799
-0.043563999 -0.2711305 -0.33498299
-0.042440668 -0.2711837 -0.33498967
-0.04232765 -0.27111083 -0.33496872
-0.042103298 -0.27111298 -0.334984
-0.04189086 -0.27109388 -0.33492014
-0.041744601 -0.27113739 -0.33497319
-0.041542001 -0.271056 -0.33499849
-0.040477004 -0.27111465 -0.334977
-0.040265553 -0.27110043 -0.33489424
-0.040129997 -0.27109116 -0.33489156
-0.039860997 -0.27110049 -0.33493835
-0.039750397 -0.27109832 -0.33492991
-0.039480142 -0.27113137 -0.33497459
-0.039384 -0.27114999 -0.33499402
-0.038619336 -0.27114999 -0.33498201
-0.038512401 -0.27110118 -0.33496341
-0.038266782 -0.27108866 -0.33487609
-0.038111471 -0.27111188 -0.3348816
-0.037885495 -0.27109143 -0.33491492
-0.037689667 -0.27109599 -0.33492115
-0.037479497 -0.27109566 -0.33494616
-0.037361108 -0.27110133 -0.33497223
-0.036674157 -0.27110812 -0.3349514
-0.036512062 -0.27110955 -0.33487159
-0.036322001 -0.27109459 -0.33484942
-0.03611723 -0.2710942 -0.33484799
-0.035894997 -0.27107611 -0.33484381
-0.035691578 -0.2710886 -0.3348566
-0.035526324 -0.27110443 -0.33484155
-0.035377 -0.27117401 -0.33482501
-0.035009999 -0.27117199 -0.33498299
-0.034891114 -0.27112389 -0.33494556
-0.034739003 -0.27108967 -0.33487341
-0.034487098 -0.27106562 -0.3348307
-0.034300666 -0.271045 -0.33484638
-0.034106143 -0.27104014 -0.33483768
-0.033912107 -0.27105355 -0.33488232
-0.033695202 -0.27109593 -0.33485422
-0.033546429 -0.27108544 -0.33488002
-0.033022001 -0.27116102 -0.33497551
-0.03289577 -0.27110407 -0.33490318
-0.0326875 -0.2710731 -0.33486572
-0.032518066 -0.27105466 -0.33484027
-0.032340001 -0.27103466 -0.334842
-0.031892497 -0.27108049 -0.33483088
-0.0317805 -0.271128 -0.33484501
-0.031254001 -0.27119899 -0.33499801
-0.031016 -0.27115148 -0.334948
-0.030892169 -0.2711083 -0.33491704
-0.030683063 -0.27109578 -0.33486414
-0.03048815 -0.27107155 -0.33489555
-0.030301401 -0.27108794 -0.33485177
-0.030111998 -0.27111301 -0.33484983
-0.029905001 -0.27113628 -0.33488646
-0.029674001 -0.27116501 -0.334993
-0.028829334 -0.27116999 -0.33498731
-0.028688999 -0.27117366 -0.33497319
-0.028485779 -0.27117077 -0.33495587
-0.028319335 -0.27115566 -0.33491001
-0.028008999 -0.27113199 -0.334995
-0.027960001 -0.27113798 -0.33496466
-0.050120499 -0.27092367 -0.33497712
-0.049891379 -0.27091846 -0.33494535
-0.04972491 -0.27089337 -0.33495489
-0.049527999 -0.27093235 -0.33498266
-0.042296499 -0.27095839 -0.33497852
-0.041937999 -0.27093601 -0.33494899
-0.040316001 -0.27095333 -0.33498132
-0.040127251 -0.27094209 -0.33495998
-0.039804999 -0.27094701 -0.334997
-0.039769337 -0.27095333 -0.334995
-0.038410999 -0.27094299 -0.33499199
-0.038245253 -0.27096048 -0.33495274
-0.038080499 -0.27093813 -0.33496216
-0.037863623 -0.27095425 -0.33497652
-0.037730202 -0.27093783 -0.33496818
-0.037579499 -0.2709825 -0.334993
-0.036640752 -0.27095523 -0.33496726
-0.036487333 -0.27090323 -0.33495936
-0.036299653 -0.27090314 -0.33493888
-0.036081634 -0.27094698 -0.33494791
-0.035910852 -0.27090162 -0.33493102
-0.035729334 -0.27091649 -0.33496585
-0.035577498 -0.27093449 -0.33496451
-0.034816001 -0.27096599 -0.33499101
-0.034729287 -0.27095515 -0.33495742
-0.034499418 -0.27093658 -0.33491284
-0.034280624 -0.27090949 -0.33495551
-0.034082502 -0.27090061 -0.33492538
-0.033940203 -0.27092379 -0.334959
-0.033690803 -0.27096081 -0.33490101
-0.032407999 -0.27094799 -0.33491501
-0.032332331 -0.27096 -0.33486798
-0.03212525 -0.27097151 -0.33485201
-0.030433999 -0.27096099 -0.33496001
-0.049886696 -0.27074826 -0.33497939
-0.04975725 -0.27078649 -0.33498025
-0.0363672 -0.27072683 -0.33495578
-0.035944 -0.27076775 -0.33498925
-0.0341755 -0.27078849 -0.334966
-0.041288 -0.28465286 -0.33477873
-0.041073333 -0.284661 -0.33477935
-0.0409097 -0.28464952 -0.33476663
-0.040670499 -0.284614 -0.33475849
-0.040550001 -0.28462118 -0.334768
-0.040254001 -0.28463301 -0.334795
-0.039438002 -0.284605 -0.33476099
-0.039303921 -0.28464815 -0.33474335
-0.039097689 -0.28468356 -0.33471316
-0.038928866 -0.28470466 -0.33471009
-0.0386719 -0.2846787 -0.33473581
-0.038520213 -0.28467286 -0.33474508
-0.038380999 -0.284657 -0.334782
-0.04325125 -0.28441599 -0.33476925
-0.043137141 -0.28445187 -0.3347657
-0.042882927 -0.28448573 -0.33475044
-0.04273314 -0.28448027 -0.33474371
-0.042466111 -0.28449443 -0.33476776
-0.042321701 -0.28447309 -0.33476621
-0.042161502 -0.28443551 -0.334768
-0.041513335 -0.28445533 -0.33476567
-0.041293964 -0.28451517 -0.33471212
-0.041068003 -0.28452486 -0.33468589
-0.040925346 -0.28450879 -0.33467373
-0.040664669 -0.284477 -0.33467969
-0.040543534 -0.2844843 -0.33468869
-0.040267751 -0.28449634 -0.33473316
-0.040117599 -0.28447402 -0.33472475
-0.039487749 -0.28449699 -0.334746
-0.039317887 -0.28449124 -0.33465219
-0.039125998 -0.28455666 -0.33461535
-0.038632665 -0.28457764 -0.33464369
-0.038487077 -0.28456205 -0.33465731
-0.03830513 -0.28452614 -0.33465922
-0.038154498 -0.28448588 -0.33473197
-0.043409001 -0.28423452 -0.33477801
-0.043293603 -0.28427958 -0.33472651
-0.043140925 -0.28427908 -0.33467478
-0.042899251 -0.28434375 -0.33464786
-0.042709839 -0.28434601 -0.3346535
-0.042466585 -0.28431952 -0.33466744
-0.042321477 -0.28433004 -0.3346709
-0.04206029 -0.28427693 -0.33474168
-0.041926 -0.284242 -0.33474851
-0.041676614 -0.28425616 -0.33475363
-0.041539375 -0.284284 -0.33472848
-0.041289315 -0.28431123 -0.33464292
-0.0410235 -0.284392 -0.33461499
-0.040951248 -0.28439099 -0.33462948
-0.040704336 -0.28435999 -0.33460936
-0.040536601 -0.28434759 -0.33461818
-0.040261332 -0.284338 -0.33463085
-0.040106811 -0.28429511 -0.33466557
-0.039915398 -0.28428841 -0.33469981
-0.039701 -0.28429997 -0.33472633
-0.039478663 -0.28432584 -0.33467099
-0.039352667 -0.2843397 -0.33462104
-0.038078502 -0.28435463 -0.334672
-0.0379145 -0.28429517 -0.33473718
-0.037724867 -0.28425905 -0.33476129
-0.037479751 -0.28427303 -0.33474776
-0.037317958 -0.2842885 -0.33472753
-0.037092049 -0.28428346 -0.33470845
-0.036929 -0.28427839 -0.33471426
-0.036679875 -0.28425038 -0.33477378
-0.036578499 -0.28425449 -0.33479249
-0.044643 -0.28405499 -0.33479851
-0.044473205 -0.2840324 -0.33477181
-0.044319332 -0.28400669 -0.33478799
-0.044158667 -0.28401634 -0.33479598
-0.043469928 -0.28408736 -0.33477244
-0.043290004 -0.28408778 -0.33468309
-0.043168876 -0.28410125 -0.3346225
-0.042062618 -0.2841253 -0.33465961
-0.041929424 -0.28407156 -0.33464971
-0.041674282 -0.28407726 -0.33466566
-0.041546501 -0.28409576 -0.33463538
-0.04005 -0.2841655 -0.33461201
-0.039884798 -0.28411022 -0.33464199
-0.039709479 -0.28412604 -0.33463216
-0.039526999 -0.284183 -0.33463299
-0.037885696 -0.28414547 -0.33464199
-0.037726626 -0.28411293 -0.33467242
-0.03748852 -0.28407413 -0.3346464
-0.037326448 -0.28409889 -0.33463308
-0.037090361 -0.2841357 -0.33461967
-0.036926333 -0.28417733 -0.33462799
-0.036670089 -0.28412205 -0.33466423
-0.036522999 -0.28411677 -0.33470356
-0.036382001 -0.28404999 -0.334748
-0.045066796 -0.28388619 -0.3347638
-0.044914041 -0.28389928 -0.33475718
-0.044697948 -0.28392026 -0.33475387
-0.044509903 -0.28389871 -0.33471173
-0.04431333 -0.28387091 -0.33470768
-0.044111889 -0.28388011 -0.33472931
-0.043864463 -0.28386378 -0.33474016
-0.043689534 -0.28389034 -0.33475974
-0.043493148 -0.28391278 -0.3347238
-0.043308832 -0.28392479 -0.33465949
-0.041859999 -0.28393501 -0.33461699
-0.041666504 -0.28394035 -0.33461317
-0.041565999 -0.2839475 -0.33460349
-0.037665125 -0.28397211 -0.33462626
-0.037576001 -0.283934 -0.33460501
-0.036466248 -0.28396949 -0.33461449
-0.036308955 -0.2839129 -0.33468568
-0.036175001 -0.28385401 -0.33478001
-0.045291636 -0.28364614 -0.33477902
-0.045047835 -0.28369433 -0.33470333
-0.044910852 -0.28370216 -0.33466992
-0.044705003 -0.28373122 -0.3346512
-0.044519562 -0.28372249 -0.33462918
-0.044316713 -0.28369483 -0.33464125
-0.044099949 -0.28367507 -0.33465132
-0.043853752 -0.28368747 -0.33468693
-0.043708667 -0.28369573 -0.33471102
-0.043489434 -0.2837044 -0.33469579
-0.043330923 -0.28372437 -0.3346324
-0.036228999 -0.28379148 -0.33461499
-0.036094122 -0.28372362 -0.33468238
-0.046619002 -0.28346601 -0.33478799
-0.046489373 -0.28344437 -0.33476892
-0.046300169 -0.28344765 -0.334782
-0.046098996 -0.28344846 -0.33479068
-0.045958001 -0.283429 -0.3347975
-0.045312062 -0.28350139 -0.33477333
-0.0450802 -0.28348261 -0.33469981
-0.044911593 -0.28349429 -0.33462867
-0.044778802 -0.28348619 -0.3346132
-0.044422999 -0.283595 -0.33460301
-0.044361334 -0.28359666 -0.334609
-0.044111922 -0.28351375 -0.33461365
-0.043845642 -0.28348047 -0.33464789
-0.043711055 -0.28348437 -0.33465302
-0.043485783 -0.28349626 -0.334656
-0.043359004 -0.28353742 -0.33462617
-0.036047801 -0.28355902 -0.33463758
-0.035918374 -0.28349113 -0.33470187
-0.035064198 -0.28341481 -0.33479118
-0.0349315 -0.28342324 -0.33477175
-0.034716997 -0.28343701 -0.33478034
-0.047231 -0.28323197 -0.33478999
-0.047059 -0.28327101 -0.334777
-0.046908952 -0.28331333 -0.33473903
-0.046698116 -0.28332311 -0.33473951
-0.046496738 -0.28329492 -0.33470401
-0.046310451 -0.28327075 -0.33469856
-0.046081878 -0.28329414 -0.33472416
-0.045902561 -0.28328899 -0.33474985
-0.045727085 -0.28326491 -0.33476999
-0.045497671 -0.2832801 -0.33478436
-0.045316171 -0.28332227 -0.33475754
-0.0451064 -0.28328618 -0.33469039
-0.044923384 -0.28332722 -0.33461139
-0.044783499 -0.28332698 -0.33460501
-0.043823998 -0.28333899 -0.33460665
-0.043704428 -0.28327912 -0.33463106
-0.043487139 -0.28329408 -0.33462545
-0.043388333 -0.28334102 -0.33461133
-0.035858501 -0.28332275 -0.33465138
-0.035719465 -0.28330678 -0.33472273
-0.035498749 -0.28327751 -0.33476117
-0.035293646 -0.28327537 -0.334728
-0.035059534 -0.28328085 -0.33468834
-0.034933642 -0.28329536 -0.33466908
-0.03469656 -0.28331584 -0.33467296
-0.034535557 -0.28331089 -0.33471423
-0.034345504 -0.28327534 -0.33475283
-0.047280587 -0.2830897 -0.33474231
-0.047049999 -0.28310069 -0.334699
-0.046908375 -0.28311121 -0.3346566
-0.046697881 -0.28312659 -0.33466157
-0.046504758 -0.28311402 -0.33463314
-0.04632457 -0.28311071 -0.33462769
-0.046093289 -0.2830787 -0.33464622
-0.045914996 -0.28309163 -0.33467707
-0.045714952 -0.2830973 -0.33469778
-0.045493137 -0.2831167 -0.3347412
-0.045303579 -0.28311515 -0.33472773
-0.0451218 -0.28311819 -0.33466822
-0.044949666 -0.28314266 -0.33460569
-0.043827336 -0.28313848 -0.33461568
-0.043729067 -0.28310549 -0.33461091
-0.043533251 -0.28313023 -0.33461002
-0.035811 -0.28318 -0.33460501
-0.035714842 -0.28311747 -0.33464077
-0.035496231 -0.28311539 -0.33467689
-0.035317726 -0.28310946 -0.33463702
-0.035122998 -0.28312919 -0.33461583
-0.034997001 -0.283149 -0.334602
-0.034286059 -0.28312802 -0.33467564
-0.03409975 -0.28308612 -0.33475462
-0.0339825 -0.28305101 -0.33477849
-0.047476664 -0.28289068 -0.33477902
-0.047289599 -0.28288573 -0.33469456
-0.047115501 -0.2828925 -0.33464453
-0.046906073 -0.28293127 -0.33461255
-0.046742331 -0.28298298 -0.33461499
-0.046509001 -0.282989 -0.334602
-0.046027999 -0.28292701 -0.33461165
-0.045916751 -0.28292498 -0.33461678
-0.04570483 -0.28289291 -0.33464918
-0.04549383 -0.28290457 -0.33469817
-0.045297712 -0.2829102 -0.33470023
-0.045129251 -0.28294101 -0.33464751
-0.035713751 -0.2829735 -0.3346175
-0.035545334 -0.28296617 -0.33461285
-0.03424 -0.282987 -0.33460101
-0.034096092 -0.28293654 -0.33464327
-0.033912335 -0.28290448 -0.33473459
-0.033798002 -0.28285399 -0.334786
-0.048439749 -0.28262624 -0.33477125
-0.04834817 -0.28263935 -0.33475152
-0.048093285 -0.28265914 -0.33474731
-0.047895625 -0.28266463 -0.33475626
-0.047716584 -0.28269473 -0.33476555
-0.047524333 -0.28272733 -0.33475393
-0.047267359 -0.28268296 -0.33468008
-0.047115602 -0.28269738 -0.33464041
-0.046935666 -0.28276134 -0.3346037
-0.045682773 -0.28270823 -0.33463186
-0.04549893 -0.2826944 -0.33469564
-0.045282517 -0.28270245 -0.33467036
-0.045148998 -0.28274852 -0.33463198
-0.034024 -0.282781 -0.33460599
-0.033876214 -0.28273013 -0.33465976
-0.033727415 -0.2826955 -0.33474377
-0.033587001 -0.28264999 -0.3348
-0.033073999 -0.2826075 -0.33479452
-0.032820001 -0.282686 -0.3348
-0.048855666 -0.28244767 -0.33478734
-0.048695665 -0.282491 -0.3347455
-0.048474167 -0.2824879 -0.33470127
-0.048340078 -0.28248134 -0.33467546
-0.04809529 -0.28249359 -0.33466044
-0.047889352 -0.28250995 -0.33465499
-0.04771981 -0.28250396 -0.33465415
-0.047512468 -0.28252241 -0.33467564
-0.047270928 -0.28249162 -0.33463424
-0.047173601 -0.28245959 -0.33463398
-0.045629997 -0.28253034 -0.33462766
-0.045498077 -0.28249243 -0.33465749
-0.045282952 -0.28249493 -0.33463132
-0.033814002 -0.28258201 -0.334611
-0.033679854 -0.28252944 -0.33467111
-0.033499453 -0.28250101 -0.33473361
-0.033321999 -0.28248543 -0.33474615
-0.033100214 -0.28248686 -0.33473322
-0.032873642 -0.28245375 -0.3347038
-0.032740586 -0.28247726 -0.33473554
-0.032524999 -0.282424 -0.33476001
-0.049052861 -0.28224787 -0.33478016
-0.048901495 -0.2823067 -0.33474031
-0.048686888 -0.28232035 -0.33466899
-0.048482124 -0.28231701 -0.33462715
-0.048332248 -0.28234449 -0.33462277
-0.048107337 -0.28235468 -0.33460966
-0.047832001 -0.282368 -0.334602
-0.047727752 -0.28237024 -0.33460802
-0.047291502 -0.28234676 -0.33460876
-0.045490917 -0.2822791 -0.33462572
-0.045357499 -0.282307 -0.33461452
-0.03362 -0.282379 -0.334647
-0.033495806 -0.28231499 -0.33464134
-0.033327416 -0.28232643 -0.3346478
-0.033108089 -0.28234899 -0.33464965
-0.032880001 -0.28234425 -0.3346085
-0.032723598 -0.28234959 -0.33461839
-0.032478664 -0.28233668 -0.33467031
-0.032313049 -0.28228816 -0.33470374
-0.032136664 -0.28223002 -0.33473432
-0.049230248 -0.28204674 -0.33477676
-0.049099591 -0.28208911 -0.33472577
-0.048889611 -0.28210571 -0.33465007
-0.0486826 -0.28215539 -0.33462358
-0.045458 -0.28214133 -0.33460769
-0.045373 -0.28214499 -0.33460799
-0.032078501 -0.28213102 -0.33467001
-0.031950749 -0.28204674 -0.33474877
-0.049245998 -0.28188032 -0.33476126
-0.049107041 -0.28188291 -0.33466327
-0.0318828 -0.28192639 -0.3346819
-0.031745669 -0.28185132 -0.33476499
-0.049285442 -0.28170854 -0.3347452
-0.049114682 -0.28167698 -0.33464849
-0.031803999 -0.28176799 -0.33460701
-0.031717502 -0.28169069 -0.33470398
-0.049422499 -0.28147751 -0.334782
-0.049271334 -0.28152433 -0.33471391
-0.049109764 -0.28150231 -0.33463901
-0.031664252 -0.28149876 -0.33468926
-0.031555336 -0.28143331 -0.33477566
-0.049441334 -0.28128889 -0.33477151
-0.049274888 -0.2813141 -0.33471966
-0.04910665 -0.28132179 -0.33463925
-0.031475913 -0.28127655 -0.33473793
-0.031317141 -0.28122213 -0.33477303
-0.050457753 -0.28105724 -0.33477747
-0.050296646 -0.28110716 -0.33476344
-0.050119415 -0.28111538 -0.33474636
-0.049882278 -0.28107476 -0.33474001
-0.049700253 -0.28107595 -0.33474174
-0.049499776 -0.28109381 -0.33472624
-0.049283911 -0.28109887 -0.3346957
-0.049122766 -0.28112063 -0.33463356
-0.031449217 -0.28112847 -0.33464092
-0.031299502 -0.28107706 -0.33470374
-0.031114051 -0.28104547 -0.33477685
-0.0309445 -0.28103501 -0.33478776
-0.050843999 -0.280808 -0.33478749
-0.050685313 -0.28087461 -0.33476683
-0.050524246 -0.28090233 -0.33473393
-0.050302964 -0.28091338 -0.33467644
-0.050099734 -0.28092965 -0.33465925
-0.049874336 -0.28090617 -0.33464599
-0.049705919 -0.28090277 -0.33464304
-0.049504537 -0.28088412 -0.33466342
-0.049307331 -0.28089678 -0.33465967
-0.049153704 -0.28091779 -0.33464271
-0.031269386 -0.28088814 -0.3346315
-0.031107888 -0.2808727 -0.33471486
-0.030910445 -0.28088367 -0.33470762
-0.030732799 -0.28086534 -0.33472946
-0.030567 -0.28082651 -0.33477199
-0.050877307 -0.28066587 -0.33474728
-0.050686412 -0.28068331 -0.33471018
-0.050529584 -0.28069881 -0.33465376
-0.050318573 -0.2807478 -0.33462122
-0.050172001 -0.280792 -0.33460999
-0.049472 -0.28074932 -0.33461401
-0.049278498 -0.28074276 -0.33462352
-0.049165249 -0.28073052 -0.33461624
-0.031233333 -0.28073332 -0.33460867
-0.031103302 -0.28073019 -0.33463174
-0.030890571 -0.28073797 -0.3346394
-0.03070415 -0.28068811 -0.33466068
-0.030504748 -0.28069025 -0.33470508
-0.030327581 -0.28068423 -0.33474854
-0.030197 -0.28062701 -0.33477899
-0.051042803 -0.28050601 -0.33476579
-0.050907381 -0.28049752 -0.33469546
-0.05068301 -0.28049493 -0.33463377
-0.050562501 -0.28056151 -0.33462101
-0.030443501 -0.28055701 -0.33461851
-0.030295501 -0.28053179 -0.33464694
-0.030101165 -0.28047886 -0.33473
-0.029927801 -0.28046411 -0.33471179
-0.029798999 -0.28043899 -0.334703
-0.05122 -0.28023401 -0.33477101
-0.051119629 -0.28030309 -0.33473274
-0.05093256 -0.28032351 -0.3346501
-0.030048203 -0.28033152 -0.33466768
-0.02991515 -0.28030404 -0.33464846
-0.029748499 -0.28027326 -0.33469841
-0.051243749 -0.280065 -0.33478087
-0.051111665 -0.2801024 -0.33469781
-0.050941333 -0.28013739 -0.33461294
-0.029844714 -0.28012314 -0.33463615
-0.029696876 -0.2800751 -0.33472174
-0.029574335 -0.28002501 -0.33477297
-0.051248167 -0.27990416 -0.33478585
