-0.0409455 0.00477182 0.99915 0.000871076
-0.042456 0.00979265 0.99905 0.00533934
-0.0439045 -0.0012547 0.999035 0.000920836
-0.0499121 -0.00782676 0.998723 0
-0.0524504 -0.000987565 0.998623 0
-0.0542255 -0.000628512 0.998528 0.000449289
-0.0554562 -0.00604883 0.998443 0.000743087
-0.058822 0.00365515 0.998262 0.0096633
-0.0616215 0.00320365 0.998094 0.0136808
-0.0642075 0.00432228 0.997927 0.0127608
-0.0658631 0.00880478 0.99779 0.0187717
-0.0671638 0.0109684 0.997682 0.020676
-0.0680243 0.00931561 0.99764 0.0222243
-0.0687279 0.00609483 0.997617 0.0175226
-0.0708694 0.010749 0.997428 0.0208766
-0.0714218 0.00416797 0.997437 0.0190596
0.204706 -0.133797 0.969636 0
0.211287 -0.134246 0.968161 0
-0.101743 -0.0290226 0.994387 0
-0.0962719 -0.0333312 0.994797 0
-0.0929472 -0.0270677 0.995303 0.00173768
-0.0888502 -0.024202 0.995751 0
-0.0859808 -0.0271017 0.995928 0
-0.0812814 -0.0285939 0.996281 0.000106705
-0.0675483 -0.0105053 0.997661 0.0105774
-0.0597561 -0.0100082 0.998163 0.00774855
-0.0546562 -0.0038366 0.998498 0.00476662
-0.0445364 -0.00375885 0.999001 0
-0.0405478 -0.00529166 0.999164 0.000463645
-0.0392707 0.00666732 0.999206 0
-0.0412443 0.0038592 0.999142 0
-0.0455413 0.00332715 0.998957 0
-0.0508158 -0.0107401 0.99865 0
-0.0553673 -0.00300271 0.998462 0.000487848
-0.0568472 -0.00546711 0.998368 0.0051788
-0.058639 -0.0086307 0.998242 0.00705168
-0.0623479 0.00481348 0.998043 0.0122107
-0.0642055 0.00861436 0.9979 0.0147171
-0.0660297 0.00639818 0.997797 0.0191145
-0.0674863 0.00619901 0.997701 0.0205414
-0.0687646 0.0089939 0.997592 0.021387
-0.0696993 0.00345388 0.997562 0.021908
0.206913 -0.139536 0.968358 0
0.21192 -0.136002 0.967777 0.00132725
-0.0989365 -0.0330773 0.994544 0
-0.091707 -0.0293311 0.995354 0
-0.0892391 -0.033256 0.995455 0
-0.0854494 -0.0291273 0.995917 0.000583386
-0.0816879 -0.0252314 0.996339 0
-0.0797505 -0.0234461 0.996539 0.00325608
-0.0521629 -0.00177764 0.998637 0.00557056
-0.0417165 -0.00132025 0.999129 0.00793109
-0.0414558 0.00621021 0.999121 0
-0.0411188 0.0103878 0.9991 0
-0.0456099 -0.000688284 0.998959 0
-0.0526717 -0.00534786 0.998598 0.00253464
-0.0578326 -0.00342253 0.99832 0.00497666
-0.0587986 -0.00073224 0.99827 0.00715024
-0.0611108 -0.00289281 0.998127 0.0101433
-0.0637656 -0.00748003 0.997937 0.0112357
-0.06539 0.00502625 0.997847 0.0175391
-0.067149 0.00407053 0.997735 0.0211099
-0.0675543 0.00453732 0.997705 0.018256
-0.0691996 -0.000290145 0.997603 0.0191018
-0.0689796 -0.00165686 0.997617 0.0176375
-0.0708369 -0.00039736 0.997488 0.0198915
0.212759 -0.135129 0.967716 0
0.223336 -0.13416 0.965465 0
-0.0979443 -0.0343954 0.994597 0
-0.091724 -0.0322362 0.995263 0
-0.0857506 -0.0318753 0.995807 0
-0.0837406 -0.0268789 0.996125 0.00134135
-0.0810452 -0.0253559 0.996388 0.00193083
-0.0784775 -0.0280882 0.99652 0.00604148
-0.0333976 -0.00110198 0.999442 0
-0.0415789 0.00523121 0.999122 0
-0.0449443 0.00428201 0.99898 0
-0.0468296 0.00349245 0.998897 0
-0.0500617 -0.00316574 0.998741 0.000157807
-0.053996 0.000956681 0.998541 0.00151349
-0.057004 -0.0132045 0.998287 0.00303424
-0.0598313 -0.00147993 0.998207 0.00443575
-0.0610208 -0.00527486 0.998123 0.0056793
-0.0640435 -0.00408965 0.997939 0.00966355
-0.0662189 -0.000358295 0.997805 0.0167435
-0.0670411 -0.00178678 0.997749 0.0165074
-0.0680369 0.00209246 0.997681 0.0191896
-0.0701451 0.00219182 0.997534 0.0209921
-0.0695224 -0.00344605 0.997574 0.0196373
-0.0703523 0.000505744 0.997522 0.0174027
0.208738 -0.126889 0.969705 0
0.21928 -0.126985 0.967363 0.00295148
-0.102424 -0.0294728 0.994304 0
-0.0981401 -0.0312803 0.994681 0
-0.0923158 -0.0353005 0.995104 0
-0.0863422 -0.0348335 0.995656 0
-0.0832119 -0.0285332 0.996123 0.00138242
-0.0810508 -0.030965 0.996229 0.00181715
-0.0783188 -0.0297135 0.996486 0.00874911
-0.0330455 -2.91061e-05 0.999454 0
-0.0422429 -0.00326021 0.999102 0
-0.0460624 -0.00478455 0.998927 0
-0.0478237 -0.000990522 0.998855 0
-0.0503549 -0.000549558 0.998731 0
-0.0547704 -0.00414877 0.99849 0.00184039
-0.0594439 -0.0088367 0.998192 0.00303416
-0.0608643 -0.00325957 0.998141 0.00500169
-0.063112 -0.00292382 0.998002 0.00848853
-0.0648256 -0.00208213 0.997894 0.0109996
-0.067504 0.00129125 0.997718 0.0162476
-0.0683789 0.00140871 0.997658 0.0149089
-0.0681912 -0.000379965 0.997672 0.0165342
-0.068974 0.00087221 0.997618 0.0152547
-0.0701234 -0.00413319 0.99753 0.0148908
-0.0704454 -0.00715683 0.99749 0.0139521
0.213075 -0.124296 0.969097 0.00908321
0.224931 -0.130379 0.965612 0.00755373
-0.0977457 -0.0265692 0.994857 0.00221501
-0.0916665 -0.0290827 0.995365 0.00361686
-0.0867686 -0.037914 0.995507 0.00264933
-0.0838368 -0.0367189 0.995803 0.00281756
-0.0790188 -0.0299836 0.996422 0.0046912
-0.074505 -0.0250175 0.996907 0.00537423
-0.04433 -0.00551263 0.999002 0
-0.0464885 -0.00322078 0.998914 0
-0.0484149 -0.00317993 0.998822 0
-0.0516389 -0.00415687 0.998657 0
-0.0577149 0.00260682 0.99833 0.00133077
-0.0617355 -0.00694136 0.998068 0.00405206
-0.0629248 -0.000228292 0.998018 0.0077979
-0.0645822 0.000740068 0.997912 0.011125
-0.0638693 -0.00613385 0.997939 0.00992984
-0.0672683 -0.00431442 0.997726 0.0157672
-0.06872 -0.00116089 0.997635 0.0158163
-0.0682488 -0.00144409 0.997667 0.0146034
-0.0696175 0.00311539 0.997569 0.0141698
-0.0699926 -0.00609447 0.997529 0.0137775
-0.0701866 -0.00841293 0.997498 0.0122953
0.221776 -0.124381 0.967132 0.00731334
0.232932 -0.123768 0.964585 0.00902031
-0.101187 -0.0296671 0.994425 0.010928
-0.0898374 -0.0283898 0.995552 0.0032555
-0.0844009 -0.0292674 0.996002 0.00502088
-0.0781906 -0.0273489 0.996563 0.00633539
-0.0748809 -0.0188477 0.997014 0.00973279
-0.0692531 -0.0163072 0.997466 0.0108426
-0.0455822 -0.00969172 0.998914 0
-0.0468661 -0.00618065 0.998882 0
-0.0496677 -0.0101555 0.998714 0
-0.0521078 -0.0054593 0.998627 0
-0.0589307 -0.00187348 0.99826 0.00178138
-0.0622251 -0.0122081 0.997988 0.00231648
-0.0635385 -0.00736686 0.997952 0.00480773
-0.0634735 -0.00334935 0.997978 0.00825249
-0.0653954 -0.00623206 0.99784 0.0112382
-0.0666487 -0.0086734 0.997739 0.0125403
-0.0687892 -0.0136444 0.997538 0.0141644
-0.0697784 -0.00909709 0.997521 0.0120546
-0.0702425 -0.00833419 0.997495 0.0117692
-0.0687924 -0.0129395 0.997547 0.00876501
-0.0698159 -0.015608 0.997438 0.00913675
0.22932 -0.121355 0.965756 0.00169673
-0.0985214 -0.0263062 0.994787 0.00499545
-0.0896679 -0.0232159 0.995701 0.00882658
-0.0831777 -0.0230261 0.996269 0.00886417
-0.0799357 -0.0240124 0.996511 0.00963585
-0.0712918 -0.0221471 0.99721 0.00890146
-0.0458963 -0.00913147 0.998904 0
-0.0471141 -0.0116909 0.998821 0
-0.0493913 -0.0102662 0.998727 0
-0.0540758 -0.00770255 0.998507 0
-0.0594162 -0.0130509 0.998148 0.00298272
-0.0623825 -0.0113435 0.997988 0.00535073
-0.0641172 -0.00551441 0.997927 0.00554169
-0.0655121 -0.00996429 0.997802 0.00792702
-0.0673666 -0.00425128 0.997719 0.0117198
-0.0668171 -0.00925616 0.997722 0.00953383
-0.0680661 -0.0208689 0.997463 0.00887631
-0.0692814 -0.0129768 0.997513 0.0112276
-0.0683328 -0.0140001 0.997564 0.00949234
-0.0689488 -0.0139314 0.997523 0.0102165
-0.0685844 -0.0188666 0.997467 0.00723188
0.228608 -0.11569 0.96662 0.00541299
0.239486 -0.118837 0.9636 0.00669276
-0.0975272 -0.0254973 0.994906 0.00342332
-0.086766 -0.0207526 0.996013 0.00593481
-0.0800688 -0.025442 0.996465 0.00655865
-0.0740049 -0.0260028 0.996919 0.00962946
-0.0701989 -0.0255989 0.997204 0.0135089
-0.04771 -0.0150631 0.998748 0
-0.0480277 -0.0116751 0.998778 0
-0.0504858 -0.00840851 0.998689 0
-0.0549507 -0.00792673 0.998458 0
-0.058908 -0.0150996 0.998149 0
-0.0640116 -0.0110988 0.997887 0.00442972
-0.0647012 -0.0130546 0.997819 0.0063863
-0.0667301 -0.0120389 0.997698 0.00999229
-0.0690707 -0.013435 0.997521 0.0143003
-0.0685702 -0.0126393 0.997566 0.0110318
-0.0691089 -0.0144636 0.997504 0.0117265
-0.0690899 -0.0110191 0.99755 0.0109739
-0.0692665 -0.014264 0.997496 0.00972897
-0.0678474 -0.0137739 0.997601 0.00418817
0.230351 -0.116359 0.966126 0.0051405
0.236478 -0.114372 0.964882 0.00807007
-0.0882052 -0.0241098 0.995811 0.00861991
-0.0784937 -0.028319 0.996512 0.00549958
-0.0737529 -0.0212142 0.997051 0.00848162
-0.0414695 -0.0112935 0.999076 0
-0.0493359 -0.0128139 0.9987 0
-0.0503484 -0.016171 0.998601 0
-0.0518164 -0.013062 0.998571 0
-0.0549851 -0.01405 0.998388 0
-0.0620738 -0.0137218 0.997977 0.00284111
-0.0655811 -0.0131703 0.99776 0.00725674
-0.0663159 -0.00842952 0.997763 0.00739432
-0.066659 -0.00718513 0.99775 0.0102751
-0.0684976 -0.00814327 0.997618 0.0126044
-0.0689568 -0.0120345 0.997547 0.0143044
-0.0683669 -0.0156694 0.997537 0.0113448
-0.0689143 -0.012107 0.997549 0.00689227
0.238464 -0.111128 0.964772 0.00902897
-0.0850925 -0.0201213 0.99617 0.0073562
-0.071529 -0.0196654 0.997245 0.00587661
-0.0687399 -0.0235558 0.997357 0.00504078
-0.04132 -0.0125996 0.999067 0
-0.0515615 -0.0135402 0.998578 0.00215412
-0.051784 -0.0151226 0.998544 0
-0.0536537 -0.0156139 0.998438 0
-0.0567693 -0.0137646 0.998292 0
-0.0620825 -0.011779 0.998002 0.00239823
-0.0658747 -0.0108976 0.997768 0.00550409
-0.0666566 -0.0109225 0.997716 0.006864
-0.0677997 -0.0125036 0.997621 0.0100477
-0.0688328 -0.0136181 0.997535 0.0108547
-0.0689306 -0.0131891 0.997534 0.0124515
-0.0686356 -0.0170651 0.997496 0.00869172
-0.0686926 -0.0156379 0.997515 0.00801476
0.237878 -0.115369 0.964419 0
-0.0820362 -0.0192305 0.996444 0.00813931
-0.0728033 -0.0158665 0.99722 0.00309393
-0.0586836 -0.0134973 0.998185 0
-0.0425855 -0.0140073 0.998995 0
-0.0506798 -0.0156496 0.998592 0
-0.0534085 -0.018568 0.9984 0
-0.0551483 -0.0215733 0.998245 0
-0.0576969 -0.0152706 0.998217 0
-0.0606375 -0.0171283 0.998013 0
-0.0650741 -0.0157297 0.997756 0.00181101
-0.0661063 -0.0134375 0.997722 0.00486812
-0.0670584 -0.0216288 0.997515 0.00461387
-0.0674796 -0.0182211 0.997554 0.00635235
-0.0688524 -0.0153373 0.997509 0.00920976
-0.0682156 -0.0216486 0.997436 0.00601554
0.237206 -0.110058 0.965205 0.00582045
-0.0780131 -0.0140693 0.996853 0.00329902
-0.0712486 -0.0139852 0.997361 0.00182284
-0.0441747 -0.011636 0.998956 0
-0.0463131 -0.0193232 0.99874 0.00120372
-0.0535083 -0.018919 0.998388 0.00494166
-0.0544895 -0.0187144 0.998339 0.000672783
-0.0567552 -0.0208141 0.998171 0.00159381
-0.0572953 -0.020165 0.998154 0
-0.0621971 -0.0204017 0.997855 0
-0.0654737 -0.022242 0.997606 0.00030914
-0.0669323 -0.0143851 0.997654 0.00362306
-0.066818 -0.0198976 0.997567 0.0012158
-0.0668049 -0.0194144 0.997577 0.0043235
-0.0678795 -0.0144211 0.997589 0.00406024
-0.0760749 -0.00969533 0.997055 0.0025789
-0.0669226 -0.00936345 0.997714 0.00178872
-0.0655169 -0.0122467 0.997776 0.00393002
-0.0471536 -0.0109377 0.998828 0.00228833
-0.0493548 -0.0172203 0.998633 0.00546784
-0.0557811 -0.0170202 0.998298 0.00733618
-0.0555165 -0.0172596 0.998309 0.00615166
-0.056687 -0.017716 0.998235 0.00378126
-0.0585742 -0.0182549 0.998116 0.00201846
-0.0621141 -0.0211054 0.997846 0
-0.0666195 -0.0159539 0.997651 0.000758738
-0.0670177 -0.018727 0.997576 0.000119334
-0.0673551 -0.017182 0.997581 0.00204369
-0.067538 -0.0173757 0.997565 0.00346831
0.24415 -0.104574 0.964082 0.00222165
0.2552 -0.104825 0.961189 0.00189708
-0.0822194 -0.0108936 0.996555 5.40732e-05
-0.0772328 -0.01126 0.996949 0.00415115
-0.0682091 -0.0136083 0.997578 0.00233911
-0.0529265 -0.0168669 0.998456 0.00219827
-0.044974 -0.0166129 0.99885 3.47543e-05
-0.0475169 -0.0158539 0.998745 0.000867283
-0.0502345 -0.0195604 0.998546 0.00741957
-0.055882 -0.0117158 0.998369 0.00626329
-0.0560343 -0.013355 0.998339 0.00389851
-0.0582945 -0.014204 0.998198 0.00124174
-0.0593449 -0.0174169 0.998086 0.00172021
-0.0627529 -0.0247998 0.997721 0
-0.0652939 -0.0179743 0.997704 0
-0.0665294 -0.0196009 0.997592 0
-0.0686897 -0.0219772 0.997396 0.000709062
-0.0677369 -0.0236531 0.997423 0
0.241705 -0.0947745 0.96571 0.00691937
0.251127 -0.0961063 0.963171 0.000555343
-0.0737298 -0.020086 0.997076 0.00116609
-0.032991 -0.00394947 0.999448 0.00263658
-0.0428121 -0.0226819 0.998826 0
-0.0464884 -0.0166518 0.99878 0
-0.0496536 -0.0192777 0.99858 0.00262488
-0.0552392 -0.0147482 0.998364 0
-0.0562098 -0.0136072 0.998326 0.000545924
-0.0587807 -0.0159938 0.998143 0.00291846
-0.0603621 -0.0200158 0.997976 0
-0.0633796 -0.0198918 0.997791 0
-0.0661037 -0.0175401 0.997659 0
-0.0664282 -0.0174501 0.997639 0
-0.0684574 -0.0214198 0.997424 0
-0.0682073 -0.0206464 0.997457 0
0.248379 -0.0904892 0.964427 0.000461078
0.256341 -0.0874624 0.962621 0.002069
-0.0814821 -0.0301705 0.996218 3.00306e-05
-0.0735266 -0.0238296 0.997009 0.00062408
-0.0581878 -0.0213872 0.998076 0
-0.0328531 -0.00438862 0.999451 0.0013328
-0.0457712 -0.0214324 0.998722 0.00406233
-0.0480837 -0.016987 0.998699 0.000313573
-0.0506546 -0.017612 0.998561 0.0024531
-0.056228 -0.0163687 0.998284 0
-0.0568119 -0.0140942 0.998285 0.00117975
-0.0588336 -0.0130154 0.998183 0.00235982
-0.0619771 -0.0163851 0.997943 0.000141688
-0.0639151 -0.0189736 0.997775 0
-0.0669529 -0.0128717 0.997673 0
-0.0678003 -0.0121772 0.997625 0
-0.0683505 -0.0248392 0.997352 0
0.256539 -0.0873948 0.962575 0
-0.110391 -0.0319506 0.993375 0
-0.0894129 -0.0253876 0.995671 0
-0.0801521 -0.0316049 0.996282 0.00181429
-0.0724652 -0.0201823 0.997167 0.00593844
-0.0551749 -0.0228911 0.998214 0
-0.0443935 -0.0208596 0.998796 0
-0.036194 -0.00509015 0.999332 0.00623621
-0.0419162 -0.0136632 0.999028 0.00290304
-0.0458792 -0.0151506 0.998832 0.00309302
-0.0492374 -0.0171478 0.99864 0.00179186
-0.0514161 -0.0141111 0.998578 0.00309503
-0.0585452 -0.0140707 0.998186 0.00185933
-0.059189 -0.0138536 0.998151 0.00373686
-0.0597024 -0.00991815 0.998167 0.00254851
-0.0628163 -0.0162225 0.997893 0
-0.0641957 -0.0139089 0.99784 0
-0.0666655 -0.0125863 0.997696 0
-0.0685137 -0.0129889 0.997566 0
-0.0700467 -0.0204591 0.997334 0
0.268301 -0.0870099 0.959398 0.00413543
-0.110188 -0.0363134 0.993247 0
-0.10236 -0.0343074 0.994156 0
-0.0938745 -0.0238884 0.995297 0
-0.0709971 -0.027955 0.997085 0.00596997
-0.0573643 -0.0294457 0.997919 0.0032691
-0.0436383 -0.0237097 0.998766 0.00231551
-0.0370565 -0.0083567 0.999278 0.00403236
-0.0411399 -0.0144429 0.999049 0.0055332
-0.046571 -0.0188066 0.998738 0.00326887
-0.0491858 -0.0162688 0.998657 0.00139349
-0.0511437 -0.0173957 0.99854 0
-0.0581965 -0.0104776 0.99825 0.00398603
-0.0593791 -0.0127355 0.998154 0.00238184
-0.0600598 -0.0188382 0.998017 0.00299016
-0.0626696 -0.0133312 0.997945 0.00147284
-0.0641848 -0.0164379 0.997803 0
-0.0678846 -0.0177567 0.997535 0
-0.069271 -0.0182273 0.997431 0
-0.0703865 -0.0172657 0.99737 0
0.265696 -0.0864345 0.960174 0.0045564
-0.117848 -0.0351203 0.99241 0
-0.107825 -0.0367082 0.993492 0
-0.101494 -0.03361 0.994268 0
-0.0940566 -0.0334354 0.995005 0
-0.0899034 -0.0318479 0.995441 0
-0.0838734 -0.0304147 0.996012 0
-0.0794684 -0.0318454 0.996329 0.00200381
-0.0707123 -0.0320348 0.996982 0.00602357
-0.0632787 -0.032912 0.997453 0.00593634
-0.056579 -0.0294923 0.997962 0.00605567
-0.0402883 -0.0248007 0.99888 0.00120857
-0.0352782 -0.00476475 0.999366 0.00489264
-0.0474417 -0.0176404 0.998718 0.00428764
-0.0500132 -0.0191902 0.998564 3.04702e-05
-0.0529696 -0.0196453 0.998403 0.00225005
-0.0585294 -0.0163011 0.998153 0.00112999
-0.0626228 -0.0211632 0.997813 0.00233928
-0.063057 -0.0213401 0.997782 0.00129189
-0.0654211 -0.0190043 0.997677 0
-0.0688316 -0.0256641 0.997298 0.00429342
-0.068313 -0.0238618 0.997379 0.000471907
-0.071701 -0.0220778 0.997182 0.00544918
0.271862 -0.0855364 0.958527 0.00681603
-0.11666 -0.0353787 0.992542 0
-0.113758 -0.0319262 0.992995 0
-0.106224 -0.0350475 0.993724 0
-0.099552 -0.0318642 0.994522 0
-0.0915465 -0.0310961 0.995315 0
-0.0871827 -0.0337718 0.99562 0
-0.0840388 -0.0322203 0.995941 0.00202843
-0.0781695 -0.0330964 0.996391 0.00203218
-0.0690377 -0.0380971 0.996886 0.00239699
-0.0634286 -0.0350847 0.997369 0.00475187
-0.0362243 -0.00630599 0.999324 0.00265051
-0.0432907 -0.015733 0.998939 0
-0.0469245 -0.0154428 0.998779 0.000853244
-0.0499837 -0.0220395 0.998507 0
-0.0535743 -0.0216967 0.998328 0.00292423
-0.0599037 -0.0239889 0.997916 9.78756e-05
-0.0615924 -0.0224807 0.997848 0
-0.0625026 -0.0201625 0.997841 0.000780191
-0.0652235 -0.0275764 0.99749 0
-0.0669938 -0.0224596 0.997501 0.000335083
-0.0690003 -0.0264276 0.997267 0
0.271873 -0.0828 0.958765 0.00253864
-0.122792 -0.0353137 0.991804 0
-0.117198 -0.0310301 0.992624 0
-0.112753 -0.0327739 0.993082 0
-0.106291 -0.031643 0.993832 0
-0.0958651 -0.0285722 0.994984 0
-0.0895029 -0.0299581 0.995536 0
-0.0882753 -0.0329827 0.99555 0
-0.0848854 -0.0368383 0.99571 0
-0.0790149 -0.0304498 0.996408 0.00443599
-0.0680197 -0.0361341 0.997029 0.00358208
-0.0535407 -0.0322977 0.998043 0.00676994
-0.0378541 -0.00335732 0.999278 0.00252329
-0.0408349 -0.0123597 0.999089 0.000607653
-0.0449229 -0.0149105 0.998879 0
-0.0472205 -0.0177869 0.998726 0
-0.0513466 -0.0225587 0.998426 0.000483699
-0.0538894 -0.0308802 0.998069 0.000298728
-0.0603963 -0.0241331 0.997883 0
-0.0618871 -0.0245871 0.99778 0
-0.0629335 -0.025656 0.997688 0
-0.0657505 -0.0209256 0.997617 0.0024197
-0.0677701 -0.0277209 0.997316 0
-0.067634 -0.0213101 0.997483 0.000548621
0.26969 -0.0813413 0.959506 0.00260826
-0.128664 -0.0294805 0.99125 0.00353192
-0.123139 -0.0267888 0.992028 0.00165978
-0.118622 -0.0287269 0.992524 0.000413383
-0.112921 -0.033113 0.993052 0
-0.104539 -0.0339583 0.993941 0
-0.0960694 -0.0303418 0.994912 0
-0.0907051 -0.0351838 0.995256 0.000428292
-0.0884672 -0.0359175 0.995431 0.00167349
-0.0836034 -0.0344993 0.995902 0
-0.0780769 -0.0305296 0.99648 0.00490521
-0.0711938 -0.0340824 0.99688 0.00823386
-0.0509702 -0.0280499 0.998306 0.0124786
-0.0372195 -0.00589813 0.99929 0.00229817
-0.0381192 -0.00700585 0.999249 0.00215861
-0.0405595 -0.00850642 0.999141 0.00225403
-0.0443074 -0.0139031 0.998921 0.000946363
-0.0470176 -0.0177746 0.998736 0
-0.0517967 -0.0160292 0.998529 0.00228263
-0.0536984 -0.0257643 0.998225 0.00045128
-0.061131 -0.0236446 0.99785 0.00389803
-0.061971 -0.0235182 0.997801 0
-0.0635981 -0.0213953 0.997746 0
-0.0669305 -0.0230251 0.997492 0.00252078
-0.0680811 -0.0303229 0.997219 0
-0.0684598 -0.0281004 0.997258 0
0.287683 -0.0741131 0.954854 0.0134504
-0.130838 -0.0306598 0.99093 0.00294943
-0.125279 -0.029441 0.991685 0.0011979
-0.118498 -0.0294922 0.992516 0.00175383
-0.113906 -0.027154 0.99312 0.00331765
-0.103406 -0.0278726 0.994249 0.00120333
-0.0945343 -0.0329857 0.994975 0
-0.0890384 -0.0302498 0.995569 0.000919585
-0.0879084 -0.036147 0.995472 0.00268718
-0.084003 -0.0387555 0.995712 0.00407121
-0.0790312 -0.0310246 0.996389 0.00976884
-0.0717515 -0.0255422 0.997095 0.00882018
-0.0656421 -0.0234646 0.997567 0.0113936
-0.0568692 -0.023988 0.998093 0.0138936
-0.0376397 -0.0107291 0.999234 0.000655447
-0.0385381 -0.0137877 0.999162 0.00165128
-0.0413262 -0.0122225 0.999071 0.00260879
-0.0442264 -0.0184045 0.998852 0.00213373
-0.0471777 -0.0205892 0.998674 0
-0.0507461 -0.0210611 0.998489 0
-0.0539747 -0.0203564 0.998335 0.00241964
-0.0612221 -0.0228086 0.997864 0.00275308
-0.0629438 -0.0200212 0.997816 0.000144431
-0.0651725 -0.0261659 0.997531 0.00107752
-0.0670056 -0.0245496 0.99745 0
-0.0692119 -0.0235844 0.997323 0.000660127
-0.0698598 -0.0231928 0.997287 0.00110076
0.283432 -0.0731436 0.956199 0.0100049
-0.146727 -0.028434 0.988768 0.00592705
-0.131022 -0.028635 0.990966 0.00262714
-0.124924 -0.0300668 0.991711 0.00529087
-0.117704 -0.0311281 0.992561 0.0015838
-0.110191 -0.0331052 0.993359 0.000685256
-0.102115 -0.0333166 0.994214 0
-0.0947425 -0.033522 0.994937 0.00124877
-0.0888738 -0.036331 0.99538 0.000247179
-0.087298 -0.0335281 0.995618 0.00664026
-0.0831653 -0.030984 0.996054 0.00402009
-0.0762409 -0.0304835 0.996623 0.004053
-0.0721668 -0.0243043 0.997096 0.0108287
-0.0564699 -0.0263595 0.998056 0.00732967
-0.0352242 -0.0285145 0.998973 0.0124697
-0.0349618 -0.0145935 0.999282 0
-0.0372243 -0.0132592 0.999219 0.00211559
-0.0395111 -0.0150786 0.999105 0.00123997
-0.0431792 -0.0135617 0.998975 0
-0.0475033 -0.0163677 0.998737 0
-0.0503967 -0.0172565 0.99858 0.00113038
-0.0522641 -0.0201387 0.99843 0
-0.0548243 -0.0193383 0.998309 0
-0.0603409 -0.021339 0.99795 0
-0.0630077 -0.015985 0.997885 0.00045091
-0.0659433 -0.0233392 0.99755 0
-0.0673019 -0.0216533 0.997498 0.000981892
-0.0694278 -0.0202221 0.997382 0
-0.070132 -0.0187673 0.997361 0.00191769
0.273841 -0.0651867 0.959563 0.0060698
-0.132779 -0.027883 0.990753 0.0061659
-0.125162 -0.026954 0.99177 0.00789021
-0.11696 -0.0280224 0.992741 0.00651336
-0.110247 -0.0302671 0.993443 0.00476599
-0.101135 -0.0359547 0.994223 0.00141075
-0.09309 -0.0354311 0.995027 0.000385247
-0.0885172 -0.0299698 0.995624 0.00157902
-0.0872168 -0.027066 0.995822 0.00508116
-0.0820174 -0.0283501 0.996228 0.00322844
-0.0718186 -0.0261035 0.997076 0.00997023
-0.0670394 -0.0230311 0.997485 0.0117042
-0.0577019 -0.028244 0.997934 0.00796159
-0.0333511 -0.0309918 0.998963 0.0108322
-0.00534484 -0.0192375 0.999801 0.00930702
-0.0355174 -0.0239742 0.999081 0
-0.0382338 -0.0190672 0.999087 0.00124772
-0.040372 -0.0155287 0.999064 0.00205221
-0.0441982 -0.0206549 0.998809 3.34923e-05
-0.0469876 -0.0272013 0.998525 0
-0.0504008 -0.0206629 0.998515 0.00117903
-0.0527884 -0.0242139 0.998312 0.000496198
-0.0558065 -0.0225189 0.998188 0.00121225
-0.0594871 -0.0160692 0.9981 0.000856376
-0.0614126 -0.0259001 0.997776 0
-0.0661691 -0.0238132 0.997524 0.000802424
-0.0672322 -0.0259369 0.9974 0
-0.068044 -0.0229559 0.997418 0
-0.0692488 -0.0197339 0.997404 0
-0.138619 -0.033041 0.989794 0.00241708
-0.133462 -0.0295928 0.990612 0.00939239
-0.125617 -0.030814 0.9916 0.00793249
-0.118581 -0.0291734 0.992516 0.00808609
-0.111711 -0.0297223 0.993296 0.00665342
-0.103126 -0.0314795 0.99417 0.00464294
-0.0971347 -0.027182 0.9949 0.00720354
-0.0907493 -0.0233274 0.995601 0.00549041
-0.0861055 -0.029963 0.995835 0.00386918
-0.083185 -0.0258398 0.996199 0.00316916
-0.0785155 -0.0259261 0.996576 0.0075388
-0.0730418 -0.0236887 0.997048 0.012245
-0.0689651 -0.0247404 0.997312 0.0169924
-0.0603263 -0.0277674 0.997792 0.0123941
-0.0480572 -0.0259794 0.998507 0.011496
-0.0348418 -0.026538 0.99904 0.0114962
-0.0361432 -0.0154933 0.999227 0.00359231
-0.0362634 -0.0235649 0.999064 0.00160939
-0.0401879 -0.0212595 0.998966 0.00419232
-0.0436884 -0.0243531 0.998748 0
-0.0477106 -0.0344644 0.998266 0
-0.0506197 -0.029985 0.998268 0.000292601
-0.0528689 -0.0260701 0.998261 0.00386282
-0.0554937 -0.0253627 0.998137 0.00227323
-0.0608888 -0.0273931 0.997769 0
-0.0612918 -0.0264095 0.99777 0
-0.064974 -0.0202846 0.997681 0.00131236
-0.0663038 -0.0260356 0.99746 0
-0.0669494 -0.0198094 0.99756 0
-0.0678175 -0.0214979 0.997466 0
0.279091 -0.0637045 0.958149 0.00587007
-0.143381 -0.0312172 0.989175 0.0112294
-0.135855 -0.0308006 0.99025 0.0111135
-0.124256 -0.0300223 0.991796 0.00712168
-0.117568 -0.0293455 0.992631 0.00585521
-0.113453 -0.0314746 0.993045 0.010805
-0.105055 -0.0298462 0.994018 0.00908515
-0.0976262 -0.029668 0.994781 0.0086823
-0.0921355 -0.0246219 0.995442 0.00686203
-0.0921051 -0.0230612 0.995482 0.011454
-0.0840153 -0.0248394 0.996155 0.00669991
-0.0790773 -0.0254543 0.996543 0.0081099
-0.0747321 -0.0177264 0.997046 0.015964
-0.0681233 -0.0200299 0.997476 0.0180602
-0.0612958 -0.0171771 0.997972 0.0185428
-0.0472478 -0.0216456 0.998649 0.0138023
-0.0356551 -0.0262501 0.999019 0.010581
-0.0339044 -0.0262048 0.999081 0.00116257
-0.0364632 -0.0268562 0.998974 0.00425186
-0.0410818 -0.0266736 0.9988 0.00510969
-0.0433076 -0.0237579 0.998779 0.00424364
-0.0455556 -0.0223944 0.998711 0.00188692
-0.0489837 -0.0267584 0.998441 0.00106087
-0.0520952 -0.0301719 0.998186 0.000507469
-0.0546039 -0.0287834 0.998093 0.00132117
-0.0606542 -0.0299533 0.997709 0.000118975
-0.0622568 -0.0277941 0.997673 0.00148248
-0.0628642 -0.0203629 0.997814 0
-0.0660137 -0.0233908 0.997544 0
0.266811 -0.0505199 0.962424 0.00993712
0.276005 -0.0554387 0.959556 0.00675367
-0.147414 -0.0302766 0.988611 0.0105149
-0.137938 -0.0310959 0.989953 0.0123965
-0.127307 -0.0306962 0.991388 0.0117652
-0.122756 -0.0327729 0.991896 0.0106785
-0.116467 -0.0307232 0.992719 0.0141975
-0.10968 -0.0277339 0.99358 0.0134146
-0.0983137 -0.030774 0.99468 0.00826685
-0.0927834 -0.0267364 0.995327 0.0100361
-0.0893461 -0.0280322 0.995606 0.00808345
-0.084015 -0.0257427 0.996132 0.00665435
-0.0790722 -0.0206714 0.996655 0.0110278
-0.0740559 -0.0170965 0.997108 0.0155611
-0.0666662 -0.0147495 0.997666 0.0175285
-0.0603414 -0.0172685 0.998028 0.0163963
-0.0491918 -0.020226 0.998585 0.0164552
-0.0368633 -0.0256642 0.998991 0.0111333
-0.0278785 -0.0319851 0.999099 0.0133867
-0.0197922 -0.0310683 0.999321 0.0144773
-0.0228002 -0.025149 0.999424 0.00471492
-0.0290721 -0.0244228 0.999279 0.0063818
-0.0347183 -0.0262719 0.999052 0.00425527
-0.0371474 -0.0341 0.998728 0.00335304
-0.039273 -0.033564 0.998665 0.00107137
-0.0416824 -0.0286823 0.998719 0.00140263
-0.0436453 -0.0275898 0.998666 0.000831376
-0.0474726 -0.0273821 0.998497 0.000819456
-0.0495721 -0.0322292 0.99825 0
-0.0525201 -0.0338334 0.998047 0
-0.0594122 -0.0293611 0.997802 0
-0.0603152 -0.0277028 0.997795 0
-0.0608275 -0.0216925 0.997913 0
-0.0669295 -0.027325 0.997384 0
0.267305 -0.0445239 0.962583 0.0093156
-0.146083 -0.0283147 0.988867 0.0125242
-0.139709 -0.0281024 0.989794 0.0160798
-0.127532 -0.034278 0.991242 0.0117374
-0.124303 -0.0285574 0.991833 0.0131379
-0.116835 -0.0326302 0.992615 0.0118087
-0.108931 -0.0323069 0.993524 0.0140838
-0.0992989 -0.0360834 0.994403 0.0103672
-0.0935938 -0.0265827 0.995256 0.011167
-0.0918725 -0.02399 0.995482 0.0110414
-0.0854606 -0.02613 0.995999 0.0118291
-0.0784158 -0.0262638 0.996575 0.0143752
-0.0727816 -0.0193918 0.997159 0.017741
-0.0638311 -0.0198257 0.997764 0.0162017
-0.0590871 -0.0219944 0.998011 0.0142693
-0.0514457 -0.0172716 0.998526 0.0176798
-0.0379829 -0.0216855 0.999043 0.0154579
-0.029079 -0.0277391 0.999192 0.0170458
-0.020928 -0.0340843 0.9992 0.0152783
-0.029335 -0.0240005 0.999281 0.00877932
-0.0340731 -0.0248549 0.99911 0.00250499
-0.0355593 -0.0297274 0.998925 5.01028e-05
-0.0369464 -0.031767 0.998812 0
-0.0401359 -0.0387598 0.998442 0
-0.0439895 -0.0366778 0.998359 0
-0.0474238 -0.0293175 0.998444 0
-0.0502305 -0.031334 0.998246 0
-0.053605 -0.0285383 0.998154 0
-0.0588811 -0.0293844 0.997832 0
-0.0585907 -0.0224727 0.998029 0
-0.0611515 -0.024512 0.997827 0
-0.0651153 -0.0255997 0.997549 0
0.26726 -0.0422514 0.962698 0.00921585
-0.149209 -0.0251302 0.988486 0.0181261
-0.139876 -0.02538 0.989844 0.0180264
-0.129255 -0.0288822 0.991191 0.0127773
-0.124562 -0.0338326 0.991635 0.0120826
-0.118249 -0.0327913 0.992442 0.0159711
-0.108795 -0.0315161 0.993564 0.0132579
-0.0988488 -0.0327509 0.994563 0.00994014
-0.0932395 -0.0273047 0.995269 0.0128568
-0.0935438 -0.025072 0.995299 0.0148882
-0.0873673 -0.0201655 0.995972 0.0142754
-0.0803511 -0.0224625 0.996513 0.0140725
-0.0699775 -0.0190194 0.997367 0.0155571
-0.061646 -0.0209426 0.997878 0.0148659
-0.0583356 -0.0247991 0.997989 0.0157962
-0.049105 -0.015906 0.998667 0.0201806
-0.0403572 -0.0199573 0.998986 0.0171834
-0.0292195 -0.0249215 0.999262 0.0159805
-0.0202269 -0.0348374 0.999188 0.0131845
-0.0170356 -0.041286 0.999002 0.00967638
-0.027856 -0.0306218 0.999143 0.00701582
-0.0350634 -0.0276079 0.999004 0.00676716
-0.0349867 -0.0331246 0.998839 0.000660758
-0.0383965 -0.0351872 0.998643 0
-0.040153 -0.0358859 0.998549 0
-0.0438889 -0.0291561 0.998611 0
-0.0477368 -0.0283515 0.998457 0
-0.0505517 -0.0344941 0.998126 0
-0.0504393 -0.0321315 0.99821 0
-0.0576803 -0.0264555 0.997985 0
-0.0585786 -0.0244441 0.997984 0
-0.0590206 -0.021441 0.998026 0
-0.0613481 -0.0190451 0.997935 0.000245951
-0.0649181 -0.0267113 0.997533 0
0.270111 -0.0427081 0.961881 0.00968507
-0.149393 -0.0268272 0.988414 0.016072
-0.138572 -0.024991 0.990037 0.0157999
-0.13114 -0.0292005 0.990934 0.0179297
-0.123197 -0.0276071 0.991998 0.0145375
-0.115352 -0.0301658 0.992867 0.0154202
-0.109996 -0.0278518 0.993542 0.0188007
-0.100202 -0.0300473 0.994513 0.0135285
-0.0936371 -0.0251536 0.995289 0.00940672
-0.0915953 -0.0237405 0.995513 0.0111949
-0.088181 -0.0167802 0.995963 0.0170053
-0.0791481 -0.0189753 0.996682 0.0159628
-0.0693494 -0.021157 0.997368 0.0151951
-0.0629447 -0.0268036 0.997657 0.0127883
-0.0571317 -0.0295755 0.997929 0.0141587
-0.047491 -0.0258596 0.998537 0.0165965
-0.0408888 -0.0281824 0.998766 0.0158719
-0.0298971 -0.0260015 0.999215 0.0162371
-0.020355 -0.0329422 0.99925 0.0146141
-9.61163e-06 -0.0442807 0.999019 0.00921239
-0.0174514 -0.0392641 0.999076 0.00854075
-0.0225193 -0.0433277 0.998807 0.00677174
-0.0237578 -0.0382943 0.998984 0.00679788
-0.0265994 -0.0358266 0.999004 0.00528784
-0.0327933 -0.0326658 0.998928 0.00333433
-0.0356212 -0.036878 0.998685 0.00269052
-0.038751 -0.0391115 0.998483 0
-0.040563 -0.0357537 0.998537 0
-0.0426465 -0.0334588 0.99853 0
-0.0470913 -0.0338324 0.998317 0
-0.048395 -0.0378159 0.998112 0
-0.0500319 -0.0279051 0.998358 0
-0.0560567 -0.0325645 0.997896 0
-0.0577475 -0.0299193 0.997883 0
-0.059611 -0.0276963 0.997837 0
-0.0598207 -0.0223301 0.997959 0
-0.0634566 -0.0256571 0.997655 0
0.26038 -0.0383 0.964746 0.0104543
-0.150115 -0.0279242 0.988274 0.0181016
-0.139956 -0.0315217 0.989656 0.0140333
-0.129851 -0.0271096 0.991163 0.0177967
-0.123227 -0.0308649 0.991898 0.016578
-0.115918 -0.0290562 0.992834 0.0163787
-0.10892 -0.0330542 0.993501 0.0152208
-0.0985918 -0.0315828 0.994627 0.0110499
-0.0925919 -0.0315546 0.995204 0.00780066
-0.0915658 -0.0297792 0.995354 0.00814059
-0.0872244 -0.0218479 0.995949 0.0137901
-0.0787385 -0.018545 0.996723 0.0153694
-0.063693 -0.0286575 0.997558 0.0118451
-0.0557685 -0.0263454 0.998096 0.0118195
-0.047389 -0.0288785 0.998459 0.0108832
-0.0407208 -0.0315711 0.998672 0.0148951
-0.0308078 -0.028864 0.999108 0.0199579
-0.0191367 -0.0337927 0.999246 0.0151361
-0.008919 -0.0324062 0.999435 0.0142197
-0.00152515 -0.0403826 0.999183 0.00649545
1.10169e-05 -0.0377729 0.999286 0.00601862
-0.000100838 -0.0406574 0.999173 0.00694751
-0.0110639 -0.0491408 0.998731 0.00774292
-0.0169745 -0.0457365 0.998809 0.00824089
-0.0214239 -0.0431762 0.998838 0.00848724
-0.0220082 -0.0445363 0.998765 0.00672964
-0.0258428 -0.044677 0.998667 0.00345887
-0.0315233 -0.0399257 0.998705 0.0041175
-0.0331304 -0.0392847 0.998679 0.000306782
-0.0379495 -0.0397108 0.99849 0
-0.0406943 -0.0444875 0.998181 0
-0.0429696 -0.0435196 0.998128 0
-0.0440471 -0.0390979 0.998264 0
-0.0460809 -0.0382569 0.998205 0
-0.0490638 -0.0378684 0.998078 0
-0.0550566 -0.0269982 0.998118 0
-0.0568989 -0.02689 0.998018 0
-0.0586523 -0.0320249 0.997765 0
-0.0603165 -0.0242064 0.997886 0
-0.0630778 -0.0203065 0.997802 0
0.261849 -0.0352528 0.964465 0.00837723
-0.142069 -0.0357182 0.989212 0.00904162
-0.137038 -0.0305022 0.990096 0.0130745
-0.127757 -0.0316111 0.991302 0.0135083
-0.123508 -0.0322401 0.99182 0.015006
-0.114319 -0.0352351 0.992819 0.0126598
-0.108396 -0.029006 0.993685 0.015957
-0.0988172 -0.0376462 0.994393 0.0124016
-0.0935587 -0.0373355 0.994913 0.00863949
-0.0906602 -0.034097 0.995298 0.00803849
-0.0850027 -0.0312059 0.995892 0.0108801
-0.0787928 -0.0288468 0.996474 0.010083
-0.0649208 -0.0301428 0.997435 0.00931696
-0.0544615 -0.0275658 0.998135 0.00641551
-0.0481558 -0.0260869 0.998499 0.0122979
-0.0428194 -0.0310722 0.9986 0.0139136
-0.0339246 -0.0338575 0.998851 0.0137361
-0.0201161 -0.0368248 0.999119 0.0122165
-0.00989589 -0.0369287 0.999269 0.0118873
-0.00362337 -0.0391853 0.999225 0.012464
-0.00119542 -0.0401189 0.999194 0.00789553
0.00241361 -0.0439839 0.999029 0.00570947
0.000539673 -0.0597376 0.998214 0
-0.0151195 -0.0540499 0.998424 0.00186779
-0.0194103 -0.0502534 0.998548 0.00720243
-0.0194958 -0.048495 0.998633 0.0027732
-0.0248426 -0.0486392 0.998507 0
-0.0304516 -0.0418511 0.99866 0
-0.0339152 -0.0411797 0.998576 0
-0.0375457 -0.0442756 0.998314 0
-0.0404793 -0.0398767 0.998384 0
-0.0428689 -0.0446816 0.998081 0
-0.0449591 -0.0409326 0.99815 0
-0.0463615 -0.0434844 0.997978 0
-0.0486432 -0.0410106 0.997974 0
-0.0551005 -0.0322422 0.99796 0
-0.0562334 -0.0292737 0.997988 0
-0.0571543 -0.0285749 0.997956 0
-0.0595897 -0.0230805 0.997956 0
-0.0654041 -0.0222642 0.99761 0.00338949
0.25238 -0.0280576 0.967221 0.0100462
-0.142716 -0.0314647 0.989263 0.010916
-0.134302 -0.0311523 0.990451 0.0107406
-0.124703 -0.0340192 0.991611 0.00841805
-0.120991 -0.0311887 0.992164 0.0101581
-0.114262 -0.0340989 0.992865 0.00967113
-0.10704 -0.0347067 0.993649 0.0148149
-0.0993268 -0.0332635 0.994499 0.0140347
-0.0918186 -0.0367733 0.995097 0.00847782
-0.0896114 -0.03377 0.995404 0.00830312
-0.0841076 -0.0331419 0.995905 0.00819031
-0.0787064 -0.0259686 0.99656 0.00977572
-0.0658548 -0.0282101 0.99743 0.00756491
-0.0567475 -0.0323643 0.997864 0.00540413
-0.0493432 -0.0295328 0.998345 0.0118881
-0.0421074 -0.0313193 0.998622 0.0114164
-0.0351195 -0.0323403 0.99886 0.0137385
-0.021674 -0.0423238 0.998869 0.0101566
-0.013774 -0.0469578 0.998802 0.00933291
-0.0092088 -0.0451503 0.998938 0.0125804
-0.00408385 -0.0454293 0.998959 0.00733446
-0.000173958 -0.0414316 0.999141 0.00904072
0.0022238 -0.0588921 0.998262 0.00392236
0.000513478 -0.0633399 0.997992 0.0059951
-0.0135301 -0.0497775 0.998669 0.00206168
-0.0177893 -0.0440274 0.998872 0.00242569
-0.0185698 -0.0440929 0.998855 0.00100742
-0.0226243 -0.055498 0.998202 0
-0.0304054 -0.0436118 0.998586 0
-0.0331274 -0.0387441 0.9987 0
-0.0360664 -0.0422335 0.998457 0
-0.0386206 -0.0400014 0.998453 0
-0.0421502 -0.0469948 0.998005 0
-0.0455861 -0.0413874 0.998103 0
-0.0472818 -0.0434118 0.997938 0
-0.049912 -0.0460444 0.997692 0
-0.0534369 -0.0337656 0.998 0
-0.0544017 -0.0338917 0.997944 0
-0.0601309 -0.0300947 0.997737 0
0.254412 -0.0278465 0.966695 0.00888286
-0.139351 -0.0343098 0.989648 0.00677466
-0.1341 -0.0335497 0.9904 0.00872846
-0.127347 -0.0288474 0.991439 0.00776553
-0.121783 -0.0285943 0.992145 0.00938102
-0.11495 -0.0332421 0.992815 0.0121273
-0.103127 -0.0386845 0.993916 0.0119054
-0.0924558 -0.038823 0.99496 0.00638087
-0.0895533 -0.0361698 0.995325 0.00733447
-0.0872469 -0.0359859 0.995537 0.00702943
-0.0814834 -0.0333585 0.996116 0.00520725
-0.0759358 -0.0307882 0.996637 0.00582245
-0.0678316 -0.0301146 0.997242 0.00865362
-0.0572263 -0.0365221 0.997693 0.00498247
-0.0489588 -0.0301998 0.998344 0.00859438
-0.0424428 -0.0317631 0.998594 0.00972842
-0.0351421 -0.0354125 0.998755 0.0100896
-0.0236324 -0.0408729 0.998885 0.0107426
-0.0166874 -0.0453556 0.998832 0.0122922
-0.00797536 -0.0500509 0.998715 0.0108964
-0.0050466 -0.0495662 0.998758 0.0117277
4.79641e-05 -0.0518759 0.998654 0.0076464
0.00270568 -0.0521978 0.998633 0.00538505
0.00245734 -0.0652417 0.997866 0.00670341
9.26173e-05 -0.06235 0.998054 0.00720314
-0.0015985 -0.0659607 0.997821 0.00254662
-0.00773795 -0.0560285 0.998399 7.726e-05
-0.0125416 -0.0531972 0.998505 0.00152582
-0.0173072 -0.0472499 0.998733 0.00336719
-0.0179856 -0.0495078 0.998612 0
-0.0230041 -0.0554624 0.998196 0
-0.0292879 -0.0432536 0.998635 0.000294885
-0.0325703 -0.0409362 0.998631 0.00113787
-0.0352171 -0.03968 0.998592 0.00244875
-0.0375786 -0.045033 0.998278 0
-0.0419067 -0.0471898 0.998006 0
-0.0452694 -0.0530403 0.997566 0
-0.0471917 -0.0490215 0.997682 0
-0.0487473 -0.0429802 0.997886 0
-0.0540716 -0.0353412 0.997911 0
-0.0550221 -0.0273632 0.99811 0
-0.0561195 -0.0247695 0.998117 0
-0.0579994 -0.0322689 0.997795 0
0.252176 -0.0193579 0.967488 0.0100286
-0.143686 -0.0282143 0.989221 0.00886096
-0.134414 -0.0297794 0.990478 0.0111409
-0.122058 -0.03506 0.991904 0.0063008
-0.117172 -0.0379657 0.992386 0.00756745
-0.113965 -0.0346892 0.992879 0.00889363
-0.104193 -0.034031 0.993975 0.0102466
-0.0893283 -0.0337539 0.99543 0.00578771
-0.0826472 -0.0383509 0.995841 0.00488299
-0.0768836 -0.0352463 0.996417 0.00405717
-0.0765295 -0.0304783 0.996601 0.00854858
-0.0661761 -0.036978 0.997123 0.00706529
-0.0576536 -0.0377338 0.997623 0.0069581
-0.050222 -0.0359875 0.998089 0.00774067
-0.0457889 -0.0376129 0.998243 0.00620932
-0.0362028 -0.0433941 0.998402 0.0106931
-0.0253867 -0.0471527 0.998565 0.0139105
-0.0191609 -0.0478899 0.998669 0.0173401
-0.00993599 -0.0528377 0.998554 0.0125029
-0.00568738 -0.055493 0.998443 0.0126755
-0.00183162 -0.060355 0.998175 0.00951275
0.00208486 -0.0654609 0.997853 0.003799
0.00352815 -0.0633845 0.997983 0.00172621
0.00508326 -0.0640511 0.997934 0.000835085
0.00273309 -0.0655136 0.997848 0.00624081
-0.000783321 -0.0599809 0.998199 0.00766723
-0.00917727 -0.058624 0.998238 0
-0.0116735 -0.0612412 0.998055 0
-0.0149183 -0.0590769 0.998142 0
-0.0171496 -0.0554634 0.998313 0
-0.0232454 -0.0451036 0.998712 0
-0.0280944 -0.0412396 0.998754 0
-0.0323305 -0.0403122 0.998664 0.00082874
-0.0343627 -0.0381049 0.998683 0.00335911
-0.0367065 -0.0482858 0.998159 0
-0.0423044 -0.0515013 0.997777 0
-0.0450971 -0.0503271 0.997714 0.000641755
-0.0457942 -0.0464864 0.997869 0
-0.0482459 -0.0419405 0.997955 0
-0.0537697 -0.0270286 0.998187 0.00270011
-0.0549515 -0.0308341 0.998013 0.00182444
-0.0560456 -0.0327027 0.997892 0
-0.0579202 -0.0380919 0.997594 0
0.238601 -0.0182324 0.970946 0.00819519
-0.144747 -0.0272994 0.989092 0.00997422
-0.131885 -0.034258 0.990673 0.0069789
-0.120611 -0.0381404 0.991967 0.00606577
-0.115896 -0.040374 0.99244 0.00911142
-0.109672 -0.041503 0.993101 0.00585715
-0.102557 -0.0368261 0.994045 0.00841286
-0.0856814 -0.0398485 0.995525 0.00427702
-0.0800103 -0.0384048 0.996054 0.00204272
-0.0775392 -0.033856 0.996414 0.00511138
-0.0725175 -0.034635 0.996766 0.00414925
-0.0653315 -0.0401469 0.997056 0.00457145
-0.0583608 -0.0397848 0.997503 0.00351451
-0.0507514 -0.0372952 0.998015 0.00487941
-0.0459904 -0.0424655 0.998039 0.00421159
-0.0387372 -0.0533055 0.997827 0.0116757
-0.0262235 -0.0631264 0.997661 0.00917016
-0.018724 -0.0566995 0.998216 0.0107358
-0.0102353 -0.0561282 0.998371 0.00909262
-0.00461197 -0.0637328 0.997956 0.0108692
-0.00169231 -0.0665159 0.997784 0.00710473
0.000921543 -0.0683857 0.997659 0.00432195
0.00351653 -0.0605292 0.99816 0.0058355
0.00527631 -0.0657949 0.997819 0.00577979
0.00248959 -0.0613859 0.998111 0.00381859
0.00166294 -0.0626549 0.998034 0.00645409
0.00055585 -0.0666599 0.997776 0.00411998
-0.00794803 -0.0582202 0.998272 0
-0.0107056 -0.0583431 0.998239 0.000793476
-0.0137928 -0.0533047 0.998483 0.000648621
-0.0173242 -0.0493762 0.99863 0
-0.0235884 -0.044957 0.99871 0
-0.0281618 -0.0430566 0.998676 0.000884897
-0.0306101 -0.0453201 0.998503 0.00110633
-0.0335513 -0.0467342 0.998344 0.000228387
-0.0356933 -0.0483779 0.998191 0
-0.0410656 -0.0530646 0.997746 0
-0.0451322 -0.0406157 0.998155 0.002006
-0.0464328 -0.0424217 0.99802 0.00333111
-0.0478364 -0.040664 0.998027 0.000358527
-0.0543661 -0.0349293 0.99791 0.000698582
-0.0556718 -0.0324688 0.997921 0.00330003
-0.0572209 -0.0322933 0.997839 0.00561618
-0.0574278 -0.0355866 0.997715 0.00221777
0.23409 -0.0200524 0.972008 6.18051e-05
-0.137263 -0.0380892 0.989802 0.000968914
-0.132752 -0.0381298 0.990416 0.00508831
-0.122228 -0.0418664 0.991619 0.00702428
-0.117657 -0.0374011 0.99235 0.00442571
-0.111362 -0.0384109 0.993037 0.0053668
-0.105215 -0.0347666 0.993842 0.00670649
-0.0860027 -0.040481 0.995472 0.00592808
-0.0807921 -0.0373161 0.996032 0.00469268
-0.0764104 -0.0337702 0.996504 0.00176652
-0.0744763 -0.0335021 0.99666 0.00520273
-0.0631174 -0.0378853 0.997287 0.00114969
-0.0571892 -0.0376242 0.997654 0.00291308
-0.0497406 -0.0418873 0.997883 0.00204917
-0.0470247 -0.0418799 0.998015 0.00286541
-0.0384202 -0.0501992 0.998 0.00965608
-0.0274141 -0.0624312 0.997673 0.00745514
-0.0199862 -0.0660833 0.997614 0.0091136
-0.0123617 -0.0612496 0.998046 0.0105228
-0.0052947 -0.0620238 0.998061 0.00545173
-0.00126734 -0.0653991 0.997858 0.00182722
0.000397192 -0.0661222 0.997811 0.00424176
0.00437593 -0.0650509 0.997872 0.000868666
0.00550355 -0.0657706 0.99782 0.000626819
0.00532203 -0.0701067 0.997525 0
0.0028293 -0.0708771 0.997481 0.0010045
0.00116494 -0.0675468 0.997715 0
-0.00451 -0.0668759 0.997751 0.000321546
-0.00792337 -0.062698 0.998001 0.0016756
-0.0114825 -0.0563228 0.998347 0
-0.0149082 -0.0502453 0.998626 0.00105312
-0.0217437 -0.0494338 0.998541 0
-0.0276632 -0.0529795 0.998212 0
-0.0282745 -0.0498258 0.998358 0
-0.0322785 -0.0490103 0.998277 0.00199284
-0.0349828 -0.0488926 0.998191 0
-0.0372642 -0.0510934 0.997998 0
-0.0426569 -0.0482974 0.997922 0.0033726
-0.0458064 -0.0424822 0.998047 0.00704685
-0.0467082 -0.0449004 0.997899 0.00318182
-0.0547216 -0.0311516 0.998016 0.00455736
-0.0554073 -0.038453 0.997723 0.00840159
-0.0565406 -0.0409496 0.99756 0.00615778
-0.0573056 -0.030368 0.997895 0.00274151
0.233827 -0.0164504 0.972139 0.00868398
0.233951 -0.019742 0.972048 0.0052615
-0.142129 -0.035345 0.989217 0.00135912
-0.137503 -0.0340655 0.989915 0.00764386
-0.123733 -0.0372397 0.991617 0.00365421
-0.116757 -0.0381246 0.992428 0.00124555
-0.113438 -0.0340846 0.99296 0.00710555
-0.103111 -0.034816 0.99406 0.00536625
-0.0561588 -0.0450289 0.997406 0.00131198
-0.0504807 -0.0497207 0.997487 0
-0.0472732 -0.0497815 0.997641 0.00410685
-0.040606 -0.0504636 0.9979 0.00972723
-0.0313869 -0.0569129 0.997886 0.0101517
-0.0212057 -0.0655445 0.997624 0.00565406
-0.0131163 -0.0690486 0.997527 0.00450844
-0.00690464 -0.0692251 0.997577 0.00287898
-0.00300315 -0.0657908 0.997829 0.00314328
-0.000412732 -0.0652317 0.99787 0.00417529
0.00268466 -0.0673839 0.997724 0.00458364
0.00306143 -0.0678517 0.997691 0
0.00411929 -0.0719182 0.997402 0.000354686
0.00283133 -0.070815 0.997485 0.00301736
0.000326799 -0.0678134 0.997698 0.00389859
-0.0047442 -0.0606754 0.998146 0.00744121
-0.00859884 -0.0574054 0.998314 0.00765831
-0.012655 -0.0548548 0.998414 0.00922044
-0.0155512 -0.0531135 0.998467 0.006478
-0.0220226 -0.0593343 0.997995 0.00130007
-0.0265768 -0.0564823 0.99805 0.00126856
-0.0288197 -0.0577528 0.997915 0.00299642
-0.0321713 -0.0506262 0.998199 0.00357212
-0.0341484 -0.0546463 0.997922 0.00170219
-0.036216 -0.0518142 0.998 0.000419268
-0.0390557 -0.0526311 0.99785 0
-0.0433767 -0.0453851 0.998027 0.00393887
-0.0456799 -0.0411195 0.99811 0.00302952
-0.0519262 -0.0349955 0.998038 0.0036857
-0.0540814 -0.0414978 0.997674 0.00610108
-0.0560008 -0.043224 0.997495 0.00194828
-0.0558607 -0.0414122 0.997579 0.000793302
0.221486 -0.013529 0.97507 0
0.229689 -0.0169362 0.973117 0.00154027
-0.142063 -0.032195 0.989334 0.00639749
-0.134887 -0.0339134 0.99028 0.00402274
-0.126557 -0.0329108 0.991413 0.00775279
-0.120281 -0.0355053 0.992105 0.00621128
-0.113745 -0.035022 0.992893 0.00923827
-0.107499 -0.0414024 0.993343 0.0104454
-0.0575969 -0.0493656 0.997119 0.00452151
-0.0504573 -0.051318 0.997407 0.00126774
-0.0489297 -0.0471744 0.997688 0.00542122
-0.0408774 -0.0504708 0.997889 0.00694124
-0.0320155 -0.0515444 0.998157 0.00215267
-0.0233494 -0.0585278 0.998013 0.00148842
-0.0168954 -0.0714068 0.997304 0.00158194
-0.0105635 -0.0740865 0.997196 0.00210226
-0.00674679 -0.0685773 0.997623 0.00304743
-0.00315358 -0.0735859 0.997284 0.000591806
0.00271074 -0.0719113 0.997407 0
0.00340285 -0.0701182 0.997533 0
0.00298174 -0.075226 0.997162 0
0.00271837 -0.0716475 0.997426 0.000674087
0.00128296 -0.068084 0.997679 0.00354817
-0.00488773 -0.0537774 0.998541 0.0102054
-0.00890282 -0.0554553 0.998421 0.00839778
-0.0100188 -0.0587847 0.99822 0.00451451
-0.0139993 -0.0584995 0.998189 0.00782867
-0.01907 -0.0624433 0.997866 0.00414929
-0.024006 -0.068813 0.997341 0.00313996
-0.0274928 -0.0640622 0.997567 0.00400748
-0.0312637 -0.0519021 0.998163 0.0037727
-0.0322473 -0.0522627 0.998113 0.0026229
-0.0345019 -0.0488394 0.998211 0.00134875
-0.0376546 -0.0550794 0.997772 0.00253746
-0.0422128 -0.0454397 0.998075 0.00445419
-0.0452095 -0.048999 0.997775 0.00213894
-0.0517637 -0.0449932 0.997645 0.00371618
-0.0552418 -0.0458689 0.997419 0.00275456
-0.0561439 -0.0432366 0.997486 0.00373844
0.223256 -0.0104507 0.974704 0
-0.14198 -0.0317761 0.989359 0.00465369
-0.135773 -0.0334822 0.990174 0.00737473
-0.125285 -0.0326875 0.991582 0.00944077
-0.122064 -0.0330652 0.991971 0.0120284
-0.113682 -0.0371773 0.992821 0.0118102
-0.10629 -0.0408355 0.993496 0.0104626
-0.0508768 -0.0518879 0.997356 0.00432068
-0.0432889 -0.0457461 0.998015 0.004222
-0.0339131 -0.0482245 0.998261 0.00065055
-0.0259591 -0.0590704 0.997916 0
-0.0193983 -0.0676736 0.997519 0
-0.0127792 -0.0731046 0.997242 0
-0.00764702 -0.071708 0.997396 0
-0.00402987 -0.0733678 0.997297 0
0.000201542 -0.074115 0.99725 0
0.00119886 -0.0776288 0.996982 0
0.00288703 -0.0739755 0.997256 0
0.00264159 -0.0693819 0.997587 0.00367921
0.00119728 -0.0709462 0.997479 0.00286555
-0.00317383 -0.0603217 0.998174 0.00588428
-0.00769019 -0.0629045 0.99799 0.00715027
-0.0102339 -0.0635916 0.997923 0.0049824
-0.0124058 -0.0627697 0.997951 0.00260848
-0.0178453 -0.0705235 0.997351 0
-0.0221322 -0.0721424 0.997149 0
-0.0254517 -0.0715842 0.99711 0.00201835
-0.0274195 -0.0616004 0.997724 0.000289455
-0.0305453 -0.0598423 0.99774 0
-0.0326561 -0.0591784 0.997713 0
-0.0367449 -0.0620489 0.997396 0
-0.0412498 -0.0611885 0.997273 0.00124009
-0.0444098 -0.0545547 0.997523 0.00196715
-0.05496 -0.0470039 0.997382 0.00551306
0.222101 -0.0101439 0.974971 0
-0.141674 -0.0334988 0.989346 0.00517456
-0.138939 -0.033131 0.989747 0.00781921
-0.130736 -0.0309018 0.990936 0.0133301
-0.118989 -0.0368004 0.992213 0.0104208
-0.116557 -0.0384434 0.99244 0.011324
-0.0527529 -0.0495113 0.997379 0.00276604
-0.0525069 -0.045003 0.997606 0.00474152
-0.0432337 -0.048658 0.997879 0.000393687
-0.0406115 -0.051946 0.997824 0
-0.0307242 -0.0605405 0.997693 0
-0.0224606 -0.059293 0.997988 0
-0.0148899 -0.0677485 0.997591 0
-0.0099542 -0.0668037 0.997716 0
-0.00482095 -0.0718857 0.997401 0
-0.00264744 -0.0754389 0.997147 0
-0.00140151 -0.0735941 0.997287 0
0.00176344 -0.0732228 0.997314 0
0.00264461 -0.0691045 0.997606 7.57079e-05
0.00173784 -0.0698491 0.997556 0.0022991
-0.00336669 -0.0635296 0.997974 0.000309119
-0.00717849 -0.0657349 0.997811 0.00260721
-0.010181 -0.0671635 0.99769 0.00444373
-0.0123031 -0.0661486 0.997734 0.00327124
-0.016506 -0.0717851 0.997284 0
-0.0211721 -0.0694748 0.997359 0.00245382
-0.0232592 -0.0713553 0.99718 0
-0.0266587 -0.0683703 0.997304 0.00217342
-0.028148 -0.0604784 0.997773 0
-0.0296836 -0.0637189 0.997526 0
-0.0341006 -0.0715916 0.996851 0
-0.0377753 -0.0674614 0.997006 0
-0.0411321 -0.0673182 0.996883 0
-0.142886 -0.0307984 0.98926 0.0100181
-0.139614 -0.031356 0.989709 0.0107064
-0.130805 -0.0320395 0.99089 0.0108312
-0.123036 -0.0337492 0.991828 0.0139029
-0.116778 -0.0372841 0.992458 0.011899
-0.108325 -0.043573 0.99316 0.00988997
-0.0437731 -0.0561162 0.997464 0
-0.0412527 -0.0542242 0.997676 0
-0.0337293 -0.0587746 0.997701 0
-0.0245074 -0.0634401 0.997685 0
-0.0170924 -0.0685026 0.997505 0
-0.0115342 -0.0701875 0.997467 0
-0.00568193 -0.0726624 0.99734 0
-0.0039359 -0.0783391 0.996919 0
-0.00290591 -0.0684541 0.99765 2.02484e-05
-0.000165491 -0.0676733 0.997708 0
-0.00016503 -0.0661192 0.997812 0.00268135
4.45261e-06 -0.0698126 0.99756 0
-0.00248616 -0.0678432 0.997693 0.00288101
-0.00552721 -0.0649026 0.997876 0.0055542
-0.00892536 -0.0686531 0.997601 0.00376666
-0.0113343 -0.0690562 0.997548 0.0050016
-0.0144103 -0.069563 0.997473 0.00318448
-0.0179114 -0.0664452 0.997629 0.00162779
-0.0210274 -0.0694336 0.997365 0
-0.0239561 -0.0700557 0.997255 0
-0.0260285 -0.0726299 0.997019 0
-0.0284649 -0.0669151 0.997353 0
-0.0325044 -0.0709611 0.996949 0
-0.0365938 -0.0715563 0.996765 0
-0.0398082 -0.0686066 0.996849 0
-0.151489 -0.0247959 0.988148 0.0148926
-0.145841 -0.0284113 0.9889 0.0169141
-0.134072 -0.028765 0.990554 0.0157035
-0.123954 -0.0339069 0.991709 0.0169021
-0.107542 -0.0469804 0.99309 0.00717701
-0.0361795 -0.0636497 0.997316 0
-0.0269986 -0.064929 0.997525 0
-0.0214869 -0.0710765 0.997239 0
-0.0136049 -0.0697519 0.997472 0
-0.00718622 -0.0819624 0.99661 0
-0.00457683 -0.0759967 0.997098 0
-0.0034202 -0.0754724 0.997142 0
-0.00144642 -0.0677336 0.997702 0.0010917
-0.000473515 -0.07019 0.997534 0
-0.00242028 -0.0713819 0.997446 0.00076633
-0.00310574 -0.0685596 0.997642 0.004031
-0.00401693 -0.0707434 0.997486 0.00237456
-0.00659641 -0.0706823 0.997477 0.0038369
