# .PCD v.7 - Point Cloud Data file format
VERSION .7
FIELDS x y z
SIZE 4 4 4
TYPE F F F
COUNT 1 1 1
WIDTH 1489
HEIGHT 1
VIEWPOINT 0 0 0 1 0 0 0
POINTS 1489
DATA ascii
-7.241104 14.060280 -225.914511
-7.240634 14.128098 -225.888520
-7.241324 14.198162 -225.888551
-7.241377 14.270024 -225.895699
-7.240831 14.340304 -225.889799
-7.241442 14.410427 -225.887852
-7.241176 14.480479 -225.888952
-7.241626 14.550711 -225.883001
-7.240995 14.621030 -225.875112
-7.241129 14.688424 -225.864082
-7.242175 14.756857 -225.850043
-7.241709 14.827068 -225.846150
-7.242199 14.897260 -225.841206
-7.241969 14.964920 -225.821208
-7.242420 15.035152 -225.815256
-7.241758 15.106865 -225.829428
-7.242167 15.177126 -225.822487
-7.242259 15.244539 -225.810478
-7.242708 15.314771 -225.804526
-7.242478 15.383450 -225.783547
-7.243086 15.451171 -225.759491
-7.242657 15.521362 -225.756597
-7.242992 15.593036 -225.770728
-7.243166 15.662762 -225.782804
-7.243617 15.733004 -225.776853
-7.243030 15.803304 -225.769953
-7.243640 15.873417 -225.768016
-7.243931 15.943767 -225.758089
-7.244061 16.011151 -225.747059
-7.243756 16.081243 -225.747151
-7.243685 16.153214 -225.751294
-7.244335 16.223297 -225.750346
-7.244270 16.293211 -225.756430
-7.243965 16.363313 -225.756522
-7.244293 16.433624 -225.747584
-7.244224 16.501146 -225.731570
-7.244274 16.569627 -225.717582
-7.244684 16.639879 -225.710641
-7.245094 16.709122 -225.704661
-7.244788 16.779224 -225.704763
-7.244683 16.849157 -225.709838
-7.244377 16.919249 -225.709940
-7.245146 16.991301 -225.710047
-7.244681 17.063903 -225.728242
-7.245134 17.135469 -225.745358
-7.244987 17.205452 -225.749466
-7.244520 17.275663 -225.745552
-7.245090 17.345796 -225.742596
-7.245501 17.415038 -225.736647
-7.245435 17.484943 -225.742721
-7.245568 17.557794 -225.750897
-7.244860 17.625107 -225.743913
-7.244954 17.696969 -225.752042
-7.244888 17.771313 -225.778282
-7.245062 17.843116 -225.788418
-7.245552 17.913308 -225.783475
-7.245763 17.981671 -225.773482
-7.245653 18.049222 -225.756479
-7.245622 18.117753 -225.740483
-7.245556 18.189724 -225.744626
-7.245371 18.261080 -225.770793
-7.245429 18.335345 -225.800011
-7.245601 18.407138 -225.810156
-7.245018 18.478791 -225.826325
-7.245272 18.554964 -225.858615
-7.245086 18.628378 -225.882840
-7.245500 18.701021 -225.897988
-7.245155 18.774554 -225.918208
-7.244412 18.848698 -225.952470
-7.244627 18.923882 -225.984752
-7.244161 18.996485 -226.002928
-7.244615 19.068050 -226.020064
-7.244350 19.141544 -226.042282
-7.244768 19.217588 -226.078567
-7.243666 19.295410 -226.124977
-7.244241 19.371355 -226.165257
-7.243898 19.447270 -226.207576
-7.242960 19.524983 -226.257972
-7.242658 19.604279 -226.322427
-7.242877 19.681835 -226.376786
-7.242499 19.765639 -226.459401
-7.241246 19.853119 -226.590189
-7.240195 19.944553 -226.722128
-7.117687 -20.449254 -226.761749
-7.118002 -20.366214 -226.692113
-7.119111 -20.282360 -226.592432
-7.119856 -20.193096 -226.478909
-7.120804 -20.107067 -226.373282
-7.121360 -20.026261 -226.311580
-7.121085 -19.950353 -226.282817
-7.122044 -19.871911 -226.233034
-7.122683 -19.793212 -226.175281
-7.123043 -19.715018 -226.135536
-7.122649 -19.641078 -226.105709
-7.123536 -19.567384 -226.082831
-7.123422 -19.492623 -226.059023
-7.123947 -19.416604 -226.025205
-7.124067 -19.340300 -225.981420
-7.124034 -19.266627 -225.960581
-7.124483 -19.194328 -225.952698
-7.124937 -19.122040 -225.944824
-7.124783 -19.048277 -225.920979
-7.124670 -18.974545 -225.898143
-7.124877 -18.902078 -225.884257
-7.125327 -18.829780 -225.876384
-7.125775 -18.757511 -225.868500
-7.125744 -18.685885 -225.849603
-7.126509 -18.610055 -225.821797
-7.126123 -18.539893 -225.819881
-7.126055 -18.469969 -225.825976
-7.126544 -18.399777 -225.821022
-7.126756 -18.327310 -225.807146
-7.126843 -18.253726 -225.789304
-7.127252 -18.181408 -225.780422
-7.126785 -18.111207 -225.776518
-7.126954 -18.039729 -225.762605
-7.127323 -17.967381 -225.752734
-7.127052 -17.895262 -225.751883
-7.127426 -17.824961 -225.743954
-7.127835 -17.753681 -225.736042
-7.127403 -17.681443 -225.731186
-7.127778 -17.611152 -225.723247
-7.128227 -17.538854 -225.715374
-7.128077 -17.468890 -225.719450
-7.128051 -17.399005 -225.726524
-7.128066 -17.329161 -225.734615
-7.127837 -17.259118 -225.736705
-7.128170 -17.186741 -225.725835
-7.127739 -17.117598 -225.723891
-7.127954 -17.046853 -225.735996
-7.127849 -16.976910 -225.741092
-7.128179 -16.907617 -225.733104
-7.127948 -16.835527 -225.733262
-7.128165 -16.766840 -225.747319
-7.128059 -16.696906 -225.752394
-7.128750 -16.626852 -225.752445
-7.128327 -16.559431 -225.776492
-7.128624 -16.491831 -225.793506
-7.128318 -16.421749 -225.793608
-7.128847 -16.349520 -225.787722
-7.128256 -16.279220 -225.780823
-7.128869 -16.207040 -225.776925
-7.128802 -16.139193 -225.784960
-7.128937 -16.069418 -225.796038
-7.128711 -15.999395 -225.798127
-7.129160 -15.927106 -225.790244
-7.128734 -15.857943 -225.788301
-7.129066 -15.789364 -225.805343
-7.128482 -15.721835 -225.825395
-7.128337 -15.651851 -225.829482
-7.129067 -15.579771 -225.828600
-7.128761 -15.509668 -225.828672
-7.128695 -15.439764 -225.834766
-7.128909 -15.372105 -225.849783
-7.129205 -15.303496 -225.865827
-7.128621 -15.235967 -225.885878
-7.128756 -15.166191 -225.896957
-7.128530 -15.096158 -225.899046
-7.128703 -15.026422 -225.911123
-7.128322 -14.958003 -225.935198
-7.128455 -14.890294 -225.948207
-7.128229 -14.820261 -225.950297
-7.128678 -14.747973 -225.942423
-7.129049 -14.678710 -225.935455
-7.128902 -14.606680 -225.937600
-7.128676 -14.536647 -225.939689
-7.129006 -14.466326 -225.930751
-7.129212 -14.391813 -225.914934
-7.129463 -14.322451 -225.904969
-7.129397 -14.252547 -225.911053
-7.129207 -14.182534 -225.914131
-7.129142 -14.112620 -225.920226
-7.129197 -14.041776 -225.928325
-7.129252 -13.971941 -225.937416
-7.129183 -13.902027 -225.943500
-7.129873 -13.831973 -225.943541
-7.129328 -13.762732 -225.938621
-7.130455 -13.688188 -225.920775
-7.129824 -13.617848 -225.912857
-7.129919 -13.548063 -225.922946
-7.130136 -13.480403 -225.937963
-7.130067 -13.410499 -225.944048
-7.129920 -13.338469 -225.946193
-7.130330 -13.268197 -225.939253
-7.130023 -13.198115 -225.939344
-7.129957 -13.128201 -225.945418
-7.130009 -13.058386 -225.954509
-7.130105 -12.988581 -225.964588
-7.130555 -12.918349 -225.958646
-7.130924 -12.845991 -225.948766
-7.130897 -12.776116 -225.955839
-7.130671 -12.706084 -225.957928
-7.130442 -12.636061 -225.960017
-7.130578 -12.566285 -225.971095
-7.130673 -12.496480 -225.981185
-7.130524 -12.428574 -225.987213
-7.130260 -12.358512 -225.988314
-7.130547 -12.286094 -225.976426
-7.130877 -12.214755 -225.966516
-7.131409 -12.142525 -225.960630
-7.130899 -12.072285 -225.955728
-7.131349 -12.002053 -225.949787
-7.131758 -11.930763 -225.941875
-7.131572 -11.860760 -225.944963
-7.131868 -11.790095 -225.959075
-7.131883 -11.720230 -225.967147
-7.131453 -11.650039 -225.964253
-7.131862 -11.578769 -225.956341
-7.131557 -11.510724 -225.958375
-7.131330 -11.438624 -225.958503
-7.131579 -11.368254 -225.947577
-7.132270 -11.298201 -225.947628
-7.132203 -11.226230 -225.951771
-7.131694 -11.155989 -225.946869
-7.132468 -11.085995 -225.948917
-7.132640 -11.016249 -225.960994
-7.132614 -10.946374 -225.968077
-7.132308 -10.876283 -225.968178
-7.132079 -10.806260 -225.970268
-7.131853 -10.736217 -225.972357
-7.132422 -10.664017 -225.967460
-7.132992 -10.594913 -225.965475
-7.132526 -10.524692 -225.961582
-7.132695 -10.452196 -225.946707
-7.132863 -10.380718 -225.932804
-7.132837 -10.309816 -225.938926
-7.132732 -10.239872 -225.944001
-7.133503 -10.169867 -225.946050
-7.133273 -10.099844 -225.948139
-7.132847 -10.030692 -225.946195
-7.133016 -9.958186 -225.931341
-7.133143 -9.885679 -225.915457
-7.133319 -9.815933 -225.927534
-7.133696 -9.748413 -225.946555
-7.133786 -9.678607 -225.956615
-7.133723 -9.608683 -225.962710
-7.133215 -9.538453 -225.957808
-7.133744 -9.466224 -225.951922
-7.133598 -9.396250 -225.955998
-7.133369 -9.326217 -225.958088
-7.133939 -9.256075 -225.955152
-7.133714 -9.186032 -225.957242
-7.133729 -9.116188 -225.965333
-7.133623 -9.046244 -225.970409
-7.133992 -8.973886 -225.960538
-7.134402 -8.904663 -225.954558
-7.134537 -8.834897 -225.965636
-7.134507 -8.763994 -225.971748
-7.134281 -8.693951 -225.973838
-7.133857 -8.624789 -225.971904
-7.134585 -8.552727 -225.971002
-7.134276 -8.482626 -225.971104
-7.134291 -8.412771 -225.979186
-7.134467 -8.344063 -225.992233
-7.134557 -8.272211 -226.000371
-7.134891 -8.202909 -225.992414
-7.134980 -8.132420 -225.977473
-7.135268 -8.060013 -225.965595
-7.134963 -7.989911 -225.965687
-7.134613 -7.920827 -225.965750
-7.135505 -7.850922 -225.970795
-7.135480 -7.780000 -225.976917
-7.135332 -7.707989 -225.979062
-7.134782 -7.638737 -225.974122
-7.135315 -7.568575 -225.970178
-7.135846 -7.498392 -225.966223
-7.135657 -7.428390 -225.969332
-7.135751 -7.358604 -225.979390
-7.135928 -7.288858 -225.991488
-7.135782 -7.218875 -225.995565
-7.136109 -7.146517 -225.984675
-7.135476 -7.074446 -225.950796
-7.136000 -7.002542 -225.920881
-7.136650 -6.932468 -225.919942
-7.135869 -6.861685 -225.932079
-7.135960 -6.791890 -225.942168
-7.135856 -6.724003 -225.949185
-7.136030 -6.652210 -225.959320
-7.136640 -6.582097 -225.957383
-7.136173 -6.511886 -225.953470
-7.136225 -6.442061 -225.962551
-7.136915 -6.371997 -225.962592
-7.136609 -6.301915 -225.962693
-7.136585 -6.232031 -225.969776
-7.136519 -6.162127 -225.975860
-7.136209 -6.092025 -225.975953
-7.136659 -6.020765 -225.969040
-7.136948 -5.950424 -225.959103
-7.137161 -5.880005 -225.947168
-7.136771 -5.807796 -225.943331
-7.137065 -5.738159 -225.958394
-7.137082 -5.670351 -225.968418
-7.136771 -5.598202 -225.966558
-7.137505 -5.528188 -225.967617
-7.137276 -5.458145 -225.969707
-7.137211 -5.388221 -225.975791
-7.137701 -5.318029 -225.970848
-7.137949 -5.246621 -225.958932
-7.137724 -5.176578 -225.961021
-7.137579 -5.106615 -225.965127
-7.138068 -5.036413 -225.960174
-7.137678 -4.966271 -225.958258
-7.137613 -4.896347 -225.964353
-7.138344 -4.826313 -225.965403
-7.137875 -4.754066 -225.959557
-7.138406 -4.683883 -225.955613
-7.138021 -4.614750 -225.954678
-7.138551 -4.544588 -225.950734
-7.138004 -4.474318 -225.944823
-7.138574 -4.402119 -225.939956
-7.138586 -4.334321 -225.949979
-7.138084 -4.264783 -225.970067
-7.138136 -4.193940 -225.978187
-7.138667 -4.124786 -225.975224
-7.139039 -4.052438 -225.965333
-7.138649 -3.982297 -225.963427
-7.138623 -3.912402 -225.970500
-7.139235 -3.842289 -225.968563
-7.138849 -3.772138 -225.966667
-7.139498 -3.702054 -225.965709
-7.139434 -3.632131 -225.971804
-7.138689 -3.562425 -225.985909
-7.138704 -3.492571 -225.994001
-7.139353 -3.422497 -225.993043
-7.138882 -3.350219 -225.987188
-7.139412 -3.280047 -225.983254
-7.139146 -3.209995 -225.984354
-7.139081 -3.140071 -225.990429
-7.139016 -3.070156 -225.996503
-7.138987 -3.000272 -226.003596
-7.139077 -2.930802 -225.989636
-7.140044 -2.858196 -225.969727
-7.139617 -2.788014 -225.966812
-7.139549 -2.718100 -225.972906
-7.140320 -2.648096 -225.974955
-7.140174 -2.578133 -225.979041
-7.139989 -2.508130 -225.982129
-7.140239 -2.438778 -225.972164
-7.140093 -2.368805 -225.976251
-7.140184 -2.295924 -225.983429
-7.140516 -2.226641 -225.975440
-7.140806 -2.156281 -225.965514
-7.140296 -2.086031 -225.960602
-7.140906 -2.015928 -225.958665
-7.140760 -1.945954 -225.962752
-7.140776 -1.876110 -225.970833
-7.140590 -1.806097 -225.973922
-7.141120 -1.735924 -225.969977
-7.140971 -1.665961 -225.974074
-7.140865 -1.593951 -225.977218
-7.140558 -1.523858 -225.977290
-7.140809 -1.456564 -225.969276
-7.141379 -1.384364 -225.964399
-7.141474 -1.314558 -225.974459
-7.140649 -1.244794 -225.986597
-7.141379 -1.174770 -225.987626
-7.140993 -1.104629 -225.985730
-7.141683 -1.034565 -225.985781
-7.141538 -0.964582 -225.989868
-7.141269 -0.894529 -225.990958
-7.141558 -0.824179 -225.981032
-7.141651 -0.754719 -225.967061
-7.142301 -0.682568 -225.964172
-7.141831 -0.612358 -225.960279
-7.141524 -0.542275 -225.960350
-7.141580 -0.472441 -225.969441
-7.141751 -0.402704 -225.981518
-7.142446 -0.332661 -225.981568
-7.141895 -0.262381 -225.975668
-7.142466 -0.192228 -225.972732
-7.142840 -0.121947 -225.964792
-7.142449 -0.051796 -225.962877
-7.142663 0.019968 -225.974011
-7.142758 0.089763 -225.984090
-7.142689 0.159678 -225.990165
-7.142504 0.229691 -225.993253
-7.142117 0.299832 -225.991357
-7.142808 0.369885 -225.991408
-7.142542 0.439938 -225.992498
-7.142872 0.509240 -225.984541
-7.143243 0.579541 -225.976601
-7.142852 0.649682 -225.974686
-7.143505 0.721822 -225.971806
-7.143116 0.789908 -225.971821
-7.143050 0.861888 -225.975985
-7.143540 0.932090 -225.971031
-7.143034 1.001292 -225.967100
-7.143805 1.071297 -225.969148
-7.143218 1.141606 -225.962249
-7.143347 1.212066 -225.948307
-7.143517 1.281476 -225.936354
-7.144168 1.351549 -225.935416
-7.143623 1.422155 -225.953545
-7.143958 1.491772 -225.969617
-7.143812 1.563812 -225.971762
-7.144222 1.634064 -225.964821
-7.144311 1.701467 -225.952792
-7.144280 1.774122 -225.932934
-7.144331 1.841575 -225.919917
-7.144464 1.914426 -225.928083
-7.144480 1.984270 -225.936175
-7.144530 2.054096 -225.945235
-7.144704 2.123822 -225.957312
-7.144559 2.193805 -225.961409
-7.144250 2.263907 -225.961491
-7.144740 2.334099 -225.956558
-7.145274 2.404271 -225.952613
-7.144845 2.473414 -225.950689
-7.144498 2.543546 -225.949772
-7.144512 2.615458 -225.955913
-7.144523 2.685303 -225.963985
-7.145339 2.755277 -225.967051
-7.144707 2.825607 -225.959133
-7.145077 2.895897 -225.951204
-7.145808 2.965921 -225.952253
-7.145941 3.036401 -225.938311
-7.145709 3.106098 -225.916371
-7.145520 3.176101 -225.919459
-7.145696 3.245837 -225.931536
-7.146032 3.315454 -225.947618
-7.145244 3.388285 -225.957803
-7.145696 3.455431 -225.954783
-7.146225 3.527660 -225.948897
-7.146515 3.595944 -225.940901
-7.145927 3.668310 -225.932061
-7.146458 3.738483 -225.928116
-7.146553 3.808288 -225.938196
-7.145929 3.877904 -225.955317
-7.145783 3.947878 -225.959394
-7.146393 4.017981 -225.957437
-7.146167 4.088024 -225.959526
-7.146658 4.158235 -225.954603
-7.146151 4.229494 -225.948721
-7.146922 4.297432 -225.952710
-7.146813 4.369442 -225.955855
-7.146587 4.439465 -225.957944
-7.147116 4.509638 -225.953989
-7.146609 4.579868 -225.949097
-7.147301 4.649932 -225.949138
-7.147316 4.719786 -225.957230
-7.147166 4.789760 -225.961317
-7.146660 4.860000 -225.956424
-7.147590 4.931933 -225.960516
-7.146688 5.001756 -225.970646
-7.146820 5.071532 -225.981725
-7.146835 5.141397 -225.989797
-7.147525 5.211441 -225.989847
-7.147258 5.283560 -225.988996
-7.147189 5.353474 -225.995081
-7.146883 5.423566 -225.995173
-7.147734 5.493501 -225.999218
-7.147388 5.563633 -225.998311
-7.147918 5.633795 -225.994367
-7.147612 5.703887 -225.994459
-7.147822 5.773268 -225.983505
-7.148272 5.843500 -225.977553
-7.148207 5.913424 -225.983637
-7.148018 5.983417 -225.986725
-7.147631 6.053569 -225.984819
-7.147806 6.125372 -225.994955
-7.148016 6.196087 -226.007060
-7.147991 6.265981 -226.014143
-7.148005 6.337893 -226.020284
-7.147699 6.407974 -226.020385
-7.148429 6.478009 -226.021415
-7.148161 6.547053 -226.023476
-7.147855 6.617135 -226.023578
-7.148505 6.687218 -226.022630
-7.148795 6.757558 -226.012702
-7.149084 6.827919 -226.002756
-7.148538 6.897171 -225.997816
-7.148432 6.968133 -226.001940
-7.149003 7.037247 -225.999965
-7.149373 7.107528 -225.992026
-7.148947 7.177719 -225.989131
-7.148717 7.247752 -225.991221
-7.149170 7.317983 -225.985269
-7.149661 7.388185 -225.980326
-7.148834 7.460017 -225.990502
-7.149249 7.531642 -226.006621
-7.149501 7.601309 -226.020705
-7.149396 7.671252 -226.025790
-7.149845 7.741474 -226.019848
-7.149298 7.811754 -226.013948
-7.149950 7.881837 -226.013000
-7.149483 7.952048 -226.009096
-7.149334 8.022021 -226.013193
-7.150147 8.094043 -226.014278
-7.149917 8.161694 -225.994280
-7.150287 8.231985 -225.986340
-7.150101 8.301988 -225.989428
-7.150631 8.372161 -225.985474
-7.149965 8.443873 -225.999656
-7.150301 8.513480 -226.015727
-7.149871 8.583672 -226.012823
-7.150160 8.654032 -226.002877
-7.150176 8.723877 -226.010968
-7.150631 8.795462 -226.028105
-7.150401 8.865494 -226.030194
-7.150774 8.935785 -226.022255
-7.149988 9.007587 -226.033430
-7.150164 9.077323 -226.045507
-7.150533 9.147604 -226.037567
-7.150224 9.217707 -226.037649
-7.151037 9.289728 -226.038755
-7.150646 9.357498 -226.014741
-7.150698 9.425979 -226.000773
-7.150987 9.497663 -226.013894
-7.151002 9.567527 -226.021986
-7.151612 9.639698 -226.018088
-7.151185 9.709869 -226.015184
-7.151437 9.777173 -226.007160
-7.151290 9.849214 -226.009306
-7.151745 9.919760 -226.027403
-7.151039 9.991503 -226.040576
-7.151649 10.061616 -226.038629
-7.151504 10.131579 -226.042716
-7.151314 10.203649 -226.043863
-7.151765 10.271834 -226.039862
-7.151939 10.341235 -226.027909
-7.152348 10.411496 -226.020959
-7.151602 10.483278 -226.033133
-7.151616 10.553123 -226.041205
-7.152147 10.623295 -226.037270
-7.151957 10.695355 -226.038427
-7.151731 10.765388 -226.040516
-7.152341 10.835501 -226.038559
-7.152156 10.905514 -226.041648
-7.152445 10.975855 -226.031711
-7.152215 11.043495 -226.011711
-7.152626 11.113766 -226.004771
-7.152239 11.183918 -226.002855
-7.152654 11.255543 -226.018984
-7.152704 11.325358 -226.028054
-7.153159 11.395589 -226.022132
-7.152848 11.465672 -226.022204
-7.152782 11.537653 -226.026367
-7.152676 11.607597 -226.031442
-7.152847 11.679390 -226.041578
-7.152621 11.749412 -226.043667
-7.152870 11.819803 -226.032722
-7.153042 11.887156 -226.022710
-7.152895 11.959187 -226.024856
-7.153786 12.029092 -226.029890
-7.153640 12.101133 -226.032036
-7.153409 12.171156 -226.034125
-7.153865 12.239340 -226.030135
-7.153593 12.311440 -226.029273
-7.153449 12.381422 -226.033380
-7.153898 12.451664 -226.027429
-7.154229 12.521975 -226.018500
-7.153921 12.592067 -226.018572
-7.153696 12.662110 -226.020661
-7.153987 12.731422 -226.011705
-7.154632 12.800142 -225.987678
-7.154722 12.869621 -225.973738
-7.154815 12.938053 -225.960738
-7.154425 13.005842 -225.936735
-7.154715 13.076183 -225.926798
-7.155365 13.146266 -225.925860
-7.155058 13.216348 -225.925941
-7.155230 13.288151 -225.936077
-7.155605 13.359796 -225.951216
-7.155218 13.429947 -225.949300
-7.155587 13.500228 -225.941361
-7.155083 13.568421 -225.938410
-7.155852 13.640483 -225.938507
-7.155542 13.710565 -225.938599
-7.155117 13.779718 -225.936675
-7.155445 13.850029 -225.927717
-7.156336 13.918590 -225.909702
-7.156266 13.986122 -225.893689
-7.155840 14.056303 -225.890784
-7.156370 14.126465 -225.886840
-7.156820 14.196707 -225.880898
-7.156716 14.266660 -225.885994
-7.156644 14.338612 -225.890126
-7.157095 14.408854 -225.884185
-7.156549 14.476028 -225.881185
-7.156403 14.548069 -225.883331
-7.156694 14.616372 -225.875346
-7.156782 14.686861 -225.860405
-7.157032 14.756212 -225.850450
-7.157404 14.824446 -225.844452
-7.157653 14.894826 -225.833516
-7.157787 14.963238 -225.821525
-7.157517 15.034329 -225.821645
-7.157491 15.104203 -225.828738
-7.157385 15.175186 -225.832843
-7.157876 15.244359 -225.828871
-7.157645 15.313038 -225.807891
-7.158652 15.382540 -225.791893
-7.158106 15.450743 -225.787933
-7.158757 15.520826 -225.786985
-7.158965 15.591236 -225.775050
-7.158980 15.658718 -225.761024
-7.159229 15.729088 -225.750098
-7.159441 15.797451 -225.740105
-7.159210 15.867474 -225.742195
-7.158943 15.939593 -225.741334
-7.158793 16.007174 -225.723332
-7.159004 16.075537 -225.713339
-7.159739 16.145551 -225.714388
-7.159829 16.217413 -225.722537
-7.159006 16.289245 -225.732693
-7.159536 16.359417 -225.728759
-7.160107 16.429560 -225.725813
-7.159717 16.499711 -225.723908
-7.159332 16.567805 -225.723953
-7.160102 16.638829 -225.725011
-7.159635 16.709039 -225.721117
-7.159846 16.777392 -225.711114
-7.160497 16.847475 -225.710176
-7.159835 16.919198 -225.724338
-7.160165 16.990852 -225.738478
-7.159619 17.063515 -225.754676
-7.159673 17.135397 -225.761815
-7.160203 17.205569 -225.757870
-7.159977 17.275592 -225.759960
-7.160428 17.344805 -225.754978
-7.160078 17.411516 -225.732954
-7.160529 17.481748 -225.727012
-7.160223 17.550811 -225.728075
-7.160672 17.621043 -225.722133
-7.161046 17.693716 -225.736291
-7.160105 17.766990 -225.766540
-7.160316 17.838754 -225.777675
-7.161010 17.908807 -225.777725
-7.161100 17.980660 -225.785864
-7.160874 18.055132 -225.808110
-7.160412 18.126696 -225.827275
-7.160422 18.198608 -225.833416
-7.160117 18.268710 -225.833508
-7.160367 18.337023 -225.824513
-7.161059 18.407086 -225.824574
-7.160635 18.480668 -225.842786
-7.161127 18.552234 -225.860912
-7.160904 18.626696 -225.883158
-7.160198 18.698449 -225.896321
-7.160693 18.769984 -225.914456
-7.160347 18.845909 -225.956765
-7.160004 18.923870 -225.997162
-7.159579 18.995415 -226.017327
-7.160073 19.067999 -226.034471
-7.160207 19.143223 -226.064736
-7.159226 19.217575 -226.093016
-7.159201 19.290870 -226.121226
-7.159339 19.368476 -226.173578
-7.158401 19.446188 -226.224004
-7.158814 19.522243 -226.260279
-7.158873 19.599917 -226.310654
-7.158530 19.680272 -226.373119
-7.157517 19.762808 -226.465724
-7.156263 19.852345 -226.594601
-7.156365 19.935773 -226.689189
-7.027900 -20.363936 -226.666764
-7.028453 -20.279342 -226.577139
-7.029324 -20.197051 -226.497446
-7.030113 -20.112635 -226.413805
-7.030593 -20.034846 -226.353038
-7.030987 -19.951874 -226.285389
-7.031505 -19.872057 -226.223659
-7.031902 -19.791123 -226.157973
-7.032026 -19.714819 -226.114177
-7.032952 -19.641154 -226.092288
-7.032442 -19.568846 -226.085445
-7.032608 -19.495342 -226.069599
-7.033335 -19.420480 -226.041756
-7.033620 -19.344294 -226.001955
-7.034180 -19.268306 -225.969136
-7.034308 -19.193723 -225.951331
-7.034237 -19.122067 -225.931435
-7.034367 -19.049561 -225.915561
-7.034817 -18.978291 -225.908649
-7.035025 -18.905824 -225.894773
-7.034952 -18.832122 -225.872945
-7.035281 -18.759744 -225.862056
-7.035649 -18.687396 -225.852175
-7.034900 -18.615959 -225.840309
-7.035591 -18.543838 -225.838419
-7.035244 -18.473716 -225.837502
-7.035694 -18.401428 -225.829619
-7.035781 -18.329910 -225.813717
-7.035588 -18.255090 -225.787912
-7.035797 -18.183642 -225.775017
-7.036326 -18.111413 -225.769132
-7.036775 -18.039124 -225.761248
-7.037027 -17.966687 -225.748371
-7.036516 -17.895428 -225.742498
-7.037206 -17.825364 -225.742549
-7.036981 -17.755332 -225.744638
-7.036956 -17.685448 -225.751731
-7.037405 -17.615216 -225.745779
-7.036857 -17.542889 -225.737937
-7.036908 -17.473073 -225.747008
-7.036844 -17.403150 -225.753102
-7.037134 -17.332789 -225.743176
-7.037702 -17.260610 -225.738278
-7.036882 -17.192882 -225.752338
-7.036974 -17.123077 -225.762417
-7.037101 -17.050571 -225.746544
-7.037908 -16.976807 -225.721668
-7.037361 -16.906537 -225.715768
-7.037936 -16.839155 -225.739784
-7.037236 -16.771526 -225.756829
-7.037366 -16.700742 -225.766936
-7.037461 -16.630937 -225.777016
-7.038032 -16.560794 -225.774060
-7.038200 -16.489336 -225.760166
-7.037734 -16.419115 -225.756263
-7.037668 -16.347144 -225.760406
-7.037720 -16.279376 -225.771428
-7.037897 -16.211697 -225.785456
-7.038030 -16.140913 -225.795544
-7.038164 -16.073194 -225.808583
-7.038339 -16.003468 -225.820650
-7.038033 -15.933366 -225.820732
-7.038281 -15.860929 -225.807865
-7.038531 -15.789511 -225.795959
-7.038707 -15.721842 -225.809987
-7.038283 -15.653382 -225.833053
-7.037618 -15.583736 -225.849156
-7.038309 -15.513683 -225.849217
-7.038758 -15.443461 -225.843265
-7.038653 -15.373507 -225.848360
-7.038428 -15.303465 -225.850450
-7.038524 -15.233680 -225.860539
-7.037900 -15.166100 -225.879572
-7.038114 -15.095385 -225.891677
-7.038207 -15.027637 -225.903718
-7.038342 -14.957881 -225.914796
-7.038036 -14.887779 -225.914868
-7.038485 -14.815490 -225.906994
-7.038174 -14.745408 -225.907086
-7.038312 -14.677689 -225.920106
-7.038085 -14.605600 -225.920254
-7.038695 -14.535497 -225.918316
-7.038389 -14.466423 -225.919359
-7.039159 -14.394372 -225.919476
-7.038849 -14.324280 -225.919568
-7.038904 -14.254455 -225.928648
-7.039040 -14.185727 -225.940697
-7.038814 -14.115685 -225.942786
-7.038463 -14.044534 -225.940899
-7.039194 -13.974520 -225.941948
-7.038889 -13.904418 -225.942050
-7.038824 -13.834495 -225.948144
-7.038913 -13.763690 -225.957243
-7.038649 -13.694647 -225.959304
-7.038857 -13.622180 -225.945438
-7.039507 -13.552106 -225.944480
-7.039088 -13.484676 -225.968537
-7.039219 -13.413892 -225.978644
-7.039347 -13.342384 -225.963732
-7.039560 -13.271974 -225.951797
-7.039490 -13.200003 -225.955930
-7.039426 -13.132146 -225.963966
-7.039401 -13.062262 -225.971059
-7.040091 -12.990141 -225.969159
-7.039785 -12.920059 -225.969250
-7.039595 -12.850056 -225.972338
-7.039689 -12.780271 -225.982417
-7.040140 -12.710029 -225.976476
-7.039746 -12.636089 -225.946658
-7.040076 -12.565758 -225.937710
-7.039930 -12.495795 -225.941806
-7.040025 -12.425999 -225.951866
-7.040317 -12.356362 -225.966949
-7.040332 -12.286497 -225.975021
-7.040106 -12.216464 -225.977110
-7.040676 -12.146322 -225.974174
-7.040130 -12.076052 -225.968274
-7.040820 -12.003942 -225.966393
-7.040590 -11.933919 -225.968482
-7.040404 -11.863906 -225.971560
-7.040259 -11.793922 -225.975647
-7.040949 -11.723878 -225.975698
-7.040602 -11.653756 -225.974781
-7.041334 -11.582694 -225.974870
-7.040782 -11.512434 -225.968969
-7.041276 -11.440175 -225.962074
-7.040886 -11.370024 -225.960178
-7.041416 -11.299851 -225.956234
-7.041949 -11.227622 -225.950338
-7.041759 -11.157619 -225.953446
-7.041934 -11.087893 -225.965523
-7.041951 -11.020085 -225.975526
-7.041439 -10.947777 -225.968683
-7.041850 -10.878555 -225.962733
-7.041785 -10.808641 -225.968807
-7.041438 -10.736453 -225.965969
-7.041726 -10.666112 -225.956022
-7.042417 -10.596058 -225.956072
-7.042472 -10.526243 -225.965153
-7.041840 -10.453846 -225.955304
-7.042368 -10.381943 -225.925388
-7.042496 -10.309417 -225.909515
-7.042631 -10.239661 -225.920593
-7.042887 -10.169974 -225.934667
-7.042819 -10.102107 -225.942693
-7.042713 -10.032173 -225.947779
-7.042244 -9.959905 -225.941924
-7.043372 -9.889465 -225.927971
-7.043305 -9.817514 -225.932103
-7.042441 -9.749757 -225.945165
-7.043291 -9.679832 -225.949210
-7.042904 -9.607614 -225.945373
-7.043435 -9.538469 -225.942389
-7.043644 -9.468070 -225.930464
-7.043773 -9.395534 -225.914591
-7.043506 -9.325471 -225.915662
-7.043001 -9.255944 -225.935770
-7.043259 -9.188315 -225.951796
-7.043272 -9.116403 -225.957926
-7.043084 -9.046410 -225.961034
-7.043934 -8.976465 -225.965070
-7.042952 -8.906561 -225.973183
-7.043044 -8.837804 -225.984233
-7.043618 -8.766634 -225.980327
-7.043907 -8.696293 -225.970379
-7.044317 -8.623965 -225.961508
-7.043609 -8.553576 -225.951612
-7.043858 -8.482157 -225.939696
-7.043628 -8.412135 -225.941785
-7.043763 -8.342369 -225.952863
-7.043779 -8.272504 -225.960955
-7.043748 -8.201601 -225.967057
-7.043724 -8.131717 -225.974150
-7.043899 -8.061991 -225.986227
-7.043835 -7.994124 -225.994253
-7.044484 -7.921984 -225.991363
-7.043933 -7.851724 -225.985462
-7.044264 -7.782421 -225.977495
-7.044037 -7.710332 -225.977643
-7.044930 -7.642484 -225.984639
-7.044783 -7.570453 -225.986784
-7.044236 -7.500173 -225.980874
-7.044967 -7.430159 -225.981933
-7.044656 -7.360066 -225.982005
-7.045189 -7.287827 -225.976119
-7.044840 -7.217716 -225.975222
-7.045090 -7.148364 -225.965257
-7.045464 -7.076007 -225.955386
-7.045233 -7.005984 -225.957475
-7.045127 -6.936040 -225.962551
-7.045657 -6.865877 -225.958606
-7.046027 -6.795576 -225.950667
-7.046237 -6.724138 -225.937772
-7.045609 -6.653818 -225.929853
-7.046379 -6.583814 -225.931902
-7.045595 -6.514070 -225.945039
-7.045771 -6.444334 -225.957105
-7.045545 -6.374301 -225.959194
-7.046114 -6.302101 -225.954307
-7.046644 -6.231939 -225.950363
-7.046338 -6.161837 -225.950455
-7.046028 -6.091735 -225.950547
-7.046603 -6.021602 -225.947601
-7.046091 -5.950333 -225.941718
-7.046862 -5.880328 -225.943767
-7.046918 -5.810514 -225.952857
-7.046972 -5.739660 -225.960967
-7.046904 -5.671813 -225.969002
-7.046201 -5.600061 -225.982166
-7.046214 -5.532253 -225.992199
-7.046827 -5.460103 -225.988300
-7.047196 -5.389802 -225.980361
-7.046648 -5.320550 -225.975431
-7.047179 -5.248341 -225.969545
-7.046629 -5.178061 -225.963644
-7.046959 -5.107730 -225.954707
-7.047488 -5.037567 -225.950752
-7.046983 -4.968356 -225.946831
-7.047232 -4.895909 -225.933954
-7.047841 -4.825806 -225.932007
-7.047537 -4.755714 -225.932108
-7.047865 -4.685403 -225.923150
-7.047520 -4.616300 -225.923224
-7.047734 -4.545565 -225.935329
-7.047505 -4.475532 -225.937418
-7.047640 -4.405767 -225.948496
-7.047816 -4.336021 -225.960573
-7.047586 -4.265998 -225.962662
-7.048400 -4.193976 -225.963768
-7.048010 -4.123815 -225.961862
-7.047623 -4.053673 -225.959956
-7.047879 -3.983997 -225.974041
-7.048012 -3.916288 -225.987050
-7.048621 -3.844118 -225.983162
-7.047993 -3.773788 -225.975264
-7.048724 -3.703774 -225.976313
-7.048419 -3.633672 -225.976405
-7.048514 -3.563867 -225.986494
-7.048485 -3.493993 -225.993567
-7.048018 -3.423782 -225.989654
-7.048347 -3.352423 -225.979756
-7.048597 -3.282053 -225.968819
-7.049047 -3.211821 -225.962877
-7.048580 -3.141620 -225.958974
-7.049071 -3.072437 -225.955012
-7.049244 -2.999615 -225.964157
-7.049019 -2.929572 -225.966246
-7.049510 -2.860409 -225.962283
-7.049481 -2.790514 -225.969367
-7.049334 -2.720551 -225.973443
-7.049190 -2.650578 -225.977540
-7.049085 -2.580624 -225.982626
-7.049373 -2.510284 -225.972689
-7.049502 -2.437758 -225.956815
-7.049912 -2.367486 -225.949875
-7.050006 -2.297701 -225.959964
-7.050098 -2.227906 -225.970043
-7.049631 -2.157705 -225.966130
-7.050081 -2.088491 -225.961159
-7.049697 -2.018330 -225.959263
-7.050386 -1.948286 -225.959294
-7.050201 -1.878284 -225.962402
-7.050373 -1.808558 -225.974478
-7.049750 -1.737893 -225.990610
-7.050401 -1.667809 -225.989662
-7.050731 -1.596450 -225.979763
-7.050264 -1.526250 -225.975849
-7.050554 -1.455899 -225.965923
-7.050723 -1.385470 -225.952979
-7.050458 -1.316426 -225.955040
-7.050308 -1.246442 -225.959128
-7.051239 -1.175548 -225.964190
-7.051254 -1.105694 -225.972282
-7.051107 -1.035730 -225.976358
-7.050323 -0.965976 -225.989495
-7.051175 -0.896040 -225.993531
-7.051264 -0.826570 -225.979571
-7.050677 -0.756270 -225.972671
-7.051607 -0.684338 -225.976773
-7.051381 -0.614305 -225.978862
-7.050911 -0.544094 -225.974969
-7.051727 -0.474120 -225.978006
-7.051496 -0.404097 -225.980095
-7.051867 -0.333806 -225.972166
-7.052000 -0.264365 -225.959194
-7.051449 -0.194095 -225.953294
-7.051384 -0.124171 -225.959388
-7.052035 -0.054098 -225.958430
-7.051566 0.018170 -225.952575
-7.051498 0.088094 -225.958670
-7.051513 0.157939 -225.966742
-7.052404 0.227844 -225.971796
-7.052177 0.297867 -225.973885
-7.051711 0.368087 -225.969982
-7.052523 0.438052 -225.973029
-7.052292 0.508075 -225.975118
-7.052587 0.578435 -225.965181
-7.052277 0.647489 -225.966243
-7.052410 0.720340 -225.974399
-7.052266 0.788266 -225.980438
-7.052236 0.860208 -225.985580
-7.052650 0.929441 -225.979600
-7.052939 0.999791 -225.969673
-7.052550 1.069932 -225.967777
-7.053120 1.140085 -225.964821
-7.053494 1.210376 -225.956882
-7.053184 1.280468 -225.956974
-7.053399 1.350175 -225.970049
-7.053494 1.419980 -225.980129
-7.053024 1.490181 -225.976225
-7.053754 1.562262 -225.975333
-7.053367 1.632423 -225.973418
-7.053619 1.699708 -225.965404
-7.053706 1.772263 -225.948532
-7.054080 1.842544 -225.940592
-7.053255 1.912329 -225.952710
-7.053430 1.982075 -225.964777
-7.053760 2.052386 -225.955849
-7.054171 2.121618 -225.949879
-7.053625 2.192204 -225.968017
-7.054241 2.263680 -225.989139
-7.054372 2.332092 -225.977159
-7.054300 2.401682 -225.959184
-7.053794 2.471921 -225.954302
-7.053805 2.541767 -225.962373
-7.054739 2.613709 -225.966485
-7.054867 2.684178 -225.952543
-7.054958 2.752620 -225.939554
-7.054607 2.823770 -225.937676
-7.054982 2.894386 -225.953776
-7.055118 2.964142 -225.964854
-7.054491 3.034481 -225.956956
-7.054580 3.103962 -225.942986
-7.054990 3.174213 -225.936045
-7.054760 3.244246 -225.938135
-7.055534 3.314230 -225.940182
-7.054991 3.383807 -225.959302
-7.055526 3.456361 -225.977456
-7.055615 3.525822 -225.963495
-7.055745 3.596301 -225.949554
-7.055720 3.666185 -225.956647
-7.055569 3.736148 -225.960733
-7.055700 3.806627 -225.946812
-7.055908 3.875999 -225.935838
-7.055362 3.946279 -225.929937
-7.056294 4.016154 -225.935980
-7.056113 4.086473 -225.963097
-7.055367 4.158255 -225.975272
-7.055897 4.228427 -225.971338
-7.055471 4.297570 -225.969393
-7.056122 4.367663 -225.968456
-7.055652 4.437884 -225.964543
-7.056187 4.508046 -225.960608
-7.055997 4.578049 -225.963696
-7.056012 4.647914 -225.971788
-7.055865 4.719924 -225.973933
-7.055916 4.789759 -225.983004
-7.056687 4.859764 -225.985052
-7.056221 4.929964 -225.981159
-7.056034 4.999967 -225.984237
-7.056645 5.070071 -225.982290
-7.056259 5.140232 -225.980384
-7.056790 5.210404 -225.976440
-7.057159 5.279667 -225.969471
-7.056612 5.349937 -225.963560
-7.057223 5.420040 -225.961623
-7.056874 5.490171 -225.960726
-7.056968 5.559967 -225.970786
-7.057304 5.631651 -225.984926
-7.057439 5.701407 -225.996004
-7.056571 5.774297 -226.004201
-7.057063 5.841403 -226.002180
-7.057594 5.911586 -225.998236
-7.057647 5.983468 -226.005375
-7.057497 6.053431 -226.009462
-7.057191 6.123533 -226.009554
-7.057602 6.193794 -226.002613
-7.057055 6.264065 -225.996712
-7.057345 6.334415 -225.986775
-7.057320 6.404309 -225.993859
-7.057890 6.475786 -226.013981
-7.057986 6.545591 -226.024061
-7.057680 6.615693 -226.024153
-7.057254 6.685864 -226.021248
-7.057543 6.756214 -226.011311
-7.058155 6.826337 -226.009375
-7.057768 6.895450 -226.008429
-7.057977 6.965870 -225.996495
-7.058026 7.036388 -225.980565
-7.057997 7.106273 -225.987648
-7.058332 7.177947 -226.001789
-7.058186 7.247911 -226.005865
-7.058196 7.316422 -225.990879
-7.058965 7.386091 -225.968877
-7.059014 7.456619 -225.952948
-7.058705 7.525673 -225.954020
-7.059400 7.598119 -225.976159
-7.058420 7.668337 -226.008332
-7.058835 7.739952 -226.024460
-7.058726 7.809905 -226.029555
-7.058498 7.881976 -226.029683
-7.058790 7.950279 -226.021697
-7.059160 8.019541 -226.014729
-7.059530 8.089832 -226.006789
-7.059739 8.160252 -225.994855
-7.059392 8.230364 -225.993938
-7.059487 8.300159 -226.004027
-7.059663 8.371962 -226.014163
-7.059513 8.441926 -226.018250
-7.059246 8.511988 -226.019340
-7.059777 8.582150 -226.015405
-7.060107 8.651453 -226.007418
-7.059922 8.721465 -226.010526
-7.059854 8.793417 -226.014659
-7.059546 8.863519 -226.014761
-7.059480 8.933433 -226.020835
-7.059734 9.006205 -226.031998
-7.059424 9.076287 -226.032090
-7.060275 9.143850 -226.014047
-7.060604 9.214161 -226.005089
-7.059859 9.285932 -226.017283
-7.060114 9.355619 -226.031348
-7.059847 9.425672 -226.032438
-7.060218 9.495963 -226.024508
-7.060227 9.565482 -226.008551
-7.060717 9.635694 -226.003598
-7.060572 9.705678 -226.007685
-7.061021 9.775900 -226.001743
-7.060394 9.846229 -225.993844
-7.061285 9.916125 -225.998878
-7.061295 9.988046 -226.005029
-7.061511 10.056398 -225.995046
-7.061400 10.128409 -225.998180
-7.060739 10.198055 -226.014293
-7.060989 10.269789 -226.026426
-7.061243 10.341523 -226.038549
-7.061217 10.411397 -226.045642
-7.060748 10.481618 -226.041739
-7.060877 10.552087 -226.027817
-7.061612 10.622111 -226.028846
-7.061623 10.691966 -226.036938
-7.061076 10.762246 -226.031038
-7.061687 10.831320 -226.030061
-7.061901 10.904112 -226.040225
-7.061391 10.973334 -226.036294
-7.061920 11.042143 -226.009280
-7.062370 11.112384 -226.003339
-7.061785 11.181971 -226.021449
-7.061880 11.253823 -226.029577
-7.061855 11.323717 -226.036671
-7.061944 11.395550 -226.044808
-7.062398 11.465791 -226.038866
-7.062328 11.534342 -226.021882
-7.062738 11.603585 -226.015912
-7.062833 11.675437 -226.024060
-7.061966 11.748327 -226.032257
-7.063014 11.815731 -226.019208
-7.062906 11.884311 -226.001205
-7.062836 11.956292 -226.005368
-7.063051 12.025999 -226.018434
-7.062824 12.098088 -226.018592
-7.062514 12.168171 -226.018663
-7.062810 12.237828 -226.033747
-7.063145 12.309502 -226.047877
-7.062835 12.381651 -226.046038
-7.063169 12.449914 -226.039041
-7.062698 12.520125 -226.035128
-7.063228 12.590288 -226.031173
-7.062917 12.660064 -226.007246
-7.063727 12.727647 -225.988184
-7.063697 12.796188 -225.972199
-7.064348 12.866261 -225.971250
-7.064281 12.938232 -225.975393
-7.063815 13.008453 -225.971500
-7.064345 13.078615 -225.967546
-7.064155 13.148618 -225.970634
-7.064649 13.217782 -225.966661
-7.064099 13.288062 -225.960751
-7.064670 13.358215 -225.957815
-7.064724 13.426676 -225.943827
-7.064894 13.496097 -225.931874
-7.064945 13.565912 -225.940935
-7.065239 13.638645 -225.953096
-7.064733 13.707866 -225.949175
-7.064901 13.778296 -225.936241
-7.065433 13.848468 -225.932307
-7.064965 13.918669 -225.928393
-7.065853 13.986202 -225.911340
-7.065902 14.054673 -225.897352
-7.065677 14.124706 -225.899441
-7.066086 14.194957 -225.892500
-7.065420 14.264298 -225.884574
-7.065951 14.334481 -225.880620
-7.066360 14.404732 -225.873679
-7.066330 14.473273 -225.857694
-7.066741 14.542495 -225.851743
-7.066394 14.612617 -225.850826
-7.066604 14.683027 -225.838892
-7.066974 14.751261 -225.832894
-7.066709 14.821313 -225.833984
-7.066958 14.890675 -225.824009
-7.067248 14.961015 -225.814082
-7.067063 15.031028 -225.817170
-7.066676 15.101179 -225.815264
-7.067367 15.171223 -225.815325
-7.067140 15.243323 -225.815453
-7.067431 15.310578 -225.808428
-7.067802 15.380879 -225.800499
-7.067576 15.450911 -225.802588
-7.067305 15.520964 -225.803678
-7.068275 15.591523 -225.785710
-7.068285 15.658996 -225.771694
-7.067698 15.729295 -225.764794
-7.067829 15.797708 -225.752804
-7.068239 15.866940 -225.746834
-7.068249 15.935441 -225.731847
-7.068461 16.003804 -225.721854
-7.068634 16.075577 -225.731999
-7.068448 16.145590 -225.735077
-7.068818 16.215881 -225.727148
-7.069229 16.285114 -225.721168
-7.068562 16.357855 -225.734369
-7.068897 16.429530 -225.748499
-7.068747 16.499514 -225.752577
-7.069202 16.569734 -225.746654
-7.069332 16.637128 -225.735625
-7.068862 16.707329 -225.731731
-7.069036 16.779122 -225.741847
-7.069450 16.851766 -225.757014
-7.069019 16.920909 -225.755070
-7.068994 16.989449 -225.739084
-7.069484 17.059641 -225.734161
-7.069415 17.129565 -225.740236
-7.069430 17.201477 -225.746386
-7.069684 17.273210 -225.758519
-7.069654 17.343085 -225.765592
-7.069348 17.413187 -225.765684
-7.069558 17.483607 -225.753740
-7.070128 17.553739 -225.750804
-7.070144 17.623594 -225.758896
-7.069556 17.697305 -225.773114
-7.069732 17.767051 -225.785191
-7.069705 17.838972 -225.790332
-7.069796 17.908777 -225.800412
-7.070090 17.981510 -225.812573
-7.069984 18.053511 -225.815717
-7.070158 18.125314 -225.825853
-7.069652 18.196888 -225.844019
-7.069466 18.270301 -225.868234
-7.069921 18.342915 -225.884390
-7.069891 18.414867 -225.889533
-7.069666 18.480450 -225.871465
-7.069435 18.552550 -225.871613
-7.070054 18.628466 -225.912892
-7.069192 18.704053 -225.967237
-7.069046 18.778465 -225.991480
-7.069140 18.850318 -225.999618
-7.069555 18.923990 -226.013805
-7.068888 18.995703 -226.027966
-7.069263 19.067347 -226.043106
-7.069634 19.140030 -226.057265
-7.069447 19.213435 -226.081470
-7.068911 19.292917 -226.139942
-7.068568 19.371205 -226.204349
-7.067947 19.446308 -226.240647
-7.068040 19.522590 -226.268941
-7.067822 19.601826 -226.335384
-7.066683 19.685481 -226.424021
-7.066386 19.767158 -226.510564
-7.066253 19.853157 -226.621259
-7.064834 19.935990 -226.703876
-6.957257 -20.367561 -226.681508
-6.958132 -20.285261 -226.601815
-6.958870 -20.194276 -226.462321
-6.959707 -20.113667 -226.407591
-6.960224 -20.033870 -226.345860
-6.961023 -19.953233 -226.290161
-6.960985 -19.874753 -226.240439
-6.961857 -19.794499 -226.162678
-6.961981 -19.716128 -226.116951
-6.962027 -19.642514 -226.098100
-6.963071 -19.567910 -226.078246
-6.963240 -19.496442 -226.064342
-6.962692 -19.424115 -226.056500
-6.963176 -19.348067 -226.021694
-6.964055 -19.269566 -225.969923
-6.963822 -19.195744 -225.944090
-6.963950 -19.123208 -225.928217
-6.964359 -19.050890 -225.919335
-6.964052 -18.978741 -225.917495
-6.964461 -18.909518 -225.911525
-6.964347 -18.832690 -225.885777
-6.965396 -18.761182 -225.868835
-6.965006 -18.691020 -225.866919
-6.964779 -18.618931 -225.867067
-6.964867 -18.546375 -225.850195
-6.965874 -18.472760 -225.830304
-6.965324 -18.402500 -225.824423
-6.965572 -18.331091 -225.812507
-6.965904 -18.256656 -225.799676
-6.965594 -18.186565 -225.799778
-6.966043 -18.114266 -225.791895
-6.966336 -18.042897 -225.780996
-6.966625 -17.972546 -225.771040
-6.966832 -17.898023 -225.755222
-6.966283 -17.827743 -225.749342
-6.967177 -17.757848 -225.754376
-6.966907 -17.686757 -225.754506
-6.967277 -17.616456 -225.746567
-6.966687 -17.544119 -225.737705
-6.967459 -17.474114 -225.739754
-6.966719 -17.404390 -225.753890
-6.967328 -17.334287 -225.751932
-6.966818 -17.264046 -225.747020
-6.967749 -17.194180 -225.753073
-6.966848 -17.124337 -225.763194
-6.967497 -17.052196 -225.760305
-6.967506 -16.980600 -225.742406
-6.967796 -16.910259 -225.732469
-6.967569 -16.838170 -225.732627
-6.967543 -16.768285 -225.739700
-6.967394 -16.698312 -225.743787
-6.968165 -16.628318 -225.745835
-6.967659 -16.558068 -225.740943
-6.967946 -16.485680 -225.729054
-6.968357 -16.416437 -225.723084
-6.968412 -16.346602 -225.732165
-6.967707 -16.277955 -225.748240
-6.967882 -16.208219 -225.760317
-6.968017 -16.138453 -225.771395
-6.967950 -16.070596 -225.779431
-6.968126 -16.000860 -225.791507
-6.968422 -15.932242 -225.807551
-6.968231 -15.862248 -225.810639
-6.967727 -15.793027 -225.806708
-6.967701 -15.722114 -225.812830
-6.967832 -15.652348 -225.823909
-6.968249 -15.584847 -225.843919
-6.967585 -15.517248 -225.861964
-6.968481 -15.447343 -225.867018
-6.968090 -15.377201 -225.865102
-6.967944 -15.307218 -225.869179
-6.968000 -15.237383 -225.878270
-6.967770 -15.167360 -225.880359
-6.968460 -15.095249 -225.878468
-6.968154 -15.025158 -225.878570
-6.968490 -14.956568 -225.895603
-6.968148 -14.889197 -225.921648
-6.968404 -14.821587 -225.937663
-6.967977 -14.749350 -225.932827
-6.968184 -14.676883 -225.918941
-6.968635 -14.606651 -225.912999
-6.968445 -14.536648 -225.916088
-6.968300 -14.466664 -225.920175
-6.968789 -14.395443 -225.914250
-6.968363 -14.325263 -225.911356
-6.968619 -14.255576 -225.925431
-6.968831 -14.186908 -225.939467
-6.968605 -14.116865 -225.941556
-6.968498 -14.044885 -225.944720
-6.968828 -13.975582 -225.936733
-6.968876 -13.902997 -225.918872
-6.969527 -13.830847 -225.915982
-6.969461 -13.762999 -225.923998
-6.968717 -13.693285 -225.938123
-6.968933 -13.625635 -225.953140
-6.968864 -13.555721 -225.959235
-6.969557 -13.483601 -225.957334
-6.969087 -13.413399 -225.953421
-6.969817 -13.343375 -225.954470
-6.969158 -13.275777 -225.972534
-6.969369 -13.205042 -225.984639
-6.969184 -13.135029 -225.987728
-6.969834 -13.065984 -225.987750
-6.969687 -12.993954 -225.989895
-6.969263 -12.923763 -225.987001
-6.969630 -12.851435 -225.977110
-6.969642 -12.783627 -225.987133
-6.969336 -12.711468 -225.985284
-6.969664 -12.641157 -225.976336
-6.969519 -12.571184 -225.980432
-6.969694 -12.501458 -225.992509
-6.969666 -12.431563 -225.999592
-6.970115 -12.361331 -225.993640
-6.970489 -12.288974 -225.983770
-6.970539 -12.219159 -225.992850
-6.970634 -12.149363 -226.002930
-6.970167 -12.079162 -225.999026
-6.970658 -12.009979 -225.995044
-6.970227 -11.937741 -225.990208
-6.970680 -11.867519 -225.984266
-6.970611 -11.795538 -225.988409
-6.970425 -11.725535 -225.991497
-6.970795 -11.655254 -225.983557
-6.971124 -11.583895 -225.973649
-6.971454 -11.513574 -225.964720
-6.971147 -11.441415 -225.962861
-6.970921 -11.371392 -225.964950
-6.971130 -11.300983 -225.953026
-6.971419 -11.229594 -225.942108
-6.971113 -11.159512 -225.942200
-6.971564 -11.088955 -225.960297
-6.971620 -11.019120 -225.969368
-6.971153 -10.948919 -225.965475
-6.971844 -10.878866 -225.965535
-6.971898 -10.809050 -225.974596
-6.971669 -10.739007 -225.976685
-6.971323 -10.667857 -225.974818
-6.972094 -10.599920 -225.978807
-6.971988 -10.527919 -225.981951
-6.971441 -10.457639 -225.976041
-6.972051 -10.387536 -225.974104
-6.971782 -10.315417 -225.973263
-6.972552 -10.245423 -225.975311
-6.972326 -10.175400 -225.977400
-6.972655 -10.105069 -225.968442
-6.972824 -10.033601 -225.954548
-6.972278 -9.963331 -225.948647
-6.972453 -9.893595 -225.960724
-6.972789 -9.822939 -225.975826
-6.972639 -9.752976 -225.979922
-6.972808 -9.681508 -225.966008
-6.973218 -9.611237 -225.959068
-6.972830 -9.541095 -225.957152
-6.973361 -9.468866 -225.951286
-6.973650 -9.399534 -225.942310
-6.973103 -9.327227 -225.934468
-6.972957 -9.257243 -225.938545
-6.973290 -9.189693 -225.956568
-6.973705 -9.119097 -225.973667
-6.972800 -9.049263 -225.983787
-6.973055 -8.979596 -225.997861
-6.973031 -8.909702 -226.004954
-6.973159 -8.839233 -225.991013
-6.973087 -8.767597 -225.971106
-6.974095 -8.695010 -225.952205
-6.973866 -8.624977 -225.954295
-6.974121 -8.555310 -225.968359
-6.973976 -8.485328 -225.972466
-6.974386 -8.415066 -225.965515
-6.974554 -8.343608 -225.951611
-6.973927 -8.273269 -225.943713
-6.973899 -8.203384 -225.950786
-6.974235 -8.133767 -225.966868
-6.973609 -8.063112 -225.982999
-6.973746 -7.995414 -225.996038
-6.973760 -7.925549 -226.004110
-6.974531 -7.853498 -226.004217
-6.974145 -7.783337 -226.002322
-6.973875 -7.713284 -226.003412
-6.974405 -7.643111 -225.999458
-6.973977 -7.571912 -225.995582
-6.974708 -7.501878 -225.996632
-6.974562 -7.431904 -226.000719
-6.974257 -7.361822 -226.000810
-6.974586 -7.291492 -225.991872
-6.974715 -7.218966 -225.975999
-6.974648 -7.149061 -225.982073
-6.974820 -7.079315 -225.994150
-6.975311 -7.009114 -225.989217
-6.975320 -6.939584 -225.973259
-6.975612 -6.867177 -225.961381
-6.975584 -6.797282 -225.968464
-6.975197 -6.727141 -225.966558
-6.975486 -6.654734 -225.954680
-6.976017 -6.585580 -225.951706
-6.975870 -6.515616 -225.955783
-6.975644 -6.445583 -225.957872
-6.976255 -6.375481 -225.955935
-6.975904 -6.303292 -225.953097
-6.976439 -6.233120 -225.949142
-6.976370 -6.163195 -225.955227
-6.976504 -6.093440 -225.966305
-6.976038 -6.023229 -225.962412
-6.976327 -5.952889 -225.952464
-6.976379 -5.883053 -225.961545
-6.976473 -5.813258 -225.971625
-6.976006 -5.740980 -225.965780
-6.976096 -5.671520 -225.951820
-6.976666 -5.601368 -225.948875
-6.976842 -5.531642 -225.960951
-6.976696 -5.461668 -225.965038
-6.976345 -5.391556 -225.964131
-6.977037 -5.321493 -225.964192
-6.976890 -5.249463 -225.966337
-6.976785 -5.179509 -225.971413
-6.976475 -5.109427 -225.971515
-6.977330 -5.039492 -225.975550
-6.976779 -4.969231 -225.969649
-6.977667 -4.897584 -225.948703
-6.976960 -4.827196 -225.938817
-6.977292 -4.757588 -225.954889
-6.977547 -4.686873 -225.967993
-6.977242 -4.616781 -225.968085
-6.976972 -4.547747 -225.970146
-6.977703 -4.477723 -225.971205
-6.977317 -4.407562 -225.969290
-6.977686 -4.337280 -225.961350
-6.977937 -4.266901 -225.950424
-6.977870 -4.194919 -225.954557
-6.978287 -4.127428 -225.974568
-6.977460 -4.055597 -225.984745
-6.977716 -3.986959 -225.999789
-6.977373 -3.917531 -226.023903
-6.977663 -3.847170 -226.013956
-6.978309 -3.775365 -225.987027
-6.978520 -3.704955 -225.975102
-6.978209 -3.634853 -225.975185
-6.978664 -3.565660 -225.970223
-6.978754 -3.493807 -225.978351
-6.978053 -3.425161 -225.994436
-6.977903 -3.353120 -225.996582
-6.978873 -3.283600 -225.979594
-6.978921 -3.213081 -225.963654
-6.979090 -3.141603 -225.949750
-6.979179 -3.071104 -225.934820
-6.979629 -3.000883 -225.928878
-6.978889 -2.931158 -225.943003
-6.978704 -2.860829 -225.970121
-6.978879 -2.791093 -225.982188
-6.978730 -2.721120 -225.986295
-6.978665 -2.651196 -225.992369
-6.978799 -2.581440 -226.003447
-6.979491 -2.511386 -226.003498
-6.978778 -2.441007 -225.993592
-6.979074 -2.371676 -225.984635
-6.979522 -2.299387 -225.976752
-6.979892 -2.229106 -225.968813
-6.979466 -2.158915 -225.965918
-6.980076 -2.088792 -225.963962
-6.980008 -2.018888 -225.970056
-6.980303 -1.949241 -225.985119
-6.980077 -1.879198 -225.987208
-6.980285 -1.808798 -225.975264
