0.0888467 0.126174 0.988021 0.0135945
0.0945689 0.119382 0.988334 0.00923874
0.0956611 0.111563 0.989142 0
0.0974223 0.0827268 0.991799 0.00256259
0.114889 0.102458 0.98808 0
-0.00994284 0.114287 0.993398 0.0164314
-0.0190221 0.100272 0.994778 0.0259944
-0.0362459 0.110335 0.993233 0.0271141
-0.0325968 0.0905019 0.995363 0.0376728
-0.0294925 0.102535 0.994292 0.0261434
-0.026136 0.129957 0.991175 0.0235086
-0.0229364 0.125142 0.991874 0.0152929
-0.0234409 0.124595 0.991931 0.0204131
-0.0135636 0.156599 0.987569 0
-0.0102247 0.15806 0.987377 0
-0.00679188 0.162541 0.986678 0
-0.00365505 0.1442 0.989542 0
0.00198047 0.148406 0.988925 0
0.00153571 0.155502 0.987834 0
-0.00375055 0.157263 0.98755 0.00414305
-0.00080162 0.148948 0.988845 0.0146063
0.00382749 0.132546 0.99117 0.0117814
0.00797391 0.141308 0.989934 0.0142485
0.00112988 0.149387 0.988778 0
0.000522678 0.119875 0.992789 0
0.00402765 0.121915 0.992532 0
0.00552132 0.117182 0.993095 0.00524185
-5.66453e-06 0.107311 0.994226 0.0271447
0.00170685 0.113173 0.993574 0.033234
0.0085708 0.116929 0.993103 0.0308866
0.0182653 0.111736 0.99357 0.0202149
0.0388579 0.102327 0.993992 0.0135604
0.0456825 0.0953174 0.994398 0.0277103
0.0529988 0.103348 0.993232 0.0269121
0.0650544 0.13705 0.988426 0.00955385
0.0662671 0.154869 0.98571 0.00105471
0.0731069 0.146094 0.986566 0.00143733
0.0921795 0.139742 0.985888 0
0.094314 0.105954 0.989888 0.00281717
0.0969174 0.0996266 0.990294 0
-0.0304309 0.124406 0.991765 0.0296037
-0.01386 0.120497 0.992617 0.0156457
-0.0111342 0.145266 0.98933 0
-0.00982953 0.150008 0.988636 0
-0.00129617 0.162627 0.986687 0
-0.00603154 0.158151 0.987397 0
-0.00101152 0.160352 0.987059 0
-0.0123666 0.153053 0.988141 0
-0.0125602 0.131618 0.991221 0.0257384
-0.0146137 0.134995 0.990739 0.0360204
-0.00403042 0.131154 0.991354 0.0234967
-0.00481073 0.149096 0.988811 0.0111821
-0.00763543 0.135685 0.990723 0.00258969
-0.00454726 0.12687 0.991909 0.00799038
-0.0062422 0.120044 0.992749 0.00106047
-0.00268667 0.112515 0.993646 0.0141837
-0.00248624 0.11462 0.993406 0.0213859
-0.00455837 0.129904 0.991516 0.0306233
0.0106611 0.116194 0.993169 0.0222931
0.0206411 0.10726 0.994017 0.0234613
0.0378608 0.0973329 0.994532 0.0210643
0.0460095 0.0887207 0.994993 0.0336561
0.0495314 0.105505 0.993184 0.0242261
0.0588875 0.148981 0.987085 0.000519429
0.0644302 0.157684 0.985385 0.0011677
0.0725162 0.153012 0.98556 0.00236624
0.0892069 0.124821 0.988161 0
0.089785 0.113332 0.989492 0.0015968
-0.000860349 0.164959 0.9863 0
-0.00696029 0.151803 0.988386 0.0154712
-0.0136738 0.15933 0.987131 0.0152116
-0.0205749 0.136279 0.990457 0.036427
-0.0152693 0.120765 0.992564 0.0319496
-0.00569742 0.116857 0.993132 0.030597
-0.0104803 0.130848 0.991347 0.0259232
-0.00398159 0.145333 0.989375 0
-0.00396788 0.141968 0.989863 0
-0.00656311 0.118941 0.99288 0.00577999
-0.00852505 0.116713 0.993129 0.0160632
-0.0119042 0.122011 0.992457 0.0261433
-0.0135711 0.121586 0.992488 0.0336752
0.0033166 0.0985889 0.995123 0.0424764
0.00669836 0.101391 0.994824 0.0428619
0.0372265 0.100956 0.994194 0.0325829
0.0491477 0.121421 0.991384 0.0168567
0.0618125 0.136831 0.988664 0
0.0649464 0.129964 0.989389 0
0.0850639 0.121526 0.988937 0.000649122
-0.0119692 0.167802 0.985748 0.0239414
-0.00708442 0.136736 0.990582 0.025417
-0.0142737 0.125915 0.991938 0.034633
0.00544553 0.0823849 0.996586 0.0436657
0.00361204 0.0885123 0.996069 0.048274
0.027148 -0.135742 0.990372 0
0.0223274 -0.133932 0.990739 0
0.0355927 -0.11998 0.992138 0
0.0319742 -0.134928 0.990339 0
0.0405746 -0.125899 0.991213 0
0.0368363 -0.124588 0.991525 0.00288308
0.0113911 -0.174354 0.984617 0
0.0204173 -0.145901 0.989089 0.007063
0.0228322 -0.156515 0.987412 0.00658738
0.0216569 -0.157887 0.98722 0
0.016977 -0.14935 0.988639 0.00378494
0.0229387 -0.130467 0.991187 0
0.038659 -0.132585 0.990417 0
0.0327987 -0.140656 0.989515 0
0.037466 -0.125827 0.991344 0
0.047231 -0.129559 0.990446 0
0.0500379 -0.142718 0.988498 0
-0.00852744 -0.160555 0.98699 0
0.000229325 -0.171705 0.985148 0
0.00414014 -0.177565 0.9841 0
0.00945121 -0.162758 0.986621 0
0.0134123 -0.144046 0.98948 7.99604e-05
0.0193421 -0.14322 0.989502 0.000281016
0.024252 -0.144918 0.989146 0
0.0205824 -0.135464 0.990568 0
0.0272306 -0.126431 0.991602 0
0.0371735 -0.128635 0.990995 0
0.0424727 -0.116128 0.992326 0
0.0441214 -0.146358 0.988247 0
0.0462944 -0.153821 0.987014 0
0.047305 -0.135623 0.989631 0
0.073042 -0.139568 0.987515 0
0.0706126 -0.136873 0.988069 0
0.0785825 -0.12442 0.989113 0
-0.0152217 -0.118567 0.992829 0
-0.0163258 -0.121818 0.992418 0
-0.00600404 -0.148369 0.988914 0
0.0016775 -0.157154 0.987573 0
0.0047576 -0.166863 0.985969 0
0.00587936 -0.158527 0.987337 0
0.00504686 -0.159739 0.987146 0
0.0139849 -0.164961 0.986201 0.0094492
0.0156658 -0.156136 0.987611 0.00708491
0.0278092 -0.144505 0.989113 0
0.0267821 -0.129582 0.991207 0
0.0268673 -0.117647 0.992692 0
0.0363949 -0.116766 0.992492 0
0.0416295 -0.119444 0.991968 0
0.0451928 -0.127501 0.990808 0
0.0469928 -0.136987 0.989458 0
0.0519684 -0.13136 0.989972 0
0.0522424 -0.142839 0.988366 0.0103773
0.0637024 -0.138288 0.988341 0
0.0695563 -0.139465 0.987781 0
0.08141 -0.128909 0.988309 0
0.0874427 -0.111372 0.989924 0
-0.0350652 -0.150974 0.987916 0
-0.0302198 -0.129555 0.991112 0
-0.0231564 -0.121467 0.992325 0
-0.0236895 -0.117391 0.992803 0
-0.0155596 -0.143426 0.989539 0
-0.00873227 -0.158432 0.987331 0
-0.00331246 -0.160153 0.987087 0
0.00387674 -0.164261 0.986409 0
0.00599409 -0.149394 0.98876 0
0.00967754 -0.141538 0.989886 0.00677231
0.0111526 -0.15726 0.987494 0.0129287
0.0157624 -0.15175 0.988293 0.0105619
0.0334216 -0.12821 0.991184 0
0.0285157 -0.116155 0.992822 0
0.0249085 -0.105014 0.994159 0
0.0255106 -0.112455 0.993329 0
0.0371688 -0.118174 0.992297 0
0.042603 -0.120399 0.991811 0
0.0479943 -0.11455 0.992257 0
0.0470356 -0.122884 0.991306 0
0.0505643 -0.132185 0.989935 0
0.0635238 -0.138679 0.988298 0.00208946
0.0695513 -0.130714 0.988978 0
0.0730008 -0.124373 0.989546 0
0.0801983 -0.118067 0.989762 0
0.091936 -0.0965609 0.991072 0
0.0990832 -0.115769 0.988322 0.000943505
0.104956 -0.115799 0.987712 0
-0.0321525 -0.129301 0.991084 0.0140188
-0.0369736 -0.126212 0.991314 0.0140736
-0.0370402 -0.153078 0.98752 0.0143875
-0.0282662 -0.128276 0.991336 0.0114241
-0.0297535 -0.154776 0.987502 0.0207518
-0.0320299 -0.16109 0.98642 0.00394797
-0.0370865 -0.156006 0.98706 0.00934997
-0.0408311 -0.144206 0.988705 0.0056111
-0.0352491 -0.137528 0.98987 0.0143562
-0.0350433 -0.137412 0.989894 0.0114594
-0.0287533 -0.13638 0.990239 0
-0.0179657 -0.150413 0.98846 0
-0.0258089 -0.139403 0.989899 0
-0.0227131 -0.143336 0.989413 0
-0.0217686 -0.160776 0.986751 0
-0.0113617 -0.148753 0.988809 0
-0.00556827 -0.154412 0.987991 0.00838638
0.00991566 -0.129976 0.991468 0
0.0089075 -0.12932 0.991563 0
0.0129766 -0.151799 0.988326 0
0.0143004 -0.146196 0.989152 0
0.035438 -0.120521 0.992078 0
0.0338414 -0.130954 0.990811 0
0.0208168 -0.129169 0.991404 0
0.0355145 -0.114189 0.992824 0
0.0423924 -0.0984382 0.99424 0
0.0492413 -0.10838 0.992889 0
0.0510925 -0.112722 0.992312 0
0.0466838 -0.120291 0.99164 0
0.051413 -0.114995 0.992035 0
0.0689177 -0.128788 0.989274 0
0.070571 -0.104254 0.992044 0
0.0797231 -0.0954217 0.992239 0
0.0922317 -0.116943 0.988847 0
0.102798 -0.113413 0.988216 0
0.11263 -0.126815 0.985511 0
0.120553 -0.121927 0.985191 0
0.13833 -0.129342 0.981904 0
-0.0414762 -0.141283 0.9891 0.031047
-0.0267751 -0.122005 0.992168 0.0112406
-0.0338503 -0.123181 0.991807 0.0129176
-0.0312281 -0.12442 0.991738 0.00020751
-0.0290081 -0.129356 0.991174 0
-0.0295404 -0.134217 0.990512 0.00672758
-0.033311 -0.144383 0.988961 0.0169799
-0.0346281 -0.164175 0.985823 0.0220764
-0.0406837 -0.182789 0.98231 0.0342169
-0.0522213 -0.175842 0.983032 0.0378007
-0.0497179 -0.161264 0.985658 0.0262891
-0.0453285 -0.153347 0.987132 0.0407922
-0.0357166 -0.144113 0.988916 0.0296113
-0.0266744 -0.157083 0.987225 0.0152978
-0.0232039 -0.149104 0.988549 0.00908187
-0.029499 -0.158051 0.98699 0.0203147
-0.024118 -0.145831 0.989016 0.0204019
-0.013388 -0.142313 0.989731 0.00573972
-0.012943 -0.138217 0.990317 0.00245417
-0.00378463 -0.14195 0.989867 0.00572488
0.00358018 -0.129524 0.99157 0
0.0184345 -0.133288 0.990906 0
0.0217106 -0.14955 0.988516 0
0.0373087 -0.127254 0.991168 0
0.0344444 -0.131169 0.990761 0
0.0282818 -0.11376 0.993106 0
0.0341122 -0.108829 0.993475 0
0.0381006 -0.114752 0.992663 0
0.0510068 -0.118267 0.991671 0
0.0506002 -0.124576 0.990919 0
0.0612624 -0.111543 0.991869 0
0.0739944 -0.100382 0.992194 0
0.0738093 -0.10496 0.991734 0
0.0853495 -0.0996501 0.991355 0
0.0970657 -0.113579 0.988776 0
0.10285 -0.131178 0.986009 0
0.110014 -0.111201 0.98769 0
0.122343 -0.117138 0.985551 0
0.13421 -0.135378 0.981662 0
-0.0511908 -0.13462 0.989574 0.0193603
-0.0459105 -0.128326 0.990669 0.0273721
-0.040618 -0.132028 0.990413 0.0276383
-0.0323374 -0.106492 0.993788 0.00965013
-0.036675 -0.117467 0.992399 0
-0.0338529 -0.125671 0.991494 0.00919517
-0.0331245 -0.133437 0.990504 0.00440574
-0.0294748 -0.127983 0.991338 0
-0.0296954 -0.121561 0.99214 0
-0.0236474 -0.133049 0.990827 2.43195e-05
-0.0335334 -0.160905 0.9864 0.0141946
-0.0391055 -0.155662 0.987036 0.0241603
-0.0399352 -0.150348 0.987826 0.0201526
-0.0363027 -0.156774 0.986967 0.0263075
-0.0318903 -0.147605 0.988532 0.0374988
-0.0347476 -0.146248 0.988637 0.0384645
-0.0322269 -0.164446 0.98586 0.0364841
-0.0308209 -0.15665 0.987173 0.0322789
-0.0315044 -0.145377 0.988875 0.0306402
-0.0276125 -0.134293 0.990557 0.026261
-0.0124641 -0.141935 0.989797 0.0144132
-0.0148739 -0.133834 0.990892 0.00658651
-0.00325916 -0.134968 0.990845 0.00372755
0.0100741 -0.136815 0.990545 0
0.0142 -0.134272 0.990843 0
0.0247614 -0.125421 0.991795 0
0.030886 -0.102437 0.99426 0
0.0348315 -0.108513 0.993485 0
0.032284 -0.0868988 0.995694 0
0.0292939 -0.109107 0.993598 0
0.0405879 -0.102628 0.993891 0
0.0475181 -0.114044 0.992339 0
0.0629167 -0.0874179 0.994183 0
0.0817197 -0.102922 0.991327 0
0.0874268 -0.097399 0.991398 0
0.0947625 -0.0799746 0.992282 0
0.100903 -0.0952359 0.990328 0
0.108176 -0.100803 0.989008 0
0.110781 -0.0958999 0.989207 0.00320646
0.129395 -0.113171 0.985114 0
0.137171 -0.129094 0.982099 0.0123803
-0.0419073 -0.0801479 0.995902 0.00552338
-0.056221 -0.0968975 0.993705 0.0221995
-0.0520787 -0.120069 0.991399 0.0224625
-0.0400394 -0.121195 0.991821 0.0147969
-0.0478533 -0.126679 0.990789 0.018494
-0.0505542 -0.118201 0.991702 0.0154456
-0.0496401 -0.129266 0.990367 0.0256375
-0.0497248 -0.120011 0.991526 0.0231834
-0.0416366 -0.118606 0.992068 0.010597
-0.042764 -0.121532 0.991666 0
-0.0424641 -0.129314 0.990694 0.00755357
-0.039031 -0.129369 0.990828 0.00414442
-0.0293563 -0.12594 0.991603 0
-0.0270853 -0.13316 0.990724 0.00511562
-0.0298426 -0.136497 0.990191 0.011882
-0.0356327 -0.153614 0.987488 0.0149308
-0.0411146 -0.150025 0.987827 0.0221945
-0.0368405 -0.148345 0.988249 0.0228378
-0.0316409 -0.143936 0.989081 0.0241908
-0.0300651 -0.153595 0.987676 0.0265257
-0.028833 -0.154431 0.987583 0.0314757
-0.0362125 -0.156876 0.986954 0.0353273
-0.0302736 -0.145805 0.98885 0.0378216
-0.0321463 -0.138996 0.989771 0.0323781
-0.0377564 -0.151461 0.987742 0.0360306
-0.033031 -0.155345 0.987308 0.0275617
-0.0198242 -0.144055 0.989371 0.0205351
-0.00161336 -0.132576 0.991171 0.0134472
0.057759 -0.106913 0.992589 0
0.0768373 -0.0952219 0.992486 0
0.0856552 -0.0871359 0.992507 0
0.0907263 -0.0804991 0.992617 0
0.106166 -0.0778316 0.991298 0
0.10443 -0.0810046 0.991228 0
0.115543 -0.0892327 0.989286 0
0.120854 -0.109855 0.986573 0.00214485
0.136294 -0.12349 0.982942 0.00302312
-0.0509202 -0.0919661 0.994459 0
-0.0542238 -0.0870216 0.99473 0
-0.0437171 -0.0898167 0.994998 0.0076055
-0.0407461 -0.0816449 0.995828 0.00595536
-0.0441521 -0.0909008 0.994881 0.00922058
-0.0480803 -0.101876 0.993635 0.0100437
-0.0511689 -0.124845 0.990856 0.0209018
-0.0435572 -0.110628 0.992907 0.0130949
-0.0453253 -0.118909 0.99187 0.0199595
-0.0466962 -0.131214 0.990254 0.0154057
-0.0553411 -0.147694 0.987484 0.0335083
-0.0489694 -0.134292 0.989731 0.0217446
-0.0489793 -0.131445 0.990113 0.00644595
-0.0430374 -0.118406 0.992032 0
-0.0357366 -0.127266 0.991225 0.00550169
-0.0296967 -0.132436 0.990747 0
-0.0342519 -0.132725 0.990561 0.00469891
-0.0392247 -0.144188 0.988773 0.0194414
-0.0370982 -0.154327 0.987323 0.0269947
-0.038205 -0.155341 0.987122 0.0210737
-0.0390451 -0.152187 0.98758 0.0206257
-0.0350614 -0.147637 0.98842 0.0211833
-0.0368976 -0.143982 0.988892 0.0321257
-0.0323556 -0.149796 0.988187 0.0318534
-0.0340449 -0.138097 0.989833 0.0265252
-0.0407878 -0.149108 0.987979 0.032977
-0.0421982 -0.164736 0.985435 0.0403839
-0.0356053 -0.160999 0.986312 0.0382601
-0.0340567 -0.147915 0.988413 0.0363325
-0.0299183 -0.136542 0.990182 0.0277973
0.0834962 -0.0871491 0.99269 0
0.0970438 -0.0658769 0.993098 0
0.104145 -0.0577466 0.992884 0
0.106152 -0.0867634 0.990557 0.0040641
0.114316 -0.109336 0.987409 0
0.124611 -0.116652 0.985324 0.000943123
0.124582 -0.117051 0.985281 0.00700636
0.141817 -0.123874 0.982112 0.00254936
0.156088 -0.106891 0.981942 0.00774537
-0.0685772 -0.101678 0.992451 0.00355357
-0.0527102 -0.0773607 0.995609 0.0109271
-0.0536887 -0.084116 0.995009 0.0166267
-0.0483811 -0.0823308 0.99543 0.00816672
-0.0425088 -0.077707 0.99607 0.00829859
-0.0469633 -0.0761532 0.99599 0.00883036
-0.053116 -0.0940548 0.994149 0.00633246
-0.0382275 -0.0969132 0.994558 0
-0.0427697 -0.106547 0.993387 0.0160233
-0.0476153 -0.115819 0.992128 0.0266408
-0.0479434 -0.115525 0.992147 0.0283236
-0.0449867 -0.121965 0.991514 0.0233789
-0.0545481 -0.12856 0.9902 0.033509
-0.0517445 -0.116025 0.991897 0.0225299
-0.0455727 -0.118287 0.991933 0.0160226
-0.0390304 -0.120902 0.991897 0.00416293
-0.0248343 -0.109745 0.993649 0
-0.029488 -0.125761 0.991622 0.00136157
-0.0312655 -0.136492 0.990148 0.0189936
-0.0351102 -0.124689 0.991574 0.0135106
-0.0355303 -0.124631 0.991567 0.0124292
-0.036088 -0.131295 0.990686 0.0149686
-0.0433305 -0.13919 0.989317 0.0175679
-0.0382648 -0.130292 0.990737 0.0158955
-0.0341044 -0.143528 0.989058 0.0292487
-0.0349395 -0.131892 0.990648 0.0297598
-0.043059 -0.150715 0.987639 0.0343356
0.105672 -0.0967723 0.989681 0.00323283
0.110183 -0.0986371 0.989005 0.0090025
0.128914 -0.103942 0.986193 0.00562701
0.138977 -0.110384 0.984124 0.0173827
0.151805 -0.104595 0.982861 0.0028866
0.159883 -0.107168 0.981301 0.0175903
0.162072 -0.0909173 0.982582 0.0291607
-0.0865024 -0.110298 0.990127 0.0203979
-0.0880825 -0.116451 0.989283 0.0227552
-0.0689273 -0.0865591 0.993859 0.00576096
-0.0600805 -0.0762954 0.995274 0.000315822
-0.0621062 -0.0671769 0.995806 0
-0.0623657 -0.0616512 0.996147 0.00679127
-0.0588596 -0.0762103 0.995353 0.0109011
-0.0499445 -0.0844524 0.995175 0.00477182
-0.057251 -0.0718409 0.995772 0.00947914
-0.0519564 -0.0706727 0.996145 0.00998928
-0.049781 -0.0883792 0.994842 0.00434004
-0.0522603 -0.100572 0.993556 0.00916068
-0.0442484 -0.0947533 0.994517 0.0102783
-0.0486458 -0.108823 0.99287 0.0288448
-0.0482374 -0.0972096 0.994094 0.0235163
-0.0399666 -0.105863 0.993577 0.0285134
-0.0344408 -0.111105 0.993212 0.0299577
-0.0366508 -0.104519 0.993847 0.0267566
-0.0383191 -0.1299 0.990786 0.0323357
-0.0304105 -0.12846 0.991248 0.0226881
-0.0327813 -0.112679 0.993091 0.013782
-0.0343134 -0.119166 0.992281 0.0216665
-0.0349441 -0.117235 0.992489 0.0232292
-0.0286988 -0.120031 0.992355 0.0147148
-0.0369852 -0.130906 0.990705 0.0191381
-0.0286453 -0.106354 0.993916 0.00986004
0.101809 -0.087897 0.990913 0.000524469
0.125114 -0.0964933 0.987439 0.000756914
0.134072 -0.0974555 0.986168 0.0116606
0.145359 -0.107451 0.983527 0.0212532
0.155894 -0.109755 0.981657 0.0277554
0.155931 -0.0877937 0.983859 0.0331826
0.160249 -0.0670951 0.984794 0.0172005
0.167461 -0.0645347 0.983764 0.0157689
-0.092128 -0.101149 0.990596 0.023136
-0.0870815 -0.101541 0.991013 0.0156172
-0.0771063 -0.0864002 0.993272 0.00658459
-0.0724965 -0.0792286 0.994217 0.0141472
-0.058939 -0.0708485 0.995744 0.00256423
-0.0570385 -0.0700809 0.995909 0.0101264
-0.0591051 -0.072025 0.99565 0.0115369
-0.0615985 -0.0789503 0.994974 0.0114037
-0.0578684 -0.0910777 0.994161 0.0138487
-0.0642296 -0.104037 0.992497 0.0260925
-0.0742352 -0.117712 0.990269 0.0349133
-0.0632648 -0.113227 0.991553 0.0225104
-0.0392201 -0.102056 0.994005 0
-0.0425836 -0.103335 0.993735 0.0140319
-0.0423981 -0.0947199 0.994601 0.0203678
-0.043739 -0.107084 0.993287 0.0247698
-0.0260196 -0.109656 0.993629 0.0291636
-0.0281545 -0.0943823 0.995138 0.0268089
-0.0310207 -0.117941 0.992536 0.0380801
-0.0291008 -0.129273 0.991182 0.029265
-0.0309039 -0.121043 0.992166 0.0296907
-0.0436701 -0.137644 0.989519 0.0402211
-0.0249431 -0.123181 0.992071 0.0195052
0.116509 -0.101332 0.988007 0.010941
0.138475 -0.0987386 0.985431 0.0212357
0.151411 -0.0776635 0.985415 0.00678839
0.152638 -0.0928276 0.983913 0.0135401
0.164722 -0.0912511 0.98211 0.0244015
0.159486 -0.091159 0.982982 0.0244749
0.171554 -0.0606572 0.983306 0.0250262
-0.079398 -0.08735 0.993009 0.0116764
-0.0792256 -0.0971331 0.992113 0.00448184
-0.0713584 -0.0911707 0.993275 0.00330183
-0.0653987 -0.0792698 0.994706 0.00641413
-0.0640221 -0.0747198 0.995147 0.0077058
-0.0679925 -0.0710548 0.995152 0.0206384
-0.0628545 -0.0726403 0.995376 0.0186203
-0.0713193 -0.0871734 0.993637 0.0132934
-0.0675445 -0.0847154 0.994113 0.0208159
-0.0742008 -0.104805 0.991721 0.0266591
-0.0766482 -0.103441 0.991678 0.0293875
-0.0577854 -0.101907 0.993114 0.0180598
-0.0374348 -0.0934901 0.994916 0.0145963
-0.0421021 -0.0935137 0.994727 0.00759431
-0.032965 -0.0794217 0.996296 0.00952159
-0.0358562 -0.10075 0.994265 0.0194016
-0.0327515 -0.111036 0.993277 0.0305358
-0.0144158 -0.0986174 0.995021 0.0231759
-0.016901 -0.104138 0.994419 0.0290453
0.120848 -0.090905 0.9885 0.0222069
0.140935 -0.0781626 0.986928 0.0139709
0.150202 -0.0675073 0.986348 0.017293
0.159844 -0.0535093 0.985691 0.02155
0.165305 -0.0460582 0.985166 0.0149525
0.167149 -0.042611 0.98501 0.0185791
0.163096 -0.0599199 0.984789 0.0242201
0.180479 -0.0612258 0.981672 0.0332627
-0.0973965 -0.113011 0.988809 0.0375452
-0.0900284 -0.0966282 0.991241 0.0312141
-0.075957 -0.0768319 0.994147 0.0159527
-0.0787035 -0.0817767 0.993538 0.0203563
-0.0715632 -0.0905078 0.993321 0.00599867
-0.0685427 -0.0871568 0.993834 0
-0.0594277 -0.0766695 0.995284 0.00580728
-0.0642844 -0.0701595 0.995462 0.0126297
-0.0641429 -0.0625611 0.995978 0.0100288
-0.0727762 -0.0829169 0.993896 0.0221964
-0.0746543 -0.0964768 0.992532 0.0278167
-0.0706387 -0.0878415 0.993627 0.0240901
-0.0575597 -0.088969 0.99437 0.0209258
-0.0587922 -0.0801068 0.995051 0.0186023
-0.0427599 -0.0767742 0.996131 0.0124978
-0.0383136 -0.0786857 0.996163 0.0140516
-0.0395958 -0.0760094 0.996321 0.0075579
-0.0436318 -0.0723178 0.996427 0.0121226
-0.0269878 -0.0677103 0.99734 0.00850355
-0.0248018 -0.0995017 0.994728 0.0284545
-0.0268212 -0.0887042 0.995697 0.0322405
0.13947 -0.0676923 0.98791 0.029858
0.145757 -0.058854 0.987568 0.0189158
0.159219 -0.0361178 0.986582 0.0190307
0.167815 -0.0316893 0.985309 0.0129288
0.167746 -0.0301799 0.985368 0.0165453
0.17553 -0.0355826 0.983831 0.0196401
0.187934 -0.045718 0.981117 0.0382635
0.190207 -0.0540887 0.980253 0.0434293
-0.106891 -0.0782502 0.991187 0.0175381
-0.100928 -0.0804198 0.991638 0.0342973
-0.0950687 -0.0854156 0.991799 0.0342138
-0.0820683 -0.0827054 0.993189 0.0241169
-0.0781556 -0.0887833 0.99298 0.022342
-0.0885183 -0.0998619 0.991056 0.0289728
-0.072635 -0.0869925 0.993557 0.0177747
-0.0737492 -0.0899663 0.99321 0.0168043
-0.0689996 -0.0940601 0.993173 0.0161115
-0.0579466 -0.0768799 0.995355 0.00557599
-0.0613205 -0.0685488 0.995761 0.0124299
-0.0619576 -0.0662898 0.995875 0.0103307
-0.0705235 -0.0778655 0.994466 0.0141405
-0.0728356 -0.079987 0.994131 0.0238769
-0.0726206 -0.0806769 0.994091 0.0247775
-0.0689096 -0.0828985 0.994173 0.0141192
-0.0626372 -0.0768631 0.995072 0.0173486
-0.053725 -0.063284 0.996548 0.00598185
-0.0504094 -0.0669553 0.996482 0.00801697
-0.0444271 -0.0695137 0.996591 0.00818833
-0.0455658 -0.0785674 0.995867 0.0164091
-0.0235619 -0.0692988 0.997318 0.0260007
0.142507 -0.0419813 0.988903 0.0256565
0.147402 -0.0510434 0.987759 0.0313472
0.158209 -0.0258165 0.987068 0.0148307
0.168663 -0.031547 0.985169 0.00834261
0.165465 -0.0315841 0.98571 0.00886995
0.17628 -0.0283115 0.983933 0.0217575
0.19773 -0.03884 0.979487 0.0338494
0.197292 -0.0548679 0.978808 0.0265439
-0.11351 -0.0778943 0.990479 0.0185343
-0.111012 -0.0739231 0.991066 0.0264274
-0.109356 -0.0725529 0.991351 0.0271284
-0.085742 -0.0797195 0.993123 0.021658
-0.0778137 -0.0675254 0.994679 0.0258908
-0.0771015 -0.0720823 0.994414 0.0184972
-0.0890605 -0.0809541 0.992731 0.0317119
-0.084896 -0.0891984 0.992389 0.0319893
-0.0717361 -0.098831 0.992515 0.0218074
-0.0617802 -0.0889237 0.994121 0.0271058
-0.0549669 -0.0888756 0.994525 0.0289899
-0.0560889 -0.0805991 0.995167 0.0252353
-0.0494576 -0.0749373 0.995961 0.0228638
-0.0561648 -0.0732525 0.995731 0.012276
-0.059997 -0.0614774 0.996304 0.00951943
-0.0739145 -0.0572189 0.995622 0.00938109
-0.0699682 -0.0694891 0.995126 0.0126939
-0.0674202 -0.0652466 0.995589 0.017943
-0.0675184 -0.0659817 0.995534 0.0157973
-0.0549432 -0.0520541 0.997132 0.0102985
0.161854 -0.0346785 0.986205 0.0260161
0.16523 -0.0265488 0.985898 0.00104309
0.176881 -0.00306931 0.984227 0
0.17869 -0.0254558 0.983576 0.0012887
0.185799 -0.0308696 0.982103 0.0189758
0.194642 -0.0183643 0.980702 0.0247162
0.209456 -0.0261019 0.97747 0.0333557
0.227177 -0.0464536 0.972745 0.0405464
-0.116548 -0.0691972 0.990772 0.0220655
-0.107661 -0.0763335 0.991253 0.0271782
-0.107494 -0.0796552 0.99101 0.0309599
-0.112552 -0.0655435 0.991482 0.0268929
-0.0865013 -0.0543826 0.994766 0.00373984
-0.073312 -0.0571966 0.995668 0.0226928
-0.0759921 -0.0551335 0.995583 0.0354603
-0.078917 -0.056726 0.995266 0.0317288
-0.074763 -0.0581318 0.995505 0.0355305
-0.0533737 -0.0681832 0.996244 0.0169798
-0.0506051 -0.0737553 0.995992 0.0214693
-0.0542504 -0.0635708 0.996502 0.0301803
-0.0472508 -0.0742534 0.996119 0.0350556
-0.0558036 -0.0667325 0.996209 0.0199591
-0.0546067 -0.0611668 0.996633 0.0132003
-0.0643428 -0.0456247 0.996884 0.00926102
-0.0590608 -0.0355574 0.997621 0.00761911
-0.0550665 -0.0395942 0.997697 0.00287657
-0.0508334 -0.0257102 0.998376 0
-0.0574078 -0.032689 0.997815 0.00404423
-0.0548764 -0.0382798 0.997759 0.0110233
0.163278 -0.0111932 0.986517 0.0117727
0.170243 0.00269278 0.985398 0.00210777
0.169225 -0.00510465 0.985564 0
0.178517 -0.000190097 0.983937 0.00169999
0.191022 -0.0365318 0.980906 0.0252079
0.204056 -0.0497752 0.977693 0.0366759
0.219771 -0.0283506 0.975139 0.028291
0.233573 -0.0434419 0.971368 0.0289438
-0.107513 -0.0493946 0.992976 0.0266621
-0.113803 -0.0472556 0.992379 0.0250786
-0.113224 -0.0427771 0.992648 0.0215005
-0.0853365 -0.0234658 0.996076 0.0159478
-0.0844477 -0.0255235 0.996101 0.00848651
-0.0813644 -0.0406464 0.995855 0.0326994
-0.067386 -0.0331204 0.997177 0.025568
-0.0498235 -0.0314591 0.998262 0.0244991
-0.0566546 -0.0595436 0.996617 0.0335333
-0.0517857 -0.0658909 0.996482 0.0307764
-0.0554929 -0.0589043 0.99672 0.0360959
-0.0451178 -0.0546575 0.997485 0.0280487
-0.039943 -0.05098 0.997901 0.0179946
-0.0454471 -0.0506182 0.997683 0.00605108
-0.0536939 -0.0371824 0.997865 0.00530299
-0.0562124 -0.0282354 0.99802 0
-0.0585155 -0.0349942 0.997673 0.000548359
-0.0452495 -0.0272636 0.998604 0
0.171897 0.00416504 0.985106 0.00512366
0.176173 0.00209979 0.984357 0
0.214114 -0.0203146 0.976597 0.0468853
0.216886 -0.0317147 0.975682 0.0362962
0.229946 -0.0360767 0.972534 0.0319703
-0.0942842 -0.0417373 0.99467 0.00820956
-0.0890311 -0.0212012 0.995803 0.00223544
-0.0980674 -0.0282334 0.994779 0.0163312
-0.0983023 -0.0214807 0.994925 0.0191442
-0.0912473 -0.0209742 0.995607 0.0146292
-0.0981475 -0.00480799 0.99516 0.016376
-0.0992434 -0.0147008 0.994955 0.0291334
-0.0930483 -0.0133655 0.995572 0.0217172
-0.0677761 -0.0266563 0.997344 0.0252353
-0.0659423 -0.0190008 0.997643 0.0308276
-0.066733 -0.0440647 0.996797 0.0439231
-0.0561039 -0.0394761 0.997644 0.0259287
-0.0521937 -0.0472548 0.997518 0.0298507
-0.0555517 -0.0405438 0.997632 0.0231665
-0.0365668 -0.0357274 0.998692 0.0191366
-0.0385044 -0.0358364 0.998616 0.0116452
-0.0463743 -0.0332531 0.99837 0.00726269
-0.0414837 -0.0224686 0.998887 0
-0.0477399 -0.0347322 0.998256 0.00321309
-0.0561157 -0.0261355 0.998082 0
0.180474 0.00886086 0.98354 0.00740119
0.185443 0.0203781 0.982444 0
0.208406 -0.00969866 0.977994 0.0377599
0.215037 0.0125917 0.976525 0.0206829
0.234348 0.000989841 0.972152 0.0211733
-0.0968849 -0.0391404 0.994526 0.00908321
-0.0911323 -0.0374723 0.995134 0.0113471
-0.0723363 -0.010485 0.997325 0.0046372
-0.0985531 -0.00119479 0.995131 0.0239886
-0.0909352 0.000347355 0.995857 0.0181835
-0.0990588 -0.00595037 0.995064 0.0244322
-0.0921431 -0.0114362 0.99568 0.0323928
-0.0866081 -0.0118214 0.996172 0.0326164
-0.0702887 -0.0301885 0.99707 0.0318471
-0.0687174 -0.0300372 0.997184 0.032672
-0.0573351 -0.0175403 0.998201 0.0280939
-0.0584219 -0.0304471 0.997828 0.0324454
-0.0605667 -0.0357113 0.997525 0.0335145
-0.061684 -0.0377229 0.997383 0.0221506
-0.0541574 -0.0282972 0.998131 0.0212326
-0.0513806 -0.0253422 0.998358 0.015462
-0.0538783 -0.0166929 0.998408 0.0144909
-0.0559623 -0.0198701 0.998235 0.00988916
0.176216 0.00866878 0.984313 0
0.193006 0.0432492 0.980244 0
0.203648 0.0132688 0.978954 0.0178969
0.212304 0.0273138 0.976822 0.0152375
0.231271 0.0217471 0.972646 0.0122428
-0.0978846 0.00220414 0.995195 0.00181398
-0.0927968 -0.0197269 0.99549 0.0115592
-0.104262 -0.0182897 0.994382 0.0256817
-0.101741 -0.00118966 0.99481 0.029762
-0.103203 0.00162919 0.994659 0.0325434
-0.100018 -0.00645691 0.994965 0.0299076
-0.081682 0.0115546 0.996591 0.0282184
-0.0762229 0.00885056 0.997052 0.0335242
-0.0690381 -0.000384308 0.997614 0.0272805
-0.0676734 -0.00977961 0.99766 0.0330537
-0.0599131 -0.000888827 0.998203 0.0373122
-0.0655855 -0.0249641 0.997535 0.0387022
-0.0688636 -0.0330324 0.997079 0.03683
-0.063859 -0.0266728 0.997602 0.0141418
-0.0657523 -0.0282745 0.997435 0.0239628
-0.0611256 -0.021888 0.99789 0.0214161
-0.0598681 -0.0154143 0.998087 0.0277586
0.189675 0.0424773 0.980928 0.00531849
0.205132 0.0281836 0.978329 0.00919945
0.226842 0.0341936 0.973331 0.00458647
0.24784 0.0348221 0.968175 0.0274466
-0.102225 0.0257592 0.994428 0.000835067
-0.0944372 0.0102925 0.995478 0.000104897
-0.0935018 -0.00332118 0.995614 0.0109144
-0.0995425 -0.00507667 0.99502 0.020004
-0.087042 0.012655 0.996124 0.0190741
-0.0843087 6.82517e-05 0.99644 0.0205546
-0.0781856 0.00196809 0.996937 0.0193281
-0.0909938 0.0124239 0.995774 0.0307942
-0.084734 0.029718 0.99596 0.0249586
-0.0737508 0.00338612 0.997271 0.0222051
-0.0746631 0.00353913 0.997203 0.03212
-0.0726731 0.0131234 0.997269 0.0382515
-0.0641033 -0.00883145 0.997904 0.0207432
-0.0562522 -0.002878 0.998412 0.0117436
-0.0608638 -0.021921 0.997905 0.0233001
-0.0578807 -0.0017461 0.998322 0.0193727
-0.0678867 -0.00613434 0.997674 0.0204069
-0.0583996 -0.00713154 0.998268 0.0113475
0.193499 0.0539302 0.979617 0.0271391
0.198687 0.0457707 0.978994 0.0203047
0.210162 0.0329493 0.977111 0.0174418
0.221284 0.0306145 0.974729 0.0309712
0.242978 0.0333244 0.969459 0.0291532
-0.101044 0.0225606 0.994626 0.0106034
-0.103527 0.0166634 0.994487 0.0117927
-0.102656 0.0221039 0.994471 0.0103877
-0.0983088 0.00461444 0.995145 0.0192036
-0.0934887 0.00212958 0.995618 0.0268384
-0.0925175 0.00482368 0.995699 0.0205307
-0.0897134 0.00123126 0.995967 0.014034
-0.0853712 -0.00493173 0.996337 0.0235782
-0.0826225 0.0143451 0.996478 0.0165173
-0.0737967 0.0262751 0.996927 0.0145085
-0.0760769 0.0141413 0.997002 0.0131982
-0.0761092 0.0209478 0.996879 0.027603
-0.0857407 0.00870436 0.996279 0.0343511
-0.0685224 -0.011756 0.99758 0.0270916
-0.060353 -0.00924247 0.998134 0.0213291
-0.0546339 0.00087114 0.998506 5.55474e-05
0.186052 0.0690285 0.980112 0.0119438
0.197059 0.0663026 0.978147 0.0135343
0.214727 0.0522601 0.975275 0.0332908
0.230171 0.0450559 0.972107 0.0373329
0.238981 0.0344993 0.970411 0.0166699
-0.115759 0.000954185 0.993277 0.0169688
-0.119899 -0.00961284 0.99274 0.0238918
-0.111748 0.00628463 0.993717 0.022263
-0.104284 0.00938798 0.994503 0.0333265
-0.095912 0.00872677 0.995352 0.0359467
-0.0985617 0.0215235 0.994898 0.0241872
-0.0968345 0.00933263 0.995257 0.0312603
-0.0865539 0.0108658 0.996188 0.0290611
-0.0880125 -2.48244e-06 0.996119 0.0269496
-0.084738 0.00452819 0.996393 0.0216239
-0.0815265 0.0256527 0.996341 0.0210647
-0.079929 0.00642836 0.99678 0.0182312
-0.0781832 0.00722257 0.996913 0.0263962
0.18461 0.060575 0.980943 0.0218334
0.191833 0.0599584 0.979594 0.0270288
0.219992 0.0639265 0.973405 0.0496211
0.227318 0.0619673 0.971847 0.0417321
0.241498 0.0354035 0.969755 0.0175404
-0.124007 -0.00720554 0.992255 0.0321206
-0.120952 -0.0135892 0.992565 0.0364382
-0.108494 0.0105248 0.994041 0.0290193
-0.10723 0.0158789 0.994107 0.0295879
-0.104784 0.0138586 0.994398 0.0404209
-0.102294 0.0363848 0.994089 0.0236792
-0.0983357 0.0391977 0.994381 0.0282635
-0.0883956 0.0273711 0.995709 0.0213924
-0.0838944 0.0271247 0.996105 0.0222575
-0.0868498 0.035573 0.995586 0.0361023
-0.0790538 0.0319773 0.996357 0.0133944
-0.083339 0.0180954 0.996357 0.0213361
-0.0806922 0.0143248 0.996636 0.0130713
-0.0720574 0.014305 0.997298 0.0175523
0.192056 0.0589033 0.979615 0.0327927
0.202462 0.062414 0.977299 0.0461772
0.217996 0.0716514 0.973316 0.0474636
0.235539 0.0674327 0.969523 0.0563428
-0.122752 0.0142471 0.992335 0.037581
-0.122899 0.0060678 0.992401 0.0348865
-0.116617 0.00532302 0.993163 0.0270022
-0.106749 0.00910111 0.994244 0.0212953
-0.10139 0.0173007 0.994696 0.0364825
-0.10377 0.0240766 0.99431 0.0299744
-0.0938298 0.0498688 0.994338 0.0243771
-0.0883709 0.0527023 0.994692 0.00955769
-0.0685127 0.0519904 0.996295 0.00335584
-0.0745702 0.0618927 0.995293 0.0134307
-0.0751141 0.0526843 0.995782 0.00676525
-0.0760615 0.0334572 0.996542 0.00899165
-0.0717477 0.0440727 0.996449 0.0112972
-0.0764507 0.0156527 0.99695 0.0295446
0.181547 0.0706323 0.980842 0.0156105
0.191615 0.0552129 0.979916 0.0499209
0.194284 0.049401 0.979701 0.043888
0.214075 0.0854448 0.973073 0.0454287
0.224199 0.0683231 0.972145 0.0558832
-0.129571 -0.00025797 0.99157 0.0445838
-0.125937 0.0130234 0.991953 0.0399899
-0.119356 0.00487011 0.99284 0.0317269
-0.109216 0.01023 0.993965 0.0273407
-0.101641 0.0125089 0.994743 0.0288568
-0.0905266 0.0563222 0.9943 0.0183542
-0.0977958 0.0486314 0.994018 0.0163876
-0.0826129 0.0620067 0.994651 0.00408711
-0.0813064 0.0523081 0.995316 0.00949876
-0.0767969 0.0608264 0.99519 0.0154303
-0.0750926 0.0487046 0.995986 0.015816
-0.0775248 0.0451881 0.995966 0.0189001
-0.0655508 0.0386308 0.997101 0.00774832
-0.0713339 0.0295578 0.997014 0.0229654
0.182549 0.079983 0.979938 0.0348967
0.190095 0.0723088 0.979099 0.0479819
0.196159 0.0606004 0.978698 0.0415128
0.211881 0.0744595 0.974455 0.0512412
0.221985 0.0737656 0.972256 0.0530212
-0.127248 0.0200769 0.991668 0.04277
-0.123388 0.0170062 0.992213 0.0378001
-0.114948 0.00235065 0.993369 0.0304733
-0.111999 0.0242659 0.993412 0.0254486
-0.104069 0.0250581 0.994254 0.0251082
-0.0888654 0.0618293 0.994123 0.0107051
-0.083797 0.0803067 0.993242 0
-0.0798195 0.0577427 0.995135 0.00944195
-0.0791521 0.0618232 0.994944 0
-0.0757991 0.0707786 0.994608 0.00769717
-0.0599115 0.092239 0.993933 0
-0.0737606 0.0376976 0.996563 0.0115023
-0.0658004 0.0415257 0.996968 0.0123595
-0.0609771 0.0244945 0.997839 0.0246828
-0.0619312 -0.00957505 0.998034 0.0306802
-0.0631428 -0.0275024 0.997625 0.0294836
0.176464 0.0631227 0.982281 0.0233102
0.184416 0.10128 0.977616 0.0329048
0.194695 0.0879083 0.976917 0.0474536
0.195658 0.0897599 0.976556 0.0405945
-0.117902 0.0122977 0.992949 0.0395959
-0.126999 0.00579821 0.991886 0.0452893
-0.110421 0.0153865 0.993766 0.0243566
-0.107451 0.0151621 0.994095 0.0221
-0.0994769 0.0545371 0.993544 0.0170515
-0.0822007 0.0834742 0.993114 0
-0.0849363 0.0796207 0.9932 0.00125318
-0.0828661 0.0636554 0.994526 0.00950444
-0.0793756 0.0709983 0.994313 0.000697197
-0.0747204 0.0834723 0.993705 0.000426873
-0.0634932 0.0928744 0.993651 0
-0.0598158 0.0713848 0.995654 0
-0.0608793 0.0669689 0.995896 0.00692406
-0.0604549 0.0408136 0.997336 0.0152871
-0.0573549 0.0474273 0.997227 0.0130492
-0.0536296 0.036588 0.99789 0.00192379
-0.0575721 0.010234 0.998289 0.0192902
-0.0564102 0.00792559 0.998376 0.0227574
-0.0513596 0.0104134 0.998626 0.0142197
0.177425 0.0654573 0.981955 0.0291017
0.17871 0.0948731 0.979317 0.0253049
0.186549 0.110231 0.976242 0.0268189
0.192871 0.0738088 0.978444 0.040626
-0.116337 0.0347257 0.992603 0.0333143
-0.116524 0.0321809 0.992666 0.0381197
-0.111281 0.0483107 0.992614 0.0203618
-0.109446 0.0460436 0.992926 0.0195395
-0.104788 0.0700557 0.992024 0.0200782
-0.0849297 0.0829158 0.992931 0
-0.0842634 0.0835939 0.992931 0
-0.084839 0.0772225 0.993398 0
-0.0729928 0.099653 0.992341 0
-0.0708015 0.0946359 0.992991 0
-0.0591976 0.0705024 0.995754 0
-0.0636407 0.0743278 0.995201 0.00226734
-0.0595319 0.071144 0.995688 0.00393988
-0.0472835 0.0764098 0.995955 0
-0.0495825 0.0450339 0.997754 0.00581717
-0.0581897 0.0334297 0.997746 0.0124829
-0.0573624 0.0222314 0.998106 0.0296132
-0.0388793 0.0257803 0.998911 0.013646
-0.0391021 0.0393035 0.998462 0.019112
0.174612 0.0943541 0.980106 0.0204607
0.176852 0.113085 0.977719 0.0266767
0.18102 0.112793 0.97699 0.0287411
0.189557 0.0806099 0.978555 0.051522
-0.111275 0.0340395 0.993206 0.0261444
-0.111701 0.0448061 0.992731 0.0214868
-0.101776 0.0365579 0.994135 0.0222186
-0.106294 0.0584237 0.992617 0.0208882
-0.112883 0.0558694 0.992036 0.019287
-0.102714 0.0737043 0.991977 0.0102254
-0.0784274 0.0953673 0.992348 0
-0.0813978 0.0880607 0.992784 0.0102018
-0.0744123 0.105127 0.991671 0.00111874
-0.068911 0.110106 0.991528 0
-0.0630483 0.0854614 0.994345 0
-0.0654996 0.0660098 0.995667 0.0032468
-0.0640508 0.0759298 0.995054 0.0056861
-0.0542023 0.0827297 0.995097 0.00429011
-0.0537201 0.0744362 0.995778 0.0126575
-0.0465219 0.093475 0.994534 0.00931452
-0.0506031 0.0553626 0.997183 0.0122496
-0.0545104 0.021918 0.998273 0.0229729
-0.0343549 0.0499595 0.99816 0.00941798
-0.0354983 0.0404602 0.99855 0.0213061
-0.0356347 0.0601025 0.997556 0.00459972
-0.0314767 0.0660973 0.997317 0
0.136159 0.151841 0.978982 0
0.146758 0.154376 0.977052 5.35624e-05
0.163426 0.138075 0.976846 0
0.173893 0.108596 0.978759 0.015032
0.173978 0.121099 0.977275 0.0274273
0.18621 0.127315 0.974226 0.0261036
-0.104799 0.048522 0.993309 0.0199791
-0.100992 0.0634056 0.992865 0.00258073
-0.108568 0.0632171 0.992077 0.021866
-0.0873469 0.0890561 0.992189 0.0109233
-0.0763811 0.104787 0.991557 0
-0.0765983 0.102984 0.991729 0
-0.0727488 0.108092 0.991476 0.00332228
-0.0706944 0.0977255 0.992699 0
-0.0712522 0.081164 0.994151 0.00421681
-0.0683131 0.0970398 0.992933 0.0213219
-0.0689407 0.087531 0.993773 0.0279179
-0.0471767 0.107199 0.993118 0
-0.0538296 0.110305 0.992439 0.0109316
-0.0475193 0.10313 0.993532 0.00444607
-0.0521834 0.0490102 0.997434 0.0166843
-0.0532464 0.0447282 0.997579 0.0172616
-0.0375084 0.0500232 0.998043 0.000766956
-0.0343935 0.0743502 0.996639 0
-0.0355369 0.0519309 0.998018 0.00986719
-0.0249976 0.109046 0.993722 0
-0.0330695 0.0751589 0.996623 0.00605608
-0.0386304 0.0824059 0.99585 0.017513
0.126086 0.197728 0.972114 0
0.132099 0.209976 0.968741 0
0.129478 0.144957 0.98093 0.000973579
0.141161 0.159882 0.976991 0.00227159
0.152675 0.158727 0.975447 0
0.161099 0.151632 0.97522 0
0.171225 0.130097 0.976605 0.00145691
0.177296 0.146783 0.97315 0.00916446
-0.0870499 0.098395 0.991333 0.00715132
-0.0837656 0.113333 0.99002 0
-0.0798328 0.138721 0.987108 0
-0.0757154 0.116988 0.990243 0
-0.0752822 0.0996836 0.992167 0.00801358
-0.0678864 0.114829 0.991063 0.010045
-0.0590801 0.138172 0.988645 0
-0.0595397 0.11326 0.99178 0.00892227
-0.0524256 0.118962 0.991514 0
-0.045125 0.11856 0.991921 0
-0.050039 0.0640767 0.99669 0.00521131
-0.0489093 0.0509634 0.997502 0.0184994
-0.0348766 0.0903464 0.9953 0
-0.0390722 0.0902059 0.995156 0
-0.0321964 0.0959089 0.994869 0
-0.0263754 0.11878 0.99257 0
-0.0336386 0.092651 0.99513 0
-0.0357659 0.0939511 0.994934 0.0132218
-0.038859 0.104257 0.993791 0
-0.0457781 0.0963475 0.994295 0.0205701
-0.0438973 0.109964 0.992966 0.00327155
-0.0407336 0.121593 0.991744 0.00608852
-0.0354226 0.129141 0.990993 0
-0.0285077 0.152542 0.987886 0
0.112833 0.187922 0.975681 0
0.126372 0.190055 0.973606 0
0.12649 0.17857 0.975763 0
0.134528 0.196098 0.971312 0
0.14016 0.166228 0.976075 0.00481518
0.152323 0.19679 0.968541 0
0.160587 0.175931 0.971216 0.0137919
0.175267 0.137161 0.97492 0
0.177431 0.147997 0.972941 0.00228221
-0.0818317 0.131107 0.987985 0
-0.0449659 0.156034 0.986728 0
-0.0485766 0.125768 0.99087 0
-0.0431927 0.0872915 0.995246 0
-0.0413413 0.0961861 0.994504 0
-0.0423232 0.0956474 0.994515 0.00226829
-0.0349473 0.104982 0.99386 0
-0.0323881 0.126357 0.991456 0
-0.0348307 0.14002 0.989536 0
-0.031649 0.135771 0.990235 0
-0.0366854 0.122267 0.991819 0.000621382
-0.0388735 0.107739 0.993419 0.00701533
-0.0397143 0.117411 0.992289 0.0130578
-0.0468749 0.101687 0.993711 0.0134611
-0.0411359 0.130047 0.990654 0
-0.0379261 0.134912 0.990131 0
-0.0295061 0.152426 0.987874 0
-0.03169 0.152463 0.987801 0
-0.0349313 0.156523 0.987056 0
-0.029403 0.153916 0.987646 0
-0.0378947 0.110583 0.993144 0.00836071
-0.0253666 0.0990204 0.994762 0.00810677
-0.0218467 0.0889729 0.995794 0
-0.027825 0.063525 0.997592 0.0150053
-0.0228236 0.101685 0.994555 0.0253427
-0.0231248 0.144384 0.989251 0.0475152
-0.00753418 0.133948 0.99096 0.0236117
-0.000190975 0.145896 0.9893 0.00851182
0.00815651 0.168259 0.985709 0.00596729
0.111749 0.171654 0.978799 0
0.111022 0.188762 0.975727 0
0.118038 0.206185 0.971368 0
0.12864 0.211958 0.968775 0
0.138256 0.227227 0.963978 0
0.150169 0.219186 0.964058 0
0.15176 0.189242 0.970132 0
0.164218 0.137947 0.976731 0.0151942
0.178867 0.199842 0.963364 0
-0.0490485 0.126337 0.990774 0
-0.048967 0.126084 0.99081 0
-0.0430924 0.10272 0.993776 0
-0.0385777 0.103095 0.993923 0
-0.0383643 0.13534 0.990056 0
-0.0344573 0.156173 0.987129 0
-0.0338007 0.130889 0.990821 0
-0.0410364 0.121792 0.991707 0
-0.0436213 0.113823 0.992543 0.00114611
-0.0403842 0.116762 0.992339 0.0105578
-0.0412516 0.123924 0.991434 0.00330214
-0.0308237 0.161634 0.986369 0
-0.0299584 0.150674 0.988129 0
-0.0336693 0.174876 0.984015 0
-0.031351 0.177998 0.983531 0
-0.0321836 0.177989 0.983506 0
-0.0336357 0.144601 0.988918 0
-0.0307945 0.125368 0.991632 0
-0.025455 0.115712 0.992957 0
-0.0183039 0.143469 0.989486 0
-0.0227347 0.129097 0.991371 0
-0.0246433 0.108218 0.993822 0.011238
-0.0239403 0.0902314 0.995633 0.00225445
-0.0143583 0.112384 0.993561 0
-0.0162539 0.106381 0.994193 0.00531699
-0.0192872 0.118913 0.992717 0.0156274
-0.0115588 0.167983 0.985722 0
0.00524647 0.207441 0.978233 0
0.00206579 0.202905 0.979196 0
-0.0124112 0.208754 0.977889 0.0186848
-0.0220165 0.138463 0.990123 0.0407081
-0.00871139 0.132854 0.991097 0.0174084
-0.00114676 0.167569 0.98586 0.00875607
0.00310816 0.173429 0.984842 0.0154608
0.00952242 0.177242 0.984121 0.0135225
0.0224869 0.162441 0.986462 0
0.0186644 0.138064 0.990247 0
0.0333545 0.146513 0.988646 0.0280777
0.0389632 0.142904 0.988969 0.0116223
0.0376386 0.0491252 0.998083 0.0417008
0.0496008 0.0660476 0.996583 0.014996
0.0620259 0.0565547 0.996471 0.00861154
0.0729403 0.0750904 0.994505 0
0.0786304 0.129219 0.988494 0.00057882
0.103741 0.16291 0.981172 0
0.106691 0.172833 0.979156 0
0.112706 0.195703 0.974165 0
0.11654 0.182768 0.976225 0
0.129731 0.217336 0.967437 0
0.136911 0.216495 0.966636 0.000195709
-0.0442562 0.12823 0.990756 0.00571778
-0.0415235 0.129547 0.990703 0.0127934
-0.0493364 0.0990513 0.993859 0.0357659
-0.0457252 0.103568 0.993571 0.0167997
-0.036962 0.125785 0.991369 0
-0.0306824 0.150694 0.988104 0
-0.0292553 0.169423 0.985109 0
-0.0283134 0.180031 0.983253 0
-0.0246391 0.201156 0.979249 0
-0.0311282 0.18619 0.98202 0
-0.0282603 0.179499 0.983352 0
-0.0298022 0.151431 0.988019 0
-0.0268409 0.134006 0.990617 0
-0.0200366 0.138793 0.990119 0
-0.0294182 0.127778 0.991366 0
-0.0219898 0.135566 0.990524 0.0056154
-0.0185384 0.116735 0.99299 0.00327865
-0.00720759 0.126951 0.991883 0
-0.0174827 0.140493 0.989927 0.0125544
-0.0118684 0.17079 0.985236 0
-0.00581194 0.223242 0.974746 0
-0.000473334 0.223149 0.974784 0
0.000292857 0.22106 0.97526 0
-0.00947301 0.178778 0.983844 0.0125848
-0.018016 0.182122 0.983111 0.031851
-0.0120871 0.148115 0.988896 0.0349329
-0.00284833 0.163377 0.98656 0.0202071
-0.00242311 0.174452 0.984663 0.0245295
0.00650373 0.175329 0.984488 0.0203371
0.0197324 0.1664 0.985861 0.00975067
0.0230892 0.178182 0.983727 0
0.0198963 0.159003 0.987078 0.0230269
0.021905 0.162815 0.986413 0.0247569
0.0266755 0.137867 0.990091 0.0346531
0.0411908 0.135107 0.989974 0.0198308
0.0427618 0.105903 0.993457 0.0169929
0.0540808 0.0890863 0.994555 0.0188082
0.0672755 0.0758527 0.994847 0.0173848
0.0697091 0.0815154 0.994231 0.00761969
0.0824309 0.159545 0.983743 0
0.0975633 0.160814 0.982151 0
0.10575 0.187661 0.976525 0
0.104342 0.1617 0.981308 0
0.108763 0.16174 0.980822 0.00120622
-0.0332862 0.129129 0.991069 0
-0.0285361 0.178056 0.983607 0
-0.0237061 0.195509 0.980415 0
-0.0319213 0.178078 0.983499 0
-0.0309651 0.164253 0.985932 0
-0.0368186 0.141703 0.989224 0
-0.0234667 0.156621 0.98738 0
-0.0283238 0.123626 0.991925 0
-0.0232447 0.155598 0.987547 0
-0.0222066 0.166517 0.985789 0.00420329
-0.0175448 0.129878 0.991375 0
-0.00940667 0.136431 0.990605 0
-0.0132943 0.162456 0.986626 0
-0.0138711 0.187018 0.982259 0.00675772
-0.00714002 0.212624 0.977108 0
-0.00215978 0.258598 0.965983 0
-0.0120108 0.202787 0.979149 0
-0.00923497 0.185021 0.982691 0.00619836
-0.00752121 0.201679 0.979423 0.00303599
-0.00711582 0.179893 0.983661 0.0138863
-0.00466574 0.180274 0.983605 0.00873145
-0.000137518 0.202732 0.979234 0.00844127
0.00864249 0.192715 0.981217 0
0.0188707 0.194612 0.980699 0
0.0202618 0.17974 0.983505 0.0014881
0.0198156 0.188019 0.981965 0.0164527
0.0254847 0.191639 0.981135 0.00659904
0.0363459 0.1798 0.983032 0
0.0381985 0.167905 0.985063 0.0200149
0.0419401 0.107126 0.99336 0.0299996
0.0515547 0.112213 0.992346 0.0139237
0.0608925 0.109844 0.992082 0.00994688
0.0716587 0.106347 0.991744 0
0.0748664 0.157406 0.984692 0
0.104107 0.177747 0.978554 0
-0.00699706 0.203924 0.978962 0
0.000757988 -0.155672 0.987809 0.0261989
0.00655461 -0.186345 0.982463 0.0284579
0.0114285 -0.173943 0.984689 0.0134246
0.0271746 -0.157037 0.987219 0.0105326
0.0348835 -0.151036 0.987913 0.00602921
-0.00584298 -0.108834 0.994043 0.0124373
-0.00565834 -0.124259 0.992234 0.015972
-0.00151636 -0.158027 0.987434 0.0300874
0.00333839 -0.168391 0.985715 0.029886
0.0127412 -0.143992 0.989497 0.00375217
0.0254662 -0.147918 0.988672 0.0126125
0.0360229 -0.122799 0.991778 0.00343547
0.0545693 -0.131679 0.989789 0.0253781
0.0586924 -0.108462 0.992366 0.0130637
0.0649624 -0.152496 0.986167 0.0184997
0.0735285 -0.117866 0.990304 0.0176663
0.0830207 -0.0770391 0.993566 0
0.0903819 -0.078456 0.992812 0.00392589
0.0970929 -0.0996229 0.990277 0.0264712
0.112525 -0.112554 0.987254 0.0322752
-0.0396639 -0.116775 0.992366 0.0157797
-0.0466895 -0.138215 0.989301 0.0343885
-0.0331103 -0.105271 0.993892 0.0176206
-0.0350403 -0.11475 0.992776 0.0244264
-0.0306027 -0.132946 0.990651 0.0278326
-0.0343315 -0.155607 0.987222 0.0322866
-0.0306513 -0.169131 0.985117 0.0350111
-0.024123 -0.17594 0.984105 0.0346245
-0.0116531 -0.124854 0.992107 0.0231024
-0.00864167 -0.103143 0.994629 0.0131528
-0.00364899 -0.096688 0.995308 0.0122718
0.00342677 -0.161624 0.986846 0.0347817
0.010127 -0.148045 0.988929 0.0264669
0.0280999 -0.0899592 0.995549 0
0.0346356 -0.113542 0.992929 0.00524306
0.0546451 -0.145812 0.987802 0.025585
0.0560726 -0.143036 0.988128 0.0318701
0.0633091 -0.118108 0.990981 0.013188
0.0768405 -0.0521203 0.99568 0.00483311
0.0827185 -0.0602945 0.994747 0
0.0902936 -0.0854722 0.992241 0.00689378
0.0975456 -0.0726663 0.992575 0.014358
0.110293 -0.106084 0.988221 0.0344007
-0.0324952 -0.101912 0.994263 0
-0.029621 -0.101528 0.994392 0
-0.0333256 -0.0908155 0.99531 0
-0.0370814 -0.112232 0.99299 0.00763057
-0.0460664 -0.124685 0.991126 0.0309807
-0.0359182 -0.122181 0.991858 0.0312829
-0.038624 -0.133558 0.990288 0.0363418
-0.0371946 -0.14593 0.988595 0.0393446
-0.0375913 -0.147502 0.988347 0.0466995
-0.0282597 -0.14382 0.9892 0.0289921
-0.0247663 -0.154284 0.987716 0.0343844
-0.0151262 -0.145392 0.989259 0.0375879
-0.0121899 -0.126718 0.991864 0.0323086
-0.0157597 -0.137413 0.990389 0.0425374
0.00160993 -0.165625 0.986187 0.037994
0.0160104 -0.128808 0.99154 0.0166528
0.0249541 -0.110542 0.993558 0.00317299
0.0376081 -0.101662 0.994108 0.00324718
0.0504694 -0.144162 0.988266 0.0282559
0.0580667 -0.136631 0.988919 0.0292785
0.0665879 -0.135239 0.988573 0.0244076
0.0762261 -0.0506504 0.995803 0.00063281
0.0823331 -0.0318241 0.996097 0
0.0883088 -0.0709805 0.993561 0.0088396
0.0995053 -0.0743489 0.992255 0.0194554
0.100985 -0.101185 0.989729 0.0240309
-0.0374404 -0.105326 0.993733 0
-0.0398422 -0.082659 0.995781 0
-0.0312675 -0.0716859 0.996937 0
-0.0332894 -0.0929662 0.995113 0
-0.0286712 -0.0859652 0.995885 0
-0.0329681 -0.072942 0.996791 0
-0.0325718 -0.0672172 0.997207 0
-0.0291417 -0.0606162 0.997736 0
-0.0322129 -0.0759655 0.99659 0
-0.035888 -0.105177 0.993806 0.00440078
-0.0445083 -0.110543 0.992874 0.0319037
-0.0429946 -0.131939 0.990325 0.036883
-0.038715 -0.138381 0.989622 0.0373556
-0.0317586 -0.126732 0.991428 0.0299686
-0.0312825 -0.115306 0.992837 0.0271197
-0.0317786 -0.136111 0.990184 0.0299986
-0.0210234 -0.152048 0.98815 0.027196
-0.0164057 -0.111709 0.993606 0.024727
-0.0121237 -0.109383 0.993926 0.0302697
-0.00835996 -0.104982 0.994439 0.0372353
0.00878853 -0.106853 0.994236 0.015013
0.0262943 -0.0784274 0.996573 0
0.0341482 -0.0946963 0.99492 0
0.0465131 -0.135025 0.98975 0.0319554
0.0546074 -0.105572 0.992911 0.0187196
0.0677153 -0.0965308 0.993024 0.00128499
0.0795218 -0.0391018 0.996066 0
0.0835101 -0.0283077 0.996105 0
0.0909377 -0.0439428 0.994887 0
0.0958061 -0.0626537 0.993426 0.0182732
0.102418 -0.0935699 0.990331 0.0315926
0.128788 -0.0661273 0.989465 0.0132085
-0.0476504 -0.111634 0.992606 0.0265866
-0.0429862 -0.105642 0.993475 0.00513168
-0.039027 -0.101459 0.994074 0.00293596
-0.0450759 -0.0861479 0.995262 0
-0.0365014 -0.0732502 0.996645 0
-0.0403662 -0.0901154 0.995113 0
-0.0318099 -0.0698547 0.99705 0
-0.031896 -0.0482003 0.998328 0
-0.0314552 -0.04486 0.998498 0
-0.0256628 -0.0281872 0.999273 0
-0.0298651 -0.0706655 0.997053 0
-0.0341417 -0.0778912 0.996377 0.00653149
-0.0418521 -0.105329 0.993556 0.0336774
-0.0451494 -0.114983 0.992341 0.0329332
-0.0489856 -0.148421 0.98771 0.0503505
-0.0318398 -0.134883 0.99035 0.03876
-0.0338255 -0.15005 0.9881 0.0431311
-0.0275122 -0.134453 0.990538 0.0312435
-0.0203973 -0.121995 0.992321 0.0200993
-0.0218113 -0.131855 0.991029 0.028714
-0.02356 -0.128555 0.991423 0.0434142
-0.0087658 -0.09791 0.995157 0.0317951
0.00968987 -0.0887347 0.996008 0.00989187
0.012674 -0.0865458 0.996167 0.00446908
0.0377018 -0.0934897 0.994906 0.000730741
0.0505158 -0.101932 0.993508 0.0242884
0.0591565 -0.0838267 0.994723 0.00978419
0.072428 -0.0593256 0.995608 0
0.085165 -0.021876 0.996127 0
0.0849088 -0.0259865 0.99605 0
0.0858223 -0.0247483 0.996003 0
0.100358 -0.0269258 0.994587 0
0.111926 -0.0474948 0.992581 0
0.128868 -0.0401716 0.990848 0.0127821
0.153023 -0.0418127 0.987338 0.0090403
0.159798 -0.0491562 0.985925 0.0237727
-0.0475766 -0.084197 0.995313 0.0123349
-0.0508518 -0.117776 0.991737 0.0270951
-0.0347832 -0.0927575 0.995081 0.00765529
-0.0437203 -0.122379 0.99152 0.0136397
-0.0391059 -0.0976675 0.99445 0.00226755
-0.0358849 -0.0713986 0.996802 0
-0.0463098 -0.0701301 0.996462 0.0026267
-0.0419687 -0.0777522 0.996089 0
-0.0379 -0.0696684 0.99685 0
