# .PCD v0.7 - Point Cloud Data file format
VERSION 0.7
FIELDS x y z
SIZE 4 4 4
TYPE F F F
COUNT 1 1 1
WIDTH 1374
HEIGHT 1
VIEWPOINT 0 0 0 1 0 0 0
POINTS 1374
DATA ascii
-0.15669475 -0.27311724 -0.3994424
-0.15652825 -0.27314276 -0.39942026
-0.13560833 -0.27307436 -0.39943364
-0.13546862 -0.2730844 -0.3994666
-0.13533145 -0.27308932 -0.39950213
-0.13517199 -0.27309099 -0.39956465
-0.15764999 -0.27284601 -0.39958599
-0.15746699 -0.27292463 -0.39958283
-0.15728925 -0.27289701 -0.39953551
-0.15709499 -0.27288479 -0.39949942
-0.15690966 -0.272881 -0.39945886
-0.15670933 -0.27293834 -0.39941919
-0.156556 -0.27298301 -0.39941299
-0.135601 -0.27293101 -0.39943001
-0.13549037 -0.27290475 -0.39944473
-0.13531674 -0.27288699 -0.39946273
-0.13510421 -0.27286261 -0.39955521
-0.15767483 -0.27268198 -0.39957735
-0.15745801 -0.27271333 -0.39954129
-0.157281 -0.27272049 -0.3995105
-0.1571064 -0.272715 -0.39947197
-0.15690151 -0.27270451 -0.39943498
-0.156747 -0.27275801 -0.39940399
-0.13548189 -0.27272418 -0.39943734
-0.13532114 -0.27271327 -0.39944687
-0.13508177 -0.27269876 -0.39954451
-0.157802 -0.27240601 -0.39959601
-0.15768155 -0.27249268 -0.39955458
-0.15744801 -0.27250132 -0.39950868
-0.15727116 -0.27250835 -0.39947769
-0.1570885 -0.27251783 -0.39943269
-0.15695401 -0.272524 -0.39942035
-0.1354565 -0.27251849 -0.39944577
-0.13532709 -0.27251583 -0.39944661
-0.1350892 -0.27253541 -0.39951259
-0.134965 -0.27244651 -0.3995595
-0.157913 -0.2722995 -0.39958701
-0.15769418 -0.272284 -0.39954281
-0.15748201 -0.27228767 -0.39948833
-0.157307 -0.27229646 -0.39943767
-0.1570694 -0.27232003 -0.39941221
-0.135432 -0.2723245 -0.39942551
-0.1353166 -0.27230209 -0.3994261
-0.13513499 -0.27230701 -0.39947832
-0.13495751 -0.27230382 -0.39955783
-0.15793279 -0.2721048 -0.39957762
-0.15770501 -0.27211022 -0.39952424
-0.157472 -0.27207598 -0.39945433
-0.15734099 -0.27208284 -0.39942315
-0.13530584 -0.27208677 -0.3994185
-0.135123 -0.272091 -0.39948034
-0.13492 -0.27207989 -0.39956313
-0.15793099 -0.27190667 -0.39955214
-0.15768641 -0.27192357 -0.39949003
-0.157464 -0.2719 -0.39943802
-0.15738 -0.27193901 -0.399405
-0.1352634 -0.27188978 -0.39941117
-0.13511199 -0.27187499 -0.39948067
-0.134923 -0.271873 -0.39956054
-0.158246 -0.27160299 -0.399589
-0.15809602 -0.271671 -0.39957789
-0.15792118 -0.27169484 -0.39952353
-0.1576927 -0.27171782 -0.39946631
-0.15752725 -0.27171975 -0.39941949
-0.13529542 -0.27171212 -0.39941639
-0.135102 -0.27169499 -0.39948398
-0.13490485 -0.271718 -0.39954463
-0.15826467 -0.27148464 -0.39957866
-0.15808627 -0.27148888 -0.39955086
-0.15791066 -0.27148184 -0.39950868
-0.15769333 -0.2714988 -0.39943618
-0.15759 -0.27153999 -0.39940199
-0.13528354 -0.2715109 -0.39941233
-0.13509367 -0.27151665 -0.39946803
-0.13491683 -0.27151451 -0.39953831
-0.158401 -0.27124399 -0.39959499
-0.15826732 -0.27131751 -0.39958465
-0.15809751 -0.27131623 -0.39954075
-0.15789481 -0.27128521 -0.39947319
-0.15769872 -0.27129456 -0.39942259
-0.13528815 -0.27129483 -0.3994084
-0.13513733 -0.27130082 -0.39945769
-0.13489015 -0.27130714 -0.39955956
-0.15845439 -0.2710824 -0.39958119
-0.15830332 -0.2711052 -0.39956102
-0.15807933 -0.27111474 -0.39950666
-0.1579016 -0.27111521 -0.3994478
-0.15771534 -0.27111599 -0.39941403
-0.13527025 -0.27108651 -0.39942673
-0.135125 -0.27108318 -0.39947852
-0.1348996 -0.27109298 -0.39957279
-0.158603 -0.27090102 -0.39959499
-0.15844783 -0.27088067 -0.39958814
-0.15830459 -0.27089143 -0.39955428
-0.15808973 -0.27090928 -0.39950854
-0.15791199 -0.27090526 -0.39944363
-0.157737 -0.27099401 -0.39940101
-0.13529861 -0.27091426 -0.39943129
-0.13511576 -0.270904 -0.39947423
-0.13491499 -0.270897 -0.39957899
-0.15850529 -0.27071142 -0.39958358
-0.15830272 -0.27068445 -0.39954242
-0.15810943 -0.27067471 -0.3994897
-0.15792049 -0.27070799 -0.39944115
-0.13540401 -0.27063099 -0.39940801
-0.13527808 -0.27071199 -0.39944813
-0.13510533 -0.27072251 -0.39948967
-0.134905 -0.270717 -0.39958835
-0.15848131 -0.27052048 -0.39956754
-0.158316 -0.27050069 -0.39953634
-0.15811126 -0.27048075 -0.39947772
-0.157958 -0.270502 -0.39941701
-0.13547301 -0.27048734 -0.39941332
-0.1353156 -0.27048984 -0.39945826
-0.13512699 -0.27050334 -0.39950484
-0.13489699 -0.27057099 -0.39959601
-0.15849213 -0.27031544 -0.39955774
-0.15832391 -0.27031466 -0.39952451
-0.15812215 -0.27030885 -0.39946198
-0.157967 -0.27030402 -0.39941001
-0.135463 -0.27030599 -0.39942598
-0.13529578 -0.27029577 -0.39948925
-0.13511422 -0.27028498 -0.39953077
-0.15870367 -0.27007365 -0.39958966
-0.15849634 -0.27008983 -0.399546
-0.15831983 -0.27010843 -0.39951
-0.15810254 -0.27011719 -0.39944646
-0.15795733 -0.27012601 -0.39941534
-0.1357065 -0.27008301 -0.39940798
-0.13545199 -0.27012399 -0.39945331
-0.13530017 -0.27011845 -0.39950314
-0.13514851 -0.27010351 -0.399537
-0.15869549 -0.26989698 -0.399564
-0.1584734 -0.26989278 -0.39953357
-0.158309 -0.26989451 -0.39950299
-0.15809201 -0.2699033 -0.39943445
-0.13588867 -0.26985034 -0.39941096
-0.13569434 -0.26989833 -0.399454
-0.13543834 -0.26990369 -0.39949501
-0.13528042 -0.26990542 -0.39954832
-0.13513799 -0.26992133 -0.39956033
-0.15868667 -0.26971832 -0.39955902
-0.15849121 -0.26971942 -0.39952379
-0.15829849 -0.26968175 -0.39948618
-0.15808123 -0.26969075 -0.39942458
-0.135914 -0.26967013 -0.39944088
-0.13568 -0.26967767 -0.39950737
-0.135425 -0.26968431 -0.39953366
-0.13530543 -0.26969197 -0.39958286
-0.135151 -0.26975322 -0.39959174
-0.1588635 -0.26942152 -0.39959252
-0.15867567 -0.26950535 -0.39955202
-0.1584816 -0.2695336 -0.39951998
-0.1582987 -0.26948971 -0.39946979
-0.158125 -0.26949298 -0.39942348
-0.136215 -0.26944599 -0.39941499
-0.13606401 -0.26948199 -0.39943799
-0.13591017 -0.26949349 -0.39949632
-0.13566899 -0.269494 -0.3995375
-0.13541299 -0.26949948 -0.39957801
-0.13533799 -0.269532 -0.39959401
-0.15885599 -0.26927784 -0.39959231
-0.15866333 -0.26929 -0.39956403
-0.15852201 -0.269299 -0.39952266
-0.15830591 -0.26931944 -0.39946827
-0.158108 -0.2692847 -0.39942369
-0.136243 -0.2693128 -0.39943343
-0.13608728 -0.26929411 -0.39949471
-0.13589865 -0.26930943 -0.3995398
-0.1356595 -0.26934651 -0.39957401
-0.135406 -0.269389 -0.3996
-0.1588075 -0.26910001 -0.399593
-0.15865301 -0.26907599 -0.399555
-0.158511 -0.26908633 -0.39951563
-0.158317 -0.26911023 -0.39946291
-0.15814817 -0.26914069 -0.39942536
-0.13629141 -0.26909041 -0.39948362
-0.13610066 -0.26911533 -0.39955601
-0.13592359 -0.26911721 -0.39957938
-0.158802 -0.26899201 -0.39959899
-0.1586435 -0.268897 -0.39955801
-0.158503 -0.26890898 -0.39949799
-0.15830517 -0.26889494 -0.39947429
-0.15816525 -0.26888475 -0.399423
-0.1362652 -0.26890859 -0.39956459
-0.13617934 -0.26892433 -0.3995873
-0.15863366 -0.26871833 -0.39955834
-0.15849201 -0.26872799 -0.399519
-0.15828782 -0.26868746 -0.39947769
-0.15813634 -0.26868817 -0.39942482
-0.13653167 -0.26870668 -0.39946198
-0.15862101 -0.26850066 -0.39959034
-0.15847968 -0.26851168 -0.39954233
-0.15828368 -0.2685011 -0.39948192
-0.15812433 -0.26847216 -0.39943865
-0.136723 -0.26841599 -0.39940301
-0.13651834 -0.26848665 -0.39949599
-0.15846699 -0.26829365 -0.39957631
-0.15827827 -0.2683121 -0.39951563
-0.15809551 -0.26827577 -0.39944947
-0.15793499 -0.26826501 -0.39940199
-0.15778001 -0.26820299 -0.39940199
-0.13688651 -0.268264 -0.39940798
-0.13671401 -0.2683005 -0.39945298
-0.13650501 -0.268298 -0.39957201
-0.15845799 -0.26814899 -0.39959201
-0.15827487 -0.26810598 -0.39957696
-0.15811929 -0.26811522 -0.39952081
-0.15793617 -0.26809582 -0.39943448
-0.157582 -0.268067 -0.39940199
-0.137238 -0.268029 -0.39940199
-0.13688201 -0.26811954 -0.39945984
-0.13672499 -0.26809525 -0.39952999
-0.15809301 -0.26791602 -0.39957398
-0.1579109 -0.26790121 -0.39948344
-0.1577265 -0.26791683 -0.39943448
-0.15754041 -0.2679106 -0.39942461
-0.13765 -0.267867 -0.39941499
-0.137481 -0.267874 -0.399427
-0.13723001 -0.2679165 -0.39945
-0.13688399 -0.26791883 -0.39955819
-0.136757 -0.26794234 -0.39956033
-0.15787216 -0.26770332 -0.39956284
-0.15771134 -0.26769516 -0.39950386
-0.15749301 -0.26771131 -0.39945114
-0.15731633 -0.26772031 -0.39942101
-0.15715399 -0.267656 -0.39940199
-0.138197 -0.267625 -0.39940399
-0.13788529 -0.26771399 -0.39946789
-0.13771018 -0.26770484 -0.39948967
-0.1374715 -0.26775551 -0.39951098
-0.15781 -0.26749799 -0.3995975
-0.1576906 -0.26748878 -0.39955521
-0.15747845 -0.26749033 -0.39951044
-0.1573025 -0.26750049 -0.39946651
-0.15710016 -0.26751032 -0.39942583
-0.15693332 -0.26746765 -0.39941534
-0.1567315 -0.26745301 -0.3994045
-0.156464 -0.26740101 -0.39940599
-0.15628433 -0.26743534 -0.39941099
-0.15612 -0.26741201 -0.39941299
-0.15597001 -0.267418 -0.39941099
-0.138816 -0.267452 -0.39940301
-0.13854 -0.26746699 -0.39942601
-0.13831599 -0.26749 -0.39945567
-0.1381865 -0.26750648 -0.39949301
-0.13790233 -0.26752266 -0.39956465
-0.13773166 -0.267555 -0.39958265
-0.1574524 -0.26731402 -0.39957199
-0.15727399 -0.2672936 -0.3995364
-0.15708415 -0.26728734 -0.39950815
-0.15690483 -0.26729417 -0.39948717
-0.15672149 -0.26730481 -0.39945018
-0.15648672 -0.26730072 -0.399443
-0.156312 -0.2672995 -0.39944601
-0.15611249 -0.26730299 -0.399436
-0.15589 -0.26727548 -0.39942801
-0.15568849 -0.26721948 -0.39941698
-0.13886499 -0.26737002 -0.39947367
-0.1387365 -0.26738101 -0.39947951
-0.138531 -0.26738301 -0.39952201
-0.13817701 -0.26739001 -0.39956501
-0.15740401 -0.26719999 -0.399589
-0.157353 -0.26719901 -0.399584
-0.15707099 -0.26710123 -0.39957601
-0.15689275 -0.26710877 -0.399544
-0.15670583 -0.26708081 -0.39953634
-0.15646912 -0.26710773 -0.39951828
-0.15630861 -0.26710472 -0.3995156
-0.15609767 -0.26711166 -0.39954337
-0.155892 -0.2671088 -0.39950481
-0.1556668 -0.26708657 -0.39945999
-0.15551311 -0.2670832 -0.3994579
-0.15534821 -0.26707599 -0.39943841
-0.154084 -0.267003 -0.39940399
-0.15389566 -0.26703501 -0.3994123
-0.153732 -0.26702401 -0.39940399
-0.14146601 -0.26703101 -0.39940399
-0.156838 -0.26699999 -0.39958301
-0.156433 -0.266954 -0.39956501
-0.1563645 -0.26695698 -0.39959252
-0.15573059 -0.26694161 -0.39955759
-0.15549999 -0.266929 -0.399562
-0.1553245 -0.26689798 -0.39955097
-0.155028 -0.26688167 -0.39951065
-0.154863 -0.26688465 -0.39949366
-0.15472531 -0.26689431 -0.39947191
-0.15452924 -0.26689002 -0.39947748
-0.15437067 -0.26691401 -0.39945164
-0.15408872 -0.26690486 -0.39946526
-0.15390016 -0.266895 -0.39949298
-0.153723 -0.26691049 -0.39946601
-0.15349583 -0.2669073 -0.3994725
-0.15330757 -0.26687089 -0.399481
-0.153054 -0.26687199 -0.39945701
-0.15293734 -0.26683569 -0.39948463
-0.152669 -0.26686299 -0.39944601
-0.15248133 -0.26687467 -0.39941737
-0.152353 -0.26683167 -0.39945969
-0.152108 -0.26681399 -0.39947
-0.15190184 -0.26686618 -0.39944968
-0.15174033 -0.26685634 -0.39945197
-0.151434 -0.26688451 -0.39945
-0.1512945 -0.26685825 -0.39946377
-0.15104599 -0.266875 -0.39943901
-0.1508704 -0.2668502 -0.3994424
-0.15070634 -0.26683867 -0.39944169
-0.1505135 -0.2668235 -0.39942801
-0.150318 -0.26684099 -0.39941299
-0.149895 -0.266853 -0.39940101
-0.149498 -0.266875 -0.399425
-0.14932424 -0.26681474 -0.39946476
-0.149112 -0.266819 -0.39948401
-0.148724 -0.26683435 -0.39944133
-0.14855933 -0.26684368 -0.39941168
-0.1468585 -0.26684499 -0.39945
-0.1467575 -0.26685151 -0.399432
-0.1464375 -0.26686901 -0.39941749
-0.1463 -0.26686651 -0.3994295
-0.1458495 -0.26689202 -0.39943051
-0.14572801 -0.26689798 -0.39942348
-0.1547005 -0.26673651 -0.39958352
-0.154542 -0.26675349 -0.399575
-0.154358 -0.26675999 -0.39955801
-0.1541025 -0.2667695 -0.3995665
-0.15391625 -0.26677799 -0.39957398
-0.153714 -0.26679501 -0.399528
-0.153557 -0.266799 -0.39956
-0.15333849 -0.26673299 -0.3995955
-0.153042 -0.26675299 -0.39958099
-0.15292932 -0.26675498 -0.39956734
-0.152657 -0.266743 -0.39955652
-0.15250701 -0.26674899 -0.39954802
-0.152354 -0.2667225 -0.39957052
-0.152099 -0.26673001 -0.39956999
-0.15189099 -0.26674768 -0.399544
-0.151683 -0.26672798 -0.39954999
-0.1514205 -0.2667295 -0.3995595
-0.15129983 -0.26675117 -0.39954999
-0.15103501 -0.26675552 -0.39953899
-0.15093 -0.26674199 -0.39955667
-0.15071867 -0.26672667 -0.39958167
-0.1505045 -0.26673999 -0.39953297
-0.15025835 -0.26672518 -0.39953467
-0.15010199 -0.26673248 -0.3995105
-0.14990239 -0.26674339 -0.3994922
-0.14969935 -0.26672217 -0.39951715
-0.14948499 -0.266752 -0.399553
-0.14931574 -0.26673228 -0.39955524
-0.14646301 -0.26678699 -0.39951
-0.1463245 -0.266783 -0.39952999
-0.14619499 -0.26679999 -0.39943999
-0.146264 -0.29822099 -0.399342
-0.14603999 -0.29824299 -0.399391
-0.145914 -0.29824299 -0.39934167
-0.144667 -0.29824048 -0.39926401
-0.143786 -0.29822499 -0.39921901
-0.1435115 -0.298235 -0.3992455
-0.14331834 -0.29825532 -0.39931265
-0.143116 -0.29826099 -0.39931101
-0.14291061 -0.29825121 -0.3993018
-0.14271399 -0.29822201 -0.399308
-0.142434 -0.29823801 -0.399376
-0.141931 -0.29820201 -0.39939299
-0.14911599 -0.298006 -0.39939052
-0.148876 -0.298013 -0.39938399
-0.148505 -0.298033 -0.399382
-0.148297 -0.298051 -0.39937499
-0.14811867 -0.29805034 -0.39932933
-0.14791617 -0.29809049 -0.39932331
-0.147706 -0.29810101 -0.39931202
-0.14747283 -0.2981168 -0.39929965
-0.1473 -0.29808497 -0.39928252
-0.147099 -0.298089 -0.399248
-0.14688951 -0.29810649 -0.3993125
-0.14675726 -0.298076 -0.39928201
-0.1464854 -0.29809362 -0.39928561
-0.14628634 -0.29809102 -0.39924565
-0.146117 -0.2981545 -0.39928049
-0.14591649 -0.298161 -0.39923298
-0.1456905 -0.298181 -0.3992615
-0.144848 -0.29815099 -0.39923099
-0.144638 -0.29816401 -0.39920199
-0.14456899 -0.29816899 -0.39921001
-0.144052 -0.29819801 -0.39921501
-0.14335701 -0.29817098 -0.39920449
-0.142993 -0.298195 -0.39920801
-0.142675 -0.29814401 -0.39922401
-0.14243349 -0.29811752 -0.399252
-0.14222835 -0.29810068 -0.39928702
-0.14209911 -0.29811445 -0.39928019
-0.14192849 -0.29808649 -0.399322
-0.14169851 -0.29807049 -0.39936751
-0.14143601 -0.298013 -0.3993715
-0.1513155 -0.29780447 -0.39936799
-0.1510835 -0.29782051 -0.39936203
-0.15093935 -0.29783466 -0.39935601
-0.15075199 -0.297838 -0.39934
-0.150435 -0.29785401 -0.399362
-0.1503125 -0.29787499 -0.3993485
-0.150142 -0.29786965 -0.399344
-0.1498625 -0.2978445 -0.39927301
-0.14949299 -0.29786369 -0.39928234
-0.14934149 -0.297867 -0.39927101
-0.14911799 -0.29788566 -0.39926231
-0.14887649 -0.29789299 -0.39925101
-0.14870399 -0.2979055 -0.399295
-0.14847817 -0.29791465 -0.39927414
-0.14835232 -0.29793668 -0.39925566
-0.14813501 -0.29795301 -0.39924225
-0.14794751 -0.2979725 -0.39924401
-0.147705 -0.29798201 -0.39920199
-0.142049 -0.29796699 -0.399212
-0.141927 -0.29797199 -0.39923301
-0.14168119 -0.29793161 -0.39925441
-0.14143375 -0.29789826 -0.39929003
-0.1412522 -0.2978912 -0.39931041
-0.14109901 -0.29784852 -0.39929801
-0.140861 -0.297831 -0.39935499
-0.154677 -0.29760501 -0.399387
-0.154259 -0.29763201 -0.399369
-0.154181 -0.297636 -0.399387
-0.153741 -0.29765499 -0.39932001
-0.15351281 -0.2976194 -0.399349
-0.153276 -0.29764801 -0.39933699
-0.153061 -0.297663 -0.3993285
-0.15292326 -0.29763722 -0.39933151
-0.15267301 -0.29765299 -0.39932001
-0.15253219 -0.29768682 -0.39933699
-0.15227301 -0.29768848 -0.39934418
-0.152077 -0.297676 -0.39934
-0.15190034 -0.29766104 -0.39927301
-0.1517 -0.29770279 -0.3992849
-0.15148333 -0.29771268 -0.39930034
-0.15132999 -0.29769465 -0.39924034
-0.15108299 -0.297701 -0.39924353
-0.15092625 -0.29773599 -0.39925575
-0.15075099 -0.29772252 -0.39924401
-0.150434 -0.29773599 -0.399252
-0.15029384 -0.29774165 -0.39925468
-0.15015459 -0.297759 -0.3992618
-0.14130799 -0.29778999 -0.39920199
-0.141094 -0.2976985 -0.39923298
-0.140857 -0.29767898 -0.39926901
-0.14060849 -0.29766551 -0.399351
-0.140527 -0.29764 -0.39939499
-0.158004 -0.29741701 -0.39938501
-0.156643 -0.29742 -0.39938599
-0.1564395 -0.29742599 -0.39938399
-0.15628451 -0.29743201 -0.39937449
-0.15612 -0.29744399 -0.39934999
-0.155985 -0.2974855 -0.399376
-0.15569401 -0.29746434 -0.39934766
-0.155518 -0.29747602 -0.39935866
-0.15534098 -0.29748499 -0.399308
-0.15510055 -0.29749867 -0.39931691
-0.15488666 -0.29751453 -0.39932665
-0.15464149 -0.29749078 -0.39932624
-0.15453601 -0.297497 -0.39933273
-0.15428866 -0.29748285 -0.399304
-0.15409988 -0.29749212 -0.3993021
-0.153953 -0.29750535 -0.39929733
-0.1537385 -0.29754201 -0.399252
-0.15349601 -0.29752797 -0.39928275
-0.153275 -0.29753 -0.39922199
-0.15306 -0.297544 -0.399214
-0.1529174 -0.29754359 -0.3992402
-0.15267301 -0.297573 -0.39923799
-0.15249425 -0.29756176 -0.39923102
-0.15228249 -0.29753467 -0.39924118
-0.15207434 -0.29752335 -0.39923301
-0.140604 -0.29751748 -0.3992835
-0.14049099 -0.29748124 -0.3993181
-0.14035 -0.29743299 -0.39935532
-0.15984899 -0.297281 -0.3993665
-0.15970226 -0.29725176 -0.39935702
-0.15950051 -0.29725599 -0.39936051
-0.15930042 -0.29730001 -0.39936382
-0.15906401 -0.2972914 -0.3993355
-0.15889572 -0.29727915 -0.39932489
-0.15867366 -0.29729798 -0.39932933
-0.15849175 -0.29726976 -0.3993305
-0.158299 -0.29729939 -0.39932579
-0.15807299 -0.29730463 -0.39935401
-0.15791313 -0.29730457 -0.39932343
-0.1576995 -0.29731351 -0.39931899
-0.15747732 -0.29728648 -0.39929914
-0.15727983 -0.2973015 -0.39928767
-0.15711422 -0.29731378 -0.39927489
-0.15693983 -0.29732001 -0.39928713
-0.15664151 -0.29730201 -0.39927849
-0.1564765 -0.29730248 -0.39926949
-0.156305 -0.29729459 -0.39927712
-0.15611601 -0.297295 -0.39927468
-0.15598033 -0.297297 -0.39926434
-0.15570186 -0.29733381 -0.39925626
-0.15551649 -0.29736051 -0.39926767
-0.155338 -0.297333 -0.39920101
-0.15509732 -0.297346 -0.39921498
-0.154897 -0.29733801 -0.39921966
-0.1546395 -0.29737699 -0.39923602
-0.1545345 -0.29738301 -0.39924848
-0.15409634 -0.2973403 -0.39920568
-0.14047067 -0.29731834 -0.39925265
-0.14034566 -0.29728389 -0.39928588
-0.14011 -0.29723501 -0.399389
-0.161042 -0.29703099 -0.39939499
-0.16094901 -0.297041 -0.39939499
-0.16065401 -0.297093 -0.39936724
-0.16051866 -0.297097 -0.39935753
-0.16033325 -0.29710326 -0.39936197
-0.16013734 -0.29707867 -0.39935634
-0.15989356 -0.29709163 -0.39930847
-0.15969867 -0.29710171 -0.39927253
-0.15949701 -0.29710719 -0.3992745
-0.15932064 -0.29712588 -0.39926335
-0.15908 -0.29713148 -0.399259
-0.158916 -0.29713833 -0.399232
-0.15867101 -0.29714501 -0.39921701
-0.15849 -0.29715401 -0.399232
-0.15831833 -0.29713833 -0.39923397
-0.15808776 -0.29714352 -0.39925575
-0.15793228 -0.29716358 -0.39924356
-0.15769701 -0.29719901 -0.39923999
-0.15634599 -0.29719099 -0.39921999
-0.140443 -0.29719701 -0.39921299
-0.14032979 -0.29710901 -0.39922863
-0.14010467 -0.29708835 -0.399335
-0.161304 -0.29687199 -0.399389
-0.16108115 -0.29688135 -0.39934817
-0.16094533 -0.29689065 -0.39931369
-0.16068345 -0.29690245 -0.39928812
-0.16051278 -0.29691035 -0.39927313
-0.160327 -0.29691717 -0.39927951
-0.16013101 -0.29689348 -0.39928049
-0.15987274 -0.29688215 -0.39924124
-0.15972315 -0.29690358 -0.399214
-0.159492 -0.29695898 -0.39920649
-0.1400975 -0.2969045 -0.39928752
-0.13992199 -0.29681 -0.39939699
-0.1614725 -0.29669049 -0.39938802
-0.16134484 -0.29672515 -0.39935398
-0.161075 -0.29669625 -0.39926699
-0.16093901 -0.2967065 -0.399243
-0.16069525 -0.29673427 -0.39922351
-0.16050833 -0.29676235 -0.39920166
-0.16032299 -0.29676849 -0.39920899
-0.16012651 -0.296745 -0.39921802
-0.159917 -0.29675949 -0.39921701
-0.140094 -0.29679301 -0.39923301
-0.13988966 -0.29668668 -0.39932534
-0.139725 -0.296608 -0.39937299
-0.161713 -0.29644334 -0.39937666
-0.16152854 -0.29650599 -0.39935035
-0.1613365 -0.29650569 -0.39928332
-0.16109151 -0.29653025 -0.39922225
-0.160935 -0.29659501 -0.399203
-0.139869 -0.29651502 -0.39926016
-0.13972101 -0.296498 -0.39934951
-0.16169964 -0.29628319 -0.39934701
-0.16151968 -0.29628867 -0.39929688
-0.16132766 -0.29628816 -0.39922881
-0.139851 -0.29631338 -0.3992312
-0.13971266 -0.29631734 -0.39932069
-0.13946199 -0.29629952 -0.39937499
-0.139302 -0.296206 -0.3994
-0.16181301 -0.29612699 -0.39936367
-0.16170567 -0.29610658 -0.39932278
-0.16150214 -0.29609245 -0.39925459
-0.161368 -0.296143 -0.39921099
-0.139809 -0.29615599 -0.39920801
-0.13970366 -0.29609799 -0.39926434
-0.13945366 -0.29611799 -0.39933863
-0.13929667 -0.296096 -0.39937636
-0.13919351 -0.29610351 -0.399389
-0.16180399 -0.29595 -0.39936149
-0.16169731 -0.29591149 -0.39930648
-0.16151151 -0.29591885 -0.39922899
-0.161357 -0.29593 -0.39920199
-0.139698 -0.29595199 -0.39921299
-0.13944401 -0.29590097 -0.39930999
-0.13928834 -0.29591453 -0.39934501
-0.139162 -0.29591003 -0.39936739
-0.16201399 -0.29562199 -0.399391
-0.16170055 -0.29570386 -0.3993122
-0.16151187 -0.29572442 -0.39922515
-0.13943399 -0.29568431 -0.39927864
-0.1392791 -0.29569697 -0.39930487
-0.13914751 -0.29570782 -0.399331
-0.13895033 -0.29572165 -0.39938632
-0.162044 -0.29547617 -0.3993763
-0.16170529 -0.29549199 -0.39927557
-0.16155499 -0.29551321 -0.399225
-0.1394265 -0.29550201 -0.39923599
-0.13926922 -0.29547945 -0.39926723
-0.13913816 -0.29549 -0.39928952
-0.138941 -0.29550365 -0.39934698
-0.1620715 -0.295297 -0.3993845
-0.16199851 -0.29530099 -0.39935702
-0.16170575 -0.29530561 -0.39924714
-0.16159301 -0.29535201 -0.399216
-0.13941833 -0.29532233 -0.39921132
-0.13926066 -0.29529953 -0.39924851
-0.1391232 -0.29528838 -0.39927021
-0.13893032 -0.29528832 -0.399333
-0.16206233 -0.29511967 -0.39937866
-0.16198933 -0.295122 -0.399344
-0.16174041 -0.29515201 -0.39922643
-0.1394085 -0.29514301 -0.39921302
-0.13925925 -0.295127 -0.39922336
-0.13913767 -0.29510432 -0.39924601
-0.13891967 -0.295073 -0.39931402
-0.13866466 -0.29508999 -0.399387
-0.1620695 -0.29488826 -0.39937001
-0.16197866 -0.29490933 -0.39933899
-0.16170344 -0.29489601 -0.39922276
-0.1392675 -0.29490134 -0.39921185
-0.13912299 -0.29492274 -0.39921555
-0.1389115 -0.29489303 -0.399295
-0.13865399 -0.29487467 -0.39936933
-0.1620595 -0.29471126 -0.3993845
-0.16196634 -0.29469767 -0.39935699
-0.16167408 -0.29470375 -0.39924505
-0.139286 -0.294756 -0.39920399
-0.13909559 -0.29471359 -0.39921439
-0.13890266 -0.29471233 -0.39927268
-0.1386445 -0.29469699 -0.39937252
-0.16202866 -0.29448199 -0.39938799
-0.16195433 -0.29448733 -0.39938131
-0.16168468 -0.29449123 -0.39927933
-0.16153733 -0.29448768 -0.399221
-0.139245 -0.2944735 -0.39921001
-0.13907376 -0.29446775 -0.39922002
-0.13889199 -0.2944977 -0.39926532
-0.13863567 -0.29451635 -0.39935565
-0.162021 -0.29434201 -0.39939299
-0.161943 -0.29427466 -0.39938131
-0.16167289 -0.29427955 -0.3992922
-0.16151237 -0.29429382 -0.3992388
-0.1392412 -0.29431638 -0.39921743
-0.13907221 -0.2942864 -0.39922839
-0.13888 -0.29428366 -0.39927101
-0.13862501 -0.29430133 -0.39934203
-0.161933 -0.2940985 -0.399396
-0.16165529 -0.29408941 -0.39931044
-0.16149233 -0.2940836 -0.39926359
-0.16131265 -0.29404199 -0.39921966
-0.13923179 -0.2941308 -0.39921516
-0.13910483 -0.294126 -0.39921498
-0.13887051 -0.29410699 -0.39927799
-0.138614 -0.29408601 -0.39933369
-0.16165724 -0.29391989 -0.39934215
-0.16150115 -0.29389328 -0.39930075
-0.16132466 -0.29387844 -0.39925581
-0.16115101 -0.29381001 -0.399205
-0.139239 -0.29390201 -0.39924133
-0.13911273 -0.29390544 -0.3992219
-0.13886233 -0.29392567 -0.39925566
-0.138605 -0.293908 -0.39933652
-0.13859899 -0.29380101 -0.39932999
-0.16166233 -0.2937175 -0.39937615
-0.16152991 -0.29372165 -0.39932582
-0.16131483 -0.29370201 -0.39926699
-0.16114551 -0.29370499 -0.39921251
-0.13922733 -0.29368833 -0.39924565
-0.13909884 -0.29369843 -0.39923897
-0.13885067 -0.29371235 -0.39926267
-0.13859349 -0.29369402 -0.3993355
-0.1616466 -0.29351941 -0.39939135
-0.16151108 -0.29351833 -0.39934993
-0.16130477 -0.29352689 -0.39928788
-0.16113533 -0.293529 -0.39922902
-0.13921949 -0.29350701 -0.399207
-0.13908742 -0.2934846 -0.399241
-0.13883799 -0.29349968 -0.39928463
-0.138583 -0.29351532 -0.39935565
-0.16161899 -0.293363 -0.3994
-0.16148989 -0.2933225 -0.39936891
-0.16129255 -0.29331613 -0.39931089
-0.16112299 -0.29331899 -0.39926267
-0.160945 -0.29332367 -0.39921269
-0.13920933 -0.29333031 -0.3992323
-0.13909571 -0.29329044 -0.39925414
-0.13890967 -0.29328385 -0.39931104
-0.13857101 -0.29330334 -0.39937934
-0.16143133 -0.29315034 -0.39937833
-0.16129 -0.29311475 -0.39934751
-0.16113275 -0.29309076 -0.399297
-0.16088851 -0.29311532 -0.39922765
-0.160749 -0.293055 -0.399203
-0.139249 -0.29311401 -0.399239
-0.1391194 -0.29311046 -0.39925429
-0.13888159 -0.29308459 -0.39932939
-0.13855965 -0.29308867 -0.39937997
-0.1612905 -0.29291326 -0.39937773
-0.16114433 -0.29289699 -0.39933333
-0.16087584 -0.29290536 -0.39926234
-0.16074066 -0.29291499 -0.39922133
-0.160548 -0.29291901 -0.39921534
-0.13928999 -0.29289666 -0.39921769
-0.13910817 -0.29291126 -0.39926729
-0.1389325 -0.29292423 -0.39931574
-0.1388 -0.292862 -0.39937401
-0.16113167 -0.29268649 -0.39936551
-0.16086318 -0.29269567 -0.39929798
-0.16072701 -0.29270601 -0.39926198
-0.16048516 -0.29269049 -0.39923036
-0.160355 -0.29265401 -0.39920801
-0.13927899 -0.29268199 -0.39920869
-0.1390955 -0.29269898 -0.39929911
-0.13896234 -0.29270899 -0.39933336
-0.13879268 -0.29271966 -0.39937297
-0.16109651 -0.29249349 -0.39939076
-0.16085017 -0.29248533 -0.39933696
-0.16071467 -0.2924957 -0.39930034
-0.16046973 -0.292514 -0.39925772
-0.1603128 -0.29249921 -0.39922363
-0.139514 -0.292454 -0.39920899
-0.13926899 -0.29250449 -0.39923149
-0.13908368 -0.29248542 -0.3993125
-0.13894999 -0.2924957 -0.39935669
-0.138781 -0.29250535 -0.39938131
-0.161064 -0.292337 -0.39939901
-0.16088501 -0.29234499 -0.399389
-0.16074666 -0.29228231 -0.39935979
-0.16046816 -0.29229301 -0.39930618
-0.16030847 -0.29231009 -0.39926693
-0.16012225 -0.29225349 -0.39923075
-0.139689 -0.29222599 -0.399205
-0.13950534 -0.29231367 -0.39924368
-0.139258 -0.29232767 -0.39926299
-0.13909075 -0.29228038 -0.39934027
-0.13896583 -0.29227984 -0.39935699
-0.13876951 -0.292292 -0.39939702
-0.16069001 -0.29211098 -0.399387
-0.160455 -0.29208302 -0.39934549
-0.16031879 -0.29209334 -0.39931712
-0.16011234 -0.29209602 -0.39926165
-0.159881 -0.29210499 -0.39923033
-0.15973499 -0.29203901 -0.39920601
-0.139844 -0.29201099 -0.399203
-0.13968132 -0.29208466 -0.39921132
-0.13954334 -0.29209533 -0.39924452
-0.13924567 -0.292115 -0.39928401
-0.13909543 -0.29210714 -0.39934
-0.138956 -0.29210225 -0.39937052
-0.138758 -0.29207835 -0.39939567
-0.16043133 -0.29192069 -0.39937565
-0.16031501 -0.2918753 -0.39935821
-0.1600989 -0.2918863 -0.3993119
-0.159868 -0.29189566 -0.39927331
-0.15972666 -0.29190066 -0.39923868
-0.15953787 -0.29188871 -0.39921743
-0.139836 -0.29186901 -0.39920399
-0.13966966 -0.29187134 -0.39922729
-0.13953151 -0.29188266 -0.39926085
-0.13923366 -0.29190168 -0.39930299
-0.13907778 -0.29191402 -0.39934215
-0.13896075 -0.29194051 -0.39937475
-0.138749 -0.291899 -0.39939201
-0.16030014 -0.2916984 -0.39938352
-0.16008611 -0.29167622 -0.39935058
-0.15985501 -0.29168633 -0.39931765
-0.159713 -0.29169133 -0.39929333
-0.15951782 -0.29170859 -0.39923808
-0.15937576 -0.29169425 -0.39922601
-0.13982733 -0.29172701 -0.39923534
-0.139659 -0.29169399 -0.399252
-0.1395098 -0.29168421 -0.3992812
-0.13922133 -0.291688 -0.39932099
-0.13906632 -0.29170048 -0.39935219
-0.13893534 -0.29170868 -0.39936566
-0.16009139 -0.2915068 -0.39937642
-0.15988101 -0.291473 -0.39935699
-0.15970099 -0.29147899 -0.39931235
-0.15950574 -0.29149732 -0.39926359
-0.15931112 -0.29150119 -0.39924198
-0.159141 -0.29145834 -0.39920935
-0.139814 -0.29151535 -0.39927098
-0.139649 -0.29151568 -0.39925835
-0.1395206 -0.2915124 -0.39929157
-0.13921 -0.291475 -0.39932466
-0.13906088 -0.2914955 -0.39937523
-0.138954 -0.29156601 -0.399387
-0.16007 -0.29139701 -0.399398
-0.15988533 -0.29133168 -0.39938203
-0.15968999 -0.29130399 -0.39934599
-0.1594926 -0.29128692 -0.39930382
-0.15929811 -0.29129019 -0.39927843
-0.15909025 -0.29128751 -0.39922774
-0.15887399 -0.29130664 -0.39921451
-0.158731 -0.29124999 -0.39921299
-0.14005625 -0.291244 -0.39920399
-0.13989301 -0.2912975 -0.39924151
-0.13967726 -0.2912845 -0.39928848
-0.13949901 -0.29131433 -0.39931485
-0.139202 -0.29133299 -0.39933899
-0.13908567 -0.29128167 -0.39938581
-0.13898601 -0.291208 -0.399396
-0.159679 -0.29112899 -0.399382
-0.15947916 -0.29107749 -0.39935291
-0.15928532 -0.29107976 -0.39931655
-0.15910517 -0.29108569 -0.399286
-0.1589185 -0.29110363 -0.39925179
-0.15869042 -0.29110187 -0.39922801
-0.158483 -0.291044 -0.39921001
-0.1583505 -0.29104799 -0.39920801
-0.14004876 -0.29110199 -0.399212
-0.13997166 -0.29108 -0.39921865
-0.13970684 -0.29109034 -0.39932021
-0.13948683 -0.29110101 -0.39933863
-0.13913867 -0.29114866 -0.39938831
-0.138963 -0.29108834 -0.39938498
-0.15944667 -0.29090351 -0.39938632
-0.15927483 -0.290905 -0.39934683
-0.15909199 -0.29087552 -0.39933145
-0.15894316 -0.29088387 -0.39929435
-0.15869732 -0.29089475 -0.399248
-0.15847434 -0.29090366 -0.39924535
-0.15829745 -0.2909089 -0.39923057
-0.15808167 -0.29086998 -0.39921299
-0.15780701 -0.29085699 -0.399207
-0.14006944 -0.29090697 -0.39923367
-0.13995999 -0.290903 -0.39925402
-0.13969401 -0.29087648 -0.39934501
-0.13947433 -0.2908875 -0.39936116
-0.139175 -0.29087102 -0.39939398
-0.15944099 -0.29079899 -0.39939699
-0.15928251 -0.29074597 -0.39938149
-0.15912871 -0.29071268 -0.39936727
-0.15892883 -0.29067451 -0.39936033
-0.15869074 -0.29069236 -0.39931774
-0.1584955 -0.29067525 -0.39930075
-0.15832867 -0.29069716 -0.39927581
-0.15810233 -0.29070476 -0.39925078
-0.157892 -0.29073024 -0.39922151
-0.15769063 -0.29069486 -0.39922723
-0.15755767 -0.29067099 -0.39922667
-0.157351 -0.29060099 -0.39921099
-0.140489 -0.290649 -0.399216
-0.1402445 -0.29066551 -0.39924699
-0.14008699 -0.29071534 -0.39925966
-0.13996226 -0.29070526 -0.39927053
-0.13971233 -0.29071066 -0.3993617
-0.13951099 -0.29070598 -0.39936724
-0.13916899 -0.290764 -0.39939699
-0.159035 -0.290562 -0.39938849
-0.15888301 -0.29053599 -0.39938
-0.15868825 -0.29048449 -0.39936301
-0.15851967 -0.29047966 -0.39932981
-0.158316 -0.29048634 -0.3993102
-0.15811701 -0.29050317 -0.39929229
-0.1579428 -0.29048499 -0.3992658
-0.15769659 -0.29052523 -0.39926478
-0.15753587 -0.29051 -0.3992497
-0.157345 -0.29049599 -0.399225
-0.1571205 -0.29043448 -0.39920649
-0.140921 -0.29044601 -0.399203
-0.140714 -0.29045701 -0.399203
-0.14048 -0.290508 -0.39923599
-0.14023399 -0.29048666 -0.39926898
-0.14009312 -0.29049337 -0.39927578
-0.13996416 -0.2905072 -0.39928615
-0.13975801 -0.29051936 -0.39935267
-0.139512 -0.29051825 -0.39937365
-0.15864567 -0.29031566 -0.39938667
-0.158493 -0.29028398 -0.39936763
-0.15830284 -0.29027581 -0.39934954
-0.15812382 -0.29028118 -0.3993268
-0.15793967 -0.29028764 -0.39929935
-0.15769465 -0.29030573 -0.39929557
-0.15753201 -0.29031956 -0.39929166
-0.15733366 -0.29032031 -0.39926401
-0.15712719 -0.2903142 -0.39924103
-0.15693432 -0.290272 -0.39920935
-0.1566925 -0.29024199 -0.399212
-0.156524 -0.290218 -0.39920801
-0.141214 -0.290216 -0.39920801
-0.1410045 -0.290263 -0.39920801
-0.14088801 -0.29028824 -0.39922076
-0.14070499 -0.29031667 -0.39923367
-0.14047034 -0.29032898 -0.39924932
-0.14022233 -0.29027399 -0.39928266
-0.1400809 -0.29028067 -0.3992995
-0.13995232 -0.29029366 -0.39929831
-0.13974799 -0.29030335 -0.39932033
-0.1395375 -0.2903465 -0.39939249
-0.139397 -0.29039401 -0.39939299
-0.15862501 -0.29019701 -0.399396
-0.158425 -0.29009598 -0.39938501
-0.15829225 -0.29010051 -0.39937776
-0.15810201 -0.29008579 -0.3993704
-0.15792684 -0.29007632 -0.39933431
-0.15768167 -0.290095 -0.39933589
-0.15751912 -0.29010868 -0.39933011
-0.15732101 -0.29010999 -0.39930132
-0.1571015 -0.29011819 -0.3992672
-0.1569158 -0.29011863 -0.39924717
-0.15669537 -0.29008344 -0.39923504
-0.15651534 -0.29007769 -0.39924431
-0.15626299 -0.29006052 -0.39921901
-0.15607333 -0.29007635 -0.399207
-0.15594649 -0.290032 -0.39920849
-0.141807 -0.29003701 -0.399203
-0.14124575 -0.29007098 -0.399212
-0.141055 -0.29004401 -0.39920849
-0.14090101 -0.29009068 -0.39922956
-0.14069267 -0.29010367 -0.39926466
-0.14045733 -0.29011667 -0.39929733
-0.140213 -0.290095 -0.3992745
-0.140071 -0.29010284 -0.399308
-0.13993968 -0.29008064 -0.39932701
-0.13973434 -0.29009101 -0.39937434
-0.15824001 -0.289994 -0.39939201
-0.15811121 -0.2899144 -0.3993836
-0.15791625 -0.2899 -0.39936602
-0.15766855 -0.28988388 -0.39937657
-0.1575069 -0.28989723 -0.39935833
-0.157308 -0.28989899 -0.3993403
-0.15708832 -0.28990683 -0.3993032
-0.15689149 -0.28992149 -0.39927199
-0.15673256 -0.28991255 -0.39925799
-0.15655001 -0.28990373 -0.39927173
-0.156252 -0.28988501 -0.39925134
-0.1560562 -0.28987461 -0.39923039
-0.15592143 -0.28988329 -0.39923117
-0.155726 -0.289839 -0.39921999
-0.15559368 -0.28991365 -0.39921901
-0.15531257 -0.28990957 -0.39921901
-0.15511902 -0.28988913 -0.39921871
-0.154945 -0.28988233 -0.39921102
-0.154744 -0.28982151 -0.399203
-0.154531 -0.28983501 -0.399214
-0.15265399 -0.289837 -0.39921099
-0.141803 -0.289965 -0.399205
-0.1415015 -0.28987598 -0.399214
-0.14135467 -0.28992298 -0.39921331
-0.14112151 -0.28989926 -0.399234
-0.1409163 -0.28988555 -0.39923742
-0.140726 -0.28987399 -0.39927179
-0.14044566 -0.28990367 -0.39930102
-0.14020449 -0.28995299 -0.39930999
-0.14008199 -0.28992456 -0.39933944
-0.13994381 -0.28989381 -0.39934197
-0.158095 -0.28978699 -0.39938998
-0.15790901 -0.28979498 -0.39939648
-0.15751475 -0.28971136 -0.39938927
-0.15729468 -0.28968835 -0.39937797
-0.15709099 -0.28970939 -0.39933658
-0.15689586 -0.28969902 -0.39931655
-0.15671323 -0.28972301 -0.39929989
-0.15653916 -0.28972748 -0.39929783
-0.15623967 -0.289673 -0.39928433
-0.15605624 -0.2896935 -0.39926898
-0.15590809 -0.28967816 -0.39926615
-0.155717 -0.28969866 -0.39924565
-0.15557934 -0.28970298 -0.39927933
-0.15529077 -0.28971779 -0.39924023
-0.15511987 -0.28971776 -0.39924273
-0.15493266 -0.28967035 -0.39923599
-0.15469277 -0.28968155 -0.39923131
-0.154479 -0.28969586 -0.39923048
-0.15423301 -0.28963599 -0.399216
-0.15413667 -0.289664 -0.39920899
-0.1536452 -0.2896632 -0.39921817
-0.153543 -0.28965199 -0.39922398
-0.15332299 -0.289621 -0.39920801
-0.15310149 -0.28969213 -0.39922336
-0.15292901 -0.28964198 -0.399212
-0.152647 -0.28969598 -0.39921451
-0.15252241 -0.28965539 -0.39920324
-0.15166301 -0.28970668 -0.3992193
-0.151435 -0.289666 -0.39921001
-0.15131134 -0.28969064 -0.39921334
-0.15110499 -0.289635 -0.39920449
-0.141719 -0.28965756 -0.39921311
-0.141491 -0.28969899 -0.39923167
-0.141342 -0.28970966 -0.39923534
-0.14111115 -0.28972167 -0.39925686
-0.14092524 -0.28969628 -0.39925724
-0.14072551 -0.28967467 -0.39929631
-0.14043333 -0.28969067 -0.3993257
-0.14011356 -0.28970921 -0.39936307
-0.13994299 -0.28972122 -0.39937034
-0.157286 -0.28954601 -0.39939699
-0.15713599 -0.28951699 -0.39938849
-0.15692113 -0.28950328 -0.3993535
-0.15670991 -0.28950435 -0.3993462
-0.15652649 -0.28951618 -0.39933217
-0.1562285 -0.289498 -0.39932099
-0.1560635 -0.289498 -0.39930302
-0.1559108 -0.28948691 -0.39929938
-0.15572801 -0.28946874 -0.39928401
-0.155568 -0.28949133 -0.39928865
-0.15527812 -0.28950664 -0.39927146
-0.15510277 -0.28951544 -0.39927113
-0.15492201 -0.28949302 -0.39925951
-0.15472449 -0.28950453 -0.39925826
-0.15450923 -0.28948057 -0.39926255
-0.15425633 -0.28949568 -0.39924133
-0.15414433 -0.28949812 -0.39922845
-0.15387125 -0.28948674 -0.39922601
-0.15366621 -0.28949058 -0.39923277
-0.15353201 -0.28947499 -0.39925668
-0.15331399 -0.28947935 -0.39923063
-0.15310355 -0.28949723 -0.39925158
-0.15292017 -0.28950101 -0.39923918
-0.15263735 -0.28951767 -0.39921331
-0.15250155 -0.28950489 -0.39922965
-0.152246 -0.289437 -0.39920402
-0.15208761 -0.28943521 -0.39921701
-0.15189767 -0.28948882 -0.39921463
-0.1517175 -0.28949735 -0.39923599
-0.15147288 -0.28952053 -0.3992399
-0.15131567 -0.28952649 -0.39924267
-0.15110862 -0.28951925 -0.39922249
-0.150838 -0.28940499 -0.39921001
-0.15069599 -0.28941101 -0.39920801
-0.149422 -0.28941199 -0.39920101
-0.14871401 -0.28945148 -0.39920449
-0.14168501 -0.2894949 -0.39925891
-0.14152661 -0.28947037 -0.39925361
-0.14132933 -0.28949699 -0.39926538
-0.14109866 -0.28950849 -0.39927733
-0.1409145 -0.28951967 -0.39929333
-0.14071549 -0.289496 -0.39930648
-0.14041966 -0.28947732 -0.39937401
-0.1401021 -0.28949478 -0.3993648
-0.13994572 -0.28951529 -0.39938769
-0.1569515 -0.28935099 -0.399387
-0.15671667 -0.28932211 -0.39938486
-0.15651299 -0.289305 -0.39937916
-0.15621768 -0.28932098 -0.39935967
-0.15605301 -0.28932235 -0.39933196
-0.15592657 -0.28930685 -0.39932799
-0.15574117 -0.28927416 -0.39931402
-0.15555601 -0.28927866 -0.39931235
-0.155302 -0.28929216 -0.39929083
-0.15511668 -0.28930217 -0.39928898
-0.15491199 -0.28931668 -0.39927664
-0.15471466 -0.2893275 -0.39927414
-0.15448585 -0.28928944 -0.39928299
-0.15424435 -0.28928366 -0.39925802
-0.15413189 -0.2892853 -0.39924824
-0.153861 -0.28930983 -0.39924231
-0.15370901 -0.28931698 -0.39926901
-0.1535656 -0.28931639 -0.3992756
-0.1533035 -0.289303 -0.3992635
-0.15309054 -0.28928578 -0.39928481
-0.15290816 -0.28928882 -0.39925766
-0.15262367 -0.28930601 -0.39926365
-0.15248825 -0.2893174 -0.3992579
-0.1522375 -0.289296 -0.39921999
-0.15211976 -0.289298 -0.39923602
-0.15192188 -0.28927532 -0.39924747
-0.15170585 -0.28928435 -0.39924368
-0.15146066 -0.28930879 -0.39926344
-0.15130351 -0.289314 -0.399261
-0.15109687 -0.28932548 -0.39925277
-0.15090267 -0.28930584 -0.39922881
-0.1506885 -0.289305 -0.39924449
-0.15053087 -0.28926113 -0.39921975
-0.150307 -0.28926051 -0.39920998
-0.14992814 -0.28928941 -0.39921483
-0.14972143 -0.28929085 -0.39920887
-0.14941549 -0.289305 -0.39922351
-0.149077 -0.28928718 -0.39921567
-0.1489325 -0.28921801 -0.399207
-0.14869049 -0.28932673 -0.3992075
-0.1485915 -0.2892755 -0.39920902
-0.14768334 -0.28923932 -0.39921466
-0.147522 -0.28921732 -0.39920935
-0.147387 -0.28922501 -0.399205
-0.14224675 -0.28928325 -0.39920649
-0.141968 -0.28923899 -0.39921299
-0.14170471 -0.28931329 -0.39926514
-0.141516 -0.2892856 -0.39927101
-0.14131767 -0.28928366 -0.39928302
-0.14108634 -0.28929517 -0.3993032
-0.14090234 -0.28930601 -0.39930865
-0.14070483 -0.28931916 -0.3993403
-0.14041001 -0.28929999 -0.39938349
-0.14009333 -0.28935266 -0.399389
-0.13992199 -0.28936601 -0.399396
-0.15646 -0.289161 -0.39939499
-0.156206 -0.28914601 -0.39939499
-0.15604001 -0.28910968 -0.39936233
-0.15591544 -0.28911632 -0.39935479
-0.15573075 -0.28909802 -0.39933926
-0.155545 -0.289103 -0.39934701
-0.15528983 -0.28907964 -0.39931551
-0.15510458 -0.28909001 -0.39930674
-0.15489934 -0.28910467 -0.39931333
-0.15470333 -0.28911433 -0.39927983
-0.15451343 -0.28912428 -0.39930201
-0.15427351 -0.28906977 -0.39929426
-0.15411343 -0.2890954 -0.3992863
-0.1538485 -0.28909817 -0.39927447
-0.15369566 -0.28910515 -0.3993125
-0.15354633 -0.28911966 -0.3993125
-0.153292 -0.28912768 -0.39931098
-0.153078 -0.28907409 -0.39931864
-0.15289567 -0.28907683 -0.3992897
-0.152611 -0.28909433 -0.39930201
-0.15247592 -0.28910503 -0.39927885
-0.15222634 -0.28911933 -0.39926198
-0.15210932 -0.289121 -0.39926115
-0.15191182 -0.28909814 -0.39926836
-0.15170701 -0.2890864 -0.39927262
-0.15145549 -0.28910398 -0.39927036
-0.15130599 -0.28909114 -0.39929014
-0.151116 -0.28910184 -0.39927766
-0.15090543 -0.28911665 -0.39925542
-0.15067901 -0.28912798 -0.399248
-0.15050776 -0.28907624 -0.39924124
-0.15029599 -0.28908399 -0.39924634
-0.14990634 -0.28909791 -0.39923754
-0.14970884 -0.28910932 -0.39924493
-0.149405 -0.28912935 -0.39924666
-0.14906466 -0.28907433 -0.39923885
-0.14892417 -0.28907683 -0.39922535
-0.14869399 -0.28909549 -0.39922771
-0.1485136 -0.28908679 -0.39923161
-0.148241 -0.28904101 -0.39920601
-0.1480415 -0.289087 -0.399216
-0.14791876 -0.28907549 -0.399212
-0.14768401 -0.28907451 -0.39925849
-0.14751288 -0.28907654 -0.3992461
-0.1473206 -0.28907162 -0.39923137
-0.14691834 -0.28906098 -0.39920565
-0.143649 -0.28900301 -0.39920399
-0.142639 -0.28912833 -0.39921632
-0.14245051 -0.28903902 -0.39921671
-0.14229527 -0.28909513 -0.39922625
-0.141959 -0.289096 -0.39924702
-0.14168489 -0.28912035 -0.39925489
-0.14153039 -0.28911477 -0.39928898
-0.1413075 -0.28910601 -0.399299
-0.14111325 -0.28909674 -0.399306
-0.14092757 -0.2890906 -0.39933857
-0.14069201 -0.28910598 -0.39937401
-0.140402 -0.28915697 -0.39939401
-0.15602949 -0.28893298 -0.39938748
-0.15591167 -0.28892651 -0.39938667
-0.15572034 -0.28892067 -0.39936218
-0.15553467 -0.28892568 -0.39936635
-0.15527874 -0.28890276 -0.39934549
-0.15509151 -0.28887817 -0.39934766
-0.15488701 -0.28889301 -0.39933434
-0.15469049 -0.28890282 -0.39931214
-0.1545195 -0.28891048 -0.3993305
-0.15432319 -0.28891119 -0.399317
-0.15411487 -0.2889235 -0.39932677
-0.153843 -0.288901 -0.3993164
-0.15369973 -0.28888217 -0.39933443
-0.1535335 -0.28890732 -0.39934352
-0.15327966 -0.28891537 -0.39933696
-0.15306734 -0.28889701 -0.39934349
-0.15288524 -0.28889948 -0.39930749
-0.152603 -0.28895301 -0.399315
-0.15248908 -0.28889048 -0.39930761
-0.15226001 -0.28888774 -0.39929122
-0.15209617 -0.28890917 -0.39930001
-0.15190133 -0.28892148 -0.39929155
-0.1516704 -0.28891677 -0.3992998
-0.15146017 -0.28888085 -0.39929768
-0.151315 -0.28888911 -0.39932311
-0.15110317 -0.28888881 -0.39931032
-0.15089211 -0.28890422 -0.39929909
-0.150666 -0.28891566 -0.39928532
-0.15049687 -0.28889927 -0.39927039
-0.15028551 -0.28890699 -0.3992635
-0.14989355 -0.28888553 -0.39927411
-0.14970511 -0.28890228 -0.3992736
-0.149598 -0.288838 -0.39928001
-0.14939201 -0.28891698 -0.3992863
-0.14905375 -0.28889799 -0.39927399
-0.14891374 -0.288899 -0.39925325
-0.14868151 -0.28888336 -0.39925483
-0.1485028 -0.28890362 -0.39925522
-0.14827399 -0.28887951 -0.3992365
-0.14804825 -0.2889275 -0.39922374
-0.14791335 -0.28891006 -0.39922544
-0.1476745 -0.28889698 -0.39925975
-0.14750266 -0.288899 -0.39925817
-0.1472818 -0.28888759 -0.3992404
-0.14689019 -0.2889106 -0.39921001
-0.146681 -0.2888872 -0.39921561
-0.146302 -0.28885099 -0.39920199
-0.14606 -0.288802 -0.399212
-0.1457395 -0.28881252 -0.39920998
-0.144403 -0.28881299 -0.399205
-0.14435799 -0.288818 -0.39920399
-0.144077 -0.28883499 -0.399207
-0.14364299 -0.28889701 -0.39921498
-0.14349641 -0.2888934 -0.39920881
-0.1430525 -0.2888625 -0.399232
-0.142932 -0.28885302 -0.39921033
-0.14267722 -0.2888996 -0.39923459
-0.142463 -0.28891087 -0.39922529
-0.1422918 -0.2888858 -0.3992534
-0.14218399 -0.28884101 -0.39924699
-0.141947 -0.28888264 -0.39925566
-0.14167255 -0.28890756 -0.39927712
-0.14150684 -0.28891531 -0.39930734
-0.141297 -0.288928 -0.3993257
-0.14113849 -0.28889948 -0.39934498
-0.14090562 -0.28888625 -0.39934826
-0.14070974 -0.28890899 -0.39938128
-0.15575732 -0.28870735 -0.39938733
-0.15552449 -0.28874803 -0.39938802
-0.1552612 -0.28874141 -0.39937881
-0.155081 -0.28870162 -0.3993755
-0.154875 -0.28868034 -0.39935398
-0.15467751 -0.28869066 -0.39935184
-0.15450701 -0.28869817 -0.39935669
-0.154294 -0.28871399 -0.39934751
-0.15409678 -0.2887212 -0.39935842
-0.15385567 -0.28867498 -0.399376
-0.15370999 -0.28867877 -0.39936
-0.15352049 -0.28869569 -0.39938352
-0.15326633 -0.28870335 -0.39937401
-0.15306439 -0.28872901 -0.39936253
-0.15289228 -0.28871271 -0.39934829
-0.15249291 -0.28868282 -0.39934015
-0.1523148 -0.28870481 -0.39931542
-0.15210043 -0.28868586 -0.39931726
-0.15188912 -0.28870833 -0.39930832
-0.1516715 -0.28871813 -0.39932966
-0.15145001 -0.28870451 -0.39931622
-0.15130311 -0.28867617 -0.39933985
-0.15109067 -0.28867701 -0.39933869
-0.15092184 -0.28868964 -0.39932701
-0.15072484 -0.28870097 -0.39931068
-0.15048642 -0.28872249 -0.39929426
-0.15027533 -0.28872934 -0.39928833
-0.14987224 -0.28868324 -0.39930177
-0.14971465 -0.28868112 -0.39930952
-0.14959 -0.28869668 -0.39930296
-0.149379 -0.28870499 -0.39932466
-0.14904283 -0.28872085 -0.39930603
-0.14890267 -0.28872284 -0.39928749
-0.14866281 -0.28868562 -0.39929262
-0.14855565 -0.28867432 -0.39929998
-0.148305 -0.28868333 -0.39926684
-0.14805001 -0.28869769 -0.39926434
-0.14790858 -0.28870341 -0.39925301
-0.14766467 -0.288719 -0.39927068
-0.14749333 -0.2887207 -0.39925969
-0.14730141 -0.2887148 -0.39923239
-0.14703099 -0.28867534 -0.39922699
-0.14688858 -0.28865337 -0.39921659
-0.146686 -0.28868732 -0.39923182
-0.14628962 -0.28869823 -0.39921451
-0.14605451 -0.28869399 -0.399207
-0.14572498 -0.28868601 -0.39923158
-0.14547645 -0.28868568 -0.39922741
-0.14530699 -0.2886838 -0.39922541
-0.14512233 -0.28870466 -0.39922717
-0.144897 -0.288645 -0.39921001
-0.144372 -0.28867435 -0.39922583
-0.14406933 -0.28869501 -0.39921165
-0.14398099 -0.288627 -0.39920199
-0.14363299 -0.28872034 -0.39922532
-0.14348544 -0.28872368 -0.39922732
-0.143282 -0.28863949 -0.39921001
-0.143042 -0.28868565 -0.39925337
-0.14290757 -0.28868827 -0.39922285
-0.14267783 -0.28870183 -0.39926866
-0.14247049 -0.28871617 -0.39924154
-0.14233261 -0.28871787 -0.39926559
-0.1421755 -0.28869998 -0.39926553
-0.141937 -0.28870499 -0.39926699
-0.14166762 -0.28870264 -0.39931339
-0.14150916 -0.28869185 -0.39932844
-0.141285 -0.28871468 -0.39934197
-0.141128 -0.28872201 -0.39936766
-0.14091499 -0.28871346 -0.39936659
-0.14072999 -0.28874901 -0.39939401
-0.155095 -0.28855816 -0.39938435
-0.154864 -0.2885035 -0.39938551
-0.1546572 -0.28849402 -0.39938298
-0.15451102 -0.28853199 -0.39938498
-0.154312 -0.28854832 -0.399376
-0.15410455 -0.28851712 -0.39938924
-0.153844 -0.288463 -0.39939401
-0.15369968 -0.28850234 -0.39938268
-0.15352301 -0.28852868 -0.39939532
-0.153257 -0.288526 -0.39938301
-0.15308125 -0.28852478 -0.39939597
-0.15294701 -0.28852552 -0.39937174
-0.15279435 -0.28851399 -0.39934567
-0.15249999 -0.28850967 -0.39936545
-0.15237667 -0.2884753 -0.39934734
-0.15211099 -0.28848347 -0.39934245
-0.15188713 -0.28850424 -0.39932549
-0.15174374 -0.288488 -0.39935547
-0.15149032 -0.2885192 -0.39935464
-0.15129234 -0.28849933 -0.399369
-0.15107951 -0.28850001 -0.39937299
-0.1509095 -0.28847733 -0.39935565
-0.150712 -0.28848818 -0.39934599
-0.15048911 -0.28851661 -0.39932367
-0.150316 -0.28850263 -0.399331
-0.14989601 -0.28851917 -0.39932218
-0.14970937 -0.28848663 -0.39934662
-0.14957701 -0.28848332 -0.39933267
-0.14936633 -0.28849199 -0.39935866
-0.14906633 -0.288506 -0.39932868
-0.14892423 -0.28851059 -0.39933071
-0.14866619 -0.288515 -0.39930937
-0.148545 -0.28849798 -0.39932698
-0.14827621 -0.28848559 -0.3992956
-0.148037 -0.288486 -0.39930299
-0.14791581 -0.28849599 -0.39928323
-0.14768837 -0.28849649 -0.39929575
-0.1474811 -0.28850833 -0.39928377
-0.14729139 -0.28853083 -0.39924639
-0.14708033 -0.28848168 -0.39925233
-0.14690834 -0.288504 -0.39923584
-0.1467575 -0.288504 -0.39922202
-0.14650933 -0.288481 -0.39923367
-0.14628567 -0.28849378 -0.39923111
-0.146045 -0.28851667 -0.39920568
-0.145915 -0.28851989 -0.3992188
-0.1457288 -0.28851438 -0.39925301
-0.14548244 -0.28848329 -0.39926571
-0.14531001 -0.28847536 -0.399259
-0.14511032 -0.28849185 -0.39924785
-0.14488934 -0.28850365 -0.39922833
-0.14447625 -0.28850776 -0.39921448
-0.14436175 -0.28849602 -0.39924377
-0.14412221 -0.28847766 -0.39922288
-0.14397299 -0.28848365 -0.39921367
-0.14362101 -0.28850701 -0.39924169
-0.14347357 -0.28851044 -0.399243
-0.1432735 -0.28849798 -0.39923102
-0.14303167 -0.288472 -0.39924702
-0.14288442 -0.2884973 -0.39926073
-0.14269984 -0.28848749 -0.39927134
-0.14247786 -0.28849146 -0.39927682
-0.14231177 -0.28851444 -0.39929166
-0.14216501 -0.28852132 -0.39929137
-0.14192733 -0.28852668 -0.39928067
-0.14167683 -0.28847781 -0.39933285
-0.14151755 -0.28848889 -0.39935246
-0.14127234 -0.28850201 -0.39937004
-0.1411185 -0.28854501 -0.399378
-0.1409685 -0.28855199 -0.39937449
-0.15383801 -0.28835499 -0.39938998
-0.15374926 -0.28833926 -0.399387
-0.152922 -0.288367 -0.39939699
-0.15278099 -0.28830099 -0.39938831
-0.15244563 -0.28833237 -0.39937797
-0.152366 -0.28829902 -0.39936501
-0.1520877 -0.28829214 -0.39937487
-0.15190068 -0.28828314 -0.39938
-0.15175118 -0.28829101 -0.39938116
-0.15143199 -0.2883288 -0.39938003
-0.15127425 -0.28833902 -0.39939174
-0.15111466 -0.28834632 -0.39939034
-0.1508995 -0.28830051 -0.39937025
-0.1506995 -0.28827584 -0.39938116
-0.15048 -0.28830615 -0.39936799
-0.15031818 -0.28830332 -0.39935815
-0.14989482 -0.28831801 -0.39935586
-0.14972335 -0.28831881 -0.39935538
-0.149565 -0.28830701 -0.3993865
-0.14935465 -0.28827867 -0.39936566
-0.14905368 -0.28829333 -0.39936134
-0.14891234 -0.28829786 -0.39934632
-0.14864765 -0.28831717 -0.39934203
-0.14853501 -0.28832033 -0.39934537
-0.14836866 -0.288326 -0.39933267
