0.0193195 0.0385646 0.999069 0.00811851
0.0197773 0.0382909 0.999071 0.00433034
0.0196894 0.0384242 0.999068 0.00944419
0.0200162 0.0380157 0.999077 0.00771635
0.0204723 0.0378663 0.999073 0.00200145
0.0187914 0.0378425 0.999107 0.00703882
0.0181981 0.0377174 0.999123 0.00375577
0.0178798 0.0373064 0.999144 0.00063643
0.0198699 0.0375613 0.999097 0
0.0189219 0.0371671 0.99913 0
0.0184071 0.0368289 0.999152 0
0.0191052 0.036756 0.999142 0
0.0187471 0.0359585 0.999177 0
0.0174615 0.0350073 0.999234 0.00112961
0.0178143 0.0346045 0.999242 0
0.0178344 0.0341585 0.999257 0
0.0168885 0.0336447 0.999291 0
0.0171185 0.0335815 0.999289 0
0.0158861 0.0328557 0.999334 0.00344489
0.0141394 0.0321845 0.999382 0.0120198
0.0132204 0.0316746 0.999411 0.0108742
0.0131259 0.0307297 0.999442 0.00507326
0.0126464 0.0302213 0.999463 0.00476474
0.0119956 0.0296013 0.99949 0.00154312
0.0111924 0.028608 0.999528 0
0.0113719 0.0278752 0.999547 0.00234559
0.0104727 0.027267 0.999573 0.00235412
0.0121008 0.0270686 0.99956 0
0.0113394 0.0259979 0.999598 0
0.0114797 0.0254313 0.999611 0
0.00916844 0.0240634 0.999668 0
0.0074535 0.0230591 0.999706 0
0.00588165 0.0219789 0.999741 0.000650979
0.0062924 0.0215442 0.999748 0
0.00698447 0.0210758 0.999753 0
0.00722433 0.0205694 0.999762 0
0.00643971 0.0201102 0.999777 0
0.00622766 0.0193207 0.999794 0
0.00582546 0.0187067 0.999808 0
0.00608365 0.0175868 0.999827 0
0.00477593 0.0166543 0.99985 0
0.00340056 0.0159515 0.999867 0
0.00382043 0.0153159 0.999875 0
0.00271937 0.0146149 0.999889 0
0.00195796 0.0143505 0.999895 0
0.00226361 0.0136056 0.999905 0
0.0026904 0.0129281 0.999913 0
0.00150901 0.0117984 0.999929 0
0.00149083 0.0111743 0.999936 0
0.00102527 0.0103625 0.999946 0.00416589
0.0012499 0.00962159 0.999953 0.00286561
0.000599865 0.00879819 0.999961 0
0.00163225 0.00849688 0.999963 0
0.00184142 0.00759425 0.999969 0
0.00161887 0.00679248 0.999976 0
0.00325795 0.00623998 0.999975 0
0.00257462 0.00581051 0.99998 0
0.00303776 0.00532428 0.999981 0
0.00172642 0.00462936 0.999988 0
0.000552466 0.0038176 0.999992 0.00628438
5.54299e-05 0.00318529 0.999995 0.00592197
0.00062498 0.00240983 0.999997 0.00885631
0.00248827 0.00203136 0.999995 0.00152178
0.00113685 0.00180814 0.999998 0.00024524
0.00387023 0.00150908 0.999991 0
0.00292375 0.000955913 0.999995 0.00298071
0.00262259 0.000381932 0.999996 0.00777658
0.00302298 -0.000286313 0.999995 0.0113801
0.00250817 -0.0008544 0.999996 0.0125867
0.00288507 -0.00131446 0.999995 0.0115072
0.00258375 -0.00219168 0.999994 0.0162831
0.00121356 -0.00307963 0.999995 0.0216838
0.00320467 -0.00349792 0.999989 0.0196287
0.00319499 -0.00402962 0.999987 0.0180827
0.0043526 -0.00412675 0.999982 0.011183
0.00573558 -0.0045954 0.999973 0.00409334
0.00671233 -0.00481496 0.999966 0
0.00709202 -0.0055501 0.999959 0.000518232
0.00633736 -0.00633716 0.99996 0.000973507
0.00590468 -0.00707559 0.999958 0.00746415
0.00485015 -0.00793087 0.999957 0.0103845
0.00440763 -0.0086821 0.999953 0.0137693
0.00552203 -0.00919826 0.999942 0.0166514
0.00608757 -0.00957271 0.999936 0.0119218
0.00724068 -0.00980056 0.999926 0.00714451
0.00636867 -0.0102017 0.999928 0.00546798
0.00717477 -0.0105589 0.999919 0.00427399
0.00797398 -0.0110729 0.999907 0.00679434
0.00668256 -0.0120086 0.999906 0.00701334
0.00742866 -0.0123257 0.999896 0.00839276
0.00730033 -0.013625 0.99988 0.0169465
0.00647348 -0.0146266 0.999872 0.0184391
0.00718825 -0.0152038 0.999859 0.0158546
0.00623899 -0.0158351 0.999855 0.0186759
0.00696336 -0.0164586 0.99984 0.0173749
0.00829136 -0.0165109 0.999829 0.0142086
0.00780899 -0.0174469 0.999817 0.0157689
0.00837056 -0.0182311 0.999799 0.0170884
0.00955024 -0.0185282 0.999783 0.012394
0.0102472 -0.0191651 0.999764 0.00602637
0.0121596 -0.0196873 0.999732 0.00747455
0.0125578 -0.0204676 0.999712 0.00599643
0.0133609 -0.020952 0.999691 0.00497071
0.0139617 -0.0212913 0.999676 0
0.015905 -0.0218719 0.999634 0.00124871
0.0167716 -0.0226761 0.999602 0.00503243
0.0172901 -0.0228701 0.999589 0.00127009
0.0185744 -0.0232696 0.999557 0
0.0178195 -0.0236942 0.99956 0
0.0174791 -0.0242618 0.999553 0.000232588
0.0186701 -0.0245786 0.999524 0
0.0192127 -0.0250099 0.999503 0
0.0196515 -0.0253452 0.999486 0
0.0191047 -0.0257122 0.999487 0
0.0190065 -0.0258901 0.999484 0
0.0201732 -0.0260723 0.999457 0
0.0209728 -0.0262473 0.999435 0
0.0211016 -0.026483 0.999427 0
0.0210027 -0.0266029 0.999425 0
0.0199098 -0.0267253 0.999445 0
0.0176835 -0.0273361 0.99947 0.00814701
0.0182632 -0.0270582 0.999467 0.006961
0.0201518 -0.0262213 0.999453 0
0.0217978 -0.0256013 0.999435 0
0.0221671 -0.0254515 0.99943 0
0.0232772 -0.0248585 0.99942 0
0.0229761 -0.0246988 0.999431 0
0.0234714 -0.0243065 0.999429 0
0.023799 -0.0239702 0.999429 0.0030375
0.0233139 -0.0236412 0.999449 0.00796927
0.0244327 -0.0222753 0.999453 1.91418e-05
0.0248221 -0.0215672 0.999459 0.0018585
0.0249971 -0.0206009 0.999475 0.00292656
0.0256838 -0.0199426 0.999471 0.00875853
0.0266267 -0.0185995 0.999472 0.00525483
0.0266449 -0.0176026 0.99949 0.00959151
0.0265629 -0.0161874 0.999516 0.00744302
0.0267436 -0.0144884 0.999537 0.0028482
0.0259954 -0.0133144 0.999573 0.00531826
0.0258418 -0.0114814 0.9996 0.000476935
0.0264141 -0.0100398 0.999601 0.00334307
0.0279849 -0.00809552 0.999576 0
0.0288211 -0.00622831 0.999565 0
0.0285046 -0.00438429 0.999584 0
0.0306455 -0.00228903 0.999528 0
0.0304814 -0.000151186 0.999535 0
0.0300387 0.00212868 0.999546 0
0.0308584 0.00423846 0.999515 0
0.0302856 0.00653237 0.99952 0
0.0316638 0.00949369 0.999453 0
0.0319582 0.0114137 0.999424 0
0.0322714 0.0143862 0.999376 0
0.0331915 0.0171708 0.999302 0
0.0324416 0.0206148 0.999261 0
0.03315 0.0234234 0.999176 0
0.0322886 0.0263198 0.999132 0
0.0322846 0.0299381 0.99903 0
0.0318679 0.0333618 0.998935 0
0.0327719 0.0373282 0.998766 0
0.0334736 0.0407092 0.99861 0
0.0341634 0.0445382 0.998423 0
0.0345687 0.0485512 0.998222 0
0.033731 0.05318 0.998015 0
0.0346559 0.0574064 0.997749 0
0.0347918 0.0613433 0.99751 0
0.0349825 0.0660058 0.997206 0
0.035534 0.0702983 0.996893 0
0.0361342 0.0741158 0.996595 0
0.0370591 0.0783921 0.996234 0
0.0361325 0.0824237 0.995942 0
0.0361451 0.0869663 0.995555 0
0.0372928 0.0919108 0.995069 0
0.0372627 0.095219 0.994759 0
0.0381201 0.0980429 0.994452 0
0.0374817 0.101638 0.994115 0
0.0383561 0.105102 0.993722 0
0.039976 0.108242 0.99332 0
0.0398387 0.111455 0.992971 0
0.0405501 0.114972 0.992541 0
0.0401188 0.118666 0.992123 0
0.0406952 0.122229 0.991667 0
0.0412599 0.125785 0.991199 0
0.0417435 0.129374 0.990717 0
0.0415118 0.13314 0.990228 0
0.0428092 0.13758 0.989565 0.000456884
0.0428358 0.141767 0.988973 0.00302145
0.0421412 0.146307 0.988341 0.00530177
0.0418794 0.151128 0.987627 0.00806518
0.0410044 0.154679 0.987113 0.00750475
0.0401974 0.158645 0.986517 0.00876165
0.0396338 0.163449 0.985755 0.0103831
0.0396141 0.168933 0.984831 0.0129169
0.0398033 0.174018 0.983938 0.0149531
0.0383099 0.175725 0.983694 0.00993361
0.0388193 0.180057 0.98289 0.0108027
0.0374217 0.185695 0.981895 0.013103
0.0379793 0.190177 0.981015 0.0125427
0.0374036 0.195826 0.979925 0.0142812
0.0371173 0.200195 0.979053 0.0136469
0.0366379 0.204459 0.978189 0.0140612
0.0382638 0.20639 0.977721 0.0101872
0.0388134 0.210513 0.97682 0.00990266
0.0390676 0.213405 0.976182 0.00782631
0.0377004 0.217288 0.975379 0.0066491
0.0382544 0.220143 0.974717 0.00365418
0.0378776 0.223997 0.973854 0.00346861
0.0377285 0.229774 0.972513 0.00367972
0.0370852 0.235385 0.971194 0.00461163
0.036669 0.237297 0.970745 0.000945105
0.035281 0.242512 0.969507 0.000703897
0.0362127 0.247154 0.968299 0
0.0364187 0.252697 0.96686 0
0.0364026 0.258944 0.965206 0
0.0367966 0.265647 0.963368 0
0.0369488 0.271314 0.961781 0
0.0368069 0.277463 0.960031 0
0.0369898 0.284063 0.958092 0
0.0368966 0.289653 0.95642 0
0.0358615 0.294806 0.954884 0
0.0361078 0.301636 0.952739 0.000127081
0.0373532 0.307353 0.950862 0
0.0364629 0.314069 0.9487 0
0.0365656 0.319648 0.94683 0
0.0362677 0.32633 0.94456 0
0.036093 0.332985 0.942241 0
0.0360276 0.339619 0.939873 0
0.0531275 -0.242153 0.968782 0.00938357
0.0537011 -0.23518 0.970467 0.00935906
0.0536492 -0.227314 0.972343 0.00720599
0.0537028 -0.219835 0.974058 0.00616957
0.0532741 -0.223061 0.973348 0.0161579
0.0520864 -0.218833 0.974371 0.0186799
0.0525828 -0.207423 0.976837 0.0109503
0.0533126 -0.199803 0.978385 0.00846973
0.0533374 -0.194029 0.979545 0.00761705
0.05405 -0.186576 0.980953 0.00381215
0.0529516 -0.183613 0.981571 0.0062612
0.0528261 -0.176747 0.982838 0.00291869
0.0535856 -0.170125 0.983964 8.04627e-06
0.0537822 -0.166773 0.984527 0.0024838
0.0548922 -0.161201 0.985394 0
0.0548816 -0.157188 0.986043 0
0.0556772 -0.153404 0.986594 0
0.0550488 -0.149879 0.987171 0
0.0555028 -0.146489 0.987654 0
0.0533852 -0.143249 0.988246 0.00137718
0.0537415 -0.138631 0.988885 0
0.0535791 -0.134875 0.989413 0
0.0529089 -0.1306 0.990022 0
0.0532586 -0.126728 0.990507 0
0.0531152 -0.124101 0.990847 0
0.0541803 -0.120529 0.99123 0
0.054093 -0.117257 0.991627 0
0.0531935 -0.114484 0.992 0
0.0536273 -0.111874 0.992274 0
0.051 -0.109159 0.992715 0
0.0510713 -0.106465 0.993004 0
0.0522536 -0.103754 0.993229 0
0.0533646 -0.101247 0.993429 0
0.0539678 -0.0981771 0.993705 0
0.0527371 -0.096174 0.993966 0.00137467
0.0531255 -0.0937016 0.994182 1.43483e-05
0.0513102 -0.0937175 0.994276 0.00649802
0.0514676 -0.0909075 0.994528 0.00500275
0.0517656 -0.0892035 0.994667 0.00873641
0.050114 -0.0870882 0.994939 0.010863
0.0513269 -0.083963 0.995146 0.00843836
0.051203 -0.0826149 0.995265 0.0116753
0.0522272 -0.0805757 0.995379 0.0124504
0.0518797 -0.0785183 0.995562 0.0125107
0.05126 -0.0766244 0.995742 0.0122377
0.0504652 -0.0740629 0.995976 0.0134952
0.0496021 -0.0715325 0.996204 0.013986
0.0501075 -0.0690274 0.996356 0.0116875
0.0486372 -0.0668163 0.996579 0.0144923
0.0488205 -0.0637434 0.996772 0.00835873
0.0492175 -0.0610978 0.996918 0.0099783
0.0503986 -0.0579971 0.997044 0.0102951
0.0508709 -0.0553676 0.997169 0.0143761
0.0509576 -0.0522069 0.997335 0.0148541
0.0505395 -0.0490569 0.997517 0.017039
0.0496087 -0.0458927 0.997714 0.0186214
0.0508417 -0.0415189 0.997843 0.0177199
0.0507462 -0.0380696 0.997986 0.0138033
0.0496503 -0.034755 0.998162 0.0118714
0.0489528 -0.0307631 0.998327 0.0106973
0.0494956 -0.0273964 0.998398 0.00898223
0.0475014 -0.0229326 0.998608 0.00673034
0.0471281 -0.0194845 0.998699 0.00740235
0.0462861 -0.0169791 0.998784 0.00798489
0.0452101 -0.0134774 0.998887 0.00261107
0.047974 -0.00987384 0.9988 0
0.0490035 -0.00623505 0.998779 0
0.0480677 -0.00339305 0.998838 0
0.0453039 -0.00149274 0.998972 0.00109281
0.0456828 0.00122021 0.998955 0.00288607
0.0467798 0.00383227 0.998898 0
0.0468381 0.00608838 0.998884 0.000683073
0.0468677 0.00801184 0.998869 0.00684232
0.046089 0.0106355 0.998881 0.00274271
0.0458438 0.0126382 0.998869 0.00160711
0.0448551 0.0144732 0.998889 0
0.0439038 0.0158926 0.998909 0.00164174
0.0453491 0.0181081 0.998807 0
0.0439738 0.0200255 0.998832 0
0.041914 0.0212966 0.998894 4.268e-05
0.0409282 0.0223549 0.998912 0.00826338
0.0410228 0.0236851 0.998877 0.0120905
0.0423301 0.0247167 0.998798 0.0151448
0.0418523 0.0254907 0.998799 0.0135342
0.0422314 0.0267674 0.998749 0.0131241
0.0417118 0.0277515 0.998744 0.0057349
0.0427187 0.0285871 0.998678 0
0.0442619 0.0296591 0.99858 0
0.0448531 0.0301311 0.998539 0
0.043257 0.03089 0.998586 0.00486902
0.0421366 0.0313571 0.99862 0.00199676
0.0419551 0.0321052 0.998604 0.00825257
0.0422595 0.0323385 0.998583 0.0094256
0.0407693 0.0323991 0.998643 0.0115415
0.0393071 0.031687 0.998725 0.0197519
0.0381884 0.0320921 0.998755 0.0177371
0.0386389 0.0327387 0.998717 0.020536
0.0374475 0.0334756 0.998738 0.0144628
0.0384116 0.0335802 0.998698 0.0153738
0.0393648 0.0335247 0.998662 0.0151617
0.0382683 0.0328226 0.998728 0.00765953
0.0387654 0.0331061 0.9987 0.0101516
0.0390964 0.0333556 0.998679 0.0221157
0.0388405 0.0330698 0.998698 0.0225689
0.0377239 0.0327214 0.998752 0.0191942
0.0389518 0.0323812 0.998716 0.0125186
0.0386943 0.0319166 0.998741 0.00616151
0.0381359 0.0314519 0.998778 6.6505e-05
0.0377712 0.0312018 0.998799 0
0.0374042 0.0304003 0.998838 0.00262992
0.0377893 0.0297931 0.998842 0.00292846
0.0383042 0.0295005 0.998831 0.00448203
0.0374628 0.0285323 0.998891 0.00105312
0.0386848 0.0281161 0.998856 0.00076752
0.0383063 0.0278518 0.998878 0
0.0371822 0.0273699 0.998934 0
0.0375849 0.0265807 0.99894 0
0.0363902 0.0259316 0.999001 0
0.0355611 0.0250802 0.999053 0
0.0367671 0.0243806 0.999026 0
0.0362508 0.0236394 0.999063 0
0.0355766 0.0230039 0.999102 0
0.0353882 0.0223483 0.999124 0
0.034344 0.0217401 0.999174 0
0.0348137 0.0211916 0.999169 0
0.0346087 0.0207399 0.999186 0
0.0335211 0.020415 0.99923 0
0.0320237 0.0194444 0.999298 0
0.0327851 0.0189599 0.999283 0
0.0333741 0.0184292 0.999273 0
0.0335467 0.0176608 0.999281 0
0.0308848 0.016783 0.999382 0
0.0296321 0.0158055 0.999436 0
0.0282574 0.0151774 0.999485 0
0.028779 0.0147061 0.999478 0
0.0284319 0.014332 0.999493 0
0.0260189 0.0136878 0.999568 0
0.0250312 0.0129685 0.999603 0.0019704
0.0240125 0.0126365 0.999632 0.000880446
0.0239368 0.0121726 0.999639 0
0.0257348 0.0117226 0.9996 0
0.0264791 0.0114722 0.999584 0
0.0273827 0.0112754 0.999561 0
0.0271212 0.0107253 0.999575 0
0.0248779 0.0103728 0.999637 0
0.0249439 0.00974545 0.999641 0
0.0236987 0.00960921 0.999673 0.00184347
0.023644 0.00950447 0.999675 0
0.022557 0.00899704 0.999705 0
0.0221096 0.00861784 0.999718 0
0.0224192 0.0083734 0.999714 0
0.0227619 0.00843369 0.999705 0
0.0225511 0.00800738 0.999714 0
0.0199312 0.00756838 0.999773 0.00670733
0.0189765 0.00707746 0.999795 0.0152991
0.0196938 0.00675636 0.999783 0.0151981
0.0212529 0.0063665 0.999754 0.0061208
0.0210127 0.00621496 0.99976 0.00271505
0.0213225 0.00583644 0.999756 0.00202899
0.0200689 0.00520384 0.999785 0.00781604
0.020342 0.00481633 0.999781 0.00524076
0.0210942 0.00430047 0.999768 0.0059161
0.0211487 0.0037433 0.999769 0.0078644
0.0212118 0.0035573 0.999769 0.00484533
0.0219863 0.00299935 0.999754 0.00551883
0.0222754 0.00251985 0.999749 0.00629563
0.0225814 0.00209606 0.999743 0.00828274
0.023812 0.00168312 0.999715 0.00486743
0.0241703 0.00158376 0.999707 0
0.0264603 0.00119052 0.999649 0.00109824
0.0270845 0.000778722 0.999633 0.000102857
0.0268806 0.000136797 0.999639 0.00305508
0.0262252 -0.000707524 0.999656 0.00537184
0.0264663 -0.00132294 0.999649 0.00604348
0.0259819 -0.00195727 0.99966 0.0109456
0.0279079 -0.00230631 0.999608 0.00984736
0.0274944 -0.00315206 0.999617 0.015752
0.0284092 -0.00378834 0.999589 0.018818
0.0273772 -0.00422948 0.999616 0.0250251
0.0273526 -0.00459043 0.999615 0.0256297
0.0281855 -0.00498363 0.99959 0.0243901
0.0286094 -0.00553149 0.999575 0.0195577
0.0281378 -0.00623179 0.999585 0.0229283
0.027529 -0.00685473 0.999597 0.0218183
0.0297801 -0.00679599 0.999533 0.0112242
0.0300075 -0.00736512 0.999523 0.0103447
0.0298215 -0.00761186 0.999526 0.0115034
0.0301998 -0.00808197 0.999511 0.0121671
0.0307265 -0.00838647 0.999493 0.0123326
0.0301657 -0.00914277 0.999503 0.0137751
0.0308766 -0.00954567 0.999478 0.0139412
0.0319546 -0.00968295 0.999442 0.00836197
0.0338328 -0.00970343 0.99938 0.00264683
0.034258 -0.0103891 0.999359 0.00624031
0.033182 -0.0114444 0.999384 0.013165
0.0326905 -0.0120489 0.999393 0.0175126
0.0334126 -0.0125359 0.999363 0.0199492
0.0355978 -0.0127953 0.999284 0.0196895
0.0366018 -0.0126835 0.999249 0.0151324
0.0367334 -0.0132646 0.999237 0.0126644
0.0379281 -0.0136044 0.999188 0.0135233
0.0388823 -0.0137919 0.999149 0.0108311
0.0381208 -0.0142706 0.999171 0.0112345
0.0389884 -0.0146707 0.999132 0.0102165
0.0387953 -0.0147901 0.999138 0
0.0406927 -0.0150334 0.999059 0
0.0397633 -0.0154914 0.999089 0
0.0403714 -0.0160814 0.999055 0.00158542
0.0399162 -0.0166378 0.999064 0.00290516
0.0409205 -0.0168162 0.999021 0
0.0418813 -0.017031 0.998977 0
0.0426172 -0.0174465 0.998939 0
0.044034 -0.017758 0.998872 0
0.0442194 -0.0180542 0.998859 0
0.0467692 -0.0183949 0.998736 0
0.0456231 -0.0186755 0.998784 0
0.0468935 -0.0189476 0.99872 0
0.0453703 -0.0193306 0.998783 0
0.0465226 -0.0195149 0.998727 0
0.0485199 -0.0194819 0.998632 0
0.0472996 -0.0194399 0.998692 0
0.0502135 -0.0194586 0.998549 0
0.0491658 -0.0192107 0.998606 0
0.0505256 -0.0190496 0.998541 0
0.0500262 -0.0188446 0.99857 0
0.0513745 -0.0187534 0.998503 0
0.0517002 -0.018246 0.998496 0
0.050116 -0.0180496 0.99858 0
0.0516538 -0.0176025 0.99851 0.00124783
0.0516684 -0.0171289 0.998517 0.000222977
0.0521742 -0.0164634 0.998502 0
0.0523628 -0.0157685 0.998504 0.00180336
0.0529309 -0.015074 0.998484 0.00184385
0.0535932 -0.0144243 0.998459 0.00551136
0.0529876 -0.0135485 0.998503 0.00580573
0.0550854 -0.0126695 0.998401 0.00597521
0.0553264 -0.0112992 0.998404 0.00117971
0.053913 -0.0102395 0.998493 0.00817943
0.0550197 -0.00892425 0.998445 0.00894122
0.0555458 -0.00741903 0.998429 0.00233798
0.0567566 -0.00598726 0.99837 0
0.056333 -0.0044168 0.998402 0.000524584
0.056654 -0.00280295 0.99839 0.00630766
0.0575218 -0.00108611 0.998344 0.00702884
0.0585792 0.000853936 0.998282 0.00152111
0.0594572 0.00281363 0.998227 0.00776819
0.0612389 0.00512046 0.99811 0.00359836
0.061495 0.00712476 0.998082 0.00967002
0.0628395 0.00936685 0.99798 0.00714968
0.0613948 0.0123522 0.998037 0.0137459
0.0614047 0.01433 0.99801 0.00747261
0.0601981 0.0168545 0.998044 0.00374167
0.0604556 0.0201166 0.997968 0.002581
0.0612958 0.0236325 0.99784 0.00348531
0.0618822 0.0264425 0.997733 0.00214566
0.0631663 0.02898 0.997582 4.24383e-05
0.0618623 0.0325277 0.997555 0.00102365
0.0627261 0.0367054 0.997356 0
0.0646687 0.0402374 0.997095 0
0.063554 0.0440857 0.997004 0
0.065004 0.048138 0.996723 0
0.0641835 0.0516836 0.996599 0
0.0673349 0.0562804 0.996142 0
0.0688532 0.0608073 0.995772 0
0.068349 0.064436 0.995578 0
0.0679875 0.0689038 0.995304 0
0.0702732 0.0726482 0.994879 0
0.0688013 0.0779763 0.994578 0
0.0695241 0.081415 0.994253 0
0.0698173 0.0861543 0.993832 0
0.0710839 0.0900265 0.993399 0
0.071051 0.0937274 0.993059 0
0.0714368 0.0987253 0.992547 0
0.0713942 0.102663 0.992151 0
0.0715239 0.107934 0.991582 0
0.0722752 0.110988 0.99119 0
0.0727027 0.114731 0.990733 0
0.0730543 0.118257 0.990292 0
0.0743853 0.121181 0.989839 0
0.0733966 0.123491 0.989628 0
0.0742867 0.126489 0.989182 0
0.0744589 0.129206 0.988818 0
0.0751851 0.131625 0.988444 0
0.0767309 0.134312 0.987964 0
0.0765314 0.13666 0.987657 0
0.0774812 0.139456 0.987192 0
0.0772358 0.142188 0.986822 0
0.0778731 0.144612 0.986419 0
0.0777314 0.147177 0.986051 0
0.0764094 0.149966 0.985734 0
0.0773717 0.152416 0.985283 0
0.0796725 0.155061 0.984687 0
0.0788622 0.15794 0.984295 0
0.0780636 0.160786 0.983897 0
0.07679 0.164353 0.983408 0
0.0765183 0.167504 0.982897 0
0.0763319 0.1729 0.981977 0.00579873
0.0758414 0.179127 0.980898 0.0127279
0.0763372 0.183593 0.980034 0.0149671
0.0764362 0.18642 0.979492 0.0114454
0.076058 0.18907 0.979014 0.00917347
0.0749912 0.193539 0.978222 0.0102992
0.0757656 0.197093 0.977453 0.00866953
0.0758926 0.201669 0.976509 0.00958223
0.0751487 0.205737 0.975718 0.00917705
0.0747202 0.206211 0.97565 0.000856307
0.0750503 0.21003 0.97481 7.86158e-05
0.0752154 0.214966 0.973721 0.000786989
0.0773506 0.219531 0.972534 0
0.0763755 0.225105 0.971337 0
0.0765972 0.229771 0.970226 0
0.0779391 0.234946 0.968879 0
0.0784846 0.2396 0.967694 0
0.0795858 0.245148 0.966214 0
0.0788009 0.250685 0.964856 0
0.0789353 0.256043 0.963437 0
0.0783865 0.261781 0.961939 0
0.0792631 0.267533 0.960283 0
0.0809392 0.272658 0.9587 0
0.0815035 0.277824 0.957168 0
0.0807271 0.284323 0.955324 0
0.0798568 0.290243 0.953615 0
0.0802444 0.296214 0.951745 0
0.0812866 0.301574 0.949972 0
0.0616319 -0.28004 0.958008 0.0155236
0.0630523 -0.270349 0.960695 0.015158
0.0636626 -0.258399 0.963938 0.0130212
0.0633117 -0.239182 0.968908 0.00100888
0.064126 -0.232578 0.970461 0
0.0629759 -0.226968 0.971864 0
0.0622173 -0.22133 0.973212 0.000270841
0.0623496 -0.217066 0.974164 0.00286892
0.0628412 -0.207932 0.976122 0.00024876
0.0644951 -0.201882 0.977284 0
0.0622822 -0.197374 0.978348 0
0.0605778 -0.194087 0.979112 0.00219835
0.0612753 -0.18865 0.980131 0.00124978
0.0607418 -0.184516 0.980951 0.00176105
0.0603091 -0.182589 0.981338 0.00496715
0.0614952 -0.177235 0.982246 0.00418389
0.0620341 -0.17297 0.982972 0.00414788
0.0621578 -0.167898 0.983843 0.00135445
0.0633108 -0.163497 0.98451 0.00128663
0.0628449 -0.159995 0.985115 0.0015173
0.0626632 -0.157016 0.985606 0.00315435
0.0629443 -0.152964 0.986225 0.0027248
0.0625925 -0.15106 0.986541 0.00713708
0.0630215 -0.145186 0.987395 0.00298029
0.0629832 -0.143313 0.987671 0.00678072
0.0618072 -0.139608 0.988276 0.00666366
0.062022 -0.136207 0.988737 0.00711476
0.0611757 -0.130643 0.98954 0.00314375
0.0612867 -0.127754 0.989911 0.00236552
0.0609563 -0.124078 0.990398 0.00245797
0.0612622 -0.120603 0.990809 0.00315517
0.0600256 -0.119112 0.991065 0.00715408
0.059871 -0.114951 0.991565 0.00510126
0.0580115 -0.111608 0.992058 0.00543263
0.0580173 -0.109056 0.992341 0.00626492
0.0589959 -0.106529 0.992558 0.00764627
0.0598116 -0.10186 0.992999 0.00248285
0.0579606 -0.0999586 0.993302 0.0056705
0.057887 -0.0980771 0.993494 0.00842473
0.0581307 -0.0963069 0.993653 0.00952635
0.0577393 -0.0945061 0.993848 0.00871896
0.0582635 -0.0918051 0.994071 0.00815932
0.0582622 -0.0891744 0.99431 0.00681839
0.0584024 -0.0872884 0.99447 0.00844063
0.0579531 -0.0853649 0.994663 0.00926352
0.0582219 -0.0841519 0.994751 0.0121688
0.0581609 -0.0824995 0.994893 0.0142199
0.057829 -0.0816522 0.994982 0.0190604
0.0577031 -0.0796271 0.995153 0.0188087
0.0576548 -0.0756703 0.995465 0.01633
0.0594068 -0.0731278 0.995552 0.0146197
0.0586196 -0.0696704 0.995846 0.013562
0.0593128 -0.0667302 0.996007 0.0157768
0.0595687 -0.0630725 0.99623 0.00963866
0.0585217 -0.0611329 0.996413 0.0111033
0.0588655 -0.0582349 0.996566 0.0107038
0.059646 -0.054399 0.996736 0.0104966
0.0594498 -0.0517204 0.99689 0.0115874
0.0595282 -0.049587 0.996994 0.0104033
0.0585382 -0.0470867 0.997174 0.0113748
0.0573696 -0.0437585 0.997394 0.0131146
0.0580105 -0.0409801 0.997475 0.0126307
0.0575888 -0.0365555 0.997671 0.00906954
0.0566286 -0.0344452 0.997801 0.0137318
0.056943 -0.0310224 0.997895 0.00719052
0.0566562 -0.027067 0.998027 0.00415072
0.056781 -0.0229131 0.998124 0.00361015
0.0548678 -0.0198962 0.998295 0.0010824
0.0527276 -0.0176445 0.998453 0.0113946
0.0517975 -0.0145162 0.998552 0.010082
0.0515321 -0.0110274 0.99861 0.00775471
0.0508873 -0.00771824 0.998675 0.00459801
0.0518747 -0.00417702 0.998645 0.00870309
0.0508558 -0.000710491 0.998706 0.00442058
0.0493299 0.00262821 0.998779 0.00613172
0.0495996 0.00450346 0.998759 0.00347209
0.0500982 0.00703371 0.99872 0
0.0511445 0.00932349 0.998648 0
0.0505133 0.0106691 0.998666 0
0.0516711 0.0129394 0.99858 0
0.0497667 0.014667 0.998653 0
0.0481639 0.0165506 0.998702 0.000636968
0.0468581 0.0175588 0.998747 0.00697729
0.0457453 0.0189856 0.998773 0.00809991
0.046122 0.0208018 0.998719 0.0125779
0.0467001 0.022467 0.998656 0.00652362
0.045989 0.0238854 0.998656 0.00724169
0.0462525 0.0253421 0.998608 0
0.0457083 0.0265635 0.998602 0.00187866
0.0456477 0.0271227 0.998589 6.10664e-05
0.044865 0.0272252 0.998622 0
0.0444407 0.0279383 0.998621 0.00283536
0.0450212 0.0285132 0.998579 0.000365685
0.0439642 0.0293319 0.998602 0
0.0432319 0.0294985 0.99863 0
0.0429609 0.0296649 0.998636 0.00315832
0.041502 0.0301867 0.998682 0.00786066
0.0420904 0.0304644 0.998649 0.00908135
0.0411688 0.0312899 0.998662 0.0145757
0.0413911 0.0317095 0.99864 0.00761795
0.0426239 0.0319108 0.998581 0.00203622
0.0413349 0.0320036 0.998633 0.00236865
0.0412546 0.0315955 0.998649 0.00404687
0.039718 0.031275 0.998721 0.00761692
0.0388695 0.0311668 0.998758 0.00977555
0.038014 0.0308045 0.998802 0.0125115
0.037689 0.0306634 0.998819 0.01595
0.0373235 0.0306678 0.998833 0.0202937
0.0369107 0.0302856 0.99886 0.019603
0.0376334 0.0296356 0.998852 0.0139489
0.0391014 0.0289782 0.998815 0.00511201
0.0376297 0.0287106 0.998879 0.00963935
0.0368714 0.0286779 0.998908 0.0165393
0.0381689 0.0280964 0.998876 0.0143482
0.0384472 0.0276587 0.998878 0.00700413
0.0388694 0.0272082 0.998874 0.00581944
0.0362924 0.0264334 0.998991 0.00489484
0.0390536 0.0261425 0.998895 0
0.0385997 0.0255354 0.998928 0
0.0372389 0.0250558 0.998992 0
0.0371209 0.0243722 0.999013 0
0.036974 0.0236639 0.999036 0
0.037119 0.0230049 0.999046 0
0.035688 0.0222774 0.999115 0
0.0338177 0.0215386 0.999196 0
0.0342073 0.0212187 0.999189 0
0.0339329 0.0206307 0.999211 0
0.0336477 0.0199976 0.999234 0
0.0325886 0.0192576 0.999283 0
0.0307539 0.0187391 0.999351 0
0.0312169 0.0181797 0.999347 0
0.0297098 0.0176516 0.999403 0
0.0300788 0.0169459 0.999404 0
0.0289201 0.0164894 0.999446 0
0.0296682 0.0158331 0.999434 0
0.0301181 0.0152162 0.999431 0
0.0293976 0.0147786 0.999459 0
0.0273136 0.0139919 0.999529 0.000360203
0.0281659 0.0136793 0.99951 0
0.0281846 0.0133074 0.999514 0
0.0286526 0.0129943 0.999505 0
0.0268415 0.0124015 0.999563 0
0.0257337 0.0117415 0.9996 0
0.0256382 0.0113411 0.999607 0
0.0248466 0.0106266 0.999635 0.00150663
0.0251905 0.0103059 0.99963 0.0042621
0.0250326 0.00952864 0.999641 0.00266773
0.0245724 0.0093013 0.999655 0.00259174
0.0251505 0.00910167 0.999642 0.000870163
0.0250062 0.00882309 0.999648 0.00132751
0.0253618 0.00908675 0.999637 0
0.0244496 0.00899064 0.999661 0
0.02437 0.00889226 0.999663 0
0.0246036 0.00866735 0.99966 0.000875541
0.0235652 0.0084449 0.999687 0
0.0222788 0.00863151 0.999714 0
0.0219404 0.00825923 0.999725 0.00232574
0.0207154 0.00798771 0.999754 0.00210995
0.0208913 0.00770588 0.999752 0.000541312
0.0208056 0.00765393 0.999754 0.00334484
0.0214855 0.00730635 0.999742 0.0091818
0.0206089 0.00657167 0.999766 0.0154478
0.0184145 0.00606755 0.999812 0.021287
0.0192567 0.00587572 0.999797 0.0142915
0.0194436 0.00558143 0.999795 0.00967179
0.0220971 0.004977 0.999743 0.00306929
0.0229465 0.0047169 0.999726 0.00232372
0.022451 0.00437331 0.999738 0
0.0229723 0.00368895 0.999729 0.00277672
0.0229156 0.00324566 0.999732 0
0.0249802 0.00315472 0.999683 0
0.0256381 0.00266713 0.999668 0
0.0242173 0.0021644 0.999704 0
0.0244877 0.00166364 0.999699 0.00183285
0.0237693 0.00117188 0.999717 0.00439823
0.0262314 0.000983306 0.999655 0.0065872
0.0271119 0.000572308 0.999632 0.0104917
0.0270218 0.000127352 0.999635 0.0116081
0.0285526 -0.000314684 0.999592 0.0140177
0.0277628 -0.000886782 0.999614 0.0156687
0.0286094 -0.00149553 0.99959 0.0129664
0.0297663 -0.00199476 0.999555 0.0111043
0.0299391 -0.00249203 0.999549 0.0101898
0.0300284 -0.00303786 0.999545 0.0103259
0.0291457 -0.00354508 0.999569 0.0129872
0.0290707 -0.00401988 0.999569 0.018805
0.0306112 -0.00436422 0.999522 0.0170102
0.0302882 -0.00477393 0.99953 0.00827758
0.0308242 -0.00533386 0.999511 0.00912523
0.0304117 -0.00578877 0.999521 0.00763039
0.0335098 -0.00627197 0.999419 0.00399271
0.0337366 -0.00660833 0.999409 0.00505808
0.0323198 -0.00696322 0.999453 0.00674613
0.0322684 -0.00756001 0.999451 0.0112365
0.0329255 -0.00828712 0.999423 0.0169067
0.0344962 -0.00864452 0.999367 0.0125636
0.0351033 -0.00906971 0.999343 0.0115317
0.0349359 -0.00948266 0.999345 0.0119129
0.0350529 -0.00980086 0.999337 0.0130145
0.0356202 -0.00998642 0.999316 0.0159607
0.0362834 -0.0102566 0.999289 0.0106511
0.0358658 -0.0105546 0.999301 0.00794006
0.0364085 -0.0108875 0.999278 0.0052844
0.0384644 -0.0115462 0.999193 0.00802323
0.0382244 -0.011799 0.9992 0.0124718
0.0383483 -0.0118172 0.999195 0.00999783
0.039259 -0.0118735 0.999159 0.00617366
0.0387929 -0.0123864 0.99917 0.00568594
0.0394788 -0.0128675 0.999138 0.00589145
0.0411656 -0.0129199 0.999069 0.00406682
0.03989 -0.0134475 0.999114 0.00604498
0.0400978 -0.0138061 0.9991 0.00933392
0.0398664 -0.0140381 0.999106 0.00460314
0.0401314 -0.0141327 0.999094 0
0.0423923 -0.0142462 0.998999 0
0.0436875 -0.0145565 0.998939 0
0.0445687 -0.0148399 0.998896 0
0.0451345 -0.015098 0.998867 0
0.0473978 -0.0151635 0.998761 0
0.0480419 -0.0152098 0.99873 0
0.0483169 -0.0154319 0.998713 0
0.047288 -0.0157192 0.998758 0
0.0466795 -0.0160496 0.998781 0
0.0481524 -0.0160097 0.998712 0
0.0488974 -0.0160664 0.998675 0
0.0497582 -0.0160971 0.998632 0
0.049763 -0.016085 0.998632 0
0.0517643 -0.0159627 0.998532 0
0.0507777 -0.0159466 0.998583 0
0.0501406 -0.0158147 0.998617 0
0.0506431 -0.0154699 0.998597 0
0.052907 -0.0150689 0.998486 0
0.053687 -0.014682 0.99845 0
0.0557089 -0.014014 0.998349 0
0.0539531 -0.0137178 0.998449 0
0.0557612 -0.0131835 0.998357 0
0.0554007 -0.0124443 0.998387 0.00263645
0.0562789 -0.0118963 0.998344 0.00162355
0.0561674 -0.0111312 0.998359 0.003174
0.0564088 -0.0103594 0.998354 0.0104574
0.0567869 -0.00922863 0.998344 0.0120085
0.0596356 -0.00814075 0.998187 0.0124897
0.060372 -0.00682849 0.998153 0.00937153
0.0614576 -0.005384 0.998095 0.00713951
0.0619048 -0.00404037 0.998074 0.00767815
0.0631716 -0.00247041 0.998 0.00434852
0.0645016 -0.000704071 0.997917 0.00468936
0.0654963 0.00131428 0.997852 0.00632652
0.0654078 0.00327675 0.997853 0.00176498
0.0655444 0.00510091 0.997837 0.00389128
0.0673311 0.0070867 0.997706 0.00360069
0.0672134 0.00948255 0.997694 0.00158403
0.0682519 0.0113807 0.997603 0.0025674
0.0683833 0.0139725 0.997561 0.00686363
0.0684991 0.0168865 0.997508 0.00851193
0.0686997 0.0192385 0.997452 0.00566778
0.0686542 0.0218017 0.997402 0.000544173
0.0703136 0.0246707 0.99722 0
0.0701377 0.0276034 0.997155 0.000786007
0.0708817 0.0312683 0.996994 0
0.0704225 0.0348545 0.996908 0.000542432
0.0721844 0.037865 0.996672 0
0.0720603 0.0413307 0.996544 0
0.0739665 0.0454183 0.996226 0
0.0751902 0.0497296 0.995928 0
0.0747287 0.0541083 0.995735 0
0.07462 0.0569169 0.995586 0
0.0767326 0.0613693 0.995161 0
0.0755717 0.0658573 0.994963 0
0.0766535 0.0704118 0.994568 0
0.0766287 0.0736971 0.994332 0
0.077696 0.0777381 0.993942 0
0.078709 0.0825725 0.993472 0
0.0786866 0.0864389 0.993145 0
0.0793026 0.0909764 0.99269 0
0.0809473 0.0946749 0.992212 0
0.0801577 0.0984609 0.991907 0
0.0820226 0.103461 0.991246 0
0.0809955 0.107235 0.990929 0
0.0801942 0.110275 0.99066 0
0.0812174 0.114177 0.990135 0
0.0828804 0.117282 0.989634 0
0.0827304 0.120489 0.989261 0
0.0835077 0.123874 0.988778 0
0.0807606 0.126573 0.988664 0
0.0808787 0.129507 0.988275 0
0.0798494 0.132121 0.988012 0
0.0818339 0.135324 0.987416 0.00388815
0.0821919 0.137601 0.987072 0.00375458
0.0825824 0.139755 0.986736 0.00275876
0.0838366 0.142691 0.98621 0.0045018
0.0844664 0.145089 0.985807 0.00345839
0.0848649 0.148331 0.98529 0.00587906
0.0854098 0.151689 0.984731 0.00772967
0.0852301 0.155253 0.984191 0.0101409
0.0858944 0.156635 0.983914 0.00586105
0.0835902 0.157592 0.98396 0
0.0829572 0.160403 0.983559 0
0.0844012 0.163263 0.982966 0
0.0836666 0.16638 0.982506 0
0.0834944 0.169619 0.981966 0
0.0844565 0.173201 0.981259 0
0.0846784 0.176779 0.980601 0
0.0841691 0.180321 0.98 0
0.0830882 0.18365 0.979474 0
0.083268 0.187323 0.978763 0
0.083062 0.19182 0.977909 0.00178023
0.0824053 0.195643 0.977207 0.0016082
0.0815962 0.199912 0.97641 0.000204788
0.0831709 0.204059 0.975419 0
0.0841184 0.20834 0.974432 0
0.0849965 0.212369 0.973486 0
0.0857804 0.216417 0.972525 0
0.0855011 0.221478 0.97141 0
0.0848897 0.227068 0.970172 0
0.086015 0.23185 0.968941 0
0.0854591 0.236656 0.967828 0
0.0863902 0.242204 0.966372 0
0.0869362 0.247777 0.964909 0
0.0873831 0.252984 0.963516 0
0.0873279 0.257799 0.962244 0
0.0873613 0.263041 0.960821 0
0.0872506 0.26928 0.959101 0
0.087407 0.27508 0.95744 0
0.0871779 0.28044 0.955905 0
0.0878735 0.285988 0.954196 0
0.0870339 0.292246 0.952375 0
0.087005 0.298831 0.950332 0
0.0867307 0.30492 0.94842 0
0.0877876 0.312127 0.945976 0
0.0864541 0.31974 0.943553 0
0.0728122 -0.286986 0.955164 0.0110514
0.0733887 -0.277777 0.957838 0.0117037
0.0725658 -0.270003 0.960121 0.0115116
0.0712989 -0.261017 0.962697 0.0115214
0.0714725 -0.259513 0.963091 0.0174454
0.0710882 -0.24969 0.965713 0.0166812
0.0711021 -0.242548 0.96753 0.0154666
0.0708463 -0.22952 0.970722 0.0106163
0.0712264 -0.227483 0.971174 0.0146641
0.0707208 -0.213534 0.974373 0.003331
0.070973 -0.207034 0.975756 0
0.0703797 -0.201577 0.976941 0
0.0705688 -0.196678 0.977925 0.000775335
0.0703708 -0.192108 0.978848 0.00183193
0.0704799 -0.186741 0.979878 0
0.0691066 -0.183811 0.980529 0.00211298
0.0679693 -0.180949 0.981141 0.00591822
0.06873 -0.175454 0.982086 0.00373069
0.0683144 -0.174458 0.982292 0.00928946
0.0685836 -0.166494 0.983654 0.00290539
0.06854 -0.162639 0.984302 0.002534
0.0682843 -0.159824 0.984781 0.00441436
0.0678248 -0.156584 0.985333 0.00718588
0.0676439 -0.153683 0.985802 0.00926271
0.0681516 -0.150076 0.986323 0.0097088
0.0670704 -0.146581 0.986922 0.0104913
0.0669199 -0.144617 0.987222 0.0134115
0.0669538 -0.14259 0.987515 0.0173864
0.0672191 -0.139091 0.987996 0.0180454
0.0673704 -0.135621 0.988468 0.0184987
0.0677948 -0.132835 0.988817 0.020028
0.0674756 -0.129322 0.989304 0.0209438
0.0666295 -0.125539 0.989849 0.0200332
0.0664962 -0.121284 0.990388 0.017226
0.0672681 -0.117397 0.990804 0.0154407
0.0663424 -0.115437 0.991097 0.0182403
0.0665679 -0.112641 0.991403 0.0191645
0.0666547 -0.108482 0.991861 0.0167696
0.0665724 -0.103432 0.992406 0.00618441
0.0665511 -0.0998836 0.992771 0.00311817
0.066672 -0.0972775 0.993022 0.000951305
0.0651948 -0.0951082 0.99333 0.00403611
0.0658774 -0.093995 0.993391 0.0101877
0.064724 -0.0917254 0.993679 0.0105453
0.0653105 -0.0884061 0.993941 0.00874222
0.0647457 -0.0855185 0.994231 0.00665214
0.0634772 -0.0832282 0.994507 0.00955807
0.0637634 -0.0813241 0.994646 0.0144579
0.0632058 -0.0789896 0.99487 0.0124062
0.0644426 -0.0760203 0.995022 0.0112709
0.0632739 -0.0731327 0.995313 0.00961211
0.0638185 -0.0721749 0.995348 0.0122702
0.0660139 -0.0695877 0.995389 0.0151605
0.0675549 -0.0673745 0.995438 0.0169519
0.0678997 -0.0641384 0.995628 0.015365
0.0681926 -0.0616734 0.995764 0.0154815
0.0689878 -0.0591137 0.995865 0.0143801
0.0701486 -0.0556266 0.995984 0.0123929
0.0686499 -0.0525833 0.996254 0.0100826
0.0679506 -0.0505896 0.996405 0.0104185
0.0687781 -0.0486704 0.996444 0.00927933
0.0673122 -0.0457655 0.996682 0.00649926
0.0668696 -0.0431363 0.996829 0.00589358
0.0662938 -0.0403954 0.996982 0.0103103
0.0660753 -0.0375459 0.997108 0.00559482
0.0646811 -0.0340691 0.997324 0.00409119
0.0641322 -0.0311422 0.997455 0.00565339
0.064396 -0.0272799 0.997552 0.00288738
0.0639611 -0.0245742 0.99765 0.00432873
0.0629361 -0.0206954 0.997803 0.00232264
0.0605746 -0.0167552 0.998023 0.00990856
0.0601741 -0.0131523 0.998101 0.00349005
0.0585845 -0.010438 0.998228 0.00631583
0.0579716 -0.00699031 0.998294 0.00793775
0.0570872 -0.00344196 0.998363 0.00120045
0.0557244 -0.00121802 0.998445 0
0.0542911 0.00170578 0.998524 0
0.0539108 0.00426766 0.998537 0
0.0532744 0.00647882 0.998559 0
0.0517122 0.00864447 0.998625 0.000523775
0.0518899 0.0106895 0.998596 0.00245516
0.0520277 0.0126344 0.998566 0.00413079
0.0537785 0.0147272 0.998444 0.000518136
0.0534102 0.0166351 0.998434 0
0.052962 0.0180341 0.998434 0
0.0525713 0.0191816 0.998433 0
0.0509559 0.0202925 0.998495 0.00115071
0.0518083 0.0223223 0.998407 0
0.0512777 0.0228375 0.998423 0
0.0522421 0.0248153 0.998326 0
0.0527643 0.0260996 0.998266 0
0.0519315 0.0264737 0.9983 0
0.0493916 0.0268759 0.998418 0
0.049003 0.0269861 0.998434 0
0.0476088 0.0277962 0.998479 0
0.0479438 0.0287283 0.998437 0
0.0473732 0.0292838 0.998448 6.95299e-05
0.0458848 0.0294546 0.998512 0
0.0456758 0.0295111 0.99852 0
0.0448661 0.0298391 0.998547 0.00304725
0.0437586 0.0296843 0.998601 0.00565618
0.0440272 0.0294373 0.998596 0.00346885
0.0414248 0.0291102 0.998717 0.0080026
0.0396527 0.0295882 0.998775 0.00705352
0.0412101 0.0291135 0.998726 0.000619663
0.0406402 0.0288203 0.998758 0
0.0402611 0.0283951 0.998786 0.00250008
0.0399117 0.0278713 0.998814 0
0.0398794 0.0277075 0.99882 0.00142449
0.0398782 0.0274336 0.998828 0.00221979
0.0390529 0.0271127 0.998869 0.00748932
0.0382006 0.0267902 0.998911 0.0121178
0.0379797 0.0266001 0.998924 0.0132006
0.0389034 0.0260745 0.998903 0.0106437
0.0385602 0.025441 0.998932 0.00277547
0.0408361 0.0252797 0.998846 0
0.0397449 0.0249293 0.998899 0
0.0378213 0.0243754 0.998987 0
0.0350419 0.0232816 0.999115 0.000649405
0.0351505 0.0226589 0.999125 0
0.0348363 0.0221778 0.999147 0
0.035901 0.0220396 0.999112 0
0.0352068 0.0215809 0.999147 0
0.0354567 0.020959 0.999151 0
0.0332972 0.0204465 0.999236 0
0.0329348 0.019876 0.99926 0
0.0340195 0.0192971 0.999235 0
0.0348129 0.0189669 0.999214 0
0.033881 0.0185789 0.999253 0
0.0324877 0.0181362 0.999308 0
0.0320249 0.0175518 0.999333 0
0.0292611 0.0165751 0.999434 0
0.0294195 0.0158838 0.999441 0
0.0285259 0.0153282 0.999476 0.000924968
0.0283678 0.0147861 0.999488 0
0.0287554 0.0145924 0.99948 0
0.0273401 0.0137809 0.999531 0
0.0282451 0.013071 0.999516 0
0.0292579 0.012899 0.999489 0
0.0276378 0.0120927 0.999545 0.00548022
0.0265171 0.011553 0.999582 0.00780482
0.0265896 0.0111268 0.999585 0.00356981
0.0271604 0.0110714 0.99957 0.00585388
0.0273145 0.0109008 0.999567 0.00626201
0.0275655 0.010626 0.999563 0
0.0274056 0.0105119 0.999569 0
0.028007 0.0100846 0.999557 0
0.027154 0.00966393 0.999585 0.00415459
0.0257849 0.00947491 0.999623 0.00839561
0.0245789 0.00906524 0.999657 0.0102931
0.0245371 0.00877312 0.99966 0.0106483
0.0240176 0.00875259 0.999673 0.0156303
0.0248512 0.00873425 0.999653 0.0122116
0.0251797 0.00866241 0.999645 0.00425708
0.0247906 0.008561 0.999656 0.000791915
0.0240338 0.0084314 0.999676 0.00290573
0.02408 0.0081917 0.999677 0.00236605
0.0243528 0.00840639 0.999668 0.00593401
0.0226292 0.00826357 0.99971 0.00607208
0.0243118 0.00806962 0.999672 0.00028554
0.0232514 0.00792518 0.999698 0.00335023
0.0222788 0.00746417 0.999724 0.00372384
0.021317 0.00688739 0.999749 0.00671646
0.0208182 0.00645657 0.999762 0.00786455
0.0215047 0.00613356 0.99975 0.00638112
0.0206357 0.006014 0.999769 0.000945756
0.0223826 0.00585501 0.999732 0
0.0237313 0.00552368 0.999703 0
0.0227921 0.00512072 0.999727 0
0.0224681 0.00462794 0.999737 0
0.0232672 0.00439316 0.99972 0
0.0255378 0.00397004 0.999666 0
0.0262208 0.00348516 0.99965 0
0.0275853 0.00321936 0.999614 0
0.0283252 0.00302012 0.999594 0
0.0287387 0.00273047 0.999583 0
0.0308046 0.00223478 0.999523 0
0.0294431 0.00177818 0.999565 0
0.02909 0.00114167 0.999576 0
0.0287966 0.000847773 0.999585 0
0.0303634 0.000559811 0.999539 0
0.0311234 -0.000124889 0.999516 0
0.0306454 -0.000524725 0.99953 0
0.031444 -0.000905056 0.999505 6.90068e-05
0.031031 -0.00159408 0.999517 0.00736536
0.0298627 -0.00232514 0.999551 0.0107733
0.0312775 -0.00297887 0.999506 0.0080917
0.0301372 -0.00342103 0.99954 0.00880471
0.0334471 -0.00360956 0.999434 0.00734458
0.035414 -0.0037207 0.999366 0.0053656
0.0353259 -0.00404053 0.999368 0.00293889
0.0355776 -0.00425957 0.999358 0.0045149
0.037111 -0.00480731 0.9993 0.00352385
0.0352849 -0.00546451 0.999362 0.00337392
0.0353517 -0.0059671 0.999357 0.00687922
0.0360082 -0.00657727 0.99933 0.00877303
0.0353577 -0.00676109 0.999352 0.00947275
0.0365747 -0.00765455 0.999302 0.0118373
0.0364879 -0.00805623 0.999302 0.0147954
0.0365774 -0.00818712 0.999297 0.0111328
0.0361479 -0.00841931 0.999311 0.0101593
0.036561 -0.00864827 0.999294 0.00596279
0.0369423 -0.00909313 0.999276 0.00495297
0.0377354 -0.00931867 0.999244 0.0066972
0.0387143 -0.00941215 0.999206 0.00774458
0.0399201 -0.00984204 0.999154 0.00765044
0.0402629 -0.00982541 0.999141 0.00836962
0.0390445 -0.0101428 0.999186 0.00656751
0.040494 -0.0101887 0.999128 0.00215495
0.0410798 -0.0102123 0.999104 0
0.0430654 -0.0105052 0.999017 0
0.0419544 -0.0111064 0.999058 0.00682837
0.0440601 -0.0110941 0.998967 0
0.044539 -0.0112103 0.998945 0
0.0430916 -0.011465 0.999005 0
0.0438698 -0.0116263 0.99897 0
0.04501 -0.0117651 0.998917 0
0.0453902 -0.0117563 0.9989 0
0.0478451 -0.0117179 0.998786 0
0.0475724 -0.0120254 0.998795 0
0.0485247 -0.012112 0.998749 0
0.0480355 -0.0123795 0.998769 0
0.0475749 -0.0125737 0.998789 0
0.0476583 -0.0126871 0.998783 0
0.0493632 -0.0127369 0.9987 0
0.0510946 -0.0126791 0.998613 0
0.0529791 -0.0126705 0.998515 0
0.0516339 -0.0127147 0.998585 0
0.0513648 -0.0129391 0.998596 0.00134871
0.051986 -0.0127989 0.998566 0
0.0523317 -0.0126563 0.99855 0
0.0517348 -0.0124076 0.998584 0.0026765
0.0530261 -0.0119758 0.998521 0
0.0531638 -0.0116577 0.998518 0
0.0557038 -0.0111163 0.998385 0
0.0578046 -0.0104084 0.998274 0
0.0584719 -0.00971005 0.998242 0
0.0585264 -0.00907501 0.998245 0
0.0613629 -0.00848389 0.998079 0
0.0618832 -0.00781925 0.998053 0
0.0617391 -0.00688254 0.998069 0.00104852
0.063541 -0.00606271 0.997961 0.00689419
0.0655503 -0.00488566 0.997837 0.00695649
0.0671108 -0.00337848 0.99774 0.00256344
0.0669804 -0.00221261 0.997752 0.00373545
0.0680881 -0.000890947 0.997679 0.00448661
0.0697432 0.000779107 0.997565 0
0.0707347 0.00256583 0.997492 0
0.0730925 0.00414378 0.997317 0
0.0739894 0.00584888 0.997242 0
0.074113 0.00806201 0.997217 0
0.0744008 0.0102035 0.997176 0.000858215
0.076277 0.0120317 0.997014 0
0.0765275 0.0145203 0.996962 0.000195508
0.078159 0.0174401 0.996788 0
0.0788264 0.0197449 0.996693 0
0.0799224 0.0225156 0.996547 0
0.0795354 0.0247651 0.996524 0
0.0787196 0.0281425 0.996499 0
0.0786664 0.031679 0.996397 0
0.0801655 0.0346479 0.996179 0
0.0806541 0.0384319 0.996001 0
0.0816583 0.0417048 0.995787 0
0.0818936 0.0452678 0.995613 0
0.082304 0.0488066 0.995411 0
0.082046 0.0529106 0.995223 0
0.0825296 0.0564692 0.994987 0
0.0835952 0.0606373 0.994653 0
0.0845714 0.0649668 0.994297 0
0.0843795 0.068961 0.994045 0
0.0841844 0.073177 0.99376 0
0.085473 0.0771192 0.993351 0
0.0863584 0.0817809 0.992902 0
0.0882429 0.0850503 0.992461 0
0.0890259 0.0896944 0.991983 0
0.0889915 0.0940955 0.991578 0
0.0897571 0.097969 0.991134 0
0.0905612 0.101604 0.990694 0
0.0904636 0.104111 0.990443 0
0.0909378 0.107096 0.990081 0
0.0902597 0.10957 0.989873 0
0.0919478 0.112852 0.989348 0
0.0929087 0.115731 0.988926 0
0.092251 0.118818 0.988621 0
0.0912323 0.122098 0.988316 0
0.0907643 0.124918 0.988007 0
0.0904096 0.128843 0.987535 0.00332489
0.0902169 0.131883 0.987151 0.0040782
0.0889843 0.135932 0.986714 0.00716868
0.0902722 0.138937 0.986178 0.00866481
0.0899154 0.14207 0.985764 0.00852699
0.0895137 0.144836 0.985398 0.00817627
0.087942 0.147277 0.985178 0.00634763
0.0908154 0.149433 0.984592 0.00441205
0.0913572 0.151218 0.98427 0
0.0919158 0.153883 0.983804 0
0.0921371 0.156593 0.983356 0
0.092583 0.159324 0.982876 0
0.0929818 0.162381 0.982337 0
0.0923091 0.165544 0.981873 0
0.0923869 0.168811 0.981309 0
0.09232 0.171825 0.980792 0
0.0919129 0.174894 0.980288 0
0.0904871 0.178496 0.979771 0
0.09186 0.183442 0.978729 0.00396536
0.0923493 0.186448 0.978115 0.00299334
0.0930696 0.189313 0.977496 0.000935554
0.0957449 0.195062 0.976106 0.00512428
0.0936388 0.196851 0.975952 0.000249671
0.094059 0.200631 0.975141 0
0.094564 0.204815 0.974222 0
0.0935269 0.208788 0.973478 0
0.0946304 0.213684 0.972309 0
0.0936881 0.217605 0.97153 0
0.0931112 0.222098 0.970568 0
0.0926747 0.226181 0.969667 0
0.0913156 0.23164 0.968506 0
0.0930068 0.237077 0.967029 0
0.0937059 0.241948 0.965754 0
0.0924103 0.246534 0.964718 0
0.0927927 0.253395 0.962902 0
0.0919462 0.259087 0.961467 0
0.0926149 0.264094 0.96004 0
0.0926143 0.26889 0.958708 0
0.0927298 0.276901 0.956414 0
0.0920424 0.282164 0.954941 0
0.0926582 0.287995 0.953139 0
0.0931588 0.294784 0.951012 0
0.0922092 0.300684 0.949256 0
0.0932892 0.307587 0.946936 0
0.0933597 0.313357 0.945035 0
0.0932096 0.319414 0.94302 0
0.0937173 0.326016 0.940708 0
0.0918775 0.333908 0.938117 0
0.0777754 -0.257337 0.963187 0.0104185
0.077742 -0.245903 0.966172 0.00707951
0.0778851 -0.242927 0.966913 0.0100364
0.0763251 -0.230911 0.969977 0.0076235
0.0763352 -0.224721 0.971429 0.00898054
0.0750416 -0.213963 0.973955 0.00162304
0.0744292 -0.207316 0.975439 0.00029434
0.0742968 -0.203019 0.976352 0
0.0753475 -0.197433 0.977417 0
0.0745806 -0.193073 0.978346 0
0.0755847 -0.188166 0.979224 0
0.0766794 -0.183805 0.979967 0
0.0774465 -0.18098 0.980433 0.00141485
0.0766533 -0.177056 0.981211 0.00229471
0.0769107 -0.171972 0.982095 0.00225332
0.0753311 -0.167568 0.982978 0.0026749
0.0749601 -0.167614 0.982999 0.00900224
0.0752533 -0.163947 0.983595 0.00928557
0.0753061 -0.160983 0.98408 0.0117384
0.0756909 -0.15879 0.984407 0.0152233
0.0768814 -0.156567 0.984671 0.0171711
0.0771056 -0.151642 0.985424 0.0159497
0.076425 -0.148399 0.98597 0.0176307
0.0776848 -0.1445 0.986451 0.0160936
0.0757135 -0.142202 0.986938 0.0196408
0.0755168 -0.137954 0.987555 0.0182984
0.0761471 -0.134353 0.988003 0.0179268
0.075217 -0.130663 0.988569 0.0157848
0.0756813 -0.127536 0.988942 0.0159487
0.0742401 -0.123676 0.989542 0.0142273
0.0731654 -0.120161 0.990055 0.0124336
0.0753343 -0.116384 0.990343 0.00944714
0.0752453 -0.114624 0.990555 0.0123796
0.0738956 -0.112507 0.990899 0.0152198
0.0736607 -0.109292 0.991277 0.0142971
0.0742325 -0.106868 0.991498 0.0144889
0.0739044 -0.103047 0.991927 0.0143562
0.0735762 -0.0987901 0.992384 0.0117974
0.0735816 -0.0949977 0.992754 0.0101936
0.0728327 -0.091348 0.993152 0.00693432
0.0743883 -0.0873248 0.993399 0.00469507
0.0735486 -0.0845691 0.993699 0.0029639
0.0757604 -0.0814979 0.99379 0.00318651
0.0768851 -0.0789853 0.993906 0.00233993
0.0755234 -0.0769857 0.994168 0.00384364
0.0735579 -0.0743191 0.994518 0.00421183
0.0734098 -0.0714622 0.994738 0.00541138
0.0724344 -0.0685981 0.995011 0.00904299
0.0730272 -0.0651054 0.995203 0.00441646
0.0743896 -0.0631639 0.995227 0.00804462
0.0740496 -0.0614626 0.995359 0.0101199
0.0743752 -0.0585027 0.995513 0.00986585
0.0749329 -0.0560109 0.995614 0.00914277
0.0746655 -0.0543042 0.995729 0.0132681
0.0755334 -0.052194 0.995776 0.0111899
0.0765839 -0.0512482 0.995745 0.0131959
0.0755089 -0.0495261 0.995914 0.0106606
0.0762799 -0.0474047 0.995959 0.0091737
0.0761517 -0.0451175 0.996075 0.00602558
0.0751088 -0.0433341 0.996233 0.00467265
0.0733716 -0.0405814 0.996479 0.00419569
0.0726761 -0.0384493 0.996614 0.0102449
0.0736173 -0.0350047 0.996672 0.0107009
0.0711362 -0.0315559 0.996967 0.00601841
0.0713314 -0.0278252 0.997065 0.00454471
0.0692628 -0.0240937 0.997307 0.00859465
0.067522 -0.0197625 0.997522 0.0052911
0.068389 -0.0164763 0.997523 0.00496612
0.0664907 -0.0138411 0.997691 0.00318382
0.0663211 -0.0103081 0.997745 0.0042542
0.0632079 -0.00724937 0.997974 0.00363434
0.062485 -0.00451862 0.998036 0.000115746
0.0610512 -0.0018033 0.998133 0.00246061
0.061831 0.000386591 0.998087 0.00196815
0.0607221 0.00286191 0.998151 0.00694001
0.0594946 0.00583404 0.998212 0.00314313
0.0578986 0.00847771 0.998286 0.00182116
0.0576359 0.0106457 0.998281 0.000647484
0.0574355 0.0123952 0.998272 0.00014242
0.057306 0.0142314 0.998255 0
0.0568939 0.0160585 0.998251 0
0.0561671 0.0178894 0.998261 0.000886698
0.0566936 0.0190111 0.998211 0.00135728
0.0553748 0.0203454 0.998258 0.00308426
0.0553587 0.0210677 0.998244 0.00235726
0.0540375 0.021215 0.998314 0.000621954
0.053504 0.022633 0.998311 0.00103215
0.0534017 0.0236342 0.998293 0.00169719
0.0524303 0.0244772 0.998325 0.00152811
0.0518502 0.025242 0.998336 0
0.05287 0.0258398 0.998267 0.00405223
0.0526144 0.0266717 0.998259 0.00185468
0.0512295 0.0268923 0.998325 0.000334492
0.0493833 0.0273475 0.998405 0
0.0484559 0.0275811 0.998444 0.00125524
0.0471317 0.0273571 0.998514 0.00273743
0.0476058 0.0276897 0.998482 0.0030109
0.046709 0.0279021 0.998519 0.00588298
0.0480739 0.0279163 0.998454 0.00212965
0.0485677 0.0274948 0.998441 0
0.0453839 0.0272268 0.998599 0
0.0452541 0.0267553 0.998617 0
0.0426391 0.0264442 0.998741 0
0.0425871 0.0261714 0.99875 0
0.041844 0.0256396 0.998795 0
0.0396317 0.0252673 0.998895 0
0.0405044 0.0250095 0.998866 0
0.03899 0.0244583 0.99894 0
0.0409481 0.0242108 0.998868 0
0.0406336 0.0238935 0.998888 0
0.039484 0.0231686 0.998952 0
0.0399689 0.0227307 0.998942 0
0.0379283 0.0222536 0.999033 0
0.0381732 0.0219932 0.999029 0
0.0373823 0.0215349 0.999069 0
0.0358608 0.0210782 0.999134 0
0.0339994 0.0203721 0.999214 0
0.0326872 0.01977 0.99927 0
0.0316334 0.0195298 0.999309 0
0.0312798 0.0189048 0.999332 0
0.0318775 0.0183 0.999324 0
