0.130582 -0.029172 0.991008 0.0133873
0.134066 -0.0214182 0.990741 0.0167245
-0.0595878 0.026194 0.997879 0
-0.0602209 0.00983279 0.998137 0.0127054
-0.0596719 -0.00533918 0.998204 0.0243413
-0.0608532 -0.012805 0.998065 0.0236084
-0.0590843 -0.017799 0.998094 0.0217513
-0.0555243 -0.0072532 0.998431 0.000993178
-0.0503837 0.000489698 0.99873 0
-0.0504308 -0.00151249 0.998726 0.00178256
-0.0483446 0.00144293 0.99883 0
-0.0391482 0.020254 0.999028 0.00707932
-0.0378151 0.0251863 0.998967 0
-0.0335767 0.0313134 0.998945 0
-0.0351964 0.0237694 0.999098 0.0237709
-0.0328485 0.0318694 0.998952 0.0384632
-0.0304918 0.0153403 0.999417 0.0444018
-0.0246801 0.0339141 0.99912 0.0335164
-0.0194923 0.0408148 0.998977 0.0250911
-0.0113011 0.0253346 0.999615 0.0192332
0.00142194 0.0432315 0.999064 0
0.00475323 0.0462461 0.998919 0
0.0101242 0.042572 0.999042 0
0.0348578 0.02928 0.998963 0.0165611
0.0386393 0.0166052 0.999115 0.0204972
0.0517192 0.0148069 0.998552 0.00941293
0.0594198 0.0249579 0.997921 0
0.0724864 0.0382776 0.996635 0
0.0870902 0.0449754 0.995185 0
0.099313 0.0500503 0.993797 0
0.101514 0.0455355 0.993791 0
0.106401 0.0393574 0.993544 0
0.111324 0.0279801 0.99339 0
0.117908 0.0164672 0.992888 0
0.119269 0.0144407 0.992757 0
0.120419 0.0124804 0.992645 0
0.127408 -0.0145959 0.991743 0.00979569
0.131921 -0.0130232 0.991175 0.0131667
-0.0681134 0.00640486 0.997657 0.0300181
-0.0611699 -0.00171415 0.998126 0.0280945
-0.0586594 -0.0212552 0.998052 0.0241688
-0.0554873 -0.012465 0.998382 0.00878866
-0.0547302 -0.0115699 0.998434 0.00527553
-0.0503553 -0.00388285 0.998724 0
-0.0445712 0.00739779 0.998979 0
-0.0447853 0.0136051 0.998904 0
-0.0403305 0.0120395 0.999114 0.00649778
-0.0342237 0.0256917 0.999084 0
-0.0388772 0.0194352 0.999055 0.00763403
-0.0369047 0.0250351 0.999005 0.0224855
-0.0339994 0.0199325 0.999223 0.0295369
-0.0263755 0.023226 0.999382 0.0215589
-0.0222558 0.0282147 0.999354 0.0229977
-0.0208614 0.0296808 0.999342 0.0218704
-0.0124197 0.0348764 0.999314 0.00936969
-0.00431402 0.0239897 0.999703 0.0125413
0.0058693 0.0372641 0.999288 0.00237794
0.009147 0.0469367 0.998856 0.00919534
0.037452 0.0164726 0.999163 0.0190363
0.0378944 0.0198686 0.999084 0.0175457
0.0485024 0.0243976 0.998525 0.00658429
0.0556656 0.042571 0.997542 0.00178453
0.0708958 0.0402133 0.996673 0
0.0845235 0.0366089 0.995749 0
0.0944029 0.0305912 0.995064 0
0.107007 0.0510166 0.992948 0
0.108007 0.0315737 0.993649 0
0.114011 0.0325555 0.992946 0
0.119631 0.0191304 0.992634 0
0.119269 0.0197756 0.992665 0
0.123413 0.013544 0.992263 0
0.1258 -0.0150664 0.991941 0.00202505
0.131543 -0.0210107 0.991088 0.0154616
-0.0627959 -0.00146726 0.998025 0.0218842
-0.0595581 -0.00327469 0.998219 0.022436
-0.058727 -0.0215642 0.998041 0.0217338
-0.0567292 -0.0138571 0.998293 0.0158685
-0.0531609 -0.0100549 0.998535 0.0030725
-0.0510763 -0.00182491 0.998693 0
-0.0478663 -0.00340723 0.998848 0
-0.0422799 0.0116119 0.999038 0
-0.0321375 0.0133999 0.999394 0
-0.0322198 0.0323593 0.998957 0.00150588
-0.0300951 0.0266485 0.999192 0.016959
-0.0283903 0.0251433 0.999281 0.0192998
-0.0252521 0.0206578 0.999468 0.0260154
-0.0232485 0.0172563 0.999581 0.0230639
-0.0192836 0.0235638 0.999536 0.0174543
-0.0143241 0.0128924 0.999814 0.0217684
0.000383086 0.029801 0.999556 0
0.000810101 -0.00271758 0.999996 0.0119116
0.00847034 0.00786465 0.999933 0.00855531
0.030315 0.0125392 0.999462 0.0222057
0.0366115 0.000831305 0.999329 0.0272192
0.0463905 0.0075069 0.998895 0.0211397
0.0533729 0.0163798 0.99844 0.0157781
0.0733003 0.00476945 0.997299 0.0141327
0.0845624 0.0172681 0.996269 0
0.100854 0.0312623 0.99441 0
0.108344 0.0415822 0.993243 0
0.109574 0.0406439 0.993147 0
0.110788 0.0304635 0.993377 0
0.118479 0.0263839 0.992606 0
0.119899 0.0189801 0.992605 0
0.127189 0.00993855 0.991829 0
0.130496 -0.0146141 0.991341 0.00686708
0.133001 -0.0250538 0.990799 0.0159961
-0.0652746 -0.0162789 0.997735 0.0214695
-0.0619232 -0.0114785 0.998015 0.0126947
-0.0540368 -0.00619385 0.99852 0.00713346
-0.0510691 -0.0130047 0.99861 0.00938207
-0.0426116 -0.00871902 0.999054 0
-0.0410581 -0.00402622 0.999149 0
-0.033963 0.0077004 0.999393 0.00788128
-0.0340966 0.0218287 0.99918 0.0136753
-0.0264872 0.015431 0.99953 0.0125784
-0.0213203 0.0247613 0.999466 0.011677
-0.0193039 0.015941 0.999687 0.0261628
-0.0185046 0.0204584 0.999619 0.020938
-0.01712 0.011052 0.999792 0.0174139
-0.0119604 0.00307066 0.999924 0.0139574
-0.00367933 0.00957658 0.999947 0.00371794
0.00553795 0.0145319 0.999879 0
0.00784112 0.00785723 0.999938 0.0026146
0.00952641 0.012288 0.999879 0.00743673
0.0258286 -0.00127088 0.999666 0.0259458
0.029515 -0.00514318 0.999551 0.0218182
0.0438066 0.00414288 0.999031 0.00955204
0.0508905 0.00781168 0.998674 0.0137512
0.0729287 0.0132287 0.997249 0.00813676
0.0817905 0.00807054 0.996617 0
0.0975546 0.0284721 0.994823 0
0.103711 0.0198831 0.994409 0
0.107793 0.0312191 0.993683 0
0.116333 0.0319174 0.992697 0
0.126661 0.0307568 0.991469 0
0.128965 0.0139663 0.991551 0
0.128706 0.0144543 0.991577 0
0.134654 -0.00742925 0.990865 0
-0.0592661 -0.00971678 0.998195 0.0204559
-0.059418 -0.0151922 0.998118 0.0252723
-0.055028 -0.00701637 0.99846 0.0155882
-0.0488212 -0.00226483 0.998805 0
-0.0536616 -0.000917177 0.998559 0.0119398
-0.046327 -0.0141359 0.998826 0.00798932
-0.0437409 -0.00849177 0.999007 0.0112954
-0.0379634 0.00705661 0.999254 0.0138116
-0.0334254 0.00711791 0.999416 0.0122389
-0.0278482 0.0210404 0.999391 0.0119675
-0.022552 0.0147396 0.999637 0.0133776
-0.0175643 0.0197637 0.99965 0.0182455
-0.01687 0.0185354 0.999686 0.0232273
-0.0144033 0.00893745 0.999856 0.0229552
-0.0122045 -0.0116447 0.999858 0.0125687
-0.00398883 0.00841939 0.999957 0.00882766
-0.000238552 -0.00508363 0.999987 0.00254007
0.00815761 0.00928003 0.999924 0
0.013514 0.00216942 0.999906 0.0122329
0.0244087 -0.00145768 0.999701 0.0360664
0.0291099 0.00375883 0.999569 0.0269155
0.0480398 0.0123933 0.998769 0.0115374
0.0554271 0.00224818 0.99846 0.0198765
0.0676463 0.013294 0.997621 0.0210781
0.0789772 0.0166642 0.996737 0.00262815
0.0916042 0.0231275 0.995527 0
0.105883 0.0344564 0.993781 0
0.112163 0.0421992 0.992793 0
0.121987 0.0512802 0.991206 0
0.128943 0.0395481 0.990863 0
0.126501 0.0253887 0.991641 0
0.13209 0.0120754 0.991164 0
0.141972 0.00240609 0.989868 0
0.140448 -0.00484674 0.990076 0
-0.0614384 -0.0105825 0.998055 0.0223657
-0.0593074 -0.0040454 0.998232 0.03488
-0.0560965 -0.000556505 0.998425 0.0190961
-0.0537835 0.0053132 0.998538 0.00891567
-0.0497545 -0.00584257 0.998744 0.0183881
-0.0493272 -0.014716 0.998674 0.0255124
-0.0478308 -0.02534 0.998534 0.023131
-0.0403904 -0.00649781 0.999163 0.0218379
-0.0359936 -0.000176887 0.999352 0.0126558
-0.0293313 0.0123048 0.999494 0.00141855
-0.0280244 0.012226 0.999532 0.00740057
-0.0243456 0.0238407 0.999419 0.0113009
-0.0206059 0.00519257 0.999774 0.0342677
-0.020178 -0.00898935 0.999756 0.0390097
-0.020683 -0.0234116 0.999512 0.0408896
-0.010051 0.00255287 0.999946 0.0261048
-0.00895423 -0.0077032 0.99993 0.0248115
-0.003002 0.00695798 0.999971 0.0176688
0.0107933 0.00350589 0.999936 0.0175229
0.022454 -0.0149769 0.999636 0.0290064
0.0290566 -0.00935498 0.999534 0.0218792
0.0448097 -0.00470923 0.998984 0.0263208
0.0585102 0.0110331 0.998226 0.0231346
0.0709448 0.00696938 0.997456 0.0346521
0.075264 0.0123418 0.997087 0.0234451
0.089346 0.0280784 0.995605 0
0.102183 0.0280635 0.99437 0
0.11257 0.0355343 0.993008 0
0.120416 0.0475531 0.991584 0
0.128555 0.0438614 0.990732 0
0.126258 0.0276869 0.991611 0
0.133992 0.0163892 0.990847 0
0.141252 0.00348782 0.989968 0
0.143834 0.000220864 0.989602 0
-0.0558393 0.00191133 0.998438 0.00796378
-0.0544172 0.00538301 0.998504 0.0203731
-0.0523825 -0.00777175 0.998597 0.0223091
-0.0466873 -0.0160097 0.998781 0.020804
-0.0472837 -0.02136 0.998653 0.0325076
-0.0399871 -0.0135993 0.999108 0.0149172
-0.0381814 -0.00875233 0.999232 0.0183014
-0.0344699 0.000546829 0.999406 0.0187551
-0.0280047 0.0153946 0.999489 0.00229174
-0.0255533 0.00466431 0.999663 0.0208979
-0.0277003 -0.0174878 0.999463 0.0358148
-0.0210958 -0.0153697 0.999659 0.0402086
-0.0174548 -0.0163566 0.999714 0.0426587
-0.0112944 -0.0246299 0.999633 0.0450884
-0.00686597 -0.0398883 0.999181 0.0371655
-0.00576879 -0.00928349 0.99994 0.0393642
0.00604689 -0.0138158 0.999886 0.0311605
0.0264453 -0.000655168 0.99965 0.0276943
0.0289658 -0.00114416 0.99958 0.0358263
0.0496131 -0.0170199 0.998623 0.0290594
0.0568292 -0.0251906 0.998066 0.0431793
0.0674769 -0.00702068 0.997696 0.0338319
0.0757751 -0.000551409 0.997125 0.0186037
0.0894432 0.0122157 0.995917 0
0.103068 0.017957 0.994512 0
0.109556 0.0137171 0.993886 0
0.11595 0.0288981 0.992835 0
0.128264 0.0270128 0.991372 0
0.12955 0.00981737 0.991524 0
0.133054 0.0127211 0.991027 0
0.140029 -0.0116124 0.990079 0
-0.0568204 -0.00646128 0.998364 0.00857825
-0.0542186 -0.00712511 0.998504 0.00935826
-0.0582202 -0.0234499 0.998028 0.0378692
-0.0506937 -0.00715687 0.998689 0.0261925
-0.0502541 -0.0200509 0.998535 0.0381651
-0.0411449 -0.0191272 0.99897 0.0244901
-0.0415891 -0.02054 0.998924 0.0210479
-0.0328368 0.00782595 0.99943 0.00277091
-0.0315627 0.00283115 0.999498 0.0149975
-0.0243579 -0.000747703 0.999703 0.0180052
-0.0276687 -0.0177641 0.999459 0.0319851
-0.026926 -0.0198233 0.999441 0.0399798
-0.0211225 -0.0402103 0.998968 0.0489773
-0.0171225 -0.0150183 0.999741 0.053484
-0.0129751 -0.0307639 0.999442 0.0541845
0.000253187 -0.0107327 0.999942 0.0378881
0.00217492 -0.00679247 0.999975 0.03709
0.0165716 0.00674553 0.99984 0.0238105
0.0247246 -0.00525185 0.999681 0.0391327
0.0267217 0.00387089 0.999635 0.0423127
0.0445993 -0.0016335 0.999004 0.027235
0.0524218 -0.0235607 0.998347 0.0342194
0.0627288 -0.0207308 0.997815 0.0232177
0.0692959 -0.00768089 0.997567 0.0201901
0.0868163 0.00403667 0.996216 0
0.0993741 0.00990112 0.995001 0
0.103242 0.00764356 0.994627 0
0.110006 0.0147969 0.993821 0
0.119968 0.00128475 0.992777 0
0.129848 0.0096369 0.991487 0
0.130808 0.00540649 0.991393 0
0.138034 -0.00230316 0.990425 0
0.137244 -0.00807024 0.990504 0
-0.0537482 -0.00205318 0.998552 0
-0.0535172 -0.00956449 0.998521 0.00920749
-0.0526798 -0.018601 0.998438 0.0134709
-0.0539095 -0.0255657 0.998218 0.0352695
-0.052738 -0.0356999 0.99797 0.0495236
-0.0425212 -0.0124861 0.999018 0.0177401
-0.0379379 -0.0183756 0.999111 0.0125948
-0.0323793 0.00899183 0.999435 0.00291881
-0.0280453 6.95848e-05 0.999607 0.00962461
-0.0340435 -0.0132823 0.999332 0.0368101
-0.0268744 -0.0213392 0.999411 0.0464604
-0.0295551 -0.0457644 0.998515 0.0620432
-0.0253852 -0.0407 0.998849 0.0563372
-0.0177761 -0.0311767 0.999356 0.0609569
-0.0128522 -0.0241668 0.999625 0.0602295
-0.00400078 -0.0368742 0.999312 0.0560124
0.00202924 -0.02854 0.999591 0.0423734
0.0165032 -0.00720235 0.999838 0.0183225
0.02178 0.00696994 0.999739 0.0327448
0.0303597 0.00948435 0.999494 0.0448241
0.0456804 -0.000880726 0.998956 0.0275834
0.051716 -0.0130198 0.998577 0.0319927
0.0638626 -0.0121396 0.997885 0.0232158
0.0744537 -0.00722789 0.997198 0.035511
0.0841252 0.00244615 0.996452 0.0173674
0.102246 0.0127957 0.994677 0
0.10574 0.00880002 0.994355 0
0.117864 0.0100719 0.992979 0
0.127159 0.000419205 0.991882 0
0.127489 0.00249123 0.991837 0
0.135511 -0.00825802 0.990741 0
-0.0528955 -0.00125052 0.998599 0
-0.0527229 -0.00605923 0.998591 0
-0.053239 -0.0137199 0.998488 0.00803224
-0.053052 -0.0255494 0.998265 0.0329776
-0.051473 -0.0169774 0.99853 0.0278328
-0.0407111 -0.0125072 0.999093 0.00922252
-0.0363709 0.000694467 0.999338 0
-0.0337346 -0.0158045 0.999306 0.0173903
-0.0324945 -0.00593756 0.999454 0.0222324
-0.0286655 -0.0100097 0.999539 0.0192378
-0.0304369 -0.0278033 0.99915 0.0460159
-0.030442 -0.0378373 0.99882 0.0529537
-0.0268047 -0.0401155 0.998835 0.0705911
-0.0157247 -0.0312232 0.999389 0.0627177
-0.0125414 -0.0393528 0.999147 0.0653858
-0.00793306 -0.0226821 0.999711 0.0518009
0.00620693 -0.0145827 0.999874 0.0281363
0.0153769 -0.0144272 0.999778 0.0276971
0.0277015 -0.0199655 0.999417 0.0359013
0.0321052 -0.0146554 0.999377 0.0386705
0.0463841 -0.00826783 0.998889 0.0338712
0.0503866 -0.00343554 0.998724 0.0261223
0.0623589 -0.00622759 0.998034 0.0263912
0.0689543 -0.00678357 0.997597 0.0351464
0.082316 -0.00453537 0.996596 0.0190526
0.0975169 0.00575437 0.995217 0
0.102922 0.0107527 0.994631 0
0.115486 0.00615953 0.99329 0
0.122781 -0.00197085 0.992432 0
0.12614 -0.010616 0.991956 0
-0.0565722 -0.0126364 0.998319 0.00497177
-0.0579711 -0.0172173 0.99817 0.00723356
-0.0524711 -0.00781438 0.998592 0.00592649
-0.0483286 -0.0104439 0.998777 0.0209136
-0.0481031 -0.0199231 0.998644 0.024419
-0.0427968 -0.0238858 0.998798 0.00585067
-0.0358305 -0.0198753 0.99916 0
-0.0353533 -0.0261169 0.999034 0.0101846
-0.0341691 -0.0206756 0.999202 0.0271719
-0.0314849 -0.0356276 0.998869 0.0311352
-0.0301862 -0.0264242 0.999195 0.0333112
-0.0308825 -0.0390621 0.998759 0.0490381
-0.0219631 -0.0298986 0.999312 0.0436131
-0.0177353 -0.0427762 0.998927 0.060379
-0.0123668 -0.0421135 0.999036 0.0539265
-0.00690125 -0.0249112 0.999666 0.0388003
0.00715577 0.00175606 0.999973 0.0115528
0.0183633 -0.0179085 0.999671 0.0233653
0.0250295 -0.0209479 0.999467 0.0314714
0.0324352 -0.00622412 0.999454 0.0397341
0.0506069 -0.0124512 0.998641 0.0373367
0.0641036 -0.0196779 0.997749 0.0363528
0.0723975 -0.0208365 0.997158 0.0403208
0.0856498 -0.0168273 0.996183 0.0167586
0.0931488 -0.0133475 0.995563 0
0.0987918 -0.00309772 0.995103 0
0.108734 -0.0146597 0.993963 0
0.121655 -0.0141572 0.992471 0
0.124672 -0.022345 0.991946 0
-0.0543582 0.00308217 0.998517 0
-0.0564949 0.00395016 0.998395 0
-0.0552608 -0.010647 0.998415 0
-0.0550439 -0.0106052 0.998428 0
-0.0510203 -0.003578 0.998691 0.0146695
-0.0493807 -0.00816863 0.998747 0.011656
-0.0393485 -0.0222672 0.998977 0
-0.0328343 -0.00928261 0.999418 0
-0.0343818 -0.0127461 0.999327 0.0103363
-0.036078 -0.0243048 0.999053 0.0259646
-0.0284268 -0.0183705 0.999427 0.0206019
-0.0269904 -0.0185163 0.999464 0.021285
-0.0258199 -0.0293513 0.999236 0.0187777
-0.0200561 -0.0353754 0.999173 0.0295254
-0.0114994 -0.0272538 0.999562 0.0295416
-0.000233315 -0.0184545 0.99983 0.0258597
0.00105456 -0.00946653 0.999955 0.0174568
0.0082167 -0.00014084 0.999966 0.0281165
0.0177945 9.58874e-05 0.999842 0.00791373
0.0349887 0.00573808 0.999371 0.0263629
0.0497657 -0.00115052 0.99876 0.0238971
0.0599732 -0.00685437 0.998176 0.0153696
0.0677912 -0.00701814 0.997675 0.0246675
0.0834871 -0.00991101 0.99646 0.0130779
0.0892248 -0.017916 0.99585 0.00020296
0.098704 -0.0249684 0.994803 0
0.108912 -0.00511131 0.994038 0
0.113196 -0.00740545 0.993545 0
0.118012 -0.0192756 0.992825 0
0.126146 -0.00574968 0.991995 0
-0.0565803 -0.00099761 0.998398 0
-0.0558937 0.00579938 0.99842 0
-0.0552889 -0.0224931 0.998217 0
-0.0533778 -0.0202635 0.998369 0.00403004
-0.0506896 -0.0257493 0.998382 0.0113462
-0.0420739 -0.0202612 0.998909 0.00914466
-0.0358731 -0.0237498 0.999074 0.00608484
-0.0311709 -0.0230838 0.999247 0.0109686
-0.027475 -0.0266772 0.999266 0.0113382
-0.0237768 -0.0339059 0.999142 0.0162504
-0.0207448 -0.0289471 0.999366 0.00744405
-0.0143501 -0.0280838 0.999503 0.0131458
-0.00593149 -0.0284558 0.999577 0.0211914
-0.00134294 -0.0234831 0.999723 0.0177768
0.00195802 -0.00990881 0.999949 0.00359559
0.00960576 -0.0168695 0.999812 0.00585097
0.0214717 -0.00568676 0.999753 0.00443269
0.0320469 -6.48366e-05 0.999486 0.0183666
0.048738 0.0137066 0.998718 0.0263529
0.0554309 -0.0046347 0.998452 0.00932492
0.0683829 0.00555937 0.997644 0.00767204
0.0843539 0.0071303 0.99641 0
0.0947573 -0.0101793 0.995448 0
0.0996133 -0.0257017 0.994694 0
0.106138 -0.0317656 0.993844 0
0.11133 -0.00664226 0.993761 0
0.114127 -0.013048 0.993381 0
0.12029 -0.00293888 0.992735 0
0.121798 0.00206367 0.992553 0
-0.0584253 -0.00250632 0.998289 0
-0.0585899 -0.0104423 0.998228 0
-0.0616107 -0.024051 0.99781 0
-0.058744 -0.0236326 0.997993 0
-0.048999 -0.0222861 0.99855 0.00448299
-0.042528 -0.0105043 0.99904 0
-0.0405715 -0.0281411 0.99878 0.00918825
-0.0389981 -0.0357933 0.998598 0.0108871
-0.0288154 -0.0353944 0.998958 0
-0.0253925 -0.0296662 0.999237 0.009771
-0.0220759 -0.0381159 0.999029 0.0185003
-0.0179069 -0.0431467 0.998908 0.00653686
-0.0208048 -0.0375732 0.999077 0.0215797
-0.00807976 -0.0294544 0.999533 0.0185961
-0.00279809 -0.0329181 0.999454 0.0139669
0.00422968 -0.0233721 0.999718 0.0115059
0.0103022 -0.0168168 0.999806 0.00540118
0.0179279 -0.0300508 0.999388 0.0139953
0.0269521 0.00189577 0.999635 0
0.0315995 0.000236557 0.999501 0.00824507
0.0447163 0.00128732 0.998999 0.0201963
0.0536131 -0.0133216 0.998473 0.0145574
0.0676829 -0.00800742 0.997675 9.92902e-05
0.0885475 -0.0192927 0.995885 0
0.095056 -0.033034 0.994924 0
0.09626 -0.029132 0.99493 0
0.103767 -0.0248563 0.994291 0
0.110756 -0.00665743 0.993825 0
0.110868 -0.0132784 0.993746 0
0.123098 0.00525483 0.992381 0
-0.0614039 -0.00338322 0.998107 0
-0.061998 -0.00391976 0.998069 0
-0.0640445 -0.0264714 0.997596 0.00089289
-0.0547046 -0.020162 0.998299 0
-0.045328 -0.028806 0.998557 0
-0.0454792 -0.0249356 0.998654 0
-0.0419045 -0.043832 0.99816 0.00959622
-0.0396111 -0.040755 0.998384 0.00521682
-0.0380939 -0.0503566 0.998005 0.00134561
-0.0322997 -0.0411919 0.998629 0
-0.0287213 -0.047902 0.998439 0.0161575
-0.0226708 -0.054992 0.998229 0.0256811
-0.0225181 -0.0553247 0.998214 0.0255198
-0.0203991 -0.057204 0.998154 0.0414425
-0.00968367 -0.0382395 0.999222 0.0302311
-0.00841229 -0.0425198 0.99906 0.0218233
-0.000283138 -0.0412354 0.999149 0.0225512
0.0085446 -0.0169562 0.99982 0.00898982
0.0191576 -0.0237797 0.999534 0.00578353
0.0223035 -0.0156778 0.999628 0.0044449
0.0314259 -0.0092314 0.999463 0.0123359
0.0449275 0.00385178 0.998983 0.00192325
0.0512973 -0.00931633 0.99864 0.00593793
0.0623198 -0.00427459 0.998047 0.00759339
0.0770444 -0.00864509 0.99699 0.00122799
0.0948057 -0.0265095 0.995143 0
0.100061 -0.0369947 0.994293 0
0.100672 -0.0276968 0.994534 0
0.104169 -0.0236884 0.994277 0
0.109041 -0.00467532 0.994026 0
-0.0581213 -0.0101061 0.998258 0
-0.0590254 -0.0171464 0.998109 0.00273041
-0.0611892 -0.037449 0.997423 0.00830849
-0.0580609 -0.0314052 0.997819 0.00460295
-0.0475755 -0.0242584 0.998573 0
-0.0452943 -0.0328621 0.998433 0
-0.0458345 -0.0503365 0.99768 0.0111336
-0.0429964 -0.0562929 0.997488 0.0148367
-0.0406955 -0.0597265 0.997385 0.0104004
-0.0352792 -0.0513485 0.998057 0.0164632
-0.0341685 -0.0630458 0.997426 0.0280013
-0.0283928 -0.0544935 0.99811 0.0303043
-0.0201179 -0.06216 0.997863 0.0247256
-0.0185533 -0.0474869 0.998699 0.0267924
-0.00947794 -0.0427556 0.999041 0.0221848
-0.00224992 -0.0322611 0.999477 0.0124633
0.00416826 -0.0359824 0.999344 0.0184807
0.00761769 -0.0219494 0.99973 0.00751046
0.0176193 -0.0334467 0.999285 0
0.0237176 -0.0112414 0.999655 0
0.0304424 0.0110018 0.999476 0
0.0300449 0.00149027 0.999547 0
0.0456986 0.0172711 0.998806 0
0.0532186 -0.00704395 0.998558 0.00317361
0.0582422 -0.0217446 0.998066 0.0105745
0.0725204 -0.0134859 0.997276 0
0.0843196 -0.0145121 0.996333 0
0.0973065 -0.025956 0.994916 0
0.0974649 -0.0362784 0.994578 0
0.103098 -0.0331091 0.99412 0
0.107034 -0.0201739 0.994051 0
0.112706 -0.00996349 0.993578 0
0.115363 -0.0121611 0.993249 0
-0.0573682 -0.0194926 0.998163 0
-0.0588048 -0.0221292 0.998024 0
-0.0576525 -0.0334181 0.997777 0.000758609
-0.0490014 -0.0309673 0.998318 0
-0.0472085 -0.0409872 0.998044 0
-0.0413678 -0.0410583 0.9983 0.00343713
-0.0414565 -0.0498604 0.997895 0.00715745
-0.0440084 -0.0620384 0.997103 0.0224079
-0.0410884 -0.0591334 0.997404 0.0234901
-0.034192 -0.0576624 0.99775 0.0111061
-0.0287339 -0.0513669 0.998266 0.0142694
-0.023022 -0.0431333 0.998804 0.0146963
-0.0206125 -0.0568518 0.99817 0.0224073
-0.0101082 -0.0559024 0.998385 0.0320686
0.0013729 -0.039151 0.999232 0.0228473
0.00624514 -0.0301728 0.999525 0.00896813
0.0127878 -0.0275361 0.999539 0.00487267
0.0133883 -0.0251786 0.999593 0
0.0228419 -0.00136823 0.999738 0
0.0231226 -0.00562741 0.999717 0.00598111
0.030163 -0.00408092 0.999537 0
0.0429687 -0.00218417 0.999074 0
0.0509974 -0.016223 0.998567 0.00348888
0.0641575 -0.00335981 0.997934 0.0108045
0.0678688 -0.0302764 0.997235 0.00820683
0.0822881 -0.0131902 0.996521 0.00714866
0.0924625 -0.025874 0.99538 0
0.0945401 -0.0345978 0.99492 0.00383719
0.0982216 -0.0319615 0.994651 0
0.106306 -0.0212549 0.994106 0
0.112758 -0.00371681 0.993616 0
0.11087 -0.00549635 0.99382 0
0.112932 -0.012083 0.993529 0
-0.0648856 -0.0427101 0.996978 0.0161287
-0.0613768 -0.030108 0.99766 0.00814587
-0.0571043 -0.0306735 0.997897 0
-0.0527261 -0.0296316 0.998169 0
-0.0454497 -0.0282887 0.998566 0
-0.044138 -0.033989 0.998447 0
-0.0456251 -0.0536784 0.997515 0.00754177
-0.0413009 -0.0526204 0.99776 0
-0.0388471 -0.0566268 0.997639 0.00145626
-0.0412328 -0.055173 0.997625 0.0119159
-0.0311696 -0.0469673 0.99841 0.00215357
-0.0293567 -0.0443877 0.998583 0.00535772
-0.0242168 -0.0530735 0.998297 0.00933434
-0.0214958 -0.0508916 0.998473 0.00989654
-0.0105039 -0.0375444 0.99924 0.00857524
-0.000711614 -0.0234366 0.999725 0.0150113
0.00523869 -0.0259328 0.99965 0.00990441
0.0117645 -0.0170052 0.999786 0
0.0167486 0.0049923 0.999847 0
0.0218331 -0.0108079 0.999703 0
0.0258665 -0.00913078 0.999624 0
0.0289707 -0.00499373 0.999568 0.00207222
0.0433455 -0.000760022 0.99906 0
0.0525197 -0.00932259 0.998576 0
0.0597941 0.00400025 0.998203 0
0.0773141 -0.0221429 0.996761 0.00687773
0.0901281 -0.0152326 0.995814 0.0028426
0.0956172 -0.0257696 0.995085 0.0059776
0.0964942 -0.036251 0.994673 0
0.108414 -0.0209127 0.993886 0
0.110421 -0.0187556 0.993708 0
0.107848 -0.0230106 0.993901 0
0.113536 -0.0305257 0.993065 0
-0.0604419 -0.0403868 0.997354 0.00182506
-0.0577426 -0.0306421 0.997861 0
-0.0498279 -0.021734 0.998521 0
-0.0459249 -0.0285302 0.998537 0
-0.043007 -0.0305854 0.998607 0
-0.0451943 -0.040276 0.998166 0
-0.0399858 -0.0326023 0.998668 0
-0.0376043 -0.046781 0.998197 0
-0.0385934 -0.054434 0.997771 0.0105557
-0.0375498 -0.0620292 0.997368 0.0127226
-0.0323987 -0.0521531 0.998113 0.0198028
-0.022793 -0.0526761 0.998352 0.00465951
-0.0143881 -0.0405686 0.999073 0.000470868
-0.0103459 -0.0347133 0.999344 0.00821659
0.000241426 -0.0267023 0.999643 0.00843812
0.00713223 -0.0096151 0.999928 0
0.0114609 -0.0173804 0.999783 0
0.0205335 0.00511311 0.999776 0
0.0223746 0.00167716 0.999748 0
0.0270615 0.00396831 0.999626 0
0.0316237 -0.00203075 0.999498 0
0.0452456 -0.0106447 0.998919 0
0.0533714 -0.00260401 0.998571 0
0.0586697 0.00819407 0.998244 0
0.0838123 -0.0105171 0.996426 0
0.088179 -0.0134746 0.996013 0
0.100703 -0.0313189 0.994424 0.00500516
0.101219 -0.0322277 0.994342 0
0.104301 -0.0282093 0.994146 0
0.108286 -0.0253377 0.993797 0
0.106425 -0.0259955 0.993981 0
0.112973 -0.0414511 0.992733 8.44302e-05
0.114346 -0.0409477 0.992597 0
-0.0611332 -0.0481928 0.996965 0
-0.0571014 -0.0399087 0.99757 0
-0.0536598 -0.0343246 0.997969 0
-0.0503759 -0.018294 0.998563 0
-0.0434119 -0.0223376 0.998807 0
-0.0402571 -0.0249226 0.998878 0
-0.0382575 -0.0379409 0.998547 0
-0.037066 -0.0410715 0.998468 0
-0.0415557 -0.0510104 0.997833 0
-0.0319494 -0.0426183 0.99858 0
-0.0327922 -0.0370802 0.998774 0
-0.0275582 -0.0347715 0.999015 0
-0.0166387 -0.02895 0.999442 0
-0.0113309 -0.0275928 0.999555 0
-0.00872673 -0.0220845 0.999718 0
0.00186073 -0.0189024 0.99982 0
0.00923961 0.00307705 0.999953 0
0.0135738 -0.0064901 0.999887 0
0.0164149 0.0104306 0.999811 0
0.0246065 0.00383492 0.99969 0
0.0305753 0.000226338 0.999532 0
0.0341402 0.00889152 0.999377 0
0.0407674 0.00288581 0.999164 0
0.0530448 0.00109822 0.998592 0
0.0669696 0.0020295 0.997753 0
0.0735099 -0.0121717 0.99722 0
0.0808369 -0.00942591 0.996683 0
0.0880558 -0.0187091 0.99594 0.00383155
0.097138 -0.0328008 0.99473 0.00838521
0.0983827 -0.0341756 0.994562 0.000552443
0.103493 -0.0331735 0.994077 0
0.108061 -0.0351456 0.993523 0
0.108754 -0.0348158 0.993459 0
0.111298 -0.0397243 0.992993 0
0.116541 -0.0413004 0.992327 0
-0.0613623 -0.0489491 0.996915 0.00765149
-0.0627006 -0.049032 0.996827 0.00607863
-0.0592132 -0.0445332 0.997252 0
-0.0546986 -0.0259331 0.998166 0
-0.0491087 -0.0224079 0.998542 0
-0.0399613 -0.0333193 0.998646 0
-0.0380162 -0.0297644 0.998834 0
-0.0378362 -0.0424647 0.998381 0
-0.0361669 -0.0345741 0.998748 0
-0.0315173 -0.0376269 0.998795 0
-0.0310669 -0.0352217 0.998896 0
-0.0261876 -0.0293078 0.999227 0
-0.0226872 -0.0370507 0.999056 0
-0.0151728 -0.0415541 0.999021 0
-0.0103117 -0.0379491 0.999226 0
-0.0042517 -0.0201344 0.999788 0
-0.00127018 -0.0203123 0.999793 0
0.0069718 -0.0186995 0.999801 0
0.0162971 -0.00196827 0.999865 0
0.0176768 0.00113457 0.999843 0
0.0240548 0.010665 0.999654 0
0.0352016 -0.00292133 0.999376 0
0.0357453 -0.00199962 0.999359 0
0.0452284 -0.0179679 0.998815 0
0.0541081 -0.0140551 0.998436 0
0.0648273 -0.0132009 0.997809 0
0.0798183 -0.0153729 0.996691 0.00203469
0.0920348 -0.0270254 0.995389 0.000895674
0.0961888 -0.048234 0.994194 0.0158066
0.100271 -0.0572803 0.99331 0.0108074
0.103715 -0.0601903 0.992784 0
0.108062 -0.0521333 0.992776 0
0.108897 -0.0480726 0.99289 0
0.11137 -0.0424725 0.992871 0
0.118029 -0.0405935 0.99218 0
0.121602 -0.044161 0.991596 0
-0.0666377 -0.0524356 0.996399 0.00869359
-0.0729311 -0.0898702 0.99328 0.0352442
-0.0632141 -0.0710299 0.995469 0.0155842
-0.0652245 -0.0604439 0.996038 0.0172503
-0.0570724 -0.0368619 0.997689 0
-0.054093 -0.0149799 0.998424 0
-0.0499045 -0.0138427 0.998658 0
-0.0407981 -0.0318479 0.99866 0
-0.0373565 -0.0231187 0.999035 0
-0.0372405 -0.0334814 0.998745 0
-0.0340052 -0.030506 0.998956 0
-0.0348794 -0.0407405 0.998561 0
-0.0293844 -0.0360135 0.998919 0
-0.0241827 -0.037492 0.999004 0
-0.0177119 -0.0431025 0.998914 0
-0.0125165 -0.0443592 0.998937 0
-0.00852429 -0.0264227 0.999615 0
0.00514056 -0.0116514 0.999919 0
0.0135671 -0.00543194 0.999893 0
0.00962099 0.00320576 0.999949 0
0.0236325 -0.0201373 0.999518 0
0.0310237 -0.011027 0.999458 0
0.0359888 -0.0070948 0.999327 0
0.0436852 -0.0201899 0.998841 0
0.0499619 -0.0231919 0.998482 0
0.0637907 -0.0169699 0.997819 0
0.0822771 -0.0275825 0.996228 0
0.0917518 -0.0101594 0.99573 0
0.0944765 -0.0393559 0.994749 0.00256755
0.099032 -0.0515009 0.993751 0.000392225
0.101524 -0.0588668 0.99309 0
0.1037 -0.0665805 0.992378 0.000532224
0.106344 -0.0575467 0.992663 0
0.113272 -0.0551831 0.99203 0.00108173
0.11399 -0.056462 0.991876 0
0.123707 -0.050639 0.991026 0.00644485
-0.0657906 -0.0602294 0.996014 0.00980195
-0.070911 -0.0759498 0.994587 0.0305867
-0.060945 -0.0622512 0.996198 0.00524136
-0.0572798 -0.0475914 0.997223 0
-0.0544492 -0.0369741 0.997832 0
-0.0499714 -0.0220926 0.998506 0
-0.043999 -0.0109637 0.998971 0
-0.0429104 -0.0233223 0.998807 0
-0.0418172 -0.0245962 0.998822 0
-0.0368353 -0.028465 0.998916 0
-0.033839 -0.0435525 0.998478 0
-0.0319319 -0.0361433 0.998836 0
-0.027355 -0.0356055 0.998991 0
-0.0217324 -0.0421366 0.998875 0
-0.019422 -0.0364529 0.999147 0
-0.0151299 -0.031688 0.999383 0
-0.00964762 -0.0275178 0.999575 0
0.00562581 -0.0164765 0.999848 0
0.00805977 -0.00651499 0.999946 0
0.0155651 -0.00759557 0.99985 0
0.0314899 -0.0129464 0.99942 0
0.0332518 -0.0185165 0.999276 0
0.0455343 -0.0149581 0.998851 0
0.0542029 -0.0118494 0.99846 0
0.0689135 -0.0196148 0.99743 0
0.0845629 -0.0268569 0.996056 0
0.0906694 -0.0391984 0.995109 0
0.094533 -0.0428555 0.994599 0
0.102122 -0.0551929 0.99324 0
0.107412 -0.0579859 0.992522 0
0.103973 -0.0639628 0.992521 0.00879224
0.108497 -0.0732654 0.991393 0.0155882
0.115949 -0.0786313 0.990138 0.0243673
0.120994 -0.0606718 0.990797 0.0162292
0.129668 -0.0586009 0.989824 0.0168666
-0.0692437 -0.069912 0.995147 0.0220557
-0.0728479 -0.079878 0.994139 0.0289239
-0.0575021 -0.0571796 0.996707 0
-0.0529605 -0.0335228 0.998034 0
-0.0509251 -0.0275198 0.998323 0
-0.0450762 -0.00921901 0.998941 0
-0.047579 -0.00895861 0.998827 0
-0.0471353 -0.00816949 0.998855 0
-0.0433623 -0.0259414 0.998723 0
-0.038069 -0.0237327 0.998993 0
-0.0382627 -0.0277626 0.998882 0
-0.0349441 -0.0383681 0.998653 0
-0.0277757 -0.0283811 0.999211 0
-0.0254238 -0.0388235 0.998923 0
-0.0257168 -0.0507828 0.998379 0
-0.0163835 -0.0418399 0.99899 0
-0.0146377 -0.0439606 0.998926 0
-0.0102631 -0.0295023 0.999512 0
0.00586539 -0.0166714 0.999844 0
0.00760726 -0.0218722 0.999732 0
0.0472293 -0.0274486 0.998507 0
0.0549476 -0.0297848 0.998045 0
0.0745557 -0.0230339 0.996951 0
0.0852474 -0.0268878 0.995997 0
0.0911059 -0.0353999 0.995212 0
0.0933643 -0.037699 0.994918 0
0.0982058 -0.0519684 0.993808 0.00190251
0.103983 -0.0655665 0.992416 0.0091464
0.103375 -0.06918 0.992234 0.00792935
0.110377 -0.0648455 0.991772 0.0144101
0.113785 -0.0685679 0.991136 0.00219557
0.118954 -0.0617061 0.99098 0.00752059
0.123088 -0.0589078 0.990646 0.00853837
-0.0746968 -0.0867605 0.993425 0.0314089
-0.0700373 -0.0839806 0.994003 0.0267943
-0.0646309 -0.0753836 0.995058 0.0186545
-0.0620662 -0.0669347 0.995825 0.011028
-0.0556962 -0.046137 0.997381 0
-0.0492325 -0.0206644 0.998574 0
-0.0460433 0.00171134 0.998938 0
-0.0442966 -0.00155434 0.999017 0
-0.0416411 -0.0138653 0.999036 0
-0.0400615 -0.0199322 0.998998 0
-0.0393463 -0.0432717 0.998288 0.00136069
-0.0383614 -0.04341 0.998321 0
-0.0309494 -0.0316593 0.999019 0
-0.0289896 -0.0398121 0.998787 0
-0.0236254 -0.0389452 0.998962 0
-0.0216736 -0.0411147 0.998919 0
-0.0151033 -0.0338432 0.999313 0
0.0540538 -0.0329949 0.997993 0
0.0658941 -0.0315909 0.997326 0
0.0847359 -0.0293615 0.995971 0
0.089484 -0.0458577 0.994932 0
0.0881811 -0.0606088 0.994259 0
0.0938379 -0.0660691 0.993393 0
0.0967751 -0.0539576 0.993843 0
0.104544 -0.0703975 0.992026 0.0118362
0.108444 -0.0773046 0.991092 0.0130779
0.115466 -0.0786426 0.990193 0.0111677
0.119004 -0.0746937 0.99008 0.013381
0.125567 -0.0678666 0.989761 0.00100873
0.130654 -0.0478519 0.990273 0
-0.0717037 -0.0816729 0.994076 0.0157432
-0.0707392 -0.0794152 0.994329 0.0213758
-0.0660887 -0.0726125 0.995168 0.0165349
-0.0659099 -0.0698794 0.995376 0.0173407
-0.064582 -0.0710098 0.995383 0.0149382
-0.0571296 -0.0500581 0.997111 0.00384284
-0.052633 -0.0329109 0.998071 0
-0.051018 -0.0115431 0.998631 0
-0.0467816 -0.0168826 0.998762 0
-0.0430346 -0.0195613 0.998882 0
-0.0442558 -0.0280231 0.998627 0
-0.0433141 -0.0575092 0.997405 0.0121495
-0.0387036 -0.0406389 0.998424 0.00372087
-0.034483 -0.0464664 0.998324 0.00783522
-0.0301092 -0.0490401 0.998343 0.0132224
-0.0289245 -0.0466195 0.998494 0.00542691
-0.0242855 -0.0290147 0.999284 0
-0.0214863 -0.0142155 0.999668 0
0.0652439 -0.0327034 0.997333 0
0.0853224 -0.0276916 0.995968 0
0.0918695 -0.0480575 0.994611 0.000872791
0.096283 -0.0592848 0.993587 0.013493
0.105537 -0.0657987 0.992236 0.010322
0.108664 -0.0716798 0.991491 0.0189607
0.113303 -0.0805825 0.990287 0.0149444
0.117132 -0.0768437 0.990139 0.00814144
0.124867 -0.0601804 0.990347 0
-0.0645922 -0.0747667 0.995107 0.0013497
-0.0720688 -0.0953932 0.992827 0.0209951
-0.0668985 -0.0782345 0.994688 0.0204572
-0.0670493 -0.0770482 0.99477 0.0248549
-0.0652365 -0.0667274 0.995636 0.0290693
-0.0606612 -0.0482216 0.996993 0.0168641
-0.0545084 -0.036488 0.997846 0.00404828
-0.0499993 -0.0223422 0.998499 0
-0.0513858 -0.0297559 0.998235 0.00803405
-0.0481169 -0.0295964 0.998403 0
-0.0457325 -0.0279096 0.998564 0
-0.0462529 -0.055366 0.997394 0.0259351
-0.0427836 -0.0453752 0.998053 0.012916
-0.029751 -0.0443599 0.998573 0.00375056
-0.022629 -0.0410739 0.9989 0
-0.0247345 -0.0326718 0.99916 0
-0.0231855 -0.026767 0.999373 0
-0.0215608 -0.0195633 0.999576 0
0.0770999 -0.0429203 0.996099 0
0.0841033 -0.0267717 0.996097 0
0.0934702 -0.0628843 0.993634 0
0.103831 -0.0734915 0.991876 0.0239645
0.105107 -0.0699387 0.991999 0.019285
0.115895 -0.0802024 0.990018 0.0145464
0.117133 -0.0757398 0.990224 0.00511845
0.122942 -0.0673611 0.990125 0
-0.0630673 -0.0743245 0.995238 0.00583015
-0.0617942 -0.0718133 0.995502 0.00446612
-0.0689438 -0.0860928 0.993899 0.0164787
-0.0623272 -0.0729484 0.995386 0.00990354
-0.0673985 -0.0753885 0.994874 0.0247314
-0.0640908 -0.0525858 0.996558 0.0227582
-0.0643502 -0.0575716 0.996265 0.0196428
-0.0584674 -0.0276727 0.997906 0
-0.0546528 -0.031101 0.998021 0.00463927
-0.0500323 -0.0366386 0.998075 0
-0.0505934 -0.0347908 0.998113 0
-0.0418444 -0.0457148 0.998078 0.0165017
-0.0414673 -0.0485066 0.997962 0.0120512
-0.0342607 -0.0267363 0.999055 0
-0.0289895 -0.0315825 0.999081 0.00365463
-0.0252815 -0.0300939 0.999227 0
-0.0252012 -0.0277574 0.999297 0
-0.0220725 -0.00858258 0.99972 0
0.0814977 -0.0565556 0.995068 0
0.0912177 -0.0663173 0.99362 0.0055812
0.103362 -0.0745704 0.991845 0.0233934
0.105091 -0.0608783 0.992597 0.00502668
0.116383 -0.0609629 0.991332 0.00119902
0.117573 -0.0646573 0.990957 0
0.124264 -0.0656613 0.990074 0
0.130719 -0.0630955 0.98941 0
-0.0593654 -0.0708613 0.995718 0
-0.0609438 -0.0710724 0.995608 0.00333177
-0.0613233 -0.0817562 0.994764 0.00333686
-0.060377 -0.0703599 0.995693 0.00475568
-0.063364 -0.0668843 0.995747 0.0173271
-0.0622476 -0.0639321 0.996011 0.0182877
-0.0631268 -0.0628446 0.996025 0.0226669
-0.0604959 -0.0640003 0.996115 0.0209639
-0.0558505 -0.0443472 0.997454 0.00624125
-0.0571936 -0.04926 0.997147 0.0158222
-0.0571379 -0.0624742 0.99641 0.0192126
-0.0503595 -0.0560904 0.997155 0.0197707
-0.0442449 -0.062822 0.997044 0.0228451
-0.0369482 -0.0412593 0.998465 0.0121652
-0.0349384 -0.03622 0.998733 0.00689486
-0.0318112 -0.0375945 0.998787 0.000771034
0.0984202 -0.0667163 0.992906 0.00456101
0.102797 -0.0643392 0.992619 0
0.117878 -0.0653858 0.990873 0
0.119158 -0.0613997 0.990975 0.00118193
0.12415 -0.0682121 0.989916 0.00315287
0.131865 -0.0675981 0.98896 0.00399386
-0.0598846 -0.0720995 0.995598 0.00405013
-0.0641342 -0.0709769 0.995414 0.00832521
-0.0595434 -0.0748628 0.995415 0.00211307
-0.0616769 -0.0781586 0.995031 0.00464713
-0.0617445 -0.0730365 0.995416 0.0132107
-0.0585261 -0.0694259 0.995869 0.00494717
-0.0592056 -0.0717749 0.995662 0.000317248
-0.0590984 -0.0818244 0.994893 0.00900875
-0.0638917 -0.0696244 0.995525 0.0153033
-0.0593567 -0.0642432 0.996167 0.00890485
-0.0565458 -0.0571484 0.996763 0.016767
-0.058264 -0.0707868 0.995788 0.0198169
-0.0477291 -0.0536712 0.997417 0.00630592
-0.0476541 -0.0617291 0.996955 0.0180225
-0.0397876 -0.0507524 0.997918 0.0209643
-0.0383717 -0.0445564 0.99827 0.0180561
0.100224 -0.0737522 0.992228 0.00809976
0.10613 -0.0791216 0.991199 0.010804
0.120751 -0.0749798 0.989847 0.0143075
0.126478 -0.0669778 0.989706 0.0133887
0.137989 -0.0678256 0.988109 0.0124601
-0.0544571 -0.0677433 0.996215 0
-0.0562371 -0.0632466 0.996412 0
-0.0573019 -0.0799014 0.995154 0
-0.0558949 -0.0645824 0.996346 0
-0.0579323 -0.0600623 0.996512 0
-0.0582185 -0.0653243 0.996164 0
-0.0578882 -0.0667033 0.996092 0
-0.0594587 -0.0701605 0.995762 0
-0.0560319 -0.0727168 0.995777 0
-0.05901 -0.0794183 0.995093 0.002535
-0.0631298 -0.0624907 0.996047 0.00910515
-0.0588567 -0.0617686 0.996354 0.0192246
-0.0591931 -0.0674634 0.995964 0.0221901
-0.052079 -0.0585544 0.996925 0.0082016
-0.0514815 -0.0559024 0.997108 0.00760531
0.108072 -0.0836864 0.990614 0.00978866
0.123453 -0.0856139 0.98865 0.0258436
0.12821 -0.081475 0.988395 0.0222923
0.138084 -0.079814 0.987199 0.0148441
0.134911 -0.0885046 0.986897 0.0106681
-0.0532029 -0.0494035 0.997361 0
-0.0546835 -0.0675533 0.996216 0
-0.0580412 -0.0786039 0.995215 0
-0.0542056 -0.0717013 0.995952 0
-0.0561717 -0.0640562 0.996364 0
-0.0564315 -0.0656705 0.996244 0
-0.055719 -0.0636704 0.996414 0
-0.0595021 -0.0699073 0.995777 0
-0.0568947 -0.0632732 0.996373 0
-0.0572642 -0.0738956 0.99562 0
-0.0568659 -0.0712791 0.995834 0
-0.0554802 -0.0541165 0.996992 0.00118725
0.109345 -0.0689022 0.991613 0.00601365
0.120552 -0.0883455 0.988768 0.0153148
0.125915 -0.0773569 0.98902 0.0110494
0.128346 -0.081662 0.988362 0.00531074
0.133647 -0.0921975 0.986731 0.00778278
0.148922 -0.0877802 0.984945 0
0.152534 -0.0786463 0.985164 0
-0.0544799 -0.0375993 0.997807 0.00305578
-0.0537542 -0.0411733 0.997705 0
-0.0563108 -0.056674 0.996803 0
-0.0546601 -0.0830948 0.995041 0
-0.0567969 -0.0922325 0.994116 0.00266095
-0.0559113 -0.0739302 0.995695 0
-0.0534612 -0.0640522 0.996514 0
-0.0554605 -0.0687495 0.996091 0
-0.0552225 -0.0689138 0.996093 0
-0.0555499 -0.0761465 0.995548 0
-0.0580454 -0.0785009 0.995223 0.0009002
-0.0583264 -0.0848319 0.994687 0.0105752
-0.0558684 -0.0635785 0.996412 0.00190513
0.122778 -0.0853332 0.988759 0.0097819
0.125398 -0.0840566 0.988539 0.00581115
0.132926 -0.0946561 0.986596 0.00431585
0.139581 -0.0798008 0.98699 0
0.144397 -0.0826259 0.986064 0
0.151002 -0.0805115 0.985249 0
-0.0541825 -0.0433407 0.99759 0
-0.0639522 -0.0639476 0.995902 0
-0.0580102 -0.0511428 0.997005 0.0151875
-0.0579192 -0.0555318 0.996776 0.0108501
-0.0559639 -0.0470003 0.997326 0
-0.0585016 -0.0786532 0.995184 0
-0.055594 -0.0719884 0.995855 0
-0.0535993 -0.0732373 0.995873 0
-0.0495365 -0.0640446 0.996717 0
-0.0525291 -0.0629626 0.996633 0
-0.0577047 -0.0721849 0.995721 0.00758067
-0.0538763 -0.0835473 0.995046 0
-0.0574135 -0.0792189 0.995203 0.00660674
-0.0609949 -0.076375 0.995212 0.00565449
-0.0570624 -0.0602104 0.996553 0
0.120163 -0.0923766 0.988447 0.00844246
0.124978 -0.0853413 0.988482 0.00302928
0.134541 -0.0869723 0.987084 0
0.141114 -0.0818764 0.986602 0
0.148283 -0.0796156 0.985735 0
0.158507 -0.0709376 0.984806 0
-0.054387 -0.0501296 0.997261 0
-0.0590234 -0.0479276 0.997105 0
-0.0588447 -0.0616341 0.996363 0.00676645
-0.057351 -0.0596149 0.996573 0.00936103
-0.0577438 -0.0663951 0.996121 0
-0.0573749 -0.0770409 0.995376 0.00184082
-0.055638 -0.073519 0.995741 0
-0.0528461 -0.0717878 0.996019 0
-0.0530973 -0.079428 0.995426 0
-0.0555651 -0.0819577 0.995086 0.0049067
-0.057452 -0.086392 0.994603 0.017285
-0.0597713 -0.0920605 0.993958 0.0115909
-0.0599367 -0.0880117 0.994315 0.0102905
-0.0560159 -0.0744625 0.995649 0
-0.0522138 -0.0692474 0.996232 0
0.120234 -0.0805832 0.98947 0
0.127526 -0.0733595 0.989119 0
0.136989 -0.0740027 0.987804 0
0.147149 -0.0795991 0.985906 0.00670393
0.154622 -0.085575 0.984261 0.00772697
0.162647 -0.0704562 0.984166 0
0.167201 -0.0772282 0.982893 0
-0.0510211 -0.0594689 0.996925 0
-0.0528243 -0.0556957 0.997049 0
-0.053527 -0.0604028 0.996738 0
-0.0559314 -0.0807464 0.995164 0
-0.0562778 -0.0768992 0.995449 0
-0.0586179 -0.0835222 0.99478 0.00611952
-0.0559951 -0.0727768 0.995775 0.00754563
-0.0554116 -0.0684574 0.996114 0.00752295
-0.0529032 -0.0672022 0.996336 0
-0.0550511 -0.0757451 0.995606 0
-0.057427 -0.084873 0.994736 0.0142759
-0.0603445 -0.0974616 0.993408 0.0256114
-0.0599694 -0.0984556 0.993333 0.0213653
-0.0630828 -0.100657 0.992919 0.0136268
-0.060432 -0.0987153 0.993279 0.00637589
0.120167 -0.0717918 0.990155 0
0.128049 -0.0758008 0.988867 0
0.140673 -0.0831819 0.986556 0
0.146972 -0.0835702 0.985604 0.00328414
0.156766 -0.0825339 0.984181 0
0.167993 -0.0810513 0.982451 0
0.171953 -0.0922969 0.980772 0
0.177288 -0.0844157 0.980532 0
-0.0556258 -0.0616828 0.996544 0.00176658
-0.0518741 -0.0602028 0.996837 0
-0.0562964 -0.0738638 0.995678 0
-0.0556181 -0.0825642 0.995033 0
-0.0595789 -0.0945656 0.993734 0
-0.0571533 -0.0896758 0.99433 0
-0.0579266 -0.0843485 0.994751 0
-0.0579436 -0.0824094 0.994913 0.00598626
-0.0578308 -0.0746182 0.995534 0.00546578
-0.0592032 -0.0799589 0.995038 0.00457871
-0.0643892 -0.092607 0.993619 0.0243988
-0.0594772 -0.102434 0.99296 0.026735
-0.0622264 -0.0940675 0.993619 0.0244713
-0.0641125 -0.113504 0.991467 0.0285945
0.146444 -0.0866184 0.985419 0
0.149954 -0.0869764 0.98486 0
0.15606 -0.0938749 0.983277 0
0.168819 -0.10031 0.98053 0
0.176679 -0.098485 0.979329 0
0.17632 -0.0911329 0.980105 0
-0.0573155 -0.080704 0.995089 0.0106271
-0.0533835 -0.0777897 0.99554 0.00590874
-0.056929 -0.0834643 0.994883 0
-0.0572531 -0.0941434 0.993911 0
-0.055193 -0.0964031 0.993811 0
-0.0620393 -0.110389 0.99195 0.0131274
-0.0574926 -0.0884961 0.994416 0
-0.0533058 -0.0780897 0.99552 0
-0.0562363 -0.072517 0.99578 0
-0.0570258 -0.0794359 0.995207 0.00363436
-0.0625886 -0.103826 0.992624 0.023596
-0.0590633 -0.0984389 0.993389 0.0161715
-0.060055 -0.0875455 0.994349 0.0110844
0.154016 -0.0959449 0.983399 0
0.156328 -0.0969793 0.982933 0
0.1669 -0.0991706 0.980974 0
0.174969 -0.0912156 0.980339 0
0.180294 -0.0764812 0.980635 0
0.197175 -0.0697459 0.977884 0
-0.0524982 -0.0779367 0.995575 0
-0.0553616 -0.0804581 0.995219 0.00337509
-0.062439 -0.0959339 0.993427 0.0160943
-0.0566999 -0.111943 0.992096 0.0198196
-0.0533923 -0.0942707 0.994114 0
-0.0575986 -0.104481 0.992858 0.00620489
-0.0518373 -0.103859 0.99324 0.0037856
-0.0536299 -0.105521 0.99297 0.00493069
-0.0551778 -0.0930208 0.994134 0.0127636
-0.0543587 -0.0681478 0.996193 0
-0.0619631 -0.0981872 0.993237 0.0243249
0.151672 -0.0910078 0.984232 0
0.155944 -0.0957914 0.98311 0
0.163444 -0.0931183 0.982148 0
0.175763 -0.080597 0.981128 0
0.178322 -0.083454 0.980427 0
0.194309 -0.082421 0.977472 0
-0.0518546 -0.0850471 0.995027 0
-0.0526443 -0.0872758 0.994792 0
-0.0547356 -0.101177 0.993362 0.00874168
-0.0576823 -0.108522 0.992419 0.0142438
-0.0597125 -0.101363 0.993056 0.00887671
-0.0572238 -0.0899922 0.994297 0
-0.0625535 -0.115355 0.991353 0.0164625
-0.0556615 -0.102602 0.993164 0.00425263
-0.055483 -0.104115 0.993016 0.00499421
-0.0530312 -0.0711462 0.996055 0.00398477
-0.0535589 -0.0764145 0.995637 0
0.150746 -0.113715 0.98201 0
0.156518 -0.0967649 0.982924 0
0.16229 -0.0929651 0.982354 0
0.175079 -0.0855448 0.980831 0
0.180189 -0.0850823 0.979945 0
0.192694 -0.0948113 0.976668 0
-0.0546505 -0.0692345 0.996102 0.0107609
-0.0544503 -0.0709591 0.995992 0.00271409
-0.0601049 -0.0929302 0.993857 0.00634571
-0.0554225 -0.0910853 0.9943 0
-0.0543291 -0.101413 0.99336 0
-0.0547561 -0.100341 0.993445 0.00212263
-0.059979 -0.115401 0.991506 0.0176372
-0.0587074 -0.106253 0.992605 0.0087051
-0.0619115 -0.106043 0.992432 0.01415
-0.0654746 -0.10682 0.99212 0.0238819
-0.0572548 -0.100238 0.993315 0.0115472
-0.0534617 -0.0852242 0.994926 0
-0.05546 -0.0938193 0.994043 0.0141082
-0.0550643 -0.063854 0.996439 0
0.157372 -0.115252 0.980791 0
0.16382 -0.109739 0.980367 0
0.172763 -0.097905 0.980085 0
0.179168 -0.101076 0.978613 0
0.190044 -0.105118 0.976132 0
-0.0563 -0.0816871 0.995067 0
-0.0538182 -0.0828579 0.995107 0.00181807
-0.0562866 -0.0722346 0.995798 0
-0.0576404 -0.0920256 0.994087 0.00681579
-0.0526348 -0.0989829 0.993696 0
-0.0505869 -0.104411 0.993247 0
-0.0592627 -0.121682 0.990798 0.0092978
-0.057116 -0.116982 0.99149 0.00508461
-0.057556 -0.104834 0.992823 0.00633999
-0.0603452 -0.115095 0.99152 0.0193201
-0.0609532 -0.114461 0.991556 0.0207293
-0.0550855 -0.0977968 0.993681 0.0127971
-0.0561491 -0.0988715 0.993515 0.0116632
-0.0610073 -0.10712 0.992373 0.0253366
0.157287 -0.120278 0.980201 0
0.16736 -0.108625 0.979894 0
0.175774 -0.111726 0.97807 0
0.181306 -0.116375 0.976517 0
0.196997 -0.122107 0.97277 0.00515023
0.203042 -0.116389 0.972228 0.00450562
-0.0563889 -0.0877081 0.994549 0.0117109
-0.0541026 -0.0823342 0.995135 0.000535574
-0.0551265 -0.0813423 0.995161 0.00555605
-0.0543045 -0.0739152 0.995785 0
-0.0602376 -0.0774147 0.995178 0
-0.056182 -0.0952417 0.993868 0
-0.0529081 -0.0900688 0.994529 0
-0.05438 -0.104589 0.993028 0
-0.0551758 -0.109946 0.992405 0
-0.0540521 -0.1096 0.992505 0
-0.0571649 -0.111394 0.992131 0.00401093
-0.0576208 -0.103926 0.992914 0
-0.0677676 -0.115344 0.991011 0.0217969
-0.0566549 -0.112214 0.992068 0.0138104
-0.0555415 -0.108494 0.992544 0.0150584
-0.0645815 -0.100141 0.992875 0.0321491
0.158014 -0.125438 0.979437 0
0.167109 -0.117816 0.978874 0
0.177636 -0.117881 0.97701 0
0.18606 -0.109342 0.976436 0
0.199348 -0.127811 0.971558 0.00396063
0.200564 -0.121271 0.972146 0.00376177
-0.055967 -0.0584013 0.996723 0
-0.0527419 -0.0721426 0.995999 0
-0.0542414 -0.0775404 0.995513 0.00318356
-0.0518321 -0.0769312 0.995688 0
-0.0489203 -0.0732893 0.99611 0
-0.0548626 -0.0812047 0.995186 0
-0.0577361 -0.0867394 0.994557 0.0105837
-0.0585197 -0.0731299 0.995604 0
-0.051594 -0.0801178 0.995449 0
-0.0522746 -0.0907373 0.994502 0
-0.0511984 -0.0954375 0.994118 0
-0.0539081 -0.109971 0.992472 0
-0.054597 -0.103348 0.993146 0.00353478
-0.0533183 -0.111084 0.99238 0.00149186
-0.0599402 -0.111232 0.991985 0.00332975
-0.0648979 -0.10646 0.992197 0.00835582
-0.0636672 -0.106635 0.992258 0.0125348
-0.0586625 -0.113959 0.991752 0.0182347
-0.0628059 -0.119242 0.990877 0.0289332
-0.0644603 -0.086994 0.994121 0.0222639
0.159244 -0.125486 0.979231 0.00311127
0.165794 -0.12989 0.977569 0.00795568
0.18 -0.126406 0.975511 0
0.192134 -0.13553 0.971965 0.00861282
0.201338 -0.13137 0.970672 0.00364654
0.207684 -0.128954 0.969659 0.00359378
-0.0563727 -0.081744 0.995058 0.00775113
-0.0551509 -0.0794988 0.995308 0
-0.0525407 -0.0720695 0.996015 0
-0.0495949 -0.070702 0.996264 0
-0.0517172 -0.0740629 0.995912 0
-0.0530234 -0.078014 0.995541 0
-0.0526246 -0.0674894 0.996331 0
-0.0509129 -0.071919 0.99611 0
-0.0521405 -0.0788194 0.995524 0
-0.0544524 -0.0950877 0.993979 0.00304713
-0.0515345 -0.0977839 0.993873 0
-0.0565807 -0.110115 0.992307 0.00445027
-0.0569204 -0.10288 0.993064 0.00763588
-0.0646982 -0.12059 0.990592 0.0127828
-0.0628083 -0.109177 0.992036 0.00426119
-0.0650083 -0.102038 0.992654 0.0067922
-0.0655582 -0.111796 0.991566 0.0180822
-0.0620503 -0.10518 0.992515 0.00986921
0.182983 -0.14393 0.972523 0.0028576
0.190684 -0.150785 0.970002 0.00835505
0.199991 -0.135815 0.970339 0.000104276
0.211097 -0.135959 0.967963 0.0135399
-0.055085 -0.0760988 0.995578 0
-0.0512218 -0.0739998 0.995942 0
-0.0531854 -0.0790712 0.995449 0
-0.0486662 -0.0710159 0.996287 0
-0.0463563 -0.0706883 0.996421 0
-0.0479555 -0.0772563 0.995857 0
-0.0457629 -0.0645229 0.996866 0
-0.0522845 -0.0783317 0.995555 0
-0.0491435 -0.066057 0.996605 0
-0.0509938 -0.0739061 0.995961 0
-0.0525331 -0.0641218 0.996558 0
-0.053505 -0.0694801 0.996147 0
-0.050309 -0.0687931 0.996362 0
-0.0541551 -0.0842622 0.994971 0
-0.0561033 -0.0990845 0.993496 0.00949179
-0.056288 -0.107875 0.99257 0.00951787
-0.0574016 -0.109609 0.992316 0.00388375
-0.0616862 -0.118667 0.991016 0.00788407
-0.0634153 -0.112507 0.991625 0.009142
-0.0673011 -0.110307 0.991616 0.0126556
-0.0660163 -0.1116 0.991558 0.0168059
0.183428 -0.146957 0.971987 0
0.188336 -0.144299 0.971446 0.00506126
0.208263 -0.142714 0.967605 0.0152629
0.215439 -0.144137 0.965821 0.0129835
0.225688 -0.152888 0.962128 0.0215389
-0.0567645 -0.0748267 0.99558 0
-0.04825 -0.0681778 0.996506 0
-0.0507117 -0.079325 0.995558 0
-0.0504155 -0.0836724 0.995217 0
-0.0506101 -0.0696826 0.996285 0
-0.0459932 -0.0599262 0.997143 0
-0.0436332 -0.0606991 0.997202 0
-0.0489204 -0.0680121 0.996484 0
-0.0477029 -0.0730552 0.996186 0
-0.0503518 -0.0721777 0.99612 0
-0.0562052 -0.0818317 0.99506 0
-0.0572538 -0.0844745 0.994779 0
-0.0532061 -0.0790223 0.995452 0.000951581
-0.0547434 -0.090265 0.994412 0.00551363
-0.0500216 -0.0856649 0.995068 0.00627453
-0.0530254 -0.0919887 0.994347 0.00683102
-0.0593244 -0.117798 0.991264 0.01476
-0.0595987 -0.125831 0.99026 0.00751514
-0.0577159 -0.109757 0.992281 0
-0.0608727 -0.12192 0.990672 0.00679783
0.190508 -0.141016 0.971505 0
0.201883 -0.134636 0.970111 0.00174963
0.213051 -0.145261 0.966182 0.00727697
0.218108 -0.154784 0.963572 0.00971641
-0.0544165 -0.0754215 0.995666 0
-0.0514892 -0.0804646 0.995427 0
-0.0542005 -0.0730921 0.995851 0.00336119
-0.052475 -0.0794889 0.995454 0
-0.0500071 -0.0737042 0.996026 0
-0.0477263 -0.0703038 0.996383 0
-0.050398 -0.0750259 0.995907 0
-0.0483146 -0.067037 0.99658 0
-0.0451412 -0.062523 0.997022 0
-0.048384 -0.0706607 0.996326 0
-0.0478142 -0.0776618 0.995833 0
-0.0544612 -0.0913213 0.994331 0
-0.0597872 -0.0959389 0.99359 0.00432792
-0.0550453 -0.0947062 0.993982 0.00538457
-0.0563052 -0.0854161 0.994753 0.0102124
-0.0563087 -0.0963592 0.993753 0.0146741
-0.0597318 -0.11054 0.992075 0.0131848
-0.0618735 -0.132545 0.989244 0.0216582
-0.0584276 -0.121117 0.990917 0.0042903
-0.0585762 -0.11538 0.991593 0
0.194954 -0.136886 0.971213 0
0.211647 -0.137908 0.967568 0
0.221418 -0.140612 0.964988 0.00852168
0.221129 -0.131416 0.96635 0.00397147
-0.0531686 -0.0821078 0.995204 1.24991e-05
