# .PCD v0.7 - Point Cloud Data file format
VERSION 0.7
FIELDS x y z
SIZE 4 4 4
TYPE F F F
COUNT 1 1 1
WIDTH 1319
HEIGHT 1
VIEWPOINT 0 0 0 1 0 0 0
POINTS 1319
DATA ascii
-0.070891336 -0.26910219 -0.38926017
-0.070679665 -0.26911351 -0.38926449
-0.070473284 -0.26910916 -0.38926044
-0.070295997 -0.2690945 -0.38924599
-0.070195004 -0.26903999 -0.38924551
-0.069938004 -0.26908335 -0.38921699
-0.069616005 -0.26906601 -0.389209
-0.069565997 -0.26902899 -0.389202
-0.063709669 -0.26909965 -0.38928953
-0.063510217 -0.2690779 -0.38933644
-0.06326133 -0.26909417 -0.38935351
-0.063081004 -0.26910233 -0.38938251
-0.073963001 -0.268895 -0.389377
-0.073691107 -0.26887757 -0.38937435
-0.073499002 -0.2688916 -0.38936186
-0.073297001 -0.26890168 -0.38936666
-0.073129669 -0.26891032 -0.38933769
-0.072523251 -0.26888639 -0.3893705
-0.072291002 -0.26889136 -0.38934517
-0.071675994 -0.26892 -0.38930964
-0.07149934 -0.2689122 -0.38930824
-0.071203001 -0.26894999 -0.38929799
-0.071092404 -0.26886481 -0.38928899
-0.070879668 -0.26888785 -0.3892715
-0.070739992 -0.26889598 -0.38926101
-0.07049083 -0.2689124 -0.38927165
-0.070319198 -0.2689124 -0.3892664
-0.070187002 -0.268897 -0.38925898
-0.069928005 -0.26890498 -0.38922799
-0.069605999 -0.26888731 -0.38922134
-0.069517665 -0.26889035 -0.38920751
-0.064050496 -0.2688615 -0.38921899
-0.063699663 -0.26892078 -0.3892968
-0.063499503 -0.26890031 -0.38936567
-0.063249499 -0.26888001 -0.38937199
-0.063117504 -0.26892251 -0.389393
-0.0742255 -0.26874301 -0.389395
-0.073953666 -0.26871666 -0.38938367
-0.073695794 -0.26870519 -0.3893874
-0.073473908 -0.26868659 -0.38937688
-0.073284991 -0.26868835 -0.389384
-0.073118001 -0.268695 -0.389341
-0.072525576 -0.26871255 -0.38938731
-0.072279163 -0.26867768 -0.38935032
-0.071663998 -0.26870599 -0.38932332
-0.071487635 -0.26872855 -0.38931686
-0.071397997 -0.268657 -0.38929901
-0.071100995 -0.26870051 -0.38930026
-0.070859 -0.26868802 -0.3892706
-0.070728004 -0.26868269 -0.38927731
-0.070495799 -0.26870361 -0.38928691
-0.070324503 -0.26870275 -0.38928339
-0.070176996 -0.26871899 -0.38926467
-0.069917999 -0.26872668 -0.38924065
-0.069512837 -0.26867869 -0.38922483
-0.069398001 -0.26861399 -0.38920999
-0.064266674 -0.26862732 -0.38921067
-0.064063497 -0.26866347 -0.38922024
-0.06368766 -0.26870692 -0.38931811
-0.063465662 -0.26874664 -0.38937315
-0.063198 -0.26873901 -0.38939801
-0.073945999 -0.268574 -0.389393
-0.073687501 -0.26853701 -0.38939124
-0.073430255 -0.26850474 -0.38938826
-0.073273003 -0.268473 -0.38939068
-0.073105328 -0.26848233 -0.38937631
-0.072496578 -0.2685307 -0.38937685
-0.072341993 -0.26849899 -0.38938451
-0.072196007 -0.2685 -0.38934401
-0.071653001 -0.26849067 -0.38932535
-0.071494892 -0.2685068 -0.38932732
-0.071389332 -0.26851436 -0.38931131
-0.071109802 -0.26853639 -0.38931182
-0.070891 -0.26850548 -0.38929132
-0.070718005 -0.26850301 -0.3892875
-0.070494331 -0.26848131 -0.38930264
-0.070321001 -0.26849675 -0.38929433
-0.070165336 -0.26850501 -0.38928136
-0.069905333 -0.26851335 -0.38926533
-0.069503449 -0.26848814 -0.3892369
-0.069389999 -0.26847267 -0.38922366
-0.068944 -0.26849219 -0.38920799
-0.068347499 -0.26845598 -0.38920701
-0.064247251 -0.26849574 -0.38921547
-0.064079002 -0.2685 -0.3892135
-0.063716002 -0.26848915 -0.38931501
-0.063579999 -0.26854768 -0.38939202
-0.063392997 -0.26851168 -0.38936803
-0.073695496 -0.26830351 -0.389397
-0.073446997 -0.26832435 -0.38939634
-0.073394664 -0.26832834 -0.38939431
-0.073094994 -0.268305 -0.38939399
-0.072467335 -0.26835635 -0.38938966
-0.072332673 -0.2683197 -0.38939068
-0.072186001 -0.26832166 -0.3893663
-0.071640998 -0.26827732 -0.38934231
-0.071482778 -0.26829255 -0.38934013
-0.071378 -0.26829934 -0.3893207
-0.071167327 -0.26830533 -0.389323
-0.070924282 -0.26832315 -0.38931254
-0.070743203 -0.26830921 -0.38929862
-0.070474282 -0.268289 -0.38931969
-0.070309334 -0.26828244 -0.38929892
-0.070153996 -0.26829031 -0.38928637
-0.069893666 -0.26829934 -0.38927567
-0.069508091 -0.26831377 -0.38924837
-0.06938 -0.26829401 -0.389236
-0.069067001 -0.268269 -0.38920799
-0.068931997 -0.26827797 -0.38922617
-0.068797 -0.26821199 -0.389211
-0.06850671 -0.26829046 -0.38921943
-0.068333 -0.2683126 -0.389211
-0.064245395 -0.26833159 -0.38922861
-0.064087428 -0.26831073 -0.38922429
-0.063695595 -0.26828963 -0.38933164
-0.063582666 -0.26828367 -0.38938966
-0.063380666 -0.268298 -0.38939604
-0.072175503 -0.26814401 -0.38938302
-0.071630999 -0.26809901 -0.38935
-0.071465246 -0.26808801 -0.38935187
-0.071366005 -0.26808533 -0.38933969
-0.071155332 -0.26809135 -0.38933834
-0.070932664 -0.26809731 -0.38932702
-0.070740663 -0.26810816 -0.38932249
-0.070481502 -0.26811439 -0.38933298
-0.070299335 -0.26810351 -0.38931099
-0.070141338 -0.26807567 -0.38930365
-0.069881327 -0.268085 -0.38929498
-0.069489755 -0.2681075 -0.38927159
-0.069370002 -0.268116 -0.38925266
-0.069058664 -0.26812732 -0.38923034
-0.068921499 -0.26809952 -0.38924128
-0.068790495 -0.26810601 -0.38922602
-0.068477444 -0.26808769 -0.38922921
-0.068327993 -0.26809716 -0.38922217
-0.064572752 -0.26805601 -0.38920772
-0.064309597 -0.268085 -0.38924819
-0.064101562 -0.2681056 -0.38923514
-0.063704208 -0.26811638 -0.38934082
-0.063575 -0.26813999 -0.38939601
-0.071619995 -0.26792133 -0.38937569
-0.071468852 -0.26791468 -0.38937125
-0.071355999 -0.26790601 -0.38934451
-0.071143001 -0.26787832 -0.38936934
-0.070920669 -0.26788318 -0.38934803
-0.070729174 -0.2678943 -0.38933384
-0.070470624 -0.26791838 -0.38934749
-0.070300408 -0.26791692 -0.38931939
-0.070132002 -0.26789701 -0.38930801
-0.069872007 -0.26790601 -0.389301
-0.069477744 -0.26789325 -0.38928774
-0.069357671 -0.26790234 -0.38927269
-0.069046669 -0.267914 -0.38925335
-0.0689115 -0.26792136 -0.38925683
-0.068779998 -0.26792699 -0.38924369
-0.06846457 -0.26789385 -0.38922814
-0.068328008 -0.26787254 -0.38923448
-0.068121001 -0.26781499 -0.38920501
-0.067939997 -0.26789534 -0.38921201
-0.06455075 -0.26789701 -0.38923374
-0.064311333 -0.26788333 -0.38925216
-0.064114138 -0.26790285 -0.38929701
-0.063994005 -0.26786 -0.38928998
-0.063693203 -0.26793101 -0.38936201
-0.071608998 -0.26770601 -0.38938299
-0.07146614 -0.26773041 -0.38938913
-0.071366005 -0.26771361 -0.389366
-0.071133003 -0.267699 -0.38937598
-0.070910752 -0.26770499 -0.389357
-0.070716657 -0.26767984 -0.38935181
-0.070481502 -0.26769182 -0.38936901
-0.070305079 -0.26770964 -0.389346
-0.070121668 -0.26771966 -0.38932702
-0.06986133 -0.267728 -0.389321
-0.069489002 -0.26767668 -0.38931489
-0.069370337 -0.26768735 -0.3892895
-0.069034003 -0.26769999 -0.38927469
-0.068899833 -0.26770651 -0.38926733
-0.068769 -0.26771334 -0.38925132
-0.068498001 -0.26771241 -0.38925779
-0.068335168 -0.26770315 -0.38924167
-0.068112664 -0.26767269 -0.38922867
-0.067885838 -0.26768199 -0.38921499
-0.067726336 -0.26766634 -0.389202
-0.067587003 -0.267625 -0.38920501
-0.064540498 -0.26771852 -0.38925371
-0.064287201 -0.26768398 -0.38927382
-0.064120501 -0.26767734 -0.38932201
-0.063983671 -0.26768133 -0.38931203
-0.063694499 -0.26768124 -0.38934699
-0.0714816 -0.2675032 -0.38939381
-0.071360506 -0.26751351 -0.38937667
-0.071123004 -0.26752034 -0.38938734
-0.070901006 -0.26752552 -0.38936165
-0.070707001 -0.26750198 -0.389364
-0.070469834 -0.26747751 -0.3893697
-0.070312396 -0.26750129 -0.38935918
-0.070143804 -0.26748902 -0.3893508
-0.069849335 -0.26751333 -0.38933066
-0.069479503 -0.26749751 -0.38931715
-0.0693544 -0.26748723 -0.38930139
-0.069023669 -0.26748499 -0.38926366
-0.068887994 -0.2674925 -0.3892788
-0.068756998 -0.26749864 -0.38926199
-0.068477504 -0.26751298 -0.38926435
-0.068324998 -0.26752445 -0.38925353
-0.068103001 -0.26749399 -0.38923201
-0.06787625 -0.26750401 -0.38922301
-0.0677092 -0.26746139 -0.38921219
-0.067515798 -0.26747423 -0.38920879
-0.064627327 -0.26749733 -0.38921633
-0.064528994 -0.2675035 -0.38926163
-0.064302996 -0.26751041 -0.3892788
-0.064110249 -0.26749924 -0.38934177
-0.063973993 -0.26750302 -0.38932401
-0.063660502 -0.26748601 -0.389364
-0.071468249 -0.26730675 -0.38939703
-0.071348496 -0.26729849 -0.38938221
-0.071111001 -0.26730499 -0.38939199
-0.070889167 -0.26731199 -0.38937649
-0.070697002 -0.26732197 -0.38936853
-0.070459992 -0.26729873 -0.389384
-0.070313007 -0.26727867 -0.38936856
-0.07014183 -0.26728818 -0.38936386
-0.069839329 -0.26729667 -0.38930735
-0.069469221 -0.26731879 -0.38933155
-0.069354199 -0.26731521 -0.38931739
-0.069013 -0.267306 -0.38927999
-0.068875998 -0.26727781 -0.38929069
-0.068745002 -0.2672843 -0.38928199
-0.068465002 -0.26729867 -0.38928184
-0.06831345 -0.26731011 -0.3892639
-0.068093002 -0.26731399 -0.38923669
-0.067865498 -0.26732531 -0.38924614
-0.067691252 -0.26729798 -0.38922727
-0.067474402 -0.26729017 -0.3892076
-0.067249998 -0.267223 -0.38920599
-0.067175999 -0.26726401 -0.3892065
-0.065621495 -0.267261 -0.38920498
-0.065486006 -0.26727882 -0.38920769
-0.065342002 -0.26724601 -0.38920599
-0.065158002 -0.267326 -0.389209
-0.064878002 -0.26726401 -0.389213
-0.064636 -0.26726452 -0.38923103
-0.064516336 -0.2672888 -0.38928282
-0.064278491 -0.26731232 -0.38930663
-0.064101003 -0.26731935 -0.38933197
-0.063963003 -0.26732469 -0.38935566
-0.063666336 -0.26731765 -0.38937199
-0.071314 -0.267156 -0.38939601
-0.070877165 -0.26709732 -0.38939098
-0.070685171 -0.26710853 -0.38938582
-0.070452005 -0.26715577 -0.3893905
-0.070316993 -0.26709256 -0.38937885
-0.070122004 -0.26708823 -0.38937199
-0.069825999 -0.26708332 -0.38934836
-0.069457442 -0.2671043 -0.38934267
-0.069338664 -0.26711503 -0.38931966
-0.069004998 -0.26716298 -0.389292
-0.068892598 -0.26709002 -0.38929939
-0.068735003 -0.26710501 -0.38928899
-0.068464205 -0.2670972 -0.38929319
-0.0683112 -0.26708791 -0.38928339
-0.068080999 -0.26710066 -0.38926032
-0.067853503 -0.26711133 -0.38925985
-0.067681499 -0.26711899 -0.38923314
-0.067520253 -0.2671285 -0.38922575
-0.067304887 -0.2670821 -0.38921288
-0.067130797 -0.26707 -0.38921699
-0.066920504 -0.26703548 -0.38920701
-0.066720001 -0.267032 -0.389202
-0.066402003 -0.267048 -0.38920099
-0.066255666 -0.26708066 -0.38921133
-0.065883003 -0.267066 -0.38920099
-0.065612003 -0.2670815 -0.389204
-0.065482445 -0.26708689 -0.38922748
-0.065334335 -0.267102 -0.38921133
-0.065145999 -0.26711199 -0.38923168
-0.06487 -0.26712134 -0.38923302
-0.064649254 -0.26710051 -0.38922676
-0.064504333 -0.267075 -0.38930151
-0.064279601 -0.26711076 -0.38932282
-0.064104572 -0.26709357 -0.38935557
-0.063950665 -0.26710966 -0.38937366
-0.063687995 -0.26716101 -0.389377
-0.070652254 -0.26691175 -0.38938776
-0.070482999 -0.26686549 -0.38939703
-0.070311189 -0.26691824 -0.38938475
-0.070130602 -0.26691562 -0.38937801
-0.069815993 -0.26690501 -0.38936251
-0.069459714 -0.26689902 -0.38936242
-0.069343626 -0.2668899 -0.38934088
-0.068901099 -0.26691785 -0.38931236
-0.068724997 -0.26692632 -0.38930234
-0.068492994 -0.26689801 -0.38930899
-0.068314582 -0.26688024 -0.389305
-0.068068668 -0.26688668 -0.38928366
-0.067864247 -0.2669135 -0.38926578
-0.067702003 -0.26689327 -0.38924313
-0.067546666 -0.26691166 -0.38926199
-0.067325696 -0.26691502 -0.3892312
-0.067112498 -0.26690575 -0.38923752
-0.066879876 -0.26688701 -0.38922322
-0.066711999 -0.26688799 -0.38921198
-0.066538997 -0.26682201 -0.38921401
-0.066313423 -0.26691034 -0.38921663
-0.066141665 -0.266918 -0.38921437
-0.065875001 -0.26692232 -0.38921431
-0.065699339 -0.26689866 -0.38921019
-0.06546443 -0.26689413 -0.38925144
-0.065322004 -0.26688802 -0.38923502
-0.065133668 -0.26689732 -0.38925397
-0.064856999 -0.26690665 -0.38925934
-0.064681999 -0.26691964 -0.38923934
-0.064536579 -0.26690859 -0.38930699
-0.064316668 -0.26687768 -0.38932666
-0.06411466 -0.2668888 -0.3893767
-0.063940004 -0.266931 -0.38939801
-0.070619494 -0.26671702 -0.38938349
-0.070304401 -0.26674637 -0.38939381
-0.070102401 -0.26673099 -0.3893902
-0.069806002 -0.26672634 -0.38937435
-0.06945733 -0.26667315 -0.38938299
-0.069337882 -0.26668441 -0.38935819
-0.068900496 -0.26671174 -0.3893345
-0.068733245 -0.26669401 -0.38933751
-0.068481997 -0.26672 -0.38932601
-0.068304375 -0.26670176 -0.38932237
-0.068056002 -0.26667264 -0.389303
-0.067871667 -0.26668 -0.38930067
-0.067700446 -0.26668835 -0.38927788
-0.067534328 -0.26669633 -0.38927898
-0.067303747 -0.26671523 -0.38924989
-0.067102671 -0.26672682 -0.38924432
-0.066932 -0.26671401 -0.38923544
-0.066738598 -0.2666868 -0.38922518
-0.066531003 -0.26668 -0.38922334
-0.066301577 -0.26669565 -0.38922641
-0.066129327 -0.26670399 -0.38923398
-0.065862991 -0.26670799 -0.38921866
-0.065737337 -0.26671669 -0.389227
-0.065481447 -0.26671201 -0.38924801
-0.065310001 -0.26667365 -0.38925302
-0.065122001 -0.266684 -0.38926366
-0.064844996 -0.26669267 -0.38928333
-0.064670332 -0.26670501 -0.38925767
-0.064516328 -0.26671535 -0.38932857
-0.064305499 -0.26669949 -0.38936448
-0.064093754 -0.26668298 -0.389384
-0.070277996 -0.266563 -0.38939601
-0.069798 -0.26658499 -0.38939899
-0.069425002 -0.26653001 -0.38940001
-0.069311328 -0.26649433 -0.38937235
-0.068920664 -0.26648733 -0.3893542
-0.068745002 -0.266496 -0.38933882
-0.068470664 -0.26650599 -0.38933834
-0.068293914 -0.26652282 -0.38934457
-0.068046004 -0.26649302 -0.38931102
-0.067862004 -0.26650199 -0.38930798
-0.067689717 -0.26649427 -0.38928601
-0.067541502 -0.2664625 -0.38927874
-0.067292251 -0.26650012 -0.38925347
-0.067091003 -0.26651129 -0.38925031
-0.066913001 -0.266514 -0.38923702
-0.066747405 -0.2665132 -0.3892312
-0.066521496 -0.2665 -0.38922399
-0.066298373 -0.26648709 -0.38923386
-0.066137753 -0.26646948 -0.38924003
-0.065851003 -0.26649264 -0.38923565
-0.065725498 -0.26650217 -0.38924149
-0.065490827 -0.26651871 -0.38925382
-0.065332003 -0.26648 -0.38928333
-0.065111995 -0.26650351 -0.38927549
-0.064833008 -0.26647767 -0.38930067
-0.064657666 -0.26649067 -0.38928065
-0.06450434 -0.2665002 -0.389341
-0.064295337 -0.26652035 -0.38937902
-0.064040996 -0.266507 -0.38938999
-0.069782995 -0.26629633 -0.38938332
-0.069443665 -0.26626667 -0.389397
-0.069323123 -0.26631662 -0.38938838
-0.068900995 -0.26628679 -0.38935399
-0.068732999 -0.26628169 -0.38935399
-0.068457998 -0.26629135 -0.38935634
-0.068311892 -0.26630646 -0.38934922
-0.068115331 -0.26631299 -0.3893387
-0.067852668 -0.26632199 -0.38930464
-0.067732595 -0.26631323 -0.38929659
-0.067552999 -0.2663005 -0.389274
-0.067297801 -0.26629069 -0.38925579
-0.067109123 -0.26628676 -0.38925537
-0.066900998 -0.26629966 -0.38924932
-0.066727661 -0.26631302 -0.38923183
-0.066512004 -0.26632068 -0.38922
-0.066310331 -0.26630068 -0.38923034
-0.066140004 -0.26628679 -0.38925421
-0.065839335 -0.266278 -0.38924634
-0.065714002 -0.26628667 -0.38924399
-0.06549722 -0.26629645 -0.3892833
-0.065339833 -0.2663115 -0.38929132
-0.065100998 -0.266325 -0.38929868
-0.064823002 -0.26629901 -0.389305
-0.064644329 -0.266276 -0.38931933
-0.064492665 -0.26628444 -0.38934186
-0.064284332 -0.266305 -0.38936999
-0.064159997 -0.26631299 -0.38939601
-0.069775999 -0.26615399 -0.38937801
-0.069437332 -0.26614735 -0.389397
-0.069300875 -0.26612112 -0.38938987
-0.0689096 -0.266114 -0.389368
-0.068723001 -0.266103 -0.38936722
-0.068446666 -0.266076 -0.38936734
-0.068300001 -0.26609191 -0.38935733
-0.0681035 -0.26609734 -0.38934299
-0.067841001 -0.26610601 -0.38930699
-0.067713164 -0.266112 -0.38929769
-0.067542501 -0.26612166 -0.38929331
-0.067298837 -0.26610333 -0.38925835
-0.067107446 -0.26608044 -0.38927078
-0.06688983 -0.26608333 -0.38924381
-0.066715829 -0.26609865 -0.38924333
-0.066500999 -0.26610699 -0.38922033
-0.066299766 -0.26612121 -0.389247
-0.066147007 -0.266114 -0.3892616
-0.065829501 -0.2660985 -0.38926101
-0.065693602 -0.266087 -0.38925061
-0.065485664 -0.26608136 -0.38928267
-0.065328002 -0.2660965 -0.38929915
-0.065090001 -0.26610932 -0.38929701
-0.064813666 -0.26611969 -0.38930699
-0.064634502 -0.26609799 -0.38932902
-0.064474002 -0.26609057 -0.38935512
-0.064272337 -0.26609099 -0.38938567
-0.069251001 -0.265971 -0.38938999
-0.068889 -0.26591435 -0.38938269
-0.06871333 -0.26592347 -0.38937068
-0.068436995 -0.26589799 -0.389375
-0.068287998 -0.26587775 -0.38937488
-0.068091668 -0.26588303 -0.38935319
-0.067829661 -0.26589134 -0.38931167
-0.067701332 -0.26589766 -0.38930735
-0.067530997 -0.26590666 -0.38929799
-0.067288443 -0.26592568 -0.38927686
-0.067097664 -0.26590148 -0.38927063
-0.066870406 -0.26588401 -0.38925558
-0.066703498 -0.26588467 -0.38926747
-0.066488333 -0.26589167 -0.38924631
-0.066287667 -0.26590711 -0.38926679
-0.066128336 -0.26591399 -0.38926587
-0.065819338 -0.265921 -0.38927302
-0.065702394 -0.26591501 -0.38926798
-0.065475501 -0.26590231 -0.3893005
-0.065316491 -0.26588115 -0.38930431
-0.065077998 -0.26589501 -0.38931701
-0.064803004 -0.26594001 -0.38932651
-0.064668506 -0.26589626 -0.38932151
-0.064479746 -0.26591736 -0.38935924
-0.068877332 -0.26570001 -0.38939318
-0.068701006 -0.26570848 -0.38938749
-0.068427674 -0.26571798 -0.38936734
-0.068278499 -0.26569816 -0.38937533
-0.068081751 -0.26570451 -0.38936225
-0.067817003 -0.26567665 -0.38932931
-0.067689501 -0.26568368 -0.38932267
-0.067519166 -0.265692 -0.38931036
-0.067276448 -0.26571089 -0.38929102
-0.067087993 -0.26572257 -0.38928068
-0.066877402 -0.26571122 -0.38927597
-0.0666935 -0.265706 -0.38927877
-0.066476338 -0.26567665 -0.38925731
-0.06627544 -0.26569256 -0.38928559
-0.066115834 -0.26569965 -0.38928631
-0.065807998 -0.26570532 -0.38926533
-0.065682001 -0.26571438 -0.38928053
-0.065473996 -0.26573187 -0.38930503
-0.065324403 -0.26569259 -0.38932601
-0.065065332 -0.265681 -0.38933933
-0.064701162 -0.26569635 -0.38934067
-0.064469248 -0.26572028 -0.38936412
-0.064400002 -0.26564199 -0.38939601
-0.068843998 -0.26550299 -0.38939226
-0.068689495 -0.26549366 -0.38939366
-0.068415999 -0.26550332 -0.38937935
-0.068268999 -0.26551926 -0.38937935
-0.068150997 -0.265524 -0.38937935
-0.0679188 -0.26551479 -0.38935119
-0.0676805 -0.26550448 -0.38931701
-0.06750717 -0.26547733 -0.38932514
-0.067264445 -0.26549622 -0.38930756
-0.067116834 -0.26550752 -0.38931417
-0.066902548 -0.26551116 -0.38929346
-0.066683501 -0.26552615 -0.38929215
-0.066466004 -0.265499 -0.3892785
-0.066264115 -0.26547724 -0.38928756
-0.066103168 -0.2654855 -0.38931298
-0.065800004 -0.26556101 -0.38928199
-0.065700874 -0.26548851 -0.38929424
-0.065485999 -0.2655085 -0.38930082
-0.065327108 -0.26551855 -0.38934234
-0.065054998 -0.26550299 -0.38935602
-0.0647076 -0.26549461 -0.38935262
-0.064517602 -0.2654928 -0.38936159
-0.068695329 -0.26532567 -0.38939333
-0.068406001 -0.265324 -0.389393
-0.068233497 -0.26530498 -0.38937998
-0.068140998 -0.26534399 -0.38939399
-0.067936748 -0.26533198 -0.38936052
-0.067701124 -0.26531449 -0.38934264
-0.067497253 -0.26529801 -0.38933027
-0.0672585 -0.26529038 -0.38933125
-0.067118295 -0.26528159 -0.38932845
-0.066901624 -0.26530463 -0.38931787
-0.066689566 -0.26530012 -0.3893114
-0.066455998 -0.26531932 -0.38928804
-0.066264607 -0.26530561 -0.38930741
-0.066102505 -0.26528299 -0.38933933
-0.065698996 -0.26528299 -0.38932779
-0.065473504 -0.26529416 -0.3893275
-0.065314993 -0.26530477 -0.38936642
-0.065045662 -0.26532301 -0.38936201
-0.064766496 -0.265297 -0.38937899
-0.064517252 -0.26528686 -0.38938475
-0.068801001 -0.26512799 -0.38939601
-0.068265393 -0.2650744 -0.38939238
-0.068199001 -0.26516399 -0.38939399
-0.06797 -0.26509666 -0.38937631
-0.067700773 -0.26510823 -0.38934469
-0.067487165 -0.26511967 -0.38934615
-0.067267247 -0.26510051 -0.38932648
-0.067118123 -0.26508489 -0.3893345
-0.066921674 -0.2650795 -0.38933682
-0.066703334 -0.26509389 -0.38932344
-0.066444002 -0.26510534 -0.38930932
-0.066268675 -0.26511949 -0.389346
-0.066118337 -0.26513866 -0.38936749
-0.065706 -0.26510999 -0.3893612
-0.0654945 -0.26506999 -0.38936561
-0.065302894 -0.26508945 -0.38938096
-0.065035 -0.265145 -0.3893795
-0.064756498 -0.26511699 -0.38939452
-0.064551003 -0.26510766 -0.38938531
-0.068616495 -0.26495701 -0.38939899
-0.068241 -0.26494601 -0.389393
-0.067957997 -0.26488265 -0.38938937
-0.067700125 -0.264902 -0.38935876
-0.067493863 -0.26489288 -0.38934103
-0.067257002 -0.26492167 -0.38934067
-0.067125566 -0.26491141 -0.38935357
-0.066911757 -0.26490051 -0.38934553
-0.066717714 -0.26488829 -0.38933516
-0.066497803 -0.26487401 -0.38934338
-0.065721169 -0.26492283 -0.38939181
-0.065496005 -0.26489934 -0.38938233
-0.065259501 -0.26488 -0.38939369
-0.064745672 -0.26490101 -0.38938332
-0.064572997 -0.26498801 -0.38938901
-0.067719333 -0.26467735 -0.38938949
-0.067506112 -0.26468778 -0.38936934
-0.067244507 -0.26470682 -0.38936234
-0.067105561 -0.26471803 -0.38936734
-0.066901661 -0.26472151 -0.38935915
-0.066725999 -0.26469702 -0.38935697
-0.066487804 -0.26468739 -0.38935298
-0.066244997 -0.26468933 -0.38936666
-0.066093132 -0.26468837 -0.38938588
-0.065709673 -0.26470733 -0.38939086
-0.065497875 -0.26472774 -0.38937837
-0.065299496 -0.2646955 -0.389395
-0.065196998 -0.26466799 -0.38939801
-0.064437501 -0.26474249 -0.38939852
-0.067668997 -0.26453599 -0.38940001
-0.067483857 -0.26449412 -0.38937643
-0.067233004 -0.26449168 -0.38936982
-0.067093663 -0.26450312 -0.38937879
-0.066890001 -0.26450649 -0.38937017
-0.0667165 -0.26451835 -0.38936499
-0.066512406 -0.26451477 -0.3893564
-0.066229202 -0.2644884 -0.38936538
-0.066083223 -0.26448146 -0.38938001
-0.065699331 -0.26449147 -0.38937387
-0.065517507 -0.26450366 -0.38938317
-0.065345146 -0.26448858 -0.38939229
-0.065190002 -0.264525 -0.38938966
-0.064386502 -0.264456 -0.38939852
-0.067451201 -0.26431641 -0.38938302
-0.067233503 -0.26429451 -0.38938501
-0.067123778 -0.26428452 -0.38937822
-0.066878341 -0.2642915 -0.38937518
-0.066704832 -0.26430336 -0.38937017
-0.066502593 -0.26432779 -0.38935381
-0.066270605 -0.26431242 -0.3893562
-0.066142246 -0.26429874 -0.38937825
-0.065996006 -0.2643055 -0.38938051
-0.065687664 -0.26427633 -0.3893787
-0.065506332 -0.26428816 -0.38937664
-0.065381005 -0.2643275 -0.38939399
-0.065178663 -0.26430899 -0.38939133
-0.067475997 -0.26418501 -0.389382
-0.067288995 -0.26412764 -0.38938436
-0.067134671 -0.26410368 -0.38938597
-0.066867165 -0.26407614 -0.3893725
-0.066693 -0.264088 -0.38937768
-0.066558003 -0.26409566 -0.38936433
-0.066314004 -0.26410767 -0.38936451
-0.066162832 -0.26411819 -0.38937548
-0.065986 -0.264126 -0.38938901
-0.065691672 -0.26410869 -0.38938937
-0.065498501 -0.26414451 -0.38938999
-0.065171003 -0.26416501 -0.38939801
-0.067225002 -0.26391599 -0.38939598
-0.067142144 -0.2639327 -0.38938656
-0.066857249 -0.26389626 -0.38938302
-0.066674002 -0.26388779 -0.38937581
-0.066545665 -0.263881 -0.38939068
-0.066302001 -0.26389268 -0.38937584
-0.066151164 -0.26390281 -0.38938284
-0.065707996 -0.263915 -0.38939032
-0.065434001 -0.263859 -0.389386
-0.067469753 -0.26366398 -0.38939446
-0.067213997 -0.26370165 -0.38938931
-0.067167006 -0.26370469 -0.38939199
-0.066851005 -0.2637895 -0.38939649
-0.066715665 -0.26372531 -0.389397
-0.066535994 -0.2637015 -0.3893865
-0.066276595 -0.2636928 -0.3893792
-0.06613984 -0.26368752 -0.38938066
-0.065967001 -0.26376799 -0.38940001
-0.06543 -0.263787 -0.389386
-0.067469329 -0.26351365 -0.38939133
-0.067206003 -0.26355901 -0.389397
-0.067155667 -0.26348999 -0.38939431
-0.066787496 -0.26346549 -0.38939399
-0.066527002 -0.263522 -0.38938034
-0.066297598 -0.26351801 -0.38937441
-0.066129997 -0.26350901 -0.38938552
-0.067132749 -0.26331124 -0.38939551
-0.066705287 -0.26329315 -0.3893947
-0.066514999 -0.26330665 -0.38939598
-0.06630975 -0.26333377 -0.38938326
-0.066167198 -0.263311 -0.38936958
-0.067146502 -0.26311147 -0.389395
-0.066711329 -0.26310065 -0.38939801
-0.066540405 -0.26307601 -0.38939518
-0.066335 -0.26309732 -0.38937235
-0.066164002 -0.26318198 -0.389397
-0.067129001 -0.26298699 -0.38939899
-0.066674002 -0.262936 -0.38939801
-0.066540495 -0.26291001 -0.389395
-0.066323668 -0.26288301 -0.38937631
-0.066161245 -0.262876 -0.38938674
-0.06711214 -0.26268071 -0.38939616
-0.066661 -0.262685 -0.38939798
-0.066582002 -0.26280001 -0.38939399
-0.066312999 -0.262703 -0.38938901
-0.06612657 -0.26267058 -0.38938412
-0.067119166 -0.26250818 -0.38939118
-0.066647999 -0.26243499 -0.38939801
-0.066303998 -0.26252368 -0.3893877
-0.066113196 -0.26250902 -0.38939378
-0.067142002 -0.26233801 -0.389397
-0.066643998 -0.26236299 -0.38939801
-0.066294 -0.26234502 -0.3893975
-0.066118836 -0.26232132 -0.38939047
-0.066446997 -0.26201501 -0.38939899
-0.066093996 -0.26209 -0.38939452
-0.066443004 -0.26194301 -0.389395
-0.066096328 -0.26189101 -0.3893927
-0.065252006 -0.261886 -0.38940001
-0.065052003 -0.26190299 -0.38939801
-0.067056999 -0.26162401 -0.38939801
-0.066085495 -0.26167598 -0.38938233
-0.0654625 -0.26171601 -0.38939628
-0.065321997 -0.26174101 -0.389388
-0.065042332 -0.26172599 -0.38939765
-0.067052998 -0.26155201 -0.38940001
-0.066077001 -0.26149699 -0.38936624
-0.065997005 -0.2615 -0.38939798
-0.065056249 -0.26150775 -0.389395
-0.06606666 -0.26131701 -0.38938084
-0.065991998 -0.261392 -0.389395
-0.066981003 -0.26112601 -0.38939801
-0.066031501 -0.26113901 -0.38939101
-0.066038996 -0.26090139 -0.38939598
-0.066007003 -0.26067233 -0.38939133
-0.065997005 -0.26049301 -0.3893925
-0.064976498 -0.26046801 -0.389388
-0.066038333 -0.26030999 -0.38939264
-0.064967327 -0.26028901 -0.38938299
-0.065976337 -0.26009801 -0.38939568
-0.064956665 -0.26007399 -0.38937297
-0.065965332 -0.259884 -0.38939032
-0.064948 -0.25993001 -0.38939199
-0.066911332 -0.25966585 -0.38938451
-0.066006497 -0.25970051 -0.389386
-0.065929756 -0.25970551 -0.389388
-0.064937003 -0.25971401 -0.38938498
-0.06690757 -0.25948572 -0.38938928
-0.066464335 -0.25949466 -0.38939735
-0.066314667 -0.25950399 -0.38939366
-0.066000998 -0.25959301 -0.38937899
-0.065939002 -0.25951526 -0.38939163
-0.065201998 -0.25948 -0.38940001
-0.065082997 -0.25943866 -0.3893877
-0.064925998 -0.25949869 -0.38937533
-0.067217998 -0.25930801 -0.38939533
-0.067139998 -0.259312 -0.38940001
-0.06691578 -0.25930634 -0.389382
-0.066481672 -0.259276 -0.38939932
-0.066325501 -0.259269 -0.38939351
-0.066133663 -0.259294 -0.38939735
-0.06591282 -0.25930265 -0.38938037
-0.065731004 -0.25928101 -0.38939449
-0.065384001 -0.25928998 -0.38939899
-0.065094858 -0.25929028 -0.38939115
-0.064914666 -0.25928435 -0.38937664
-0.067933999 -0.25913599 -0.389397
-0.067207001 -0.259092 -0.38939264
-0.067125 -0.25902501 -0.38938901
-0.066898085 -0.2591159 -0.3893691
-0.066736996 -0.25909048 -0.389393
-0.066499658 -0.25908199 -0.38939866
-0.066330396 -0.2590856 -0.38938418
-0.066122331 -0.25907934 -0.38939467
-0.065894581 -0.25909439 -0.38936949
-0.065721333 -0.25910231 -0.389395
-0.0654535 -0.2590695 -0.389377
-0.065286003 -0.25918999 -0.38939899
-0.0650988 -0.25910991 -0.38938132
-0.0649065 -0.25910449 -0.38935202
-0.063905001 -0.25912401 -0.38938901
-0.067327753 -0.25887024 -0.38938275
-0.067156829 -0.25887865 -0.389388
-0.066887245 -0.25890043 -0.3893573
-0.066684335 -0.25891051 -0.38938233
-0.066505671 -0.25891301 -0.3893795
-0.066340193 -0.25891262 -0.38937998
-0.066113994 -0.25889999 -0.38937551
-0.065913334 -0.25887811 -0.38935757
-0.065752991 -0.258885 -0.38936999
-0.065444 -0.25889066 -0.38938466
-0.065299667 -0.25885233 -0.38938832
-0.065099224 -0.25892398 -0.38937911
-0.064936198 -0.25890779 -0.38936642
-0.064704001 -0.25886101 -0.389388
-0.063890003 -0.25883701 -0.38938999
-0.06732025 -0.25872701 -0.3893795
-0.067147002 -0.25870049 -0.3893925
-0.066903666 -0.25868309 -0.38934457
-0.06671378 -0.25869524 -0.38936958
-0.066495173 -0.25869951 -0.38936698
-0.066321 -0.25871304 -0.38937017
-0.066105001 -0.25872168 -0.38935867
-0.065904163 -0.25869933 -0.38935184
-0.065744251 -0.25870624 -0.38935423
-0.065431997 -0.25867501 -0.389382
-0.065306835 -0.2586835 -0.38938132
-0.065099128 -0.25868189 -0.38938361
-0.064935498 -0.2587055 -0.38936767
-0.064696997 -0.25871801 -0.38937736
-0.064099997 -0.258674 -0.38939774
-0.063883334 -0.25869301 -0.38937297
-0.067264996 -0.25851467 -0.38938966
-0.067138165 -0.25852099 -0.38938269
-0.066886999 -0.25848946 -0.38933897
-0.066702999 -0.25847989 -0.38935208
-0.066484503 -0.25848401 -0.38935247
-0.066310167 -0.25849804 -0.38935718
-0.066094004 -0.258506 -0.38935032
-0.065895446 -0.25852001 -0.38933277
-0.065734997 -0.25852636 -0.38935399
-0.065423504 -0.258495 -0.38937199
-0.065297998 -0.25850424 -0.389368
-0.065081224 -0.25847512 -0.389368
-0.064925328 -0.25849032 -0.38934502
-0.064686999 -0.25853801 -0.389386
-0.064407006 -0.25847399 -0.3893925
-0.06423267 -0.25852299 -0.38939634
-0.064149998 -0.2586 -0.38940001
-0.063872002 -0.258477 -0.38937464
-0.063744001 -0.258414 -0.389397
-0.067422003 -0.258219 -0.38938999
-0.067288004 -0.25828299 -0.38938317
-0.067127831 -0.258306 -0.38936248
-0.066891253 -0.25831574 -0.38933262
-0.06669417 -0.25830084 -0.38934064
-0.06647525 -0.258304 -0.38935223
-0.066299334 -0.25828218 -0.38934717
-0.066082999 -0.25829032 -0.38935232
-0.065884553 -0.25830454 -0.38932434
-0.065724663 -0.258311 -0.38933232
-0.065414332 -0.25831601 -0.38936234
-0.065288663 -0.25832447 -0.38936833
-0.065072663 -0.2582958 -0.38934752
-0.064905003 -0.25828978 -0.38933921
-0.064673997 -0.25828633 -0.38938034
-0.064401001 -0.25836599 -0.38939399
-0.064221002 -0.25830701 -0.38939366
-0.064068832 -0.25827867 -0.38939187
-0.063862994 -0.25829801 -0.38936299
-0.063738495 -0.25830501 -0.3893905
-0.068879999 -0.25801101 -0.389397
-0.068254501 -0.258073 -0.38938898
-0.067851499 -0.25806099 -0.389393
-0.067679502 -0.25810152 -0.38939548
-0.067460753 -0.25807351 -0.38937449
-0.067286499 -0.25808117 -0.38937497
-0.067116834 -0.25809014 -0.38935101
-0.066875227 -0.2581099 -0.38931
-0.066695996 -0.25812989 -0.38933423
-0.066484571 -0.25811386 -0.38934943
-0.066290252 -0.25810301 -0.38933599
-0.066073999 -0.25807568 -0.38930264
-0.065872997 -0.25808847 -0.38933164
-0.065713167 -0.25809515 -0.38933584
-0.065405503 -0.258136 -0.38935
-0.06529557 -0.25809744 -0.38934413
-0.06508214 -0.25812712 -0.38933402
-0.064939857 -0.25810558 -0.38933685
-0.064663999 -0.25807235 -0.38935366
-0.064298667 -0.25808665 -0.38937554
-0.064067751 -0.25810924 -0.38937739
-0.063890755 -0.25809753 -0.38935301
-0.063729666 -0.25812599 -0.38938332
-0.068850003 -0.25790352 -0.38939124
-0.068507999 -0.25780901 -0.38938999
-0.068245001 -0.257893 -0.38939366
-0.068012506 -0.25786451 -0.3893925
-0.067861751 -0.25790697 -0.38938472
-0.067750335 -0.25792035 -0.38938367
-0.0675174 -0.25791278 -0.38937521
-0.067277506 -0.257902 -0.389364
-0.067106336 -0.25787464 -0.3893362
-0.066863671 -0.25789413 -0.38931444
-0.066716336 -0.25790498 -0.389312
-0.066500336 -0.25790823 -0.38933212
-0.06628117 -0.25792304 -0.38932881
-0.066064507 -0.25789601 -0.38930202
-0.065863222 -0.25787419 -0.38929778
-0.065701999 -0.25788054 -0.38932499
-0.06530989 -0.2578921 -0.38932478
-0.065084659 -0.25790283 -0.38931999
-0.064928107 -0.25791132 -0.38931221
-0.064655498 -0.25789249 -0.38933501
-0.064290248 -0.257907 -0.38935626
-0.064095572 -0.25787327 -0.38934901
-0.063918166 -0.25789583 -0.38934767
-0.063699245 -0.25789276 -0.38938549
-0.068874791 -0.25771374 -0.38936549
-0.068470664 -0.25769067 -0.38939068
-0.068269596 -0.25766319 -0.3893688
-0.068004332 -0.25768635 -0.38937333
-0.067857556 -0.25770143 -0.3893699
-0.067740001 -0.25770631 -0.38936567
-0.067581333 -0.25770935 -0.38936365
-0.067311443 -0.25772154 -0.38935423
-0.067097999 -0.25769699 -0.3893165
-0.066852778 -0.25768021 -0.38930869
-0.066705339 -0.25769117 -0.38930467
-0.066500872 -0.25770298 -0.38932413
-0.066288993 -0.25769815 -0.38931555
-0.066055 -0.257718 -0.3892993
-0.065853663 -0.25769567 -0.38930133
-0.065693498 -0.25770199 -0.38931078
-0.065288998 -0.25768676 -0.38931498
-0.065073669 -0.25768802 -0.38931
-0.064917229 -0.25769654 -0.38930288
-0.064647332 -0.25771436 -0.38931131
-0.064368665 -0.25772166 -0.38935769
-0.064110003 -0.25770301 -0.38935283
-0.063893199 -0.25769681 -0.38933939
-0.063671328 -0.257696 -0.38937032
-0.063545004 -0.25762501 -0.389393
-0.068895571 -0.25749919 -0.38936165
-0.068457596 -0.25753939 -0.38937581
-0.068295799 -0.25748962 -0.3893626
-0.06789133 -0.25749877 -0.38936031
-0.067755602 -0.25747642 -0.3893488
-0.067570664 -0.25749466 -0.38935199
-0.067301109 -0.25750691 -0.38933289
-0.067088835 -0.25751781 -0.38930833
-0.066868752 -0.25749928 -0.38928628
-0.066720247 -0.25748336 -0.38928625
-0.06652233 -0.25747648 -0.38931033
-0.066303663 -0.25749069 -0.38930887
-0.066044331 -0.25750268 -0.38929132
-0.065870829 -0.25751498 -0.38929066
-0.065721445 -0.25752154 -0.38927999
-0.065303147 -0.2575123 -0.38929629
-0.065063335 -0.25747266 -0.38928935
-0.064899877 -0.25749189 -0.38927451
-0.064636335 -0.25749901 -0.3893013
-0.064358331 -0.25750634 -0.389339
-0.064101107 -0.25752366 -0.38933548
-0.06389866 -0.25750116 -0.38932049
-0.063660495 -0.2574805 -0.38936099
-0.063513249 -0.25746423 -0.38938302
-0.068915747 -0.25728634 -0.38935855
-0.068795674 -0.257296 -0.3893497
-0.068483338 -0.25730801 -0.3893567
-0.068304226 -0.25731623 -0.38935715
-0.067915857 -0.25731543 -0.38934943
-0.067752995 -0.25727519 -0.38932884
-0.067560337 -0.25727937 -0.38933468
-0.067290336 -0.25729138 -0.38932237
-0.067078173 -0.25730249 -0.38929033
-0.066859834 -0.25731948 -0.38927832
-0.06673 -0.25730881 -0.38926187
-0.066514 -0.25729725 -0.38929299
-0.066294856 -0.25729629 -0.38928458
-0.066074997 -0.25726748 -0.38927501
-0.065860331 -0.25729966 -0.38926783
-0.065710776 -0.2573061 -0.38926557
-0.06532567 -0.25731531 -0.3892808
-0.065114714 -0.25730672 -0.38926831
-0.064896375 -0.25730187 -0.38925189
-0.064625666 -0.25728333 -0.38928533
-0.06434799 -0.25729099 -0.38931334
-0.064090446 -0.25730821 -0.38932043
-0.063904203 -0.25730559 -0.38930559
-0.063652001 -0.25730097 -0.38934448
-0.063481003 -0.25730374 -0.38938147
-0.068898559 -0.25709587 -0.38934076
-0.068785332 -0.25707999 -0.38933501
-0.068472661 -0.257092 -0.38933969
-0.068294004 -0.25710115 -0.38933721
-0.067895219 -0.25712213 -0.38932386
-0.067744255 -0.25709575 -0.38930824
-0.067552 -0.25709999 -0.3893145
-0.06731461 -0.25708839 -0.38931641
-0.06710922 -0.25708464 -0.38929287
-0.066849336 -0.25710467 -0.38925886
-0.066710331 -0.2571151 -0.38925767
-0.066505335 -0.2571182 -0.38927129
-0.066339597 -0.2571142 -0.38926941
-0.066091403 -0.25708398 -0.3892636
-0.065850161 -0.25708485 -0.38924733
-0.06570033 -0.25709143 -0.38924623
-0.065315329 -0.25710049 -0.38926318
-0.065092437 -0.25711298 -0.38924611
-0.06489975 -0.25711313 -0.38923737
-0.0646175 -0.25710499 -0.389267
-0.064337336 -0.25707534 -0.389305
-0.064090244 -0.25710127 -0.38930014
-0.063896433 -0.25709468 -0.38929561
-0.063643336 -0.25712198 -0.38932249
-0.063471504 -0.25712401 -0.38938484
-0.063065998 -0.257072 -0.38940001
-0.062987998 -0.25700399 -0.38940001
-0.069812 -0.25681099 -0.38940001
-0.069639504 -0.25692803 -0.38939798
-0.069284 -0.256834 -0.38939801
-0.068903543 -0.25692117 -0.38934508
-0.068776503 -0.25690252 -0.38932198
-0.068462335 -0.256879 -0.38931966
-0.068326667 -0.25688502 -0.38933599
-0.068195999 -0.256892 -0.38931835
-0.067884438 -0.25690821 -0.38931453
-0.067735009 -0.25691801 -0.38930631
-0.067542337 -0.25692132 -0.38931069
-0.067323402 -0.25691679 -0.389303
-0.067088433 -0.25689241 -0.38927403
-0.066839166 -0.25689101 -0.38923833
-0.066699997 -0.25690123 -0.38924012
-0.066495836 -0.25690466 -0.38923883
-0.066321172 -0.25691599 -0.38925183
-0.0661176 -0.2569122 -0.38924021
-0.065842003 -0.25690699 -0.38922301
-0.065700747 -0.25688612 -0.38921857
-0.065305501 -0.25688669 -0.38923183
-0.065107003 -0.25690871 -0.38922644
-0.064924002 -0.25690532 -0.389222
-0.064684406 -0.25690901 -0.38922122
-0.064328499 -0.25689697 -0.3892875
-0.064108334 -0.25687686 -0.3892785
-0.063967325 -0.25688183 -0.38930014
-0.063712858 -0.25691384 -0.38928816
-0.063494503 -0.25689912 -0.38935116
-0.063090667 -0.25697467 -0.38939533
-0.062983006 -0.25689599 -0.38938498
-0.062777504 -0.25683701 -0.38939202
-0.069807 -0.25670299 -0.38939452
-0.069679596 -0.2566452 -0.3893894
-0.069535494 -0.25664601 -0.38939351
-0.069277339 -0.25669 -0.38938233
-0.068886079 -0.25671342 -0.3893421
-0.068767004 -0.25672299 -0.38931367
-0.068452999 -0.2566995 -0.38930899
-0.068317749 -0.25670549 -0.38932949
-0.068185002 -0.25667599 -0.38930634
-0.067873672 -0.25669301 -0.38930288
-0.067724168 -0.25670233 -0.38930118
-0.067531332 -0.25670668 -0.38930631
-0.067304827 -0.25671685 -0.38928965
-0.067101747 -0.25671798 -0.38925999
-0.066830501 -0.25671172 -0.38921851
-0.066682123 -0.25669563 -0.38921225
-0.066485167 -0.25668952 -0.38922116
-0.066311501 -0.25670099 -0.389222
-0.066091336 -0.25671184 -0.38921452
-0.065858498 -0.25672549 -0.38920349
-0.065710001 -0.25670901 -0.38920498
-0.065287799 -0.25668603 -0.3892166
-0.065124601 -0.256697 -0.3892054
-0.064919673 -0.256735 -0.38920867
-0.064603001 -0.25678301 -0.38922
-0.064320005 -0.25671867 -0.38926768
-0.064098999 -0.25669801 -0.38927549
-0.063958503 -0.2567035 -0.38929176
-0.063721165 -0.25668916 -0.38926449
-0.063496441 -0.25669435 -0.38931668
-0.063083194 -0.25669679 -0.38937339
-0.062942401 -0.25668901 -0.38938719
-0.062769994 -0.25669301 -0.38938999
-0.069867998 -0.256515 -0.389386
-0.069717668 -0.25650424 -0.38937175
-0.069529504 -0.25650251 -0.38935798
-0.069265999 -0.256475 -0.38937235
-0.068875499 -0.25649783 -0.38932899
-0.068756007 -0.25650734 -0.38930932
-0.068444006 -0.25651968 -0.38930866
-0.068308167 -0.25652567 -0.38932368
-0.068175495 -0.256497 -0.389305
-0.067871504 -0.25650084 -0.38929799
-0.067734621 -0.25647712 -0.38928637
-0.067521006 -0.25649101 -0.38928637
-0.067294329 -0.25650153 -0.38926885
-0.067105718 -0.2565217 -0.38923901
-0.066998497 -0.25648201 -0.38922799
-0.066427663 -0.256473 -0.38921368
-0.066308603 -0.25647017 -0.38921258
-0.065851003 -0.25658199 -0.389204
-0.065330997 -0.25659701 -0.38921401
-0.064309999 -0.25650299 -0.38924965
-0.064090498 -0.25651866 -0.38925731
-0.063950174 -0.2565245 -0.389267
-0.063699797 -0.25648901 -0.3892352
-0.063532665 -0.25647816 -0.38927934
-0.063393332 -0.25648132 -0.38931999
-0.063082837 -0.25649619 -0.38934967
-0.062913775 -0.25650334 -0.38937002
-0.062729999 -0.25649676 -0.3893795
-0.070739999 -0.256264 -0.38939801
-0.070354 -0.256273 -0.38939601
-0.070123397 -0.2562694 -0.38938639
-0.069880165 -0.25629467 -0.38938567
-0.069704503 -0.25631359 -0.3893567
-0.069519669 -0.25632301 -0.38936034
-0.069257006 -0.256295 -0.38937402
-0.068889335 -0.25628164 -0.389303
-0.068770163 -0.25629318 -0.38929185
-0.068433337 -0.25630531 -0.38929403
-0.068297997 -0.256311 -0.38930783
-0.068166338 -0.25631765 -0.38930234
-0.067896605 -0.25631639 -0.38928437
-0.06772463 -0.25628087 -0.389274
-0.067511 -0.25627735 -0.389258
-0.067284502 -0.25628749 -0.38924482
-0.067112006 -0.25629601 -0.38922003
-0.066993997 -0.25637501 -0.38920501
-0.064298995 -0.25628799 -0.3892307
-0.064080507 -0.25630346 -0.38922653
-0.063939996 -0.25630933 -0.38923934
-0.063715398 -0.25631502 -0.38923222
-0.063523754 -0.25629899 -0.38926902
-0.063384995 -0.25630301 -0.389301
-0.063072838 -0.25628164 -0.38931999
-0.062902115 -0.25628722 -0.38937753
-0.062690169 -0.25630102 -0.38937047
-0.070759833 -0.25611898 -0.38939068
-0.070520997 -0.25608999 -0.389384
-0.070308402 -0.25611642 -0.38938397
-0.070096396 -0.25608557 -0.38936958
-0.069869839 -0.25608152 -0.38936332
-0.069713809 -0.25610572 -0.38933098
-0.069545597 -0.25609401 -0.38932079
-0.069248341 -0.25611731 -0.38935301
-0.068879835 -0.256102 -0.38930368
-0.06876 -0.25607815 -0.38927266
-0.068423003 -0.256091 -0.389272
-0.068286836 -0.25609669 -0.38929901
-0.068155997 -0.25610366 -0.38927534
-0.067876838 -0.25611717 -0.38926864
-0.067731857 -0.25610784 -0.38926116
-0.067502499 -0.25609899 -0.38923901
-0.067266397 -0.25608781 -0.38922063
-0.067144997 -0.25607899 -0.38921165
-0.064287499 -0.25603899 -0.38920301
-0.064069502 -0.25608835 -0.38921848
-0.063926391 -0.25611001 -0.38920897
-0.063681595 -0.25613022 -0.389222
-0.063515499 -0.25611964 -0.38924932
-0.063376337 -0.25612333 -0.38928166
-0.063063994 -0.25610301 -0.38930726
-0.062892444 -0.25607401 -0.38934135
-0.06268084 -0.25608701 -0.38933501
-0.062530503 -0.2560555 -0.38938302
-0.070825994 -0.255862 -0.38939801
-0.070749171 -0.25590435 -0.38937736
-0.07051266 -0.25591034 -0.38936868
-0.070289664 -0.25591651 -0.38936368
-0.070105597 -0.25591201 -0.38935658
-0.069861494 -0.25590202 -0.38934475
-0.069715552 -0.25588244 -0.38931432
-0.069543995 -0.25589201 -0.38931918
-0.069238 -0.25590199 -0.38933268
-0.068871446 -0.25592291 -0.38928264
-0.068751752 -0.25590003 -0.3892445
-0.068412997 -0.25587633 -0.38924766
-0.068277664 -0.25588265 -0.38925481
-0.068146341 -0.25588897 -0.38924733
-0.067866668 -0.25590268 -0.38924384
-0.067714334 -0.25591409 -0.38923734
-0.067493998 -0.25591967 -0.38922334
-0.067288503 -0.25592849 -0.38920552
-0.067138001 -0.25593501 -0.389209
-0.064060502 -0.25591052 -0.38920775
-0.063624002 -0.25597399 -0.38921401
-0.063484497 -0.25592247 -0.38922873
-0.063365668 -0.25590801 -0.38926968
-0.063055001 -0.25592336 -0.38929668
-0.062884174 -0.25589499 -0.38931334
-0.062659197 -0.2558876 -0.38931119
-0.062498499 -0.25585902 -0.38936275
-0.070829004 -0.25566325 -0.38938701
-0.070738666 -0.25568998 -0.38935962
-0.070502669 -0.25569633 -0.38934031
-0.070279002 -0.25570181 -0.38935032
-0.070087165 -0.25571319 -0.38933983
-0.069852501 -0.25572351 -0.3893337
-0.069705829 -0.25570467 -0.38931715
-0.069533832 -0.25567868 -0.38929451
-0.069228001 -0.255689 -0.38930333
-0.068860777 -0.25570944 -0.38926733
-0.068743169 -0.25572148 -0.3892262
-0.068404496 -0.2556985 -0.38922399
-0.068268999 -0.25570449 -0.38923925
-0.068136334 -0.25567499 -0.38922298
-0.067856334 -0.25568849 -0.38922432
-0.067704 -0.25569946 -0.38922155
-0.0674835 -0.25570601 -0.38920301
-0.063474253 -0.25570899 -0.389211
-0.063355662 -0.25569332 -0.38924301
-0.063068256 -0.25572526 -0.38926652
-0.062897362 -0.25570789 -0.3893052
-0.062693752 -0.2557275 -0.38929248
-0.062494598 -0.25569102 -0.38934058
-0.062325999 -0.255665 -0.389395
-0.070890568 -0.25551084 -0.38938498
-0.070727341 -0.25547498 -0.38936019
-0.070491664 -0.25548199 -0.38933232
-0.070268497 -0.25548753 -0.38933501
-0.070076339 -0.25549802 -0.38933051
-0.069888659 -0.25550601 -0.38931432
-0.06972184 -0.25552189 -0.38930595
-0.069525249 -0.25549924 -0.38927877
-0.069218002 -0.255474 -0.389281
-0.068857245 -0.25550237 -0.38924447
-0.068748333 -0.25550553 -0.38921383
-0.068305224 -0.255523 -0.38922632
-0.068127006 -0.255496 -0.38921601
-0.067897499 -0.255503 -0.38920799
-0.067718916 -0.25548318 -0.3892144
-0.067475997 -0.25556201 -0.38920501
-0.063347504 -0.25551501 -0.38922298
-0.063080333 -0.25549233 -0.38923398
-0.062897168 -0.25549957 -0.38925615
-0.062713332 -0.25551099 -0.38926467
-0.062504105 -0.25551867 -0.38931826
-0.062318999 -0.255521 -0.389384
-0.070888862 -0.25532541 -0.38937187
-0.07074517 -0.25529352 -0.38934782
-0.0704825 -0.25530201 -0.38933
-0.070248999 -0.25528759 -0.38932222
-0.070065834 -0.2552835 -0.38931453
-0.069877662 -0.25529066 -0.38930333
-0.069711499 -0.25530717 -0.38928404
-0.069516502 -0.25532052 -0.38926449
-0.069209501 -0.25529498 -0.38926101
-0.068864495 -0.25527784 -0.38922569
-0.068779342 -0.25533533 -0.38920832
-0.068268999 -0.25531968 -0.38922098
-0.067667603 -0.25529838 -0.38920623
-0.063069336 -0.25527734 -0.38922668
-0.062886663 -0.25528574 -0.38923869
-0.062704332 -0.25529799 -0.38922834
-0.062504873 -0.25531188 -0.38930511
-0.062293831 -0.25530684 -0.38938448
-0.062040001 -0.25525099 -0.389393
-0.0716905 -0.255059 -0.3893975
-0.071486004 -0.25506699 -0.38939601
-0.070892505 -0.25509849 -0.38936284
-0.070735998 -0.25511488 -0.38934156
-0.070474006 -0.25512469 -0.38931
-0.070259802 -0.25511581 -0.38930118
-0.070047006 -0.2550838 -0.38929719
-0.069867 -0.25507566 -0.38929799
-0.069700919 -0.25509301 -0.38926935
-0.069505505 -0.25510618 -0.38925448
-0.069204003 -0.25518599 -0.38926199
-0.069197997 -0.25507998 -0.3892675
-0.068856001 -0.255099 -0.38921452
-0.068283498 -0.25512952 -0.38920599
-0.068197504 -0.25513399 -0.38920403
-0.063060999 -0.25509799 -0.38920301
-0.062871568 -0.25510201 -0.38921767
-0.062733799 -0.25506419 -0.38922298
-0.062528498 -0.25508785 -0.38925767
-0.06234483 -0.2550905 -0.38934267
-0.062075499 -0.25503001 -0.38939801
-0.072685003 -0.254861 -0.38940001
-0.072388001 -0.25487366 -0.38938698
-0.071833998 -0.25482899 -0.38939399
-0.071699575 -0.25490585 -0.38938513
-0.071479663 -0.25492501 -0.38937798
-0.070882507 -0.25488469 -0.3893342
-0.070725888 -0.25490081 -0.38931522
-0.070463002 -0.25490901 -0.3893027
-0.070288002 -0.254913 -0.38927969
-0.070123143 -0.25492144 -0.38929003
-0.069905996 -0.254884 -0.38926831
-0.069683917 -0.25488508 -0.38925344
-0.069494829 -0.25489068 -0.38924417
-0.069189668 -0.25490099 -0.3892487
-0.068845995 -0.25491917 -0.38922167
-0.063055001 -0.25499001 -0.389204
-0.062866598 -0.254913 -0.38921979
-0.062786996 -0.25489348 -0.38923049
-0.062510803 -0.2548888 -0.38922879
-0.062316146 -0.25488687 -0.38932329
-0.0621005 -0.25487539 -0.3893806
-0.061842334 -0.25484633 -0.389393
-0.061704002 -0.25487101 -0.38939151
-0.072695665 -0.25471634 -0.38939199
-0.072544999 -0.254648 -0.38939801
-0.072380006 -0.25469398 -0.38936502
-0.071826667 -0.254686 -0.3893877
-0.07171122 -0.2546989 -0.3893708
-0.071469337 -0.25470999 -0.38936266
-0.070862398 -0.25468582 -0.38931459
-0.070715882 -0.25468665 -0.38928923
-0.070453338 -0.25469533 -0.38926435
-0.07027667 -0.25469831 -0.38927436
-0.070132665 -0.25470564 -0.38927197
-0.069921494 -0.25471699 -0.38926268
-0.069701999 -0.25471613 -0.38924137
-0.069500573 -0.25467613 -0.38923401
-0.069179006 -0.25468698 -0.38923535
-0.068815 -0.25477701 -0.38920099
-0.0625192 -0.2547158 -0.38922399
-0.062326998 -0.25469801 -0.38928401
-0.062089425 -0.25468972 -0.38936213
-0.061866835 -0.25467917 -0.38936198
-0.061738998 -0.25468716 -0.38938484
-0.072693169 -0.25450167 -0.38938463
-0.072537668 -0.25450531 -0.389388
-0.072370328 -0.25451601 -0.38936469
-0.071815334 -0.25447133 -0.38938299
-0.07170067 -0.25448531 -0.38935447
-0.071459331 -0.25449666 -0.38933435
-0.070874609 -0.25451261 -0.38930959
-0.070699498 -0.25448188 -0.38926712
-0.070442997 -0.25448063 -0.38925233
-0.070266999 -0.25448433 -0.38924468
-0.070122495 -0.25449148 -0.38925219
-0.069910832 -0.25450215 -0.3892498
-0.069699444 -0.25451866 -0.38923299
-0.069525003 -0.25450999 -0.38922715
-0.069168329 -0.25447199 -0.38921902
-0.062546998 -0.254585 -0.38921499
-0.0623102 -0.25453338 -0.3892636
-0.062120568 -0.25452259 -0.38933975
-0.061902396 -0.25449058 -0.3893654
-0.061709996 -0.25449049 -0.3893885
-0.061435498 -0.25445601 -0.38937902
-0.072706997 -0.25428554 -0.38936222
-0.072527342 -0.25429031 -0.38937831
-0.072360002 -0.25430101 -0.38934532
-0.071806997 -0.25429249 -0.38936901
-0.07173875 -0.25430149 -0.3893505
-0.071522333 -0.25428018 -0.38932583
-0.070866004 -0.25432658 -0.38928598
-0.070716873 -0.25430098 -0.38925874
-0.070434496 -0.25430301 -0.38923299
-0.070258498 -0.254307 -0.38922
-0.070112005 -0.25427735 -0.38923165
-0.069900505 -0.2542882 -0.38923132
-0.069706164 -0.25432649 -0.3892152
-0.0695398 -0.25432959 -0.38921478
-0.062261332 -0.25430334 -0.389258
-0.062129829 -0.25430682 -0.38931683
-0.061909888 -0.25431812 -0.38935503
-0.06171225 -0.25427425 -0.38937324
-0.061427336 -0.25427899 -0.38934532
-0.073702998 -0.25401101 -0.38939199
-0.073449999 -0.25402701 -0.38939899
-0.072892748 -0.25407001 -0.38938797
-0.072720006 -0.25410339 -0.38935584
-0.072517671 -0.25407767 -0.38934031
-0.072350331 -0.25408801 -0.38931265
-0.071801998 -0.25418499 -0.38935599
-0.071746878 -0.25411201 -0.38933399
-0.071513996 -0.25410226 -0.38930425
-0.070897333 -0.25409532 -0.38927436
-0.070714496 -0.25411236 -0.38923836
-0.070425332 -0.25412369 -0.38922235
-0.070248999 -0.254127 -0.38921735
-0.07010375 -0.2540985 -0.38920775
-0.069891497 -0.25410926 -0.38922048
-0.069725335 -0.25408232 -0.38920769
-0.062253498 -0.25412649 -0.389229
-0.062120002 -0.25409281 -0.38928166
-0.061901554 -0.25410423 -0.38929978
-0.061718002 -0.25411254 -0.3893429
-0.061416499 -0.254096 -0.38937902
-0.073848002 -0.25393099 -0.38939801
-0.073715664 -0.25391367 -0.389388
-0.073499799 -0.25386679 -0.38937122
-0.073173009 -0.25389233 -0.38938034
-0.072903112 -0.25390977 -0.38936865
