# .PCD v0.7 - Point Cloud Data file format
VERSION 0.7
FIELDS x y z
SIZE 4 4 4
TYPE F F F
COUNT 1 1 1
WIDTH 1649
HEIGHT 1
VIEWPOINT 0 0 0 1 0 0 0
POINTS 1649
DATA ascii
-0.069449 0.121566 -0.238025
-0.069447 0.121646 -0.238005
-0.069444 0.121723 -0.237989
-0.069442 0.121801 -0.237977
-0.069439 0.121881 -0.237965
-0.069437 0.121958 -0.237953
-0.069433 0.122031 -0.237981
-0.069428 0.122102 -0.238022
-0.069425 0.122176 -0.238034
-0.069421 0.122254 -0.238036
-0.069419 0.122332 -0.238024
-0.069416 0.122410 -0.238018
-0.069413 0.122486 -0.238020
-0.069410 0.122563 -0.238015
-0.069407 0.122639 -0.238013
-0.069404 0.122717 -0.238011
-0.069402 0.122793 -0.238007
-0.069399 0.122871 -0.238005
-0.069395 0.122947 -0.238011
-0.069392 0.123023 -0.238018
-0.069389 0.123099 -0.238010
-0.069387 0.123181 -0.237988
-0.069385 0.123258 -0.237976
-0.069382 0.123332 -0.237982
-0.069378 0.123409 -0.237994
-0.069375 0.123484 -0.237993
-0.069373 0.123564 -0.237981
-0.069370 0.123642 -0.237971
-0.069367 0.123718 -0.237963
-0.069365 0.123797 -0.237953
-0.069362 0.123873 -0.237945
-0.069359 0.123951 -0.237947
-0.069356 0.124029 -0.237938
-0.069354 0.124107 -0.237930
-0.069351 0.124183 -0.237926
-0.069348 0.124261 -0.237920
-0.069345 0.124337 -0.237924
-0.069342 0.124415 -0.237924
-0.069341 0.124496 -0.237884
-0.069345 0.124592 -0.237710
-0.069345 0.124676 -0.237646
-0.069342 0.124754 -0.237638
-0.069339 0.124828 -0.237655
-0.069331 0.124893 -0.237761
-0.069325 0.124962 -0.237821
-0.069323 0.125040 -0.237813
-0.069322 0.125123 -0.237763
-0.069322 0.125207 -0.237697
-0.069320 0.125287 -0.237672
-0.069317 0.125362 -0.237670
-0.069314 0.125439 -0.237674
-0.069310 0.125515 -0.237682
-0.069307 0.125591 -0.237694
-0.069303 0.125665 -0.237709
-0.069300 0.125741 -0.237715
-0.069297 0.125817 -0.237721
-0.069293 0.125892 -0.237735
-0.069289 0.125966 -0.237753
-0.069286 0.126042 -0.237759
-0.069283 0.126120 -0.237756
-0.069281 0.126198 -0.237742
-0.069279 0.126277 -0.237714
-0.069277 0.126356 -0.237686
-0.069275 0.126436 -0.237668
-0.069271 0.126510 -0.237680
-0.069267 0.126585 -0.237712
-0.069263 0.126659 -0.237739
-0.069259 0.126732 -0.237759
-0.069255 0.126808 -0.237773
-0.069252 0.126882 -0.237787
-0.069248 0.126958 -0.237793
-0.069246 0.127038 -0.237780
-0.069243 0.127116 -0.237770
-0.069240 0.127192 -0.237772
-0.069238 0.127269 -0.237750
-0.069238 0.127354 -0.237676
-0.069238 0.127436 -0.237618
-0.069236 0.127514 -0.237604
-0.069234 0.127593 -0.237578
-0.069232 0.127673 -0.237547
-0.069230 0.127750 -0.237531
-0.069227 0.127828 -0.237531
-0.069223 0.127902 -0.237543
-0.069219 0.127977 -0.237571
-0.069216 0.128053 -0.237579
-0.069212 0.128129 -0.237584
-0.069209 0.128205 -0.237586
-0.069206 0.128281 -0.237594
-0.069202 0.128356 -0.237618
-0.069198 0.128431 -0.237648
-0.069193 0.128503 -0.237677
-0.069190 0.128581 -0.237681
-0.069191 0.128665 -0.237591
-0.069195 0.128756 -0.237431
-0.069197 0.128841 -0.237331
-0.069195 0.128919 -0.237303
-0.069192 0.128998 -0.237293
-0.069188 0.129073 -0.237311
-0.069179 0.129134 -0.237466
-0.069170 0.129201 -0.237586
-0.069166 0.129275 -0.237612
-0.069163 0.129351 -0.237620
-0.069158 0.129424 -0.237662
-0.069153 0.129499 -0.237699
-0.069150 0.129573 -0.237715
-0.069146 0.129649 -0.237717
-0.069144 0.129727 -0.237707
-0.069141 0.129805 -0.237695
-0.069141 0.129886 -0.237639
-0.069145 0.129976 -0.237481
-0.069149 0.130065 -0.237327
-0.069148 0.130146 -0.237281
-0.069145 0.130223 -0.237266
-0.069142 0.130299 -0.237264
-0.069139 0.130375 -0.237272
-0.069135 0.130450 -0.237288
-0.069132 0.130526 -0.237298
-0.069129 0.130604 -0.237292
-0.069126 0.130679 -0.237287
-0.069123 0.130756 -0.237293
-0.069119 0.130830 -0.237315
-0.069114 0.130903 -0.237369
-0.069108 0.130975 -0.237437
-0.069102 0.131046 -0.237500
-0.069097 0.131119 -0.237546
-0.069094 0.131195 -0.237548
-0.069092 0.131276 -0.237510
-0.069090 0.131352 -0.237498
-0.069087 0.131430 -0.237494
-0.069085 0.131505 -0.237487
-0.069081 0.131581 -0.237489
-0.069078 0.131660 -0.237497
-0.069074 0.131734 -0.237513
-0.069071 0.131808 -0.237529
-0.069068 0.131886 -0.237530
-0.069065 0.131964 -0.237518
-0.069062 0.132040 -0.237512
-0.069059 0.132116 -0.237522
-0.069055 0.132190 -0.237542
-0.069051 0.132267 -0.237568
-0.069046 0.132340 -0.237605
-0.069043 0.132418 -0.237607
-0.069044 0.132500 -0.237523
-0.069045 0.132580 -0.237439
-0.069043 0.132659 -0.237411
-0.069038 0.132732 -0.237457
-0.069032 0.132806 -0.237519
-0.069027 0.132880 -0.237554
-0.069024 0.132956 -0.237564
-0.069021 0.133032 -0.237562
-0.069019 0.133110 -0.237542
-0.069016 0.133188 -0.237546
-0.069013 0.133264 -0.237548
-0.069013 0.133344 -0.237465
-0.069016 0.133428 -0.237351
-0.069015 0.133506 -0.237305
-0.069011 0.133583 -0.237323
-0.069005 0.133654 -0.237395
-0.068999 0.133726 -0.237459
-0.068999 0.133808 -0.237382
-0.069007 0.133897 -0.237152
-0.069004 0.133975 -0.237138
-0.069000 0.134049 -0.237160
-0.068996 0.134123 -0.237182
-0.068989 0.134195 -0.237270
-0.068978 0.134263 -0.237445
-0.068971 0.134335 -0.237545
-0.068967 0.134410 -0.237567
-0.068963 0.134486 -0.237575
-0.068962 0.134563 -0.237551
-0.068965 0.134646 -0.237415
-0.068970 0.134732 -0.237230
-0.068970 0.134811 -0.237170
-0.068967 0.134887 -0.237172
-0.068964 0.134963 -0.237178
-0.068960 0.135039 -0.237186
-0.068954 0.135114 -0.237244
-0.068949 0.135188 -0.237309
-0.068947 0.135265 -0.237271
-0.068951 0.135349 -0.237115
-0.068953 0.135429 -0.237021
-0.068951 0.135507 -0.236999
-0.068948 0.135583 -0.236995
-0.068945 0.135659 -0.236994
-0.068940 0.135734 -0.237044
-0.068929 0.135803 -0.237206
-0.068920 0.135874 -0.237336
-0.068914 0.135948 -0.237410
-0.068912 0.136023 -0.237396
-0.068908 0.136099 -0.237407
-0.068906 0.136177 -0.237393
-0.068904 0.136255 -0.237367
-0.068901 0.136330 -0.237357
-0.068899 0.136408 -0.237353
-0.068896 0.136484 -0.237351
-0.068893 0.136560 -0.237348
-0.068891 0.136637 -0.237330
-0.068889 0.136715 -0.237308
-0.068887 0.136790 -0.237286
-0.068885 0.136868 -0.237264
-0.068881 0.136944 -0.237272
-0.068876 0.137019 -0.237333
-0.068870 0.137093 -0.237389
-0.068866 0.137169 -0.237413
-0.068862 0.137245 -0.237431
-0.068859 0.137322 -0.237439
-0.068856 0.137397 -0.237423
-0.068854 0.137475 -0.237412
-0.068853 0.137552 -0.237360
-0.068860 0.137635 -0.237154
-0.068867 0.137716 -0.236944
-0.068864 0.137794 -0.236926
-0.068860 0.137869 -0.236963
-0.068856 0.137943 -0.236989
-0.068851 0.138020 -0.237021
-0.068841 0.138091 -0.237167
-0.068832 0.138166 -0.237295
-0.068826 0.138240 -0.237365
-0.068823 0.138316 -0.237372
-0.068821 0.138393 -0.237346
-0.068819 0.138470 -0.237318
-0.068818 0.138547 -0.237276
-0.068817 0.138625 -0.237242
-0.068815 0.138700 -0.237222
-0.068812 0.138778 -0.237225
-0.068808 0.138853 -0.237251
-0.068803 0.138929 -0.237281
-0.068800 0.139005 -0.237287
-0.068797 0.139081 -0.237281
-0.068794 0.139159 -0.237277
-0.068792 0.139235 -0.237260
-0.068791 0.139312 -0.237214
-0.068790 0.139389 -0.237170
-0.068789 0.139466 -0.237136
-0.068787 0.139543 -0.237114
-0.068785 0.139619 -0.237103
-0.068781 0.139695 -0.237105
-0.068778 0.139771 -0.237121
-0.068774 0.139848 -0.237133
-0.068770 0.139924 -0.237151
-0.068766 0.139998 -0.237175
-0.068762 0.140075 -0.237201
-0.068758 0.140150 -0.237232
-0.068753 0.140226 -0.237264
-0.068749 0.140303 -0.237284
-0.068746 0.140379 -0.237278
-0.068744 0.140456 -0.237254
-0.068741 0.140532 -0.237256
-0.068736 0.140607 -0.237299
-0.068732 0.140684 -0.237339
-0.068728 0.140760 -0.237359
-0.068724 0.140836 -0.237373
-0.068747 0.140916 -0.236824
-0.068745 0.140992 -0.236796
-0.068744 0.141069 -0.236768
-0.068742 0.141144 -0.236746
-0.068722 0.141220 -0.237106
-0.068707 0.141294 -0.237350
-0.068703 0.141370 -0.237368
-0.068710 0.141447 -0.237159
-0.068716 0.141525 -0.236969
-0.068720 0.141602 -0.236813
-0.068718 0.141678 -0.236809
-0.068715 0.141754 -0.236810
-0.068713 0.141829 -0.236788
-0.068710 0.141905 -0.236792
-0.068699 0.141982 -0.236942
-0.068685 0.142058 -0.237180
-0.068677 0.142134 -0.237284
-0.068672 0.142211 -0.237320
-0.068670 0.142286 -0.237314
-0.068667 0.142364 -0.237307
-0.068665 0.142440 -0.237281
-0.068668 0.142515 -0.237173
-0.068670 0.142591 -0.237061
-0.068670 0.142667 -0.236986
-0.068669 0.142744 -0.236944
-0.068666 0.142820 -0.236954
-0.068662 0.142895 -0.236986
-0.068657 0.142971 -0.237008
-0.068654 0.143048 -0.237022
-0.068650 0.143124 -0.237039
-0.068646 0.143200 -0.237053
-0.068644 0.143276 -0.237049
-0.068642 0.143353 -0.237021
-0.068639 0.143429 -0.237019
-0.068634 0.143506 -0.237055
-0.068629 0.143583 -0.237101
-0.068625 0.143659 -0.237118
-0.068622 0.143735 -0.237114
-0.068619 0.143811 -0.237114
-0.068616 0.143888 -0.237128
-0.068612 0.143964 -0.237136
-0.068608 0.144040 -0.237162
-0.068604 0.144117 -0.237189
-0.068604 0.144193 -0.237121
-0.068613 0.144266 -0.236883
-0.068616 0.144339 -0.236750
-0.068615 0.144414 -0.236704
-0.068613 0.144492 -0.236698
-0.068609 0.144566 -0.236706
-0.068606 0.144644 -0.236706
-0.068604 0.144720 -0.236699
-0.068601 0.144795 -0.236683
-0.068599 0.144871 -0.236679
-0.068596 0.144947 -0.236669
-0.068594 0.145023 -0.236655
-0.068590 0.145099 -0.236670
-0.068585 0.145176 -0.236704
-0.068579 0.145253 -0.236774
-0.068574 0.145330 -0.236828
-0.068572 0.145406 -0.236806
-0.068571 0.145480 -0.236750
-0.068569 0.145556 -0.236742
-0.068565 0.145633 -0.236765
-0.068560 0.145709 -0.236801
-0.068556 0.145788 -0.236825
-0.068553 0.145864 -0.236825
-0.068550 0.145940 -0.236827
-0.068546 0.146016 -0.236833
-0.068544 0.146092 -0.236828
-0.068541 0.146168 -0.236826
-0.068537 0.146244 -0.236834
-0.068535 0.146320 -0.236830
-0.068532 0.146396 -0.236828
-0.068529 0.146471 -0.236818
-0.068527 0.146549 -0.236803
-0.068525 0.146625 -0.236787
-0.068523 0.146698 -0.236755
-0.068520 0.146776 -0.236755
-0.068516 0.146853 -0.236789
-0.068513 0.146929 -0.236792
-0.068510 0.147004 -0.236786
-0.068507 0.147081 -0.236790
-0.068503 0.147157 -0.236796
-0.068499 0.147233 -0.236816
-0.068495 0.147312 -0.236840
-0.068493 0.147387 -0.236829
-0.068493 0.147460 -0.236773
-0.068493 0.147534 -0.236707
-0.068492 0.147610 -0.236665
-0.068490 0.147685 -0.236640
-0.068488 0.147760 -0.236620
-0.068487 0.147834 -0.236586
-0.068486 0.147909 -0.236544
-0.068482 0.147985 -0.236556
-0.068476 0.148064 -0.236612
-0.068472 0.148141 -0.236641
-0.068469 0.148217 -0.236649
-0.068464 0.148295 -0.236677
-0.068459 0.148372 -0.236723
-0.068455 0.148451 -0.236755
-0.068451 0.148527 -0.236757
-0.068449 0.148603 -0.236745
-0.068447 0.148678 -0.236718
-0.068446 0.148754 -0.236694
-0.068444 0.148829 -0.236672
-0.068442 0.148903 -0.236650
-0.068439 0.148978 -0.236637
-0.068437 0.149054 -0.236617
-0.068435 0.149129 -0.236603
-0.068432 0.149205 -0.236605
-0.068429 0.149281 -0.236603
-0.068426 0.149357 -0.236597
-0.068423 0.149435 -0.236598
-0.068421 0.149509 -0.236592
-0.068418 0.149587 -0.236576
-0.068416 0.149660 -0.236566
-0.068412 0.149737 -0.236578
-0.068407 0.149815 -0.236622
-0.068402 0.149895 -0.236673
-0.068397 0.149973 -0.236709
-0.068391 0.150052 -0.236763
-0.068389 0.150128 -0.236757
-0.068386 0.150204 -0.236749
-0.068383 0.150280 -0.236741
-0.068380 0.150358 -0.236745
-0.068376 0.150434 -0.236762
-0.068373 0.150511 -0.236774
-0.068370 0.150586 -0.236774
-0.068367 0.150662 -0.236772
-0.068364 0.150740 -0.236772
-0.068361 0.150816 -0.236760
-0.068360 0.150889 -0.236729
-0.068360 0.150962 -0.236679
-0.068361 0.151034 -0.236585
-0.068364 0.151104 -0.236474
-0.068365 0.151174 -0.236394
-0.068364 0.151247 -0.236354
-0.068362 0.151322 -0.236339
-0.068359 0.151398 -0.236335
-0.068355 0.151477 -0.236343
-0.068345 0.151562 -0.236497
-0.068334 0.151647 -0.236645
-0.068331 0.151725 -0.236657
-0.068330 0.151798 -0.236615
-0.068327 0.151874 -0.236607
-0.068323 0.151953 -0.236633
-0.068322 0.152026 -0.236600
-0.068307 0.152119 -0.236823
-0.068305 0.152192 -0.236809
-0.068304 0.152268 -0.236770
-0.068311 0.152329 -0.236580
-0.068321 0.152387 -0.236305
-0.068320 0.152461 -0.236273
-0.068310 0.152548 -0.236419
-0.068303 0.152629 -0.236489
-0.068300 0.152705 -0.236487
-0.068298 0.152781 -0.236476
-0.068295 0.152857 -0.236484
-0.068291 0.152933 -0.236486
-0.068289 0.153009 -0.236478
-0.068287 0.153084 -0.236450
-0.068285 0.153158 -0.236427
-0.068283 0.153234 -0.236427
-0.068279 0.153310 -0.236431
-0.068277 0.153387 -0.236425
-0.068274 0.153461 -0.236411
-0.068272 0.153537 -0.236391
-0.068271 0.153610 -0.236358
-0.068269 0.153683 -0.236332
-0.068267 0.153761 -0.236324
-0.068264 0.153837 -0.236324
-0.068260 0.153913 -0.236336
-0.068256 0.153992 -0.236353
-0.068253 0.154068 -0.236363
-0.068252 0.154141 -0.236321
-0.068252 0.154211 -0.236261
-0.068250 0.154287 -0.236250
-0.068247 0.154363 -0.236248
-0.068245 0.154439 -0.236228
-0.068242 0.154515 -0.236228
-0.068238 0.154591 -0.236240
-0.068235 0.154669 -0.236244
-0.068232 0.154745 -0.236247
-0.068229 0.154821 -0.236243
-0.068226 0.154897 -0.236241
-0.068222 0.154975 -0.236257
-0.068219 0.155051 -0.236257
-0.068220 0.155121 -0.236186
-0.068222 0.155189 -0.236092
-0.068218 0.155267 -0.236104
-0.068213 0.155346 -0.236148
-0.068208 0.155425 -0.236176
-0.068206 0.155501 -0.236159
-0.068204 0.155574 -0.236141
-0.068202 0.155650 -0.236131
-0.068199 0.155726 -0.236133
-0.068195 0.155804 -0.236151
-0.068191 0.155883 -0.236169
-0.068186 0.155961 -0.236202
-0.068180 0.156045 -0.236271
-0.068175 0.156123 -0.236308
-0.068176 0.156194 -0.236228
-0.068174 0.156267 -0.236214
-0.068169 0.156348 -0.236248
-0.068164 0.156427 -0.236282
-0.068161 0.156505 -0.236286
-0.068159 0.156578 -0.236271
-0.068158 0.156652 -0.236231
-0.068156 0.156725 -0.236209
-0.068153 0.156803 -0.236215
-0.068151 0.156877 -0.236192
-0.068152 0.156945 -0.236118
-0.068156 0.157008 -0.235967
-0.068171 0.157050 -0.235632
-0.068168 0.157126 -0.235624
-0.068148 0.157235 -0.235953
-0.068140 0.157319 -0.236049
-0.068137 0.157397 -0.236059
-0.068134 0.157473 -0.236061
-0.068130 0.157552 -0.236073
-0.068126 0.157630 -0.236086
-0.068124 0.157704 -0.236076
-0.068122 0.157779 -0.236048
-0.068119 0.157855 -0.236048
-0.068116 0.157931 -0.236048
-0.068114 0.158007 -0.236043
-0.068109 0.158085 -0.236063
-0.068105 0.158166 -0.236099
-0.068101 0.158244 -0.236117
-0.068098 0.158320 -0.236111
-0.068096 0.158394 -0.236093
-0.068094 0.158467 -0.236070
-0.068091 0.158545 -0.236068
-0.068088 0.158621 -0.236074
-0.068086 0.158697 -0.236052
-0.068085 0.158768 -0.236014
-0.068082 0.158844 -0.236007
-0.068082 0.158914 -0.235949
-0.068086 0.158975 -0.235812
-0.068084 0.159049 -0.235798
-0.068080 0.159127 -0.235814
-0.068075 0.159210 -0.235868
-0.068072 0.159286 -0.235870
-0.068067 0.159365 -0.235890
-0.068059 0.159453 -0.235988
-0.068057 0.159529 -0.235978
-0.068058 0.159595 -0.235901
-0.068060 0.159661 -0.235801
-0.068065 0.159719 -0.235648
-0.068057 0.159805 -0.235738
-0.068049 0.159893 -0.235834
-0.068045 0.159974 -0.235864
-0.068042 0.160048 -0.235854
-0.068041 0.160121 -0.235826
-0.068039 0.160196 -0.235808
-0.068036 0.160272 -0.235810
-0.068033 0.160349 -0.235813
-0.068031 0.160422 -0.235783
-0.068031 0.160491 -0.235727
-0.068031 0.160561 -0.235676
-0.068028 0.160637 -0.235674
-0.068021 0.160723 -0.235746
-0.068016 0.160803 -0.235776
-0.068015 0.160875 -0.235744
-0.068015 0.160946 -0.235698
-0.068013 0.161019 -0.235677
-0.068010 0.161095 -0.235671
-0.068006 0.161173 -0.235681
-0.068003 0.161249 -0.235691
-0.068000 0.161327 -0.235687
-0.067997 0.161403 -0.235689
-0.067994 0.161479 -0.235692
-0.067991 0.161555 -0.235688
-0.067989 0.161629 -0.235668
-0.067988 0.161702 -0.235632
-0.067987 0.161773 -0.235599
-0.067986 0.161844 -0.235553
-0.067985 0.161917 -0.235521
-0.067982 0.161991 -0.235512
-0.067981 0.162065 -0.235490
-0.067979 0.162138 -0.235462
-0.067975 0.162216 -0.235476
-0.067970 0.162297 -0.235512
-0.067967 0.162373 -0.235512
-0.067965 0.162449 -0.235505
-0.067963 0.162522 -0.235479
-0.067961 0.162596 -0.235469
-0.067956 0.162676 -0.235495
-0.067952 0.162755 -0.235511
-0.067950 0.162830 -0.235501
-0.067949 0.162902 -0.235474
-0.067949 0.162970 -0.235400
-0.067951 0.163034 -0.235321
-0.067949 0.163106 -0.235289
-0.067946 0.163184 -0.235301
-0.067943 0.163260 -0.235289
-0.067941 0.163333 -0.235270
-0.067937 0.163411 -0.235290
-0.067933 0.163490 -0.235308
-0.067931 0.163563 -0.235290
-0.067928 0.163639 -0.235288
-0.067924 0.163720 -0.235310
-0.067920 0.163798 -0.235326
-0.067917 0.163876 -0.235335
-0.067913 0.163954 -0.235343
-0.067909 0.164033 -0.235363
-0.067906 0.164111 -0.235371
-0.067904 0.164185 -0.235357
-0.067901 0.164261 -0.235355
-0.067897 0.164339 -0.235371
-0.067893 0.164419 -0.235389
-0.067887 0.164502 -0.235441
-0.067880 0.164592 -0.235527
-0.067874 0.164675 -0.235575
-0.067868 0.164761 -0.235641
-0.067859 0.164853 -0.235747
-0.067849 0.164950 -0.235882
-0.067840 0.165042 -0.235986
-0.067834 0.165127 -0.236042
-0.067829 0.165212 -0.236084
-0.067824 0.165293 -0.236124
-0.067817 0.165380 -0.236186
-0.067810 0.165470 -0.236271
-0.067804 0.165557 -0.236327
-0.067798 0.165643 -0.236381
-0.067791 0.165730 -0.236451
-0.067786 0.165813 -0.236487
-0.067783 0.165889 -0.236483
-0.067782 0.165960 -0.236448
-0.067780 0.166036 -0.236438
-0.067770 0.166132 -0.236561
-0.067764 0.166222 -0.236623
-0.067761 0.166295 -0.236615
-0.067759 0.166371 -0.236598
-0.067756 0.166447 -0.236596
-0.067753 0.166523 -0.236592
-0.067750 0.166601 -0.236586
-0.067746 0.166681 -0.236608
-0.067742 0.166759 -0.236628
-0.067740 0.166835 -0.236614
-0.067738 0.166909 -0.236591
-0.067734 0.166991 -0.236621
-0.067729 0.167074 -0.236653
-0.067726 0.167150 -0.236649
-0.067723 0.167226 -0.236641
-0.067721 0.167301 -0.236637
-0.067718 0.167377 -0.236631
-0.067715 0.167455 -0.236628
-0.067711 0.167533 -0.236638
-0.067708 0.167611 -0.236638
-0.067706 0.167685 -0.236632
-0.067703 0.167763 -0.236632
-0.067700 0.167841 -0.236630
-0.067697 0.167917 -0.236629
-0.067694 0.167993 -0.236619
-0.067692 0.168066 -0.236605
-0.067689 0.168142 -0.236597
-0.067686 0.168222 -0.236609
-0.067682 0.168301 -0.236623
-0.067679 0.168379 -0.236621
-0.067677 0.168452 -0.236610
-0.067674 0.168530 -0.236602
-0.067671 0.168606 -0.236600
-0.067668 0.168682 -0.236602
-0.067665 0.168760 -0.236602
-0.067662 0.168838 -0.236600
-0.067659 0.168914 -0.236599
-0.067656 0.168992 -0.236599
-0.067653 0.169068 -0.236593
-0.067651 0.169143 -0.236587
-0.067648 0.169217 -0.236575
-0.067645 0.169295 -0.236574
-0.067642 0.169373 -0.236578
-0.067639 0.169449 -0.236576
-0.067636 0.169527 -0.236572
-0.067633 0.169603 -0.236572
-0.067631 0.169679 -0.236568
-0.067628 0.169757 -0.236566
-0.068992 0.120771 -0.238054
-0.068989 0.120848 -0.238046
-0.068987 0.120928 -0.238034
-0.068984 0.121004 -0.238036
-0.068980 0.121080 -0.238044
-0.068977 0.121156 -0.238042
-0.068975 0.121234 -0.238036
-0.068972 0.121312 -0.238027
-0.068969 0.121390 -0.238019
-0.068966 0.121465 -0.238019
-0.068963 0.121542 -0.238025
-0.068960 0.121618 -0.238023
-0.068957 0.121695 -0.238015
-0.068955 0.121775 -0.237994
-0.068953 0.121854 -0.237982
-0.068949 0.121929 -0.237992
-0.068946 0.122005 -0.238002
-0.068943 0.122081 -0.237998
-0.068940 0.122157 -0.238000
-0.068937 0.122233 -0.238007
-0.068934 0.122311 -0.238003
-0.068931 0.122390 -0.237987
-0.068929 0.122466 -0.237983
-0.068925 0.122542 -0.237989
-0.068923 0.122620 -0.237985
-0.068920 0.122698 -0.237971
-0.068917 0.122774 -0.237972
-0.068914 0.122850 -0.237976
-0.068911 0.122926 -0.237982
-0.068907 0.123002 -0.237988
-0.068905 0.123078 -0.237984
-0.068902 0.123158 -0.237966
-0.068900 0.123235 -0.237955
-0.068897 0.123311 -0.237957
-0.068894 0.123389 -0.237953
-0.068891 0.123467 -0.237947
-0.068888 0.123545 -0.237945
-0.068885 0.123621 -0.237943
-0.068883 0.123699 -0.237933
-0.068880 0.123774 -0.237934
-0.068876 0.123851 -0.237940
-0.068874 0.123928 -0.237936
-0.068871 0.124008 -0.237916
-0.068869 0.124086 -0.237904
-0.068866 0.124162 -0.237910
-0.068862 0.124236 -0.237925
-0.068859 0.124312 -0.237933
-0.068856 0.124390 -0.237929
-0.068853 0.124468 -0.237915
-0.068851 0.124545 -0.237901
-0.068849 0.124623 -0.237889
-0.068846 0.124703 -0.237875
-0.068843 0.124781 -0.237866
-0.068842 0.124860 -0.237838
-0.068840 0.124941 -0.237802
-0.068837 0.125015 -0.237818
-0.068831 0.125088 -0.237864
-0.068828 0.125161 -0.237886
-0.068825 0.125239 -0.237881
-0.068822 0.125316 -0.237877
-0.068819 0.125393 -0.237883
-0.068816 0.125469 -0.237881
-0.068813 0.125546 -0.237881
-0.068810 0.125622 -0.237873
-0.068807 0.125700 -0.237866
-0.068804 0.125778 -0.237866
-0.068802 0.125856 -0.237858
-0.068800 0.125933 -0.237834
-0.068797 0.126013 -0.237816
-0.068796 0.126094 -0.237770
-0.068797 0.126178 -0.237696
-0.068793 0.126254 -0.237706
-0.068787 0.126322 -0.237785
-0.068782 0.126395 -0.237823
-0.068779 0.126473 -0.237827
-0.068776 0.126549 -0.237823
-0.068773 0.126627 -0.237819
-0.068770 0.126703 -0.237828
-0.068767 0.126779 -0.237826
-0.068766 0.126861 -0.237768
-0.068766 0.126944 -0.237706
-0.068763 0.127020 -0.237712
-0.068758 0.127093 -0.237748
-0.068755 0.127169 -0.237750
-0.068752 0.127247 -0.237751
-0.068749 0.127323 -0.237763
-0.068745 0.127397 -0.237781
-0.068741 0.127472 -0.237805
-0.068737 0.127548 -0.237811
-0.068735 0.127626 -0.237799
-0.068732 0.127702 -0.237796
-0.068729 0.127779 -0.237788
-0.068728 0.127859 -0.237756
-0.068725 0.127936 -0.237752
-0.068721 0.128011 -0.237772
-0.068718 0.128087 -0.237782
-0.068714 0.128163 -0.237789
-0.068711 0.128239 -0.237789
-0.068709 0.128317 -0.237783
-0.068706 0.128395 -0.237775
-0.068704 0.128472 -0.237755
-0.068702 0.128554 -0.237723
-0.068700 0.128631 -0.237705
-0.068697 0.128707 -0.237712
-0.068693 0.128783 -0.237726
-0.068689 0.128858 -0.237740
-0.068686 0.128936 -0.237744
-0.068684 0.129013 -0.237728
-0.068682 0.129091 -0.237702
-0.068682 0.129173 -0.237644
-0.068683 0.129257 -0.237549
-0.068681 0.129337 -0.237527
-0.068675 0.129408 -0.237585
-0.068669 0.129478 -0.237661
-0.068665 0.129552 -0.237687
-0.068661 0.129629 -0.237703
-0.068657 0.129705 -0.237720
-0.068654 0.129781 -0.237720
-0.068651 0.129857 -0.237714
-0.068649 0.129936 -0.237702
-0.068646 0.130012 -0.237696
-0.068643 0.130088 -0.237706
-0.068639 0.130165 -0.237715
-0.068637 0.130240 -0.237711
-0.068634 0.130320 -0.237691
-0.068632 0.130398 -0.237673
-0.068629 0.130474 -0.237673
-0.068625 0.130550 -0.237691
-0.068622 0.130624 -0.237708
-0.068619 0.130702 -0.237710
-0.068616 0.130778 -0.237704
-0.068613 0.130856 -0.237702
-0.068610 0.130932 -0.237708
-0.068607 0.131008 -0.237708
-0.068605 0.131087 -0.237671
-0.068605 0.131168 -0.237613
-0.068604 0.131249 -0.237561
-0.068602 0.131326 -0.237535
-0.068599 0.131402 -0.237537
-0.068595 0.131478 -0.237555
-0.068593 0.131554 -0.237553
-0.068590 0.131634 -0.237532
-0.068588 0.131710 -0.237528
-0.068584 0.131784 -0.237552
-0.068580 0.131862 -0.237552
-0.068579 0.131939 -0.237522
-0.068577 0.132019 -0.237500
-0.068574 0.132095 -0.237507
-0.068571 0.132171 -0.237507
-0.068567 0.132247 -0.237513
-0.068563 0.132321 -0.237531
-0.068559 0.132398 -0.237555
-0.068556 0.132474 -0.237567
-0.068553 0.132550 -0.237568
-0.068550 0.132628 -0.237562
-0.068546 0.132702 -0.237586
-0.068541 0.132777 -0.237622
-0.068537 0.132852 -0.237640
-0.068534 0.132928 -0.237644
-0.068531 0.133006 -0.237645
-0.068528 0.133082 -0.237647
-0.068525 0.133159 -0.237639
-0.068523 0.133237 -0.237623
-0.068521 0.133313 -0.237609
-0.068518 0.133391 -0.237605
-0.068515 0.133466 -0.237596
-0.068513 0.133546 -0.237580
-0.068511 0.133622 -0.237570
-0.068507 0.133698 -0.237580
-0.068504 0.133774 -0.237586
-0.068501 0.133852 -0.237572
-0.068499 0.133929 -0.237559
-0.068496 0.134005 -0.237563
-0.068493 0.134081 -0.237563
-0.068490 0.134159 -0.237555
-0.068488 0.134237 -0.237533
-0.068486 0.134314 -0.237513
-0.068483 0.134390 -0.237508
-0.068481 0.134466 -0.237504
-0.068478 0.134544 -0.237504
-0.068474 0.134620 -0.237506
-0.068472 0.134698 -0.237502
-0.068469 0.134773 -0.237486
-0.068466 0.134849 -0.237491
-0.068463 0.134926 -0.237505
-0.068460 0.135002 -0.237503
-0.068457 0.135079 -0.237497
-0.068454 0.135155 -0.237501
-0.068451 0.135231 -0.237499
-0.068449 0.135309 -0.237484
-0.068447 0.135388 -0.237448
-0.068446 0.135467 -0.237408
-0.068443 0.135543 -0.237408
-0.068438 0.135618 -0.237446
-0.068436 0.135694 -0.237436
-0.068436 0.135774 -0.237362
-0.068435 0.135851 -0.237329
-0.068430 0.135926 -0.237363
-0.068424 0.135999 -0.237427
-0.068422 0.136079 -0.237409
-0.068423 0.136159 -0.237311
-0.068421 0.136236 -0.237295
-0.068416 0.136309 -0.237336
-0.068412 0.136386 -0.237360
-0.068409 0.136462 -0.237360
-0.068406 0.136538 -0.237354
-0.068403 0.136615 -0.237352
-0.068400 0.136690 -0.237366
-0.068397 0.136766 -0.237371
-0.068394 0.136844 -0.237361
-0.068391 0.136919 -0.237359
-0.068388 0.136995 -0.237363
-0.068385 0.137072 -0.237371
-0.068381 0.137148 -0.237382
-0.068378 0.137224 -0.237390
-0.068375 0.137300 -0.237384
-0.068373 0.137377 -0.237362
-0.068371 0.137455 -0.237350
-0.068367 0.137531 -0.237364
-0.068363 0.137608 -0.237378
-0.068360 0.137682 -0.237387
-0.068356 0.137758 -0.237407
-0.068353 0.137834 -0.237407
-0.068350 0.137912 -0.237401
-0.068347 0.137988 -0.237411
-0.068344 0.138064 -0.237410
-0.068342 0.138142 -0.237396
-0.068339 0.138218 -0.237394
-0.068336 0.138293 -0.237388
-0.068334 0.138371 -0.237374
-0.068331 0.138447 -0.237356
-0.068329 0.138524 -0.237335
-0.068327 0.138602 -0.237327
-0.068322 0.138677 -0.237355
-0.068318 0.138753 -0.237381
-0.068315 0.138829 -0.237395
-0.068311 0.138906 -0.237405
-0.068308 0.138981 -0.237406
-0.068306 0.139057 -0.237392
-0.068304 0.139135 -0.237370
-0.068303 0.139212 -0.237330
-0.068300 0.139289 -0.237312
-0.068296 0.139364 -0.237336
-0.068292 0.139440 -0.237369
-0.068288 0.139517 -0.237379
-0.068287 0.139594 -0.237351
-0.068284 0.139670 -0.237335
-0.068281 0.139746 -0.237337
-0.068279 0.139821 -0.237333
-0.068276 0.139899 -0.237330
-0.068273 0.139975 -0.237316
-0.068270 0.140053 -0.237314
-0.068267 0.140127 -0.237326
-0.068263 0.140203 -0.237338
-0.068260 0.140281 -0.237334
-0.068258 0.140357 -0.237329
-0.068255 0.140433 -0.237319
-0.068254 0.140510 -0.237285
-0.068251 0.140586 -0.237279
-0.068246 0.140663 -0.237323
-0.068242 0.140739 -0.237339
-0.068240 0.140815 -0.237334
-0.068237 0.140891 -0.237332
-0.068234 0.140967 -0.237324
-0.068231 0.141045 -0.237316
-0.068229 0.141120 -0.237314
-0.068225 0.141197 -0.237322
-0.068221 0.141273 -0.237339
-0.068218 0.141349 -0.237337
-0.068216 0.141427 -0.237331
-0.068213 0.141503 -0.237335
-0.068210 0.141579 -0.237333
-0.068207 0.141654 -0.237324
-0.068205 0.141732 -0.237306
-0.068203 0.141807 -0.237284
-0.068200 0.141883 -0.237274
-0.068198 0.141961 -0.237252
-0.068196 0.142036 -0.237242
-0.068192 0.142113 -0.237271
-0.068187 0.142190 -0.237303
-0.068184 0.142266 -0.237315
-0.068180 0.142342 -0.237317
-0.068177 0.142418 -0.237317
-0.068174 0.142494 -0.237331
-0.068170 0.142573 -0.237349
-0.068167 0.142648 -0.237344
-0.068165 0.142724 -0.237332
-0.068162 0.142800 -0.237330
-0.068160 0.142876 -0.237316
-0.068159 0.142953 -0.237274
-0.068157 0.143028 -0.237239
-0.068154 0.143106 -0.237241
-0.068151 0.143182 -0.237235
-0.068151 0.143256 -0.237175
-0.068150 0.143334 -0.237147
-0.068145 0.143410 -0.237180
-0.068142 0.143486 -0.237176
-0.068142 0.143561 -0.237124
-0.068140 0.143637 -0.237104
-0.068135 0.143715 -0.237132
-0.068131 0.143792 -0.237164
-0.068127 0.143868 -0.237191
-0.068123 0.143945 -0.237199
-0.068120 0.144020 -0.237193
-0.068118 0.144096 -0.237183
-0.068115 0.144172 -0.237181
-0.068112 0.144250 -0.237185
-0.068108 0.144326 -0.237196
-0.068104 0.144403 -0.237218
-0.068100 0.144479 -0.237240
-0.068096 0.144555 -0.237256
-0.068094 0.144631 -0.237254
-0.068091 0.144709 -0.237246
-0.068087 0.144785 -0.237259
-0.068084 0.144861 -0.237261
-0.068081 0.144937 -0.237257
-0.068078 0.145014 -0.237273
-0.068075 0.145091 -0.237257
-0.068075 0.145166 -0.237207
-0.068074 0.145241 -0.237164
-0.068073 0.145316 -0.237118
-0.068074 0.145390 -0.237046
-0.068073 0.145465 -0.236990
-0.068072 0.145541 -0.236963
-0.068069 0.145618 -0.236953
-0.068066 0.145694 -0.236961
-0.068062 0.145771 -0.236981
-0.068057 0.145847 -0.237013
-0.068053 0.145924 -0.237039
-0.068050 0.146002 -0.237046
-0.068046 0.146078 -0.237060
-0.068042 0.146155 -0.237082
-0.068038 0.146231 -0.237096
-0.068035 0.146307 -0.237098
-0.068032 0.146385 -0.237094
-0.068030 0.146461 -0.237085
-0.068027 0.146537 -0.237081
-0.068024 0.146613 -0.237083
-0.068021 0.146689 -0.237079
-0.068019 0.146764 -0.237069
-0.068016 0.146840 -0.237073
-0.068012 0.146919 -0.237086
-0.068008 0.146995 -0.237102
-0.068004 0.147071 -0.237122
-0.068000 0.147150 -0.237140
-0.067997 0.147226 -0.237142
-0.067995 0.147301 -0.237134
-0.067991 0.147377 -0.237136
-0.067989 0.147453 -0.237133
-0.067987 0.147531 -0.237109
-0.067985 0.147604 -0.237079
-0.067983 0.147682 -0.237073
-0.067980 0.147758 -0.237073
-0.067977 0.147834 -0.237070
-0.067973 0.147910 -0.237082
-0.067970 0.147986 -0.237088
-0.067968 0.148064 -0.237072
-0.067966 0.148139 -0.237050
-0.067963 0.148213 -0.237037
-0.067961 0.148291 -0.237027
-0.067957 0.148367 -0.237037
-0.067954 0.148443 -0.237049
-0.067951 0.148521 -0.237043
-0.067948 0.148597 -0.237037
-0.067945 0.148673 -0.237040
-0.067943 0.148748 -0.237022
-0.067941 0.148824 -0.237002
-0.067937 0.148900 -0.237026
-0.067932 0.148979 -0.237056
-0.067930 0.149055 -0.237054
-0.067927 0.149131 -0.237055
-0.067923 0.149209 -0.237067
-0.067920 0.149285 -0.237063
-0.067918 0.149361 -0.237049
-0.067915 0.149437 -0.237047
-0.067912 0.149512 -0.237045
-0.067909 0.149590 -0.237045
-0.067905 0.149667 -0.237066
-0.067901 0.149743 -0.237080
-0.067900 0.149820 -0.237052
-0.067899 0.149893 -0.237002
-0.067897 0.149969 -0.236988
-0.067893 0.150045 -0.237005
-0.067889 0.150124 -0.237027
-0.067885 0.150202 -0.237045
-0.067882 0.150278 -0.237053
-0.067879 0.150354 -0.237055
-0.067876 0.150430 -0.237049
-0.067872 0.150508 -0.237057
-0.067868 0.150585 -0.237082
-0.067864 0.150663 -0.237098
-0.067862 0.150739 -0.237090
-0.067859 0.150815 -0.237082
-0.067855 0.150893 -0.237100
-0.067851 0.150969 -0.237118
-0.067849 0.151045 -0.237105
-0.067849 0.151120 -0.237045
-0.067840 0.151202 -0.237169
-0.067837 0.151278 -0.237165
-0.067835 0.151356 -0.237151
-0.067863 0.151390 -0.236521
-0.067847 0.151486 -0.236790
-0.067840 0.151565 -0.236864
-0.067834 0.151647 -0.236924
-0.067832 0.151722 -0.236907
-0.067831 0.151795 -0.236869
-0.067828 0.151871 -0.236861
-0.067825 0.151947 -0.236859
-0.067823 0.152023 -0.236845
-0.067820 0.152101 -0.236847
-0.067816 0.152177 -0.236872
-0.067811 0.152256 -0.236898
-0.067808 0.152334 -0.236908
-0.067806 0.152407 -0.236882
-0.067806 0.152480 -0.236816
-0.067806 0.152553 -0.236767
-0.067803 0.152629 -0.236759
-0.067800 0.152705 -0.236759
-0.067797 0.152781 -0.236761
-0.067793 0.152859 -0.236777
-0.067790 0.152937 -0.236787
-0.067787 0.153013 -0.236788
-0.067783 0.153091 -0.236804
-0.067778 0.153170 -0.236844
-0.067773 0.153249 -0.236882
-0.067770 0.153327 -0.236890
-0.067767 0.153403 -0.236888
-0.067763 0.153481 -0.236898
-0.067760 0.153557 -0.236903
-0.067758 0.153633 -0.236889
-0.067754 0.153711 -0.236905
-0.067749 0.153790 -0.236937
-0.067745 0.153869 -0.236963
-0.067741 0.153947 -0.236979
-0.067738 0.154023 -0.236975
-0.067736 0.154099 -0.236970
-0.067734 0.154174 -0.236936
-0.067740 0.154234 -0.236762
-0.067749 0.154291 -0.236521
-0.067752 0.154358 -0.236412
-0.067752 0.154429 -0.236356
-0.067749 0.154507 -0.236350
-0.067744 0.154586 -0.236392
-0.067739 0.154664 -0.236422
-0.067736 0.154742 -0.236435
-0.067708 0.154861 -0.236917
-0.067706 0.154937 -0.236899
-0.067704 0.155010 -0.236874
-0.067703 0.155083 -0.236848
-0.067700 0.155161 -0.236842
-0.067697 0.155237 -0.236848
-0.067694 0.155315 -0.236844
-0.067691 0.155389 -0.236835
-0.067689 0.155465 -0.236827
-0.067686 0.155540 -0.236815
-0.067686 0.155613 -0.236767
-0.067685 0.155686 -0.236722
-0.067682 0.155762 -0.236716
-0.067681 0.155836 -0.236694
-0.067680 0.155909 -0.236654
-0.067675 0.155990 -0.236694
-0.067668 0.156073 -0.236770
-0.067663 0.156152 -0.236796
-0.067660 0.156230 -0.236811
-0.067656 0.156308 -0.236817
-0.067653 0.156384 -0.236813
-0.067650 0.156462 -0.236813
-0.067647 0.156538 -0.236815
-0.067642 0.156619 -0.236859
-0.067637 0.156700 -0.236891
-0.067636 0.156773 -0.236865
-0.067638 0.156839 -0.236758
-0.067645 0.156896 -0.236561
-0.067647 0.156962 -0.236473
-0.067643 0.157040 -0.236481
-0.067640 0.157119 -0.236494
-0.067637 0.157195 -0.236500
-0.067626 0.157288 -0.236647
-0.067614 0.157382 -0.236821
-0.067609 0.157462 -0.236857
-0.067605 0.157541 -0.236873
-0.067603 0.157616 -0.236857
-0.067605 0.157682 -0.236752
-0.067609 0.157743 -0.236622
-0.067614 0.157806 -0.236477
-0.067613 0.157877 -0.236427
-0.067612 0.157950 -0.236388
-0.067610 0.158023 -0.236364
-0.067608 0.158099 -0.236358
-0.067603 0.158178 -0.236384
-0.067598 0.158258 -0.236424
-0.067593 0.158341 -0.236462
-0.067588 0.158420 -0.236500
-0.067584 0.158501 -0.236536
-0.067578 0.158584 -0.236580
-0.067573 0.158665 -0.236616
-0.067569 0.158743 -0.236634
-0.067566 0.158821 -0.236649
-0.067563 0.158897 -0.236647
-0.067561 0.158973 -0.236629
-0.067558 0.159049 -0.236629
-0.067553 0.159129 -0.236657
-0.067549 0.159207 -0.236669
-0.067546 0.159286 -0.236681
-0.067542 0.159364 -0.236694
-0.067539 0.159442 -0.236700
-0.067536 0.159518 -0.236704
-0.067532 0.159596 -0.236708
-0.067529 0.159674 -0.236716
-0.067526 0.159750 -0.236712
-0.067524 0.159824 -0.236694
-0.067522 0.159899 -0.236671
-0.067522 0.159970 -0.236627
-0.067519 0.160046 -0.236617
-0.067515 0.160126 -0.236645
-0.067509 0.160209 -0.236693
-0.067504 0.160290 -0.236723
-0.067501 0.160366 -0.236731
-0.067498 0.160444 -0.236734
-0.067495 0.160522 -0.236740
-0.067491 0.160599 -0.236748
-0.067489 0.160676 -0.236736
-0.067486 0.160750 -0.236724
-0.067483 0.160828 -0.236720
-0.067480 0.160904 -0.236727
-0.067477 0.160982 -0.236739
-0.067473 0.161062 -0.236753
-0.067469 0.161140 -0.236757
-0.067466 0.161216 -0.236757
-0.067466 0.161287 -0.236701
-0.067470 0.161346 -0.236568
-0.067475 0.161403 -0.236421
-0.067474 0.161476 -0.236389
-0.067472 0.161550 -0.236365
-0.067469 0.161625 -0.236358
-0.067465 0.161704 -0.236382
-0.067459 0.161789 -0.236434
-0.067455 0.161870 -0.236468
-0.067452 0.161948 -0.236464
-0.067450 0.162021 -0.236440
-0.067448 0.162095 -0.236424
-0.067445 0.162173 -0.236422
-0.067442 0.162246 -0.236413
-0.067440 0.162322 -0.236399
-0.067437 0.162398 -0.236397
-0.067433 0.162478 -0.236417
-0.067428 0.162561 -0.236453
-0.067424 0.162639 -0.236475
-0.067420 0.162718 -0.236485
-0.067416 0.162798 -0.236515
-0.067412 0.162879 -0.236529
-0.067409 0.162957 -0.236538
-0.067405 0.163035 -0.236548
-0.067402 0.163113 -0.236558
-0.067399 0.163189 -0.236558
-0.067396 0.163265 -0.236548
-0.067393 0.163343 -0.236548
-0.067389 0.163421 -0.236568
-0.067385 0.163502 -0.236586
-0.067382 0.163579 -0.236587
-0.067379 0.163656 -0.236591
-0.067375 0.163736 -0.236605
-0.067369 0.163821 -0.236661
-0.067364 0.163904 -0.236701
-0.067365 0.163968 -0.236617
-0.067369 0.164025 -0.236492
-0.067371 0.164089 -0.236392
-0.067371 0.164156 -0.236335
-0.067370 0.164229 -0.236305
-0.067366 0.164307 -0.236309
-0.067362 0.164388 -0.236343
-0.067356 0.164473 -0.236395
-0.067348 0.164565 -0.236495
-0.067342 0.164650 -0.236547
-0.067339 0.164728 -0.236547
-0.067336 0.164804 -0.236541
-0.067333 0.164880 -0.236537
-0.067331 0.164956 -0.236528
-0.067328 0.165031 -0.236522
-0.067325 0.165107 -0.236518
-0.067323 0.165183 -0.236508
-0.067320 0.165259 -0.236496
-0.067318 0.165335 -0.236491
-0.067315 0.165412 -0.236489
-0.067311 0.165491 -0.236499
-0.067307 0.165569 -0.236517
-0.067302 0.165652 -0.236547
-0.067297 0.165734 -0.236587
-0.067292 0.165819 -0.236631
-0.067288 0.165898 -0.236645
-0.067285 0.165976 -0.236647
-0.067282 0.166054 -0.236647
-0.067279 0.166129 -0.236641
-0.067277 0.166203 -0.236624
-0.067275 0.166279 -0.236612
-0.067272 0.166355 -0.236614
-0.067268 0.166435 -0.236624
-0.067264 0.166513 -0.236634
-0.067261 0.166591 -0.236638
-0.067258 0.166669 -0.236640
-0.067255 0.166745 -0.236641
-0.067252 0.166823 -0.236637
-0.067249 0.166899 -0.236643
-0.067246 0.166977 -0.236643
-0.067243 0.167053 -0.236637
-0.067240 0.167129 -0.236631
-0.067238 0.167205 -0.236622
-0.067236 0.167280 -0.236610
-0.067233 0.167356 -0.236602
-0.067230 0.167434 -0.236604
-0.067227 0.167510 -0.236608
-0.067224 0.167588 -0.236604
-0.067221 0.167664 -0.236605
-0.067218 0.167742 -0.236601
-0.067215 0.167818 -0.236597
-0.067212 0.167894 -0.236593
-0.067209 0.167969 -0.236589
-0.067206 0.168047 -0.236587
-0.067204 0.168123 -0.236578
-0.067201 0.168199 -0.236576
-0.067198 0.168275 -0.236570
-0.067196 0.168348 -0.236552
-0.067194 0.168422 -0.236532
-0.067191 0.168500 -0.236537
-0.067188 0.168578 -0.236535
-0.067186 0.168652 -0.236517
-0.067182 0.168730 -0.236529
-0.067178 0.168812 -0.236561
-0.067174 0.168893 -0.236571
-0.067172 0.168966 -0.236553
-0.067171 0.169035 -0.236514
-0.067169 0.169109 -0.236496
-0.067164 0.169194 -0.236534
-0.067160 0.169274 -0.236554
-0.067157 0.169352 -0.236558
-0.067154 0.169428 -0.236548
-0.067152 0.169504 -0.236541
-0.067148 0.169582 -0.236549
-0.067145 0.169660 -0.236557
-0.067142 0.169736 -0.236549
-0.067515 0.120696 -0.238015
-0.067512 0.120772 -0.238019
-0.067510 0.120850 -0.238011
-0.067507 0.120929 -0.237991
-0.067506 0.121011 -0.237961
-0.067503 0.121087 -0.237960
-0.067499 0.121161 -0.237978
-0.067495 0.121236 -0.238000
-0.067492 0.121310 -0.238008
-0.067488 0.121386 -0.238012
-0.067486 0.121464 -0.238009
-0.067483 0.121542 -0.238007
-0.067480 0.121617 -0.237999
-0.067478 0.121697 -0.237985
-0.067475 0.121775 -0.237973
-0.067472 0.121853 -0.237969
-0.067469 0.121929 -0.237975
-0.067466 0.122003 -0.237982
-0.067463 0.122081 -0.237978
-0.067460 0.122159 -0.237976
-0.067457 0.122233 -0.237982
-0.067454 0.122311 -0.237980
-0.067451 0.122388 -0.237964
-0.067448 0.122466 -0.237963
-0.067445 0.122542 -0.237969
-0.067442 0.122618 -0.237971
-0.067439 0.122694 -0.237973
-0.067436 0.122772 -0.237967
-0.067434 0.122850 -0.237957
-0.067431 0.122928 -0.237952
-0.067428 0.123004 -0.237950
-0.067425 0.123081 -0.237942
-0.067422 0.123159 -0.237936
-0.067419 0.123235 -0.237940
-0.067416 0.123311 -0.237942
-0.067413 0.123387 -0.237945
-0.067410 0.123465 -0.237945
-0.067408 0.123545 -0.237919
-0.067406 0.123622 -0.237901
-0.067403 0.123700 -0.237905
-0.067399 0.123774 -0.237913
-0.067396 0.123852 -0.237915
-0.067393 0.123928 -0.237914
-0.067390 0.124004 -0.237916
-0.067387 0.124082 -0.237912
-0.067384 0.124158 -0.237910
-0.067381 0.124236 -0.237910
-0.067379 0.124312 -0.237906
-0.067376 0.124390 -0.237897
-0.067373 0.124468 -0.237893
-0.067370 0.124545 -0.237889
-0.067367 0.124621 -0.237887
-0.067364 0.124697 -0.237889
-0.067361 0.124773 -0.237893
-0.067358 0.124851 -0.237891
-0.067356 0.124929 -0.237882
-0.067353 0.125007 -0.237880
-0.067350 0.125083 -0.237880
-0.067346 0.125159 -0.237882
-0.067343 0.125237 -0.237884
-0.067341 0.125313 -0.237880
-0.067338 0.125391 -0.237877
-0.067335 0.125467 -0.237879
-0.067332 0.125543 -0.237875
-0.067329 0.125622 -0.237865
-0.067326 0.125698 -0.237857
-0.067324 0.125776 -0.237855
-0.067321 0.125852 -0.237855
-0.067318 0.125930 -0.237854
-0.067314 0.126006 -0.237856
-0.067311 0.126082 -0.237860
-0.067308 0.126160 -0.237860
-0.067306 0.126238 -0.237852
-0.067303 0.126316 -0.237840
-0.067301 0.126393 -0.237829
-0.067297 0.126469 -0.237833
-0.067295 0.126547 -0.237829
-0.067292 0.126623 -0.237821
-0.067289 0.126699 -0.237825
-0.067285 0.126777 -0.237829
-0.067282 0.126853 -0.237832
-0.067279 0.126931 -0.237830
-0.067277 0.127007 -0.237824
-0.067274 0.127083 -0.237824
-0.067271 0.127161 -0.237820
-0.067268 0.127238 -0.237806
-0.067265 0.127316 -0.237804
-0.067262 0.127392 -0.237809
-0.067259 0.127470 -0.237805
-0.067256 0.127546 -0.237805
-0.067253 0.127622 -0.237807
-0.067250 0.127700 -0.237807
-0.067248 0.127778 -0.237799
-0.067245 0.127854 -0.237790
-0.067242 0.127932 -0.237786
-0.067239 0.128008 -0.237788
-0.067236 0.128086 -0.237790
-0.067233 0.128162 -0.237790
-0.067230 0.128239 -0.237782
-0.067227 0.128317 -0.237778
-0.067224 0.128393 -0.237779
-0.067221 0.128469 -0.237779
-0.067218 0.128547 -0.237779
-0.067215 0.128623 -0.237777
-0.067213 0.128701 -0.237773
-0.067210 0.128777 -0.237767
-0.067207 0.128855 -0.237764
-0.067204 0.128931 -0.237766
-0.067201 0.129007 -0.237770
-0.067197 0.129085 -0.237774
-0.067195 0.129161 -0.237770
-0.067192 0.129240 -0.237758
-0.067189 0.129316 -0.237756
-0.067186 0.129392 -0.237765
-0.067183 0.129468 -0.237765
-0.067180 0.129546 -0.237761
-0.067177 0.129622 -0.237759
-0.067174 0.129700 -0.237751
-0.067172 0.129778 -0.237739
-0.067169 0.129855 -0.237732
-0.067166 0.129931 -0.237732
-0.067163 0.130009 -0.237732
-0.067160 0.130085 -0.237734
-0.067157 0.130161 -0.237736
-0.067154 0.130239 -0.237730
-0.067152 0.130315 -0.237723
-0.067149 0.130393 -0.237719
-0.067146 0.130469 -0.237721
-0.067143 0.130547 -0.237719
-0.067140 0.130623 -0.237715
-0.067137 0.130701 -0.237713
-0.067134 0.130777 -0.237717
-0.067130 0.130853 -0.237726
-0.067128 0.130929 -0.237718
-0.067125 0.131008 -0.237700
-0.067123 0.131086 -0.237688
-0.067120 0.131162 -0.237690
-0.067117 0.131238 -0.237686
-0.067114 0.131316 -0.237685
-0.067111 0.131392 -0.237693
-0.067108 0.131470 -0.237683
-0.067106 0.131547 -0.237665
-0.067103 0.131623 -0.237665
-0.067100 0.131699 -0.237673
-0.067097 0.131777 -0.237674
-0.067094 0.131853 -0.237666
-0.067091 0.131931 -0.237660
-0.067089 0.132009 -0.237648
-0.067086 0.132085 -0.237650
-0.067082 0.132161 -0.237666
-0.067079 0.132237 -0.237671
-0.067076 0.132315 -0.237665
-0.067073 0.132391 -0.237669
-0.067069 0.132467 -0.237675
-0.067067 0.132543 -0.237671
-0.067064 0.132621 -0.237665
-0.067061 0.132698 -0.237657
-0.067059 0.132774 -0.237650
-0.067056 0.132852 -0.237646
-0.067053 0.132928 -0.237644
-0.067050 0.133004 -0.237642
-0.067047 0.133082 -0.237642
-0.067044 0.133158 -0.237642
-0.067041 0.133234 -0.237645
-0.067038 0.133312 -0.237639
-0.067035 0.133389 -0.237627
-0.067033 0.133465 -0.237621
-0.067030 0.133541 -0.237623
-0.067027 0.133619 -0.237623
-0.067024 0.133697 -0.237612
-0.067022 0.133773 -0.237602
-0.067018 0.133849 -0.237604
-0.067015 0.133927 -0.237606
-0.067012 0.134001 -0.237612
-0.067009 0.134079 -0.237620
-0.067006 0.134155 -0.237619
-0.067003 0.134231 -0.237621
-0.067000 0.134307 -0.237623
-0.066997 0.134385 -0.237613
-0.066994 0.134462 -0.237607
-0.066992 0.134538 -0.237601
-0.066989 0.134616 -0.237600
-0.066985 0.134692 -0.237606
-0.066982 0.134768 -0.237604
-0.066980 0.134846 -0.237598
-0.066977 0.134922 -0.237590
-0.066975 0.135000 -0.237578
-0.066972 0.135075 -0.237575
-0.066969 0.135151 -0.237579
-0.066966 0.135229 -0.237571
-0.066963 0.135305 -0.237565
-0.066960 0.135383 -0.237573
-0.066956 0.135459 -0.237579
-0.066954 0.135535 -0.237572
-0.066951 0.135613 -0.237568
-0.066948 0.135689 -0.237566
-0.066946 0.135767 -0.237554
-0.066943 0.135842 -0.237544
-0.066940 0.135918 -0.237552
-0.066936 0.135997 -0.237556
-0.066934 0.136072 -0.237551
-0.066931 0.136150 -0.237551
-0.066928 0.136226 -0.237553
-0.066925 0.136302 -0.237553
-0.066922 0.136378 -0.237545
-0.066920 0.136456 -0.237527
-0.066918 0.136533 -0.237506
-0.066915 0.136609 -0.237504
-0.066911 0.136686 -0.237524
-0.066907 0.136762 -0.237536
-0.066904 0.136838 -0.237534
-0.066901 0.136916 -0.237532
-0.066899 0.136992 -0.237531
-0.066895 0.137068 -0.237535
-0.066893 0.137143 -0.237529
-0.066890 0.137221 -0.237521
-0.066887 0.137297 -0.237517
-0.066884 0.137373 -0.237515
-0.066881 0.137451 -0.237514
-0.066879 0.137527 -0.237508
-0.066876 0.137603 -0.237502
-0.066873 0.137681 -0.237502
-0.066870 0.137757 -0.237506
-0.066867 0.137833 -0.237506
-0.066864 0.137910 -0.237503
-0.066861 0.137986 -0.237497
-0.066858 0.138064 -0.237489
-0.066856 0.138140 -0.237485
-0.066853 0.138216 -0.237485
-0.066849 0.138292 -0.237493
-0.066846 0.138368 -0.237494
-0.066844 0.138446 -0.237482
-0.066841 0.138521 -0.237470
-0.066839 0.138599 -0.237464
-0.066836 0.138675 -0.237456
-0.066833 0.138751 -0.237456
-0.066829 0.138827 -0.237475
-0.066826 0.138905 -0.237479
-0.066823 0.138981 -0.237469
-0.066821 0.139059 -0.237455
-0.066818 0.139135 -0.237447
-0.066816 0.139211 -0.237443
-0.066813 0.139286 -0.237442
-0.066809 0.139363 -0.237448
-0.066806 0.139440 -0.237448
-0.066804 0.139516 -0.237438
-0.066801 0.139594 -0.237430
-0.066798 0.139670 -0.237428
-0.066795 0.139746 -0.237433
-0.066792 0.139822 -0.237439
-0.066788 0.139898 -0.237447
-0.066786 0.139976 -0.237439
-0.066783 0.140052 -0.237433
-0.066780 0.140128 -0.237433
-0.066777 0.140204 -0.237426
-0.066775 0.140281 -0.237422
-0.066771 0.140358 -0.237428
-0.066768 0.140434 -0.237426
-0.066766 0.140509 -0.237420
-0.066762 0.140587 -0.237426
-0.066760 0.140663 -0.237421
-0.066758 0.140741 -0.237397
-0.066756 0.140816 -0.237363
-0.066754 0.140892 -0.237353
-0.066750 0.140968 -0.237375
-0.066746 0.141045 -0.237398
-0.066743 0.141122 -0.237392
-0.066740 0.141198 -0.237396
-0.066737 0.141274 -0.237392
-0.066734 0.141350 -0.237384
-0.066731 0.141426 -0.237392
-0.066728 0.141504 -0.237391
-0.066726 0.141580 -0.237379
-0.066723 0.141656 -0.237379
-0.066719 0.141734 -0.237383
-0.066717 0.141810 -0.237377
-0.066714 0.141885 -0.237363
-0.066712 0.141961 -0.237358
-0.066708 0.142039 -0.237364
-0.066705 0.142115 -0.237370
-0.066702 0.142191 -0.237372
-0.066699 0.142267 -0.237372
-0.066696 0.142343 -0.237366
-0.066694 0.142421 -0.237357
-0.066691 0.142497 -0.237353
-0.066688 0.142573 -0.237351
-0.066685 0.142651 -0.237345
-0.066682 0.142726 -0.237339
-0.066679 0.142803 -0.237341
-0.066676 0.142878 -0.237342
-0.066674 0.142954 -0.237334
-0.066671 0.143032 -0.237328
-0.066669 0.143108 -0.237318
-0.066666 0.143184 -0.237314
-0.066662 0.143260 -0.237328
-0.066659 0.143336 -0.237325
-0.066657 0.143414 -0.237313
-0.066654 0.143490 -0.237313
-0.066650 0.143566 -0.237319
-0.066648 0.143643 -0.237313
-0.066645 0.143719 -0.237303
-0.066642 0.143795 -0.237298
-0.066640 0.143871 -0.237296
-0.066636 0.143947 -0.237300
-0.066633 0.144025 -0.237304
-0.066630 0.144101 -0.237300
-0.066627 0.144177 -0.237302
-0.066624 0.144253 -0.237301
-0.066621 0.144329 -0.237299
-0.066619 0.144407 -0.237293
-0.066616 0.144482 -0.237287
-0.066613 0.144558 -0.237285
-0.066610 0.144634 -0.237284
-0.066607 0.144710 -0.237288
-0.066604 0.144788 -0.237290
-0.066601 0.144864 -0.237286
-0.066598 0.144940 -0.237284
-0.066595 0.145016 -0.237282
-0.066593 0.145094 -0.237275
-0.066590 0.145170 -0.237267
-0.066587 0.145246 -0.237267
-0.066584 0.145324 -0.237271
-0.066581 0.145400 -0.237269
-0.066578 0.145475 -0.237257
-0.066576 0.145551 -0.237248
-0.066573 0.145627 -0.237244
-0.066570 0.145705 -0.237248
-0.066567 0.145781 -0.237252
-0.066564 0.145857 -0.237254
-0.066561 0.145933 -0.237250
-0.066558 0.146009 -0.237241
-0.066555 0.146087 -0.237239
-0.066552 0.146163 -0.237237
-0.066550 0.146238 -0.237235
-0.066547 0.146314 -0.237229
-0.066544 0.146390 -0.237221
-0.066542 0.146468 -0.237214
-0.066539 0.146544 -0.237206
-0.066535 0.146620 -0.237216
-0.066532 0.146696 -0.237226
-0.066529 0.146772 -0.237220
-0.066527 0.146850 -0.237212
-0.066524 0.146925 -0.237205
-0.066521 0.147002 -0.237207
-0.066518 0.147077 -0.237207
-0.066515 0.147153 -0.237197
-0.066512 0.147231 -0.237201
-0.066509 0.147307 -0.237202
-0.066507 0.147383 -0.237184
-0.066505 0.147458 -0.237168
-0.066502 0.147534 -0.237168
-0.066498 0.147613 -0.237176
-0.066495 0.147688 -0.237174
-0.066493 0.147764 -0.237171
-0.066490 0.147840 -0.237169
-0.066487 0.147918 -0.237171
-0.066483 0.147994 -0.237179
-0.066480 0.148071 -0.237185
-0.066477 0.148146 -0.237181
-0.066474 0.148224 -0.237180
-0.066471 0.148300 -0.237180
-0.066468 0.148376 -0.237178
-0.066465 0.148452 -0.237176
-0.066463 0.148530 -0.237172
-0.066459 0.148606 -0.237174
-0.066457 0.148682 -0.237173
-0.066453 0.148760 -0.237173
-0.066450 0.148836 -0.237173
-0.066448 0.148912 -0.237167
-0.066445 0.148987 -0.237153
-0.066443 0.149063 -0.237145
-0.066440 0.149141 -0.237150
-0.066437 0.149217 -0.237146
-0.066435 0.149293 -0.237128
-0.066432 0.149368 -0.237112
-0.066430 0.149444 -0.237094
-0.066427 0.149520 -0.237097
-0.066423 0.149598 -0.237117
-0.066420 0.149674 -0.237119
