# .PCD v0.7 - Point Cloud Data file format
VERSION 0.7
FIELDS x y z
SIZE 4 4 4
TYPE F F F
COUNT 1 1 1
WIDTH 1460
HEIGHT 1
VIEWPOINT 0 0 0 1 0 0 0
POINTS 1460
DATA ascii
-0.076618001 0.136843 -0.228343
-0.076615997 0.136914 -0.228339
-0.076614 0.136986 -0.228324
-0.076610997 0.137058 -0.22832
-0.076608002 0.13713001 -0.22831801
-0.076605998 0.13720199 -0.22831
-0.076603003 0.137274 -0.228303
-0.076600999 0.137345 -0.228301
-0.076596998 0.137418 -0.22830901
-0.076594003 0.13748799 -0.22831701
-0.076591 0.13756 -0.228322
-0.076587997 0.137632 -0.228324
-0.076586001 0.137704 -0.22831801
-0.076583996 0.137775 -0.228305
-0.076581001 0.13784701 -0.228295
-0.076578997 0.13791899 -0.228287
-0.076577 0.13799 -0.228269
-0.076573998 0.138064 -0.228258
-0.076571003 0.138134 -0.22826999
-0.076568 0.13820501 -0.228286
-0.076564997 0.13827901 -0.228287
-0.076562002 0.138349 -0.22828101
-0.076559 0.138422 -0.228277
-0.076557003 0.138492 -0.228275
-0.076554 0.13856401 -0.228274
-0.076550998 0.13863599 -0.228274
-0.076549001 0.138708 -0.22826
-0.076546997 0.13878199 -0.228247
-0.076544002 0.138851 -0.228239
-0.076541997 0.138923 -0.22822499
-0.076540001 0.138997 -0.22821499
-0.076536998 0.13906699 -0.22822
-0.076532997 0.139139 -0.22823399
-0.076530002 0.139211 -0.228246
-0.076526999 0.139281 -0.22825301
-0.076523997 0.13935401 -0.228259
-0.076521002 0.13942499 -0.228257
-0.076518998 0.139497 -0.22824501
-0.076517001 0.139569 -0.22823
-0.076513998 0.139641 -0.228222
-0.076511003 0.139713 -0.22822399
-0.076508 0.13978501 -0.228228
-0.076504998 0.13985699 -0.22823501
-0.076503001 0.139929 -0.228227
-0.076499999 0.139998 -0.228219
-0.076498002 0.14007001 -0.228218
-0.076494999 0.14014199 -0.228222
-0.076491997 0.140214 -0.228228
-0.076489002 0.140286 -0.22822601
-0.076485999 0.140356 -0.228223
-0.076482996 0.14042801 -0.228231
-0.076480001 0.14050101 -0.228239
-0.076476999 0.140572 -0.228236
-0.076475002 0.140644 -0.228228
-0.076471999 0.140716 -0.22822
-0.076470003 0.140788 -0.22821601
-0.076466002 0.14085799 -0.22822499
-0.076463997 0.14093 -0.228223
-0.076462001 0.141001 -0.228201
-0.076459996 0.141073 -0.228192
-0.076456003 0.14114501 -0.22819801
-0.076453999 0.14121699 -0.228194
-0.076451004 0.141289 -0.228184
-0.076448999 0.141361 -0.228181
-0.076445997 0.141433 -0.228177
-0.076443002 0.141505 -0.228177
-0.076440997 0.141574 -0.228166
-0.076439001 0.14164799 -0.22815
-0.076435998 0.141718 -0.228148
-0.076433003 0.14179 -0.228156
-0.07643 0.141862 -0.228165
-0.076426998 0.14193401 -0.228167
-0.076425001 0.14200599 -0.228149
-0.076421998 0.142078 -0.228144
-0.076419003 0.142148 -0.228154
-0.076416001 0.14222001 -0.22815201
-0.076413997 0.14229199 -0.228146
-0.076411001 0.142364 -0.22814301
-0.076407999 0.142435 -0.22814301
-0.076406002 0.142507 -0.22814099
-0.076402999 0.142579 -0.228136
-0.076401003 0.14264899 -0.228128
-0.076398 0.142721 -0.22812
-0.076396003 0.142793 -0.22811399
-0.076393001 0.142865 -0.228113
-0.076389998 0.142937 -0.228119
-0.076387003 0.143007 -0.228127
-0.076384 0.14308099 -0.22812
-0.076382004 0.14315 -0.228104
-0.076379001 0.143222 -0.228104
-0.076375999 0.14329401 -0.228108
-0.076374002 0.14336599 -0.22810499
-0.076370999 0.143438 -0.228101
-0.076367997 0.143508 -0.22810499
-0.076365001 0.14358 -0.228104
-0.076362997 0.14365201 -0.22809599
-0.076361001 0.14372399 -0.22808599
-0.076358996 0.143795 -0.228062
-0.076357 0.143867 -0.228045
-0.076353997 0.14393701 -0.22805101
-0.076350003 0.14400899 -0.228073
-0.076347001 0.144081 -0.228082
-0.076344997 0.144153 -0.22806799
-0.076342002 0.144225 -0.228058
-0.076338999 0.14429501 -0.22806001
-0.076337002 0.14436699 -0.228063
-0.076334 0.144439 -0.22805899
-0.076330997 0.144511 -0.228055
-0.076329 0.144582 -0.22804999
-0.076325998 0.14465199 -0.228044
-0.076323003 0.144724 -0.22804999
-0.07632 0.144796 -0.228054
-0.076318003 0.144868 -0.228049
-0.076315001 0.14494 -0.228043
-0.076311998 0.14500999 -0.228039
-0.076310001 0.145082 -0.228034
-0.076307997 0.145154 -0.22802401
-0.076305002 0.145226 -0.22802401
-0.076301999 0.145298 -0.22803
-0.076298997 0.14536799 -0.228029
-0.076296002 0.14544 -0.22803099
-0.076292999 0.145512 -0.22804099
-0.076289997 0.145584 -0.228044
-0.076287001 0.145656 -0.228036
-0.076284997 0.145725 -0.22802
-0.076283 0.145797 -0.228007
-0.076279998 0.145869 -0.22800501
-0.076277003 0.145941 -0.228007
-0.076274998 0.14601301 -0.22800501
-0.076272003 0.146083 -0.228002
-0.076269999 0.146154 -0.22798599
-0.076268002 0.146226 -0.227962
-0.076265 0.14629801 -0.227965
-0.076261997 0.14636999 -0.227983
-0.076259002 0.14644 -0.227991
-0.076256 0.146512 -0.227993
-0.076252997 0.146584 -0.227992
-0.076251 0.14665601 -0.227982
-0.076249003 0.146727 -0.227954
-0.076246999 0.146797 -0.227933
-0.076243997 0.146869 -0.22793899
-0.076241001 0.14694101 -0.22795101
-0.076237999 0.14701299 -0.227943
-0.076236002 0.147085 -0.22793201
-0.076233 0.147155 -0.22793201
-0.076229997 0.147227 -0.227948
-0.076226003 0.14729901 -0.227963
-0.076223001 0.14737099 -0.227965
-0.076220997 0.147443 -0.227961
-0.076218002 0.147513 -0.227961
-0.076214999 0.147585 -0.227962
-0.076213002 0.14765701 -0.227954
-0.07621 0.14772899 -0.227948
-0.076206997 0.147801 -0.227957
-0.076204002 0.147873 -0.227961
-0.076200999 0.147945 -0.227961
-0.076197997 0.14801501 -0.22796699
-0.076195002 0.14808699 -0.22797599
-0.076191999 0.148159 -0.22797801
-0.076188996 0.148231 -0.227974
-0.076187 0.148303 -0.227966
-0.076183997 0.14837299 -0.22796699
-0.076181002 0.148445 -0.227971
-0.076177999 0.148517 -0.227965
-0.076176003 0.148588 -0.227956
-0.076173 0.14866 -0.22795799
-0.076169997 0.14873201 -0.22796001
-0.076167002 0.14880399 -0.227964
-0.076164998 0.148874 -0.227961
-0.076162003 0.148946 -0.22794899
-0.076159999 0.149018 -0.22793099
-0.076158002 0.149088 -0.22792999
-0.076154001 0.14916199 -0.227948
-0.076150998 0.149232 -0.227944
-0.076149002 0.149304 -0.227938
-0.076145999 0.149376 -0.227943
-0.076142997 0.14944801 -0.22794101
-0.076140001 0.14951999 -0.227947
-0.076136 0.149592 -0.227962
-0.076134004 0.149662 -0.227964
-0.076131001 0.14973401 -0.227962
-0.076127999 0.14980599 -0.22796001
-0.076125003 0.149878 -0.227957
-0.076122999 0.14995 -0.227947
-0.076121002 0.150019 -0.22794101
-0.076118 0.15009101 -0.22793999
-0.076114997 0.15016299 -0.227948
-0.076112002 0.150235 -0.22795001
-0.076109 0.150307 -0.22795001
-0.076105997 0.150379 -0.227953
-0.076103002 0.150451 -0.227953
-0.076099999 0.15052301 -0.22795101
-0.076098002 0.150593 -0.227942
-0.076095998 0.150665 -0.22792201
-0.076094002 0.15073401 -0.227906
-0.076090999 0.150809 -0.22792201
-0.076086998 0.15088101 -0.227945
-0.076084003 0.15095299 -0.227947
-0.076081 0.151023 -0.227937
-0.076079004 0.151095 -0.22793999
-0.076076001 0.15116701 -0.227942
-0.076072998 0.15123899 -0.22793999
-0.076071002 0.15131 -0.227926
-0.076068997 0.15138 -0.227907
-0.076067001 0.151452 -0.227891
-0.076063998 0.15152401 -0.22789501
-0.076061003 0.15159599 -0.227906
-0.076057002 0.151668 -0.22791199
-0.076054998 0.15174 -0.227906
-0.076053001 0.15180901 -0.22789399
-0.076049998 0.15188099 -0.22789501
-0.076047003 0.151953 -0.227897
-0.076044001 0.152025 -0.227897
-0.076040998 0.152098 -0.227906
-0.076038003 0.15217 -0.227908
-0.076035 0.15224101 -0.22790401
-0.076031998 0.15231401 -0.22791199
-0.076029003 0.15238599 -0.227919
-0.076026 0.152458 -0.227915
-0.076024003 0.152527 -0.227909
-0.076021001 0.15259901 -0.227901
-0.076018997 0.15267099 -0.2279
-0.076016001 0.152743 -0.2279
-0.076012999 0.152815 -0.227898
-0.076010004 0.152885 -0.227899
-0.076007999 0.15295701 -0.227879
-0.076007001 0.153026 -0.22785699
-0.076003999 0.1531 -0.227864
-0.075999998 0.153173 -0.227882
-0.075995997 0.153245 -0.227896
-0.075993001 0.153317 -0.2279
-0.075990997 0.15338901 -0.22789299
-0.075988002 0.15346099 -0.227889
-0.075985998 0.15353 -0.227887
-0.075983003 0.153602 -0.227883
-0.07598 0.15367401 -0.22788
-0.075978003 0.15374599 -0.227872
-0.075975001 0.153818 -0.227864
-0.075972997 0.153888 -0.227863
-0.075970002 0.15396 -0.227861
-0.075966999 0.15403201 -0.227855
-0.075965002 0.154101 -0.22784799
-0.075962998 0.154173 -0.22783799
-0.075960003 0.154245 -0.227826
-0.075957999 0.15431499 -0.227816
-0.075955003 0.154387 -0.227817
-0.075952001 0.154459 -0.227819
-0.075948998 0.154533 -0.227825
-0.075946003 0.154605 -0.22783101
-0.075943001 0.15467501 -0.227832
-0.075940996 0.154746 -0.227818
-0.075939 0.154818 -0.22781201
-0.075934999 0.15489 -0.22782101
-0.075933002 0.154962 -0.22781301
-0.075929999 0.15503199 -0.22781099
-0.075926997 0.15510599 -0.227827
-0.075924002 0.155178 -0.22782999
-0.075921997 0.15525 -0.22781
-0.075920001 0.15531901 -0.22779
-0.075916998 0.155389 -0.227787
-0.075914003 0.155463 -0.227789
-0.075911999 0.155533 -0.227787
-0.075909004 0.155605 -0.227778
-0.075907998 0.15567499 -0.227754
-0.075906001 0.155744 -0.22773799
-0.075902 0.155818 -0.22774599
-0.075898997 0.15589 -0.227753
-0.075896002 0.15596201 -0.227755
-0.075893998 0.15603399 -0.22774699
-0.075892001 0.156104 -0.227734
-0.075889997 0.156176 -0.22772001
-0.075888 0.15624499 -0.227708
-0.075884998 0.156317 -0.227699
-0.075883001 0.156387 -0.227695
-0.075879999 0.156459 -0.227689
-0.075878002 0.15652999 -0.227681
-0.075874999 0.1566 -0.227676
-0.075873002 0.156672 -0.22766
-0.075870998 0.15674099 -0.22764
-0.075869001 0.156813 -0.22763699
-0.075865999 0.156885 -0.227641
-0.075862996 0.156955 -0.227631
-0.075861998 0.15702701 -0.227608
-0.075860001 0.157094 -0.227584
-0.075857997 0.157166 -0.22757199
-0.075856 0.15723699 -0.227559
-0.075852998 0.157307 -0.227553
-0.075851001 0.157379 -0.227547
-0.075848997 0.15744901 -0.227532
-0.075847 0.157518 -0.227516
-0.075843997 0.157592 -0.227516
-0.075841002 0.157662 -0.227514
-0.075838998 0.15773401 -0.227501
-0.075837001 0.157804 -0.22748899
-0.075834997 0.157875 -0.227477
-0.075833 0.15794501 -0.22746401
-0.075829998 0.15801699 -0.22746
-0.075827003 0.158089 -0.227456
-0.075824998 0.158158 -0.22744299
-0.075823002 0.158228 -0.227431
-0.075820997 0.1583 -0.227423
-0.075818002 0.15837 -0.22741
-0.075815998 0.15844101 -0.227396
-0.075814001 0.158511 -0.22739001
-0.075811997 0.158583 -0.227376
-0.07581 0.15865199 -0.227355
-0.075808004 0.158722 -0.22733501
-0.075806998 0.15879101 -0.227312
-0.075804003 0.158861 -0.22730599
-0.075801 0.158933 -0.22731
-0.075797997 0.159007 -0.227312
-0.075795002 0.159077 -0.22731499
-0.075792998 0.15914901 -0.227311
-0.075790003 0.15922099 -0.22730701
-0.075787999 0.159293 -0.22729801
-0.075785004 0.159362 -0.227286
-0.075782999 0.15943199 -0.22728001
-0.075779997 0.159504 -0.22727799
-0.075778 0.159576 -0.227265
-0.075776003 0.15964501 -0.22725099
-0.075773001 0.15971699 -0.227247
-0.075770997 0.159787 -0.227238
-0.075769 0.159859 -0.227226
-0.075765997 0.15992901 -0.22722401
-0.075764 0.16000099 -0.227219
-0.075760998 0.160072 -0.227209
-0.075759001 0.160142 -0.227203
-0.075755998 0.16021401 -0.22719701
-0.075754002 0.16028599 -0.22719
-0.075751998 0.160356 -0.22718
-0.075749002 0.160427 -0.22717001
-0.075746 0.16049699 -0.22716901
-0.075742997 0.16057099 -0.227175
-0.075741 0.160643 -0.227173
-0.075737998 0.160713 -0.22716001
-0.075736001 0.16078299 -0.227148
-0.075733997 0.160852 -0.22713199
-0.075732 0.160924 -0.227117
-0.075728998 0.160996 -0.227119
-0.075727001 0.16106801 -0.22711501
-0.075723998 0.16113999 -0.22711501
-0.075719997 0.161212 -0.227134
-0.075717002 0.161286 -0.227148
-0.075714 0.161358 -0.227144
-0.075712003 0.161428 -0.22713199
-0.075709 0.16150001 -0.227121
-0.075705998 0.16157199 -0.227125
-0.075703003 0.16164599 -0.227139
-0.0757 0.161718 -0.227139
-0.075696997 0.16179 -0.227138
-0.075694002 0.161864 -0.227154
-0.075690001 0.161936 -0.227166
-0.075686999 0.162008 -0.227165
-0.075685002 0.16208 -0.227165
-0.075681999 0.16215201 -0.227167
-0.075678997 0.16222399 -0.227171
-0.075675003 0.16229901 -0.22719
-0.075671002 0.162375 -0.22720601
-0.075668 0.16244701 -0.22722
-0.075663 0.162524 -0.227244
-0.075658999 0.162598 -0.227268
-0.075657003 0.16267 -0.22726899
-0.075654 0.162742 -0.227263
-0.075649999 0.162816 -0.227275
-0.075646996 0.162891 -0.227293
-0.075643003 0.162965 -0.227309
-0.075639002 0.16304199 -0.227338
-0.075634003 0.16312 -0.22737201
-0.075630002 0.163195 -0.22739001
-0.075626001 0.163271 -0.227412
-0.075621001 0.163348 -0.227458
-0.075616002 0.163427 -0.22749799
-0.075612001 0.163504 -0.22752599
-0.075607002 0.16358 -0.22755399
-0.075602002 0.16365901 -0.22759899
-0.075595997 0.163743 -0.22766601
-0.07559 0.163822 -0.227713
-0.075585 0.163901 -0.22775701
-0.075579002 0.163982 -0.227809
-0.075574003 0.16406301 -0.227855
-0.075567998 0.16414399 -0.227915
-0.075561002 0.16423 -0.22799499
-0.075549997 0.164325 -0.228138
-0.075543001 0.164408 -0.228212
-0.075537004 0.16449399 -0.228284
-0.076724 0.125664 -0.22934
-0.076728001 0.125753 -0.22919799
-0.076728001 0.125835 -0.229122
-0.076728001 0.125916 -0.229047
-0.076729 0.12599801 -0.228967
-0.076729 0.126077 -0.228903
-0.076729 0.126157 -0.228835
-0.076728001 0.12623399 -0.228789
-0.076727003 0.126311 -0.228745
-0.076725997 0.126388 -0.22870199
-0.076724999 0.126463 -0.228662
-0.076724 0.12654001 -0.228622
-0.076723002 0.126615 -0.22859199
-0.076719999 0.12668701 -0.228585
-0.076718003 0.126761 -0.228567
-0.076716997 0.126838 -0.228523
-0.076715998 0.12691499 -0.22848099
-0.076715 0.12699001 -0.22844701
-0.076713003 0.12706199 -0.228434
-0.076710999 0.12713499 -0.228416
-0.076709002 0.12721001 -0.22837999
-0.076706998 0.127286 -0.228358
-0.076706 0.127359 -0.228331
-0.076705001 0.127434 -0.228295
-0.076702997 0.12751 -0.228273
-0.076700002 0.127582 -0.228265
-0.076697998 0.127653 -0.228256
-0.076696001 0.127729 -0.228232
-0.076695003 0.127802 -0.228204
-0.076692 0.127876 -0.22819
-0.076690003 0.127948 -0.22818699
-0.076687001 0.12802 -0.22818901
-0.076683998 0.12809201 -0.22818699
-0.076682001 0.12816299 -0.22817799
-0.076678999 0.128235 -0.228168
-0.076677002 0.128309 -0.22815999
-0.076673999 0.128381 -0.22815201
-0.076672003 0.128453 -0.22814301
-0.076669 0.128526 -0.22813299
-0.076667003 0.128598 -0.22813299
-0.076664001 0.12867001 -0.22812501
-0.076661997 0.12874401 -0.22811
-0.076659001 0.128814 -0.22811
-0.076655999 0.128886 -0.22811399
-0.076654002 0.128958 -0.228113
-0.076650999 0.12902901 -0.22810701
-0.076649003 0.12910099 -0.22809701
-0.076646 0.129173 -0.228093
-0.076642998 0.129245 -0.2281
-0.076640002 0.129315 -0.228102
-0.076637 0.12938701 -0.22810601
-0.076633997 0.12945899 -0.22811
-0.076631002 0.129529 -0.228109
-0.076628998 0.129601 -0.228103
-0.076626003 0.129675 -0.228095
-0.076623 0.129747 -0.22809599
-0.076621003 0.12981901 -0.228094
-0.076618001 0.12989099 -0.22808599
-0.076614998 0.129961 -0.22808599
-0.076613002 0.130033 -0.228089
-0.076609999 0.130105 -0.22808699
-0.076606996 0.13017701 -0.228093
-0.076603003 0.130247 -0.228104
-0.076600999 0.130317 -0.22810601
-0.076598004 0.130389 -0.22810601
-0.076594003 0.13046101 -0.22811601
-0.076591 0.130531 -0.22813299
-0.076587997 0.130601 -0.228135
-0.076585002 0.13067301 -0.228131
-0.076582 0.13074601 -0.228146
-0.076578997 0.130816 -0.228158
-0.076575004 0.130886 -0.228168
-0.076572001 0.13095801 -0.22816999
-0.076569997 0.13102999 -0.22816101
-0.076567002 0.131102 -0.228157
-0.076563999 0.131174 -0.228159
-0.076562002 0.131245 -0.228154
-0.076559 0.131317 -0.22815
-0.076555997 0.13138901 -0.228154
-0.076553002 0.13146 -0.228164
-0.076549999 0.13153 -0.22816899
-0.076546997 0.131602 -0.22817101
-0.076544002 0.13167401 -0.228175
-0.076540999 0.131744 -0.22818001
-0.076537997 0.131816 -0.228186
-0.076535001 0.13188601 -0.22819801
-0.076531 0.13195799 -0.22821
-0.076527998 0.132028 -0.22821499
-0.076526001 0.1321 -0.228213
-0.076522999 0.132172 -0.228209
-0.076520003 0.13224401 -0.22820599
-0.076517001 0.13231599 -0.228212
-0.076513998 0.132386 -0.228222
-0.076511003 0.132457 -0.228229
-0.076508 0.13253 -0.228229
-0.076504998 0.13260201 -0.228221
-0.076502003 0.132672 -0.228229
-0.076498002 0.132743 -0.22825199
-0.076494999 0.132815 -0.228258
-0.076493002 0.13288701 -0.228256
-0.07649 0.132957 -0.22826201
-0.076485999 0.133029 -0.228269
-0.076482996 0.133099 -0.228283
-0.076480001 0.13316999 -0.228291
-0.076476999 0.133242 -0.228292
-0.076472998 0.133314 -0.22830801
-0.076470003 0.133384 -0.228314
-0.076467998 0.13345601 -0.22830801
-0.076465003 0.13352799 -0.228311
-0.076462001 0.1336 -0.228315
-0.076458998 0.133672 -0.228315
-0.076456003 0.133744 -0.22831
-0.076453999 0.133816 -0.228306
-0.076451004 0.13388801 -0.228306
-0.076448001 0.133959 -0.228304
-0.076444998 0.13403 -0.228313
-0.076442003 0.134102 -0.22832701
-0.076439001 0.13417201 -0.22832701
-0.076435998 0.13424399 -0.228324
-0.076433003 0.134316 -0.228324
-0.076430999 0.134388 -0.228324
-0.076428004 0.13446 -0.228324
-0.076424003 0.13452999 -0.228339
-0.076421 0.134602 -0.22835501
-0.076417997 0.134674 -0.228351
-0.076416001 0.134746 -0.22833601
-0.076412998 0.134818 -0.22833601
-0.076410003 0.13488799 -0.22835
-0.076407 0.13496 -0.228356
-0.076403998 0.135032 -0.228351
-0.076401003 0.135104 -0.228349
-0.076398 0.135176 -0.228357
-0.076394998 0.13524599 -0.228367
-0.076392002 0.135318 -0.228374
-0.076389 0.13539 -0.228368
-0.076387003 0.135462 -0.22836199
-0.076384 0.135534 -0.228365
-0.076380998 0.13560601 -0.228365
-0.076378003 0.135676 -0.228365
-0.076375 0.135748 -0.228365
-0.076373003 0.13582 -0.22836
-0.076370001 0.135894 -0.22835401
-0.076366998 0.135965 -0.228348
-0.076364003 0.13603599 -0.228357
-0.076361001 0.136108 -0.228361
-0.076357998 0.13618 -0.22836301
-0.076355003 0.136252 -0.228365
-0.076352999 0.136324 -0.22836199
-0.076350003 0.13639601 -0.22836
-0.076347001 0.13646799 -0.22836
-0.076344997 0.136537 -0.228359
-0.076342002 0.136611 -0.228357
-0.076338999 0.13668101 -0.228357
-0.076335996 0.13675299 -0.22835299
-0.076334 0.13682701 -0.228348
-0.076330997 0.136897 -0.228342
-0.076328002 0.136971 -0.228342
-0.076325998 0.137041 -0.22833601
-0.076324001 0.13711201 -0.22832499
-0.076320998 0.13718399 -0.22832701
-0.076318003 0.13725699 -0.228333
-0.076315001 0.137328 -0.22833
-0.076311998 0.1374 -0.22832599
-0.076309003 0.137472 -0.228328
-0.076306999 0.13754401 -0.228328
-0.076304004 0.13761599 -0.22832499
-0.076301999 0.137688 -0.228315
-0.076298997 0.13776 -0.228311
-0.076296002 0.13783 -0.22831801
-0.076292999 0.13790201 -0.22832
-0.076289997 0.13797399 -0.228312
-0.076288 0.13804699 -0.228302
-0.076284997 0.138117 -0.228303
-0.076283 0.138189 -0.22829901
-0.076279998 0.13826101 -0.228285
-0.076278001 0.138335 -0.22827201
-0.076275997 0.13840599 -0.22826201
-0.076273002 0.138478 -0.228258
-0.076269999 0.138548 -0.22826
-0.076268002 0.138622 -0.22825301
-0.076265998 0.138694 -0.228237
-0.076263003 0.13876601 -0.228241
-0.076259002 0.138836 -0.228256
-0.076256 0.138908 -0.228256
-0.076254003 0.13898 -0.22825
-0.076251999 0.139052 -0.228238
-0.076249003 0.13912299 -0.228229
-0.076246001 0.139195 -0.228229
-0.076242998 0.139267 -0.22823299
-0.076241001 0.139339 -0.22823501
-0.076237999 0.13940901 -0.228232
-0.076234996 0.13948099 -0.22823
-0.076232001 0.139553 -0.22824
-0.076228999 0.139625 -0.228239
-0.076227002 0.139697 -0.228227
-0.076223999 0.139769 -0.228227
-0.076220997 0.13984101 -0.22823299
-0.076219 0.13991299 -0.228218
-0.076217003 0.139984 -0.228202
-0.076214001 0.140056 -0.22819801
-0.076210998 0.140126 -0.22820701
-0.076208003 0.14019901 -0.22821701
-0.076204002 0.14027099 -0.22823299
-0.076200999 0.140341 -0.228241
-0.076197997 0.140413 -0.228238
-0.076196 0.140485 -0.22822601
-0.076192997 0.14055701 -0.22823
-0.076190002 0.14062899 -0.228231
-0.076187998 0.1407 -0.228223
-0.076186001 0.140772 -0.228209
-0.076183997 0.140844 -0.228193
-0.076180004 0.140916 -0.228202
-0.076176003 0.14098699 -0.228236
-0.076173 0.141057 -0.22824199
-0.076171003 0.14113 -0.228211
-0.076169997 0.141201 -0.22818901
-0.076167002 0.14127301 -0.22817899
-0.076164998 0.14134499 -0.228167
-0.076162003 0.141417 -0.228166
-0.076159 0.141489 -0.228172
-0.076155998 0.141559 -0.228176
-0.076154001 0.14163101 -0.228175
-0.076151997 0.141702 -0.228157
-0.076149002 0.141774 -0.22814301
-0.076145999 0.141846 -0.228145
-0.076144002 0.141918 -0.22814199
-0.076141 0.14199001 -0.22813401
-0.076139003 0.14206199 -0.22813199
-0.076136 0.142132 -0.228135
-0.076132998 0.142206 -0.228129
-0.076131001 0.14227501 -0.228121
-0.076127999 0.14234699 -0.22812299
-0.076125003 0.14241999 -0.228128
-0.076122001 0.142491 -0.228128
-0.076118998 0.142563 -0.22812399
-0.076117001 0.14263301 -0.228121
-0.076113999 0.14270499 -0.228117
-0.076112002 0.142777 -0.228113
-0.076109 0.142849 -0.228101
-0.076107003 0.14292 -0.22808801
-0.076104 0.142992 -0.228084
-0.076102003 0.14306401 -0.22808
-0.076099001 0.143134 -0.22808699
-0.076095998 0.143206 -0.228093
-0.076093003 0.143278 -0.22809701
-0.076090001 0.14335001 -0.22809701
-0.076086998 0.14342199 -0.22809
-0.076085001 0.143492 -0.22807799
-0.076081999 0.143564 -0.22807799
-0.076080002 0.143636 -0.22807699
-0.076076999 0.14370701 -0.228063
-0.076075003 0.14377899 -0.22806101
-0.076071002 0.14385 -0.228071
-0.076068997 0.143922 -0.228072
-0.076066002 0.14399301 -0.22806001
-0.076063998 0.14406499 -0.228048
-0.076061003 0.144137 -0.228053
-0.076058 0.144209 -0.22806101
-0.076056004 0.144279 -0.228045
-0.076053999 0.14435001 -0.22803099
-0.076050997 0.14442199 -0.228034
-0.076048002 0.144494 -0.228034
-0.076044999 0.144566 -0.228034
-0.076041996 0.144637 -0.22804099
-0.076039001 0.14470901 -0.228045
-0.076035999 0.14478099 -0.228043
-0.076034002 0.144852 -0.228039
-0.076030999 0.144924 -0.228036
-0.076027997 0.14499401 -0.228034
-0.076025002 0.14506599 -0.228036
-0.076022997 0.145138 -0.228025
-0.076021001 0.14521 -0.22801501
-0.076017998 0.145282 -0.22802299
-0.076013997 0.14535201 -0.22803099
-0.076012 0.14542399 -0.22803199
-0.076008998 0.145496 -0.22802199
-0.076007001 0.145567 -0.22801
-0.076003999 0.145639 -0.22800501
-0.076001003 0.14570899 -0.228011
-0.075998001 0.145781 -0.22801501
-0.075994998 0.145853 -0.228019
-0.075992003 0.145926 -0.22802401
-0.075989 0.145998 -0.228026
-0.075986996 0.14606901 -0.228018
-0.075985 0.146139 -0.227999
-0.075983003 0.14621 -0.22797699
-0.075980999 0.146282 -0.227961
-0.075979002 0.146354 -0.227957
-0.075975999 0.146424 -0.227962
-0.075971998 0.146496 -0.22797599
-0.075969003 0.146568 -0.227984
-0.075966001 0.14664 -0.227983
-0.075963996 0.14671201 -0.22797699
-0.075961001 0.146782 -0.22796699
-0.075958997 0.146854 -0.227962
-0.075956002 0.146926 -0.22795799
-0.075952999 0.146997 -0.227956
-0.075949997 0.14707001 -0.22796001
-0.075948 0.14714 -0.227963
-0.075944997 0.147212 -0.227961
-0.075942002 0.147283 -0.22795901
-0.075939998 0.14735501 -0.22795101
-0.075937003 0.14742699 -0.227948
-0.075934 0.147497 -0.227956
-0.075930998 0.147569 -0.22795799
-0.075929001 0.147641 -0.227945
-0.075925998 0.14771301 -0.22793899
-0.075923003 0.14778499 -0.227947
-0.075919002 0.147857 -0.227963
-0.075916 0.147929 -0.227972
-0.075914003 0.147999 -0.22797
-0.075911 0.14807101 -0.22796001
-0.075909004 0.14814299 -0.227945
-0.075906999 0.148213 -0.22793899
-0.075902998 0.148287 -0.227953
-0.075900003 0.148357 -0.227965
-0.075897001 0.148431 -0.227972
-0.075893998 0.14850099 -0.22796801
-0.075891003 0.148573 -0.227962
-0.075888999 0.148644 -0.227945
-0.075887002 0.14871401 -0.227929
-0.075884998 0.14878599 -0.22793099
-0.075880997 0.148858 -0.227943
-0.075878002 0.14893 -0.227944
-0.075874999 0.149002 -0.227946
-0.075871997 0.149075 -0.22795799
-0.075869001 0.149147 -0.227965
-0.075865999 0.14921699 -0.227961
-0.075864002 0.149288 -0.227947
-0.075861998 0.14936 -0.22793899
-0.075859003 0.149432 -0.227942
-0.075856 0.14950401 -0.227946
-0.075852998 0.14957599 -0.227948
-0.075850002 0.149646 -0.22794101
-0.075847998 0.149718 -0.227935
-0.075845003 0.14979 -0.22793099
-0.075842001 0.14986201 -0.227929
-0.075838998 0.14993399 -0.227934
-0.075837001 0.150004 -0.227934
-0.075833999 0.150075 -0.227928
-0.075831003 0.15014701 -0.22793099
-0.075828001 0.15022001 -0.22793899
-0.075824998 0.15029199 -0.227937
-0.075823002 0.150361 -0.22792301
-0.075820997 0.150433 -0.227918
-0.075818002 0.15050501 -0.22792201
-0.075814001 0.15057699 -0.22793201
-0.075810999 0.150649 -0.227933
-0.075809002 0.150721 -0.227919
-0.075805999 0.150793 -0.22792301
-0.075802997 0.15086301 -0.227925
-0.075801 0.15093499 -0.22792
-0.075797997 0.151007 -0.22792201
-0.075795002 0.151079 -0.227924
-0.075792 0.151151 -0.227926
-0.075788997 0.151223 -0.227927
-0.075787 0.15129399 -0.22791301
-0.075785004 0.151364 -0.22790299
-0.075782001 0.151436 -0.227902
-0.075779997 0.151508 -0.227892
-0.075777002 0.15157799 -0.22789
-0.075774997 0.15165 -0.227879
-0.075773001 0.151719 -0.227851
-0.075770997 0.15179101 -0.227845
-0.075765997 0.15186501 -0.22787701
-0.075762004 0.15193801 -0.2279
-0.075759001 0.15200999 -0.22790401
-0.075756997 0.152082 -0.227902
-0.075754002 0.152154 -0.227908
-0.075750999 0.152226 -0.227911
-0.075747997 0.152298 -0.227909
-0.075745001 0.15237001 -0.227909
-0.075741999 0.15244199 -0.22791199
-0.075739004 0.152514 -0.22792201
-0.075736001 0.152586 -0.22791401
-0.075735003 0.15265501 -0.22788601
-0.075732 0.15272699 -0.227881
-0.075727999 0.15279999 -0.22790501
-0.075726002 0.152872 -0.22790299
-0.075723998 0.152941 -0.227878
-0.075722001 0.15301301 -0.22786599
-0.075718001 0.15308499 -0.22788601
-0.075714998 0.153157 -0.22789399
-0.075712003 0.153229 -0.227889
-0.075709999 0.153301 -0.227887
-0.075707003 0.153373 -0.227889
-0.075704001 0.15344501 -0.227892
-0.075700998 0.15351699 -0.22788601
-0.075699002 0.153587 -0.227874
-0.075695999 0.153658 -0.22787
-0.075692996 0.15373001 -0.227873
-0.075691 0.15380201 -0.22786701
-0.075687997 0.153872 -0.227863
-0.075685002 0.153944 -0.22786599
-0.075681999 0.154016 -0.22786801
-0.075680003 0.15408801 -0.22786801
-0.075677 0.15415999 -0.227864
-0.075673997 0.154232 -0.22785901
-0.075672001 0.154302 -0.227853
-0.075668998 0.15437301 -0.227845
-0.075667001 0.15444501 -0.22782999
-0.075666003 0.154515 -0.22781201
-0.075662002 0.154587 -0.227818
-0.075658999 0.154659 -0.227824
-0.075657003 0.15473101 -0.22782101
-0.075654 0.15480299 -0.227817
-0.075652003 0.154874 -0.227809
-0.075649001 0.154944 -0.2278
-0.075646996 0.15501601 -0.22779
-0.075644001 0.15508801 -0.22779199
-0.075640999 0.15515999 -0.2278
-0.075638004 0.15523399 -0.227805
-0.075635001 0.155304 -0.227805
-0.075631998 0.155376 -0.227809
-0.075629003 0.155448 -0.22780401
-0.075626999 0.15552001 -0.227788
-0.075625002 0.155589 -0.227778
-0.075622 0.155661 -0.22778
-0.075620003 0.155733 -0.227771
-0.075617999 0.15580299 -0.227753
-0.075615004 0.155875 -0.227743
-0.075612999 0.155946 -0.227744
-0.075609997 0.156018 -0.227742
-0.075608 0.15608799 -0.227732
-0.075606003 0.15616 -0.227717
-0.075603001 0.156229 -0.22770301
-0.075600997 0.15630101 -0.227699
-0.075599 0.156371 -0.227688
-0.075597003 0.156441 -0.227668
-0.075594999 0.15651201 -0.227652
-0.075591996 0.156582 -0.22764599
-0.075589001 0.156656 -0.22764499
-0.075586997 0.156726 -0.227641
-0.075585 0.15679801 -0.227631
-0.075581998 0.156867 -0.22761799
-0.075580001 0.156939 -0.227614
-0.075576998 0.157011 -0.227608
-0.075575002 0.15708099 -0.227595
-0.075572997 0.15715 -0.22758099
-0.075571001 0.157222 -0.22757301
-0.075567998 0.15729401 -0.227562
-0.075566001 0.157363 -0.227548
-0.075563997 0.157435 -0.22754
-0.075562 0.15750501 -0.227522
-0.075560004 0.157574 -0.227503
-0.075557001 0.157647 -0.227511
-0.075553998 0.157721 -0.22751699
-0.075551003 0.15779001 -0.22751001
-0.075549997 0.15786 -0.22748999
-0.075548001 0.157929 -0.227466
-0.075545996 0.15799899 -0.227447
-0.075544 0.158071 -0.22743499
-0.075540997 0.158142 -0.227429
-0.075539999 0.15820999 -0.227406
-0.075538002 0.158279 -0.22737999
-0.075534999 0.158354 -0.227396
-0.075530998 0.158428 -0.227406
-0.075529002 0.158498 -0.22739901
-0.075526997 0.158567 -0.22737899
-0.075525999 0.158637 -0.22735301
-0.075524002 0.15870599 -0.22733399
-0.075521998 0.158776 -0.22732
-0.075519003 0.158848 -0.22732601
-0.075516 0.15892 -0.22733299
-0.075512998 0.15899201 -0.227329
-0.075510003 0.15906399 -0.227321
-0.075507998 0.159133 -0.22730599
-0.075507 0.15920299 -0.227286
-0.075503998 0.159275 -0.22727799
-0.075502001 0.159344 -0.22726101
-0.075501002 0.159411 -0.22722501
-0.075498 0.159483 -0.227229
-0.075493999 0.159558 -0.227249
-0.075492002 0.15963 -0.227246
-0.075488999 0.15970001 -0.22724
-0.075487003 0.159771 -0.22723
-0.075484999 0.159841 -0.227217
-0.075482003 0.159913 -0.22721501
-0.075479999 0.15998501 -0.227211
-0.075476997 0.160055 -0.227202
-0.075475 0.160126 -0.227198
-0.075471997 0.160198 -0.22719
-0.075470001 0.16026799 -0.227181
-0.075466998 0.16034 -0.22717699
-0.075465001 0.160409 -0.227163
-0.075462997 0.16047899 -0.227145
-0.075460002 0.16055299 -0.227146
-0.075456999 0.160625 -0.227152
-0.075455002 0.160697 -0.227146
-0.075452998 0.160767 -0.22713301
-0.075450003 0.160836 -0.227121
-0.075447999 0.160908 -0.22711501
-0.075446002 0.160978 -0.227106
-0.075443998 0.161048 -0.227088
-0.075441003 0.16112 -0.227092
-0.075437002 0.161194 -0.227112
-0.075433999 0.161268 -0.22711501
-0.075430997 0.161338 -0.227111
-0.075429 0.16141 -0.227107
-0.075425997 0.16148201 -0.22710501
-0.075423002 0.16155399 -0.22710399
-0.07542 0.161626 -0.227102
-0.075416997 0.1617 -0.227118
-0.075413004 0.16177399 -0.227136
-0.075410999 0.161844 -0.227129
-0.075407997 0.16191401 -0.22711501
-0.075405002 0.16198801 -0.22712301
-0.075401001 0.162062 -0.22714999
-0.075397 0.162139 -0.22716799
-0.075393997 0.162211 -0.22718
-0.075390004 0.162285 -0.227192
-0.075387001 0.162357 -0.227198
-0.075383998 0.162429 -0.227201
-0.075379997 0.162506 -0.227217
-0.075377002 0.162578 -0.227227
-0.075374 0.16265 -0.227231
-0.075369999 0.162724 -0.227246
-0.075367004 0.162798 -0.22725999
-0.075363003 0.162873 -0.227274
-0.07536 0.162947 -0.227284
-0.075355999 0.163021 -0.227302
-0.075351 0.1631 -0.22734401
-0.075346 0.163177 -0.22738101
-0.075341001 0.163256 -0.227423
-0.075337 0.163332 -0.22744501
-0.075333998 0.163404 -0.227449
-0.075328998 0.16348299 -0.22749101
-0.075323999 0.163562 -0.227529
-0.075319 0.16364101 -0.227577
-0.075313002 0.16372199 -0.22762699
-0.075309001 0.163799 -0.227661
-0.075304002 0.163876 -0.22769199
-0.075299002 0.163957 -0.227742
-0.075292997 0.164038 -0.22779401
-0.075286999 0.16411901 -0.227846
-0.075278997 0.164205 -0.227943
-0.075266004 0.164309 -0.22813299
-0.075259 0.16439299 -0.228205
-0.075254999 0.164471 -0.22823501
-0.076398 0.125726 -0.22927199
-0.076398 0.125807 -0.229196
-0.076408997 0.125916 -0.228884
-0.076406002 0.125989 -0.22888
-0.076402999 0.12606101 -0.22887801
-0.076401003 0.12613501 -0.228864
-0.076401003 0.126212 -0.22881299
-0.076398998 0.126289 -0.228771
-0.076398998 0.126368 -0.22872099
-0.076398 0.126445 -0.22866701
-0.076397002 0.126522 -0.228627
-0.076394998 0.12659501 -0.228604
-0.076393999 0.12666801 -0.228578
-0.076392002 0.126746 -0.228544
-0.076392002 0.126821 -0.22849999
-0.076390997 0.1269 -0.22845
-0.076389 0.126973 -0.228429
-0.076387003 0.12704501 -0.22841901
-0.076384999 0.12712 -0.22839899
-0.076383002 0.127194 -0.228375
-0.076380998 0.127267 -0.228358
-0.076379001 0.127341 -0.228338
-0.076376997 0.127414 -0.22832
-0.076375 0.127488 -0.228306
-0.076373003 0.127562 -0.228287
-0.076370999 0.127635 -0.228267
-0.076367997 0.127707 -0.22825301
-0.076366 0.127781 -0.22824299
-0.076362997 0.12785199 -0.22824199
-0.076361001 0.127924 -0.22823
-0.076358996 0.12799799 -0.228222
-0.076356001 0.12807 -0.228219
-0.076353997 0.128142 -0.22820701
-0.076351002 0.128215 -0.228193
-0.076348998 0.128287 -0.228183
-0.076346003 0.128361 -0.22818001
-0.076343 0.12843101 -0.228182
-0.076339997 0.12850299 -0.228186
-0.076338001 0.128575 -0.22818001
-0.076334998 0.128647 -0.228175
-0.076333001 0.128718 -0.22817101
-0.076329999 0.128792 -0.228159
-0.076328002 0.12886401 -0.228144
-0.076325998 0.128938 -0.22813401
-0.076323003 0.129008 -0.228136
-0.07632 0.12908 -0.22814
-0.076316997 0.129152 -0.228137
-0.076315001 0.129223 -0.228127
-0.076311998 0.129297 -0.228121
-0.076310001 0.12936699 -0.22812399
-0.076306 0.129439 -0.22813199
-0.076302998 0.129509 -0.22813401
-0.076301001 0.129581 -0.228136
-0.076297998 0.12965301 -0.228135
-0.076296002 0.12972499 -0.22812299
-0.076292999 0.12979899 -0.22811501
-0.076289997 0.129869 -0.22812
-0.076287001 0.129939 -0.228126
-0.076283999 0.13001101 -0.228128
-0.076282002 0.13008299 -0.22812
-0.076278999 0.13015699 -0.228117
-0.076275997 0.130227 -0.228117
-0.076274 0.130298 -0.228109
-0.076270998 0.130372 -0.228103
-0.076268002 0.13044199 -0.22811
-0.076264001 0.130513 -0.22813
-0.076260999 0.130583 -0.228146
-0.076258004 0.13065299 -0.228157
-0.076254003 0.130725 -0.228163
-0.076251 0.130795 -0.22816899
-0.076247998 0.130868 -0.228176
-0.076245002 0.13093799 -0.228182
-0.076242 0.13101 -0.228192
-0.076238997 0.13108 -0.22819801
-0.076236002 0.131152 -0.228203
-0.076233 0.13122401 -0.22819901
-0.076231003 0.13129599 -0.22818901
-0.076228 0.13136899 -0.228177
-0.076226003 0.131441 -0.228172
-0.076223001 0.131513 -0.228174
-0.076219998 0.13158301 -0.22818001
-0.076217003 0.13165399 -0.228191
-0.076213002 0.131726 -0.228201
-0.07621 0.131796 -0.22821499
-0.076206997 0.13186599 -0.22822399
-0.076204002 0.131938 -0.228228
-0.076200999 0.13201 -0.22823399
-0.076196998 0.13208 -0.22824401
-0.076194003 0.132153 -0.228251
-0.076191001 0.132223 -0.228259
-0.076187998 0.132295 -0.22826301
-0.076185003 0.132367 -0.22826
-0.076182999 0.13243701 -0.22826201
-0.076178998 0.13250899 -0.22826999
-0.076177001 0.132581 -0.228268
-0.076173998 0.132653 -0.228267
-0.076171003 0.132725 -0.228265
-0.076168001 0.13279501 -0.228269
-0.076164 0.13286699 -0.228287
-0.076160997 0.132937 -0.22830001
-0.076158002 0.133009 -0.228302
-0.076154999 0.133081 -0.228302
-0.076151997 0.13315099 -0.228311
-0.076148003 0.133222 -0.228331
-0.076145001 0.133292 -0.22834501
-0.076141998 0.13336401 -0.22835501
-0.076137997 0.133435 -0.228368
-0.076135002 0.133507 -0.22837
-0.076132998 0.133578 -0.22836199
-0.076130003 0.133652 -0.22835501
-0.076127999 0.133724 -0.228357
-0.076125003 0.13379399 -0.228359
-0.076122001 0.133866 -0.228347
-0.076119997 0.13394 -0.22833399
-0.076117001 0.134012 -0.228338
-0.076113999 0.134082 -0.22835
-0.076109998 0.13415401 -0.22836301
-0.076107003 0.134224 -0.228367
-0.076104999 0.134296 -0.228361
-0.076103002 0.13437 -0.228347
-0.076099999 0.134442 -0.228348
-0.076095998 0.13451201 -0.22836401
-0.076093003 0.134582 -0.22837199
-0.076090001 0.134654 -0.22837301
-0.076086998 0.134726 -0.22838099
-0.076084003 0.13479801 -0.22838099
-0.076081999 0.13486999 -0.228375
-0.076079004 0.13494 -0.22838201
-0.076075003 0.135012 -0.22838999
-0.076072 0.135084 -0.228396
-0.076070003 0.13515601 -0.228394
-0.076067001 0.13522799 -0.22838899
-0.076063998 0.1353 -0.228383
-0.076062001 0.135372 -0.228377
-0.076058999 0.135444 -0.22838201
-0.076056004 0.135516 -0.228386
-0.076053001 0.13558801 -0.22837999
-0.076050997 0.13565999 -0.228374
-0.076048002 0.135732 -0.228377
-0.076044999 0.135802 -0.228387
-0.076040998 0.135874 -0.22839899
-0.076038003 0.13594601 -0.228398
-0.076035999 0.13601799 -0.228384
-0.076034002 0.13609 -0.228378
-0.076030999 0.136161 -0.228374
-0.076029003 0.136235 -0.228361
-0.076026 0.136305 -0.22836301
-0.076022997 0.13637701 -0.22837301
-0.076020002 0.13644899 -0.228378
-0.076017 0.136519 -0.228384
-0.076012999 0.136592 -0.22838999
-0.076010004 0.136664 -0.228394
-0.076007001 0.13673399 -0.22840101
-0.076004997 0.13680799 -0.228397
-0.076002002 0.136879 -0.228387
-0.075999998 0.136951 -0.228375
-0.075998001 0.137023 -0.22836
-0.075994998 0.137095 -0.22836
-0.075992003 0.13716701 -0.22836401
-0.075989 0.13723899 -0.228361
-0.075986996 0.13731 -0.228357
-0.075984001 0.137382 -0.228351
-0.075981997 0.137454 -0.228337
-0.07598 0.13752601 -0.22832599
-0.075976998 0.13759799 -0.228328
-0.075972997 0.13767 -0.228342
-0.075970002 0.13774 -0.22835501
-0.075966999 0.137812 -0.228361
-0.075963996 0.13788401 -0.228357
-0.075962 0.13795599 -0.228343
-0.075960003 0.138028 -0.22833399
-0.075957 0.1381 -0.22833399
-0.075953998 0.138171 -0.228332
-0.075952001 0.138245 -0.228311
-0.075951003 0.13831601 -0.228283
-0.075948998 0.13838799 -0.228269
-0.075946003 0.13846 -0.228259
-0.075943999 0.138532 -0.228256
-0.075940996 0.138604 -0.22826
-0.075937003 0.138676 -0.228268
-0.075934 0.13874801 -0.22827201
-0.075932004 0.138818 -0.228267
-0.075929999 0.138891 -0.22824299
-0.075928003 0.138963 -0.228237
-0.075924002 0.139034 -0.228266
-0.075920001 0.13910601 -0.22827201
-0.075917996 0.13917799 -0.228264
-0.075915001 0.139248 -0.22827099
-0.075911999 0.13932 -0.228275
-0.075909004 0.139392 -0.228269
-0.075906999 0.13946301 -0.228269
-0.075903997 0.13953599 -0.22827201
-0.075901002 0.139607 -0.228266
-0.075898997 0.139679 -0.22826
-0.075896002 0.139751 -0.22825401
-0.075893 0.139823 -0.22825301
-0.075891003 0.13989501 -0.228241
-0.075889997 0.139966 -0.228211
-0.075887002 0.14004 -0.228196
-0.075883999 0.14011 -0.22820801
-0.075879999 0.140182 -0.228236
-0.075877003 0.14025199 -0.228238
-0.075874999 0.140324 -0.228229
-0.075871997 0.140396 -0.228231
-0.075869001 0.140468 -0.228231
-0.075865999 0.14054 -0.22822399
-0.075865 0.14061099 -0.228202
-0.075861998 0.140683 -0.228196
-0.075857997 0.140754 -0.228218
-0.075855002 0.140826 -0.22823501
-0.075851999 0.140898 -0.228237
-0.075847998 0.14096799 -0.228251
-0.075845003 0.14104 -0.228258
-0.075842999 0.141112 -0.228248
-0.075841002 0.141184 -0.228232
-0.075838998 0.14125501 -0.228218
-0.075836003 0.14132801 -0.228221
-0.075833 0.14139999 -0.228227
-0.075829998 0.141471 -0.228223
-0.075828001 0.141543 -0.22820801
-0.075825997 0.141615 -0.228186
-0.075824 0.14168601 -0.228174
-0.075820997 0.14175799 -0.228166
-0.075819001 0.14183 -0.228163
-0.075815998 0.141902 -0.228157
-0.075814001 0.141974 -0.228145
-0.075810999 0.14204299 -0.22814199
-0.075808004 0.142115 -0.228144
-0.075805999 0.142187 -0.22814199
-0.075802997 0.142259 -0.228136
-0.075800002 0.142331 -0.228135
-0.075797997 0.14240301 -0.228131
-0.075795002 0.142473 -0.228129
-0.075792 0.142547 -0.22813199
-0.075788997 0.142617 -0.228136
-0.075787 0.142689 -0.228128
-0.075785004 0.14275999 -0.228102
-0.075782999 0.142832 -0.22807901
-0.075781003 0.142904 -0.22807699
-0.075777002 0.142976 -0.228099
-0.075773999 0.14304601 -0.22811
-0.075772002 0.14311799 -0.22809
-0.075769998 0.143189 -0.228072
-0.075767003 0.143261 -0.22807799
-0.075763002 0.143334 -0.228093
-0.075759999 0.143406 -0.228099
-0.075756997 0.14347599 -0.228101
-0.075755 0.143548 -0.22809599
-0.075751998 0.143619 -0.22808599
-0.075750001 0.143691 -0.228076
-0.075746998 0.14376301 -0.22807799
-0.075744003 0.143833 -0.22807699
-0.075742997 0.143905 -0.228053
-0.075740002 0.143976 -0.22804099
-0.075737 0.14404801 -0.228054
-0.075733997 0.14412101 -0.228066
-0.075730003 0.144191 -0.228072
-0.075727001 0.144263 -0.22808801
-0.075723998 0.144335 -0.228093
-0.075721003 0.144407 -0.22808699
-0.075719997 0.14447901 -0.228065
-0.075718001 0.14455 -0.22803999
-0.075714998 0.14462 -0.228044
-0.075710997 0.144692 -0.22806001
-0.075709 0.14476401 -0.22806001
-0.075705998 0.14483599 -0.228049
-0.075704001 0.144908 -0.228047
-0.0757 0.144978 -0.228055
-0.075696997 0.14505 -0.228062
-0.075695001 0.14512201 -0.22804999
-0.075692996 0.145193 -0.22803199
-0.075691 0.145265 -0.22802
-0.075689003 0.145335 -0.227993
-0.075686999 0.14540599 -0.227981
-0.075684004 0.145478 -0.227993
-0.075681001 0.145551 -0.228
-0.075677 0.145623 -0.22801
-0.075673997 0.145693 -0.228028
-0.075669996 0.145767 -0.22804201
-0.075667001 0.14583699 -0.228047
-0.075663999 0.145909 -0.228043
-0.075662002 0.145981 -0.228043
-0.075658001 0.146053 -0.22804999
-0.075655997 0.146125 -0.228044
-0.075654 0.14619499 -0.228018
-0.075653002 0.146266 -0.22799399
-0.075649999 0.146338 -0.22799499
-0.075645998 0.14641 -0.228007
-0.075643003 0.14648201 -0.228011
-0.075640999 0.146552 -0.228
-0.07564 0.146624 -0.22797599
-0.075638004 0.146695 -0.22795001
-0.075635999 0.14676499 -0.227935
-0.075632997 0.146837 -0.227947
-0.075629003 0.146909 -0.227961
-0.075626001 0.146981 -0.227973
-0.075622998 0.147053 -0.22798
-0.075620003 0.14712501 -0.22796801
-0.075617999 0.14719699 -0.22796001
-0.075615004 0.147267 -0.227962
-0.075612001 0.147339 -0.227971
-0.075608999 0.147411 -0.227979
-0.075604998 0.14748301 -0.22798499
-0.075603001 0.14755499 -0.22797801
-0.075600997 0.147625 -0.227962
-0.075598001 0.147697 -0.22795799
-0.075594999 0.147769 -0.227974
-0.075591996 0.14784101 -0.227981
-0.075589001 0.14791299 -0.227975
-0.075585999 0.147985 -0.22797699
-0.075583003 0.148057 -0.22798599
-0.075580001 0.148127 -0.22799
-0.075577997 0.14819901 -0.22798
-0.075575002 0.14827099 -0.227966
-0.075571999 0.148343 -0.227971
-0.075570002 0.148414 -0.227963
-0.075567998 0.14848401 -0.22794899
-0.075565003 0.14855599 -0.22795799
-0.075561002 0.148628 -0.22796801
-0.075558998 0.1487 -0.227964
-0.075556003 0.148772 -0.22795799
-0.075553998 0.14884201 -0.227955
-0.075551003 0.14891399 -0.227957
-0.075548001 0.148986 -0.227953
-0.075544998 0.149058 -0.22795001
-0.075542003 0.14913 -0.227962
-0.075539 0.149202 -0.227966
-0.075537004 0.14927199 -0.227944
-0.075534999 0.149343 -0.227925
-0.075531997 0.149415 -0.22793099
-0.075529002 0.149488 -0.22794899
-0.075525001 0.14956 -0.22796001
-0.075521998 0.14963201 -0.227966
-0.075519003 0.14970399 -0.227972
-0.075516999 0.149774 -0.227962
-0.075515002 0.149845 -0.227943
-0.075511999 0.14991701 -0.227943
-0.075508997 0.14998899 -0.22794899
-0.075506002 0.150061 -0.227946
-0.075502999 0.150131 -0.227946
-0.075499997 0.150205 -0.22795799
-0.075497001 0.15027501 -0.22795799
-0.075494997 0.15034699 -0.227943
-0.075493 0.150419 -0.227933
-0.075489998 0.150491 -0.227937
-0.075487003 0.150563 -0.227943
-0.075484 0.150635 -0.227946
-0.075480998 0.15070499 -0.227944
-0.075478002 0.15077899 -0.227956
-0.075474001 0.150849 -0.227963
-0.075473003 0.150921 -0.22794101
-0.075470999 0.15098999 -0.227917
-0.075467996 0.151062 -0.227924
-0.075464003 0.15113699 -0.22793999
-0.075461999 0.151206 -0.227934
-0.075460002 0.151278 -0.227916
-0.075456999 0.15135001 -0.22791301
-0.075453997 0.15142199 -0.22792301
-0.075451002 0.151494 -0.227933
-0.075447999 0.151566 -0.22793099
-0.075446002 0.151636 -0.22791199
-0.075443998 0.15170699 -0.227902
-0.075439997 0.15177999 -0.22792201
-0.075436004 0.151852 -0.227935
-0.075433999 0.151924 -0.227925
-0.075432003 0.151996 -0.227915
-0.075429 0.152068 -0.22791301
-0.075425997 0.15213799 -0.22792
-0.075423002 0.15221199 -0.227924
-0.07542 0.152282 -0.227918
-0.075418003 0.152353 -0.22791301
-0.075415 0.15242501 -0.227909
-0.075413004 0.15249699 -0.22790299
-0.075410001 0.152569 -0.227907
-0.075406 0.152641 -0.227924
-0.075402997 0.152714 -0.227934
-0.075400002 0.152786 -0.22793201
-0.075397998 0.15285701 -0.227924
-0.075395003 0.15292899 -0.22792099
-0.075392 0.152999 -0.227917
-0.075390004 0.153071 -0.227909
-0.075387001 0.153143 -0.22790401
-0.075383998 0.15321501 -0.22790401
-0.075382002 0.15328699 -0.227906
-0.075378999 0.153357 -0.227901
-0.075377002 0.153428 -0.227887
-0.075374998 0.15350001 -0.22787499
-0.075372003 0.15357 -0.22787499
-0.075369 0.153642 -0.227874
-0.075365998 0.153714 -0.227872
-0.075363003 0.153788 -0.22788399
-0.07536 0.15386 -0.22789
-0.075356998 0.15392999 -0.227887
-0.075355001 0.154002 -0.227883
-0.075351998 0.154074 -0.227883
-0.075350001 0.154146 -0.22787
-0.075347997 0.15421499 -0.22783799
-0.075345002 0.154287 -0.22784001
-0.075342 0.154359 -0.22785901
-0.075338997 0.154431 -0.227855
-0.075337 0.154503 -0.227837
-0.075335003 0.154572 -0.22782101
-0.075332001 0.154644 -0.227824
-0.075328998 0.154716 -0.227824
-0.075327002 0.154788 -0.227818
-0.075323999 0.15486 -0.227817
-0.075320996 0.15493 -0.227819
-0.075318001 0.155002 -0.227817
-0.075315997 0.155074 -0.227817
-0.075313002 0.155146 -0.227816
-0.075309999 0.15521801 -0.227808
-0.075308003 0.15528899 -0.2278
-0.075305998 0.155359 -0.227791
-0.075303003 0.155431 -0.227787
-0.075300001 0.155503 -0.227787
-0.075296998 0.15557501 -0.22779299
-0.075294003 0.15564699 -0.22780199
-0.075291 0.155719 -0.227798
-0.075289004 0.155791 -0.227782
-0.075287998 0.15586001 -0.227761
-0.075286001 0.15593 -0.227745
-0.075282998 0.156002 -0.22773699
-0.075281002 0.15607101 -0.22772799
-0.075277999 0.15614299 -0.22772001
-0.075276002 0.156215 -0.227714
-0.075273 0.156287 -0.227708
-0.075271003 0.15635701 -0.22769099
-0.075269997 0.156426 -0.22766501
-0.075268 0.156498 -0.22765499
-0.075264998 0.15656701 -0.227648
-0.075263001 0.15663899 -0.22764
-0.075259998 0.156711 -0.22764
-0.075257003 0.156781 -0.227633
-0.075254999 0.15685301 -0.227625
-0.075251997 0.15692499 -0.227625
-0.07525 0.156997 -0.227622
-0.075246997 0.157066 -0.227614
-0.075245 0.157138 -0.227604
-0.075243004 0.157208 -0.227586
-0.075240999 0.157277 -0.227567
-0.075239003 0.15734901 -0.22755501
-0.075236 0.15742099 -0.22755501
-0.075232998 0.157493 -0.22755601
-0.075231001 0.157565 -0.22755
-0.075227998 0.157635 -0.22754601
-0.075226001 0.15770601 -0.227533
-0.075223997 0.157776 -0.227507
-0.075222999 0.15784501 -0.227483
-0.075221002 0.157915 -0.22747
-0.075218 0.157987 -0.22746
-0.075216003 0.15805601 -0.22745
-0.075213999 0.15812799 -0.227437
-0.075212002 0.158196 -0.227415
-0.075211003 0.15826701 -0.227393
-0.075208001 0.158337 -0.22738799
-0.075204998 0.158411 -0.22739799
-0.075202003 0.158483 -0.227404
-0.075199001 0.158555 -0.22740801
-0.075195998 0.158627 -0.227401
-0.075194001 0.15869699 -0.227385
-0.075191997 0.158766 -0.227367
-0.07519 0.15883601 -0.227354
-0.075188003 0.15890799 -0.227348
-0.075185001 0.15898 -0.22734
-0.075182997 0.159049 -0.22732501
-0.075181 0.159119 -0.227313
-0.075179003 0.159188 -0.227295
-0.075176999 0.15926 -0.227282
-0.075175002 0.15933 -0.227272
-0.075172 0.159402 -0.227268
-0.075168997 0.159474 -0.22727001
-0.075166002 0.159546 -0.227273
-0.075163998 0.15961801 -0.227265
-0.075162001 0.159687 -0.227253
-0.075158998 0.159757 -0.22724
-0.075157002 0.15982901 -0.22723199
-0.075154997 0.159898 -0.227222
-0.075153001 0.159968 -0.22720499
-0.075150996 0.16004001 -0.227189
-0.075148001 0.16011 -0.227185
-0.075144999 0.160181 -0.227184
-0.075143002 0.160253 -0.22717801
-0.075139999 0.16032501 -0.227182
-0.075135998 0.1604 -0.227192
-0.075133003 0.16047201 -0.22719701
-0.075130999 0.160541 -0.227185
-0.075129002 0.160613 -0.227173
-0.075126998 0.16068301 -0.22716799
-0.075124003 0.16075499 -0.227156
-0.075121999 0.160824 -0.22713999
-0.075121 0.16089199 -0.227111
-0.075119004 0.160961 -0.22708701
-0.075116999 0.161033 -0.227083
-0.075112998 0.161107 -0.22710501
-0.075108998 0.161182 -0.22712401
-0.075106002 0.161254 -0.22712199
-0.075103998 0.16132499 -0.227118
-0.075101003 0.161395 -0.22711401
-0.075098999 0.161467 -0.22710299
-0.075096004 0.161539 -0.22710501
-0.075092003 0.161613 -0.22712301
-0.075089 0.161686 -0.227136
-0.075085998 0.16176 -0.227138
-0.075083002 0.161832 -0.227138
-0.07508 0.16190401 -0.22714201
-0.075076997 0.16197599 -0.227147
-0.075074002 0.162048 -0.227147
-0.075071 0.162122 -0.227157
-0.075066999 0.162196 -0.227175
-0.075062998 0.162269 -0.22718699
-0.075060003 0.162343 -0.22719599
-0.075057 0.16241699 -0.22720601
-0.075052999 0.162489 -0.22721601
-0.075051002 0.162561 -0.22721399
-0.075047001 0.162635 -0.227229
-0.075042002 0.16271199 -0.227263
-0.075038999 0.16278601 -0.227283
-0.075034998 0.162863 -0.22729699
-0.075030997 0.162937 -0.227311
-0.075026996 0.163011 -0.22733399
-0.075023003 0.16308799 -0.227356
-0.075019002 0.163165 -0.227386
-0.075014003 0.163241 -0.227414
-0.075011 0.163315 -0.227432
-0.075006001 0.16339201 -0.227458
-0.075002 0.163469 -0.227488
-0.074997999 0.163545 -0.22751699
-0.074992999 0.163624 -0.22755501
-0.074987002 0.16370299 -0.22760101
-0.074983001 0.16378 -0.227633
-0.074978001 0.163856 -0.227663
-0.074973002 0.16393501 -0.227705
-0.074966997 0.164019 -0.22776701
-0.074959002 0.16410699 -0.227865
-0.074951999 0.16419201 -0.22794899
-0.074946001 0.16427401 -0.228009
