-0.048831 -0.0306288 0.998337 0
-0.0505431 -0.0306616 0.998251 0.00200563
-0.0541896 -0.0315017 0.998034 0.00153174
-0.0526539 -0.0345865 0.998014 0
-0.0539985 -0.0327782 0.998003 0
-0.0537568 -0.0314749 0.998058 0
-0.0505318 -0.0310983 0.998238 0
-0.0500185 -0.0314521 0.998253 0
-0.0522858 -0.0313764 0.998139 0
-0.0543502 -0.0334635 0.997961 0
-0.052966 -0.0347176 0.997993 0
-0.053386 -0.0341146 0.997991 0.00166715
-0.0546893 -0.035622 0.997868 0.00182176
-0.05443 -0.0331023 0.997969 0.0017332
-0.0584482 -0.0328462 0.99775 0.00829288
-0.0582571 -0.0326135 0.997769 0.00490517
-0.0555717 -0.0332697 0.9979 0.00674739
-0.053306 -0.0337187 0.998009 0.00468302
-0.0552657 -0.0352448 0.997849 0.00497563
-0.0571648 -0.0344581 0.99777 0.0067104
-0.0587257 -0.0335677 0.99771 0.00600336
-0.0588466 -0.033459 0.997706 0.00700044
-0.0566031 -0.0359076 0.997751 0.00129288
-0.0547181 -0.0345298 0.997905 0.00127776
-0.0560236 -0.0358704 0.997785 0.00147205
-0.0551594 -0.0374322 0.997776 0.00197841
-0.0557854 -0.036897 0.997761 0
-0.0565118 -0.0369392 0.997718 0.000428403
-0.0548997 -0.0362537 0.997833 0.00168268
-0.0562175 -0.0355562 0.997785 0.0026
-0.0571465 -0.0348798 0.997756 0.0032355
-0.0589273 -0.035588 0.997628 0.00449073
-0.058478 -0.0372638 0.997593 0.00416023
-0.0583104 -0.0376387 0.997589 0.00599987
-0.058643 -0.0370213 0.997592 0.00708497
-0.0599208 -0.0353453 0.997577 0.00475244
-0.061961 -0.0354193 0.99745 0.00682264
-0.061128 -0.0347336 0.997525 0.00614702
-0.058954 -0.0350935 0.997644 0.00207536
-0.0615611 -0.0320698 0.997588 0.0058657
-0.0613195 -0.034947 0.997506 0.00365962
-0.0608454 -0.0403326 0.997332 0.00251953
-0.0608385 -0.0416151 0.99728 0.00228629
-0.0603567 -0.0375163 0.997472 0
-0.0583706 -0.0387718 0.997542 0
-0.0560135 -0.0369762 0.997745 0
-0.0581629 -0.0318851 0.997798 0
-0.0581211 -0.0355337 0.997677 0
-0.0583703 -0.0395817 0.99751 0
-0.058792 -0.0377513 0.997556 0
-0.0602771 -0.0363032 0.997521 0
-0.0614557 -0.0375284 0.997404 0
-0.0657998 -0.0339135 0.997256 0.00374478
-0.0654556 -0.0305949 0.997386 0.00289943
-0.0617982 -0.0296051 0.997649 0.000165979
-0.0591434 -0.0325828 0.997718 0
-0.0584372 -0.0335395 0.997728 0.00093669
-0.0558164 -0.0303763 0.997979 0
-0.0583306 -0.025317 0.997976 0.00112395
-0.0551668 -0.0296477 0.998037 0
-0.0581653 -0.0221413 0.998061 0.00449011
-0.0551827 -0.0248774 0.998166 0.00280357
-0.0551785 -0.0236513 0.998196 0.00280708
-0.0587337 -0.0185457 0.998101 0.00467777
-0.0563899 -0.0204525 0.998199 0.00533221
-0.0546842 -0.01982 0.998307 0.00584193
-0.0552848 -0.0183864 0.998301 0.00655547
-0.0538105 -0.0187919 0.998374 0.00640822
-0.0536515 -0.0216125 0.998326 0.00487912
-0.0525083 -0.0223544 0.99837 0.00516606
-0.0481733 -0.025266 0.998519 0.00142362
-0.0486444 -0.0334216 0.998257 0
-0.0496202 -0.0317546 0.998263 0.000523747
-0.0495196 -0.0379028 0.998054 0
-0.0479584 -0.0320218 0.998336 0
-0.0467524 -0.0311841 0.99842 0
-0.0486342 -0.0351002 0.9982 0.000944648
-0.0509317 -0.030134 0.998247 0.000812548
-0.0479499 -0.030125 0.998395 0.000766719
-0.0493646 -0.0318219 0.998274 0
-0.0542738 -0.0276523 0.998143 0.00158649
-0.0535091 -0.0304233 0.998104 0
-0.0521718 -0.0342459 0.998051 0
-0.0523332 -0.0337687 0.998059 0
-0.0530581 -0.0298778 0.998144 0
-0.0531403 -0.0306429 0.998117 0
-0.0526913 -0.0296778 0.99817 0
-0.0505766 -0.0315693 0.998221 0
-0.0512805 -0.0306312 0.998214 0
-0.0524323 -0.0267057 0.998267 0
-0.0498077 -0.0282784 0.998358 0
-0.0487966 -0.0323572 0.998284 0
-0.0501556 -0.028793 0.998326 0
-0.0529267 -0.0290938 0.998174 0
-0.0532946 -0.0299507 0.99813 0
-0.0522247 -0.0229437 0.998372 0
-0.0549894 -0.0209536 0.998267 0.00136022
-0.0530702 -0.0222596 0.998343 0
-0.050804 -0.0230975 0.998441 0
-0.0542531 -0.0179137 0.998367 0
-0.0553117 -0.0209033 0.99825 0
-0.0551031 -0.0196139 0.998288 0.00429441
-0.0564338 -0.0218937 0.998166 0.00560898
-0.0574703 -0.0197515 0.998152 0.00858628
-0.0566583 -0.0236443 0.998114 0.00697367
-0.0577943 -0.0257312 0.997997 0.00889912
-0.0586478 -0.0248548 0.997969 0.00877246
-0.061159 -0.0244132 0.997829 0.0109264
-0.0612127 -0.0258391 0.99779 0.012202
-0.0605559 -0.0246975 0.997859 0.0103869
-0.0643619 -0.0214286 0.997697 0.0158104
-0.0626529 -0.0201754 0.997831 0.0160207
-0.0618342 -0.0202322 0.997881 0.014399
-0.058722 -0.0198466 0.998077 0.0138453
-0.0575993 -0.0222488 0.998092 0.0143601
-0.0591762 -0.0191894 0.998063 0.0148787
-0.0591757 -0.0258163 0.997914 0.0105863
-0.0545088 -0.0310204 0.998031 0.00543973
-0.056554 -0.0268762 0.998038 0.00878495
-0.0595861 -0.0243605 0.997926 0.0114962
-0.0592124 -0.026051 0.997905 0.0117781
-0.0592728 -0.0273043 0.997868 0.0142328
-0.0559766 -0.0272276 0.998061 0.0118626
-0.0557869 -0.0253592 0.998121 0.0146369
-0.0537946 -0.021966 0.99831 0.0148066
-0.0569248 -0.02096 0.998158 0.0140544
-0.0562196 -0.0194537 0.998229 0.0135452
-0.0571 -0.0201574 0.998165 0.0154645
-0.0590434 -0.0233635 0.997982 0.0155619
-0.0584087 -0.0263417 0.997945 0.014177
-0.0562742 -0.029451 0.997981 0.0115348
-0.052869 -0.0284494 0.998196 0.00699727
-0.04969 -0.0336935 0.998196 0.00127101
-0.0496022 -0.0338934 0.998194 0.00233714
-0.0536126 -0.0303783 0.9981 0.00792168
-0.0529846 -0.0319842 0.998083 0.009275
-0.0480899 -0.0374937 0.998139 0.0082632
-0.0475551 -0.0381931 0.998138 0.00594564
-0.0508072 -0.0397686 0.997916 0.00578218
-0.0537347 -0.0393437 0.99778 0.0115295
-0.0512149 -0.0396015 0.997902 0.0103014
-0.0492271 -0.0416167 0.99792 0.0079987
-0.0513862 -0.0423415 0.997781 0.00790637
-0.0480605 -0.0409094 0.998006 0.00881948
-0.0504441 -0.0406168 0.997901 0.00830189
-0.053901 -0.0399774 0.997746 0.0130729
-0.0506916 -0.0427219 0.9978 0.0105035
-0.0487226 -0.0436108 0.99786 0.00765818
-0.0510373 -0.0436157 0.997744 0.00712921
-0.0572374 -0.0391273 0.997594 0.0146533
-0.0561809 -0.0392414 0.997649 0.0148666
-0.0540085 -0.0432752 0.997602 0.0123143
-0.0532431 -0.0431199 0.99765 0.0127457
-0.0517044 -0.0464192 0.997583 0.0114844
-0.0479238 -0.0489621 0.99765 0.0108768
-0.0463737 -0.0531416 0.99751 0.00717826
-0.0482884 -0.0545167 0.997345 0.00411682
-0.0518022 -0.0546073 0.997163 0.00487616
-0.0520755 -0.0571643 0.997006 0.00523802
-0.0495546 -0.0576494 0.997106 0.00625918
-0.0501385 -0.0553138 0.997209 0.00738218
-0.0500971 -0.0579009 0.997065 0.00833914
-0.0490948 -0.0611615 0.99692 0.00660657
-0.0465766 -0.062379 0.996965 0.001623
-0.0473801 -0.0647722 0.996775 0.00291726
-0.0481853 -0.0676242 0.996547 0.00138835
-0.0494011 -0.0698082 0.996336 0.00447693
-0.0467832 -0.073837 0.996172 0.00053286
-0.0410675 -0.076644 0.996212 0
-0.0445771 -0.0806272 0.995747 0.00248742
-0.0422479 -0.0889631 0.995139 0
-0.0416788 -0.0902046 0.995051 0.00075463
-0.0428828 -0.0953642 0.994518 0
-0.0424039 -0.0971665 0.994364 0
-0.0437217 -0.0972061 0.994303 0.000252479
-0.042182 -0.0966827 0.994421 0.000863941
-0.0451548 -0.0948958 0.994463 0.00423793
-0.0451065 -0.0917232 0.994762 0.00563312
-0.0425151 -0.0957286 0.994499 0.00083476
-0.0403897 -0.0974793 0.994418 0
-0.0394283 -0.0995988 0.994246 0.000148751
-0.0373608 -0.099804 0.994305 0.00133555
-0.037137 -0.10064 0.99423 0
-0.0400881 -0.100037 0.994176 0.00623313
-0.0418792 -0.104918 0.993599 0.0067254
-0.044465 -0.102845 0.993703 0.00575469
-0.0438887 -0.103598 0.99365 0.00550844
-0.0488784 -0.102035 0.993579 0.0114033
-0.0456589 -0.0996542 0.993974 0.00874466
-0.0469451 -0.103498 0.993521 0.00728023
-0.0430102 -0.10403 0.993644 0.0037907
-0.0411927 -0.103754 0.993749 0.0042885
-0.0417628 -0.105388 0.993554 0.00357188
-0.0438133 -0.1061 0.99339 0.00555933
-0.0434759 -0.104457 0.993579 0.00550298
-0.0395777 -0.107573 0.993409 0.00348799
-0.0394871 -0.107736 0.993395 0.00103748
-0.0406959 -0.110493 0.993043 0
-0.0407041 -0.11279 0.992785 0
-0.0400186 -0.114164 0.992656 0
-0.0393103 -0.113475 0.992763 0
-0.0411934 -0.116027 0.992391 0
-0.0402677 -0.115211 0.992525 0
-0.0404871 -0.116609 0.992352 0
-0.0422903 -0.118404 0.992064 0
-0.0453996 -0.119809 0.991758 0
-0.0445899 -0.122918 0.991414 0
-0.0472123 -0.122868 0.991299 0
-0.0470814 -0.120883 0.99155 0
-0.0502087 -0.120564 0.991435 0.000371959
-0.0515473 -0.121285 0.991278 0.000111087
-0.0505626 -0.11833 0.991686 0.000201805
-0.0486714 -0.121793 0.991362 0
-0.0493753 -0.117341 0.991863 0.00185802
-0.052865 -0.117412 0.991675 0.00294633
-0.0553341 -0.114835 0.991842 0.00501682
-0.0559827 -0.120627 0.991118 0.00364287
-0.0553623 -0.119924 0.991238 0.00322948
-0.0565175 -0.116338 0.9916 0.00660778
-0.0608264 -0.113224 0.991706 0.0103751
-0.0604278 -0.110612 0.992025 0.00897088
-0.0590993 -0.113811 0.991743 0.00863928
-0.0623962 -0.1151 0.991392 0.00874827
-0.0659927 -0.114593 0.991218 0.0132874
-0.0646367 -0.117572 0.990958 0.0109435
-0.0663577 -0.116842 0.990931 0.0125124
-0.0650808 -0.115289 0.991198 0.00868126
-0.0653613 -0.11396 0.991333 0.00830909
-0.0695964 -0.11037 0.991451 0.0119639
-0.0697404 -0.105863 0.991932 0.0109484
-0.0703801 -0.102545 0.992235 0.0102739
-0.0707273 -0.0968833 0.992779 0.0122315
-0.0689103 -0.097345 0.992862 0.00824216
-0.0700983 -0.0972305 0.99279 0.00881647
-0.0721147 -0.0959304 0.992772 0.0102124
-0.0740112 -0.0950587 0.992717 0.0109554
-0.0758697 -0.0943005 0.992649 0.0123013
-0.0732196 -0.0919563 0.993067 0.00888959
-0.0749333 -0.0917947 0.992955 0.00802381
-0.0717711 -0.0894509 0.993402 0.00704833
-0.0754963 -0.0839192 0.993609 0.00763697
-0.0780287 -0.0782804 0.993873 0.00733476
-0.0738353 -0.0736714 0.994546 0.00706214
-0.0713725 -0.0722216 0.994832 0.00346679
-0.0689801 -0.0725957 0.994973 0.00307611
-0.0684037 -0.0706066 0.995156 0
-0.0685212 -0.0679905 0.99533 0
-0.0679081 -0.0685324 0.995335 0
-0.0681671 -0.0676048 0.995381 0
-0.0683519 -0.0644839 0.995575 0.000118257
-0.0698501 -0.0609437 0.995694 0.00166329
-0.0688704 -0.0585045 0.995909 0.0024194
-0.0692007 -0.0585802 0.995881 0.00296977
-0.0639401 -0.0588409 0.996218 0.00116312
-0.06383 -0.0623535 0.996011 0.00158285
-0.0632627 -0.0597457 0.996207 0.00495581
-0.0616389 -0.0586889 0.996372 0.00322867
-0.063771 -0.058573 0.996244 0.00528093
-0.0650625 -0.0546204 0.996385 0.00390318
-0.0633173 -0.0514589 0.996666 0.00226611
-0.0636128 -0.048129 0.996813 0.00151656
-0.0625574 -0.0438502 0.997078 0.00260945
-0.059856 -0.0426424 0.997296 0.00210937
-0.0611098 -0.0448944 0.997121 0.00304887
-0.0627427 -0.0437122 0.997072 0.00438107
-0.0619157 -0.0437912 0.99712 0.00618046
-0.0614214 -0.0410249 0.997268 0.00792184
-0.0604357 -0.0434296 0.997227 0.0077213
-0.0616406 -0.0425074 0.997193 0.00821286
-0.0646621 -0.0333368 0.99735 0.0144478
-0.0661807 -0.0259607 0.99747 0.0194104
-0.0694852 -0.0258592 0.997248 0.0201613
-0.0675169 -0.0232683 0.997447 0.0154818
-0.0657434 -0.0205329 0.997625 0.0130099
-0.0669594 -0.0196998 0.997561 0.0107389
-0.0649064 -0.0176168 0.997736 0.00975842
-0.0666074 -0.0108004 0.997721 0.0120842
-0.0640882 -0.0103384 0.997891 0.0129038
-0.0645523 -0.0056623 0.997898 0.0150662
-0.0643299 -0.00154619 0.997927 0.0163144
-0.0632408 -0.00128488 0.997997 0.0128201
-0.0607212 0.0018052 0.998153 0.0121622
-0.0631935 0.011539 0.997935 0.0119448
-0.060556 0.01321 0.998077 0.0113069
-0.0619592 0.0198525 0.997881 0.0115364
-0.0653003 0.0268177 0.997505 0.0123218
-0.0639653 0.0287728 0.997537 0.010379
-0.0654393 0.0352569 0.997234 0.00912481
-0.0644116 0.0407435 0.997091 0.00713766
-0.0552878 0.0332732 0.997916 0.0022521
-0.0610324 0.0450748 0.997118 0.00552887
-0.0616961 0.0435363 0.997145 0.000421495
-0.061905 0.0453243 0.997052 0
-0.0646356 0.0462754 0.996835 0
-0.0631709 0.0521923 0.996637 0.00226584
-0.0638428 0.0607766 0.996108 0.0056253
-0.061604 0.0605779 0.996261 0.00407427
-0.0622906 0.0678967 0.995746 0.00492233
-0.0629644 0.076328 0.995093 0.00621
-0.064953 0.0832179 0.994412 0.00828428
-0.0666324 0.0924108 0.993489 0.00950646
-0.0637686 0.0911142 0.993797 0.00127471
-0.0612706 0.0926727 0.99381 0
-0.0606248 0.102217 0.992913 0
-0.0603529 0.104643 0.992677 0
-0.0589055 0.115606 0.991547 0
-0.0571941 0.116111 0.991588 0
-0.0576068 0.12704 0.990223 1.0818e-05
-0.0587223 0.13742 0.988771 0
-0.0496407 -0.207527 0.976969 0
-0.0519953 -0.204988 0.977382 0
-0.0540698 -0.200141 0.978274 0
-0.0502049 -0.19854 0.978806 0
-0.0493381 -0.194161 0.979728 0
-0.0501843 -0.197542 0.979009 0
-0.049305 -0.187784 0.980972 0
-0.0513495 -0.182549 0.981855 0
-0.0530961 -0.183119 0.981656 0
-0.053849 -0.173786 0.98331 0
-0.0545579 -0.169588 0.984004 0
-0.0566357 -0.165272 0.98462 0
-0.0563113 -0.158543 0.985745 0
-0.0564442 -0.15205 0.98676 0
-0.0567591 -0.155717 0.98617 0
-0.0583051 -0.144095 0.987845 0
-0.0591522 -0.142392 0.988041 0
-0.0601848 -0.137942 0.98861 0
-0.0626995 -0.128743 0.989694 0.00839471
-0.0629705 -0.130439 0.989455 0.00502843
-0.0645682 -0.122581 0.990356 0.00484767
-0.0675891 -0.118517 0.990649 0.0051425
-0.0688367 -0.118417 0.990575 0.00142241
-0.0696238 -0.113265 0.991122 0.00303348
-0.0667728 -0.110053 0.99168 0.00324397
-0.0679711 -0.11002 0.991602 0.00502026
-0.0710808 -0.109692 0.991421 0.00517749
-0.071801 -0.103607 0.992023 0.00870633
-0.0734665 -0.103244 0.991939 0.0110912
-0.0735653 -0.102916 0.991966 0.0125599
-0.0726743 -0.0999094 0.992339 0.0107279
-0.0766719 -0.0929516 0.992714 0.0161706
-0.0771245 -0.0890224 0.993039 0.016369
-0.0788456 -0.0871809 0.993067 0.0188951
-0.0806355 -0.0836301 0.993229 0.0194576
-0.0814018 -0.0800471 0.993462 0.0174045
-0.0845989 -0.0764906 0.993475 0.0199705
-0.0851351 -0.0761396 0.993456 0.0165125
-0.084048 -0.0717491 0.993875 0.0145683
-0.0821102 -0.0704318 0.994131 0.012217
-0.0841143 -0.0673348 0.994178 0.0111994
-0.0806475 -0.0663402 0.994533 0.00571266
-0.0798619 -0.0659774 0.99462 0.00560699
-0.0791735 -0.0653967 0.994713 0.00776849
-0.0744733 -0.0565568 0.995618 0.00959313
-0.0768418 -0.0599936 0.995237 0.0121328
-0.0799244 -0.0591752 0.995043 0.0164263
-0.0799035 -0.0554156 0.995261 0.0157671
-0.0812792 -0.0536798 0.995245 0.0153413
-0.079958 -0.0469624 0.995691 0.0155508
-0.0797042 -0.0428669 0.995896 0.014044
-0.0811967 -0.0438474 0.995733 0.01584
-0.085825 -0.0428633 0.995388 0.0159193
-0.0865793 -0.0341219 0.99566 0.0182516
-0.0856124 -0.0334481 0.995767 0.0179903
-0.0837467 -0.029931 0.996037 0.0159558
-0.0824435 -0.022338 0.996345 0.0187101
-0.0827356 -0.0237893 0.996288 0.0170425
-0.0839356 -0.0227505 0.996211 0.0169267
-0.0829409 -0.0211658 0.99633 0.0147123
-0.0818004 -0.0203961 0.99644 0.0142699
-0.0789466 -0.0245831 0.996576 0.00922023
-0.0814211 -0.0229067 0.996417 0.010145
-0.0755846 -0.0159308 0.997012 0.00925966
-0.074025 -0.0112171 0.997193 0.00413649
-0.0740766 -0.0125956 0.997173 0.00441954
-0.0748963 -0.00957612 0.997145 0.00714971
-0.0757941 -0.00918329 0.997081 0.00962544
-0.0728547 -0.00628671 0.997323 0.00870119
-0.0742766 -0.00534286 0.997223 0.00776883
-0.0772651 -0.00150387 0.997009 0.0119844
-0.0807705 0.00716743 0.996707 0.0154315
-0.0806901 0.0130733 0.996653 0.0153648
-0.0833548 0.0187058 0.996344 0.0187698
-0.0826233 0.0178731 0.996421 0.0178929
-0.0800187 0.0162652 0.996661 0.0158047
-0.0794364 0.0187639 0.996663 0.014257
-0.0782937 0.0211019 0.996707 0.0158168
-0.0741835 0.0204491 0.997035 0.00908723
-0.0777887 0.0237003 0.996688 0.0118602
-0.0781975 0.0243148 0.996641 0.0149324
-0.075343 0.028403 0.996753 0.0114312
-0.0750394 0.0318208 0.996673 0.0106485
-0.0772507 0.0279773 0.996619 0.00987305
-0.0774875 0.0275981 0.996611 0.0134096
-0.0804034 0.031133 0.996276 0.0161423
-0.0791313 0.0305993 0.996395 0.0134409
-0.0769686 0.0299501 0.996584 0.00981991
-0.0727414 0.02892 0.996931 0.0045757
-0.074782 0.0333616 0.996642 0.00942513
-0.073094 0.0323558 0.9968 0.00724662
-0.0708844 0.0286615 0.997073 0.00495263
-0.0713001 0.0297541 0.997011 0.0059371
-0.0738402 0.031247 0.99678 0.00914464
-0.0713075 0.0300753 0.997001 0.00725248
-0.0730497 0.0354025 0.9967 0.00920586
-0.0753784 0.0395642 0.99637 0.0132702
-0.0731809 0.0396344 0.996531 0.0120604
-0.0647462 0.0353282 0.997276 0.00568722
-0.0620908 0.0325756 0.997539 0.00413789
-0.0611101 0.032339 0.997607 0.00561063
-0.0642718 0.0345127 0.997335 0.00888674
-0.0656555 0.0302003 0.997385 0.0110026
-0.0637491 0.0312111 0.997478 0.0100157
-0.065097 0.033855 0.997304 0.00957377
-0.0625641 0.0326206 0.997508 0.0063429
-0.0635798 0.0365469 0.997307 0.00722434
-0.0596864 0.0391099 0.997451 0.00495349
-0.059121 0.0376181 0.997542 0.00208661
-0.0591047 0.0389358 0.997492 0.00358236
-0.0552122 0.0351831 0.997855 0
-0.0564339 0.0318686 0.997898 0.00287444
-0.054884 0.0316389 0.997991 0
-0.0557473 0.0297828 0.998001 0
-0.0539008 0.021767 0.998309 0
-0.0540429 0.0250472 0.998224 0
-0.0545901 0.0222888 0.99826 0
-0.0564695 0.023572 0.998126 0
-0.0568425 0.0278671 0.997994 0.00125042
-0.0584914 0.0259802 0.99795 0.00135265
-0.0584941 0.0251796 0.99797 0.00324298
-0.0573604 0.0230605 0.998087 0
-0.0544017 0.0160808 0.99839 0
-0.0541308 0.0139689 0.998436 0
-0.0545457 0.0152073 0.998395 0
-0.0550829 0.00924536 0.998439 0
-0.0534816 0.00800532 0.998537 0
-0.0539969 0.00526656 0.998527 0
-0.0515363 0.00232679 0.998668 0
-0.0500879 0.00324986 0.998739 0
-0.0548995 0.00846172 0.998456 0
-0.0545424 0.00471749 0.9985 0.000890932
-0.053948 0.00540738 0.998529 0
-0.0522155 0.003813 0.998629 0
-0.052732 0.000342386 0.998609 0
-0.0522952 0.00104474 0.998631 0
-0.0519612 -0.0036109 0.998643 0
-0.0512229 -0.00527312 0.998673 0
-0.0498544 -0.00510451 0.998743 0
-0.0470681 -0.00788362 0.998861 0
-0.0501327 -0.00701991 0.998718 0
-0.0549006 -0.00371937 0.998485 0.00165258
-0.0523035 -0.00317978 0.998626 0.00232354
-0.0513239 -0.00448546 0.998672 0.00299018
-0.0554387 -0.000917672 0.998462 0.00837333
-0.0556264 -0.00196868 0.99845 0.011801
-0.0593731 -0.00225095 0.998233 0.0133513
-0.0562586 -0.00660498 0.998394 0.00887059
-0.0525618 -0.0107162 0.99856 0.00547493
-0.051457 -0.0132206 0.998588 0.00381622
-0.05157 -0.0147586 0.99856 0.00572835
-0.0519928 -0.0116698 0.998579 0.00568503
-0.0525492 -0.0123224 0.998542 0.00486828
-0.0537751 -0.0139193 0.998456 0.00788962
-0.0497904 -0.0176266 0.998604 0.00306281
-0.0490486 -0.0151175 0.998682 0.00162467
-0.0467838 -0.0228348 0.998644 0
-0.0497764 -0.0249242 0.998449 0.000492993
-0.0524125 -0.0178776 0.998465 0.00362622
-0.0541174 -0.0167248 0.998395 0.00965831
-0.0500793 -0.0221862 0.998499 0.00506274
-0.0507042 -0.0223256 0.998464 0.000882902
-0.0515566 -0.0199533 0.998471 0.00153561
-0.0538725 -0.0196205 0.998355 0.00392802
-0.0520842 -0.0220434 0.998399 0.00166728
-0.0507252 -0.025189 0.998395 0
-0.0514893 -0.022732 0.998415 0
-0.0546428 -0.0235813 0.998227 0.00454744
-0.0556045 -0.0260623 0.998113 0.00531575
-0.0548057 -0.0274684 0.998119 0.00208217
-0.0549418 -0.0292868 0.99806 0.00221396
-0.0580389 -0.0271378 0.997945 0.00409186
-0.0576002 -0.0254703 0.998015 0.00436956
-0.0556043 -0.0284726 0.998047 0
-0.0584354 -0.0310061 0.99781 0
-0.064213 -0.0236347 0.997656 0.0050951
-0.0603811 -0.0285482 0.997767 0
-0.0601757 -0.0326507 0.997654 0
-0.0610758 -0.0302703 0.997674 0.00278593
-0.0594913 -0.034729 0.997624 0
-0.0590708 -0.0354505 0.997624 0
-0.0593526 -0.0367629 0.99756 0
-0.0593364 -0.0353097 0.997613 0
-0.0576037 -0.0354522 0.99771 0
-0.0611544 -0.0343328 0.997538 0.00141004
-0.062148 -0.0360673 0.997415 0.00132834
-0.0662336 -0.0291787 0.997377 0.00361849
-0.0678715 -0.0280016 0.997301 0.00635132
-0.0686523 -0.0290513 0.997218 0.00761733
-0.0660032 -0.0306869 0.997347 0.00625668
-0.0638827 -0.0360147 0.997307 0.00294704
-0.0644561 -0.038624 0.997173 0.00779271
-0.063912 -0.0377365 0.997242 0.00583724
-0.0622106 -0.0372196 0.997369 0.00415111
-0.0596263 -0.0400685 0.997416 0.00379936
-0.0604814 -0.0391511 0.997401 0.00641983
-0.0677527 -0.0312143 0.997214 0.0143118
-0.063945 -0.0310377 0.997471 0.0106234
-0.066023 -0.0313024 0.997327 0.0134232
-0.0658189 -0.0302741 0.997372 0.0125063
-0.0630688 -0.0286195 0.997599 0.00811552
-0.0665855 -0.0262712 0.997435 0.0140287
-0.0631566 -0.0278883 0.997614 0.00887976
-0.065577 -0.0311019 0.997363 0.0123177
-0.0622678 -0.0296198 0.99762 0.0118906
-0.0605158 -0.0328734 0.997626 0.00819537
-0.0580543 -0.0332382 0.99776 0.00443778
-0.0565295 -0.0301103 0.997947 0.00206279
-0.0593408 -0.0274178 0.997861 0.00639749
-0.0620684 -0.0247962 0.997764 0.0100262
-0.0602416 -0.021246 0.997958 0.00737735
-0.0581315 -0.026478 0.997958 0.00451852
-0.0594356 -0.0283147 0.997831 0.00438294
-0.0600475 -0.0247189 0.997889 0.00429494
-0.0712431 -0.0257867 0.997126 0.0153375
-0.0708624 -0.0281475 0.997089 0.0142332
-0.0685409 -0.0283712 0.997245 0.0134305
-0.0654323 -0.0272675 0.997484 0.0122615
-0.0672273 -0.0236826 0.997457 0.0124361
-0.0609906 -0.0280512 0.997744 0.00543527
-0.0641125 -0.0247554 0.997636 0.00763346
-0.0598302 -0.0272841 0.997836 0.00445121
-0.055488 -0.032068 0.997944 0
-0.0537593 -0.0317183 0.99805 0
-0.0561382 -0.0305864 0.997954 0
-0.0522433 -0.0313419 0.998142 0
-0.0601552 -0.0252389 0.99787 0.00623224
-0.0589705 -0.024915 0.997949 0.00663439
-0.0498047 -0.0304771 0.998294 0
-0.0516577 -0.0294227 0.998231 0.00173488
-0.0509099 -0.0295284 0.998267 0.00192054
-0.053259 -0.0299549 0.998131 0.00220436
-0.054654 -0.0297601 0.998062 0.00177897
-0.0573146 -0.0295731 0.997918 0.000137605
-0.0560292 -0.0274862 0.998051 0.00387234
-0.0561682 -0.03381 0.997849 0.00317941
-0.0547453 -0.0354231 0.997872 0.000363273
-0.0560128 -0.0368818 0.997749 0
-0.0533158 -0.0383643 0.99784 0
-0.0544744 -0.0377017 0.997803 0
-0.0524166 -0.0388721 0.997868 0
-0.052445 -0.0422913 0.997728 0
-0.0549488 -0.0385567 0.997744 0.00376234
-0.0538877 -0.0434145 0.997603 0.00301129
-0.0558765 -0.0405776 0.997613 0.00279826
-0.0527418 -0.0467366 0.997514 0
-0.0513261 -0.0483102 0.997513 0
-0.0556013 -0.0448333 0.997446 0
-0.0625763 -0.0382723 0.997306 0.00699483
-0.0626065 -0.0392686 0.997266 0.00654988
-0.0613197 -0.0410032 0.997276 0.00319631
-0.0566733 -0.0405787 0.997568 0.00268907
-0.0589495 -0.03645 0.997595 0.00418585
-0.0544783 -0.0386156 0.997768 0.00115611
-0.0576791 -0.0361339 0.997681 0.00399045
-0.0583434 -0.0357629 0.997656 0.00293108
-0.0576594 -0.0381585 0.997607 0
-0.0614898 -0.0379069 0.997388 0.00391654
-0.0596858 -0.0393439 0.997442 0
-0.0625898 -0.0382963 0.997304 0.00144875
-0.0653886 -0.0410309 0.997016 0.00285754
-0.0635412 -0.0390927 0.997213 0.00443388
-0.0619449 -0.0356711 0.997442 0.00356049
-0.0666439 -0.0361369 0.997122 0.00770103
-0.0700235 -0.033729 0.996975 0.0108652
-0.0686173 -0.035969 0.996994 0.00715673
-0.0645824 -0.0391122 0.997146 0.00361086
-0.0621285 -0.0382672 0.997334 0.00200613
-0.0597026 -0.0375921 0.997508 0
-0.0587123 -0.03716 0.997583 0
-0.0601468 -0.0384462 0.997449 0
-0.0645768 -0.0331056 0.997363 0
-0.0684077 -0.0291029 0.997233 0.000210801
-0.0665675 -0.0278359 0.997394 0
-0.0615685 -0.0321605 0.997585 0
-0.0658738 -0.0311747 0.997341 0
-0.0678011 -0.0291894 0.997272 0
-0.0657694 -0.0321084 0.997318 0
-0.0654698 -0.0340492 0.997273 0
-0.0648299 -0.0317077 0.997392 0
-0.0625955 -0.0309511 0.997559 0.00034407
-0.0684522 -0.0272351 0.997283 0.00468912
-0.0710951 -0.0228223 0.997208 0.00621417
-0.0720725 -0.0223474 0.997149 0.0090036
-0.0698521 -0.0216572 0.997322 0.00838308
-0.0687951 -0.0211514 0.997407 0.00800621
-0.0665654 -0.0198438 0.997585 0.00499934
-0.0671753 -0.0192145 0.997556 0.00557537
-0.0631258 -0.0200996 0.997803 0.00189664
-0.0606783 -0.0188733 0.997979 0.00299179
-0.0584572 -0.0212357 0.998064 0.00449771
-0.0619972 -0.0198821 0.997878 0.0106513
-0.0598333 -0.022746 0.997949 0.00817412
-0.0607011 -0.0219451 0.997915 0.00816975
-0.0614719 -0.0245795 0.997806 0.00986212
-0.0647043 -0.0243422 0.997608 0.0149193
-0.0638402 -0.0223315 0.99771 0.0159376
-0.0612644 -0.0271873 0.997751 0.0129296
-0.0625287 -0.0271527 0.997674 0.0138826
-0.0625335 -0.0270427 0.997676 0.0127306
-0.0597675 -0.0300349 0.99776 0.00883352
-0.0583839 -0.0316562 0.997792 0.00531414
-0.0568772 -0.0315325 0.997883 0.00306925
-0.0565965 -0.0293272 0.997966 0.00531237
-0.0523374 -0.0331576 0.998079 0
-0.0536751 -0.0299548 0.998109 0
-0.0533103 -0.031887 0.998069 0
-0.0483998 -0.0331406 0.998278 0
-0.0517641 -0.0309137 0.998181 0
-0.0531828 -0.0274773 0.998207 0
-0.0550966 -0.0301692 0.998025 0
-0.0587705 -0.0298992 0.997824 0
-0.0579774 -0.0282732 0.997917 0
-0.0554883 -0.0259562 0.998122 0
-0.0592092 -0.0229623 0.997981 0
-0.0590628 -0.0235435 0.997977 0
-0.0566399 -0.0286207 0.997984 0
-0.053858 -0.0291169 0.998124 0
-0.0543628 -0.0255992 0.998193 0
-0.0573294 -0.0217995 0.998117 0.00182012
-0.0551975 -0.0235072 0.998199 0
-0.0525676 -0.0231545 0.998349 0
-0.0539566 -0.021847 0.998304 0
-0.0512857 -0.0231277 0.998416 0
-0.0514811 -0.0257471 0.998342 0
-0.056424 -0.0234383 0.998132 0
-0.0611205 -0.0214148 0.997901 0.00469227
-0.0598555 -0.023445 0.997932 0.00694084
-0.0598042 -0.0246688 0.997905 0.00556486
-0.059382 -0.0246241 0.997932 0.0064326
-0.0529186 -0.0283463 0.998196 0.00235034
-0.056326 -0.0278133 0.998025 0.00238327
-0.0564047 -0.0278297 0.99802 0.00171863
-0.0540046 -0.0303775 0.998079 0
-0.0561095 -0.0319799 0.997912 0
-0.0534268 -0.0289209 0.998153 0
-0.0556487 -0.0239733 0.998163 0.00088183
-0.0543292 -0.0268516 0.998162 0.000654236
-0.0543085 -0.0270475 0.998158 0
-0.0527002 -0.0279907 0.998218 0.000468632
-0.0539257 -0.0267457 0.998187 0.00375337
-0.0550392 -0.0229356 0.998221 0.00679779
-0.0541375 -0.023993 0.998245 0.00620895
-0.0520459 -0.0302682 0.998186 0.00347134
-0.0576268 -0.0252707 0.998018 0.00913538
-0.0641425 -0.0191802 0.997756 0.0172584
-0.0644138 -0.0213237 0.997695 0.0174879
-0.0570228 -0.0262787 0.998027 0.0130914
-0.0509702 -0.0296039 0.998261 0.00591768
-0.0543391 -0.0294856 0.998087 0.00731385
-0.0566004 -0.0277926 0.99801 0.0119046
-0.0550285 -0.0273665 0.99811 0.00800233
-0.0539303 -0.027162 0.998175 0.00969769
-0.0525331 -0.025393 0.998296 0.00852203
-0.0550714 -0.0257024 0.998151 0.0113038
-0.0535891 -0.0257965 0.99823 0.00892593
-0.0576051 -0.0253173 0.998018 0.0127514
-0.0561001 -0.0269027 0.998063 0.0133221
-0.0537588 -0.0287887 0.998139 0.0110994
-0.0526643 -0.0294023 0.998179 0.00920918
-0.050233 -0.0342777 0.998149 0.00743491
-0.0468706 -0.0400218 0.998099 0.00307642
-0.0491138 -0.0391372 0.998026 0.00821931
-0.0517119 -0.0396259 0.997876 0.0110343
-0.0542065 -0.0348944 0.99792 0.0169304
-0.0534121 -0.0331806 0.998021 0.0167091
-0.0546787 -0.0350455 0.997889 0.017396
-0.0534894 -0.0412165 0.997717 0.0107893
-0.0510433 -0.0463118 0.997622 0.00714473
-0.05519 -0.042667 0.997564 0.0135263
-0.0548594 -0.0398094 0.9977 0.015241
-0.0530995 -0.042149 0.997699 0.0111758
-0.0547298 -0.043041 0.997573 0.0106727
-0.0529649 -0.0453696 0.997565 0.00702092
-0.0509549 -0.0451775 0.997679 0.0051657
-0.0507333 -0.0422324 0.997819 0.00979374
-0.0514505 -0.0452743 0.997649 0.00857632
-0.0515595 -0.0480609 0.997513 0.00906134
-0.0505242 -0.0468435 0.997624 0.00553204
-0.0535943 -0.0482834 0.997395 0.0102184
-0.0571357 -0.0442602 0.997385 0.012702
-0.0589333 -0.0450515 0.997245 0.0130751
-0.0585731 -0.0464982 0.9972 0.0140306
-0.0586637 -0.0462623 0.997205 0.0135079
-0.0530181 -0.0516789 0.997255 0.00839682
-0.0532697 -0.0520345 0.997224 0.00934226
-0.0568847 -0.0489712 0.997179 0.0102189
-0.0531364 -0.0557836 0.997028 0.0029905
-0.0490811 -0.0582276 0.997096 0.00071743
-0.0497864 -0.0619262 0.996838 0
-0.0483848 -0.0659084 0.996652 0
-0.0447492 -0.0690714 0.996608 0
-0.0456481 -0.0692686 0.996553 0
-0.0482666 -0.0723609 0.99621 0.000262438
-0.0470675 -0.0784078 0.99581 0
-0.0470102 -0.081875 0.995533 0
-0.0441153 -0.0880499 0.995139 0
-0.0412232 -0.0920274 0.994903 0
-0.0406683 -0.0928586 0.994848 0
-0.0390949 -0.0950614 0.994703 0
-0.04449 -0.0953048 0.994453 0
-0.0444885 -0.0974611 0.994245 0
-0.0419294 -0.095722 0.994525 0
-0.0427583 -0.100658 0.994002 0
-0.041445 -0.0994808 0.994176 0
-0.0428955 -0.0979328 0.994268 0.00063164
-0.0436247 -0.0959606 0.994429 0.00349292
-0.0418074 -0.0994741 0.994162 0
-0.0436367 -0.0980205 0.994227 0.000117929
-0.0473937 -0.0964342 0.99421 0.00820525
-0.0458613 -0.0996694 0.993963 0.0104355
-0.0454106 -0.101958 0.993752 0.00664904
-0.042253 -0.102798 0.993804 0
-0.0409614 -0.10756 0.993354 0
-0.0434367 -0.105525 0.993468 0.00349197
-0.0447845 -0.102416 0.993733 0.00422631
-0.0464452 -0.104489 0.993441 0.00805323
-0.0435073 -0.107723 0.993228 0.00234085
-0.0428703 -0.107903 0.993237 0.00328227
-0.0432209 -0.110075 0.992983 0.00645725
-0.0413403 -0.111846 0.992865 0.00272118
-0.041557 -0.108307 0.993249 0
-0.04392 -0.110126 0.992947 0.000253176
-0.0442129 -0.11022 0.992923 0.00391484
-0.0476187 -0.110367 0.99275 0.00504359
-0.0495647 -0.113159 0.99234 0.00373502
-0.0496369 -0.111777 0.992493 0.00462353
-0.0541496 -0.111866 0.992247 0.00901633
-0.0487083 -0.11677 0.991964 0.00160856
-0.052842 -0.11402 0.992072 0.00434931
-0.053842 -0.116638 0.991714 0.00458484
-0.0518094 -0.120496 0.991361 0.00189313
-0.0499054 -0.118138 0.991742 0.00120046
-0.0456757 -0.117614 0.992008 0
-0.0480399 -0.121065 0.991481 0
-0.0536106 -0.117269 0.991652 0.00350015
-0.0570001 -0.113932 0.991852 0.00713224
-0.0581151 -0.116358 0.991506 0.00765944
-0.0599216 -0.115548 0.991493 0.00907269
-0.0576793 -0.117676 0.991376 0.00853971
-0.0613366 -0.118354 0.991075 0.00866658
-0.0636328 -0.118148 0.990955 0.0103442
-0.063478 -0.117569 0.991034 0.00852324
-0.0660463 -0.114888 0.99118 0.0132672
-0.0642557 -0.11813 0.990917 0.00997837
-0.0641905 -0.120163 0.990677 0.00831873
-0.0672396 -0.116529 0.990909 0.00985051
-0.0674144 -0.119087 0.990593 0.0109046
-0.0695278 -0.119451 0.990403 0.0118163
-0.0760844 -0.115133 0.990432 0.0159401
-0.0801153 -0.112455 0.990422 0.0181404
-0.0775682 -0.114474 0.990393 0.0155881
-0.081776 -0.109297 0.99064 0.0206393
-0.0864433 -0.10829 0.990354 0.0225747
-0.0838894 -0.106932 0.990721 0.0188848
-0.0801998 -0.103613 0.991379 0.0146479
-0.0811338 -0.104529 0.991207 0.0132584
-0.0838389 -0.101155 0.991332 0.0161008
-0.082059 -0.100784 0.991518 0.013159
-0.0792629 -0.103165 0.991501 0.00736878
-0.0824907 -0.0993728 0.991625 0.00905411
-0.0776371 -0.100891 0.991864 0.00478027
-0.082814 -0.0960742 0.991923 0.00967572
-0.0853913 -0.0949336 0.991814 0.0121908
-0.0873718 -0.089207 0.992173 0.01494
-0.083914 -0.0900171 0.992399 0.00939662
-0.0851725 -0.0851707 0.992719 0.0107134
-0.0861866 -0.0778578 0.993232 0.0105658
-0.0860323 -0.0768252 0.993326 0.00864683
-0.078839 -0.0756116 0.994016 0.00255023
-0.0778941 -0.0738878 0.99422 0.00149684
-0.0755149 -0.0719218 0.994547 0
-0.0761582 -0.0690033 0.994705 0.000744165
-0.0751999 -0.0697729 0.994724 0
-0.0747591 -0.0667402 0.994966 0.00095804
-0.0789363 -0.0651931 0.994746 0.00170234
-0.0779962 -0.0652422 0.994817 0.000839368
-0.0778949 -0.0645436 0.99487 0.00281771
-0.0776943 -0.066048 0.994787 0.00173811
-0.0769811 -0.0648292 0.994923 0.00354566
-0.0747325 -0.0610483 0.995333 0.00388827
-0.0733486 -0.0587763 0.995573 0.00266564
-0.0720729 -0.0585392 0.99568 0.00461503
-0.0707524 -0.0560364 0.995919 0.00366573
-0.0687063 -0.0559614 0.996066 0.00476971
-0.0662262 -0.0531512 0.996388 0.00240989
-0.0700398 -0.0516832 0.996204 0.00402635
-0.0663384 -0.0544595 0.99631 0.00233104
-0.0670006 -0.0483756 0.99658 0.00212584
-0.0681804 -0.0452096 0.996648 0.00119857
-0.0639737 -0.0512371 0.996635 8.29357e-05
-0.0661853 -0.0482245 0.996641 0.00321198
-0.0691958 -0.0423679 0.996703 0.00769355
-0.0732249 -0.0373007 0.996618 0.0105679
-0.0739462 -0.0378347 0.996544 0.0133352
-0.0731935 -0.0304842 0.996852 0.0167206
-0.0739024 -0.0276425 0.996882 0.0174527
-0.0715192 -0.0214126 0.997209 0.0151972
-0.0676813 -0.019414 0.997518 0.0141607
-0.0695246 -0.014538 0.997474 0.013249
-0.070064 -0.0124995 0.997464 0.0102715
-0.0721105 -0.00819198 0.997363 0.0135972
-0.0703671 -0.00758864 0.997492 0.010398
-0.0730187 -0.00227574 0.997328 0.0097091
-0.072318 0.00181714 0.99738 0.0107854
-0.0727569 0.00373918 0.997343 0.00906615
-0.0716294 0.00907456 0.99739 0.00820789
-0.0731537 0.0146144 0.997214 0.0101302
-0.0741134 0.0144344 0.997145 0.0109744
-0.073215 0.0217947 0.997078 0.0117107
-0.0721224 0.0269131 0.997033 0.0129038
-0.071766 0.028582 0.997012 0.0160538
-0.0704173 0.0312467 0.997028 0.0131702
-0.0716071 0.0377513 0.996718 0.0147111
-0.0710348 0.0380868 0.996746 0.00858891
-0.0685478 0.0396448 0.99686 0.00550482
-0.0698716 0.045075 0.996537 0.00579273
-0.0694223 0.0470221 0.996479 0.00481113
-0.069828 0.0544946 0.996069 0.00506064
-0.0710333 0.0582441 0.995772 0.00738985
-0.0721762 0.0641254 0.995328 0.00908276
-0.0715796 0.0689642 0.995048 0.0093839
-0.0726004 0.0730293 0.994684 0.00671914
-0.0706811 0.0737662 0.994768 0.00570573
-0.0688967 0.0794856 0.994452 0.00273313
-0.0717823 0.0881765 0.993515 0.00596306
-0.072831 0.0947245 0.992836 0.00895118
-0.069118 0.0899494 0.993545 0.00737973
-0.0698616 0.0969998 0.99283 0.00611628
-0.0661805 0.0977544 0.993008 0.000449025
-0.0640171 0.101719 0.992751 0
-0.0651411 0.111686 0.991606 0
-0.0647076 0.126115 0.989903 0
-0.064904 0.132319 0.98908 0
-0.0642222 0.141808 0.987809 0
-0.0590194 -0.209834 0.975954 0
-0.0580073 -0.204147 0.97722 0
-0.0552341 -0.196012 0.979045 0
-0.0543355 -0.194887 0.979319 0
-0.0548466 -0.190983 0.98006 0
-0.0576321 -0.189271 0.980232 0
-0.0573234 -0.18138 0.981741 0
-0.0590522 -0.177012 0.982436 0
-0.0612957 -0.171101 0.983345 0
-0.0605199 -0.162795 0.984802 0
-0.0591707 -0.160603 0.985244 0
-0.0582923 -0.15491 0.986207 0
-0.0609642 -0.150141 0.986783 0
-0.061677 -0.144579 0.987569 0
-0.06062 -0.140653 0.988201 0
-0.0637666 -0.133465 0.989 0.00230754
-0.0650587 -0.13058 0.989301 0
-0.0669022 -0.127603 0.989566 0.00149611
-0.0675139 -0.120885 0.990368 0.000313149
-0.0705244 -0.121267 0.990111 0.00145356
-0.0701178 -0.114355 0.990962 0.00407158
-0.071507 -0.112324 0.991095 0.00298114
-0.0723785 -0.111128 0.991167 0.00272976
-0.0722251 -0.110636 0.991233 0.00238772
-0.0735063 -0.106933 0.991545 0.00629166
-0.0706532 -0.108112 0.991625 0.00466376
-0.0735501 -0.104562 0.991795 0.00732168
-0.0744799 -0.100065 0.992189 0.00846406
-0.0773645 -0.100565 0.991918 0.00825277
-0.0787441 -0.0954556 0.992314 0.0106934
-0.0763889 -0.093067 0.992725 0.012451
-0.0801182 -0.0887981 0.992822 0.0156855
-0.0814887 -0.0865897 0.992906 0.0140205
-0.0814215 -0.0858499 0.992975 0.0131271
-0.0805763 -0.0844165 0.993167 0.0103553
-0.0792455 -0.0814967 0.993518 0.00965429
-0.0811652 -0.0779093 0.993651 0.0104734
-0.0804748 -0.076113 0.993846 0.0116668
-0.0815609 -0.0711115 0.994128 0.0122807
-0.0831226 -0.0729437 0.993866 0.0127606
-0.0810619 -0.06865 0.994342 0.00996104
-0.0824508 -0.0657059 0.994427 0.0113179
-0.0809126 -0.0637867 0.994678 0.0109993
-0.0842305 -0.0616553 0.994537 0.0131745
-0.0855096 -0.0578661 0.994656 0.0144429
-0.0837725 -0.0560195 0.994909 0.0129258
-0.083679 -0.0514561 0.995163 0.0122499
-0.0835988 -0.0520978 0.995137 0.0123505
-0.083735 -0.0485071 0.995307 0.0141172
-0.0843833 -0.0463113 0.995357 0.0145106
-0.0871664 -0.0408808 0.995355 0.0188777
-0.0859196 -0.0347502 0.995696 0.0172003
-0.086254 -0.0350252 0.995657 0.0167705
-0.0840457 -0.0327462 0.995924 0.0147425
-0.0837948 -0.0296547 0.996042 0.0146313
-0.0882176 -0.0272042 0.99573 0.0207184
-0.0867787 -0.0269622 0.995863 0.0168041
-0.0871706 -0.0212694 0.995966 0.0187313
-0.0892218 -0.0164587 0.995876 0.0183036
-0.0890298 -0.0138249 0.995933 0.0191507
-0.0878285 -0.0154454 0.996016 0.017954
-0.0869828 -0.0123793 0.996133 0.0154922
-0.0838891 -0.0115447 0.996408 0.0133475
-0.0815635 -0.0120127 0.996596 0.0108103
-0.0809778 -0.00900442 0.996675 0.0108071
-0.0810039 -0.00642076 0.996693 0.00976877
-0.0805066 -0.00336875 0.996748 0.0120189
-0.0771472 0.0002486 0.99702 0.00939236
-0.0805684 0.00406447 0.996741 0.0117442
-0.0821153 0.0100684 0.996572 0.018232
-0.0769617 0.00881001 0.996995 0.0131485
-0.0775698 0.0109509 0.996927 0.0142873
-0.0781814 0.0138427 0.996843 0.0119095
-0.0844559 0.0143177 0.996324 0.0161921
-0.0832338 0.0138498 0.996434 0.0173766
-0.0821515 0.0152113 0.996504 0.0147042
-0.0788996 0.0170395 0.996737 0.0118961
-0.0804194 0.0213219 0.996533 0.0139727
-0.0811433 0.0261819 0.996358 0.0141065
-0.0808201 0.0313474 0.996236 0.0146792
-0.0793681 0.0298594 0.996398 0.0117372
-0.080053 0.0334726 0.996228 0.0109545
-0.0755776 0.0319291 0.996629 0.00703577
-0.0738426 0.0288246 0.996853 0.00289706
-0.0757222 0.0271417 0.996759 0.00703165
-0.077407 0.028778 0.996584 0.00964647
-0.0775186 0.0293712 0.996558 0.0087182
-0.0815 0.0326688 0.996138 0.0135546
-0.0796341 0.0278984 0.996434 0.0120471
-0.0787231 0.0267803 0.996537 0.0117533
-0.0789627 0.0332586 0.996323 0.0129561
-0.0754795 0.0364596 0.996481 0.010458
-0.069621 0.0343029 0.996984 0.00523422
-0.0688841 0.0343535 0.997033 0.00244416
-0.0654591 0.0333786 0.997297 0
-0.0668411 0.0357006 0.997125 0.00349762
-0.0649895 0.0352204 0.997264 0.00253046
-0.0640374 0.0315958 0.997447 0
-0.0595857 0.0311804 0.997736 0
-0.0604822 0.032526 0.997639 0
-0.0623204 0.0330043 0.99751 0.0011603
-0.0600131 0.0298504 0.997751 0.000707108
-0.0610209 0.034237 0.997549 0.00285368
-0.0593456 0.0338824 0.997662 0.00171216
-0.0566272 0.0328492 0.997855 0
-0.0613653 0.0323913 0.99759 0.000915823
-0.0596379 0.034926 0.997609 0
-0.0584195 0.0316807 0.997789 0
-0.0592543 0.0314528 0.997747 0.000316853
-0.0629545 0.0322324 0.997496 0.00206857
-0.0606676 0.0285488 0.99775 0
-0.0617863 0.0310524 0.997606 0.00306586
-0.0588465 0.0284564 0.997861 0.00113983
-0.0569797 0.0247988 0.998067 0
-0.0546758 0.0201809 0.9983 0
-0.0542858 0.016019 0.998397 0
-0.0566233 0.0155598 0.998274 0
-0.0572356 0.016736 0.99822 0
-0.0569626 0.0187337 0.998201 0
-0.0559948 0.0154964 0.998311 0
-0.0579029 0.0175736 0.998168 0
-0.0595081 0.0214147 0.997998 0
-0.0622883 0.0197791 0.997862 0
-0.0614027 0.0172267 0.997964 0
-0.0579382 0.0124612 0.998242 0
-0.0555245 0.00898552 0.998417 0
-0.0566813 0.0106668 0.998335 0
-0.0589079 0.012703 0.998183 0
-0.0594357 0.00965383 0.998185 0.0018682
-0.0620353 0.0091905 0.998032 0.00208521
-0.0594743 0.00894287 0.99819 0
-0.059444 0.0069412 0.998208 0.00359966
-0.0602893 0.0069643 0.998157 0.00207402
-0.0599644 0.00560268 0.998185 0.00393996
-0.0571136 0.00120233 0.998367 0.00370027
-0.0579458 0.0008796 0.998319 0.00556018
-0.0592505 -0.00241105 0.99824 0.00620656
-0.0583361 -0.00715713 0.998271 0.00073981
-0.0578904 -0.00498175 0.99831 6.40047e-05
-0.0552275 -0.00718023 0.998448 0
-0.0522599 -0.0127089 0.998553 0
-0.0466527 -0.0117778 0.998842 0
-0.04891 -0.0133569 0.998714 0
-0.0528468 -0.0116814 0.998534 0.00203034
-0.051964 -0.011725 0.99858 0.00390088
-0.051986 -0.0134886 0.998557 0
-0.0551798 -0.0101008 0.998425 0.00576516
-0.0526409 -0.0129377 0.99853 0.00487267
-0.0510806 -0.0182787 0.998527 0.00394721
-0.0503111 -0.0178179 0.998575 0.00292346
-0.051133 -0.0160593 0.998563 0.000796785
-0.0549304 -0.0172814 0.998341 0.00196644
-0.0526658 -0.0215777 0.998379 0
-0.0546031 -0.0188254 0.998331 0.00200109
-0.0561359 -0.0187296 0.998248 0.00771978
-0.0586927 -0.0170004 0.998131 0.0112266
-0.0579939 -0.0157637 0.998192 0.0114942
-0.053349 -0.0187091 0.998401 0.0110446
-0.054116 -0.0183453 0.998366 0.00844698
-0.0558761 -0.0157316 0.998314 0.00703238
-0.0566256 -0.0170638 0.99825 0.0099745
-0.0553258 -0.0167105 0.998329 0.00496047
-0.0545135 -0.0182696 0.998346 0.0020798
-0.0562802 -0.0204036 0.998206 0.00355452
-0.0525168 -0.0239886 0.998332 0
-0.0513134 -0.0291365 0.998257 0
-0.0587478 -0.0263023 0.997926 0.000588063
-0.0587055 -0.0297238 0.997833 0
-0.0554928 -0.0322603 0.997938 0
-0.0571177 -0.0339722 0.997789 0
-0.0570704 -0.0371439 0.997679 0
-0.0570528 -0.0384175 0.997632 0
-0.0578513 -0.0356293 0.997689 0
-0.0572124 -0.0388024 0.997608 0
-0.0563061 -0.0419684 0.997531 0
-0.0547395 -0.0394648 0.99772 0
-0.0548987 -0.03664 0.997819 0
-0.0565576 -0.0397389 0.997608 0
-0.0584988 -0.0391558 0.997519 0
-0.0586876 -0.0359852 0.997628 0
-0.0605666 -0.0338347 0.997591 0.000331112
-0.0604697 -0.0369104 0.997487 0
-0.0574509 -0.039227 0.997577 0
-0.056922 -0.0409558 0.997538 0
-0.0537533 -0.0410731 0.997709 0
-0.055979 -0.0419951 0.997548 0
-0.0537879 -0.0412725 0.997699 0
-0.0548979 -0.0399449 0.997693 0
-0.0528052 -0.0438675 0.997641 0
-0.0548585 -0.0383332 0.997758 0
-0.0582198 -0.0384266 0.997564 0
-0.0580734 -0.0381566 0.997583 0.000561798
-0.0617485 -0.035184 0.997471 0.00462302
-0.0632628 -0.0345467 0.997399 0.0109394
-0.0681025 -0.0325242 0.997148 0.0116939
-0.0673214 -0.0345018 0.997135 0.0102839
-0.0638662 -0.0354652 0.997328 0.00824277
-0.0659564 -0.0328994 0.99728 0.00705738
-0.0636632 -0.0361896 0.997315 0.00871509
-0.063067 -0.0351183 0.997391 0.00912469
-0.064562 -0.0346985 0.99731 0.0107065
-0.0679972 -0.0335355 0.997122 0.0123017
-0.0698595 -0.0324956 0.997028 0.0129825
-0.0666825 -0.0329938 0.997229 0.0100848
-0.0686326 -0.0308256 0.997166 0.0128424
-0.0654242 -0.0309358 0.997378 0.00982514
-0.0652253 -0.0338133 0.997298 0.00671315
-0.0658295 -0.0324631 0.997303 0.00790739
-0.0653652 -0.0299507 0.997412 0.00717067
-0.0674477 -0.0300912 0.997269 0.00902343
-0.0654739 -0.0294614 0.997419 0.00846294
-0.0630337 -0.0305551 0.997544 0.0053951
-0.0630484 -0.0292772 0.997581 0.00707759
-0.0644265 -0.0288796 0.997505 0.00950792
-0.0616295 -0.0307434 0.997626 0.00713835
-0.060563 -0.0332333 0.997611 0.00543641
-0.0586971 -0.0323409 0.997752 0.00612454
-0.0585446 -0.0307572 0.997811 0.00415403
-0.0609582 -0.0302044 0.997683 0.00822736
-0.0606658 -0.0309279 0.997679 0.00511121
-0.0561334 -0.0349593 0.997811 0.00478759
-0.0576987 -0.0331376 0.997784 0.00770113
-0.0590115 -0.0318694 0.997748 0.00272869
-0.0597255 -0.03086 0.997738 0.00255424
-0.065351 -0.0269969 0.997497 0.00646321
-0.0622772 -0.0270833 0.997691 0.0068547
-0.0607608 -0.0285088 0.997745 0.00407459
-0.0570181 -0.0304894 0.997907 0.00230627
-0.055436 -0.0325496 0.997932 0
-0.0559979 -0.03451 0.997834 0
-0.0569629 -0.0345697 0.997778 0
-0.0586746 -0.0335017 0.997715 0
-0.0583192 -0.0349818 0.997685 0.0020332
-0.0608899 -0.0332985 0.997589 0.00402511
-0.0608551 -0.0366146 0.997475 0.00298353
-0.0630023 -0.0355788 0.997379 0.00644084
-0.0650842 -0.0373748 0.99718 0.00985315
-0.064209 -0.0372261 0.997242 0.00958555
-0.0598262 -0.0402939 0.997395 0.00591905
-0.0549944 -0.0377709 0.997772 0.00051306
-0.0506726 -0.043979 0.997747 0
-0.0503622 -0.0482887 0.997563 0
-0.0515169 -0.0492292 0.997458 0
-0.0479751 -0.0491957 0.997636 0
-0.0501797 -0.0491893 0.997528 0
-0.05399 -0.0443477 0.997556 0
-0.0552849 -0.042654 0.997559 0
-0.0585897 -0.0393896 0.997505 0.00164782
-0.0559159 -0.0430406 0.997507 0
-0.0578907 -0.0404868 0.997502 0.00261408
-0.0594517 -0.0393723 0.997454 0.00373832
-0.0641584 -0.036279 0.99728 0.0114795
-0.0672343 -0.0369042 0.997055 0.0149889
-0.0668349 -0.0346555 0.997162 0.0115276
-0.0643495 -0.0338708 0.997352 0.0119624
-0.0651767 -0.0337944 0.997301 0.0104699
-0.0682711 -0.0275582 0.997286 0.00920349
-0.0703103 -0.0288085 0.997109 0.00811785
-0.0710113 -0.0316082 0.996975 0.00836218
-0.0658467 -0.0363561 0.997167 0.00540274
-0.0662603 -0.0341311 0.997218 0.00557711
-0.0691865 -0.0283991 0.997199 0.0120534
-0.0712009 -0.0305252 0.996995 0.014628
-0.0702471 -0.0317086 0.997025 0.0116029
-0.0750901 -0.0302051 0.996719 0.0117945
-0.0738896 -0.0309498 0.996786 0.00737946
-0.0738127 -0.0323861 0.996746 0.00749525
-0.0711663 -0.0323457 0.99694 0.00337664
-0.0633174 -0.0338031 0.997421 0
-0.0664761 -0.0347261 0.997184 0
-0.064827 -0.0353249 0.997271 0
-0.0644202 -0.0354551 0.997293 0
-0.0663885 -0.031975 0.997281 0
-0.0677211 -0.0263799 0.997355 0.000393956
-0.0721081 -0.0235647 0.997118 0.00641274
-0.0677326 -0.023304 0.997431 0.00610319
-0.0660422 -0.0241091 0.997526 0.00183536
-0.0637956 -0.0251642 0.997646 0.00154275
-0.0619311 -0.0269298 0.997717 0
-0.061263 -0.0316578 0.997619 0
-0.0613567 -0.0305811 0.997647 0
-0.0649942 -0.0286168 0.997475 0.00207201
-0.0683088 -0.0253262 0.997343 0.00278198
-0.0686636 -0.023012 0.997374 0.00452048
-0.0662341 -0.0194111 0.997615 0.00685917
-0.0658346 -0.0194338 0.997641 0.00598292
-0.0652891 -0.0213082 0.997639 0.00484302
-0.0637448 -0.0218368 0.997727 0.00598978
-0.067628 -0.0213835 0.997481 0.0113173
-0.0642585 -0.0247484 0.997626 0.00727782
-0.0637127 -0.0261509 0.997626 0.00863355
-0.0658266 -0.021922 0.99759 0.0110807
-0.0627351 -0.0217207 0.997794 0.00768071
-0.0617742 -0.0232258 0.99782 0.00991155
-0.0668847 -0.0225592 0.997506 0.0122797
-0.0662308 -0.0201497 0.997601 0.0111318
-0.069142 -0.019212 0.997422 0.0139304
-0.0738807 -0.0187504 0.997091 0.0192628
-0.0682924 -0.0208823 0.997447 0.0145328
-0.0622358 -0.0277342 0.997676 0.0051307
-0.0583731 -0.0308653 0.997818 0.00251
-0.0574759 -0.0268939 0.997985 0
-0.0570722 -0.0265041 0.998018 0
-0.057097 -0.0302214 0.997911 0
-0.0567866 -0.0287374 0.997973 0
-0.0555666 -0.0303517 0.997994 0
-0.0540685 -0.032436 0.99801 0
-0.053146 -0.0319737 0.998075 0
-0.0573352 -0.028563 0.997946 0
-0.0582911 -0.029471 0.997864 0
-0.0557852 -0.0293407 0.998012 0
-0.0576176 -0.024986 0.998026 0
-0.0539078 -0.0266052 0.998191 0
-0.0579836 -0.0247188 0.998011 0
-0.0569105 -0.0245709 0.998077 0
-0.0581759 -0.0228825 0.998044 0
-0.0581941 -0.0221681 0.998059 0
-0.0535721 -0.0276452 0.998181 0
-0.0538278 -0.0297156 0.998108 0
-0.0516838 -0.0278992 0.998274 0
-0.0485086 -0.0301989 0.998366 0
-0.0492707 -0.0288372 0.998369 0
-0.0544671 -0.0245189 0.998214 0
-0.0569147 -0.0253402 0.998057 0.000498267
-0.0649887 -0.0169249 0.997742 0.0128472
-0.06688 -0.0186931 0.997586 0.0125232
-0.0685703 -0.0193036 0.99746 0.0145694
-0.0680205 -0.0235937 0.997405 0.0140204
-0.0673059 -0.0183998 0.997563 0.0156815
-0.0657541 -0.0186266 0.997662 0.0121129
-0.0596448 -0.02452 0.997918 0.00364102
-0.0611714 -0.0254253 0.997803 0.00494759
-0.0569678 -0.0292133 0.997949 0
-0.0545873 -0.0326338 0.997976 0
-0.0519225 -0.0296057 0.998212 0.000446075
-0.057087 -0.0249034 0.998059 0.00615775
-0.0662604 -0.0189932 0.997622 0.0161797
-0.0699182 -0.0127214 0.997472 0.0217939
-0.0664824 -0.0114027 0.997722 0.0201935
-0.0630045 -0.0164261 0.997878 0.0196034
-0.0615379 -0.0166724 0.997966 0.0181599
-0.0590707 -0.01835 0.998085 0.0157413
-0.0582602 -0.0194744 0.998111 0.0133711
-0.0578638 -0.0260637 0.997984 0.0110121
-0.0572006 -0.0254594 0.998038 0.0116032
-0.0544276 -0.0291775 0.998091 0.00523847
-0.051431 -0.0284112 0.998272 0.00444825
-0.0504212 -0.0284825 0.998322 0.00479716
-0.0472866 -0.0315971 0.998381 0.00220734
-0.0452215 -0.0341093 0.998394 0
-0.0489753 -0.0325552 0.998269 0.00604444
-0.0508909 -0.0311514 0.998218 0.010542
-0.0517844 -0.0292838 0.998229 0.0151032
-0.053642 -0.0274316 0.998183 0.0152144
-0.0587509 -0.0253974 0.99795 0.0197237
-0.0611012 -0.0239437 0.997844 0.0188784
-0.0589068 -0.0270213 0.997898 0.0166287
-0.0541746 -0.0319804 0.998019 0.0124875
-0.0538592 -0.0331889 0.997997 0.0112326
-0.0511947 -0.0370447 0.998001 0.00560173
-0.0494483 -0.0404905 0.997956 0.00449556
-0.048942 -0.042099 0.997914 0.00371169
-0.0460838 -0.0488345 0.997743 0.00271281
-0.0461877 -0.0487412 0.997743 0.00238651
-0.0519055 -0.044021 0.997681 0.00757011
-0.0564445 -0.0423582 0.997507 0.0124446
-0.0595863 -0.0411465 0.997375 0.0132914
-0.0584242 -0.0408909 0.997454 0.0129764
-0.0581273 -0.0397491 0.997517 0.0131036
-0.0476449 -0.0459088 0.997809 0
-0.046021 -0.0504325 0.997667 0
-0.0459192 -0.0524441 0.997568 0
-0.047463 -0.0526912 0.997482 0
-0.0494208 -0.0526619 0.997389 0
-0.048476 -0.0533761 0.997397 0
-0.0489143 -0.0556373 0.997252 0.000625077
-0.0506302 -0.0543029 0.99724 0.00252234
-0.057608 -0.0483099 0.99717 0.00698042
-0.0575323 -0.0470654 0.997234 0.0073051
-0.0601394 -0.0438783 0.997225 0.0122176
-0.0589335 -0.047077 0.997151 0.0116215
-0.056006 -0.0483183 0.997261 0.00778067
-0.0568505 -0.0499418 0.997133 0.00737749
-0.0561611 -0.0491062 0.997213 0.00568658
-0.0516465 -0.0515409 0.997335 0.00258412
-0.0536054 -0.0518952 0.997213 0.00738759
-0.0516992 -0.0543147 0.997185 0.00393149
-0.0479849 -0.0588215 0.997115 0.000347369
-0.0492165 -0.0623861 0.996838 0
-0.0513427 -0.0625213 0.996722 0.00149768
-0.0508367 -0.0630186 0.996717 0.00374389
-0.0546073 -0.065174 0.996379 0.00880955
-0.0540671 -0.069823 0.996093 0.00911522
-0.0592716 -0.0718595 0.995652 0.014563
-0.0556179 -0.0767022 0.995502 0.0103276
