-0.0837504 -0.0606865 0.994637 0.00541936
-0.0788492 -0.060494 0.995049 0
-0.0739685 -0.056841 0.995639 0
-0.0693524 -0.0563049 0.996002 0
-0.0685337 -0.0539686 0.996188 0.00275704
-0.0664317 -0.0524702 0.99641 0.00253805
-0.0622462 -0.04975 0.99682 0.00112131
-0.0579564 -0.0454963 0.997282 0.00318669
-0.0514536 -0.0437802 0.997715 0.00626522
-0.0449506 -0.0384092 0.998251 0.00857186
-0.0391952 -0.0361773 0.998576 0.00757348
-0.0378115 -0.0317144 0.998782 0.0103462
-0.0354668 -0.0249599 0.999059 0.0100639
-0.032508 -0.0216668 0.999237 0.00621447
-0.0289466 -0.0138272 0.999485 0
-0.0479384 0.0239885 0.998562 0.00658889
-0.053245 0.0257743 0.998249 0.0122934
-0.0557418 0.0268405 0.998084 0.0100433
-0.059162 0.026127 0.997907 0.0110914
-0.0619436 0.0242286 0.997786 0.0106042
-0.0637819 0.026349 0.997616 0.0103149
-0.0639217 0.0240139 0.997666 0.00671421
-0.0655054 0.0227262 0.997593 0.00863465
-0.0665431 0.0215246 0.997551 0.0110827
-0.0689662 0.0212888 0.997392 0.0175641
-0.0687603 0.0198787 0.997435 0.0136895
-0.0687852 0.0141905 0.997531 0.0062516
-0.0674327 0.0128054 0.997642 0.0107526
0.130199 -0.10831 0.985554 0
0.137267 -0.109009 0.984518 0
0.146652 -0.113976 0.9826 0
-0.1076 -0.0654757 0.992036 0.0163392
-0.10381 -0.0644671 0.992506 0.0195808
-0.0943457 -0.0646534 0.993438 0.015137
-0.0868894 -0.0624304 0.99426 0.00964004
-0.0812341 -0.0578055 0.995017 0.00765521
-0.076544 -0.0565613 0.995461 0.00187107
-0.0720048 -0.0539358 0.995945 0.000517915
-0.0702737 -0.0508539 0.996231 0.00452892
-0.0672959 -0.0496872 0.996495 0.00482876
-0.0657385 -0.0475672 0.996702 0.00522899
-0.0615297 -0.045395 0.997072 0
-0.0550512 -0.0409482 0.997644 0.00240288
-0.0482967 -0.0388344 0.998078 0.00646383
-0.0435763 -0.0354678 0.99842 0.0123175
-0.0390324 -0.0332188 0.998686 0.0107772
-0.0387667 -0.0284299 0.998844 0.0171204
-0.0324134 -0.0241504 0.999183 0.0107974
-0.0288109 -0.0221597 0.999339 0.00478926
-0.0297226 -0.0168016 0.999417 0.0117399
-0.0250382 -0.0127093 0.999606 0
-0.0537417 0.0316075 0.998054 0.0114732
-0.0559196 0.0331722 0.997884 0.0123696
-0.0609592 0.0320694 0.997625 0.013031
-0.0647253 0.0320012 0.99739 0.0145717
-0.0652676 0.0306158 0.997398 0.00978587
-0.066078 0.0277849 0.997428 0.00676013
-0.0675082 0.0250029 0.997405 0.00828738
-0.0694537 0.0244524 0.997285 0.0110892
-0.0699998 0.0213173 0.997319 0.00625622
-0.0694357 0.0187374 0.99741 0.00128991
-0.0712165 0.0181735 0.997295 0.00595338
-0.0698129 0.014711 0.997452 0.00556377
-0.0677261 0.00964199 0.997657 0
0.129788 -0.105106 0.985955 0
0.136944 -0.107596 0.984718 0
0.143037 -0.108218 0.983783 0
-0.109309 -0.0653459 0.991858 0.0187322
-0.100331 -0.0614205 0.993057 0.0175148
-0.0917642 -0.0598076 0.993983 0.0151191
-0.0847553 -0.0574178 0.994746 0.0113475
-0.0769132 -0.055269 0.995505 0.00554294
-0.074288 -0.0538761 0.99578 0.00393103
-0.0687297 -0.0508298 0.99634 0.00330698
-0.0653599 -0.0485137 0.996682 0.00317969
-0.0635165 -0.0471434 0.996867 0.00118812
-0.0617388 -0.0467102 0.996999 0
-0.0583421 -0.0433641 0.997354 0
-0.0513996 -0.0388306 0.997923 0.00229653
-0.0470038 -0.036449 0.99823 0.00789469
-0.036811 -0.0325216 0.998793 0.00885854
-0.0264801 -0.0210427 0.999428 0.00897921
-0.0572024 0.0367966 0.997684 0.0136687
-0.0616843 0.0367421 0.997419 0.0105607
-0.065909 0.0339142 0.997249 0.0147072
-0.067318 0.0323378 0.997207 0.0126001
-0.0687537 0.0281901 0.997235 0.0091477
-0.0677124 0.0260703 0.997364 0.00139793
-0.0700854 0.0259753 0.997203 0.00750918
-0.071428 0.0221173 0.997201 0.00215045
-0.0722146 0.0191144 0.997206 0
-0.0710182 0.0178713 0.997315 0
-0.070934 0.0176939 0.997324 0.000926175
-0.0698323 0.0156453 0.997436 0.000121856
0.132494 -0.103659 0.985748 0
0.139328 -0.105723 0.984587 0.00349304
0.148225 -0.106886 0.983161 0.0080278
-0.110678 -0.0617256 0.991938 0.0191087
-0.1027 -0.060669 0.992861 0.0198039
-0.0874827 -0.0581126 0.99447 0.0145525
-0.0817802 -0.0580775 0.994957 0.0130046
-0.0748305 -0.0556112 0.995644 0.00560788
-0.0700083 -0.0536839 0.996101 0.00329212
-0.0674147 -0.0479849 0.996571 0.00577735
-0.0635905 -0.0496625 0.99674 0.000428938
-0.0620863 -0.0447181 0.997069 0.00305253
-0.0598782 -0.0440087 0.997235 0.002103
-0.0577092 -0.0414419 0.997473 0.0043256
-0.0488746 -0.0370639 0.998117 0.00987491
-0.0414648 -0.0331965 0.998588 0.00877777
-0.0304665 -0.0294248 0.999103 0.00104523
-0.0577924 0.038363 0.997591 0.0143345
-0.0603052 0.0320377 0.997666 0.00185256
-0.0624315 0.0320089 0.997536 0.000350717
-0.0675564 0.0338875 0.99714 0.00882237
-0.070196 0.0318105 0.997026 0.00678556
-0.0687281 0.0278732 0.997246 0.000279948
-0.0706783 0.0270169 0.997133 0.00296927
-0.0721828 0.0231594 0.997123 0
-0.0735938 0.0200773 0.997086 0
-0.0735689 0.0204804 0.99708 0
-0.0731132 0.0193672 0.997136 0.0030699
-0.0725337 0.0189692 0.997186 0
0.130312 -0.100109 0.986406 0.00430293
0.135309 -0.100792 0.985663 0.00269759
0.1486 -0.106005 0.983199 0.00169613
-0.142864 -0.0668646 0.987481 0.0232125
-0.110729 -0.0600085 0.992037 0.0197759
-0.0997679 -0.0582882 0.993302 0.0204754
-0.0858509 -0.0568005 0.994688 0.0101165
-0.0785391 -0.0530584 0.995498 0.0122194
-0.0722826 -0.0534974 0.995948 0.00876342
-0.0683083 -0.0523619 0.996289 0.00788343
-0.0625709 -0.0496411 0.996805 0
-0.0595661 -0.0473638 0.9971 0
-0.0585573 -0.0450106 0.997269 0.000141832
-0.0563944 -0.0441449 0.997432 0
-0.0540651 -0.0409136 0.997699 0.000618756
-0.0354488 -0.028257 0.998972 0.00909428
-0.0609572 0.0324512 0.997613 0
-0.0629233 0.0306701 0.997547 0
-0.065661 0.032319 0.997319 0.00186632
-0.0704392 0.034509 0.996919 0.00567671
-0.0727229 0.0322576 0.99683 0.00833368
-0.0742404 0.0309903 0.996759 0.00797168
-0.0743579 0.024089 0.996941 0
-0.0756971 0.021646 0.996896 0
-0.0754645 0.0202548 0.996943 0
-0.0762868 0.0190457 0.996904 0.00069359
-0.0771788 0.0211757 0.996792 0.00652092
-0.0758426 0.0185488 0.996947 0.00293749
0.129646 -0.0994927 0.986556 0.00376146
0.136315 -0.0994354 0.985663 0.0103746
0.146798 -0.102116 0.983881 0.00815106
0.154016 -0.105257 0.982446 0.0105156
-0.150937 -0.0676423 0.986226 0.0167692
-0.140193 -0.0640904 0.988048 0.0224137
-0.11034 -0.0594483 0.992114 0.0222721
-0.100814 -0.0552332 0.993371 0.0211181
-0.0884908 -0.0535686 0.994636 0.0154743
-0.0751869 -0.0501997 0.995905 0.00856725
-0.0698616 -0.0496757 0.996319 0.00895984
-0.0641676 -0.050413 0.996665 0.00264985
-0.0586204 -0.0489738 0.997078 0
-0.0564801 -0.0477583 0.997261 0
-0.05634 -0.0441399 0.997436 0.00207178
-0.053959 -0.0455046 0.997506 0
-0.0475927 -0.0400426 0.998064 0.00230568
-0.0580006 0.0370745 0.997628 0.0116021
-0.0629617 0.0279487 0.997625 0
-0.0701935 0.0330676 0.996985 0.0076786
-0.0756743 0.0370108 0.996446 0.0136198
-0.0762989 0.0325779 0.996553 0.0082425
-0.0765415 0.026181 0.996723 0.0036632
-0.076875 0.0210715 0.996818 0
-0.0774403 0.0171801 0.996849 0
-0.077801 0.0162967 0.996836 0
-0.0785434 0.0176453 0.996755 0
-0.0785708 0.0179274 0.996747 0.00379117
0.136647 -0.098763 0.985684 0.015032
0.14423 -0.0978384 0.984696 0.0180635
0.154204 -0.10383 0.982568 0.0154346
-0.147347 -0.0666789 0.986835 0.0161515
-0.136329 -0.0652241 0.988514 0.0197618
-0.126571 -0.0652513 0.989809 0.018362
-0.108619 -0.057258 0.992433 0.0211934
-0.0992718 -0.0558281 0.993493 0.0194844
-0.0868202 -0.0530208 0.994812 0.0118902
-0.0725661 -0.049467 0.996136 0.00944015
-0.0651012 -0.0495284 0.996649 0.0043712
-0.0619223 -0.0514904 0.996752 0.00242629
-0.056434 -0.0490128 0.997203 0.00184648
-0.0532319 -0.0469467 0.997478 0.00117339
-0.0521369 -0.0462627 0.997568 0
-0.0513766 -0.0432747 0.997741 0
-0.0478657 -0.0413218 0.997999 0.00146114
-0.0720855 0.0338827 0.996823 0.0109039
-0.0758463 0.0323092 0.996596 0.0112028
-0.0762758 0.027117 0.996718 0.00560479
-0.0785139 0.0253782 0.99659 0.00332277
-0.076853 0.0207253 0.996827 0
-0.079809 0.0180811 0.996646 0
-0.0811602 0.0195777 0.996509 0
-0.0817418 0.0187237 0.996478 0
-0.0821904 0.0160286 0.996488 0.006136
0.14535 -0.0982109 0.984494 0.0206347
0.153934 -0.0994954 0.983059 0.0181003
0.161887 -0.101295 0.981597 0.0214782
-0.147559 -0.0643065 0.986961 0.0164638
-0.144685 -0.0625879 0.987496 0.0164779
-0.139539 -0.0611389 0.988327 0.0200227
-0.131776 -0.0616531 0.98936 0.0169057
-0.123867 -0.060543 0.99045 0.0174205
-0.101979 -0.0556215 0.99323 0.0148778
-0.092226 -0.0546236 0.994239 0.0117804
-0.0813278 -0.053373 0.995257 0.0103895
-0.0709942 -0.0492019 0.996262 0.00819788
-0.0632009 -0.0502639 0.996734 0.0047879
-0.0575072 -0.0502902 0.997078 0.00229208
-0.0514555 -0.0498005 0.997433 0
-0.0499074 -0.046822 0.997656 0
-0.0482962 -0.0463047 0.997759 0
-0.0470499 -0.0437491 0.997934 0.000162204
-0.045167 -0.0412329 0.998128 0
-0.0761001 0.0303769 0.996637 0.00914032
-0.076794 0.0241108 0.996755 0.0020102
-0.0779938 0.0225392 0.996699 0
-0.0795266 0.0234773 0.996556 0
-0.0828262 0.0220046 0.996321 9.29301e-05
-0.0841942 0.0202647 0.996243 0
-0.0838198 0.0192049 0.996296 0
-0.0830671 0.0183923 0.996374 0.00246135
-0.0833564 0.0129266 0.996436 0.00436561
0.151527 -0.0970947 0.983673 0.0144007
0.15966 -0.0980901 0.982287 0.0123857
-0.148665 -0.0628301 0.98689 0.0165142
-0.146497 -0.0650543 0.98707 0.0185107
-0.143911 -0.0626354 0.987606 0.0201716
-0.134244 -0.0602109 0.989117 0.0167279
-0.12711 -0.0587015 0.99015 0.0146479
-0.120038 -0.057899 0.99108 0.013538
-0.0977174 -0.0538143 0.993758 0.0068596
-0.0902056 -0.0513264 0.9946 0.00769165
-0.0818614 -0.0510632 0.995335 0.00685328
-0.0734458 -0.0499968 0.996045 0.0124182
-0.0628337 -0.0480445 0.996867 0.00864913
-0.0553435 -0.0476368 0.99733 0.00206865
-0.0512473 -0.0455726 0.997646 0
-0.0479252 -0.044994 0.997837 0
-0.0463875 -0.0438589 0.99796 0
-0.045213 -0.0403949 0.99816 0.00386485
-0.0400986 -0.0380237 0.998472 0.00548921
-0.0735748 0.0285578 0.996881 0.00966855
-0.0753965 0.0248596 0.996844 0.00140446
-0.0765126 0.0205843 0.996856 0
-0.0783418 0.0193286 0.996739 0
-0.0812587 0.0207779 0.996476 0
-0.0866788 0.0230964 0.995969 0.00432487
-0.0881739 0.0220559 0.995861 0.00483408
-0.0867021 0.0183805 0.996065 0
-0.0861624 0.0210937 0.996058 0.00699188
-0.0851838 0.0118644 0.996295 0.0044991
0.149637 -0.0932672 0.984332 0.012864
0.157559 -0.0962223 0.98281 0.0116397
-0.144407 -0.0615826 0.9876 0.0155124
-0.144579 -0.0599858 0.987673 0.0204242
-0.141839 -0.0585111 0.988159 0.0203118
-0.132631 -0.056077 0.989578 0.0158762
-0.12526 -0.056633 0.990506 0.0113711
-0.1153 -0.0571987 0.991683 0.0101215
-0.0930814 -0.0528174 0.994257 0.00567675
-0.085205 -0.0509798 0.995058 0.00447574
-0.0809582 -0.0504347 0.995441 0.00489963
-0.0713809 -0.0495991 0.996215 0.0073314
-0.0620497 -0.0464243 0.996993 0.00800109
-0.0551522 -0.0458272 0.997426 0.001415
-0.0485564 -0.0466199 0.997732 0
-0.0459596 -0.0450435 0.997927 0.00180753
-0.0444548 -0.0420085 0.998128 0.00132789
-0.038649 -0.0360158 0.998604 0.003874
-0.0348491 -0.0369102 0.998711 0
-0.077574 0.0237348 0.996704 0.00762428
-0.0788516 0.0192 0.996701 0.00342094
-0.0802795 0.0179605 0.996611 0
-0.08359 0.0206108 0.996287 0.000320855
-0.0866036 0.0212237 0.996017 0.000813955
-0.089923 0.0210021 0.995727 0.00785006
-0.0892943 0.0204404 0.995795 0.00538455
-0.086578 0.0157006 0.996121 0
-0.0883333 0.0140129 0.995992 0.00420743
-0.0895783 0.0135016 0.995888 0.00587102
0.155686 -0.0937852 0.983344 0.0106242
-0.145709 -0.0621222 0.987375 0.0172368
-0.140998 -0.0593451 0.98823 0.016796
-0.13869 -0.0562094 0.988739 0.0175642
-0.121054 -0.0535469 0.991201 0.0137199
-0.11335 -0.0551241 0.992025 0.0116901
-0.0887322 -0.0511195 0.994743 0.00618199
-0.0821742 -0.0520459 0.995258 0.00201457
-0.0781095 -0.0503139 0.995674 0.00313839
-0.0716007 -0.0483338 0.996262 0.00463105
-0.0626475 -0.0480435 0.996879 0.00223635
-0.0542441 -0.0451028 0.997509 0.00473246
-0.0484734 -0.0446427 0.997826 0.002051
-0.0446602 -0.0420033 0.998119 0.00235553
-0.0409789 -0.0393058 0.998387 0.00418399
-0.0375603 -0.0353745 0.998668 0.00581724
-0.0830831 0.018734 0.996367 0.0140455
-0.0836539 0.0173831 0.996343 0.00575079
-0.0866539 0.0193371 0.996051 0.00799368
-0.0874438 0.0176038 0.996014 0.00482167
-0.0896622 0.0150486 0.995859 0.00255807
-0.0882104 0.0108421 0.996043 0
-0.0877684 0.0105828 0.996085 0
-0.0937635 0.0136412 0.995501 0.0116813
-0.0928316 0.0108979 0.995622 0.00737533
0.152648 -0.0888442 0.984279 0.00819047
0.164007 -0.0896294 0.982379 0.00866137
-0.144047 -0.0611963 0.987677 0.0128271
-0.14003 -0.0586865 0.988406 0.0115908
-0.134888 -0.0565772 0.989244 0.00819091
-0.130662 -0.0530884 0.990005 0.00931534
-0.119469 -0.0503544 0.99156 0.0132121
-0.110672 -0.0492156 0.992638 0.0124824
-0.0867993 -0.0514971 0.994894 0.00241707
-0.0817249 -0.0490303 0.995448 0.00314983
-0.0785269 -0.0485194 0.995731 0.00434281
-0.0752833 -0.0445897 0.996165 0.0103132
-0.0637281 -0.0473192 0.996845 0.00450884
-0.0555748 -0.0451032 0.997435 0.00157768
-0.0478075 -0.0457177 0.99781 0
-0.039429 -0.0478387 0.998077 0
-0.0324213 -0.0405293 0.998652 0
-0.0248919 -0.0330175 0.999145 0.00105279
-0.0846358 0.0191327 0.996228 0.0162729
-0.0867065 0.0177384 0.996076 0.012901
-0.0896635 0.0161559 0.995841 0.0134473
-0.092113 0.0189336 0.995569 0.0139886
-0.0930138 0.0117273 0.995596 0.00584197
-0.0904206 0.0089284 0.995864 0
-0.08931 0.00825869 0.99597 0
-0.092544 0.00727011 0.995682 0
-0.0929285 0.00814694 0.995639 0.00514461
0.152314 -0.0852663 0.984647 0.00934097
0.163156 -0.0857619 0.982866 0.0082453
-0.146666 -0.0555179 0.987627 0.0111864
-0.140289 -0.0551475 0.988574 0.00955476
-0.136731 -0.0547343 0.989095 0.00864625
-0.133276 -0.0529312 0.989665 0.00956444
-0.128371 -0.0532065 0.990298 0.00621051
-0.116523 -0.0504245 0.991907 0.00807241
-0.107199 -0.0491059 0.993024 0.00824188
-0.086899 -0.050842 0.994919 0.00589397
-0.0820776 -0.0495784 0.995392 0.00375457
-0.0769903 -0.0488591 0.995834 0.00388536
-0.0722739 -0.0468032 0.996286 0.00361764
-0.0639192 -0.0448283 0.996948 0.00661351
-0.0536146 -0.0461491 0.997495 0
-0.0481551 -0.0456038 0.997798 0
-0.0370338 -0.0467063 0.998222 0
-0.0296752 -0.041905 0.998681 0.000179353
-0.026587 -0.0394609 0.998867 0
-0.0182188 -0.029335 0.999404 0.00760068
-0.0870831 0.0130483 0.996116 0.0166193
-0.0914109 0.0154781 0.995693 0.0201402
-0.092548 0.014688 0.9956 0.0146239
-0.0950479 0.0154512 0.995353 0.0115517
-0.0953212 0.00978629 0.995399 0.0111027
-0.0945167 0.00742287 0.995496 0.00460305
-0.0936284 0.00725052 0.995581 0.0041958
-0.0944091 0.00550784 0.995518 0.00122175
-0.0931887 0.00479541 0.995637 0
0.163111 -0.0836723 0.983053 0.0101113
-0.144254 -0.0548241 0.988021 0.00905459
-0.136785 -0.0516819 0.989252 0.00858492
-0.130462 -0.0505552 0.990164 0.00478044
-0.126848 -0.0516736 0.990575 0.00654342
-0.125216 -0.0516045 0.990787 0.00696981
-0.11551 -0.0489443 0.9921 0.00927309
-0.107601 -0.0479032 0.993039 0.00933359
-0.0850836 -0.0502477 0.995106 0.00124104
-0.0791358 -0.0484597 0.995685 0.00274978
-0.0752075 -0.0480653 0.996009 0.0025446
-0.0693393 -0.0476562 0.996454 0
-0.0630886 -0.0462881 0.996934 0.00309753
-0.0590487 -0.0433157 0.997315 0.00969234
-0.0485443 -0.0427096 0.997907 0.00693488
-0.0368731 -0.0422341 0.998427 0.00269106
-0.0250962 -0.0442576 0.998705 0
-0.0218711 -0.0396945 0.998972 0
-0.0882572 0.012994 0.996013 0.021354
-0.0913597 0.0125856 0.995738 0.0182353
-0.0920728 0.010487 0.995697 0.011761
-0.0920913 0.0067684 0.995728 0.00429971
-0.094255 0.00235914 0.995545 0.00210709
-0.0947621 0.00242609 0.995497 0.00260334
-0.096753 0.00222478 0.995306 0.00449456
-0.0984047 0.0012784 0.995146 0.00819877
-0.0970313 0.00125609 0.995281 0.0052751
0.161914 -0.0797478 0.983577 0.00813933
0.169913 -0.082983 0.981959 0
-0.141225 -0.0533231 0.988541 0.00810808
-0.135671 -0.0509547 0.989443 0.00839017
-0.13403 -0.049771 0.989727 0.00923824
-0.127352 -0.0504779 0.990572 0.00670618
-0.125401 -0.0505531 0.990817 0.00926812
-0.115174 -0.0489319 0.992139 0.00805222
-0.106924 -0.0492131 0.993048 0.00925073
-0.0856162 -0.0479159 0.995175 0.00548319
-0.0793549 -0.0483918 0.995671 0.00354169
-0.0744035 -0.0481715 0.996064 0.00150221
-0.0688156 -0.0487769 0.996436 0.000188179
-0.0641704 -0.0458833 0.996884 0.00357928
-0.0549421 -0.0447777 0.997485 0.0037464
-0.0466818 -0.0400827 0.998105 0.00780758
-0.0322222 -0.0432281 0.998545 0
-0.0242693 -0.0393392 0.998931 0
-0.0214461 -0.0364217 0.999106 0.00123845
-0.0862637 0.00739474 0.996245 0.0135639
-0.0887411 0.00457266 0.996044 0.00877951
-0.0922059 0.000251438 0.99574 0.00851306
-0.0933087 9.61017e-05 0.995637 0.00484366
-0.096379 0.00134495 0.995344 0.00720489
-0.0978481 -0.00132347 0.9952 0.00576877
-0.097193 -0.0043913 0.995256 0
-0.0987568 -0.00313526 0.995107 0.00263657
-0.0988449 -0.00399747 0.995095 0.00500089
0.159315 -0.0782067 0.984125 0.0044362
0.169217 -0.0773367 0.98254 0.000792255
-0.141119 -0.0523823 0.988606 0.0104391
-0.138813 -0.0489635 0.989107 0.0134733
-0.137284 -0.0476061 0.989387 0.0163085
-0.133662 -0.0482724 0.989851 0.0157877
-0.128831 -0.0484194 0.990484 0.0124472
-0.116233 -0.0488761 0.992019 0.0127926
-0.103852 -0.0474989 0.993458 0.00654181
-0.0839862 -0.0463983 0.995386 0.00163346
-0.0781907 -0.0487637 0.995745 1.92158e-05
-0.0745214 -0.0480865 0.996059 0.000210085
-0.0699513 -0.049556 0.996319 0
-0.0637898 -0.0463665 0.996886 0.000416297
-0.0542088 -0.0431465 0.997597 0.000710956
-0.0447382 -0.0415969 0.998132 0.000855334
-0.032935 -0.0393868 0.998681 0.00111836
-0.0226359 -0.0376912 0.999033 0
-0.0167258 -0.0370778 0.999172 0
-0.0870807 0.00289863 0.996197 0.0147545
-0.0898867 0.00190916 0.99595 0.0096093
-0.091373 -0.00446971 0.995807 0.00331651
-0.0920875 -0.00590757 0.995733 0.00072304
-0.0959165 -0.00508097 0.995376 0.00408339
-0.0968537 -0.00655366 0.995277 0.00121185
-0.0983562 -0.00585536 0.995134 0.00156774
-0.100614 -0.00530711 0.994911 0.00484997
-0.100352 -0.00732811 0.994925 0.00646977
0.158625 -0.0721718 0.984698 0.00643825
0.169098 -0.0713698 0.983012 0.00405075
-0.142071 -0.0493401 0.988626 0.011222
-0.137951 -0.0489193 0.98923 0.0139635
-0.134675 -0.0464937 0.989798 0.0136954
-0.131586 -0.0445931 0.990301 0.0159601
-0.12761 -0.0462933 0.990744 0.0135266
-0.112786 -0.0498483 0.992368 0.00682647
-0.101994 -0.0501771 0.993519 0.00600087
-0.0847082 -0.0485435 0.995223 0.0026941
-0.0805247 -0.0494037 0.995528 0
-0.0762548 -0.0499584 0.995836 0
-0.0677754 -0.0488016 0.996506 0.000150723
-0.0605564 -0.045443 0.99713 0
-0.0521068 -0.0436988 0.997685 0
-0.0444794 -0.0406794 0.998182 0.000989172
-0.0306081 -0.0412027 0.998682 0
-0.0222802 -0.0382526 0.99902 0
-0.0182733 -0.037321 0.999136 0
-0.0906668 -0.00122997 0.995881 0.0111545
-0.0912774 -0.00528674 0.995811 0.00906206
-0.0929411 -0.00821192 0.995638 0.00521983
-0.0972797 -0.00997221 0.995207 0.00126613
-0.0987201 -0.00899401 0.995075 0.00511967
-0.101874 -0.00848263 0.994761 0.0107164
-0.102551 -0.00814791 0.994694 0.00980699
-0.101238 -0.00989888 0.994813 0.0052573
0.1654 -0.0650432 0.984079 0.000442571
0.179264 -0.0631712 0.981771 0.00397501
-0.141242 -0.0474853 0.988836 0.0107549
-0.135857 -0.0464835 0.989637 0.0121763
-0.132461 -0.0459629 0.990122 0.0131536
-0.127427 -0.0456897 0.990795 0.012627
-0.12439 -0.0467619 0.991131 0.0104862
-0.113003 -0.0474412 0.992461 0.005792
-0.101206 -0.0501925 0.993599 0.00148854
-0.0841329 -0.0491013 0.995244 0.000949114
-0.0821661 -0.0485865 0.995434 0.00142676
-0.075008 -0.0496338 0.995947 0.00234941
-0.0667529 -0.0470336 0.99666 0.00171429
-0.0604216 -0.0423238 0.997275 0.00233091
-0.0506803 -0.0397859 0.997922 0
-0.0424456 -0.0393042 0.998325 0
-0.0324262 -0.0384306 0.998735 0.0027032
-0.0209256 -0.0368419 0.999102 0
-0.0148683 -0.0402585 0.999079 0
-0.0932391 -0.0121464 0.99557 0.00892858
-0.0981547 -0.0149533 0.995059 0.00424619
-0.098693 -0.0166131 0.994979 0.000312471
-0.102629 -0.0116105 0.994652 0.00937903
-0.103692 -0.0121195 0.994536 0.00981549
-0.102252 -0.0158672 0.994632 0.00620783
0.170901 -0.0625663 0.9833 0.00876774
0.178622 -0.0614917 0.981994 0.00451201
0.187097 -0.0626879 0.980339 0.00426728
-0.142554 -0.0437205 0.988821 0.0157525
-0.135716 -0.0437829 0.98978 0.0138558
-0.131484 -0.0448654 0.990303 0.0146198
-0.126986 -0.0451588 0.990876 0.0121013
-0.124555 -0.046142 0.991139 0.00794435
-0.112718 -0.0465858 0.992534 0.00582582
-0.104503 -0.047175 0.993405 0.00514628
-0.0985915 -0.0476229 0.993988 0.00281272
-0.0809309 -0.0474335 0.99559 0.00381847
-0.0745296 -0.0449106 0.996207 0.0083034
-0.0633828 -0.0449888 0.996975 0
-0.0567719 -0.0454916 0.99735 0
-0.0490004 -0.0390581 0.998035 0
-0.0410999 -0.0391379 0.998388 0
-0.0329108 -0.0408256 0.998624 0
-0.0218114 -0.0357257 0.999124 0.00464082
-0.0139386 -0.0354657 0.999274 0.00171637
-0.009421 -0.0366201 0.999285 0
-0.0854052 -0.0125916 0.996267 0.00459271
-0.0918957 -0.0140002 0.99567 0.00847712
-0.0925344 -0.013712 0.995615 0.00425508
-0.0988263 -0.0184542 0.994934 0.00493399
-0.101512 -0.0175682 0.994679 0.00756613
-0.1035 -0.0148089 0.994519 0.00915293
-0.102551 -0.0204075 0.994518 0.00672788
-0.101771 -0.0240717 0.994517 0.00143416
-0.0993805 -0.0253913 0.994725 0
0.171942 -0.0587611 0.983353 0.0106036
0.182646 -0.0570497 0.981522 0.0111233
0.192451 -0.0567064 0.979667 0.0124722
0.19969 -0.0585502 0.978108 0.00824109
-0.141531 -0.0461586 0.988857 0.0148042
-0.138937 -0.0455113 0.989255 0.0207829
-0.13336 -0.0432023 0.990126 0.0208187
-0.127203 -0.0448599 0.990862 0.0140662
-0.125405 -0.0438727 0.991135 0.0123384
-0.110318 -0.0464739 0.992809 0.00785758
-0.103193 -0.0470088 0.99355 0.00743529
-0.0975816 -0.0459039 0.994168 0.00806238
-0.0789339 -0.0433554 0.995937 0.00728775
-0.0723479 -0.042949 0.996454 0.00849052
-0.0640561 -0.0412287 0.997094 0.00454819
-0.0584246 -0.0400274 0.997489 0.00435275
-0.0513356 -0.0362606 0.998023 0.00715125
-0.0407296 -0.0359992 0.998522 0.00422945
-0.0320099 -0.0358282 0.998845 0.00366943
-0.0234092 -0.0312997 0.999236 0.0113644
-0.0150109 -0.0305553 0.99942 0.0125922
-0.0081476 -0.0339751 0.999389 0.00388387
-0.00234275 -0.0349012 0.999388 0.00538309
-0.0844686 -0.0157476 0.996302 0.00194253
-0.0925964 -0.0175765 0.995549 0.0126686
-0.094974 -0.017525 0.995325 0.0118186
-0.0964189 -0.0227223 0.995081 0.00632136
-0.0977454 -0.0249259 0.994899 0.00388717
-0.100963 -0.0224672 0.994636 0.00423672
-0.102899 -0.0239325 0.994404 0.00600973
-0.10386 -0.0266016 0.994236 0.00813066
-0.10221 -0.0271049 0.994394 0.00112503
0.183799 -0.0504446 0.981669 0.0117996
0.193981 -0.054939 0.979466 0.0111753
0.200961 -0.0574031 0.977916 0.00284182
-0.139235 -0.0454015 0.989218 0.0169324
-0.129388 -0.0455682 0.990547 0.012026
-0.123198 -0.0441074 0.991401 0.0109081
-0.120735 -0.0436816 0.991723 0.00877713
-0.110086 -0.0454872 0.992881 0.00624335
-0.10253 -0.0457504 0.993677 0.00912275
-0.0970984 -0.0443233 0.994287 0.0118918
-0.0782346 -0.0418151 0.996058 0.00929924
-0.0716471 -0.0429561 0.996505 0.0097738
-0.0616636 -0.0434381 0.997151 0.0020816
-0.0565411 -0.0383886 0.997662 0.00559453
-0.0518915 -0.0357982 0.998011 0.0124685
-0.0408617 -0.0370513 0.998478 0.00979957
-0.0303929 -0.0373162 0.998841 0.00584941
-0.0218719 -0.0374045 0.999061 0.00492533
-0.0129993 -0.0359411 0.999269 0.00734645
-0.00748493 -0.0333204 0.999417 0.00850182
-0.000864038 -0.0334339 0.999441 0.00876263
0.0114296 -0.0370674 0.999247 0.00745962
-0.0883253 -0.0209836 0.995871 0.00764787
-0.0967179 -0.0236383 0.995031 0.0185454
-0.0948019 -0.0278804 0.995106 0.00818782
-0.0963566 -0.0278221 0.994958 0.00157292
-0.0990987 -0.0287737 0.994662 0
-0.10262 -0.0307624 0.994245 0.00550224
-0.104141 -0.0256162 0.994233 0.00637659
-0.102452 -0.0300326 0.994285 0
0.181123 -0.0469277 0.98234 0.00985247
0.190375 -0.0485038 0.980512 0.0101423
0.202169 -0.0520458 0.977967 0.00736617
0.212765 -0.0534093 0.975643 0.00513478
-0.140092 -0.0396521 0.989344 0.0201474
-0.128664 -0.0392342 0.990912 0.0169946
-0.123519 -0.0411694 0.991488 0.0114162
-0.121874 -0.042601 0.991631 0.0113277
-0.114146 -0.0420774 0.992573 0.00970024
-0.102773 -0.0423866 0.993801 0.010637
-0.0958065 -0.0413076 0.994543 0.0119666
-0.0794482 -0.0432859 0.995899 0.00833572
-0.070604 -0.0414052 0.996645 0.00624711
-0.0663568 -0.0399027 0.996998 0.0119099
-0.0587907 -0.0376652 0.99756 0.00840699
-0.0490267 -0.0414816 0.997936 0.00235002
-0.0390962 -0.0401279 0.998429 0
-0.0283642 -0.0424322 0.998697 0
-0.0202385 -0.0407379 0.998965 0
-0.0125693 -0.0381835 0.999192 0.00173679
-0.00833428 -0.0357557 0.999326 0.00765928
0.000557132 -0.0375071 0.999296 0.00103303
0.011113 -0.0402468 0.999128 0.00384172
-0.0831729 -0.0311442 0.996048 0
-0.0861011 -0.0261438 0.995943 0.00146852
-0.0926443 -0.0313673 0.995205 0.00451509
-0.0937328 -0.0330534 0.995049 0.00209808
-0.0954665 -0.0359972 0.994782 0
-0.0979145 -0.0375007 0.994488 0
-0.101035 -0.034455 0.994286 0
-0.10426 -0.0302472 0.99409 0.00669529
-0.102772 -0.0333029 0.994147 0.00345701
0.182866 -0.0438074 0.982161 0.00771036
0.191123 -0.0433926 0.980606 0.00978942
0.198134 -0.0464191 0.979075 0.00269026
0.209247 -0.0488306 0.976643 0
-0.132866 -0.0402704 0.990315 0.0133786
-0.125323 -0.0403534 0.991295 0.0118129
-0.119902 -0.042545 0.991874 0.00697138
-0.119751 -0.0405154 0.991977 0.00812561
-0.111823 -0.0421835 0.992832 0.00879959
-0.103907 -0.0414124 0.993724 0.00993101
-0.0761602 -0.0448141 0.996088 0.00311393
-0.0719785 -0.0423976 0.996505 0.00673052
-0.0642512 -0.0415369 0.997069 0.00396313
-0.0560609 -0.0423789 0.997528 0.000280774
-0.0496194 -0.0395613 0.997984 0.00281939
-0.0403345 -0.0388777 0.99843 0.0049103
-0.0305385 -0.0414978 0.998672 0.00265851
-0.0210607 -0.0413246 0.998924 0.00277331
-0.0130389 -0.0395211 0.999134 0.00415316
-0.0081169 -0.0397601 0.999176 0.00746351
-8.39754e-05 -0.0414872 0.999139 0.00188573
0.00810482 -0.0396364 0.999181 0.00452304
0.014458 -0.0397141 0.999106 0.00748437
-0.0828664 -0.0399798 0.995758 0.00260154
-0.0833858 -0.0389284 0.995757 0.00192955
-0.0890133 -0.0383078 0.995293 0
-0.092698 -0.0408727 0.994855 0
-0.0973392 -0.0392503 0.994477 0
-0.0980297 -0.0435961 0.994228 0
-0.101394 -0.0396352 0.994057 0.000976639
-0.106031 -0.0339854 0.993782 0.0112543
-0.104077 -0.0339139 0.993991 0.00595383
-0.102139 -0.0376919 0.994056 0.00157716
0.196381 -0.0446833 0.979509 0.00129481
0.208315 -0.0466237 0.97695 0
-0.129335 -0.0385686 0.990851 0.0072695
-0.120448 -0.0426795 0.991802 0.00692273
-0.117945 -0.0414413 0.992155 0.00511631
-0.117943 -0.0397788 0.992223 0.00806493
-0.110247 -0.0421072 0.993012 0.00674609
-0.0965154 -0.0427182 0.994414 0.0118419
-0.0782879 -0.0459456 0.995871 0.00364171
-0.0706688 -0.044864 0.99649 0.00305469
-0.0648529 -0.0446014 0.996898 0.0050994
-0.0490483 -0.0404117 0.997979 0.00731637
-0.0395959 -0.038965 0.998456 0.00609165
-0.0306923 -0.0409858 0.998688 0.00605183
-0.0217537 -0.042071 0.998878 0.00439903
-0.0136461 -0.041672 0.999038 0
-0.0100294 -0.0415544 0.999086 0.00806459
-0.00357435 -0.041732 0.999122 0.00906449
0.00646684 -0.0435467 0.99903 0.00476196
0.012947 -0.0439413 0.99895 0.00628101
-0.0822118 -0.0458267 0.995561 0
-0.0836218 -0.0444246 0.995507 0
-0.086594 -0.0453012 0.995213 0
-0.0919334 -0.0473291 0.99464 0
-0.0961368 -0.0484848 0.994187 0
-0.0971788 -0.0466448 0.994173 0
-0.10068 -0.0403049 0.994102 0.00297545
-0.102788 -0.0426646 0.993788 0.00531272
-0.101911 -0.0448079 0.993784 0.000537669
0.198075 -0.0423782 0.97927 0
0.207892 -0.043738 0.977173 0
-0.124727 -0.0370658 0.991499 0.00435827
-0.120712 -0.0401493 0.991875 0.00591243
-0.119129 -0.0390182 0.992112 0.00683445
-0.118969 -0.0391899 0.992124 0.0126013
-0.111774 -0.0390123 0.992968 0.0111907
-0.0957352 -0.0415285 0.99454 0.00971933
-0.0414511 -0.0399086 0.998343 0.0100041
-0.0328657 -0.0414287 0.998601 0.00404896
-0.0222504 -0.0424522 0.998851 0
-0.0155956 -0.0404314 0.999061 0.00317664
-0.0120681 -0.041056 0.999084 0.00757036
-0.0049687 -0.0458034 0.998938 0.001717
0.00614493 -0.0459393 0.998925 0.00405008
0.0124197 -0.0454066 0.998891 0.0102263
-0.082899 -0.0500849 0.995299 0.00340679
-0.0827264 -0.0518328 0.995223 0
-0.0868911 -0.0524576 0.994836 0
-0.0906911 -0.0527604 0.99448 0
-0.0949427 -0.0523367 0.994106 0
-0.0967171 -0.0523553 0.993934 0
-0.0985893 -0.0495478 0.993894 0
-0.100833 -0.0518603 0.993551 0
-0.100543 -0.0535961 0.993488 0
0.198867 -0.0411451 0.979162 0
0.209308 -0.0409309 0.976993 0
-0.129328 -0.0346956 0.990995 0.00362433
-0.120789 -0.0362448 0.992016 0.00629218
-0.120345 -0.0372914 0.992032 0.0105073
-0.0437744 -0.040271 0.998229 0.00674695
-0.0353629 -0.0410709 0.99853 0.00569861
-0.0245492 -0.040884 0.998862 0.00427912
-0.0181648 -0.0405336 0.999013 0.00862037
-0.0127689 -0.0442753 0.998938 0.00324675
-0.00716544 -0.0460363 0.998914 0.00387625
0.00445235 -0.0481069 0.998832 0.00373858
0.00924555 -0.0450032 0.998944 0.0113833
0.0181763 -0.0504848 0.998559 0.0071441
-0.0805304 -0.060756 0.994899 0
-0.0831399 -0.0577508 0.994863 0
-0.0872013 -0.0568725 0.994566 0
-0.0896956 -0.0560652 0.99439 0
-0.0926127 -0.0567247 0.994085 0
-0.0964969 -0.052858 0.993929 0.000998794
-0.0996163 -0.054151 0.993551 0
-0.0993346 -0.057145 0.993412 0
0.188563 -0.0377174 0.981337 0
0.197773 -0.0367956 0.979557 0
0.210722 -0.0372166 0.976837 0
-0.158984 -0.0312653 0.986786 0.00727033
-0.127793 -0.0327495 0.99126 0.00238183
-0.117722 -0.0364781 0.992376 0.00275909
-0.115358 -0.0378239 0.992604 0.00214461
-0.0336264 -0.0452228 0.998411 0
-0.0252464 -0.0451068 0.998663 0.000160795
-0.0197895 -0.0435895 0.998854 0.00432833
-0.0156591 -0.0450125 0.998864 0.00532414
-0.00787725 -0.0457203 0.998923 0.00220249
0.00238376 -0.0475351 0.998867 0.00601618
0.00832877 -0.0471953 0.998851 0.00823215
0.0143774 -0.0516573 0.998561 0.00620134
0.0160107 -0.0530662 0.998463 0.00647235
-0.0738907 -0.0646979 0.995166 0.00349569
-0.0800924 -0.0648788 0.994674 0
-0.0820196 -0.0645488 0.994538 0
-0.0845716 -0.0630143 0.994423 0
-0.0884632 -0.0625133 0.994116 0
-0.0934121 -0.0569484 0.993998 0
-0.0969155 -0.0565173 0.993687 0.00388367
-0.097748 -0.0565733 0.993602 0.00251163
-0.0988514 -0.0585603 0.993378 0.000439634
-0.0987464 -0.0588919 0.993369 0
-0.0986931 -0.0604778 0.993279 0
0.188172 -0.0345339 0.981529 0
0.196473 -0.0340773 0.979917 0
0.207139 -0.0347923 0.977693 0
-0.12662 -0.0288679 0.991531 0.00304387
-0.119176 -0.030499 0.992405 0.00244184
-0.115297 -0.0295495 0.992891 0.0039804
-0.112886 -0.0307174 0.993133 0.00249384
-0.0277675 -0.0435355 0.998666 0.00220888
-0.0234414 -0.0427485 0.998811 0.00373541
-0.0162641 -0.0454928 0.998832 0.00147787
-0.010403 -0.0454692 0.998912 0.00580342
0.00131195 -0.0484673 0.998824 0.00649136
0.0076947 -0.0538296 0.99852 0
0.0120788 -0.0552497 0.998399 0
0.0150745 -0.0598767 0.998092 0
0.0177023 -0.0640182 0.997792 0
0.0198889 -0.0637603 0.997767 0
-0.0700337 -0.070915 0.995021 0
-0.0751474 -0.0671201 0.994911 0.00539792
-0.0774549 -0.0653672 0.994851 0.00145893
-0.07943 -0.0716394 0.994263 0
-0.0837838 -0.0681025 0.994154 0
-0.0876131 -0.0674053 0.993871 0
-0.0926205 -0.0625325 0.993736 0
-0.0950404 -0.0610195 0.993602 0.000590483
-0.0958469 -0.060531 0.993554 3.75613e-05
-0.0964335 -0.0632028 0.993331 0
0.190996 -0.0319162 0.981072 0
0.20165 -0.0312988 0.978957 0
-0.126822 -0.0252492 0.991604 0.00200759
-0.117847 -0.0282762 0.992629 0
-0.113993 -0.0273503 0.993105 0.000592579
-0.114163 -0.0255645 0.993133 0.00435451
-0.0274218 -0.0426067 0.998716 0.00215702
-0.0243105 -0.044626 0.998708 0.00390195
-0.02015 -0.0460842 0.998734 0
-0.0119566 -0.0469566 0.998825 0
-0.00223197 -0.0469579 0.998894 0.00481845
0.00523505 -0.0531786 0.998571 0
0.00850146 -0.0548117 0.998461 0.00194856
0.0120403 -0.0594736 0.998157 0
0.0153875 -0.0629872 0.997896 0
0.0165944 -0.0643492 0.99779 0.000452244
0.0153678 -0.066787 0.997649 0.00978086
0.0143541 -0.0686336 0.997539 0.0116285
-0.0648118 -0.0779843 0.994846 0.00238627
-0.0689192 -0.0728776 0.994957 0.00180026
-0.0733192 -0.0734863 0.994597 0
-0.0769403 -0.0730923 0.994353 0
-0.0791343 -0.0736758 0.994138 0
-0.0836277 -0.0721619 0.993881 0
-0.0882692 -0.0682159 0.993758 0.000859743
-0.0918852 -0.0666806 0.993535 0
-0.0931018 -0.0657646 0.993482 0
-0.0931864 -0.0657295 0.993477 0
-0.0947868 -0.0664814 0.993275 0
0.188534 -0.0301146 0.981605 0
0.200179 -0.0286042 0.979342 0
-0.125429 -0.0227949 0.991841 0
-0.117556 -0.0248719 0.992755 0
-0.115414 -0.02324 0.993046 0.00134348
-0.110042 -0.0221939 0.993679 0.00960136
-0.0238701 -0.0450852 0.998698 0
-0.0159467 -0.0449447 0.998862 0
-0.00513017 -0.0488575 0.998793 0
0.00113602 -0.0524223 0.998624 0
0.00546296 -0.0558318 0.998425 0
0.00856755 -0.0594663 0.998194 0
0.013556 -0.0628726 0.997929 0
0.012968 -0.062648 0.997951 0.00551459
0.0125871 -0.0651809 0.997794 0.00688075
0.0133864 -0.068255 0.997578 0.00976485
-0.0588039 -0.0857406 0.994581 0
-0.0647894 -0.082895 0.99445 0
-0.0678406 -0.0782712 0.994621 0.00155661
-0.0715236 -0.0794517 0.994269 0
-0.0753454 -0.0778314 0.994115 0
-0.0791776 -0.0782856 0.993782 0
-0.0837343 -0.0748507 0.993673 0.000317671
-0.0894318 -0.0686583 0.993624 0.00650552
-0.0906849 -0.0684182 0.993527 0.0005076
-0.0910416 -0.0711289 0.993304 0
-0.0917494 -0.0695577 0.99335 0
0.183368 -0.0208033 0.982824 0.00300107
0.18973 -0.0213631 0.981604 0.00220401
0.201117 -0.0220648 0.979319 0.00356119
-0.129178 -0.0164127 0.991486 0.00315349
-0.120945 -0.0150389 0.992545 0.00279754
-0.116735 -0.0178595 0.993002 0.00336577
-0.0243918 -0.0446861 0.998703 0
-0.0168133 -0.0477539 0.998718 0
-0.00938387 -0.0492902 0.99874 0
-0.0026649 -0.053441 0.998567 0
0.00134065 -0.055078 0.998481 0
0.00355517 -0.0571025 0.998362 0.000193613
0.00853499 -0.0604559 0.998134 0
0.0103527 -0.0631117 0.997953 0.00491699
0.0115174 -0.0697964 0.997495 0.00280932
0.0116095 -0.0705155 0.997443 0.00450855
0.0132074 -0.0763333 0.996995 0.00235454
-0.00278119 -0.07497 0.997182 0.00905513
-0.0118932 -0.0814759 0.996604 0.00697439
-0.0516535 -0.0898102 0.994619 0
-0.0607228 -0.087091 0.994348 0
-0.0662171 -0.0827332 0.994369 0.00227756
-0.0696863 -0.0811352 0.994264 0
-0.0742037 -0.0820505 0.993862 0
-0.0798748 -0.0791728 0.993656 0.00373066
-0.0831618 -0.0763703 0.993605 0.00225397
-0.085876 -0.0762305 0.993385 0.00267555
-0.0865663 -0.0721309 0.993631 0
-0.0888686 -0.0729752 0.993366 0.000568075
-0.0890269 -0.0753384 0.993176 0
-0.091063 -0.0720121 0.993238 0
0.185382 -0.013028 0.98258 0.00492836
0.19162 -0.0149294 0.981356 0.00463561
0.196516 -0.0171874 0.98035 0.00042446
-0.128781 -0.0120425 0.9916 0.000250074
-0.120434 -0.0149936 0.992608 0.000259352
-0.118948 -0.0152714 0.992783 0.00730818
-0.0244845 -0.0449142 0.998691 0
-0.0225839 -0.0480717 0.998589 0
-0.0151522 -0.0496825 0.99865 0
-0.00840078 -0.0533005 0.998543 0
-0.00233806 -0.0520547 0.998641 0.00426896
-0.00035535 -0.0536618 0.998559 0.00399791
0.00399959 -0.0609931 0.99813 0
0.00806941 -0.0661904 0.997774 0
0.00903098 -0.0684458 0.997614 0.000413172
0.00925102 -0.0708668 0.997443 0.00206184
0.00921533 -0.0730167 0.997288 0.00491102
0.008659 -0.0721341 0.997357 0.00750834
0.0011317 -0.0743845 0.997229 0.00656278
-0.00322207 -0.0759731 0.997105 0.00769351
-0.00813132 -0.0820294 0.996597 0.00318385
-0.0119203 -0.0836119 0.996427 0.00692838
-0.0235777 -0.0884405 0.995802 0.00838332
-0.0274431 -0.0917858 0.995401 0.012089
-0.0307554 -0.0940701 0.99509 0.000191442
-0.0395263 -0.0934557 0.994839 0.00221354
-0.0460302 -0.0925478 0.994644 0.000865893
-0.0520153 -0.0920545 0.994394 0
-0.0582595 -0.0909645 0.994149 0
-0.0657852 -0.0860484 0.994117 0.00203003
-0.0699961 -0.0846599 0.993948 0.00508765
-0.0749914 -0.0814918 0.993849 0.00794822
-0.0785295 -0.0799597 0.9937 0.00666264
-0.0783416 -0.0842406 0.993361 0
-0.0814562 -0.0820939 0.99329 0
-0.0836095 -0.077478 0.993482 0
-0.0854882 -0.0760524 0.993432 0
-0.0864286 -0.0751842 0.993417 0
0.186117 -0.00901729 0.982486 0.00528386
0.193479 -0.00780812 0.981073 0.00672952
0.200707 -0.00911513 0.979609 0.00460321
-0.130384 -0.0109925 0.991403 0.00251712
-0.124073 -0.00915175 0.992231 0.00680848
-0.120477 -0.00885405 0.992677 0.00855157
-0.0220762 -0.046987 0.998652 0
-0.0119132 -0.0501881 0.998669 0
-0.00726534 -0.049816 0.998732 0.00366497
-0.00360408 -0.0517291 0.998655 0.00420496
0.0023054 -0.0606475 0.998157 0
0.00429553 -0.0667837 0.997758 0
0.00555783 -0.068146 0.99766 0.00553437
0.00664534 -0.0679415 0.997667 0.00247269
0.00587271 -0.0704292 0.9975 0.00121776
0.0050594 -0.0702223 0.997519 0.00835601
0.000479088 -0.07404 0.997255 0.00592152
-0.00114912 -0.0771763 0.997017 0.00930011
-0.00459187 -0.0792169 0.996847 0.00387902
-0.00718391 -0.0828467 0.996536 0.00802042
-0.00951919 -0.0842594 0.996398 0.00455379
-0.013417 -0.0840807 0.996369 0.00350962
-0.0179624 -0.0858828 0.996143 0.0115041
-0.021226 -0.0882716 0.99587 0.0123789
-0.0285035 -0.0940771 0.995157 0.0131564
-0.0292889 -0.0970063 0.994853 0.00297263
-0.0346909 -0.098658 0.994517 0.000341856
-0.0401069 -0.0965258 0.994522 0.0037484
-0.0464593 -0.0939874 0.994489 0.00294827
-0.0496955 -0.0947867 0.994256 0
-0.0576066 -0.0926601 0.99403 0
-0.0629923 -0.0925418 0.993714 0
-0.0672599 -0.0896782 0.993697 0
-0.0722878 -0.0832637 0.993902 0.00705004
-0.0756183 -0.0845029 0.99355 0.00279796
-0.0769511 -0.085524 0.99336 0
-0.0798717 -0.0817164 0.99345 0
-0.084724 -0.0774147 0.993393 0.00167096
0.18817 -0.00181174 0.982135 0.00934217
0.190496 -0.00297386 0.981683 0.00244368
-0.136177 -0.00540263 0.99067 0.00781352
-0.127049 -0.00486536 0.991885 0.00591746
-0.123147 -0.00531914 0.992374 0.00464223
-0.0156688 -0.0498344 0.998635 0
-0.0113106 -0.051332 0.998618 0
-0.0060765 -0.0538307 0.998532 0
-0.00167572 -0.0602778 0.99818 0
0.000493121 -0.0634821 0.997983 0.00353162
0.00215435 -0.0670052 0.99775 0.00250885
0.00288284 -0.0681933 0.997668 0.000394707
0.00227073 -0.0707523 0.997491 4.61858e-05
0.00258434 -0.0720123 0.9974 0.00368895
-0.00013062 -0.0752864 0.997162 0.00538987
-0.00263397 -0.0793721 0.996842 0.00598434
-0.00665825 -0.0812088 0.996675 0.00791998
-0.00895153 -0.0831406 0.996498 0.00548882
-0.0124754 -0.0844759 0.996347 0.00855147
-0.0149713 -0.0864405 0.996144 0.00498722
-0.0181161 -0.0892797 0.995842 0.00321119
-0.0211212 -0.093052 0.995437 0.00676222
-0.029635 -0.095744 0.994965 0.00922923
-0.0315639 -0.0987158 0.994615 0.00229894
-0.0330817 -0.101757 0.994259 0
-0.0405508 -0.10028 0.994133 0.000548736
-0.0442329 -0.100161 0.993988 0
-0.0468435 -0.0993763 0.993947 0
-0.057009 -0.092938 0.994038 0.00568109
-0.0612741 -0.0944258 0.993644 0
-0.0665923 -0.089075 0.993796 0
-0.0715971 -0.087671 0.993573 0.00622112
-0.0734563 -0.0839057 0.993762 0.00223894
-0.0759412 -0.083352 0.993622 0
-0.0801393 -0.0809417 0.993492 0.00769472
0.180015 0.00504775 0.983651 0.0057767
0.188523 0.000909107 0.982068 0
-0.13579 -0.00365693 0.990731 0.00587354
-0.130179 -0.00150159 0.991489 0.0062074
-0.124712 -0.00399564 0.992185 0.00232827
-0.0141067 -0.050897 0.998604 0
-0.00780715 -0.0534983 0.998537 0
-0.00448923 -0.0547803 0.998488 0.00417631
-0.002006 -0.0606044 0.99816 0.00478291
-0.00167667 -0.0648258 0.997895 0.00110987
-0.000644479 -0.0711052 0.997469 0
-0.00134324 -0.0716629 0.997428 0
-0.000703191 -0.0737155 0.997279 0
-0.0028597 -0.0728962 0.997335 0.00823632
-0.00442507 -0.0769136 0.997028 0.0061484
-0.00732883 -0.0805104 0.996727 0.0066656
-0.0109217 -0.0836813 0.996433 0.00500494
-0.0138432 -0.0845696 0.996321 0.010768
-0.0183863 -0.0851064 0.996202 0.00839081
-0.0208889 -0.0885486 0.995853 0.00886219
-0.0217313 -0.0926275 0.995464 0.00450584
-0.0281319 -0.0958603 0.994997 0.00829595
-0.0318176 -0.0985133 0.994627 0.00937751
-0.0358913 -0.101094 0.994229 0.00108743
-0.0404045 -0.100565 0.99411 0.0016004
-0.0437274 -0.0998774 0.994038 0
-0.0486819 -0.0987311 0.993923 0.000610431
-0.0575711 -0.0944698 0.993862 0.00921505
-0.061174 -0.093535 0.993735 0.00443182
-0.0646397 -0.0906269 0.993785 0.00132127
-0.0705319 -0.0887364 0.993555 0.00896798
-0.0710245 -0.0858876 0.99377 0.00227393
-0.0752801 -0.0842075 0.9936 0
0.175583 0.00647858 0.984443 0
0.185557 0.0102341 0.98258 0.00206191
-0.143046 0.00417044 0.989707 0.0104905
-0.132522 0.00192888 0.991178 0.00813763
-0.129127 0.00292387 0.991624 0.0042228
-0.0165031 -0.0470747 0.998755 0
-0.00848444 -0.0531593 0.99855 0.000595268
-0.00510745 -0.0591721 0.998235 0.00370037
-0.00481574 -0.0653494 0.997851 0
-0.00586737 -0.0674993 0.997702 0.000415304
-0.00522705 -0.07005 0.99753 0
-0.00431229 -0.0740082 0.997248 0
-0.00517596 -0.0751165 0.997161 0.00041886
-0.00754563 -0.0753972 0.997125 0.0012775
-0.00980676 -0.0794359 0.996792 0.00419524
-0.0121445 -0.0829701 0.996478 0.00417855
-0.0150098 -0.085003 0.996268 0.0048722
-0.0183531 -0.0874443 0.996 1.17951e-05
-0.0208305 -0.0885683 0.995852 0.00763921
-0.0236411 -0.0916066 0.995515 0.00309012
-0.0294692 -0.0941454 0.995122 0.0119106
-0.0324716 -0.0951459 0.994934 0.0121482
-0.0341862 -0.0984606 0.994554 0.00130539
-0.0391891 -0.0971783 0.994495 0.0065562
-0.0426693 -0.0999793 0.994074 0.00513881
-0.0475836 -0.100154 0.993833 0.0101287
-0.0580955 -0.0921568 0.994048 0.0136703
-0.0607391 -0.0948804 0.993634 0.00599176
-0.0621299 -0.0911688 0.993895 0.00390959
-0.0689661 -0.0870096 0.993817 0.00590998
0.165232 0.0170702 0.986107 0.000680279
0.180692 0.0191646 0.983353 0.00938078
0.18675 0.0197021 0.98221 0.00772533
-0.144636 0.006021 0.989467 0.0088545
-0.137588 0.00644385 0.990469 0.00982651
-0.130691 0.0037464 0.991416 0.00549422
-0.128169 0.000682721 0.991752 0.00528459
-0.113331 -0.00801511 0.993525 0
-0.00788048 -0.0580764 0.998281 0.00113639
-0.00951061 -0.0583435 0.998251 0.00575604
-0.0102074 -0.0616933 0.998043 0.00987906
-0.0103918 -0.0639659 0.997898 0.00657886
-0.00827673 -0.068649 0.997607 0.000587994
-0.00909567 -0.0715329 0.997397 0.0102685
-0.0093398 -0.0783678 0.996881 0.000677185
-0.0121396 -0.0799055 0.996728 0.00246596
-0.0125916 -0.081934 0.996558 0.000670163
-0.0147741 -0.0861263 0.996175 0.00342267
-0.0203284 -0.0866551 0.996031 0.0141525
-0.0207034 -0.0884465 0.995866 0.00316048
-0.023015 -0.0929045 0.995409 0.0013251
-0.0266452 -0.0929479 0.995314 0.00560855
-0.0315616 -0.0943973 0.995034 0.0110286
-0.0343701 -0.10038 0.994355 0.00914507
-0.0380471 -0.098563 0.994403 0.00989685
-0.042661 -0.0976517 0.994306 0.00852996
-0.0485091 -0.0982106 0.993983 0.0119778
-0.0574918 -0.0952089 0.993796 0.0159609
-0.0582256 -0.0941736 0.993852 0
-0.0592938 -0.0946187 0.993746 0
0.166236 0.0234113 0.985808 0.000700542
0.182893 0.0297486 0.982683 0.0098531
0.19254 0.0307642 0.980807 0.0142002
-0.141851 0.00482763 0.989876 0.0031079
-0.137651 0.00616558 0.990462 0.00697588
-0.136474 0.00767686 0.990614 0.00864415
-0.12989 0.00366002 0.991522 0.0040374
-0.114243 -0.00749689 0.993425 0
-0.0140077 -0.0537894 0.998454 0.00520863
-0.011572 -0.0573912 0.998285 0.000675464
-0.0132868 -0.0586771 0.998189 0.00544324
-0.0114769 -0.0658774 0.997762 0.0054385
-0.01225 -0.0709812 0.997402 0.0111598
-0.0115031 -0.075951 0.997045 0.00292865
-0.0124819 -0.0803979 0.996685 0
-0.0141019 -0.082078 0.996526 0.00112741
-0.0169898 -0.0813312 0.996542 0.00973297
-0.0208326 -0.0824543 0.996377 0.00959823
-0.0223071 -0.0858332 0.99606 0.00488212
-0.0248281 -0.0904001 0.995596 0
-0.0280638 -0.0943147 0.995147 0.000129465
-0.031974 -0.0926438 0.995186 0.00762318
-0.0343508 -0.0993252 0.994462 0.00996125
-0.0385714 -0.0989437 0.994345 0.0115497
-0.0450181 -0.0955302 0.994408 0.0159169
-0.049481 -0.0948718 0.994259 0.0153324
-0.0578869 -0.0924245 0.994036 0.01458
0.168857 0.0299923 0.985184 0.00898022
0.185336 0.0374438 0.981962 0.0100693
-0.149042 0.0148385 0.98872 0.00519691
-0.141407 0.00944029 0.989906 0.00503426
-0.134781 0.00520082 0.990862 0.00216469
-0.128433 0.00179626 0.991717 0.00198041
-0.122658 0.000414921 0.992449 3.76565e-05
-0.114916 0.000280066 0.993375 0.00147171
-0.0139467 -0.0558166 0.998344 0
-0.0139214 -0.063665 0.997874 0.00285793
-0.0153356 -0.0715898 0.997316 0.00698475
-0.0149122 -0.0756298 0.997024 0.00273254
-0.0146654 -0.0771324 0.996913 0.0025158
-0.0164369 -0.0773238 0.996871 0.00332327
-0.0201815 -0.0778612 0.99676 0.00858558
-0.0225604 -0.082673 0.996321 0.00756066
-0.0235749 -0.0847881 0.99612 3.40009e-05
-0.0255099 -0.0889262 0.995712 0
-0.0281696 -0.0935712 0.995214 0
-0.031773 -0.0933732 0.995124 0.00198317
-0.0348854 -0.0962058 0.99475 0.00779492
-0.0402632 -0.0957018 0.994595 0.0164197
-0.0447871 -0.091753 0.994774 0.0202751
-0.0475728 -0.0904509 0.994764 0.0169446
0.16523 0.0411183 0.985397 0.0122332
0.172749 0.0392914 0.984182 0.00841344
0.17871 0.0395483 0.983107 0.00125654
-0.15199 0.0157237 0.988257 0.00804442
-0.142139 0.0113611 0.989781 0.00247328
-0.134778 0.00789002 0.990844 0
-0.129392 0.00518811 0.99158 0.00315856
-0.122782 0.00427803 0.992424 0
-0.11615 0.0043745 0.993222 0.00409073
-0.0187032 -0.0696692 0.997395 0.00708256
-0.0185091 -0.0731159 0.997152 0.00493589
-0.01799 -0.0733449 0.997144 0.00098631
-0.0216046 -0.0775367 0.996755 0.00627468
-0.0219481 -0.0767268 0.996811 0.0102915
-0.0240892 -0.078504 0.996623 0.00960176
-0.024946 -0.0850316 0.996066 0
-0.0286168 -0.0863006 0.995858 0.000469554
-0.0320885 -0.086178 0.995763 0.00500009
-0.0316849 -0.0901604 0.995423 0
-0.0407108 -0.0942617 0.994715 0.012231
-0.0434512 -0.090723 0.994928 0.0140231
-0.0469005 -0.090721 0.994771 0.0127866
0.164744 0.0430181 0.985398 0.0107611
0.177691 0.0497825 0.982826 0.0122614
0.185434 0.048981 0.981435 0.0115512
-0.156064 0.0205923 0.987532 0.00632359
-0.147727 0.0192133 0.988842 0.0033346
-0.141651 0.0177639 0.989757 0.00549826
-0.13388 0.0133235 0.990908 0.00362696
-0.1268 0.0109743 0.991868 0.00197134
-0.118006 0.0103668 0.992959 0.00456154
-0.0225302 -0.0664582 0.997535 0.00627263
-0.0214163 -0.0694339 0.997357 0.00197163
-0.0251475 -0.0716467 0.997113 0.0103202
-0.0269876 -0.0747528 0.996837 0.00736694
-0.0263942 -0.0796213 0.996476 0.000567827
-0.0290827 -0.0796545 0.996398 0.00266871
0.149724 0.0514851 0.987386 0.0172832
0.159222 0.0531984 0.985808 0.0173146
0.168432 0.0523297 0.984323 0.0124
0.170908 0.0491812 0.984059 0.000603399
-0.160795 0.0311709 0.986495 0.00666476
-0.151025 0.0267833 0.988167 0.00677048
-0.147763 0.0264608 0.988669 0.00796189
-0.138874 0.0218748 0.990068 0.00815257
-0.133029 0.0208801 0.990892 0.00904103
-0.123137 0.0190522 0.992207 0.00942457
0.149816 0.0550209 0.987182 0.0141935
0.157773 0.0548406 0.985951 0.0132249
0.168589 0.0584688 0.983951 0.00588468
0.17087 0.0605778 0.98343 0.0070639
-0.165218 0.0383509 0.985511 0.00998399
-0.159074 0.0360672 0.986608 0.0132586
-0.150111 0.0318991 0.988154 0.00931837
-0.142157 0.0288143 0.989425 0.0116505
-0.136987 0.0272751 0.990197 0.0136737
-0.126946 0.0300379 0.991455 0.0134686
0.139957 0.0537108 0.9887 0.00734106
0.149576 0.0582434 0.987033 0.00870567
0.161543 0.0643674 0.984764 0.0105409
0.175348 0.067744 0.982173 0.00999347
-0.165333 0.0448546 0.985217 0.0164575
-0.154707 0.0411862 0.987102 0.014327
-0.143759 0.036056 0.988956 0.0131741
-0.139323 0.037617 0.989532 0.0131803
-0.124834 0.0359326 0.991527 0.0131393
-0.117851 0.0331431 0.992478 0.0130839
0.141955 0.0569718 0.988232 0.00707401
0.149949 0.0616696 0.986769 0.00360872
0.158165 0.067156 0.985126 0.00447209
0.166752 0.0722694 0.983347 0.00707696
-0.145803 0.0458644 0.98825 0.0109556
-0.138288 0.0449524 0.989371 0.0111512
-0.128002 0.0444818 0.990776 0.0137955
-0.116603 0.0402808 0.992361 0.0113364
0.137978 0.0636531 0.988388 0
0.143196 0.0640768 0.987618 0.00099335
0.152953 0.0655431 0.986058 0.00725867
0.160359 0.0711544 0.984491 0.0102716
-0.14219 0.0482401 0.988663 0.00771989
-0.138891 0.0529053 0.988893 0.00854638
-0.132307 0.0538262 0.989746 0.016694
-0.120702 0.0488042 0.991488 0.0130991
-0.118069 0.0505124 0.99172 0.0131324
0.146167 0.0751206 0.986404 0.00842679
0.147992 0.0715038 0.9864 0.000924291
-0.134854 0.0616063 0.988948 0.0153749
-0.124923 0.057103 0.990522 0.0140515
-0.121044 0.054876 0.991129 0.0142719
0.150943 0.0854866 0.984839 0.0148282
0.158843 0.0891822 0.983268 0.0120895
-0.127159 0.0619054 0.989949 0.0123988
-0.118742 0.0561082 0.991339 0.0123147
0.151849 0.089187 0.984372 0.0138081
0.157986 0.0917767 0.983167 0.0144611
-0.131441 0.0695459 0.988882 0.0141074
-0.123587 0.0640397 0.990265 0.0107343
-0.117022 0.0626701 0.99115 0.0160857
0.149098 0.0868691 0.984999 0.00715555
