-0.0484061 -0.00535842 0.998813 0.00425816
-0.048056 -0.00345976 0.998839 0.00543254
-0.0487892 -0.0020469 0.998807 0.00282119
-0.0488585 -0.000499689 0.998806 0.0025023
-0.050325 0.00134423 0.998732 0.0063136
-0.051052 0.00264248 0.998693 0.00764636
-0.0507326 0.00435953 0.998703 0.00842825
-0.0515952 0.00608153 0.99865 0.00820925
-0.0515011 0.0078404 0.998642 0.0114289
-0.0517485 0.00957314 0.998614 0.0077711
-0.0526861 0.0113439 0.998547 0.00798613
-0.0518731 0.0126953 0.998573 0.00143865
-0.0524486 0.0145126 0.998518 0.00428564
-0.0513962 0.0155543 0.998557 0.000849308
-0.0521559 0.0175787 0.998484 0
-0.0519084 0.0188813 0.998473 0
-0.0522121 0.0203503 0.998429 0
-0.0516383 0.0218488 0.998427 0
-0.052324 0.0236907 0.998349 0
-0.052284 0.0249979 0.998319 0
-0.0529904 0.0269934 0.99823 0.00383975
-0.0530983 0.0292846 0.99816 0.00311174
-0.0535635 0.0309982 0.998083 0.00423321
-0.0534283 0.0318736 0.998063 0.00236433
-0.0546498 0.0347225 0.997902 0.00710043
-0.0557605 0.0366945 0.99777 0.0105689
-0.0557027 0.0387723 0.997694 0.00869212
-0.0550057 0.0415063 0.997623 0.00948781
-0.0545472 0.0440321 0.99754 0.00633717
-0.0547857 0.0477898 0.997354 0.00969635
-0.0551168 0.0496814 0.997243 0.0082808
-0.0557475 0.0530486 0.997035 0.0122724
-0.0554988 0.0544628 0.996972 0.00778887
-0.0553957 0.0563152 0.996875 0.00510636
-0.056425 0.0589109 0.996667 0.00632398
-0.0565615 0.061318 0.996514 0.00691476
-0.0565162 0.0638528 0.996358 0.00801182
-0.0558581 0.0651367 0.996312 0.000775732
-0.0557352 0.0677329 0.996145 0
-0.0562357 0.0725581 0.995777 0.0025498
-0.0570651 0.0781693 0.995306 0.00943746
-0.0570568 0.0831046 0.994906 0.0104363
-0.0573874 0.0860035 0.994641 0.00948106
-0.0573384 0.0898092 0.994307 0.00850419
-0.0577828 0.0948614 0.993812 0.0109974
-0.0590423 0.101043 0.993129 0.0120874
-0.0417122 -0.0688238 0.996756 0
-0.040011 -0.0662128 0.997003 0
-0.0398558 -0.0619861 0.997281 0
-0.0397678 -0.0581051 0.997518 0
-0.0410517 -0.0541777 0.997687 0
-0.0404948 -0.0515653 0.997848 0
-0.0395898 -0.0489768 0.998015 0.000384956
-0.0388249 -0.0467089 0.998154 0
-0.0404076 -0.0434983 0.998236 0
-0.0421102 -0.041566 0.998248 0.00866853
-0.0423684 -0.0394312 0.998324 0.00949068
-0.0415133 -0.0373689 0.998439 0.0090947
-0.0411445 -0.0351785 0.998534 0.00663565
-0.0408311 -0.0332784 0.998612 0.00617571
-0.0409469 -0.0312418 0.998673 0.00634312
-0.0409841 -0.0294775 0.998725 0.00676635
-0.0415911 -0.027593 0.998754 0.00721268
-0.0416734 -0.0253928 0.998809 0.00656644
-0.0422729 -0.0237059 0.998825 0.00693717
-0.042872 -0.0219023 0.998841 0.00527532
-0.0422296 -0.0201634 0.998904 0.00261881
-0.0417971 -0.0186991 0.998951 0.00386928
-0.0412169 -0.0171918 0.999002 0.00148577
-0.0420667 -0.0158191 0.99899 0.00420018
-0.0418067 -0.0144234 0.999022 0.00237473
-0.0405608 -0.0129463 0.999093 0
-0.0413934 -0.0114819 0.999077 0
-0.040642 -0.0101672 0.999122 0
-0.0402721 -0.00880264 0.99915 0
-0.0408262 -0.00763094 0.999137 0
-0.0412824 -0.00624956 0.999128 0
-0.0413308 -0.0045639 0.999135 0
-0.0417274 -0.00301002 0.999125 0
-0.0414321 -0.00228552 0.999139 0
-0.0407405 -0.00116299 0.999169 0
-0.0406128 -5.31248e-05 0.999175 0
-0.0412342 0.000834085 0.999149 0
-0.0403991 0.00202237 0.999182 0
-0.0399687 0.00306919 0.999196 0
-0.0398154 0.00403417 0.999199 0
-0.0408066 0.00490409 0.999155 0.00311506
-0.0403798 0.00557997 0.999169 0.000978275
-0.0410476 0.0064466 0.999136 0.00517114
-0.0405196 0.00731722 0.999152 0.00551864
-0.0413058 0.00830899 0.999112 0.0103445
-0.0402774 0.0088612 0.999149 0.00731743
-0.0389088 0.00909947 0.999201 0.00925726
-0.03969 0.00974693 0.999165 0.00965446
-0.0397606 0.010317 0.999156 0.010716
-0.0403917 0.0106985 0.999127 0.00814244
-0.0393174 0.0108815 0.999168 0.00594634
-0.0388598 0.0110942 0.999183 0.00456582
-0.039053 0.0113758 0.999172 0.00452546
-0.0384949 0.011737 0.99919 0.00432167
-0.0391337 0.0120784 0.999161 0.00592683
-0.0395971 0.0124582 0.999138 0.0080767
-0.0407209 0.0127876 0.999089 0.0120224
-0.0408654 0.0129382 0.999081 0.0134938
-0.0407389 0.0129632 0.999086 0.0133089
-0.0414238 0.0130703 0.999056 0.0153992
-0.0423757 0.0130907 0.999016 0.0153048
-0.0424984 0.0130021 0.999012 0.0131947
-0.0447168 0.0129999 0.998915 0.0157528
-0.0436246 0.0128214 0.998966 0.0150242
-0.0434746 0.0137821 0.998959 0.0107101
-0.0426621 0.0150509 0.998976 0.00774038
-0.0430803 0.0163264 0.998938 0.00587748
-0.0438384 0.0172081 0.99889 0.0066926
-0.0459691 0.0183836 0.998774 0.00767387
-0.0471395 0.0193442 0.998701 0.00920838
-0.0476282 0.0202751 0.998659 0.00737679
-0.0492324 0.0209519 0.998568 0.00837485
-0.0490442 0.0215664 0.998564 0.00928295
-0.0488549 0.0219204 0.998565 0.0085446
-0.0467997 0.0219757 0.998663 0.00622024
-0.0495798 0.0220118 0.998528 0.00566945
-0.050964 0.0218122 0.998462 0.0014923
-0.0508234 0.0216422 0.998473 0.00198844
-0.0518603 0.0212967 0.998427 0
-0.0541774 0.0212897 0.998304 0.00387458
-0.0518857 0.0207045 0.998438 0.00148859
-0.0536108 0.0203182 0.998355 0.00366294
-0.0537969 0.0198684 0.998354 0.00445521
-0.0532145 0.0192441 0.998398 0.00458453
-0.0554389 0.0185547 0.99829 0.0032744
-0.0553311 0.017887 0.998308 0.00534903
-0.0554874 0.0170528 0.998314 0.00405204
-0.0566545 0.0162957 0.998261 0.00344738
-0.0570917 0.0155207 0.998248 0.00484157
-0.0581103 0.0145859 0.998204 0.00139884
-0.0585553 0.0138382 0.998188 0.00318567
-0.0580926 0.0129274 0.998227 0.00322483
-0.0583817 0.012088 0.998221 0.0054075
-0.0576194 0.0111884 0.998276 0.00571761
-0.058158 0.0103223 0.998254 0.00600755
-0.0581901 0.00940811 0.998261 0.00436158
-0.0586993 0.00848217 0.99824 0.0034732
-0.0598724 0.00757566 0.998177 0.00333734
-0.0588808 0.00654326 0.998244 0.00124849
-0.0583906 0.00552542 0.998278 0
-0.0574798 0.00457105 0.998336 0
-0.0573802 0.00345928 0.998346 0
-0.0593241 0.00260353 0.998235 0
-0.0580952 0.00167013 0.99831 0
-0.0567892 0.000573284 0.998386 0
-0.0575653 -0.000418364 0.998342 0
-0.0563826 -0.00143688 0.998408 0
-0.0573517 -0.00241405 0.998351 0
-0.0567396 -0.00343849 0.998383 0
-0.0554442 -0.00445661 0.998452 0
-0.0559382 -0.00542541 0.99842 0
-0.0573604 -0.00639669 0.998333 0.00131195
-0.0554217 -0.00757003 0.998434 0.00051129
-0.0559123 -0.00837455 0.998401 0
-0.055887 -0.00944184 0.998392 0.00161052
-0.0570192 -0.0103429 0.99832 0.00378526
-0.056677 -0.0112323 0.998329 0.00430992
-0.0565789 -0.0121111 0.998325 0.00478688
-0.0561605 -0.0130687 0.998336 0.00557087
-0.05651 -0.0139018 0.998305 0.00967417
-0.0562724 -0.0147261 0.998307 0.0104145
-0.0575013 -0.0156425 0.998223 0.0100337
-0.0591606 -0.0163884 0.998114 0.0137329
-0.0588817 -0.0172613 0.998116 0.0126126
-0.0587986 -0.0181885 0.998104 0.015849
-0.0576769 -0.0188487 0.998157 0.0141664
-0.0587476 -0.0197459 0.998078 0.0142264
-0.0594587 -0.0206636 0.998017 0.016682
-0.0585816 -0.0215674 0.99805 0.0132787
-0.0589583 -0.0224773 0.998007 0.0131406
-0.0608982 -0.0232919 0.997872 0.0157669
-0.0612789 -0.0241939 0.997827 0.0185033
-0.0584713 -0.0249885 0.997976 0.0173986
-0.0601492 -0.0257502 0.997857 0.0195444
-0.0607864 -0.0265575 0.997797 0.0218655
-0.0588954 -0.0271235 0.997896 0.0183832
-0.0571606 -0.0277231 0.99798 0.0163912
-0.0573795 -0.0284594 0.997947 0.0169392
-0.0579305 -0.0291439 0.997895 0.0155442
-0.0588328 -0.0299208 0.997819 0.0168269
-0.0585166 -0.0305542 0.997819 0.0169309
-0.0587045 -0.0311506 0.997789 0.0157669
-0.0599397 -0.0317043 0.997698 0.0152775
-0.0605302 -0.0323949 0.997641 0.0155418
-0.0600604 -0.032789 0.997656 0.0106517
-0.0581959 -0.0333026 0.99775 0.00917554
-0.0555173 -0.0338381 0.997884 0.00715974
-0.0550881 -0.0344116 0.997888 0.00353139
-0.0534607 -0.0349854 0.997957 0.00634997
-0.0539568 -0.0354787 0.997913 0.0040838
-0.0531346 -0.0359083 0.997941 0.00226137
-0.053283 -0.0363647 0.997917 0.00425921
-0.0552583 -0.037038 0.997785 0.00851083
-0.0564555 -0.0374282 0.997703 0.00809041
-0.0547787 -0.03771 0.997786 0.00723754
-0.0559987 -0.0381777 0.997701 0.00759362
-0.0554014 -0.0387323 0.997713 0.0101109
-0.0561217 -0.0393575 0.997648 0.0111258
-0.055644 -0.0395746 0.997666 0.0103482
-0.0536177 -0.0399682 0.997761 0.00841209
-0.0524262 -0.0404631 0.997805 0.00790195
-0.0522969 -0.0408304 0.997797 0.0100457
-0.0517205 -0.0411471 0.997814 0.00685774
-0.0522776 -0.0418954 0.997753 0.00559422
-0.0519366 -0.0424092 0.99775 0.00507717
-0.0518183 -0.0428345 0.997737 0.00665228
-0.0529638 -0.0434077 0.997653 0.00893943
-0.0527809 -0.0441118 0.997631 0.0119569
-0.053994 -0.0444563 0.997551 0.0116339
-0.0533419 -0.044686 0.997576 0.00800972
-0.0547037 -0.0447559 0.997499 0.00518755
-0.0529442 -0.0449445 0.997586 0
-0.0533599 -0.0452811 0.997548 0.00187404
-0.0531099 -0.0454826 0.997552 0.000102669
-0.0541067 -0.0461293 0.997469 0.00244692
-0.0535566 -0.0464252 0.997485 0.0016946
-0.0530029 -0.0465974 0.997507 0.00265654
-0.055212 -0.0470373 0.997366 0.00663642
-0.0551305 -0.047395 0.997354 0.00688916
-0.0543941 -0.0477342 0.997378 0.00840213
-0.0535741 -0.0482382 0.997398 0.00720677
-0.0532385 -0.0487422 0.997392 0.00794808
-0.0539389 -0.0491679 0.997333 0.00889152
-0.0533976 -0.0495244 0.997345 0.00944001
-0.0548538 -0.04983 0.99725 0.0103047
-0.05326 -0.0497015 0.997343 0.00687815
-0.0541703 -0.0496521 0.997297 0.00659441
-0.0522644 -0.0492369 0.997419 0.00173278
-0.0510703 -0.0490411 0.99749 0.00125604
-0.0494192 -0.0490225 0.997574 0.00169123
-0.0468709 -0.0490367 0.997697 0.000459668
-0.0469132 -0.0486994 0.997711 0.00169138
-0.0458688 -0.0486052 0.997764 0.00408508
-0.0441235 -0.0482159 0.997862 0.00256567
-0.044705 -0.0476571 0.997863 0.00347728
-0.0431295 -0.0469134 0.997967 0.00183907
-0.0406654 -0.0461661 0.998106 0
-0.0391281 -0.044918 0.998224 0
-0.0379283 -0.0434727 0.998334 0
-0.037096 -0.0425005 0.998407 0
-0.0380491 -0.041409 0.998417 0.00206924
-0.0380184 -0.0397631 0.998486 0.00316262
-0.0377577 -0.0382219 0.998556 0.00260396
-0.0362156 -0.0364022 0.998681 0.00221992
-0.0359674 -0.0338479 0.99878 0
-0.0340921 -0.0316911 0.998916 0.000758157
-0.0330756 -0.029552 0.999016 0.00162115
-0.0305258 -0.0279413 0.999143 0.00223672
-0.0286182 -0.026028 0.999251 0.00220331
-0.0260464 -0.0240246 0.999372 0.00200684
-0.0258766 -0.022706 0.999407 0.00261558
-0.0252686 -0.0219426 0.99944 0.00435954
-0.0232242 -0.0211967 0.999506 0.00512419
-0.0224816 -0.0205301 0.999536 0.00493911
-0.0209204 -0.0194523 0.999592 0.00396717
-0.020646 -0.018698 0.999612 0.0058611
-0.0207072 -0.0180558 0.999623 0.00557737
-0.0196952 -0.0170108 0.999661 0.0041139
-0.0207421 -0.0157524 0.999661 0.00804598
-0.0193328 -0.0144302 0.999709 0.00512061
-0.0200979 -0.0137566 0.999703 0.00523376
-0.0208376 -0.0125414 0.999704 0.00737644
-0.0214871 -0.0108797 0.99971 0.00791001
-0.0211395 -0.00958266 0.999731 0.00606301
-0.0215729 -0.00806521 0.999735 0.00759925
-0.0204989 -0.00650672 0.999769 0.0106411
-0.0203884 -0.00501309 0.99978 0.0116465
-0.0202805 -0.00293609 0.99979 0.00969783
-0.0225503 -0.00126295 0.999745 0.0154195
-0.0212553 0.000391097 0.999774 0.0125372
-0.0222821 0.00200962 0.99975 0.011237
-0.0225721 0.00325305 0.99974 0.0113062
-0.0231735 0.00583888 0.999714 0.00948213
-0.02203 0.00735861 0.99973 0.00593652
-0.0215542 0.00920508 0.999725 0.00513598
-0.0219308 0.0113019 0.999696 0.00409371
-0.0219016 0.0136971 0.999666 0.00386799
-0.0232649 0.0150394 0.999616 0.00189533
-0.0239126 0.0175584 0.99956 0.00405033
-0.0231505 0.0194694 0.999542 0.000584921
-0.0239602 0.0226075 0.999457 0.00539592
-0.0234464 0.0247154 0.99942 0.00308735
-0.0235723 0.027683 0.999339 0.00686512
-0.0236931 0.0300474 0.999268 0.0065201
-0.0246003 0.0323929 0.999172 0.00899207
-0.024778 0.0355785 0.99906 0.008765
-0.0247455 0.0381157 0.998967 0.00787813
-0.025019 0.0404154 0.99887 0.00745341
-0.0248405 0.0428823 0.998771 0.0085026
-0.0228538 0.0450015 0.998725 0.000166495
-0.0227877 0.048056 0.998585 0.0038535
-0.0231781 0.0511025 0.998424 0.00423481
-0.0228113 0.0528935 0.99834 0.00333198
-0.0232156 0.056973 0.998106 0.00867791
-0.0230386 0.0590948 0.997987 0.00678342
-0.0239281 0.0616348 0.997812 0.00616782
-0.0254009 0.0644013 0.997601 0.00916448
-0.0255653 0.0683687 0.997333 0.0130574
-0.026974 0.0727014 0.996989 0.018877
-0.0261534 0.0756599 0.996791 0.0157153
-0.0266985 0.0800788 0.996431 0.0168742
-0.0272379 0.0808452 0.996354 0.0114296
-0.0268868 0.0831802 0.996172 0.00993018
-0.0270488 0.0827258 0.996205 0.00102947
-0.0252977 0.0860064 0.995973 0
-0.0266994 0.0924733 0.995357 0.00663445
-0.0269241 0.0978692 0.994835 0.00977786
-0.0275197 0.102443 0.994358 0.0116443
-0.0264541 0.106957 0.993912 0.0113705
-0.0276944 0.110162 0.993528 0.0109447
-0.0285318 0.115472 0.992901 0.0121604
-0.0291485 0.120134 0.99233 0.0124911
-0.0297465 0.12885 0.991218 0.015613
-0.0389391 -0.0673683 0.996968 0
-0.0387829 -0.0638341 0.997207 0
-0.0389804 -0.0599492 0.99744 0.000863707
-0.0393897 -0.0554564 0.997684 0
-0.0379157 -0.0523147 0.997911 0
-0.0381372 -0.0491708 0.998062 0
-0.0369763 -0.0465688 0.998231 0
-0.0368033 -0.0440816 0.99835 0
-0.0366284 -0.0418344 0.998453 0
-0.036643 -0.0396387 0.998542 0
-0.0373259 -0.0372942 0.998607 0
-0.0365944 -0.0353787 0.998704 0
-0.0372376 -0.033066 0.998759 0
-0.0362749 -0.0315694 0.998843 0
-0.0365394 -0.0297473 0.998889 0
-0.0364181 -0.0276576 0.998954 0
-0.035937 -0.0255328 0.999028 0
-0.0370137 -0.0235812 0.999036 0
-0.0361382 -0.0218602 0.999108 0
-0.0359811 -0.020429 0.999144 0
-0.0366513 -0.0184388 0.999158 0
-0.035826 -0.0170286 0.999213 0
-0.0360124 -0.0156866 0.999228 0
-0.0361037 -0.0141504 0.999248 0
-0.0344465 -0.0125921 0.999327 0
-0.0349092 -0.0111509 0.999328 0
-0.0345286 -0.00986506 0.999355 0
-0.0345501 -0.00875566 0.999365 0
-0.0356216 -0.00703901 0.999341 0
-0.0355007 -0.00570071 0.999353 0
-0.0355655 -0.00480117 0.999356 0
-0.0353403 -0.00370034 0.999368 0
-0.0363575 -0.00202506 0.999337 0
-0.0353999 -0.000927412 0.999373 0
-0.0359049 -0.000176276 0.999355 0
-0.0348719 0.00075423 0.999392 0
-0.0346299 0.00172956 0.999399 0
-0.0350163 0.00273402 0.999383 0
-0.0347431 0.00347189 0.99939 0
-0.0350101 0.00457807 0.999376 0
-0.0348972 0.00539034 0.999376 0
-0.0345988 0.00619239 0.999382 0
-0.0339133 0.0065962 0.999403 0
-0.0329952 0.00708429 0.99943 0
-0.0328041 0.00762652 0.999433 0
-0.0332363 0.00819426 0.999414 0
-0.0326712 0.00856575 0.999429 0
-0.0340231 0.00919417 0.999379 0.00515337
-0.0339106 0.00943085 0.99938 0.00277459
-0.03448 0.00973659 0.999358 0.00346451
-0.0346262 0.010279 0.999347 0.00778657
-0.0330791 0.0103377 0.999399 0.00243131
-0.032829 0.0105711 0.999405 0.000283765
-0.0332738 0.0108654 0.999387 0.000268787
-0.0326945 0.0110429 0.999404 0.00123608
-0.0333392 0.011322 0.99938 0.00428571
-0.0341776 0.0115479 0.999349 0.00805242
-0.0359646 0.0117219 0.999284 0.0101638
-0.0383524 0.0118894 0.999193 0.0129174
-0.0370778 0.0117087 0.999244 0.0105889
-0.0378878 0.0117825 0.999213 0.0148003
-0.0354668 0.0115076 0.999305 0.0115004
-0.0361694 0.0113742 0.999281 0.0105618
-0.036796 0.0112412 0.99926 0.00968115
-0.0384974 0.0120526 0.999186 0.00851655
-0.036071 0.0131437 0.999263 0.00724747
-0.0370275 0.0141956 0.999213 0.00716711
-0.03862 0.0155807 0.999133 0.00415806
-0.0417119 0.0166489 0.998991 0.00762713
-0.042902 0.0176063 0.998924 0.00373113
-0.0433946 0.0186103 0.998885 0.00876076
-0.0449374 0.0194564 0.9988 0.00981306
-0.0463972 0.0201415 0.99872 0.010633
-0.0467759 0.0206315 0.998692 0.0108785
-0.0475043 0.0208885 0.998653 0.0100872
-0.0495482 0.0211326 0.998548 0.010371
-0.0489283 0.0209222 0.998583 0.00557048
-0.0492648 0.0207316 0.998571 0.00479536
-0.0473542 0.0203074 0.998672 0
-0.0468926 0.0201311 0.998697 0.00162371
-0.0491606 0.0197723 0.998595 0.000731532
-0.049092 0.0193074 0.998608 0.000293317
-0.0505373 0.0188502 0.998544 0.00112272
-0.0520417 0.0183852 0.998476 0.00371698
-0.0516651 0.0178476 0.998505 0.00583548
-0.0547349 0.0172566 0.998352 0.00869828
-0.0533265 0.0163603 0.998443 0.00607548
-0.0528763 0.0155212 0.99848 0.003399
-0.0536848 0.0148414 0.998448 0.00487851
-0.0539453 0.014074 0.998445 0.00709719
-0.057143 0.0134546 0.998275 0.00922858
-0.0569152 0.012534 0.9983 0.00926175
-0.0596832 0.0116082 0.99815 0.00659648
-0.0583554 0.010754 0.998238 0.00828859
-0.0592269 0.00994088 0.998195 0.00934112
-0.0596384 0.00912917 0.998178 0.0111677
-0.0590233 0.00820988 0.998223 0.0116503
-0.0594634 0.00728902 0.998204 0.0089602
-0.059399 0.00630406 0.998214 0.00604131
-0.0592037 0.0052994 0.998232 0.0040694
-0.0559004 0.00424149 0.998427 0.00162957
-0.0586577 0.00329223 0.998273 0
-0.0593667 0.0023685 0.998233 0
-0.0582741 0.00141385 0.9983 0
-0.056412 0.000504891 0.998407 0
-0.0552778 -0.00051679 0.998471 0
-0.0565908 -0.00150382 0.998396 0.00215512
-0.0572049 -0.00254317 0.998359 0.00285233
-0.056313 -0.00354398 0.998407 0.00447164
-0.056477 -0.00463286 0.998393 0.00123104
-0.0557935 -0.00554935 0.998427 0.00379786
-0.0556156 -0.00661389 0.99843 0.00220444
-0.0552659 -0.00752473 0.998443 0.00361669
-0.0551079 -0.00824309 0.998446 0.00374862
-0.0568184 -0.00932141 0.998341 0.00655463
-0.0549087 -0.0103085 0.998438 0.00472339
-0.0566089 -0.0111699 0.998334 0.00648995
-0.0555565 -0.0121265 0.998382 0.0105593
-0.058203 -0.0129963 0.99822 0.0125755
-0.0580985 -0.0138522 0.998215 0.0168644
-0.0582525 -0.0146245 0.998195 0.018471
-0.0590129 -0.0153849 0.998139 0.0174452
-0.0601995 -0.0161929 0.998055 0.0165295
-0.0596858 -0.0171976 0.998069 0.0184011
-0.0590788 -0.0182219 0.998087 0.0205085
-0.0600719 -0.0190102 0.998013 0.0226311
-0.0604371 -0.0197254 0.997977 0.0210361
-0.0601577 -0.0207366 0.997974 0.021113
-0.0597681 -0.0215738 0.997979 0.0211481
-0.0586632 -0.0224488 0.998025 0.0205997
-0.0610154 -0.0233119 0.997865 0.0224795
-0.0594676 -0.0241329 0.997939 0.0206433
-0.0583395 -0.0248454 0.997988 0.0214865
-0.0576373 -0.0256107 0.998009 0.0213558
-0.0582859 -0.0264056 0.997951 0.0215939
-0.0602238 -0.027079 0.997818 0.0238776
-0.0583324 -0.027682 0.997913 0.021456
-0.0592349 -0.0283801 0.997841 0.0194477
-0.0591258 -0.0289543 0.997831 0.0173783
-0.0583731 -0.0296913 0.997853 0.0167415
-0.0583885 -0.0302594 0.997835 0.0154962
-0.0591303 -0.0308116 0.997775 0.0142155
-0.0573326 -0.0314121 0.997861 0.0131262
-0.057985 -0.0320176 0.997804 0.0119719
-0.0577513 -0.0325421 0.997801 0.0116596
-0.0562021 -0.0332024 0.997867 0.0107239
-0.0537896 -0.0336685 0.997985 0.00788901
-0.0535161 -0.0343407 0.997976 0.00711148
-0.0516087 -0.0348855 0.998058 0.00856199
-0.0515301 -0.0352784 0.998048 0.00516312
-0.0512085 -0.0359592 0.99804 0.00808105
-0.0527858 -0.0362854 0.997946 0.008949
-0.0536228 -0.0366648 0.997888 0.00920793
-0.0540734 -0.037201 0.997844 0.010146
-0.055514 -0.0377414 0.997744 0.0131848
-0.0540665 -0.0382675 0.997804 0.0136085
-0.0553928 -0.0386999 0.997714 0.0132554
-0.0563457 -0.0392665 0.997639 0.0161884
-0.0563248 -0.0396509 0.997625 0.0132652
-0.0529424 -0.040148 0.99779 0.00982496
-0.0510449 -0.0405024 0.997875 0.00846498
-0.0510837 -0.0410931 0.997849 0.0106096
-0.0493989 -0.0411758 0.99793 0.00691133
-0.0514017 -0.041496 0.997816 0.00320473
-0.0509236 -0.0419874 0.99782 0.00579641
-0.050267 -0.0426283 0.997826 0.0037067
-0.0506502 -0.0428951 0.997795 0.00472642
-0.0513446 -0.0433117 0.997741 0.00581118
-0.0514737 -0.0442379 0.997694 0.00819336
-0.053858 -0.0447976 0.997543 0.0091904
-0.0521739 -0.0451959 0.997615 0.00972275
-0.0523111 -0.0451642 0.997609 0.00678056
-0.0509162 -0.0453013 0.997675 0.00487012
-0.0514935 -0.045585 0.997632 0.00576869
-0.0525614 -0.0457958 0.997567 0.00415586
-0.0503053 -0.0459127 0.997678 0.00122211
-0.0496725 -0.0462071 0.997696 0.00366234
-0.0482583 -0.0465461 0.99775 0.00331469
-0.0501255 -0.0469445 0.997639 0.0073136
-0.0487406 -0.0470647 0.997702 0.00745892
-0.0483289 -0.047687 0.997693 0.00925966
-0.0457175 -0.0481883 0.997791 0.0108081
-0.0456975 -0.0482785 0.997788 0.00934352
-0.0463976 -0.0485989 0.99774 0.0111244
-0.0448382 -0.0485181 0.997815 0.00937037
-0.0431344 -0.0482057 0.997906 0.00296366
-0.0443192 -0.0482296 0.997853 0.00541127
-0.0425982 -0.0479271 0.997942 0.00379824
-0.0419204 -0.0480222 0.997966 0.00557268
-0.0389457 -0.0478311 0.998096 0.00273168
-0.0391212 -0.0476802 0.998096 0.000160688
-0.0363629 -0.0474385 0.998212 0
-0.0339559 -0.0472227 0.998307 0
-0.0337874 -0.0466069 0.998342 0.000939772
-0.0326102 -0.0459541 0.998411 0
-0.0298706 -0.045417 0.998521 0
-0.0293655 -0.0444991 0.998578 0.00218492
-0.0280466 -0.04345 0.998662 0.00024469
-0.0273439 -0.0424396 0.998725 0.000761162
-0.0264281 -0.0409771 0.99881 0
-0.0258856 -0.0397086 0.998876 0.000727426
-0.0275298 -0.0381235 0.998894 0.00163907
-0.0262676 -0.0362424 0.998998 0.0018823
-0.0237769 -0.0342842 0.999129 0.00184559
-0.0228761 -0.0317105 0.999235 0.00399065
-0.0218289 -0.0301036 0.999308 0.00297445
-0.021457 -0.0276746 0.999387 0.00100956
-0.0162613 -0.0257529 0.999536 0.00150392
-0.0144442 -0.0236587 0.999616 0.00328785
-0.0131154 -0.0222427 0.999667 0.00137625
-0.0127308 -0.0214929 0.999688 0.00146527
-0.0121166 -0.0207532 0.999711 0.00292836
-0.0109855 -0.0198724 0.999742 0.00142863
-0.00937576 -0.0191337 0.999773 0.000601531
-0.00953139 -0.0183734 0.999786 0.00324461
-0.00792504 -0.0175594 0.999814 3.10822e-05
-0.00783938 -0.0167228 0.999829 0.0038431
-0.00576819 -0.0158458 0.999858 0.00321209
-0.00395511 -0.01473 0.999884 0.00137124
-0.00381639 -0.0136136 0.9999 0.00272629
-0.00305103 -0.0121356 0.999922 0.00299652
-0.00281835 -0.0107983 0.999938 0.00176525
-0.00225003 -0.00982354 0.999949 0.00171973
-0.00146014 -0.00884711 0.99996 0
-0.00075167 -0.00766558 0.99997 0
-0.000801643 -0.00661488 0.999978 0.00244485
0.00055646 -0.00512568 0.999987 0.00331323
8.05617e-05 -0.00337326 0.999994 0.00974687
-0.00122171 -0.00148626 0.999998 0.00973807
-0.00145091 -5.746e-05 0.999999 0.0118711
-0.00169273 0.00221606 0.999996 0.0128851
-0.00210078 0.0046149 0.999987 0.0143141
-0.00177867 0.00635303 0.999978 0.0143193
-0.00127629 0.00813968 0.999966 0.0101829
-0.00230474 0.00975106 0.99995 0.00922026
-0.00183623 0.0121752 0.999924 0.0095686
-0.00281162 0.0143225 0.999893 0.0104657
-0.00325063 0.0174251 0.999843 0.0092759
-0.00261089 0.0200757 0.999795 0.0090195
-0.00158974 0.0233771 0.999725 0.00705528
-0.00292417 0.0252105 0.999678 0.0111939
-0.00352423 0.0276992 0.99961 0.0119248
-0.0028197 0.0304824 0.999531 0.0114046
-0.00327368 0.0324739 0.999467 0.0110173
-0.00286744 0.0354042 0.999369 0.0066697
-0.00412873 0.0390244 0.99923 0.0146367
-0.00524386 0.042081 0.9991 0.0150394
-0.00606534 0.0443175 0.998999 0.0150071
-0.00718914 0.0458319 0.998923 0.0143465
-0.00742158 0.0474335 0.998847 0.0117783
-0.00777558 0.0483725 0.998799 0.00564878
-0.00839808 0.05084 0.998672 0.0062777
-0.00879666 0.0528793 0.998562 0.00557666
-0.00892247 0.0541713 0.998492 0.00429575
-0.00966116 0.0578032 0.998281 0.00754303
-0.0115188 0.0610147 0.99807 0.0127319
-0.0109107 0.0625496 0.997982 0.00436254
-0.0118516 0.066902 0.997689 0.0142199
-0.0120871 0.0717277 0.997351 0.0212157
-0.0131622 0.0760057 0.997021 0.024408
-0.0113969 0.0783376 0.996862 0.0209457
-0.0118295 0.0787437 0.996825 0.0141215
-0.0122472 0.081186 0.996624 0.0111614
-0.0109626 0.0826197 0.996521 0.00460543
-0.0120566 0.0864242 0.996186 0.00640359
-0.0123467 0.0909986 0.995774 0.00850526
-0.0119289 0.0945641 0.995447 0.00761707
-0.0119303 0.0989297 0.995023 0.00800846
-0.0127799 0.103399 0.994558 0.0105357
-0.01347 0.107543 0.994109 0.0111969
-0.0130459 0.110629 0.993776 0.00787197
-0.013846 0.118613 0.992844 0.0138826
-0.0151568 0.12462 0.992089 0.0171591
-0.0154946 0.132556 0.991054 0.0186432
-0.0358929 -0.0651269 0.997231 0.00134106
-0.0362402 -0.0606626 0.9975 0.00574922
-0.035873 -0.0567505 0.997744 0.00750945
-0.0346473 -0.0535932 0.997962 0.0037279
-0.0339519 -0.0511774 0.998112 0.00763987
-0.0342094 -0.0480215 0.99826 0.0101003
-0.0332325 -0.0442216 0.998469 0.00724777
-0.0319461 -0.0412581 0.998638 0.00270701
-0.0330604 -0.0384159 0.998715 0.00120319
-0.0330105 -0.0364007 0.998792 0.00240968
-0.0330325 -0.0340715 0.998873 0.000416715
-0.0329171 -0.0321642 0.99894 0.000234274
-0.0307949 -0.0309297 0.999047 4.60849e-05
-0.0305728 -0.0290819 0.999109 0
-0.0308143 -0.02725 0.999154 0
-0.0303572 -0.0249125 0.999229 0
-0.031446 -0.023022 0.99924 0
-0.0304963 -0.0211543 0.999311 0
-0.0321237 -0.0188045 0.999307 0
-0.0317882 -0.0175371 0.999341 0
-0.0315725 -0.0158312 0.999376 0
-0.0321173 -0.0140652 0.999385 0
-0.0313059 -0.0130622 0.999425 0
-0.0299304 -0.0119685 0.99948 0
-0.0299555 -0.0106084 0.999495 0
-0.0304552 -0.00869389 0.999498 0
-0.0297529 -0.00788003 0.999526 0
-0.0285193 -0.00666465 0.999571 0
-0.028852 -0.00522759 0.99957 0
-0.0274691 -0.00425955 0.999614 0
-0.0282468 -0.00323377 0.999596 0
-0.027487 -0.00228477 0.99962 0
-0.0273145 -0.00131569 0.999626 0
-0.0283239 -0.000217862 0.999599 0
-0.0273511 0.000824133 0.999626 0
-0.0274938 0.00193266 0.99962 0
-0.0272084 0.00284479 0.999626 0
-0.0283538 0.00365382 0.999591 0
-0.0283807 0.00436917 0.999588 0
-0.0287128 0.0051361 0.999574 0
-0.0280495 0.00567898 0.99959 2.7899e-05
-0.0288717 0.00634652 0.999563 0.000188177
-0.028273 0.00673902 0.999578 0
-0.028447 0.00714934 0.99957 0.00142355
-0.0281915 0.0074774 0.999575 0.00107598
-0.0294267 0.00796508 0.999535 0.00524602
-0.0284972 0.00830259 0.999559 0.00634363
-0.0271949 0.00849773 0.999594 0.00236608
-0.0273978 0.0089655 0.999584 0.00688299
-0.0290288 0.00945605 0.999534 0.00858666
-0.0278896 0.00955375 0.999565 0.00605654
-0.0259489 0.0094454 0.999619 0
-0.0250963 0.0095162 0.99964 0
-0.0243528 0.00958803 0.999657 0
-0.026109 0.00987588 0.99961 0
-0.0267163 0.00998713 0.999593 0.0012504
-0.0283217 0.0101803 0.999547 0.00665693
-0.0291082 0.0102214 0.999524 0.00878154
-0.029465 0.0102747 0.999513 0.0105612
-0.0315925 0.0104017 0.999447 0.0174141
-0.0307166 0.0102678 0.999475 0.0144903
-0.0323858 0.0102408 0.999423 0.0159887
-0.0328523 0.0100832 0.999409 0.014976
-0.0310049 0.00977252 0.999471 0.0103863
-0.0305388 0.0102863 0.999481 0.0100714
-0.0299751 0.0111607 0.999488 0.00480156
-0.0320648 0.0126769 0.999405 0.00628333
-0.0314145 0.0139415 0.999409 0.00538833
-0.0346673 0.0149822 0.999287 0.0073543
-0.0368141 0.0160033 0.999194 0.00461029
-0.0396886 0.0171875 0.999064 0.00934475
-0.0398844 0.0180014 0.999042 0.00733912
-0.042501 0.0189241 0.998917 0.0111356
-0.0432622 0.0194501 0.998874 0.0123055
-0.0430113 0.0197428 0.998879 0.00959718
-0.0433391 0.0198459 0.998863 0.00587594
-0.0415758 0.019702 0.998941 0.00190585
-0.0427977 0.0196962 0.99889 0.00419657
-0.0412775 0.0194628 0.998958 0.00130823
-0.0430797 0.0191145 0.998889 0.000414601
-0.045063 0.0188679 0.998806 0.00226753
-0.0438355 0.0184098 0.998869 0.00198814
-0.0476481 0.0181296 0.9987 0.00368592
-0.046579 0.0175355 0.998761 0.00199151
-0.0477135 0.0169673 0.998717 0.00429333
-0.0484399 0.0163506 0.998692 0.00428634
-0.0498298 0.0155789 0.998636 0.0036526
-0.0489772 0.014777 0.998691 0.000956959
-0.0487749 0.0139612 0.998712 0.000415427
-0.0520414 0.0135207 0.998553 0.00576116
-0.0537214 0.0128004 0.998474 0.00736558
-0.0516984 0.011968 0.998591 0.0069822
-0.0519945 0.0111237 0.998585 0.00656709
-0.0568612 0.0104581 0.998327 0.00968773
-0.0561031 0.00973079 0.998378 0.0129821
-0.0577156 0.00890605 0.998293 0.0120074
-0.0575752 0.00801723 0.998309 0.0132763
-0.0571728 0.00716553 0.998339 0.0139484
-0.0549676 0.00603915 0.99847 0.00756856
-0.0533104 0.00504866 0.998565 0.00552334
-0.0540853 0.00401812 0.998528 0.00205981
-0.0546428 0.00307157 0.998501 0
-0.054915 0.00215678 0.998489 0.00151983
-0.0560932 0.00122923 0.998425 0.00119453
-0.0543028 0.00020639 0.998524 0.00102167
-0.054122 -0.00066556 0.998534 0.00268192
-0.053794 -0.00161349 0.998551 0.00476514
-0.052982 -0.00266785 0.998592 0.00436755
-0.057237 -0.00344161 0.998355 0.0115557
-0.056 -0.00460413 0.99842 0.00860285
-0.0548083 -0.00550129 0.998482 0.0136265
-0.0542859 -0.00651484 0.998504 0.0114045
-0.0534614 -0.00749402 0.998542 0.00997533
-0.0524894 -0.00849 0.998585 0.0136486
-0.0557947 -0.00933666 0.998399 0.0147494
-0.0507055 -0.0102384 0.998661 0.00613966
-0.0508806 -0.01108 0.998643 0.00799073
-0.0523525 -0.0120574 0.998556 0.00834799
-0.0540989 -0.0128217 0.998453 0.0105476
-0.053687 -0.0138613 0.998462 0.0134233
-0.0556572 -0.0145452 0.998344 0.0171657
-0.0543492 -0.0155124 0.998402 0.0161214
-0.0556307 -0.0163323 0.998318 0.0179495
-0.0564661 -0.0172111 0.998256 0.0192647
-0.0577292 -0.01802 0.99817 0.0200375
-0.0571516 -0.0187254 0.99819 0.0194305
-0.0579246 -0.0195122 0.99813 0.0224445
-0.0561072 -0.0205834 0.998213 0.0245411
-0.0546643 -0.0213903 0.998276 0.0225372
-0.0527768 -0.0222093 0.998359 0.0203015
-0.0549237 -0.0230078 0.998225 0.0194086
-0.0543487 -0.0237497 0.99824 0.0201169
-0.0530997 -0.024588 0.998286 0.020907
-0.0531242 -0.0252702 0.998268 0.0182818
-0.0542867 -0.0259133 0.998189 0.0191149
-0.0568503 -0.0266209 0.998028 0.0192518
-0.0549274 -0.0273605 0.998115 0.0178998
-0.0576706 -0.0281249 0.997939 0.0204251
-0.0557722 -0.0288166 0.998028 0.0218065
-0.0575425 -0.0294251 0.997909 0.018206
-0.057234 -0.0299887 0.99791 0.0168265
-0.0558641 -0.0306479 0.997968 0.0161689
-0.0558696 -0.0312377 0.997949 0.0156267
-0.054237 -0.0318985 0.998018 0.0147953
-0.0574997 -0.0325105 0.997816 0.0185316
-0.0571946 -0.0331005 0.997814 0.0170586
-0.0551061 -0.0336316 0.997914 0.0140925
-0.0527625 -0.0341324 0.998024 0.0118433
-0.0513044 -0.0346623 0.998081 0.00897121
-0.0515963 -0.0351085 0.998051 0.0089367
-0.0503322 -0.0357271 0.998093 0.00903517
-0.0508134 -0.0360899 0.998056 0.00992843
-0.0506346 -0.0365117 0.99805 0.00727658
-0.0510692 -0.0370192 0.998009 0.00895974
-0.0522959 -0.0376018 0.997923 0.0128274
-0.0547763 -0.0381424 0.99777 0.0183868
-0.0515209 -0.0386845 0.997922 0.0164161
-0.0524689 -0.0390825 0.997858 0.0151005
-0.0521662 -0.0395521 0.997855 0.0138533
-0.0514203 -0.0400472 0.997874 0.0144718
-0.0525653 -0.0405977 0.997792 0.0157629
-0.0509974 -0.0410358 0.997855 0.0161808
-0.0498676 -0.0412331 0.997904 0.00882539
-0.0473223 -0.041766 0.998006 0.00836665
-0.0477604 -0.0420898 0.997972 0.00565597
-0.0482546 -0.0425126 0.99793 0.00797092
-0.0484984 -0.0427345 0.997909 0.00568775
-0.0485685 -0.0433224 0.99788 0.00776622
-0.0473065 -0.0435218 0.997932 0.00528971
-0.0481839 -0.0437509 0.99788 0.00505565
-0.0453162 -0.0440953 0.997999 0.00511929
-0.0454748 -0.0442891 0.997983 0.0083752
-0.0449082 -0.0442416 0.998011 0.0055707
-0.0430201 -0.0443473 0.998089 0.00631041
-0.0436268 -0.0446425 0.99805 0.00630601
-0.0425661 -0.0448698 0.998086 0.00644741
-0.0428946 -0.0450462 0.998064 0.00906168
-0.041093 -0.0457146 0.998109 0.0102996
-0.0384977 -0.0461153 0.998194 0.00981122
-0.0376763 -0.0464173 0.998211 0.00927624
-0.0360873 -0.046554 0.998264 0.0102039
-0.0377986 -0.0468819 0.998185 0.0166962
-0.0388939 -0.0472442 0.998126 0.0180717
-0.0368573 -0.047263 0.998202 0.0155856
-0.0329027 -0.0474871 0.99833 0.0122904
-0.0333601 -0.0474433 0.998317 0.00976612
-0.0315677 -0.0471826 0.998387 0.00854389
-0.0312272 -0.04713 0.998401 0.00840367
-0.0304575 -0.047051 0.998428 0.0104455
-0.0288905 -0.0466832 0.998492 0.0069898
-0.0265561 -0.0466447 0.998558 0.00728927
-0.0234915 -0.0464193 0.998646 0.00310185
-0.0214045 -0.0459526 0.998714 0.00231695
-0.0209269 -0.0455329 0.998744 0.00309532
-0.0224872 -0.0449542 0.998736 0.000785255
-0.0206865 -0.0443006 0.998804 0.00254351
-0.0205537 -0.0435807 0.998838 0.00362402
-0.018126 -0.0425563 0.99893 0.00236218
-0.0190401 -0.0413749 0.998962 0.00516506
-0.0166305 -0.0400884 0.999058 0.00177149
-0.0151914 -0.0389358 0.999126 0.00601547
-0.01455 -0.0372441 0.9992 0.00448438
-0.0134598 -0.0352933 0.999286 0.00334432
-0.0115311 -0.0331398 0.999384 0.00695864
-0.0113639 -0.0305065 0.99947 0.00609294
-0.00872227 -0.0281445 0.999566 0.00432819
-0.00468976 -0.0260619 0.999649 0.00259506
-0.00324673 -0.0237295 0.999713 0.00591329
-0.00307758 -0.0217696 0.999758 0.00622009
-5.69741e-06 -0.0205168 0.999789 0.004209
0.0021013 -0.0198306 0.999801 0.00219246
0.0015534 -0.0190364 0.999818 0.00232841
0.00302414 -0.0183879 0.999826 0.00436315
0.002558 -0.0178022 0.999838 0.00439964
0.00445789 -0.0173842 0.999839 0.0043017
0.00547769 -0.0166838 0.999846 0.0042231
0.0062103 -0.0157606 0.999856 0.00467568
0.00757944 -0.014806 0.999862 0.00304722
0.00858453 -0.0140582 0.999864 0.00464173
0.010554 -0.0128781 0.999861 0
0.0105876 -0.0116328 0.999876 0.00152617
0.0120809 -0.0103515 0.999873 0
0.0130144 -0.00904233 0.999874 0.00130528
0.013787 -0.0079361 0.999873 0
0.0137418 -0.00671224 0.999883 0.00110666
0.0140737 -0.00514737 0.999888 0.000537983
0.0147441 -0.00440714 0.999882 0.00615485
0.015834 -0.00297447 0.99987 0.00821312
0.0159326 -0.00191342 0.999871 0.00846667
0.0161368 -0.000458235 0.99987 0.0110418
0.0169566 0.00125308 0.999855 0.00929517
0.0173821 0.00325269 0.999844 0.0113718
0.0185584 0.0051135 0.999815 0.00740509
0.0196987 0.00651724 0.999785 0.00574215
0.020565 0.00860295 0.999752 0.00474842
0.0196119 0.0108455 0.999749 0.00607553
0.0192579 0.0131088 0.999729 0.00618673
0.0170273 0.0154226 0.999736 0.00800913
0.0166051 0.0169834 0.999718 0.00823817
0.0166795 0.0186879 0.999686 0.00924093
0.0159646 0.0215431 0.99964 0.0144798
0.0149938 0.0235174 0.999611 0.0115645
0.0136903 0.026137 0.999565 0.0193601
0.0124903 0.0290604 0.9995 0.0212443
0.0120866 0.0315387 0.999429 0.0236655
0.010938 0.0343746 0.999349 0.0223841
0.00966306 0.0376891 0.999243 0.024683
0.00886883 0.0390616 0.999197 0.0251001
0.00805038 0.0411239 0.999122 0.0251955
0.00856118 0.0423268 0.999067 0.018766
0.00766177 0.0447993 0.998967 0.0202059
0.00667744 0.0475783 0.998845 0.0226886
0.00684211 0.0479886 0.998824 0.0129575
0.00589577 0.0512254 0.99867 0.0148436
0.00489469 0.0531719 0.998573 0.0114375
0.00632497 0.0542217 0.998509 0.00260721
0.00478163 0.0578571 0.998313 0.0110274
0.00312625 0.0608398 0.998143 0.00918237
0.0048631 0.0640791 0.997933 0.0104882
0.00460639 0.0682649 0.997657 0.0179137
0.00534189 0.0722862 0.99737 0.0222621
0.00564581 0.0741202 0.997233 0.0179942
0.00699713 0.0769982 0.997007 0.0171273
0.00722409 0.0804864 0.99673 0.017096
0.00620053 0.0836957 0.996472 0.0150039
0.00557396 0.0872628 0.99617 0.0136735
0.00624947 0.0906103 0.995867 0.0145063
0.00515918 0.094754 0.995487 0.0138062
0.00416233 0.10082 0.994896 0.0194085
0.00277485 0.105018 0.994466 0.019942
0.00407401 0.109462 0.993983 0.0199012
0.00375825 0.114045 0.993468 0.0203111
0.00368907 0.120877 0.992661 0.0251571
0.00225534 0.126757 0.991931 0.0239914
-0.0294342 -0.0613065 0.997685 0.000506989
-0.0302356 -0.0572762 0.9979 0.00333417
-0.0300271 -0.0533928 0.998122 0.00393371
-0.0309284 -0.0503714 0.998252 0.0101224
-0.0303504 -0.0468939 0.998439 0.0083236
-0.0317366 -0.0432921 0.998558 0.0064564
-0.0314869 -0.0405975 0.998679 0.007512
-0.0289337 -0.038026 0.998858 0.00252031
-0.0279908 -0.0359649 0.998961 0.000985736
-0.0276563 -0.0338664 0.999044 0.00372635
-0.0275361 -0.0318507 0.999113 0.0061772
-0.026376 -0.0298097 0.999208 0.000296887
-0.0280044 -0.0274532 0.999231 0.00339591
-0.0286558 -0.0252229 0.999271 0.000185037
-0.027347 -0.0239108 0.99934 0
-0.027546 -0.0222528 0.999373 0.000731602
-0.0268045 -0.0201716 0.999437 0
-0.0291964 -0.0182567 0.999407 0.00190765
-0.0260196 -0.0170386 0.999516 0
-0.0259589 -0.015221 0.999547 0
-0.0261121 -0.0134263 0.999569 0
-0.0277701 -0.011867 0.999544 0
-0.0271405 -0.0105934 0.999575 0
-0.0262524 -0.00942274 0.999611 0
-0.0255491 -0.0084633 0.999638 0
-0.0251412 -0.00737206 0.999657 0
-0.0249281 -0.00626287 0.99967 0
-0.0231945 -0.00498638 0.999719 0
-0.0230575 -0.00411665 0.999726 0
-0.0221465 -0.00297653 0.99975 0
-0.0222145 -0.00169582 0.999752 0
-0.0241412 -0.000595894 0.999708 0
-0.0239102 0.000365056 0.999714 0
-0.0228982 0.00107644 0.999737 0
-0.0223819 0.00173706 0.999748 0
-0.0223323 0.00245615 0.999748 0
-0.0238002 0.00339432 0.999711 0
-0.0240166 0.00396926 0.999704 0.00107821
-0.0244528 0.00445502 0.999691 0.000417339
-0.0236657 0.00480553 0.999708 0.00133808
-0.023088 0.00513778 0.99972 0
-0.0228975 0.0058272 0.999721 0
-0.0224097 0.00631817 0.999729 1.62119e-05
-0.0218974 0.00653169 0.999739 0.00158711
-0.0228043 0.00708057 0.999715 0.00566625
-0.0229448 0.00742729 0.999709 0.00579732
-0.0236252 0.00778053 0.999691 0.00854572
-0.0224932 0.00790898 0.999716 0.00659809
-0.0242182 0.00832827 0.999672 0.00914891
-0.0247909 0.00857404 0.999656 0.0106208
-0.0245613 0.00859207 0.999661 0.00489708
-0.0221757 0.00848679 0.999718 0.00277223
-0.0225898 0.008581 0.999708 0.00393757
-0.0222909 0.00862628 0.999714 0.00109147
-0.0230271 0.00867782 0.999697 0.000852222
-0.024211 0.00882569 0.999668 0.00574173
-0.024705 0.00884585 0.999656 0.00628101
-0.0267953 0.00904382 0.9996 0.0150392
-0.025187 0.00882827 0.999644 0.0123008
-0.0270233 0.00889028 0.999595 0.015219
-0.0269176 0.00880953 0.999599 0.0149716
-0.0276869 0.00888678 0.999577 0.0146009
-0.0287706 0.0086366 0.999549 0.0130937
-0.0292731 0.00866009 0.999534 0.0120416
-0.0312157 0.00998537 0.999463 0.0149716
-0.0290586 0.0104901 0.999523 0.00975897
-0.029761 0.0116749 0.999489 0.0082355
-0.0294365 0.0130663 0.999481 0.00200202
-0.0320754 0.0146691 0.999378 0.00624017
-0.034821 0.0158412 0.999268 0.00786137
-0.0378212 0.0164631 0.999149 0.0118201
-0.0385797 0.0173048 0.999106 0.0111091
-0.0383023 0.0179142 0.999106 0.00923876
-0.0387697 0.0184832 0.999077 0.0085655
-0.0395532 0.0188904 0.999039 0.00741825
-0.0401201 0.0191906 0.999011 0.00822549
-0.0397798 0.0191887 0.999024 0.0065181
-0.0378799 0.0189318 0.999103 4.20487e-05
-0.0393664 0.0188745 0.999047 0.00244936
-0.0407517 0.0185572 0.998997 0.000796586
-0.0405463 0.0181355 0.999013 0
-0.0422068 0.0180011 0.998947 0.00336494
-0.0430871 0.0175578 0.998917 0.00459053
-0.0441104 0.0170225 0.998882 0.00187251
-0.0429927 0.0162586 0.998943 0
-0.0454011 0.0157403 0.998845 0.000895567
-0.0473957 0.0153015 0.998759 0.00515108
-0.0503622 0.0146887 0.998623 0.00603133
-0.049617 0.0138488 0.998672 0.0043449
-0.0473756 0.0129236 0.998794 0
-0.0482612 0.0122576 0.99876 0
-0.0503466 0.0115846 0.998665 0.00226893
-0.0484459 0.0106997 0.998768 0.00134947
-0.0492644 0.00997318 0.998736 0.00174057
-0.0509373 0.00924419 0.998659 0.00599067
-0.0537469 0.00868806 0.998517 0.0124493
-0.0536841 0.0077862 0.998528 0.0099986
-0.0523771 0.00683721 0.998604 0.0070212
-0.0528376 0.00593638 0.998586 0.00785066
-0.0508442 0.00498237 0.998694 0.0057132
-0.0515789 0.00412792 0.99866 0.00668036
-0.0506926 0.00307206 0.99871 0.00322179
-0.0517962 0.00216456 0.998655 0.000524637
-0.0525005 0.00122495 0.99862 0
-0.0526898 0.00031146 0.998611 0.000797796
-0.0507068 -0.000723535 0.998713 0.001398
-0.0502215 -0.00164236 0.998737 0.00051801
-0.0508442 -0.002504 0.998703 0.0035578
-0.0517572 -0.00345607 0.998654 0.0058826
-0.0509894 -0.00441106 0.998689 0.0063893
-0.0505411 -0.00544129 0.998707 0.00678167
-0.0512165 -0.00641561 0.998667 0.0095312
-0.0501093 -0.00738181 0.998716 0.00798725
-0.0505818 -0.00822143 0.998686 0.0080079
-0.0512039 -0.00921964 0.998646 0.0119183
-0.0475641 -0.0100695 0.998817 0.00628946
-0.0476873 -0.0108539 0.998803 0.00670652
-0.0486855 -0.0119397 0.998743 0.00548759
-0.0499911 -0.0128434 0.998667 0.00919384
-0.0510445 -0.0135892 0.998604 0.0137513
-0.0513911 -0.0145836 0.998572 0.0168564
-0.0544721 -0.0152729 0.998399 0.0200958
-0.0548544 -0.016138 0.998364 0.0211954
-0.0556095 -0.016945 0.998309 0.0189413
-0.0563916 -0.0178057 0.99825 0.0218868
-0.0565109 -0.0184317 0.998232 0.0227982
-0.0577145 -0.0194654 0.998143 0.0265455
-0.0552575 -0.0204062 0.998264 0.0238031
-0.0529113 -0.0211126 0.998376 0.020716
-0.0538772 -0.0220097 0.998305 0.0218031
-0.0526458 -0.0227695 0.998354 0.0188595
-0.0525521 -0.023631 0.998339 0.0164278
-0.0533383 -0.0244818 0.998276 0.017338
-0.0534609 -0.0251598 0.998253 0.0187457
-0.0534164 -0.0259024 0.998236 0.0198171
-0.0551192 -0.0266725 0.998123 0.0207099
-0.0551357 -0.0272467 0.998107 0.0187924
-0.0538267 -0.0279413 0.998159 0.0155071
-0.0579768 -0.0285096 0.997911 0.018709
-0.0554704 -0.0291254 0.998035 0.014419
-0.0557956 -0.0297495 0.997999 0.0157907
-0.0555897 -0.0302884 0.997994 0.0143342
-0.0543923 -0.0308701 0.998042 0.0129487
-0.0565362 -0.0316192 0.9979 0.0174332
-0.0564065 -0.0320356 0.997894 0.0144575
-0.0561808 -0.0328131 0.997881 0.0154913
-0.0555002 -0.0332699 0.997904 0.01438
-0.0551688 -0.0338249 0.997904 0.0134403
-0.0545234 -0.0344022 0.99792 0.0140073
-0.0531413 -0.0352057 0.997966 0.0148962
-0.0540677 -0.0356295 0.997901 0.0157026
-0.0556798 -0.0361154 0.997795 0.0172981
-0.0524632 -0.036425 0.997958 0.012391
-0.052648 -0.0371102 0.997923 0.0170131
-0.0505696 -0.0374561 0.998018 0.0127399
-0.0502761 -0.0379553 0.998014 0.0122139
-0.0486064 -0.0383503 0.998081 0.0110966
-0.0483657 -0.0388113 0.998075 0.0108055
-0.0473592 -0.0393012 0.998104 0.00985411
-0.0454238 -0.0398155 0.998174 0.0065629
-0.0454918 -0.0400613 0.998161 0.00513379
-0.0453782 -0.0406294 0.998143 0.00511081
-0.0447734 -0.0409557 0.998157 0.00368121
-0.0443008 -0.0412648 0.998166 0.00010593
-0.0453369 -0.0418115 0.998096 0.00410385
-0.0434802 -0.041825 0.998178 0.000393946
-0.0426729 -0.0419875 0.998206 0.00199402
-0.0427112 -0.0422302 0.998195 0.0049814
-0.0411986 -0.042265 0.998257 0.00318485
-0.0396939 -0.0423221 0.998315 0.000408663
-0.0364858 -0.0426823 0.998422 0.0013952
-0.034951 -0.0429831 0.998464 0.00160205
-0.0330744 -0.0431198 0.998522 0.00187137
-0.0345033 -0.0434375 0.99846 0.0052261
-0.034083 -0.0439351 0.998453 0.00934989
-0.0323278 -0.0440809 0.998505 0.00752145
-0.0323648 -0.0443246 0.998493 0.0101801
-0.02962 -0.0447696 0.998558 0.00545128
-0.0274447 -0.0448608 0.998616 0.00444417
-0.0257395 -0.0452877 0.998642 0.00523152
-0.0252758 -0.0451477 0.998661 0.00547451
-0.0262582 -0.0454631 0.998621 0.00752578
-0.0264269 -0.0461632 0.998584 0.0137567
-0.0249592 -0.0461675 0.998622 0.0140451
-0.0246976 -0.0463173 0.998621 0.0105092
-0.021617 -0.046253 0.998696 0.00579049
-0.0200924 -0.0462779 0.998726 0.00529903
-0.0199739 -0.0463052 0.998728 0.00677144
-0.0181041 -0.0460869 0.998773 0.00539357
-0.0145432 -0.0461297 0.99883 0.00161283
-0.0124692 -0.0459234 0.998867 0.00215687
-0.0123485 -0.0458326 0.998873 0.00325119
-0.012576 -0.0454385 0.998888 0.0048423
-0.00997279 -0.0449888 0.998938 0
-0.0101391 -0.044303 0.998967 0.000561561
-0.0110746 -0.0437563 0.998981 0.00629451
-0.00978954 -0.0429608 0.999029 0.00365752
-0.00836054 -0.0417846 0.999092 0.00137867
-0.00653994 -0.0405633 0.999156 0.00524131
-0.0056549 -0.0396381 0.999198 0.00720702
-0.00388195 -0.0383682 0.999256 0.00593372
-0.00123206 -0.0370973 0.999311 0.00514475
-0.000270474 -0.035068 0.999385 0.00582675
0.000205785 -0.0332112 0.999448 0.00384045
0.0020211 -0.0308419 0.999522 0.00537865
0.0030769 -0.0285258 0.999588 0.0104686
0.006162 -0.0260091 0.999643 0.00783511
0.00614739 -0.0233283 0.999709 0.00672782
0.00787993 -0.0212786 0.999743 0.00700326
0.0113741 -0.0192541 0.99975 0.00615957
0.0124099 -0.01853 0.999751 0.00466891
0.0145633 -0.0178472 0.999735 0.0031344
0.0152952 -0.017295 0.999733 0.00620879
0.0162283 -0.016619 0.99973 0.00466933
0.0167889 -0.0155959 0.999737 0.0107628
0.01835 -0.0151445 0.999717 0.00832444
0.0188283 -0.0142026 0.999722 0.00815588
0.0206375 -0.0139221 0.99969 0.00721695
0.0219425 -0.0132531 0.999671 0.00759131
0.0228727 -0.0122718 0.999663 0.00551608
0.0249396 -0.0112115 0.999626 0.00327489
0.0275729 -0.00997034 0.99957 0.002639
0.0278559 -0.00895219 0.999572 0.00602353
0.0295271 -0.0077146 0.999534 0.00346918
0.0302982 -0.00634668 0.999521 0.00154826
0.0308791 -0.00506654 0.99951 0.00187021
0.0308555 -0.00393701 0.999516 0.00323738
0.031597 -0.00224192 0.999498 0.00741205
0.0331858 -0.00105054 0.999449 0.00712655
0.0339926 0.000911073 0.999422 0.00844359
0.0344191 0.00282358 0.999403 0.0130277
0.034628 0.0035352 0.999394 0.01012
0.0345634 0.00473287 0.999391 0.0134542
0.035273 0.00622187 0.999358 0.00954261
0.0353032 0.00749969 0.999349 0.0125314
0.0361029 0.00902344 0.999307 0.00848319
0.0357482 0.00993282 0.999311 0.00573964
0.0363636 0.0113082 0.999275 0.00739482
0.0348213 0.0130145 0.999309 0.00876105
0.0348859 0.0141241 0.999291 0.00502873
0.0340584 0.0167108 0.99928 0.00963238
0.0334393 0.0187732 0.999264 0.0135253
0.0325378 0.0215741 0.999238 0.0176693
0.0321712 0.0244074 0.999184 0.0232412
0.0312241 0.026955 0.999149 0.0202443
0.0311778 0.0292972 0.999084 0.021734
0.0299922 0.0317766 0.999045 0.0252383
0.0288909 0.0340224 0.999003 0.0276725
0.0282818 0.0361035 0.998948 0.0237442
0.0290992 0.0372142 0.998884 0.0143674
0.0278679 0.0386913 0.998863 0.0154114
0.0267182 0.0408632 0.998807 0.0137964
0.0247773 0.0436015 0.998742 0.0159302
0.0226153 0.0455795 0.998705 0.0138667
0.0233114 0.0480909 0.998571 0.0135221
0.0219588 0.0513314 0.99844 0.0149444
0.0224901 0.0536996 0.998304 0.0158018
0.0215745 0.0564101 0.998175 0.0137005
0.021439 0.0589513 0.998031 0.0141757
0.0220486 0.0617894 0.997846 0.0152764
0.0222864 0.0647352 0.997654 0.0182336
0.0232541 0.0670294 0.99748 0.0182221
0.0223111 0.0695608 0.997328 0.0155465
0.0240756 0.0739402 0.996972 0.0190845
0.0236335 0.0780642 0.996668 0.0215704
0.0245299 0.0813738 0.996382 0.02252
0.0242491 0.083955 0.996174 0.0175446
0.0235196 0.0883081 0.995815 0.0195586
0.0218357 0.0940856 0.995325 0.0233988
0.0228507 0.0983846 0.994886 0.0249647
0.0223909 0.101713 0.994562 0.0232362
0.0217482 0.106572 0.994067 0.0252503
0.0207393 0.111562 0.993541 0.0255773
0.0212836 0.11838 0.99274 0.0296888
-0.0215825 -0.0576344 0.998104 0.00699236
-0.0226259 -0.0550375 0.998228 0.0125283
-0.0232036 -0.0502064 0.998469 0.00969999
-0.0239868 -0.0465798 0.998627 0.011512
-0.0233668 -0.0426362 0.998817 4.87172e-05
-0.0216816 -0.0402072 0.998956 0
-0.021914 -0.0376622 0.99905 0
-0.0214356 -0.0355612 0.999138 0
-0.0213636 -0.0331848 0.999221 0
-0.0229864 -0.0306646 0.999265 0
-0.0215146 -0.0290124 0.999347 0
-0.0225091 -0.0271112 0.999379 0.00230667
-0.0230666 -0.0253766 0.999412 0.00461495
-0.0245147 -0.0232229 0.99943 0
-0.0241413 -0.0217788 0.999471 0.00137519
-0.024865 -0.0199476 0.999492 0.00062954
-0.023325 -0.0187357 0.999552 0
-0.0247002 -0.0170478 0.99955 0
-0.0242867 -0.0150368 0.999592 0
-0.0254294 -0.0135385 0.999585 0
-0.025765 -0.0117038 0.9996 0
-0.0262207 -0.0100641 0.999605 0
-0.0267541 -0.00889922 0.999602 0
-0.0236177 -0.00804355 0.999689 0
-0.0242862 -0.00666501 0.999683 0
-0.0229278 -0.00569993 0.999721 0
-0.0236282 -0.00447407 0.999711 0
-0.0217188 -0.00377704 0.999757 0
-0.0237793 -0.00267819 0.999714 0
-0.0243072 -0.00173091 0.999703 0
-0.023473 -0.00100399 0.999724 0
-0.0234594 -0.000221035 0.999725 0
-0.023908 0.00052892 0.999714 0
-0.0249643 0.00126314 0.999688 0
-0.0263756 0.00201043 0.99965 0.00236585
-0.0257002 0.00275346 0.999666 0.00280027
-0.0272121 0.00374097 0.999623 0.00957895
-0.0264538 0.00407582 0.999642 0.00545413
-0.0278855 0.00480787 0.9996 0.00446302
-0.0256151 0.00505211 0.999659 0.00341693
-0.0258293 0.00554943 0.999651 0.00545421
-0.0262256 0.00600626 0.999638 0.00838566
-0.0274226 0.0065224 0.999603 0.0101379
-0.0248384 0.00655697 0.99967 0.00889064
-0.0245579 0.00672547 0.999676 0.00925215
-0.0259592 0.00707356 0.999638 0.0128662
-0.0263974 0.00728016 0.999625 0.0126024
-0.0275434 0.00750533 0.999592 0.0103309
-0.0259246 0.00759565 0.999635 0.0138523
-0.0272541 0.00779728 0.999598 0.0144829
-0.0280066 0.00792957 0.999576 0.014018
-0.0275541 0.00802566 0.999588 0.0144915
-0.0257301 0.00789238 0.999638 0.00763043
-0.0258785 0.00790656 0.999634 0.00636313
-0.0289212 0.00814786 0.999548 0.00807177
-0.0286306 0.00812148 0.999557 0.00700566
-0.0286936 0.00813803 0.999555 0.00865035
-0.0275217 0.0080187 0.999589 0.008575
-0.0272576 0.00800291 0.999596 0.0120087
-0.0284152 0.00801748 0.999564 0.0128503
-0.0285462 0.00798769 0.999561 0.0144407
-0.0271529 0.00785052 0.9996 0.011984
-0.028401 0.00782579 0.999566 0.0113695
-0.0274773 0.00823972 0.999588 0.0105283
-0.0309643 0.0093685 0.999477 0.0125119
-0.032396 0.0108795 0.999416 0.0124398
-0.0313258 0.0121552 0.999435 0.0104603
-0.0335024 0.0133676 0.999349 0.00817162
-0.0340292 0.0141004 0.999321 0.0106075
-0.0348124 0.0155 0.999274 0.0112027
-0.0348637 0.0162942 0.999259 0.00837433
