# .PCD v0.7 - Point Cloud Data file format
VERSION 0.7
FIELDS x y z
SIZE 4 4 4
TYPE F F F
COUNT 1 1 1
WIDTH 1359
HEIGHT 1
VIEWPOINT 0 0 0 1 0 0 0
POINTS 1359
DATA ascii
-0.023307333 0.09269166 -0.22483964
-0.023103446 0.09268111 -0.22481611
-0.022902001 0.092735998 -0.224801
-0.02275 0.092661999 -0.224801
-0.0085021658 0.092695832 -0.22488201
-0.033746999 0.092987999 -0.22499999
-0.0269935 0.09285 -0.224998
-0.026059501 0.092941999 -0.22499201
-0.025905998 0.092898332 -0.22496299
-0.025712833 0.092887163 -0.22495449
-0.025512401 0.092894599 -0.22494641
-0.025219999 0.092897505 -0.224951
-0.02505789 0.092924558 -0.22493976
-0.024907108 0.092915006 -0.22492021
-0.024726167 0.092905499 -0.22491334
-0.02449389 0.092892438 -0.22490856
-0.024279833 0.09287867 -0.22489333
-0.024123998 0.092875995 -0.22487335
-0.023972001 0.092905 -0.22484401
-0.023750668 0.092926003 -0.22484367
-0.023299331 0.092904665 -0.224828
-0.023095444 0.092893779 -0.22481301
-0.022894001 0.092947997 -0.224802
-0.0084948326 0.092911333 -0.22485583
-0.026223 0.093163505 -0.224996
-0.026055001 0.093047 -0.224996
-0.025897002 0.09311033 -0.22497065
-0.025704667 0.093100838 -0.22495101
-0.0255052 0.093079001 -0.22494641
-0.02526 0.093096003 -0.22494225
-0.025051333 0.093101837 -0.22493416
-0.024892125 0.093117006 -0.22492349
-0.024717666 0.093117334 -0.22491731
-0.024496125 0.093096122 -0.22491674
-0.024289714 0.093102291 -0.22489871
-0.024114998 0.093086004 -0.22489101
-0.023965001 0.093081661 -0.22484501
-0.023744 0.093103006 -0.22484049
-0.023291335 0.093118005 -0.22481935
-0.023109 0.093126751 -0.22480726
-0.0084782001 0.093110204 -0.224861
-0.026975 0.093310997 -0.224997
-0.0262175 0.093306005 -0.224987
-0.026045501 0.093295 -0.22499949
-0.025889 0.09332367 -0.224967
-0.025696 0.093312837 -0.22495751
-0.025564 0.093312658 -0.224952
-0.025299333 0.093292333 -0.22494666
-0.025068499 0.093281172 -0.22493051
-0.024929199 0.093286693 -0.22491789
-0.02471075 0.093294747 -0.22491799
-0.024518168 0.093319505 -0.22492714
-0.024306001 0.093305334 -0.22490756
-0.024106666 0.093300007 -0.224886
-0.023956999 0.09329433 -0.22484267
-0.023737 0.093280338 -0.22484533
-0.023283999 0.093295 -0.22482699
-0.023091 0.093330279 -0.22481656
-0.0084889997 0.093281403 -0.22486159
-0.026965499 0.093557 -0.224997
-0.025882501 0.093502 -0.22495399
-0.025687331 0.093524836 -0.2249655
-0.025556 0.093524329 -0.22495468
-0.025385 0.09350767 -0.22495501
-0.025105556 0.093495555 -0.22494143
-0.024910836 0.093483418 -0.22491924
-0.024703832 0.093471833 -0.22492017
-0.024503199 0.093517795 -0.22490939
-0.024297668 0.093517214 -0.22490934
-0.024098 0.093511336 -0.22489934
-0.023948668 0.093506336 -0.224841
-0.023728667 0.093493007 -0.22484
-0.023277 0.093471341 -0.224831
-0.023064001 0.093509145 -0.22482844
-0.022922665 0.093472004 -0.22480799
-0.022797 0.093546003 -0.224822
-0.0084716668 0.09348017 -0.22487335
-0.025875 0.09367767 -0.22496633
-0.025680751 0.093703493 -0.2249545
-0.025549 0.093700998 -0.224948
-0.025377 0.093721002 -0.22495234
-0.02509678 0.093706891 -0.22495334
-0.024902001 0.093695998 -0.22492133
-0.024695331 0.093684167 -0.22492267
-0.0245126 0.093690403 -0.22490601
-0.024278 0.093708999 -0.22490884
-0.024088999 0.093722336 -0.22491634
-0.023941001 0.093719333 -0.22483633
-0.023720667 0.093706004 -0.22483635
-0.023267999 0.093682669 -0.22484134
-0.023069376 0.093681499 -0.22483024
-0.022890251 0.093728751 -0.22481474
-0.0227198 0.093734995 -0.2248178
-0.0084634991 0.093694001 -0.22487433
-0.0083140004 0.093717001 -0.2249915
-0.025866335 0.093888998 -0.22497533
-0.025673667 0.093879841 -0.22495967
-0.025541998 0.093878329 -0.22495365
-0.025369499 0.093897 -0.224958
-0.025088333 0.093919106 -0.22495468
-0.024893748 0.093908496 -0.22492492
-0.024687 0.093897171 -0.22492267
-0.024497166 0.093889169 -0.22489934
-0.024326501 0.093874335 -0.22491167
-0.024139252 0.093900748 -0.2249205
-0.023933001 0.093895495 -0.22485051
-0.023711002 0.093915664 -0.22486933
-0.023260668 0.093897335 -0.22482599
-0.023055445 0.093884215 -0.22483546
-0.022915142 0.093893714 -0.22481243
-0.022696 0.093897499 -0.224815
-0.022471201 0.093934797 -0.22481041
-0.0084541664 0.093906336 -0.22489499
-0.0083076665 0.093896002 -0.224976
-0.025857 0.094100676 -0.22499765
-0.025664667 0.094090842 -0.2249745
-0.025533 0.094090007 -0.22497334
-0.025363 0.094075002 -0.22495866
-0.025071573 0.094112419 -0.22494414
-0.0249027 0.094114907 -0.2249279
-0.024708126 0.094118617 -0.22492887
-0.024487833 0.094099499 -0.22492616
-0.024318 0.094086505 -0.22492051
-0.024132 0.094077326 -0.22492135
-0.023925668 0.094071001 -0.22486466
-0.023702001 0.094127662 -0.22487767
-0.023251334 0.094108008 -0.22484635
-0.023053 0.09408813 -0.22483587
-0.022915898 0.094093189 -0.2248185
-0.022691859 0.094066426 -0.22480699
-0.0224976 0.094107196 -0.22481279
-0.0084554004 0.094107591 -0.22487819
-0.0083237495 0.094129249 -0.22496477
-0.025848666 0.094312996 -0.22499399
-0.025656333 0.094303496 -0.2249735
-0.025524 0.094301999 -0.22498
-0.025354667 0.094289005 -0.22494633
-0.025082376 0.094283134 -0.22495663
-0.024906667 0.094299667 -0.22493951
-0.024709666 0.094321996 -0.22493799
-0.024479 0.094310999 -0.22493784
-0.024310166 0.094300665 -0.22490282
-0.024124002 0.094290495 -0.22491848
-0.023917666 0.094284333 -0.22485869
-0.023695 0.094305001 -0.22487751
-0.023243666 0.094321333 -0.22483534
-0.023061166 0.094311833 -0.22483318
-0.022920752 0.094282374 -0.22481824
-0.022727 0.094290502 -0.22481517
-0.022508625 0.09426938 -0.22481537
-0.02234 0.094342999 -0.224806
-0.0084840003 0.094302997 -0.22484601
-0.0083606662 0.094279997 -0.22494499
-0.025841 0.094526999 -0.22498266
-0.0256582 0.094502598 -0.2249662
-0.025535999 0.094531752 -0.22498275
-0.025345333 0.09449967 -0.22497301
-0.025099166 0.094487496 -0.22497666
-0.024923833 0.094477832 -0.22494942
-0.024702499 0.094498999 -0.22494633
-0.024463002 0.094508201 -0.2249434
-0.024301499 0.094512336 -0.2249115
-0.024115333 0.094503172 -0.22492182
-0.023909001 0.094496667 -0.22486435
-0.023688002 0.094482332 -0.22487168
-0.0232365 0.094498001 -0.22484401
-0.023052165 0.094523333 -0.22485031
-0.022915544 0.094519086 -0.22482024
-0.022718335 0.094502829 -0.22481668
-0.0224995 0.094499499 -0.22481886
-0.0223085 0.094499998 -0.22481924
-0.0084766671 0.094480671 -0.22485535
-0.0083866669 0.094471335 -0.22493465
-0.025833499 0.094704002 -0.22499549
-0.025686499 0.094693005 -0.2249935
-0.02555 0.094727166 -0.22498219
-0.025336333 0.094711006 -0.22498535
-0.025090501 0.094699837 -0.22498266
-0.024915414 0.094690003 -0.22495599
-0.024694886 0.094675213 -0.224959
-0.0244714 0.094680205 -0.2249496
-0.024292668 0.094723664 -0.22492318
-0.024107 0.094716169 -0.22492182
-0.0239 0.094708331 -0.22487867
-0.023679333 0.094694339 -0.22488467
-0.023229001 0.094674669 -0.22485535
-0.023045499 0.094701007 -0.22484401
-0.022899272 0.094718456 -0.22481799
-0.022709668 0.094714843 -0.22482966
-0.02250075 0.094712749 -0.22482224
-0.022276334 0.094695173 -0.22481267
-0.02214 0.094759002 -0.224801
-0.0084679993 0.094693996 -0.22486098
-0.0083773332 0.094684005 -0.22495699
-0.025829 0.094809003 -0.22499999
-0.025677999 0.094905496 -0.22499299
-0.025542999 0.094903752 -0.22498477
-0.025328333 0.094924331 -0.22497833
-0.025082499 0.094912499 -0.2249815
-0.024907252 0.094903082 -0.22495049
-0.02469725 0.094879627 -0.224958
-0.024476288 0.094887853 -0.22495674
-0.024285499 0.09490075 -0.224925
-0.024098001 0.094927497 -0.22493218
-0.023891002 0.094920993 -0.22488301
-0.023671001 0.094907664 -0.22487932
-0.023220332 0.094887339 -0.22485232
-0.023038 0.094877668 -0.22485383
-0.022906667 0.094890781 -0.22483033
-0.022693399 0.094912603 -0.22483179
-0.022495285 0.094896004 -0.22482871
-0.0223145 0.094891258 -0.22481301
-0.022079 0.094894998 -0.22481416
-0.0084590008 0.094907336 -0.22487633
-0.0083689997 0.09489733 -0.22496367
-0.025673 0.095048502 -0.224989
-0.025536334 0.095081992 -0.224981
-0.025321499 0.095101997 -0.224977
-0.025074 0.095124841 -0.224985
-0.024898583 0.095115326 -0.22495699
-0.024720168 0.095101833 -0.22496317
-0.024496334 0.095092878 -0.2249518
-0.024278335 0.09507817 -0.22493349
-0.024091 0.095104501 -0.224933
-0.023884 0.095098004 -0.224886
-0.023662999 0.095120333 -0.22487901
-0.023212001 0.095099993 -0.224858
-0.023029832 0.095090002 -0.2248535
-0.022890834 0.095078416 -0.22483499
-0.022703201 0.095083602 -0.22483198
-0.0225165 0.095096998 -0.22481376
-0.022315573 0.09514071 -0.22482429
-0.022070667 0.095107339 -0.2248195
-0.008450333 0.095119663 -0.22487734
-0.0083590001 0.095109336 -0.22498466
-0.02552825 0.095275745 -0.22498998
-0.025314001 0.095279001 -0.22498702
-0.025067 0.095301993 -0.22498225
-0.024880702 0.095312499 -0.22496121
-0.024711668 0.095314167 -0.22496898
-0.024514144 0.095297866 -0.22494514
-0.024301751 0.095300376 -0.22494601
-0.024084168 0.095281996 -0.22493315
-0.023877665 0.095275335 -0.22487967
-0.023656499 0.095298 -0.224869
-0.0232045 0.095276996 -0.2248615
-0.02308375 0.095322505 -0.22487149
-0.022921462 0.095288701 -0.22484492
-0.022714874 0.095290877 -0.224839
-0.022509167 0.09527383 -0.22482334
-0.022296833 0.095297508 -0.224822
-0.022082144 0.095331714 -0.22481215
-0.0084974002 0.095283404 -0.22484279
-0.0083503323 0.095322669 -0.22499633
-0.025479 0.095434003 -0.22499999
-0.025072198 0.095466599 -0.22497778
-0.024902729 0.095489189 -0.22497617
-0.024703167 0.095526837 -0.22496933
-0.024523834 0.095521502 -0.22495468
-0.024304554 0.095504999 -0.22494854
-0.024075666 0.095494509 -0.22493917
-0.023868 0.095486999 -0.22490001
-0.023649001 0.095474668 -0.22487533
-0.023115331 0.095518671 -0.22487731
-0.022922834 0.095506735 -0.22485
-0.022716112 0.095494553 -0.2248439
-0.0225005 0.095486164 -0.22482949
-0.022337168 0.095476329 -0.22482185
-0.022130333 0.095490336 -0.22481298
-0.0084803337 0.095481001 -0.22485764
-0.0083450004 0.095466003 -0.224997
-0.025649 0.095648997 -0.224995
-0.025524667 0.095718332 -0.22499533
-0.025108999 0.09569633 -0.22497334
-0.024914768 0.095678002 -0.22497652
-0.024730334 0.095705993 -0.22496933
-0.024516501 0.095697999 -0.22495851
-0.024295777 0.095717005 -0.22495291
-0.0240665 0.095706165 -0.22494949
-0.023860335 0.095699333 -0.22489299
-0.023639999 0.095685661 -0.22489701
-0.023108251 0.095696002 -0.22488099
-0.022913916 0.095718585 -0.22486484
-0.022707444 0.095706329 -0.22485079
-0.022491666 0.0956975 -0.22484219
-0.022328334 0.095688164 -0.22483017
-0.022145333 0.095681667 -0.22481632
-0.021991 0.095740996 -0.22480799
-0.0084713334 0.095693998 -0.22487099
-0.0254605 0.095896006 -0.22499651
-0.025287 0.095950998 -0.22499999
-0.025103001 0.095836997 -0.224989
-0.024909638 0.095890731 -0.22497398
-0.024723444 0.095883109 -0.22496888
-0.024509832 0.095876336 -0.22495401
-0.0243068 0.095887586 -0.22495461
-0.024106713 0.095919862 -0.22495516
-0.023889 0.0959315 -0.224897
-0.023631334 0.095898002 -0.22489899
-0.023101166 0.095872998 -0.22488166
-0.022898667 0.095907003 -0.22486356
-0.022699224 0.095919438 -0.22484833
-0.022483334 0.095910005 -0.22484232
-0.02232 0.095900334 -0.22483933
-0.022128399 0.095907398 -0.22481839
-0.021985 0.095881671 -0.22482167
-0.0084629999 0.095907666 -0.22487199
-0.025456 0.096000999 -0.22499999
-0.02509 0.096155003 -0.224996
-0.024882875 0.09612713 -0.22497
-0.024714446 0.096095227 -0.22498447
-0.024500998 0.096087992 -0.22496666
-0.024325499 0.096073501 -0.224966
-0.0241505 0.096098244 -0.22495949
-0.023917666 0.096126832 -0.22493167
-0.023622999 0.096110336 -0.22490533
-0.023092834 0.096085824 -0.22488235
-0.022905637 0.096079826 -0.22486973
-0.022692166 0.096097 -0.22485285
-0.022474499 0.096122168 -0.22484969
-0.022311332 0.096112825 -0.22484
-0.022128666 0.096106499 -0.224822
-0.021976 0.096092999 -0.22483134
-0.021738 0.096148998 -0.22480601
-0.0084541673 0.096120663 -0.22488201
-0.025443001 0.096357003 -0.22499
-0.025086001 0.096261002 -0.224999
-0.024892729 0.096315362 -0.22497863
-0.024705572 0.09629786 -0.22498214
-0.024492333 0.096300505 -0.2249725
-0.024316998 0.096285164 -0.22497217
-0.024143333 0.096276164 -0.22495519
-0.023910999 0.096304253 -0.22492549
-0.023614667 0.096323006 -0.22490634
-0.023084668 0.096298665 -0.22488332
-0.022891583 0.096285827 -0.22486348
-0.022685111 0.09627378 -0.22485368
-0.022467749 0.096299998 -0.2248465
-0.022303166 0.096326165 -0.22483318
-0.022120664 0.09632016 -0.22481199
-0.021966999 0.096305668 -0.22484566
-0.021726001 0.096277602 -0.22481
-0.0084469998 0.096298501 -0.224893
-0.025438499 0.096464001 -0.22499099
-0.024843751 0.096496999 -0.22498199
-0.024695501 0.096520163 -0.22499032
-0.024484335 0.096512832 -0.2249705
-0.024308002 0.096497834 -0.22497784
-0.024135666 0.096491002 -0.22494034
-0.023903668 0.096480995 -0.22493249
-0.0236075 0.096501 -0.224904
-0.023154998 0.096516006 -0.22488399
-0.022906 0.096500136 -0.224868
-0.022700142 0.09647686 -0.22485043
-0.02249475 0.096488379 -0.22484338
-0.022296749 0.096503749 -0.224819
-0.022127667 0.096509665 -0.22480667
-0.021959668 0.096520334 -0.22481899
-0.021692 0.096431002 -0.224802
-0.0084850006 0.096483 -0.22483666
-0.0083956672 0.096472673 -0.22491533
-0.025429999 0.096675999 -0.224995
-0.0252565 0.096731499 -0.22499299
-0.024836833 0.096673667 -0.22498034
-0.0246896 0.096704401 -0.22499199
-0.024475833 0.096725829 -0.22496833
-0.024300165 0.096710831 -0.2249725
-0.0241275 0.0967035 -0.22494133
-0.023895836 0.096694164 -0.22492851
-0.023602501 0.096643001 -0.22489551
-0.023598 0.096748002 -0.224906
-0.023147002 0.096728332 -0.22487767
-0.022897804 0.096713461 -0.22486362
-0.022708833 0.096700996 -0.22483583
-0.022498555 0.096693002 -0.22484133
-0.02231125 0.096662745 -0.224829
-0.022107 0.096674502 -0.22481199
-0.021953 0.096698001 -0.22481549
-0.0084769996 0.096698336 -0.22483367
-0.0083869994 0.096686333 -0.22491832
-0.025448667 0.096923329 -0.22499733
-0.025251999 0.096836001 -0.224996
-0.024828332 0.096886493 -0.22498368
-0.024684001 0.096875452 -0.22498287
-0.024468498 0.09690275 -0.22497776
-0.024271499 0.096905753 -0.22495976
-0.024119169 0.096915998 -0.22494017
-0.023886666 0.096906506 -0.22494233
-0.023592001 0.096890666 -0.22490601
-0.023140501 0.096906006 -0.2248715
-0.022894638 0.096906185 -0.22486673
-0.0227245 0.096923754 -0.22483836
-0.022516284 0.096896999 -0.22484073
-0.022310624 0.096904114 -0.22482976
-0.022098167 0.096887171 -0.22481418
-0.021946667 0.096875332 -0.22480468
-0.0084679993 0.096910328 -0.22485
-0.0083557498 0.096897252 -0.22494775
-0.025501 0.097066 -0.224994
-0.0248325 0.097083248 -0.2249745
-0.024697637 0.097096451 -0.22498046
-0.024461834 0.097080499 -0.22496815
-0.0242435 0.097100005 -0.22494
-0.024102999 0.0971146 -0.22493482
-0.0238785 0.097119503 -0.22493817
-0.023584334 0.097103991 -0.22489899
-0.023132334 0.097082667 -0.22488832
-0.022914898 0.097084597 -0.22486761
-0.022716625 0.097118132 -0.22485051
-0.022527002 0.097121328 -0.22483818
-0.022312 0.097108662 -0.22483709
-0.022088999 0.097098835 -0.22483267
-0.021937998 0.097088002 -0.22481
-0.021737 0.097075 -0.224801
-0.008458999 0.09712366 -0.22485501
-0.0083689997 0.097112335 -0.22493833
-0.025404001 0.097349003 -0.224996
-0.024835 0.097315334 -0.224968
-0.024732223 0.097305782 -0.22497545
-0.024529571 0.097284429 -0.22498128
-0.024303498 0.097306162 -0.224966
-0.0241128 0.097284608 -0.22494662
-0.023947001 0.097300999 -0.224943
-0.023797 0.097293004 -0.22490799
-0.023576668 0.097317666 -0.22487967
-0.023124332 0.097295664 -0.22488634
-0.022898501 0.097282581 -0.22486408
-0.022727285 0.09728986 -0.22485642
-0.02252 0.09729825 -0.22484499
-0.022303777 0.097320884 -0.22483566
-0.022081001 0.097311497 -0.22482967
-0.021929333 0.0973 -0.22481434
-0.0084524993 0.097302005 -0.22485751
-0.0083603328 0.09732566 -0.22494833
-0.025401 0.09742 -0.224994
-0.025037501 0.097503006 -0.224997
-0.024826666 0.097527675 -0.224971
-0.024723776 0.097519115 -0.22497399
-0.024542501 0.097508341 -0.22498135
-0.024310334 0.097496003 -0.22497146
-0.024095999 0.097482331 -0.22495751
-0.023939667 0.097477667 -0.22495766
-0.023789667 0.097470663 -0.22491433
-0.0235685 0.097493999 -0.22489899
-0.023116669 0.097508997 -0.22487199
-0.022889918 0.097495325 -0.22486515
-0.022710778 0.097482666 -0.22484578
-0.022512833 0.097475328 -0.22484483
-0.022296667 0.097498327 -0.224838
-0.022072332 0.097524337 -0.22483633
-0.021920666 0.097511999 -0.22482668
-0.021648001 0.097566001 -0.224801
-0.0084449993 0.097480334 -0.22485833
-0.0083539998 0.097505003 -0.2249365
-0.025392 0.097631998 -0.224999
-0.024855999 0.097705998 -0.2249805
-0.024707286 0.09771014 -0.22498401
-0.024534335 0.097721495 -0.22497731
-0.024302445 0.097709671 -0.22495712
-0.024087833 0.097695835 -0.2249525
-0.023931334 0.097690336 -0.22496001
-0.023781331 0.097684003 -0.224912
-0.023561999 0.097670667 -0.22490467
-0.023108 0.097722329 -0.22487234
-0.022881502 0.097707503 -0.22486675
-0.022702331 0.097695559 -0.22484511
-0.022505499 0.097689837 -0.2248255
-0.022289667 0.09767589 -0.22483934
-0.02206625 0.097701997 -0.22481351
-0.021911999 0.097724669 -0.22482967
-0.0084366677 0.097693659 -0.22486167
-0.008347 0.097683005 -0.224935
-0.025210001 0.097938001 -0.22498751
-0.025022665 0.097893991 -0.22498201
-0.024861112 0.097884104 -0.22498465
-0.024717499 0.097883247 -0.224967
-0.024527501 0.097899251 -0.2249725
-0.024284501 0.097912624 -0.22495311
-0.024080167 0.097908832 -0.22494267
-0.023923 0.097902991 -0.22495534
-0.023774333 0.097897671 -0.22488634
-0.023553334 0.097883664 -0.22490235
-0.023101501 0.097900003 -0.22487301
-0.022873417 0.097921245 -0.22485976
-0.022694113 0.097908229 -0.22484189
-0.022496833 0.097901829 -0.22483249
-0.022304999 0.097879 -0.2248417
-0.022094002 0.097890496 -0.22481677
-0.0219055 0.097902 -0.2248255
-0.0084279999 0.097906329 -0.22487001
-0.0083379997 0.097897001 -0.22494467
-0.025204999 0.098044001 -0.22499301
-0.025013998 0.09810666 -0.22499366
-0.024853112 0.098097667 -0.22497532
-0.024702111 0.09808667 -0.22496255
-0.024521166 0.098077156 -0.22495633
-0.024299858 0.098085865 -0.22494869
-0.024071835 0.098121665 -0.22493733
-0.023914335 0.09811566 -0.22495633
-0.023765998 0.098110341 -0.22488368
-0.023545003 0.098096333 -0.22490032
-0.023094 0.098075666 -0.22488399
-0.022876 0.098094143 -0.22486301
-0.022705911 0.098128632 -0.22484781
-0.022488499 0.098114498 -0.22483017
-0.022314167 0.098102331 -0.22483481
-0.022098115 0.098095775 -0.22480989
-0.021898001 0.098080002 -0.22482432
-0.0084183337 0.098119669 -0.22489034
-0.0083289994 0.098110341 -0.22496301
-0.025451999 0.098307505 -0.22499549
-0.0253655 0.098306 -0.22499999
-0.025005 0.098319329 -0.22499667
-0.024868667 0.098311491 -0.22498702
-0.024719335 0.098301828 -0.22496442
-0.024512669 0.098289825 -0.224959
-0.024304716 0.098268576 -0.22495343
-0.024108499 0.098301671 -0.2249365
-0.023908 0.098294005 -0.224949
-0.023757666 0.09832301 -0.22488666
-0.023537001 0.098309003 -0.22489934
-0.023085 0.098287672 -0.22488999
-0.022881335 0.098276891 -0.22486533
-0.022695221 0.09831056 -0.22485645
-0.022479832 0.098327167 -0.22483784
-0.022305667 0.098315336 -0.22483434
-0.022124 0.098286994 -0.22480567
-0.0219175 0.098313995 -0.22480899
-0.0084105004 0.098297998 -0.224905
-0.0083193332 0.098321669 -0.22499032
-0.025446501 0.098448001 -0.224994
-0.025187001 0.098504499 -0.22499299
-0.024879714 0.098524436 -0.22499387
-0.024711085 0.098513991 -0.22496544
-0.024504168 0.09850233 -0.224958
-0.024314001 0.098493494 -0.22494952
-0.024101555 0.098478884 -0.22493733
-0.023901334 0.098472334 -0.22494
-0.023749501 0.098499998 -0.22490001
-0.023530001 0.098523669 -0.224867
-0.023077002 0.09850166 -0.22488832
-0.022872778 0.098489895 -0.22487232
-0.0227197 0.098478198 -0.22484598
-0.022497999 0.0985118 -0.224841
-0.0222902 0.098512799 -0.2248292
-0.022125667 0.098522998 -0.22481817
-0.021963999 0.098531 -0.22481324
-0.0084297499 0.098460495 -0.22487076
-0.0083134994 0.098501995 -0.22497249
-0.025436668 0.098696329 -0.22499268
-0.025353 0.098626003 -0.224999
-0.0251815 0.098646499 -0.2249925
-0.024899667 0.098679997 -0.2249915
-0.024692601 0.098712303 -0.22496083
-0.024496501 0.098716497 -0.22494532
-0.024306333 0.098706998 -0.22493951
-0.024092777 0.098690994 -0.2249431
-0.023893334 0.098684669 -0.22493465
-0.023742998 0.098677002 -0.224895
-0.0235215 0.098699003 -0.224896
-0.023069 0.098714329 -0.22487998
-0.022864999 0.098703109 -0.22486067
-0.022724889 0.098692 -0.22483402
-0.022508778 0.098682776 -0.22484034
-0.022298601 0.098684803 -0.22483841
-0.022118751 0.098701 -0.22481799
-0.021928834 0.098723657 -0.2248155
-0.008351 0.098684333 -0.22493516
-0.025427999 0.098908335 -0.22499967
-0.025343999 0.098874003 -0.22499201
-0.024880126 0.098889247 -0.2249905
-0.024707299 0.098883912 -0.2249656
-0.0244895 0.098893493 -0.22494824
-0.024297668 0.098919503 -0.22494501
-0.024110142 0.098895721 -0.22492914
-0.023929998 0.098912798 -0.224933
-0.023734668 0.098889671 -0.22489734
-0.023515999 0.098877668 -0.22487234
-0.023060666 0.098927327 -0.224878
-0.022856556 0.098916002 -0.22486179
-0.022716222 0.098904662 -0.22484022
-0.022500446 0.098895565 -0.2248351
-0.022283832 0.098883159 -0.22482501
-0.022111667 0.098877497 -0.22482049
-0.021922 0.098901249 -0.22481351
-0.0083424989 0.098898672 -0.22493434
-0.025456402 0.099137798 -0.2249922
-0.025163 0.099107333 -0.22499733
-0.024883889 0.099093899 -0.22498423
-0.024696819 0.099076085 -0.22496471
-0.024498999 0.099081285 -0.22495629
-0.024280399 0.099115603 -0.2249736
-0.024121 0.099120654 -0.22490017
-0.023933334 0.099110492 -0.22494514
-0.023726001 0.09910167 -0.224904
-0.023506666 0.099090338 -0.22489066
-0.023053501 0.099104002 -0.22487199
-0.022842711 0.099107146 -0.22486243
-0.022707779 0.099117115 -0.224839
-0.022504 0.09910012 -0.22483288
-0.022292856 0.099106565 -0.22483785
-0.022103498 0.099090166 -0.22482051
-0.021915002 0.099077664 -0.22481416
-0.008475 0.099197999 -0.224801
-0.0083346665 0.099113323 -0.22492434
-0.025504 0.099338003 -0.224999
-0.024878625 0.099298373 -0.22498475
-0.024709335 0.099297337 -0.22496012
-0.024513332 0.09928412 -0.22496945
-0.024290601 0.099288195 -0.22495742
-0.024112999 0.099297248 -0.22492924
-0.0239255 0.099323831 -0.22493517
-0.023717334 0.099314332 -0.22491233
-0.023498334 0.099302672 -0.22489233
-0.023047 0.099281333 -0.22486901
-0.022865167 0.099272996 -0.2248615
-0.022715442 0.099307328 -0.22484367
-0.022528166 0.099322833 -0.2248375
-0.022309445 0.099311121 -0.22483444
-0.022095 0.099302672 -0.22482383
-0.021918001 0.099278197 -0.22481258
-0.0084704999 0.099303998 -0.224805
-0.0083180005 0.099311993 -0.22493079
-0.025475999 0.09946125 -0.22499874
-0.025319999 0.099477328 -0.22499867
-0.024929 0.099541247 -0.22498575
-0.024717815 0.099516816 -0.22498073
-0.024504779 0.099496439 -0.22497566
-0.024274834 0.099486001 -0.22495581
-0.024105335 0.099474169 -0.22494251
-0.02391875 0.099501498 -0.22493051
-0.023709668 0.099528335 -0.22489367
-0.023489999 0.099515341 -0.22488435
-0.023038 0.099494003 -0.22488068
-0.022856668 0.099485993 -0.22486334
-0.022724817 0.099480361 -0.22485055
-0.02252125 0.099500999 -0.22483601
-0.022291001 0.099514626 -0.22482862
-0.022087 0.099516332 -0.22481382
-0.0219086 0.099519394 -0.22480901
-0.0084640002 0.099482663 -0.22481066
-0.0083291996 0.099484995 -0.22491798
-0.025345599 0.099704005 -0.22499481
-0.0251425 0.099638999 -0.22499749
-0.024894251 0.099699497 -0.22497976
-0.024716916 0.099723838 -0.22497392
-0.024497334 0.09971045 -0.22495478
-0.024266668 0.099699169 -0.22495466
-0.024096832 0.099686004 -0.22494514
-0.023911668 0.099679172 -0.22493082
-0.023703501 0.099705994 -0.22489101
-0.023481667 0.099727996 -0.22488934
-0.02303 0.099706672 -0.22488266
-0.022848332 0.099698327 -0.22486384
-0.022709584 0.099686675 -0.22484566
-0.022514502 0.099677168 -0.22483766
-0.022306997 0.09968657 -0.22483028
-0.022079499 0.099711001 -0.2248075
-0.021946501 0.099685997 -0.22480601
-0.0084579997 0.099625997 -0.224805
-0.0083121667 0.099683501 -0.22492933
-0.025626 0.099987 -0.224998
-0.025367498 0.09992075 -0.22498849
-0.025133668 0.099888332 -0.22497666
-0.024888 0.099877499 -0.22496749
-0.024710249 0.099901743 -0.22496325
-0.024489112 0.099923223 -0.22495379
-0.024258666 0.099912502 -0.22494049
-0.0240885 0.099899173 -0.22494984
-0.023903333 0.099892169 -0.22492819
-0.023695668 0.09988267 -0.22489667
-0.023475001 0.099905998 -0.2248815
-0.023022002 0.099921338 -0.22486432
-0.022840334 0.099911503 -0.22485316
-0.022701003 0.099899173 -0.22484992
-0.022505999 0.0998905 -0.22483815
-0.022287667 0.099878885 -0.22482821
-0.0220975 0.0998725 -0.22482151
-0.02183 0.099854998 -0.224802
-0.0083039999 0.09989766 -0.22492231
-0.025620334 0.100128 -0.224999
-0.025338 0.10011583 -0.22499233
-0.025124667 0.10010167 -0.22498967
-0.024879334 0.10008983 -0.22497101
-0.024703667 0.10007935 -0.22495718
-0.024524249 0.10010225 -0.22495225
-0.024287285 0.10010672 -0.22494557
-0.0240805 0.10011283 -0.22493351
-0.023894498 0.10010418 -0.22494018
-0.023687666 0.10009533 -0.22489367
-0.023468001 0.10008267 -0.22488934
-0.023015 0.100098 -0.224869
-0.022832498 0.10012468 -0.22484149
-0.022693083 0.10011216 -0.22483957
-0.022497334 0.10010317 -0.2248435
-0.022319667 0.1000955 -0.22482868
-0.022155499 0.100085 -0.22483085
-0.021818001 0.100139 -0.224805
-0.0082963333 0.10011234 -0.22490399
-0.0256135 0.10030501 -0.224994
-0.025467999 0.100259 -0.224999
-0.025321599 0.10031419 -0.22499499
-0.025115998 0.10031366 -0.22499432
-0.024870666 0.10030267 -0.22498299
-0.024695249 0.100292 -0.22495925
-0.024517501 0.10027917 -0.22494984
-0.024304377 0.10028012 -0.22494374
-0.0240652 0.1003116 -0.22490978
-0.023886332 0.10031766 -0.2249375
-0.023679666 0.10030866 -0.22488232
-0.023459001 0.10029534 -0.22489099
-0.023007998 0.10027599 -0.224869
-0.022833668 0.10029034 -0.22485034
-0.022696547 0.10031372 -0.22483763
-0.022505429 0.10032643 -0.22483471
-0.022311499 0.1003085 -0.22482567
-0.022127856 0.10028743 -0.22482345
-0.021878999 0.1002712 -0.22481219
-0.021609001 0.100337 -0.224801
-0.0082796002 0.1003114 -0.22490959
-0.025604 0.100554 -0.22499201
-0.025364 0.10054 -0.22499099
-0.025108 0.10052701 -0.22499333
-0.024861999 0.10051534 -0.22498934
-0.024686666 0.10050467 -0.22496609
-0.024508499 0.10049183 -0.22496401
-0.0243285 0.10048583 -0.224959
-0.024121126 0.10047999 -0.22492887
-0.0238674 0.100516 -0.224933
-0.023672668 0.10052267 -0.22485934
-0.023451665 0.10050934 -0.22487533
-0.023002001 0.100416 -0.224888
-0.022905 0.1004978 -0.22486079
-0.0227364 0.1004862 -0.2248455
-0.022509875 0.10052012 -0.2248365
-0.022303335 0.10052117 -0.224819
-0.022148201 0.10051139 -0.22481839
-0.021606 0.100407 -0.224801
-0.0082907993 0.1004836 -0.2248998
-0.025601 0.100624 -0.224999
-0.025316333 0.1006835 -0.22498183
-0.024912499 0.1006965 -0.224986
-0.024709215 0.10071456 -0.224968
-0.024514286 0.10071557 -0.22496414
-0.024320833 0.10069949 -0.22494949
-0.024101444 0.10068311 -0.22494167
-0.0238836 0.10068719 -0.2249296
-0.023665 0.100699 -0.22487551
-0.023443 0.10072234 -0.224877
-0.0229125 0.10069633 -0.224869
-0.02272 0.10068417 -0.22484016
-0.022523284 0.10069171 -0.22483957
-0.022296499 0.100699 -0.22481349
-0.022131165 0.10072416 -0.22481817
-0.021990335 0.10071933 -0.224805
-0.021793 0.100776 -0.224806
-0.0082736667 0.1006825 -0.22490901
-0.025293998 0.100872 -0.22499567
-0.025093667 0.10088134 -0.22499633
-0.024905667 0.10087333 -0.22498266
-0.024719626 0.10089799 -0.22497313
-0.024526222 0.10092 -0.22495931
-0.024312831 0.10091233 -0.224941
-0.024093 0.10089555 -0.22494289
-0.023864666 0.10088518 -0.22492917
-0.023657 0.10087534 -0.22489899
-0.0234365 0.1009 -0.2248805
-0.022904335 0.10090966 -0.224867
-0.022711501 0.10089675 -0.22484483
-0.022505336 0.10088445 -0.22482589
-0.022289166 0.10087516 -0.22482516
-0.022124 0.1009015 -0.22482175
-0.021954 0.10093067 -0.224806
-0.021788999 0.100882 -0.22480601
-0.0082656667 0.10089634 -0.22490366
-0.025510499 0.1010455 -0.224999
-0.025321251 0.10109125 -0.22499226
-0.025085665 0.10109466 -0.224985
-0.024897 0.101086 -0.22498699
-0.024712751 0.10107558 -0.22496898
-0.024518833 0.10109683 -0.22496533
-0.024304666 0.10112517 -0.22493567
-0.024110142 0.10109957 -0.22494499
-0.023922667 0.10110033 -0.22492033
-0.0237092 0.1011072 -0.2248874
-0.023429001 0.10107633 -0.22488232
-0.022895833 0.10112233 -0.22486366
-0.022703001 0.10110942 -0.22485059
-0.022497222 0.10109711 -0.22482665
-0.022280833 0.10108849 -0.22482
-0.022116834 0.10107884 -0.224828
-0.021942001 0.1010864 -0.22480841
-0.021779001 0.10113 -0.224805
-0.0082576666 0.10111067 -0.22489434
-0.025476335 0.10130334 -0.22499466
-0.025291167 0.10132167 -0.22498083
-0.025078001 0.10130733 -0.22497933
-0.024888666 0.10129867 -0.22498865
-0.024704583 0.10128825 -0.22496599
-0.024512 0.10127422 -0.22496536
-0.024297999 0.10130275 -0.2249305
-0.024120668 0.10132433 -0.22493617
-0.023947835 0.10131433 -0.22490914
-0.023716167 0.10130617 -0.22489299
-0.023420999 0.10128834 -0.22488134
-0.022889249 0.10129999 -0.22486502
-0.022689274 0.10131537 -0.22484073
-0.022488 0.10131022 -0.22483844
-0.022272334 0.1013005 -0.22482866
-0.022108333 0.10129117 -0.22482984
-0.0219265 0.101285 -0.224804
-0.021774 0.10127267 -0.22480933
-0.0082408004 0.1013094 -0.22490279
-0.025567999 0.10147566 -0.22498466
-0.025284 0.1014985 -0.224986
-0.025068998 0.10152 -0.22498566
-0.024880668 0.10151134 -0.22498065
-0.024696751 0.10150167 -0.22495425
-0.024504222 0.10148767 -0.22495133
-0.024290832 0.10147983 -0.22493385
-0.024114249 0.10150175 -0.2249245
-0.023939332 0.10152733 -0.22490834
-0.023707667 0.10151833 -0.22489382
-0.023412667 0.10150167 -0.224876
-0.022882499 0.10147733 -0.22485667
-0.022696111 0.10148844 -0.22483343
-0.022502856 0.10151257 -0.22484073
-0.022297624 0.10152388 -0.22483388
-0.022100165 0.10150367 -0.22482683
-0.02196 0.10149934 -0.22480635
-0.021765001 0.10148466 -0.22481667
-0.0082896668 0.101471 -0.22483599
-0.0081994999 0.1014985 -0.224897
-0.025448749 0.10169901 -0.22498599
-0.025276834 0.10167583 -0.22498967
-0.025062501 0.101698 -0.224977
-0.024872666 0.101725 -0.224967
-0.024688751 0.10171416 -0.22494666
-0.024496332 0.1017 -0.22494568
-0.024282334 0.10169183 -0.22493899
-0.024107499 0.101679 -0.22492017
-0.023932749 0.101705 -0.22490627
-0.023685198 0.1017166 -0.22488721
-0.023404665 0.10171566 -0.224865
-0.022953667 0.10169434 -0.22484399
-0.022710929 0.10168458 -0.22483055
-0.02251225 0.10170101 -0.22483599
-0.02229025 0.10171937 -0.22482976
-0.022091834 0.1017165 -0.22482766
-0.021950999 0.101712 -0.22481133
-0.02176 0.101626 -0.224805
-0.0082816668 0.10168534 -0.22482432
-0.0081697498 0.10165849 -0.2249295
-0.025464002 0.1018814 -0.22498241
-0.025269002 0.10188901 -0.22498183
-0.025055667 0.10187533 -0.22497566
-0.024866499 0.101903 -0.2249535
-0.024674093 0.10192008 -0.22494765
-0.024488112 0.10191356 -0.22494143
-0.024274165 0.10190517 -0.22493432
-0.024099 0.10189167 -0.22492349
-0.023925668 0.10188234 -0.22490583
-0.023708399 0.1018876 -0.2248964
-0.023396 0.10192767 -0.22486933
-0.022945667 0.10190734 -0.22483532
-0.0226958 0.10189179 -0.22483546
-0.022499401 0.10186361 -0.22482841
-0.02230843 0.10189243 -0.224821
-0.022085 0.101894 -0.22482425
-0.021921249 0.10194175 -0.2248075
-0.0082716672 0.10189867 -0.22485633
-0.0081587499 0.1019075 -0.22495675
-0.025305666 0.10210279 -0.22498631
-0.025046999 0.10208734 -0.22498667
-0.024859002 0.10207967 -0.22495966
-0.024681112 0.10209267 -0.22495778
-0.024471626 0.10211662 -0.22494225
-0.024265831 0.10211883 -0.22492982
-0.024090499 0.102104 -0.22492917
-0.023917168 0.10209566 -0.22490734
-0.023685666 0.10208616 -0.22488882
-0.0233895 0.102105 -0.22486401
-0.022937 0.10212 -0.22483766
-0.02270177 0.10210009 -0.22483523
-0.022522749 0.10210174 -0.22481187
-0.022314429 0.102075 -0.22481613
-0.022107746 0.10208249 -0.22481786
-0.021739999 0.102124 -0.22481
-0.0082640005 0.10211233 -0.22484732
-0.0081517501 0.10208575 -0.22495875
-0.025297221 0.10231545 -0.224987
-0.025038334 0.10230067 -0.22499001
-0.024850002 0.102292 -0.22497399
-0.024689222 0.10228278 -0.22496635
-0.024530001 0.10227989 -0.22494453
-0.0242876 0.1023036 -0.22492459
-0.024082832 0.1023175 -0.22491349
-0.023909001 0.10230783 -0.22490166
-0.023677999 0.10229918 -0.22487651
-0.023383001 0.10228133 -0.22486067
-0.022930499 0.102298 -0.2248345
-0.022701835 0.10231892 -0.22483891
-0.022488249 0.10228675 -0.224815
-0.022325166 0.10229918 -0.22480948
-0.022133429 0.102277 -0.22481684
-0.021929 0.102279 -0.224801
-0.021734999 0.102266 -0.224802
-0.0082563339 0.10232734 -0.22482532
-0.0081660002 0.10231933 -0.22491866
-0.025526 0.102539 -0.224997
-0.025289429 0.10250843 -0.22498371
-0.025072251 0.10253425 -0.22497976
-0.024842665 0.10250566 -0.22496234
-0.024681445 0.10249589 -0.22495447
-0.024530556 0.10248522 -0.22493821
-0.024328997 0.10246528 -0.22492185
-0.024116332 0.10249916 -0.22491683
-0.023901166 0.10252067 -0.22489218
-0.023744332 0.10251534 -0.22490567
-0.023595667 0.10250867 -0.22483499
-0.023374001 0.10249534 -0.22487234
-0.022923 0.10247534 -0.22483565
-0.022705002 0.10249257 -0.22483286
-0.022481166 0.10251666 -0.22482102
-0.022316501 0.1025295 -0.22480524
-0.022088168 0.10249784 -0.22482367
-0.0082495008 0.102506 -0.22481799
-0.0081584994 0.102497 -0.224931
-0.025521332 0.10268233 -0.224976
-0.0253362 0.1026852 -0.224985
-0.025090799 0.1027174 -0.22498019
-0.024834335 0.10271833 -0.22495466
-0.024673112 0.10270856 -0.22494967
-0.024522444 0.10269812 -0.22493355
-0.024342336 0.10268867 -0.22491001
-0.024109555 0.10267667 -0.2249139
-0.023894001 0.102698 -0.22489549
-0.023737501 0.102694 -0.22490001
-0.023586333 0.10272067 -0.22485267
-0.023366332 0.102708 -0.22485332
-0.022915334 0.10268733 -0.22483332
-0.022694184 0.102681 -0.22483145
-0.022493999 0.1027022 -0.2248158
-0.022262 0.10272267 -0.22481333
-0.0082430011 0.10268366 -0.22481032
-0.0081068343 0.10267383 -0.224958
-0.026202001 0.102861 -0.224994
-0.026199 0.102931 -0.224997
-0.025512999 0.10289567 -0.22497334
-0.025319001 0.10288317 -0.22498618
-0.025118399 0.10289101 -0.22497539
-0.024827499 0.102897 -0.22494751
-0.024665223 0.10292211 -0.22494353
-0.024514444 0.10291133 -0.22492534
-0.024334332 0.10290249 -0.22490382
-0.024101667 0.10288933 -0.22490467
-0.023887999 0.10287533 -0.22488134
-0.023731001 0.10287067 -0.22488767
-0.023579501 0.102898 -0.224858
-0.023358665 0.10292133 -0.22484066
-0.022906667 0.10290066 -0.22483633
-0.022680163 0.10288665 -0.22482441
-0.022500111 0.10287344 -0.22482289
-0.022255499 0.1029 -0.22481149
-0.022126 0.1029255 -0.22480901
-0.0082364995 0.102861 -0.22480601
-0.0080988333 0.10288734 -0.22494934
-0.026019 0.103137 -0.224997
-0.025504 0.10310767 -0.22498368
-0.025311166 0.10309651 -0.22497551
-0.025093997 0.10308833 -0.22496635
-0.024821 0.10307366 -0.22495067
-0.024658166 0.103099 -0.22494666
-0.024499625 0.10311412 -0.224922
-0.024325833 0.10311484 -0.224905
-0.024093334 0.10310156 -0.22490412
-0.023879334 0.10308834 -0.22488666
-0.023722669 0.10308367 -0.22488867
-0.023572 0.10307533 -0.22485866
-0.0233505 0.103098 -0.22486401
-0.022899002 0.10311366 -0.22481935
-0.022693999 0.10310122 -0.22482522
-0.022473713 0.10307528 -0.22481485
-0.022252001 0.103006 -0.224801
-0.0221195 0.103086 -0.22480625
-0.0080906665 0.1031015 -0.22494583
-0.025495334 0.10332034 -0.22498667
-0.025303168 0.10330918 -0.22496533
-0.025103802 0.10328861 -0.2249538
-0.024859 0.10330575 -0.2249475
-0.024651555 0.10327633 -0.22493789
-0.024508858 0.10328728 -0.22490586
-0.024308801 0.10331299 -0.2249146
-0.024095751 0.10330713 -0.22490299
-0.023888573 0.10331214 -0.22489987
-0.023714 0.10329633 -0.22488968
-0.023564667 0.10328867 -0.22484167
-0.023344001 0.10327534 -0.22486234
-0.022890666 0.10332566 -0.224822
-0.022685779 0.10331433 -0.22482188
-0.02247143 0.10330857 -0.22480942
-0.02213175 0.103265 -0.22481176
-0.0082210004 0.103253 -0.224802
-0.0080826664 0.1033155 -0.22493567
-0.0258165 0.10351551 -0.22499451
-0.025643 0.103542 -0.224997
-0.025489001 0.1034985 -0.224976
-0.025294667 0.10352217 -0.22496717
-0.025163 0.10352167 -0.22496267
-0.02489833 0.10350301 -0.22494785
-0.024667667 0.103491 -0.22493885
-0.024518417 0.10348108 -0.22491199
-0.024319399 0.103484 -0.2249188
-0.024110401 0.1035158 -0.22491582
-0.023905778 0.10351677 -0.22489721
-0.023705333 0.103509 -0.22489767
-0.023556 0.10350134 -0.22485334
-0.023335665 0.10348833 -0.22484934
-0.022883501 0.103503 -0.2248265
-0.0226715 0.10351776 -0.22483139
-0.022493334 0.10347734 -0.22480385
-0.022142334 0.10349766 -0.22480333
-0.0080664 0.10351479 -0.22493581
-0.032528002 0.103696 -0.22499999
-0.031593502 0.103752 -0.224994
-0.026169501 0.103676 -0.224995
-0.025637999 0.103684 -0.22498702
-0.025482668 0.10367533 -0.224966
-0.02528825 0.10369975 -0.22496149
-0.025156502 0.1036985 -0.22495049
-0.024984665 0.10371933 -0.22494702
-0.02470511 0.10370633 -0.22493379
-0.024510415 0.10369384 -0.22490561
-0.024303002 0.10368217 -0.22491598
-0.024120601 0.1036886 -0.22489879
-0.023886874 0.10371937 -0.224894
-0.023697667 0.10372167 -0.22488867
-0.023547666 0.10371333 -0.22485299
-0.023328001 0.10370033 -0.22484399
-0.022876998 0.10368033 -0.22482167
-0.022677572 0.103689 -0.22483131
-0.022315999 0.10371933 -0.22480834
-0.022134 0.10370967 -0.22480434
-0.0080778003 0.10368679 -0.22490939
-0.026253 0.103996 -0.224998
-0.02599 0.103882 -0.22498751
-0.025671501 0.10391675 -0.22499675
-0.025474334 0.10388734 -0.22496367
-0.025282167 0.103877 -0.22494368
-0.025150001 0.10387666 -0.22493601
-0.024977 0.10389701 -0.22495949
-0.024697334 0.10391878 -0.22492212
-0.024502082 0.10390616 -0.22490484
-0.024295332 0.10389466 -0.22490734
-0.024104834 0.1038855 -0.22489633
-0.023904143 0.10389129 -0.22488372
-0.023691 0.103899 -0.224879
-0.023539999 0.10392634 -0.22483367
-0.023319667 0.10391366 -0.22484034
-0.022868333 0.10389366 -0.22481899
-0.022663889 0.10388167 -0.22481492
-0.0224635 0.103901 -0.224805
-0.0080614993 0.10388549 -0.22490932
-0.026549 0.104157 -0.224999
-0.026280999 0.10409233 -0.22499168
-0.026153 0.104102 -0.22499099
-0.025979999 0.10413 -0.22499
-0.025707332 0.10411384 -0.22498883
-0.025467666 0.10410067 -0.22493
-0.025273668 0.1040895 -0.22494316
-0.025141999 0.10408866 -0.22493701
-0.024970666 0.10407466 -0.22494234
-0.02468 0.10411085 -0.22492488
-0.024494084 0.10411925 -0.22489817
-0.024287334 0.1041075 -0.22489302
-0.024096834 0.1040985 -0.2248915
-0.023909001 0.10407485 -0.22488143
-0.0237296 0.104092 -0.22487099
-0.023533 0.104103 -0.22483
-0.023311667 0.10412633 -0.224832
-0.02286 0.10410633 -0.22482266
-0.022654999 0.10409423 -0.22482735
-0.022456998 0.10407767 -0.22481
-0.0223855 0.104041 -0.22480351
-0.0080538336 0.10410034 -0.224895
-0.0079030003 0.104169 -0.22499999
-0.031383999 0.104204 -0.22499999
-0.026543668 0.10429833 -0.22499366
-0.026272332 0.104305 -0.22498934
-0.025974998 0.10427234 -0.22498132
-0.025683001 0.1043118 -0.22497419
-0.025458001 0.10431367 -0.22495268
-0.025265666 0.10430283 -0.22493982
-0.025133999 0.10430267 -0.22492565
-0.024963334 0.10428733 -0.22492801
-0.0246915 0.10428287 -0.22492298
-0.02450043 0.10429243 -0.22488256
-0.024309374 0.10433061 -0.22488686
-0.024088336 0.10431116 -0.22489417
-0.023919001 0.10429883 -0.22487617
-0.023733502 0.10429084 -0.22486682
-0.023526 0.10428033 -0.22483332
-0.0233045 0.104304 -0.22483701
-0.022851333 0.104319 -0.22482634
-0.022647427 0.10429657 -0.22480942
-0.022448666 0.10429033 -0.22480632
-0.0080553992 0.10429959 -0.224879
-0.0079235006 0.104329 -0.2249665
-0.026516857 0.10451 -0.22498357
-0.026234666 0.10449333 -0.22497666
-0.026137 0.1045265 -0.2249835
-0.025967 0.10448501 -0.22496168
-0.0257104 0.104484 -0.2249798
-0.025450667 0.10452566 -0.22494034
-0.025257334 0.10451517 -0.22493452
-0.025125334 0.10451433 -0.22492801
-0.024954334 0.1045 -0.22493465
-0.024675332 0.10448623 -0.22491921
-0.024509445 0.10447577 -0.22488791
-0.024312332 0.10449883 -0.22489034
-0.0240738 0.1045086 -0.22486901
-0.023910834 0.10451084 -0.2248705
-0.0237255 0.10450283 -0.22486317
-0.023518333 0.10449367 -0.22482567
-0.023298001 0.10448133 -0.22482334
-0.022845 0.1044965 -0.224812
-0.022689 0.104452 -0.224804
-0.022441499 0.104468 -0.224804
-0.0080840001 0.104493 -0.22484499
-0.0079419995 0.10452501 -0.22493817
-0.032823998 0.104777 -0.22499301
-0.032485999 0.104757 -0.22499999
-0.026507717 0.10473243 -0.22499387
-0.026289856 0.10471857 -0.22499116
-0.026131 0.1046685 -0.224985
-0.025958002 0.10469767 -0.22497801
-0.025729749 0.10466625 -0.22496724
-0.02552125 0.104708 -0.22495151
-0.0252406 0.1047134 -0.2249274
-0.025118001 0.10472634 -0.22491433
-0.024946667 0.10471233 -0.22491767
-0.024686571 0.10468985 -0.22492144
-0.024518274 0.10469609 -0.22490135
-0.024305113 0.10467634 -0.22489534
-0.024082601 0.1046806 -0.22487859
-0.0239025 0.10472383 -0.22487168
-0.023717334 0.1047155 -0.22486115
-0.023510335 0.104706 -0.22481966
-0.023289332 0.10469333 -0.22483099
-0.0080779996 0.10467166 -0.224829
-0.0079349997 0.10470349 -0.2249375
-0.033012003 0.10489599 -0.22499749
-0.0328205 0.1048815 -0.22498199
-0.032481667 0.10489932 -0.22497201
-0.032350663 0.10489234 -0.22499599
-0.031527001 0.10496499 -0.22499599
-0.026705001 0.104951 -0.224995
-0.026524801 0.10489301 -0.22498341
-0.026307 0.10492212 -0.22496489
-0.02612 0.104951 -0.22498199
-0.025951 0.104911 -0.22496165
-0.025764666 0.104899 -0.22494434
-0.0255145 0.104885 -0.22494566
-0.025289668 0.10487133 -0.22493833
-0.025153751 0.1049045 -0.22491425
-0.024938336 0.104925 -0.22491933
-0.024692833 0.10491367 -0.22491084
-0.024517084 0.10490283 -0.22489756
-0.024297444 0.10488889 -0.22488144
-0.024066836 0.10487867 -0.22488083
-0.02389575 0.1049015 -0.22486326
-0.023698 0.10491399 -0.224861
-0.023502 0.10491899 -0.22481801
-0.023282001 0.10490634 -0.22481732
-0.022621501 0.104911 -0.22481099
-0.022577999 0.10494 -0.224806
-0.0080683334 0.10488566 -0.22484867
-0.0079274997 0.10488234 -0.22494616
-0.032472331 0.10511167 -0.22499633
-0.032341003 0.105141 -0.2249925
-0.03149775 0.1051095 -0.22498849
-0.031266998 0.105048 -0.22499999
-0.031177999 0.105186 -0.22499301
-0.030336 0.105138 -0.224996
-0.02987 0.105187 -0.224999
-0.027380001 0.105123 -0.224996
-0.027039668 0.10510867 -0.22498965
-0.026699999 0.105092 -0.22498667
-0.026507445 0.10507688 -0.22498576
-0.026300499 0.1051 -0.22495617
-0.026115499 0.105094 -0.22496501
-0.025944 0.10512333 -0.22493
-0.025756 0.10511167 -0.22494833
-0.025506666 0.10509767 -0.22493483
-0.025282333 0.10508434 -0.224916
-0.025147 0.1050815 -0.22491334
-0.0249315 0.105103 -0.224921
-0.024674799 0.10511141 -0.22489281
-0.024509415 0.10511566 -0.2248873
-0.024289444 0.10510156 -0.22487444
-0.024058834 0.10509083 -0.22486949
-0.023889167 0.10507783 -0.22485982
-0.023714401 0.10508519 -0.22485261
-0.023494501 0.105095 -0.22481999
-0.023273999 0.10511867 -0.224813
-0.022820499 0.105134 -0.22480351
-0.022615999 0.105053 -0.22480699
-0.0080610001 0.10510001 -0.22482733
-0.0079188338 0.10509599 -0.22495049
-0.032868329 0.10527632 -0.22499633
-0.032715499 0.105302 -0.22499049
-0.032464333 0.10532434 -0.22498667
-0.032333501 0.10531799 -0.2249985
-0.032077 0.105303 -0.224999
-0.031494834 0.10529367 -0.22499032
-0.031172 0.105328 -0.22499268
-0.030332999 0.10521 -0.224998
-0.029867999 0.105259 -0.224998
-0.027476335 0.10529333 -0.22499733
-0.0270325 0.105285 -0.2249985
-0.026691332 0.10530534 -0.224995
-0.026499666 0.10529 -0.22497177
-0.026292779 0.10527711 -0.22497089
-0.026108334 0.10527166 -0.22496401
-0.025935501 0.105301 -0.2249565
-0.025747666 0.10532433 -0.22495134
-0.025498832 0.10531 -0.22492333
-0.025274666 0.10529634 -0.22490567
-0.025138833 0.10529367 -0.224907
-0.024924332 0.10527966 -0.22492199
-0.0246906 0.10528281 -0.2248936
-0.024492299 0.1053136 -0.22487359
-0.024324166 0.10531601 -0.22486067
-0.024099223 0.10530656 -0.22487013
-0.023881333 0.10529151 -0.22484632
-0.023695501 0.10528334 -0.22484617
-0.023487667 0.105273 -0.22482365
-0.023267001 0.105296 -0.224813
-0.022815 0.105276 -0.224804
-0.022608001 0.105266 -0.224802
-0.0080519998 0.10531367 -0.224833
-0.0079105003 0.10531 -0.2249525
-0.0332545 0.10554 -0.224986
-0.033119999 0.1055695 -0.22499749
-0.032921001 0.10547674 -0.2249905
-0.032691799 0.10549261 -0.22499681
-0.032533664 0.10549617 -0.22498034
-0.032326497 0.105494 -0.224995
-0.031468775 0.10548144 -0.22496697
-0.031135 0.10551533 -0.224999
-0.027465001 0.10549641 -0.22499242
-0.026684001 0.10551733 -0.22497733
-0.026491556 0.10550222 -0.22496602
-0.026328834 0.105491 -0.22497018
-0.026148668 0.105485 -0.22495185
-0.025928333 0.105478 -0.22495933
-0.025742 0.105501 -0.22492799
-0.0254905 0.10552317 -0.22492634
-0.025265999 0.10550966 -0.22491001
-0.025131166 0.10550667 -0.22489716
-0.024916669 0.10549233 -0.22491033
-0.024671333 0.10548083 -0.22489166
-0.024505202 0.1054851 -0.22487631
-0.0243094 0.10551419 -0.22484779
-0.024091667 0.10551879 -0.22485754
-0.023873001 0.10550383 -0.22484666
-0.023687668 0.10549567 -0.22483818
-0.023479668 0.10548533 -0.22481632
-0.0232585 0.105509 -0.224804
-0.0080439998 0.10552733 -0.22483666
-0.0079279989 0.10552425 -0.224931
-0.0332685 0.10573575 -0.22498475
-0.033114333 0.10571068 -0.22499
-0.032949667 0.10570867 -0.224994
-0.03269925 0.10568275 -0.224994
-0.032515999 0.10567342 -0.2249767
-0.031713001 0.1057544 -0.22499581
-0.0315024 0.1056888 -0.22498059
-0.031305 0.1057022 -0.2249918
-0.031114167 0.10567951 -0.22499168
-0.030966999 0.105671 -0.22499032
-0.030467 0.1057268 -0.22499558
-0.0274578 0.10568039 -0.22499399
-0.027274501 0.105722 -0.224988
-0.027015999 0.105711 -0.224987
-0.0266765 0.10569499 -0.22498
-0.026483666 0.10571533 -0.22495621
-0.0263205 0.10570383 -0.22496901
-0.026141001 0.10569766 -0.22493784
-0.025921 0.10569 -0.22494835
-0.025735334 0.10567867 -0.22492568
-0.025483498 0.1057 -0.22492698
-0.025257999 0.10572133 -0.22489999
-0.025122667 0.10571933 -0.2248935
-0.024908999 0.10570533 -0.22489201
-0.024663165 0.1056935 -0.22488868
-0.024487831 0.10568267 -0.22486824
-0.024316799 0.1056848 -0.22486719
-0.024129499 0.1057 -0.22484
-0.023908444 0.10571956 -0.22484234
-0.023708001 0.10572726 -0.2248275
-0.023471333 0.10569867 -0.22481667
-0.0080364998 0.1057055 -0.22483799
-0.0079475008 0.105702 -0.224894
-0.0332742 0.1059166 -0.22498281
-0.033105832 0.105923 -0.22499166
-0.032917 0.1059338 -0.22498938
-0.03270125 0.10591288 -0.22498964
-0.032525443 0.10589679 -0.22496711
-0.032312334 0.10588367 -0.22497933
-0.032051999 0.105941 -0.224987
-0.03168514 0.10591185 -0.22499086
-0.031521637 0.1059161 -0.22498055
-0.031305254 0.10590899 -0.22498012
-0.0311285 0.10587525 -0.22499526
-0.0309228 0.10586719 -0.22498861
-0.030486999 0.105997 -0.224999
-0.028432667 0.10588866 -0.22499599
-0.0274415 0.1059785 -0.224981
-0.027347 0.105974 -0.22499099
-0.027011 0.1058525 -0.224987
-0.026669333 0.10587201 -0.22498865
-0.026468571 0.10590743 -0.22496401
-0.026312167 0.1059165 -0.22496916
-0.026132835 0.10591067 -0.22493534
-0.025912335 0.10590267 -0.22495432
-0.025727334 0.105891 -0.22491366
-0.025516 0.10586225 -0.2249265
-0.025325 0.105904 -0.22489651
-0.025116 0.1058965 -0.2248885
-0.024900332 0.105918 -0.224898
-0.024684999 0.10589125 -0.22487849
-0.024496855 0.10590173 -0.22485964
-0.024301834 0.1058835 -0.22485918
-0.024123 0.10587717 -0.22483516
-0.023888428 0.10591071 -0.22483771
-0.023671001 0.10592133 -0.2248355
-0.023463333 0.10591134 -0.22480901
-0.0232445 0.105863 -0.224803
-0.0080293333 0.10588333 -0.22484468
-0.0079393331 0.10588133 -0.22492401
-0.03331643 0.10609501 -0.22499187
-0.033099748 0.10609975 -0.2249755
-0.032920003 0.106097 -0.224978
-0.032692667 0.106117 -0.22498158
-0.032517001 0.10610956 -0.22497313
-0.032303669 0.10609666 -0.22498636
-0.032047 0.106082 -0.22497934
-0.03169867 0.10610101 -0.22497916
-0.031517182 0.10612218 -0.22498681
-0.031307332 0.10611267 -0.22496697
-0.031097502 0.10610434 -0.22498482
-0.030483499 0.106105 -0.2249825
-0.030198 0.106199 -0.224999
-0.027437167 0.10611983 -0.22495799
-0.027301168 0.10611367 -0.22497116
-0.027001999 0.106066 -0.22499299
-0.026998 0.106171 -0.22498199
-0.026661331 0.10608533 -0.224981
