# .PCD v0.7 - Point Cloud Data file format
VERSION 0.7
FIELDS x y z
SIZE 4 4 4
TYPE F F F
COUNT 1 1 1
WIDTH 1649
HEIGHT 1
VIEWPOINT 0 0 0 1 0 0 0
POINTS 1649
DATA ascii
-0.089313 0.031244 -0.209480
-0.089310 0.031316 -0.209487
-0.089307 0.031388 -0.209489
-0.089304 0.031460 -0.209491
-0.089302 0.031534 -0.209487
-0.089299 0.031607 -0.209484
-0.089296 0.031679 -0.209478
-0.089294 0.031753 -0.209466
-0.089292 0.031827 -0.209451
-0.089289 0.031900 -0.209439
-0.089287 0.031974 -0.209431
-0.089284 0.032048 -0.209425
-0.089282 0.032122 -0.209418
-0.089279 0.032195 -0.209400
-0.089277 0.032269 -0.209382
-0.089275 0.032343 -0.209372
-0.089272 0.032415 -0.209375
-0.089269 0.032489 -0.209385
-0.089265 0.032559 -0.209405
-0.089261 0.032632 -0.209427
-0.089257 0.032704 -0.209442
-0.089254 0.032774 -0.209454
-0.089250 0.032846 -0.209466
-0.089247 0.032919 -0.209481
-0.089243 0.032991 -0.209493
-0.089240 0.033063 -0.209505
-0.089237 0.033135 -0.209511
-0.089234 0.033209 -0.209508
-0.089232 0.033283 -0.209498
-0.089229 0.033355 -0.209496
-0.089226 0.033429 -0.209503
-0.089222 0.033501 -0.209507
-0.089219 0.033573 -0.209519
-0.089215 0.033645 -0.209533
-0.089212 0.033718 -0.209554
-0.089208 0.033790 -0.209570
-0.089204 0.033860 -0.209584
-0.089201 0.033935 -0.209592
-0.089198 0.034007 -0.209595
-0.089195 0.034079 -0.209593
-0.089192 0.034153 -0.209599
-0.089189 0.034225 -0.209608
-0.089186 0.034299 -0.209608
-0.089184 0.034371 -0.209598
-0.089181 0.034444 -0.209592
-0.089179 0.034518 -0.209579
-0.089176 0.034590 -0.209575
-0.089172 0.034662 -0.209597
-0.089168 0.034735 -0.209627
-0.089164 0.034806 -0.209656
-0.089159 0.034878 -0.209682
-0.089155 0.034949 -0.209710
-0.089151 0.035021 -0.209747
-0.089146 0.035092 -0.209789
-0.089141 0.035163 -0.209823
-0.089137 0.035234 -0.209861
-0.089132 0.035307 -0.209898
-0.089128 0.035379 -0.209922
-0.089124 0.035451 -0.209936
-0.089120 0.035522 -0.209964
-0.089116 0.035595 -0.209999
-0.089111 0.035665 -0.210037
-0.089106 0.035736 -0.210079
-0.089101 0.035809 -0.210118
-0.089097 0.035880 -0.210160
-0.089092 0.035951 -0.210206
-0.089086 0.036022 -0.210254
-0.089081 0.036095 -0.210305
-0.089076 0.036164 -0.210363
-0.089070 0.036236 -0.210421
-0.089064 0.036307 -0.210481
-0.089059 0.036380 -0.210534
-0.089054 0.036451 -0.210574
-0.089050 0.036523 -0.210608
-0.089045 0.036594 -0.210654
-0.089040 0.036667 -0.210697
-0.089035 0.036738 -0.210743
-0.089029 0.036811 -0.210799
-0.089023 0.036883 -0.210857
-0.089019 0.036954 -0.210898
-0.089013 0.037027 -0.210946
-0.089007 0.037096 -0.211032
-0.089000 0.037168 -0.211104
-0.088995 0.037241 -0.211157
-0.088988 0.037311 -0.211239
-0.088981 0.037383 -0.211323
-0.088975 0.037454 -0.211397
-0.088967 0.037526 -0.211498
-0.088959 0.037595 -0.211616
-0.088950 0.037665 -0.211730
-0.088941 0.037736 -0.211862
-0.088931 0.037806 -0.212024
-0.088783 0.037795 -0.215112
-0.088781 0.037871 -0.215098
-0.088778 0.037945 -0.215102
-0.088774 0.038021 -0.215111
-0.088771 0.038097 -0.215121
-0.088767 0.038173 -0.215133
-0.088763 0.038248 -0.215161
-0.088758 0.038323 -0.215197
-0.088754 0.038397 -0.215216
-0.088752 0.038473 -0.215208
-0.088749 0.038549 -0.215206
-0.088745 0.038625 -0.215216
-0.088742 0.038701 -0.215216
-0.088740 0.038777 -0.215207
-0.088737 0.038852 -0.215201
-0.088734 0.038928 -0.215203
-0.088731 0.039002 -0.215205
-0.088728 0.039078 -0.215207
-0.088725 0.039154 -0.215202
-0.088722 0.039230 -0.215198
-0.088719 0.039306 -0.215194
-0.088716 0.039382 -0.215190
-0.088713 0.039458 -0.215194
-0.088710 0.039534 -0.215205
-0.088707 0.039608 -0.215201
-0.088704 0.039684 -0.215199
-0.088701 0.039760 -0.215195
-0.088699 0.039836 -0.215183
-0.088696 0.039911 -0.215184
-0.088693 0.039987 -0.215186
-0.088690 0.040063 -0.215186
-0.088687 0.040139 -0.215180
-0.088684 0.040213 -0.215179
-0.088681 0.040289 -0.215183
-0.088678 0.040365 -0.215179
-0.088675 0.040441 -0.215175
-0.088672 0.040517 -0.215175
-0.088669 0.040593 -0.215170
-0.088666 0.040669 -0.215172
-0.088663 0.040743 -0.215176
-0.088660 0.040821 -0.215166
-0.088658 0.040895 -0.215164
-0.088654 0.040971 -0.215181
-0.088650 0.041047 -0.215189
-0.088648 0.041123 -0.215183
-0.088645 0.041199 -0.215175
-0.088643 0.041274 -0.215163
-0.088640 0.041348 -0.215156
-0.088637 0.041424 -0.215164
-0.088633 0.041500 -0.215168
-0.088630 0.041576 -0.215166
-0.088628 0.041652 -0.215160
-0.088625 0.041728 -0.215153
-0.088622 0.041804 -0.215147
-0.088619 0.041880 -0.215147
-0.088616 0.041956 -0.215147
-0.088614 0.042029 -0.215140
-0.088611 0.042105 -0.215142
-0.088607 0.042182 -0.215158
-0.088603 0.042258 -0.215168
-0.088600 0.042334 -0.215170
-0.088597 0.042408 -0.215171
-0.088595 0.042484 -0.215159
-0.088592 0.042559 -0.215149
-0.088590 0.042635 -0.215141
-0.088586 0.042711 -0.215141
-0.088583 0.042787 -0.215144
-0.088580 0.042863 -0.215142
-0.088577 0.042939 -0.215142
-0.088575 0.043013 -0.215138
-0.088572 0.043089 -0.215134
-0.088569 0.043165 -0.215127
-0.088566 0.043240 -0.215121
-0.088563 0.043317 -0.215127
-0.088560 0.043392 -0.215127
-0.088557 0.043468 -0.215123
-0.088554 0.043542 -0.215126
-0.088551 0.043618 -0.215130
-0.088548 0.043695 -0.215138
-0.088545 0.043771 -0.215138
-0.088542 0.043846 -0.215127
-0.088540 0.043922 -0.215115
-0.088537 0.043996 -0.215111
-0.088533 0.044072 -0.215119
-0.088530 0.044148 -0.215131
-0.088526 0.044224 -0.215146
-0.088523 0.044301 -0.215156
-0.088520 0.044374 -0.215150
-0.089734 0.021063 -0.215207
-0.089733 0.021144 -0.215159
-0.089736 0.021238 -0.215015
-0.089740 0.021335 -0.214857
-0.089740 0.021419 -0.214789
-0.089757 0.021641 -0.214248
-0.089756 0.021722 -0.214205
-0.089765 0.021833 -0.213936
-0.089764 0.021917 -0.213870
-0.089762 0.021993 -0.213859
-0.089847 0.022674 -0.211524
-0.089877 0.022931 -0.210689
-0.089875 0.023008 -0.210649
-0.089897 0.023238 -0.210010
-0.089898 0.023324 -0.209925
-0.089899 0.023408 -0.209827
-0.089899 0.023491 -0.209763
-0.089898 0.023568 -0.209725
-0.089910 0.023849 -0.209235
-0.089911 0.023935 -0.209139
-0.089911 0.024017 -0.209065
-0.089912 0.024098 -0.208991
-0.089911 0.024177 -0.208945
-0.089909 0.024252 -0.208917
-0.089908 0.024329 -0.208884
-0.089906 0.024406 -0.208858
-0.089904 0.024480 -0.208838
-0.089902 0.024556 -0.208822
-0.089899 0.024629 -0.208809
-0.089897 0.024701 -0.208805
-0.089893 0.024773 -0.208815
-0.089890 0.024844 -0.208834
-0.089886 0.024914 -0.208846
-0.089883 0.024986 -0.208856
-0.089880 0.025058 -0.208858
-0.089877 0.025130 -0.208867
-0.089873 0.025199 -0.208887
-0.089869 0.025269 -0.208915
-0.089865 0.025338 -0.208942
-0.089861 0.025408 -0.208968
-0.089857 0.025477 -0.208994
-0.089852 0.025546 -0.209037
-0.089847 0.025615 -0.209075
-0.089843 0.025681 -0.209115
-0.089837 0.025747 -0.209174
-0.089833 0.025816 -0.209218
-0.089828 0.025883 -0.209260
-0.089823 0.025951 -0.209307
-0.089819 0.026020 -0.209335
-0.089815 0.026090 -0.209347
-0.089812 0.026164 -0.209358
-0.089809 0.026235 -0.209368
-0.089805 0.026307 -0.209386
-0.089801 0.026377 -0.209403
-0.089798 0.026448 -0.209415
-0.089794 0.026520 -0.209429
-0.089791 0.026592 -0.209436
-0.089789 0.026666 -0.209432
-0.089786 0.026738 -0.209432
-0.089783 0.026810 -0.209434
-0.089780 0.026884 -0.209435
-0.089777 0.026956 -0.209433
-0.089775 0.027031 -0.209417
-0.089773 0.027105 -0.209399
-0.089770 0.027179 -0.209392
-0.089767 0.027253 -0.209386
-0.089765 0.027326 -0.209372
-0.089763 0.027402 -0.209352
-0.089762 0.027479 -0.209321
-0.089759 0.027551 -0.209317
-0.089755 0.027621 -0.209339
-0.089751 0.027694 -0.209355
-0.089748 0.027766 -0.209362
-0.089745 0.027838 -0.209368
-0.089742 0.027908 -0.209382
-0.089738 0.027980 -0.209399
-0.089735 0.028053 -0.209409
-0.089732 0.028125 -0.209411
-0.089728 0.028197 -0.209418
-0.089725 0.028269 -0.209430
-0.089722 0.028341 -0.209438
-0.089719 0.028413 -0.209436
-0.089716 0.028487 -0.209433
-0.089713 0.028559 -0.209431
-0.089710 0.028633 -0.209435
-0.089707 0.028703 -0.209447
-0.089704 0.028775 -0.209458
-0.089701 0.028849 -0.209452
-0.089699 0.028923 -0.209438
-0.089698 0.029000 -0.209396
-0.089696 0.029077 -0.209361
-0.089692 0.029146 -0.209385
-0.089686 0.029213 -0.209453
-0.089682 0.029284 -0.209492
-0.089679 0.029356 -0.209490
-0.089677 0.029429 -0.209478
-0.089674 0.029503 -0.209462
-0.089672 0.029579 -0.209457
-0.089669 0.029651 -0.209449
-0.089667 0.029724 -0.209435
-0.089665 0.029802 -0.209405
-0.089664 0.029875 -0.209376
-0.089662 0.029951 -0.209360
-0.089659 0.030023 -0.209362
-0.089655 0.030095 -0.209379
-0.089651 0.030165 -0.209397
-0.089648 0.030238 -0.209413
-0.089644 0.030310 -0.209427
-0.089641 0.030380 -0.209440
-0.089637 0.030452 -0.209450
-0.089634 0.030526 -0.209456
-0.089631 0.030598 -0.209461
-0.089628 0.030671 -0.209463
-0.089625 0.030744 -0.209457
-0.089623 0.030816 -0.209449
-0.089620 0.030890 -0.209454
-0.089617 0.030962 -0.209454
-0.089614 0.031036 -0.209448
-0.089611 0.031110 -0.209446
-0.089609 0.031182 -0.209445
-0.089605 0.031254 -0.209453
-0.089602 0.031326 -0.209461
-0.089599 0.031400 -0.209462
-0.089596 0.031472 -0.209460
-0.089593 0.031544 -0.209464
-0.089591 0.031618 -0.209458
-0.089588 0.031692 -0.209447
-0.089586 0.031765 -0.209439
-0.089583 0.031839 -0.209427
-0.089581 0.031913 -0.209411
-0.089579 0.031987 -0.209404
-0.089576 0.032058 -0.209398
-0.089573 0.032132 -0.209392
-0.089571 0.032206 -0.209377
-0.089569 0.032281 -0.209357
-0.089567 0.032355 -0.209343
-0.089563 0.032427 -0.209355
-0.089560 0.032498 -0.209376
-0.089556 0.032570 -0.209394
-0.089552 0.032642 -0.209408
-0.089549 0.032715 -0.209420
-0.089545 0.032785 -0.209443
-0.089541 0.032857 -0.209461
-0.089538 0.032929 -0.209465
-0.089535 0.033001 -0.209470
-0.089532 0.033075 -0.209472
-0.089529 0.033149 -0.209464
-0.089527 0.033221 -0.209458
-0.089524 0.033295 -0.209461
-0.089521 0.033367 -0.209465
-0.089518 0.033441 -0.209467
-0.089514 0.033511 -0.209477
-0.089511 0.033586 -0.209490
-0.089508 0.033656 -0.209502
-0.089504 0.033728 -0.209522
-0.089500 0.033801 -0.209543
-0.089496 0.033873 -0.209553
-0.089493 0.033945 -0.209563
-0.089490 0.034017 -0.209565
-0.089487 0.034091 -0.209568
-0.089484 0.034163 -0.209570
-0.089481 0.034235 -0.209574
-0.089478 0.034309 -0.209578
-0.089475 0.034381 -0.209579
-0.089473 0.034455 -0.209569
-0.089471 0.034528 -0.209545
-0.089468 0.034602 -0.209548
-0.089464 0.034675 -0.209570
-0.089460 0.034745 -0.209596
-0.089455 0.034816 -0.209628
-0.089451 0.034889 -0.209659
-0.089447 0.034959 -0.209689
-0.089442 0.035032 -0.209729
-0.089438 0.035103 -0.209763
-0.089433 0.035174 -0.209798
-0.089428 0.035244 -0.209836
-0.089424 0.035317 -0.209876
-0.089419 0.035388 -0.209905
-0.089416 0.035460 -0.209919
-0.089412 0.035533 -0.209945
-0.089407 0.035605 -0.209977
-0.089403 0.035676 -0.210006
-0.089398 0.035747 -0.210060
-0.089392 0.035818 -0.210124
-0.089387 0.035889 -0.210165
-0.089382 0.035962 -0.210207
-0.089377 0.036033 -0.210255
-0.089371 0.036104 -0.210311
-0.089366 0.036175 -0.210360
-0.089361 0.036246 -0.210406
-0.089356 0.036319 -0.210446
-0.089352 0.036390 -0.210472
-0.089348 0.036462 -0.210515
-0.089342 0.036534 -0.210571
-0.089336 0.036605 -0.210635
-0.089330 0.036676 -0.210693
-0.089325 0.036747 -0.210748
-0.089319 0.036821 -0.210806
-0.089313 0.036890 -0.210870
-0.089308 0.036963 -0.210926
-0.089302 0.037034 -0.210981
-0.089297 0.037106 -0.211041
-0.089291 0.037179 -0.211101
-0.089285 0.037250 -0.211157
-0.089279 0.037322 -0.211224
-0.089273 0.037393 -0.211306
-0.089265 0.037463 -0.211408
-0.089257 0.037534 -0.211524
-0.089249 0.037604 -0.211619
-0.089241 0.037675 -0.211739
-0.089233 0.037747 -0.211849
-0.089220 0.037813 -0.212047
-0.089080 0.037807 -0.214987
-0.089075 0.037882 -0.215019
-0.089070 0.037955 -0.215069
-0.089066 0.038031 -0.215083
-0.089062 0.038106 -0.215103
-0.089057 0.038182 -0.215140
-0.089054 0.038257 -0.215156
-0.089051 0.038333 -0.215156
-0.089048 0.038409 -0.215158
-0.089044 0.038483 -0.215162
-0.089041 0.038559 -0.215169
-0.089038 0.038635 -0.215175
-0.089034 0.038709 -0.215185
-0.089031 0.038785 -0.215189
-0.089028 0.038861 -0.215193
-0.089025 0.038937 -0.215192
-0.089023 0.039013 -0.215178
-0.089020 0.039089 -0.215170
-0.089017 0.039165 -0.215176
-0.089014 0.039241 -0.215178
-0.089011 0.039317 -0.215173
-0.089008 0.039393 -0.215171
-0.089005 0.039467 -0.215177
-0.089001 0.039543 -0.215187
-0.088998 0.039619 -0.215188
-0.088995 0.039695 -0.215186
-0.088992 0.039771 -0.215184
-0.088990 0.039844 -0.215172
-0.088987 0.039922 -0.215160
-0.088985 0.039998 -0.215151
-0.088982 0.040074 -0.215149
-0.088978 0.040148 -0.215163
-0.088975 0.040224 -0.215169
-0.088972 0.040300 -0.215159
-0.088970 0.040376 -0.215156
-0.088966 0.040452 -0.215158
-0.088964 0.040526 -0.215150
-0.088961 0.040601 -0.215148
-0.088958 0.040678 -0.215154
-0.088954 0.040754 -0.215161
-0.088952 0.040829 -0.215151
-0.088949 0.040905 -0.215143
-0.088946 0.040979 -0.215151
-0.088943 0.041055 -0.215156
-0.088940 0.041131 -0.215150
-0.088937 0.041207 -0.215140
-0.088934 0.041283 -0.215136
-0.088931 0.041359 -0.215138
-0.088929 0.041435 -0.215133
-0.088926 0.041510 -0.215125
-0.088923 0.041586 -0.215127
-0.088920 0.041661 -0.215131
-0.088916 0.041737 -0.215135
-0.088913 0.041813 -0.215146
-0.088910 0.041889 -0.215152
-0.088907 0.041965 -0.215144
-0.088904 0.042039 -0.215142
-0.088901 0.042115 -0.215146
-0.088898 0.042191 -0.215151
-0.088895 0.042267 -0.215151
-0.088892 0.042343 -0.215149
-0.088889 0.042418 -0.215141
-0.088887 0.042494 -0.215119
-0.088884 0.042570 -0.215114
-0.088881 0.042644 -0.215124
-0.088878 0.042720 -0.215126
-0.088875 0.042796 -0.215122
-0.088872 0.042872 -0.215117
-0.088869 0.042948 -0.215115
-0.088866 0.043022 -0.215123
-0.088863 0.043100 -0.215121
-0.088861 0.043173 -0.215103
-0.088858 0.043249 -0.215104
-0.088854 0.043325 -0.215112
-0.088851 0.043401 -0.215120
-0.088848 0.043477 -0.215120
-0.088846 0.043551 -0.215110
-0.088843 0.043627 -0.215107
-0.088840 0.043703 -0.215107
-0.088837 0.043779 -0.215111
-0.088834 0.043855 -0.215101
-0.088831 0.043931 -0.215091
-0.088828 0.044005 -0.215098
-0.088825 0.044081 -0.215106
-0.088822 0.044157 -0.215108
-0.088818 0.044233 -0.215112
-0.088815 0.044309 -0.215122
-0.088811 0.044385 -0.215139
-0.090112 0.021094 -0.215120
-0.090112 0.021181 -0.215044
-0.090114 0.021274 -0.214912
-0.090115 0.021358 -0.214838
-0.090114 0.021443 -0.214782
-0.090131 0.021581 -0.214308
-0.090133 0.021668 -0.214204
-0.090134 0.021758 -0.214098
-0.090138 0.021853 -0.213950
-0.090139 0.021942 -0.213841
-0.090271 0.023344 -0.209932
-0.090270 0.023423 -0.209888
-0.090268 0.023497 -0.209872
-0.090265 0.023571 -0.209867
-0.090262 0.023643 -0.209877
-0.090283 0.023869 -0.209246
-0.090285 0.023956 -0.209128
-0.090286 0.024042 -0.209036
-0.090285 0.024118 -0.209004
-0.090284 0.024197 -0.208958
-0.090283 0.024274 -0.208915
-0.090282 0.024351 -0.208883
-0.090280 0.024426 -0.208861
-0.090277 0.024500 -0.208845
-0.090275 0.024574 -0.208840
-0.090272 0.024648 -0.208834
-0.090269 0.024719 -0.208830
-0.090267 0.024793 -0.208830
-0.090263 0.024864 -0.208843
-0.090259 0.024934 -0.208863
-0.090256 0.025004 -0.208879
-0.090252 0.025075 -0.208892
-0.090249 0.025145 -0.208908
-0.090245 0.025216 -0.208936
-0.090241 0.025284 -0.208963
-0.090237 0.025353 -0.208993
-0.090232 0.025423 -0.209019
-0.090229 0.025492 -0.209044
-0.090224 0.025562 -0.209074
-0.090220 0.025629 -0.209116
-0.090215 0.025696 -0.209161
-0.090210 0.025765 -0.209203
-0.090205 0.025832 -0.209251
-0.090200 0.025899 -0.209298
-0.090196 0.025970 -0.209328
-0.090192 0.026038 -0.209356
-0.090188 0.026109 -0.209379
-0.090185 0.026183 -0.209381
-0.090182 0.026255 -0.209383
-0.090179 0.026327 -0.209394
-0.090175 0.026397 -0.209408
-0.090172 0.026467 -0.209420
-0.090168 0.026540 -0.209435
-0.090165 0.026612 -0.209447
-0.090162 0.026684 -0.209451
-0.090159 0.026758 -0.209441
-0.090157 0.026832 -0.209436
-0.090154 0.026904 -0.209436
-0.090151 0.026977 -0.209434
-0.090148 0.027051 -0.209426
-0.090146 0.027125 -0.209417
-0.090144 0.027199 -0.209405
-0.090141 0.027273 -0.209397
-0.090139 0.027346 -0.209385
-0.090137 0.027424 -0.209356
-0.090136 0.027499 -0.209322
-0.090133 0.027571 -0.209322
-0.090129 0.027643 -0.209342
-0.090125 0.027714 -0.209365
-0.090121 0.027784 -0.209383
-0.090118 0.027854 -0.209399
-0.090115 0.027926 -0.209406
-0.090111 0.028000 -0.209410
-0.090108 0.028073 -0.209414
-0.090105 0.028145 -0.209424
-0.090102 0.028217 -0.209431
-0.090099 0.028289 -0.209435
-0.090096 0.028361 -0.209441
-0.090093 0.028433 -0.209444
-0.090090 0.028507 -0.209438
-0.090087 0.028579 -0.209436
-0.090084 0.028651 -0.209444
-0.090081 0.028723 -0.209455
-0.090077 0.028795 -0.209463
-0.090074 0.028867 -0.209471
-0.090071 0.028940 -0.209484
-0.090067 0.029012 -0.209490
-0.090064 0.029084 -0.209494
-0.090061 0.029156 -0.209498
-0.090058 0.029230 -0.209497
-0.090056 0.029304 -0.209493
-0.090053 0.029375 -0.209489
-0.090051 0.029451 -0.209479
-0.090049 0.029525 -0.209458
-0.090047 0.029600 -0.209436
-0.090045 0.029674 -0.209414
-0.090043 0.029749 -0.209392
-0.090041 0.029825 -0.209373
-0.090039 0.029898 -0.209357
-0.090036 0.029972 -0.209349
-0.090033 0.030042 -0.209362
-0.090029 0.030115 -0.209380
-0.090025 0.030185 -0.209402
-0.090021 0.030257 -0.209418
-0.090018 0.030330 -0.209423
-0.090015 0.030402 -0.209431
-0.090012 0.030474 -0.209441
-0.090008 0.030546 -0.209452
-0.090005 0.030618 -0.209456
-0.090003 0.030692 -0.209448
-0.090000 0.030766 -0.209444
-0.089997 0.030838 -0.209443
-0.089994 0.030910 -0.209445
-0.089991 0.030982 -0.209455
-0.089988 0.031056 -0.209461
-0.089985 0.031128 -0.209468
-0.089981 0.031198 -0.209478
-0.089978 0.031272 -0.209482
-0.089975 0.031344 -0.209481
-0.089972 0.031418 -0.209481
-0.089970 0.031492 -0.209473
-0.089967 0.031564 -0.209467
-0.089964 0.031638 -0.209466
-0.089962 0.031712 -0.209460
-0.089959 0.031785 -0.209448
-0.089957 0.031859 -0.209428
-0.089955 0.031933 -0.209415
-0.089952 0.032006 -0.209413
-0.089950 0.032078 -0.209411
-0.089947 0.032152 -0.209400
-0.089945 0.032226 -0.209386
-0.089942 0.032300 -0.209376
-0.089940 0.032372 -0.209376
-0.089936 0.032444 -0.209389
-0.089933 0.032516 -0.209401
-0.089929 0.032588 -0.209409
-0.089926 0.032660 -0.209417
-0.089923 0.032733 -0.209432
-0.089919 0.032805 -0.209450
-0.089916 0.032877 -0.209458
-0.089912 0.032949 -0.209469
-0.089909 0.033021 -0.209471
-0.089906 0.033095 -0.209469
-0.089903 0.033167 -0.209473
-0.089901 0.033241 -0.209470
-0.089898 0.033315 -0.209458
-0.089895 0.033387 -0.209460
-0.089892 0.033459 -0.209472
-0.089888 0.033531 -0.209483
-0.089885 0.033604 -0.209497
-0.089881 0.033676 -0.209513
-0.089877 0.033746 -0.209534
-0.089874 0.033819 -0.209554
-0.089870 0.033891 -0.209570
-0.089867 0.033963 -0.209576
-0.089864 0.034037 -0.209579
-0.089861 0.034109 -0.209583
-0.089858 0.034181 -0.209585
-0.089855 0.034255 -0.209581
-0.089853 0.034329 -0.209570
-0.089850 0.034402 -0.209556
-0.089848 0.034476 -0.209544
-0.089845 0.034548 -0.209539
-0.089842 0.034620 -0.209555
-0.089838 0.034693 -0.209581
-0.089833 0.034763 -0.209609
-0.089829 0.034836 -0.209638
-0.089825 0.034907 -0.209672
-0.089821 0.034979 -0.209698
-0.089817 0.035050 -0.209725
-0.089811 0.035121 -0.209771
-0.089806 0.035192 -0.209821
-0.089802 0.035265 -0.209857
-0.089798 0.035335 -0.209884
-0.089793 0.035408 -0.209912
-0.089789 0.035478 -0.209942
-0.089784 0.035551 -0.209978
-0.089780 0.035622 -0.210015
-0.089775 0.035693 -0.210055
-0.089770 0.035765 -0.210095
-0.089765 0.035836 -0.210142
-0.089760 0.035907 -0.210186
-0.089756 0.035980 -0.210224
-0.089751 0.036051 -0.210268
-0.089746 0.036122 -0.210317
-0.089740 0.036193 -0.210381
-0.089734 0.036265 -0.210441
-0.089729 0.036336 -0.210485
-0.089725 0.036408 -0.210514
-0.089720 0.036481 -0.210544
-0.089715 0.036552 -0.210596
-0.089710 0.036623 -0.210652
-0.089704 0.036694 -0.210707
-0.089698 0.036766 -0.210773
-0.089692 0.036837 -0.210833
-0.089687 0.036910 -0.210885
-0.089681 0.036981 -0.210950
-0.089675 0.037053 -0.211014
-0.089670 0.037124 -0.211064
-0.089664 0.037197 -0.211124
-0.089658 0.037267 -0.211197
-0.089652 0.037338 -0.211267
-0.089645 0.037410 -0.211343
-0.089638 0.037482 -0.211423
-0.089631 0.037554 -0.211522
-0.089621 0.037623 -0.211674
-0.089612 0.037692 -0.211808
-0.089604 0.037764 -0.211902
-0.089456 0.037749 -0.215002
-0.089452 0.037826 -0.215028
-0.089448 0.037901 -0.215054
-0.089444 0.037975 -0.215074
-0.089440 0.038051 -0.215088
-0.089436 0.038126 -0.215113
-0.089432 0.038200 -0.215139
-0.089428 0.038275 -0.215155
-0.089424 0.038351 -0.215173
-0.089420 0.038427 -0.215185
-0.089418 0.038501 -0.215182
-0.089415 0.038579 -0.215176
-0.089412 0.038653 -0.215178
-0.089409 0.038729 -0.215180
-0.089406 0.038805 -0.215177
-0.089403 0.038881 -0.215173
-0.089400 0.038957 -0.215171
-0.089397 0.039033 -0.215171
-0.089394 0.039108 -0.215171
-0.089391 0.039184 -0.215172
-0.089388 0.039258 -0.215172
-0.089385 0.039334 -0.215174
-0.089382 0.039411 -0.215182
-0.089379 0.039485 -0.215184
-0.089375 0.039561 -0.215189
-0.089372 0.039637 -0.215195
-0.089369 0.039712 -0.215185
-0.089367 0.039788 -0.215173
-0.089364 0.039864 -0.215171
-0.089361 0.039940 -0.215174
-0.089358 0.040014 -0.215176
-0.089355 0.040092 -0.215168
-0.089352 0.040166 -0.215166
-0.089349 0.040242 -0.215171
-0.089346 0.040318 -0.215171
-0.089343 0.040394 -0.215173
-0.089340 0.040470 -0.215173
-0.089337 0.040544 -0.215171
-0.089334 0.040620 -0.215168
-0.089332 0.040695 -0.215160
-0.089329 0.040771 -0.215154
-0.089326 0.040847 -0.215156
-0.089323 0.040923 -0.215160
-0.089320 0.040999 -0.215161
-0.089317 0.041075 -0.215161
-0.089314 0.041149 -0.215161
-0.089311 0.041225 -0.215161
-0.089307 0.041301 -0.215167
-0.089305 0.041377 -0.215160
-0.089302 0.041453 -0.215150
-0.089299 0.041529 -0.215154
-0.089296 0.041605 -0.215160
-0.089293 0.041679 -0.215156
-0.089290 0.041755 -0.215147
-0.089288 0.041830 -0.215139
-0.089285 0.041906 -0.215137
-0.089282 0.041982 -0.215137
-0.089279 0.042058 -0.215129
-0.089276 0.042134 -0.215124
-0.089273 0.042210 -0.215128
-0.089270 0.042284 -0.215134
-0.089267 0.042360 -0.215134
-0.089264 0.042436 -0.215131
-0.089261 0.042512 -0.215129
-0.089258 0.042588 -0.215129
-0.089255 0.042662 -0.215131
-0.089252 0.042738 -0.215129
-0.089249 0.042814 -0.215128
-0.089246 0.042890 -0.215134
-0.089242 0.042966 -0.215140
-0.089239 0.043040 -0.215146
-0.089236 0.043118 -0.215144
-0.089234 0.043192 -0.215137
-0.089231 0.043267 -0.215127
-0.089229 0.043343 -0.215115
-0.089226 0.043419 -0.215111
-0.089223 0.043495 -0.215111
-0.089220 0.043571 -0.215104
-0.089217 0.043645 -0.215106
-0.089214 0.043721 -0.215110
-0.089211 0.043797 -0.215108
-0.089208 0.043873 -0.215110
-0.089205 0.043949 -0.215111
-0.089202 0.044023 -0.215113
-0.089199 0.044099 -0.215117
-0.089195 0.044175 -0.215119
-0.089192 0.044251 -0.215124
-0.089189 0.044327 -0.215136
-0.090526 0.021098 -0.215267
-0.090533 0.021205 -0.215032
-0.090536 0.021300 -0.214884
-0.090537 0.021388 -0.214794
-0.090536 0.021470 -0.214734
-0.090535 0.021551 -0.214695
-0.090551 0.021686 -0.214252
-0.090554 0.021777 -0.214126
-0.090557 0.021871 -0.213972
-0.090557 0.021958 -0.213902
-0.090586 0.022214 -0.213084
-0.090583 0.022290 -0.213078
-0.090683 0.022766 -0.210601
-0.090688 0.022863 -0.210413
-0.090691 0.022955 -0.210291
-0.090689 0.023030 -0.210262
-0.090687 0.023106 -0.210252
-0.090683 0.023178 -0.210264
-0.090679 0.023247 -0.210294
-0.090675 0.023315 -0.210323
-0.090671 0.023386 -0.210349
-0.090683 0.023502 -0.210005
-0.090681 0.023578 -0.209987
-0.090678 0.023653 -0.209975
-0.090691 0.023772 -0.209619
-0.090687 0.023842 -0.209641
-0.090703 0.023972 -0.209190
-0.090703 0.024053 -0.209132
-0.090702 0.024132 -0.209076
-0.090702 0.024212 -0.209019
-0.090701 0.024289 -0.208981
-0.090699 0.024365 -0.208953
-0.090697 0.024438 -0.208937
-0.090695 0.024514 -0.208922
-0.090692 0.024590 -0.208904
-0.090690 0.024661 -0.208896
-0.090687 0.024733 -0.208898
-0.090684 0.024806 -0.208909
-0.090680 0.024878 -0.208915
-0.090677 0.024950 -0.208917
-0.090675 0.025023 -0.208904
-0.090673 0.025099 -0.208884
-0.090669 0.025167 -0.208906
-0.090663 0.025231 -0.208995
-0.090657 0.025295 -0.209065
-0.090653 0.025365 -0.209089
-0.090649 0.025436 -0.209108
-0.090645 0.025504 -0.209132
-0.090641 0.025573 -0.209168
-0.090636 0.025642 -0.209211
-0.090631 0.025710 -0.209247
-0.090627 0.025777 -0.209283
-0.090623 0.025846 -0.209320
-0.090618 0.025915 -0.209358
-0.090614 0.025984 -0.209394
-0.090609 0.026054 -0.209423
-0.090605 0.026123 -0.209449
-0.090602 0.026195 -0.209463
-0.090599 0.026267 -0.209472
-0.090595 0.026339 -0.209480
-0.090592 0.026409 -0.209490
-0.090589 0.026482 -0.209502
-0.090585 0.026554 -0.209511
-0.090582 0.026626 -0.209515
-0.090579 0.026698 -0.209527
-0.090576 0.026770 -0.209536
-0.090573 0.026842 -0.209534
-0.090570 0.026916 -0.209526
-0.090568 0.026990 -0.209518
-0.090565 0.027064 -0.209513
-0.090563 0.027137 -0.209501
-0.090560 0.027213 -0.209487
-0.090558 0.027287 -0.209475
-0.090556 0.027362 -0.209454
-0.090554 0.027437 -0.209424
-0.090552 0.027511 -0.209408
-0.090549 0.027583 -0.209414
-0.090546 0.027655 -0.209429
-0.090542 0.027728 -0.209439
-0.090539 0.027798 -0.209457
-0.090535 0.027870 -0.209470
-0.090532 0.027942 -0.209478
-0.090529 0.028014 -0.209478
-0.090526 0.028088 -0.209472
-0.090524 0.028162 -0.209469
-0.090520 0.028232 -0.209483
-0.090516 0.028303 -0.209503
-0.090513 0.028377 -0.209509
-0.090510 0.028449 -0.209506
-0.090507 0.028523 -0.209508
-0.090504 0.028595 -0.209516
-0.090501 0.028667 -0.209525
-0.090498 0.028739 -0.209527
-0.090494 0.028809 -0.209543
-0.090491 0.028882 -0.209555
-0.090488 0.028956 -0.209558
-0.090485 0.029028 -0.209562
-0.090482 0.029100 -0.209562
-0.090479 0.029173 -0.209557
-0.090476 0.029247 -0.209553
-0.090474 0.029321 -0.209545
-0.090472 0.029395 -0.209527
-0.090469 0.029468 -0.209516
-0.090467 0.029542 -0.209508
-0.090464 0.029616 -0.209500
-0.090462 0.029690 -0.209482
-0.090461 0.029765 -0.209451
-0.090460 0.029842 -0.209409
-0.090458 0.029917 -0.209387
-0.090455 0.029989 -0.209393
-0.090451 0.030060 -0.209416
-0.090447 0.030132 -0.209430
-0.090444 0.030204 -0.209440
-0.090440 0.030277 -0.209450
-0.090437 0.030347 -0.209473
-0.090433 0.030419 -0.209495
-0.090429 0.030490 -0.209517
-0.090425 0.030562 -0.209530
-0.090422 0.030634 -0.209530
-0.090420 0.030708 -0.209528
-0.090417 0.030780 -0.209526
-0.090414 0.030854 -0.209519
-0.090411 0.030928 -0.209517
-0.090408 0.031000 -0.209525
-0.090405 0.031072 -0.209530
-0.090402 0.031144 -0.209536
-0.090399 0.031216 -0.209542
-0.090396 0.031290 -0.209546
-0.090393 0.031362 -0.209551
-0.090390 0.031434 -0.209553
-0.090387 0.031508 -0.209547
-0.090384 0.031580 -0.209544
-0.090381 0.031654 -0.209546
-0.090378 0.031726 -0.209544
-0.090376 0.031800 -0.209536
-0.090374 0.031873 -0.209525
-0.090371 0.031947 -0.209511
-0.090369 0.032021 -0.209497
-0.090368 0.032098 -0.209455
-0.090366 0.032173 -0.209428
-0.090364 0.032245 -0.209422
-0.090360 0.032317 -0.209432
-0.090357 0.032390 -0.209452
-0.090353 0.032460 -0.209467
-0.090349 0.032532 -0.209481
-0.090346 0.032604 -0.209495
-0.090342 0.032677 -0.209514
-0.090339 0.032749 -0.209526
-0.090336 0.032821 -0.209524
-0.090333 0.032895 -0.209524
-0.090330 0.032967 -0.209519
-0.090328 0.033041 -0.209515
-0.090324 0.033113 -0.209525
-0.090321 0.033185 -0.209529
-0.090319 0.033259 -0.209524
-0.090316 0.033332 -0.209516
-0.090313 0.033405 -0.209526
-0.090309 0.033477 -0.209539
-0.090306 0.033549 -0.209553
-0.090302 0.033621 -0.209563
-0.090299 0.033694 -0.209577
-0.090295 0.033764 -0.209600
-0.090291 0.033836 -0.209616
-0.090288 0.033909 -0.209626
-0.090285 0.033983 -0.209632
-0.090282 0.034055 -0.209635
-0.090279 0.034129 -0.209629
-0.090276 0.034200 -0.209625
-0.090273 0.034275 -0.209632
-0.090270 0.034346 -0.209628
-0.090268 0.034420 -0.209616
-0.090266 0.034494 -0.209608
-0.090263 0.034568 -0.209607
-0.090259 0.034638 -0.209619
-0.090255 0.034711 -0.209643
-0.090251 0.034783 -0.209661
-0.090247 0.034853 -0.209690
-0.090243 0.034926 -0.209730
-0.090238 0.034997 -0.209768
-0.090233 0.035068 -0.209805
-0.090229 0.035139 -0.209841
-0.090224 0.035209 -0.209879
-0.090219 0.035282 -0.209921
-0.090214 0.035353 -0.209966
-0.090210 0.035426 -0.209994
-0.090206 0.035496 -0.210018
-0.090201 0.035567 -0.210067
-0.090196 0.035640 -0.210107
-0.090192 0.035711 -0.210139
-0.090187 0.035784 -0.210179
-0.090182 0.035855 -0.210220
-0.090177 0.035925 -0.210260
-0.090172 0.035996 -0.210310
-0.090167 0.036068 -0.210364
-0.090162 0.036140 -0.210407
-0.090157 0.036211 -0.210453
-0.090152 0.036282 -0.210501
-0.090147 0.036355 -0.210539
-0.090143 0.036428 -0.210570
-0.090137 0.036499 -0.210622
-0.090132 0.036570 -0.210680
-0.090126 0.036641 -0.210730
-0.090121 0.036714 -0.210777
-0.090115 0.036786 -0.210841
-0.090110 0.036857 -0.210903
-0.090104 0.036928 -0.210955
-0.090099 0.036999 -0.211010
-0.090092 0.037071 -0.211092
-0.090086 0.037142 -0.211154
-0.090081 0.037215 -0.211194
-0.090076 0.037286 -0.211253
-0.090069 0.037358 -0.211345
-0.090062 0.037428 -0.211433
-0.090054 0.037500 -0.211529
-0.090047 0.037572 -0.211618
-0.090039 0.037642 -0.211720
-0.090027 0.037711 -0.211916
-0.090017 0.037780 -0.212076
-0.089990 0.037837 -0.212588
-0.089872 0.037847 -0.215038
-0.089864 0.037919 -0.215142
-0.089861 0.037993 -0.215146
-0.089858 0.038071 -0.215145
-0.089854 0.038145 -0.215157
-0.089849 0.038220 -0.215203
-0.089845 0.038295 -0.215231
-0.089842 0.038371 -0.215237
-0.089838 0.038447 -0.215242
-0.089836 0.038521 -0.215240
-0.089832 0.038599 -0.215240
-0.089829 0.038673 -0.215242
-0.089827 0.038749 -0.215238
-0.089824 0.038825 -0.215239
-0.089820 0.038901 -0.215241
-0.089817 0.038977 -0.215243
-0.089815 0.039052 -0.215237
-0.089812 0.039128 -0.215233
-0.089809 0.039204 -0.215236
-0.089806 0.039278 -0.215234
-0.089803 0.039354 -0.215230
-0.089800 0.039430 -0.215234
-0.089796 0.039506 -0.215238
-0.089793 0.039582 -0.215243
-0.089790 0.039656 -0.215245
-0.089787 0.039732 -0.215241
-0.089785 0.039808 -0.215235
-0.089782 0.039884 -0.215233
-0.089779 0.039960 -0.215234
-0.089776 0.040036 -0.215228
-0.089774 0.040111 -0.215216
-0.089771 0.040187 -0.215212
-0.089767 0.040261 -0.215219
-0.089764 0.040337 -0.215219
-0.089761 0.040413 -0.215223
-0.089758 0.040490 -0.215233
-0.089755 0.040566 -0.215233
-0.089752 0.040641 -0.215224
-0.089749 0.040717 -0.215218
-0.089747 0.040791 -0.215216
-0.089744 0.040869 -0.215214
-0.089740 0.040943 -0.215220
-0.089737 0.041019 -0.215221
-0.089734 0.041095 -0.215217
-0.089732 0.041171 -0.215215
-0.089729 0.041247 -0.215203
-0.089726 0.041322 -0.215199
-0.089723 0.041396 -0.215204
-0.089720 0.041474 -0.215198
-0.089718 0.041548 -0.215192
-0.089714 0.041624 -0.215198
-0.089711 0.041700 -0.215204
-0.089708 0.041776 -0.215209
-0.089705 0.041852 -0.215205
-0.089703 0.041928 -0.215193
-0.089700 0.042004 -0.215185
-0.089697 0.042078 -0.215186
-0.089694 0.042154 -0.215188
-0.089691 0.042230 -0.215186
-0.089688 0.042306 -0.215188
-0.089685 0.042382 -0.215190
-0.089682 0.042458 -0.215191
-0.089679 0.042531 -0.215185
-0.089676 0.042608 -0.215191
-0.089672 0.042684 -0.215201
-0.089669 0.042760 -0.215201
-0.089667 0.042835 -0.215190
-0.089664 0.042911 -0.215184
-0.089661 0.042987 -0.215180
-0.089658 0.043061 -0.215180
-0.089655 0.043137 -0.215178
-0.089652 0.043213 -0.215179
-0.089649 0.043289 -0.215187
-0.089645 0.043365 -0.215193
-0.089642 0.043439 -0.215195
-0.089639 0.043515 -0.215195
-0.089636 0.043591 -0.215194
-0.089634 0.043667 -0.215188
-0.089631 0.043743 -0.215182
-0.089628 0.043819 -0.215172
-0.089625 0.043894 -0.215172
-0.089622 0.043971 -0.215175
-0.089620 0.044044 -0.215171
-0.089617 0.044120 -0.215167
-0.089614 0.044196 -0.215169
-0.089610 0.044272 -0.215178
-0.089607 0.044348 -0.215178
-0.090990 0.021123 -0.215251
-0.090988 0.021203 -0.215221
-0.090994 0.021306 -0.215017
-0.090997 0.021401 -0.214868
-0.090997 0.021487 -0.214788
-0.090995 0.021565 -0.214775
-0.091013 0.021704 -0.214282
-0.091018 0.021804 -0.214102
-0.091021 0.021899 -0.213947
-0.091021 0.021983 -0.213882
-0.091020 0.022062 -0.213844
-0.091018 0.022140 -0.213826
-0.091136 0.023086 -0.210574
-0.091135 0.023166 -0.210539
-0.091132 0.023239 -0.210527
-0.091131 0.023318 -0.210483
-0.091132 0.023401 -0.210407
-0.091150 0.023540 -0.209904
-0.091148 0.023613 -0.209899
-0.091155 0.023718 -0.209650
-0.091152 0.023792 -0.209651
-0.091164 0.023907 -0.209314
-0.091165 0.023991 -0.209224
-0.091165 0.024073 -0.209158
-0.091165 0.024152 -0.209096
-0.091164 0.024231 -0.209047
-0.091162 0.024306 -0.209023
-0.091161 0.024383 -0.208985
-0.091159 0.024459 -0.208963
-0.091156 0.024532 -0.208958
-0.091153 0.024606 -0.208956
-0.091151 0.024678 -0.208950
-0.091148 0.024750 -0.208956
-0.091144 0.024821 -0.208971
-0.091140 0.024891 -0.208991
-0.091137 0.024961 -0.209013
-0.091133 0.025030 -0.209040
-0.091129 0.025100 -0.209054
-0.091125 0.025173 -0.209072
-0.091121 0.025241 -0.209103
-0.091117 0.025310 -0.209135
-0.091113 0.025379 -0.209165
-0.091109 0.025447 -0.209194
-0.091104 0.025518 -0.209226
-0.091100 0.025586 -0.209256
-0.091095 0.025655 -0.209297
-0.091091 0.025722 -0.209343
-0.091086 0.025791 -0.209379
-0.091082 0.025860 -0.209410
-0.091078 0.025930 -0.209434
-0.091075 0.026002 -0.209436
-0.091075 0.026085 -0.209362
-0.091075 0.026163 -0.209303
-0.091070 0.026230 -0.209357
-0.091061 0.026287 -0.209495
-0.091057 0.026358 -0.209520
-0.091054 0.026430 -0.209524
-0.091050 0.026500 -0.209544
-0.091046 0.026573 -0.209563
-0.091043 0.026643 -0.209575
-0.091039 0.026715 -0.209587
-0.091036 0.026785 -0.209602
-0.091033 0.026859 -0.209598
-0.091031 0.026933 -0.209586
-0.091028 0.027007 -0.209580
-0.091025 0.027081 -0.209575
-0.091023 0.027154 -0.209561
-0.091021 0.027230 -0.209545
-0.091019 0.027304 -0.209535
-0.091017 0.027379 -0.209512
-0.091015 0.027456 -0.209480
-0.091013 0.027528 -0.209470
-0.091010 0.027600 -0.209476
-0.091006 0.027673 -0.209495
-0.091002 0.027743 -0.209509
-0.090999 0.027817 -0.209511
-0.090996 0.027889 -0.209518
-0.090993 0.027961 -0.209528
-0.090990 0.028033 -0.209532
-0.090986 0.028103 -0.209544
-0.090983 0.028176 -0.209561
-0.090980 0.028248 -0.209567
-0.090977 0.028320 -0.209569
-0.090974 0.028394 -0.209568
-0.090971 0.028468 -0.209562
-0.090968 0.028540 -0.209568
-0.090964 0.028612 -0.209580
-0.090961 0.028682 -0.209595
-0.090958 0.028754 -0.209605
-0.090955 0.028828 -0.209607
-0.090951 0.028901 -0.209613
-0.090948 0.028973 -0.209622
-0.090945 0.029045 -0.209620
-0.090943 0.029118 -0.209614
-0.090940 0.029192 -0.209611
-0.090937 0.029266 -0.209601
-0.090935 0.029340 -0.209583
-0.090933 0.029415 -0.209561
-0.090931 0.029489 -0.209548
-0.090929 0.029563 -0.209536
-0.090927 0.029638 -0.209522
-0.090925 0.029712 -0.209498
-0.090923 0.029787 -0.209463
-0.090921 0.029862 -0.209443
-0.090919 0.029936 -0.209433
-0.090916 0.030010 -0.209433
-0.090913 0.030080 -0.209444
-0.090909 0.030153 -0.209460
-0.090906 0.030225 -0.209470
-0.090902 0.030297 -0.209478
-0.090899 0.030369 -0.209493
-0.090895 0.030440 -0.209521
-0.090891 0.030510 -0.209545
-0.090887 0.030583 -0.209558
-0.090884 0.030655 -0.209570
-0.090880 0.030727 -0.209582
-0.090877 0.030799 -0.209586
-0.090875 0.030871 -0.209581
-0.090872 0.030945 -0.209577
-0.090869 0.031017 -0.209587
-0.090865 0.031089 -0.209598
-0.090862 0.031161 -0.209604
-0.090859 0.031233 -0.209608
-0.090856 0.031307 -0.209616
-0.090852 0.031380 -0.209627
-0.090849 0.031452 -0.209635
-0.090846 0.031524 -0.209633
-0.090844 0.031598 -0.209628
-0.090842 0.031671 -0.209612
-0.090839 0.031745 -0.209598
-0.090837 0.031819 -0.209590
-0.090834 0.031893 -0.209589
-0.090831 0.031966 -0.209579
-0.090829 0.032040 -0.209565
-0.090827 0.032114 -0.209555
-0.090825 0.032189 -0.209528
-0.090823 0.032262 -0.209500
-0.090821 0.032334 -0.209500
-0.090817 0.032409 -0.209508
-0.090814 0.032479 -0.209523
-0.090809 0.032551 -0.209557
-0.090805 0.032622 -0.209585
-0.090802 0.032694 -0.209598
-0.090799 0.032766 -0.209600
-0.090796 0.032838 -0.209602
-0.090793 0.032912 -0.209602
-0.090790 0.032986 -0.209597
-0.090788 0.033060 -0.209587
-0.090785 0.033132 -0.209583
-0.090782 0.033206 -0.209583
-0.090779 0.033278 -0.209582
-0.090777 0.033352 -0.209576
-0.090773 0.033424 -0.209580
-0.090769 0.033496 -0.209605
-0.090766 0.033568 -0.209621
-0.090763 0.033640 -0.209619
-0.090760 0.033712 -0.209627
-0.090756 0.033785 -0.209650
-0.090752 0.033857 -0.209664
-0.090749 0.033929 -0.209674
-0.090746 0.034001 -0.209682
-0.090743 0.034075 -0.209683
-0.090740 0.034147 -0.209677
-0.090737 0.034221 -0.209679
-0.090734 0.034293 -0.209684
-0.090731 0.034367 -0.209676
-0.090729 0.034441 -0.209672
-0.090726 0.034513 -0.209670
-0.090723 0.034587 -0.209667
-0.090720 0.034659 -0.209679
-0.090715 0.034730 -0.209709
-0.090711 0.034802 -0.209739
-0.090707 0.034873 -0.209772
-0.090702 0.034944 -0.209804
-0.090698 0.035015 -0.209844
-0.090693 0.035087 -0.209881
-0.090689 0.035158 -0.209911
-0.090684 0.035229 -0.209951
-0.090679 0.035302 -0.209991
-0.090675 0.035372 -0.210026
-0.090671 0.035445 -0.210050
-0.090666 0.035516 -0.210088
-0.090661 0.035588 -0.210126
-0.090657 0.035659 -0.210161
-0.090652 0.035732 -0.210195
-0.090648 0.035804 -0.210227
-0.090643 0.035875 -0.210268
-0.090638 0.035946 -0.210308
-0.090633 0.036017 -0.210360
-0.090628 0.036088 -0.210418
-0.090622 0.036160 -0.210477
-0.090616 0.036231 -0.210535
-0.090612 0.036302 -0.210575
-0.090607 0.036374 -0.210607
-0.090603 0.036447 -0.210638
-0.090598 0.036520 -0.210686
-0.090592 0.036591 -0.210738
-0.090587 0.036662 -0.210788
-0.090581 0.036734 -0.210849
-0.090575 0.036805 -0.210917
-0.090570 0.036876 -0.210971
-0.090564 0.036948 -0.211035
-0.090558 0.037019 -0.211096
-0.090552 0.037090 -0.211168
-0.090546 0.037164 -0.211224
-0.090541 0.037235 -0.211278
-0.090534 0.037306 -0.211363
-0.090528 0.037378 -0.211433
-0.090521 0.037449 -0.211503
-0.090513 0.037520 -0.211625
-0.090505 0.037590 -0.211732
-0.090498 0.037660 -0.211824
-0.090488 0.037730 -0.211978
-0.090477 0.037799 -0.212144
-0.090335 0.037790 -0.215102
-0.090330 0.037865 -0.215158
-0.090325 0.037940 -0.215202
-0.090321 0.038014 -0.215212
-0.090318 0.038090 -0.215217
-0.090314 0.038165 -0.215237
-0.090309 0.038241 -0.215269
-0.090305 0.038316 -0.215291
-0.090302 0.038392 -0.215293
-0.090299 0.038468 -0.215290
-0.090296 0.038544 -0.215292
-0.090293 0.038619 -0.215290
-0.090291 0.038695 -0.215284
-0.090288 0.038769 -0.215280
-0.090285 0.038847 -0.215281
-0.090281 0.038921 -0.215289
-0.090278 0.038997 -0.215291
-0.090275 0.039073 -0.215291
-0.090272 0.039149 -0.215289
-0.090270 0.039225 -0.215284
-0.090267 0.039301 -0.215282
-0.090264 0.039377 -0.215280
-0.090261 0.039451 -0.215280
-0.090258 0.039527 -0.215282
-0.090254 0.039603 -0.215293
-0.090251 0.039679 -0.215293
-0.090249 0.039755 -0.215285
-0.090246 0.039831 -0.215285
-0.090243 0.039905 -0.215287
-0.090239 0.039981 -0.215288
-0.090237 0.040057 -0.215282
-0.090234 0.040132 -0.215272
-0.090231 0.040208 -0.215278
-0.090228 0.040284 -0.215284
-0.090225 0.040360 -0.215283
-0.090222 0.040434 -0.215283
-0.090218 0.040511 -0.215295
-0.090215 0.040586 -0.215289
-0.090213 0.040662 -0.215276
-0.090210 0.040738 -0.215272
-0.090207 0.040814 -0.215280
-0.090204 0.040890 -0.215284
-0.090201 0.040964 -0.215286
-0.090198 0.041040 -0.215285
-0.090195 0.041116 -0.215275
-0.090192 0.041192 -0.215281
-0.090188 0.041268 -0.215293
-0.090185 0.041344 -0.215297
-0.090182 0.041418 -0.215290
-0.090180 0.041496 -0.215274
-0.090177 0.041570 -0.215272
-0.090174 0.041648 -0.215272
-0.090172 0.041721 -0.215262
-0.090169 0.041797 -0.215263
-0.090165 0.041873 -0.215275
-0.090162 0.041949 -0.215273
-0.090159 0.042025 -0.215267
-0.090157 0.042101 -0.215261
-0.090154 0.042175 -0.215264
-0.090150 0.042251 -0.215272
-0.090147 0.042327 -0.215270
-0.090145 0.042403 -0.215258
-0.090142 0.042479 -0.215244
-0.090139 0.042555 -0.215247
-0.090136 0.042631 -0.215251
-0.090133 0.042707 -0.215253
-0.090130 0.042783 -0.215255
-0.090127 0.042857 -0.215256
-0.090125 0.042932 -0.215242
-0.090121 0.043008 -0.215248
-0.090118 0.043084 -0.215256
-0.090115 0.043160 -0.215252
-0.090112 0.043236 -0.215255
-0.090109 0.043310 -0.215257
-0.090106 0.043386 -0.215259
-0.090103 0.043462 -0.215255
-0.090101 0.043538 -0.215241
-0.090098 0.043614 -0.215234
-0.090094 0.043690 -0.215244
-0.090091 0.043766 -0.215258
-0.090088 0.043840 -0.215256
-0.090085 0.043918 -0.215242
-0.090083 0.043992 -0.215235
-0.090080 0.044067 -0.215229
-0.090077 0.044143 -0.215221
-0.090075 0.044219 -0.215217
-0.089573 0.044451 -0.225476
-0.089570 0.044531 -0.225482
-0.089567 0.044611 -0.225481
-0.089564 0.044693 -0.225477
-0.089560 0.044775 -0.225485
-0.089557 0.044855 -0.225487
-0.089554 0.044937 -0.225481
-0.089551 0.045016 -0.225473
-0.089548 0.045098 -0.225461
-0.089545 0.045178 -0.225459
-0.089542 0.045260 -0.225463
-0.089539 0.045340 -0.225467
-0.089535 0.045420 -0.225469
-0.089532 0.045502 -0.225469
-0.089529 0.045582 -0.225470
-0.089525 0.045664 -0.225476
-0.089522 0.045744 -0.225478
-0.089519 0.045826 -0.225482
-0.089515 0.045906 -0.225486
-0.089512 0.045988 -0.225488
-0.089508 0.046068 -0.225496
-0.089505 0.046150 -0.225504
-0.089501 0.046230 -0.225504
-0.089499 0.046312 -0.225494
-0.089496 0.046392 -0.225476
-0.089493 0.046474 -0.225480
-0.089489 0.046554 -0.225499
-0.089485 0.046636 -0.225503
-0.089483 0.046716 -0.225495
-0.089480 0.046798 -0.225489
-0.089477 0.046878 -0.225485
-0.089473 0.046960 -0.225487
-0.089470 0.047040 -0.225487
-0.089467 0.047122 -0.225487
-0.089464 0.047201 -0.225483
-0.089461 0.047283 -0.225477
-0.089458 0.047363 -0.225481
-0.089454 0.047445 -0.225487
-0.089451 0.047525 -0.225494
-0.089448 0.047607 -0.225488
-0.089445 0.047687 -0.225476
-0.089442 0.047769 -0.225472
-0.089439 0.047849 -0.225476
-0.089435 0.047931 -0.225480
-0.089432 0.048011 -0.225480
-0.089429 0.048093 -0.225476
-0.089426 0.048173 -0.225466
-0.089423 0.048255 -0.225470
-0.089419 0.048335 -0.225480
-0.089416 0.048417 -0.225484
-0.089412 0.048499 -0.225484
-0.089409 0.048579 -0.225483
-0.089406 0.048659 -0.225483
-0.089403 0.048740 -0.225473
-0.089400 0.048820 -0.225469
-0.089397 0.048902 -0.225469
-0.089394 0.048982 -0.225469
-0.089391 0.049064 -0.225467
-0.089387 0.049146 -0.225469
-0.089384 0.049226 -0.225469
-0.089381 0.049308 -0.225469
-0.089378 0.049388 -0.225473
-0.089374 0.049470 -0.225481
-0.089370 0.049552 -0.225487
-0.089368 0.049632 -0.225480
-0.089365 0.049714 -0.225468
-0.089362 0.049794 -0.225464
-0.089359 0.049874 -0.225464
-0.089355 0.049956 -0.225470
-0.089352 0.050038 -0.225478
-0.089348 0.050120 -0.225488
-0.089344 0.050200 -0.225492
-0.089342 0.050280 -0.225486
-0.089339 0.050362 -0.225480
-0.089335 0.050444 -0.225486
-0.089332 0.050524 -0.225488
-0.089329 0.050606 -0.225477
-0.089327 0.050685 -0.225465
-0.089323 0.050767 -0.225469
-0.089319 0.050847 -0.225477
-0.089316 0.050929 -0.225477
-0.089313 0.051009 -0.225473
-0.089310 0.051091 -0.225471
-0.089307 0.051171 -0.225467
-0.089304 0.051253 -0.225473
-0.089300 0.051335 -0.225481
-0.089297 0.051415 -0.225479
-0.089294 0.051495 -0.225465
-0.089292 0.051577 -0.225452
-0.089288 0.051657 -0.225456
-0.089284 0.051741 -0.225468
-0.089281 0.051821 -0.225472
-0.089278 0.051901 -0.225470
-0.089275 0.051983 -0.225472
-0.089271 0.052065 -0.225474
-0.089268 0.052145 -0.225468
-0.089266 0.052226 -0.225460
-0.089262 0.052306 -0.225458
-0.089259 0.052388 -0.225464
-0.089256 0.052470 -0.225466
-0.089252 0.052550 -0.225464
-0.089249 0.052632 -0.225460
-0.089246 0.052712 -0.225463
-0.089243 0.052794 -0.225465
-0.089240 0.052876 -0.225459
-0.089237 0.052956 -0.225453
-0.089234 0.053038 -0.225451
-0.089231 0.053118 -0.225449
-0.089228 0.053200 -0.225447
-0.089224 0.053280 -0.225451
-0.089221 0.053362 -0.225451
-0.089218 0.053443 -0.225445
-0.089215 0.053523 -0.225441
-0.089211 0.053605 -0.225447
-0.089208 0.053688 -0.225457
-0.089204 0.053770 -0.225460
-0.089201 0.053850 -0.225462
-0.089198 0.053932 -0.225468
-0.089194 0.054014 -0.225470
-0.089191 0.054093 -0.225460
-0.089189 0.054173 -0.225452
-0.089186 0.054255 -0.225442
-0.089183 0.054335 -0.225440
-0.089179 0.054417 -0.225456
-0.089175 0.054499 -0.225462
-0.089172 0.054581 -0.225454
-0.089169 0.054661 -0.225450
-0.089166 0.054743 -0.225454
-0.089162 0.054825 -0.225459
-0.089159 0.054905 -0.225463
-0.089156 0.054987 -0.225463
-0.089153 0.055069 -0.225461
-0.089150 0.055149 -0.225459
-0.089147 0.055231 -0.225451
-0.089144 0.055311 -0.225451
-0.089140 0.055393 -0.225455
-0.089136 0.055475 -0.225463
-0.089133 0.055557 -0.225467
-0.089130 0.055637 -0.225463
-0.089127 0.055718 -0.225455
-0.089125 0.055798 -0.225445
-0.089121 0.055880 -0.225444
-0.089118 0.055960 -0.225446
-0.089115 0.056042 -0.225450
-0.089111 0.056124 -0.225458
-0.089107 0.056206 -0.225464
-0.089104 0.056289 -0.225470
-0.089100 0.056371 -0.225474
-0.089098 0.056450 -0.225464
-0.089095 0.056530 -0.225454
-0.089092 0.056612 -0.225448
-0.089089 0.056694 -0.225444
-0.089086 0.056774 -0.225446
-0.089082 0.056856 -0.225448
-0.089079 0.056938 -0.225450
-0.089076 0.057020 -0.225453
-0.089072 0.057100 -0.225453
-0.089070 0.057181 -0.225443
-0.089066 0.057264 -0.225449
-0.089063 0.057346 -0.225457
-0.089060 0.057425 -0.225449
-0.089057 0.057507 -0.225443
-0.089054 0.057587 -0.225445
-0.089050 0.057669 -0.225445
-0.089047 0.057751 -0.225447
-0.089044 0.057833 -0.225445
-0.089041 0.057913 -0.225435
-0.089038 0.057993 -0.225435
-0.089035 0.058075 -0.225436
-0.089031 0.058157 -0.225438
-0.089028 0.058239 -0.225448
-0.089024 0.058321 -0.225458
-0.089021 0.058403 -0.225456
-0.089018 0.058485 -0.225452
-0.089015 0.058565 -0.225440
-0.089012 0.058644 -0.225430
-0.089009 0.058726 -0.225428
-0.089006 0.058808 -0.225434
-0.089002 0.058890 -0.225434
-0.088999 0.058970 -0.225432
-0.088996 0.059052 -0.225440
-0.088992 0.059135 -0.225444
-0.088989 0.059216 -0.225438
-0.088986 0.059296 -0.225431
-0.088983 0.059378 -0.225433
-0.088979 0.059460 -0.225439
-0.088976 0.059542 -0.225441
-0.088973 0.059624 -0.225443
-0.088970 0.059704 -0.225439
-0.088967 0.059786 -0.225435
-0.088964 0.059868 -0.225433
-0.088960 0.059950 -0.225437
-0.088957 0.060030 -0.225439
-0.088954 0.060112 -0.225439
-0.088950 0.060194 -0.225441
-0.088947 0.060276 -0.225441
-0.088944 0.060356 -0.225427
-0.088942 0.060435 -0.225414
-0.088939 0.060517 -0.225412
-0.088935 0.060599 -0.225414
-0.088933 0.060679 -0.225408
-0.088929 0.060761 -0.225408
-0.088926 0.060843 -0.225408
-0.088923 0.060925 -0.225412
-0.088919 0.061007 -0.225416
-0.088916 0.061087 -0.225412
-0.088913 0.061169 -0.225406
-0.088910 0.061251 -0.225406
-0.088907 0.061331 -0.225404
-0.088904 0.061412 -0.225394
-0.088901 0.061492 -0.225387
-0.088898 0.061574 -0.225387
-0.088895 0.061656 -0.225387
-0.088892 0.061736 -0.225379
-0.088888 0.061818 -0.225387
-0.091478 0.021166 -0.215131
-0.091479 0.021252 -0.215053
-0.091480 0.021342 -0.214949
-0.091481 0.021430 -0.214855
-0.091502 0.021580 -0.214298
-0.091500 0.021659 -0.214260
-0.091499 0.021740 -0.214214
-0.091505 0.021840 -0.214024
-0.091505 0.021926 -0.213940
-0.091504 0.022007 -0.213900
-0.091504 0.022089 -0.213838
-0.091502 0.022169 -0.213809
-0.091637 0.022919 -0.210368
-0.091637 0.023002 -0.210308
-0.091635 0.023079 -0.210276
-0.091632 0.023151 -0.210272
-0.091629 0.023223 -0.210293
-0.091622 0.023285 -0.210381
-0.091618 0.023354 -0.210414
-0.091616 0.023430 -0.210392
-0.091645 0.023601 -0.209632
-0.091643 0.023676 -0.209617
-0.091643 0.023757 -0.209551
-0.091649 0.023856 -0.209341
-0.091650 0.023939 -0.209263
-0.091651 0.024025 -0.209169
-0.091651 0.024105 -0.209099
-0.091650 0.024182 -0.209061
-0.091648 0.024261 -0.209025
-0.091647 0.024337 -0.208994
-0.091645 0.024412 -0.208972
-0.091642 0.024488 -0.208956
-0.091640 0.024561 -0.208942
-0.091638 0.024635 -0.208931
-0.091635 0.024707 -0.208933
-0.091631 0.024776 -0.208955
-0.091627 0.024846 -0.208979
-0.091623 0.024915 -0.209008
-0.091619 0.024985 -0.209030
-0.091615 0.025055 -0.209050
-0.091612 0.025126 -0.209073
-0.091608 0.025196 -0.209093
-0.091604 0.025267 -0.209111
-0.091600 0.025335 -0.209142
-0.091596 0.025404 -0.209176
-0.091592 0.025474 -0.209196
-0.091588 0.025543 -0.209223
-0.091583 0.025612 -0.209257
-0.091579 0.025681 -0.209301
-0.091574 0.025748 -0.209348
-0.091569 0.025815 -0.209396
-0.091565 0.025883 -0.209426
