# .PCD v0.7 - Point Cloud Data file format
VERSION 0.7
FIELDS x y z
SIZE 4 4 4
TYPE F F F
COUNT 1 1 1
WIDTH 1404
HEIGHT 1
VIEWPOINT 0 0 0 1 0 0 0
POINTS 1404
DATA ascii
-0.026259333 0.10749999 -0.22816099
-0.025748 0.107548 -0.228194
-0.025531 0.107527 -0.22810866
-0.025303667 0.10750866 -0.22802834
-0.025061002 0.107496 -0.22801
-0.011794 0.107577 -0.22801
-0.011374333 0.10748967 -0.22812067
-0.027135 0.10768566 -0.228176
-0.026252 0.107715 -0.22813334
-0.025744 0.10769 -0.228157
-0.025525499 0.107706 -0.22807899
-0.025299 0.107652 -0.228003
-0.011785666 0.107724 -0.22807334
-0.011365 0.107674 -0.228176
-0.027126333 0.10790333 -0.22817965
-0.026245501 0.107896 -0.22813049
-0.025737001 0.10790601 -0.22813702
-0.025519 0.10788733 -0.228072
-0.011776 0.107908 -0.22811849
-0.0271185 0.108084 -0.22819149
-0.026237667 0.108077 -0.22813968
-0.025726998 0.108124 -0.22816567
-0.025509333 0.108105 -0.22809868
-0.025279999 0.108123 -0.228017
-0.011772 0.10808634 -0.22805767
-0.026226999 0.10829666 -0.22818732
-0.025718499 0.108307 -0.22818699
-0.025499335 0.10832366 -0.22812666
-0.025272334 0.10830433 -0.22803633
-0.025030002 0.10829201 -0.22801067
-0.011769 0.108228 -0.22800601
-0.011340667 0.10829234 -0.22817166
-0.027100001 0.108556 -0.22819901
-0.026218334 0.108514 -0.22819
-0.025713 0.108452 -0.22819251
-0.025490999 0.1085055 -0.22815299
-0.025262998 0.108523 -0.22805433
-0.025021331 0.10850834 -0.22801334
-0.011334668 0.108507 -0.22811633
-0.027092 0.108772 -0.228196
-0.026212499 0.108693 -0.228167
-0.025702 0.1087405 -0.2281785
-0.025485 0.108686 -0.22813065
-0.025258999 0.108666 -0.228026
-0.011329667 0.10872167 -0.22805201
-0.027086332 0.10891666 -0.22818899
-0.026206002 0.10887433 -0.22815602
-0.025696 0.10892066 -0.22816767
-0.025477 0.108902 -0.228112
-0.025249001 0.108955 -0.228003
-0.010992 0.108933 -0.228185
-0.026196999 0.10909101 -0.22815867
-0.025688 0.109103 -0.22818601
-0.025468335 0.10911933 -0.22812001
-0.025242334 0.10910066 -0.22801666
-0.010986666 0.10907833 -0.22817999
-0.026187668 0.10930967 -0.22817999
-0.025681002 0.10928467 -0.22818434
-0.025460999 0.109302 -0.228129
-0.025233001 0.109318 -0.228034
-0.011308666 0.10930133 -0.22801931
-0.01098 0.109225 -0.2282
-0.026180334 0.10952567 -0.22815733
-0.025672667 0.10950033 -0.22817834
-0.025454333 0.10948233 -0.22812335
-0.025226999 0.1094975 -0.228011
-0.011296667 0.109524 -0.22808766
-0.02833 0.109778 -0.22818901
-0.0279015 0.109721 -0.22819
-0.027057 0.10971167 -0.22815299
-0.026175 0.109706 -0.228126
-0.025666667 0.10971534 -0.22813134
-0.025448667 0.10969534 -0.22806233
-0.011709999 0.1097215 -0.228028
-0.011286 0.1097105 -0.228154
-0.028324666 0.109922 -0.22818966
-0.027894 0.109903 -0.22818834
-0.027051501 0.109891 -0.22813201
-0.026169335 0.10988367 -0.22809766
-0.025660001 0.109896 -0.228119
-0.025441 0.10991167 -0.22804832
-0.011701 0.10990567 -0.22806032
-0.011276999 0.109895 -0.228196
-0.028318999 0.110068 -0.228196
-0.027887 0.110083 -0.228191
-0.027043 0.11007267 -0.22814967
-0.026160667 0.11010166 -0.228103
-0.025652999 0.11007767 -0.22811866
-0.025433499 0.110095 -0.228066
-0.011697 0.110048 -0.228034
-0.011269334 0.11011333 -0.22818367
-0.027034 0.11029134 -0.22816767
-0.026151 0.11032134 -0.22812502
-0.025642665 0.11029667 -0.22815199
-0.025425 0.11027633 -0.228082
-0.011263666 0.110327 -0.22812033
-0.027025668 0.11050866 -0.22816001
-0.026144501 0.110501 -0.228111
-0.025633669 0.11051533 -0.22816199
-0.025416335 0.11049434 -0.22809167
-0.025187999 0.110511 -0.228001
-0.0112595 0.1105045 -0.22805649
-0.03015 0.110734 -0.22818799
-0.028293334 0.11071933 -0.22819334
-0.027860999 0.110773 -0.228185
-0.027019 0.11072367 -0.22813267
-0.026139 0.11068067 -0.22808367
-0.025628 0.110695 -0.228137
-0.025408333 0.11071067 -0.22807699
-0.025184 0.110619 -0.228001
-0.011258 0.11061 -0.228003
-0.030146999 0.110806 -0.228191
-0.0282865 0.1109 -0.22818351
-0.027855 0.11091733 -0.228185
-0.027011499 0.110905 -0.228137
-0.02613 0.110898 -0.22808766
-0.025622666 0.11087333 -0.22809601
-0.025402501 0.11089 -0.2280485
-0.010915999 0.11089966 -0.22817402
-0.028279999 0.111081 -0.228177
-0.027847499 0.111098 -0.228186
-0.027004667 0.11108633 -0.228128
-0.026121667 0.111115 -0.22808732
-0.025613999 0.11109067 -0.22810566
-0.025395667 0.111072 -0.228049
-0.010908 0.11111633 -0.22816133
-0.028270999 0.11129833 -0.22818933
-0.027840333 0.11128033 -0.228193
-0.026996002 0.111303 -0.22812466
-0.026115 0.111296 -0.22808149
-0.025606001 0.11130866 -0.22809899
-0.025387667 0.11128867 -0.22804134
-0.010900499 0.111299 -0.22817099
-0.028264001 0.11151433 -0.22816133
-0.027832331 0.11149633 -0.22818567
-0.026988 0.11152101 -0.228126
-0.026108667 0.11147567 -0.22806634
-0.025598334 0.11152467 -0.22808099
-0.025382001 0.111468 -0.22802049
-0.011223 0.11148566 -0.22802533
-0.010895 0.111412 -0.228193
-0.028711667 0.11168233 -0.22817099
-0.0282575 0.111694 -0.2281425
-0.027827 0.11170966 -0.22812933
-0.026983 0.11169849 -0.22807899
-0.026101669 0.111691 -0.22803335
-0.025596 0.111664 -0.228025
-0.01163 0.111795 -0.22801
-0.011211 0.11171 -0.22809768
-0.028704001 0.11189867 -0.22816233
-0.028250666 0.11187533 -0.22814535
-0.027818501 0.111892 -0.22814599
-0.026976332 0.11188 -0.228073
-0.026093001 0.11190834 -0.22803099
-0.025587 0.11188233 -0.22802334
-0.011624999 0.111905 -0.22802299
-0.011203 0.11186 -0.228145
-0.0112 0.111932 -0.22814099
-0.028694667 0.11211867 -0.228184
-0.028240666 0.11209466 -0.22816867
-0.027811 0.112075 -0.22816099
-0.026966667 0.11209866 -0.22809768
-0.026084 0.11212633 -0.22804533
-0.025576999 0.11210134 -0.228055
-0.025356 0.112154 -0.22800501
-0.011622 0.112013 -0.22800399
-0.011194333 0.11207733 -0.22814333
-0.028231001 0.11231367 -0.22819133
-0.027802501 0.112258 -0.22818801
-0.027798001 0.112368 -0.228194
-0.026957333 0.11231733 -0.22811334
-0.026075501 0.112311 -0.228076
-0.025566667 0.11232233 -0.22809033
-0.025349 0.11230167 -0.22801733
-0.011188333 0.11229267 -0.22809298
-0.028224668 0.11252833 -0.22815567
-0.027793 0.11251166 -0.22817867
-0.026949499 0.112499 -0.22812501
-0.026068332 0.11249167 -0.22807665
-0.0255605 0.1125025 -0.228072
-0.025343999 0.112447 -0.228018
-0.011183 0.11250532 -0.22802867
-0.030072 0.112726 -0.228192
-0.028672 0.11269733 -0.22818001
-0.0282185 0.112708 -0.228137
-0.027787 0.11272433 -0.22812898
-0.026943669 0.11268 -0.22810869
-0.026061334 0.112707 -0.22805201
-0.025555 0.11268201 -0.22803967
-0.011179 0.112651 -0.228002
-0.0108435 0.1127585 -0.228167
-0.030065 0.112907 -0.22819267
-0.029550999 0.112807 -0.22819801
-0.028664669 0.11291367 -0.22816066
-0.028212002 0.11288834 -0.22812366
-0.027779501 0.1129065 -0.22813299
-0.026936665 0.112895 -0.22808099
-0.026053667 0.112923 -0.22803199
-0.025545666 0.11290067 -0.22805966
-0.010838499 0.112903 -0.2281495
-0.030059 0.113053 -0.22819801
-0.0286575 0.113095 -0.228156
-0.028203666 0.11310633 -0.22812234
-0.027772665 0.11308766 -0.22813635
-0.026928 0.11311233 -0.22808033
-0.026047001 0.113104 -0.228026
-0.025536999 0.11311867 -0.228064
-0.025322 0.113026 -0.228002
-0.010830999 0.11308666 -0.228159
-0.028650334 0.11327633 -0.22816066
-0.028194999 0.11332367 -0.22812234
-0.027764 0.11330666 -0.22814266
-0.026920501 0.113295 -0.228092
-0.026038999 0.11328667 -0.22803999
-0.025529999 0.1133 -0.2280605
-0.02531 0.113316 -0.22800833
-0.01115 0.113381 -0.228016
-0.010823 0.1132695 -0.228176
-0.030041501 0.113522 -0.228181
-0.028642334 0.11349333 -0.22815466
-0.028188501 0.113504 -0.22811401
-0.027756667 0.113522 -0.22811098
-0.026914001 0.11347499 -0.22807832
-0.026030332 0.113504 -0.22804268
-0.025523335 0.11348066 -0.22805367
-0.025304999 0.113462 -0.22800501
-0.011143001 0.1134935 -0.22805899
-0.030036001 0.11370233 -0.22815633
-0.029518001 0.11367566 -0.22818667
-0.029137 0.1137 -0.22819149
-0.028636666 0.11370599 -0.22809434
-0.028183667 0.11368134 -0.22807033
-0.0277515 0.113701 -0.22807801
-0.026907668 0.11369 -0.22803967
-0.026025999 0.113648 -0.228019
-0.025517501 0.11366 -0.228028
-0.011553001 0.11372849 -0.22803801
-0.011133667 0.11368033 -0.22810501
-0.030026333 0.11392134 -0.22817266
-0.029510001 0.113892 -0.22817665
-0.029130667 0.113879 -0.22817034
-0.028628334 0.11392433 -0.22809367
-0.028174998 0.11389967 -0.22807567
-0.027744001 0.11388233 -0.22808899
-0.026899001 0.11390767 -0.22803533
-0.025505999 0.113984 -0.228007
-0.011547999 0.1138745 -0.22802949
-0.011122999 0.113904 -0.22814567
-0.030019499 0.114103 -0.228177
-0.0295025 0.1140755 -0.228192
-0.029121667 0.11409733 -0.22818135
-0.0286205 0.114107 -0.22811601
-0.028165 0.11412066 -0.22810601
-0.027734667 0.114102 -0.22810268
-0.026890332 0.11412533 -0.22803932
-0.0260075 0.1141205 -0.22802299
-0.025500499 0.114096 -0.228026
-0.011115 0.114121 -0.22813399
-0.030011332 0.11428533 -0.22819
-0.0291145 0.114279 -0.2281885
-0.028612332 0.11429033 -0.22812867
-0.028158 0.114302 -0.2281065
-0.027725333 0.114322 -0.22812165
-0.0268835 0.114306 -0.22803199
-0.026001999 0.11423 -0.228039
-0.025997501 0.11434 -0.228045
-0.025492333 0.114279 -0.22804934
-0.011112 0.114296 -0.228054
-0.030004 0.11450133 -0.22816999
-0.028604666 0.114506 -0.22811432
-0.028151 0.11448333 -0.22810368
-0.027718499 0.114501 -0.22810951
-0.026876001 0.11448934 -0.22805066
-0.025990667 0.114522 -0.22804634
-0.025482332 0.114499 -0.22807334
-0.025264999 0.114477 -0.22800367
-0.01111 0.114402 -0.22801501
-0.029996669 0.114717 -0.22814034
-0.029478667 0.114692 -0.22818534
-0.029099001 0.11467833 -0.22818066
-0.028596334 0.114723 -0.22810368
-0.028144 0.11469734 -0.22806932
-0.027713001 0.11468067 -0.22808433
-0.026868001 0.11470533 -0.22803332
-0.025985001 0.1147 -0.228019
-0.025476001 0.11471333 -0.22803867
-0.010769334 0.114692 -0.22814433
-0.029990001 0.114899 -0.228137
-0.029471001 0.114908 -0.228167
-0.029090665 0.11489633 -0.22817934
-0.0285895 0.114905 -0.2281065
-0.028136 0.11491466 -0.22806066
-0.027705334 0.11489733 -0.22806901
-0.026860999 0.114921 -0.22800733
-0.025469501 0.114894 -0.228027
-0.010763001 0.11490599 -0.22809833
-0.029983334 0.115078 -0.22812833
-0.029463001 0.115091 -0.22818199
-0.029082 0.11511433 -0.22817867
-0.028582668 0.11508634 -0.22810201
-0.028128501 0.115097 -0.228073
-0.027697003 0.11511467 -0.22806199
-0.0268535 0.115104 -0.228019
-0.025462002 0.11507601 -0.22802933
-0.0107565 0.115088 -0.228091
-0.029975334 0.115296 -0.22812568
-0.029456332 0.11527167 -0.22817867
-0.029076001 0.1152945 -0.228167
-0.028573999 0.115304 -0.22810167
-0.028121332 0.11527867 -0.22806932
-0.0276895 0.115298 -0.2280775
-0.026846001 0.11528633 -0.22802667
-0.025963001 0.115281 -0.22800499
-0.025453666 0.115294 -0.22802466
-0.010747666 0.11527433 -0.22811866
-0.029967999 0.11551134 -0.22809768
-0.029449001 0.11548766 -0.22815566
-0.029070998 0.11547133 -0.22811933
-0.028567331 0.11551833 -0.22806866
-0.028114334 0.11549399 -0.22804333
-0.027682999 0.11547766 -0.22806233
-0.026838999 0.11546651 -0.228019
-0.025447499 0.115474 -0.228012
-0.010736667 0.11549866 -0.22816567
-0.031295002 0.1157015 -0.22819149
-0.029962333 0.11572333 -0.22804201
-0.029443001 0.11569967 -0.228103
-0.029062999 0.11568833 -0.22811233
-0.028562 0.115697 -0.22803551
-0.028111 0.115635 -0.228007
-0.02768 0.115619 -0.228018
-0.011057333 0.115719 -0.22803836
-0.01073 0.115648 -0.228193
-0.031288002 0.11588266 -0.22819334
-0.0299545 0.1159075 -0.22806551
-0.029434001 0.11591933 -0.22811367
-0.029054999 0.11590499 -0.22809966
-0.028555 0.11587767 -0.22803099
-0.028101999 0.115853 -0.228002
-0.027669 0.11590666 -0.22800167
-0.011048499 0.115906 -0.22806901
-0.029945999 0.11609099 -0.22808701
-0.0294265 0.116102 -0.22812599
-0.029045334 0.11612567 -0.22812234
-0.028546 0.116097 -0.22804201
-0.0280925 0.116108 -0.228008
-0.027661499 0.116089 -0.22801
-0.011043 0.11608567 -0.22804333
-0.029936001 0.11631034 -0.22811134
-0.029418999 0.11628533 -0.22813702
-0.0290385 0.116308 -0.22812849
-0.028537 0.116317 -0.22805333
-0.028085001 0.11629 -0.22800851
-0.027654 0.11627334 -0.22802401
-0.010702 0.116377 -0.228174
-0.031263001 0.116538 -0.228186
-0.029928999 0.11652734 -0.22809066
-0.029411666 0.11650068 -0.22811234
-0.029031666 0.11648867 -0.22811133
-0.028531 0.116496 -0.22803301
-0.028076999 0.116473 -0.22802001
-0.027648 0.116453 -0.2280075
-0.010699 0.116519 -0.22812766
-0.031727333 0.11670599 -0.22819267
-0.031257998 0.11668167 -0.22817634
-0.029922999 0.116706 -0.228066
-0.029404335 0.11671668 -0.228085
-0.029024666 0.11670399 -0.22808766
-0.028524667 0.116676 -0.22801334
-0.010694333 0.11673 -0.22804333
-0.010442 0.116735 -0.22818901
-0.031719666 0.11692166 -0.22817235
-0.031250332 0.11689699 -0.22815768
-0.030604001 0.1169055 -0.2281795
-0.029917667 0.11688533 -0.22803867
-0.029398501 0.116896 -0.228065
-0.029016001 0.11692134 -0.22808068
-0.028518001 0.116857 -0.22800851
-0.010436666 0.11688167 -0.22818667
-0.031712502 0.117104 -0.2281785
-0.031242667 0.11711434 -0.228145
-0.030596999 0.117088 -0.22818299
-0.029909333 0.11710233 -0.22802933
-0.029391667 0.11707667 -0.22806001
-0.029009499 0.117104 -0.228082
-0.010679 0.117165 -0.22800501
-0.010429 0.117066 -0.2281965
-0.032120001 0.11738 -0.228195
-0.031705335 0.11728666 -0.22818466
-0.031235501 0.1172965 -0.228145
-0.030588999 0.117304 -0.228168
-0.029903 0.117283 -0.2280145
-0.029383333 0.117296 -0.22806199
-0.029003501 0.11725 -0.228083
-0.028999999 0.117357 -0.228071
-0.028501499 0.117292 -0.22800601
-0.010672334 0.11731434 -0.22803234
-0.033493999 0.11759 -0.228185
-0.032966003 0.1175295 -0.22817999
-0.032535002 0.11751 -0.22819099
-0.032117333 0.11751933 -0.22814767
-0.031698 0.117502 -0.22815633
-0.031230001 0.11747434 -0.22811501
-0.030582333 0.117518 -0.22813332
-0.029378001 0.117473 -0.228028
-0.028997 0.1174625 -0.22804001
-0.0106635 0.117501 -0.2280675
-0.0334915 0.117697 -0.22815999
-0.032961667 0.11770534 -0.22813332
-0.032529999 0.11768734 -0.228149
-0.032111499 0.117699 -0.22812051
-0.031692669 0.11771333 -0.22809732
-0.031224668 0.11768633 -0.22806001
-0.030578502 0.1176925 -0.2280705
-0.010653666 0.11769 -0.22811599
-0.034841999 0.11787 -0.22819901
-0.033484001 0.11787933 -0.22817034
-0.032952998 0.117923 -0.22813232
-0.032522667 0.11790367 -0.22813199
-0.032104 0.11788066 -0.22812033
-0.031685501 0.117895 -0.2280965
-0.031216001 0.11790434 -0.22806333
-0.030571667 0.11787433 -0.22806734
-0.010641667 0.117917 -0.22817899
-0.033475 0.11809933 -0.22817834
-0.032945499 0.1181065 -0.228145
-0.032512669 0.11812367 -0.22815168
-0.032095 0.11810034 -0.22813201
-0.031678002 0.118077 -0.22810167
-0.031207666 0.118122 -0.22805667
-0.030561998 0.11809466 -0.22808367
-0.0106365 0.1180955 -0.228135
-0.033466 0.11831734 -0.22818166
-0.032937001 0.11829133 -0.22816201
-0.032504499 0.118307 -0.228172
-0.032086 0.118321 -0.22815366
-0.031669334 0.11829567 -0.228108
-0.031200999 0.118268 -0.228065
-0.031198001 0.118342 -0.228067
-0.030553669 0.11831333 -0.22808568
-0.010634 0.11826966 -0.228056
-0.034815997 0.11856 -0.2281875
-0.033459 0.118499 -0.22817899
-0.032929331 0.11850768 -0.22815602
-0.032499 0.11848734 -0.22815435
-0.032078497 0.118503 -0.228155
-0.031661667 0.118513 -0.22809267
-0.031193333 0.11848599 -0.228058
-0.030546501 0.118496 -0.22808799
-0.010631 0.11841 -0.22800501
-0.010374 0.118561 -0.228121
-0.010167 0.118556 -0.22818699
-0.034812003 0.1187015 -0.228154
-0.034256998 0.11871467 -0.228182
-0.033455331 0.11867366 -0.228122
-0.032922331 0.11872301 -0.22812533
-0.032491665 0.11870199 -0.22812633
-0.032072332 0.11868268 -0.22813833
-0.031655498 0.118692 -0.228075
-0.031185666 0.11870167 -0.22803934
-0.030540667 0.11867467 -0.228063
-0.010372668 0.11869834 -0.22804801
-0.010166333 0.11869166 -0.22808833
-0.034805331 0.118882 -0.22814865
-0.034249499 0.118898 -0.228191
-0.033446331 0.11889267 -0.228127
-0.032915503 0.118904 -0.22812299
-0.032483 0.11892066 -0.22812133
-0.032064665 0.11889934 -0.228121
-0.031648666 0.11887334 -0.22807068
-0.031177333 0.11891834 -0.22803366
-0.030533999 0.11888867 -0.22803234
-0.010365668 0.118914 -0.22801702
-0.010156667 0.118915 -0.22810268
-0.034797333 0.1191 -0.22814067
-0.034244999 0.119009 -0.22819901
-0.033436999 0.11911366 -0.22815001
-0.032908004 0.11908567 -0.228122
-0.032475501 0.119103 -0.22812849
-0.032056 0.119118 -0.22812633
-0.031640001 0.11909133 -0.22806533
-0.031170499 0.119101 -0.2280345
-0.030525334 0.11910667 -0.22803299
-0.010358499 0.119097 -0.2280125
-0.010148 0.119102 -0.2281305
-0.034787998 0.11931933 -0.22814865
-0.034231 0.119372 -0.22819699
-0.033431001 0.119292 -0.2281245
-0.032899667 0.119304 -0.22811933
-0.032469001 0.11928534 -0.22812434
-0.032049 0.1193 -0.22811899
-0.031631332 0.11931067 -0.22807133
-0.031165499 0.119245 -0.228018
-0.030516667 0.11932533 -0.22803234
-0.010350333 0.11928333 -0.22803199
-0.010141334 0.119284 -0.22812165
-0.036049999 0.119537 -0.228184
-0.035707001 0.119598 -0.2282
-0.034782499 0.11949851 -0.22812399
-0.034226 0.11951599 -0.228184
-0.033425335 0.11947066 -0.22809
-0.032893669 0.11951667 -0.22807367
-0.032462001 0.119499 -0.22809267
-0.032044332 0.119476 -0.228074
-0.031626001 0.119488 -0.228038
-0.030512 0.11947 -0.228018
-0.010341 0.119505 -0.22804201
-0.010131333 0.11950767 -0.22815132
-0.0099050002 0.119572 -0.228186
-0.037829999 0.119625 -0.22819901
-0.036486331 0.11970299 -0.22818466
-0.036045 0.11968233 -0.22817834
-0.035704002 0.11967 -0.228192
-0.034777001 0.11967667 -0.22809367
-0.034220502 0.119694 -0.22815099
-0.033418667 0.11968634 -0.22806267
-0.032888003 0.1196965 -0.22804299
-0.032455999 0.11971267 -0.22805099
-0.032038666 0.11968733 -0.22802167
-0.010332501 0.119693 -0.228075
-0.010124 0.119692 -0.22815099
-0.0099020004 0.119679 -0.2281675
-0.036479 0.11991967 -0.22816932
-0.036037002 0.11990166 -0.22817767
-0.034769669 0.11989266 -0.22807436
-0.034214333 0.11987434 -0.22813533
-0.033410668 0.11990267 -0.228049
-0.032881666 0.11987666 -0.22803567
-0.032449499 0.119894 -0.2280405
-0.032030001 0.119907 -0.22802067
-0.010323667 0.11988034 -0.228101
-0.010116 0.11987799 -0.22817034
-0.036471002 0.120104 -0.228184
-0.036027331 0.12012167 -0.22819133
-0.034760334 0.12011234 -0.22808902
-0.034205001 0.12009434 -0.22814734
-0.033403002 0.1200865 -0.2280625
-0.033397999 0.120197 -0.22808
-0.032872666 0.120096 -0.22804232
-0.032442 0.12007733 -0.22804999
-0.032022499 0.120089 -0.228029
-0.010315999 0.120099 -0.22808965
-0.010107334 0.12009833 -0.22816598
-0.034752 0.120298 -0.22811151
-0.034196001 0.12031434 -0.22815602
-0.0333925 0.120309 -0.228089
-0.032863665 0.120316 -0.22805302
-0.032432001 0.12029866 -0.22807133
-0.032015 0.12027466 -0.22804534
-0.031595003 0.12032334 -0.22800767
-0.010310333 0.120311 -0.22802633
-0.010102999 0.12030766 -0.228083
-0.009879333 0.12030033 -0.22814067
-0.034745332 0.12047833 -0.22810066
-0.034189001 0.120496 -0.22814649
-0.033386666 0.12048933 -0.228076
-0.0328555 0.1205 -0.22806349
-0.032423336 0.120518 -0.228076
-0.032005999 0.120494 -0.22804999
-0.0315875 0.120506 -0.22801551
-0.030472333 0.12048834 -0.228007
-0.010101 0.120446 -0.22801299
-0.0098749995 0.12050867 -0.22805233
-0.03473733 0.120696 -0.22809565
-0.034182999 0.120676 -0.22813366
-0.033378333 0.120707 -0.22807167
-0.032848999 0.120682 -0.228064
-0.0324165 0.120701 -0.228074
-0.032001 0.120639 -0.22804201
-0.031997502 0.120745 -0.22802401
-0.031578001 0.120762 -0.22801401
-0.0098655 0.1206985 -0.22809401
-0.034728002 0.12091767 -0.22811367
-0.034173667 0.12089667 -0.22815
-0.033370502 0.120891 -0.22808599
-0.032839332 0.12090266 -0.22807766
-0.032408666 0.120884 -0.22808534
-0.031989999 0.1208955 -0.22804901
-0.031572331 0.12090734 -0.22801299
-0.010082 0.120957 -0.228001
-0.0098569999 0.12088666 -0.22812833
-0.03472 0.121102 -0.22812799
-0.034163665 0.121119 -0.22817568
-0.033362333 0.12107634 -0.22810532
-0.032831002 0.12112267 -0.22808565
-0.032402001 0.121032 -0.228099
-0.032397002 0.121144 -0.22811401
-0.031981334 0.12108133 -0.22808266
-0.031564999 0.121089 -0.22800851
-0.030447001 0.121145 -0.22800501
-0.010074 0.12111166 -0.22804368
-0.0098466678 0.12111267 -0.228155
-0.034711663 0.12128767 -0.22814934
-0.034155503 0.121304 -0.228195
-0.033352334 0.12129867 -0.22813232
-0.032821499 0.1213105 -0.22812501
-0.032390498 0.121292 -0.228139
-0.031972002 0.121304 -0.22810434
-0.031556334 0.12127534 -0.228038
-0.031083001 0.121393 -0.228001
-0.030440001 0.12129366 -0.22802234
-0.010064499 0.121301 -0.2280795
-0.0098390002 0.121266 -0.22819699
-0.034703001 0.121507 -0.22814965
-0.034149669 0.12148366 -0.22816966
-0.033343334 0.12151966 -0.22814535
-0.032814331 0.12149266 -0.228122
-0.032382999 0.12147633 -0.22814266
-0.031963002 0.12152333 -0.22810765
-0.031547666 0.12149534 -0.22804733
-0.031078499 0.121503 -0.2280035
-0.030431665 0.121513 -0.22802301
-0.010261 0.121563 -0.228035
-0.010055333 0.12149167 -0.22811933
-0.034695499 0.12169 -0.228157
-0.034143001 0.121631 -0.22818799
-0.033336498 0.1217 -0.2281405
-0.032805998 0.12171067 -0.228119
-0.032375336 0.12169132 -0.22812033
-0.031955503 0.1217055 -0.22811201
-0.031538997 0.12171467 -0.22805132
-0.031068999 0.1217235 -0.22801
-0.030423999 0.121696 -0.228028
-0.010252 0.1216875 -0.228126
-0.034688 0.12187367 -0.22817034
-0.033327669 0.121888 -0.22816832
-0.032797001 0.121899 -0.22815999
-0.032364666 0.121916 -0.22816034
-0.031947669 0.121891 -0.22812533
-0.031530999 0.1218995 -0.228066
-0.031060332 0.12191134 -0.22804733
-0.030414665 0.12188667 -0.22808166
-0.010492 0.121941 -0.228029
-0.034681 0.122024 -0.228195
-0.032791 0.122012 -0.228182
-0.032357 0.122068 -0.228194
-0.031937335 0.12211633 -0.228167
-0.031521667 0.12208867 -0.228108
-0.031052001 0.12209851 -0.228072
-0.030405499 0.122075 -0.22812
-0.030399 0.12219 -0.228156
-0.028814999 0.122164 -0.228017
-0.010484333 0.12209333 -0.22805767
-0.031509336 0.12231866 -0.22817467
-0.031042999 0.122285 -0.22810233
-0.030394999 0.122268 -0.228184
-0.0297065 0.1223145 -0.228025
-0.02919 0.12228701 -0.22803199
-0.028806334 0.12231933 -0.22807266
-0.028303999 0.1223285 -0.22801501
-0.027419001 0.122325 -0.228008
-0.010476333 0.122313 -0.22804801
-0.031502001 0.122469 -0.22819901
-0.031032 0.1224785 -0.22817101
-0.029695332 0.12250967 -0.22809868
-0.029178999 0.12248266 -0.22810532
-0.028797001 0.122509 -0.228113
-0.028294003 0.12252066 -0.228073
-0.027842 0.12249333 -0.22803633
-0.027410334 0.12247833 -0.22805266
-0.010468001 0.1225 -0.228071
-0.029685 0.12270249 -0.228163
-0.029167667 0.12271034 -0.22815633
-0.028787667 0.12269934 -0.22815867
-0.028283499 0.1227115 -0.22813299
-0.027830666 0.12272067 -0.22808667
-0.027402001 0.122666 -0.2280795
-0.027396999 0.122779 -0.228095
-0.025672 0.122759 -0.228003
-0.025164999 0.1227015 -0.2280225
-0.01046 0.12268733 -0.22808766
-0.028275501 0.122866 -0.22817999
-0.02782 0.122914 -0.22815
-0.027390501 0.1228945 -0.22813201
-0.025662333 0.12291533 -0.22806768
-0.025154667 0.12289367 -0.22807932
-0.024933999 0.122946 -0.22802199
-0.010450668 0.12291033 -0.22809601
-0.027814001 0.12303 -0.228191
-0.027383 0.123013 -0.228185
-0.0256515 0.12311 -0.22814
-0.025144499 0.12308601 -0.228139
-0.024925001 0.123101 -0.22808333
-0.024693999 0.123153 -0.228026
-0.010441 0.123072 -0.22818001
-0.025645001 0.123227 -0.22818699
-0.025137 0.123204 -0.22819
-0.024913501 0.123298 -0.228166
-0.024686001 0.12330767 -0.22807498
-0.024443999 0.12328932 -0.22803901
-0.022413 0.1233155 -0.228018
-0.021988999 0.123334 -0.228026
-0.010759001 0.12329367 -0.22809999
-0.024907 0.123413 -0.22819699
-0.024675 0.123503 -0.228149
-0.024431 0.12352366 -0.22812766
-0.022404 0.123471 -0.22807601
-0.022397 0.123588 -0.228117
-0.021980001 0.12349033 -0.22807734
-0.021561 0.12350149 -0.228044
-0.021113999 0.123551 -0.22803099
-0.020652333 0.123494 -0.22803068
-0.02036 0.12348 -0.22803999
-0.020141501 0.1235135 -0.22804999
-0.012047 0.123563 -0.228027
-0.011611 0.123541 -0.228027
-0.011169 0.1234965 -0.2281
-0.010748 0.123458 -0.2282
-0.024666334 0.123691 -0.22817433
-0.0244225 0.123711 -0.22815201
-0.022390999 0.1237045 -0.228158
-0.021968668 0.12371867 -0.22812934
-0.021551669 0.12369066 -0.228076
-0.021106999 0.123704 -0.22806901
-0.020641332 0.12372166 -0.22807533
-0.020348668 0.12371 -0.22809534
-0.020133002 0.12370334 -0.22808367
-0.019921668 0.12368333 -0.22801767
-0.012521 0.123727 -0.22801501
-0.0120365 0.1236925 -0.22814599
-0.011602 0.123633 -0.228149
-0.01116 0.123622 -0.22819801
-0.024416 0.123826 -0.228186
-0.022384999 0.123821 -0.228193
-0.02196 0.123875 -0.228183
-0.021540999 0.1238855 -0.228145
-0.021096 0.12389667 -0.22812633
-0.0206315 0.1239135 -0.22812399
-0.020339001 0.12390099 -0.22813401
-0.0201235 0.1238935 -0.228122
-0.019909333 0.12391466 -0.22808735
-0.019192001 0.123936 -0.228003
-0.012513667 0.12388 -0.228049
-0.012027667 0.12388266 -0.22817934
-0.021534 0.124005 -0.22819699
-0.021088 0.124052 -0.228176
-0.020623 0.1240685 -0.22817099
-0.020331999 0.124018 -0.228183
-0.020116 0.124011 -0.228173
-0.0198985 0.1241105 -0.228157
-0.019676 0.124081 -0.2280535
-0.019437999 0.1241425 -0.22805899
-0.019183332 0.12409233 -0.22805567
-0.018856665 0.12407866 -0.22804399
-0.018342 0.124131 -0.228038
-0.012502 0.12411033 -0.22810133
-0.019666001 0.1242405 -0.228136
-0.019427001 0.1243045 -0.228156
-0.019172 0.124255 -0.22815099
-0.018844999 0.124244 -0.228156
-0.018331999 0.12429366 -0.22813267
-0.0178755 0.1243035 -0.22806001
-0.0174435 0.1242815 -0.228053
-0.017016999 0.12434 -0.228074
-0.016597001 0.124352 -0.228028
-0.016162001 0.124328 -0.22801401
-0.015662 0.124378 -0.22801
-0.01541 0.124368 -0.22800501
-0.012975 0.124339 -0.228026
-0.012492999 0.124302 -0.22814301
-0.017866001 0.124432 -0.228166
-0.017434999 0.124406 -0.22813401
-0.016588001 0.124444 -0.228136
-0.016152 0.124456 -0.22811499
-0.0156505 0.1245105 -0.228148
-0.015402 0.124458 -0.228101
-0.015397 0.124539 -0.22814301
-0.0151535 0.1244825 -0.228091
-0.01492 0.12455051 -0.22811851
-0.014703 0.124562 -0.228044
-0.012968 0.124456 -0.22806001
-0.012484999 0.1244565 -0.2281805
-0.014693 0.124655 -0.228166
-0.016145 0.087678999 -0.22794767
-0.015274 0.087778002 -0.227988
-0.017581001 0.087943003 -0.227991
-0.017084001 0.087949999 -0.22799399
-0.016832 0.087940998 -0.227991
-0.016584 0.087926999 -0.228
-0.016355667 0.087912671 -0.22797
-0.016139667 0.087902665 -0.22787566
-0.0152715 0.0878895 -0.227947
-0.017575001 0.088125326 -0.22796966
-0.017078666 0.088096999 -0.22797866
-0.016826333 0.088086002 -0.22798567
-0.0163495 0.088093996 -0.227962
-0.016131334 0.088119663 -0.22787166
-0.015266667 0.088074662 -0.22789967
-0.0143895 0.088135496 -0.22794449
-0.0175675 0.088306002 -0.22797349
-0.017070999 0.088316999 -0.22795467
-0.016819499 0.088266999 -0.227991
-0.016342668 0.088276327 -0.22795133
-0.016125001 0.088303 -0.227856
-0.015258 0.088291667 -0.22790234
-0.014385667 0.088320337 -0.22788733
-0.017560333 0.088486671 -0.22798266
-0.0170635 0.088496998 -0.227965
-0.016806999 0.088593997 -0.22797699
-0.016333999 0.088492997 -0.22795467
-0.016117333 0.088482998 -0.227865
-0.015248333 0.088507332 -0.22792368
-0.0143775 0.088500001 -0.227908
-0.013894 0.088541999 -0.227992
-0.018409001 0.088752002 -0.22797599
-0.017552333 0.088704668 -0.22796901
-0.017057667 0.088678665 -0.22794665
-0.016804501 0.088705003 -0.22794101
-0.016553 0.088761501 -0.227971
-0.016327666 0.088714667 -0.22790267
-0.016109668 0.088701338 -0.22784901
-0.015242 0.0886885 -0.227917
-0.014369667 0.088680327 -0.22792132
-0.013888501 0.088688001 -0.22798601
-0.018405 0.088825002 -0.227992
-0.017981499 0.088911504 -0.22797701
-0.017547 0.088887498 -0.2279405
-0.01705 0.088898003 -0.22792
-0.016797667 0.088887669 -0.22793199
-0.016547501 0.088908002 -0.22795451
-0.016321499 0.088897005 -0.22788
-0.015237334 0.088874996 -0.22785766
-0.014363334 0.088902332 -0.22786999
-0.013884333 0.088873327 -0.22792667
-0.017975001 0.089093 -0.22796233
-0.017541667 0.089072667 -0.22789668
-0.017042 0.089118004 -0.22790468
-0.016790001 0.089106001 -0.22790934
-0.016541667 0.089091003 -0.22792733
-0.016314 0.089076996 -0.22789733
-0.015228999 0.089091994 -0.22785033
-0.014355 0.089120001 -0.22786434
-0.013876666 0.089093 -0.22790468
-0.013392501 0.089096002 -0.22799499
-0.017966 0.089308999 -0.22797899
-0.017532999 0.089290328 -0.22789998
-0.017035 0.089298002 -0.227909
-0.016781 0.089323007 -0.22792666
-0.016533 0.089308329 -0.22793168
-0.016305666 0.089294337 -0.22789668
-0.016087499 0.089321002 -0.2278035
-0.015220334 0.089309998 -0.22785366
-0.014348 0.089299999 -0.2278735
-0.013865666 0.089305334 -0.22796033
-0.017957333 0.089525662 -0.22797833
-0.017523667 0.089506 -0.22791566
-0.017027998 0.089478672 -0.22790933
-0.0167735 0.089502998 -0.227929
-0.016525 0.089525998 -0.22792433
-0.016297 0.089511 -0.22789533
-0.015212334 0.089528002 -0.22784734
-0.014341 0.089481331 -0.22787134
-0.013856 0.089520998 -0.22798233
-0.017951 0.089707501 -0.22796401
-0.017517 0.089725673 -0.22788031
-0.017020334 0.089697003 -0.227892
-0.016767999 0.089685999 -0.22790535
-0.016518999 0.0897085 -0.22790399
-0.016291 0.089693502 -0.22788399
-0.015206 0.089708 -0.22783551
-0.014331333 0.08969634 -0.22789633
-0.01385 0.089665003 -0.22799601
-0.0192215 0.089851998 -0.22799399
-0.018787 0.089899503 -0.227988
-0.018362001 0.089946002 -0.22798899
-0.017945001 0.089890666 -0.22794168
-0.017509501 0.089906 -0.22788
-0.017013667 0.089917332 -0.22784768
-0.016760668 0.089904338 -0.22787867
-0.016512334 0.089889668 -0.22789435
-0.016285 0.089877337 -0.22785001
-0.015203 0.089821003 -0.22780301
-0.015197 0.089965001 -0.22781099
-0.014323332 0.089915335 -0.22787833
-0.019212 0.090103999 -0.227999
-0.018780999 0.0900435 -0.2279925
-0.0183565 0.090090998 -0.22799
-0.017937001 0.090108998 -0.22792701
-0.017503334 0.090088338 -0.22786565
-0.0170065 0.090096995 -0.2278575
-0.016752666 0.090122998 -0.22786801
-0.016503999 0.090106994 -0.22788966
-0.016276 0.090094 -0.22785668
-0.015191667 0.090108998 -0.22781067
-0.014318001 0.090098001 -0.22783899
-0.013834667 0.090103 -0.22796099
-0.019203 0.090322003 -0.228
-0.018349001 0.090271331 -0.22799766
-0.017927999 0.090324007 -0.22794466
-0.017494999 0.090305001 -0.22786634
-0.017002 0.090204 -0.22786599
-0.016997501 0.090314001 -0.22786701
-0.0167445 0.090302497 -0.227891
-0.016495334 0.090324998 -0.22788835
-0.016267667 0.09031 -0.22786166
-0.015183001 0.090325333 -0.22781467
-0.014315 0.090209998 -0.22781099
-0.013827999 0.090323329 -0.22791965
-0.018340001 0.090487994 -0.22799899
-0.017919499 0.090503998 -0.2279675
-0.017485 0.090519004 -0.22790366
-0.016989334 0.090493329 -0.22789033
-0.016735999 0.090480663 -0.22791801
-0.0164875 0.090503499 -0.227916
-0.016258335 0.090526007 -0.22787833
-0.016038001 0.090586998 -0.22780301
-0.015175 0.090505004 -0.22782999
-0.014303667 0.090498328 -0.22781967
-0.013822 0.090506002 -0.227896
-0.017912 0.090683997 -0.22797699
-0.017477501 0.090699002 -0.227916
-0.016982334 0.090711333 -0.22786433
-0.016727334 0.090698004 -0.22792466
-0.016479 0.090683334 -0.22794034
-0.016251 0.090705998 -0.22788599
-0.016036 0.090658002 -0.227801
-0.015167668 0.090686329 -0.22783534
-0.014294334 0.090714999 -0.22783832
-0.013813999 0.090686001 -0.22790967
-0.017904 0.090902001 -0.22796868
-0.017471001 0.090880997 -0.227899
-0.016975001 0.090893 -0.22786501
-0.016719334 0.09091533 -0.22791433
-0.016471334 0.090900995 -0.22792701
-0.016244 0.090887338 -0.22788167
-0.015159667 0.090903662 -0.22782266
-0.0142875 0.090895504 -0.227833
-0.013805668 0.090902664 -0.22791301
-0.0133215 0.090908498 -0.227997
-0.017896 0.091119327 -0.22796802
-0.017461998 0.09109766 -0.22791032
-0.016967 0.091072001 -0.22788633
-0.016713001 0.091096997 -0.22789851
-0.016462998 0.091118999 -0.22791433
-0.016236 0.091105334 -0.22788034
-0.015151001 0.091120668 -0.22782934
-0.014279666 0.091075003 -0.22785366
-0.013796333 0.091119327 -0.227935
-0.017888 0.091298997 -0.22797999
-0.017453 0.091315001 -0.22791798
-0.016958 0.091289006 -0.22790234
-0.016705999 0.091277003 -0.22790734
-0.016455501 0.091298997 -0.22792301
-0.016227001 0.091322005 -0.22788434
-0.016008001 0.091381997 -0.22780199
-0.015144 0.091302 -0.227827
-0.01427 0.091291666 -0.227871
-0.013787 0.091297999 -0.227983
-0.017881667 0.091480672 -0.22797334
-0.017445501 0.091494001 -0.22793549
-0.016949 0.091504999 -0.22790901
-0.016696 0.091493994 -0.22792433
-0.016448334 0.091479003 -0.22793166
-0.0162195 0.091501996 -0.227899
-0.015136999 0.091482006 -0.22782533
-0.014261 0.091508001 -0.22789633
-0.013782 0.091406003 -0.22799399
-0.017874001 0.091699339 -0.22794533
-0.017439 0.091675997 -0.22792101
-0.016940666 0.091722004 -0.22790833
-0.016688334 0.091711998 -0.22791301
-0.016439999 0.091697 -0.22792368
-0.016213667 0.091684662 -0.22786701
-0.015129332 0.091700673 -0.22781932
-0.014251001 0.091722667 -0.22792535
-0.018705999 0.091962002 -0.228
-0.017865 0.09191633 -0.22795267
-0.017431 0.091894001 -0.22790533
-0.016934 0.091903999 -0.227899
-0.016681999 0.091893502 -0.22789
-0.016432 0.091915004 -0.22791801
-0.016205667 0.091903001 -0.22785567
-0.015120999 0.091917999 -0.22781134
-0.0142455 0.091906503 -0.2278865
-0.018701501 0.092069998 -0.22799501
-0.0178585 0.092096999 -0.227955
-0.017423002 0.092111327 -0.227906
-0.016927002 0.092083998 -0.22789633
-0.016674666 0.092074335 -0.227907
-0.016424499 0.092096001 -0.2279245
-0.016197002 0.092120327 -0.22785501
-0.0151135 0.092098996 -0.22782099
-0.01424 0.09208966 -0.22785167
-0.017850332 0.092277668 -0.22797267
-0.017413 0.092326999 -0.22793134
-0.016917998 0.092300661 -0.22791235
-0.016666001 0.092290998 -0.22791032
-0.016418001 0.092276998 -0.22792299
-0.016189501 0.092298999 -0.227872
-0.015106 0.09228 -0.22781999
-0.014233001 0.092308007 -0.22782467
-0.013749 0.092276335 -0.227975
-0.017842501 0.092456996 -0.227997
-0.017405 0.092506006 -0.227956
-0.016908333 0.092516996 -0.22793533
-0.016655998 0.092506327 -0.227935
-0.016407998 0.092492998 -0.22794467
-0.016182 0.092479326 -0.22788501
-0.015963499 0.092504002 -0.2278055
-0.015096334 0.092494339 -0.22785334
-0.014222334 0.092523001 -0.22786467
-0.013742 0.09249533 -0.227942
-0.017832 0.092747495 -0.227979
-0.017398 0.092687666 -0.22795534
-0.0169005 0.092697002 -0.2279485
-0.016647333 0.092723005 -0.22794901
-0.016402001 0.092637002 -0.22795799
-0.016397499 0.092744999 -0.227965
-0.016172335 0.092695333 -0.22791366
-0.015955999 0.092684001 -0.22781999
-0.015087999 0.092711665 -0.22784901
-0.014214501 0.092703 -0.22788799
-0.013734333 0.092712663 -0.22793601
-0.017826501 0.092893004 -0.22796899
-0.017389668 0.092905007 -0.227952
-0.016895333 0.092880338 -0.22790898
-0.016640499 0.092904001 -0.22793999
-0.016393 0.092891999 -0.227937
-0.016165666 0.092914335 -0.227874
-0.015949 0.092864998 -0.22781199
-0.0150825 0.092894502 -0.2278215
-0.014208 0.09288466 -0.22787799
-0.0137275 0.092894003 -0.22793099
-0.017819 0.093073003 -0.22797734
-0.017381666 0.093122333 -0.22794199
-0.016887 0.093096673 -0.22791065
-0.016634 0.093086332 -0.22792767
-0.016386667 0.093072332 -0.22792466
-0.0161575 0.093095005 -0.2278955
-0.015074999 0.093075 -0.22782467
-0.014203 0.093029998 -0.22786801
-0.014198 0.093138002 -0.22787499
-0.013718333 0.093073331 -0.22797199
-0.017810667 0.093289673 -0.22797866
-0.017374501 0.093304001 -0.227943
-0.016877333 0.093312331 -0.22793466
-0.016625 0.093302995 -0.22793634
-0.016378 0.093290329 -0.22793202
-0.01615 0.093275003 -0.22789766
-0.015930999 0.093335003 -0.22780301
-0.015066333 0.093291998 -0.22783168
-0.014189333 0.09331733 -0.22791733
-0.013711 0.093217 -0.228
-0.017803501 0.093470998 -0.22797799
-0.0178 0.093580998 -0.22795901
-0.017367 0.093484335 -0.22794934
-0.0168695 0.093493499 -0.227945
-0.016616667 0.093520336 -0.227934
-0.016368667 0.093506336 -0.227946
-0.016142001 0.093492329 -0.22789268
-0.015058 0.093508668 -0.22783099
-0.0141805 0.093497001 -0.22794899
-0.019068001 0.093796 -0.227992
-0.017794333 0.093724996 -0.227961
-0.017359333 0.093701668 -0.22794001
-0.016863666 0.093675338 -0.22792535
-0.01661 0.093701497 -0.22792549
-0.016362 0.093725003 -0.22790933
-0.016134666 0.093710996 -0.22786933
-0.0150515 0.09369 -0.22782201
-0.014173 0.093677998 -0.22795267
-0.019064501 0.093905002 -0.22798049
-0.018626999 0.093989 -0.227999
-0.018207667 0.093890667 -0.22799599
-0.017787501 0.093906499 -0.22795901
-0.017352 0.093920328 -0.22790967
-0.016856669 0.093894333 -0.22789268
-0.016604334 0.093883336 -0.22789831
-0.0163555 0.093906999 -0.22789201
-0.016129 0.093893498 -0.227835
-0.014165333 0.093895674 -0.22794001
-0.019058499 0.094049998 -0.227992
-0.018623 0.094097503 -0.227988
-0.018203 0.094035998 -0.22798
-0.018198501 0.094145998 -0.22798401
-0.017780999 0.094087332 -0.227953
-0.017345499 0.094100997 -0.22789651
-0.016848667 0.094111003 -0.22788267
-0.016595999 0.094101332 -0.22789533
-0.016348334 0.094087996 -0.22789401
-0.016122 0.094074667 -0.22782801
-0.015037 0.094089001 -0.22780533
-0.014159667 0.094115674 -0.22788334
-0.018617 0.0942415 -0.227993
-0.0181925 0.094290003 -0.227993
-0.017771998 0.094303995 -0.22796369
-0.017337998 0.094281673 -0.22791399
-0.016841501 0.094292998 -0.22788501
-0.016586998 0.094318002 -0.22790267
-0.016339667 0.094304658 -0.22790332
-0.016112 0.094289996 -0.227862
-0.015027666 0.094305664 -0.227817
-0.014154499 0.094296999 -0.22784999
-0.017762333 0.094521008 -0.22798033
-0.017328667 0.094498001 -0.227929
-0.016834 0.094473004 -0.22789933
-0.016579501 0.094498001 -0.22792101
-0.016329998 0.094520003 -0.22793233
-0.016103001 0.094506003 -0.22787666
-0.0158845 0.094529003 -0.227809
-0.015018 0.094521008 -0.22784667
-0.014145333 0.094477333 -0.227888
-0.013661667 0.094522662 -0.227983
-0.018595999 0.094783999 -0.227998
-0.017756 0.094702497 -0.227972
-0.017322 0.094717331 -0.22788699
-0.016825 0.094689667 -0.22790267
-0.016572334 0.094678663 -0.22791934
-0.016322501 0.094701 -0.22794199
-0.016094333 0.094723336 -0.22788399
-0.015877999 0.094711006 -0.2278015
-0.01501 0.094701998 -0.227862
-0.014135666 0.094694339 -0.22791533
-0.0136545 0.094704002 -0.2279775
-0.018591501 0.094891995 -0.2279925
-0.018166501 0.094940998 -0.227997
-0.017750001 0.094884336 -0.22793967
-0.017315499 0.094898 -0.22787
-0.016818 0.094907664 -0.22787733
-0.016564667 0.094896995 -0.22790267
-0.016315667 0.094882667 -0.22793067
-0.016087499 0.094905004 -0.22788
-0.015003666 0.094882995 -0.22785001
-0.014128666 0.094911665 -0.22788365
-0.013647 0.094886005 -0.22798
-0.01902 0.095026001 -0.22799601
-0.018585002 0.095073998 -0.227993
-0.01816 0.095123 -0.22798634
-0.017742999 0.095102996 -0.22792166
-0.017308334 0.095078669 -0.22787701
-0.01681 0.095126003 -0.227861
-0.016556667 0.095114328 -0.22789
-0.016308332 0.095100999 -0.22790635
-0.016080668 0.095086664 -0.22787066
-0.014995334 0.095100999 -0.22784199
-0.0141225 0.095092997 -0.2278675
-0.013638667 0.095102668 -0.22798498
-0.019011 0.095243998 -0.227999
-0.018575998 0.095290005 -0.22799735
-0.018152501 0.095303997 -0.227993
-0.017734 0.095319003 -0.227926
-0.017299667 0.095295995 -0.22787969
-0.016803 0.095306002 -0.22786149
-0.0165495 0.095294997 -0.22789
-0.016299998 0.095317662 -0.22790499
-0.016073 0.095303334 -0.22785968
-0.014987667 0.09531834 -0.22782134
-0.014114999 0.095275007 -0.22787267
-0.013630333 0.095320664 -0.22798167
-0.018145667 0.095483996 -0.22798966
-0.0177265 0.0955 -0.227929
-0.017291 0.095513336 -0.22788167
-0.016795998 0.095487334 -0.22785933
-0.016543666 0.095477007 -0.227874
-0.0162935 0.095499001 -0.22789949
-0.016065 0.095522009 -0.22784567
-0.014980501 0.095499001 -0.227826
-0.014104334 0.095490336 -0.22791833
-0.013624 0.095463999 -0.228
-0.018991999 0.095748998 -0.227989
-0.018557999 0.095760502 -0.2279865
-0.018138334 0.095701665 -0.22796966
-0.017720001 0.095681667 -0.22792132
-0.017285001 0.095694497 -0.227856
-0.016788334 0.095704667 -0.227843
-0.016535999 0.095693998 -0.22785668
-0.016286667 0.095679663 -0.22788699
-0.016061001 0.095668003 -0.227807
-0.014977 0.095608003 -0.227817
-0.014095333 0.095706999 -0.22793035
-0.019445 0.095913 -0.22799601
-0.018987667 0.095895 -0.22796202
-0.018554501 0.095907502 -0.227946
-0.018131332 0.095919333 -0.22793932
-0.017713333 0.095899336 -0.22788399
-0.017279668 0.095876999 -0.227823
-0.016781 0.095922999 -0.22782166
-0.016528999 0.095912337 -0.22782235
-0.016280001 0.095898665 -0.22784467
-0.014088334 0.095925003 -0.22789633
-0.018979 0.096112333 -0.22796202
-0.018547334 0.096089005 -0.22794533
-0.0181245 0.096100003 -0.227937
-0.017704999 0.096115999 -0.22788
-0.017275 0.096019998 -0.22781
-0.0167735 0.096102998 -0.22782749
-0.016521499 0.096093506 -0.227835
-0.016271666 0.096115328 -0.22784667
-0.016044 0.096101999 -0.22780633
-0.014084 0.096109003 -0.227834
-0.0135975 0.096152499 -0.22798851
-0.018971499 0.096293002 -0.22797701
-0.018538998 0.096305005 -0.22794533
-0.018117001 0.096282005 -0.22794168
-0.0176975 0.096298002 -0.22788399
-0.017263332 0.09631034 -0.22781867
-0.016766001 0.096282996 -0.22783299
-0.016513333 0.096273005 -0.22785068
-0.0162635 0.096295998 -0.22787499
-0.016035 0.096316665 -0.22783066
-0.014078 0.096289665 -0.22781634
-0.013592 0.096298002 -0.227981
-0.018964 0.096473001 -0.227988
-0.01853 0.096521325 -0.227962
-0.018108001 0.09649799 -0.22795399
-0.017690999 0.096478008 -0.22788532
-0.017254001 0.096527003 -0.22783799
-0.016757334 0.096499674 -0.22784598
-0.016503999 0.096490003 -0.22786833
-0.016255999 0.096475996 -0.22788133
-0.016027 0.096498996 -0.22784251
-0.014943 0.096475996 -0.22781867
-0.014068 0.096506 -0.22784966
-0.013586666 0.096480332 -0.22794901
-0.018955333 0.096689999 -0.22798733
-0.018523 0.096702501 -0.227953
-0.018100666 0.096715666 -0.22793333
-0.017682999 0.096695997 -0.22786534
-0.017248001 0.096708 -0.227817
-0.016749335 0.096717335 -0.22783734
-0.016496999 0.096707337 -0.22783701
-0.016248001 0.096694 -0.22786467
-0.01602 0.096678667 -0.22784567
-0.0149355 0.096657 -0.227826
-0.014060001 0.096722998 -0.22783832
-0.013578333 0.096697003 -0.22795166
-0.018949332 0.096908666 -0.22794099
-0.018516667 0.096884005 -0.22793801
-0.018095 0.096896999 -0.227907
-0.017676333 0.096914001 -0.227827
-0.017240999 0.096890002 -0.22780335
-0.0167435 0.096899003 -0.227808
-0.016489668 0.096924998 -0.22781734
-0.016240999 0.096912332 -0.22783333
-0.016014 0.096860997 -0.227814
-0.014053499 0.096904501 -0.227825
-0.013571001 0.096915998 -0.22792234
-0.018941 0.097125001 -0.22793166
-0.018509667 0.097101003 -0.22791199
-0.018088 0.097079001 -0.22790401
-0.017668501 0.097093001 -0.2278555
-0.017231999 0.097106002 -0.22781467
-0.0167355 0.097116001 -0.22780299
-0.0164825 0.097106002 -0.2278235
-0.0162345 0.097092003 -0.22782001
-0.014047 0.097085662 -0.22781299
-0.013564 0.097097501 -0.227917
-0.018933501 0.097305998 -0.22793901
-0.018501 0.097318999 -0.22791833
-0.018079333 0.097295664 -0.22790533
-0.017661 0.097274996 -0.22786067
-0.017223334 0.097323336 -0.22781901
-0.016728001 0.097297333 -0.22780401
-0.016475668 0.097286008 -0.22781433
-0.016227668 0.097274005 -0.22782065
-0.014037666 0.097302668 -0.22783034
-0.013556 0.097277999 -0.227935
-0.019382333 0.097503997 -0.22799599
-0.018927 0.097487003 -0.22793432
-0.0184935 0.097498998 -0.2279225
-0.018071001 0.097512998 -0.22790933
-0.017651999 0.097490996 -0.22786701
-0.0172175 0.097504005 -0.22780651
-0.016466668 0.097503997 -0.22782201
-0.016218001 0.097490668 -0.22783868
-0.014907 0.097416997 -0.22780301
-0.014028001 0.097519338 -0.22786333
-0.013546 0.097494662 -0.22797365
-0.020702999 0.097790003 -0.22799
-0.020471333 0.097703665 -0.22797932
-0.019375334 0.097722329 -0.22796468
-0.018919999 0.097704999 -0.22790499
-0.018487334 0.097681008 -0.22790267
-0.018064 0.097693503 -0.227897
-0.017645333 0.097709 -0.22782634
-0.016212 0.097671002 -0.227828
-0.014021 0.097700998 -0.2278565
-0.013539 0.097639002 -0.22799601
-0.0207 0.097899497 -0.227973
-0.020465666 0.097922675 -0.227924
-0.020207666 0.097909003 -0.22796667
-0.019878499 0.097928502 -0.22799301
-0.019370001 0.097904995 -0.227929
-0.018912999 0.097923003 -0.22787035
-0.018480333 0.097897999 -0.22787233
-0.018059 0.097874664 -0.227854
-0.017635001 0.097998999 -0.22780301
-0.014015666 0.09788233 -0.22782433
-0.020693667 0.098079659 -0.22795002
-0.020458501 0.098102503 -0.227925
-0.020202 0.098053001 -0.22797
-0.0201975 0.098160997 -0.227979
-0.019362332 0.098085009 -0.22794533
-0.0189055 0.098104 -0.22788301
-0.018471666 0.098115332 -0.22787434
-0.018051 0.098091669 -0.22785001
-0.017631 0.098106995 -0.227807
-0.014011 0.098026998 -0.22780401
-0.013524 0.098073997 -0.22796233
-0.020685 0.098259501 -0.227988
-0.020450002 0.098283 -0.227956
-0.020190999 0.098305002 -0.227991
-0.019353667 0.098301001 -0.22794934
-0.018896999 0.098284006 -0.22790301
-0.0184645 0.098296002 -0.22787601
-0.018041333 0.098308004 -0.22787233
-0.017623333 0.098287009 -0.22781833
-0.013518001 0.098292001 -0.227908
-0.020441001 0.098499 -0.22797067
-0.0201835 0.098485999 -0.2279955
-0.019344 0.098517001 -0.22797167
-0.018887999 0.098499991 -0.22792034
-0.018456999 0.098476 -0.22788566
-0.018032001 0.098526001 -0.22788966
-0.017614335 0.098503999 -0.22782566
-0.0161785 0.098539002 -0.22781101
-0.013510999 0.098509997 -0.22788
-0.020432666 0.098716326 -0.22796267
-0.020176001 0.098702997 -0.22798
-0.019338001 0.098697998 -0.22796151
-0.018880667 0.098716997 -0.22790034
-0.018448999 0.098693334 -0.22787534
-0.018025 0.098706 -0.227892
-0.017607002 0.098720998 -0.22780834
-0.016175 0.098646998 -0.227801
-0.013502668 0.098726332 -0.22787267
-0.0130175 0.098738 -0.22797
-0.020662 0.098874331 -0.22797666
-0.020427 0.098897502 -0.227934
-0.020168001 0.098920338 -0.22796965
-0.019839499 0.09894 -0.2279865
-0.019332668 0.098879337 -0.22791934
-0.018874999 0.098898999 -0.22786701
-0.018441668 0.098909669 -0.227854
-0.018019 0.098886669 -0.227865
-0.013496 0.098908 -0.227862
-0.013011334 0.098919995 -0.22794999
-0.020654667 0.099091329 -0.227946
-0.020421 0.099078 -0.22791068
-0.0201605 0.0991005 -0.22797251
-0.019832999 0.09912201 -0.22797899
-0.019324001 0.099096663 -0.22791499
-0.018869 0.099079005 -0.22784932
-0.018433999 0.099126995 -0.22784467
-0.018011333 0.099104337 -0.22784901
-0.013489333 0.099088997 -0.22785467
-0.013005 0.099100001 -0.22793299
-0.020646999 0.099309325 -0.22792967
-0.020412 0.09929534 -0.22792466
-0.020153999 0.099281333 -0.22796865
-0.0198255 0.099301502 -0.227981
-0.019315667 0.099313997 -0.22791566
-0.018859999 0.09929534 -0.22785866
-0.0184265 0.099307001 -0.227854
-0.018004499 0.099284999 -0.22784901
-0.017999999 0.099393003 -0.227851
-0.013479333 0.09930601 -0.227892
-0.012998 0.099244997 -0.227973
-0.020638 0.09952601 -0.22793865
-0.020403666 0.099512003 -0.22792435
-0.020145668 0.099498004 -0.22796834
-0.019818667 0.099482663 -0.22797966
-0.019308999 0.099492997 -0.2279115
-0.018851999 0.099512339 -0.22784932
-0.018419333 0.099489003 -0.22785135
-0.017996 0.099500999 -0.22784299
-0.013955 0.099473998 -0.227801
-0.013468668 0.099522673 -0.22793134
-0.020856 0.099757999 -0.22798701
-0.0206315 0.099705502 -0.2279335
-0.020397 0.099692501 -0.227909
-0.020139001 0.09971533 -0.22793233
-0.019811668 0.099699996 -0.22794934
-0.019303 0.099675 -0.22788967
-0.018846 0.099693999 -0.22783101
-0.018413499 0.099669002 -0.227827
-0.017992001 0.099646002 -0.2278225
-0.0134605 0.099703997 -0.227953
-0.0208515 0.099866003 -0.227992
-0.020625999 0.099887006 -0.22789699
-0.020392334 0.099873662 -0.22786701
-0.020133499 0.099895999 -0.2278945
-0.019804999 0.099918 -0.22790933
-0.019295335 0.099892326 -0.22787066
-0.018843001 0.099800996 -0.227805
-0.013454 0.099884667 -0.227944
-0.020842999 0.100082 -0.2279985
-0.020617666 0.100103 -0.22790067
-0.020384334 0.10009 -0.227853
-0.020126665 0.10007667 -0.22789432
-0.0197975 0.100098 -0.22792399
-0.019287668 0.10010866 -0.22785534
-0.018395999 0.100139 -0.22780301
-0.013449001 0.10010234 -0.22786866
-0.020607332 0.10032033 -0.22793134
-0.020375 0.10030667 -0.22787935
-0.020117335 0.10029433 -0.227907
-0.019789333 0.100278 -0.22794199
-0.019278333 0.10032534 -0.22787601
-0.018822666 0.100307 -0.22781366
-0.01839 0.100284 -0.22781467
-0.017965 0.100333 -0.227808
-0.013443333 0.10031966 -0.22781433
-0.0129545 0.100333 -0.22799049
