-0.0592485 -0.152759 0.986486 0
-0.0631813 -0.152362 0.986303 0.000426207
-0.0697032 -0.154885 0.985471 0.00137181
-0.0784357 -0.154627 0.984855 0.00585408
-0.0859117 -0.15176 0.984677 0.0090861
-0.0818377 -0.150571 0.985206 0.00864814
0.184204 -0.151543 0.971135 0.00564525
0.203085 -0.147339 0.968012 0.00234007
-0.0544843 -0.144821 0.987957 0
-0.0540971 -0.143805 0.988126 0
-0.0552275 -0.146847 0.987616 0
-0.0558999 -0.141834 0.988311 0
-0.0595744 -0.144543 0.987704 0.000219185
-0.06391 -0.14511 0.987349 7.34419e-05
-0.0715247 -0.143289 0.987093 0.00394191
-0.0778351 -0.14409 0.986499 0.00255715
-0.0857237 -0.142852 0.986025 0.00781922
-0.0817273 -0.143788 0.986228 0.00807743
0.202923 -0.136392 0.969649 0.000813778
0.226883 -0.13887 0.963971 0.00414537
-0.0559993 -0.129731 0.989967 0.00201484
-0.0549539 -0.135221 0.98929 0
-0.054224 -0.136241 0.989191 0
-0.0561752 -0.136768 0.989009 0
-0.0598872 -0.138088 0.988608 0
-0.0650942 -0.136936 0.988439 0.00180552
-0.0710587 -0.138135 0.987861 0.00279594
-0.0869211 -0.135988 0.98689 0.00974986
-0.0810209 -0.136683 0.987296 0.00770951
0.20594 -0.132491 0.969554 0.00279144
0.227012 -0.133985 0.964631 0.00255002
-0.0543389 -0.116677 0.991682 0
-0.057731 -0.12203 0.990846 0.00369989
-0.0559502 -0.124852 0.990597 0.000721221
-0.0555394 -0.126934 0.990355 0
-0.0553792 -0.129081 0.990086 0
-0.0559693 -0.12954 0.989993 0
-0.0608108 -0.127732 0.989943 0.0008042
-0.0641708 -0.129165 0.989545 0.0028732
-0.071115 -0.130809 0.988854 0.00421813
0.226989 -0.124114 0.965957 0
0.251318 -0.12331 0.960018 0.00292321
-0.0550274 -0.110258 0.992378 0
-0.0582447 -0.114213 0.991747 0.00485434
-0.0560262 -0.11604 0.991663 0
-0.0553645 -0.118766 0.991378 0
-0.0559006 -0.119384 0.991273 0
-0.0566315 -0.122829 0.990811 0
-0.0607785 -0.119552 0.990966 0.00131005
-0.0659636 -0.119291 0.990666 0.00261364
-0.0718103 -0.12059 0.990102 0.00439328
0.250066 -0.119214 0.960862 0
-0.0560641 -0.0995869 0.993448 0
-0.0579588 -0.100316 0.993266 0.00393263
-0.0558695 -0.108896 0.992482 0
-0.0556226 -0.10777 0.992619 0
-0.0563423 -0.107801 0.992575 0
-0.057864 -0.11147 0.992082 0
-0.0614174 -0.111592 0.991854 0
-0.0649057 -0.113633 0.9914 0
-0.0707149 -0.108717 0.991554 0.00120377
0.23189 -0.110471 0.966449 0
0.254926 -0.110181 0.960663 0
-0.0557691 -0.0868855 0.994656 0
-0.0576549 -0.0953943 0.993769 0
-0.0562566 -0.0946932 0.993916 0
-0.0552918 -0.096482 0.993798 0
-0.0562164 -0.100672 0.99333 0
-0.0587001 -0.101964 0.993055 0
-0.0620998 -0.102857 0.992756 0
-0.065602 -0.104671 0.992341 0
-0.070031 -0.101441 0.992374 0
0.233231 -0.102096 0.967047 0
0.257105 -0.105563 0.9606 0
-0.0526672 -0.0807725 0.99534 0
-0.0556298 -0.0807925 0.995177 0.00130803
-0.0577955 -0.0853073 0.994677 0.000651219
-0.0562871 -0.0859321 0.99471 0
-0.055837 -0.0886761 0.994494 0
-0.0569721 -0.091583 0.994166 0
-0.0584655 -0.0934281 0.993908 0
-0.0622323 -0.0933949 0.993682 0
-0.0654852 -0.0942253 0.993395 0
-0.0692177 -0.0921425 0.993337 0
0.211149 -0.0878228 0.9735 0.00312535
0.233751 -0.0917438 0.967958 0
-0.0527451 -0.075117 0.995779 0
-0.0560023 -0.0678753 0.996121 0.00345921
-0.0575769 -0.0770485 0.995363 0
-0.0562421 -0.0774937 0.995405 0
-0.0563982 -0.0805514 0.995154 0
-0.0571816 -0.0841291 0.994813 0
-0.0583027 -0.0829908 0.994843 0.000522607
-0.061958 -0.0853942 0.994419 0
-0.0642267 -0.0823018 0.994536 0
-0.0681462 -0.0815136 0.99434 0
0.214746 -0.0795653 0.973423 0.00744863
0.232746 -0.0830515 0.968985 0
-0.0527149 -0.0653438 0.996469 0.00130086
-0.0546601 -0.0626983 0.996535 0.000717201
-0.0569131 -0.0704086 0.995893 0
-0.0560413 -0.0710294 0.995899 0
-0.0558212 -0.0724829 0.995806 0
-0.056618 -0.0704924 0.995904 0
-0.0620624 -0.0728549 0.99541 0
-0.0646473 -0.0709328 0.995384 0
-0.0680205 -0.0686826 0.995317 0
0.211371 -0.0714866 0.974788 0.00300837
0.230841 -0.073372 0.970221 0.00108926
-0.0517962 -0.0564205 0.997063 0.000270147
-0.0546316 -0.0577582 0.996835 0.00114048
-0.0566541 -0.0652563 0.996259 0
-0.0558951 -0.0626544 0.996469 0
-0.0553098 -0.067241 0.996203 0
-0.0563148 -0.0661231 0.996221 0
-0.0561393 -0.0625755 0.99646 0
-0.0585522 -0.0608909 0.996426 0
-0.0615702 -0.0624462 0.996147 0
-0.0637058 -0.0630551 0.995975 0
-0.0668955 -0.0612013 0.995881 0
0.230281 -0.065818 0.970896 0.0047911
-0.0546446 -0.0481154 0.997346 0.00492051
-0.0565435 -0.0592154 0.996643 0
-0.0558431 -0.0565747 0.996835 0
-0.0546788 -0.0574505 0.99685 0
-0.0559795 -0.0576207 0.996768 0
-0.0600251 -0.0537155 0.996751 0.000996852
-0.061683 -0.0538955 0.99664 0.000641048
-0.0630667 -0.0555186 0.996464 0.000617717
-0.0661187 -0.0556177 0.996261 0.000488626
0.229457 -0.0539671 0.971821 0.00779664
-0.0533191 -0.0423277 0.99768 0.0049516
-0.0541263 -0.0401396 0.997727 0.00458577
-0.057245 -0.0505692 0.997079 0
-0.0556016 -0.0483946 0.997279 0
-0.0557652 -0.0498415 0.997199 0
-0.056159 -0.0507834 0.997129 0
-0.0600906 -0.0465666 0.997106 0.0010831
-0.062253 -0.0475625 0.996926 0.000761488
-0.0637434 -0.0487828 0.996773 0.00246654
-0.0669274 -0.0503504 0.996487 0.0054547
-0.0659251 -0.0464173 0.996744 0.00440297
0.227218 -0.0470473 0.972707 0.00844189
-0.0529951 -0.0358087 0.997953 0.00316578
-0.0535582 -0.0367619 0.997888 0.000929064
-0.056553 -0.043756 0.99744 0
-0.0561169 -0.0426164 0.997514 0
-0.0555472 -0.0414939 0.997594 0
-0.0556808 -0.0429811 0.997523 0
-0.0599503 -0.0425354 0.997295 0.00186843
-0.0627851 -0.0414168 0.997167 0.00176946
-0.0631793 -0.0425813 0.997093 0.0019418
-0.065604 -0.0396597 0.997057 0.0027064
0.229055 -0.039041 0.97263 0.0146051
0.248098 -0.0405109 0.967888 0.00866182
-0.0523142 -0.032728 0.998094 0
-0.0533862 -0.0322254 0.998054 0
-0.0562565 -0.0362975 0.997756 0
-0.055715 -0.0348698 0.997838 0
-0.0556737 -0.0329778 0.997904 0
-0.0568544 -0.0338198 0.99781 0
-0.0597475 -0.0347805 0.997607 0.000715806
-0.0617108 -0.0355892 0.997459 0.00114967
-0.0633032 -0.0396388 0.997207 0.00235631
-0.0626395 -0.0354031 0.997408 0.00158632
0.228914 -0.0279698 0.973045 0.0167542
0.247597 -0.0326659 0.968312 0.00935367
0.245437 -0.028963 0.96898 0.00995824
-0.0512747 -0.0280657 0.99829 0
-0.0537891 -0.0240892 0.998262 0.000455546
-0.056395 -0.0293889 0.997976 0
-0.056022 -0.0297043 0.997988 0
-0.0559107 -0.0279346 0.998045 0
-0.0568119 -0.0294454 0.997951 0
-0.0594724 -0.029239 0.997802 0
-0.0615564 -0.0289008 0.997685 0.000883739
-0.0621722 -0.0303383 0.997604 0.00251026
-0.0632293 -0.0300763 0.997546 0
0.226418 -0.0213171 0.973797 0.0149415
0.245509 -0.026317 0.969037 0.00963
-0.0506115 -0.019395 0.99853 0
-0.0535959 -0.0159781 0.998435 0.00324149
-0.0569143 -0.0240639 0.998089 0
-0.0558404 -0.0241389 0.998148 0
-0.0564007 -0.0210403 0.998187 0
-0.0568395 -0.0215989 0.99815 0
-0.0594142 -0.0220505 0.99799 0.000184328
-0.0611093 -0.0243662 0.997834 0.00106528
-0.062016 -0.0239224 0.997788 0.00110215
-0.0627757 -0.0259194 0.997691 0.00023412
0.206047 -0.0144401 0.978436 0.0147897
0.224387 -0.0162061 0.974365 0.0133644
-0.0509101 -0.016732 0.998563 0
-0.0529044 -0.0156256 0.998477 3.69087e-05
-0.0567221 -0.0191943 0.998205 0
-0.0562603 -0.0188599 0.998238 0
-0.0564322 -0.0151055 0.998292 0
-0.0600552 -0.0194683 0.998005 0
-0.0607668 -0.01967 0.997958 0
-0.0619835 -0.0180407 0.997914 0
0.184461 -0.0123885 0.982762 0.0109941
0.205079 -0.0121187 0.97867 0.0135785
0.224765 -0.013932 0.974313 0.0131555
0.22511 -0.0124987 0.974253 0.0134177
-0.0509833 -0.0132995 0.998611 0.00196751
-0.0529902 -0.0127393 0.998514 0.00198769
-0.0557335 -0.0170401 0.9983 0
-0.0559919 -0.014569 0.998325 0
-0.0561223 -0.0130775 0.998338 0
-0.0567388 -0.0117523 0.99832 0
-0.0609839 -0.0152267 0.998023 0
-0.0611537 -0.0151195 0.998014 0
0.183032 -0.0107602 0.983048 0.00947352
0.20379 -0.00801469 0.978982 0.00913285
-0.0507868 -0.013758 0.998615 0
-0.0522979 -0.0133034 0.998543 0
-0.0552472 -0.0142973 0.99837 0
-0.056122 -0.0110938 0.998362 0
-0.057125 -0.00909435 0.998326 0
-0.0595215 -0.0123481 0.998151 0
-0.0599675 -0.0129467 0.998116 0
-0.0598974 -0.0126972 0.998124 0
-0.0606165 -0.0137134 0.998067 0
0.183744 -0.0069245 0.98295 0.0101509
0.202993 -0.00432739 0.979171 0.00861266
-0.0505674 -0.0119996 0.998649 0
-0.0517646 -0.0140659 0.99856 0
-0.0557097 -0.0133302 0.998358 0
-0.0562402 -0.0115341 0.998351 0
-0.0565489 -0.00738658 0.998373 0
-0.0579534 -0.00943421 0.998275 0
-0.0580845 -0.0116028 0.998244 0
-0.0585953 -0.0109903 0.998221 0
-0.0585009 -0.0108066 0.998229 0
-0.0599867 -0.0116093 0.998132 0
0.201784 -0.000325191 0.97943 0.00612205
0.216064 -0.00533155 0.976365 0.000664361
-0.0522318 -0.0122363 0.99856 0.00231262
-0.0558271 -0.0126016 0.998361 0
-0.0554873 -0.0117217 0.998391 0
-0.0562412 -0.00771742 0.998387 0.000320664
-0.0563699 -0.00799921 0.998378 0
-0.0573716 -0.00913921 0.998311 0
-0.0576339 -0.0096277 0.998291 0
-0.0579003 -0.00848248 0.998286 0
-0.0585503 -0.00978157 0.998236 0
-0.0600238 -0.0105082 0.998142 0
0.200601 -0.00362893 0.979666 0.00401568
0.218423 -0.00417399 0.975845 0.00630225
-0.0520056 -0.0144856 0.998542 0
-0.0556081 -0.0109029 0.998393 0
-0.056627 -0.00707347 0.99837 0.000659176
-0.0560715 -0.00697216 0.998402 0
-0.0571872 -0.00829624 0.998329 0
-0.0575961 -0.00916485 0.998298 0
-0.0584766 -0.00669822 0.998266 0
-0.0586531 -0.00775625 0.998248 0
-0.059577 -0.00797417 0.998192 0
0.219322 -0.00196898 0.97565 0.00684015
-0.0511067 -0.0120397 0.998621 0.00106696
-0.0525216 -0.0137129 0.998526 0
-0.0556379 -0.0104761 0.998396 0
-0.0556893 -0.00861555 0.998411 0
-0.0557597 -0.0108954 0.998385 0
-0.0564912 -0.0104988 0.998348 0
-0.0576916 -0.00829042 0.9983 0
-0.0582352 -0.00662038 0.998281 0
-0.058241 -0.0074765 0.998275 0
-0.0589951 -0.0081156 0.998225 0
0.219114 -0.00180632 0.975697 0.00748553
-0.0532517 -0.0109539 0.998521 0.00215472
-0.0544374 -0.0116306 0.99845 0
-0.055641 -0.0121004 0.998378 0
-0.0561084 -0.0129439 0.998341 0
-0.0562201 -0.0131366 0.998332 0
-0.0576813 -0.00904599 0.998294 0
-0.0589101 -0.00574448 0.998247 0
-0.0588429 -0.00559781 0.998252 0
-0.0595346 -0.00660051 0.998204 0
0.218562 0.000179303 0.975823 0.00668006
-0.0534208 -0.00971691 0.998525 0.00320007
-0.0535883 -0.0105275 0.998508 0
-0.0552512 -0.0114433 0.998407 0
-0.0561238 -0.0160246 0.998295 0
-0.056354 -0.0142201 0.99831 0
-0.0579114 -0.0081979 0.998288 0
-0.058795 -0.00649849 0.998249 0
-0.0589194 -0.00571792 0.998246 0.000167255
-0.0590891 -0.00634307 0.998233 0
0.200136 -0.00213183 0.979766 0.00324184
0.218339 -0.000127742 0.975873 0.00587066
-0.0540177 -0.011351 0.998475 0
-0.0551658 -0.012602 0.998398 0
-0.0558875 -0.0151685 0.998322 0
-0.0564 -0.0137646 0.998313 0
-0.0590175 -0.00702775 0.998232 0.000889604
-0.0593345 -0.00524659 0.998224 0.00151114
-0.0595287 -0.00477555 0.998215 0.00211517
-0.0589437 -0.00708756 0.998236 0
0.183762 -0.00161787 0.982969 0.00663562
0.200462 -0.00402315 0.979693 0.00167167
0.218682 -0.00142459 0.975795 0.00252918
-0.0507419 -0.0123863 0.998635 0.00122185
-0.0526906 -0.00860433 0.998574 0.00429999
-0.0536311 -0.0141598 0.99846 0
-0.0550425 -0.013002 0.998399 0
-0.0557556 -0.0150765 0.998331 0
-0.057168 -0.0143859 0.998261 0.00198692
-0.0592119 -0.00796203 0.998214 0.00164737
-0.0591912 -0.00563667 0.998231 0.00265208
-0.0599183 -0.00612164 0.998185 0.00425707
-0.0598441 -0.00561807 0.998192 0.0027857
0.185053 -0.00165558 0.982727 0.00663149
0.186047 -0.0017027 0.982539 0.00607933
0.203956 -0.00104178 0.97898 0.00548154
-0.0502512 -0.0130841 0.998651 0
-0.0522159 -0.0113217 0.998572 0.00420638
-0.0537463 -0.0136707 0.998461 0
-0.0550388 -0.0127023 0.998403 0
-0.0558842 -0.012606 0.998358 0.00288114
-0.0581339 -0.0130937 0.998223 0.00568239
-0.0608729 -0.00734363 0.998119 0.00583177
-0.0602706 -0.00667855 0.99816 0.00493089
0.186483 -0.00503188 0.982445 0.00378317
0.203894 -0.000906551 0.978992 0.00207072
-0.0503423 -0.0142294 0.998631 0
-0.0519769 -0.0101445 0.998597 0.00561676
-0.0540524 -0.00891306 0.998498 0
-0.055216 -0.0110719 0.998413 0.00271806
-0.0574048 -0.0113552 0.998286 0.00779444
-0.0590198 -0.0114274 0.998191 0.00868861
-0.0607103 -0.00765552 0.998126 0.00862075
-0.0601684 -0.00803899 0.998156 0.00913046
0.188185 -0.00705033 0.982108 0.00485306
0.205453 -0.00547526 0.978652 0.00476416
-0.0500549 -0.0156459 0.998624 0
-0.0506013 -0.0142107 0.998618 0.00291713
-0.0520983 -0.0123436 0.998566 0.00571845
-0.0542723 -0.0104335 0.998472 0
-0.0552482 -0.00896073 0.998432 0.00217797
-0.0567426 -0.0118524 0.998318 0.00727412
-0.0593707 -0.0104124 0.998182 0.0110437
-0.0611576 -0.0111611 0.998066 0.011335
-0.061012 -0.00850453 0.998101 0.0109682
-0.0609597 -0.00806475 0.998108 0.0121926
-0.0613404 -0.00878619 0.998078 0.0144525
0.206533 -0.00684154 0.978416 0.00517886
-0.0506496 -0.0134054 0.998627 0.00404745
-0.0522321 -0.0138727 0.998539 0.00519559
-0.0545941 -0.00843825 0.998473 0.000244238
-0.0551479 -0.0130015 0.998393 0.000794679
-0.0579105 -0.0122055 0.998247 0.0081499
-0.0597746 -0.010303 0.998159 0.0124371
-0.0607714 -0.0120091 0.998079 0.0111283
-0.0616632 -0.00962948 0.998051 0.0113714
-0.0616837 -0.00886732 0.998056 0.0127936
-0.0616159 -0.00902162 0.998059 0.0137942
0.205614 -0.00842017 0.978597 0.00424643
0.223372 -0.0101671 0.97468 0.00480323
-0.051114 -0.012767 0.998611 0.0067271
-0.0524737 -0.0153495 0.998504 0.00603939
-0.0549719 -0.00954526 0.998442 0
-0.0549242 -0.0140573 0.998392 0
-0.0582496 -0.00960058 0.998256 0.00910407
-0.0597462 -0.00955666 0.998168 0.0133756
-0.0611984 -0.00934633 0.998082 0.0119065
-0.0625542 -0.0104312 0.997987 0.0117237
-0.061616 -0.0108588 0.998041 0.0111985
-0.0612742 -0.010005 0.998071 0.0122048
0.204471 -0.0128334 0.978788 0.00337921
0.221811 -0.0138578 0.974991 0.00166545
-0.050775 -0.0156567 0.998587 0.00494739
-0.0506522 -0.0140451 0.998618 0.00695514
-0.0516736 -0.0142632 0.998562 0.00529906
-0.0544735 -0.0138096 0.99842 0
-0.0547314 -0.015347 0.998383 0
-0.0571334 -0.012375 0.99829 0.00380426
-0.0595329 -0.0135476 0.998134 0.00859163
-0.0613213 -0.00997641 0.998068 0.0125978
-0.0615987 -0.0128092 0.998019 0.0106684
-0.0612556 -0.0135751 0.99803 0.0112774
0.203336 -0.0156904 0.978983 0.000933398
0.22046 -0.0135876 0.975301 0.000708534
-0.0499062 -0.017876 0.998594 0.00436327
-0.0511705 -0.0133889 0.9986 0.0037464
-0.054149 -0.0177916 0.998374 0
-0.0547411 -0.0171313 0.998354 0
-0.0565188 -0.0159634 0.998274 0.001849
-0.0581554 -0.0167798 0.998167 0.00192951
-0.061113 -0.0157387 0.998007 0.0076169
-0.0613968 -0.0135786 0.998021 0.00719242
-0.0602497 -0.015571 0.998062 0.00617991
-0.0595792 -0.0153236 0.998106 0.00598803
0.204378 -0.0168668 0.978747 0.00106621
0.220062 -0.015248 0.975367 0
-0.0493324 -0.0158737 0.998656 0.00349382
-0.0509457 -0.0169004 0.998558 0.00397646
-0.0535626 -0.0210011 0.998344 0
-0.0549183 -0.0189721 0.998311 0
-0.0560635 -0.0170297 0.998282 0
-0.0579265 -0.0175574 0.998166 0
-0.0602471 -0.0160766 0.998054 0.00563659
-0.0604661 -0.0165966 0.998032 0.00674854
-0.0588365 -0.015891 0.998141 0.00391001
-0.0593775 -0.0161 0.998106 0.00639959
0.20508 -0.0168402 0.9786 0.000579136
0.222446 -0.0169958 0.974797 0.00127399
-0.0496118 -0.0168186 0.998627 0.00226144
-0.0502263 -0.0184879 0.998567 0.00100903
-0.0531574 -0.024343 0.998289 0
-0.0541805 -0.021887 0.998291 0
-0.0561141 -0.0197067 0.99823 0
-0.0581407 -0.0172217 0.99816 0.00122739
-0.0581797 -0.0185956 0.998133 0.00132882
-0.0598113 -0.0165944 0.998072 0.00187516
-0.0603687 -0.0168749 0.998034 0.00508497
-0.059838 -0.0170309 0.998063 0.00470742
-0.0597342 -0.0177375 0.998057 0.00486291
0.192484 -0.020984 0.981076 0.00421653
0.205689 -0.0179262 0.978453 0.000398871
0.224877 -0.0160534 0.974255 0.00365661
-0.0535943 -0.0189929 0.998382 0
-0.050221 -0.017018 0.998593 0.00139856
-0.0509275 -0.01788 0.998542 0.00282744
-0.0537324 -0.0251225 0.998239 0
-0.054188 -0.0222234 0.998283 0
-0.0565397 -0.0220045 0.998158 0
-0.060517 -0.0171253 0.99802 0.00348618
-0.0604811 -0.0172874 0.99802 0.00433483
-0.0602126 -0.0179926 0.998023 0.00568283
-0.0605152 -0.0178165 0.998008 0.00536192
0.193976 -0.0231531 0.980733 0.00492505
0.20925 -0.0207049 0.977643 0.00361718
-0.0532032 -0.0194667 0.998394 0.000378936
-0.0506729 -0.0144556 0.998611 0.0037152
-0.0505155 -0.0179752 0.998562 0.00173369
-0.0508082 -0.0199035 0.99851 0.00299988
-0.0536898 -0.0261167 0.998216 0
-0.0540639 -0.0239188 0.998251 0
-0.0601035 -0.021505 0.997961 0
0.195409 -0.0235386 0.980439 0.00629774
0.211596 -0.0237671 0.977068 0.00513049
-0.0506505 -0.016463 0.998581 0.00244859
-0.050719 -0.0158065 0.998588 0.0025148
-0.0510872 -0.0182896 0.998527 0.00248986
-0.0546257 -0.0245728 0.998205 0
-0.0547177 -0.0251836 0.998184 0
-0.0617871 -0.0205336 0.997878 0.00647625
0.194936 -0.0242246 0.980517 0.00545189
0.213692 -0.0255233 0.976568 0.00683536
-0.0512717 -0.0194613 0.998495 0.0020147
-0.0518036 -0.022285 0.998409 0.00511926
-0.0547553 -0.0254475 0.998175 0
-0.0554339 -0.0258614 0.998127 0
-0.0568529 -0.0278031 0.997995 0
-0.0614014 -0.0236377 0.997833 0.00615654
-0.0626981 -0.0229181 0.997769 0.00801177
0.213097 -0.0276805 0.976639 0.00597929
-0.0505718 -0.0213316 0.998493 0
-0.0516911 -0.0224187 0.998411 0.00110337
-0.0560347 -0.0231254 0.998161 0.00271024
-0.0565738 -0.02639 0.99805 0
-0.0575698 -0.0277614 0.997955 0.000214742
-0.0578022 -0.0283469 0.997926 0
-0.0629493 -0.0244475 0.997717 0.00653932
-0.0636956 -0.0252165 0.997651 0.00583171
0.212512 -0.0312534 0.976658 0.00442
0.229512 -0.032566 0.972761 0.00523968
-0.0499975 -0.0217726 0.998512 0
-0.0514476 -0.0251344 0.998359 0
-0.0564523 -0.0252737 0.998085 0.00234386
-0.0575963 -0.025569 0.998012 0.00251749
-0.0583221 -0.028159 0.997901 0.000666187
-0.0617012 -0.0254887 0.997769 0.0051175
-0.0626967 -0.0263768 0.997684 0.00576466
-0.0632264 -0.0250854 0.997684 0.00479313
0.212461 -0.0323534 0.976634 0.0057884
0.226445 -0.0339199 0.973433 3.32006e-05
-0.0491947 -0.0217327 0.998553 0
-0.0493691 -0.0202581 0.998575 0
-0.0519428 -0.0256444 0.998321 5.45096e-05
-0.0570202 -0.0224713 0.99812 0.00377507
-0.0563975 -0.025105 0.998093 0
-0.05795 -0.0277259 0.997934 0
-0.0632162 -0.0262792 0.997654 0.00549511
-0.0640145 -0.0252964 0.997628 0.00484115
0.2281 -0.0354325 0.972993 0.00212931
-0.049486 -0.0225387 0.99852 0
-0.0500052 -0.0268637 0.998388 0
-0.0518794 -0.0247674 0.998346 0
-0.0567174 -0.0223255 0.998141 0.00344516
-0.0564004 -0.0237195 0.998126 0
-0.056705 -0.0223179 0.998142 0.000749569
-0.0633339 -0.0276883 0.997608 0.00324362
-0.0640379 -0.026484 0.997596 0.00522232
0.227723 -0.0366354 0.973037 0.00130389
-0.0501779 -0.0224891 0.998487 0
-0.0500871 -0.0258866 0.998409 0
-0.0519605 -0.023894 0.998363 0
-0.056478 -0.0253342 0.998082 0.00236197
-0.0561307 -0.0246947 0.998118 0
-0.0631027 -0.0235869 0.997728 0.00451399
0.22881 -0.034751 0.972851 0.00124315
-0.0507082 -0.0211725 0.998489 0
-0.0508455 -0.0235877 0.998428 0
-0.0524001 -0.0284022 0.998222 0
-0.0555747 -0.0286015 0.998045 0
-0.055747 -0.0243089 0.998149 0
-0.0573464 -0.0267756 0.997995 0
-0.0622627 -0.0292079 0.997632 0.000177724
0.212986 -0.0364588 0.976375 0.00208487
0.229832 -0.034571 0.972616 0.00154738
-0.0539374 -0.0246439 0.99824 0
-0.0510132 -0.0217231 0.998462 0
-0.0521413 -0.0236767 0.998359 0.00309091
-0.0533891 -0.0261606 0.998231 0.00286398
-0.0547295 -0.0290388 0.998079 0
-0.0550382 -0.0290236 0.998062 0
-0.0559336 -0.0254985 0.998109 0
0.214311 -0.0353487 0.976126 0.00324426
0.231861 -0.0345162 0.972136 0.00517728
-0.0541342 -0.0229035 0.998271 0
-0.0521552 -0.0235534 0.998361 0
-0.0518991 -0.0223517 0.998402 0.00265676
-0.0526464 -0.0228732 0.998351 0.00150088
-0.0544667 -0.0262065 0.998172 0.00387226
-0.0551524 -0.0291687 0.998052 0
0.215767 -0.0368335 0.97575 0.00599695
0.216058 -0.0374997 0.97566 0.0060372
-0.0547776 -0.0210209 0.998277 0.000304863
-0.0526779 -0.0286762 0.9982 0.00167934
-0.0522287 -0.0227609 0.998376 0.0043404
-0.0534719 -0.0182417 0.998403 0.00460367
-0.053691 -0.0241669 0.998265 0.00299345
-0.055432 -0.0285954 0.998053 0
-0.0554276 -0.0343231 0.997873 0
0.215932 -0.0419077 0.975509 0.00613217
-0.0542402 -0.0243589 0.998231 0
-0.0526624 -0.0235268 0.998335 0.00426198
-0.05346 -0.0232878 0.998298 0.00511847
-0.0536237 -0.0250666 0.998246 0.00373903
-0.0550955 -0.0330542 0.997934 0
-0.0555102 -0.031676 0.997956 0
0.214464 -0.0409558 0.975873 0.00395688
0.233008 -0.0412993 0.971597 0.00710375
-0.0530554 -0.0243059 0.998296 0.00573839
-0.0540907 -0.0238399 0.998251 0.00467476
-0.053849 -0.0239824 0.998261 0.00369899
-0.0540708 -0.0233759 0.998263 0.00454878
-0.0552293 -0.0334852 0.997912 0
-0.056856 -0.0311881 0.997895 0
0.228883 -0.0425234 0.972525 0.00101799
-0.0550747 -0.023506 0.998206 0
-0.0540893 -0.0234978 0.99826 0.00495116
-0.0531386 -0.0235019 0.998311 0.00594968
-0.054017 -0.0258636 0.998205 0.00245805
-0.0538842 -0.0209052 0.998328 0.00267561
-0.0557344 -0.0344085 0.997853 0
-0.0574412 -0.0320955 0.997833 0
0.227498 -0.0431311 0.972823 0
-0.0538371 -0.0224544 0.998297 0.00160609
-0.0553387 -0.0232458 0.998197 0.0019944
-0.054093 -0.0240685 0.998246 0.00422055
-0.0532184 -0.0247568 0.998276 0.0017266
-0.0532886 -0.0257621 0.998247 0.000821943
-0.0558649 -0.0346155 0.997838 0
0.247328 -0.0436173 0.967949 0.000175506
-0.0546958 -0.0234496 0.998228 0.00155609
-0.0556371 -0.0238922 0.998165 0.00365619
-0.0542141 -0.0242173 0.998236 0.00200231
-0.0532962 -0.0251468 0.998262 0.000641286
-0.0529735 -0.025202 0.998278 0
-0.0542881 -0.0219602 0.998284 0.00178334
-0.0582565 -0.0324129 0.997775 0
0.246999 -0.0443043 0.968002 0
-0.0552607 -0.022906 0.998209 0.00302829
-0.0539387 -0.023938 0.998257 0
-0.0532843 -0.0270648 0.998213 0
-0.0536364 -0.0269222 0.998197 0
-0.0561985 -0.0344526 0.997825 0
-0.0580874 -0.0322729 0.99779 0
0.247929 -0.0431715 0.967816 0
-0.0531875 -0.0282313 0.998185 0
-0.0546089 -0.0233955 0.998234 0.00117005
-0.0537302 -0.0236877 0.998275 0
-0.053702 -0.0251993 0.998239 0
-0.054186 -0.0238411 0.998246 0.0020968
-0.0549167 -0.0233204 0.998219 0.0022881
-0.0563469 -0.0350473 0.997796 0
-0.0581238 -0.0324374 0.997782 0
0.230234 -0.0426831 0.972199 0.00287832
0.250036 -0.0418831 0.96733 0.00251568
-0.0529824 -0.0301405 0.998141 0
-0.0549379 -0.0244902 0.998189 0
-0.0537244 -0.0258612 0.998221 0
-0.0543315 -0.0222035 0.998276 0
-0.0567723 -0.0328364 0.997847 0
0.212579 -0.0420529 0.976238 0.00132831
0.23122 -0.0454838 0.971838 0.00426863
-0.0570635 -0.0258119 0.998037 0
-0.0532833 -0.0283412 0.998177 0
-0.0543877 -0.0250178 0.998206 0
-0.0539283 -0.0221377 0.998299 0
-0.0536929 -0.0246414 0.998253 0
0.214336 -0.0438575 0.975775 0.00337317
0.231636 -0.0434885 0.97183 0.00591112
-0.0545575 -0.0264201 0.998161 0.000632566
-0.0545409 -0.0255078 0.998186 0
-0.0537623 -0.0263759 0.998205 0
-0.053767 -0.0252213 0.998235 0
0.229126 -0.0458246 0.972318 0.000841599
-0.0557853 -0.0239498 0.998155 0.00280051
-0.0547478 -0.0256854 0.99817 0
-0.0549181 -0.0272691 0.998118 0
-0.0541254 -0.0254591 0.99821 0
-0.0548001 -0.0253445 0.998176 0
-0.0549768 -0.0242645 0.998193 0
0.231824 -0.0492288 0.971511 0.00625074
-0.0562576 -0.0253143 0.998095 0.0046018
-0.0554405 -0.0239737 0.998174 0.00206435
-0.054759 -0.0272065 0.998129 0
-0.05447 -0.0241236 0.998224 0
-0.055409 -0.0264681 0.998113 0
-0.056131 -0.0246414 0.998119 0
0.231626 -0.0519211 0.971418 0.00752443
0.253343 -0.050152 0.966076 0.00521055
-0.0562676 -0.023929 0.998129 0.00449243
-0.0566236 -0.0258939 0.99806 0.00515711
-0.055627 -0.0288267 0.998035 0
-0.0544006 -0.0260269 0.99818 0
-0.0547509 -0.0248044 0.998192 0.000501838
-0.0559301 -0.0280201 0.998041 0
0.252016 -0.050773 0.96639 0.00390947
-0.0581355 -0.019828 0.998112 0.00633063
-0.0564067 -0.0257804 0.998075 0.00465473
-0.0559764 -0.0279851 0.99804 0
-0.0543405 -0.0276374 0.99814 0
-0.0548295 -0.0285476 0.998088 0
-0.0543291 -0.0272404 0.998151 0
0.250302 -0.0516939 0.966787 0.00228533
-0.0585243 -0.0222197 0.998039 0.00469077
-0.0568385 -0.0230539 0.998117 0.00204628
-0.0550403 -0.0285144 0.998077 0
-0.0553818 -0.0282479 0.998066 0
-0.0540412 -0.0315241 0.998041 0
0.249949 -0.0476621 0.967085 0.00332636
-0.0572343 -0.0232228 0.998091 0.00634285
-0.0563101 -0.0283186 0.998012 0.000123233
-0.0553264 -0.0285523 0.99806 0
-0.0539514 -0.0303289 0.998083 0
-0.0541813 -0.028718 0.998118 0
0.254726 -0.0450747 0.965962 0.00820069
-0.0573263 -0.0227322 0.998097 0.00595816
-0.0560278 -0.0273137 0.998056 0.00118743
-0.0553594 -0.0282704 0.998066 0
-0.0541766 -0.0272983 0.998158 0.00109664
-0.0540006 -0.0267188 0.998183 0
0.259243 -0.0423571 0.964883 0.014996
-0.0579651 -0.0235763 0.99804 0.0016963
-0.0588965 -0.0193258 0.998077 0.00236557
-0.0576033 -0.0207634 0.998124 0
-0.0572121 -0.025156 0.998045 0.00306454
-0.0555875 -0.027966 0.998062 0
-0.0546662 -0.027715 0.99812 0
-0.0536915 -0.0255815 0.99823 0.00179133
0.232366 -0.0405808 0.971781 0.0101793
0.260697 -0.0401646 0.964585 0.0171886
-0.0579309 -0.0232513 0.99805 0
-0.0585535 -0.0210023 0.998063 6.57482e-05
-0.0579891 -0.0206603 0.998103 0
-0.0583164 -0.01936 0.99811 0.00109825
-0.0569357 -0.0218343 0.998139 0.00341289
-0.0557531 -0.0229191 0.998182 0
-0.0545206 -0.0277349 0.998127 0
-0.0540405 -0.0261713 0.998196 0.00240143
0.235126 -0.0411132 0.971095 0.0140398
0.233813 -0.0431788 0.971322 0.013813
-0.0583765 -0.0221599 0.998049 0
-0.0576759 -0.0227154 0.998077 0
-0.0577095 -0.023118 0.998066 0.00390187
-0.0558988 -0.0226229 0.99818 0
-0.0547219 -0.0253295 0.99818 0.000932042
-0.0542568 -0.0268778 0.998165 0.00337029
0.235087 -0.0437878 0.970988 0.0151956
-0.0579823 -0.0218082 0.998079 0
-0.0580564 -0.0238593 0.998028 0.00240947
-0.0577418 -0.0232518 0.998061 0.00344881
-0.0577942 -0.0250234 0.998015 0.0022172
-0.0549734 -0.0254792 0.998163 0
-0.0554843 -0.0234413 0.998184 0.00637408
0.232755 -0.0463481 0.97143 0.0118815
-0.0580286 -0.0205122 0.998104 0.00197208
-0.05821 -0.0237882 0.998021 0.00248343
-0.0550042 -0.0262493 0.998141 0
-0.054932 -0.0255648 0.998163 0.00155083
0.257805 -0.0468479 0.965061 0.0153708
-0.0552516 -0.0241358 0.998181 0.00033583
-0.0579154 -0.0224804 0.998068 0
-0.0576495 -0.0206084 0.998124 0
-0.0574706 -0.0215668 0.998114 0
-0.0584692 -0.0213446 0.998061 0
-0.0574774 -0.0233714 0.998073 0.000512674
-0.0552903 -0.0260109 0.998131 0
-0.055005 -0.0250796 0.998171 0.000894029
0.253501 -0.0480183 0.966143 0.0109855
-0.0554685 -0.0230004 0.998195 0.00175075
-0.0577923 -0.0224188 0.998077 0
-0.05856 -0.0225023 0.99803 0
-0.0584394 -0.0229452 0.998027 0
-0.0584991 -0.0204142 0.998079 0
-0.0582237 -0.0231471 0.998035 0.000453151
-0.0560217 -0.0258382 0.998095 0.000924402
-0.054702 -0.0244512 0.998203 0
0.249549 -0.0490728 0.967118 0.00968299
0.276405 -0.048 0.959842 0.00710332
-0.054829 -0.0227215 0.998237 0
-0.0580083 -0.0216641 0.998081 0
-0.0584031 -0.0233586 0.99802 0
-0.0584095 -0.0219186 0.998052 0
-0.0586946 -0.0190327 0.998095 0.00152278
-0.0579113 -0.0228752 0.99806 0.00112534
-0.0568004 -0.025081 0.99807 0.00139926
-0.0548359 -0.0220661 0.998251 6.21366e-05
0.278491 -0.0432901 0.959463 0.0101929
-0.055389 -0.0232285 0.998195 0
-0.0579648 -0.0233265 0.998046 0
-0.0587677 -0.0219441 0.99803 0
-0.0593483 -0.020854 0.99802 0
-0.0587352 -0.0189423 0.998094 0.00448739
-0.0578724 -0.0228886 0.998062 0.00083733
-0.0564919 -0.022748 0.998144 0.000946734
-0.0552086 -0.0217178 0.998239 0
0.278494 -0.0427228 0.959487 0.0100109
-0.0553757 -0.0233639 0.998192 0
-0.0578643 -0.0218979 0.998084 0
-0.0588729 -0.0189335 0.998086 0
-0.0593878 -0.0197188 0.99804 0
-0.05819 -0.0218182 0.998067 0.00276619
-0.0576907 -0.0217337 0.998098 0
-0.0557488 -0.0214596 0.998214 0
-0.0553353 -0.0233064 0.998196 0
0.249093 -0.0408591 0.967617 0.00871754
0.276794 -0.0415546 0.96003 0.00820985
-0.0547363 -0.0218515 0.998262 0
-0.0580873 -0.0257419 0.99798 0.000649787
-0.0576406 -0.0184795 0.998166 0.00112788
-0.0581388 -0.0190208 0.998127 0.00044804
-0.0591485 -0.0172461 0.9981 0.000504048
-0.0598507 -0.0191624 0.998023 0
-0.0586278 -0.0200736 0.998078 0.00371214
-0.0578356 -0.0215195 0.998094 0
-0.0550411 -0.0239098 0.998198 0
-0.0553114 -0.022558 0.998214 0
0.251255 -0.0414154 0.967035 0.0093977
-0.0549088 -0.0231266 0.998223 0
-0.0575467 -0.0247772 0.998035 0.00073331
-0.0573546 -0.0193029 0.998167 0.0023109
-0.0574751 -0.0201571 0.998143 0
-0.0592961 -0.0185877 0.998067 0.00248566
-0.0596515 -0.0205381 0.998008 0.000478586
-0.0579404 -0.0201118 0.998117 0
-0.0589964 -0.0193489 0.998071 0.00074297
-0.0558362 -0.0232901 0.998168 0
0.226209 -0.0414992 0.973194 0.00414958
0.252175 -0.0419349 0.966773 0.0100837
-0.0545863 -0.0257537 0.998177 0
-0.0543701 -0.0255601 0.998194 0
-0.0573594 -0.0200841 0.998152 0.00133168
-0.0579636 -0.0182535 0.998152 0
-0.0581006 -0.0182134 0.998145 0.000633935
-0.0593727 -0.0188614 0.998058 0.00197402
-0.0584591 -0.023121 0.998022 0
-0.0587121 -0.0166478 0.998136 0.000185194
-0.0584949 -0.0199539 0.998088 0.00034539
-0.0564789 -0.0225797 0.998148 0
0.225024 -0.0431071 0.973399 0.00201348
0.247689 -0.0469683 0.9677 0.00276508
-0.0579088 -0.0189398 0.998142 0.000113556
-0.0585797 -0.0221713 0.998037 0
-0.0580948 -0.022095 0.998067 0
-0.0585414 -0.0158617 0.998159 0.00150399
-0.059038 -0.0158629 0.99813 0.00301158
-0.0564713 -0.0216488 0.998169 0
-0.0567429 -0.0205428 0.998177 0
0.248766 -0.049837 0.96728 0.00584132
-0.053247 -0.0206595 0.998368 0
-0.0584492 -0.0191341 0.998107 0.00219243
-0.0586704 -0.0220528 0.998034 0
-0.0579804 -0.0220709 0.998074 0
-0.060036 -0.0150452 0.998083 0.00646108
-0.0591291 -0.0168496 0.998108 0.00344099
-0.0568945 -0.0188756 0.998202 0.000762215
-0.0568356 -0.0214631 0.998153 0
0.246984 -0.0463874 0.967909 0.00416473
-0.0532252 -0.0213574 0.998354 0
-0.0564817 -0.0168527 0.998261 0.000526058
-0.0571147 -0.0188661 0.998189 0.000425841
-0.0587362 -0.0205406 0.998062 0
-0.0586688 -0.0225831 0.998022 0
-0.0590231 -0.019265 0.998071 0
-0.058631 -0.0162621 0.998147 0.00620322
-0.0593515 -0.0183278 0.998069 0.00381707
-0.0571853 -0.0191741 0.998179 0
0.244102 -0.0444787 0.968729 0.00261451
0.270031 -0.0472349 0.961692 0
-0.0534572 -0.019162 0.998386 0
-0.0559647 -0.0188432 0.998255 0.00043582
-0.0576211 -0.016826 0.998197 0.000869829
-0.0582683 -0.021872 0.998061 0
-0.0584605 -0.0216358 0.998055 0
-0.0591214 -0.0195336 0.99806 0
-0.0577588 -0.0189696 0.99815 0.0036867
-0.0580936 -0.0176816 0.998155 0.00291071
0.269664 -0.0459713 0.961857 0.000125616
-0.0528864 -0.0194132 0.998412 0
-0.0557431 -0.0212353 0.998219 0
-0.0568276 -0.0186424 0.99821 0
-0.0578919 -0.0200335 0.998122 0
-0.0584332 -0.0201535 0.998088 0
-0.0583916 -0.0186634 0.998119 0
-0.0570764 -0.0176616 0.998214 0.00142442
-0.0585786 -0.0171613 0.998135 0
-0.0583092 -0.0187213 0.998123 0.00225296
0.269294 -0.045119 0.962 0
-0.0535185 -0.0202396 0.998362 0.00245926
-0.0583554 -0.0185732 0.998123 0.000616261
-0.0580848 -0.021912 0.998071 0
-0.058639 -0.0162539 0.998147 0
-0.0571217 -0.0169478 0.998223 0.00105954
-0.0590101 -0.0182943 0.99809 0
-0.0581808 -0.0174822 0.998153 0
-0.0580881 -0.0197398 0.998116 0
0.270072 -0.0414576 0.961947 3.83506e-05
-0.0521666 -0.0223084 0.998389 0
-0.0559118 -0.0201216 0.998233 0.0013227
-0.0574995 -0.0188111 0.998168 0.0017792
-0.0582459 -0.0166161 0.998164 0.00062826
-0.0588599 -0.0181472 0.998101 0
-0.0586377 -0.0179905 0.998117 0
-0.0566671 -0.0184955 0.998222 0
-0.0592103 -0.0168914 0.998103 0
-0.0589191 -0.0174541 0.99811 0.00350275
-0.058443 -0.0228087 0.99803 0
0.245775 -0.0415618 0.968435 0.00278485
0.270489 -0.0415769 0.961825 0.00102228
-0.0528211 -0.0211371 0.99838 0.00311651
-0.0565362 -0.0196831 0.998206 0.00428275
-0.0581095 -0.0160583 0.998181 0.0043934
-0.0588904 -0.0176496 0.998108 0.000878629
-0.0586867 -0.0166035 0.998138 0.000400288
-0.058824 -0.0180063 0.998106 0
-0.0589201 -0.0196249 0.99807 0
0.244197 -0.0413655 0.968843 0.00117308
-0.052885 -0.0235384 0.998323 0
-0.0563418 -0.0190381 0.99823 0.00468567
-0.0579026 -0.0155495 0.998201 0.00310268
-0.0585658 -0.0184631 0.998113 0
-0.0597468 -0.0155656 0.998092 0.00234374
-0.0599172 -0.0175145 0.99805 0
0.223831 -0.0391142 0.973843 0.00133702
0.247521 -0.0406431 0.96803 0.00355088
-0.0528011 -0.0213707 0.998376 5.93973e-05
-0.0559369 -0.0178431 0.998275 0.00286247
-0.0585277 -0.0136666 0.998192 0.00722249
-0.0586961 -0.0166799 0.998137 0.0011491
-0.0599027 -0.016328 0.998071 0.00277944
-0.0595067 -0.015594 0.998106 0.000186884
-0.0588767 -0.0167475 0.998125 0.00342315
0.246097 -0.0446944 0.968214 0.000766577
-0.0527664 -0.021552 0.998374 4.35793e-06
-0.0565534 -0.0150313 0.998286 0.0036713
-0.0575096 -0.0165296 0.998208 0.00375589
-0.0578743 -0.0167956 0.998183 0.000333172
-0.0593054 -0.018758 0.998064 0
-0.0585941 -0.0164481 0.998146 0
-0.0588299 -0.0146509 0.998161 0.00245127
-0.0603663 -0.0156439 0.998054 0.00244823
-0.0592021 -0.0169273 0.998103 0.00016869
0.245932 -0.0435857 0.968307 0.00146649
-0.0525437 -0.0197606 0.998423 0
-0.0566101 -0.0144141 0.998292 0.00168214
-0.0561304 -0.0165607 0.998286 2.04176e-05
-0.0579861 -0.0174313 0.998165 0
-0.0587204 -0.0181317 0.99811 0
-0.0590862 -0.014696 0.998145 0.000226323
-0.0581217 -0.0151373 0.998195 0.000377569
-0.0605874 -0.012688 0.998082 0.00509895
0.243653 -0.0440789 0.96886 0
0.269193 -0.0466821 0.961954 0
-0.0530707 -0.0173116 0.998441 0
-0.056124 -0.0140446 0.998325 0.000446205
-0.0560849 -0.0178249 0.998267 0
-0.0566191 -0.0158102 0.998271 0.00151357
-0.0582818 -0.0180136 0.998138 0.000276189
-0.0582356 -0.017755 0.998145 0
-0.0594845 -0.0148354 0.998119 0
0.267346 -0.0431236 0.962635 0
-0.0528445 -0.0179626 0.998441 0.00123684
-0.0560713 -0.0189233 0.998247 0
-0.0563444 -0.0163991 0.998277 0.00127663
-0.0575555 -0.0207307 0.998127 0
-0.0586093 -0.0151875 0.998165 0
-0.0597669 -0.0146532 0.998105 0
0.268129 -0.0414805 0.962489 0.00195046
-0.0522321 -0.0208664 0.998417 0
-0.0556517 -0.0169291 0.998307 0
-0.0566752 -0.0131241 0.998306 0.00317138
-0.0574501 -0.0182765 0.998181 0
-0.0589231 -0.0163079 0.998129 0
-0.0598699 -0.0156886 0.998083 0
-0.0599527 -0.0131445 0.998115 0.00347333
-0.058199 -0.0153634 0.998187 0
0.268297 -0.0413209 0.96245 0
-0.0514269 -0.0205432 0.998465 0
-0.0558432 -0.0200498 0.998238 0
-0.0565316 -0.0139173 0.998304 0.00122149
-0.0576943 -0.0145663 0.998228 0
-0.0587072 -0.0144837 0.99817 0
-0.0591274 -0.0147029 0.998142 0.000603342
-0.0581564 -0.0162585 0.998175 0
0.266726 -0.0388456 0.962989 0
-0.0519652 -0.0168146 0.998507 0
-0.055563 -0.0176851 0.998299 0.00262863
-0.0559044 -0.0142153 0.998335 0
-0.0572013 -0.0152416 0.998246 0
-0.0590205 -0.0155538 0.998136 0
-0.0582032 -0.0155218 0.998184 0
-0.0579448 -0.0188984 0.998141 0
-0.0607893 -0.0170706 0.998005 0.00241143
0.266639 -0.0365918 0.963102 0
-0.0523228 -0.0187735 0.998454 0
-0.0515486 -0.0159885 0.998542 0
-0.0552553 -0.0160614 0.998343 0.00206691
-0.0560311 -0.0158257 0.998304 0
-0.0576849 -0.0145483 0.998229 0
-0.0589577 -0.0138315 0.998165 0
-0.0584176 -0.015661 0.998169 0
0.249544 -0.0333387 0.967789 0.00958902
0.26992 -0.0376995 0.962144 0.00231667
-0.0531154 -0.0187839 0.998412 2.112e-05
-0.0517917 -0.0158663 0.998532 0
-0.0549719 -0.017217 0.998339 0
-0.0566776 -0.0154259 0.998273 0.00171189
-0.0583153 -0.0144396 0.998194 0
-0.0578761 -0.0162912 0.998191 0
-0.058443 -0.0156496 0.998168 0
-0.0583806 -0.0169706 0.99815 0
0.249278 -0.0322628 0.967894 0.00875817
-0.0519769 -0.0159979 0.99852 0
-0.0547172 -0.0176595 0.998346 0
-0.0565474 -0.0148543 0.998289 0.00255831
-0.0580446 -0.0140399 0.998215 0
-0.0580412 -0.0143375 0.998211 0
-0.0582898 -0.0197364 0.998105 0
-0.0598326 -0.0127473 0.998127 0.00418105
0.248078 -0.0345234 0.968125 0.00666282
-0.0521225 -0.0156023 0.998519 0
-0.0551293 -0.0161465 0.998349 0
-0.0565423 -0.0155405 0.998279 0.000430541
-0.0577054 -0.0140649 0.998235 0
-0.0581506 -0.0147108 0.998199 0
-0.0588075 -0.0172519 0.99812 0
-0.0599337 -0.0122507 0.998127 0.00450912
-0.0528372 -0.0156906 0.99848 0.00132789
-0.0566148 -0.0156964 0.998273 0.00304336
-0.056504 -0.0159526 0.998275 0
-0.0574181 -0.0148881 0.998239 0
-0.0584163 -0.0136498 0.998199 0
-0.0594017 -0.0165801 0.998096 0
-0.0599562 -0.014468 0.998096 0.00227254
-0.0607795 -0.020171 0.997947 0.00379785
0.271361 -0.040939 0.961607 0.00247962
0.268994 -0.0419021 0.96223 0.000374049
-0.0519384 -0.0238761 0.998365 0
-0.0530975 -0.0150078 0.998477 0.00504835
-0.0568728 -0.0143836 0.998278 0.0053089
-0.056097 -0.0162874 0.998292 0
-0.0570649 -0.016232 0.998239 0
-0.0576327 -0.0166523 0.998199 0
-0.0593422 -0.0137107 0.998144 0
-0.059837 -0.017548 0.998054 0.00304501
-0.0609724 -0.0202074 0.997935 0.00501556
0.268071 -0.0411881 0.962518 0
0.299328 -0.0395005 0.953332 0
-0.0525063 -0.0245061 0.99832 0.00241287
-0.0532777 -0.0161279 0.99845 0.00604545
-0.0565477 -0.0112854 0.998336 0.00413794
-0.0568219 -0.0149281 0.998273 0.00353599
-0.0570045 -0.0162681 0.998241 0.00132043
-0.0571969 -0.0184784 0.998192 0
-0.0591499 -0.0152753 0.998132 0
0.267519 -0.0406946 0.962693 0
0.298723 -0.0393887 0.953527 0
-0.0532762 -0.0143998 0.998476 0.00804711
-0.0562372 -0.0139013 0.998321 0.0045049
-0.0574664 -0.0153058 0.99823 0.0063815
-0.0564489 -0.0195111 0.998215 0
-0.0572196 -0.0194223 0.998173 0
-0.0583498 -0.0188315 0.998119 0
-0.0595271 -0.019141 0.998043 0.000160813
0.300969 -0.0374513 0.952898 0
-0.0529977 -0.0155525 0.998474 0.00342193
-0.0528304 -0.0157508 0.998479 0.00346783
-0.0561829 -0.0157077 0.998297 0.00534833
-0.057475 -0.0177605 0.998189 0.00495502
-0.0566965 -0.0196376 0.998198 0
-0.0568002 -0.0195428 0.998194 0
-0.0577922 -0.0203417 0.998121 0
-0.0587286 -0.0204446 0.998065 0
-0.0602747 -0.0168469 0.99804 0.00192352
0.267448 -0.033989 0.962973 0
-0.0521613 -0.0252239 0.99832 0.00021598
-0.0529395 -0.0181857 0.998432 0.00423699
-0.0562075 -0.0170829 0.998273 0.00331591
-0.0564871 -0.0186524 0.998229 0.00401437
-0.0572828 -0.0192255 0.998173 0
-0.0583902 -0.0218727 0.998054 0
-0.0586001 -0.0215541 0.998049 0
-0.0610835 -0.0152172 0.998017 0.0045917
0.269251 -0.0320864 0.962535 0
-0.0530081 -0.0214873 0.998363 0
-0.0529005 -0.0253084 0.998279 0.00353578
-0.0523144 -0.0216027 0.998397 0.00285757
-0.0523171 -0.0198336 0.998434 0.00375337
-0.055802 -0.0209713 0.998222 4.86244e-05
-0.0559454 -0.020436 0.998225 0.00131575
-0.058058 -0.0208852 0.998095 0
-0.0583943 -0.0226523 0.998037 0
-0.0587179 -0.0216893 0.998039 0
0.273529 -0.0325899 0.961311 0.00253349
-0.0534448 -0.0208769 0.998353 0.00169866
-0.0528237 -0.0247995 0.998296 0.0019632
-0.0527871 -0.0225669 0.998351 0.00277243
-0.0515297 -0.0198916 0.998473 0.00230159
-0.0559523 -0.0241613 0.998141 0
-0.0564938 -0.0227026 0.998145 0.0012401
-0.0576864 -0.0239782 0.998047 0
0.242185 -0.0315182 0.969718 0
0.272854 -0.0332866 0.96148 0.0020728
-0.0528414 -0.0224757 0.99835 0.00192201
-0.0539811 -0.0225075 0.998288 0.00583311
-0.0523345 -0.0215418 0.998397 0.00141684
-0.0522938 -0.0223277 0.998382 0.00287361
-0.0557627 -0.0257907 0.998111 0
-0.0563525 -0.0218145 0.998173 0.000897405
-0.0572939 -0.0225552 0.998102 0
-0.0569976 -0.0228733 0.998112 0
-0.0580241 -0.0210889 0.998092 0
-0.053841 -0.0214474 0.998319 0.00522733
-0.0526166 -0.0212794 0.998388 0.00402721
-0.0562009 -0.0259672 0.998082 0
-0.0570796 -0.0225268 0.998115 0.00272443
-0.0568758 -0.023774 0.998098 0
-0.0569188 -0.0211484 0.998155 0
-0.0589287 -0.0179866 0.9981 0.00142612
0.270855 -0.0330719 0.962052 0
-0.0532687 -0.0252638 0.998261 0.00388458
-0.0511028 -0.0248265 0.998385 0.000749703
-0.0523521 -0.0217862 0.998391 0.00162793
-0.0558755 -0.022375 0.998187 0.00111589
-0.0568657 -0.0228565 0.99812 0.00132171
-0.0563588 -0.0244613 0.998111 0
-0.0567523 -0.0238531 0.998103 0
-0.0587689 -0.0192149 0.998087 9.19295e-05
0.269888 -0.0330104 0.962326 0
-0.0534858 -0.0260252 0.998229 0
-0.0529955 -0.0263097 0.998248 0.0033215
-0.0509324 -0.0259409 0.998365 0
-0.0524901 -0.0215477 0.998389 0
-0.0558283 -0.0222453 0.998192 0.0017889
-0.0555875 -0.0275835 0.998073 0
-0.0562042 -0.0264926 0.998068 0
-0.0590018 -0.0188649 0.99808 0
0.26768 -0.0318154 0.962983 0
0.298512 -0.032075 0.953867 0.00252643
-0.053281 -0.0255818 0.998252 0.000461601
-0.0522908 -0.0283951 0.998228 0
-0.0500663 -0.0272164 0.998375 0
-0.0524324 -0.0187735 0.998448 0
-0.0559898 -0.0212364 0.998205 0.000825596
-0.0551907 -0.0270463 0.998109 0
-0.0566647 -0.0229631 0.998129 0.000274374
0.297996 -0.0312175 0.954056 0.00273452
-0.0520733 -0.0276165 0.998261 0
-0.0500509 -0.0243427 0.99845 0
-0.0512122 -0.0220274 0.998445 0
-0.0552801 -0.0238235 0.998187 0.000479383
-0.056176 -0.0221001 0.998176 0.00460878
-0.056594 -0.0206497 0.998184 0.00183088
0.297003 -0.0270485 0.954493 0.00160887
-0.0520578 -0.0279637 0.998252 0
-0.0496305 -0.0255338 0.998441 0
-0.051427 -0.0205637 0.998465 0
-0.0548168 -0.0239184 0.99821 0.000807695
-0.0556246 -0.0230127 0.998187 0.00281259
-0.0566886 -0.019441 0.998203 0.00125153
-0.0549586 -0.0202112 0.998284 0.000875573
-0.0544477 -0.026253 0.998171 0
-0.0518186 -0.0259045 0.998321 0
-0.0494404 -0.0256043 0.998449 0
-0.0509295 -0.0214123 0.998473 0
-0.0545225 -0.0241849 0.99822 0.00197184
-0.0548601 -0.0234418 0.998219 0
-0.0569403 -0.0183134 0.99821 0.00147689
0.266093 -0.0262363 0.96359 0.00294621
-0.0558931 -0.0212445 0.998211 0.0016771
-0.0561183 -0.0190314 0.998243 0.000500635
-0.0560666 -0.0192799 0.998241 0.00408948
-0.0543506 -0.028651 0.998111 0
-0.052072 -0.0275843 0.998262 0
-0.0492805 -0.0279836 0.998393 0
-0.0508279 -0.0225626 0.998453 0
-0.0554775 -0.0207946 0.998243 0.00656908
-0.0555737 -0.0210705 0.998232 0.00260774
0.265976 -0.0267645 0.963608 0.00222136
-0.0565276 -0.0206154 0.998188 0.00339169
-0.0557437 -0.0200344 0.998244 0.000126053
-0.0562238 -0.0193335 0.998231 0.00550365
-0.0552096 -0.0249364 0.998163 0.00136717
-0.0528419 -0.0254299 0.998279 0
-0.0498866 -0.025096 0.99844 0
-0.0507867 -0.0225002 0.998456 0
-0.0546005 -0.0199252 0.998309 0.00320571
-0.0564212 -0.0224965 0.998154 0.00452176
0.264405 -0.0299311 0.963947 0
-0.0549828 -0.023708 0.998206 0.00167178
-0.0552404 -0.0230679 0.998207 0.00423131
-0.0521859 -0.0259913 0.998299 0
-0.0503803 -0.0253242 0.998409 0
-0.0510464 -0.022745 0.998437 0
-0.0547595 -0.022226 0.998252 0.00252235
-0.0560202 -0.0243362 0.998133 0.000514394
0.266753 -0.0345092 0.963147 0.00170139
-0.0546733 -0.0222195 0.998257 0.00531386
-0.0528863 -0.0239686 0.998313 0
-0.0515342 -0.025924 0.998335 0
-0.051261 -0.027405 0.998309 0
-0.0549982 -0.025205 0.998168 0.00107707
-0.056574 -0.0251999 0.99808 0.000464033
-0.0571427 -0.0269255 0.998003 0
0.269973 -0.035603 0.96221 0.00534793
-0.0554983 -0.0260884 0.998118 0
-0.0556641 -0.0210883 0.998227 0.00709899
-0.0544044 -0.0241404 0.998227 0.00247443
-0.0513356 -0.0271137 0.998313 0
-0.0515783 -0.0276784 0.998285 0
-0.0546307 -0.029659 0.998066 0
-0.056094 -0.0276868 0.998042 0
-0.0569078 -0.0255989 0.998051 0
0.265487 -0.0382787 0.963354 0.00111614
-0.0547824 -0.0282459 0.998099 0
-0.0540583 -0.0281606 0.998141 0
-0.0546026 -0.0287185 0.998095 0.00323104
-0.0550031 -0.0241238 0.998195 0.00628725
-0.0547554 -0.0230556 0.998234 0.00372476
-0.05215 -0.0291769 0.998213 0
-0.0514412 -0.0297475 0.998233 0
-0.0548295 -0.031156 0.99801 0
-0.0558599 -0.0293277 0.998008 0
0.267649 -0.0350741 0.962878 0.00503819
0.294669 -0.0366205 0.954897 0
-0.0533947 -0.0304849 0.998108 0
-0.0536232 -0.0291321 0.998136 0
-0.0539443 -0.0296724 0.998103 0
-0.0552724 -0.0258357 0.998137 0.00609969
-0.0542228 -0.0263248 0.998182 0.00175813
-0.054357 -0.0288212 0.998106 0.000856348
-0.0521919 -0.0277383 0.998252 0
-0.0540211 -0.0326707 0.998005 0
-0.0552759 -0.0330708 0.997923 0
0.294868 -0.036245 0.95485 0
-0.0529483 -0.032989 0.998052 0
-0.0533669 -0.0326421 0.998041 0
-0.0527851 -0.0297046 0.998164 0
-0.0551119 -0.0268629 0.998119 0.0034937
-0.0542191 -0.0297159 0.998087 0.0012814
-0.0521848 -0.031597 0.998137 0
-0.0514341 -0.0320114 0.998163 0
-0.0543586 -0.0330443 0.997975 0
-0.0557579 -0.0328537 0.997904 0
0.293851 -0.0332727 0.955272 0
-0.0524577 -0.0351259 0.998005 0
-0.0531754 -0.0343336 0.997995 0
-0.0530736 -0.0320687 0.998076 0
-0.0538629 -0.0303587 0.998087 0.000301651
-0.0537666 -0.0298709 0.998107 0
-0.0519074 -0.0368173 0.997973 0
-0.0510319 -0.0331559 0.998146 0
-0.0541749 -0.0333133 0.997976 0
-0.0555649 -0.0334221 0.997896 0
0.268907 -0.030209 0.962692 0.00683396
0.296845 -0.0322988 0.954379 0.00172241
-0.0522967 -0.0379683 0.99791 0
-0.0531768 -0.0376351 0.997876 0
-0.0526166 -0.0366106 0.997943 0
-0.0526498 -0.0354919 0.997982 0
-0.0533877 -0.0340466 0.997993 0
-0.0538282 -0.0334456 0.99799 0
-0.0517703 -0.0391655 0.997891 0
-0.051382 -0.0365406 0.99801 0
-0.0538814 -0.0345756 0.997949 0
-0.0558887 -0.0334961 0.997875 0.000912511
0.264468 -0.0346012 0.963774 0.00141449
-0.0501727 -0.0335189 0.998178 0.000249272
-0.0522114 -0.0389787 0.997875 0
-0.0529589 -0.039616 0.997811 0
-0.0528832 -0.0400265 0.997798 0
-0.0530166 -0.0351232 0.997976 0
-0.0534522 -0.0329252 0.998027 0
-0.0543336 -0.0342408 0.997936 0.000354482
-0.0510731 -0.0412881 0.997841 0
0.270927 -0.0348414 0.961969 0.0062666
0.273972 -0.0356088 0.961078 0.0086459
-0.0508245 -0.0316949 0.998205 0.00404602
-0.0519897 -0.0356605 0.998011 0
-0.0529933 -0.041533 0.997731 0
-0.0535886 -0.0381175 0.997835 0
-0.05329 -0.034765 0.997974 0
-0.0536079 -0.0350936 0.997945 0
-0.0549018 -0.0362804 0.997832 0.00204833
-0.0517568 -0.0399877 0.997859 0
0.27749 -0.0370567 0.960014 0.011769
-0.0522688 -0.035124 0.998015 0
-0.0535823 -0.0397332 0.997773 0
-0.0533793 -0.0404007 0.997757 0
-0.0531855 -0.0364647 0.997919 0
-0.0537842 -0.0356155 0.997917 0
-0.0541213 -0.0365715 0.997864 0
-0.0518104 -0.0403926 0.99784 0
-0.0532485 -0.0384722 0.99784 0
0.275238 -0.0418431 0.960465 0.00972316
-0.053689 -0.0349212 0.997947 0.00390275
-0.0537623 -0.0398329 0.997759 0.00152879
-0.053189 -0.0376798 0.997873 0.001355
-0.0530676 -0.0374647 0.997888 0.000623242
-0.0531608 -0.0380179 0.997862 6.22511e-05
-0.0537106 -0.038938 0.997797 4.07041e-05
-0.0525893 -0.0411328 0.997769 0
-0.0532033 -0.0413187 0.997729 0
-0.0535487 -0.039368 0.997789 0
0.274287 -0.0429561 0.960688 0.0109147
-0.0499674 -0.0363737 0.998088 0.0017743
-0.0519492 -0.0350647 0.998034 0.00196052
-0.0536661 -0.0330535 0.998012 0.00538096
-0.054189 -0.04015 0.997723 0.00297102
-0.0518846 -0.0398202 0.997859 0
-0.0528252 -0.0367971 0.997926 0
-0.052784 -0.0391597 0.997838 0
-0.0538186 -0.0408525 0.997715 0
-0.0529476 -0.0407621 0.997765 0
-0.0531145 -0.0423783 0.997689 0
-0.0535528 -0.0409415 0.997725 0
0.27328 -0.045986 0.960835 0.0103177
0.308361 -0.0463842 0.950138 0.0111148
-0.0504928 -0.0377899 0.998009 0.00225354
-0.0517022 -0.0344817 0.998067 0.000807013
-0.0538182 -0.034583 0.997952 0.00477833
-0.0531282 -0.0371926 0.997895 0.00272186
-0.0527618 -0.0405951 0.997782 0.00058687
-0.0521768 -0.0377891 0.997923 0.00134658
-0.0523951 -0.0394612 0.997846 0
-0.0525207 -0.040159 0.997812 0
-0.0521551 -0.040595 0.997814 0
-0.0524719 -0.0428006 0.997705 0
-0.0530693 -0.0419299 0.99771 0
0.305583 -0.0494347 0.950881 0.0112598
0.335503 -0.0516226 0.940624 0.0100922
-0.0500807 -0.0407157 0.997915 0.00417659
-0.0522148 -0.0414618 0.997775 0
-0.0521365 -0.0413692 0.997783 0
-0.0520105 -0.0371516 0.997955 0.000897092
-0.0518432 -0.0399504 0.997856 0
-0.0525522 -0.0415952 0.997752 0
-0.052455 -0.0435039 0.997675 0
-0.0521011 -0.0439201 0.997676 0
0.308141 -0.0499619 0.950028 0.0154895
0.336131 -0.0530924 0.940318 0.0109592
-0.0505724 -0.0408368 0.997885 0.00568621
-0.0517012 -0.0428521 0.997743 0.000499789
-0.052597 -0.042221 0.997723 0
-0.0521967 -0.04053 0.997814 0
-0.0515609 -0.0411053 0.997824 0
-0.0525618 -0.0435216 0.997669 0
-0.0524751 -0.0466036 0.997534 0
-0.0509696 -0.0460757 0.997637 0
0.302083 -0.052312 0.951845 0.00897096
-0.0515917 -0.0429624 0.997744 0
-0.0516237 -0.0470195 0.997559 0
-0.0510772 -0.0459325 0.997638 0
-0.051495 -0.0465768 0.997586 0
-0.0530936 -0.0433537 0.997648 0
-0.0530345 -0.0467705 0.997497 0
-0.0505491 -0.0459782 0.997663 0
0.296383 -0.0536268 0.953562 0.00469236
-0.0504276 -0.0424096 0.997827 0.00225977
-0.0509371 -0.0436546 0.997747 0
-0.0502288 -0.0443156 0.997754 0
-0.0506894 -0.0499097 0.997467 0
-0.0511438 -0.0471925 0.997576 0
-0.0515621 -0.0452535 0.997644 0
-0.0527657 -0.0445621 0.997612 0
-0.053281 -0.0447277 0.997577 0
