# .PCD v0.7 - Point Cloud Data file format
VERSION 0.7
FIELDS x y z
SIZE 4 4 4
TYPE F F F
COUNT 1 1 1
WIDTH 1397
HEIGHT 1
VIEWPOINT 0 0 0 1 0 0 0
POINTS 1397
DATA ascii
-0.090815999 0.007578 -0.25721201
-0.090811998 0.0076540001 -0.257218
-0.090809003 0.0077280002 -0.257222
-0.090806 0.0078019998 -0.25721899
-0.090804003 0.0078800004 -0.257209
-0.090801001 0.007956 -0.25719899
-0.090798996 0.0080319997 -0.257191
-0.090796001 0.0081049995 -0.25718501
-0.090792999 0.0081810001 -0.25718999
-0.090790004 0.0082550002 -0.25719401
-0.090787001 0.0083309999 -0.25718799
-0.090783998 0.0084070005 -0.25717801
-0.090781003 0.0084809996 -0.25718799
-0.090777002 0.0085549997 -0.25720099
-0.090774 0.0086310003 -0.25719899
-0.090772003 0.0087069999 -0.257193
-0.090769 0.0087829996 -0.25718701
-0.090765998 0.0088569997 -0.25718999
-0.090763003 0.0089309998 -0.25719601
-0.09076 0.0090070004 -0.25719601
-0.090756997 0.0090810005 -0.25719401
-0.090754002 0.0091570001 -0.25719401
-0.090751 0.0092310002 -0.257193
-0.090747997 0.0093069999 -0.257193
-0.090745002 0.009381 -0.25719899
-0.090741001 0.0094550001 -0.25720501
-0.090737998 0.0095309997 -0.25720599
-0.090735003 0.0096049998 -0.25720999
-0.090732001 0.0096810004 -0.257204
-0.090729997 0.009757 -0.25719401
-0.090727001 0.0098320004 -0.257184
-0.090723999 0.009908 -0.25718701
-0.090721004 0.0099809999 -0.25720099
-0.090717003 0.010055 -0.25721899
-0.090714 0.010129 -0.257227
-0.090710998 0.010205 -0.25721601
-0.090708002 0.010281 -0.25720799
-0.090705 0.010355 -0.25721401
-0.090701997 0.010431 -0.25721201
-0.090699002 0.010505 -0.257218
-0.090695001 0.010579 -0.25723299
-0.090691999 0.010655 -0.25723299
-0.090690002 0.010731 -0.257227
-0.090686999 0.010805 -0.25721899
-0.090683997 0.010881 -0.25721699
-0.090681002 0.010955 -0.25723201
-0.090677001 0.011029 -0.25724599
-0.090673998 0.011103 -0.25725201
-0.090669997 0.011177 -0.25726199
-0.090667002 0.011254 -0.257265
-0.090663999 0.011329 -0.25725701
-0.090662003 0.011405 -0.25725499
-0.090658002 0.011479 -0.257265
-0.090654999 0.011553 -0.25727099
-0.090651996 0.01163 -0.257274
-0.090648003 0.011704 -0.25728399
-0.090645 0.011778 -0.25728601
-0.090643004 0.011853 -0.257278
-0.090640001 0.011929 -0.25727299
-0.090636998 0.012003 -0.25727701
-0.090632997 0.012077 -0.257283
-0.090630002 0.012153 -0.257283
-0.090627998 0.012229 -0.25727701
-0.090625003 0.012303 -0.25727999
-0.090621002 0.012377 -0.25729001
-0.090617001 0.012452 -0.25730601
-0.090613998 0.012526 -0.25731999
-0.090611003 0.012602 -0.257321
-0.090608999 0.012678 -0.25729901
-0.090607002 0.012755 -0.257269
-0.090604 0.012829 -0.257269
-0.090600997 0.012905 -0.25727499
-0.090598002 0.012979 -0.25728601
-0.090594001 0.013053 -0.25730199
-0.09059 0.013128 -0.25731599
-0.090586998 0.013202 -0.25732601
-0.090584002 0.013278 -0.25732601
-0.090581 0.013352 -0.257321
-0.090577997 0.013428 -0.257321
-0.090575002 0.013502 -0.257323
-0.090572 0.013578 -0.25732699
-0.090568997 0.013652 -0.257328
-0.090566002 0.013727 -0.25732201
-0.090562999 0.013801 -0.25732201
-0.090559997 0.013878 -0.257332
-0.090556003 0.013952 -0.25734001
-0.090553001 0.014028 -0.257341
-0.090550996 0.014104 -0.25733301
-0.090548001 0.014177 -0.25732499
-0.090544999 0.014253 -0.25732899
-0.090540998 0.014328 -0.25734401
-0.090538003 0.014404 -0.257348
-0.090535 0.014478 -0.257346
-0.090531997 0.014552 -0.257346
-0.090529002 0.014628 -0.25735
-0.090526 0.014704 -0.25734699
-0.090522997 0.014779 -0.25734499
-0.090520002 0.014854 -0.25735101
-0.090516999 0.014927 -0.25734699
-0.090515003 0.015003 -0.257337
-0.090512 0.015077 -0.25734201
-0.090507999 0.015154 -0.25735801
-0.090503998 0.015228 -0.257368
-0.090502001 0.015302 -0.257364
-0.090498 0.015378 -0.25736499
-0.090494998 0.015452 -0.25736701
-0.090493001 0.015527 -0.257357
-0.090490997 0.015603 -0.257337
-0.090489 0.015678 -0.25731301
-0.090485997 0.015753999 -0.25730401
-0.090483002 0.015828 -0.25731599
-0.090479001 0.015905 -0.25733599
-0.090475999 0.015978999 -0.25733799
-0.090473004 0.016053 -0.25734499
-0.090469003 0.016129 -0.25735101
-0.090466 0.016202999 -0.25734901
-0.090462998 0.016279001 -0.25734901
-0.090461001 0.016353 -0.25734699
-0.090457998 0.016427999 -0.25733599
-0.090456001 0.016504001 -0.25732601
-0.090452 0.016578 -0.257332
-0.090448998 0.016654 -0.25733599
-0.090446003 0.016728001 -0.25734201
-0.090442002 0.016803 -0.25735301
-0.090438999 0.016879 -0.25735301
-0.090435997 0.016954999 -0.25735301
-0.090433002 0.017029 -0.257355
-0.090430997 0.017104 -0.25735
-0.090428002 0.017178001 -0.257348
-0.090425 0.017254001 -0.25734201
-0.090421997 0.01733 -0.25733399
-0.090419002 0.017406 -0.25733599
-0.090415999 0.017480001 -0.257337
-0.090412997 0.017554 -0.257339
-0.090411 0.01763 -0.25733301
-0.090409003 0.017704999 -0.25731301
-0.090405002 0.017781001 -0.25731599
-0.090402 0.017856 -0.257328
-0.090398997 0.017929999 -0.25733599
-0.090395004 0.018006001 -0.25734401
-0.090392001 0.01808 -0.25734401
-0.090389997 0.018155999 -0.25733501
-0.090387002 0.018229 -0.25732699
-0.090383999 0.018305 -0.25732699
-0.090380996 0.018378999 -0.257337
-0.090377003 0.018454 -0.257348
-0.090374 0.01853 -0.25735399
-0.090370998 0.018606 -0.25735
-0.090368003 0.018679 -0.25734401
-0.090365998 0.018755 -0.25733599
-0.090363003 0.018828999 -0.25733301
-0.090360001 0.018905001 -0.257341
-0.090356 0.01898 -0.257357
-0.090351999 0.019053999 -0.25736701
-0.090349004 0.019130001 -0.25736499
-0.090346999 0.019205 -0.25735599
-0.090343997 0.019278999 -0.25735199
-0.090341002 0.019355001 -0.25735199
-0.090337999 0.019429 -0.25735399
-0.090336002 0.019505 -0.25734499
-0.090333 0.019580999 -0.25733301
-0.090329997 0.019655 -0.25733301
-0.090327002 0.019731 -0.257337
-0.090324 0.019804999 -0.257341
-0.090320997 0.019881001 -0.25733399
-0.090319 0.019954 -0.25732201
-0.090314999 0.020029999 -0.25733
-0.090311997 0.020105001 -0.25734201
-0.09031 0.02018 -0.257321
-0.090308003 0.020256 -0.257301
-0.090305001 0.020330001 -0.25730699
-0.090301 0.020406 -0.257319
-0.090297997 0.020479999 -0.25731501
-0.090296 0.020555999 -0.25729999
-0.090294003 0.020631 -0.25728399
-0.090291001 0.020705 -0.25728399
-0.090287 0.020780999 -0.257294
-0.090285003 0.020855 -0.25729099
-0.090282001 0.020931 -0.25727099
-0.090281002 0.021005999 -0.257247
-0.090277001 0.02108 -0.25725299
-0.090273999 0.021155 -0.257269
-0.090269998 0.021230999 -0.257276
-0.090267003 0.021305 -0.25727999
-0.090264 0.021381 -0.257274
-0.090262003 0.021454001 -0.257256
-0.090259999 0.02153 -0.25724301
-0.090256996 0.021606 -0.25724101
-0.090255 0.021679999 -0.25723299
-0.090251997 0.021755001 -0.25721699
-0.09025 0.021829 -0.25719899
-0.090246998 0.021904999 -0.25719401
-0.090244003 0.021979 -0.257202
-0.090241 0.022055 -0.25721201
-0.090237997 0.022128999 -0.25720599
-0.090235002 0.022205001 -0.25719899
-0.090232 0.022279 -0.25720099
-0.090228997 0.022353999 -0.25719899
-0.090227 0.022428 -0.25718701
-0.090223998 0.022504 -0.25718501
-0.090221003 0.022577999 -0.25718999
-0.090218 0.022654001 -0.257186
-0.090216003 0.022728 -0.25717399
-0.090213001 0.022802999 -0.25716001
-0.090209998 0.022879001 -0.25716099
-0.090208001 0.022953 -0.257157
-0.090204999 0.023029 -0.257155
-0.090202004 0.023103001 -0.25715899
-0.090199001 0.023177 -0.25715601
-0.090195999 0.023252999 -0.25714999
-0.090194002 0.023327 -0.25714001
-0.090190999 0.023402 -0.25713399
-0.090187997 0.023479 -0.25714001
-0.090184003 0.023553001 -0.25714499
-0.090181001 0.023629 -0.25714701
-0.090177998 0.023703 -0.25714499
-0.090176001 0.023778001 -0.25714099
-0.090172 0.023853 -0.25714499
-0.090168998 0.023926999 -0.25714999
-0.090166003 0.024003001 -0.25714999
-0.090163 0.024077 -0.25715801
-0.090159997 0.024153 -0.257164
-0.090157002 0.024228999 -0.25716099
-0.090154 0.024302 -0.257155
-0.090150997 0.024378 -0.257155
-0.090147004 0.024452999 -0.25716901
-0.090144001 0.024529001 -0.257173
-0.090140998 0.024603 -0.25717399
-0.090138003 0.024679 -0.25718001
-0.090135001 0.024753001 -0.25718799
-0.090131998 0.024829 -0.257184
-0.090129003 0.024902999 -0.25718099
-0.090126 0.024979001 -0.25718299
-0.090122998 0.025053 -0.25718501
-0.090120003 0.025129 -0.25718901
-0.090116002 0.025203001 -0.25720099
-0.090112999 0.025279 -0.25720999
-0.090108998 0.025355 -0.257218
-0.090106003 0.025429999 -0.25723201
-0.090102002 0.025505999 -0.25725201
-0.090098001 0.025582001 -0.25726399
-0.090094998 0.025656 -0.25727099
-0.090090998 0.025731999 -0.25727701
-0.090088002 0.025807001 -0.25729099
-0.090084001 0.025883 -0.25730699
-0.090080999 0.025959 -0.25731501
-0.090078004 0.026035 -0.25731501
-0.090075001 0.026109001 -0.25731
-0.090071999 0.026183 -0.25731
-0.090067998 0.026258999 -0.25732401
-0.090063997 0.026335999 -0.25734201
-0.090061001 0.026412001 -0.25735301
-0.090057001 0.026486 -0.25736499
-0.090053 0.026562 -0.25738499
-0.090049997 0.026639 -0.257397
-0.090047002 0.026713001 -0.25740099
-0.090043001 0.026789 -0.257415
-0.090039 0.026865 -0.257442
-0.090034999 0.026942 -0.257456
-0.090031996 0.027017999 -0.25745201
-0.090029001 0.027092 -0.257458
-0.090025 0.027168 -0.257476
-0.090020999 0.027244 -0.257489
-0.090016998 0.027321 -0.25750899
-0.090012997 0.027396999 -0.25753301
-0.090008996 0.027473999 -0.25755101
-0.090006001 0.027550001 -0.257561
-0.090002 0.027624 -0.25757799
-0.089997999 0.0277 -0.257586
-0.089993998 0.027776999 -0.257606
-0.089989997 0.027853001 -0.257644
-0.089984998 0.027930001 -0.25766799
-0.089982003 0.028006 -0.25768399
-0.089977004 0.028083 -0.25771201
-0.089971997 0.028162001 -0.25774899
-0.089966998 0.028239001 -0.257801
-0.089961 0.028317999 -0.25785699
-0.089954004 0.028398 -0.257945
-0.089947 0.028477 -0.258021
-0.090607002 0.0052550002 -0.25773999
-0.090608001 0.0053389999 -0.25764999
-0.090609998 0.0054239999 -0.25753799
-0.090608999 0.0055030002 -0.257494
-0.090608999 0.0055860002 -0.257438
-0.090607002 0.005663 -0.25740099
-0.090605997 0.005742 -0.25736701
-0.090604 0.0058220001 -0.25733301
-0.090602003 0.005897 -0.25731099
-0.090600997 0.0059759999 -0.25728101
-0.090599 0.006056 -0.257245
-0.090597004 0.0061309999 -0.25723201
-0.090594001 0.006207 -0.25722799
-0.090590999 0.0062810001 -0.257222
-0.090588003 0.0063570002 -0.257218
-0.090585999 0.0064329999 -0.25721401
-0.090582997 0.006509 -0.257213
-0.090579003 0.0065810001 -0.257229
-0.090576001 0.0066550002 -0.25724101
-0.090572 0.0067309998 -0.25724301
-0.090568997 0.0068049999 -0.25725001
-0.090566002 0.006879 -0.25725201
-0.090562999 0.0069550001 -0.257254
-0.090559997 0.0070290002 -0.25725999
-0.090557002 0.0071049999 -0.257258
-0.090553999 0.0071789999 -0.25725299
-0.090550996 0.0072550001 -0.25725099
-0.090548001 0.0073310002 -0.25725299
-0.090544999 0.0074049998 -0.257249
-0.090543002 0.0074829999 -0.25724
-0.090539999 0.0075579998 -0.25722599
-0.090536997 0.0076319999 -0.25723001
-0.090534002 0.007708 -0.25723201
-0.090530999 0.0077820001 -0.25723001
-0.090527996 0.0078579998 -0.257227
-0.090526 0.0079340003 -0.25721699
-0.090522997 0.00801 -0.257209
-0.090521 0.0080850003 -0.25719899
-0.090517998 0.008161 -0.257191
-0.090515003 0.0082369996 -0.25719601
-0.090512 0.0083109997 -0.2572
-0.090508997 0.0083870003 -0.25719199
-0.090506002 0.0084629999 -0.25718799
-0.090503 0.0085349996 -0.25720099
-0.090498999 0.0086110001 -0.25720701
-0.090497002 0.0086869998 -0.257193
-0.090494998 0.0087630004 -0.25718299
-0.090492003 0.0088369995 -0.25718501
-0.090488002 0.0089130001 -0.25719199
-0.090484999 0.0089870002 -0.25719801
-0.090481997 0.0090610003 -0.2572
-0.090479001 0.0091390004 -0.25718799
-0.090476997 0.0092129996 -0.257186
-0.090473004 0.0092869997 -0.25720099
-0.090470001 0.0093609998 -0.25720701
-0.090466999 0.0094349999 -0.257211
-0.090462998 0.0095109995 -0.257213
-0.090460002 0.0095870001 -0.25721201
-0.090457 0.0096589997 -0.25722799
-0.090452999 0.0097340001 -0.257238
-0.090449996 0.0098090004 -0.257236
-0.090447001 0.0098850001 -0.257236
-0.090444997 0.0099590002 -0.25723299
-0.090442002 0.010035 -0.257231
-0.090438999 0.010109 -0.25723299
-0.090435997 0.010185 -0.257229
-0.090433002 0.010261 -0.25723201
-0.090429999 0.010335 -0.257236
-0.090426996 0.010409 -0.257236
-0.090423003 0.010485 -0.257238
-0.090420999 0.010559 -0.257238
-0.090418003 0.010635 -0.25723299
-0.090415001 0.010711 -0.257227
-0.090411998 0.010785 -0.257227
-0.090409003 0.010861 -0.25723901
-0.090405002 0.010935 -0.25724801
-0.090402 0.011009 -0.25725001
-0.090398997 0.011085 -0.257256
-0.090395004 0.011159 -0.25726399
-0.090392001 0.011233 -0.25726801
-0.090388998 0.01131 -0.25727499
-0.090386003 0.011384 -0.25727901
-0.090383001 0.01146 -0.25728101
-0.090379998 0.011534 -0.257283
-0.090377003 0.01161 -0.257285
-0.090374 0.011684 -0.25728399
-0.090370998 0.011759 -0.25727999
-0.090368003 0.011835 -0.25727201
-0.090365 0.011909 -0.257278
-0.090361997 0.011983 -0.257287
-0.090357997 0.012058 -0.25729299
-0.090355001 0.012134 -0.25729501
-0.090351999 0.012208 -0.257303
-0.090349004 0.012282 -0.25731099
-0.090345003 0.012358 -0.257314
-0.090342999 0.012432 -0.257314
-0.090338998 0.012508 -0.257314
-0.090336002 0.012582 -0.25731799
-0.090333 0.012658 -0.257321
-0.090329997 0.012732 -0.257323
-0.090327002 0.012808 -0.257323
-0.090324 0.012884 -0.257319
-0.090320997 0.012958 -0.25731701
-0.090318002 0.013034 -0.25731799
-0.090315998 0.013107 -0.25731599
-0.090311997 0.013182 -0.25733399
-0.090308003 0.013256 -0.25735801
-0.090304002 0.01333 -0.25736299
-0.090301998 0.013406 -0.25734499
-0.090300001 0.013484 -0.257337
-0.090296 0.013558 -0.25734299
-0.090292998 0.013634 -0.25734299
-0.090291001 0.013708 -0.25733599
-0.090287998 0.013783 -0.25732601
-0.090285003 0.013859 -0.25732601
-0.090282001 0.013934 -0.25734001
-0.090278 0.014008 -0.25735199
-0.090276003 0.014084 -0.25734299
-0.090273 0.014159 -0.25732899
-0.090269998 0.014234 -0.25734299
-0.090265997 0.014308 -0.25735301
-0.090263002 0.014384 -0.25736001
-0.090259999 0.014458 -0.257364
-0.090256996 0.014534 -0.25736001
-0.090254001 0.01461 -0.25735599
-0.090250999 0.014684 -0.25735599
-0.090248004 0.014759 -0.25735301
-0.090245001 0.014833 -0.25734901
-0.090241998 0.014909 -0.257355
-0.090239003 0.014984 -0.25736299
-0.090235002 0.015058 -0.257375
-0.090231001 0.015132 -0.25739801
-0.090227999 0.015208 -0.25739399
-0.090226002 0.015284 -0.25737599
-0.090222999 0.01536 -0.25737
-0.090219997 0.015434 -0.25738099
-0.090217002 0.015508 -0.25738901
-0.090213999 0.015584 -0.25739101
-0.090210997 0.015658 -0.25738499
-0.090208001 0.015733 -0.25737301
-0.090205997 0.015809 -0.257366
-0.090203002 0.015883001 -0.25737
-0.0902 0.015959 -0.25737
-0.090196997 0.016032999 -0.257366
-0.090194002 0.016109001 -0.257359
-0.090190999 0.016185001 -0.257359
-0.090187997 0.016259 -0.25736299
-0.090185001 0.016334999 -0.25736901
-0.090181999 0.016409 -0.25737101
-0.090178996 0.016485 -0.257366
-0.090176001 0.016558999 -0.25735801
-0.090173997 0.016635001 -0.25735399
-0.090171002 0.01671 -0.25735
-0.090167999 0.016783999 -0.25734699
-0.090164997 0.016860001 -0.257339
-0.090163 0.016936 -0.25733501
-0.090158999 0.01701 -0.25734699
-0.090154998 0.017084001 -0.257359
-0.090152003 0.01716 -0.25736201
-0.090149999 0.017236 -0.25735801
-0.090145998 0.017309999 -0.257364
-0.090143003 0.017387001 -0.25737199
-0.09014 0.017461 -0.25737399
-0.090138003 0.017535999 -0.257359
-0.090135001 0.017612001 -0.25734299
-0.090131998 0.017686 -0.25735101
-0.090127997 0.017762 -0.25736299
-0.090126 0.017836001 -0.25736201
-0.090121999 0.01791 -0.257364
-0.090118997 0.017986 -0.257364
-0.090117 0.018060001 -0.25735801
-0.090113997 0.018136 -0.25735599
-0.090111002 0.018212 -0.25736099
-0.090108 0.018285999 -0.25736099
-0.090104997 0.018362001 -0.257359
-0.090102002 0.018436 -0.25736499
-0.090098001 0.018511999 -0.257375
-0.090094998 0.018586 -0.25737199
-0.090093002 0.01866 -0.257364
-0.090089999 0.018735999 -0.25736201
-0.090086997 0.018812001 -0.25736001
-0.090084001 0.018885 -0.257359
-0.090080999 0.018960999 -0.257357
-0.090078004 0.019035 -0.257359
-0.090075001 0.019111 -0.257355
-0.090071999 0.019184999 -0.257355
-0.090069003 0.019261001 -0.25736201
-0.090066001 0.019335 -0.257364
-0.090062998 0.019410999 -0.25735599
-0.090061001 0.019486999 -0.25734001
-0.090057999 0.019561 -0.25733301
-0.090054996 0.019637 -0.257339
-0.090051003 0.019711001 -0.257355
-0.090048 0.019787 -0.257359
-0.090046003 0.019861 -0.25735101
-0.090043001 0.019936999 -0.25734201
-0.090039998 0.020013001 -0.25734201
-0.090037003 0.020087 -0.25735199
-0.090033002 0.020160999 -0.257366
-0.09003 0.020237001 -0.25736499
-0.090028003 0.020313 -0.25735101
-0.090025 0.020385999 -0.25734699
-0.090021998 0.020462001 -0.25734299
-0.090019003 0.020536 -0.25733501
-0.090016998 0.020612 -0.25733
-0.090014003 0.020687999 -0.25732401
-0.090011001 0.020762 -0.25731799
-0.090008996 0.020837 -0.25730801
-0.090006001 0.020911001 -0.25729701
-0.090005003 0.020987 -0.25727099
-0.090002 0.021062 -0.25725901
-0.089997999 0.021136999 -0.25727701
-0.089994997 0.021213001 -0.25728899
-0.089992002 0.021287 -0.257292
-0.089988999 0.021362999 -0.25727999
-0.089987002 0.021436 -0.257274
-0.089983001 0.021513 -0.25728399
-0.089979999 0.021586001 -0.25727901
-0.089978002 0.021662001 -0.25726101
-0.089975998 0.021736 -0.25725299
-0.089973003 0.021811999 -0.257245
-0.089970998 0.021887001 -0.257231
-0.089968003 0.021961 -0.25723001
-0.089965001 0.022035001 -0.25723401
-0.089961998 0.022111 -0.25723201
-0.089959003 0.022187 -0.25722599
-0.089956 0.022260999 -0.257229
-0.089952998 0.022337001 -0.257231
-0.089950003 0.022411 -0.25722301
-0.089947999 0.022485999 -0.25720099
-0.089946002 0.02256 -0.25718701
-0.089943998 0.022636 -0.25718001
-0.089941002 0.022709001 -0.25716999
-0.089938 0.022785001 -0.25716799
-0.089934997 0.022859 -0.257166
-0.089932002 0.022934999 -0.25716299
-0.089929 0.023011001 -0.25716501
-0.089925997 0.023085 -0.25716901
-0.089923002 0.023158999 -0.25716501
-0.089920998 0.023235001 -0.25716099
-0.089918002 0.023309 -0.257164
-0.089914002 0.023384999 -0.25716999
-0.089910999 0.023459001 -0.25717399
-0.089907996 0.023535 -0.25717399
-0.089906 0.023611 -0.25716099
-0.089904003 0.023684001 -0.25714299
-0.089901 0.02376 -0.25714299
-0.089896999 0.023833999 -0.25715101
-0.089893997 0.023909001 -0.25715801
-0.089891002 0.023985 -0.25716799
-0.089887001 0.024061 -0.25717199
-0.089883998 0.024134999 -0.25717199
-0.089881003 0.024211001 -0.25717601
-0.089878 0.024285 -0.257177
-0.089874998 0.024360999 -0.257177
-0.089872003 0.024435 -0.25718901
-0.089868002 0.024511 -0.257191
-0.089865997 0.024584999 -0.25718901
-0.089863002 0.024661001 -0.25718999
-0.08986 0.024735 -0.25718999
-0.089856997 0.024811 -0.257184
-0.089854002 0.024885001 -0.25718001
-0.089850999 0.02496 -0.25717601
-0.089847997 0.025034999 -0.25718501
-0.089845002 0.025110999 -0.25718701
-0.089841999 0.025184 -0.25718099
-0.089838997 0.025261 -0.25718701
-0.089836001 0.025336999 -0.25719401
-0.089832 0.025411 -0.2572
-0.089827999 0.025487 -0.25722
-0.089823999 0.025560999 -0.257238
-0.089821003 0.025637999 -0.25725201
-0.089818001 0.025714001 -0.25725701
-0.089814 0.025788 -0.25725901
-0.089810997 0.025864 -0.25727701
-0.089805998 0.025940999 -0.257305
-0.089801997 0.026017001 -0.25733501
-0.089798003 0.026092 -0.25734699
-0.089795001 0.026167 -0.25734401
-0.089792997 0.026241001 -0.25733799
-0.089790002 0.026317 -0.25733599
-0.089786001 0.026393 -0.25734401
-0.089782998 0.026467999 -0.25736099
-0.089778997 0.026543999 -0.25737101
-0.089776002 0.026620001 -0.257379
-0.089772001 0.026694 -0.25740099
-0.089767002 0.026773 -0.257431
-0.089763001 0.026846999 -0.257451
-0.089759998 0.026923999 -0.25746
-0.089757003 0.027000001 -0.25746399
-0.089753002 0.027074 -0.25747401
-0.089749999 0.02715 -0.257478
-0.089746997 0.027225999 -0.25748399
-0.089743003 0.027302001 -0.257505
-0.089737996 0.027379001 -0.25752899
-0.089734003 0.027455 -0.25754699
-0.089731 0.027531 -0.257559
-0.089726999 0.027605999 -0.25757101
-0.089722998 0.027682001 -0.257599
-0.089717999 0.027760999 -0.25763601
-0.089713998 0.027837999 -0.257662
-0.089709997 0.027914001 -0.25768399
-0.089706004 0.02799 -0.257696
-0.089702003 0.028065 -0.25771001
-0.089698002 0.028143 -0.25773001
-0.089693002 0.02822 -0.25777501
-0.089686997 0.028299 -0.257835
-0.089681 0.028377 -0.25790301
-0.089674003 0.028456001 -0.25797099
-0.090361997 0.005231 -0.25768599
-0.090360001 0.0053079999 -0.25767201
-0.090360001 0.0053909998 -0.25760001
-0.090360999 0.005475 -0.257512
-0.090360001 0.0055570002 -0.25744799
-0.090360999 0.0056380001 -0.25737801
-0.090359002 0.005717 -0.25734401
-0.090356998 0.0057950001 -0.25732401
-0.090355001 0.005872 -0.25729299
-0.090354003 0.0059489999 -0.257265
-0.090351 0.006025 -0.25725499
-0.090347998 0.0061030001 -0.257247
-0.090346001 0.006178 -0.25723499
-0.090343997 0.0062540001 -0.25722399
-0.090341002 0.0063299998 -0.25722
-0.090337999 0.0064039999 -0.25722
-0.090334997 0.006482 -0.25721201
-0.090332001 0.0065560001 -0.25720501
-0.090328999 0.0066320002 -0.25720701
-0.090325996 0.0067059998 -0.25722101
-0.090322003 0.0067779999 -0.25723699
-0.090319 0.006854 -0.25723901
-0.090315998 0.0069280001 -0.257238
-0.090313002 0.0070039998 -0.25723401
-0.09031 0.0070799999 -0.25723401
-0.090306997 0.007154 -0.25723201
-0.090305001 0.0072320001 -0.257218
-0.090301998 0.007305 -0.25721499
-0.090299003 0.0073810001 -0.25721499
-0.090296 0.0074570002 -0.257211
-0.090292998 0.0075309998 -0.257211
-0.090290003 0.0076069999 -0.25721401
-0.090287998 0.007681 -0.25720999
-0.090285003 0.0077570002 -0.25720599
-0.090282001 0.0078330003 -0.257204
-0.090278998 0.0079070004 -0.257204
-0.090276003 0.0079849996 -0.257193
-0.090273999 0.0080599999 -0.25718299
-0.090271004 0.008134 -0.257177
-0.090268001 0.0082099997 -0.257177
-0.090264998 0.0082860002 -0.257175
-0.090262003 0.0083600003 -0.25718001
-0.090259001 0.0084340004 -0.25718799
-0.090255 0.0085079996 -0.25719601
-0.090251997 0.0085840002 -0.2572
-0.090249002 0.0086599998 -0.257195
-0.090246998 0.0087360004 -0.257177
-0.090245001 0.008812 -0.25716299
-0.090241998 0.0088860001 -0.25716901
-0.090237997 0.0089619998 -0.25718099
-0.090235002 0.0090359999 -0.257184
-0.090232 0.0091120005 -0.25718001
-0.090228997 0.0091859996 -0.25717399
-0.090227 0.009261 -0.25717199
-0.090222999 0.0093360003 -0.25717801
-0.090219997 0.0094100004 -0.257191
-0.090216003 0.0094839996 -0.25720099
-0.090213001 0.0095600002 -0.25719899
-0.090209998 0.0096340002 -0.25719899
-0.090207003 0.0097099999 -0.257204
-0.090204 0.009784 -0.2572
-0.090200998 0.0098599996 -0.257202
-0.090198003 0.0099339997 -0.25721401
-0.090195 0.010008 -0.257218
-0.090191998 0.010084 -0.257213
-0.090189002 0.01016 -0.25720501
-0.090186998 0.010236 -0.25719899
-0.090182997 0.01031 -0.257211
-0.090180002 0.010384 -0.257218
-0.090177 0.01046 -0.25721201
-0.090175003 0.010535 -0.257202
-0.090172 0.010611 -0.25719601
-0.090167999 0.010685 -0.257204
-0.090164997 0.01076 -0.257211
-0.090162002 0.010836 -0.257213
-0.090158999 0.01091 -0.25721899
-0.090155996 0.010986 -0.25722301
-0.090152003 0.01106 -0.257229
-0.090149 0.011134 -0.25723401
-0.090145998 0.01121 -0.25723401
-0.090143003 0.011284 -0.25724
-0.09014 0.011358 -0.25724801
-0.090135999 0.011434 -0.25725499
-0.090132996 0.011508 -0.25725901
-0.090130001 0.011584 -0.25726101
-0.090126999 0.011658 -0.25725901
-0.090124004 0.011734 -0.25726101
-0.090121001 0.011808 -0.25726399
-0.090117998 0.011884 -0.257258
-0.090115003 0.011958 -0.257256
-0.090112001 0.012032 -0.25726601
-0.090108 0.012108 -0.257283
-0.090104997 0.012182 -0.257285
-0.090102002 0.012256 -0.257283
-0.090098999 0.012332 -0.257285
-0.090095997 0.012406 -0.25729099
-0.090092003 0.012483 -0.25730401
-0.090089001 0.012557 -0.25730199
-0.090086997 0.012632 -0.25729001
-0.090084001 0.012708 -0.257294
-0.09008 0.012783 -0.257303
-0.090078004 0.012858 -0.257301
-0.090075001 0.012932 -0.25729901
-0.090071999 0.013006 -0.25729901
-0.090069003 0.013082 -0.25729901
-0.090065002 0.013157 -0.25731
-0.090062 0.013231 -0.25732601
-0.090057999 0.013305 -0.25733599
-0.090054996 0.013381 -0.25734201
-0.090052001 0.013457 -0.257332
-0.090049997 0.013533 -0.25732499
-0.090047002 0.013607 -0.25732699
-0.090043999 0.013682 -0.257319
-0.090040997 0.013758 -0.25730699
-0.090038002 0.013834 -0.25730801
-0.090035997 0.013908 -0.25730801
-0.090033002 0.013984 -0.25730199
-0.09003 0.014058 -0.25730199
-0.090026997 0.014134 -0.25730199
-0.090024002 0.014208 -0.25730699
-0.090020001 0.014282 -0.25732499
-0.090016 0.014358 -0.25733501
-0.090012997 0.014432 -0.257337
-0.090010002 0.014507 -0.25734401
-0.090007 0.014582 -0.25734001
-0.090005003 0.014658 -0.257332
-0.090001002 0.014734 -0.25733399
-0.089997999 0.014808 -0.25733599
-0.089996003 0.014884 -0.25733101
-0.089992002 0.014958 -0.257337
-0.089988999 0.015033 -0.257355
-0.089984998 0.015107 -0.257375
-0.089980997 0.015181 -0.25738099
-0.089978002 0.015257 -0.257384
-0.089974999 0.015333 -0.257384
-0.089971997 0.015407 -0.25738201
-0.08997 0.015483 -0.25737399
-0.089966998 0.015558 -0.25736299
-0.089965001 0.015634 -0.25734499
-0.089961998 0.015707999 -0.25734901
-0.089957997 0.015782 -0.25736299
-0.089956 0.015858 -0.257359
-0.089952998 0.015934 -0.25735
-0.089950003 0.016008001 -0.25735199
-0.089947 0.016084 -0.25735599
-0.089943998 0.016158 -0.25735399
-0.089941002 0.016233999 -0.25735301
-0.089938 0.016308 -0.25735301
-0.089934997 0.016384 -0.25735301
-0.089932002 0.01646 -0.25735301
-0.089929 0.016534001 -0.257355
-0.089924999 0.01661 -0.257366
-0.089923002 0.016683999 -0.25736001
-0.089920998 0.016759001 -0.25733799
-0.089918002 0.016835 -0.257328
-0.089915998 0.016911 -0.25732201
-0.089913003 0.016984999 -0.257321
-0.089910001 0.017061001 -0.257323
-0.089906998 0.017135 -0.257321
-0.089902997 0.017211 -0.257339
-0.089897998 0.017284 -0.25737199
-0.089895003 0.01736 -0.25737599
-0.089892 0.017436 -0.25737199
-0.089890003 0.017510001 -0.257368
-0.089887001 0.017585 -0.257364
-0.089883998 0.017658999 -0.25736099
-0.089881003 0.017735001 -0.25736701
-0.089878 0.017809 -0.25736299
-0.089876004 0.017885 -0.25734299
-0.089873999 0.017960999 -0.25732899
-0.089869998 0.018037001 -0.257332
-0.089867003 0.018111 -0.257348
-0.089863002 0.018185001 -0.25735599
-0.089860998 0.018261001 -0.25734401
-0.089858003 0.018337 -0.25734499
-0.089854002 0.018410999 -0.257359
-0.089850999 0.018485 -0.25736701
-0.089847997 0.018561 -0.257359
-0.089846 0.018634001 -0.257341
-0.089844003 0.01871 -0.25733399
-0.089841001 0.018786 -0.257328
-0.089837998 0.018862 -0.25731999
-0.089835003 0.018936001 -0.25731999
-0.089832 0.01901 -0.257319
-0.089828998 0.019086 -0.257319
-0.089827001 0.019161999 -0.25731501
-0.089823 0.019236 -0.25732499
-0.089818999 0.019309999 -0.257339
-0.089815997 0.019386001 -0.25734401
-0.089813001 0.01946 -0.25735
-0.089809999 0.019536 -0.25735599
-0.089806996 0.019611999 -0.25735599
-0.089804001 0.019686 -0.25734901
-0.089801997 0.019762 -0.257339
-0.089799002 0.019835999 -0.257337
-0.089795999 0.019912001 -0.25733301
-0.089792997 0.019987 -0.25732699
-0.089790002 0.020060999 -0.25732401
-0.089786999 0.020135 -0.25732601
-0.089783996 0.020211 -0.257328
-0.089781001 0.020287 -0.25733
-0.089777999 0.020361001 -0.25733399
-0.089775003 0.020437 -0.257337
-0.089772001 0.020510999 -0.25732899
-0.089769997 0.020586999 -0.25731501
-0.089768 0.020662 -0.25729901
-0.089766003 0.020738 -0.257276
-0.089763001 0.020811999 -0.25726399
-0.089759998 0.020886 -0.257274
-0.089755997 0.020962 -0.25728399
-0.089754 0.021036001 -0.25728199
-0.089750998 0.021112001 -0.25727701
-0.089748003 0.021186 -0.25727701
-0.089745 0.021261999 -0.257269
-0.089743003 0.021337001 -0.25725701
-0.089740001 0.021411 -0.25725201
-0.089737996 0.021486999 -0.25724199
-0.089735001 0.021561 -0.25723201
-0.089731999 0.021636 -0.25722799
-0.089729004 0.021710999 -0.25723499
-0.089726999 0.021786001 -0.257227
-0.089723997 0.021862 -0.257209
-0.089722 0.021935999 -0.25720301
-0.089718997 0.02201 -0.25720701
-0.089716002 0.022086 -0.25720599
-0.089713 0.022160999 -0.25719401
-0.089711003 0.022235001 -0.25718799
-0.089707002 0.022311 -0.25719401
-0.089703999 0.022384999 -0.25720099
-0.089700997 0.022461001 -0.25719699
-0.089699 0.022535 -0.25718901
-0.089695998 0.022611 -0.25718299
-0.089693002 0.022685001 -0.25717899
-0.08969 0.022761 -0.25717399
-0.089688003 0.022833999 -0.257164
-0.089685 0.022910001 -0.25715801
-0.089681998 0.022986 -0.25715801
-0.089679003 0.02306 -0.257155
-0.089676999 0.023134001 -0.25714901
-0.089674003 0.02321 -0.25714901
-0.089670002 0.023283999 -0.25715899
-0.089667 0.023360001 -0.25716299
-0.089665003 0.023434 -0.25715199
-0.089662001 0.02351 -0.25713801
-0.089658998 0.023584999 -0.25713399
-0.089656003 0.02366 -0.25715199
-0.089653 0.023736 -0.25715101
-0.089649998 0.023809999 -0.25714701
-0.089647003 0.023884 -0.257153
-0.089643002 0.02396 -0.25715899
-0.089639999 0.024036 -0.25716901
-0.089636996 0.024110001 -0.25716999
-0.089635 0.024185 -0.25714999
-0.089631997 0.024258999 -0.25714999
-0.089629002 0.024335001 -0.25715399
-0.089625999 0.02441 -0.25716001
-0.089621998 0.024486 -0.257175
-0.089619003 0.024560001 -0.25718099
-0.089616001 0.024636 -0.257177
-0.089612998 0.02471 -0.257175
-0.089611001 0.024785001 -0.25715801
-0.089608997 0.024859 -0.25714001
-0.089605004 0.024935 -0.257146
-0.089602001 0.025009001 -0.257162
-0.089598 0.025085 -0.257164
-0.089596003 0.025158999 -0.257157
-0.089593001 0.025234999 -0.25716099
-0.089589 0.025311001 -0.257175
-0.089584999 0.025386 -0.25718901
-0.089582004 0.025462 -0.25720501
-0.089578003 0.025536001 -0.25722
-0.089574002 0.025612 -0.25723001
-0.089570999 0.025689 -0.25724199
-0.089567997 0.025762999 -0.25724801
-0.089565001 0.025838999 -0.25724199
-0.089561 0.025915001 -0.25725901
-0.089556001 0.025992 -0.25729099
-0.089552999 0.026066 -0.257301
-0.089548998 0.026141999 -0.25731301
-0.089546002 0.026218001 -0.25732699
-0.089543 0.026292 -0.257332
-0.089538999 0.026368 -0.25733599
-0.089535996 0.026443001 -0.25735
-0.089532003 0.026519001 -0.25735801
-0.089529 0.026595 -0.25736001
-0.089525998 0.026668999 -0.25737101
-0.089521997 0.026745001 -0.25739101
-0.089518003 0.026822001 -0.257413
-0.089512996 0.026898 -0.25743499
-0.089510001 0.026974 -0.25744301
-0.089506999 0.027047999 -0.25744399
-0.089504004 0.027124001 -0.25745001
-0.089500003 0.027201001 -0.25746599
-0.089496002 0.027277 -0.25748199
-0.089492999 0.027353 -0.257494
-0.089488998 0.027427001 -0.25750199
-0.089484997 0.027504001 -0.257521
-0.089481004 0.02758 -0.25755101
-0.089477003 0.027657 -0.257577
-0.089472003 0.027736001 -0.25761101
-0.089466996 0.027812 -0.25763699
-0.089463003 0.027889 -0.25765699
-0.08946 0.027965 -0.25766999
-0.089455999 0.028039001 -0.25769201
-0.089451 0.028117999 -0.25771999
-0.089446999 0.028194999 -0.25775599
-0.089442 0.028271001 -0.25779399
-0.089436002 0.028351 -0.25784799
-0.089427002 0.028431 -0.25796601
-0.089420997 0.028510001 -0.25803
-0.089247003 0.0054009999 -0.25748801
-0.089247003 0.0054830001 -0.25741801
-0.089245997 0.005564 -0.25737
-0.089244999 0.0056429999 -0.25733301
-0.089244001 0.0057219998 -0.257287
-0.089243002 0.0058010002 -0.257245
-0.089240998 0.0058789998 -0.25721699
-0.089239001 0.0059560002 -0.25719699
-0.089236997 0.0060339998 -0.257177
-0.089234002 0.0061090002 -0.257162
-0.089231998 0.0061849998 -0.25715199
-0.089229003 0.0062609999 -0.257148
-0.089226 0.0063370001 -0.25714201
-0.089222997 0.0064110002 -0.25714499
-0.089220002 0.0064849998 -0.25715101
-0.089217 0.0065589999 -0.25715899
-0.089212999 0.006635 -0.25716299
-0.089210004 0.0067090001 -0.25716701
-0.089207001 0.0067830002 -0.25717601
-0.089203998 0.0068589998 -0.257182
-0.089199997 0.0069309999 -0.25719199
-0.089197002 0.0070079998 -0.25719601
-0.089194 0.0070810001 -0.25719699
-0.089192003 0.0071589998 -0.25718701
-0.089189 0.0072349999 -0.257175
-0.089185998 0.007309 -0.25717101
-0.089183003 0.0073850001 -0.25716901
-0.089180999 0.0074609998 -0.257162
-0.089178003 0.0075360001 -0.25715601
-0.089175001 0.0076120002 -0.257148
-0.089172997 0.0076879999 -0.25713199
-0.089171 0.0077650002 -0.25711599
-0.089169003 0.0078410003 -0.257103
-0.089166 0.007917 -0.25709301
-0.089162998 0.0079929996 -0.25709501
-0.089158997 0.0080669997 -0.25710499
-0.089156002 0.0081409998 -0.25711101
-0.089152999 0.0082149999 -0.25711399
-0.089149997 0.0082909996 -0.25711399
-0.089147002 0.0083649997 -0.25711399
-0.089143999 0.0084410002 -0.25711599
-0.089140996 0.0085150003 -0.257121
-0.089138001 0.008591 -0.25711501
-0.089135997 0.0086669996 -0.257103
-0.089134 0.0087440005 -0.257085
-0.089130998 0.0088200001 -0.25706699
-0.089129001 0.0088959998 -0.25705799
-0.089125998 0.0089699998 -0.25705999
-0.089121997 0.0090460004 -0.257072
-0.089119002 0.0091199996 -0.25707
-0.089116998 0.0091960002 -0.25706401
-0.089114003 0.0092700003 -0.25706899
-0.089110002 0.0093440004 -0.25707501
-0.089106999 0.00942 -0.25707701
-0.089103997 0.0094940001 -0.25707901
-0.089101002 0.0095680002 -0.25708199
-0.089097999 0.0096439999 -0.25707999
-0.089094996 0.0097200004 -0.25707999
-0.089091003 0.0097939996 -0.25709799
-0.089088 0.0098660002 -0.25711399
-0.089083999 0.0099400003 -0.257119
-0.089080997 0.010016 -0.257119
-0.089078002 0.010092 -0.257119
-0.089075997 0.010168 -0.25711301
-0.089073002 0.010244 -0.25710201
-0.08907 0.010318 -0.25710401
-0.089066997 0.010392 -0.25711399
-0.089064002 0.010466 -0.25711599
-0.089060999 0.010542 -0.25711799
-0.089056998 0.010616 -0.25712299
-0.089055002 0.010692 -0.257119
-0.089051999 0.010768 -0.25710899
-0.089048997 0.010844 -0.25710699
-0.089046001 0.010918 -0.25711301
-0.089042999 0.010992 -0.25711799
-0.089038998 0.011066 -0.257128
-0.089036003 0.01114 -0.25714201
-0.089032002 0.011216 -0.257148
-0.089029998 0.01129 -0.25714701
-0.089025997 0.011366 -0.25714901
-0.089024 0.01144 -0.25714901
-0.089019999 0.011516 -0.257153
-0.089016996 0.011591 -0.25716501
-0.089013003 0.011665 -0.25717399
-0.08901 0.011739 -0.25717601
-0.089006998 0.011815 -0.25718001
-0.089004003 0.011889 -0.25718001
-0.089001 0.011965 -0.25717899
-0.088997997 0.012039 -0.25718701
-0.088995002 0.012115 -0.257191
-0.088992 0.012189 -0.25718901
-0.088988997 0.012265 -0.25718501
-0.088986002 0.012339 -0.25719401
-0.088982001 0.012413 -0.257204
-0.088978998 0.012489 -0.257204
-0.088976003 0.012563 -0.25720999
-0.088973001 0.012639 -0.25721401
-0.088969998 0.012713 -0.257213
-0.088967003 0.012789 -0.257211
-0.088964 0.012863 -0.257213
-0.088960998 0.012937 -0.25722101
-0.088956997 0.013013 -0.25723001
-0.088954002 0.013087 -0.25723201
-0.088950999 0.013163 -0.25723001
-0.088949002 0.013237 -0.25722599
-0.088945001 0.013313 -0.25722799
-0.088941999 0.013389 -0.257231
-0.088939004 0.013463 -0.25723499
-0.088936001 0.013537 -0.25724301
-0.088932 0.013613 -0.257249
-0.088930003 0.013687 -0.25724
-0.088927999 0.013763 -0.25722799
-0.088924997 0.013839 -0.25722399
-0.088922001 0.013915 -0.25722799
-0.088918 0.013989 -0.25724199
-0.088914998 0.014063 -0.257249
-0.088910997 0.014139 -0.25725299
-0.088908002 0.014213 -0.25725901
-0.088904999 0.014287 -0.257263
-0.088901997 0.014363 -0.25726199
-0.088899001 0.014437 -0.257258
-0.088895999 0.014513 -0.25725999
-0.088892996 0.014589 -0.257256
-0.088891 0.014665 -0.257254
-0.088886999 0.014739 -0.25726101
-0.088884003 0.014813 -0.25727299
-0.088880002 0.014888 -0.257287
-0.088877 0.014962 -0.25729501
-0.088873997 0.015038 -0.25729901
-0.088869996 0.015112 -0.25730801
-0.088867001 0.015186 -0.25731799
-0.088863999 0.015262 -0.25732201
-0.088861004 0.015336 -0.25731799
-0.088858001 0.015412 -0.25731301
-0.088854998 0.015488 -0.25731501
-0.088852003 0.015562 -0.25731501
-0.088849001 0.015637999 -0.25730899
-0.088845998 0.015712 -0.25730699
-0.088843003 0.015788 -0.257314
-0.08884 0.015861999 -0.257314
-0.088838004 0.015937001 -0.25730601
-0.088835001 0.016013 -0.257296
-0.088831998 0.016086999 -0.25730401
-0.088827997 0.016163999 -0.25731701
-0.088825002 0.016238 -0.25731701
-0.088822 0.016313 -0.25731501
-0.088818997 0.016388001 -0.257321
-0.088817 0.016463 -0.25731
-0.088813998 0.016539 -0.25729999
-0.088811003 0.016612999 -0.25730199
-0.088808 0.016689001 -0.25729999
-0.088804998 0.016763 -0.25730401
-0.088802002 0.016838999 -0.257303
-0.088799 0.016914999 -0.25729501
-0.088795997 0.016989 -0.25729701
-0.088793002 0.017062999 -0.257305
-0.088789001 0.017139001 -0.25731599
-0.088785999 0.017213 -0.25731999
-0.088784002 0.017289 -0.257312
-0.088780999 0.017364999 -0.25729999
-0.088777997 0.017439 -0.25730401
-0.088774003 0.017515 -0.257321
-0.088771001 0.017588999 -0.25732499
-0.088767998 0.017665001 -0.257319
-0.088765003 0.017739 -0.257321
-0.088762999 0.017814999 -0.25731501
-0.088761002 0.017890001 -0.257292
-0.088757999 0.017964 -0.25728199
-0.088754997 0.01804 -0.25728601
-0.088752002 0.018114001 -0.257294
-0.088748001 0.01819 -0.25730699
-0.088744998 0.018263999 -0.25731701
-0.088742003 0.018340001 -0.25731301
-0.088739 0.018414 -0.25730699
-0.088735998 0.01849 -0.25730899
-0.088733003 0.018564001 -0.257312
-0.08873 0.01864 -0.25730801
-0.088728003 0.018714 -0.25729999
-0.088725001 0.018789999 -0.257294
-0.088721998 0.018866001 -0.257287
-0.088720001 0.018939 -0.25727901
-0.088716999 0.019014999 -0.257269
-0.088715002 0.019091001 -0.25725901
-0.088711001 0.019165 -0.257269
-0.088707998 0.019241 -0.25727999
-0.088705003 0.019315001 -0.25727201
-0.088702999 0.019391 -0.257256
-0.088699996 0.019464999 -0.257254
-0.088696003 0.019540999 -0.25726801
-0.088693 0.019615 -0.257269
-0.088691004 0.01969 -0.25725299
-0.088688001 0.019765999 -0.25725499
-0.088684998 0.019841 -0.257265
-0.088680997 0.019917 -0.257278
-0.088678002 0.019990999 -0.25728399
-0.088675 0.020065 -0.25728801
-0.088671997 0.020141 -0.25727999
-0.08867 0.020215999 -0.25725999
-0.088668004 0.020292001 -0.257249
-0.088665001 0.020366 -0.25724301
-0.088661999 0.020439999 -0.257245
-0.088659003 0.020516001 -0.257247
-0.088656001 0.020592 -0.25724399
-0.088652998 0.020664999 -0.25723401
-0.088651001 0.020741001 -0.25722
-0.088648997 0.020815 -0.25720999
-0.088646002 0.020891 -0.25720999
-0.088642001 0.020965001 -0.25721699
-0.088638999 0.021041 -0.25722501
-0.088636003 0.021114999 -0.257231
-0.088633001 0.021190999 -0.25721899
-0.088632002 0.021266 -0.25719401
-0.088629 0.02134 -0.25718001
-0.088625997 0.021415999 -0.25718001
-0.088623002 0.02149 -0.25717801
-0.088620998 0.021566 -0.25717399
-0.088618003 0.021640999 -0.25716299
-0.088615999 0.021715 -0.257155
-0.088613003 0.021791 -0.25714901
-0.088610001 0.021864999 -0.25714099
-0.088607997 0.021941001 -0.25713599
-0.088605002 0.022014 -0.257126
-0.088601999 0.022089999 -0.25711799
-0.088600002 0.022164 -0.25711599
-0.088596001 0.02224 -0.257121
-0.088592999 0.022314001 -0.25712299
-0.088590004 0.022390001 -0.25712499
-0.088587001 0.022464 -0.25712901
-0.088583998 0.022539999 -0.25712299
-0.088582002 0.022614 -0.25711
-0.088578999 0.02269 -0.25710401
-0.088577002 0.022763001 -0.25709999
-0.088574 0.022839 -0.25709999
-0.088569999 0.022916 -0.257112
-0.088567004 0.02299 -0.25710899
-0.088564999 0.023063 -0.25709301
-0.088561997 0.023139 -0.25708699
-0.088559002 0.023212999 -0.25709301
-0.088555001 0.023289001 -0.25710601
-0.088551998 0.023364 -0.25712001
-0.088549003 0.023438999 -0.25711599
-0.088546999 0.023514999 -0.25710401
-0.088544004 0.023589 -0.25709501
-0.088541001 0.023665 -0.25709701
-0.088537 0.023739001 -0.25710899
-0.088532999 0.023814 -0.25713101
-0.088529997 0.02389 -0.25714499
-0.088527001 0.023965999 -0.25714299
-0.088523999 0.024040001 -0.25714001
-0.088521004 0.024116 -0.25713399
-0.088519 0.024188999 -0.257126
-0.088515997 0.024265001 -0.25712201
-0.088513002 0.024339 -0.257121
-0.088509999 0.024414999 -0.25712299
-0.088506997 0.024489 -0.25712901
-0.088504001 0.024565 -0.25712499
-0.088500999 0.024638999 -0.257128
-0.088497996 0.024715001 -0.25713399
-0.088495001 0.024791 -0.257126
-0.088492997 0.024865 -0.257112
-0.088490002 0.024939001 -0.25710601
-0.088486999 0.025014 -0.257103
-0.088483997 0.025087999 -0.25710499
-0.088480003 0.025165001 -0.257121
-0.088477001 0.025241001 -0.25713301
-0.088473 0.025315 -0.25714099
-0.088469997 0.025390999 -0.25714001
-0.088467002 0.025465 -0.257144
-0.088463999 0.025541 -0.257148
-0.088460997 0.025617 -0.25715199
-0.088457003 0.025691001 -0.25716299
-0.088454001 0.025768001 -0.257177
-0.08845 0.025842 -0.25718501
-0.088446997 0.025917999 -0.257191
-0.088444002 0.025993999 -0.25720099
-0.088440001 0.026068 -0.25721699
-0.088436 0.026145 -0.25723001
-0.088432997 0.026221 -0.257238
-0.088428997 0.026296999 -0.25724801
-0.088426001 0.026371 -0.25726199
-0.088422 0.026448 -0.257278
-0.088417999 0.026524 -0.257303
-0.088413998 0.026598001 -0.257321
-0.088411003 0.026674001 -0.25731701
-0.088408001 0.02675 -0.257319
-0.088404 0.026825 -0.257341
-0.088399999 0.026903 -0.25736201
-0.088395998 0.026977999 -0.257388
-0.088391997 0.027054001 -0.25739801
-0.088389002 0.02713 -0.257406
-0.088384002 0.027206 -0.25743201
-0.088381 0.027283 -0.25744799
-0.088377997 0.027357001 -0.257451
-0.088372998 0.027434999 -0.25747299
-0.088368997 0.02751 -0.257505
-0.088365003 0.027586 -0.257521
-0.088361003 0.027663 -0.25753701
-0.088357002 0.027739 -0.25756699
-0.088353001 0.027818 -0.25759199
-0.088349 0.027891999 -0.257608
-0.088344999 0.027968001 -0.257626
-0.088340998 0.028045001 -0.257644
-0.088336997 0.028121 -0.257664
-0.088331997 0.028200001 -0.257698
-0.088325001 0.028279001 -0.257774
-0.088319004 0.028356999 -0.25784299
-0.088835999 0.00538 -0.25743401
-0.088835999 0.0054629999 -0.25735801
-0.088834003 0.0055419998 -0.257328
-0.088832997 0.0056210002 -0.25728601
-0.088831998 0.0057000001 -0.257238
-0.088831 0.005779 -0.2572
-0.088829003 0.0058559999 -0.25717399
-0.088826999 0.005934 -0.257157
-0.088825002 0.0060109999 -0.257135
-0.088822998 0.006089 -0.25711301
-0.088820003 0.0061650001 -0.257101
-0.088817999 0.00624 -0.25708899
-0.088815004 0.0063160001 -0.25708601
-0.088812001 0.0063900002 -0.257094
-0.088808 0.0064650001 -0.25710201
-0.088806003 0.006538 -0.25709999
-0.088802002 0.0066140001 -0.257103
-0.088799 0.0066889999 -0.25711501
-0.088794999 0.006763 -0.25712901
-0.088792004 0.0068350001 -0.25714499
-0.088789001 0.0069109998 -0.25714701
-0.088785999 0.0069869999 -0.25714201
-0.088783003 0.007061 -0.25713599
-0.088780001 0.0071370001 -0.25713801
-0.088776998 0.0072110002 -0.257144
-0.088774003 0.0072869998 -0.25714201
-0.088771001 0.007363 -0.25713301
-0.088768996 0.0074390001 -0.25712299
-0.088766001 0.0075139999 -0.257119
-0.088762999 0.0075900001 -0.25710899
-0.088761002 0.0076660002 -0.25710601
-0.088757999 0.0077399998 -0.25710401
-0.088754997 0.0078159999 -0.25709599
-0.088752002 0.0078919996 -0.25709599
-0.088748999 0.0079659997 -0.25710201
-0.088745996 0.0080420002 -0.257099
-0.088743001 0.0081179999 -0.25709301
-0.088739999 0.008192 -0.257099
-0.088737004 0.0082660001 -0.257103
-0.088734001 0.0083410004 -0.25709501
-0.088731997 0.0084170001 -0.25709
-0.088729002 0.0084929997 -0.25708401
-0.088725999 0.0085690003 -0.257074
-0.088724002 0.0086449999 -0.25706801
-0.088721 0.0087200003 -0.25705701
-0.088719003 0.0087959999 -0.257043
-0.088716 0.0088719996 -0.25703299
-0.088714004 0.0089480001 -0.257025
-0.088711001 0.0090229996 -0.25702101
-0.088707998 0.0090979999 -0.25702399
-0.088705003 0.0091730002 -0.25702
-0.088702001 0.0092489999 -0.257016
-0.088698998 0.009323 -0.25701401
-0.088696003 0.0093989996 -0.25701201
-0.088693 0.0094729997 -0.25701499
-0.088689998 0.0095469998 -0.257027
-0.088687003 0.0096230004 -0.257029
-0.088683002 0.0096969996 -0.25703299
-0.088679999 0.0097719999 -0.25704801
-0.088675998 0.009846 -0.257056
-0.088673003 0.0099200001 -0.25705999
-0.08867 0.0099940002 -0.257072
-0.088666998 0.010068 -0.25707799
-0.088664003 0.010144 -0.25707299
-0.088661 0.01022 -0.25707099
-0.088657998 0.010294 -0.25707501
-0.088655002 0.01037 -0.25707501
-0.088652 0.010444 -0.257072
-0.088648997 0.01052 -0.25707
-0.088646002 0.010596 -0.25707
-0.088643 0.01067 -0.25707
-0.088639997 0.010744 -0.257076
-0.088637002 0.01082 -0.25707901
-0.088633999 0.010894 -0.257085
-0.088629998 0.010968 -0.25709099
-0.088628002 0.011044 -0.257085
-0.088624999 0.01112 -0.25708199
-0.088620998 0.011194 -0.25708801
-0.088618003 0.01127 -0.25709
-0.088615 0.011344 -0.25709
-0.088611998 0.011418 -0.25710201
-0.088609003 0.011494 -0.25710899
-0.088606 0.011568 -0.25711101
-0.088601999 0.011644 -0.25711501
-0.088598996 0.011718 -0.25711301
-0.088597 0.011792 -0.257112
-0.088592999 0.011868 -0.25711799
-0.088590004 0.011942 -0.25712201
-0.088587001 0.012016 -0.25713399
-0.088582002 0.012091 -0.25715801
-0.088578999 0.012165 -0.257175
-0.088575996 0.012241 -0.25717101
-0.088573001 0.012315 -0.25716501
-0.088569999 0.012391 -0.25717101
-0.088567004 0.012465 -0.257173
-0.088564001 0.012541 -0.25717199
-0.088560998 0.012615 -0.25716999
-0.088558003 0.012691 -0.25717199
-0.088555001 0.012765 -0.25717199
-0.088551998 0.012841 -0.257173
-0.088549003 0.012915 -0.257175
-0.088546 0.012991 -0.25718099
-0.088541999 0.013065 -0.257191
-0.088538997 0.013139 -0.25719699
-0.088536002 0.013215 -0.25719199
-0.088533998 0.013291 -0.257182
-0.088531002 0.013365 -0.257182
-0.088528 0.013441 -0.257186
-0.088523999 0.013515 -0.257193
-0.088521004 0.013589 -0.25719899
-0.088518001 0.013665 -0.25720701
-0.088514999 0.013739 -0.257209
-0.088512003 0.013815 -0.25719699
-0.088509001 0.013891 -0.25719601
-0.088505998 0.013965 -0.25720999
-0.088501997 0.014039 -0.25722399
-0.088499002 0.014115 -0.25722
-0.088496 0.014189 -0.257218
-0.088492997 0.014265 -0.25723299
-0.088489003 0.01434 -0.257247
-0.088486001 0.014414 -0.257245
-0.088483997 0.014489 -0.257231
-0.088481002 0.014565 -0.25722
-0.088477999 0.014641 -0.257222
-0.088474996 0.014715 -0.25723401
-0.088471003 0.01479 -0.25725001
-0.088467002 0.014864 -0.25726199
-0.088463999 0.014938 -0.257269
-0.088460997 0.015014 -0.25727701
-0.088457003 0.015088 -0.257285
-0.088454999 0.015162 -0.257285
-0.088451996 0.015238 -0.25728199
-0.088449001 0.015314 -0.257278
-0.088445999 0.01539 -0.25727201
-0.088443004 0.015464 -0.25726601
-0.088440001 0.015538 -0.257274
-0.088436 0.015614 -0.25729299
-0.088432997 0.015688 -0.25729701
-0.088431001 0.015764 -0.257285
-0.088428997 0.015838999 -0.257265
-0.088426001 0.015915001 -0.25726101
-0.088422999 0.015989 -0.25726801
-0.088418998 0.016063999 -0.25728601
-0.088414997 0.016138 -0.25730199
-0.088412002 0.016214 -0.25730601
-0.088408999 0.016287999 -0.257305
-0.088405997 0.016364001 -0.257303
-0.088403001 0.01644 -0.257301
-0.088399999 0.016514 -0.257301
-0.088397004 0.016589999 -0.257303
-0.088394001 0.016664 -0.25730401
-0.088390999 0.01674 -0.25729999
-0.088389002 0.016814001 -0.257294
-0.088385999 0.016889 -0.257292
-0.088381998 0.016966 -0.25729799
-0.088379003 0.017038999 -0.25729701
-0.088376999 0.017115001 -0.257283
-0.088373996 0.017191 -0.25727701
-0.088371001 0.017264999 -0.25727901
-0.088367999 0.017340999 -0.25727999
-0.088365003 0.017415 -0.25728199
-0.088362001 0.017491 -0.25728601
-0.088358998 0.017565001 -0.25729799
-0.088354997 0.017641 -0.25730401
-0.088352002 0.017715 -0.25730899
-0.088349 0.017789001 -0.25730699
-0.088347003 0.017865 -0.25729299
-0.088344 0.017941 -0.257285
-0.088340998 0.018017 -0.25728199
-0.088339001 0.018091001 -0.25727999
-0.088335 0.018165 -0.25728601
-0.088331997 0.018240999 -0.25728801
-0.088329002 0.018316999 -0.25729001
-0.088326 0.018391 -0.25729099
-0.088322997 0.018467 -0.25729099
-0.088320002 0.018540001 -0.257287
-0.088317998 0.018616 -0.25727499
-0.088315003 0.018692 -0.25726801
-0.088312998 0.018767999 -0.257254
-0.088311002 0.018841 -0.25724199
-0.088307999 0.018917 -0.25723001
-0.088306002 0.018990999 -0.25722399
-0.088302001 0.019067001 -0.257229
-0.088298999 0.019143 -0.257231
-0.088297002 0.019216999 -0.25721899
-0.088293999 0.019293001 -0.257213
-0.088290997 0.019367 -0.25722599
-0.088287003 0.019440999 -0.25723201
-0.088284999 0.019517001 -0.25722
-0.088281997 0.019592 -0.25721201
-0.088279001 0.019665999 -0.25721601
-0.088275 0.019742999 -0.257229
-0.088271998 0.019817 -0.25723499
