# .PCD v0.7 - Point Cloud Data file format
VERSION 0.7
FIELDS x y z
SIZE 4 4 4
TYPE F F F
COUNT 1 1 1
WIDTH 1336
HEIGHT 1
VIEWPOINT 0 0 0 1 0 0 0
POINTS 1336
DATA ascii
-0.031996194 -0.024217358 0.16851
-0.031935237 -0.023394909 0.16891554
-0.031865131 -0.023270074 0.16907676
-0.031758741 -0.023152584 0.16929467
-0.031767443 -0.023010634 0.16933317
-0.031776104 -0.022868609 0.16937178
-0.031722974 -0.022739269 0.16950688
-0.031676587 -0.022608297 0.16963153
-0.03164579 -0.02247392 0.16973191
-0.03146648 -0.022228312 0.17011687
-0.031410486 -0.022098264 0.17025693
-0.03130047 -0.021978697 0.17048155
-0.031189865 -0.021858852 0.17070724
-0.031076806 -0.021739092 0.17093693
-0.03091215 -0.021628985 0.17124753
0.0026847681 -0.022137502 0.22608407
0.0026855217 -0.021946494 0.22615631
0.0027561306 -0.021765802 0.2263391
0.008721631 -0.02206051 0.23599996
0.0029700885 -0.021029761 0.2269631
0.0083781555 -0.021611225 0.23560441
0.0029014696 -0.020635094 0.22699741
0.0046119974 -0.020682644 0.22978127
0.0047288402 -0.020503832 0.23003909
0.0069316705 -0.02061178 0.2336068
0.0068147979 -0.020397343 0.23349509
0.006714581 -0.02018532 0.23340976
0.0031891849 -0.019515703 0.22788469
0.0031193804 -0.019312583 0.22784586
0.0031200526 -0.019118726 0.22791903
0.0031211148 -0.018924769 0.22799285
0.055685598 -0.00039690733 0.32097027
0.0557427 -0.00011109468 0.32117003
0.055776939 0.00017504711 0.32133245
0.055809855 0.00046151376 0.32149285
0.056037266 0.00074945623 0.32197234
0.055886216 0.0010355068 0.32183126
0.056132719 0.00132486 0.32234254
0.056190267 0.0016132211 0.32254398
0.056414813 0.0019039507 0.3230198
0.056445029 0.0021929988 0.32317671
0.056827459 0.0024875544 0.32391253
0.060035069 0.0028292232 0.32929301
0.059878543 0.0031211446 0.32914516
0.059700903 0.0034124381 0.32896248
0.059339158 0.0036996487 0.32847676
0.058785047 0.003981777 0.32767409
0.058412235 0.0042667789 0.32716942
0.058216956 0.0045553651 0.32695684
0.057868805 0.0048395521 0.32649228
0.057686936 0.0051276046 0.32630146
0.057339922 0.0054104817 0.32583827
0.056992564 0.0056925551 0.32537419
0.056825418 0.0059796874 0.32520717
0.056664683 0.0062667779 0.32505062
0.056516845 0.0065540848 0.32491529
0.056166787 0.0068337168 0.32444587
0.055950988 0.007117704 0.32419801
0.055929869 0.007409058 0.32427171
0.05593507 0.0077016773 0.32438898
0.055783823 0.0079878354 0.32424763
0.055812728 0.0082817823 0.32440421
0.055828005 0.0085754273 0.32453838
0.055497516 0.0088529624 0.32410026
0.055317208 0.0091370922 0.32391056
0.055300739 0.0094291801 0.32399213
0.055109788 0.0097123971 0.32378468
0.054916792 0.0099951709 0.32357368
0.054744463 0.010278739 0.32339683
0.054724492 0.010570626 0.32347262
0.05457424 0.010855142 0.32333228
0.054576058 0.011148485 0.32344428
0.052654278 0.011324816 0.3203623
0.052678078 0.011617118 0.32050994
0.052693397 0.011909187 0.32064357
0.057520021 0.012516656 0.32877448
0.35452241 0.11572786 0.85357153
0.35505459 0.1166728 0.85479432
0.35558829 0.11762056 0.85602069
0.38445884 0.13411158 0.9094348
0.34932351 0.13002414 0.85037035
0.34985059 0.13098936 0.85159242
0.4627485 0.17148143 1.0515486
0.46372503 0.17278618 1.053633
0.46461886 0.17407128 1.0555745
0.46754882 0.17595154 1.0610721
-0.048476603 0.030363912 0.16180511
-0.048470993 0.030525222 0.16187425
-0.048777111 0.030580577 0.16139346
-0.048839811 0.030718289 0.16134195
-0.048950497 0.030839423 0.16120569
-0.049013127 0.030976918 0.16115423
-0.048978146 0.03114824 0.16127519
-0.048943397 0.031319749 0.16139585
-0.048860289 0.031508494 0.16160212
-0.048873689 0.031663638 0.16163784
-0.048791416 0.031852778 0.1618429
-0.048804794 0.032008279 0.16187878
-0.048721902 0.032198343 0.16208518
-0.048735075 0.03235428 0.16212156
-0.048699692 0.032527864 0.16224404
-0.048714478 0.032683488 0.16227765
-0.04882443 0.032804474 0.16214254
-0.048839912 0.032959856 0.16217494
-0.04890313 0.033097733 0.16212265
-0.048868954 0.0332716 0.16224325
-0.048835393 0.0334455 0.16236284
-0.048848458 0.03360223 0.16239971
-0.048862375 0.033758741 0.16243508
-0.048877843 0.03391476 0.16246775
-0.048892826 0.034071051 0.16250129
-0.048954301 0.03420971 0.16245215
-0.048920967 0.034384597 0.16257174
-0.048886161 0.034560312 0.16269405
-0.048851442 0.034736261 0.16281632
-0.048816454 0.034912582 0.16293916
-0.048876602 0.035052072 0.16289249
-0.048844669 0.035227574 0.16301003
-0.048859637 0.035384871 0.16304398
-0.0488736 0.035542659 0.16307975
-0.048886586 0.035700928 0.1631173
-0.048899077 0.035859499 0.16315579
-0.048863906 0.036037266 0.16327947
-0.048877072 0.036195856 0.16331686
-0.048889533 0.036354825 0.16335553
-0.048902798 0.036513567 0.16339281
-0.048821077 0.036711156 0.16360009
-0.04883546 0.036869809 0.16363549
-0.044647206 0.038758297 0.17119701
-0.044659868 0.038925469 0.17123841
-0.04462209 0.039113693 0.17137024
-0.044634916 0.039281107 0.17141145
-0.044594016 0.039471127 0.17154907
-0.044551387 0.039662186 0.1716899
-0.044511531 0.039852381 0.17182587
-0.044472255 0.040042635 0.17196092
-0.044538714 0.040188123 0.17190614
-0.044501279 0.040377993 0.17203802
-0.044567648 0.040523544 0.17198342
-0.044529803 0.040713981 0.17211619
-0.04454362 0.04088233 0.17215613
-0.044609401 0.041028164 0.1721026
-0.04462095 0.041197617 0.17214666
-0.044582371 0.041389193 0.17228106
-0.044592205 0.041559719 0.17232834
-0.044552874 0.041752134 0.17246427
-0.044508502 0.041947093 0.1726094
-0.044465441 0.042141791 0.17275229
-0.044424679 0.042335775 0.17289115
-0.044437822 0.042505808 0.17293283
-0.044450194 0.042676304 0.17297594
-0.044416443 0.042867836 0.17310241
-0.044381902 0.043060016 0.17323041
-0.044397678 0.043229464 0.17326754
-0.044409346 0.04340091 0.17331217
-0.044420496 0.043572705 0.17335775
-0.044431083 0.043744877 0.17340441
-0.044443943 0.043916121 0.173447
-0.044457987 0.044086918 0.17348747
-0.044471573 0.044258047 0.17352884
-0.044435568 0.044452608 0.17366011
-0.04444886 0.044624183 0.17370212
-0.044514138 0.044771228 0.17364986
-0.044525761 0.044943728 0.17369494
-0.044437133 0.045164246 0.17392205
-0.044445869 0.04533856 0.17397253
-0.044458386 0.045511175 0.17401619
-0.044470374 0.045684166 0.17406087
-0.044485286 0.045855857 0.17410025
-0.044549443 0.046003662 0.17405011
-0.044561926 0.046176657 0.17409396
-0.04452315 0.046374943 0.17423117
-0.044484362 0.046573546 0.17436852
-0.044444997 0.046772737 0.17450704
-0.044458594 0.046945944 0.17454913
-0.044417627 0.047146466 0.17469075
-0.044378273 0.047346499 0.17482956
-0.044390462 0.047520958 0.17487444
-0.044350028 0.047722057 0.17501542
-0.044361338 0.047897305 0.17506203
-0.044320147 0.048099332 0.17520458
-0.044330008 0.048275657 0.17525397
-0.044289131 0.048478082 0.17539616
-0.044355337 0.048625819 0.17534263
-0.044371091 0.048799478 0.17538138
-0.044384848 0.048974283 0.17542382
-0.044341974 0.049178623 0.17557
-0.044301488 0.049382042 0.1757119
-0.036474191 0.053660184 0.19012168
-0.03654816 0.053819031 0.19005957
-0.036563344 0.054008778 0.19010523
-0.036711741 0.054128174 0.18990657
-0.036788296 0.054285325 0.1898396
-0.036863003 0.054443352 0.18977597
-0.036810823 0.054669127 0.18994536
-0.036701065 0.054926179 0.19022065
-0.036586031 0.055186685 0.19050589
-0.036598157 0.055379082 0.19055754
-0.036611747 0.055570826 0.19060655
-0.036749478 0.05569512 0.19042717
-0.036821943 0.055854715 0.1903678
-0.036830936 0.056049015 0.19042529
-0.036780335 0.056276262 0.19059263
-0.036790658 0.056470253 0.19064783
-0.03667808 0.056732476 0.19092968
-0.036621142 0.056964383 0.19110912
-0.036626428 0.057161991 0.19117391
-0.036569662 0.057394493 0.19135331
-0.036520883 0.057622924 0.1915181
-0.036470041 0.057852894 0.19168684
-0.036484241 0.058046453 0.19173554
-0.036431987 0.058277871 0.19190712
-0.036444802 0.058472607 0.19195852
-0.036389939 0.058706176 0.19213519
-0.036526319 0.058830451 0.19195803
-0.036538683 0.059025757 0.19201036
-0.036556456 0.059218075 0.19205272
-0.036507387 0.059449259 0.19221902
-0.036458123 0.059680924 0.19238581
-0.036463939 0.059880845 0.1924506
-0.036410492 0.06011562 0.1926254
-0.036354277 0.060352426 0.19280548
-0.036424398 0.060515195 0.19275112
-0.036377959 0.060746793 0.19291328
-0.036393017 0.060942285 0.19296128
-0.036408599 0.061137591 0.19300835
-0.036484327 0.061297115 0.1929436
-0.036559757 0.06145671 0.19287938
-0.036570195 0.061655264 0.19293609
-0.036461972 0.061925542 0.19321381
-0.036407974 0.062163632 0.19339073
-0.036415711 0.062364638 0.19345278
-0.036362715 0.062602803 0.19362809
-0.03637132 0.062803745 0.19368868
-0.036379807 0.063004903 0.19374955
-0.036394097 0.063202657 0.19379964
-0.036407009 0.063401401 0.19385237
-0.036424302 0.063597567 0.19389696
-0.036438588 0.06379573 0.19394721
-0.036454972 0.063992724 0.1939936
-0.036465611 0.064193435 0.19405077
-0.036414444 0.064433061 0.19422364
-0.036422741 0.064635679 0.19428536
-0.036372598 0.064875349 0.19445658
-0.0363774 0.065080628 0.194525
-0.036319744 0.065325759 0.19471055
-0.036259886 0.065572716 0.19490036
-0.036202077 0.065818809 0.19508652
-0.036145683 0.066064417 0.19527018
-0.036155749 0.066267706 0.19532925
-0.036168344 0.066469528 0.19538362
-0.036245435 0.06662973 0.19531691
-0.036198784 0.06687019 0.1954827
-0.0362106 0.067072935 0.1955387
-0.036157139 0.067318507 0.19571754
-0.036037974 0.067607544 0.19602013
-0.035983052 0.067855053 0.19620208
-0.035924628 0.068105258 0.19639076
-0.035866704 0.068355598 0.19657868
-0.035810307 0.068605371 0.19676389
-0.035821766 0.068810388 0.19682132
-0.035831291 0.069016866 0.19688247
-0.035776354 0.069266669 0.19706529
-0.035717953 0.069519229 0.19725482
-0.035662301 0.069770388 0.19743931
-0.035542347 0.070065439 0.19774544
-0.035420991 0.070362136 0.19805448
-0.035295784 0.070662171 0.19837107
-0.035305604 0.070870809 0.19843252
-0.035248093 0.071125671 0.19862145
-0.035190552 0.07138101 0.19881059
-0.035133637 0.071636364 0.19899872
-0.03514576 0.071844496 0.19905622
-0.035020232 0.072148114 0.19937466
-0.03496483 0.072403729 0.1995604
-0.047143355 -0.034469686 0.13989113
-0.028742366 -0.040182352 0.16790526
-0.027671842 -0.040432595 0.16956556
-0.026709588 -0.040641684 0.17106384
-0.026545398 -0.040565424 0.1713611
-0.026537256 -0.040433522 0.17142347
-0.026482124 -0.040318061 0.17155667
-0.026366664 -0.040223535 0.1717809
-0.025449632 -0.040409036 0.17321388
-0.025207944 -0.040356819 0.17362913
-0.025027826 -0.040282529 0.17395175
-0.024964385 -0.040167321 0.17409848
-0.024843659 -0.040071618 0.17433177
-0.024779141 -0.039956201 0.17448033
-0.024718685 -0.039839137 0.17462286
-0.024708604 -0.039704632 0.17468937
-0.024642291 -0.039589137 0.1748409
-0.024631066 -0.039454702 0.17490925
-0.024505952 -0.039358612 0.17514989
-0.024374878 -0.039264128 0.17539968
-0.024196077 -0.039185233 0.17572184
-0.024022695 -0.039104 0.176036
-0.023846902 -0.039023049 0.17635401
-0.023788888 -0.038902491 0.17649384
-0.023492275 -0.038860574 0.17699522
-0.023662752 -0.03866398 0.17678908
-0.023604576 -0.038542736 0.17692943
-0.023660814 -0.038383838 0.17689638
-0.023486055 -0.038300227 0.17721367
-0.023483682 -0.038160134 0.17726964
-0.023826104 -0.03790845 0.17680235
-0.024219384 -0.037641108 0.1762576
-0.024417976 -0.037437096 0.17600818
-0.024806781 -0.037172649 0.17546967
-0.02505826 -0.036952786 0.17513952
-0.025194075 -0.036770124 0.17498496
-0.025256518 -0.036610886 0.17494188
-0.025299121 -0.036457941 0.17492895
-0.024626499 -0.036529306 0.17600405
-0.049261175 -0.028471816 0.13865185
-0.031730283 -0.033773482 0.16539367
-0.031678423 -0.033657201 0.16552182
-0.032488871 -0.033276584 0.16433592
-0.0326051 -0.033109635 0.16420762
-0.032981947 -0.032863684 0.16368183
-0.033407785 -0.032603741 0.16308101
-0.03359298 -0.032417271 0.162847
-0.034283049 -0.032079618 0.16184229
-0.034824818 -0.031787902 0.1610634
-0.035078712 -0.031583119 0.16072369
-0.035380717 -0.031364597 0.16031027
-0.035937957 -0.031071378 0.1595066
-0.05011921 -0.026219739 0.13808361
-0.052069027 -0.025549859 0.13513915
-0.052158434 -0.025415566 0.13504262
-0.052245654 -0.025282037 0.1349494
-0.052332118 -0.025148857 0.1348573
-0.05241707 -0.025016235 0.13476746
-0.052503157 -0.024883427 0.13467582
-0.052556273 -0.024759956 0.13463472
-0.052612107 -0.024635781 0.13458942
-0.052694075 -0.024504434 0.13450399
-0.052709483 -0.024391539 0.13452072
-0.052755296 -0.02427027 0.13449076
-0.052807059 -0.024147408 0.13445164
-0.052822966 -0.024034336 0.13446763
-0.052837636 -0.023921553 0.13448551
-0.052913893 -0.023792155 0.13440871
-0.052927539 -0.02367964 0.13442819
-0.052940357 -0.023567297 0.13444895
-0.05291814 -0.023464205 0.13452366
-0.017468376 -0.032717824 0.18914442
-0.052908424 -0.023248471 0.13461976
-0.017483732 -0.032406233 0.18923508
-0.052856129 -0.023043456 0.13478161
-0.017402273 -0.032119345 0.18947512
-0.017198347 -0.032017652 0.18984692
-0.016979817 -0.031919073 0.19024146
-0.016897971 -0.031784937 0.19042537
-0.01676341 -0.031663865 0.19069076
-0.01661987 -0.031544607 0.19097017
-0.016532741 -0.031410683 0.19116265
-0.016456103 -0.03127379 0.19133905
-0.01637191 -0.031138472 0.19152723
-0.015320296 -0.03124246 0.19321093
-0.015163173 -0.031123221 0.19351259
-0.015035233 -0.030996315 0.19376931
-0.031948797 -0.024921443 0.16832595
-0.031958256 -0.024780786 0.16836272
-0.031967733 -0.024640052 0.16839951
-0.03197721 -0.024499234 0.16843633
-0.031986702 -0.02435834 0.16847315
-0.031996194 -0.024217358 0.16851
-0.031935241 -0.023394909 0.16891553
-0.031865474 -0.023269998 0.16907622
-0.031835932 -0.023136334 0.16917428
-0.03176754 -0.023010613 0.16933303
-0.031776533 -0.022868522 0.16937111
-0.031785343 -0.022726381 0.16940951
-0.031466544 -0.022228299 0.17011678
-0.031411961 -0.022097966 0.17025462
-0.031300202 -0.021978747 0.17048196
-0.031189198 -0.021858985 0.17070828
-0.031018609 -0.021750512 0.171028
-0.030905932 -0.021630196 0.17125726
-0.030920032 -0.021484939 0.17128816
0.0027569127 -0.021574402 0.22641154
0.0028981075 -0.021403514 0.2267063
0.0069291759 -0.020809777 0.23352912
0.0069309478 -0.020611679 0.23360565
0.006711836 -0.020383306 0.23333168
0.0067130299 -0.020185111 0.23340729
0.065272026 0.0002033105 0.33689418
0.05539069 0.00045965245 0.32080564
0.055629048 0.0007470455 0.32130286
0.055660944 0.0010338461 0.32146168
0.055692535 0.001320969 0.32162014
0.0557447 0.0016086281 0.32181251
0.056184404 0.0019012367 0.3226414
0.05642274 0.0021927038 0.32314008
0.056821987 0.0024874739 0.32390356
0.059994198 0.0028285615 0.32922581
0.060042012 0.0031240329 0.32941395
0.059841212 0.0034151245 0.32919329
0.059135683 0.0036954524 0.32814193
0.058771383 0.0039814753 0.32765159
0.0585558 0.0042701648 0.32740581
0.058030661 0.0045506964 0.32664999
0.057866525 0.0048394916 0.32648852
0.057714816 0.005128386 0.32634741
0.057548705 0.0054166429 0.32618251
0.05703032 0.0056937258 0.32543647
0.056641292 0.005973707 0.3249034
0.05644216 0.0062592193 0.32468337
0.056304459 0.0065465537 0.32456464
0.056310046 0.0068390099 0.32468247
0.056136671 0.0071248407 0.32450476
0.055948436 0.0074097994 0.32430238
0.055602234 0.007687889 0.32383874
0.055605143 0.0079801669 0.32395214
0.055451348 0.00826573 0.32380638
0.055483762 0.0085596209 0.32396871
0.055657282 0.0088605378 0.32436475
0.055478707 0.0091449926 0.32417801
0.055142973 0.0094212247 0.3237308
0.054962672 0.0097047584 0.3235409
0.054805756 0.0099892402 0.32338962
0.05482962 0.010283417 0.32353804
0.05483054 0.01057661 0.32364851
0.054804213 0.010868466 0.3237139
0.054583646 0.011148937 0.32345688
0.052628908 0.01132327 0.32032019
0.052275874 0.011591992 0.31984186
0.057071127 0.01218928 0.32791761
0.057090718 0.01248854 0.32806093
0.056908034 0.012774548 0.32786801
0.37816435 0.13336435 0.89884788
0.37876478 0.13438903 0.90021211
0.34880707 0.12906422 0.8491677
0.34932756 0.13002522 0.85037738
0.34984589 0.13098809 0.8515842
0.34889159 0.13155578 0.85023224
0.39677817 0.14539185 0.93380427
0.39910772 0.14693482 0.93819314
0.46361378 0.17275424 1.0534388
-0.048764117 0.031542245 0.16177218
-0.048777528 0.031697553 0.16180794
-0.048890378 0.031817704 0.16166778
-0.048806243 0.032007765 0.16187622
-0.0487215 0.032198485 0.16208589
-0.048735857 0.032353997 0.16212018
-0.048797674 0.032492444 0.16207039
-0.048764504 0.03266532 0.16218898
-0.0487785 0.032821238 0.16222401
-0.048839979 0.032959826 0.16217482
-0.048808385 0.033132654 0.16229081
-0.04882418 0.033288181 0.16232274
-0.048840538 0.033443589 0.16235372
-0.048854288 0.033600051 0.16238935
-0.048867948 0.033756647 0.16242518
-0.048881676 0.033913311 0.16246092
-0.04889432 0.034070481 0.16249864
-0.048906565 0.034227904 0.1625371
-0.048824806 0.03442141 0.16274293
-0.048836954 0.034579236 0.16278169
-0.048849348 0.034737069 0.16282006
-0.048862707 0.034894627 0.16285673
-0.048877276 0.035051815 0.1628913
-0.048891675 0.035209157 0.1629262
-0.04890627 0.035366517 0.16296078
-0.048921447 0.035523742 0.16299435
-0.048935615 0.035681456 0.16302978
-0.048949111 0.035839539 0.16306643
-0.04891485 0.036016848 0.16318844
-0.048881147 0.036194213 0.16330956
-0.048894085 0.036352977 0.16334739
-0.048859149 0.036531296 0.16347088
-0.048871595 0.036690548 0.1635097
-0.048837479 0.036868989 0.16363189
-0.048852786 0.037027359 0.16366568
-0.048916653 0.037165735 0.16361251
-0.044405397 0.03920367 0.17175859
-0.044365361 0.039393514 0.17189471
-0.044430126 0.039539773 0.17184301
-0.04438936 0.039730348 0.1719806
-0.044401351 0.039898932 0.17202362
-0.044358961 0.040090699 0.17216434
-0.044372473 0.040258966 0.17220475
-0.04443609 0.040405888 0.17215516
-0.044449717 0.040574223 0.1721954
-0.044464011 0.040742375 0.17223449
-0.044478521 0.040910542 0.17227323
-0.044491183 0.041079618 0.17231534
-0.044503547 0.041248932 0.17235802
-0.044518359 0.041417282 0.17239633
-0.044482678 0.041608002 0.17252566
-0.044496577 0.041777056 0.17256574
-0.044456869 0.041970044 0.17270251
-0.044473123 0.04213836 0.17273843
-0.044486612 0.042308018 0.1727794
-0.044501193 0.042477295 0.17281844
-0.044464 0.042670067 0.17295101
-0.044479992 0.042839006 0.17298761
-0.04444389 0.043031778 0.17311838
-0.044456013 0.043202784 0.17316209
-0.044417635 0.043397095 0.17329717
-0.044377521 0.043592516 0.17343551
-0.044384919 0.043766242 0.17348796
-0.044393558 0.043939538 0.17353822
-0.044355944 0.044134539 0.1736723
-0.04437023 0.044305526 0.17371246
-0.044382866 0.044477392 0.17375565
-0.044392757 0.044650678 0.17380385
-0.044353355 0.044847459 0.17394152
-0.04436107 0.045022111 0.1739938
-0.044422057 0.045171455 0.17394942
-0.044436418 0.045343097 0.17398971
-0.044456676 0.045512006 0.17401931
-0.044474371 0.045682237 0.17405359
-0.044489682 0.045853723 0.17409226
-0.044500135 0.046027683 0.1741398
-0.044511557 0.046201296 0.17418562
-0.04446996 0.046401061 0.174328
-0.044481527 0.046574943 0.17437367
-0.044441104 0.046774667 0.17451411
-0.044400208 0.046974946 0.17465554
-0.044307854 0.047201186 0.17489089
-0.044319712 0.047375802 0.17493637
-0.044330601 0.047551025 0.17498367
-0.044342961 0.047725625 0.17502831
-0.044303466 0.04792659 0.17516769
-0.044314183 0.048102368 0.17521548
-0.044325214 0.048278108 0.17526273
-0.044288322 0.048478499 0.17539763
-0.044304833 0.048651759 0.17543499
-0.044319022 0.048826329 0.17547664
-0.036752537 0.052924111 0.18939222
-0.036703821 0.053146053 0.1895545
-0.036597084 0.053398587 0.18982318
-0.03660905 0.053589612 0.18987457
-0.036685918 0.053746697 0.18980707
-0.036695756 0.053938992 0.18986243
-0.036770508 0.054097086 0.18979876
-0.036841005 0.054257341 0.18974286
-0.036853753 0.05444828 0.18979296
-0.036803313 0.054673139 0.18995915
-0.036564711 0.054999359 0.19047119
-0.03657373 0.055193309 0.1905285
-0.036651563 0.055350218 0.19045934
-0.036669612 0.055539437 0.19050011
-0.036686476 0.055729415 0.1905431
-0.036634993 0.055956859 0.19071196
-0.036640964 0.056153167 0.19077514
-0.036708038 0.056316044 0.19072583
-0.036717158 0.056510828 0.19078329
-0.036730092 0.056703649 0.19083378
-0.036742117 0.056897122 0.19088599
-0.036696129 0.057123102 0.1910453
-0.036709271 0.057316326 0.19109559
-0.036720011 0.05751105 0.19115038
-0.036607537 0.057775378 0.19143283
-0.036675926 0.057938002 0.19138128
-0.036616661 0.058173031 0.19156571
-0.036624964 0.058369976 0.1916253
-0.036571261 0.058602527 0.19179969
-0.036527451 0.058829807 0.19195592
-0.036480263 0.059059385 0.19211854
-0.03643081 0.05929064 0.19228549
-0.036375124 0.059525892 0.19246413
-0.036320031 0.059761211 0.19264182
-0.036326736 0.059960883 0.19270507
-0.036279071 0.06019254 0.19286923
-0.036229599 0.060425654 0.1930369
-0.036182094 0.060657978 0.19320105
-0.036255021 0.060819481 0.19314164
-0.036267184 0.061016932 0.1931951
-0.036278784 0.061214868 0.19324967
-0.036287144 0.061414875 0.19331032
-0.036359247 0.061576843 0.19325243
-0.036431883 0.061738409 0.19319353
-0.036506303 0.061898805 0.19313125
-0.03645977 0.062132288 0.19329424
-0.036535989 0.062291615 0.19322863
-0.036425248 0.062564723 0.19351152
-0.036379647 0.062798649 0.19367315
-0.036388692 0.06299945 0.19373298
-0.036401976 0.063197806 0.19378494
-0.036348429 0.063437544 0.19396175
-0.036358714 0.063638166 0.19401947
-0.036309488 0.063875914 0.19418846
-0.036321748 0.064075746 0.19424266
-0.036334828 0.064275198 0.19429536
-0.036411986 0.06443461 0.19422825
-0.03636229 0.064673722 0.19439851
-0.036436249 0.064835183 0.1943374
-0.036383249 0.065076917 0.19451405
-0.036394902 0.065278031 0.19456971
-0.036340449 0.065521382 0.19474934
-0.036350355 0.065724023 0.19480844
-0.03635931 0.065927438 0.19486938
-0.036370207 0.066129759 0.19492672
-0.036381412 0.066332027 0.19498356
-0.036325715 0.066577777 0.19516611
-0.036205828 0.066865616 0.19546945
-0.036144979 0.067115687 0.19566207
-0.036084887 0.067365721 0.19585343
-0.035895307 0.067701064 0.19628856
-0.035838068 0.067950375 0.19647497
-0.035785008 0.068197355 0.19665366
-0.035864878 0.068356819 0.19658212
-0.035876308 0.068561561 0.19663951
-0.035825819 0.068807691 0.19681369
-0.035771597 0.069056712 0.19699503
-0.035713241 0.069308944 0.19718437
-0.035584267 0.069609046 0.19750716
-0.035456792 0.069908872 0.19782737
-0.03533176 0.070207775 0.19814324
-0.035277691 0.070459291 0.19832529
-0.035291731 0.07066492 0.19837871
-0.03530601 0.070870526 0.19843175
-0.035319239 0.071077004 0.19848683
-0.03526197 0.071332 0.19867541
-0.035134256 0.071635939 0.19899754
-0.035077725 0.071891479 0.19918512
-0.034950413 0.072196446 0.19950698
-0.034964882 0.072403699 0.19956031
-0.034977335 0.072612494 0.19961752
-0.047260836 -0.034098517 0.13983667
-0.047272287 -0.033984873 0.13986017
-0.028742366 -0.040182352 0.16790526
-0.027562069 -0.040471777 0.16973078
-0.026691707 -0.040648047 0.17109077
-0.026477078 -0.040589642 0.171464
-0.026471341 -0.040456817 0.17152275
-0.026418809 -0.04034036 0.17165208
-0.026360087 -0.040225845 0.17179082
-0.026294503 -0.040113498 0.17193998
-0.026131069 -0.040035006 0.17223684
-0.024981136 -0.040298749 0.17402218
-0.024854962 -0.040205203 0.17426361
-0.024843205 -0.040071774 0.17433245
-0.0247775 -0.039956763 0.17448282
-0.024704078 -0.039844144 0.17464493
-0.024636341 -0.039729308 0.17479855
-0.024571642 -0.039613176 0.17494768
-0.024506947 -0.039496783 0.1750969
-0.02443992 -0.039380923 0.17524974
-0.024316328 -0.039283842 0.17548825
-0.024191976 -0.039186615 0.17572805
-0.024077822 -0.039085578 0.17595257
-0.02401989 -0.038965445 0.1760921
-0.023790142 -0.038902078 0.17649193
-0.023671003 -0.038801488 0.17672445
-0.023722664 -0.038644243 0.17669828
-0.023665182 -0.038522847 0.17683755
-0.02360943 -0.038400643 0.17697428
-0.023485439 -0.038300429 0.17721461
-0.023592705 -0.038124751 0.17710422
-0.023657026 -0.037963115 0.17705895
-0.024168985 -0.037657343 0.17633411
-0.024419405 -0.037436634 0.176006
-0.024751989 -0.037190169 0.1755529
-0.025002917 -0.03697041 0.1752236
-0.025191907 -0.036770813 0.17498825
-0.025256446 -0.036610905 0.17494199
-0.025296394 -0.036458798 0.17493311
-0.024687584 -0.036510143 0.17591113
-0.0317012 -0.033650201 0.16548713
-0.032489039 -0.033276536 0.16433567
-0.03260728 -0.033108968 0.1642043
-0.032985017 -0.032862753 0.16367714
-0.033410307 -0.032602977 0.16307716
-0.03358715 -0.032419026 0.16285589
-0.034275811 -0.032081794 0.16185333
-0.034591641 -0.031857602 0.16141939
-0.035124086 -0.031569608 0.16065438
-0.035367738 -0.031368446 0.1603301
-0.036044549 -0.03103991 0.15934372
0.00053201133 -0.040797696 0.21562256
-0.052030463 -0.025560912 0.13519821
-0.05215548 -0.02541641 0.13504715
-0.052245144 -0.02528218 0.13495019
-0.052331459 -0.025149042 0.13485831
-0.052384086 -0.025025522 0.13481802
-0.052469611 -0.024892831 0.13472727
-0.052522436 -0.024769399 0.13468663
-0.05260862 -0.024636749 0.13459478
-0.052692346 -0.024504911 0.13450666
-0.052708771 -0.024391737 0.13452181
-0.05275549 -0.024270214 0.13449048
-0.052807648 -0.024147246 0.13445075
-0.052822497 -0.024034465 0.13446835
-0.052836545 -0.023921849 0.1344872
-0.052848633 -0.023809718 0.13450907
-0.052896671 -0.023687908 0.13447566
-0.052939687 -0.023567475 0.13444999
-0.017627124 -0.032829303 0.18884297
-0.017407637 -0.032733865 0.18923792
-0.052907567 -0.023248697 0.13462107
-0.052883178 -0.023145802 0.13469926
-0.052856497 -0.023043361 0.13478103
-0.017258016 -0.032156721 0.18969749
-0.017180709 -0.032022201 0.18987411
-0.017096786 -0.031889066 0.19006105
-0.016896503 -0.031785309 0.19042763
-0.016752893 -0.031666532 0.19070698
-0.016550064 -0.03156225 0.19107795
-0.016533893 -0.031410389 0.19116087
-0.016394695 -0.03128916 0.19143391
-0.016235713 -0.031172382 0.1917377
-0.015942223 -0.031088406 0.1922496
-0.01522856 -0.031107111 0.19341148
-0.014965676 -0.03101337 0.19387689
-0.031948797 -0.024921443 0.16832595
-0.031958256 -0.024780786 0.16836272
-0.031967733 -0.024640052 0.16839951
-0.03197721 -0.024499234 0.16843633
-0.031986702 -0.02435834 0.16847315
-0.031996191 -0.02421736 0.16851
-0.031935241 -0.023394909 0.16891553
-0.031865612 -0.02326997 0.16907601
-0.031835932 -0.023136334 0.16917428
-0.031767517 -0.023010617 0.16933306
-0.031776167 -0.022868596 0.16937168
-0.031784505 -0.022726556 0.16941082
-0.031676788 -0.022608258 0.16963121
-0.031645786 -0.02247392 0.16973191
-0.03154546 -0.022212405 0.16999343
-0.031411834 -0.022097992 0.17025481
-0.031301711 -0.021978449 0.17047961
-0.031190446 -0.021858739 0.17070633
-0.031018144 -0.021750603 0.17102873
-0.030847568 -0.021641569 0.17134863
0.002683759 -0.022328323 0.2260115
0.0026842686 -0.022137426 0.22608328
0.0025455619 -0.021925338 0.22593494
0.0048285928 -0.020713054 0.23012471
0.00681003 -0.020793209 0.23334014
0.0068243355 -0.020597 0.2334365
0.0068252329 -0.020398764 0.23351166
0.0067194938 -0.020185981 0.23341756
0.0065967925 -0.019971065 0.23329648
0.0031901447 -0.019321943 0.22795829
0.0031911042 -0.019128026 0.22803193
0.05562368 -0.00096749287 0.32065681
0.055464726 -0.00068209262 0.32050252
0.055495691 -0.00039691725 0.32065925
0.055526294 -0.00011142229 0.32081547
0.055556949 0.00017439226 0.32097191
0.055798937 0.00046146533 0.32147494
0.055832185 0.00074824516 0.32163599
0.055876363 0.0010354343 0.3218151
0.055919856 0.0013229783 0.3219932
0.056158446 0.001612893 0.32249174
0.05638713 0.0019036245 0.32297432
0.056444321 0.0021929895 0.32317555
0.060289465 0.0025385194 0.32960162
0.060091544 0.0028301377 0.32938585
0.05991374 0.0031217667 0.32920304
0.059545487 0.0034094625 0.32870683
0.059188917 0.0036965504 0.32822955
0.058969721 0.0039858585 0.32797807
0.058769621 0.0042752065 0.32775789
0.058408089 0.0045601549 0.32727167
0.058061633 0.0048446702 0.32681
0.057542138 0.0051235463 0.3260628
0.057373106 0.005411461 0.32589298
0.057214148 0.0056994236 0.32573968
0.05687248 0.0059812162 0.32528481
0.056694034 0.0062677749 0.32509908
0.056502189 0.0065535652 0.32489109
0.056142956 0.0068328357 0.32440653
0.056132097 0.0071246657 0.32449722
0.055963691 0.0074104085 0.32432759
0.055949353 0.0077022687 0.32441258
0.055792592 0.0079882117 0.32426214
0.055821195 0.0082821576 0.32441822
0.055835839 0.0085757868 0.32455134
0.055679172 0.0088615762 0.32440099
0.055679269 0.0091548022 0.32451013
0.055510055 0.0094397319 0.32433888
0.055324983 0.0097235702 0.32414126
0.054992251 0.0099992026 0.32369876
0.054840304 0.010284004 0.32355577
0.054863896 0.010578493 0.32370386
0.055024724 0.010881243 0.32407978
0.054975215 0.011172215 0.32410684
0.053217746 0.011359165 0.32129794
0.052885488 0.011630074 0.32085446
0.052700024 0.011909611 0.3206546
0.057518952 0.012516588 0.32877269
0.35452241 0.11572786 0.85357153
0.35376444 0.11636756 0.85256791
0.33672133 0.1131255 0.82344937
0.34520492 0.1159517 0.8383944
0.34439856 0.11656257 0.83730078
0.34622607 0.1178121 0.84075832
0.34660164 0.11871284 0.84170824
0.41969749 0.14128089 0.96981388
0.3870303 0.13388944 0.91356379
0.38300052 0.13373742 0.90690732
0.38359979 0.13476811 0.90827185
0.38415596 0.13579041 0.90956271
0.46276242 0.17250994 1.0519537
-0.048735689 0.03123248 0.1617036
-0.048748657 0.031387754 0.16174008
-0.048810795 0.031525869 0.16168964
-0.048777323 0.03169762 0.1618083
-0.048792128 0.031852525 0.16184163
-0.048854142 0.031990707 0.16179141
-0.048867926 0.03214607 0.1618266
-0.048835069 0.032318305 0.16194442
-0.04889784 0.032456234 0.16189288
-0.048911482 0.032611925 0.1619284
-0.048925627 0.032767531 0.16196308
-0.048938643 0.032923639 0.16199978
-0.048904415 0.033097263 0.16212037
-0.048869763 0.033271302 0.16224182
-0.048882861 0.033427835 0.16227855
-0.048849899 0.03360169 0.16239715
-0.048862744 0.033758603 0.16243443
-0.048829526 0.033932995 0.16255365
-0.048795655 0.034107897 0.16267413
-0.048809618 0.03426484 0.16270959
-0.048823852 0.034421775 0.16274463
-0.048836421 0.034579441 0.16278264
-0.048850119 0.034736771 0.16281867
-0.04886372 0.034894235 0.16285492
-0.048876762 0.035052013 0.16289221
-0.048889276 0.035210095 0.16293047
-0.048856437 0.03538613 0.16304968
-0.048869159 0.03554441 0.16308768
-0.048883576 0.035702121 0.16312268
-0.048898172 0.035859857 0.1631574
-0.048913583 0.036017362 0.16319071
-0.048928849 0.036175005 0.16322429
-0.048943006 0.036333196 0.16325991
-0.049004074 0.036472429 0.16321164
-0.048969813 0.036650479 0.16333394
-0.048983056 0.036809336 0.16337129
-0.048902936 0.037006713 0.16357587
-0.048965596 0.037145503 0.16352484
-0.048979744 0.037304364 0.1635607
-0.048993904 0.037463307 0.16359659
-0.044425704 0.039541628 0.17185093
-0.044442225 0.039708108 0.17188576
-0.044455424 0.039876089 0.17192657
-0.044414274 0.040067229 0.17206502
-0.044426259 0.040236041 0.17210813
-0.044438999 0.040404644 0.17214994
-0.044503056 0.040551297 0.17209953
-0.044464819 0.040742029 0.17223305
-0.044476748 0.040911309 0.17227642
-0.044437177 0.041103125 0.17241253
-0.044450682 0.04127204 0.17245319
-0.044467669 0.041439537 0.17248763
-0.044588834 0.041561205 0.1723344
-0.044607274 0.041728061 0.17236622
-0.044568349 0.041920494 0.17250149
-0.044476599 0.042136811 0.17273217
-0.044280387 0.042400435 0.17315151
-0.044344306 0.042547893 0.17310163
-0.044354234 0.042719666 0.17314923
-0.04441547 0.042868275 0.17310417
-0.044324923 0.043085966 0.17333338
-0.044386704 0.043234486 0.17328739
-0.044347148 0.043429468 0.17342465
-0.044305954 0.043625511 0.17356499
-0.044266049 0.043821279 0.1737031
-0.044282161 0.043991312 0.17373991
-0.044300456 0.044160433 0.17377281
-0.044369455 0.044305883 0.17371386
-0.044437483 0.04445171 0.17365664
-0.044451248 0.044623055 0.17369778
-0.04446293 0.044795506 0.17374276
-0.044419456 0.044994328 0.17388785
-0.044428796 0.045168232 0.17393719
-0.044390492 0.045365125 0.17407311
-0.044454277 0.045513153 0.17402366
-0.044418391 0.045709301 0.17415534
-0.044482332 0.045857292 0.17410561
-0.044492569 0.046031374 0.17415355
-0.044405155 0.046253338 0.17437923
-0.04441325 0.0464289 0.17443122
-0.044428501 0.046601079 0.17447025
-0.044391885 0.046799015 0.17460378
-0.044457834 0.046946321 0.17455052
-0.044472001 0.04711936 0.17459163
-0.044381417 0.047344923 0.17482384
-0.044393182 0.047519587 0.17486948
-0.044349074 0.047722545 0.17501716
-0.044310164 0.0479232 0.17515546
-0.044376686 0.048070613 0.17510131
-0.044444036 0.048217513 0.17504559
-0.044456363 0.048392493 0.17509045
-0.044470351 0.048566729 0.1751323
-0.036674421 0.05276794 0.18946211
-0.036687776 0.052957624 0.18951075
-0.036641657 0.053178333 0.18966831
-0.036658511 0.053366568 0.18971068
-0.036611211 0.053588487 0.18987063
-0.036685072 0.053747136 0.18980862
-0.036697324 0.053938162 0.18985955
-0.036777113 0.054093596 0.18978666
-0.036792967 0.054282848 0.18983102
-0.036868781 0.054440275 0.18976536
-0.036817115 0.054665767 0.18993381
-0.036766708 0.054890953 0.19010006
-0.036652539 0.055150859 0.19038364
-0.036659863 0.055345729 0.19044408
-0.036539037 0.055610273 0.1907403
-0.036543287 0.05580736 0.1908066
-0.036488477 0.056036893 0.19098167
-0.036502298 0.0562292 0.19103052
-0.036575582 0.056388918 0.19096985
-0.036648992 0.056548458 0.19090892
-0.036606733 0.056772005 0.19106123
-0.036615416 0.056967564 0.19111969
-0.036626533 0.057161931 0.19117372
-0.036456689 0.057457745 0.19156185
-0.036470778 0.057651073 0.19161062
-0.036540151 0.057813361 0.19155732
-0.036499921 0.058037579 0.19170655
-0.036514349 0.058231112 0.19175485
-0.036591969 0.058388777 0.19168633
-0.03660154 0.058585219 0.19174367
-0.036672901 0.058746379 0.19168669
-0.036554918 0.05901641 0.19198029
-0.036561951 0.059214912 0.19204256
-0.036568824 0.059413653 0.19210517
-0.036580686 0.059609663 0.19215859
-0.036589906 0.05980736 0.19221698
-0.036542434 0.060038392 0.19238059
-0.036552228 0.060236156 0.19243805
-0.03656384 0.060433015 0.1924922
-0.036451977 0.060703024 0.19277579
-0.036461387 0.06090172 0.19283423
-0.036412906 0.061135028 0.19300033
-0.036422145 0.061334256 0.19305925
-0.036434002 0.061532058 0.19311336
-0.036443874 0.061731204 0.1931712
-0.036457911 0.061927985 0.19322136
-0.036468897 0.062126767 0.19327725
-0.036481772 0.062324531 0.19332966
-0.036489367 0.062525667 0.19339199
-0.036499389 0.062725469 0.19344984
-0.03644925 0.062962323 0.19362
-0.036466751 0.063157961 0.19366404
-0.036539271 0.06331978 0.19360541
-0.036555443 0.063516364 0.19365199
-0.03650941 0.063751742 0.19381487
-0.036524516 0.063949384 0.19386359
-0.036531728 0.064152107 0.19392712
-0.036543638 0.06435205 0.19398193
-0.036551561 0.064554632 0.19404426
-0.036563169 0.064755075 0.19409975
-0.03644802 0.065035917 0.19439273
-0.036455959 0.065239243 0.1944553
-0.036400057 0.065483399 0.1946376
-0.036408585 0.0656868 0.19469924
-0.036356956 0.065928936 0.19487379
-0.0363704 0.066129632 0.19492637
-0.036381956 0.066331685 0.19498254
-0.036451723 0.066496201 0.19492942
-0.036332965 0.066783056 0.19523054
-0.036145624 0.067115277 0.19566086
-0.035959065 0.067447931 0.19609006
-0.035770405 0.067782924 0.19652355
-0.035714261 0.068031773 0.19670799
-0.035723113 0.068238176 0.19677022
-0.035802577 0.068398036 0.19669949
-0.035815746 0.06860175 0.19675364
-0.0358935 0.068762638 0.19668609
-0.035771042 0.069057092 0.19699609
-0.03571482 0.069307886 0.19718139
-0.03558936 0.069605626 0.19749755
-0.035530258 0.069859363 0.19768864
-0.03540295 0.070159666 0.19800878
-0.035278238 0.070458926 0.19832426
-0.035149999 0.070761293 0.19864668
-0.035162732 0.070968248 0.19870274
-0.035106469 0.071222566 0.19888942
-0.035051689 0.07147631 0.19907345
-0.035065163 0.071683504 0.19912839
-0.0352901 0.071744859 0.19878279
-0.035334103 0.071930774 0.19877982
-0.047143355 -0.034469686 0.13989113
-0.04715478 -0.034356114 0.13991463
-0.047194254 -0.034232244 0.13989602
-0.047260836 -0.034098517 0.13983667
-0.047272287 -0.033984873 0.13986017
-0.028742366 -0.040182352 0.16790526
-0.027675333 -0.040431347 0.16956031
-0.026701298 -0.040644635 0.17107633
-0.026536951 -0.040568415 0.17137381
-0.026527995 -0.040436797 0.17143741
-0.026468169 -0.040322971 0.17157771
-0.02550754 -0.040525086 0.17307591
-0.025375528 -0.04043496 0.17332563
-0.024908293 -0.040461279 0.17408109
-0.024731677 -0.040385414 0.17439854
-0.024483258 -0.040333893 0.17482457
-0.024417926 -0.04021851 0.17497444
-0.024356358 -0.040101565 0.17511874
-0.024343073 -0.039967839 0.17519021
-0.024281131 -0.039850585 0.17533524
-0.024219871 -0.039732855 0.17547934
-0.024446709 -0.039517201 0.17518798
-0.024549223 -0.039343994 0.17508444
-0.024589941 -0.039191734 0.17507435
-0.024525158 -0.039074853 0.1752239
-0.024406608 -0.038975693 0.17545491
-0.024016075 -0.038966715 0.17609788
-0.023779413 -0.038905635 0.17650819
-0.023597743 -0.038825709 0.17683543
-0.023703061 -0.038650703 0.176728
-0.023647141 -0.038528766 0.17686491
-0.023821896 -0.03833117 0.17665213
-0.023608578 -0.038260311 0.17702784
-0.023667373 -0.038100518 0.17699094
-0.023783607 -0.037922192 0.17686684
-0.024184054 -0.037652485 0.17631124
-0.024423139 -0.037435438 0.17600033
-0.024744147 -0.037192676 0.17556481
-0.024991749 -0.036973968 0.17524058
-0.025130831 -0.036790196 0.17508109
-0.025247544 -0.036613718 0.17495553
-0.025295908 -0.036458954 0.17493384
-0.024698462 -0.036506731 0.17589459
-0.031682823 -0.033920322 0.16541682
-0.031615101 -0.033809047 0.1655691
-0.031678248 -0.033657257 0.16552208
-0.032660231 -0.033092815 0.16412358
-0.032990765 -0.032861006 0.16366838
-0.033456292 -0.032589063 0.16300701
-0.033683289 -0.032390054 0.16270921
-0.034288317 -0.032078039 0.16183425
-0.034833133 -0.031785414 0.16105071
-0.035134766 -0.03156643 0.16063808
-0.035436247 -0.031348139 0.16022544
-0.035884231 -0.03108724 0.15958869
0.0021126422 -0.041252617 0.21804225
-0.052067269 -0.025550362 0.13514183
-0.052121934 -0.025425982 0.13509853
-0.052244507 -0.025282364 0.13495116
-0.052331302 -0.025149086 0.13485855
-0.052383605 -0.025025658 0.13481876
-0.052469049 -0.024892993 0.13472813
-0.052520394 -0.024769969 0.13468976
-0.052608691 -0.024636729 0.13459466
-0.052658625 -0.024514241 0.13455841
-0.052708119 -0.024391916 0.13452283
-0.052724119 -0.024278818 0.13453865
-0.052806579 -0.02414754 0.13445239
-0.052822556 -0.024034448 0.13446826
-0.052866798 -0.023913668 0.13444069
-0.052881252 -0.023800941 0.13445891
-0.052928884 -0.023679279 0.13442612
-0.052941069 -0.023567107 0.13444786
-0.052918535 -0.023464097 0.13452305
-0.052898012 -0.023360416 0.1345952
-0.052907385 -0.023248747 0.13462135
-0.017603114 -0.032375 0.18905115
-0.017532447 -0.032239612 0.18921721
-0.017273225 -0.032152783 0.18967405
-0.017193174 -0.032018986 0.18985489
-0.01703768 -0.031904232 0.19015221
-0.01689841 -0.031784825 0.19042468
-0.0166982 -0.031680431 0.1907914
-0.016622242 -0.031544007 0.19096652
-0.016535997 -0.03140986 0.19115762
-0.016389707 -0.031290408 0.19144161
-0.016102513 -0.031205546 0.19194353
-0.015881121 -0.03110354 0.19234404
-0.015877491 -0.03094719 0.1924081
-0.014960713 -0.031014588 0.19388457
-0.017060939 -0.030343704 0.19069414
-0.031948797 -0.024921443 0.16832595
-0.031958256 -0.024780786 0.16836272
-0.031967733 -0.024640052 0.16839951
-0.03197721 -0.024499234 0.16843633
-0.031986702 -0.02435834 0.16847315
-0.031925742 -0.023536528 0.16887845
-0.031935237 -0.023394909 0.16891554
-0.031865753 -0.023269942 0.16907579
-0.031835932 -0.023136334 0.16917428
-0.031767379 -0.023010649 0.16933328
-0.031775985 -0.022868633 0.16937198
-0.031723071 -0.02273925 0.16950673
-0.031676639 -0.022608289 0.16963145
-0.031645786 -0.02247392 0.16973191
-0.031466685 -0.022228271 0.17011656
-0.031411171 -0.022098124 0.17025585
-0.031300846 -0.02197862 0.17048097
-0.031190474 -0.021858733 0.17070629
-0.031078773 -0.021738706 0.17093384
-0.030964937 -0.0216187 0.1711649
-0.030880179 -0.021492653 0.17135057
0.0026831345 -0.022519052 0.22593959
0.002683759 -0.022328323 0.2260115
0.0026843967 -0.022137446 0.22608349
0.0026850095 -0.021946417 0.22615549
0.0025462606 -0.021734357 0.22600707
0.0088546015 -0.020474192 0.23680735
0.0031185788 -0.019506266 0.22777256
0.0032319773 -0.019327477 0.22802474
0.0031203118 -0.01911876 0.22791943
0.0031212445 -0.018924786 0.22799306
0.055304695 -0.00011175776 0.32045242
0.055356871 0.00017379674 0.32064402
0.055390615 0.0004596521 0.32080552
0.055630025 0.00074705126 0.32130444
0.055667169 0.001033892 0.3214719
0.055697929 0.0013210166 0.32162899
0.055524994 0.0016063633 0.32145181
0.055563714 0.0018939264 0.32162213
0.056000557 0.00218711 0.32244655
0.059908994 0.0025329185 0.32897639
0.059890207 0.0028268776 0.32905489
0.059910227 0.0031217046 0.32919726
0.059545726 0.0034094672 0.32870722
0.059169173 0.0036961434 0.32819706
0.058776397 0.0039815861 0.32765985
0.058408905 0.0042667007 0.32716393
0.058048964 0.004551155 0.32668015
0.057861444 0.0048393565 0.32648015
0.057687324 0.0051276153 0.32630211
0.057350371 0.0054107904 0.32585549
0.056826528 0.0056874086 0.32510036
0.056623038 0.0059731142 0.32487327
0.056438323 0.0062590889 0.32467702
0.056092706 0.0065390458 0.32421502
0.05589078 0.0068235183 0.32399005
0.055717543 0.0071087293 0.32381234
0.055725008 0.0074008768 0.32393312
0.055744316 0.0076937755 0.32407361
0.055583987 0.0079792589 0.32391715
0.055412058 0.0082639847 0.32374138
0.055416506 0.0085565327 0.3238574
0.055429406 0.0088497335 0.32398751
0.055257119 0.0091341529 0.32381105
0.055080127 0.0094180573 0.3236267
0.05474617 0.0096935192 0.32318211
0.054568414 0.0099765602 0.3229962
0.05457823 0.010269608 0.32312119
0.054567266 0.010561753 0.32321182
0.054535381 0.010852891 0.32326782
0.054335564 0.011134189 0.3230451
0.05226782 0.011301258 0.3197206
0.052271448 0.011591717 0.3198345
0.052465312 0.011894594 0.32026461
0.05231658 0.012175858 0.32012555
0.057125162 0.012789099 0.32822904
0.057136577 0.013088427 0.32835898
0.35492238 0.11500282 0.85395712
0.35452071 0.11572745 0.85356855
0.35376784 0.11636837 0.85257375
0.35428286 0.11730955 0.8537671
0.33971879 0.11463553 0.82891995
0.36926448 0.12256947 0.88025928
0.36746567 0.1229783 0.87746507
0.36802751 0.12395997 0.87875015
0.36701575 0.12455626 0.87731469
0.36758417 0.12554216 0.8786121
0.38897261 0.13350014 0.91660029
0.3870303 0.13388944 0.91356379
0.38609603 0.13453166 0.91227233
0.38516778 0.13517307 0.91099042
0.38737023 0.13662592 0.91513765
0.38461557 0.13679005 0.91068703
0.34879866 0.129062 0.84915316
0.34931913 0.13002297 0.85036278
0.45628268 0.16458243 1.0383946
0.45934221 0.16644362 1.0440972
0.4579646 0.16707285 1.0420748
0.45901299 0.16838209 1.0442785
0.45771363 0.16903004 1.0423912
0.46050459 0.17084129 1.0476356
0.46136093 0.17210776 1.0495088
0.52971357 0.19857381 1.1712948
-0.048931979 0.030052004 0.16094336
-0.048894897 0.030222977 0.16106763
-0.048860461 0.030393323 0.16118735
-0.048874497 0.030547421 0.16122164
-0.048839826 0.030718282 0.16134192
-0.048854027 0.030872595 0.16137603
-0.048867688 0.03102719 0.16141112
-0.048784457 0.031215535 0.16161743
-0.048749097 0.031387597 0.1617393
-0.048713781 0.031559907 0.16186118
-0.048727803 0.031715088 0.1618959
-0.048789989 0.031853288 0.16184542
-0.048805993 0.032007858 0.16187665
-0.048916947 0.032128524 0.16173978
-0.048931163 0.032283738 0.16177419
-0.048896503 0.032456715 0.16189525
-0.048862826 0.032629605 0.16201466
-0.048876438 0.032785486 0.16205031
-0.048890661 0.032941241 0.16208491
-0.048904203 0.033097334 0.16212074
-0.048871431 0.033270683 0.16223885
-0.048884708 0.033427153 0.16227525
-0.048850827 0.033601347 0.16239549
-0.048864324 0.033758011 0.16243163
-0.048829205 0.033933118 0.16255422
-0.048842795 0.034090023 0.1625903
-0.048807684 0.034265574 0.16271304
-0.048820376 0.034423102 0.16275081
-0.04883394 0.034580391 0.16278705
-0.048849724 0.034736924 0.16281937
-0.048866667 0.034893092 0.16284968
-0.048976988 0.035012927 0.16271353
-0.048993483 0.035169277 0.16274463
-0.049055878 0.035307635 0.16269386
-0.049023632 0.035483345 0.16281198
-0.049084298 0.035622407 0.16276431
-0.049001288 0.035818722 0.16297323
-0.049014006 0.035977118 0.16301128
-0.048979204 0.03615474 0.16313429
-0.048943602 0.036332957 0.16325885
-0.048956193 0.036491878 0.1632973
-0.048922025 0.036669977 0.16341944
-0.048935842 0.036828682 0.16345581
-0.048949338 0.036987618 0.16349278
-0.048916101 0.037165962 0.1636135
-0.048930835 0.037324674 0.16364837
-0.04894463 0.037483852 0.16368493
-0.048958078 0.037643291 0.16372217
-0.048924766 0.037822492 0.16384333
-0.048986193 0.037961937 0.16379456
-0.048953306 0.038141321 0.1639151
-0.048968054 0.038300678 0.16395016
-0.044496402 0.040380083 0.17204678
-0.044560943 0.04052642 0.17199548
-0.044573918 0.040694945 0.17203686
-0.044534519 0.040886272 0.1721725
-0.044548091 0.041054849 0.17221293
-0.044564635 0.041222233 0.17224805
-0.044583008 0.04138891 0.17227991
-0.044601049 0.041555822 0.17231239
-0.044616669 0.041723896 0.17234929
-0.044574019 0.041917976 0.17249128
-0.044530679 0.042112675 0.17263462
-0.044432383 0.042332321 0.17287725
-0.044390284 0.042527203 0.17301863
-0.044349931 0.042721607 0.17315699
-0.044417281 0.042867459 0.17310089
-0.044435035 0.043035809 0.17313439
-0.044502199 0.043181665 0.1730786
-0.044514287 0.043352716 0.17312238
-0.044425681 0.043570314 0.17334837
-0.044383924 0.043766711 0.17348976
-0.044289771 0.043987773 0.17372613
-0.04430015 0.044160575 0.17377336
-0.044261232 0.044356592 0.17390996
-0.044277597 0.044526909 0.17394646
-0.044241406 0.044722151 0.1740783
-0.044254616 0.044894267 0.17412063
-0.044262137 0.045069207 0.17417334
-0.044323795 0.045218408 0.17412782
-0.044285476 0.045415498 0.17426383
-0.044351164 0.045562815 0.174211
-0.044415243 0.045710824 0.17416106
-0.044427078 0.045884106 0.17420608
-0.044437036 0.046058431 0.17425457
-0.044345751 0.046282396 0.17448732
-0.04435784 0.04645611 0.17453209
-0.044372652 0.046628602 0.17457195
-0.044386264 0.046801794 0.17461403
-0.044347655 0.047001038 0.17475131
-0.044359826 0.047175277 0.17479613
-0.044372931 0.047349174 0.1748393
-0.044438161 0.047496993 0.17478742
-0.044449084 0.047672115 0.17483461
-0.044406187 0.047874603 0.17498013
-0.044363774 0.048077174 0.1751249
-0.044323921 0.048278764 0.17526509
-0.044283554 0.048480935 0.17540635
-0.044298157 0.048655193 0.1754472
-0.036785055 0.052710898 0.18925972
-0.036798216 0.052900471 0.18930863
-0.036754109 0.053119924 0.18946242
-0.036524314 0.053436521 0.18995647
-0.036599256 0.053594742 0.18989253
-0.03661605 0.053783383 0.18993513
-0.036686145 0.053944048 0.18988006
-0.03676495 0.054100029 0.18980896
-0.03677221 0.054293863 0.18986912
-0.036727712 0.054515436 0.19002435
-0.036677588 0.054740373 0.19019005
-0.036633633 0.054962371 0.19034456
-0.036584247 0.055187646 0.19050917
-0.03659711 0.055379655 0.19055948
-0.036609631 0.055571973 0.19061044
-0.036683634 0.055730969 0.19054833
-0.036755364 0.055891093 0.19049037
-0.036768638 0.056083173 0.19054003
-0.036780521 0.056276157 0.19059229
-0.036726002 0.056505945 0.19076699
-0.036669035 0.056737483 0.19094636
-0.036613341 0.056968722 0.19112352
-0.036623426 0.057163659 0.19117945
-0.036576923 0.057390429 0.1913399
-0.036594018 0.057581831 0.19138305
-0.036547568 0.057809185 0.19154362
-0.03656178 0.058002591 0.19159223
-0.03656932 0.058199901 0.19165322
-0.036582708 0.058394048 0.19170345
-0.036587469 0.058593262 0.1917697
-0.036601003 0.058787614 0.19181977
-0.036603879 0.05898824 0.19188963
-0.036612391 0.059185773 0.19194911
-0.036614835 0.059386995 0.19201991
-0.036566444 0.059617948 0.192185
-0.036519475 0.059848443 0.1923476
-0.036535691 0.06004234 0.19239311
-0.036549736 0.060237635 0.19244269
-0.036562543 0.060433779 0.19249462
-0.036570415 0.060632996 0.19255577
-0.036459636 0.060902767 0.19283748
-0.036467001 0.061102834 0.19289978
-0.03647672 0.061301652 0.19295776
-0.036550652 0.061462164 0.19289634
-0.036505897 0.061693914 0.19305576
-0.03652161 0.061889566 0.19310275
-0.036470234 0.062125955 0.19327475
-0.036414247 0.062365539 0.1934555
-0.0363556 0.062607154 0.19364136
-0.036364362 0.062808 0.19370165
-0.036314182 0.063045144 0.19387199
-0.036329199 0.06324257 0.19392078
-0.036342613 0.063441135 0.1939726
-0.036424395 0.063597508 0.19389679
-0.036376704 0.063834161 0.19406286
-0.03645337 0.063993722 0.19399659
-0.036401857 0.064233288 0.19417
-0.036479346 0.064392366 0.19410223
-0.036428429 0.06463211 0.19427472
-0.03643946 0.064833149 0.19433138
-0.036385555 0.065075465 0.19450973
-0.036459338 0.06523709 0.19444896
