# .PCD v0.7 - Point Cloud Data file format
VERSION 0.7
FIELDS x y z
SIZE 4 4 4
TYPE F F F
COUNT 1 1 1
WIDTH 1370
HEIGHT 1
VIEWPOINT 0 0 0 1 0 0 0
POINTS 1370
DATA ascii
-0.084918 -0.024349 -0.24198601
-0.084916003 -0.024278 -0.241978
-0.084912002 -0.024203001 -0.241989
-0.084909 -0.024129 -0.242001
-0.084905997 -0.024055 -0.241999
-0.084903002 -0.023980999 -0.24199501
-0.084899999 -0.023907 -0.242002
-0.084895998 -0.023832999 -0.24201199
-0.084893003 -0.023759 -0.24201401
-0.084890999 -0.023685001 -0.24201
-0.084887996 -0.023613 -0.242007
-0.084885001 -0.023538999 -0.242009
-0.084881999 -0.023465 -0.242011
-0.084879003 -0.023391999 -0.24200501
-0.084876999 -0.023318 -0.241998
-0.084873997 -0.023246 -0.24199
-0.084871002 -0.023172 -0.24198601
-0.084867999 -0.023097999 -0.241988
-0.084866002 -0.023026001 -0.241983
-0.084863 -0.022952 -0.241979
-0.084858999 -0.022878001 -0.24198499
-0.084857002 -0.022803999 -0.24198
-0.084854998 -0.022731001 -0.24196
-0.084852003 -0.022659 -0.241954
-0.084849998 -0.022585001 -0.241946
-0.084847003 -0.022512 -0.241933
-0.084844001 -0.02244 -0.241937
-0.084840998 -0.022363 -0.241945
-0.084838003 -0.022291999 -0.241937
-0.084835 -0.022218 -0.24194001
-0.084831998 -0.022143001 -0.24194799
-0.084829003 -0.02207 -0.24193799
-0.084826998 -0.021996001 -0.241933
-0.084824003 -0.021924 -0.241937
-0.084821001 -0.021848001 -0.241935
-0.084817998 -0.021776 -0.241925
-0.084816001 -0.021703999 -0.241914
-0.084812999 -0.02163 -0.241914
-0.084810004 -0.021557 -0.24191201
-0.084807001 -0.021482 -0.241918
-0.084803 -0.021407999 -0.24193101
-0.084799998 -0.021334 -0.24193899
-0.084797002 -0.021258 -0.241941
-0.084794 -0.021186 -0.241945
-0.084789999 -0.02111 -0.24194799
-0.084788002 -0.021038 -0.241944
-0.084785998 -0.020966999 -0.241926
-0.084783003 -0.020893 -0.241917
-0.08478 -0.020819001 -0.241925
-0.084775999 -0.020742999 -0.24193101
-0.084774002 -0.020671001 -0.241925
-0.084771 -0.020597 -0.24192201
-0.084767997 -0.020523001 -0.241926
-0.084766001 -0.020451 -0.241916
-0.084763996 -0.020377999 -0.24189401
-0.084761001 -0.020304 -0.24189299
-0.084757 -0.020229001 -0.241917
-0.084752999 -0.020155 -0.24192099
-0.084751002 -0.020081 -0.24191301
-0.084748 -0.020006999 -0.24191201
-0.084744997 -0.019933 -0.24191999
-0.084740996 -0.019858999 -0.241924
-0.084739 -0.019785 -0.241918
-0.084735997 -0.019711001 -0.241919
-0.084733002 -0.019637 -0.241923
-0.084729999 -0.019563001 -0.241919
-0.084726997 -0.019492 -0.24191
-0.084725 -0.019417999 -0.241898
-0.084721997 -0.019344 -0.24189401
-0.084719002 -0.019269999 -0.24190401
-0.084716 -0.019196 -0.241905
-0.084714003 -0.019123999 -0.24188501
-0.084711999 -0.019052999 -0.241863
-0.084710002 -0.018979 -0.24184901
-0.084706001 -0.018905001 -0.24185599
-0.084702998 -0.018831 -0.24186
-0.084700003 -0.018757001 -0.24185599
-0.084697999 -0.018683 -0.24184699
-0.084696002 -0.018611999 -0.241835
-0.084693 -0.018538 -0.241831
-0.084689997 -0.018464001 -0.24183901
-0.084686004 -0.018389 -0.24185801
-0.084683001 -0.018313 -0.24186
-0.084679998 -0.018242 -0.24185
-0.084677003 -0.018168001 -0.24185
-0.084674001 -0.018093999 -0.241859
-0.084670998 -0.01802 -0.241859
-0.084668003 -0.017945999 -0.241855
-0.084665 -0.017872 -0.241855
-0.084661998 -0.017797999 -0.24185801
-0.084659003 -0.017724 -0.241862
-0.084655002 -0.017649001 -0.241872
-0.084651999 -0.017573001 -0.24187399
-0.084648997 -0.017502001 -0.241871
-0.084647 -0.017426001 -0.241869
-0.084643997 -0.017354 -0.241863
-0.084641002 -0.017279999 -0.241863
-0.084637001 -0.017204 -0.24187399
-0.084634997 -0.017131999 -0.241864
-0.084633 -0.017058 -0.24185
-0.084629998 -0.016984001 -0.241852
-0.084625997 -0.01691 -0.241859
-0.084623002 -0.016836001 -0.24186701
-0.084619999 -0.016762 -0.241871
-0.084616996 -0.016686 -0.241871
-0.084614001 -0.016612001 -0.24187399
-0.08461 -0.016538 -0.241878
-0.084608003 -0.016464001 -0.24187601
-0.084605001 -0.016392 -0.24186601
-0.084602997 -0.016318999 -0.241855
-0.084601 -0.016247001 -0.241843
-0.084597997 -0.016173 -0.241833
-0.084595002 -0.016099 -0.241832
-0.084592 -0.016024999 -0.24183001
-0.084590003 -0.015952 -0.241814
-0.084587999 -0.01588 -0.2418
-0.084585004 -0.015807999 -0.241795
-0.084582999 -0.015734 -0.241785
-0.084579997 -0.015660999 -0.24177299
-0.084577002 -0.015587 -0.241778
-0.084573999 -0.015512 -0.24178401
-0.084570996 -0.015439 -0.24178
-0.084568001 -0.015365 -0.241776
-0.084564999 -0.015291 -0.241781
-0.084562004 -0.015217 -0.241777
-0.084559999 -0.015143 -0.24176501
-0.084556997 -0.015071 -0.24176501
-0.084553003 -0.014995 -0.24178
-0.084550001 -0.014921 -0.24178
-0.084547997 -0.014847 -0.24177399
-0.084545001 -0.014773 -0.24176399
-0.084541999 -0.014699 -0.241761
-0.084539004 -0.014625 -0.241761
-0.084536999 -0.014553 -0.241761
-0.084533997 -0.01448 -0.24175499
-0.084531002 -0.014406 -0.241754
-0.084527999 -0.01433 -0.241758
-0.084523998 -0.014256 -0.24176601
-0.084522001 -0.014182 -0.241758
-0.084518999 -0.014108 -0.241751
-0.084515996 -0.014034 -0.241761
-0.084512003 -0.013958 -0.241767
-0.084509 -0.013884 -0.24176501
-0.084505998 -0.01381 -0.24177
-0.084503002 -0.013736 -0.241776
-0.0845 -0.013662 -0.241772
-0.084496997 -0.013588 -0.241768
-0.084495001 -0.013514 -0.241767
-0.084491998 -0.01344 -0.241753
-0.084490001 -0.013369 -0.24173699
-0.084486999 -0.013295 -0.24174
-0.084484003 -0.013219 -0.241742
-0.084481999 -0.013147 -0.241726
-0.084478997 -0.013073 -0.24172799
-0.084475003 -0.012997 -0.24174801
-0.084472001 -0.012923 -0.241745
-0.084469996 -0.012849 -0.24172901
-0.084467001 -0.012777 -0.241723
-0.084463999 -0.012701 -0.24172799
-0.084461004 -0.012627 -0.24173
-0.084458001 -0.012553 -0.24172799
-0.084454998 -0.012479 -0.241722
-0.084452003 -0.012406 -0.24171899
-0.084449999 -0.012332 -0.241717
-0.084446996 -0.012258 -0.241713
-0.084444001 -0.012184 -0.241713
-0.084440999 -0.01211 -0.241712
-0.084438004 -0.012036 -0.24171001
-0.084435001 -0.011962 -0.241708
-0.084431998 -0.011888 -0.241706
-0.084430002 -0.011814 -0.24170101
-0.084426999 -0.01174 -0.241695
-0.084423997 -0.011666 -0.241693
-0.084421001 -0.011593 -0.241689
-0.084418997 -0.011521 -0.24168199
-0.084416002 -0.011447 -0.241676
-0.084412999 -0.011371 -0.24168199
-0.084408998 -0.011297 -0.241688
-0.084407002 -0.011223 -0.241689
-0.084403999 -0.011149 -0.24168301
-0.084400997 -0.011075 -0.241677
-0.084398001 -0.010999 -0.24168301
-0.084394 -0.010923 -0.241694
-0.084390998 -0.010849 -0.241696
-0.084389001 -0.010775 -0.24168199
-0.084385999 -0.010703 -0.24167199
-0.084383003 -0.010627 -0.24167299
-0.084380999 -0.010554 -0.241671
-0.084377997 -0.010482 -0.241667
-0.084375001 -0.010406 -0.24166501
-0.084371999 -0.010332 -0.241668
-0.084368996 -0.010258 -0.24166401
-0.084366001 -0.010184 -0.241658
-0.084363997 -0.01011 -0.241651
-0.084361002 -0.010036 -0.24165501
-0.084357001 -0.0099600004 -0.24166501
-0.084353998 -0.0098839998 -0.24166501
-0.084351003 -0.0098099997 -0.241661
-0.084348001 -0.0097359996 -0.24166401
-0.084344998 -0.0096620005 -0.241666
-0.084343001 -0.0095880004 -0.24165601
-0.084339999 -0.0095149996 -0.24164499
-0.084337004 -0.0094410004 -0.241649
-0.084333003 -0.0093639996 -0.241659
-0.084330998 -0.0092909997 -0.241653
-0.084329002 -0.0092190001 -0.241632
-0.084326997 -0.0091479998 -0.241614
-0.084324002 -0.0090739997 -0.24161001
-0.084321 -0.0089999996 -0.241616
-0.084317997 -0.008924 -0.24161699
-0.084315002 -0.0088499999 -0.241615
-0.084311999 -0.0087740002 -0.24161699
-0.084308997 -0.0087019997 -0.241613
-0.084306002 -0.0086279996 -0.24160799
-0.084302999 -0.0085519999 -0.24160799
-0.084299996 -0.0084779998 -0.241612
-0.084297001 -0.0084020002 -0.241612
-0.084294997 -0.0083299996 -0.241603
-0.084292002 -0.0082559995 -0.241593
-0.084288999 -0.0081820004 -0.241597
-0.084284998 -0.0081059998 -0.241607
-0.084282003 -0.0080300001 -0.241616
-0.084279001 -0.0079539996 -0.24162
-0.084275998 -0.0078800004 -0.241622
-0.084273003 -0.0078039998 -0.24161801
-0.08427 -0.0077300002 -0.241616
-0.084266998 -0.0076560001 -0.24161699
-0.084264003 -0.00758 -0.241615
-0.084261999 -0.0075090001 -0.241603
-0.084260002 -0.0074370001 -0.241584
-0.084256001 -0.0073609999 -0.24158999
-0.084252998 -0.0072869998 -0.241592
-0.084251001 -0.0072130002 -0.241576
-0.084247999 -0.0071390001 -0.241577
-0.084244996 -0.007063 -0.241579
-0.084243 -0.0069920002 -0.24157099
-0.084239997 -0.0069180001 -0.24156301
-0.084237002 -0.0068419999 -0.241568
-0.084233001 -0.0067679998 -0.241574
-0.084230997 -0.0066940002 -0.241556
-0.084229998 -0.0066249999 -0.241532
-0.084227003 -0.0065509998 -0.24152701
-0.084224001 -0.0064750002 -0.241529
-0.084220998 -0.0064010001 -0.24152701
-0.084218003 -0.006325 -0.241529
-0.084215 -0.0062509999 -0.24153399
-0.084210999 -0.0061750002 -0.241542
-0.084206998 -0.0060959999 -0.241556
-0.084205002 -0.006023 -0.241552
-0.084202997 -0.0059509999 -0.241533
-0.084200002 -0.0058789998 -0.241523
-0.084197 -0.0058030002 -0.241523
-0.085268997 -0.052030999 -0.24238899
-0.085265003 -0.051959999 -0.242411
-0.085261002 -0.051888 -0.242431
-0.085258 -0.051816002 -0.24244399
-0.085254997 -0.051741999 -0.242448
-0.085252002 -0.05167 -0.24245
-0.085248001 -0.051598001 -0.242456
-0.085245997 -0.051522002 -0.24245299
-0.085243002 -0.051447999 -0.242451
-0.085239001 -0.051376 -0.24246299
-0.085235998 -0.051304001 -0.242467
-0.085234001 -0.051228002 -0.242452
-0.085230999 -0.051151998 -0.24244
-0.085228004 -0.051077999 -0.24244601
-0.085224003 -0.051006 -0.24246401
-0.085221 -0.050934002 -0.242475
-0.085217997 -0.050861999 -0.242477
-0.085215002 -0.050788 -0.242477
-0.085212 -0.050714001 -0.24247999
-0.085208997 -0.050639998 -0.24247999
-0.085206002 -0.050565999 -0.242484
-0.085202001 -0.050492998 -0.242494
-0.085199997 -0.050418999 -0.242493
-0.085198 -0.050340001 -0.242451
-0.085197002 -0.050262999 -0.242415
-0.085194997 -0.050188001 -0.242397
-0.085192002 -0.050112002 -0.24238899
-0.085189 -0.050037999 -0.242396
-0.085184999 -0.049966 -0.242406
-0.085182004 -0.049892001 -0.24240801
-0.085179999 -0.049819998 -0.242406
-0.085176997 -0.049745999 -0.24240901
-0.085173003 -0.049672 -0.242411
-0.085170001 -0.049598001 -0.242415
-0.085166998 -0.049524002 -0.242414
-0.085165001 -0.049449999 -0.242412
-0.085161 -0.049378 -0.242422
-0.085157 -0.049307 -0.242456
-0.085152 -0.049240001 -0.24250101
-0.085147999 -0.049168002 -0.24251699
-0.085144997 -0.049093999 -0.24251699
-0.085142002 -0.04902 -0.242516
-0.085139997 -0.048944 -0.24250001
-0.085138001 -0.048868999 -0.24247999
-0.085134998 -0.048795 -0.24247999
-0.085130997 -0.048721999 -0.242497
-0.085128002 -0.04865 -0.242513
-0.085124999 -0.048576001 -0.242513
-0.085121997 -0.048500001 -0.242497
-0.08512 -0.048425 -0.24247999
-0.085116997 -0.048351001 -0.242478
-0.085114002 -0.048278999 -0.24249201
-0.085111 -0.048204999 -0.24249201
-0.085107997 -0.048131 -0.242487
-0.085105002 -0.048057001 -0.242483
-0.085102998 -0.047982998 -0.242479
-0.085100003 -0.047908999 -0.242475
-0.085097 -0.047835 -0.24247999
-0.085092999 -0.047761001 -0.242484
-0.085091002 -0.047687002 -0.24248201
-0.085088 -0.047612999 -0.242476
-0.085084997 -0.047538999 -0.242479
-0.085082002 -0.047465 -0.24248099
-0.085078999 -0.047391001 -0.242479
-0.085075997 -0.047316998 -0.242483
-0.085073002 -0.047242999 -0.242478
-0.085069999 -0.047169998 -0.242468
-0.085066997 -0.047095999 -0.242476
-0.085064001 -0.047022998 -0.242487
-0.085060999 -0.046950001 -0.242483
-0.085059002 -0.046874002 -0.24246299
-0.085055999 -0.046797998 -0.242451
-0.085052997 -0.046723999 -0.24245501
-0.085050002 -0.046652 -0.24246401
-0.085046999 -0.046578001 -0.242468
-0.085042998 -0.046505999 -0.242476
-0.085040003 -0.046434 -0.242493
-0.085036002 -0.046360999 -0.242505
-0.085033 -0.046287 -0.242511
-0.085029997 -0.046213001 -0.24251699
-0.085027002 -0.046139002 -0.242512
-0.085024998 -0.046064001 -0.242494
-0.085023001 -0.045988001 -0.242474
-0.085019998 -0.045914002 -0.242468
-0.085015997 -0.045841999 -0.242489
-0.085013002 -0.045770001 -0.24250101
-0.085010998 -0.045696001 -0.242485
-0.085008003 -0.045619 -0.242467
-0.085005999 -0.045545001 -0.242452
-0.085004002 -0.045469001 -0.242434
-0.085000999 -0.045395002 -0.242442
-0.084996998 -0.045325 -0.24246401
-0.084992997 -0.045251001 -0.24247301
-0.084991001 -0.045177002 -0.24246299
-0.084988996 -0.045101002 -0.24244501
-0.084987 -0.045026001 -0.24242499
-0.084983997 -0.044952001 -0.24241801
-0.084980004 -0.044877999 -0.24243
-0.084977001 -0.044805001 -0.24244399
-0.084973998 -0.044730999 -0.24245299
-0.084969997 -0.044659 -0.242459
-0.084967002 -0.044587001 -0.24247099
-0.084964 -0.044512998 -0.242475
-0.084960997 -0.044438999 -0.24246199
-0.084959 -0.044362999 -0.24245401
-0.084955998 -0.044291001 -0.24246
-0.084953003 -0.044217002 -0.242458
-0.08495 -0.044142 -0.242441
-0.084948003 -0.044068001 -0.242441
-0.084944002 -0.043993998 -0.242447
-0.084941998 -0.043919999 -0.242441
-0.084939003 -0.043846 -0.242438
-0.084936 -0.043772001 -0.24243601
-0.084932998 -0.043698002 -0.242438
-0.084930003 -0.043623999 -0.24244
-0.084927 -0.04355 -0.242433
-0.084923998 -0.043476 -0.242433
-0.084921002 -0.043402001 -0.24243701
-0.084918 -0.043327998 -0.242433
-0.084914997 -0.043255001 -0.242434
-0.084912002 -0.043182999 -0.242432
-0.084909998 -0.043106999 -0.24242
-0.084908001 -0.043033 -0.242411
-0.084904999 -0.042959001 -0.24240699
-0.084902003 -0.042884 -0.242397
-0.084899999 -0.042808 -0.242373
-0.084898002 -0.042734001 -0.242368
-0.084894001 -0.042661998 -0.242376
-0.084890999 -0.042587999 -0.242384
-0.084887996 -0.042514 -0.24239001
-0.084884003 -0.042442001 -0.242401
-0.084881 -0.042369999 -0.242405
-0.084879003 -0.042293999 -0.242395
-0.084876999 -0.042218 -0.24237099
-0.084873997 -0.042144999 -0.242364
-0.084870003 -0.042072002 -0.242384
-0.084866002 -0.041999999 -0.242404
-0.084863998 -0.041926 -0.24240001
-0.084861003 -0.041852001 -0.24238899
-0.084858 -0.041776001 -0.242387
-0.084854998 -0.041703999 -0.24238899
-0.084852003 -0.04163 -0.242397
-0.084849 -0.041558001 -0.24240801
-0.084845997 -0.041483998 -0.242404
-0.084843002 -0.041407999 -0.242394
-0.08484 -0.041333999 -0.24239001
-0.084836997 -0.041262001 -0.242403
-0.084833004 -0.041189998 -0.242423
-0.084830999 -0.041115999 -0.242413
-0.084829003 -0.041039001 -0.242382
-0.084826 -0.040964998 -0.24237201
-0.084822997 -0.040890999 -0.242376
-0.084820002 -0.040817 -0.242376
-0.084817 -0.040743001 -0.242375
-0.084815003 -0.040669002 -0.24237099
-0.084812 -0.040596999 -0.242377
-0.084808998 -0.040523 -0.24237099
-0.084807001 -0.040447999 -0.242356
-0.084803998 -0.040374 -0.242348
-0.084801003 -0.0403 -0.24234
-0.084798001 -0.040226001 -0.242338
-0.084794998 -0.040153999 -0.242349
-0.084792003 -0.04008 -0.242355
-0.084789999 -0.040004 -0.242329
-0.084789 -0.039928999 -0.24229699
-0.084784999 -0.039857 -0.24230599
-0.084780999 -0.039785001 -0.242332
-0.084776998 -0.03971 -0.24235
-0.084774002 -0.039638001 -0.242355
-0.084771 -0.039563999 -0.242355
-0.084767997 -0.039489999 -0.242357
-0.084765002 -0.039416 -0.242359
-0.084762 -0.039342001 -0.242356
-0.084760003 -0.039269 -0.24234401
-0.084757999 -0.039193001 -0.242328
-0.084755003 -0.039119001 -0.24231599
-0.084752001 -0.039046999 -0.242319
-0.084748998 -0.038973 -0.242329
-0.084746003 -0.038899001 -0.24233299
-0.084743001 -0.038825002 -0.242329
-0.084739998 -0.038752999 -0.242336
-0.084737003 -0.038679 -0.242336
-0.084734 -0.038605001 -0.24233
-0.084730998 -0.038531002 -0.242328
-0.084729001 -0.038456 -0.24231499
-0.084725998 -0.038382001 -0.242301
-0.084723003 -0.038307998 -0.242301
-0.084720001 -0.038236 -0.242312
-0.084716998 -0.038162 -0.242314
-0.084714003 -0.038088001 -0.242312
-0.084711 -0.038013998 -0.24231599
-0.084707998 -0.037942 -0.242321
-0.084705003 -0.037866 -0.242319
-0.084702 -0.037794001 -0.24231499
-0.084698997 -0.037719999 -0.242321
-0.084693998 -0.037647001 -0.24235401
-0.084691003 -0.037574999 -0.24237201
-0.084688999 -0.037498999 -0.24234401
-0.084687002 -0.037425999 -0.24233
-0.084683001 -0.037351999 -0.24234299
-0.084679998 -0.037278999 -0.242355
-0.084677003 -0.037206002 -0.24234501
-0.084674001 -0.037131999 -0.242339
-0.084670998 -0.037058 -0.24234401
-0.084669001 -0.036984 -0.242328
-0.084666997 -0.036908999 -0.2423
-0.084665 -0.036835 -0.24229901
-0.084660999 -0.036763001 -0.242309
-0.084657997 -0.036688998 -0.242309
-0.084655002 -0.036614999 -0.242309
-0.084651999 -0.036541 -0.242312
-0.084648997 -0.036467001 -0.24230599
-0.084647 -0.036393002 -0.242302
-0.084643997 -0.036318999 -0.242286
-0.084642 -0.036246002 -0.242267
-0.084639996 -0.036171999 -0.24226101
-0.084636003 -0.036098 -0.242273
-0.084633 -0.036024 -0.242273
-0.084631003 -0.035950001 -0.242258
-0.084628999 -0.035875998 -0.242248
-0.084625997 -0.035803001 -0.24224401
-0.084623002 -0.035728998 -0.242238
-0.084619999 -0.035654999 -0.242241
-0.084616996 -0.035583001 -0.242241
-0.084614001 -0.035509001 -0.242235
-0.084611997 -0.035434999 -0.24223199
-0.084609002 -0.035360999 -0.24223199
-0.084605999 -0.035287 -0.24223199
-0.084602997 -0.035213001 -0.242226
-0.084600002 -0.035138998 -0.24222299
-0.084596999 -0.035064999 -0.24222501
-0.084593996 -0.034993 -0.242235
-0.084590003 -0.034919001 -0.242249
-0.084587 -0.034846999 -0.24226201
-0.084582999 -0.034773 -0.24226999
-0.084579997 -0.034697998 -0.24228001
-0.084577002 -0.034626 -0.242286
-0.084573999 -0.034552 -0.242277
-0.084572002 -0.034479 -0.242267
-0.084569 -0.034403 -0.24225099
-0.084567003 -0.034329999 -0.24223199
-0.084564 -0.034258001 -0.242236
-0.084560998 -0.034182999 -0.242248
-0.084558003 -0.034109 -0.242248
-0.084555 -0.034035001 -0.242247
-0.084553003 -0.033962 -0.242229
-0.084550999 -0.033888001 -0.24220701
-0.084547997 -0.033815 -0.242199
-0.084545001 -0.033743002 -0.242202
-0.084541999 -0.033668999 -0.2422
-0.084540002 -0.033594999 -0.24218801
-0.084536999 -0.033521 -0.242183
-0.084533997 -0.033447001 -0.242183
-0.084531002 -0.033372998 -0.24218699
-0.084527999 -0.033298999 -0.242193
-0.084524997 -0.033227 -0.24219801
-0.084522001 -0.033153001 -0.2422
-0.084518999 -0.033078998 -0.24219
-0.084517002 -0.033006001 -0.242174
-0.084514 -0.032931 -0.24217901
-0.084510997 -0.032859001 -0.242183
-0.084508002 -0.032784998 -0.242185
-0.084504001 -0.032710999 -0.242191
-0.084500998 -0.032637 -0.242192
-0.084499002 -0.032563001 -0.24218599
-0.084495999 -0.032492001 -0.242182
-0.084492996 -0.032418001 -0.24218801
-0.084490001 -0.032343 -0.242191
-0.084486999 -0.032269999 -0.242183
-0.084484003 -0.032196 -0.24217901
-0.084481001 -0.032124002 -0.24219
-0.084477 -0.032049 -0.242212
-0.084472999 -0.031975001 -0.24223199
-0.084471002 -0.031900998 -0.24222
-0.084468998 -0.031828001 -0.242199
-0.084466003 -0.031755999 -0.242193
-0.084463 -0.031682 -0.24219701
-0.084459998 -0.031608 -0.242199
-0.084455997 -0.031532999 -0.24221601
-0.084453002 -0.031459 -0.24221601
-0.084450997 -0.031388 -0.242202
-0.084448002 -0.031314 -0.24220601
-0.084444001 -0.031239999 -0.24221499
-0.084441997 -0.031166 -0.242201
-0.08444 -0.031091999 -0.242181
-0.084438004 -0.031019 -0.24216799
-0.084435001 -0.030947 -0.24216799
-0.084431998 -0.030873001 -0.242174
-0.084429003 -0.030799 -0.242166
-0.084426001 -0.030725 -0.242171
-0.084422998 -0.030653 -0.242175
-0.084420003 -0.030579001 -0.242167
-0.084417 -0.030505 -0.242165
-0.084413998 -0.030431001 -0.24217799
-0.084411003 -0.030356999 -0.242176
-0.084408998 -0.030283 -0.242156
-0.084406003 -0.030211 -0.242153
-0.084403001 -0.030137001 -0.242163
-0.084399998 -0.030063 -0.242155
-0.084398001 -0.029990001 -0.242135
-0.084394999 -0.029916 -0.24213
-0.084392004 -0.029843999 -0.242136
-0.08439 -0.02977 -0.24213
-0.084388003 -0.029696999 -0.2421
-0.084385999 -0.029623 -0.24208701
-0.084381998 -0.029549001 -0.242093
-0.084379002 -0.029477 -0.24209701
-0.084376 -0.029402999 -0.242109
-0.084371999 -0.029329 -0.24212199
-0.084368996 -0.029255001 -0.24212
-0.084367 -0.029181 -0.242116
-0.084362999 -0.029108999 -0.242121
-0.084360003 -0.029035 -0.24212299
-0.084357001 -0.028960999 -0.24212299
-0.084354997 -0.028887 -0.24211501
-0.084352002 -0.028813001 -0.24211399
-0.084348999 -0.028741 -0.24211399
-0.084347002 -0.028666999 -0.24209601
-0.084344998 -0.028594 -0.24206799
-0.084342003 -0.028519999 -0.24207699
-0.084338002 -0.028445 -0.24210501
-0.084334999 -0.028372999 -0.24210501
-0.084331997 -0.0283 -0.242092
-0.08433 -0.028225999 -0.24207801
-0.084328003 -0.028152 -0.24206799
-0.084325001 -0.028077999 -0.242072
-0.084321 -0.028006 -0.242081
-0.084319003 -0.027931999 -0.24206901
-0.084316999 -0.027859 -0.242047
-0.084315002 -0.027784999 -0.242029
-0.084311999 -0.027713001 -0.242026
-0.084308997 -0.02764 -0.242024
-0.084306002 -0.027566001 -0.24202
-0.084303997 -0.027492 -0.24200299
-0.084302001 -0.027419999 -0.241987
-0.084298998 -0.027347 -0.24198499
-0.084296003 -0.027272001 -0.241997
-0.084292002 -0.027198 -0.242018
-0.084288001 -0.027123 -0.242046
-0.084284 -0.027048999 -0.242054
-0.084282003 -0.026977999 -0.24204201
-0.084279001 -0.026904 -0.242033
-0.084275998 -0.026830001 -0.242037
-0.084273003 -0.026756 -0.242043
-0.08427 -0.026682001 -0.24204101
-0.084268004 -0.02661 -0.24202999
-0.084265001 -0.026536001 -0.24202999
-0.084261 -0.026462 -0.242036
-0.084259003 -0.026388001 -0.242034
-0.084256001 -0.026314 -0.24203099
-0.084252998 -0.026241999 -0.24203099
-0.084250003 -0.026168 -0.24203099
-0.084247001 -0.026094001 -0.242024
-0.084244996 -0.026021 -0.242006
-0.084243 -0.025948999 -0.24199399
-0.084239997 -0.025875 -0.242
-0.084236003 -0.025800999 -0.24202301
-0.084232002 -0.025726 -0.242039
-0.084229 -0.025652001 -0.242035
-0.084225997 -0.025579 -0.242029
-0.084223002 -0.025504 -0.242036
-0.08422 -0.025432 -0.242036
-0.084218003 -0.025358999 -0.242028
-0.084215999 -0.025285 -0.241999
-0.084215 -0.025214 -0.24195699
-0.084213004 -0.025141001 -0.241945
-0.084210001 -0.025067 -0.24194901
-0.084206 -0.024992 -0.241962
-0.084202997 -0.02492 -0.24197
-0.084200002 -0.024846001 -0.24196599
-0.084197 -0.024772 -0.24196
-0.084193997 -0.024698 -0.241963
-0.084192 -0.024625 -0.24195699
-0.084188998 -0.024553001 -0.241951
-0.084186003 -0.024479 -0.24195001
-0.084183998 -0.024405001 -0.24193799
-0.084181003 -0.024333 -0.24192999
-0.084178001 -0.024257001 -0.241936
-0.084174 -0.024183 -0.241961
-0.084170997 -0.024109 -0.241963
-0.084167004 -0.024034999 -0.241969
-0.084164001 -0.02396 -0.241987
-0.08416 -0.023886001 -0.242006
-0.084156998 -0.023812 -0.242006
-0.084155001 -0.023740999 -0.241982
-0.084152997 -0.023667 -0.24196599
-0.084150001 -0.023595 -0.24195699
-0.084147997 -0.023521001 -0.241943
-0.084146 -0.023448 -0.241933
-0.084142998 -0.023375999 -0.24192201
-0.084140003 -0.023302 -0.241928
-0.084137 -0.023228001 -0.241934
-0.084135003 -0.023154 -0.241918
-0.084132001 -0.023081999 -0.24191301
-0.084128 -0.023006 -0.241935
-0.084123999 -0.022931 -0.241961
-0.084119998 -0.022856999 -0.241969
-0.084118001 -0.022784 -0.241954
-0.084115997 -0.022712 -0.241928
-0.084114 -0.022638001 -0.24191999
-0.084110998 -0.022565 -0.241918
-0.084108002 -0.022492999 -0.241915
-0.084105998 -0.022419 -0.24190301
-0.084104002 -0.022345001 -0.241889
-0.084100001 -0.022271 -0.241892
-0.084096998 -0.022197001 -0.24191
-0.084094003 -0.022125 -0.241908
-0.084091999 -0.022050999 -0.24189401
-0.084089004 -0.021977 -0.241891
-0.084086001 -0.021903999 -0.241887
-0.084082998 -0.02183 -0.241891
-0.084078997 -0.021755001 -0.24190301
-0.084076002 -0.021681 -0.241906
-0.084073 -0.021607 -0.2419
-0.084069997 -0.021532999 -0.24191
-0.084067002 -0.021459 -0.241914
-0.084063999 -0.021387 -0.24191099
-0.084062003 -0.021314001 -0.241901
-0.084059998 -0.021242 -0.24187499
-0.084058002 -0.021168999 -0.24185599
-0.084054999 -0.021094 -0.241864
-0.084050998 -0.021020001 -0.241888
-0.084046997 -0.020943999 -0.241896
-0.084045 -0.020872001 -0.241887
-0.084041998 -0.020798 -0.24188501
-0.084039003 -0.020724 -0.24188299
-0.084036998 -0.020653 -0.24186499
-0.084034003 -0.020578999 -0.24186601
-0.084030002 -0.020501999 -0.241888
-0.084026001 -0.020428 -0.2419
-0.084023997 -0.020355999 -0.241888
-0.084021002 -0.020282 -0.241889
-0.084017999 -0.020207999 -0.24189501
-0.084014997 -0.020134 -0.241889
-0.084013 -0.020060999 -0.241877
-0.084009998 -0.019989001 -0.24187
-0.084007002 -0.019915 -0.241868
-0.084004 -0.019841 -0.241868
-0.084000997 -0.019766999 -0.24186499
-0.083999 -0.019693 -0.24185701
-0.083995998 -0.019622 -0.24184901
-0.083994001 -0.019548001 -0.24183699
-0.083990999 -0.019474 -0.24183799
-0.083988003 -0.019400001 -0.241846
-0.083985001 -0.019326 -0.241844
-0.083981998 -0.019252 -0.241836
-0.083980002 -0.01918 -0.24182899
-0.083976999 -0.019106001 -0.241823
-0.083973996 -0.019033 -0.241815
-0.083972 -0.018959001 -0.241808
-0.083970003 -0.018887 -0.24179401
-0.083967999 -0.018816 -0.241776
-0.083965003 -0.018742001 -0.241776
-0.083961003 -0.018665001 -0.241785
-0.083958 -0.018591 -0.241789
-0.083953999 -0.018517001 -0.24180099
-0.083950996 -0.018443 -0.241815
-0.083948001 -0.018369 -0.241808
-0.083944999 -0.018294999 -0.24180201
-0.083942004 -0.018221 -0.241816
-0.083939001 -0.018146999 -0.241818
-0.083935998 -0.018073 -0.241813
-0.083931997 -0.017997 -0.241831
-0.083926998 -0.01792 -0.241873
-0.083924003 -0.017845999 -0.241873
-0.083921999 -0.017772 -0.24185801
-0.083919004 -0.0177 -0.24185599
-0.083916001 -0.017624 -0.24186601
-0.083912 -0.017550001 -0.24187
-0.083911002 -0.017479001 -0.24184901
-0.083908997 -0.017407 -0.24182101
-0.083907001 -0.017336 -0.24181101
-0.083903 -0.01726 -0.241814
-0.083899997 -0.017185999 -0.241818
-0.083897002 -0.017112 -0.241816
-0.083894998 -0.017038001 -0.24181201
-0.083892003 -0.016966 -0.241807
-0.083889 -0.016890001 -0.241809
-0.083885998 -0.016816 -0.24181101
-0.083883002 -0.016742 -0.24180301
-0.08388 -0.01667 -0.2418
-0.083878003 -0.016596001 -0.24179199
-0.083875 -0.016523 -0.24178199
-0.083873004 -0.016450999 -0.241771
-0.083870001 -0.016377 -0.241763
-0.083866999 -0.016302999 -0.241769
-0.083864003 -0.016229 -0.24177299
-0.083861001 -0.016153 -0.241777
-0.083857998 -0.016078999 -0.24178401
-0.083853997 -0.016005 -0.241788
-0.083851002 -0.015930999 -0.24179401
-0.083848 -0.015857 -0.241798
-0.083846003 -0.015783001 -0.241785
-0.083843999 -0.015712 -0.24175701
-0.083843 -0.01564 -0.241725
-0.083841003 -0.015569 -0.24171001
-0.083837003 -0.015494 -0.241722
-0.083833002 -0.015418 -0.24173599
-0.083829999 -0.015344 -0.241734
-0.083826996 -0.01527 -0.241739
-0.083824001 -0.015196 -0.241741
-0.083821997 -0.015123 -0.241725
-0.08382 -0.015051 -0.241716
-0.083816998 -0.014977 -0.24171799
-0.083814003 -0.014903 -0.241714
-0.083811 -0.014829 -0.241714
-0.083806999 -0.014753 -0.241723
-0.083803996 -0.014679 -0.241731
-0.083800003 -0.014603 -0.241741
-0.083797 -0.014528 -0.24174701
-0.083795004 -0.014455 -0.241739
-0.083792001 -0.014383 -0.241724
-0.083789997 -0.014309 -0.241714
-0.083787002 -0.014235 -0.241712
-0.083783999 -0.014161 -0.241721
-0.083779998 -0.014085 -0.241733
-0.083777003 -0.014011 -0.24172901
-0.083774999 -0.01394 -0.24171101
-0.083773002 -0.013866 -0.24170201
-0.083769999 -0.013792 -0.241698
-0.083766997 -0.013718 -0.241694
-0.083765 -0.013646 -0.241684
-0.083761998 -0.013572 -0.241679
-0.083759002 -0.013499 -0.241677
-0.083756 -0.013425 -0.241677
-0.083754003 -0.013351 -0.24166401
-0.083751999 -0.013279 -0.241644
-0.083749004 -0.013205 -0.24164601
-0.083745003 -0.013129 -0.24166
-0.083742 -0.013053 -0.24167
-0.083738998 -0.012979 -0.24167299
-0.083736002 -0.012905 -0.241671
-0.083733 -0.012831 -0.241675
-0.083729997 -0.012757 -0.24167401
-0.083727002 -0.012683 -0.241668
-0.083724998 -0.012609 -0.24165601
-0.083723001 -0.012538 -0.24164
-0.083719999 -0.012466 -0.24162699
-0.083717003 -0.01239 -0.24163701
-0.083713003 -0.012314 -0.241653
-0.083709002 -0.012238 -0.241661
-0.083706997 -0.012164 -0.24165601
-0.083705001 -0.012092 -0.241638
-0.083701998 -0.01202 -0.241634
-0.083697997 -0.011944 -0.24164601
-0.083696 -0.01187 -0.241643
-0.083692998 -0.011796 -0.241639
-0.083690003 -0.011722 -0.241641
-0.083687 -0.011646 -0.241641
-0.083683997 -0.011572 -0.24164
-0.083681002 -0.011501 -0.241632
-0.083678998 -0.011427 -0.24162599
-0.083676003 -0.011353 -0.241622
-0.083673 -0.011279 -0.241623
-0.083671004 -0.011205 -0.241611
-0.083668001 -0.011133 -0.241597
-0.083664998 -0.011057 -0.241602
-0.083660997 -0.010979 -0.24162801
-0.083655998 -0.010902 -0.24165601
-0.083653003 -0.010824 -0.24166401
-0.08365 -0.010752 -0.241652
-0.083649002 -0.010681 -0.241629
-0.083645999 -0.010609 -0.241615
-0.083644003 -0.010536 -0.241605
-0.083641 -0.010462 -0.241607
-0.083637998 -0.010388 -0.241606
-0.083635002 -0.010312 -0.241602
-0.083632 -0.010238 -0.24161001
-0.083627999 -0.010162 -0.241616
-0.083626002 -0.010088 -0.241607
-0.083623998 -0.010016 -0.241593
-0.083622001 -0.0099449996 -0.241575
-0.083618999 -0.009873 -0.24156401
-0.083616003 -0.0097970003 -0.241568
-0.083613001 -0.0097209997 -0.241578
-0.083609998 -0.0096469996 -0.241576
-0.083607003 -0.0095729996 -0.24157301
-0.083604999 -0.0094990004 -0.241561
-0.083601996 -0.0094269998 -0.241551
-0.083599001 -0.0093510002 -0.24155501
-0.083595 -0.0092749996 -0.241566
-0.083591998 -0.0092010004 -0.24157
-0.083589002 -0.0091249999 -0.241568
-0.083586998 -0.0090530002 -0.24156199
-0.083584003 -0.0089800004 -0.24155501
-0.083581001 -0.0089060003 -0.24155501
-0.083577998 -0.0088290004 -0.241565
-0.083573997 -0.0087529998 -0.24157301
-0.083571002 -0.0086789997 -0.241569
-0.083568998 -0.0086059999 -0.24156199
-0.083566003 -0.0085319998 -0.24155401
-0.083563 -0.0084579997 -0.241548
-0.083559997 -0.0083839996 -0.24155501
-0.083557002 -0.0083100004 -0.24155299
-0.083554998 -0.0082360003 -0.24154299
-0.083550997 -0.0081599997 -0.24155501
-0.083547004 -0.0080819996 -0.241569
-0.083544999 -0.0080080004 -0.241568
-0.083541997 -0.0079359999 -0.24155401
-0.08354 -0.0078619998 -0.24154601
-0.083536997 -0.0077880002 -0.24154501
-0.083534002 -0.007712 -0.241547
-0.083530001 -0.0076359999 -0.24155501
-0.083526999 -0.0075619998 -0.24155299
-0.083526 -0.007491 -0.241532
-0.083522998 -0.0074169999 -0.241522
-0.083518997 -0.0073409998 -0.24153399
-0.083516002 -0.0072650001 -0.241542
-0.083512999 -0.007191 -0.24154
-0.083509997 -0.0071169999 -0.241537
-0.083508 -0.0070429998 -0.241531
-0.083504997 -0.0069690002 -0.24152499
-0.083503 -0.0068959999 -0.241511
-0.083499998 -0.0068239998 -0.241502
-0.083497003 -0.0067500002 -0.24149799
-0.083494 -0.0066740001 -0.24150001
-0.083492003 -0.0066 -0.241495
-0.083489001 -0.0065279999 -0.241485
-0.083486997 -0.0064539998 -0.24147899
-0.083483003 -0.0063780001 -0.24148101
-0.083480999 -0.0063049998 -0.241476
-0.083477996 -0.0062310002 -0.241476
-0.083474003 -0.0061550001 -0.241482
-0.083471999 -0.006083 -0.241468
-0.083470002 -0.0060089999 -0.241457
-0.083466999 -0.005938 -0.241445
-0.084459998 -0.052138999 -0.24235199
-0.084458001 -0.052062999 -0.242336
-0.084454998 -0.051989 -0.242332
-0.084452003 -0.051915001 -0.242329
-0.084449001 -0.051840998 -0.242329
-0.084445998 -0.051769 -0.24234501
-0.084441997 -0.051697001 -0.24235199
-0.08444 -0.051621001 -0.242346
-0.084436998 -0.051548999 -0.242348
-0.084432997 -0.051475 -0.24235199
-0.084430002 -0.051401 -0.242359
-0.084426001 -0.051330999 -0.24237899
-0.084422998 -0.051259998 -0.242401
-0.084418997 -0.051188 -0.242413
-0.084416002 -0.051114 -0.242412
-0.084412999 -0.051038001 -0.242404
-0.084411003 -0.050964002 -0.24240001
-0.084408 -0.050891001 -0.242392
-0.084404998 -0.050815001 -0.242385
-0.084403001 -0.050740998 -0.24238101
-0.084399998 -0.050666999 -0.24237899
-0.084397003 -0.050593 -0.242375
-0.084394 -0.050519001 -0.242378
-0.084390998 -0.050446998 -0.242386
-0.084388003 -0.050372999 -0.242388
-0.084385 -0.050299 -0.242382
-0.084381998 -0.050225001 -0.242387
-0.084377997 -0.050152998 -0.242395
-0.084376 -0.050078999 -0.242393
-0.084372997 -0.050003 -0.24239001
-0.084370002 -0.049929 -0.24237999
-0.084367998 -0.049855001 -0.242374
-0.084363997 -0.049780998 -0.24237999
-0.084361002 -0.049709 -0.242393
-0.084357999 -0.049637001 -0.24239901
-0.084353998 -0.049563002 -0.242405
-0.084351003 -0.049490999 -0.24241699
-0.084348001 -0.049419001 -0.242428
-0.084344 -0.049343999 -0.242434
-0.084340997 -0.049272001 -0.24244
-0.084338002 -0.049198002 -0.242442
-0.084334999 -0.049123999 -0.24244501
-0.084331997 -0.04905 -0.242441
-0.084329002 -0.048976999 -0.242439
-0.084325999 -0.048904002 -0.242448
-0.084322996 -0.048829999 -0.24245
-0.084320001 -0.048756 -0.24245
-0.084316999 -0.048682 -0.242448
-0.084314004 -0.048609 -0.242443
-0.084311001 -0.048535001 -0.242451
-0.084307998 -0.048462 -0.242459
-0.084305003 -0.048388999 -0.24245299
-0.084302001 -0.048315 -0.242452
-0.084298998 -0.048241001 -0.242452
-0.084296003 -0.048167001 -0.242448
-0.084293 -0.048092999 -0.242448
-0.084289998 -0.048018999 -0.242457
-0.084287003 -0.047947001 -0.242461
-0.084284 -0.047873002 -0.24246299
-0.084280998 -0.047800001 -0.24247099
-0.084278002 -0.047726002 -0.242474
-0.084275 -0.047651 -0.24246199
-0.084273003 -0.047577001 -0.242452
-0.08427 -0.047501002 -0.24245
-0.084266998 -0.047428999 -0.242451
-0.084264003 -0.047352999 -0.242451
-0.084261 -0.047281001 -0.24245501
-0.084256999 -0.047207002 -0.24246
-0.084253997 -0.047132999 -0.24246401
-0.084252 -0.047059 -0.242458
-0.084248997 -0.046985 -0.24245
-0.084247001 -0.046909999 -0.242439
-0.084243998 -0.046836 -0.24242499
-0.084241003 -0.046762001 -0.24242499
-0.084238 -0.046688002 -0.24242701
-0.084234998 -0.046613999 -0.24242599
-0.084232002 -0.04654 -0.242424
-0.084229 -0.046466 -0.242428
-0.084225997 -0.046394002 -0.242442
-0.084223002 -0.046319999 -0.242447
-0.08422 -0.046246 -0.242439
-0.084216997 -0.046172 -0.242439
-0.084214002 -0.046100002 -0.242447
-0.084210999 -0.046023998 -0.242442
-0.084207997 -0.045949999 -0.242434
-0.084205002 -0.045876 -0.242434
-0.084201999 -0.045804001 -0.24244601
-0.084198996 -0.045731999 -0.24245299
-0.084196001 -0.045658 -0.24245501
-0.084192999 -0.045584001 -0.24245299
-0.084190004 -0.045508001 -0.242443
-0.084187001 -0.045434002 -0.242438
-0.084184997 -0.045359999 -0.242438
-0.084182002 -0.045286998 -0.242434
-0.084178999 -0.045212999 -0.242438
-0.084174998 -0.045139998 -0.242449
-0.084172003 -0.045068 -0.242457
-0.084169 -0.044994 -0.242461
-0.084165998 -0.044920001 -0.24246199
-0.084163003 -0.044845998 -0.24246199
-0.08416 -0.044771999 -0.24246
-0.084156998 -0.044698 -0.242456
-0.084154002 -0.044624999 -0.24245299
-0.084151998 -0.044549 -0.242443
-0.084149003 -0.044475 -0.242441
-0.084146 -0.044401001 -0.242443
-0.084142998 -0.044328999 -0.24244601
-0.084140003 -0.044255 -0.242438
-0.084137999 -0.044179 -0.24243
-0.084135003 -0.044105001 -0.242428
-0.084132001 -0.044031002 -0.24242701
-0.084128998 -0.043956999 -0.242429
-0.084126003 -0.043884002 -0.242423
-0.084123001 -0.043809999 -0.24241699
-0.084119998 -0.043736 -0.24242
-0.084117003 -0.043662 -0.24242
-0.084114999 -0.043588001 -0.24241
-0.084112003 -0.043513998 -0.242404
-0.084109001 -0.043439999 -0.242405
-0.084106997 -0.043364 -0.242393
-0.084104002 -0.043290999 -0.242387
-0.084100999 -0.043218002 -0.242397
-0.084097996 -0.043143999 -0.24240001
-0.084095001 -0.043071002 -0.24239001
-0.084092997 -0.042994998 -0.242378
-0.084090002 -0.042920999 -0.242377
-0.084086999 -0.042849001 -0.24238101
-0.084083997 -0.042775001 -0.24238101
-0.084081002 -0.042699002 -0.242375
-0.084077999 -0.042626999 -0.242376
-0.084074996 -0.042553 -0.24237999
-0.084072001 -0.042479001 -0.242374
-0.084069997 -0.042406 -0.24236199
-0.084067002 -0.042330001 -0.24235301
-0.084063999 -0.042256001 -0.242357
-0.084060997 -0.042183999 -0.242367
-0.084058002 -0.04211 -0.242369
-0.084054999 -0.042036001 -0.24236999
-0.084051996 -0.041962001 -0.242368
-0.084049001 -0.041887999 -0.24236
-0.084045999 -0.041813999 -0.242356
-0.084044002 -0.04174 -0.242351
-0.084040999 -0.041666001 -0.24234501
-0.084037997 -0.041591998 -0.242347
-0.084035002 -0.041519001 -0.24234299
-0.084032997 -0.041443001 -0.24233
-0.084030002 -0.041368999 -0.24232
-0.084027998 -0.041294999 -0.24231
-0.084025003 -0.041221 -0.242312
-0.084021002 -0.041149002 -0.24232499
-0.084017999 -0.041074999 -0.242327
-0.084014997 -0.041001 -0.24232499
-0.084012002 -0.040929001 -0.242336
-0.084008001 -0.040855002 -0.24235401
-0.084004998 -0.040782001 -0.24236199
-0.084002003 -0.040709 -0.24236
-0.083999 -0.040633 -0.242351
-0.083996996 -0.040559001 -0.24234299
-0.083994001 -0.040484998 -0.24234501
-0.083990999 -0.040413 -0.242349
-0.083986998 -0.040339001 -0.242356
-0.083985001 -0.040265001 -0.24235199
-0.083981998 -0.040190998 -0.242346
-0.083979003 -0.040116999 -0.242346
-0.083976001 -0.040045001 -0.242349
-0.083972998 -0.039969001 -0.242349
-0.083970003 -0.039896999 -0.24234501
-0.083967 -0.039822999 -0.24234299
-0.083965003 -0.039749999 -0.242338
-0.083962001 -0.039675999 -0.242336
-0.083958998 -0.039602 -0.24233399
-0.083956003 -0.039528001 -0.242327
-0.083953001 -0.039453998 -0.242331
-0.083949998 -0.039379999 -0.24233501
-0.083947003 -0.039306 -0.242331
-0.083944 -0.039232001 -0.242338
-0.083940998 -0.039159998 -0.242348
-0.083936997 -0.039087001 -0.242358
-0.083934002 -0.039012998 -0.242364
-0.083930999 -0.038940001 -0.242357
-0.083929002 -0.038864002 -0.242347
-0.083926 -0.038789999 -0.24234299
-0.083922997 -0.038718 -0.242337
-0.083920002 -0.038642 -0.242336
-0.083916999 -0.038570002 -0.242342
-0.083913997 -0.038495999 -0.24234401
-0.083911002 -0.038422 -0.242338
-0.083908997 -0.038348999 -0.242323
-0.083907001 -0.038272999 -0.24230701
-0.083903998 -0.038199 -0.242309
-0.083901003 -0.038127001 -0.242319
-0.083897002 -0.038052998 -0.24232399
-0.083894998 -0.037978999 -0.24231
-0.083893001 -0.037904002 -0.242292
-0.083889998 -0.037829999 -0.24228901
-0.083887003 -0.037757002 -0.24229901
-0.083884001 -0.037682999 -0.24229901
-0.083880998 -0.037610002 -0.24229699
-0.083878003 -0.037535001 -0.242302
-0.083875 -0.037462998 -0.24230801
-0.083871 -0.037388999 -0.24231
-0.083869003 -0.037315998 -0.242304
-0.083866 -0.037241999 -0.242295
-0.083862998 -0.037168 -0.242291
-0.083861001 -0.037094001 -0.242281
-0.083857998 -0.037020002 -0.242273
-0.083855003 -0.036945999 -0.24228001
-0.083852001 -0.036874 -0.242292
-0.083848998 -0.036800001 -0.242294
-0.083846003 -0.036726002 -0.242292
-0.083843 -0.036651999 -0.24228901
-0.083839998 -0.036578 -0.242281
-0.083838001 -0.036504999 -0.242275
-0.083834998 -0.036431 -0.24226999
-0.083832003 -0.036357 -0.242264
-0.083829999 -0.036283001 -0.24225999
-0.083825998 -0.036208998 -0.24226201
-0.083824001 -0.036134999 -0.242257
-0.083820999 -0.036061 -0.242249
-0.083819002 -0.035987999 -0.242241
-0.083815999 -0.035914 -0.242235
-0.083812997 -0.035842001 -0.24224
-0.083810002 -0.035767999 -0.24224401
-0.083806999 -0.035693999 -0.24223401
-0.083805002 -0.03562 -0.242218
-0.083802 -0.035544001 -0.24221499
-0.083798997 -0.035471998 -0.242219
-0.083796002 -0.035397999 -0.242217
-0.083792999 -0.035324998 -0.242212
-0.083789997 -0.035250999 -0.24221601
-0.083787002 -0.035177 -0.24222
-0.083783999 -0.035103999 -0.24222399
-0.083780997 -0.035030998 -0.24222299
-0.083779 -0.034956999 -0.24221499
-0.083775997 -0.034883 -0.242213
-0.083772004 -0.034809001 -0.24222299
-0.083769001 -0.034736 -0.24223401
-0.083765998 -0.034662001 -0.242238
-0.083763003 -0.034589 -0.24223199
-0.083760999 -0.034515001 -0.24221601
-0.083759002 -0.034441002 -0.242203
-0.083756 -0.034366999 -0.242203
-0.083752997 -0.034295 -0.24220499
-0.083750002 -0.034221001 -0.242199
-0.083747998 -0.034148 -0.24218801
-0.083745003 -0.034074001 -0.24218599
-0.083742 -0.034000002 -0.242176
-0.083740003 -0.033925999 -0.242163
-0.083737999 -0.033852998 -0.242149
-0.083734997 -0.033778999 -0.24214301
-0.083732001 -0.033705 -0.242147
-0.083728999 -0.033631001 -0.24214999
-0.083725996 -0.033558998 -0.24214999
-0.083723001 -0.033484999 -0.24215201
-0.083719999 -0.033411 -0.242154
-0.083717003 -0.033337001 -0.242155
-0.083714001 -0.033263002 -0.242145
-0.083710998 -0.033190999 -0.24214099
-0.083708003 -0.033117 -0.242144
-0.083705999 -0.033043001 -0.242138
-0.083702996 -0.03297 -0.242128
-0.083700001 -0.032896001 -0.242128
-0.083696999 -0.032823998 -0.24213301
-0.083694004 -0.032749999 -0.24213099
-0.083691001 -0.032676 -0.242127
-0.083688997 -0.032602001 -0.24212299
-0.083686002 -0.032528002 -0.242126
-0.083682001 -0.032455999 -0.24214201
-0.083678998 -0.032382 -0.242144
-0.083676003 -0.032308001 -0.242144
-0.083673 -0.032233 -0.242153
-0.083668999 -0.032159001 -0.24216101
-0.083665997 -0.032086998 -0.24216101
-0.083664 -0.032014001 -0.242155
-0.083659999 -0.031939 -0.242166
-0.083655998 -0.031865001 -0.242182
-0.083653003 -0.031792998 -0.24218599
-0.08365 -0.031718999 -0.24219
-0.083646998 -0.031645 -0.242195
-0.083644003 -0.031571001 -0.242191
-0.083641998 -0.031497002 -0.24217901
-0.083639003 -0.031426001 -0.24216799
-0.083636001 -0.031351998 -0.24217001
-0.083632998 -0.031277999 -0.242172
-0.083631001 -0.031204 -0.242162
-0.083627999 -0.031129999 -0.24215101
-0.083626002 -0.031058 -0.24215101
-0.083622999 -0.030983999 -0.24214301
-0.083621003 -0.030911 -0.242117
-0.083618999 -0.030836999 -0.24210399
-0.083616003 -0.030763 -0.24209601
-0.083613999 -0.030689999 -0.24209
-0.083610997 -0.030618001 -0.242089
-0.083608001 -0.030544 -0.242081
-0.083604999 -0.030470001 -0.24208701
-0.083600998 -0.030396 -0.242099
-0.083598003 -0.030322 -0.24210399
-0.083595 -0.03025 -0.242108
-0.083591998 -0.030175 -0.242112
-0.083589002 -0.030102 -0.242108
-0.083586998 -0.030028 -0.24210501
-0.083584003 -0.029953999 -0.24210501
-0.083581001 -0.029882001 -0.242107
-0.083577998 -0.029808 -0.24210501
-0.083575003 -0.029734001 -0.24209
-0.083572999 -0.02966 -0.242082
-0.083570004 -0.029586 -0.24208
-0.083567001 -0.029514 -0.242081
-0.083563998 -0.029441001 -0.242081
-0.083561003 -0.029367 -0.242081
-0.083558001 -0.029292 -0.24208499
-0.083554998 -0.029219 -0.242082
-0.083553001 -0.029146999 -0.24207599
-0.083549999 -0.029073 -0.24207599
-0.083547004 -0.028999001 -0.24207599
-0.083544001 -0.028925 -0.24207699
-0.083540998 -0.028851001 -0.24206901
-0.083539002 -0.028779 -0.242057
-0.083535999 -0.028705001 -0.24205799
-0.083532996 -0.028631 -0.242064
-0.083529003 -0.028557001 -0.242066
-0.083526999 -0.028483 -0.242062
-0.083525002 -0.028411999 -0.242047
-0.083522998 -0.028338 -0.242027
-0.083518997 -0.028263999 -0.24203099
-0.083516002 -0.02819 -0.242037
-0.083513997 -0.028117999 -0.24202999
-0.083511002 -0.028045001 -0.242018
-0.083508998 -0.027970999 -0.24201199
-0.083506003 -0.027897 -0.24200501
-0.083503 -0.027822999 -0.24200299
-0.083499998 -0.027751001 -0.242007
-0.083497003 -0.027677 -0.242015
-0.083494 -0.027603 -0.24201199
-0.083490998 -0.027528999 -0.24201
-0.083488002 -0.027455 -0.24201
-0.083485998 -0.027383 -0.242
-0.083483003 -0.027310001 -0.241991
-0.08348 -0.027236 -0.241993
-0.083476 -0.027161 -0.242007
-0.083472997 -0.027086999 -0.24202301
-0.083470002 -0.027015001 -0.242026
-0.083466999 -0.026941 -0.24202199
-0.083463997 -0.026867 -0.24201199
-0.083462 -0.026792999 -0.242011
-0.083457999 -0.026719 -0.24202301
-0.083454996 -0.026644999 -0.242029
-0.083452001 -0.026573 -0.242027
-0.083448999 -0.026498999 -0.242026
-0.083446003 -0.026425 -0.242026
-0.083443001 -0.026350999 -0.242034
-0.083439 -0.026277 -0.24203999
-0.083437003 -0.026205 -0.24204101
-0.083434001 -0.026131 -0.24203099
-0.083431996 -0.026058 -0.242019
-0.083429001 -0.025984 -0.242009
-0.083425999 -0.025912 -0.242008
-0.083424002 -0.025838001 -0.24200401
-0.083420999 -0.025764 -0.24199399
-0.083417997 -0.025690001 -0.241991
-0.083415002 -0.025615999 -0.24200299
-0.083411001 -0.025542 -0.242015
-0.083407998 -0.02547 -0.24201301
-0.083406001 -0.025396001 -0.24201
-0.083402999 -0.025322 -0.24200401
-0.083401002 -0.025249001 -0.241988
-0.083398998 -0.025177 -0.241972
-0.083397001 -0.025103999 -0.241951
-0.083393998 -0.02503 -0.241947
-0.083391003 -0.024958 -0.24194901
-0.083388001 -0.024884 -0.24194001
-0.083385997 -0.024809999 -0.24192999
-0.083383001 -0.024736 -0.24192999
-0.083379999 -0.024661999 -0.241928
-0.083377004 -0.024590001 -0.241925
-0.083374999 -0.024517 -0.241923
-0.083370999 -0.024442 -0.24192899
-0.083368003 -0.024367999 -0.241933
-0.083365001 -0.024294 -0.241944
-0.083361 -0.024219999 -0.24195001
-0.083359003 -0.024146 -0.24194799
-0.083356 -0.024073999 -0.241942
-0.083353996 -0.024001 -0.241927
-0.083351001 -0.023926999 -0.241919
-0.083347999 -0.023853 -0.241925
-0.083343998 -0.023778999 -0.24193899
-0.083341002 -0.023704 -0.24194799
-0.083338 -0.023633 -0.24194001
-0.083334997 -0.023559 -0.241942
-0.083332002 -0.023484999 -0.241945
-0.083329998 -0.023411 -0.241933
-0.083327003 -0.023336999 -0.241935
-0.083324 -0.023265 -0.241935
-0.083320998 -0.023190999 -0.241928
-0.083319001 -0.023117 -0.24191999
-0.083315998 -0.023042999 -0.24191999
-0.083311997 -0.022969 -0.24192999
-0.083309002 -0.022895001 -0.241937
-0.083306 -0.022821 -0.24193899
-0.083302997 -0.022747001 -0.241945
-0.083300002 -0.022673 -0.241945
-0.083296999 -0.022599 -0.241944
-0.083293997 -0.022527 -0.241942
-0.083291002 -0.022453001 -0.241932
-0.083288997 -0.02238 -0.241928
-0.083286002 -0.022306001 -0.241927
-0.083283 -0.022234 -0.24192099
-0.083279997 -0.022159999 -0.241925
-0.083277002 -0.022086 -0.24192201
-0.083274998 -0.022012001 -0.241906
-0.083272003 -0.021938 -0.24190401
-0.083269 -0.021865999 -0.2419
-0.083267003 -0.021793 -0.241897
-0.083263002 -0.021717999 -0.24190301
-0.08326 -0.021644 -0.24190301
-0.083259001 -0.021570999 -0.241879
-0.083258003 -0.021501999 -0.241846
-0.083255 -0.021428 -0.24184
-0.083251998 -0.021353999 -0.241846
-0.083247997 -0.02128 -0.241851
-0.083245002 -0.021206001 -0.241855
-0.083241999 -0.021132 -0.241853
-0.083238997 -0.021058001 -0.241853
-0.083236001 -0.020984 -0.24185801
-0.083232999 -0.02091 -0.24185801
-0.083230004 -0.020835999 -0.241854
-0.083227001 -0.020762 -0.24185801
-0.083223999 -0.02069 -0.241861
-0.083222002 -0.020616001 -0.24185701
-0.083218999 -0.020541999 -0.24184901
-0.083215997 -0.020468 -0.24184699
-0.083213001 -0.020393999 -0.241846
-0.083209999 -0.020322001 -0.241842
-0.083208002 -0.020249 -0.241834
-0.083205 -0.020175001 -0.241835
-0.083200999 -0.020101 -0.241845
-0.083199002 -0.020027 -0.24183699
-0.083196998 -0.019955 -0.241815
-0.083194003 -0.019881001 -0.24181201
-0.083191 -0.019807 -0.241814
-0.083187997 -0.019733001 -0.24180999
-0.083185002 -0.019659 -0.24181201
-0.083182 -0.019585 -0.241823
-0.083177999 -0.019509001 -0.24183699
-0.083175004 -0.019435 -0.241843
-0.083172001 -0.019361001 -0.241843
-0.083168998 -0.019286999 -0.241844
-0.083166003 -0.019215001 -0.241842
-0.083163001 -0.019141 -0.241836
-0.083160996 -0.019068001 -0.241822
-0.083159 -0.018996 -0.241807
-0.083155997 -0.018921999 -0.241805
-0.083153002 -0.018848 -0.241815
-0.083149001 -0.018772 -0.24182101
-0.083146997 -0.0187 -0.241816
-0.083144002 -0.018626001 -0.241816
-0.083140999 -0.018552 -0.241814
-0.083139002 -0.018479999 -0.24180301
-0.083136 -0.018406 -0.241797
-0.083132997 -0.018332001 -0.24180301
-0.083130002 -0.018255999 -0.24180301
-0.083126999 -0.018185001 -0.24179401
-0.083125003 -0.018111 -0.241786
-0.083122 -0.018037001 -0.24178
-0.083118998 -0.017965 -0.24177501
-0.083117001 -0.017890999 -0.241769
-0.083113998 -0.017817 -0.24176501
-0.083111003 -0.017743999 -0.241763
-0.083108999 -0.017672 -0.24175
-0.083106004 -0.017597999 -0.24174
-0.083103001 -0.017524 -0.24175
-0.083099999 -0.017449999 -0.241752
-0.083097003 -0.017376 -0.24175499
-0.083094001 -0.017302001 -0.24175499
-0.083090998 -0.017228 -0.241751
-0.083088003 -0.017154001 -0.24174701
-0.083085999 -0.017082 -0.24174
-0.083082996 -0.017008999 -0.24173599
-0.083080001 -0.016931999 -0.24174
-0.083076999 -0.016860999 -0.24173801
-0.083074003 -0.016787 -0.241735
-0.083071999 -0.016713001 -0.241725
-0.083068997 -0.016639 -0.241723
-0.083065003 -0.016565001 -0.241734
-0.083062001 -0.016488999 -0.241744
-0.083058998 -0.016415 -0.24174599
-0.083056003 -0.016341001 -0.24174599
-0.083053 -0.016267 -0.24174599
-0.083049998 -0.016193001 -0.241741
-0.083048001 -0.016121 -0.24172901
-0.083044998 -0.016047001 -0.24172699
-0.083040997 -0.015970999 -0.24173801
