# .PCD v0.7 - Point Cloud Data file format
VERSION 0.7
FIELDS x y z
SIZE 4 4 4
TYPE F F F
COUNT 1 1 1
WIDTH 1401
HEIGHT 1
VIEWPOINT 0 0 0 1 0 0 0
POINTS 1401
DATA ascii
-0.165842 -0.174022 0.081606001
-0.16588999 -0.17442 0.081423
-0.16593701 -0.17482001 0.081239998
-0.166169 -0.175071 0.081417002
-0.16642299 -0.17530499 0.081638001
-0.166694 -0.175524 0.081891999
-0.166982 -0.17572901 0.082180001
-0.167264 -0.17593899 0.082455002
-0.16786 -0.175891 0.083348997
-0.167715 -0.176447 0.082787
-0.167761 -0.17684799 0.082601003
-0.168007 -0.177085 0.082809001
-0.16844 -0.177167 0.083384
-0.168523 -0.17753799 0.083270997
-0.168778 -0.177766 0.083495997
-0.169027 -0.177999 0.083709002
-0.169266 -0.178239 0.083903998
-0.16931599 -0.178637 0.083725996
-0.16954599 -0.178884 0.083902001
-0.16996799 -0.17896999 0.084458999
-0.170044 -0.179346 0.084331997
-0.17030001 -0.17957 0.084562004
-0.17054699 -0.179802 0.084772997
-0.17078499 -0.18004 0.084967002
-0.171042 -0.180262 0.085198998
-0.171306 -0.18047801 0.085446
-0.17156 -0.180701 0.085672997
-0.171608 -0.18110099 0.085488997
-0.17183501 -0.181348 0.085662998
-0.172104 -0.181556 0.085922003
-0.0054520001 0.051415998 -0.0076370002
-0.0054080002 0.051077999 -0.0079140002
-0.0057689999 0.050650999 -0.0076600001
-0.0057410002 0.050308 -0.007917
-0.0061300001 0.049876001 -0.0076259999
-0.0061320001 0.049527001 -0.0078440001
-0.0057120002 0.049267001 -0.0086160004
-0.0065370002 0.048742 -0.0077530001
-0.0069459998 0.048305999 -0.0074359998
-0.0073469998 0.047871999 -0.007129
-0.0077430001 0.047439002 -0.0068279998
-0.008138 0.047006998 -0.0065279999
-0.008533 0.046576001 -0.0062279999
-0.0088889999 0.046153001 -0.0059799999
-0.0087850001 0.045825001 -0.0063370001
-0.0086909998 0.045495 -0.0066809999
-0.0086740004 0.045148998 -0.0069260001
-0.0090600001 0.044720002 -0.006637
-0.0093949996 0.044302002 -0.0064150002
-0.0089459997 0.044041 -0.0072309999
-0.0092759999 0.043623999 -0.0070159999
-0.0091030002 0.043306999 -0.0074669998
-0.0080700004 0.043159999 -0.0090549998
-0.0079070004 0.042838998 -0.0094950004
-0.160914 -0.164887 0.081029996
-0.16092999 -0.16530301 0.080789998
-0.16071001 -0.165892 0.0801
-0.160506 -0.166471 0.079438001
-0.160523 -0.166889 0.079199001
-0.16074 -0.16715901 0.079342999
-0.16077 -0.167567 0.079129003
-0.16080999 -0.167969 0.078933001
-0.161056 -0.168217 0.079131998
-0.16111401 -0.168605 0.078971997
-0.161155 -0.169007 0.078777999
-0.161568 -0.169129 0.079299003
-0.161617 -0.169526 0.079118997
-0.16186 -0.16977499 0.079314001
-0.161939 -0.170148 0.079191998
-0.162213 -0.17037299 0.079448
-0.162478 -0.17060401 0.079686001
-0.162723 -0.17085101 0.079884999
-0.162953 -0.17110801 0.080057003
-0.16320799 -0.171345 0.080275998
-0.16343699 -0.17160299 0.080444999
-0.163477 -0.17200699 0.080247
-0.16351999 -0.172409 0.080055997
-0.16379499 -0.172629 0.080316
-0.164258 -0.172703 0.080940001
-0.16452099 -0.172931 0.081177004
-0.164745 -0.173191 0.081338003
-0.164792 -0.17358901 0.081153996
-0.164858 -0.17397401 0.081005998
-0.16492701 -0.174356 0.080866002
-0.165364 -0.174445 0.081442997
-0.165601 -0.174692 0.081629999
-0.165667 -0.17507701 0.081482001
-0.165925 -0.17530701 0.081711002
-0.166188 -0.175533 0.081949003
-0.166621 -0.17562 0.082520999
-0.16668899 -0.17600299 0.082378
-0.16692799 -0.176246 0.082571
-0.16717499 -0.17648301 0.082777999
-0.167409 -0.17673001 0.082961999
-0.167477 -0.177112 0.082819998
-0.167895 -0.17720699 0.083365001
-0.167955 -0.177597 0.083205998
-0.168199 -0.177834 0.083410002
-0.16847301 -0.178046 0.083673999
-0.16892 -0.178113 0.084278002
-0.168992 -0.17849199 0.084142998
-0.169237 -0.178727 0.084349997
-0.169469 -0.17897201 0.084532
-0.169522 -0.17936701 0.084358998
-0.16959199 -0.179749 0.084218003
-0.17001399 -0.179832 0.084778003
-0.170261 -0.18006299 0.084988996
-0.17049199 -0.180307 0.085170001
-0.17055801 -0.180692 0.085022002
-0.170801 -0.180925 0.085228004
-0.171027 -0.181173 0.085398003
-0.171269 -0.18140601 0.085602
-0.171553 -0.181603 0.085888997
-0.004036 0.051959999 -0.0086749997
-0.0054919999 0.051291 -0.0069880001
-0.0055579999 0.050928999 -0.007121
-0.006387 0.050400998 -0.0062549999
-0.0063470001 0.050062001 -0.0065259999
-0.006701 0.049637999 -0.0062799999
-0.0066729998 0.049295999 -0.0065370002
-0.0066240001 0.048958998 -0.006821
-0.0065560001 0.048625 -0.007131
-0.0073079998 0.048115999 -0.006362
-0.0073170001 0.047766 -0.0065700002
-0.0077459998 0.047327001 -0.0062259999
-0.0081709996 0.046889 -0.0058869999
-0.0085110003 0.046470001 -0.0056579998
-0.0084149996 0.046140999 -0.0060049999
-0.0079039996 0.045897 -0.0068999999
-0.0078090001 0.045566998 -0.0072460002
-0.0077280002 0.045233 -0.0075739999
-0.0080939997 0.044806998 -0.007313
-0.0080580004 0.044463001 -0.0075810002
-0.0084279999 0.044038001 -0.0073150001
-0.0083520003 0.043701999 -0.0076370002
-0.0086869998 0.043283001 -0.0074160001
-0.0086700004 0.042934999 -0.0076600001
-0.008618 0.042592999 -0.007952
-0.160493 -0.1649 0.081087001
-0.160006 -0.165684 0.079884999
-0.160216 -0.165959 0.080017
-0.16005801 -0.16650499 0.079443
-0.160294 -0.16676 0.079623997
-0.160331 -0.167163 0.079424001
-0.16055401 -0.167428 0.079579003
-0.16059899 -0.167826 0.079392999
-0.160622 -0.16824 0.079164997
-0.160666 -0.168639 0.078978002
-0.160908 -0.168889 0.079170004
-0.161173 -0.16912299 0.079406001
-0.16123299 -0.16951001 0.079249002
-0.16146301 -0.169769 0.079419002
-0.16168401 -0.170035 0.079570003
-0.161744 -0.170423 0.079412997
-0.16201501 -0.17064901 0.079663001
-0.16247199 -0.170733 0.080270998
-0.162723 -0.170974 0.080482997
-0.16275901 -0.17138 0.080279
-0.16279501 -0.17178699 0.080073997
-0.16323701 -0.171878 0.080656998
-0.163326 -0.172244 0.080554999
-0.163776 -0.172328 0.081152998
-0.16383401 -0.17271701 0.080991998
-0.163892 -0.173108 0.080829002
-0.164318 -0.173208 0.081384003
-0.16437 -0.173603 0.081210002
-0.164418 -0.17400201 0.081027001
-0.16448399 -0.174385 0.080881
-0.164932 -0.174466 0.081478998
-0.165199 -0.17468999 0.081724003
-0.165456 -0.17491999 0.081951998
-0.165896 -0.17500301 0.082535997
-0.165961 -0.17538901 0.082387
-0.16620401 -0.175629 0.082587004
-0.166271 -0.17601299 0.082442001
-0.166703 -0.176099 0.083015002
-0.166952 -0.176333 0.083226003
-0.167192 -0.17657501 0.083420999
-0.167245 -0.17697001 0.083247997
-0.16748101 -0.177214 0.083437003
-0.167732 -0.17744499 0.083655
-0.167798 -0.17783 0.083508
-0.168037 -0.17806999 0.083701998
-0.168089 -0.17846701 0.083526999
-0.168511 -0.178554 0.084083997
-0.16875499 -0.17879 0.084288001
-0.169016 -0.179011 0.084526002
-0.169083 -0.17939401 0.084381998
-0.16933601 -0.179621 0.084605001
-0.169587 -0.179849 0.084824003
-0.16983099 -0.18008199 0.085031003
-0.1699 -0.180465 0.084889002
-0.17014 -0.180701 0.085087001
-0.17019901 -0.18109199 0.084927
-0.17061301 -0.181179 0.085470997
-0.17104501 -0.181247 0.086053997
-0.171306 -0.181464 0.086296
-0.0035920001 0.051918 -0.0085519999
-0.0050079999 0.051258001 -0.0069180001
-0.0050090002 0.05091 -0.0071350001
-0.005843 0.050381001 -0.0062620002
-0.0058329999 0.050035998 -0.0064940001
-0.0057959999 0.049695998 -0.0067619998
-0.0057239998 0.049362998 -0.0070770001
-0.0060709999 0.048939999 -0.0068410002
-0.0060120001 0.048604999 -0.0071379999
-0.006393 0.048175 -0.0068569998
-0.0072019999 0.047655001 -0.0060129999
-0.0071950001 0.047308002 -0.0062429998
-0.0071620001 0.046966001 -0.0065060002
-0.0074860002 0.046549998 -0.0063
-0.0074160001 0.046215001 -0.0066129998
-0.0073179998 0.045885 -0.0069630002
-0.00722 0.045554999 -0.007313
-0.0075329999 0.045141 -0.0071220002
-0.007464 0.044803999 -0.0074339998
-0.007458 0.044454001 -0.0076629999
-0.0078539997 0.044023 -0.0073620002
-0.0078210002 0.043678001 -0.0076270001
-0.0081869997 0.043253999 -0.0073660002
-0.0080319997 0.042932998 -0.0077920002
-0.007435 0.042698 -0.0088060005
-0.0068620001 0.042456999 -0.009788
-0.159512 -0.165693 0.079953998
-0.159738 -0.16595601 0.080114
-0.15955301 -0.166521 0.079489999
-0.15956999 -0.16693901 0.07925
-0.159784 -0.16721 0.079389997
-0.159823 -0.167613 0.079190999
-0.160051 -0.16787501 0.079356
-0.160108 -0.168263 0.079194002
-0.160366 -0.168502 0.079416998
-0.16060799 -0.168753 0.079608001
-0.160651 -0.16915201 0.079419002
-0.160696 -0.169551 0.079232
-0.16091999 -0.169815 0.079389997
-0.161162 -0.170064 0.079584002
-0.16122 -0.170454 0.079420999
-0.16149101 -0.17068 0.079672001
-0.161769 -0.170902 0.079934001
-0.162214 -0.170994 0.080519997
-0.162277 -0.171379 0.080369003
-0.162535 -0.17161299 0.080595002
-0.16277599 -0.17186099 0.080787003
-0.162815 -0.17226499 0.080588996
-0.163048 -0.172519 0.080766
-0.163096 -0.17291699 0.080583997
-0.163332 -0.173168 0.080767997
-0.16358501 -0.17340399 0.080985002
-0.163654 -0.173786 0.080844
-0.164095 -0.17387301 0.081427
-0.164351 -0.174106 0.081652001
-0.164424 -0.174484 0.081519
-0.164662 -0.174731 0.081707999
-0.164882 -0.174992 0.081862003
-0.164958 -0.17536899 0.081734002
-0.165417 -0.175436 0.082356997
-0.165498 -0.175808 0.082239002
-0.16591699 -0.175906 0.082785003
-0.165994 -0.17628101 0.082659997
-0.166244 -0.176515 0.082874
-0.16648 -0.17676 0.083061002
-0.16671699 -0.17700399 0.083250001
-0.166767 -0.177402 0.083071001
-0.16700999 -0.177641 0.083273001
-0.167265 -0.17786901 0.083498001
-0.167512 -0.178104 0.083706997
-0.167583 -0.17848399 0.083570004
-0.168017 -0.178562 0.084150001
-0.168082 -0.178947 0.083999999
-0.168521 -0.17901801 0.084592
-0.168585 -0.17940401 0.084441997
-0.168827 -0.17964 0.084642999
-0.16889399 -0.180024 0.084498003
-0.168602 -0.180714 0.083639003
-0.169562 -0.180338 0.085267
-0.169618 -0.180732 0.085098997
-0.169668 -0.18113001 0.084919997
-0.16989601 -0.181376 0.085096002
-0.170333 -0.18144201 0.085685998
-0.170624 -0.181633 0.085988
-0.003213 0.051917002 -0.0086310003
-0.0042440002 0.051341999 -0.0075010001
-0.0046919999 0.050896 -0.0071330001
-0.0050909999 0.050461002 -0.0068299999
-0.0054939999 0.050025001 -0.0065210001
-0.0054310001 0.049690999 -0.006823
-0.0053810002 0.049353998 -0.0071080001
-0.0057290001 0.048930999 -0.0068709999
-0.0061349999 0.048496 -0.0065580001
-0.0060680001 0.048161998 -0.0068660001
-0.0060140002 0.047823999 -0.007158
-0.0063769999 0.047398001 -0.0068999999
-0.0067739999 0.046966001 -0.0065979999
-0.006792 0.046613 -0.0067949998
-0.0071979999 0.046179 -0.00648
-0.007559 0.045754999 -0.0062259999
-0.0074439999 0.045428999 -0.0065970002
-0.0073540001 0.045097999 -0.0069380002
-0.0077160001 0.044674002 -0.0066800001
-0.0076609999 0.044334002 -0.0069749998
-0.0079730004 0.043921001 -0.006784
-0.0074419999 0.043676 -0.0077069998
-0.007396 0.043333001 -0.0079910001
-0.0079640001 0.042868 -0.0074609998
-0.008893 0.042332999 -0.006453
-0.0086239995 0.041682001 -0.0072539998
-0.159458 -0.165536 0.080435999
-0.159446 -0.16597199 0.080144003
-0.159458 -0.166393 0.079894997
-0.159486 -0.166802 0.079678997
-0.159712 -0.167064 0.079839997
-0.15976401 -0.167457 0.079667002
-0.159804 -0.16785701 0.079472996
-0.160027 -0.16812199 0.079627998
-0.16005801 -0.168531 0.079414003
-0.160097 -0.168934 0.079217002
-0.16034199 -0.169182 0.079415001
-0.160413 -0.169561 0.079278
-0.160464 -0.169956 0.079103999
-0.16088 -0.170073 0.079631999
-0.160936 -0.17046501 0.079466
-0.161374 -0.170564 0.080038004
-0.16145 -0.170939 0.079911999
-0.161506 -0.17133 0.079746
-0.161929 -0.17143799 0.080289997
-0.161981 -0.17183299 0.080114998
-0.16204201 -0.172221 0.079958998
-0.16247299 -0.17232101 0.080521002
-0.16253699 -0.17270701 0.080370001
-0.16279601 -0.172939 0.080599003
-0.163068 -0.173162 0.080851004
-0.163313 -0.17340501 0.081053004
-0.163563 -0.17364299 0.081266001
-0.163619 -0.174035 0.081099004
-0.16386899 -0.174274 0.081311002
-0.164114 -0.17451601 0.081511997
-0.164176 -0.17490301 0.081357002
-0.164598 -0.17500199 0.081906997
-0.164647 -0.1754 0.081726
-0.16489699 -0.17563599 0.081938997
-0.16518401 -0.175843 0.082225002
-0.165639 -0.17591099 0.082841001
-0.165893 -0.17614201 0.083063997
-0.16593701 -0.176544 0.082872003
-0.16616599 -0.17679501 0.083045997
-0.166223 -0.177187 0.082882002
-0.166271 -0.177586 0.082699001
-0.16650701 -0.17783201 0.082884997
-0.166734 -0.178083 0.083056003
-0.16700099 -0.178302 0.083304003
-0.167273 -0.178515 0.083564997
-0.167712 -0.178589 0.084152997
-0.167778 -0.178973 0.084007002
-0.168203 -0.179057 0.084569
-0.168276 -0.179435 0.084435999
-0.16852701 -0.179664 0.084655002
-0.168762 -0.179905 0.084843002
-0.168825 -0.18029299 0.084688999
-0.169239 -0.180381 0.085234001
-0.16930801 -0.18076301 0.085092999
-0.169377 -0.181146 0.08495
-0.169796 -0.181228 0.085506
-0.170058 -0.181444 0.085749
-0.17051999 -0.181486 0.086392
-0.0035979999 0.051328 -0.0075750002
-0.0036230001 0.050974 -0.0077610002
-0.0040469998 0.050533 -0.007425
-0.0044510001 0.050097998 -0.0071149999
-0.0048159999 0.04967 -0.0068560001
-0.0047729998 0.049330998 -0.0071319998
-0.0051719998 0.048898 -0.0068290001
-0.005599 0.048457999 -0.0064869998
-0.0059750001 0.04803 -0.0062119998
-0.0063590002 0.047600001 -0.005928
-0.0063029998 0.047263999 -0.0062219999
-0.006271 0.046921 -0.006484
-0.0066269999 0.046498001 -0.0062350002
-0.0066 0.046154 -0.0064909998
-0.0069920002 0.045724001 -0.0061960001
-0.0069539999 0.045382001 -0.0064659999
-0.007334 0.044955 -0.0061860001
-0.0072110002 0.044629999 -0.006569
-0.0070830001 0.044305 -0.0069590001
-0.0069360002 0.043984 -0.0073739998
-0.006484 0.043722998 -0.0081949998
-0.006883 0.043290999 -0.0078889998
-0.0071769999 0.042881001 -0.0077229999
-0.0069909999 0.042564999 -0.0081900004
-0.006019 0.042401999 -0.0097019998
-0.158866 -0.165574 0.080430999
-0.159091 -0.16583601 0.080592997
-0.15891001 -0.166398 0.079975002
-0.158914 -0.166825 0.079710998
-0.158923 -0.167248 0.079457
-0.158961 -0.167652 0.079256997
-0.159196 -0.167908 0.079435997
-0.15924899 -0.1683 0.079265997
-0.15948901 -0.168552 0.079452999
-0.15954 -0.168946 0.079278998
-0.159585 -0.16934501 0.079092003
-0.15982801 -0.169594 0.079287
-0.160081 -0.169836 0.079499997
-0.16031 -0.170095 0.079668999
-0.160356 -0.17049301 0.079484999
-0.16079099 -0.17059501 0.080049999
-0.160853 -0.170982 0.079896003
-0.161088 -0.171234 0.080077998
-0.16115101 -0.17162099 0.079925001
-0.16141701 -0.17185 0.080164999
-0.16168 -0.17208099 0.080398999
-0.161936 -0.172317 0.080623001
-0.16219001 -0.172553 0.080840997
-0.16224501 -0.17294601 0.080673002
-0.16248401 -0.17319401 0.080862999
-0.16272201 -0.173443 0.081050001
-0.16294301 -0.173704 0.081206001
-0.163001 -0.174095 0.081042998
-0.16307899 -0.17447001 0.080917999
-0.163533 -0.174545 0.081528999
-0.163986 -0.17462 0.082139
-0.16407301 -0.174987 0.082032003
-0.16451301 -0.17507 0.082617
-0.164579 -0.17545401 0.082470998
-0.164994 -0.175556 0.083007
-0.165042 -0.175954 0.082824998
-0.165084 -0.176358 0.082630999
-0.165142 -0.17674901 0.082468003
-0.16558599 -0.176824 0.083063997
-0.16603801 -0.176891 0.083677001
-0.166108 -0.17727201 0.083538003
-0.166365 -0.177499 0.083766997
-0.166601 -0.177742 0.083957002
-0.16684499 -0.17797901 0.084159002
-0.16689201 -0.178378 0.083976001
-0.16712201 -0.178626 0.084151998
-0.167189 -0.17901 0.084005997
-0.16744301 -0.17923699 0.084232002
-0.167519 -0.17961299 0.084105
-0.167954 -0.17968599 0.084688999
-0.168207 -0.179913 0.084911004
-0.16844 -0.18015601 0.085096002
-0.168679 -0.180393 0.085291997
-0.168751 -0.18077201 0.085157998
-0.16917101 -0.18085399 0.085713997
-0.16923501 -0.18124001 0.085562997
-0.16948099 -0.18147101 0.085772999
-0.16974901 -0.18167999 0.086029999
-0.002287 0.051867001 -0.008564
-0.0028280001 0.051399 -0.0080749998
-0.0031989999 0.050969001 -0.0078090001
-0.0036200001 0.050528999 -0.0074760001
-0.003604 0.050184 -0.0077180001
-0.004007 0.049748 -0.0074080001
-0.0039579999 0.04941 -0.0076939999
-0.004739 0.048893999 -0.0068870001
-0.0047309999 0.048547 -0.0071180002
-0.0051270002 0.048114002 -0.0068180002
-0.005539 0.047678001 -0.0064969999
-0.0059090001 0.047251999 -0.0062299999
-0.0058749998 0.046909999 -0.0064940001
-0.005806 0.046574999 -0.0068060001
-0.005723 0.046241999 -0.0071359999
-0.0060840002 0.045818001 -0.0068819998
-0.0060729999 0.045469999 -0.0071169999
-0.006484 0.045035999 -0.0067960001
-0.0064190002 0.044698 -0.0071020001
-0.006323 0.044367 -0.0074510002
-0.0066689998 0.043946002 -0.0072150002
-0.0066189999 0.043604001 -0.0075030001
-0.0069710002 0.043182999 -0.0072599999
-0.0064440002 0.042934999 -0.0081799999
-0.006364 0.042598002 -0.0085079996
-0.006242 0.042268999 -0.008893
-0.15901899 -0.165648 0.081178002
-0.15900201 -0.166089 0.080874003
-0.158595 -0.16681799 0.079824001
-0.158591 -0.16725101 0.079544999
-0.158617 -0.16766299 0.079324
-0.158851 -0.16791999 0.079499997
-0.158895 -0.168318 0.079311997
-0.159128 -0.168576 0.079485998
-0.15916599 -0.168979 0.079287
-0.15920199 -0.169385 0.079084001
-0.159439 -0.16963901 0.079265997
-0.1595 -0.170027 0.079109997
-0.159739 -0.170279 0.079296999
-0.159798 -0.17066801 0.079136997
-0.160228 -0.170774 0.079691999
-0.160496 -0.171002 0.079937004
-0.16074599 -0.171244 0.080146998
-0.161019 -0.171468 0.080399998
-0.161083 -0.17185301 0.080250002
-0.161505 -0.17196 0.080793999
-0.16156 -0.172353 0.080626003
-0.16162799 -0.17273501 0.080482997
-0.162056 -0.17283501 0.081040002
-0.16212399 -0.173217 0.080898002
-0.162561 -0.173309 0.081473
-0.162624 -0.173695 0.081320003
-0.16267 -0.174096 0.081133001
-0.1629 -0.174349 0.081307001
-0.163131 -0.174602 0.081482001
-0.163194 -0.17499 0.081327997
-0.163636 -0.175072 0.081917003
-0.163735 -0.175431 0.081832998
-0.164188 -0.175503 0.082445003
-0.164461 -0.17572001 0.082703002
-0.164699 -0.175964 0.082892999
-0.164764 -0.176349 0.082744002
-0.165002 -0.17659301 0.082934998
-0.165234 -0.17684101 0.083113998
-0.16547699 -0.17708001 0.083315998
-0.16552199 -0.17748199 0.083126999
-0.165767 -0.177719 0.083332002
-0.16620401 -0.177797 0.083916999
-0.166293 -0.17816199 0.083815001
-0.166352 -0.178553 0.083654001
-0.166752 -0.17865799 0.084167004
-0.16678999 -0.179066 0.083963998
-0.16702899 -0.179306 0.08416
-0.16712201 -0.17966799 0.084066004
-0.167583 -0.179719 0.084702
-0.167836 -0.17994601 0.084923998
-0.167899 -0.180333 0.084771998
-0.16812401 -0.180583 0.084937997
-0.168358 -0.180824 0.085127003
-0.168606 -0.181054 0.085340001
-0.168869 -0.18127 0.085584
-0.16911501 -0.181499 0.085796997
-0.16938099 -0.181711 0.086048998
-0.001761 0.051863998 -0.0086970003
-0.002327 0.051391002 -0.0081759999
-0.0027660001 0.050946001 -0.0078199999
-0.003214 0.050500002 -0.0074530002
-0.0036239999 0.050062999 -0.0071350001
-0.0036150001 0.049717002 -0.0073660002
-0.0044689998 0.049183998 -0.0064650001
-0.0048949998 0.048744999 -0.0061260001
-0.0048850002 0.048399001 -0.0063590002
-0.0052499999 0.047973 -0.0060990001
-0.0055709998 0.047557 -0.0058960002
-0.0054990002 0.047224 -0.0062099998
-0.0054520001 0.046884999 -0.0064929998
-0.0058749998 0.046448 -0.0061559998
-0.0063049998 0.046009 -0.00581
-0.0062580002 0.045669999 -0.0060919998
-0.0061420002 0.045343999 -0.0064659999
-0.0060339998 0.045015998 -0.0068299999
-0.0063419999 0.044603001 -0.0066439998
-0.0058129998 0.044358999 -0.0075639999
-0.0057299999 0.044025 -0.0078959996
-0.0061050002 0.043598 -0.0076230001
-0.0060490002 0.043257002 -0.0079180002
-0.0063829999 0.042838998 -0.0076979999
-0.0059139999 0.042578999 -0.0085420003
-0.0062529999 0.042158999 -0.008316
-0.0056889998 0.041916002 -0.0092869997
-0.158591 -0.16566999 0.081175998
-0.15837499 -0.16625801 0.080491997
-0.15837599 -0.166686 0.080223002
-0.15837 -0.16712099 0.079939
-0.158186 -0.167688 0.079314001
-0.15821201 -0.168099 0.079092003
-0.15843201 -0.168367 0.079241998
-0.158494 -0.168753 0.079089001
-0.15874 -0.169 0.079288997
-0.158797 -0.16938999 0.079125002
-0.159012 -0.169661 0.079264998
-0.159053 -0.170064 0.079070002
-0.15929499 -0.170313 0.079264
-0.159545 -0.17055701 0.079472996
-0.159805 -0.170792 0.079700001
-0.16008 -0.17101599 0.079957001
-0.160346 -0.17124499 0.080199003
-0.160584 -0.171496 0.080384001
-0.16063599 -0.17189001 0.080210999
-0.16088299 -0.172134 0.080415003
-0.16114999 -0.172361 0.080659002
-0.16141599 -0.17258801 0.080900997
-0.161469 -0.17298301 0.080728002
-0.161879 -0.173097 0.081249997
-0.161917 -0.173502 0.081050001
-0.16197801 -0.17388999 0.080891997
-0.162228 -0.17412899 0.081104003
-0.162486 -0.17436101 0.081331
-0.16272999 -0.174603 0.081533
-0.16299 -0.174832 0.081763998
-0.16325299 -0.17505901 0.082001999
-0.163504 -0.175294 0.082217
-0.16355801 -0.175688 0.082046002
-0.16379701 -0.175933 0.082238004
-0.16404501 -0.17617001 0.082447998
-0.164113 -0.176552 0.082305998
-0.16434599 -0.176801 0.082484998
-0.164391 -0.177203 0.082296997
-0.16462301 -0.177453 0.082474999
-0.16489699 -0.17766701 0.082736999
-0.16534699 -0.177735 0.083346002
-0.16559801 -0.177966 0.083563998
-0.165658 -0.17835601 0.083405003
-0.16590001 -0.17859399 0.083604999
-0.166324 -0.17868 0.084164999
-0.166372 -0.17908099 0.083981
-0.16644099 -0.179463 0.083839998
-0.16670001 -0.17968599 0.084073998
-0.167144 -0.17975201 0.084675997
-0.16739701 -0.179978 0.084899999
-0.16745 -0.180373 0.084726997
-0.16768301 -0.18061601 0.084911004
-0.167742 -0.181008 0.084749997
-0.16815799 -0.18109301 0.085299
-0.16823199 -0.181472 0.085166
-0.16848999 -0.181692 0.085400999
-0.168762 -0.181899 0.085663997
-0.001868 0.051360998 -0.008134
-0.002784 0.050811999 -0.007154
-0.003216 0.05037 -0.0068069999
-0.00364 0.049929999 -0.0064710001
-0.0035939999 0.049592 -0.0067500002
-0.0040130001 0.049153998 -0.00642
-0.0043890001 0.048725002 -0.006147
-0.0043779998 0.048379 -0.0063800002
-0.0043179998 0.048044 -0.0066789999
-0.0046709999 0.047621001 -0.0064349999
-0.0050349999 0.047194999 -0.006176
-0.0049919998 0.046854999 -0.0064519998
-0.005355 0.046429999 -0.0061949999
-0.0057370001 0.046002001 -0.0059119998
-0.0056560002 0.045669999 -0.00624
-0.005562 0.045338999 -0.0065839998
-0.0054870001 0.045003999 -0.006904
-0.0054310001 0.044665001 -0.0071999999
-0.005806 0.044238999 -0.0069260001
-0.005775 0.043894 -0.0071879998
-0.0061789998 0.043462001 -0.0068760002
-0.0065810001 0.043030001 -0.0065649999
-0.0066 0.042675 -0.0067619998
-0.0066209999 0.042319998 -0.0069570001
-0.006089 0.042072002 -0.0078830002
-0.005438 0.041846 -0.0089699998
-0.0056650001 0.041448001 -0.0088919997
-0.15767001 -0.166447 0.080077998
-0.157876 -0.166724 0.080201998
-0.157884 -0.16714799 0.079944998
-0.157897 -0.167568 0.079697996
-0.157947 -0.167962 0.079521999
-0.15799101 -0.16836099 0.079334997
-0.15803801 -0.16875701 0.079153001
-0.158262 -0.16902199 0.079310998
-0.158296 -0.169429 0.079103
-0.15851 -0.169701 0.079240002
-0.158555 -0.1701 0.079053998
-0.158621 -0.17048401 0.078906998
-0.15906601 -0.170579 0.079490997
-0.159135 -0.17095999 0.079351999
-0.159382 -0.171206 0.079553999
-0.159629 -0.171451 0.079755999
-0.159687 -0.171841 0.079595
-0.16012999 -0.17193399 0.080177002
-0.160382 -0.17217299 0.080392003
-0.16043299 -0.17256901 0.080215
-0.16067 -0.17282 0.080401003
-0.160725 -0.17321201 0.080233
-0.16116901 -0.1733 0.080821
-0.16125201 -0.17366999 0.080707997
-0.161505 -0.173908 0.080923997
-0.161742 -0.174156 0.081110001
-0.16181099 -0.174539 0.080968998
-0.162248 -0.174628 0.081546001
-0.162324 -0.17500401 0.081418999
-0.16275799 -0.17509399 0.081990004
-0.162839 -0.175465 0.081873998
-0.163279 -0.175549 0.082457997
-0.163342 -0.175935 0.082304999
-0.16358 -0.176181 0.082493998
-0.16380601 -0.17643499 0.082661003
-0.163868 -0.17682301 0.082506001
-0.16410901 -0.177064 0.082704
-0.16437601 -0.177284 0.082952
-0.164802 -0.17737199 0.083512001
-0.164874 -0.177752 0.083377004
-0.164941 -0.17813601 0.083232999
-0.16536701 -0.178222 0.083795004
-0.165426 -0.17861199 0.083633997
-0.165667 -0.17885099 0.083833002
-0.165916 -0.17908201 0.084048003
-0.16616499 -0.179314 0.084261999
-0.16640501 -0.179552 0.084458999
-0.166668 -0.17977101 0.084702
-0.166921 -0.179997 0.084926002
-0.167 -0.180371 0.084804997
-0.167419 -0.180455 0.085358001
-0.16749801 -0.180829 0.085236996
-0.16792101 -0.18090799 0.085799001
-0.167968 -0.181308 0.085616
-0.168376 -0.181398 0.086149998
-0.168648 -0.181605 0.086413004
-0.00088499999 0.051791001 -0.0085279997
-0.001412 0.051325999 -0.0080580004
-0.0022219999 0.050799999 -0.007216
-0.0022460001 0.050446998 -0.007404
-0.0026479999 0.050011002 -0.0070969998
-0.0026100001 0.049671002 -0.0073660002
-0.0025539999 0.049334999 -0.0076600001
-0.0029800001 0.048893999 -0.0073210001
-0.003419 0.048452001 -0.0069650002
-0.004195 0.047938 -0.0061650001
-0.0041479999 0.047600001 -0.0064460002
-0.004094 0.047262002 -0.0067380001
-0.0044849999 0.046831001 -0.0064429999
-0.0048679998 0.046402 -0.0061599999
-0.0048600002 0.046055 -0.006389
-0.0048170001 0.045713998 -0.006668
-0.0051569999 0.045294002 -0.0064400001
-0.0050519998 0.044966001 -0.0068000001
-0.0049310001 0.044640001 -0.007181
-0.004801 0.044314999 -0.0075739999
-0.0047149998 0.043981001 -0.0079089999
-0.005072 0.043556999 -0.0076600001
-0.004621 0.043295 -0.0084790001
-0.0049649999 0.042874001 -0.0082459999
-0.0048929998 0.042536002 -0.0085629998
-0.0044109998 0.042277001 -0.0094259996
-0.0047309999 0.041859999 -0.0092249997
-0.005107 0.041432999 -0.0089499997
-0.157396 -0.166315 0.080522999
-0.15718199 -0.16690201 0.079841003
-0.15719201 -0.167325 0.079589002
-0.15742899 -0.16757999 0.079770997
-0.157673 -0.16782901 0.079967998
-0.15751299 -0.16838001 0.079387002
-0.157727 -0.168651 0.079526998
-0.15755101 -0.16921601 0.078915998
-0.157787 -0.169471 0.079095997
-0.158032 -0.169719 0.079295002
-0.158292 -0.169956 0.079521
-0.158338 -0.17035399 0.079336002
-0.15857799 -0.170605 0.079526998
-0.158825 -0.17084999 0.079728998
-0.159091 -0.17107999 0.079970002
-0.15935101 -0.171315 0.080196999
-0.15961599 -0.171545 0.080435999
-0.15967999 -0.17193 0.080286004
-0.160117 -0.172025 0.080859996
-0.16018499 -0.172408 0.080715999
-0.160427 -0.172654 0.080911003
-0.16047999 -0.17304701 0.080739997
-0.160907 -0.17314801 0.081294999
-0.160973 -0.17353199 0.081147999
-0.161212 -0.173779 0.081338003
-0.161276 -0.174165 0.081187002
-0.161524 -0.17440499 0.081395
-0.161597 -0.174784 0.081261002
-0.161838 -0.17502899 0.081455998
-0.162065 -0.175284 0.081625
-0.162145 -0.175658 0.081504002
-0.16259401 -0.175733 0.082107
-0.16284899 -0.175965 0.082331002
-0.162899 -0.17636301 0.082152002
-0.163324 -0.176456 0.082707003
-0.163387 -0.176842 0.082556002
-0.16362201 -0.17709 0.082739003
-0.163866 -0.17732801 0.082943
-0.164122 -0.17755599 0.083169997
-0.16419099 -0.177938 0.083029002
-0.16461299 -0.178029 0.083582997
-0.164866 -0.178258 0.083803996
-0.165107 -0.178497 0.084003001
-0.165356 -0.178729 0.084216997
-0.165427 -0.17910901 0.084081002
-0.16549499 -0.179493 0.083935998
-0.165911 -0.179583 0.084481999
-0.166169 -0.179805 0.084716
-0.16644099 -0.180016 0.084977001
-0.166512 -0.18039601 0.08484
-0.166908 -0.1805 0.085346997
-0.166945 -0.18091001 0.085141003
-0.16699301 -0.181311 0.084958002
-0.167229 -0.18155 0.085148998
-0.167505 -0.18175501 0.085418999
-0.16796499 -0.18179899 0.086058997
-0.000401 0.051771 -0.0085509997
-0.00099199999 0.051293001 -0.0079969997
-0.001395 0.050856002 -0.0076879999
-0.001759 0.050427999 -0.007431
-0.001732 0.050085999 -0.0076859999
-0.0021490001 0.049647 -0.0073600002
-0.002574 0.049206998 -0.0070219999
-0.0029440001 0.048779 -0.0067560002
-0.0028890001 0.048441999 -0.0070480001
-0.0032790001 0.048011001 -0.006755
-0.0036619999 0.047580998 -0.0064719999
-0.0036249999 0.04724 -0.0067409999
-0.0039989999 0.046812002 -0.0064690001
-0.0043879999 0.046381999 -0.0061769998
-0.004832 0.045940999 -0.005812
-0.004803 0.045598 -0.0060709999
-0.0047010002 0.045269001 -0.006426
-0.0045869998 0.044941999 -0.0067969998
-0.0045190002 0.044606 -0.0071089999
-0.0049319998 0.044171002 -0.006784
-0.0053369999 0.043738998 -0.0064699999
-0.005262 0.043403 -0.0067909998
-0.005163 0.043072 -0.0071439999
-0.0054299999 0.042667001 -0.0070119998
-0.0053659999 0.042328 -0.0073190001
-0.0053130002 0.041986 -0.007613
-0.0051910002 0.041657001 -0.0079969997
-0.004156 0.041503999 -0.0095929997
-0.157166 -0.16616701 0.080969997
-0.15697099 -0.16674 0.080325
-0.156973 -0.16716801 0.080058001
-0.15677699 -0.167744 0.079411998
-0.15699001 -0.168017 0.079548001
-0.157015 -0.16843 0.079323001
-0.15706 -0.168828 0.079136997
-0.15729 -0.16908699 0.079306997
-0.15735 -0.169475 0.079148002
-0.15759 -0.169728 0.079336002
-0.157638 -0.17012499 0.079154998
-0.157874 -0.170379 0.079337001
-0.15811899 -0.170626 0.079535998
-0.15819301 -0.171004 0.079405002
-0.15864401 -0.171092 0.080002002
-0.158709 -0.171477 0.079853997
-0.159152 -0.17157 0.080435999
-0.159217 -0.17195401 0.080288
-0.159464 -0.172197 0.080493003
-0.15947799 -0.172622 0.080243997
-0.15951601 -0.17302801 0.080044001
-0.159748 -0.173283 0.080218002
-0.16003101 -0.17349701 0.080491997
-0.16029701 -0.173724 0.080734998
-0.16073 -0.17381901 0.081302002
-0.16078299 -0.17421301 0.081130996
-0.161036 -0.174449 0.081347004
-0.16130801 -0.174669 0.081603996
-0.161587 -0.17488299 0.081871003
-0.16201501 -0.174977 0.082432002
-0.162083 -0.175359 0.082290001
-0.162323 -0.175602 0.082484998
-0.162568 -0.175842 0.082687996
-0.162615 -0.17624199 0.082503997
-0.162682 -0.176626 0.082359001
-0.162935 -0.17685799 0.082579002
-0.16336 -0.176948 0.083137996
-0.16341899 -0.177339 0.082975
-0.163664 -0.177577 0.083180003
-0.163895 -0.177825 0.083359003
-0.16395199 -0.17821801 0.083192997
-0.164373 -0.178308 0.083746001
-0.16444799 -0.17868499 0.083617002
-0.164711 -0.178905 0.083857998
-0.164959 -0.179138 0.084071003
-0.16521201 -0.17936601 0.084293
-0.165446 -0.179609 0.084480003
-0.165529 -0.17997999 0.084365003
-0.16596501 -0.180051 0.084951997
-0.16621099 -0.180283 0.085161999
-0.166263 -0.18068001 0.084986001
-0.16650499 -0.180914 0.085189998
-0.16676401 -0.181134 0.085424997
-0.167007 -0.18136699 0.085630998
-0.167236 -0.181611 0.085809
-0.167685 -0.181665 0.086424001
-0.00012899999 0.051745001 -0.0084889997
-0.00156 0.051082 -0.0068350001
-0.0019769999 0.050643001 -0.0065080002
-0.0019729999 0.050296001 -0.006732
-0.001931 0.049958002 -0.0070079998
-0.0018269999 0.049632002 -0.0073640002
-0.001729 0.049304001 -0.007712
-0.002052 0.048886001 -0.0075090001
-0.002014 0.048544999 -0.0077789999
-0.0024540001 0.048101999 -0.0074200002
-0.003333 0.047566999 -0.0064849998
-0.0037990001 0.047120001 -0.0060930001
-0.0037789999 0.046776 -0.0063390001
-0.004123 0.046355002 -0.0061050002
-0.0040449998 0.046022002 -0.0064289998
-0.003976 0.045685999 -0.0067420001
-0.0043319999 0.045263 -0.0064920001
-0.004739 0.044829998 -0.0061769998
-0.0047189998 0.044484001 -0.0064229998
-0.0046740002 0.044142999 -0.0067050001
-0.0049919998 0.043728001 -0.0065049999
-0.0048779999 0.043400001 -0.006877
-0.0047690002 0.04307 -0.0072440002
-0.0047030002 0.042730998 -0.007553
-0.0050349999 0.042314 -0.0073370002
-0.0045750001 0.042050999 -0.0081679998
-0.004582 0.041696999 -0.008382
-0.0049379999 0.041274 -0.0081329998
-0.15687899 -0.166186 0.081022002
-0.156881 -0.166614 0.080753997
-0.157107 -0.166875 0.080917001
-0.156937 -0.167431 0.080320001
-0.156942 -0.167858 0.080057003
-0.156949 -0.168284 0.079797998
-0.157157 -0.168559 0.079925999
-0.15700699 -0.16910399 0.079365
-0.157065 -0.169493 0.079203002
-0.15750501 -0.169594 0.079777002
-0.157565 -0.169981 0.079618998
-0.15779699 -0.170238 0.079795003
-0.15784299 -0.170637 0.079608001
-0.15790001 -0.171028 0.079443999
-0.158346 -0.17112 0.080032997
-0.158601 -0.171358 0.080251999
-0.158848 -0.171601 0.080456004
-0.158898 -0.17199799 0.080278002
-0.15894499 -0.172396 0.080095001
-0.15936901 -0.172502 0.080642
-0.159431 -0.17288899 0.080487996
-0.159504 -0.17326801 0.080353998
-0.159959 -0.173347 0.080963001
-0.160405 -0.17343099 0.081556
-0.160458 -0.173825 0.081385002
-0.160505 -0.174224 0.081201002
-0.160568 -0.174611 0.081047997
-0.16100401 -0.17470101 0.081623003
-0.161072 -0.17508399 0.081479996
-0.161498 -0.17518 0.082036003
-0.16156299 -0.175565 0.081887998
-0.161808 -0.175806 0.082089998
-0.162071 -0.17603 0.082330003
-0.162332 -0.176257 0.082563996
-0.16256601 -0.176505 0.082746997
-0.162801 -0.176751 0.082932003
-0.162844 -0.177155 0.082737997
-0.163091 -0.17739201 0.082947001
-0.16316999 -0.177766 0.082826003
-0.16361099 -0.17784099 0.083416998
-0.16365799 -0.178241 0.083232999
-0.163893 -0.178487 0.083416998
-0.16413601 -0.17872401 0.083619997
-0.16440301 -0.178941 0.083871
-0.164634 -0.179188 0.084048003
-0.164719 -0.17955799 0.083938003
-0.164785 -0.179943 0.083789997
-0.165222 -0.180015 0.084377997
-0.165656 -0.180089 0.084959999
-0.165923 -0.18030199 0.085212
-0.166162 -0.18054 0.085409001
-0.16622099 -0.18093 0.085248001
-0.166264 -0.181335 0.085055001
-0.166492 -0.181582 0.085229002
-0.16675 -0.18180101 0.085464001
-0.167018 -0.18201201 0.085718997
0.00042900001 0.051385 -0.0087249996
-4.9999999e-06 0.050942 -0.0083769998
-0.00082800002 0.050413001 -0.007518
-0.000818 0.050067 -0.0077510001
-0.001214 0.049632002 -0.0074519999
-0.001238 0.049277999 -0.00764
-0.0016890001 0.048833001 -0.0072679999
-0.00251 0.048308998 -0.0064090001
-0.0024270001 0.047977999 -0.0067389999
-0.0023330001 0.047649 -0.0070830001
-0.002691 0.047224 -0.0068319999
-0.0031580001 0.046776999 -0.0064380001
-0.0035910001 0.046337999 -0.006089
-0.004032 0.045897 -0.0057279998
-0.0039840001 0.045558002 -0.0060109999
-0.0039209998 0.045221001 -0.0063149999
-0.0042329999 0.044808 -0.0061240001
-0.004156 0.044473 -0.0064460002
-0.0036190001 0.044231001 -0.0073779998
-0.003912 0.043821 -0.0072110002
-0.0034409999 0.043563999 -0.0080570001
-0.0038630001 0.043127 -0.0077209999
-0.0047260001 0.042603999 -0.0068009999
-0.005196 0.042160001 -0.0064010001
-0.0051290002 0.041822001 -0.0067110001
-0.0045190002 0.041588001 -0.0077419998
-0.0034129999 0.041450001 -0.0094320001
-0.003298 0.041117001 -0.0098080002
-0.15637 -0.166621 0.080807
-0.156394 -0.167032 0.080582
-0.156203 -0.167603 0.079944998
-0.156201 -0.168036 0.079668
-0.15622801 -0.168448 0.079447001
-0.156462 -0.168704 0.079625003
-0.156691 -0.168964 0.079792
-0.156739 -0.16936 0.079611003
-0.156965 -0.169623 0.079773001
-0.156817 -0.170168 0.079216003
-0.156863 -0.17056701 0.07903
-0.15729199 -0.170674 0.079582997
-0.15735599 -0.17106 0.079433002
-0.157804 -0.17115 0.080023997
-0.15806299 -0.17138501 0.080251001
-0.15834001 -0.171606 0.080513999
-0.15839 -0.172002 0.080335997
-0.15861499 -0.172263 0.080496997
-0.158648 -0.172672 0.080287002
-0.15891001 -0.172904 0.080519997
-0.15898 -0.17328499 0.080381997
-0.159418 -0.17337701 0.080957003
-0.15947101 -0.17377201 0.080784
-0.15972 -0.17401101 0.080995001
-0.159981 -0.174242 0.081225999
-0.16025101 -0.174464 0.081477001
-0.16050801 -0.174696 0.081703
-0.160758 -0.174933 0.081915997
-0.160991 -0.175184 0.082094997
-0.161046 -0.175577 0.081927001
-0.161102 -0.175969 0.081761003
-0.161529 -0.176062 0.082321003
-0.161587 -0.17645399 0.082157001
-0.16164801 -0.176843 0.081998996
-0.162076 -0.17693301 0.082562998
-0.162145 -0.177315 0.082420997
-0.162569 -0.177406 0.082979001
-0.16262899 -0.17779601 0.082819
-0.16305999 -0.17788 0.083389997
-0.163142 -0.178251 0.083276004
-0.163582 -0.178326 0.083866
-0.16364001 -0.178718 0.083701998
-0.163692 -0.179115 0.083526
-0.164114 -0.17920201 0.084082998
-0.164197 -0.179572 0.083968997
-0.16464899 -0.17963199 0.084587
-0.164727 -0.180007 0.084462002
-0.165144 -0.180094 0.085011996
-0.16501801 -0.18064301 0.084482998
-0.16489001 -0.18119401 0.083949
-0.16513699 -0.181426 0.084160998
-0.165759 -0.181336 0.085119002
-0.16617601 -0.18142 0.085670002
-0.166234 -0.181811 0.085506998
-0.166655 -0.18189 0.086067997
0.001254 0.051809002 -0.0090819998
0.000272 0.051244002 -0.0080169998
-0.000121 0.050810002 -0.0077220001
-0.00056399999 0.050365001 -0.0073609999
-0.00054600002 0.050020002 -0.0076040002
-0.00092600001 0.049589001 -0.0073259999
-0.00084300002 0.049259 -0.0076549998
-0.00122 0.048829 -0.0073790001
-0.001692 0.048379 -0.0069800001
-0.002166 0.047929998 -0.006577
-0.0029879999 0.047407001 -0.0057160002
-0.002936 0.04707 -0.0060040001
-0.002876 0.046732999 -0.0063029998
-0.0027999999 0.046399999 -0.0066240001
-0.003118 0.045984998 -0.006426
-0.0030700001 0.045644999 -0.0067099999
-0.003485 0.045209002 -0.0063829999
-0.0038630001 0.044782002 -0.0061059999
-0.0042280001 0.044358 -0.005845
-0.0041660001 0.044020999 -0.006147
-0.004092 0.043685 -0.0064659999
-0.0040139998 0.04335 -0.00679
-0.003889 0.043023001 -0.0071780002
-0.0042280001 0.042603999 -0.0069510001
-0.0041959998 0.042259 -0.0072169998
-0.0041820002 0.041909002 -0.007458
-0.0040620002 0.041579999 -0.0078379996
-0.00348 0.041340001 -0.0088330004
-0.156278 -0.166447 0.081345998
-0.155848 -0.16719399 0.080251001
-0.155821 -0.16764399 0.079929002
-0.15602 -0.167927 0.080038004
-0.15626401 -0.168175 0.080236003
-0.15631799 -0.168566 0.080066003
-0.156371 -0.16895799 0.079896003
-0.156395 -0.16937301 0.079668999
-0.1564 -0.169801 0.079406001
-0.156417 -0.170222 0.079164997
-0.156859 -0.17032 0.079742
-0.156955 -0.17068 0.079654999
-0.157226 -0.170908 0.079903997
-0.15746801 -0.171156 0.080096997
-0.157508 -0.17156 0.079899997
-0.157739 -0.171817 0.080072999
-0.15800001 -0.17205 0.080302998
-0.158075 -0.172427 0.080173999
-0.15850499 -0.172527 0.080734
-0.158554 -0.172925 0.080554001
-0.158613 -0.173315 0.080393001
-0.159051 -0.173407 0.080969997
-0.159126 -0.173784 0.080840997
-0.159373 -0.174025 0.081046
-0.159604 -0.174279 0.081220001
-0.15966199 -0.17467 0.081058003
-0.15990099 -0.174917 0.081248
-0.16016801 -0.17514201 0.081491999
-0.160409 -0.175386 0.081688002
-0.160652 -0.17562801 0.081886001
-0.16071001 -0.176019 0.081725001
-0.16096701 -0.17625 0.081951
-0.16123199 -0.176474 0.082193002
-0.161653 -0.176569 0.082741998
-0.16171101 -0.176961 0.082579002
-0.16214401 -0.177045 0.083153002
-0.162411 -0.177265 0.083401002
-0.162489 -0.17763899 0.083278
-0.162724 -0.177884 0.083463997
-0.16275901 -0.178295 0.083255999
-0.16282301 -0.178682 0.083104998
-0.16308901 -0.178901 0.083351001
-0.16334499 -0.17912801 0.083577998
-0.16375799 -0.179222 0.084118001
-0.163828 -0.17960399 0.083976999
-0.16425499 -0.179685 0.084545001
-0.164332 -0.180061 0.084418997
-0.16458499 -0.180288 0.084642
-0.164829 -0.18052199 0.084849
-0.165253 -0.180601 0.085413001
-0.165318 -0.180987 0.085262999
-0.16538 -0.181376 0.085107997
-0.165619 -0.181613 0.085303001
-0.16605 -0.181684 0.085882999
-0.16613901 -0.18204901 0.085781999
0.001849 0.051803 -0.0091660004
0.000825 0.051229 -0.008045
0.000432 0.050794002 -0.0077490001
2.7e-05 0.050356999 -0.0074399998
8.0999998e-05 0.050021 -0.0077300002
0.000103 0.049676999 -0.007979
-0.00028499999 0.049244002 -0.0076899999
-0.00069800002 0.048806001 -0.0073680002
-0.001053 0.048381999 -0.007121
-0.001 0.048044 -0.0074120001
-0.00098600006 0.047697 -0.0076509998
-0.001419 0.047256 -0.0073020002
-0.002293 0.046723999 -0.0063720001
-0.0023040001 0.046372 -0.006577
-0.0031260001 0.045852002 -0.005715
-0.0031039999 0.045508001 -0.0059639998
-0.0034709999 0.045083001 -0.0057020001
-0.0034080001 0.044746 -0.0060040001
-0.003332 0.044411998 -0.0063260002
-0.003236 0.044080999 -0.0066749998
-0.003091 0.043759 -0.0070870002
-0.00293 0.043439999 -0.007522
-0.0024230001 0.043189 -0.0084149996
-0.002783 0.042764999 -0.008161
-0.0027630001 0.042415999 -0.0084109996
-0.0031880001 0.041979 -0.0080700004
-0.003153 0.041632999 -0.0083410004
-0.0034469999 0.041221999 -0.0081740003
-0.002849 0.040984001 -0.0091899997
-0.15597899 -0.166306 0.081789002
-0.15576901 -0.16689099 0.081115
-0.155764 -0.16732299 0.080835
-0.155779 -0.167742 0.080591001
-0.155573 -0.168327 0.079925001
-0.155588 -0.16874699 0.079681002
-0.155802 -0.169018 0.079820998
-0.15585899 -0.16940799 0.079655997
-0.155899 -0.169811 0.079458997
-0.156119 -0.170077 0.079609998
-0.15616401 -0.170476 0.079424001
-0.156413 -0.17072099 0.079628997
-0.156489 -0.171097 0.079502001
-0.15693501 -0.171189 0.080090001
-0.156992 -0.17158 0.079925999
-0.15722699 -0.17183299 0.080107003
-0.157483 -0.17207 0.080329001
-0.157729 -0.172314 0.080531001
-0.157777 -0.172712 0.080349997
-0.15802 -0.172958 0.080545999
-0.15806299 -0.173361 0.080353998
-0.158297 -0.173614 0.080532998
-0.15851299 -0.17388099 0.080677003
-0.158602 -0.174247 0.080576003
-0.15907501 -0.174309 0.081220999
-0.159343 -0.17453399 0.081467003
-0.15939599 -0.17492799 0.081295997
-0.159629 -0.17518 0.081473999
-0.159886 -0.175411 0.081701003
-0.160151 -0.17563599 0.081942998
-0.160404 -0.175869 0.082162
-0.16066 -0.176101 0.082386002
-0.16089401 -0.176349 0.082567997
-0.160947 -0.176744 0.082396001
-0.161191 -0.176984 0.082598001
-0.161448 -0.177212 0.082827002
-0.16169401 -0.177449 0.083034001
-0.161768 -0.177828 0.082900003
-0.16220701 -0.17790499 0.083488002
-0.16264801 -0.17797901 0.084082
-0.162725 -0.178354 0.083956003
-0.162967 -0.178592 0.084155999
-0.16302 -0.17898799 0.083982997
-0.163256 -0.17923 0.084170997
-0.163507 -0.17945901 0.084390998
-0.163725 -0.179717 0.084544003
-0.163799 -0.180095 0.084412001
-0.16406 -0.180315 0.084651999
-0.164318 -0.180537 0.084886
-0.16435499 -0.18094701 0.084679998
-0.164566 -0.181208 0.084821001
-0.16443799 -0.181761 0.084287003
-0.164874 -0.18183 0.084873997
-0.165149 -0.182035 0.085143
-0.16579001 -0.181924 0.086142004
0.0021869999 0.051759001 -0.0090469997
0.0016439999 0.051291 -0.008556
0.00085100002 0.050767999 -0.0077379998
0.00086600002 0.050423 -0.0079770004
0.000439 0.049981002 -0.0076370002
0.00046499999 0.049637999 -0.0078910002
-0.00034599999 0.049114 -0.0070469999
-0.00036899999 0.048760999 -0.0072369999
-0.00081300002 0.048317 -0.0068729999
-0.001206 0.047885001 -0.006577
-0.001532 0.047467001 -0.0063689998
-0.001481 0.047129001 -0.0066559999
-0.001909 0.046689998 -0.0063140001
-0.00226 0.046268001 -0.0060709999
-0.002206 0.045929998 -0.0063629998
-0.002139 0.045593999 -0.0066709998
-0.0020900001 0.045254 -0.0069579999
-0.0024570001 0.044828001 -0.006695
-0.0024029999 0.044489 -0.0069869999
-0.0027729999 0.044062998 -0.0067199999
-0.003151 0.043636002 -0.0064420002
-0.003114 0.043292999 -0.0067119999
-0.0034779999 0.042869002 -0.0064519998
-0.00296 0.042619999 -0.0073600002
-0.0028009999 0.042298999 -0.007793
-0.002686 0.041969001 -0.0081679998
-0.0022239999 0.041706 -0.0090039996
-0.002105 0.041375 -0.009385
-0.003519 0.040394001 -0.007956
-0.155362 -0.16692001 0.081142999
-0.155156 -0.167502 0.080477998
-0.15534399 -0.16779201 0.080567002
-0.155182 -0.16834401 0.079984002
-0.155402 -0.168611 0.080133997
-0.15522701 -0.169174 0.079526
-0.15544701 -0.169441 0.079674996
-0.155496 -0.169837 0.079497002
-0.155737 -0.17008799 0.079686999
-0.15578 -0.170489 0.079496004
-0.156 -0.170755 0.079646997
-0.156046 -0.17115401 0.079461999
-0.156285 -0.171405 0.07965
-0.156551 -0.171635 0.079889998
-0.15679801 -0.17188001 0.080091998
-0.156859 -0.172268 0.079935998
-0.15710001 -0.172517 0.080127999
-0.15715601 -0.17290901 0.079962
-0.15759701 -0.17300101 0.080542997
-0.157663 -0.17338499 0.080395997
-0.157915 -0.17362399 0.08061
-0.15814599 -0.173878 0.080784999
-0.158416 -0.174101 0.081035003
-0.15868799 -0.17432299 0.081289001
-0.15895499 -0.174547 0.081533998
-0.15918601 -0.17480101 0.081707999
-0.159238 -0.17519601 0.081533
-0.1593 -0.175584 0.081378996
-0.159557 -0.175816 0.081605002
-0.15982001 -0.17604201 0.081844002
-0.160252 -0.176131 0.082413003
-0.160318 -0.176515 0.082267001
-0.16074499 -0.176606 0.082827002
-0.160808 -0.176994 0.082672998
-0.16103899 -0.17724399 0.082850002
-0.16108701 -0.177643 0.082668997
-0.16133299 -0.17788 0.082874998
-0.161594 -0.178105 0.083111003
-0.161854 -0.17832901 0.083346002
-0.16211601 -0.178551 0.083586
-0.162358 -0.17879 0.083784997
-0.162606 -0.179023 0.083998002
-0.16284899 -0.17926 0.084200002
-0.162908 -0.17965101 0.084037997
-0.16312499 -0.17990901 0.084190004
-0.16336 -0.180151 0.084377997
-0.16344699 -0.180519 0.084270999
-0.16388901 -0.180585 0.084871002
-0.163948 -0.180976 0.084709004
-0.16419099 -0.18121099 0.084912002
-0.164445 -0.181435 0.085138999
-0.16486 -0.181521 0.085685
-0.16491701 -0.181914 0.085520998
-0.165154 -0.182151 0.085713997
0.0026189999 0.051743999 -0.009056
0.002085 0.051277999 -0.0085760001
0.001695 0.050843 -0.008285
0.001677 0.050491001 -0.0084819999
0.001267 0.050051998 -0.008165
0.00089700002 0.049623001 -0.0078999996
7.0000002e-05 0.049095999 -0.0070349998
3.1e-05 0.048739001 -0.0072030001
-0.00084400002 0.048204001 -0.006273
-0.00080799998 0.047862999 -0.0065410002
-0.001156 0.04744 -0.006304
-0.001054 0.047113001 -0.0066570002
-0.001446 0.046682 -0.006362
-0.001808 0.046257 -0.0061050002
-0.001772 0.045915 -0.0063740001
-0.001694 0.045582 -0.006697
-0.001635 0.045244001 -0.0069960002
-0.00161 0.044898 -0.007251
-0.002013 0.044465002 -0.006941
-0.0024089999 0.044034 -0.0066379998
-0.002782 0.043607999 -0.006366
-0.002724 0.043269001 -0.0066650002
-0.002686 0.042925999 -0.006937
-0.0030449999 0.042502999 -0.0066840001
-0.002963 0.042167 -0.0070139999
-0.0032279999 0.041763 -0.0068859998
-0.0026990001 0.041514002 -0.0078090001
-0.0021240001 0.041271999 -0.0087949997
-0.001962 0.040948998 -0.009234
-0.001443 0.040693998 -0.010146
-0.155168 -0.166768 0.081593998
-0.15469401 -0.167548 0.080415003
-0.154493 -0.168128 0.079758003
-0.154725 -0.168386 0.079930998
-0.154981 -0.168626 0.080150001
-0.15500399 -0.16903999 0.079922996
-0.15503401 -0.169451 0.079705998
-0.15505099 -0.16987 0.079466999
-0.155286 -0.17012601 0.079645999
-0.155356 -0.170506 0.079507001
-0.155606 -0.17075001 0.079714999
-0.155843 -0.171002 0.079899997
-0.155889 -0.17140099 0.079714999
-0.15614 -0.171643 0.079925001
-0.156597 -0.171726 0.080534004
-0.15666699 -0.172106 0.080397002
-0.15673 -0.172492 0.080243997
-0.15695301 -0.172755 0.080401003
-0.157188 -0.173007 0.080582999
-0.157231 -0.173409 0.080390997
-0.157469 -0.173659 0.080577999
-0.157699 -0.173914 0.080750003
-0.157787 -0.174282 0.080645002
-0.15824699 -0.174354 0.081266001
-0.15852199 -0.17457201 0.081527002
-0.158765 -0.174816 0.081725001
-0.158823 -0.175207 0.081561998
-0.15923899 -0.175311 0.082098998
-0.15929601 -0.17570201 0.081935003
-0.159373 -0.17607801 0.081808999
-0.159824 -0.17615201 0.082415998
-0.16028599 -0.17621499 0.083045997
-0.160356 -0.176596 0.082906999
-0.160587 -0.176846 0.083082996
-0.16062699 -0.177251 0.082886003
-0.160677 -0.17765 0.082705997
-0.1611 -0.17774101 0.083261997
-0.16116001 -0.178131 0.083102003
-0.161402 -0.17837 0.083301
-0.16148201 -0.178744 0.083181001
-0.161927 -0.178813 0.083783001
-0.16218799 -0.17903499 0.084021002
-0.16242801 -0.17927501 0.084215999
-0.16266599 -0.179516 0.084408998
-0.162727 -0.179904 0.084252998
-0.162982 -0.18013 0.084480003
-0.163239 -0.180353 0.084711999
-0.16349301 -0.18057901 0.084936
-0.163717 -0.180829 0.085104004
-0.16376001 -0.181234 0.084911004
-0.163991 -0.18147799 0.085091002
-0.16422699 -0.18171801 0.085281998
-0.164498 -0.181927 0.085542001
-0.164205 -0.182624 0.084677003
0.003118 0.051708002 -0.0089910002
0.002107 0.051137 -0.007886
0.0021250001 0.050792001 -0.00813
0.0021790001 0.050455 -0.0084210001
0.001835 0.050030999 -0.0081900004
0.0014909999 0.049608 -0.0079589998
0.001134 0.049182002 -0.0077109998
0.00115 0.048836 -0.007952
0.00072700001 0.048395999 -0.0076179998
0.00034299999 0.047965001 -0.0073330002
-7.3000003e-05 0.047527999 -0.007007
-0.00048700001 0.047091 -0.0066820001
-0.00046000001 0.046748001 -0.0069380002
-0.00038899999 0.046413001 -0.0072519998
-0.00033499999 0.046073999 -0.0075449999
-0.001149 0.045554999 -0.006693
-0.001588 0.045115001 -0.006335
-0.001987 0.044684 -0.006029
-0.001909 0.044349 -0.0063530002
-0.001392 0.044103 -0.0072579999
-0.001744 0.043680999 -0.0070130001
-0.0017190001 0.043334998 -0.0072690002
-0.0021009999 0.042907 -0.0069849999
-0.0020250001 0.042571001 -0.007309
-0.002381 0.042148001 -0.007059
-0.002348 0.041802 -0.0073250001
-0.002662 0.041389 -0.0071319998
-0.002109 0.041143 -0.0080880001
-0.0019789999 0.040814999 -0.0084840003
-0.00088100001 0.040670998 -0.010165
-0.154402 -0.166971 0.081166998
-0.154167 -0.167575 0.080445997
-0.154384 -0.167844 0.080588996
-0.15440001 -0.168262 0.080348998
