# .PCD v0.7 - Point Cloud Data file format
VERSION 0.7
FIELDS x y z
SIZE 4 4 4
TYPE F F F
COUNT 1 1 1
WIDTH 1461
HEIGHT 1
VIEWPOINT 0 0 0 1 0 0 0
POINTS 1461
DATA ascii
-0.113946 -0.024453999 -0.26552099
-0.113943 -0.024375999 -0.26552299
-0.113939 -0.024298999 -0.265533
-0.113936 -0.024220999 -0.26554501
-0.113933 -0.024145 -0.26554799
-0.11393 -0.024067 -0.265542
-0.113927 -0.023991 -0.265544
-0.113924 -0.023913 -0.265542
-0.11392 -0.023835 -0.265542
-0.113917 -0.023759 -0.265549
-0.113914 -0.023682 -0.26554099
-0.113912 -0.023604 -0.265531
-0.113909 -0.023528 -0.26552901
-0.113906 -0.02345 -0.26552901
-0.113903 -0.023372 -0.26552099
-0.1139 -0.023296 -0.26551601
-0.113897 -0.023218 -0.26552001
-0.113893 -0.023142001 -0.26552799
-0.11389 -0.023064001 -0.26553199
-0.113887 -0.022986 -0.26552799
-0.113884 -0.022910001 -0.26553401
-0.11388 -0.022832001 -0.26554301
-0.113877 -0.022755999 -0.26553899
-0.113874 -0.022678001 -0.265535
-0.113871 -0.022601999 -0.26554701
-0.113867 -0.022523999 -0.265551
-0.113864 -0.022448 -0.26555401
-0.113861 -0.022369999 -0.26554799
-0.113859 -0.022291999 -0.265544
-0.113855 -0.022216 -0.26554599
-0.113852 -0.022138 -0.265542
-0.113849 -0.022062 -0.265544
-0.113846 -0.021984 -0.265549
-0.113843 -0.021906 -0.26554301
-0.11384 -0.02183 -0.26554301
-0.113837 -0.021752 -0.26554501
-0.113834 -0.021677 -0.26554501
-0.113831 -0.021598 -0.26554799
-0.113827 -0.021521 -0.26554799
-0.113825 -0.021445001 -0.265542
-0.113822 -0.021367 -0.26554
-0.113819 -0.021291001 -0.26554
-0.113815 -0.021213001 -0.26554599
-0.113812 -0.021135001 -0.26554701
-0.113809 -0.021059001 -0.26554501
-0.113806 -0.020981001 -0.26553899
-0.113804 -0.020903001 -0.265531
-0.113801 -0.020826999 -0.265531
-0.113798 -0.020749001 -0.26552901
-0.113795 -0.020674 -0.26551601
-0.113792 -0.020595999 -0.26550999
-0.113789 -0.020517999 -0.265508
-0.113786 -0.020442 -0.265508
-0.113783 -0.020364 -0.26551601
-0.113779 -0.020288 -0.26552701
-0.113776 -0.02021 -0.26552501
-0.113773 -0.020132 -0.265517
-0.11377 -0.020056 -0.265515
-0.113767 -0.019978 -0.265515
-0.113765 -0.0199 -0.26550099
-0.113762 -0.019825 -0.26549
-0.11376 -0.019747 -0.26548201
-0.113757 -0.019669 -0.26547799
-0.113753 -0.019593 -0.265488
-0.113749 -0.019515 -0.26550201
-0.113746 -0.019438 -0.26551101
-0.113743 -0.01936 -0.265515
-0.113739 -0.019284001 -0.265517
-0.113736 -0.019206 -0.26551899
-0.113733 -0.019130001 -0.26552099
-0.11373 -0.019052001 -0.26551899
-0.113727 -0.018975001 -0.26551199
-0.113725 -0.018898999 -0.26550201
-0.113722 -0.018820999 -0.26549599
-0.113719 -0.018745 -0.26550201
-0.113715 -0.018666999 -0.265508
-0.113713 -0.018588999 -0.265499
-0.11371 -0.018513 -0.26548699
-0.113707 -0.018435 -0.26548901
-0.113704 -0.018358 -0.26548299
-0.113701 -0.018282 -0.265477
-0.113698 -0.018204 -0.26548699
-0.113694 -0.018127 -0.26550201
-0.113691 -0.018049 -0.26550201
-0.113688 -0.017974 -0.26549599
-0.113685 -0.017896 -0.26549199
-0.113682 -0.017818 -0.26549199
-0.113679 -0.017742001 -0.26549101
-0.113676 -0.017664 -0.26548499
-0.113673 -0.017588001 -0.26548499
-0.11367 -0.017510001 -0.265481
-0.113667 -0.017432 -0.265477
-0.113664 -0.017356001 -0.26548499
-0.113661 -0.017278001 -0.265488
-0.113658 -0.017200001 -0.26548201
-0.113655 -0.017123999 -0.26547799
-0.113652 -0.017046001 -0.26548201
-0.113648 -0.016969999 -0.26549
-0.113645 -0.016891999 -0.265486
-0.113643 -0.016814999 -0.26546901
-0.11364 -0.016739 -0.265459
-0.113637 -0.016661 -0.265461
-0.113634 -0.016585 -0.26546901
-0.113631 -0.016507 -0.26546499
-0.113628 -0.016429 -0.26545599
-0.113626 -0.016353 -0.26544401
-0.113623 -0.016276 -0.26542801
-0.113621 -0.0162 -0.265414
-0.113618 -0.016122 -0.26541001
-0.113614 -0.016044 -0.26541799
-0.113611 -0.015968001 -0.26541901
-0.113609 -0.01589 -0.26541099
-0.113606 -0.015814999 -0.265407
-0.113603 -0.015737001 -0.265407
-0.1136 -0.015659001 -0.265405
-0.113597 -0.015583 -0.26540601
-0.113593 -0.015505 -0.26541001
-0.11359 -0.015429 -0.265416
-0.113587 -0.015351 -0.265412
-0.113584 -0.015273 -0.26540199
-0.113582 -0.015197 -0.26539701
-0.113578 -0.015119 -0.265403
-0.113575 -0.015043 -0.26540101
-0.113572 -0.014965 -0.26539701
-0.113569 -0.014887 -0.26539901
-0.113566 -0.014811 -0.26539901
-0.113563 -0.014733 -0.265396
-0.11356 -0.014657 -0.265396
-0.113557 -0.01458 -0.26539001
-0.113555 -0.014502 -0.26538199
-0.113552 -0.014426 -0.265376
-0.113549 -0.014348 -0.26537201
-0.113546 -0.014272 -0.265367
-0.113543 -0.014194 -0.26535901
-0.113541 -0.014117 -0.265351
-0.113538 -0.014041 -0.265351
-0.113534 -0.013963 -0.26535699
-0.113531 -0.013887 -0.26536
-0.113528 -0.013809 -0.265356
-0.113525 -0.013731 -0.26535401
-0.113522 -0.013655 -0.265356
-0.113519 -0.013577 -0.265358
-0.113516 -0.013501 -0.26535299
-0.113513 -0.013423 -0.26534501
-0.11351 -0.013345 -0.26534301
-0.113507 -0.013269 -0.26533899
-0.113504 -0.013192 -0.265333
-0.113501 -0.013113 -0.26533699
-0.113498 -0.013038 -0.265338
-0.113495 -0.01296 -0.26533201
-0.113492 -0.012884 -0.26532799
-0.113489 -0.012806 -0.26533201
-0.113486 -0.012728 -0.26532999
-0.113483 -0.012652 -0.26532301
-0.11348 -0.012574 -0.26531899
-0.113477 -0.012498 -0.26531699
-0.113474 -0.01242 -0.26531899
-0.113471 -0.012342 -0.26532701
-0.113467 -0.012264 -0.265329
-0.113464 -0.012188 -0.26533201
-0.113461 -0.01211 -0.26532599
-0.113459 -0.012032 -0.265322
-0.113456 -0.011956 -0.265322
-0.113452 -0.011878 -0.265324
-0.113449 -0.011802 -0.265322
-0.113446 -0.011725 -0.26531899
-0.113443 -0.011647 -0.265315
-0.11344 -0.011571 -0.26531699
-0.113438 -0.011493 -0.26530901
-0.113435 -0.011417 -0.265297
-0.113432 -0.011339 -0.26529199
-0.113429 -0.011261 -0.26529199
-0.113426 -0.011186 -0.265288
-0.113424 -0.011108 -0.26527801
-0.113421 -0.011032 -0.26528001
-0.113417 -0.010954 -0.265284
-0.113414 -0.010876 -0.26528499
-0.113411 -0.0108 -0.26529101
-0.113407 -0.010722 -0.265297
-0.113404 -0.010644 -0.265297
-0.113401 -0.010568 -0.265295
-0.113398 -0.01049 -0.265295
-0.113395 -0.010412 -0.26529601
-0.113392 -0.010334 -0.26529399
-0.113389 -0.010258 -0.26529199
-0.113386 -0.01018 -0.26529399
-0.113383 -0.010102 -0.26529601
-0.11338 -0.010026 -0.26529101
-0.113377 -0.0099480003 -0.26528701
-0.113374 -0.0098700002 -0.26528299
-0.113371 -0.0097939996 -0.26528099
-0.113368 -0.0097169997 -0.265273
-0.113366 -0.0096410001 -0.26526299
-0.113363 -0.0095629999 -0.265264
-0.113359 -0.0094849998 -0.265266
-0.113357 -0.0094090002 -0.26526001
-0.113354 -0.009331 -0.26525399
-0.113351 -0.0092559997 -0.26524401
-0.113348 -0.0091779996 -0.26524499
-0.113344 -0.0090990001 -0.26525301
-0.113341 -0.009021 -0.26525301
-0.113338 -0.0089450004 -0.26525301
-0.113335 -0.0088670002 -0.265259
-0.113332 -0.0087890001 -0.26526299
-0.113328 -0.008711 -0.26526299
-0.113326 -0.0086359996 -0.26525199
-0.113323 -0.0085580004 -0.26524001
-0.113321 -0.0084819999 -0.26523399
-0.113318 -0.0084039997 -0.26523
-0.113315 -0.0083280001 -0.26522899
-0.113312 -0.00825 -0.26522499
-0.113309 -0.0081730001 -0.265223
-0.113306 -0.0080970004 -0.265223
-0.113302 -0.0080180001 -0.26522899
-0.113299 -0.0079399999 -0.265237
-0.113296 -0.0078619998 -0.265237
-0.113293 -0.0077840001 -0.26523599
-0.11329 -0.0077089998 -0.26523599
-0.113287 -0.0076310001 -0.26523399
-0.113284 -0.007553 -0.265228
-0.113281 -0.0074769999 -0.265228
-0.113278 -0.0073990002 -0.26522499
-0.113275 -0.0073230001 -0.265219
-0.113272 -0.007245 -0.265219
-0.113269 -0.0071669999 -0.26521701
-0.113266 -0.0070910002 -0.26520899
-0.113263 -0.0070130001 -0.26520699
-0.11326 -0.006935 -0.265214
-0.113257 -0.0068569998 -0.26521599
-0.113253 -0.0067790002 -0.265214
-0.113251 -0.0067039998 -0.26520199
-0.113248 -0.0066260002 -0.26519001
-0.113245 -0.00655 -0.26519299
-0.113242 -0.0064699999 -0.265203
-0.113238 -0.0063939998 -0.26520899
-0.113236 -0.0063160001 -0.26519901
-0.113233 -0.00624 -0.265183
-0.11323 -0.0061619999 -0.26519299
-0.113226 -0.0060820002 -0.265203
-0.113223 -0.0060060001 -0.26519799
-0.113221 -0.00593 -0.26519001
-0.113218 -0.0058530001 -0.26517999
-0.113216 -0.005777 -0.26516601
-0.113213 -0.0056989999 -0.265158
-0.11321 -0.0056230002 -0.26515299
-0.113208 -0.0055479999 -0.26513699
-0.113206 -0.0054720002 -0.265109
-0.113203 -0.0053949999 -0.26510701
-0.113199 -0.005314 -0.265127
-0.113195 -0.0052359998 -0.26514
-0.113192 -0.0051600002 -0.26514
-0.113189 -0.005082 -0.26514
-0.113186 -0.0050039999 -0.26514599
-0.113183 -0.0049259998 -0.26514399
-0.11318 -0.0048480001 -0.26514399
-0.113176 -0.00477 -0.26515099
-0.113173 -0.0046919999 -0.26515099
-0.11317 -0.0046160002 -0.265145
-0.113167 -0.0045380001 -0.26513901
-0.113165 -0.004462 -0.265131
-0.113162 -0.0043850001 -0.26512501
-0.113159 -0.004307 -0.26512599
-0.113156 -0.0042309999 -0.26512599
-0.113153 -0.0041530002 -0.265122
-0.11315 -0.0040750001 -0.265118
-0.113147 -0.0039989999 -0.265118
-0.113143 -0.0039189998 -0.26512399
-0.11314 -0.0038409999 -0.26513299
-0.113137 -0.003763 -0.26513499
-0.113133 -0.0036849999 -0.26513499
-0.113131 -0.003609 -0.265129
-0.113128 -0.0035310001 -0.26512301
-0.113125 -0.003455 -0.265118
-0.113122 -0.0033750001 -0.26512399
-0.113118 -0.003299 -0.26512799
-0.113115 -0.0032210001 -0.26512399
-0.113112 -0.003143 -0.265122
-0.113109 -0.0030650001 -0.26512
-0.113106 -0.0029879999 -0.265118
-0.113104 -0.0029120001 -0.265111
-0.1131 -0.0028339999 -0.265111
-0.113097 -0.002756 -0.265113
-0.113094 -0.0026779999 -0.26511899
-0.11309 -0.0026 -0.26512501
-0.113087 -0.0025220001 -0.26512301
-0.113085 -0.002446 -0.26511201
-0.113082 -0.0023680001 -0.26510599
-0.113079 -0.002292 -0.265102
-0.113076 -0.0022140001 -0.26509601
-0.113073 -0.002136 -0.26509401
-0.11307 -0.0020610001 -0.265095
-0.113067 -0.001981 -0.26509699
-0.113064 -0.001905 -0.26509699
-0.11306 -0.001824 -0.26510301
-0.113058 -0.001749 -0.26510099
-0.113055 -0.001671 -0.265093
-0.113052 -0.001593 -0.26509401
-0.113049 -0.001515 -0.26509401
-0.113046 -0.001439 -0.26509199
-0.113043 -0.001361 -0.26508799
-0.113039 -0.001281 -0.26509601
-0.113035 -0.001203 -0.26510599
-0.113033 -0.001127 -0.26509899
-0.11303 -0.001049 -0.265093
-0.113027 -0.000971 -0.265091
-0.113024 -0.00089299999 -0.265093
-0.113021 -0.00081499998 -0.265091
-0.113018 -0.00073899998 -0.26508701
-0.113015 -0.00066100003 -0.26508799
-0.113011 -0.00058300002 -0.26509199
-0.113008 -0.00050299999 -0.26509601
-0.113005 -0.00042699999 -0.26509199
-0.113003 -0.000352 -0.26507601
-0.113001 -0.00027600001 -0.26506099
-0.112998 -0.00019799999 -0.265057
-0.112995 -0.00012 -0.265053
-0.112992 -4.5000001e-05 -0.26504901
-0.112989 3.3e-05 -0.26504499
-0.112986 0.000111 -0.26504299
-0.112983 0.000189 -0.26504001
-0.11298 0.00026500001 -0.26503399
-0.112977 0.00034299999 -0.265028
-0.112974 0.000421 -0.265026
-0.112971 0.00049900002 -0.265026
-0.112968 0.00057700003 -0.265028
-0.112965 0.00065499998 -0.26502499
-0.112962 0.00073000003 -0.265019
-0.112959 0.00080799998 -0.265017
-0.112956 0.00088599999 -0.26501101
-0.112954 0.00096199999 -0.26500699
-0.112951 0.00104 -0.26499599
-0.112948 0.001116 -0.26499
-0.112945 0.001194 -0.26499799
-0.112941 0.001272 -0.26499999
-0.112939 0.001347 -0.26498601
-0.112937 0.001425 -0.264974
-0.112933 0.001503 -0.264983
-0.11293 0.001581 -0.26498899
-0.112927 0.0016589999 -0.264983
-0.112924 0.001737 -0.264979
-0.112921 0.001815 -0.26497701
-0.112918 0.001891 -0.26497501
-0.112915 0.0019690001 -0.264972
-0.112912 0.002047 -0.264972
-0.112909 0.0021250001 -0.264972
-0.112905 0.002203 -0.26497799
-0.112902 0.0022809999 -0.264974
-0.1129 0.002356 -0.26496199
-0.112897 0.0024339999 -0.26495299
-0.112894 0.00251 -0.26495299
-0.112891 0.0025899999 -0.26495901
-0.112888 0.0026680001 -0.26495901
-0.112884 0.002746 -0.264961
-0.112881 0.0028240001 -0.264965
-0.112878 0.002902 -0.264972
-0.112874 0.0029819999 -0.264972
-0.112872 0.003058 -0.26496401
-0.112869 0.0031359999 -0.26496401
-0.112865 0.003216 -0.26497599
-0.112861 0.0032939999 -0.26497999
-0.112858 0.0033720001 -0.26498201
-0.112855 0.00345 -0.26498899
-0.112851 0.0035280001 -0.26499501
-0.112848 0.003608 -0.26499301
-0.112845 0.0036840001 -0.26499099
-0.112843 0.003762 -0.264983
-0.11284 0.0038379999 -0.26497501
-0.112837 0.003916 -0.26497999
-0.112833 0.0039960002 -0.26498201
-0.112831 0.0040719998 -0.26497599
-0.112828 0.0041490002 -0.26496801
-0.112825 0.0042249998 -0.26496199
-0.112822 0.0043029999 -0.26496401
-0.112818 0.0043830001 -0.26496899
-0.112816 0.0044590002 -0.264963
-0.112813 0.0045369999 -0.26495501
-0.11281 0.004613 -0.26495099
-0.112807 0.0046910001 -0.264945
-0.112805 0.004766 -0.264934
-0.112802 0.0048440001 -0.26493001
-0.112799 0.0049220002 -0.264934
-0.112796 0.0049999999 -0.26493001
-0.112793 0.005076 -0.26492399
-0.11279 0.0051540001 -0.26492399
-0.112787 0.0052319998 -0.264925
-0.112784 0.0053099999 -0.26491699
-0.112781 0.005386 -0.264909
-0.112778 0.0054629999 -0.26490301
-0.112775 0.005541 -0.264907
-0.112772 0.00562 -0.26491299
-0.112769 0.0056969998 -0.26491201
-0.112765 0.005775 -0.26491201
-0.112762 0.0058530001 -0.26491201
-0.112759 0.0059310002 -0.26491001
-0.112756 0.0060089999 -0.26491001
-0.112753 0.006087 -0.26490799
-0.11275 0.0061650001 -0.26491499
-0.112746 0.0062429998 -0.26491699
-0.112743 0.0063209999 -0.26491499
-0.112741 0.0063990001 -0.264909
-0.112738 0.0064770002 -0.26490301
-0.112735 0.0065529998 -0.26489699
-0.112732 0.006631 -0.264902
-0.112728 0.0067090001 -0.26490399
-0.112726 0.006784 -0.26489201
-0.112723 0.0068620001 -0.26488599
-0.11272 0.0069400002 -0.264882
-0.112717 0.0070159999 -0.26487899
-0.112715 0.007094 -0.264869
-0.112712 0.0071700001 -0.26486501
-0.112709 0.0072499998 -0.264869
-0.112705 0.0073279999 -0.26487499
-0.112702 0.007406 -0.26487699
-0.112698 0.0074860002 -0.26488101
-0.112696 0.0075619998 -0.26487401
-0.112693 0.0076390002 -0.26486799
-0.11269 0.0077169999 -0.26486799
-0.112687 0.007793 -0.26486799
-0.112684 0.0078710001 -0.264864
-0.112681 0.0079490002 -0.26486701
-0.113627 -0.026975 -0.26623899
-0.113627 -0.026895 -0.266155
-0.113629 -0.026813 -0.266063
-0.11363 -0.026729001 -0.265955
-0.11363 -0.02665 -0.265903
-0.113629 -0.026571 -0.265854
-0.113628 -0.026492 -0.26581001
-0.113627 -0.026412999 -0.26576999
-0.113625 -0.026334001 -0.26573399
-0.113624 -0.026255 -0.26569799
-0.113622 -0.026176 -0.26566499
-0.113621 -0.026095999 -0.26562899
-0.113619 -0.026019 -0.265605
-0.113617 -0.025939999 -0.26557299
-0.113616 -0.025862001 -0.26553899
-0.113614 -0.025783001 -0.26550901
-0.113612 -0.025706001 -0.26548401
-0.11361 -0.025628 -0.265466
-0.113607 -0.025551001 -0.26545
-0.113605 -0.025473 -0.26543799
-0.113602 -0.025395 -0.265432
-0.113599 -0.025319001 -0.26543701
-0.113595 -0.025241001 -0.265441
-0.113592 -0.025165001 -0.26544699
-0.113589 -0.025087001 -0.26545501
-0.113585 -0.025010999 -0.26546299
-0.113581 -0.024933999 -0.265479
-0.113578 -0.024858 -0.265488
-0.113575 -0.02478 -0.26548201
-0.113572 -0.024702 -0.26547599
-0.113569 -0.024626 -0.26548401
-0.113565 -0.024548 -0.26549399
-0.113562 -0.024472 -0.26550001
-0.113558 -0.024394 -0.26550701
-0.113555 -0.024318 -0.265513
-0.113552 -0.02424 -0.265517
-0.113548 -0.024164001 -0.26552501
-0.113545 -0.024088001 -0.26552701
-0.113542 -0.024010001 -0.26552799
-0.113539 -0.023932001 -0.26553199
-0.113535 -0.023855999 -0.26553601
-0.113533 -0.023778001 -0.265522
-0.113531 -0.023700999 -0.26549199
-0.113529 -0.023623001 -0.26548201
-0.113525 -0.023546999 -0.26549301
-0.113522 -0.023468999 -0.265497
-0.113518 -0.023391001 -0.26550099
-0.113515 -0.023313999 -0.265513
-0.113512 -0.023236001 -0.265517
-0.113509 -0.023161 -0.26550701
-0.113506 -0.023083 -0.265504
-0.113502 -0.023006 -0.265526
-0.113498 -0.02293 -0.26553801
-0.113496 -0.022852 -0.26552999
-0.113492 -0.022774 -0.26553401
-0.113489 -0.022698 -0.26554501
-0.113486 -0.02262 -0.26554099
-0.113483 -0.022544 -0.26553899
-0.11348 -0.022466 -0.26553699
-0.113477 -0.022388 -0.265531
-0.113474 -0.02231 -0.265531
-0.113471 -0.022235001 -0.26553199
-0.113467 -0.022158001 -0.26553601
-0.113464 -0.02208 -0.265544
-0.113461 -0.022004001 -0.265542
-0.113458 -0.021926001 -0.26554
-0.113455 -0.021849001 -0.26553601
-0.113452 -0.021772999 -0.26552701
-0.11345 -0.021694999 -0.26552299
-0.113447 -0.021617001 -0.26551899
-0.113444 -0.021539001 -0.265515
-0.113441 -0.021464 -0.26550299
-0.113439 -0.021385999 -0.26549199
-0.113436 -0.021307999 -0.26549199
-0.113432 -0.021232 -0.26549199
-0.113429 -0.021153999 -0.26549599
-0.113425 -0.021078 -0.26550999
-0.113422 -0.021 -0.26551399
-0.113419 -0.020924 -0.26550901
-0.113416 -0.020846 -0.26550701
-0.113413 -0.020768 -0.26551101
-0.11341 -0.020692 -0.265517
-0.113406 -0.020616001 -0.26552099
-0.113403 -0.020538 -0.26551801
-0.113401 -0.02046 -0.26551199
-0.113397 -0.020382 -0.26551601
-0.113394 -0.020306 -0.26551601
-0.113391 -0.020228 -0.26551199
-0.113388 -0.020152001 -0.265508
-0.113385 -0.020074001 -0.26551101
-0.113382 -0.019996 -0.26550299
-0.11338 -0.019920999 -0.26548699
-0.113377 -0.019843001 -0.265481
-0.113374 -0.019765001 -0.265479
-0.113372 -0.019688999 -0.26547399
-0.113368 -0.019610999 -0.26547399
-0.113366 -0.019533001 -0.26547
-0.113363 -0.019456999 -0.265468
-0.11336 -0.019379999 -0.26546001
-0.113357 -0.019304 -0.26545599
-0.113354 -0.019226 -0.26545301
-0.113351 -0.019148 -0.26545501
-0.113348 -0.019072 -0.265457
-0.113345 -0.018994 -0.26545501
-0.113342 -0.018918 -0.26545101
-0.113339 -0.01884 -0.26545
-0.113335 -0.018762 -0.26546001
-0.113332 -0.018686 -0.26546401
-0.113329 -0.018608 -0.26546201
-0.113326 -0.018532 -0.26546001
-0.113323 -0.018454 -0.26546201
-0.11332 -0.018378001 -0.265459
-0.113317 -0.018300001 -0.26544899
-0.113314 -0.018223001 -0.265443
-0.113311 -0.018146999 -0.26544499
-0.113308 -0.018068001 -0.26545301
-0.113305 -0.017991999 -0.26545399
-0.113302 -0.017914999 -0.265452
-0.113298 -0.017836001 -0.26545399
-0.113295 -0.017759999 -0.26545799
-0.113292 -0.017681999 -0.265466
-0.113288 -0.017605999 -0.26547199
-0.113285 -0.017527999 -0.26546901
-0.113282 -0.017449999 -0.26546499
-0.113279 -0.017375 -0.26546299
-0.113277 -0.017297 -0.265457
-0.113274 -0.017219 -0.26545301
-0.113271 -0.017143 -0.26545101
-0.113268 -0.017065 -0.265448
-0.113265 -0.016989 -0.265448
-0.113261 -0.016911 -0.26545
-0.113258 -0.016833 -0.26545
-0.113256 -0.016757 -0.26544201
-0.113253 -0.01668 -0.26543301
-0.11325 -0.016604001 -0.26542899
-0.113247 -0.016526001 -0.26543301
-0.113244 -0.016448 -0.26542699
-0.113241 -0.016372001 -0.265421
-0.113238 -0.016294001 -0.26541501
-0.113236 -0.016217999 -0.26540801
-0.113233 -0.016140001 -0.26540601
-0.113229 -0.016062001 -0.26541001
-0.113227 -0.015985999 -0.26540601
-0.113224 -0.015908999 -0.26539201
-0.113222 -0.015833 -0.26538301
-0.113218 -0.015755 -0.26538101
-0.113215 -0.015676999 -0.265389
-0.113212 -0.015601 -0.26539299
-0.113209 -0.015523 -0.265385
-0.113206 -0.015447 -0.26538
-0.113203 -0.015369 -0.26538199
-0.1132 -0.015291 -0.26538199
-0.113197 -0.015215 -0.26538
-0.113194 -0.015138 -0.265378
-0.113191 -0.015062 -0.26538
-0.113187 -0.014983 -0.265385
-0.113184 -0.014906 -0.26538101
-0.113181 -0.01483 -0.265385
-0.113178 -0.014751 -0.26539099
-0.113175 -0.014674 -0.265389
-0.113171 -0.014595 -0.26539299
-0.113168 -0.01452 -0.265394
-0.113166 -0.014444 -0.26538801
-0.113163 -0.014366 -0.26538
-0.11316 -0.014288 -0.26538
-0.113156 -0.01421 -0.26538599
-0.113154 -0.014134 -0.26537701
-0.113151 -0.014058 -0.265367
-0.113148 -0.01398 -0.26536301
-0.113146 -0.013903 -0.26535299
-0.113143 -0.013827 -0.265347
-0.11314 -0.013749 -0.265349
-0.113136 -0.013673 -0.26535401
-0.113133 -0.013595 -0.26535001
-0.113131 -0.013517 -0.26533601
-0.113128 -0.013441 -0.26532999
-0.113125 -0.013364 -0.26532999
-0.113122 -0.013288 -0.265329
-0.113119 -0.01321 -0.265329
-0.113116 -0.013132 -0.26532701
-0.113113 -0.013054 -0.26532701
-0.11311 -0.012978 -0.26532301
-0.113107 -0.0129 -0.26532099
-0.113104 -0.012824 -0.26531801
-0.113101 -0.012746 -0.26530999
-0.113098 -0.012668 -0.26531199
-0.113095 -0.012592 -0.26531601
-0.113092 -0.012514 -0.26531401
-0.113089 -0.012436 -0.26530901
-0.113086 -0.01236 -0.265313
-0.113083 -0.012283 -0.26530901
-0.113081 -0.012207 -0.265295
-0.113077 -0.012129 -0.265293
-0.113074 -0.012051 -0.265293
-0.113072 -0.011975 -0.26528999
-0.113068 -0.011897 -0.265288
-0.113066 -0.011821 -0.265284
-0.113063 -0.011743 -0.26528201
-0.113059 -0.011665 -0.265286
-0.113056 -0.011589 -0.26528901
-0.113053 -0.011512 -0.26528099
-0.113051 -0.011436 -0.265275
-0.113047 -0.011358 -0.265277
-0.113044 -0.01128 -0.265273
-0.113042 -0.011204 -0.26526701
-0.113038 -0.011126 -0.26527399
-0.113035 -0.011048 -0.26527399
-0.113032 -0.010972 -0.26527199
-0.113029 -0.010894 -0.26526999
-0.113027 -0.010818 -0.26526001
-0.113024 -0.010741 -0.265255
-0.113021 -0.010663 -0.26525301
-0.113018 -0.010587 -0.26524699
-0.113015 -0.010509 -0.26524699
-0.113012 -0.010433 -0.26524499
-0.113009 -0.010355 -0.265237
-0.113006 -0.010277 -0.26524201
-0.113002 -0.010201 -0.265248
-0.113 -0.010123 -0.26524401
-0.112997 -0.010045 -0.26523599
-0.112993 -0.0099670002 -0.26524201
-0.11299 -0.0098909996 -0.26524699
-0.112987 -0.0098130004 -0.26524901
-0.112984 -0.0097350003 -0.26525101
-0.112981 -0.0096570002 -0.26525101
-0.112977 -0.0095790001 -0.265255
-0.112974 -0.0095030004 -0.265257
-0.112971 -0.0094250003 -0.26525399
-0.112968 -0.0093470002 -0.26525199
-0.112965 -0.0092709996 -0.26525399
-0.112962 -0.0091930004 -0.265248
-0.112959 -0.0091150003 -0.26525199
-0.112955 -0.0090389997 -0.26526001
-0.112952 -0.0089609995 -0.265259
-0.11295 -0.0088839997 -0.26524901
-0.112947 -0.008808 -0.26524499
-0.112944 -0.0087299999 -0.26524499
-0.11294 -0.0086519998 -0.26524699
-0.112938 -0.0085739996 -0.26524299
-0.112935 -0.008498 -0.26524201
-0.112931 -0.0084199999 -0.26524201
-0.112928 -0.0083419997 -0.26524401
-0.112925 -0.0082660001 -0.26524401
-0.112922 -0.0081879999 -0.265248
-0.112919 -0.0081099998 -0.26525199
-0.112915 -0.0080319997 -0.265257
-0.112912 -0.0079539996 -0.265259
-0.112908 -0.0078760004 -0.26526901
-0.112905 -0.0077979998 -0.265275
-0.112902 -0.0077220001 -0.265275
-0.112899 -0.007644 -0.26527101
-0.112896 -0.0075659999 -0.26526999
-0.112893 -0.0074900002 -0.26527399
-0.112889 -0.0074100001 -0.26528001
-0.112886 -0.007334 -0.265284
-0.112883 -0.0072559998 -0.26528201
-0.11288 -0.0071780002 -0.26527601
-0.112877 -0.0071020001 -0.265279
-0.112874 -0.0070219999 -0.26528299
-0.112871 -0.0069459998 -0.265277
-0.112868 -0.0068680001 -0.26527101
-0.112865 -0.006792 -0.26526499
-0.112862 -0.0067139999 -0.26526999
-0.112859 -0.0066359998 -0.26526999
-0.112856 -0.0065589999 -0.26526201
-0.112853 -0.0064829998 -0.26525599
-0.11285 -0.0064050001 -0.26525599
-0.112847 -0.006329 -0.26525199
-0.112844 -0.0062509999 -0.26524499
-0.112842 -0.0061730002 -0.26523501
-0.112839 -0.0060979999 -0.265223
-0.112836 -0.0060200002 -0.265221
-0.112833 -0.0059440001 -0.265223
-0.11283 -0.005866 -0.26522201
-0.112827 -0.0057879998 -0.26522201
-0.112824 -0.0057100002 -0.26522201
-0.112821 -0.005632 -0.26521599
-0.112818 -0.0055559999 -0.26520801
-0.112815 -0.0054779998 -0.26520801
-0.112812 -0.0054000001 -0.26521301
-0.112809 -0.005322 -0.26521099
-0.112806 -0.0052459999 -0.26520899
-0.112803 -0.0051679998 -0.26521099
-0.1128 -0.0050900001 -0.26521301
-0.112797 -0.0050130002 -0.26520899
-0.112794 -0.0049350001 -0.26520601
-0.11279 -0.004859 -0.26521
-0.112787 -0.0047800001 -0.26521599
-0.112784 -0.0047019999 -0.26521999
-0.11278 -0.0046239998 -0.26522601
-0.112777 -0.0045440001 -0.26523
-0.112774 -0.004468 -0.26523501
-0.11277 -0.0043899999 -0.265237
-0.112767 -0.0043119998 -0.26523301
-0.112765 -0.0042369999 -0.265223
-0.112762 -0.0041589998 -0.265219
-0.112759 -0.0040810001 -0.265221
-0.112755 -0.004003 -0.265228
-0.112752 -0.0039249999 -0.265228
-0.112749 -0.003847 -0.26522601
-0.112746 -0.0037690001 -0.26523
-0.112743 -0.0036909999 -0.26522401
-0.112741 -0.0036150001 -0.26521
-0.112737 -0.0035369999 -0.26521701
-0.112734 -0.003459 -0.26522499
-0.112731 -0.0033809999 -0.265219
-0.112728 -0.003305 -0.26521099
-0.112725 -0.0032279999 -0.265205
-0.112722 -0.00315 -0.265203
-0.112719 -0.0030720001 -0.26520801
-0.112716 -0.002996 -0.26519999
-0.112713 -0.0029180001 -0.265194
-0.11271 -0.00284 -0.265196
-0.112707 -0.0027620001 -0.26519799
-0.112704 -0.0026839999 -0.26519999
-0.112701 -0.0026060001 -0.26519901
-0.112697 -0.0025279999 -0.265201
-0.112694 -0.00245 -0.265203
-0.112691 -0.0023719999 -0.265203
-0.112688 -0.002296 -0.26519701
-0.112686 -0.0022179999 -0.26519099
-0.112682 -0.00214 -0.265192
-0.112679 -0.0020639999 -0.265194
-0.112677 -0.001987 -0.26518601
-0.112674 -0.001911 -0.265174
-0.112671 -0.001833 -0.26516801
-0.112668 -0.001755 -0.26517099
-0.112665 -0.001677 -0.26516899
-0.112662 -0.001599 -0.26517099
-0.112659 -0.0015210001 -0.26517099
-0.112655 -0.001443 -0.26517099
-0.112652 -0.001365 -0.26517299
-0.112649 -0.001287 -0.26517299
-0.112646 -0.001211 -0.265174
-0.112643 -0.001133 -0.265172
-0.11264 -0.001056 -0.26516199
-0.112638 -0.00098000001 -0.265158
-0.112634 -0.00089999998 -0.26516199
-0.112631 -0.00082199997 -0.26516101
-0.112629 -0.00074599998 -0.265149
-0.112626 -0.00066800002 -0.265147
-0.112622 -0.00059000001 -0.265149
-0.112619 -0.000512 -0.265149
-0.112616 -0.000436 -0.265145
-0.112613 -0.00035799999 -0.26514599
-0.11261 -0.00027799999 -0.26514801
-0.112607 -0.000202 -0.26514199
-0.112605 -0.00012700001 -0.26512799
-0.112602 -4.8999998e-05 -0.26513001
-0.112598 2.9000001e-05 -0.265136
-0.112595 0.000109 -0.26513499
-0.112592 0.000185 -0.265127
-0.11259 0.00026299999 -0.26512101
-0.112587 0.00033899999 -0.26511499
-0.112584 0.000416 -0.265109
-0.112581 0.00049399998 -0.26510999
-0.112578 0.00057199999 -0.26511201
-0.112575 0.00065 -0.265104
-0.112572 0.000726 -0.265102
-0.112569 0.00080400001 -0.2651
-0.112566 0.00088200002 -0.26509401
-0.112564 0.00095800002 -0.26508299
-0.112561 0.001035 -0.265075
-0.112558 0.001113 -0.26507699
-0.112555 0.001189 -0.265075
-0.112552 0.001267 -0.265071
-0.112548 0.001345 -0.26507699
-0.112545 0.001425 -0.265084
-0.112542 0.001501 -0.26507801
-0.11254 0.001577 -0.265064
-0.112537 0.001655 -0.265062
-0.112533 0.001733 -0.265066
-0.11253 0.001813 -0.265066
-0.112527 0.001891 -0.265071
-0.112524 0.0019690001 -0.265073
-0.112521 0.002047 -0.265071
-0.112517 0.0021250001 -0.265073
-0.112514 0.002203 -0.26507899
-0.112511 0.0022809999 -0.26508099
-0.112508 0.002359 -0.26507601
-0.112505 0.0024369999 -0.26507401
-0.112501 0.0025150001 -0.265082
-0.112498 0.002595 -0.265086
-0.112495 0.0026710001 -0.265082
-0.112492 0.002749 -0.26507401
-0.112489 0.0028260001 -0.26507199
-0.112486 0.002902 -0.265073
-0.112483 0.0029819999 -0.26506901
-0.11248 0.003058 -0.26506901
-0.112477 0.0031359999 -0.26506701
-0.112474 0.003214 -0.26506299
-0.112471 0.0032919999 -0.265064
-0.112468 0.00337 -0.265066
-0.112464 0.0034479999 -0.26506999
-0.112461 0.0035260001 -0.26506799
-0.112459 0.003604 -0.265062
-0.112456 0.0036800001 -0.26505399
-0.112453 0.003757 -0.26504701
-0.11245 0.0038350001 -0.26504499
-0.112447 0.0039130002 -0.26504701
-0.112444 0.0039909999 -0.26504901
-0.112441 0.004069 -0.26504701
-0.112438 0.0041470001 -0.26504499
-0.112435 0.0042229998 -0.26504201
-0.112432 0.0043009999 -0.26503801
-0.112429 0.004379 -0.26504001
-0.112426 0.0044570002 -0.26503599
-0.112423 0.0045349998 -0.265026
-0.11242 0.0046100002 -0.26502201
-0.112417 0.0046879998 -0.265021
-0.112414 0.004766 -0.265021
-0.112411 0.0048440001 -0.26501501
-0.112408 0.0049220002 -0.26500899
-0.112405 0.0049979999 -0.26500899
-0.112402 0.005076 -0.26500699
-0.112399 0.0051540001 -0.26500201
-0.112397 0.0052299998 -0.26499799
-0.112393 0.0053090001 -0.26499599
-0.112391 0.0053849998 -0.264992
-0.112388 0.0054629999 -0.26498801
-0.112384 0.005541 -0.264992
-0.112381 0.0056210002 -0.265001
-0.112378 0.0056989999 -0.265003
-0.112375 0.005775 -0.26499701
-0.112372 0.0058530001 -0.26499301
-0.112369 0.0059310002 -0.26499099
-0.112366 0.0060089999 -0.26498699
-0.112363 0.006085 -0.26497999
-0.11236 0.0061630001 -0.26498201
-0.112357 0.0062409998 -0.26497999
-0.112354 0.0063189999 -0.26497599
-0.112351 0.0063959998 -0.26497599
-0.112348 0.0064719999 -0.26496699
-0.112346 0.00655 -0.26495701
-0.112343 0.0066260002 -0.26495299
-0.11234 0.0067039998 -0.26494899
-0.112337 0.0067799999 -0.264943
-0.112334 0.0068569998 -0.26493901
-0.112331 0.006935 -0.26493999
-0.112328 0.0070130001 -0.264938
-0.112325 0.0070910002 -0.26493999
-0.112322 0.0071689999 -0.26493999
-0.112319 0.007247 -0.264934
-0.112316 0.0073230001 -0.26492599
-0.112313 0.0074009998 -0.264925
-0.11231 0.0074789999 -0.26491901
-0.112308 0.0075539998 -0.26491299
-0.112305 0.0076319999 -0.26490101
-0.112303 0.007706 -0.26488301
-0.1123 0.0077820001 -0.26487401
-0.112297 0.0078619998 -0.264878
-0.113199 -0.026746999 -0.26584801
-0.113199 -0.026666 -0.26578999
-0.113199 -0.026586 -0.26572901
-0.113198 -0.026507 -0.265679
-0.113197 -0.026427999 -0.26563299
-0.113196 -0.026349001 -0.26558101
-0.113195 -0.02627 -0.26554701
-0.113193 -0.026191 -0.26552299
-0.113191 -0.026113 -0.26550201
-0.113189 -0.026036 -0.26547599
-0.113186 -0.025955999 -0.26545599
-0.113185 -0.025878999 -0.265432
-0.113182 -0.025800999 -0.26541001
-0.11318 -0.025722999 -0.26539999
-0.113177 -0.025648 -0.26539701
-0.113174 -0.02557 -0.26539299
-0.113171 -0.025491999 -0.265387
-0.113168 -0.025413999 -0.26538101
-0.113166 -0.025338 -0.26537499
-0.113162 -0.02526 -0.26538
-0.113159 -0.025184 -0.26538599
-0.113156 -0.025106 -0.26538801
-0.113153 -0.025028 -0.26538801
-0.113149 -0.024952 -0.265396
-0.113146 -0.024876 -0.26539999
-0.113143 -0.024798 -0.26539499
-0.11314 -0.024722001 -0.26539701
-0.113137 -0.024644 -0.26539901
-0.113134 -0.024566 -0.26539901
-0.11313 -0.024490001 -0.265407
-0.113127 -0.024413999 -0.26541001
-0.113124 -0.024336001 -0.26540801
-0.113121 -0.024258001 -0.265414
-0.113117 -0.024181999 -0.26541999
-0.113114 -0.024106 -0.265414
-0.113111 -0.024027999 -0.26541799
-0.113107 -0.023952 -0.26543501
-0.113104 -0.023874 -0.265439
-0.113101 -0.023798 -0.265439
-0.113097 -0.023719 -0.26544499
-0.113094 -0.023641 -0.26544699
-0.113091 -0.023566 -0.26544699
-0.113087 -0.023487 -0.26546001
-0.113084 -0.023411 -0.265468
-0.113081 -0.023335001 -0.26547
-0.113078 -0.023257 -0.26547399
-0.113074 -0.023181001 -0.26547399
-0.113071 -0.023103001 -0.265477
-0.113068 -0.023026999 -0.26548699
-0.113065 -0.022949001 -0.26548499
-0.113062 -0.022871001 -0.265481
-0.113059 -0.022794999 -0.26548499
-0.113055 -0.022717001 -0.26548499
-0.113052 -0.022640999 -0.26549199
-0.113049 -0.022562999 -0.26550001
-0.113045 -0.022487 -0.26550201
-0.113042 -0.022409 -0.26549801
-0.11304 -0.022330999 -0.26549
-0.113037 -0.022255 -0.26548499
-0.113034 -0.022177 -0.26548499
-0.11303 -0.022101 -0.26549301
-0.113027 -0.022023 -0.265497
-0.113024 -0.021945 -0.26549301
-0.113021 -0.021869 -0.26549101
-0.113018 -0.021791 -0.26549399
-0.113015 -0.021715 -0.26549599
-0.113012 -0.021637 -0.26549801
-0.113009 -0.02156 -0.26549
-0.113006 -0.021484001 -0.26548201
-0.113003 -0.021406 -0.26548401
-0.113 -0.021330001 -0.26548499
-0.112997 -0.021252001 -0.26548499
-0.112994 -0.021174001 -0.265481
-0.112991 -0.021098001 -0.26546901
-0.112988 -0.021020999 -0.26546299
-0.112985 -0.020943001 -0.26546201
-0.112983 -0.020866999 -0.26545799
-0.112979 -0.020788999 -0.26545799
-0.112976 -0.020713 -0.26546001
-0.112973 -0.020634999 -0.26546001
-0.11297 -0.020556999 -0.26545799
-0.112967 -0.020481 -0.265461
-0.112963 -0.020403 -0.26546901
-0.11296 -0.020327 -0.26546901
-0.112958 -0.020249 -0.265461
-0.112954 -0.020171 -0.26546299
-0.112951 -0.020095 -0.26547199
-0.112948 -0.020017 -0.265468
-0.112946 -0.019939 -0.26545399
-0.112943 -0.019863 -0.26545
-0.112939 -0.019785 -0.265466
-0.112936 -0.019709 -0.26546401
-0.112933 -0.019631 -0.26545301
-0.11293 -0.019554 -0.26545301
-0.112927 -0.019478001 -0.26545501
-0.112924 -0.019400001 -0.26545301
-0.112922 -0.019324001 -0.26543301
-0.11292 -0.019246999 -0.265414
-0.112917 -0.019169001 -0.265416
-0.112913 -0.019091999 -0.265434
-0.112909 -0.019014001 -0.265448
-0.112906 -0.018937999 -0.265452
-0.112903 -0.018859999 -0.26544401
-0.1129 -0.018784 -0.265439
-0.112897 -0.018705999 -0.26543701
-0.112894 -0.018627999 -0.26543099
-0.112891 -0.018552 -0.26543301
-0.112888 -0.018474 -0.26543701
-0.112885 -0.018397 -0.26543099
-0.112882 -0.018321 -0.26542801
-0.112879 -0.018243 -0.26542601
-0.112877 -0.018167 -0.265414
-0.112874 -0.018089 -0.26540801
-0.11287 -0.018011 -0.265416
-0.112867 -0.017935 -0.26542899
-0.112863 -0.017857 -0.26543301
-0.112861 -0.017781001 -0.265425
-0.112858 -0.017703 -0.26541501
-0.112855 -0.017625 -0.26540899
-0.112852 -0.017549001 -0.265412
-0.112849 -0.017472001 -0.26540601
-0.112846 -0.017395999 -0.26539999
-0.112844 -0.017317999 -0.26539201
-0.112841 -0.017240001 -0.26538199
-0.112839 -0.017165 -0.26537001
-0.112836 -0.017086999 -0.26535901
-0.112833 -0.017011 -0.26535901
-0.112829 -0.016933 -0.265367
-0.112826 -0.016855 -0.26537701
-0.112823 -0.016779 -0.26537499
-0.11282 -0.016701 -0.265374
-0.112817 -0.016625 -0.265374
-0.112814 -0.016547 -0.26536801
-0.112811 -0.016469 -0.26536
-0.112808 -0.016393 -0.265356
-0.112805 -0.016315 -0.26535401
-0.112803 -0.016240001 -0.265349
-0.1128 -0.016162001 -0.26534301
-0.112796 -0.016084 -0.265349
-0.112793 -0.016008001 -0.26534501
-0.112791 -0.015930001 -0.26533499
-0.112788 -0.015853999 -0.26533201
-0.112785 -0.015776001 -0.26533401
-0.112781 -0.015698001 -0.265338
-0.112778 -0.015622 -0.26534599
-0.112775 -0.015544 -0.26535201
-0.112771 -0.015468 -0.26535201
-0.112769 -0.01539 -0.26534501
-0.112766 -0.015312 -0.265331
-0.112764 -0.015237 -0.26532301
-0.11276 -0.015159 -0.26532501
-0.112757 -0.015082 -0.265331
-0.112754 -0.015005 -0.26533201
-0.112751 -0.014927 -0.26532799
-0.112748 -0.014851 -0.26532599
-0.112745 -0.014773 -0.26532
-0.112742 -0.014697 -0.26532
-0.112739 -0.014619 -0.26532799
-0.112736 -0.014541 -0.26532701
-0.112733 -0.014465 -0.26532501
-0.112729 -0.014387 -0.26533499
-0.112726 -0.014309 -0.26533499
-0.112723 -0.014233 -0.265329
-0.11272 -0.014155 -0.26532701
-0.112717 -0.014079 -0.265322
-0.112715 -0.014001 -0.26531401
-0.112712 -0.013926 -0.265306
-0.112709 -0.013848 -0.26529801
-0.112706 -0.01377 -0.26529399
-0.112703 -0.013694 -0.265297
-0.1127 -0.013616 -0.265295
-0.112697 -0.01354 -0.265293
-0.112694 -0.013462 -0.26529101
-0.112691 -0.013384 -0.26528099
-0.112689 -0.013309 -0.265264
-0.112686 -0.013231 -0.26525801
-0.112683 -0.013155 -0.265266
-0.11268 -0.013077 -0.26527199
-0.112677 -0.012999 -0.26525801
-0.112674 -0.012923 -0.26525199
-0.112671 -0.012845 -0.265255
-0.112668 -0.012769 -0.265259
-0.112665 -0.012691 -0.265259
-0.112661 -0.012613 -0.26526299
-0.112659 -0.012537 -0.265259
-0.112656 -0.01246 -0.26525199
-0.112653 -0.012384 -0.26524401
-0.11265 -0.012306 -0.26523799
-0.112648 -0.012228 -0.265232
-0.112645 -0.012152 -0.265228
-0.112642 -0.012074 -0.26522601
-0.112639 -0.011998 -0.26522699
-0.112635 -0.01192 -0.26522699
-0.112632 -0.011843 -0.265223
-0.112629 -0.011767 -0.265223
-0.112626 -0.011689 -0.265221
-0.112624 -0.011613 -0.26521599
-0.112621 -0.011535 -0.26520601
-0.112618 -0.011457 -0.26520401
-0.112615 -0.011381 -0.26520601
-0.112612 -0.011303 -0.26520801
-0.112609 -0.011227 -0.26520401
-0.112606 -0.011149 -0.26519701
-0.112603 -0.011072 -0.26519501
-0.1126 -0.010996 -0.26519501
-0.112597 -0.010918 -0.26519501
-0.112594 -0.010842 -0.26518899
-0.112591 -0.010764 -0.26517999
-0.112588 -0.010686 -0.265176
-0.112585 -0.01061 -0.26518199
-0.112582 -0.010532 -0.26518801
-0.112578 -0.010454 -0.265192
-0.112576 -0.010378 -0.26517999
-0.112574 -0.010301 -0.265165
-0.11257 -0.010225 -0.265165
-0.112567 -0.010147 -0.265167
-0.112564 -0.010069 -0.26516899
-0.112561 -0.0099910004 -0.265167
-0.112558 -0.0099149998 -0.26516199
-0.112556 -0.0098390002 -0.265154
-0.112552 -0.0097610001 -0.265156
-0.112549 -0.0096829999 -0.26515999
-0.112546 -0.0096049998 -0.265154
-0.112543 -0.0095290001 -0.265156
-0.11254 -0.009451 -0.265163
-0.112536 -0.0093729999 -0.265163
-0.112534 -0.0092970002 -0.26515901
-0.112531 -0.0092190001 -0.26515099
-0.112528 -0.0091439998 -0.26514301
-0.112525 -0.0090659996 -0.26514801
-0.112522 -0.0089880005 -0.26515201
-0.112518 -0.0089100003 -0.265154
-0.112515 -0.0088320002 -0.265158
-0.112512 -0.0087559996 -0.26515999
-0.112509 -0.0086780004 -0.26515999
-0.112506 -0.0086000003 -0.26515701
-0.112503 -0.0085239997 -0.26515299
-0.1125 -0.0084459996 -0.26515299
-0.112497 -0.0083680004 -0.26515099
-0.112494 -0.0082919998 -0.265147
-0.112491 -0.0082139997 -0.265149
-0.112487 -0.0081359996 -0.26516399
-0.112484 -0.0080580004 -0.26516601
-0.112482 -0.0079819998 -0.26514599
-0.112479 -0.0079039996 -0.26514399
-0.112475 -0.0078260005 -0.26514599
-0.112472 -0.0077499999 -0.265154
-0.112468 -0.0076700002 -0.265167
-0.112465 -0.0075940001 -0.265165
-0.112463 -0.007518 -0.26515499
-0.112459 -0.0074399998 -0.26515499
-0.112455 -0.0073600002 -0.26517099
-0.112452 -0.007282 -0.26517701
-0.112449 -0.0072059999 -0.265172
-0.112446 -0.0071279998 -0.26517999
-0.112442 -0.0070480001 -0.26519799
-0.112438 -0.006972 -0.26520199
-0.112436 -0.0068939999 -0.265194
-0.112433 -0.0068180002 -0.26518601
-0.112431 -0.0067400001 -0.26517299
-0.112428 -0.006662 -0.26517099
-0.112424 -0.0065859999 -0.26517701
-0.112421 -0.0065060002 -0.265183
-0.112418 -0.0064300001 -0.26517901
-0.112416 -0.0063550002 -0.26516399
-0.112413 -0.0062770001 -0.265156
-0.112409 -0.0061989999 -0.26516199
-0.112407 -0.0061209998 -0.265156
-0.112404 -0.0060450002 -0.26514599
-0.112401 -0.005969 -0.26514
-0.112398 -0.0058920002 -0.26513699
-0.112396 -0.005816 -0.26512301
-0.112394 -0.0057410002 -0.265093
-0.112392 -0.0056650001 -0.265071
-0.112388 -0.0055869999 -0.26508701
-0.112384 -0.005506 -0.26511601
-0.112381 -0.0054279999 -0.26512
-0.112378 -0.0053500002 -0.26511201
-0.112375 -0.0052749999 -0.265104
-0.112372 -0.005196 -0.26511201
-0.112368 -0.0051159998 -0.26512599
-0.112364 -0.0050380002 -0.26513401
-0.112361 -0.00496 -0.26513901
-0.112358 -0.0048839999 -0.26513499
-0.112355 -0.0048059998 -0.265131
-0.112352 -0.0047280001 -0.265129
-0.112349 -0.00465 -0.26513299
-0.112345 -0.0045719999 -0.265147
-0.112341 -0.0044940002 -0.26515999
-0.112338 -0.0044160001 -0.26516199
-0.112335 -0.004338 -0.26516399
-0.112331 -0.0042599998 -0.265176
-0.112328 -0.0041789999 -0.26518199
-0.112324 -0.0041029998 -0.26518399
-0.112321 -0.0040250001 -0.26518899
-0.112318 -0.003945 -0.26519299
-0.112315 -0.0038689999 -0.26519099
-0.112311 -0.003791 -0.26519501
-0.112308 -0.0037130001 -0.26519701
-0.112306 -0.003636 -0.265187
-0.112303 -0.0035600001 -0.265176
-0.1123 -0.003482 -0.265172
-0.112297 -0.0034040001 -0.265176
-0.112294 -0.0033259999 -0.265176
-0.112291 -0.0032500001 -0.265174
-0.112288 -0.0031719999 -0.26517001
-0.112285 -0.003094 -0.26517299
-0.112282 -0.0030159999 -0.26516899
-0.112279 -0.002941 -0.26515901
-0.112276 -0.0028629999 -0.26515299
-0.112273 -0.002785 -0.26515499
-0.11227 -0.0027069999 -0.26515499
-0.112267 -0.002629 -0.265154
-0.112264 -0.0025510001 -0.265156
-0.112261 -0.002475 -0.265156
-0.112258 -0.0023970001 -0.265154
-0.112254 -0.002319 -0.265154
-0.112251 -0.0022410001 -0.26515201
-0.112248 -0.0021629999 -0.26515099
-0.112245 -0.002085 -0.26515499
-0.112242 -0.0020069999 -0.26515499
-0.112239 -0.001931 -0.26515299
-0.112236 -0.001853 -0.265149
-0.112233 -0.001775 -0.265149
-0.112229 -0.001695 -0.265154
-0.112226 -0.001619 -0.265158
-0.112223 -0.001541 -0.265158
-0.11222 -0.001463 -0.265154
-0.112218 -0.001388 -0.26514
-0.112215 -0.00131 -0.26513401
-0.112212 -0.001232 -0.26513499
-0.112209 -0.001156 -0.265131
-0.112206 -0.0010779999 -0.26512501
-0.112203 -0.001 -0.26512101
-0.1122 -0.00092199998 -0.26511899
-0.112197 -0.00084699999 -0.26511601
-0.112194 -0.00076899998 -0.26510999
-0.112192 -0.00069100002 -0.265104
-0.112189 -0.00061500003 -0.26509601
-0.112186 -0.00053700001 -0.26508999
-0.112183 -0.000459 -0.26508999
-0.11218 -0.00038099999 -0.265091
-0.112177 -0.00030300001 -0.265093
-0.112174 -0.000225 -0.265091
-0.112171 -0.00014800001 -0.26508901
-0.112168 -7.2000003e-05 -0.26508299
-0.112165 6.0000002e-06 -0.26507899
-0.112162 8.3999999e-05 -0.26507601
-0.112159 0.00016 -0.26506999
-0.112156 0.00023799999 -0.26506799
-0.112153 0.00031599999 -0.26506799
-0.11215 0.000394 -0.26506999
-0.112147 0.00047200001 -0.26506799
-0.112144 0.00054799998 -0.26506299
-0.112141 0.00062499999 -0.265057
-0.112138 0.000703 -0.265053
-0.112135 0.00078100001 -0.265053
-0.112132 0.00085900002 -0.265053
-0.112129 0.00093500002 -0.26504999
-0.112126 0.001013 -0.265044
-0.112123 0.001091 -0.26504001
-0.11212 0.0011690001 -0.26504001
-0.112117 0.0012469999 -0.26504201
-0.112114 0.001325 -0.265044
-0.112111 0.001403 -0.26504701
-0.112108 0.001481 -0.26504299
-0.112105 0.001556 -0.265037
-0.112102 0.001634 -0.26503301
-0.112099 0.001712 -0.26502901
-0.112096 0.00179 -0.26502699
-0.112093 0.001868 -0.26503
-0.11209 0.001944 -0.26503
-0.112086 0.002024 -0.26503199
-0.112083 0.0021019999 -0.26503199
-0.11208 0.0021800001 -0.26503
-0.112077 0.002258 -0.26503199
-0.112074 0.0023360001 -0.265037
-0.11207 0.002414 -0.26504099
-0.112067 0.0024920001 -0.26504299
-0.112064 0.002572 -0.26504499
-0.11206 0.0026499999 -0.26505101
-0.112057 0.0027280001 -0.265055
-0.112054 0.0028059999 -0.265055
-0.112051 0.0028840001 -0.265062
-0.112047 0.002962 -0.26506001
-0.112045 0.0030400001 -0.26505199
-0.112042 0.003116 -0.265046
-0.112039 0.0031940001 -0.265044
-0.112036 0.003272 -0.265048
-0.112032 0.0033519999 -0.26504901
-0.11203 0.003428 -0.26504099
-0.112027 0.0035029999 -0.26503301
-0.112024 0.003583 -0.26503301
-0.112021 0.0036589999 -0.26503301
-0.112018 0.0037390001 -0.26503101
-0.112014 0.003817 -0.26503599
-0.112011 0.0038930001 -0.26503599
-0.112009 0.0039710002 -0.26503
-0.112005 0.0040509999 -0.26503399
-0.112002 0.004129 -0.26504001
-0.111999 0.0042070001 -0.26504001
-0.111996 0.0042849998 -0.265037
-0.111993 0.0043629999 -0.265035
-0.111989 0.0044410001 -0.265035
-0.111986 0.0045190002 -0.265037
-0.111983 0.0045969998 -0.26503301
-0.11198 0.004673 -0.26503101
-0.111977 0.0047510001 -0.265028
-0.111974 0.004828 -0.26502401
-0.111971 0.0049060001 -0.26502401
-0.111968 0.0049840002 -0.26502401
-0.111965 0.0050619999 -0.26502401
-0.111962 0.00514 -0.265026
-0.111959 0.0052180002 -0.26503101
-0.111956 0.0052959998 -0.26502699
-0.111953 0.0053719999 -0.26501301
-0.11195 0.0054500001 -0.26500699
-0.111947 0.0055280002 -0.26500899
-0.111944 0.0056059998 -0.26500899
-0.111941 0.005684 -0.26501399
-0.111937 0.0057640001 -0.26502001
-0.111934 0.0058419998 -0.26502001
-0.111931 0.0059199999 -0.26502001
-0.111928 0.005998 -0.26502201
-0.111925 0.0060760002 -0.26502201
-0.111922 0.0061539998 -0.26501399
-0.111919 0.0062290002 -0.26501301
-0.111915 0.0063100001 -0.265017
-0.111912 0.006387 -0.26501501
-0.111909 0.0064650001 -0.26501301
-0.111906 0.0065410002 -0.26501301
-0.111903 0.0066189999 -0.26501101
-0.1119 0.006697 -0.26501
-0.111897 0.0067750001 -0.26500601
-0.111895 0.0068529998 -0.26499999
-0.111892 0.0069289999 -0.264992
-0.111889 0.0070039998 -0.26498601
-0.111886 0.0070819999 -0.26497701
-0.111884 0.00716 -0.26497301
-0.111881 0.0072380002 -0.26496899
-0.111878 0.0073139998 -0.264963
-0.111875 0.0073899999 -0.26495701
-0.111872 0.0074669998 -0.26494899
-0.11187 0.0075429999 -0.26494199
-0.111337 -0.026946001 -0.266013
-0.111336 -0.026865 -0.26595101
-0.111337 -0.026784999 -0.26587299
-0.111338 -0.026703 -0.26579401
-0.111338 -0.026621999 -0.26571599
-0.111338 -0.026542 -0.265652
-0.111337 -0.026463 -0.265598
-0.111336 -0.026384 -0.26555401
-0.111335 -0.026304999 -0.26551601
-0.111334 -0.026226001 -0.265475
-0.111332 -0.026147 -0.26543701
-0.11133 -0.026069 -0.26541501
-0.111328 -0.025992 -0.26539099
-0.111326 -0.025912 -0.265369
-0.111324 -0.025835 -0.265347
-0.111322 -0.025757 -0.26532
-0.11132 -0.025677999 -0.26529601
-0.111318 -0.025599999 -0.26528001
-0.111316 -0.025522999 -0.26525599
-0.111314 -0.025444999 -0.26524001
-0.111311 -0.025369 -0.265239
-0.111308 -0.025291 -0.265239
-0.111305 -0.025212999 -0.265239
-0.111301 -0.025137 -0.26524299
-0.111298 -0.025059 -0.265241
-0.111295 -0.024984 -0.265239
-0.111292 -0.024906 -0.26523799
-0.111289 -0.02483 -0.26524001
-0.111286 -0.024752 -0.26524001
-0.111283 -0.024676001 -0.26524401
-0.111279 -0.024597 -0.26525199
-0.111276 -0.024521001 -0.265255
-0.111273 -0.024443001 -0.265257
-0.11127 -0.024367999 -0.265255
-0.111267 -0.024289999 -0.265257
-0.111264 -0.024214 -0.265257
-0.111261 -0.024135999 -0.26524901
-0.111258 -0.024057999 -0.26525
-0.111254 -0.023982 -0.26526001
-0.111251 -0.023903999 -0.265264
-0.111248 -0.023828 -0.26526001
-0.111245 -0.02375 -0.26525399
-0.111242 -0.023672 -0.26524699
-0.111239 -0.023596 -0.26524901
-0.111236 -0.023518 -0.26525301
-0.111234 -0.023442 -0.265239
-0.111231 -0.023365 -0.26522899
-0.111228 -0.023287 -0.26523501
-0.111224 -0.02321 -0.26524201
-0.111221 -0.023132 -0.26524001
-0.111218 -0.023056 -0.265248
-0.111214 -0.022978 -0.26525801
-0.111212 -0.022902001 -0.265246
-0.111209 -0.022825001 -0.26523501
-0.111206 -0.022747001 -0.26524299
-0.111202 -0.022670001 -0.26525101
-0.111199 -0.022593001 -0.26524901
-0.111197 -0.022516999 -0.265237
-0.111194 -0.022438999 -0.26523301
-0.111191 -0.022363 -0.26523399
-0.111188 -0.022284999 -0.26523
-0.111185 -0.022206999 -0.26522201
-0.111182 -0.022131 -0.26521999
-0.111179 -0.022053 -0.26522201
-0.111176 -0.021978 -0.265219
-0.111173 -0.0219 -0.265219
-0.111169 -0.021823 -0.26522699
-0.111166 -0.021745 -0.26523301
-0.111163 -0.021669 -0.26523501
-0.11116 -0.021591 -0.26523501
-0.111157 -0.021515001 -0.26523399
-0.111155 -0.021438001 -0.26521599
-0.111152 -0.021360001 -0.26519999
-0.111149 -0.021282 -0.26519999
-0.111146 -0.021206001 -0.26521
-0.111142 -0.021129999 -0.26522699
-0.111138 -0.021051999 -0.265239
-0.111135 -0.020976 -0.265237
-0.111132 -0.020897999 -0.26522699
-0.111129 -0.020822 -0.26522699
-0.111125 -0.020744 -0.26524299
-0.111122 -0.020667 -0.26525599
-0.111119 -0.020589 -0.26525801
-0.111116 -0.020512 -0.26525399
-0.111113 -0.020436 -0.26524401
-0.11111 -0.020358 -0.26523799
-0.111107 -0.020282 -0.26523799
-0.111104 -0.020204 -0.265237
-0.111101 -0.020126 -0.26523301
-0.111098 -0.02005 -0.26523301
-0.111095 -0.019974001 -0.26523301
-0.111092 -0.019896001 -0.26522499
-0.11109 -0.019819001 -0.26521599
-0.111087 -0.019741001 -0.26520801
-0.111084 -0.019664999 -0.26520801
-0.111081 -0.019588999 -0.26521599
-0.111077 -0.019510999 -0.26521999
-0.111075 -0.019432999 -0.26521
-0.111072 -0.019357 -0.26519501
-0.111069 -0.01928 -0.26518899
-0.111066 -0.019204 -0.26519501
-0.111063 -0.019125 -0.265201
-0.11106 -0.019049 -0.265201
-0.111057 -0.018972 -0.265196
-0.111054 -0.018894 -0.265192
-0.111051 -0.018818 -0.265192
-0.111048 -0.01874 -0.26518601
-0.111045 -0.018664001 -0.26518601
-0.111042 -0.018586 -0.26518899
-0.111039 -0.018510001 -0.26519099
-0.111036 -0.018432001 -0.26518899
-0.111033 -0.018354001 -0.265185
-0.111029 -0.018278001 -0.265187
-0.111026 -0.018200001 -0.26519501
-0.111023 -0.018123999 -0.26520199
-0.111019 -0.018045999 -0.26520601
-0.111016 -0.017969999 -0.26521
-0.111013 -0.017891999 -0.265214
-0.11101 -0.017816 -0.26521599
-0.111006 -0.017738 -0.26521799
-0.111003 -0.017662 -0.26521701
-0.111 -0.017584 -0.265219
-0.110997 -0.017506 -0.26522699
-0.110993 -0.01743 -0.26523301
-0.11099 -0.017352 -0.265237
-0.110987 -0.017276 -0.26524201
-0.110984 -0.017198 -0.26524001
-0.110981 -0.017122 -0.26523399
-0.110978 -0.017044 -0.26523599
-0.110974 -0.016966 -0.265246
-0.110971 -0.016889 -0.26525599
-0.110967 -0.016811 -0.265257
-0.110964 -0.016735001 -0.26526099
-0.110961 -0.016657 -0.26526701
-0.110958 -0.016579 -0.26526701
-0.110955 -0.016504001 -0.265259
-0.110952 -0.016426001 -0.265257
-0.110949 -0.016349999 -0.26526201
-0.110945 -0.016271999 -0.265266
-0.110942 -0.016194001 -0.265268
-0.110939 -0.016117999 -0.26526999
-0.110936 -0.016039999 -0.26526999
-0.110933 -0.015964 -0.26526701
-0.11093 -0.015885999 -0.265259
-0.110927 -0.015807999 -0.265255
-0.110924 -0.015732 -0.265257
