-0.0707242 -0.0242152 0.997202 0
-0.0706405 -0.0220328 0.997258 0
-0.0714803 -0.0160953 0.997312 0
-0.0709099 -0.0154314 0.997363 0
-0.0704137 -0.0149699 0.997406 0
-0.0701821 -0.0143502 0.997431 0
-0.0699682 -0.0148288 0.997439 0
-0.0702851 -0.00972898 0.997479 0
-0.0724989 -0.00255535 0.997365 0.00449819
-0.0733716 -0.000415937 0.997305 0.00661408
-0.0731519 -0.000495307 0.997321 0.00698839
-0.0730746 -0.00305861 0.997322 0.00953533
-0.0726629 -0.00595911 0.997339 0.00928986
-0.07275 -0.00811863 0.997317 0.00840465
-0.0730457 -0.00745002 0.997301 0.00603614
-0.0734163 -0.00577532 0.997285 0.00568584
-0.0727514 -0.00598814 0.997332 0.00481823
-0.0726437 -0.00716385 0.997332 0.00547545
-0.0725895 -0.00803623 0.99733 0.00503561
-0.0720604 -0.00877871 0.997362 0.00226492
-0.0723346 -0.00842261 0.997345 0
-0.0725923 -0.00686686 0.997338 0
-0.0723712 -0.00734208 0.997351 0
-0.0719681 -0.00765613 0.997378 0
-0.0718176 -0.00994434 0.997368 0
-0.0718941 -0.0129359 0.997328 0
-0.0723509 -0.0138564 0.997283 0
-0.0725261 -0.0109458 0.997306 0
-0.0715555 -0.0146536 0.997329 0
-0.0719512 -0.0160907 0.997278 0
-0.0716897 -0.013685 0.997333 0
-0.0708777 -0.0159085 0.997358 0
-0.071518 -0.0165361 0.997302 0
-0.0716094 -0.012497 0.997354 0
-0.0711538 -0.013191 0.997378 0
-0.0718919 -0.0169698 0.997268 0
-0.0718504 -0.0195746 0.997223 0
-0.0717995 -0.0228825 0.997157 0
-0.0723901 -0.0237475 0.997094 0
-0.0725653 -0.0200147 0.997163 0
-0.0746286 -0.018817 0.997034 0.0066707
-0.0754031 -0.0192878 0.996967 0.0112253
-0.0762757 -0.0204633 0.996877 0.0150404
-0.0763777 -0.0212242 0.996853 0.0165522
-0.0769451 -0.0226549 0.996778 0.0190146
-0.077062 -0.0204978 0.996816 0.0204578
-0.0777687 -0.017329 0.996821 0.0222063
-0.0782626 -0.0159684 0.996805 0.024459
-0.0792859 -0.0122888 0.996776 0.0281306
-0.0808006 -0.0103644 0.996676 0.0322596
-0.0813857 -0.00934669 0.996639 0.034273
-0.0828131 -0.00957922 0.996519 0.0383649
-0.0829305 -0.00551489 0.99654 0.0394522
-0.0832411 -0.00477166 0.996518 0.0380571
-0.0832509 -0.00604213 0.99651 0.0372938
-0.0829516 -0.00879695 0.996515 0.0371604
-0.0841514 -0.00535829 0.996439 0.0389621
-0.0839795 -0.00264977 0.996464 0.0384569
-0.0837891 0.00110882 0.996483 0.0370794
-0.0833635 0.00231984 0.996517 0.0342361
-0.0815367 -0.000330514 0.99667 0.0282085
-0.0813171 -0.00379979 0.996681 0.0252308
-0.0803606 -0.00664893 0.996744 0.0213491
-0.0790614 -0.0100862 0.996819 0.0168553
-0.0778322 -0.0110436 0.996905 0.0114298
-0.0768558 -0.0127319 0.996961 0.00307382
-0.0770981 -0.0149127 0.996912 0
-0.077331 -0.0165645 0.996868 0
-0.0770339 -0.0189964 0.996847 0
-0.0762679 -0.0242539 0.996792 0
-0.0760742 -0.0246657 0.996797 0
-0.0762511 -0.0256687 0.996758 0
-0.0763144 -0.0290747 0.99666 0
-0.0761085 -0.0311828 0.996612 0
-0.0764561 -0.034452 0.996478 0
-0.0769549 -0.0348707 0.996425 0
-0.0767945 -0.0319681 0.996534 0
-0.076504 -0.027374 0.996693 0
-0.0759862 -0.0246142 0.996805 0
-0.075995 -0.0225021 0.996854 0
-0.0765617 -0.0215546 0.996832 0
-0.076229 -0.0181531 0.996925 0
-0.0762023 -0.0177758 0.996934 0
-0.0765031 -0.0193104 0.996882 0
-0.0765857 -0.0180932 0.996899 0
-0.076793 -0.0170159 0.996902 0
-0.0767467 -0.0185702 0.996878 0
-0.0760678 -0.0194017 0.996914 0
-0.0759459 -0.0189458 0.996932 0
-0.0767371 -0.0213949 0.996822 0
-0.0765457 -0.0240715 0.996775 0
-0.0763158 -0.0259922 0.996745 0
-0.0768887 -0.0301531 0.996584 0
-0.0767622 -0.0348244 0.996441 0
-0.0766983 -0.0362781 0.996394 0
-0.0762919 -0.0388109 0.99633 0
-0.0767921 -0.0421646 0.996155 0
-0.0769417 -0.0478852 0.995885 0
-0.0773814 -0.0487908 0.995807 0
-0.0780174 -0.0493089 0.995732 0
-0.0783759 -0.0507201 0.995633 0
-0.0783717 -0.050677 0.995635 0
-0.0784722 -0.0492845 0.995697 0
-0.0787713 -0.0463922 0.995813 0
-0.0788125 -0.0411235 0.996041 0
-0.0792671 -0.0389369 0.996093 0
-0.079332 -0.0347039 0.996244 0
-0.0796978 -0.0318753 0.996309 0
-0.0796225 -0.0307824 0.99635 0
-0.0793973 -0.0274734 0.996464 0
-0.0794437 -0.0238469 0.996554 0
-0.0798737 -0.0199331 0.996606 0
-0.0799127 -0.0154801 0.996682 0
-0.080014 -0.0113917 0.996729 0
-0.0809273 -0.0106016 0.996664 0
-0.0808828 -0.00787353 0.996692 0
-0.0817611 -0.00598675 0.996634 0
-0.0820549 -0.00254568 0.996625 0
-0.0827316 0.000472104 0.996572 0.00199376
-0.0844194 0.00274943 0.996426 0.0076555
-0.084722 0.00365747 0.996398 0.0101181
-0.0854116 0.00463797 0.996335 0.0136181
-0.0854725 0.00416921 0.996332 0.0122187
-0.0854315 0.00219327 0.996342 0.0122119
-0.0858933 -0.00116106 0.996304 0.0148516
-0.0871017 -0.00194613 0.996198 0.0176663
-0.0875318 -0.00424939 0.996153 0.0193524
-0.0875651 -0.00772559 0.996129 0.0196874
-0.0880029 -0.00909367 0.996079 0.0216426
-0.0889608 -0.00874955 0.995997 0.0267292
-0.0901564 -0.0102176 0.995875 0.0334507
-0.0925262 -0.0091948 0.995668 0.0405984
-0.0935239 -0.00580633 0.9956 0.0464475
-0.0944297 -0.00251163 0.995528 0.0496009
-0.0942659 -0.00554007 0.995532 0.0481529
-0.0937527 -0.00298491 0.995591 0.0457549
-0.0947216 -0.00136964 0.995503 0.0501423
-0.0959005 -0.00112274 0.99539 0.0529886
-0.0965142 -0.000723439 0.995331 0.0556309
-0.0969032 0.000506072 0.995294 0.0590446
-0.0975733 0.00156245 0.995227 0.0596673
-0.0976071 0.00264438 0.995222 0.0575807
-0.0980327 0.0011484 0.995183 0.0578011
-0.0965617 0.000400942 0.995327 0.0544157
-0.0953338 -0.00246768 0.995442 0.049656
-0.0939651 -0.00513369 0.995562 0.045344
-0.0936003 -0.00528285 0.995596 0.0435214
-0.0920488 -0.00730895 0.995728 0.0393189
-0.0916632 -0.00827412 0.995756 0.0393815
-0.09092 -0.00954742 0.995812 0.0371837
-0.0896531 -0.0133258 0.995884 0.0308599
-0.088323 -0.0120923 0.996018 0.026531
-0.088589 -0.0105871 0.996012 0.0265302
-0.0888472 -0.0121845 0.995971 0.0253136
-0.0880543 -0.0145122 0.99601 0.022222
-0.0866784 -0.0179034 0.996075 0.0165649
-0.0845321 -0.0226971 0.996162 0.00562285
-0.0831979 -0.0280446 0.996138 0
-0.0827414 -0.0342956 0.995981 0
-0.0824977 -0.0396659 0.995802 0
-0.0815267 -0.0448159 0.995663 0
-0.0816894 -0.0478181 0.99551 0
-0.0818216 -0.054 0.995183 0
-0.0816962 -0.0561982 0.995072 0
-0.0815841 -0.0617143 0.994754 0
-0.0809226 -0.0673548 0.994442 0
-0.0806009 -0.0713506 0.994189 0
-0.0805465 -0.0761069 0.993841 0
-0.0804689 -0.0772758 0.993757 0
-0.0805617 -0.0768683 0.993781 0
-0.0804952 -0.0763625 0.993826 0
-0.0808919 -0.0733085 0.994023 0
-0.080703 -0.0692316 0.994331 0
-0.0808229 -0.0686926 0.994359 0
-0.0810728 -0.0666349 0.994478 0
-0.0801119 -0.0636606 0.994751 0
-0.0802698 -0.0614078 0.99488 0
-0.0805552 -0.0572759 0.995103 0
-0.0799458 -0.0562663 0.99521 0
-0.0798699 -0.0541407 0.995334 0
-0.080003 -0.0542105 0.995319 0
-0.0794944 -0.0545322 0.995343 0
-0.0799602 -0.050679 0.995509 0
-0.0801772 -0.0456425 0.995735 0
-0.0810707 -0.0418513 0.995829 0
-0.0811058 -0.0413073 0.995849 0
-0.0814899 -0.040666 0.995844 0
-0.0812527 -0.0424744 0.995788 0
-0.0819792 -0.0418331 0.995756 0
-0.0817684 -0.0410891 0.995804 0
-0.0819176 -0.042155 0.995747 0
-0.0820354 -0.0454942 0.995591 0
-0.0821735 -0.0485109 0.995437 0
-0.0821076 -0.0490711 0.995415 0
-0.0813769 -0.0530683 0.99527 0
-0.0817329 -0.0553397 0.995117 0
-0.0812947 -0.0575089 0.99503 0
-0.0803837 -0.0590492 0.995013 0
-0.0801887 -0.0603745 0.99495 0
-0.080596 -0.0621961 0.994804 0
-0.0803565 -0.0634987 0.994742 0
-0.0808448 -0.064248 0.994654 0
-0.0810198 -0.0609057 0.99485 0.00174874
-0.0814905 -0.057196 0.995032 0.00543871
-0.0822629 -0.0535989 0.995168 0.00888868
-0.0838583 -0.0517991 0.99513 0.0129399
-0.0852974 -0.0482243 0.995188 0.0165042
-0.084796 -0.0478346 0.99525 0.0157486
-0.0846936 -0.0443992 0.995417 0.0177626
-0.0850695 -0.0409215 0.995534 0.0211344
-0.0859334 -0.0418206 0.995423 0.0259401
-0.0859631 -0.0427081 0.995382 0.0252255
-0.0859106 -0.0414179 0.995442 0.0244513
-0.084695 -0.0446145 0.995408 0.0210247
-0.0839125 -0.0462498 0.995399 0.0192717
-0.0829507 -0.0461881 0.995483 0.0176573
-0.0830467 -0.0468311 0.995445 0.0174091
-0.0839264 -0.0493675 0.995248 0.0176804
-0.0836974 -0.052152 0.995126 0.0185812
-0.0839434 -0.0524148 0.995091 0.0195251
-0.0835043 -0.0512611 0.995188 0.0173019
-0.0829862 -0.0472292 0.995431 0.0171098
-0.084393 -0.0441037 0.995456 0.0222574
-0.0855569 -0.0462017 0.995262 0.0259053
-0.0860406 -0.0509388 0.994989 0.0289029
-0.0881169 -0.0508636 0.994811 0.036652
-0.0885594 -0.053197 0.994649 0.0366612
-0.0884561 -0.0514676 0.99475 0.0368332
-0.0894684 -0.052758 0.994591 0.0393784
-0.0893455 -0.055761 0.994439 0.0404832
-0.0893709 -0.0606171 0.994152 0.0433116
-0.0910187 -0.0610089 0.993979 0.0461588
-0.0906089 -0.0607133 0.994034 0.0453315
-0.0902526 -0.0603648 0.994088 0.0441753
-0.0895551 -0.0587063 0.99425 0.040972
-0.0878117 -0.059257 0.994373 0.035718
-0.0866588 -0.0603986 0.994406 0.0332339
-0.0870706 -0.0632242 0.994194 0.0335949
-0.0878783 -0.065111 0.994001 0.0360984
-0.0886595 -0.064192 0.993991 0.0393712
-0.0883399 -0.0646495 0.99399 0.0405637
-0.0878383 -0.0646359 0.994036 0.0401221
-0.0867247 -0.0628422 0.994248 0.0367826
-0.085339 -0.0654664 0.994199 0.0303488
-0.0856678 -0.0658229 0.994147 0.0317062
-0.0849868 -0.0664428 0.994164 0.0305049
-0.0848083 -0.0660269 0.994207 0.0326965
-0.0849578 -0.0649784 0.994264 0.0318147
-0.0841948 -0.0649862 0.994328 0.0292135
-0.0828181 -0.062051 0.994631 0.0250589
-0.0824402 -0.0587765 0.994861 0.0250991
-0.0825249 -0.05879 0.994853 0.0259912
-0.0835895 -0.0545881 0.995004 0.0290087
-0.0833951 -0.052399 0.995138 0.030697
-0.0821045 -0.0499276 0.995372 0.0261482
-0.082105 -0.0464801 0.995539 0.0246889
-0.0821366 -0.0461828 0.995551 0.0245926
-0.0829458 -0.0428382 0.995633 0.0271955
-0.0823727 -0.037462 0.995897 0.026
-0.0832477 -0.0317413 0.996023 0.032737
-0.0839201 -0.028389 0.996068 0.0339334
-0.0847828 -0.023518 0.996122 0.0358307
-0.0853689 -0.0183832 0.99618 0.040352
-0.0863323 -0.0167425 0.996126 0.0462472
-0.0874386 -0.0130423 0.996085 0.048542
-0.0867283 -0.00844744 0.996196 0.0483322
-0.087406 -0.00465354 0.996162 0.0505943
-0.0880281 -0.00123162 0.996117 0.0524558
-0.0889492 0.000283664 0.996036 0.054401
-0.0882604 -0.000130276 0.996097 0.0509488
-0.0886478 0.00151147 0.996062 0.0525923
-0.0883354 0.00721809 0.996065 0.0506385
-0.0881843 0.0102536 0.996051 0.0516127
-0.0885891 0.0132009 0.995981 0.0539519
-0.0882714 0.0193665 0.995908 0.0536307
-0.0876996 0.0179234 0.995986 0.0511882
-0.08757 0.0176232 0.996002 0.0509696
-0.0872131 0.0227244 0.99593 0.0490406
-0.0849133 0.0232863 0.996116 0.0389279
-0.0845241 0.024282 0.996126 0.0378016
-0.0835039 0.0275486 0.996127 0.035643
-0.0832243 0.032476 0.996001 0.0340453
-0.0824688 0.0292298 0.996165 0.0309687
-0.0813563 0.0318316 0.996177 0.0238906
-0.0801636 0.0339514 0.996203 0.0198983
-0.0813753 0.0436886 0.995726 0.0234458
-0.0824311 0.0502004 0.995332 0.0298968
-0.0827956 0.0519213 0.995213 0.030876
-0.0834186 0.0588817 0.994773 0.0322242
-0.0847858 0.0642591 0.994325 0.0374304
-0.0846014 0.0707988 0.993896 0.0391092
-0.0839017 0.0699602 0.994015 0.0341766
-0.0837682 0.0660763 0.994292 0.0325894
-0.082224 0.0628926 0.994627 0.0227977
-0.0824552 0.0646293 0.994497 0.0227339
-0.0815461 0.0656302 0.994506 0.0208105
-0.0814012 0.0652464 0.994543 0.0195814
-0.0813622 0.0724141 0.994051 0.0168556
-0.0812168 0.0823155 0.993291 0.0144825
-0.0817418 0.0863722 0.992904 0.0167626
-0.0823136 0.0894013 0.992589 0.0181291
-0.0835952 0.0925097 0.992196 0.0211745
-0.0847412 0.100867 0.991284 0.0268443
-0.0849704 0.109068 0.990396 0.0279706
-0.0856139 0.12372 0.988617 0.0322922
-0.0858807 0.131263 0.987621 0.0339623
-0.0862576 0.131276 0.987586 0.0338764
-0.0870302 0.133918 0.987163 0.03617
-0.0864604 0.133547 0.987264 0.0334709
-0.0857054 0.134031 0.987264 0.029274
-0.0843894 0.135088 0.987233 0.020805
-0.0832763 0.137446 0.987002 0.0125222
-0.0819303 0.127023 0.98851 0.00414199
-0.0812881 0.11924 0.989532 0
-0.080916 0.118147 0.989694 0
-0.0809771 0.130301 0.988162 0
-0.0808683 0.130918 0.98809 0
-0.081197 0.141376 0.98662 0
-0.0815152 0.146345 0.985869 0
-0.0822205 0.151942 0.984964 0
-0.0828356 0.160749 0.983513 0
-0.0838008 0.183876 0.979371 0
-0.0839441 0.206085 0.974927 0.000790068
-0.0847358 0.225055 0.970654 0.00600631
-0.0851112 0.240967 0.966794 0.00715456
-0.0857793 0.252844 0.963697 0.0113606
-0.0867819 0.264948 0.96035 0.0130772
-0.086538 0.27559 0.957372 0.00992997
-0.0600964 -0.308594 0.949293 0
-0.059516 -0.301782 0.951518 0
-0.0605714 -0.291424 0.954674 0
-0.0608993 -0.274244 0.95973 0
-0.060731 -0.264176 0.96256 0
-0.0608592 -0.260232 0.963626 0
-0.0618918 -0.2412 0.9685 0
-0.0620612 -0.235065 0.969996 0
-0.0619753 -0.23966 0.968877 0
-0.0624858 -0.239146 0.968971 0
-0.0623442 -0.240322 0.968689 0
-0.0631006 -0.228878 0.971408 0
-0.0626047 -0.225663 0.972192 0
-0.0631636 -0.214836 0.974606 0
-0.0630703 -0.213583 0.974887 0
-0.0633839 -0.203897 0.976938 0
-0.0637535 -0.200111 0.977697 0
-0.0638951 -0.192834 0.979149 0
-0.0639779 -0.185015 0.980651 0
-0.0645494 -0.177934 0.981923 0
-0.0644536 -0.178788 0.981774 0
-0.0648681 -0.18081 0.981376 0
-0.0651118 -0.175823 0.982266 0
-0.065053 -0.166603 0.983876 0
-0.0647881 -0.16073 0.98487 0
-0.064752 -0.160033 0.984986 0
-0.0648573 -0.159438 0.985075 0
-0.0649 -0.151414 0.986338 0
-0.0648069 -0.154362 0.985887 0
-0.0650265 -0.151946 0.986247 0
-0.0654268 -0.144947 0.987274 0
-0.0657629 -0.14512 0.987226 0
-0.0657564 -0.143946 0.987398 0
-0.0660704 -0.145685 0.987122 0
-0.066012 -0.147034 0.986926 0
-0.065966 -0.145129 0.987211 0
-0.0663784 -0.14013 0.987906 0
-0.0660808 -0.140352 0.987894 0
-0.0658354 -0.140086 0.987948 0
-0.065866 -0.140835 0.98784 0
-0.065747 -0.141146 0.987803 0
-0.0655246 -0.137237 0.988369 0
-0.066388 -0.134822 0.988643 0
-0.0664359 -0.13728 0.988302 0
-0.0665396 -0.13577 0.988503 0
-0.0676188 -0.132098 0.988928 0
-0.0678823 -0.123762 0.989987 0
-0.0680826 -0.1205 0.990376 0
-0.0684762 -0.116132 0.99087 0
-0.0685518 -0.110992 0.991454 0
-0.0685342 -0.109732 0.991596 0
-0.0688437 -0.111552 0.991371 0
-0.0697972 -0.113182 0.99112 0
-0.0701569 -0.107724 0.991702 0
-0.0702099 -0.100494 0.992457 0
-0.0704303 -0.095245 0.992959 0
-0.0699654 -0.0958968 0.992929 0
-0.0705606 -0.0948643 0.992986 0
-0.0710668 -0.0870981 0.993662 0
-0.0708562 -0.0853418 0.993829 0
-0.0704988 -0.0843646 0.993938 0
-0.0710179 -0.0769216 0.994505 0
-0.0711319 -0.0712376 0.99492 0
-0.0723703 -0.0678247 0.995069 0.00166224
-0.0736751 -0.0594342 0.99551 0.00755332
-0.0742944 -0.0566274 0.995627 0.0110202
-0.0749 -0.0530699 0.995778 0.0128102
-0.0746779 -0.043572 0.996255 0.0116589
-0.0748438 -0.0409644 0.996354 0.012418
-0.0753792 -0.0349109 0.996544 0.0150628
-0.0752456 -0.0331247 0.996615 0.0165454
-0.0743818 -0.0333751 0.996671 0.0138557
-0.0741075 -0.0289323 0.99683 0.0131502
-0.0741653 -0.0250103 0.996932 0.0129848
-0.0742924 -0.0200361 0.997035 0.0129635
-0.0741771 -0.0188048 0.997068 0.0109234
-0.0734672 -0.0188752 0.997119 0.0108071
-0.0730151 -0.0219364 0.99709 0.00847362
-0.0709266 -0.0234402 0.997206 0
-0.0699792 -0.0228235 0.997287 0
-0.070674 -0.019625 0.997306 0
-0.0705506 -0.019766 0.997312 0
-0.0705392 -0.0209616 0.997289 0
-0.0712214 -0.0209288 0.997241 0
-0.0710097 -0.0176964 0.997319 0
-0.071018 -0.0139933 0.997377 0
-0.0712037 -0.0109163 0.997402 0
-0.0715498 -0.00993825 0.997388 0.00412404
-0.0704588 -0.00953035 0.997469 0.00206287
-0.0699747 -0.00959879 0.997503 0.000658468
-0.0703619 -0.0106808 0.997464 0.00177771
-0.0714109 -0.00739664 0.99742 0.00521182
-0.0727508 -0.0059316 0.997333 0.00983244
-0.0737181 -0.00540826 0.997264 0.0145055
-0.0738831 -0.00413681 0.997258 0.0161744
-0.0734353 -0.00465375 0.997289 0.0137767
-0.0732077 -0.00540411 0.997302 0.0141805
-0.073344 -0.00564126 0.997291 0.0143527
-0.0750621 -0.00249225 0.997176 0.0176331
-0.0754633 0.000354086 0.997149 0.0174616
-0.0749107 0.00173756 0.997189 0.0156692
-0.0749622 0.00275271 0.997183 0.0151744
-0.0739487 0.00268412 0.997258 0.0111802
-0.072765 -0.00405469 0.997341 0.00459875
-0.0720574 -0.00326278 0.997395 0.00127079
-0.0721526 -0.00257383 0.99739 0
-0.0717412 -0.00551541 0.997408 0
-0.071918 -0.0071536 0.997385 0
-0.0716624 -0.00893338 0.997389 0
-0.071414 -0.0127888 0.997365 0
-0.071364 -0.0153733 0.997332 0
-0.0717859 -0.0156758 0.997297 0
-0.0711572 -0.0172732 0.997316 0
-0.0710654 -0.0162872 0.997339 0
-0.0711069 -0.0128331 0.997386 0
-0.0713825 -0.010597 0.997393 0
-0.0714723 -0.0109975 0.997382 0
-0.0718833 -0.008061 0.99738 0
-0.0710968 -0.0114929 0.997403 0
-0.0712053 -0.015158 0.997346 0
-0.0718738 -0.0144884 0.997308 0
-0.0719938 -0.0176086 0.99725 0
-0.0719225 -0.0193317 0.997223 0.000431257
-0.0738679 -0.0146864 0.99716 0.0089155
-0.0753937 -0.0132618 0.997066 0.0150507
-0.0774421 -0.0143305 0.996894 0.0221432
-0.0779415 -0.0121854 0.996883 0.0232881
-0.0778329 -0.0140309 0.996868 0.0264311
-0.0780994 -0.0160729 0.996816 0.0267209
-0.0782395 -0.0173332 0.996784 0.0283456
-0.0793039 -0.0160727 0.996721 0.0324044
-0.0806665 -0.0191662 0.996557 0.0348926
-0.0817253 -0.0168023 0.996513 0.0400969
-0.0824685 -0.0154299 0.996474 0.044616
-0.0835193 -0.0166235 0.996368 0.0465882
-0.0834002 -0.0128591 0.996433 0.0464028
-0.0847556 -0.00749487 0.996374 0.0467685
-0.0859424 -0.00594608 0.996282 0.048882
-0.08604 -0.00318623 0.996287 0.050656
-0.0858258 -0.00106174 0.99631 0.0504998
-0.0852942 -0.00059807 0.996356 0.0476592
-0.0842487 -0.0010869 0.996444 0.0413018
-0.0829917 0.000726249 0.99655 0.035349
-0.0819449 -0.00167765 0.996635 0.0286356
-0.0801526 -0.00332914 0.996777 0.0231809
-0.0784592 -0.00359679 0.996911 0.0183769
-0.0769802 -0.00501978 0.99702 0.0118291
-0.0758082 -0.0102734 0.99707 0.00320596
-0.0754546 -0.0092123 0.997107 0
-0.0759442 -0.010896 0.997053 0
-0.0756797 -0.0121075 0.997059 0
-0.0751866 -0.0129325 0.997086 0
-0.0753076 -0.0151025 0.997046 0
-0.0758328 -0.0200776 0.996918 0
-0.0761064 -0.0225862 0.996844 0
-0.0759082 -0.0264506 0.996764 0
-0.0748965 -0.0311202 0.996706 0
-0.0749098 -0.0349271 0.996578 0
-0.075752 -0.0362146 0.996469 0
-0.0757533 -0.0368998 0.996444 0
-0.0764061 -0.0334815 0.996514 0
-0.0757941 -0.0323256 0.996599 0
-0.0753091 -0.0315542 0.996661 0
-0.0755141 -0.0294165 0.996711 0
-0.0758608 -0.0276928 0.996734 0
-0.0759308 -0.0228937 0.99685 0
-0.0764783 -0.0220299 0.996828 0
-0.0754308 -0.0200451 0.996949 0
-0.0753694 -0.019893 0.996957 0
-0.0755656 -0.0216246 0.996906 0
-0.0758622 -0.0201674 0.996914 0
-0.0763649 -0.0184082 0.99691 0
-0.0761207 -0.0170459 0.996953 0
-0.0759706 -0.0155743 0.996988 0
-0.0757378 -0.0210743 0.996905 0
-0.0754984 -0.0223876 0.996895 0
-0.076423 -0.0254545 0.996751 0
-0.0768749 -0.0221809 0.996794 0
-0.0764236 -0.0252442 0.996756 0
-0.0763489 -0.027935 0.99669 0
-0.0762095 -0.0309609 0.996611 0
-0.0768247 -0.0369328 0.99636 0
-0.0775197 -0.040023 0.996187 0
-0.0775907 -0.03914 0.996217 0
-0.0770538 -0.0416713 0.996156 0
-0.077062 -0.0419808 0.996142 0
-0.0777712 -0.0407069 0.99614 0
-0.0789408 -0.0415692 0.996012 0
-0.0794078 -0.0395669 0.996057 0
-0.0789339 -0.0358649 0.996235 0
-0.0789675 -0.0325219 0.996347 0
-0.079105 -0.0279393 0.996475 0
-0.0796037 -0.0258555 0.996491 0
-0.0791643 -0.025867 0.996526 0
-0.0794704 -0.0241069 0.996546 0
-0.0790474 -0.0210869 0.996648 0
-0.0792156 -0.0162687 0.996725 0
-0.0797158 -0.0119143 0.996746 0
-0.0805962 -0.0081529 0.996714 0
-0.0814177 -0.00695918 0.996656 0
-0.0810627 -0.00623268 0.996689 0
-0.081025 -0.00621675 0.996693 0
-0.0810664 -0.000313241 0.996709 0.00160239
-0.0819752 0.000822062 0.996634 0.00436066
-0.0826716 0.00262805 0.996573 0.00551327
-0.0846082 0.00647107 0.996393 0.00978213
-0.0844417 0.00557862 0.996413 0.0117092
-0.0841673 0.00207803 0.996449 0.0134316
-0.0846041 0.00207531 0.996413 0.0150943
-0.0848759 0.000928483 0.996391 0.014159
-0.0854733 -0.00405798 0.996332 0.0156013
-0.0864659 -0.0032603 0.996249 0.0169831
-0.086388 -0.00414705 0.996253 0.0199425
-0.0870508 -0.00578716 0.996187 0.0249675
-0.08838 -0.00337141 0.996081 0.030086
-0.0901697 -0.00159198 0.995925 0.0358377
-0.091716 -0.00318517 0.99578 0.0406224
-0.0927996 -0.00054183 0.995685 0.0447436
-0.0920943 -0.00433601 0.995741 0.0438397
-0.0916178 -0.00536095 0.99578 0.0442796
-0.0915266 -0.0065981 0.995781 0.0432116
-0.0912271 -0.00774258 0.9958 0.0414917
-0.0922232 -0.012717 0.995657 0.0434539
-0.0935819 -0.0148743 0.9955 0.0469346
-0.0925884 -0.0156319 0.995582 0.0466366
-0.0920247 -0.0164463 0.995621 0.0461899
-0.0923007 -0.0135854 0.995638 0.0450264
-0.0923858 -0.0123456 0.995647 0.0428266
-0.0904505 -0.0124393 0.995823 0.0367187
-0.0880684 -0.0161851 0.995983 0.0299706
-0.0863608 -0.0160546 0.996135 0.0243788
-0.0858239 -0.016837 0.996168 0.0234888
-0.0855774 -0.0170923 0.996185 0.0192408
-0.0846879 -0.0170683 0.996261 0.012462
-0.0832696 -0.0188212 0.996349 0.00639244
-0.0819547 -0.021808 0.996397 0.00213147
-0.0806999 -0.0244066 0.99644 0
-0.0811095 -0.0273223 0.996331 0
-0.081564 -0.0309272 0.996188 0
-0.0816847 -0.0334538 0.996097 0
-0.080632 -0.0378162 0.996026 0
-0.0799433 -0.0408139 0.995963 0
-0.0794675 -0.0436537 0.995881 0
-0.0794972 -0.0456233 0.99579 0
-0.0798977 -0.0489069 0.995603 0
-0.0805035 -0.0517043 0.995412 0
-0.0802708 -0.0551897 0.995244 0
-0.0790436 -0.0604101 0.995039 0
-0.0785166 -0.0671007 0.994652 0
-0.079377 -0.071208 0.994298 0
-0.0803142 -0.0728853 0.994101 0
-0.0805192 -0.0735905 0.994033 0
-0.080258 -0.0726539 0.994123 0
-0.0797721 -0.070361 0.994327 0
-0.0798491 -0.0703345 0.994322 0
-0.0803072 -0.0689743 0.994381 0
-0.0809684 -0.0670503 0.994459 0
-0.0809643 -0.0653312 0.994574 0
-0.0804 -0.0636014 0.994731 0
-0.0799293 -0.0635212 0.994775 0
-0.0793745 -0.0632261 0.994838 0
-0.0795655 -0.0600241 0.995021 0
-0.0796374 -0.0591879 0.995065 0
-0.079766 -0.0578423 0.995134 0
-0.0796603 -0.0565321 0.995218 0
-0.0789237 -0.0568663 0.995257 0
-0.0792148 -0.0537897 0.995405 0
-0.0800944 -0.0467188 0.995692 0
-0.0809783 -0.0427596 0.995798 0
-0.081261 -0.0395619 0.995907 0
-0.0815693 -0.0401649 0.995858 0
-0.0808515 -0.041417 0.995865 0
-0.0809976 -0.0426217 0.995803 0
-0.0822933 -0.0437903 0.995646 0
-0.0823435 -0.0441708 0.995625 0
-0.0818454 -0.0458973 0.995588 0
-0.0809253 -0.0481953 0.995554 0
-0.0803402 -0.0489752 0.995564 0
-0.0800965 -0.0553404 0.99525 0
-0.0802213 -0.0598404 0.994979 0
-0.0796417 -0.0599559 0.995019 0
-0.0794618 -0.0591869 0.995079 0
-0.0792453 -0.0555676 0.995305 0
-0.079592 -0.0543778 0.995343 0
-0.0795974 -0.0575727 0.995163 0
-0.0797838 -0.0576137 0.995146 0
-0.0808312 -0.0543419 0.995245 0.00490653
-0.0818365 -0.0528897 0.995241 0.00984948
-0.0820065 -0.051033 0.995324 0.0107463
-0.0836608 -0.047434 0.995365 0.01557
-0.0832576 -0.0492641 0.99531 0.015695
-0.0832893 -0.0485834 0.99534 0.0174723
-0.084194 -0.0469865 0.995341 0.0205799
-0.0834743 -0.0461966 0.995439 0.0194475
-0.0825558 -0.0445814 0.995589 0.0199144
-0.0822355 -0.0438478 0.995648 0.0149293
-0.081852 -0.0448063 0.995637 0.0140051
-0.0811997 -0.0513428 0.995375 0.0133995
-0.0815829 -0.0526761 0.995274 0.015002
-0.0813361 -0.0493027 0.995467 0.0153884
-0.0815562 -0.0500977 0.995409 0.0132399
-0.0816519 -0.0506824 0.995371 0.0108646
-0.0811286 -0.0511958 0.995388 0.0106856
-0.081591 -0.0525225 0.995281 0.0135766
-0.0830434 -0.0474379 0.995416 0.0206422
-0.084341 -0.0456161 0.995392 0.0247234
-0.0872909 -0.0419942 0.995297 0.0333939
-0.0881308 -0.0433595 0.995165 0.0368524
-0.0884731 -0.0450924 0.995057 0.0390736
-0.089003 -0.0495484 0.994798 0.0409885
-0.0898357 -0.0515085 0.994624 0.043952
-0.090816 -0.0520909 0.994504 0.0478013
-0.0919576 -0.0522296 0.994392 0.0513202
-0.0914195 -0.0549722 0.994294 0.0495073
-0.0907602 -0.054961 0.994355 0.0495383
-0.0904303 -0.0561519 0.994318 0.0482007
-0.0899189 -0.0599486 0.994143 0.0455726
-0.0888368 -0.0595684 0.994263 0.0425205
-0.0898176 -0.0574314 0.994301 0.0426248
-0.0889869 -0.057667 0.994362 0.0428816
-0.0886069 -0.0591124 0.994311 0.044303
-0.0891581 -0.0601658 0.994199 0.0439267
-0.0890495 -0.0632621 0.994016 0.0438564
-0.0888914 -0.0646605 0.99394 0.0430074
-0.0882807 -0.0644829 0.994006 0.0425575
-0.0866992 -0.0645465 0.994141 0.0369394
-0.0859791 -0.0624675 0.994337 0.0344051
-0.0855967 -0.0614898 0.994431 0.0347763
-0.0850843 -0.062773 0.994394 0.0327176
-0.0854549 -0.06695 0.99409 0.0331592
-0.0856384 -0.0643936 0.994243 0.0312746
-0.0846425 -0.0616026 0.994505 0.0287973
-0.0832931 -0.0605467 0.994684 0.0254394
-0.081275 -0.0583286 0.994983 0.020196
-0.080883 -0.0583688 0.995013 0.0181044
-0.0812803 -0.0569891 0.995061 0.0203216
-0.0818203 -0.0531056 0.995231 0.0245571
-0.0830735 -0.0478617 0.995393 0.0286388
-0.0833395 -0.0417117 0.995648 0.031926
-0.083243 -0.0386838 0.995778 0.0309503
-0.083943 -0.0327526 0.995932 0.0312094
-0.0842146 -0.0307072 0.995974 0.0327213
-0.0843655 -0.0295714 0.995996 0.03207
-0.0846985 -0.0229682 0.996142 0.0353883
-0.0855882 -0.019372 0.996142 0.0377422
-0.0865767 -0.0137441 0.99615 0.0414383
-0.0881983 -0.00981464 0.996055 0.0489783
-0.0891582 -0.00895314 0.995977 0.0526643
-0.0889054 -0.00467459 0.996029 0.0519973
-0.0885931 -0.00192808 0.996066 0.0524778
-0.0887746 -0.000750353 0.996051 0.0525951
-0.0878581 0.00212832 0.996131 0.0491986
-0.087265 0.00172003 0.996184 0.0456109
-0.0870574 0.00271024 0.9962 0.0434358
-0.0881774 0.0064231 0.996084 0.0462226
-0.086886 0.00486818 0.996206 0.04147
-0.0877059 0.0137775 0.996051 0.0444473
-0.0883965 0.0195052 0.995894 0.0490216
-0.0882729 0.0226352 0.995839 0.0494188
-0.0871248 0.0261331 0.995855 0.0449119
-0.0856113 0.0240108 0.996039 0.0378977
-0.084975 0.0237501 0.9961 0.0342588
-0.0846556 0.0272064 0.996039 0.0319394
-0.0829751 0.0258151 0.996217 0.026454
-0.0820745 0.0278626 0.996237 0.0242315
-0.0826507 0.0304052 0.996115 0.0249944
-0.082274 0.0304266 0.996145 0.022978
-0.0812527 0.0298328 0.996247 0.0183477
-0.0805504 0.0305416 0.996283 0.0144495
-0.0811121 0.0379672 0.995982 0.0153947
-0.0831748 0.0476859 0.995393 0.0248774
-0.0839095 0.0533497 0.995044 0.028979
-0.0835701 0.0574329 0.994845 0.0264389
-0.0838358 0.0595371 0.994699 0.0251269
-0.0843511 0.0625313 0.994472 0.0293507
-0.0837708 0.0661349 0.994288 0.0282656
-0.0834521 0.0628524 0.994528 0.0258959
-0.083264 0.0614569 0.994631 0.0221381
-0.0827162 0.0647755 0.994466 0.0184189
-0.0823033 0.0698126 0.994159 0.0163931
-0.0822984 0.0707915 0.99409 0.0157668
-0.0815464 0.0709456 0.994141 0.012303
-0.0818773 0.0732841 0.993944 0.0137432
-0.0817365 0.0785205 0.993556 0.0100731
-0.081142 0.0770243 0.993722 0.00415943
-0.0808464 0.0853798 0.993063 0.000990022
-0.0822588 0.0933997 0.992225 0.00725533
-0.0833857 0.101088 0.991377 0.0123736
-0.0835136 0.10726 0.990717 0.0158495
-0.0838144 0.114953 0.989829 0.0183356
-0.0829807 0.12072 0.989212 0.0133649
-0.0829432 0.119676 0.989342 0.0144102
-0.0823746 0.116898 0.989722 0.00946375
-0.0825102 0.129762 0.988106 0.0110414
-0.0817638 0.130897 0.988019 0.00856456
-0.0804306 0.125186 0.988868 0.000958736
-0.0802635 0.131028 0.988124 0
-0.0804549 0.13595 0.987443 0
-0.080371 0.137742 0.987202 0
-0.0800333 0.141663 0.986674 0
-0.0803787 0.149584 0.985476 0
-0.0801684 0.16257 0.983435 0
-0.0808447 0.174032 0.981416 0
-0.0814643 0.175684 0.98107 0
-0.0830611 0.202091 0.975838 0.00748291
-0.0840266 0.220471 0.971768 0.0107
-0.0850219 0.236131 0.967995 0.0132536
-0.0840796 0.23734 0.967781 0.00871747
-0.0852474 0.264135 0.960711 0.01247
-0.0849103 0.258604 0.962244 0.00988366
-0.085404 0.272982 0.958221 0.00768017
-0.0594098 -0.314815 0.947292 0
-0.0591757 -0.310556 0.948711 0
-0.0596637 -0.296655 0.953119 0
-0.0603065 -0.282175 0.957466 0
-0.0606265 -0.273588 0.959934 0
-0.0611451 -0.255269 0.964935 0
-0.061174 -0.243717 0.967915 0
-0.061466 -0.24603 0.967311 0
-0.0619823 -0.242174 0.968251 0
-0.062252 -0.241583 0.968381 0
-0.0624032 -0.239678 0.968845 0
-0.061923 -0.231187 0.970937 0
-0.0623196 -0.223863 0.972626 0
-0.0626511 -0.213421 0.974949 0.00124012
-0.0629453 -0.205101 0.976715 0
-0.0633814 -0.194668 0.978819 0
-0.0637068 -0.195796 0.978573 0.000649459
-0.0638508 -0.186475 0.980383 0.000644951
-0.0640629 -0.177979 0.981947 0.00468429
-0.0640707 -0.172098 0.982994 0.00215297
-0.0650166 -0.171238 0.983082 0.00462924
-0.0656708 -0.172597 0.982801 0.00531093
-0.0652961 -0.170373 0.983214 0.000375398
-0.0648037 -0.173267 0.982741 0
-0.0649458 -0.162879 0.984506 0
-0.0651369 -0.159917 0.984979 0
-0.0652914 -0.156882 0.985457 0
-0.0647824 -0.160778 0.984862 0
-0.0650591 -0.158805 0.985164 0
-0.0653752 -0.153221 0.986027 0
-0.065563 -0.152803 0.986079 0
-0.0656767 -0.155169 0.985702 0
-0.0659752 -0.153284 0.985977 0
-0.0661972 -0.152666 0.986058 0
-0.0664521 -0.155895 0.985536 0
-0.0660124 -0.151714 0.986218 0
-0.0661416 -0.144788 0.987249 0
-0.0664057 -0.141177 0.987755 0
-0.0657614 -0.141893 0.987695 0
-0.0659132 -0.143444 0.987461 0
-0.0658752 -0.139242 0.988065 0
-0.0654817 -0.14266 0.987603 0
-0.0659762 -0.143933 0.987386 0
-0.066185 -0.144446 0.987297 0
-0.0669031 -0.135747 0.988482 0
-0.0674192 -0.132209 0.988926 0
-0.0679162 -0.126379 0.989654 0
-0.0681155 -0.118181 0.990653 0
-0.0682339 -0.114197 0.991112 0
-0.0683142 -0.111549 0.991408 0
-0.0690873 -0.11015 0.991511 0
-0.068926 -0.112895 0.991213 0
-0.0688274 -0.114826 0.990998 0
-0.0695989 -0.114897 0.990936 0
-0.0703423 -0.103131 0.992177 0
-0.0705618 -0.0985087 0.992631 0
-0.0707046 -0.0970552 0.992764 0
-0.0705574 -0.0942351 0.993047 0
-0.0703833 -0.0911725 0.993345 0
-0.0699779 -0.0890957 0.993562 0
-0.0706608 -0.0886406 0.993554 0
-0.0709081 -0.0813957 0.994156 0
-0.071413 -0.0747183 0.994644 0
-0.0716959 -0.0694242 0.995007 0
-0.0721065 -0.0685021 0.995042 0
-0.0725367 -0.0654397 0.995217 0.00418722
-0.0734158 -0.062625 0.995333 0.00611447
-0.0728741 -0.0563755 0.995746 0.00313691
-0.072877 -0.0471464 0.996226 0.00420669
-0.0738707 -0.0415397 0.996402 0.00992857
-0.0744141 -0.0389628 0.996466 0.0128807
-0.0745274 -0.0336911 0.99665 0.0157801
-0.0741214 -0.0338796 0.996674 0.0138263
-0.0736807 -0.0282515 0.996882 0.0126809
-0.0739129 -0.0231599 0.996996 0.0138689
-0.0730677 -0.0217713 0.997089 0.00945469
-0.0721883 -0.0191524 0.997207 0.0056995
-0.0720378 -0.0188147 0.997224 0.00503063
-0.070289 -0.0220873 0.997282 0
-0.0696306 -0.0191961 0.997388 0
-0.0694469 -0.0181674 0.99742 0
-0.070076 -0.0192705 0.997355 0
-0.0707222 -0.0175723 0.997341 0
-0.070776 -0.014115 0.997392 0
-0.0707242 -0.0123544 0.997419 0
-0.0700511 -0.0122281 0.997468 0
-0.0703094 -0.00876118 0.997487 0
-0.0718713 -0.00891283 0.997374 0.00372713
-0.0710722 -0.00820507 0.997437 0.00404524
-0.0706162 -0.00800453 0.997471 0.0042103
-0.0706424 -0.00775615 0.997472 0.00523062
-0.0711358 -0.0069575 0.997442 0.00736333
-0.0727274 -0.00205144 0.99735 0.0148334
-0.0743129 -0.00439352 0.997225 0.0179062
-0.0744486 -0.00433227 0.997215 0.0189965
-0.0739719 -0.00393408 0.997253 0.0172487
-0.0734967 -0.00401293 0.997287 0.0163869
-0.0736117 -0.0029275 0.997283 0.0196182
-0.0742106 0.00159713 0.997241 0.019877
-0.07556 0.00394035 0.997133 0.0203745
-0.0759122 0.00458877 0.997104 0.0214277
-0.0751453 0.00524818 0.997159 0.0190527
-0.0746586 0.00396199 0.997201 0.0162322
-0.0737654 0.00106443 0.997275 0.0126087
-0.0729417 -0.000343713 0.997336 0.00932407
-0.072598 -0.00109539 0.997361 0.00398854
-0.0718941 -0.000155177 0.997412 0
-0.0715576 -0.00270335 0.997433 0
-0.0712481 -0.00717522 0.997433 0
-0.0708765 -0.0121365 0.997411 0
-0.0705958 -0.014718 0.997396 0
-0.070684 -0.013355 0.997409 0
-0.0707803 -0.0154467 0.997372 0
-0.070692 -0.0172822 0.997348 0
-0.0705812 -0.0191767 0.997322 0
-0.0708841 -0.0182929 0.997317 0
-0.0708498 -0.0152276 0.997371 0
-0.0712042 -0.0118653 0.997391 0
-0.0714166 -0.0120338 0.997374 0
-0.0710405 -0.0166119 0.997335 0
-0.0712375 -0.0169435 0.997315 0
-0.071597 -0.0188216 0.997256 0
-0.0720475 -0.0189661 0.997221 0.00452449
-0.0733123 -0.0145942 0.997202 0.0101724
-0.0756463 -0.0111911 0.997072 0.0193578
-0.0774552 -0.0115314 0.996929 0.0262847
-0.0779471 -0.00960206 0.996911 0.0280235
-0.0779113 -0.0100118 0.99691 0.029959
-0.0783071 -0.0125556 0.99685 0.0318037
-0.0790423 -0.0110947 0.996809 0.0342261
-0.0800183 -0.00990134 0.996744 0.0369968
-0.0800637 -0.0136111 0.996697 0.0382294
-0.0813086 -0.0161546 0.996558 0.0417725
-0.0826728 -0.0167547 0.996436 0.0463054
-0.0837215 -0.0152356 0.996373 0.0503242
-0.0841222 -0.0118118 0.996385 0.0521469
-0.0845781 -0.00714979 0.996391 0.050614
-0.0842568 -0.00472591 0.996433 0.0491251
-0.0845425 -0.0045078 0.99641 0.0498645
-0.0858154 -0.0026563 0.996308 0.0522258
-0.0849493 -0.00391257 0.996378 0.0497718
-0.0838841 -0.00627276 0.996456 0.0442346
-0.0825578 -0.00211341 0.996584 0.0354668
-0.0806513 -0.00108359 0.996742 0.0281393
-0.0794763 -0.00518473 0.996823 0.0215939
-0.079101 -0.00869766 0.996829 0.0177912
-0.0769515 -0.00840364 0.996999 0.0105587
-0.0761689 -0.00812363 0.997062 0.00614495
-0.0750233 -0.00742637 0.997154 0
-0.0746819 -0.00777341 0.997177 0
-0.0749468 -0.00938976 0.997143 0
-0.075279 -0.0102715 0.99711 0
-0.0750407 -0.0128575 0.997098 0
-0.0745666 -0.0168849 0.997073 0
-0.0744802 -0.0196013 0.99703 0
-0.0747737 -0.0229818 0.996936 0
-0.0747522 -0.0278547 0.996813 0
-0.074665 -0.0305104 0.996742 0
-0.074622 -0.0315445 0.996713 0
-0.07444 -0.035886 0.99658 0
-0.0751767 -0.0333187 0.996613 0
-0.0753873 -0.0335781 0.996589 0
-0.0748356 -0.0371992 0.996502 0
-0.0752349 -0.0352873 0.996541 0
-0.0752567 -0.0314034 0.99667 0
-0.0747324 -0.0309321 0.996724 0
-0.0748866 -0.0287701 0.996777 0
-0.0750076 -0.0254487 0.996858 0
-0.07465 -0.0244788 0.996909 0
-0.0748707 -0.0254065 0.99687 0
-0.0751343 -0.0237025 0.996892 0
-0.075187 -0.0200524 0.996968 0
-0.0759847 -0.0154678 0.996989 0
-0.0760611 -0.0141299 0.997003 0
-0.0750007 -0.0176739 0.997027 0
-0.0756608 -0.0230235 0.996868 0
-0.0755477 -0.0224588 0.996889 0
-0.0756708 -0.020873 0.996914 0
-0.0766467 -0.0201147 0.996855 0
-0.0767579 -0.0201268 0.996847 0
-0.0760615 -0.0246073 0.996799 0
-0.0763646 -0.0301067 0.996625 0
-0.0765959 -0.034053 0.99648 0
-0.0767816 -0.0371034 0.996357 0
-0.0767417 -0.0350487 0.996435 0
-0.0767135 -0.0362944 0.996392 0
-0.0766025 -0.037654 0.99635 0
-0.0772166 -0.0380601 0.996288 0
-0.0785774 -0.0368846 0.996225 0.00318967
-0.0791296 -0.0334737 0.996302 0.00620444
-0.0802049 -0.030741 0.996304 0.00553231
-0.0798737 -0.0270044 0.996439 0.00453036
-0.0797188 -0.0252409 0.996498 0.00581194
-0.0797187 -0.0241884 0.996524 0.00256562
-0.0788433 -0.0245001 0.996586 0
-0.079348 -0.0221115 0.996602 0
-0.0796253 -0.0158264 0.996699 0
-0.0793644 -0.0139186 0.996749 0
-0.0800545 -0.0079589 0.996759 0
-0.0806323 -0.00559746 0.996728 0.00101265
-0.0808106 -0.00778 0.996699 0
-0.0809295 -0.0038459 0.996712 0.000632404
-0.0810534 0.000489464 0.99671 0.00267919
-0.0813958 0.00263676 0.996678 0.0043915
-0.0824022 0.00851079 0.996563 0.00849261
-0.0833889 0.00755052 0.996488 0.0101679
-0.0837537 0.00668346 0.996464 0.0100466
-0.0846391 0.00580367 0.996395 0.01438
-0.0849099 0.00834265 0.996354 0.0166711
-0.0852356 0.00718789 0.996335 0.0193791
-0.0854043 0.00401998 0.996338 0.0194541
-0.0856082 0.000407953 0.996329 0.0187257
-0.0863823 -0.00329207 0.996257 0.019503
-0.0867246 -0.00522136 0.996219 0.0212041
-0.0868624 -0.00465962 0.996209 0.0242256
-0.0883043 -0.00391498 0.996086 0.0300802
-0.0901225 -0.00219766 0.995928 0.0374799
-0.0918041 -0.00313449 0.995772 0.0429533
-0.0922006 -0.00536303 0.995726 0.0445263
-0.0918639 -0.00775043 0.995741 0.0445713
-0.0905416 -0.0102603 0.99584 0.0417078
-0.0898768 -0.0112655 0.995889 0.0387842
-0.090818 -0.0129041 0.995784 0.0415294
-0.0922635 -0.0148012 0.995625 0.0461945
-0.09319 -0.0161349 0.995518 0.0480371
-0.0919301 -0.0171933 0.995617 0.0466622
-0.0911039 -0.015174 0.995726 0.044272
-0.0906657 -0.0135779 0.995789 0.0406666
-0.0884259 -0.0118839 0.996012 0.0340588
-0.0867989 -0.0131798 0.996139 0.0264224
-0.0855013 -0.0162719 0.996205 0.0209699
-0.0837521 -0.0200498 0.996285 0.0156697
-0.0826165 -0.0202956 0.996375 0.010419
-0.0818706 -0.0204596 0.996433 0.00525751
-0.0810603 -0.0215809 0.996476 0.00196711
-0.0806345 -0.0229716 0.996479 0
-0.0801116 -0.0294138 0.996352 0
-0.0799723 -0.0346309 0.996195 0
-0.0799708 -0.0356683 0.996159 0
-0.0795081 -0.0377836 0.996118 0
-0.0796254 -0.038554 0.996079 0
-0.0787142 -0.040148 0.996089 0
-0.0786032 -0.041224 0.996053 0
-0.0787208 -0.0437071 0.995938 0
-0.0782311 -0.0467435 0.995839 0
-0.0787935 -0.0536761 0.995445 0
-0.0789208 -0.0564915 0.995279 0
-0.0783034 -0.0617254 0.995017 0
-0.0778212 -0.0665052 0.994747 0
-0.078557 -0.068678 0.994541 0
-0.0783336 -0.0725022 0.994287 0
-0.0789581 -0.0745957 0.994083 0
-0.0796752 -0.0725744 0.994175 0
-0.0795195 -0.0710412 0.994299 0
-0.0796569 -0.0692381 0.994415 0
-0.0795243 -0.0692095 0.994427 0
-0.079679 -0.069219 0.994414 0
-0.0795926 -0.0680434 0.994502 0
-0.0800374 -0.0650942 0.994664 0
-0.0791864 -0.0631666 0.994856 0
-0.0790442 -0.0654079 0.994723 0
-0.0796922 -0.0622147 0.994876 0
-0.0791376 -0.0629998 0.994871 0
-0.0788067 -0.0597776 0.995096 0
-0.0787976 -0.0595292 0.995112 0
-0.0787064 -0.0595768 0.995116 0
-0.0785434 -0.0559091 0.995342 0
-0.0791786 -0.0513736 0.995536 0
-0.0794713 -0.0460021 0.995775 0
-0.0799876 -0.0422259 0.995901 0
-0.0804867 -0.041158 0.995906 0
-0.0806091 -0.044534 0.99575 0
-0.0808241 -0.0447063 0.995725 0
-0.081519 -0.0431906 0.995736 0
-0.0816258 -0.0423389 0.995763 0
-0.0808851 -0.0439411 0.995754 0
-0.0804193 -0.0475614 0.995626 0
-0.0798017 -0.0512308 0.995493 0
-0.0795962 -0.0557512 0.995267 0
-0.0802081 -0.057318 0.995129 0
-0.0795565 -0.0584697 0.995114 0
-0.0786066 -0.0574403 0.99525 0
-0.0786057 -0.0573071 0.995257 0
-0.0786855 -0.0576657 0.99523 0
-0.0792552 -0.0593521 0.995086 0
-0.0794034 -0.056384 0.995247 0
-0.0798683 -0.0536631 0.99536 0.00349891
-0.0805756 -0.0509083 0.995448 0.00842386
-0.0810257 -0.0501041 0.995452 0.0116269
-0.0818531 -0.0477721 0.995499 0.0147928
-0.0827423 -0.0510754 0.995261 0.0162721
-0.0826541 -0.0520539 0.995218 0.0167078
-0.08197 -0.0491061 0.995424 0.0158246
-0.0811359 -0.0468816 0.9956 0.0162817
-0.0812264 -0.0465857 0.995606 0.0153591
-0.0805798 -0.0456388 0.995703 0.0127604
-0.0798584 -0.0477225 0.995663 0.00785156
-0.0789346 -0.0569846 0.99525 0.00336224
-0.0786469 -0.055503 0.995356 0.00456936
-0.0787821 -0.0527613 0.995495 0.00703176
-0.0791612 -0.0501919 0.995597 0.00660246
-0.079299 -0.0518556 0.995501 0.00414933
-0.0807425 -0.0519816 0.995379 0.00959576
-0.0823475 -0.0517587 0.995259 0.0178354
-0.0833138 -0.0492381 0.995306 0.0229145
-0.0845004 -0.0476879 0.995282 0.0264444
-0.0873447 -0.0438495 0.995213 0.0351022
-0.0887887 -0.0451449 0.995027 0.040835
-0.0901396 -0.0447608 0.994923 0.0462335
-0.0912394 -0.0482506 0.994659 0.0500421
-0.0908273 -0.0507518 0.994573 0.0499814
-0.0909241 -0.0504031 0.994582 0.0521556
-0.0916385 -0.0493485 0.994569 0.0529594
-0.0921451 -0.0516174 0.994407 0.0538264
-0.0914294 -0.0520893 0.994448 0.0521731
-0.0895035 -0.059685 0.994197 0.0472988
-0.0884037 -0.0595381 0.994304 0.0453431
-0.0884131 -0.0579931 0.994394 0.0422648
-0.0887726 -0.053113 0.994635 0.0406651
-0.0898061 -0.0515349 0.994625 0.0448601
-0.0900146 -0.0547556 0.994434 0.0479467
-0.0904918 -0.0578235 0.994217 0.051376
-0.0900422 -0.0611183 0.994061 0.0515462
-0.0889327 -0.0622725 0.994089 0.0468277
-0.0880686 -0.0644931 0.994024 0.042809
-0.087533 -0.0638924 0.994111 0.0399796
-0.087244 -0.0640179 0.994128 0.0388813
-0.0854592 -0.0615289 0.99444 0.0349262
-0.0842033 -0.0611145 0.994573 0.032023
-0.0843143 -0.0609798 0.994572 0.0286586
-0.0834664 -0.0614443 0.994614 0.0251957
-0.0828885 -0.0564778 0.994957 0.0232003
-0.0822695 -0.0560072 0.995035 0.0220842
-0.0815541 -0.0573609 0.995017 0.0199791
-0.0814178 -0.05782 0.995001 0.0212989
-0.0811567 -0.0546568 0.995202 0.0210545
-0.0807066 -0.0534311 0.995305 0.0192547
-0.0813435 -0.0481054 0.995525 0.022221
-0.0829325 -0.0390696 0.995789 0.0279993
-0.083085 -0.0373601 0.995842 0.0302033
-0.0825469 -0.0370668 0.995898 0.0298226
-0.0835795 -0.0318805 0.995991 0.0310197
-0.0835289 -0.0293169 0.996074 0.0321807
-0.0844268 -0.0238209 0.996145 0.0340967
-0.0860903 -0.0181738 0.996122 0.0377576
-0.0869669 -0.00991293 0.996162 0.0433085
-0.0880805 -0.00718073 0.996087 0.0492138
-0.089012 -0.00460802 0.99602 0.0521665
-0.0896426 -0.0021762 0.995972 0.0540745
-0.089129 -0.00120804 0.996019 0.0529397
-0.0889288 0.0012348 0.996037 0.0514848
-0.088382 0.00206973 0.996085 0.0488327
-0.0879599 0.0016005 0.996123 0.0457705
-0.0882876 0.00152689 0.996094 0.0459349
-0.0888025 0.00663378 0.996027 0.0479134
-0.0889759 0.00928081 0.995991 0.0481127
-0.0891474 0.0133042 0.99593 0.0483264
-0.0894923 0.0166933 0.995848 0.0501529
-0.0890762 0.0217483 0.995787 0.0501837
-0.0884591 0.0248361 0.99577 0.0470721
-0.0861694 0.0179901 0.996118 0.038404
-0.0845017 0.0225556 0.996168 0.0326189
-0.0835605 0.0221487 0.996257 0.0284547
-0.083031 0.0224206 0.996295 0.0258336
-0.0819902 0.0260779 0.996292 0.0212741
-0.081032 0.025288 0.996391 0.0170452
-0.0803139 0.0233072 0.996497 0.0133313
-0.0795064 0.0227649 0.996574 0.0106055
-0.0806392 0.0269749 0.996378 0.0134446
-0.0811745 0.0335225 0.996136 0.0155059
-0.0815774 0.0412607 0.995813 0.016902
-0.0827605 0.0489343 0.995367 0.0223864
-0.0837624 0.0533365 0.995057 0.0249521
-0.0834327 0.0549532 0.994997 0.0232589
-0.0848764 0.0673795 0.994111 0.0308616
-0.0850868 0.0709298 0.993846 0.0318486
-0.0836079 0.0683036 0.994155 0.0234438
-0.0840031 0.0762295 0.993546 0.0262186
-0.0825379 0.0690291 0.994194 0.0170293
-0.0820203 0.0716789 0.99405 0.014409
-0.0814577 0.0693437 0.994262 0.0102091
-0.0813573 0.0708032 0.994167 0.00865364
-0.0813257 0.0748157 0.993876 0.00857754
-0.0812378 0.0810936 0.99339 0.00625795
-0.0809557 0.0840182 0.99317 0.00351063
-0.0803239 0.082533 0.993346 0
-0.0804393 0.0839001 0.993222 0
-0.0802526 0.0836399 0.993259 0
-0.0802432 0.0904144 0.992666 0
-0.0802675 0.097334 0.99201 0
-0.0805087 0.104376 0.991274 0.00142869
-0.0809281 0.113032 0.99029 0.00508638
-0.0807026 0.118836 0.989629 0.00388508
-0.0809685 0.123852 0.988992 0.00396945
-0.0796766 0.120592 0.9895 0.00184084
-0.079961 0.132819 0.98791 7.50203e-05
-0.0794658 0.136068 0.987507 0
-0.079754 0.146203 0.986034 0
-0.0800838 0.148551 0.985657 0
-0.0792891 0.148389 0.985745 0
-0.0793048 0.156133 0.984547 0
-0.0796836 0.162552 0.983477 0
-0.080509 0.180583 0.980259 0.00011618
-0.0811313 0.195258 0.97739 0.00304831
-0.0819706 0.202955 0.975751 0.00436215
-0.0826467 0.217187 0.972625 0.00693548
-0.0843545 0.242355 0.966513 0.0154849
-0.0843451 0.245985 0.965597 0.012254
-0.0843825 0.2589 0.962211 0.0108284
-0.0851014 0.274514 0.95781 0.0139325
-0.0854794 0.283485 0.95516 0.0133462
-0.0590903 -0.325259 0.943777 0
-0.0591648 -0.325492 0.943692 0
-0.0593175 -0.322721 0.944634 0
-0.0598791 -0.300711 0.951834 0
-0.0598924 -0.291523 0.954687 0
-0.0598518 -0.279313 0.958333 0
-0.0595815 -0.269604 0.961126 0
-0.0596471 -0.261937 0.96324 0
-0.060234 -0.251125 0.966079 0
-0.0600587 -0.253991 0.96534 0
-0.0616359 -0.23761 0.969403 0
-0.062971 -0.236594 0.969566 0.00851347
-0.0629012 -0.231927 0.970697 0.00636552
-0.0632792 -0.229164 0.971329 0.00813526
-0.0627977 -0.221176 0.97321 0.00734922
-0.0635088 -0.213265 0.974928 0.00954833
-0.0644088 -0.200838 0.977505 0.0134117
-0.0646243 -0.192609 0.979145 0.0122952
-0.0645284 -0.18631 0.98037 0.0128739
-0.0651421 -0.184438 0.980683 0.0162366
-0.0651012 -0.181459 0.981241 0.0141485
-0.0664947 -0.176402 0.98207 0.0174319
-0.0660936 -0.174699 0.982401 0.0141858
-0.0660782 -0.172453 0.982799 0.0105581
-0.065115 -0.168941 0.983473 0.00218173
-0.0646171 -0.169289 0.983446 0.00180708
-0.0647263 -0.172989 0.982795 0
-0.065217 -0.172093 0.98292 0
-0.065366 -0.172768 0.982791 0
-0.065454 -0.174155 0.98254 0
-0.06587 -0.175145 0.982337 0
-0.0653257 -0.177581 0.981936 0
-0.0656878 -0.171973 0.982909 0
-0.065905 -0.17269 0.982769 0
-0.0655952 -0.169096 0.983414 0
-0.0662389 -0.162714 0.984447 0
-0.0662534 -0.159887 0.98491 0
-0.066179 -0.152946 0.986016 0
-0.0656112 -0.147686 0.986856 0
-0.0656643 -0.142284 0.987646 0
-0.0654141 -0.141471 0.987779 0
-0.0660094 -0.139187 0.988064 0
-0.0664678 -0.140021 0.987915 0
-0.066287 -0.139982 0.987933 0
-0.0664303 -0.133835 0.988775 0
-0.067074 -0.135297 0.988532 0
-0.0669705 -0.138791 0.988055 0
-0.0671028 -0.132786 0.988871 0
-0.0674461 -0.128547 0.989407 0
-0.0676475 -0.121794 0.990247 0
-0.0682509 -0.110506 0.991529 0
-0.0688416 -0.112688 0.991243 0
-0.068698 -0.116028 0.990867 0
-0.0693947 -0.111559 0.991332 0
-0.0700659 -0.109495 0.991515 0
-0.0695708 -0.105862 0.991944 0
-0.0694184 -0.103114 0.992244 0
-0.0696963 -0.103612 0.992173 0
-0.070121 -0.0996927 0.992544 0
-0.0696896 -0.0973911 0.992803 0
-0.0700421 -0.0935423 0.993149 0
-0.0706543 -0.0887241 0.993547 0
-0.0706403 -0.0831581 0.99403 0
-0.0713916 -0.0775973 0.994425 0
-0.0706445 -0.0800182 0.994287 0
-0.0712309 -0.0796983 0.994271 0
-0.0707423 -0.0760049 0.994595 0
-0.0709504 -0.0728977 0.994813 0
-0.0712724 -0.0657865 0.995285 0
-0.0718071 -0.0541866 0.995946 0.000134838
-0.0724904 -0.047977 0.996215 0.00604158
-0.0724545 -0.0435183 0.996422 0.0101772
-0.0722206 -0.0379793 0.996665 0.010695
-0.0723078 -0.0311186 0.996897 0.00663897
-0.071803 -0.0273344 0.997044 0.0071659
-0.0705171 -0.0278753 0.997121 0
-0.0705155 -0.026879 0.997148 0
-0.0693955 -0.0267441 0.997231 0
-0.069637 -0.0252895 0.997252 0
-0.0696843 -0.0259041 0.997233 0
-0.0690141 -0.024286 0.99732 0
-0.0691559 -0.0232421 0.997335 0
-0.0698206 -0.0195466 0.997368 0
-0.0697481 -0.0167948 0.997423 0
-0.0716089 -0.0115986 0.997365 0.00247906
-0.0721073 -0.0127784 0.997315 0.00364772
-0.0703722 -0.0111422 0.997459 0.00154318
-0.070271 -0.00763917 0.997499 0.00286679
-0.0721241 -0.00470447 0.997385 0.0124839
-0.0724263 -0.00174244 0.997372 0.015606
-0.0729485 -0.00141341 0.997335 0.0153386
-0.0728751 -0.00344545 0.997335 0.0154232
-0.0728474 -0.0031575 0.997338 0.0173465
-0.0730691 -0.000706116 0.997327 0.0188021
-0.0733126 0.000357493 0.997309 0.0206954
-0.0744308 0.000397731 0.997226 0.0233556
-0.074707 -0.00335126 0.9972 0.0207738
-0.0739913 -0.00460729 0.997248 0.0182008
-0.0723689 -0.00481332 0.997366 0.0164845
-0.0726278 -0.00115621 0.997358 0.0183973
-0.0738663 0.00275168 0.997264 0.0215005
-0.0749786 0.00418385 0.997176 0.0210603
-0.075484 0.00585708 0.99713 0.0210596
-0.0749342 0.00452082 0.997178 0.0207183
-0.0733931 0.00221633 0.997301 0.0158977
-0.0723008 0.00229785 0.99738 0.0124223
-0.07247 0.00145437 0.99737 0.00937354
-0.0727552 0.000761776 0.99735 0.00454096
-0.0713895 -0.00260744 0.997445 0
-0.0709401 -0.00520528 0.997467 0
-0.0699041 -0.00729852 0.997527 0
-0.0695696 -0.00849897 0.997541 0
-0.0700845 -0.00847823 0.997505 0
-0.0710728 -0.00661635 0.997449 0
-0.070576 -0.0108396 0.997447 0
-0.070635 -0.0115032 0.997436 0.00074645
-0.0706865 -0.0158557 0.997373 0.00250798
-0.0704684 -0.0177076 0.997357 0.00454398
-0.0713404 -0.0170519 0.997306 0.00356995
-0.0716438 -0.0128639 0.997347 0.00516967
-0.071613 -0.0156024 0.99731 0.00604667
-0.0728782 -0.0183024 0.997173 0.00965384
-0.0720838 -0.0180747 0.997235 0.0119735
-0.0726058 -0.014676 0.997253 0.012958
-0.0745062 -0.0122115 0.997146 0.0188843
-0.0761129 -0.00695174 0.997075 0.0261353
-0.0772025 -0.00583535 0.996998 0.0314968
-0.0781449 -0.00411189 0.996934 0.0369022
-0.07933 -0.00463196 0.996838 0.0410085
-0.0805448 -0.00199133 0.996749 0.0443387
-0.0813548 -0.00204921 0.996683 0.0463159
-0.0815487 0.000425297 0.996669 0.0470475
-0.0824274 0.000657477 0.996597 0.0517731
-0.0823895 -0.00319636 0.996595 0.0532528
-0.0831877 -0.00599124 0.996516 0.0552083
-0.0841086 -0.00576287 0.99644 0.0562532
-0.0847238 -0.0077334 0.996374 0.0553032
-0.0850295 -0.00783027 0.996348 0.0553897
-0.0837963 -0.0083405 0.996448 0.0547458
-0.083184 -0.00801329 0.996502 0.0537638
-0.0843141 -0.00735531 0.996412 0.0531038
-0.0846554 -0.00628919 0.99639 0.0507684
-0.0839964 -0.00481034 0.996454 0.0454379
-0.0830343 -0.00309889 0.996542 0.0411656
-0.0812783 -0.00411037 0.996683 0.0352034
-0.0801326 -0.00659994 0.996762 0.0269246
-0.078993 -0.00901444 0.996834 0.0189907
-0.0775248 -0.00920962 0.996948 0.0125542
-0.07581 -0.0114141 0.997057 0.00356082
-0.0741058 -0.0128742 0.997167 0
