# .PCD v0.7 - Point Cloud Data file format
VERSION 0.7
FIELDS x y z
SIZE 4 4 4
TYPE F F F
COUNT 1 1 1
WIDTH 1399
HEIGHT 1
VIEWPOINT 0 0 0 1 0 0 0
POINTS 1399
DATA ascii
-0.043719001 0.011392 -0.25966901
-0.043715999 0.011468 -0.259675
-0.043712001 0.011547 -0.259693
-0.043706998 0.011621 -0.25972399
-0.043703001 0.011698 -0.259756
-0.043698002 0.011773 -0.25978401
-0.043694001 0.011849 -0.25980401
-0.043691002 0.011925 -0.25982201
-0.043687001 0.012002 -0.25984201
-0.043682002 0.012078 -0.25986499
-0.043678999 0.012154 -0.259875
-0.043676 0.01223 -0.259875
-0.043673001 0.012308 -0.25986701
-0.043671001 0.012386 -0.25985301
-0.043667998 0.012464 -0.259841
-0.043666001 0.012539 -0.25983199
-0.043664001 0.012617 -0.25980601
-0.043662 0.012696 -0.259776
-0.04366 0.012772 -0.25976801
-0.043655999 0.01285 -0.25977999
-0.043652002 0.012924 -0.259799
-0.043648001 0.013001 -0.25982299
-0.043644 0.013077 -0.259837
-0.043641001 0.013153 -0.25984699
-0.043637 0.013232 -0.25986299
-0.043632999 0.013308 -0.25987101
-0.043630999 0.013384 -0.259868
-0.043627001 0.013462 -0.25986999
-0.043623999 0.013538 -0.25987399
-0.043621 0.013616 -0.25987199
-0.043618001 0.013692 -0.25987399
-0.043614998 0.013768 -0.25987801
-0.043612 0.013845 -0.25986701
-0.043611001 0.013923 -0.259837
-0.043609001 0.014 -0.259819
-0.043605998 0.014078 -0.259801
-0.043605998 0.014157 -0.259747
-0.043605 0.014233 -0.259698
-0.043602999 0.014311 -0.25967801
-0.0436 0.014389 -0.259684
-0.043595001 0.014464 -0.25971201
-0.043591 0.01454 -0.259736
-0.043586999 0.014618 -0.25974801
-0.043584 0.014693 -0.25976899
-0.043579001 0.014771 -0.25978899
-0.043575998 0.014848 -0.25980499
-0.043572001 0.014924 -0.25982299
-0.043568 0.015 -0.259835
-0.043563999 0.015077 -0.259855
-0.043559998 0.015153 -0.25987199
-0.043556999 0.015231 -0.25987601
-0.043554001 0.015307 -0.25987199
-0.043552 0.015384 -0.25985
-0.043551002 0.015462 -0.25982001
-0.043547999 0.015539 -0.25981399
-0.043545 0.015615 -0.25981501
-0.043542001 0.015690999 -0.259817
-0.043538 0.015769999 -0.25983101
-0.043533999 0.015845999 -0.25984699
-0.043531001 0.015922001 -0.259855
-0.043528002 0.015998 -0.25985101
-0.043524999 0.016076 -0.25984201
-0.043522 0.016154001 -0.25984401
-0.043519001 0.01623 -0.25985199
-0.043515 0.016306 -0.25985599
-0.043512002 0.016384 -0.25986201
-0.043508999 0.01646 -0.25986201
-0.043506 0.016538 -0.259857
-0.043504 0.016613999 -0.25984699
-0.043501999 0.016690999 -0.25982699
-0.043499999 0.016768999 -0.259803
-0.043497 0.016844001 -0.259799
-0.043492999 0.016922999 -0.25980601
-0.043490998 0.016998 -0.25979799
-0.043489002 0.017076001 -0.25976801
-0.043487001 0.017153 -0.25975001
-0.043483999 0.017229 -0.25974599
-0.043481 0.017307 -0.259754
-0.043476999 0.017384 -0.25977501
-0.043473002 0.01746 -0.25979099
-0.043469999 0.017535999 -0.259799
-0.043466002 0.017612001 -0.25981301
-0.043462001 0.017690999 -0.25982699
-0.043458998 0.017766999 -0.25982699
-0.043455999 0.017844999 -0.25983
-0.043451998 0.017921001 -0.25983801
-0.043449 0.017997 -0.25983599
-0.043446999 0.018074 -0.25983
-0.043444 0.018152 -0.25983
-0.043439999 0.018229 -0.25983599
-0.043437 0.018304 -0.259835
-0.043435 0.018382 -0.259817
-0.043432999 0.018459 -0.25978899
-0.043430999 0.018534999 -0.25976899
-0.043430001 0.018611999 -0.25974301
-0.043427002 0.018689999 -0.25973201
-0.043423999 0.018766001 -0.25974
-0.043419998 0.018842001 -0.25975201
-0.043416001 0.018921001 -0.25976801
-0.043412998 0.018997001 -0.25977799
-0.043409001 0.019073 -0.25978199
-0.043405998 0.019151 -0.259783
-0.043404002 0.019227 -0.25977901
-0.043400999 0.019305 -0.25977501
-0.043396998 0.019381 -0.259785
-0.043393001 0.019459 -0.259803
-0.043389998 0.019535 -0.25981101
-0.043386001 0.019610999 -0.25981799
-0.043382999 0.01969 -0.25982401
-0.04338 0.019765999 -0.25983
-0.043377001 0.019843001 -0.25981599
-0.043375999 0.019919001 -0.25978801
-0.043373 0.019996 -0.25977299
-0.043370999 0.020072 -0.25975701
-0.043368999 0.020149 -0.259727
-0.043368001 0.020223999 -0.25969499
-0.043366 0.020302 -0.25968301
-0.043363001 0.020377999 -0.25968
-0.043359999 0.020455999 -0.25967401
-0.043356001 0.020532001 -0.2597
-0.043350998 0.020610999 -0.25972199
-0.043347999 0.020687001 -0.25973001
-0.043345001 0.020764999 -0.259734
-0.043342002 0.020841001 -0.25973499
-0.043338001 0.020919001 -0.25974301
-0.043334998 0.020995 -0.25975299
-0.043331999 0.021071 -0.25975299
-0.043329 0.021149 -0.25975499
-0.043326002 0.021225 -0.25975499
-0.043322999 0.021303 -0.25975201
-0.04332 0.021379 -0.25974599
-0.043318 0.021455999 -0.25972599
-0.043317001 0.021531001 -0.259682
-0.043317001 0.021606 -0.259628
-0.043313999 0.021684 -0.25961301
-0.043311998 0.02176 -0.25960499
-0.043308999 0.021837 -0.25959501
-0.043306001 0.021912999 -0.259597
-0.043302 0.021992 -0.259619
-0.043297999 0.022067999 -0.25963899
-0.043294001 0.022146 -0.259648
-0.043290999 0.022222999 -0.25965399
-0.043287002 0.022301 -0.259664
-0.043283001 0.022376999 -0.259684
-0.043279 0.022454999 -0.259702
-0.043276001 0.022531999 -0.25970599
-0.043272998 0.022609999 -0.25971299
-0.043269001 0.022686001 -0.25972101
-0.043265998 0.022763999 -0.25971901
-0.043264002 0.022839 -0.259709
-0.043260999 0.022917001 -0.25969699
-0.043258999 0.022993 -0.25968501
-0.043257002 0.023068 -0.25966999
-0.043255001 0.023143999 -0.25963601
-0.043253999 0.023220999 -0.25960201
-0.043251999 0.023296 -0.25957999
-0.043249 0.023372 -0.259583
-0.043244999 0.023451 -0.25960299
-0.043241002 0.023529001 -0.25962499
-0.043237001 0.023607001 -0.259635
-0.043230999 0.023685001 -0.259693
-0.043226 0.023762999 -0.25973099
-0.043221999 0.023841999 -0.259749
-0.043219 0.023917999 -0.25975901
-0.043216001 0.023995999 -0.259754
-0.043212999 0.024072001 -0.259758
-0.043209001 0.024150001 -0.25977799
-0.043205 0.024227999 -0.25977999
-0.043203 0.024304001 -0.259772
-0.043200001 0.024382001 -0.25976199
-0.043198001 0.024457 -0.259747
-0.043196 0.024533 -0.25972301
-0.043194 0.024607999 -0.25969899
-0.043194 0.024683001 -0.25964701
-0.043193001 0.024758 -0.259608
-0.043189 0.024836 -0.25961199
-0.043184999 0.024913 -0.25963199
-0.043182001 0.024991 -0.259646
-0.043177001 0.025069 -0.25966999
-0.043172002 0.025148001 -0.25970799
-0.043168001 0.025226999 -0.259736
-0.043164 0.025304999 -0.25975201
-0.043159999 0.025382999 -0.259767
-0.043157 0.025459999 -0.25977701
-0.043152999 0.025537999 -0.259783
-0.043150999 0.025614001 -0.25977701
-0.043148 0.025691001 -0.25977099
-0.043145001 0.025769001 -0.25977701
-0.043141 0.025845001 -0.25977999
-0.043138001 0.025923001 -0.25978199
-0.043134999 0.025999 -0.25977999
-0.043133002 0.026075 -0.25976601
-0.043129999 0.026153 -0.25975999
-0.043127999 0.026227999 -0.25974199
-0.043127 0.026303999 -0.259711
-0.043124001 0.026381001 -0.25969499
-0.043120999 0.026457001 -0.259691
-0.043118 0.026535001 -0.25970301
-0.043113001 0.026613999 -0.25973901
-0.043108001 0.026693 -0.25977901
-0.043104 0.026771 -0.25978801
-0.043101002 0.026846999 -0.25978801
-0.043097999 0.026924999 -0.25979599
-0.043095 0.027003 -0.25979799
-0.043092001 0.027081 -0.25979799
-0.043088 0.027156999 -0.25980401
-0.043085001 0.027234999 -0.259801
-0.043083001 0.027310999 -0.259785
-0.043081999 0.027386 -0.25975099
-0.043081 0.027461 -0.25971499
-0.043079998 0.027534001 -0.259662
-0.043078002 0.02761 -0.25964999
-0.043074001 0.027688 -0.25965601
-0.043071002 0.027766 -0.25965199
-0.043067999 0.027844001 -0.25966001
-0.043065 0.02792 -0.25966799
-0.043060999 0.027998 -0.25966901
-0.043058001 0.028076001 -0.259673
-0.043055002 0.028152 -0.259671
-0.043051999 0.02823 -0.25966701
-0.043049 0.028306 -0.25966701
-0.043046001 0.028384 -0.259671
-0.043042999 0.028462 -0.25967401
-0.04304 0.028538 -0.25967401
-0.043037001 0.028616 -0.25966999
-0.043033998 0.028690999 -0.25966001
-0.043032002 0.028767001 -0.25965601
-0.043028001 0.028844999 -0.259662
-0.043026 0.028921001 -0.259655
-0.043023001 0.028999001 -0.25964701
-0.043021001 0.029075 -0.25962901
-0.043019999 0.02915 -0.25959301
-0.043017998 0.029224999 -0.259565
-0.043014999 0.029301001 -0.259556
-0.043012001 0.029379001 -0.25955999
-0.043008 0.029456999 -0.25957599
-0.043003999 0.029534001 -0.259592
-0.043001 0.029614 -0.25960001
-0.042998001 0.029689999 -0.25960201
-0.042994 0.029767999 -0.25961101
-0.042989999 0.029846 -0.25962499
-0.042987 0.029924 -0.25962901
-0.042984001 0.029999999 -0.25962299
-0.042980999 0.030077999 -0.259635
-0.042977002 0.030157 -0.259653
-0.042973001 0.030235 -0.259673
-0.042969 0.030313 -0.25968599
-0.042966001 0.030391 -0.25967801
-0.042964 0.030466 -0.25965601
-0.042962998 0.030541999 -0.25963199
-0.042961001 0.030617001 -0.25961
-0.042959001 0.030691 -0.259581
-0.042957 0.030765999 -0.25955299
-0.042955 0.030843999 -0.259547
-0.042950999 0.030921999 -0.25955501
-0.042947002 0.030999999 -0.259579
-0.042941999 0.031081 -0.259619
-0.042938001 0.031160001 -0.259635
-0.042934999 0.031238001 -0.25964001
-0.042932 0.031316001 -0.25963601
-0.042929001 0.031390999 -0.25963399
-0.042925999 0.031468999 -0.25963399
-0.042923 0.031544998 -0.259626
-0.042920001 0.031622998 -0.25962201
-0.042916998 0.031699002 -0.259619
-0.042915002 0.031776998 -0.25960901
-0.042911999 0.031851999 -0.259597
-0.042909998 0.031927999 -0.25958899
-0.042907 0.032005999 -0.259581
-0.042906001 0.032079 -0.25954801
-0.042904001 0.032155 -0.259516
-0.042902 0.032230001 -0.2595
-0.042899001 0.032306001 -0.25950199
-0.042893998 0.032387 -0.25952801
-0.042890001 0.032467 -0.25955001
-0.042886 0.032545 -0.259565
-0.042883001 0.032621 -0.259565
-0.042881001 0.032699 -0.25955901
-0.042877998 0.032775 -0.25955501
-0.042874999 0.032853 -0.25955099
-0.042872 0.032929 -0.25954601
-0.042869002 0.033007 -0.25953999
-0.042867001 0.033082001 -0.259534
-0.042863999 0.033160001 -0.25952801
-0.042861 0.033238001 -0.25953001
-0.042858001 0.033314001 -0.25953001
-0.042854998 0.03339 -0.25951901
-0.042853002 0.033465002 -0.25949499
-0.042851999 0.033539001 -0.25946099
-0.042851999 0.033611 -0.25940099
-0.042851001 0.033684 -0.25936401
-0.042847998 0.03376 -0.25936401
-0.042844001 0.033838999 -0.259372
-0.042840999 0.033918999 -0.259386
-0.042833999 0.034001999 -0.25945601
-0.042828999 0.034085002 -0.25949001
-0.042826001 0.034161001 -0.259498
-0.042822 0.034240998 -0.259516
-0.042817999 0.034320001 -0.25952601
-0.042815 0.034398001 -0.259525
-0.042812001 0.034476001 -0.259527
-0.042808998 0.034552 -0.25952899
-0.042805001 0.034632001 -0.25953299
-0.042801999 0.034708001 -0.25953299
-0.042800002 0.034784999 -0.259523
-0.042796999 0.034860998 -0.259518
-0.042794 0.034938999 -0.25952399
-0.042789999 0.035016999 -0.25952801
-0.042787999 0.035092998 -0.259518
-0.042785998 0.035169002 -0.2595
-0.042784002 0.035243999 -0.25947699
-0.042780999 0.035319999 -0.25946701
-0.042778 0.035397999 -0.25947899
-0.042773999 0.035478 -0.25949699
-0.042769998 0.035558999 -0.25951099
-0.042766001 0.035634998 -0.25951701
-0.042762998 0.035712998 -0.25952101
-0.04276 0.035790998 -0.25952601
-0.042757001 0.035868999 -0.25952399
-0.042753998 0.035946999 -0.259518
-0.042750999 0.036022998 -0.259518
-0.042748 0.036100999 -0.259516
-0.042745002 0.036178 -0.25951201
-0.042741999 0.036254 -0.259509
-0.042739999 0.03633 -0.25949499
-0.042737 0.036405999 -0.25948501
-0.042734001 0.036483999 -0.25948301
-0.042732 0.036559001 -0.25946501
-0.042730998 0.036633 -0.25944
-0.042727999 0.036711 -0.25943801
-0.042723998 0.036789 -0.25944799
-0.042721 0.036869001 -0.25945401
-0.042716999 0.036947001 -0.25946599
-0.042713001 0.037025001 -0.25948
-0.042709999 0.037105002 -0.25948799
-0.042706002 0.037184 -0.259498
-0.042702001 0.037264001 -0.25951099
-0.042699002 0.03734 -0.25951299
-0.042695999 0.037418 -0.259509
-0.042693 0.037496001 -0.25950301
-0.042690001 0.037574001 -0.259507
-0.042686999 0.037652001 -0.25951299
-0.042683002 0.037730001 -0.25951499
-0.042679999 0.037808001 -0.25952199
-0.042677 0.037886001 -0.259516
-0.042675 0.037960999 -0.25950801
-0.042672001 0.038036998 -0.2595
-0.04267 0.038113002 -0.25947401
-0.042668998 0.038185999 -0.25944701
-0.042665999 0.038261998 -0.25943699
-0.042663001 0.038339999 -0.25943899
-0.042659 0.038419999 -0.259451
-0.042654999 0.0385 -0.259473
-0.042651001 0.038580999 -0.25949499
-0.042647 0.038658999 -0.25949901
-0.042644002 0.038736999 -0.2595
-0.042640999 0.038812999 -0.259498
-0.042638998 0.038890999 -0.25949201
-0.042636 0.038966998 -0.25949001
-0.042631999 0.039046999 -0.25949201
-0.042629 0.039122999 -0.25949201
-0.042626999 0.0392 -0.259487
-0.042624 0.039276 -0.25947899
-0.042621002 0.039354 -0.259473
-0.042617999 0.039432 -0.259473
-0.042615999 0.039506 -0.259455
-0.042614002 0.039581001 -0.25943401
-0.042612001 0.039657 -0.25942001
-0.042608999 0.039733 -0.25941801
-0.042606 0.039810002 -0.259406
-0.042603999 0.039886001 -0.25939399
-0.042601001 0.039964002 -0.259395
-0.042597 0.040042002 -0.25940099
-0.042594001 0.040119998 -0.25940299
-0.042591002 0.040197998 -0.25940701
-0.042587999 0.040275998 -0.25941101
-0.042583998 0.040355999 -0.25942099
-0.042580001 0.040435001 -0.259435
-0.042576998 0.040513001 -0.25943699
-0.042573001 0.040592998 -0.259446
-0.042569999 0.040670998 -0.25945801
-0.042567 0.040748999 -0.25945601
-0.042564001 0.040824998 -0.25944799
-0.042560998 0.040902998 -0.25944799
-0.042557999 0.040980998 -0.25944799
-0.042555999 0.041056 -0.259435
-0.042553 0.041131999 -0.25942299
-0.042551 0.041209999 -0.259415
-0.042548001 0.041285999 -0.259413
-0.042544 0.041366 -0.25941899
-0.042541001 0.041444 -0.25942501
-0.042537 0.041522 -0.259431
-0.042534001 0.0416 -0.25943601
-0.042530999 0.041678 -0.259442
-0.042527001 0.041760001 -0.25945801
-0.042521998 0.041841 -0.25948
-0.042518999 0.041921001 -0.25949201
-0.042516001 0.041999001 -0.25949201
-0.042512 0.042077001 -0.259498
-0.042507999 0.042160001 -0.25952199
-0.042502999 0.042240001 -0.25954801
-0.0425 0.042319998 -0.25955799
-0.042497002 0.042397998 -0.25955901
-0.042493001 0.042475998 -0.25955901
-0.042491 0.042553999 -0.25955501
-0.042486999 0.042629998 -0.25955701
-0.042484 0.042709999 -0.259563
-0.042479999 0.042787999 -0.25957099
-0.042477001 0.042865999 -0.25957099
-0.042475 0.042943999 -0.25956601
-0.042470999 0.043021999 -0.25957599
-0.042467002 0.043102998 -0.25958401
-0.042463999 0.043182999 -0.25959399
-0.042459998 0.043260999 -0.25961
-0.042456001 0.043343 -0.25962201
-0.042452998 0.043421 -0.259628
-0.04245 0.043499 -0.25962999
-0.042445999 0.043577 -0.25963601
-0.042443 0.043657999 -0.25964299
-0.042440001 0.043735001 -0.25964099
-0.042436998 0.043809 -0.25962701
-0.042433999 0.043889001 -0.25962499
-0.042431001 0.043967001 -0.259633
-0.042428002 0.044043001 -0.25962299
-0.042426001 0.044119 -0.259608
-0.042422999 0.044194002 -0.25960201
-0.042420998 0.044272002 -0.25959
-0.042417999 0.044348001 -0.25957999
-0.042415 0.044426002 -0.25958401
-0.042412002 0.044504002 -0.259588
-0.042408999 0.044580001 -0.259581
-0.042406 0.044659998 -0.25958499
-0.042401001 0.044741999 -0.259615
-0.042397 0.044824999 -0.25964099
-0.042392999 0.044904999 -0.259657
-0.042389002 0.044985 -0.25966701
-0.042385001 0.045068 -0.259689
-0.042380001 0.045150999 -0.25972301
-0.042376 0.045231 -0.25973499
-0.042371999 0.045313001 -0.25975299
-0.042367999 0.045391001 -0.259763
-0.042364001 0.045472 -0.25977501
-0.042360999 0.045552 -0.259783
-0.042357001 0.045630001 -0.259792
-0.042353999 0.045710001 -0.259792
-0.042351 0.045788001 -0.25980201
-0.042346999 0.045869999 -0.25981599
-0.042343002 0.045949999 -0.25983
-0.043598 0.0020020001 -0.26027399
-0.043593001 0.002327 -0.26012
-0.043591999 0.0024079999 -0.26007199
-0.043590002 0.0024890001 -0.26003799
-0.043588001 0.002568 -0.260012
-0.043586001 0.0026479999 -0.25998801
-0.043584 0.002727 -0.25997099
-0.043582 0.002807 -0.25994301
-0.043579999 0.0028860001 -0.259913
-0.043577999 0.002966 -0.259893
-0.043575998 0.0030449999 -0.259877
-0.043573 0.003123 -0.25987101
-0.043570001 0.0031989999 -0.259877
-0.043566 0.003275 -0.259886
-0.043563999 0.0033509999 -0.259882
-0.043561 0.003431 -0.25987199
-0.043558002 0.0035069999 -0.259868
-0.043554999 0.0035850001 -0.25986999
-0.043552 0.003663 -0.25986001
-0.04355 0.0037400001 -0.25984901
-0.043547001 0.003818 -0.25985101
-0.043543 0.0038930001 -0.25986299
-0.043538999 0.0039690002 -0.259877
-0.043536 0.0040449998 -0.259891
-0.043531999 0.0041209999 -0.259902
-0.043529 0.0041970001 -0.25990599
-0.043526001 0.0042730002 -0.25991201
-0.043522 0.0043509998 -0.25991601
-0.043519001 0.0044280002 -0.259918
-0.043515999 0.0045039998 -0.25992399
-0.043512002 0.004582 -0.259931
-0.043510001 0.0046580001 -0.25992501
-0.043506999 0.004737 -0.259913
-0.043504 0.0048150001 -0.25990701
-0.043501999 0.0048929998 -0.25989699
-0.043499999 0.0049720001 -0.25986701
-0.043497998 0.0050499998 -0.25985
-0.043494999 0.0051290002 -0.25984001
-0.043494001 0.0052089998 -0.25980601
-0.043492001 0.0052860002 -0.25977999
-0.043488 0.0053619999 -0.25979799
-0.043483999 0.0054370002 -0.25982401
-0.043480001 0.0055129998 -0.25984699
-0.043476 0.0055880002 -0.25986901
-0.043471999 0.0056639998 -0.25988501
-0.043467999 0.0057399999 -0.259891
-0.043465 0.0058180001 -0.259891
-0.043462999 0.0058960002 -0.25988501
-0.04346 0.0059719998 -0.259882
-0.043455999 0.006048 -0.25988799
-0.043453 0.0061260001 -0.25988799
-0.043451 0.0062040002 -0.25988001
-0.043448001 0.0062819999 -0.25986999
-0.043444999 0.0063590002 -0.259866
-0.043442 0.0064349999 -0.25986099
-0.043441001 0.0065159998 -0.25982499
-0.043441001 0.0065990002 -0.259749
-0.043439999 0.0066780001 -0.259707
-0.043437999 0.0067560002 -0.25969699
-0.043434002 0.0068319999 -0.25970501
-0.043430001 0.006908 -0.259725
-0.043426 0.0069829999 -0.25975201
-0.043421999 0.007059 -0.25976601
-0.043419 0.0071350001 -0.25977799
-0.043414999 0.0072110002 -0.259792
-0.043411002 0.0072880001 -0.25980201
-0.043407999 0.0073640002 -0.25981101
-0.043405 0.0074399998 -0.259817
-0.043402001 0.007518 -0.259817
-0.043398 0.0075940001 -0.25982499
-0.043395001 0.0076720002 -0.259821
-0.043393999 0.0077490001 -0.25979501
-0.043391 0.0078269998 -0.25978801
-0.043387 0.0079030003 -0.25979599
-0.043384001 0.007979 -0.25980201
-0.043382 0.0080589997 -0.25978801
-0.04338 0.008138 -0.25974801
-0.043377999 0.0082149999 -0.25972801
-0.043375999 0.008293 -0.259711
-0.043373 0.0083710002 -0.25970501
-0.043368999 0.0084469998 -0.25973099
-0.043364 0.0085220002 -0.259767
-0.043359999 0.0085969996 -0.25979701
-0.043356001 0.0086730001 -0.25980899
-0.043352999 0.0087489998 -0.25981399
-0.04335 0.0088250004 -0.25982401
-0.043345999 0.0089020003 -0.25984001
-0.043343 0.0089800004 -0.25984201
-0.043340001 0.0090549998 -0.25983599
-0.043336999 0.0091329999 -0.25983101
-0.043334998 0.0092110001 -0.259819
-0.043333001 0.0092879999 -0.25979701
-0.043331001 0.0093679996 -0.25976899
-0.043329 0.0094450004 -0.259749
-0.043326002 0.0095229996 -0.25973099
-0.043325 0.009602 -0.25969699
-0.043322999 0.0096810004 -0.259662
-0.043320999 0.0097589996 -0.25965801
-0.043317001 0.0098339999 -0.25968
-0.043311998 0.009908 -0.25972199
-0.043308001 0.0099849999 -0.25974
-0.043304 0.010059 -0.25975901
-0.043299999 0.010136 -0.259781
-0.043297 0.010214 -0.25977901
-0.043295 0.010291 -0.25976101
-0.043292001 0.010369 -0.25975701
-0.043288 0.010443 -0.259767
-0.043285001 0.010521 -0.25977799
-0.043281998 0.010597 -0.25977999
-0.043278001 0.010673 -0.25978401
-0.043274999 0.010751 -0.25977799
-0.043272998 0.010829 -0.25976399
-0.043269999 0.010907 -0.259758
-0.043267999 0.010983 -0.25975299
-0.043265 0.01106 -0.25973701
-0.043264002 0.011139 -0.25970301
-0.043264002 0.01122 -0.259633
-0.043262001 0.011299 -0.259597
-0.043258999 0.011373 -0.25961101
-0.043255001 0.011449 -0.25962201
-0.043251 0.011526 -0.259644
-0.043246001 0.011601 -0.2597
-0.04324 0.011676 -0.25974801
-0.043235999 0.011753 -0.259776
-0.043232001 0.011827 -0.25980499
-0.043228 0.011904 -0.259821
-0.043225002 0.011981 -0.259817
-0.043221999 0.012059 -0.25981301
-0.043218002 0.012134 -0.25982901
-0.043214999 0.01221 -0.25984499
-0.043210998 0.012288 -0.25985199
-0.043207999 0.012364 -0.25985199
-0.043205 0.012442 -0.259846
-0.043203 0.01252 -0.25983
-0.043200999 0.012597 -0.25980401
-0.043198999 0.012674 -0.25978199
-0.043196999 0.012752 -0.25977099
-0.043193001 0.012828 -0.25977701
-0.043189999 0.012904 -0.25979099
-0.043186001 0.012981 -0.259799
-0.043182999 0.013059 -0.259799
-0.04318 0.013135 -0.259801
-0.043175999 0.013211 -0.25981399
-0.043173 0.013287 -0.259826
-0.043170001 0.013365 -0.259826
-0.043166999 0.013441 -0.259826
-0.043163002 0.013517 -0.25983199
-0.043159999 0.013595 -0.25982901
-0.043157998 0.013673 -0.25981301
-0.043155 0.013748 -0.25980899
-0.043152001 0.013826 -0.25980699
-0.04315 0.013904 -0.25979301
-0.043148 0.013982 -0.25977501
-0.043145999 0.014059 -0.25975201
-0.043143999 0.014136 -0.25972199
-0.043143 0.014214 -0.25968799
-0.043140002 0.014291 -0.25967401
-0.043136999 0.014367 -0.25968799
-0.043133002 0.014444 -0.25970599
-0.043129001 0.01452 -0.25971901
-0.043125 0.014597 -0.25974301
-0.043120999 0.014673 -0.259763
-0.043117002 0.014749 -0.259783
-0.043113001 0.014826 -0.259801
-0.043109 0.014902 -0.25981501
-0.043106001 0.01498 -0.259826
-0.043102 0.015056 -0.25983399
-0.043099001 0.015134 -0.25983
-0.043097001 0.01521 -0.25982201
-0.043094002 0.015286 -0.259828
-0.043090999 0.015364 -0.25982499
-0.043088999 0.015441 -0.259803
-0.043086 0.015517 -0.259799
-0.043083001 0.015595 -0.259801
-0.043079998 0.015671 -0.25979099
-0.043076999 0.015749 -0.25979099
-0.043072999 0.015826 -0.25981599
-0.043069001 0.015902 -0.25983199
-0.043065999 0.015977999 -0.25983599
-0.043063 0.016055999 -0.25983801
-0.043060001 0.016132001 -0.25983399
-0.043056998 0.016209999 -0.259826
-0.043054 0.016286001 -0.25982499
-0.043051001 0.016364001 -0.25983101
-0.043048002 0.01644 -0.25983101
-0.043044999 0.016517 -0.25982699
-0.043042 0.016593 -0.25982499
-0.043039002 0.016671 -0.25982499
-0.043035999 0.016747 -0.25982001
-0.043033 0.016825 -0.259812
-0.043031 0.016900999 -0.25979799
-0.043028999 0.016977999 -0.25977999
-0.043026999 0.017055999 -0.259758
-0.043024998 0.017132999 -0.25973499
-0.043023001 0.017208001 -0.259707
-0.043019999 0.017286001 -0.25970101
-0.043017 0.017363001 -0.25971499
-0.043012999 0.017441001 -0.259729
-0.043009002 0.017515 -0.25975499
-0.043003999 0.017592 -0.25978401
-0.043001 0.01767 -0.25977999
-0.042998999 0.017748 -0.259772
-0.042994998 0.017824 -0.25978801
-0.042992 0.017899999 -0.25979599
-0.042989001 0.017978 -0.25977799
-0.042986002 0.018056 -0.25977701
-0.042982999 0.018131999 -0.25979301
-0.042978998 0.018208001 -0.259799
-0.042975999 0.018285999 -0.25979701
-0.042973999 0.018362001 -0.25978899
-0.042971998 0.018439 -0.25976899
-0.042970002 0.018515 -0.25974399
-0.042968001 0.018592 -0.25972
-0.042966001 0.018669 -0.25969401
-0.042964 0.018745 -0.25967801
-0.042959999 0.018823 -0.259682
-0.042957 0.018898999 -0.25969899
-0.042952999 0.018975999 -0.25971299
-0.042948999 0.019053999 -0.259725
-0.042946 0.019130001 -0.25973299
-0.042941999 0.019206 -0.259749
-0.042938001 0.019285001 -0.259763
-0.042934999 0.019361001 -0.25976801
-0.042932 0.019439001 -0.25976199
-0.042929001 0.019515 -0.25976399
-0.042925999 0.019593 -0.25976801
-0.042923 0.019668 -0.25975999
-0.042920999 0.019746 -0.25975201
-0.042918 0.019822 -0.25975299
-0.042915002 0.019897999 -0.259747
-0.042913999 0.019974999 -0.259711
-0.042913001 0.020052001 -0.259657
-0.042911999 0.020127 -0.25961399
-0.042909998 0.020204 -0.259588
-0.042907 0.02028 -0.25958601
-0.042904001 0.020358 -0.259592
-0.042900998 0.020434 -0.259592
-0.042897999 0.020512 -0.25960001
-0.042893 0.020589 -0.25963101
-0.042888999 0.020666 -0.259655
-0.042886 0.020744 -0.25965899
-0.042881999 0.020819999 -0.25966099
-0.042879 0.020897999 -0.25966501
-0.042876001 0.020974001 -0.25966299
-0.042872999 0.021050001 -0.25966999
-0.042869002 0.021128001 -0.259682
-0.042865999 0.021204 -0.25968
-0.042863999 0.021281 -0.25965601
-0.042863 0.021357 -0.259628
-0.042861 0.021431999 -0.25961101
-0.042858999 0.021508999 -0.25957301
-0.042858001 0.021585001 -0.259545
-0.042854 0.021663001 -0.25955099
-0.042849999 0.021739 -0.25957501
-0.042847 0.021817001 -0.25956699
-0.042845 0.021893 -0.259554
-0.042842001 0.021971 -0.25955999
-0.042838 0.022047 -0.25958401
-0.042833 0.022126 -0.259608
-0.042830002 0.022202 -0.25962201
-0.042826001 0.02228 -0.25963199
-0.042822 0.022357 -0.25965101
-0.042817999 0.022435 -0.25966501
-0.042815 0.022511 -0.25966901
-0.042812001 0.022586999 -0.25966901
-0.042808998 0.022665 -0.259671
-0.042806 0.022740999 -0.259671
-0.042803001 0.022818999 -0.259666
-0.042800002 0.022895001 -0.259662
-0.042796999 0.022972999 -0.25966001
-0.042794999 0.023048 -0.259648
-0.042792998 0.023126001 -0.25962999
-0.042791001 0.023201 -0.259599
-0.042789999 0.023275999 -0.25955299
-0.042789001 0.023351001 -0.25951701
-0.042787001 0.023429001 -0.259507
-0.042783 0.023505 -0.25951499
-0.042778999 0.023584001 -0.259543
-0.042773001 0.023662999 -0.25959
-0.042768002 0.023739999 -0.25963601
-0.042764001 0.023817999 -0.25965399
-0.04276 0.023895999 -0.25967401
-0.042755999 0.023975 -0.25968999
-0.042752001 0.024050999 -0.25970399
-0.042748999 0.024129 -0.259718
-0.042745002 0.024204999 -0.259729
-0.042741999 0.024282999 -0.259727
-0.042739999 0.024359001 -0.25971299
-0.042739 0.024434 -0.259671
-0.042738002 0.024509 -0.25962901
-0.042734999 0.024587 -0.25962201
-0.042732999 0.024661999 -0.25960401
-0.04273 0.024739999 -0.25959399
-0.042727999 0.024816001 -0.259574
-0.042725999 0.024891 -0.25955799
-0.042723 0.024970001 -0.25956699
-0.042716999 0.025048999 -0.25962099
-0.042709999 0.025127999 -0.25969699
-0.042706002 0.025207 -0.259711
-0.042702999 0.025285 -0.25971901
-0.042699002 0.025363 -0.25973701
-0.042695001 0.025439 -0.25975099
-0.042691998 0.025517 -0.25975901
-0.042688999 0.025593 -0.25975999
-0.042686 0.025671 -0.25976199
-0.042683002 0.025749 -0.259756
-0.042681001 0.025824999 -0.259736
-0.042677999 0.025900999 -0.25972801
-0.042675 0.025978001 -0.25972599
-0.042672999 0.026054 -0.25971499
-0.04267 0.026132001 -0.259707
-0.042668 0.026208 -0.259693
-0.042665999 0.026283 -0.25966299
-0.042663999 0.026358999 -0.259653
-0.042659 0.026436999 -0.25967601
-0.042654999 0.026516 -0.25971001
-0.042649999 0.026594 -0.259734
-0.042645998 0.026673 -0.25975001
-0.042642001 0.026751 -0.25977001
-0.042638998 0.026829001 -0.259776
-0.042637002 0.026905 -0.25976199
-0.042635001 0.02698 -0.259745
-0.042631 0.027059 -0.25975299
-0.042626999 0.027137 -0.259765
-0.042624999 0.027212 -0.25975299
-0.042622998 0.027287999 -0.259727
-0.042621002 0.027363 -0.25971201
-0.042619999 0.027438 -0.259666
-0.042619999 0.027511001 -0.25960401
-0.042619999 0.027586 -0.259554
-0.042617001 0.027662 -0.259545
-0.042614002 0.02774 -0.259547
-0.042610999 0.027818 -0.259547
-0.042608 0.027894 -0.259545
-0.042603001 0.027972 -0.259581
-0.042597 0.028053001 -0.259633
-0.042594001 0.028131999 -0.25963899
-0.042591002 0.028207 -0.25963399
-0.042589001 0.028285 -0.259626
-0.042585999 0.028361 -0.259624
-0.042582002 0.028439 -0.259628
-0.042580001 0.028515 -0.25962201
-0.042576998 0.028593 -0.25961399
-0.042574 0.028669 -0.25961301
-0.042571999 0.028743999 -0.259601
-0.042569999 0.028821999 -0.259579
-0.042567 0.028898001 -0.25956699
-0.042564001 0.028976001 -0.25957701
-0.042560998 0.029052 -0.259572
-0.042559002 0.029127 -0.25954801
-0.042559002 0.029200001 -0.25948799
-0.042557001 0.029275 -0.25947201
-0.042553 0.029354 -0.25948799
-0.042548999 0.029432001 -0.25950301
-0.042544998 0.029510001 -0.25951701
-0.042541999 0.029588001 -0.259527
-0.042537998 0.029665999 -0.25953299
-0.042535 0.029743999 -0.25953701
-0.042530999 0.029820999 -0.25954899
-0.042528 0.029898999 -0.259565
-0.042523999 0.029979 -0.25958401
-0.042520002 0.030058 -0.25959799
-0.042516001 0.030136 -0.259608
-0.042513002 0.030212 -0.25961
-0.042509999 0.03029 -0.259606
-0.042507 0.030366 -0.25960001
-0.042505 0.030440999 -0.25958899
-0.042504001 0.030516 -0.25955299
-0.042502999 0.03059 -0.25951499
-0.042500999 0.030665001 -0.259487
-0.042498998 0.03074 -0.25946999
-0.042495999 0.030818 -0.25946799
-0.042491999 0.030897001 -0.259482
-0.042486999 0.030977 -0.25951201
-0.042482998 0.031056 -0.25954801
-0.042477999 0.031137001 -0.259574
-0.042475 0.031215001 -0.25957999
-0.042470999 0.031293001 -0.25958401
-0.042468999 0.031369001 -0.25958201
-0.042466 0.031445999 -0.25957701
-0.042463001 0.031521998 -0.25957501
-0.042459998 0.031598002 -0.259563
-0.042458002 0.031676002 -0.25955099
-0.042454999 0.031752001 -0.259547
-0.042452 0.031830002 -0.25954801
-0.04245 0.031904999 -0.259536
-0.042447999 0.031980999 -0.25951201
-0.042445999 0.032056 -0.25947601
-0.042445 0.032129001 -0.259455
-0.042442001 0.032205001 -0.25944501
-0.042440001 0.032283001 -0.25942701
-0.042436998 0.032359 -0.25941899
-0.042433999 0.032437 -0.259431
-0.042429999 0.032515001 -0.25944701
-0.042426001 0.032593001 -0.25945699
-0.042422999 0.032671001 -0.25945401
-0.04242 0.032747 -0.25945401
-0.042417001 0.032825001 -0.259462
-0.042413 0.032903001 -0.259464
-0.042411 0.032979 -0.259462
-0.042406999 0.033057 -0.259462
-0.042404 0.033135001 -0.25946701
-0.042401001 0.033213001 -0.25946701
-0.042399 0.033289 -0.25944501
-0.042397998 0.033362001 -0.259413
-0.042396002 0.033436999 -0.25939399
-0.042392999 0.033512998 -0.25938001
-0.042390998 0.033589002 -0.259372
-0.042389002 0.033663999 -0.25934201
-0.042387001 0.033737998 -0.25932401
-0.042383 0.033817999 -0.259339
-0.042378001 0.033899002 -0.25937301
-0.042373002 0.033982001 -0.25941101
-0.042369001 0.034062002 -0.25944501
-0.042364001 0.034141 -0.25947499
-0.04236 0.034221001 -0.25949499
-0.042355999 0.034299001 -0.25950301
-0.042353 0.034377001 -0.25950101
-0.042350002 0.034455001 -0.25950101
-0.042346999 0.034531001 -0.259505
-0.042344 0.034609001 -0.25950399
-0.042341001 0.034685001 -0.25949401
-0.042337999 0.034763001 -0.25949201
-0.042335998 0.034841001 -0.25948799
-0.042332999 0.034917001 -0.25947601
-0.042330999 0.034991998 -0.25945899
-0.042328 0.035068002 -0.25944901
-0.042326 0.035146002 -0.25944701
-0.042323001 0.035222001 -0.25943899
-0.042319998 0.035298999 -0.259433
-0.042316999 0.035374999 -0.259433
-0.042314 0.035454001 -0.259442
-0.042309001 0.035533998 -0.259462
-0.042305999 0.035611998 -0.25947201
-0.042303 0.035689998 -0.25947601
-0.042300001 0.035767999 -0.25946999
-0.042296998 0.035843998 -0.259464
-0.042293999 0.035921998 -0.259462
-0.042291 0.035998002 -0.25945699
-0.042289 0.036075 -0.259451
-0.042286001 0.036153 -0.25944701
-0.042282999 0.036228999 -0.25944099
-0.04228 0.036304999 -0.259433
-0.042277001 0.036382999 -0.25943801
-0.042273998 0.036460999 -0.25943801
-0.042272002 0.036536001 -0.25941399
-0.042270999 0.036607999 -0.25937799
-0.042268999 0.036685001 -0.25936401
-0.042265002 0.036763001 -0.25937301
-0.042261001 0.036844 -0.25938901
-0.042257 0.036922 -0.25940099
-0.042254001 0.037 -0.259417
-0.042249002 0.037080999 -0.259435
-0.042245999 0.037161 -0.25944901
-0.042242002 0.037239 -0.25945899
-0.042238001 0.037317 -0.259469
-0.042234998 0.037397999 -0.25948501
-0.042231001 0.037475001 -0.25948501
-0.042227998 0.037553001 -0.25948399
-0.042225 0.037631001 -0.25948399
-0.042222001 0.037707001 -0.25948
-0.04222 0.037783001 -0.25947401
-0.042217001 0.037861001 -0.25946599
-0.042215001 0.037937 -0.25945699
-0.042211998 0.038013998 -0.25944701
-0.042210001 0.038088001 -0.259431
-0.042208001 0.038164001 -0.259415
-0.042204998 0.038240999 -0.25940701
-0.042201001 0.038318999 -0.25941399
-0.042197999 0.038398001 -0.25942001
-0.042195 0.038476001 -0.259426
-0.042190999 0.038554002 -0.25943401
-0.042188 0.038633998 -0.25943801
-0.042185001 0.038710002 -0.25943801
-0.042181998 0.038787998 -0.25943601
-0.042179 0.038865998 -0.25943899
-0.042176001 0.038943999 -0.25943899
-0.042172998 0.039021999 -0.259435
-0.042169999 0.039097998 -0.259435
-0.042165998 0.039177999 -0.25943899
-0.042163 0.039253999 -0.25943899
-0.042160001 0.039331 -0.259433
-0.042158 0.039407 -0.259422
-0.042156 0.039480001 -0.25939599
-0.042155001 0.039554 -0.25936401
-0.042153001 0.039629001 -0.25935
-0.042149 0.039707001 -0.25935301
-0.042146001 0.039785001 -0.25935301
-0.042142998 0.039861001 -0.25935099
-0.04214 0.039941002 -0.259359
-0.042135999 0.04002 -0.25936899
-0.042133 0.040098 -0.25936699
-0.042130001 0.040176 -0.25936899
-0.042126998 0.040254001 -0.259372
-0.042123999 0.040332001 -0.25937599
-0.042119998 0.040412001 -0.25939
-0.042116001 0.040491998 -0.259408
-0.042112 0.040569998 -0.25941399
-0.042109001 0.040647998 -0.25941399
-0.042105999 0.040725999 -0.25941399
-0.042103 0.040803999 -0.25941199
-0.042100001 0.040879998 -0.259413
-0.042096999 0.040957998 -0.25941101
-0.042095002 0.041034002 -0.259399
-0.042091999 0.041111 -0.25938499
-0.042089999 0.041187 -0.25937501
-0.042087 0.041262999 -0.25937599
-0.042082999 0.041343 -0.25938001
-0.04208 0.041421 -0.259388
-0.042075999 0.041501999 -0.25940001
-0.042073 0.041579999 -0.25940999
-0.042068999 0.041657999 -0.25941199
-0.042066 0.041738 -0.25942001
-0.042061999 0.041816 -0.25943401
-0.042057998 0.041896001 -0.25944301
-0.042055 0.041976001 -0.259453
-0.042050999 0.042055 -0.25946099
-0.042048 0.042135 -0.259471
-0.042043999 0.042215001 -0.259489
-0.042040002 0.042293001 -0.25949299
-0.042038001 0.042369001 -0.25948101
-0.042034999 0.042447001 -0.25948301
-0.042029999 0.042529002 -0.25950301
-0.042027 0.042608 -0.25951999
-0.042024001 0.042686 -0.259518
-0.042020999 0.042762998 -0.259516
-0.042017002 0.042842001 -0.25951999
-0.042013999 0.042918999 -0.25951999
-0.042011 0.042998001 -0.25952601
-0.042006999 0.043078002 -0.259532
-0.042004 0.043156002 -0.25953299
-0.042001002 0.043234002 -0.25953299
-0.041997001 0.043313999 -0.259543
-0.041994002 0.043391999 -0.25955501
-0.041990001 0.043471999 -0.259561
-0.041986998 0.04355 -0.25957099
-0.041983001 0.04363 -0.25957701
-0.041981 0.043706 -0.25957099
-0.041978002 0.043781999 -0.25956401
-0.041974999 0.04386 -0.259556
-0.041972999 0.043935999 -0.25954601
-0.04197 0.044011001 -0.25953999
-0.041967001 0.044089001 -0.25953799
-0.041963998 0.044167001 -0.25953799
-0.041960999 0.044245001 -0.25953299
-0.041958001 0.044323001 -0.25953501
-0.041954 0.044401001 -0.259543
-0.041951001 0.044481002 -0.25955299
-0.041946001 0.044564001 -0.25957501
-0.041942999 0.044643998 -0.25959101
-0.041939002 0.044721998 -0.25959301
-0.041935001 0.044801999 -0.25960901
-0.041931 0.044884998 -0.25963101
-0.041926999 0.044964999 -0.25964299
-0.041924 0.045045 -0.25964999
-0.041921001 0.045120999 -0.25964999
-0.041917 0.045203999 -0.25966799
-0.041912001 0.045288 -0.259702
-0.041907001 0.045368999 -0.25972399
-0.041903999 0.045446999 -0.25972399
-0.041901 0.045524999 -0.25972399
-0.041898001 0.045603 -0.25972801
-0.041894998 0.045683 -0.25972801
-0.041892 0.045759 -0.25972801
-0.041887999 0.045839 -0.25973499
-0.041885 0.045919001 -0.259745
-0.043125 0.0015360001 -0.26079699
-0.043132 0.002228 -0.26009101
-0.043131001 0.0023109999 -0.260041
-0.043129001 0.00239 -0.260019
-0.043127 0.0024699999 -0.259994
-0.043125 0.0025490001 -0.25996
-0.043122999 0.00263 -0.259936
-0.043120999 0.0027099999 -0.25990999
-0.043118998 0.002789 -0.259882
-0.043117002 0.0028669999 -0.259864
-0.043113999 0.0029460001 -0.25985399
-0.043111999 0.003024 -0.25984901
-0.043109 0.0031000001 -0.259841
-0.043106001 0.00318 -0.25983301
-0.043102998 0.0032560001 -0.25983101
-0.043099999 0.003334 -0.25983101
-0.043097001 0.0034099999 -0.25982699
-0.043094002 0.003487 -0.25982401
-0.043090999 0.0035649999 -0.25982201
-0.043088999 0.003641 -0.25982001
-0.043086 0.0037189999 -0.25981399
-0.043083001 0.003797 -0.25981
-0.043079998 0.0038729999 -0.259812
-0.043076999 0.003951 -0.25981301
-0.043074001 0.0040290002 -0.25981101
-0.043071002 0.0041049998 -0.25981101
-0.043067001 0.0041809999 -0.259821
-0.043063 0.0042570001 -0.259837
-0.043060001 0.0043330002 -0.25984699
-0.043056 0.0044100001 -0.25985801
-0.043053001 0.0044860002 -0.25986201
-0.043049999 0.0045639998 -0.259864
-0.043047 0.0046399999 -0.259866
-0.043044001 0.0047180001 -0.25986001
-0.043042 0.004795 -0.259848
-0.043039002 0.0048730001 -0.259835
-0.043037001 0.004954 -0.259803
-0.043035999 0.0050329999 -0.259765
-0.043033998 0.0051130001 -0.259747
-0.043031 0.0051910002 -0.25973499
-0.043028001 0.0052669998 -0.25973499
-0.043024 0.0053429999 -0.259756
-0.043019999 0.0054179998 -0.25978601
-0.043016002 0.0054919999 -0.25980601
-0.043012001 0.005568 -0.25981799
-0.043009002 0.0056440001 -0.25981799
-0.043005999 0.0057219998 -0.25982001
-0.043003 0.0057979999 -0.25982499
-0.043000001 0.005876 -0.25982499
-0.042996999 0.0059520002 -0.25982901
-0.042993002 0.0060279998 -0.25983301
-0.042991001 0.0061079999 -0.25982299
-0.042987999 0.0061840001 -0.25981799
-0.042985 0.0062620002 -0.25981399
-0.042982001 0.0063399998 -0.259808
-0.04298 0.0064170002 -0.25978801
-0.042978998 0.0064980001 -0.25975001
-0.042977002 0.0065759998 -0.25972
-0.042975001 0.0066550002 -0.2597
-0.042973001 0.0067329998 -0.25968301
-0.042970002 0.0068100002 -0.259673
-0.042966999 0.0068870001 -0.25967899
-0.042962998 0.0069630002 -0.25970101
-0.042959001 0.0070389998 -0.25971901
-0.042955998 0.0071149999 -0.25972301
-0.042952999 0.007191 -0.25972599
-0.042948999 0.0072670002 -0.25973201
-0.042946 0.007344 -0.25974
-0.042943001 0.0074220002 -0.25974399
-0.042939 0.0074979998 -0.259756
-0.042934999 0.0075719999 -0.25977501
-0.042932 0.00765 -0.25977901
-0.042929001 0.0077280002 -0.25976899
-0.042927001 0.0078059998 -0.259747
-0.042925 0.0078849997 -0.259725
-0.042922001 0.0079610003 -0.25971901
-0.042918999 0.0080390004 -0.25972199
-0.042916998 0.0081160003 -0.25970599
-0.042916 0.0081979996 -0.259664
-0.042913999 0.0082750004 -0.25963399
-0.042909998 0.008351 -0.25964999
-0.042904999 0.0084260004 -0.25968799
-0.042900998 0.0085009998 -0.259729
-0.042897001 0.0085749999 -0.259749
-0.042893 0.008653 -0.25975701
-0.042890001 0.0087289996 -0.259763
-0.042886999 0.0088050002 -0.259763
-0.042884 0.0088830004 -0.25975499
-0.042881001 0.0089609995 -0.25975201
-0.042879 0.0090370001 -0.25974599
-0.042876001 0.009114 -0.25972801
-0.042874001 0.0091939997 -0.25971201
-0.042870998 0.0092700003 -0.25970599
-0.042868 0.0093480004 -0.259702
-0.042865999 0.0094259996 -0.25969699
-0.042863 0.0095030004 -0.25967699
-0.042862002 0.0095819999 -0.25964099
-0.042860001 0.00966 -0.25961301
-0.042858001 0.0097369999 -0.259601
-0.042854 0.0098139998 -0.25960901
-0.042849999 0.0098900003 -0.25962999
-0.042846002 0.0099649997 -0.25965801
-0.042842001 0.010041 -0.25967801
-0.042838998 0.010117 -0.25968799
-0.042835001 0.010193 -0.2597
-0.042831998 0.010269 -0.25970101
-0.042828999 0.010347 -0.25970301
-0.042824998 0.010423 -0.259709
-0.042822 0.010501 -0.259711
-0.042819001 0.010577 -0.259709
-0.042817 0.010655 -0.259693
-0.042815 0.010732 -0.25966799
-0.042812999 0.010812 -0.259644
-0.042810999 0.010889 -0.25963199
-0.042808 0.010965 -0.259626
-0.042805001 0.011043 -0.25961801
-0.042801999 0.011119 -0.25962001
-0.042800002 0.011197 -0.25960901
-0.042798001 0.011276 -0.25956699
-0.042796001 0.011353 -0.25954899
-0.042792 0.011428 -0.259583
-0.042785998 0.011503 -0.25963899
-0.042780001 0.011577 -0.25969899
-0.042775001 0.011654 -0.25974399
-0.042771 0.01173 -0.25976399
-0.042768002 0.011806 -0.25976399
-0.042764999 0.011884 -0.259758
-0.042762998 0.01196 -0.25975201
-0.042759001 0.012038 -0.259754
-0.042755999 0.012114 -0.25975901
-0.042753 0.01219 -0.25975901
-0.042750001 0.012268 -0.259765
-0.042746 0.012344 -0.25977099
-0.042744 0.012422 -0.259765
-0.042741001 0.012497 -0.25975001
-0.042739999 0.012575 -0.25972399
-0.042737 0.012654 -0.25970799
-0.042734001 0.01273 -0.25971201
-0.04273 0.012807 -0.259736
-0.042725999 0.012881 -0.259758
-0.042722002 0.012958 -0.25977299
-0.042718001 0.013034 -0.25979099
-0.042715002 0.01311 -0.259803
-0.042711999 0.013188 -0.259801
-0.042709 0.013266 -0.25979301
-0.042706002 0.013342 -0.25978899
-0.042702999 0.01342 -0.25978601
-0.0427 0.013495 -0.25977999
-0.042698 0.013573 -0.259772
-0.042695001 0.013651 -0.25976601
-0.042693 0.013727 -0.25975201
-0.042690001 0.013806 -0.25973001
-0.042688999 0.013882 -0.259709
-0.042686999 0.013961 -0.25968099
-0.042684998 0.014037 -0.25966299
-0.042681001 0.014115 -0.25966701
-0.042679001 0.01419 -0.25965899
-0.042676002 0.014268 -0.25965801
-0.042670999 0.014345 -0.259682
-0.042667001 0.014421 -0.25971201
-0.042663001 0.014498 -0.25972399
-0.042660002 0.014574 -0.25973201
-0.042656001 0.01465 -0.25974801
-0.042652 0.014727 -0.25976899
-0.042649001 0.014803 -0.259781
-0.042645 0.014879 -0.25979301
-0.042642001 0.014957 -0.25979501
-0.042638998 0.015035 -0.25978899
-0.042637002 0.015113 -0.25977501
-0.042633999 0.015188 -0.25976801
-0.042631 0.015264 -0.25976601
-0.042628001 0.015342 -0.25976399
-0.042626001 0.01542 -0.25974801
-0.042624 0.015495 -0.25973201
-0.042621002 0.015573 -0.25972599
-0.042617999 0.015649 -0.25972301
-0.042615 0.015727 -0.25971901
-0.042612001 0.015803 -0.259727
-0.042608 0.015879 -0.25973499
-0.042605001 0.015957 -0.25974101
-0.042601001 0.016032999 -0.25975001
-0.042598002 0.016109999 -0.259758
-0.042594999 0.016186001 -0.25976601
-0.042591002 0.016264001 -0.259774
-0.042587999 0.016340001 -0.25977999
-0.042585 0.016418001 -0.25977999
-0.042582002 0.016494 -0.25976899
-0.042580001 0.016571 -0.25976101
-0.042576 0.016648 -0.25977299
-0.042571999 0.016724 -0.25978899
-0.042569 0.016802 -0.25978699
-0.042567 0.016879 -0.259767
-0.042564999 0.016954999 -0.259738
-0.042562999 0.017031999 -0.259716
-0.042560998 0.017109999 -0.259698
-0.042559002 0.017185001 -0.25967801
-0.042555999 0.017263001 -0.25967199
-0.042553 0.017339 -0.25968099
-0.042548999 0.017418001 -0.25969499
-0.042546 0.017494 -0.25970301
-0.042543001 0.01757 -0.259709
-0.042539001 0.017648 -0.25971499
-0.042536002 0.017724 -0.25971901
-0.042532999 0.017802 -0.25972199
-0.04253 0.017878 -0.25972599
-0.042525999 0.017953999 -0.259738
-0.042521998 0.018033 -0.259754
-0.042518001 0.018108999 -0.25976801
-0.042514998 0.018185001 -0.25977001
-0.042513002 0.018262001 -0.25975499
-0.042511001 0.018338 -0.25973701
-0.042507999 0.018416001 -0.25972101
-0.042505998 0.018493 -0.25969899
-0.042505998 0.01857 -0.25964299
-0.042505998 0.018645 -0.25959
-0.042502999 0.018722 -0.25958201
-0.042498998 0.018798999 -0.25960001
-0.042495001 0.018874999 -0.25962201
-0.042491 0.018954 -0.25963601
-0.042488001 0.019029999 -0.259646
-0.042484 0.019106001 -0.259653
-0.042481001 0.019184001 -0.25966299
-0.042477001 0.01926 -0.25967899
-0.042474002 0.019338001 -0.25968501
-0.042470001 0.019414 -0.259689
-0.042467002 0.019491 -0.25970101
-0.042463999 0.019568 -0.25969401
-0.042461999 0.019644 -0.25967601
-0.042459 0.019722 -0.259684
-0.042454999 0.019797999 -0.25969201
-0.042452998 0.019876 -0.25967199
-0.042451002 0.019951001 -0.259653
-0.042449001 0.020028999 -0.259637
-0.042447001 0.020104 -0.25961101
-0.042445999 0.020181 -0.25956899
-0.042445 0.020257 -0.25953099
-0.042442001 0.020334 -0.25951999
-0.042438999 0.020409999 -0.259514
-0.042436 0.020488 -0.25951201
-0.042431999 0.020563999 -0.259532
-0.042428002 0.020640999 -0.25955999
-0.042424001 0.020718999 -0.259574
-0.042420998 0.020795999 -0.25958699
-0.042417001 0.020873999 -0.259597
-0.042413998 0.020950001 -0.25960499
-0.042410001 0.021026 -0.25961301
-0.042406999 0.021104001 -0.25961301
-0.042404 0.02118 -0.25961101
-0.042401999 0.021257 -0.25959599
-0.042399999 0.021333 -0.25957
-0.042397998 0.021408999 -0.25955999
-0.042394999 0.021486999 -0.259556
-0.042392001 0.021562001 -0.25954399
-0.04239 0.021640001 -0.25952101
-0.042388 0.021715 -0.259505
-0.042385999 0.021791 -0.25948501
-0.042383 0.021869 -0.25949499
-0.042378001 0.021946 -0.25953701
-0.042371999 0.022025 -0.25957701
-0.042369001 0.022103 -0.25959101
-0.042365 0.022179 -0.25960401
-0.042360999 0.022258 -0.25962001
-0.042358 0.022334 -0.259626
-0.042355001 0.022412 -0.25962999
-0.042351 0.022488 -0.25963601
-0.042348001 0.022564 -0.259646
-0.042344 0.022642 -0.259655
-0.042342 0.022717999 -0.25964299
-0.042339999 0.022794999 -0.25962701
-0.042337 0.022871001 -0.259617
-0.042335 0.022949001 -0.259601
-0.042332999 0.023024 -0.25957599
-0.042330999 0.0231 -0.25955001
-0.042328998 0.023177 -0.25953001
-0.042328 0.023251999 -0.2595
-0.042327002 0.023327 -0.25945401
-0.042325001 0.023403 -0.25943699
-0.042321 0.023481 -0.259453
-0.042316001 0.023560001 -0.25947899
-0.042312 0.023637 -0.25951701
-0.042307001 0.023715001 -0.25954899
-0.042303 0.023793999 -0.25956699
-0.042298999 0.023870001 -0.25958699
-0.042293999 0.023948999 -0.259624
-0.042289998 0.024026999 -0.259646
-0.042286001 0.024103001 -0.25965801
-0.042282999 0.024181999 -0.25967199
-0.04228 0.024257001 -0.25965601
-0.042279001 0.024334 -0.25961399
-0.042277999 0.02441 -0.25958699
-0.042275 0.024484999 -0.25957301
-0.042273 0.024560999 -0.25955299
-0.042270999 0.024636 -0.25953501
-0.042268001 0.024714001 -0.25953299
-0.042265002 0.02479 -0.259534
-0.042261999 0.024869001 -0.25954199
-0.042257998 0.024947001 -0.25955999
-0.042252999 0.025025999 -0.25959599
-0.042247001 0.025105 -0.25965801
-0.042243 0.025183 -0.25967601
-0.042240001 0.025258999 -0.25967401
-0.042236999 0.025336999 -0.259673
-0.042234 0.025412999 -0.259671
-0.042231001 0.025490999 -0.259675
-0.042227 0.025567001 -0.25968099
-0.042224001 0.025645001 -0.25968099
-0.042220999 0.025722999 -0.25967899
-0.042219002 0.025799001 -0.25967199
-0.042215999 0.025877001 -0.259666
-0.042213 0.025953 -0.25966001
-0.042210001 0.026028 -0.25965199
-0.042208001 0.026106 -0.259644
-0.042204998 0.026182 -0.25963801
-0.042202 0.02626 -0.25964099
-0.042197999 0.026335999 -0.25964901
-0.042194001 0.026413999 -0.25966501
-0.04219 0.026493 -0.259691
-0.042185999 0.026571 -0.25971299
-0.042181998 0.02665 -0.25972101
-0.042179 0.026728 -0.259725
-0.042176001 0.026804 -0.259734
-0.042172 0.026882 -0.25974399
-0.042169001 0.026958 -0.25974399
-0.042165998 0.027036 -0.25974
-0.042164002 0.027110999 -0.25972199
-0.042163 0.027186999 -0.259693
-0.042160001 0.027264001 -0.25968099
-0.042158 0.02734 -0.25966501
-0.042156 0.027415 -0.25964099
-0.042153999 0.027491 -0.259619
-0.042151999 0.027566001 -0.25959799
-0.042149998 0.027642 -0.259574
-0.042149 0.027717 -0.25954601
-0.042146999 0.027791999 -0.259514
-0.042144999 0.027868001 -0.259491
-0.042142 0.027946001 -0.25949901
-0.042137999 0.028023999 -0.25951499
-0.042134002 0.028103 -0.25953901
-0.042128999 0.028181 -0.25957099
-0.042126 0.02826 -0.25957701
-0.042123001 0.028334999 -0.259565
-0.042121001 0.028413 -0.259554
-0.042118002 0.028488999 -0.259552
-0.042114999 0.028566999 -0.259552
-0.042112 0.028643001 -0.25954801
-0.042109001 0.028718 -0.25953799
-0.042107001 0.028796 -0.25951999
-0.042105 0.028872 -0.25951099
-0.042102002 0.028948 -0.259505
-0.042098999 0.029025 -0.25949901
-0.042096999 0.029100999 -0.25948101
-0.042095002 0.029177001 -0.25946701
-0.042091999 0.029252 -0.25945401
-0.042089999 0.02933 -0.259446
-0.042087 0.029406 -0.259446
-0.042082999 0.029484 -0.25945601
-0.042079002 0.029563 -0.259478
-0.042075001 0.029641001 -0.25950199
-0.042071 0.029722 -0.25951901
-0.042066999 0.029797999 -0.25953299
-0.042063002 0.029875999 -0.25954899
-0.042059001 0.029953999 -0.25955901
-0.042057 0.030032 -0.25955299
-0.042054001 0.030107999 -0.259543
-0.042052001 0.030184001 -0.25953099
-0.042048998 0.030259 -0.259516
-0.042047001 0.030337 -0.259498
-0.042043999 0.030413 -0.259498
-0.042041 0.030491 -0.25949201
-0.042041 0.030564001 -0.25944701
-0.042038999 0.030639 -0.25942501
-0.042036999 0.030715 -0.25940701
-0.042034999 0.030789999 -0.25938901
-0.042031001 0.030867999 -0.25939301
-0.042025 0.030949 -0.25944901
-0.042020999 0.031028001 -0.25947699
-0.042017002 0.031107999 -0.25949001
-0.042013001 0.031187 -0.25950399
-0.042010002 0.031265002 -0.25950599
-0.042006999 0.031341001 -0.25951001
-0.042004 0.031417999 -0.25950801
-0.042001002 0.031493999 -0.2595
-0.041997999 0.031571999 -0.25949499
-0.041995998 0.031647999 -0.25947699
-0.041995 0.031721 -0.259451
