-0.0251395 -0.148719 0.98856 0.0129395
-0.0197842 -0.126521 0.991767 0.0233961
-0.0247499 -0.152541 0.987987 0
-0.028479 -0.14833 0.988528 0.00543454
-0.0302232 -0.141966 0.98941 0.00796459
-0.0246404 -0.154651 0.987662 0.00334631
-0.0109783 -0.117427 0.993021 0.0222687
-0.0221616 -0.159965 0.986874 0
-0.0251413 -0.156049 0.987429 0.00125586
-0.0250047 -0.155413 0.987533 0.00135978
-0.0293355 -0.147427 0.988638 0.00272595
-0.014794 -0.120354 0.992621 0.02558
-0.0245892 -0.162969 0.986325 0
-0.019101 -0.156786 0.987448 0.000921971
-0.0126416 -0.168444 0.98563 0.00227045
-0.00888061 -0.116758 0.993121 0.0176601
-0.0084895 -0.117453 0.993042 0.019694
-0.0235747 -0.152148 0.988077 0.000625916
-0.012656 -0.168016 0.985703 0
-0.01588 -0.16579 0.986033 0
0.0010911 -0.114399 0.993434 0.012324
-0.0137455 -0.166568 0.985934 0
-0.0190309 -0.159963 0.986939 0
0.00703421 -0.106722 0.994264 0.0114047
0.00131964 -0.11115 0.993803 0.0114576
-0.0183293 -0.159151 0.987084 0
-0.0250285 -0.156597 0.987345 0
-0.0282089 -0.150612 0.98819 0
0.00412436 -0.109205 0.994011 0.0161365
0.00365687 -0.10559 0.994403 0.0181263
-0.0249634 -0.157006 0.987282 0
0.00213835 -0.102671 0.994713 0.0210533
-0.0198009 -0.165342 0.986037 0
0.00925391 -0.0952234 0.995413 0.0210802
0.00659644 -0.10166 0.994797 0.0189646
-0.0238952 -0.158466 0.987075 0
-0.0334575 -0.146002 0.988718 0
0.00983066 -0.0960746 0.995326 0.0175771
0.0109796 -0.0964317 0.995279 0.0162346
0.0114514 -0.0973949 0.99518 0.0152272
-0.0308421 -0.149537 0.988275 0
-0.0329377 -0.147505 0.988513 0
0.011677 -0.0954314 0.995368 0.0108583
0.013621 -0.0954049 0.995345 0.0143886
0.0137084 -0.0957539 0.995311 0.0135111
-0.0386989 -0.144588 0.988735 0.00245155
-0.0349696 -0.145013 0.988812 0
0.0164605 -0.0872365 0.996052 0.0167049
0.0183506 -0.0843159 0.99627 0.0210333
-0.0369307 -0.138999 0.989604 0.000534153
-0.0326769 -0.141079 0.989459 0
0.0188267 -0.0847372 0.996225 0.0159685
-0.0325315 -0.143729 0.989082 0
-0.0335991 -0.144207 0.988977 0
0.0250069 -0.0801663 0.996468 0.00502173
0.026917 -0.0718869 0.99705 0.0141235
-0.037431 -0.141462 0.989236 0
0.0281 -0.0783882 0.996527 0.0101918
-0.0437379 -0.130244 0.990517 0
-0.037471 -0.139323 0.989538 0
0.029693 -0.0784574 0.996475 0.00513766
0.0304353 -0.0768976 0.996574 0.00642559
-0.0548476 -0.1202 0.991233 0
-0.0376347 -0.140318 0.989391 0
0.0297002 -0.0793063 0.996408 0.00534791
-0.044224 -0.133703 0.990034 0
-0.0490705 -0.129726 0.990335 0
-0.0544811 -0.122363 0.990989 0
-0.0597019 -0.116503 0.991394 0.00360592
-0.0598512 -0.114243 0.991648 0
0.0377583 -0.0749271 0.996474 0.0200859
0.0397469 -0.0712165 0.996669 0.0239422
0.0446398 -0.0587094 0.997277 0.0196017
0.0431089 -0.0662999 0.996868 0.018477
0.0500721 -0.0584551 0.997033 0.019994
0.0465149 -0.0582561 0.997217 0.018143
0.0532516 -0.0528142 0.997184 0.0137629
0.0506542 -0.0563319 0.997126 0.0172063
0.0533862 -0.0572588 0.996931 0.00880809
0.051562 -0.066784 0.996434 0.00537004
0.0583137 -0.0564928 0.996699 0.00705999
-0.0714893 -0.09739 0.992675 0.00091379
0.045078 -0.0778496 0.995945 0.00372387
0.0519254 -0.0658969 0.996475 0.00807732
-0.0740105 -0.0970345 0.992525 0
-0.0616063 -0.110001 0.99202 0.000301104
0.0394222 -0.0973944 0.994465 0
0.0423792 -0.0892777 0.995105 0
0.0565442 -0.067987 0.996083 0
-0.0627646 -0.108357 0.992129 0.00323305
-0.0516904 -0.123172 0.991038 0
0.0401789 -0.0935863 0.9948 0
0.0460485 -0.0935392 0.99455 0
-0.0499438 -0.124299 0.990987 0
-0.0566784 -0.107042 0.992638 0
0.0488299 -0.0718958 0.996216 0.00328988
0.0490344 -0.0815359 0.995463 0
-0.0566395 -0.109563 0.992365 0.00179252
-0.0549217 -0.1126 0.992121 0.00613843
0.0477154 -0.0782301 0.995793 0.00589951
-0.052471 -0.124443 0.990838 0
-0.0528633 -0.121155 0.991225 0.00525396
-0.0546708 -0.108328 0.992611 0.0102132
-0.0575572 -0.099692 0.993352 0.0120813
-0.0515052 -0.114891 0.992042 0.00610994
-0.0423608 -0.124153 0.991359 0
0.0434002 -0.084856 0.995448 0.0115632
0.047215 -0.0688743 0.996507 0.0173578
-0.0213347 0.0896646 0.995744 0.000983954
-0.0231544 0.091485 0.995537 6.74807e-05
-0.0225666 0.10422 0.994298 0
-0.0201527 0.112515 0.993446 0
-0.0215346 0.0877491 0.99591 0.00304586
-0.0244712 0.100025 0.994684 0.00729985
-0.0262167 0.107815 0.993825 0.00710828
-0.0284409 0.11659 0.992773 0.0144953
-0.0213216 0.0919128 0.995539 0.00495232
-0.0247415 0.0945885 0.995209 0
-0.0226421 0.0920072 0.995501 0
-0.0201269 0.102395 0.99454 0
-0.0187962 0.102216 0.994585 0
-0.0209078 0.0914016 0.995595 0
-0.0257258 0.0957516 0.995073 0.0058022
-0.027325 0.111199 0.993422 0.00725204
-0.0255567 0.10368 0.994282 0.00632549
-0.0226682 0.0938097 0.995332 0.00671321
-0.021204 0.0973926 0.99502 0.00706867
-0.0243456 0.106648 0.993999 0.0118999
-0.0245386 0.102188 0.994462 0
-0.0218228 0.0992338 0.994825 0
-0.0184724 0.0949005 0.995315 0
-0.0192141 0.0967013 0.995128 0
-0.0209007 0.0948714 0.99527 0
-0.0252987 0.10861 0.993763 0.0189159
-0.0238367 0.107372 0.993933 0.0112911
-0.0224796 0.102633 0.994465 0.00771112
-0.0251623 0.0957329 0.995089 0
-0.0192571 0.0929548 0.995484 0
-0.0242438 0.114071 0.993177 0.0157839
-0.0236409 0.111961 0.993431 0.00987911
-0.0247787 0.113744 0.993201 0.000423411
-0.0270671 0.110718 0.993483 0.0102211
-0.0207028 0.128616 0.991478 0
-0.0219406 0.121089 0.992399 0.000855283
-0.0215243 0.108367 0.993878 0
-0.026701 0.106439 0.993961 0.00798699
-0.022354 0.12296 0.99216 0.00726111
-0.0187239 0.114107 0.993292 0
-0.019667 0.111986 0.993515 0
-0.0247239 0.100177 0.994662 0.00449324
-0.0246889 0.0989698 0.994784 0.00307718
-0.020557 0.128173 0.991539 0
-0.0187822 0.11669 0.992991 0
-0.0183237 0.12077 0.992511 0
-0.0168676 0.107894 0.994019 0
-0.0268527 0.100207 0.994604 0.00624578
-0.0237823 0.100638 0.994639 0
-0.0223665 0.131178 0.991106 0.00234534
-0.0193214 0.121998 0.992342 0
-0.0167482 0.118601 0.992801 0
-0.0156405 0.111714 0.993617 0
-0.016192 0.113209 0.993439 0
-0.0234906 0.0990234 0.994808 0.00033679
-0.0225502 0.13465 0.990637 3.89773e-05
-0.0209307 0.129977 0.991296 0
-0.0206845 0.131037 0.991162 0
-0.0156135 0.12347 0.992225 0
-0.0169457 0.114223 0.993311 0
-0.0166635 0.114607 0.993271 0
-0.0266444 0.112331 0.993314 0.0110717
-0.0232726 0.135123 0.990555 0.000311917
-0.0205719 0.135215 0.990603 0.00242686
-0.0172148 0.129672 0.991407 0
-0.0217462 0.129546 0.991335 0
-0.0174654 0.127123 0.991733 0
-0.014798 0.115342 0.993216 0
-0.0135352 0.112408 0.99357 0
-0.0323806 0.131537 0.990782 0.018743
-0.0243156 0.130938 0.991092 0.000841025
-0.0222169 0.128437 0.991469 0
-0.0167699 0.134366 0.99079 0
-0.0198331 0.1288 0.991472 0
-0.0169218 0.126913 0.99177 0
-0.0174282 0.122664 0.992295 0
-0.0135504 0.121244 0.99253 0
-0.0148358 0.113896 0.993382 0
-0.0312783 0.125734 0.991571 0.0186807
-0.0263458 0.132564 0.990824 0
-0.0212505 0.134193 0.990727 0
-0.018183 0.132606 0.991002 0
-0.0173281 0.133123 0.990948 0
-0.0178895 0.12619 0.991845 0
-0.017392 0.126363 0.991832 0
-0.0168004 0.12123 0.992482 0
-0.0150068 0.120666 0.99258 0
-0.030504 0.121471 0.992126 0.0145098
-0.022884 0.13648 0.990379 0
-0.019132 0.137459 0.990323 6.59293e-05
-0.0163941 0.131673 0.991158 0
-0.0137854 0.135504 0.990681 0
-0.0148097 0.133835 0.990893 0
-0.0139614 0.129445 0.991488 0
-0.0158694 0.124687 0.992069 0
-0.0153754 0.121248 0.992503 0
-0.0286624 0.12155 0.992171 0.0108792
-0.0234088 0.126022 0.991751 0
-0.0200426 0.131305 0.991139 0
-0.0147244 0.120993 0.992544 0
-0.0132204 0.134185 0.990868 0
-0.011207 0.133628 0.990968 0
-0.0167021 0.125701 0.991928 0.000519348
-0.0153481 0.122541 0.992345 0
-0.0170028 0.11194 0.993569 0
-0.0296308 0.114096 0.993028 0.00984654
-0.0314839 0.120351 0.992232 0.0123758
-0.0349946 0.12901 0.991026 0.016678
-0.0250198 0.126397 0.991664 0
-0.0208526 0.129686 0.991336 0
-0.0108593 0.131626 0.99124 0
-0.0163434 0.126569 0.991823 0
-0.0161674 0.11166 0.993615 0
-0.0294141 0.117152 0.992678 0.0101735
-0.0308423 0.117615 0.99258 0.0100528
-0.0307782 0.125687 0.991592 0.0109109
-0.0324275 0.125789 0.991527 0.0108797
-0.0171832 0.113266 0.993416 0
-0.0185542 0.118387 0.992794 0.00519353
-0.0246957 0.123028 0.992096 0.0112938
-0.0281072 0.118023 0.992613 0.00936612
-0.0306615 0.123656 0.991851 0.0122929
-0.0325396 0.12549 0.991561 0.0090195
-0.0298551 0.122007 0.99208 0.0079635
-0.0306573 0.124152 0.99179 0.00646
-0.0181063 0.120918 0.992497 0.000985843
-0.0186964 0.118354 0.992795 0.00614901
-0.0284439 0.116061 0.992835 0.00999736
-0.029757 0.124928 0.991719 0.0123399
-0.018266 0.124771 0.992017 0.00627327
-0.0200198 0.118324 0.992773 0.00811813
-0.0228665 0.113222 0.993307 0.00691039
-0.0912907 0.0353223 0.995198 0.00451392
-0.0878444 0.0320981 0.995617 0.000659345
-0.129253 -0.0280615 0.991215 0.00410864
-0.143341 -0.0215953 0.989438 0.0104507
-0.124246 -0.0288546 0.991832 0.000868989
-0.134971 -0.0219546 0.990606 0.00946994
-0.123968 -0.0261896 0.99194 0.00034713
-0.11406 -0.0280321 0.993078 0
-0.114878 -0.0279783 0.992985 0.00116471
-0.140833 -0.0162713 0.9899 0.0119054
-0.134762 -0.0186848 0.990702 0.00805552
-0.120085 -0.0228004 0.992502 0.00261942
-0.124851 -0.0235071 0.991897 0.00140942
-0.11721 -0.025999 0.992767 0.0038941
-0.113138 -0.0281235 0.993181 0.00159899
-0.10396 -0.0329683 0.994035 0
-0.137631 -0.016826 0.990341 0.0119713
-0.135951 -0.0158404 0.990589 0.0118764
-0.136703 -0.0170744 0.990465 0.00963393
-0.123262 -0.0222414 0.992125 0.00170019
-0.128214 -0.0191249 0.991562 0.00524181
-0.123874 -0.0233056 0.992024 0.00673942
-0.114983 -0.024463 0.993066 0.00447792
-0.110902 -0.0272974 0.993456 0.00266506
-0.139606 -0.0113182 0.990142 0.0142698
-0.130577 -0.0120434 0.991365 0.0109683
-0.128425 -0.0135457 0.991627 0.0105463
-0.128519 -0.0144295 0.991602 0.00988308
-0.129809 -0.0163197 0.991405 0.00442972
-0.128042 -0.015319 0.991651 0.00983431
-0.124377 -0.0175794 0.992079 0.00816945
-0.106263 -0.0236099 0.994058 0.0035044
-0.140805 -0.0145153 0.989931 0.0148834
-0.135812 -0.0126265 0.990654 0.012735
-0.130321 -0.0133576 0.991382 0.00716499
-0.131297 -0.00876767 0.991304 0.00872232
-0.127771 -0.00973648 0.991756 0.00770965
-0.140299 -0.00963129 0.990062 0.0152326
-0.140393 -0.00279547 0.990092 0.0132796
-0.133382 -0.00538261 0.99105 0.0120192
-0.131536 -0.00672097 0.991289 0.0100143
-0.104892 -0.0126608 0.994403 0.00491965
-0.142416 -0.00252558 0.989804 0.00972202
-0.141515 -0.00184101 0.989934 0.010987
-0.137101 -0.00202776 0.990555 0.0107744
-0.10542 -0.0144652 0.994323 0.00625579
-0.147582 0.00171484 0.989048 0.00816622
-0.141701 -0.00275475 0.989906 0.00618771
-0.128643 -0.00486293 0.991679 0.0185384
-0.140348 0.000916285 0.990102 0.0040678
-0.128607 -0.00610765 0.991677 0.0258037
-0.135972 0.00424819 0.990704 0.0058241
-0.134734 0.000145541 0.990882 0.00673148
-0.134154 -0.00378845 0.990953 0.0294062
-0.136188 0.00143597 0.990682 0.00758841
-0.13289 0.00491141 0.991119 0.0104411
-0.12595 0.00615643 0.992018 0.00445067
-0.12673 0.0102044 0.991885 0.0142747
-0.119971 0.00388876 0.99277 0.00380986
-0.123256 0.00634993 0.992355 0.0065851
-0.127206 0.00575236 0.99186 0.0142377
-0.127603 0.00498193 0.991813 0.0133147
-0.177341 0.0155919 0.984026 0.044543
-0.128929 0.00420411 0.991645 0.00778335
-0.122024 0.00375372 0.99252 0.00876668
-0.176116 0.0152579 0.984251 0.0434421
-0.126841 0.0124312 0.991845 0.00767879
-0.164449 0.0160111 0.986256 0.0384034
-0.124244 0.0118935 0.99218 0.0109677
-0.146824 0.0150511 0.989048 0.0296963
-0.120011 0.0113201 0.992708 0.00539886
-0.117222 0.012761 0.993024 0.00788425
-0.124559 0.0162812 0.992079 0.00857805
-0.116077 0.0119246 0.993169 0.0039107
-0.126756 0.0161596 0.991802 0.0185492
-0.125759 0.0149898 0.991948 0.00859959
-0.124216 0.0144335 0.99215 0.00791374
-0.130276 0.0195255 0.991286 0.0197786
-0.124266 0.0223478 0.991997 0.00816853
-0.129092 0.0247361 0.991324 0.0092467
-0.130695 0.0215268 0.991189 0.0103299
-0.131458 0.0217903 0.991082 0.0120219
-0.143769 0.0243588 0.989311 0.027029
-0.142117 0.0234772 0.989571 0.025313
-0.131591 0.0202417 0.991097 0.018365
-0.127475 0.0210679 0.991618 0.00946632
-0.13255 0.0244171 0.990875 0.0102502
-0.129451 0.0229412 0.99132 0.0102025
-0.139584 0.0286058 0.989797 0.0235281
-0.1402 0.0267909 0.989761 0.0239274
-0.140405 0.0271116 0.989723 0.0240467
-0.129949 0.0275409 0.991138 0.0122695
-0.131955 0.0273755 0.990878 0.013385
-0.131705 0.0247872 0.990979 0.0113254
-0.13553 0.0264115 0.990421 0.0139911
-0.136278 0.0272558 0.990296 0.0232111
-0.135495 0.0333561 0.990216 0.0245752
-0.139484 0.0335419 0.989656 0.0224259
-0.136454 0.0364107 0.989977 0.0199539
-0.1378 0.0295837 0.990018 0.0201664
-0.143345 0.0330519 0.989121 0.0270869
-0.138779 0.0330168 0.989773 0.0229995
-0.133415 0.0345064 0.990459 0.0206121
-0.13271 0.0367849 0.990472 0.0179623
-0.134695 0.036523 0.990214 0.0204835
-0.139921 0.0413347 0.989299 0.0249582
-0.130391 0.0350832 0.990842 0.0202034
-0.126016 0.03807 0.991297 0.0186953
-0.130056 0.0437201 0.990542 0.0230188
-0.052953 -0.110139 0.992505 0.00760421
-0.0576146 -0.11727 0.991427 0.00186644
-0.0535447 -0.112458 0.992213 0.00802732
-0.0544352 -0.111686 0.992252 0.00737214
-0.0469148 -0.108011 0.993042 0.00829
-0.0525833 -0.113014 0.992201 0.00966574
-0.0551631 -0.109666 0.992437 0.0132005
-0.059335 -0.109052 0.992264 0.0156188
-0.0559734 -0.109088 0.992455 0.013331
-0.0423684 -0.102618 0.993818 0.0130042
-0.0564335 -0.112528 0.992045 0.0175583
-0.0423703 -0.108636 0.993178 0.00991644
-0.0443098 -0.111568 0.992768 0.0104433
-0.0555818 -0.109809 0.992397 0.0149529
-0.058058 -0.107227 0.992538 0.0176605
-0.0587201 -0.107191 0.992503 0.0183696
-0.0506219 -0.099916 0.993707 0.0140479
-0.0427677 -0.0932029 0.994728 0.0188121
-0.0531456 -0.112155 0.992269 0.0155639
-0.0519205 -0.117049 0.991768 0.0161289
-0.0426262 -0.110526 0.992959 0.0109681
-0.0375836 -0.107549 0.993489 0.00708727
-0.0425997 -0.106677 0.993381 0.0105242
-0.0502828 -0.108513 0.992823 0.0127451
-0.0462131 -0.109208 0.992944 0.011379
-0.0433312 -0.107031 0.993311 0.0139591
-0.0405905 -0.105875 0.993551 0.014126
-0.0294288 -0.100611 0.994491 0.014577
-0.0525382 -0.112925 0.992213 0.0198841
-0.0472102 -0.109721 0.992841 0.0160304
-0.0417072 -0.112581 0.992767 0.0111086
-0.0347652 -0.109102 0.993422 0.0114283
-0.0404209 -0.10776 0.993355 0.00431111
-0.0345866 -0.107076 0.993649 0.00711214
-0.0331017 -0.105115 0.993909 0.0109421
-0.0303719 -0.10203 0.994317 0.0135463
-0.0497264 -0.128728 0.990432 0.0132116
-0.0487416 -0.113851 0.992301 0.0180752
-0.044565 -0.107956 0.993156 0.0160625
-0.0463779 -0.110779 0.992762 0.0162269
-0.0443058 -0.111223 0.992807 0.0151214
-0.0335742 -0.10938 0.993433 0.0120785
-0.0289493 -0.112458 0.993235 0.00721601
-0.0251305 -0.104631 0.994194 0.0102033
-0.0233172 -0.106723 0.994015 0.00554515
-0.0477393 -0.126834 0.990775 0.00726529
-0.0479364 -0.121999 0.991372 0.0124616
-0.047985 -0.124318 0.991081 0.0104827
-0.0464056 -0.12145 0.991512 0.0120791
-0.0469001 -0.121301 0.991507 0.0112909
-0.0465209 -0.115344 0.992236 0.0155362
-0.0114255 -0.10938 0.993934 0.00167271
-0.0102219 -0.106029 0.99431 0.00252988
-0.0446009 -0.126162 0.991006 0.0086333
-0.0439372 -0.12387 0.991325 0.0105852
-0.0468479 -0.127684 0.990708 0.0085606
-0.0429917 -0.122365 0.991553 0.008792
-0.0465587 -0.121777 0.991465 0.0147657
-0.00252161 -0.10588 0.994376 0
-0.00623613 -0.110621 0.993843 0
-0.0109365 -0.108999 0.993982 0
-0.0254611 -0.107277 0.993903 0.0125005
-0.0267305 -0.11485 0.993023 0.0236039
-0.0459803 -0.132793 0.990077 0.00388021
-0.042932 -0.124174 0.991331 0.00489329
-0.0388543 -0.125808 0.991293 0.00565826
-0.00492762 -0.108836 0.994047 0
-0.00261624 -0.109684 0.993963 0
-0.0336393 -0.102997 0.994113 0.0202267
-0.0211449 -0.126083 0.991794 0.0133788
-0.0470578 -0.128765 0.990558 0.00728058
-0.0404906 -0.123424 0.991528 0.00710779
-0.0371463 -0.118045 0.992313 0.00813795
-0.00278537 -0.110105 0.993916 0
-0.0251295 -0.1072 0.99392 0.00565059
-0.0277641 -0.113353 0.993167 0.00740675
-0.027692 -0.116699 0.992781 0.0135834
-0.0252928 -0.116397 0.992881 0.015814
-0.0224951 -0.11953 0.992576 0.0149626
-0.0416095 -0.124537 0.991342 0.0118973
-0.0422792 -0.127694 0.990912 0.0119315
-0.0465301 -0.129943 0.990429 0.0100141
-0.0394035 -0.126094 0.991235 0.0104108
-0.0432146 -0.121623 0.991635 0.0104325
-0.00435314 -0.106398 0.994314 0
-0.0336061 -0.102908 0.994123 0
-0.029594 -0.109956 0.993496 0.000866847
-0.0255526 -0.117302 0.992767 0.00374812
-0.0280062 -0.116323 0.992817 0.0120086
-0.0238428 -0.119636 0.992532 0.0132567
-0.0219905 -0.114091 0.993227 0.0136012
-0.0412538 -0.12404 0.991419 0.0147586
-0.0405615 -0.124531 0.991386 0.0158026
-0.0420386 -0.127069 0.991003 0.0127152
-0.0421725 -0.126182 0.99111 0.007719
-0.0368247 -0.122801 0.991748 0.00778351
-0.00690811 -0.107114 0.994223 0
-0.0295333 -0.11472 0.992959 0
-0.029251 -0.112464 0.993225 0
-0.022164 -0.122336 0.992241 0
-0.0234941 -0.122028 0.992249 0.00744631
-0.0204607 -0.123882 0.992086 0.0109181
-0.0271625 -0.115149 0.992977 0.0131868
-0.0302624 -0.112229 0.993222 0.0135746
-0.036721 -0.106984 0.993582 0.0259735
-0.0336315 -0.121526 0.992018 0.00617256
-0.0325158 -0.116726 0.992632 0.009397
0.00282717 -0.104383 0.994533 0
-0.0338707 -0.118715 0.992351 0
-0.0308723 -0.123849 0.991821 0
-0.0287096 -0.125182 0.991718 0.00417619
-0.0253711 -0.118378 0.992644 0.00866755
-0.0254789 -0.118832 0.992587 0.00762095
-0.0340748 -0.113023 0.993008 0.0182429
-0.0305839 -0.115157 0.992876 0.0175835
-0.0336902 -0.110435 0.993312 0.0230536
-0.0360128 -0.126965 0.991253 0.00745323
-0.0376545 -0.121863 0.991832 0.0128829
-0.0059499 -0.111114 0.99379 0
-0.0417355 -0.110805 0.992965 0.00239951
-0.0365569 -0.114068 0.9928 0.00713684
-0.039274 -0.108401 0.993331 0.00920012
-0.0346589 -0.113115 0.992977 0.00934495
-0.0411189 -0.110372 0.993039 0.0159191
-0.038565 -0.109696 0.993217 0.0135173
-0.0413848 -0.104578 0.993655 0.024669
-0.03518 -0.111191 0.993176 0.0209994
-0.0333708 -0.107477 0.993647 0.0286922
-0.0327035 -0.106777 0.993745 0.0298424
-0.0351075 -0.123709 0.991697 0.00502058
-0.0356876 -0.124145 0.991622 0.00769694
-0.00546986 -0.106865 0.994258 0
-0.0420054 -0.111178 0.992912 0
-0.0389078 -0.116825 0.99239 0.00499953
-0.0410144 -0.109998 0.993085 0.00912414
-0.0381698 -0.110177 0.993179 0.00736727
-0.0386058 -0.110207 0.993159 0.0104011
-0.0443165 -0.105705 0.99341 0.0216391
-0.0380696 -0.107486 0.993478 0.0213394
-0.0303797 -0.112191 0.993222 0.0176484
-0.0306805 -0.111058 0.99334 0.0205404
-0.0242469 -0.11841 0.992669 0.0232757
-0.0300628 -0.121342 0.992155 0.00435974
-0.0347264 -0.121964 0.991927 0.00914636
-0.0369598 -0.117665 0.992365 0
-0.0402391 -0.115467 0.992496 0.00538163
-0.0425551 -0.109724 0.993051 0.00647388
-0.0405087 -0.106771 0.993458 0.0106255
-0.0347284 -0.111035 0.993209 0.00750892
-0.0247549 -0.12083 0.992365 0.00606037
-0.0206502 -0.125085 0.991931 0.00761881
-0.0163164 -0.12655 0.991826 0.005776
-0.0147892 -0.125009 0.992045 0.00182263
-0.0260484 -0.12014 0.992415 0.00822857
-0.0241883 -0.115398 0.993025 0.0109597
-0.0260768 -0.11549 0.992966 0.0137013
-0.0342671 -0.125415 0.991512 0
-0.0358281 -0.119514 0.992186 0.000955886
-0.0458641 -0.107913 0.993102 0.00614185
-0.036922 -0.118996 0.992208 0
-0.0348729 -0.114015 0.992867 0.00428979
-0.0340986 -0.113525 0.99295 0.00746408
-0.0326563 -0.113734 0.992974 0.0116405
-0.0246443 -0.122732 0.992134 0.0134392
-0.0239495 -0.124181 0.99197 0.0108195
-0.0153574 -0.128654 0.991571 0.00792909
-0.0119667 -0.131582 0.991233 0.0019143
-0.0276224 -0.11666 0.992788 0.0140488
-0.0151873 -0.106741 0.994171 0.0199718
-0.0119851 -0.10933 0.993933 0.0105479
-0.0347781 -0.124377 0.991625 0
-0.0366799 -0.119425 0.992166 0
-0.0370444 -0.121221 0.991934 0
-0.0363359 -0.117171 0.992447 0.000522671
-0.0331943 -0.11634 0.992655 0.0118715
-0.0333106 -0.116893 0.992586 0.01358
-0.0291729 -0.117427 0.992653 0.0168646
-0.0236585 -0.124055 0.991993 0.0135224
-0.0166381 -0.126133 0.991874 0.00892207
-0.0320617 -0.117855 0.992513 0.0167673
-0.0308811 -0.121259 0.99214 0.0183739
-0.0211549 -0.10966 0.993744 0.0227126
-0.0360831 -0.12309 0.991739 0
-0.034279 -0.12089 0.992074 0
-0.0357065 -0.120092 0.99212 0
-0.0322578 -0.130066 0.99098 0.00137075
-0.0353593 -0.119774 0.992171 0.0104113
-0.0332028 -0.123138 0.991834 0.00888243
-0.0296148 -0.120026 0.992329 0.012294
-0.0255 -0.125848 0.991722 0.0104063
-0.0242246 -0.126667 0.99165 0.0158457
-0.0232099 -0.155165 0.987616 0
-0.0236553 -0.148409 0.988643 0
-0.0368535 -0.12099 0.991969 0.0188828
-0.0238418 -0.117584 0.992777 0.0150308
-0.0219479 -0.110534 0.99363 0.0219466
-0.0353396 -0.121133 0.992007 0
-0.0333918 -0.126241 0.991437 0
-0.0393065 -0.128094 0.990983 0.00560283
-0.0392797 -0.119355 0.992074 0.0114493
-0.0281858 -0.126548 0.99156 0.011293
-0.0275715 -0.126386 0.991598 0.0129328
-0.0272095 -0.124265 0.991876 0.0139719
-0.0212732 -0.145783 0.989088 0
-0.0339705 -0.124143 0.991683 0.0107771
-0.0324122 -0.121651 0.992044 0.0164213
-0.0287237 -0.122684 0.99203 0.0106894
-0.0267585 -0.118527 0.99259 0.0196713
-0.0224268 -0.116323 0.992958 0.0166682
-0.0342531 -0.135356 0.990205 0
-0.0480154 -0.120029 0.991609 0.00425168
-0.0369661 -0.124215 0.991566 0.00953554
-0.0357483 -0.122899 0.991775 0.0104474
-0.0178152 -0.142294 0.989664 0
-0.0169706 -0.141932 0.989731 0
-0.0173893 -0.136234 0.990524 0
-0.0302997 -0.121031 0.992186 0.0172597
-0.0340431 -0.117223 0.992522 0.0197537
-0.0356007 -0.121341 0.991972 0.0131721
-0.024539 -0.117943 0.992717 0.0146865
-0.0362654 -0.138869 0.989646 0
-0.0429688 -0.128441 0.990786 0.00683381
-0.0436599 -0.113523 0.992576 0.00909296
-0.0236598 -0.158833 0.987022 0
-0.0205743 -0.148678 0.988672 0
-0.0188844 -0.145795 0.989135 0
-0.0144302 -0.139556 0.990109 0
-0.0137993 -0.136605 0.990529 0
-0.0207244 -0.136831 0.990378 0
-0.0339784 -0.120672 0.992111 0.0182566
-0.0364525 -0.12056 0.992037 0.0209825
-0.0350872 -0.120912 0.992043 0.0184022
-0.0254067 -0.114834 0.99306 0.0161652
-0.0194053 -0.160405 0.98686 0
-0.0216692 -0.155136 0.987655 0
-0.0209601 -0.150498 0.988388 0
-0.0104628 -0.146931 0.989091 0
-0.0122229 -0.147116 0.989044 0
-0.0154431 -0.139182 0.990146 0
-0.0159899 -0.12892 0.991526 0
-0.0278073 -0.121974 0.992144 0.00822306
-0.0318122 -0.116361 0.992697 0.0209011
-0.0307035 -0.119721 0.992333 0.0141606
-0.0233921 -0.1595 0.986921 0
-0.0229886 -0.155173 0.98762 0
-0.025952 -0.164889 0.98597 0
-0.0207237 -0.160975 0.986741 0
-0.0229321 -0.154496 0.987727 0
-0.0245028 -0.160402 0.986748 0
-0.0235297 -0.164416 0.98611 0
-0.0216457 -0.158428 0.987133 0
-0.0220803 -0.150129 0.98842 0
-0.0161808 -0.14377 0.989479 0
-0.0186001 -0.143457 0.989482 0
-0.02064 -0.134163 0.990744 0
-0.0284138 -0.110852 0.993431 0.02537
-0.027477 -0.116634 0.992795 0.0180721
-0.00776551 -0.180574 0.983531 0
-0.0201721 -0.152345 0.988122 0
-0.019735 -0.156579 0.987468 0
-0.0194375 -0.15505 0.987715 0
-0.0258997 -0.152377 0.987983 0.00734702
-0.0264392 -0.156385 0.987342 0.00874156
-0.0213613 -0.155325 0.987632 0
-0.0204618 -0.161204 0.986709 0
-0.0221172 -0.159424 0.986962 0
-0.0187403 -0.160038 0.986933 0
-0.019681 -0.16065 0.986815 0
-0.0194972 -0.15093 0.988352 0
-0.0155243 -0.150082 0.988552 0
-0.0109695 -0.144359 0.989465 0
-0.0174231 -0.138014 0.990277 0
-0.0242593 -0.125583 0.991786 0.0119776
-0.0148183 -0.172457 0.984906 0
-0.0260907 -0.15956 0.986843 0.00760797
-0.0196713 -0.144582 0.989297 0.00496328
-0.0175692 -0.144575 0.989338 0
-0.0202903 -0.139626 0.989996 2.67451e-05
-0.0176381 -0.14935 0.988627 0
-0.0186046 -0.144191 0.989375 0.00832396
-0.0207376 -0.144531 0.989283 0.0124318
-0.0202517 -0.147174 0.988903 0.00597051
-0.0192621 -0.151857 0.988215 0.00135309
-0.0194578 -0.159334 0.987033 0
-0.0212469 -0.165351 0.986006 0
-0.0186193 -0.151873 0.988225 0
-0.0146516 -0.153825 0.987989 0
-0.0166997 -0.146773 0.989029 0
-0.0117907 -0.142385 0.989741 0
-0.0121275 -0.139896 0.990092 0
-0.0211818 -0.124629 0.991977 0.013788
-0.0235891 -0.162976 0.986348 0.00898624
-0.0271881 -0.157395 0.987161 0.0130149
-0.0158035 -0.169087 0.985474 0.00504453
-0.0131598 -0.171356 0.985121 0
-0.0200855 -0.142416 0.989603 0
-0.0171293 -0.142341 0.989669 0
-0.0197528 -0.139848 0.989976 0.00332549
-0.0189179 -0.13994 0.989979 0
-0.0149885 -0.143923 0.989475 0
-0.0180595 -0.143448 0.989493 0.00718041
-0.0153052 -0.14094 0.9899 0.0100863
-0.0195048 -0.145091 0.989226 0.0109779
-0.0182694 -0.150884 0.988383 0
-0.0154583 -0.151632 0.988316 0
-0.0158583 -0.156119 0.987611 0
-0.0100895 -0.142088 0.989803 0
-0.0112964 -0.142292 0.98976 0.000572043
-0.0119 -0.141142 0.989918 0
-0.0150438 -0.142727 0.989648 0
-0.0197289 -0.130592 0.99124 0.0178836
-0.0247289 -0.157555 0.987201 0.0128875
-0.0168474 -0.16969 0.985354 0
-0.014015 -0.16756 0.985762 0.00699088
-0.0129923 -0.164694 0.986259 0.00251911
-0.0154 -0.165033 0.986168 0
-0.0174109 -0.163714 0.986354 0.000980966
-0.0187881 -0.148481 0.988737 0
-0.0232664 -0.141583 0.989653 0
-0.0207537 -0.144511 0.989285 0.00388877
-0.021535 -0.140809 0.989803 0.00410256
-0.021402 -0.143155 0.989469 0.001725
-0.0174421 -0.141131 0.989837 0.00232279
-0.0145699 -0.137456 0.990401 0.00442138
-0.0178578 -0.138702 0.990173 0.0215039
-0.0127234 -0.139761 0.990103 0.0126213
-0.00852922 -0.142618 0.989741 0
-0.0102239 -0.147084 0.989071 0
-0.0117375 -0.142665 0.989701 0
-0.00991505 -0.135444 0.990735 0.00649132
-0.0212837 -0.133459 0.990826 0.0196553
-0.0214626 -0.167487 0.985641 0
-0.0271223 -0.156422 0.987318 0.00441311
-0.0262061 -0.153166 0.987853 0.0108648
-0.0159006 -0.163682 0.986385 0.00948099
-0.0161366 -0.159586 0.987052 0.013831
-0.0160748 -0.162336 0.986605 0.00982338
-0.0157869 -0.163535 0.986411 0.00153098
-0.013157 -0.167041 0.985862 0
-0.0169442 -0.16252 0.98656 0
-0.0160976 -0.161392 0.986759 0
-0.0244688 -0.152316 0.988029 0.00216963
-0.0134426 -0.170712 0.985229 0
-0.00915289 -0.175771 0.984389 0
-0.0109266 -0.174629 0.984574 0
-0.0102306 -0.179075 0.983782 0
-0.0151279 -0.156437 0.987572 0.00228417
-0.0199346 -0.148969 0.988641 0
-0.0214133 -0.144333 0.989297 0
-0.0230009 -0.142127 0.989581 0.00198157
-0.0212591 -0.137431 0.990283 0.00350029
-0.0252182 -0.137508 0.99018 0.0106081
-0.0216663 -0.133569 0.990803 0.0114821
-0.0151061 -0.132027 0.991131 0.0101545
-0.0149328 -0.138479 0.990253 0.0104293
-0.0115654 -0.139183 0.990199 0.0108963
-0.0122499 -0.141952 0.989798 0.0108766
-0.00914517 -0.140537 0.990033 0.00470237
-0.00767587 -0.14046 0.990057 0
-0.0141329 -0.127295 0.991764 0.0177299
-0.0241821 -0.157294 0.987256 0.000734427
-0.0263542 -0.153243 0.987837 0.00952875
-0.0196401 -0.156875 0.987423 0.00610938
-0.0138624 -0.159423 0.987113 0.0067853
-0.0199846 -0.151632 0.988235 0.0151325
-0.0164829 -0.159533 0.987055 0.0160162
-0.017586 -0.162204 0.986601 0.00950919
-0.01258 -0.166638 0.985938 0
-0.0165329 -0.158744 0.987181 0
-0.0221973 -0.150729 0.988326 0.0028579
-0.0255098 -0.150305 0.988311 0.00278954
-0.0176291 -0.160354 0.986902 0
-0.0121103 -0.170664 0.985255 0
-0.0100274 -0.172455 0.984966 0
-0.0124724 -0.165535 0.986125 0
-0.0102659 -0.179713 0.983665 0
-0.0118914 -0.176548 0.98422 0
-0.0129528 -0.177651 0.984008 0
-0.00986799 -0.165098 0.986228 0
-0.0139107 -0.163323 0.986475 0
-0.0209508 -0.151327 0.988262 0
-0.0241546 -0.147763 0.988728 0.00265515
-0.0206745 -0.149843 0.988494 0
-0.0221138 -0.140762 0.989797 0
-0.0181886 -0.134969 0.990683 0.00090655
-0.025997 -0.137416 0.990172 0.00778525
-0.0234965 -0.128386 0.991446 0.0149284
-0.0148712 -0.133181 0.99098 0.00942535
-0.012442 -0.139582 0.990132 0.00525532
-0.0110525 -0.143051 0.989654 0.00558382
-0.00906649 -0.138034 0.990386 0.00709115
-0.0121927 -0.124858 0.9921 0.0218494
-0.0212828 -0.161549 0.986635 0.000393547
-0.0264598 -0.160927 0.986612 0.0032371
-0.0267271 -0.149112 0.988459 0.0065267
-0.0237214 -0.151102 0.988234 0.00123295
-0.0271636 -0.150015 0.98831 0.0274123
-0.0217655 -0.153394 0.987925 0.0185265
-0.0193986 -0.157402 0.987344 0.00913993
-0.0120542 -0.165139 0.986197 0
-0.0197754 -0.155342 0.987663 0
-0.02705 -0.146089 0.988902 0.00302144
-0.0317828 -0.139169 0.989759 0.00889417
-0.0312117 -0.144773 0.988973 0.0179209
-0.0200565 -0.155121 0.987692 0
-0.0185342 -0.155006 0.98774 0
-0.0158018 -0.160497 0.98691 0
-0.015587 -0.158636 0.987214 0
-0.0139854 -0.161227 0.986818 0
-0.0149363 -0.165303 0.98613 0
-0.0119443 -0.18443 0.982773 0
-0.0109866 -0.176636 0.984215 0
-0.0125924 -0.181968 0.983224 0
-0.0161342 -0.16634 0.985937 0.00214566
-0.0167953 -0.164366 0.986256 0.00572479
-0.0163175 -0.166485 0.985909 0.00361534
-0.0209555 -0.162795 0.986437 0.0105596
-0.018534 -0.1528 0.988083 0
-0.0210114 -0.146214 0.98903 0
-0.019747 -0.150406 0.988427 0
-0.0241946 -0.140423 0.989796 0
-0.0243719 -0.137685 0.990176 0.00313963
-0.0189723 -0.130991 0.991202 0.00906834
-0.0121287 -0.126995 0.991829 0.014579
-0.00990952 -0.145506 0.989308 0.0031955
-0.0186592 -0.121601 0.992404 0.0180158
-0.0162956 -0.123125 0.992257 0.0229826
-0.0226815 -0.159972 0.986861 0.00367804
-0.0200114 -0.168357 0.985523 0
-0.0217803 -0.155445 0.987604 0.000167664
-0.022023 -0.15222 0.988101 0
-0.0278221 -0.144233 0.989153 0.00447378
-0.0346908 -0.135401 0.990183 0.0174607
-0.0375306 -0.131977 0.990542 0.0237897
-0.03251 -0.143768 0.989077 0.0194187
-0.0123841 -0.16896 0.985545 0
-0.0127415 -0.168251 0.985662 0
-0.0166237 -0.159014 0.987136 0
-0.0147103 -0.159169 0.987142 0
-0.0143661 -0.161864 0.986709 0
-0.0164188 -0.16428 0.986277 0
-0.0109043 -0.189269 0.981865 0
-0.0134338 -0.183799 0.982872 0
-0.0127794 -0.180596 0.983474 0
-0.0162934 -0.172053 0.984953 0.00253091
-0.0176556 -0.165421 0.986065 0
-0.0183482 -0.169214 0.985409 0.00671742
-0.0209958 -0.167923 0.985577 0.00395607
-0.0223791 -0.158874 0.987045 0.00406084
-0.0225377 -0.152634 0.988026 0.00934839
-0.0198461 -0.148818 0.988665 0.00160922
-0.0212479 -0.145804 0.989085 0
-0.0189846 -0.136378 0.990475 0.000755713
-0.0174418 -0.129402 0.991439 0.00933528
-0.0129223 -0.136749 0.990521 0.00707647
-0.0113135 -0.142643 0.98971 0.00803405
-0.00974315 -0.146232 0.989202 0.00352006
-0.00426185 -0.110822 0.993831 0.0218228
-0.00409007 -0.107945 0.994148 0.0240906
-0.0215876 -0.162582 0.986459 0.00137975
-0.0215651 -0.160902 0.986735 0.00387305
-0.0244908 -0.156789 0.987328 0.00127163
-0.0239967 -0.148593 0.988607 0.00108002
-0.0298051 -0.143873 0.989147 0.00768583
-0.0359009 -0.133237 0.990434 0.0199768
-0.0308463 -0.142642 0.989294 0.0160111
-0.0236133 -0.149022 0.988552 0.0105731
-0.0152058 -0.16031 0.98695 0
-0.0152756 -0.158625 0.987221 0
-0.015178 -0.157053 0.987473 0
-0.0181679 -0.173129 0.984732 0.00346482
-0.0195163 -0.163934 0.986278 0.00109553
-0.0191628 -0.160265 0.986888 0.00194032
-0.0195039 -0.157093 0.987391 0.00364246
-0.0225486 -0.160024 0.986856 0.00846679
-0.0206674 -0.155201 0.987667 0.00336634
-0.0247296 -0.144994 0.989123 0.0126688
-0.021042 -0.130792 0.991187 0.0107243
-0.0170366 -0.142438 0.989657 0.0123726
-0.0143009 -0.150418 0.988519 0.00198164
-0.00401364 -0.114702 0.993392 0.0135685
-0.00220595 -0.114138 0.993463 0.0170835
-0.0170393 -0.163728 0.986358 0
-0.0176502 -0.164224 0.986265 0
-0.0213231 -0.154303 0.987793 0
-0.0282996 -0.141214 0.989575 0.0129403
-0.016511 -0.159806 0.98701 0
-0.0145989 -0.164609 0.986251 0
-0.0179205 -0.163555 0.986371 0
-0.0193665 -0.163112 0.986417 0.00106825
-0.0210176 -0.163382 0.986339 0.00757599
-0.0240285 -0.155837 0.98749 0.00980983
-0.0257616 -0.155342 0.987525 0.00814201
-0.0262087 -0.140923 0.989674 0.0148721
-0.016546 -0.140515 0.98994 0.0116999
-0.0150914 -0.145739 0.989208 0.00422664
-0.000708981 -0.113642 0.993522 0.0112909
-0.00344809 -0.117748 0.993038 0.014451
-0.0204516 -0.15417 0.987833 0
-0.0209344 -0.156077 0.987523 0
-0.0248674 -0.143786 0.989296 0.00117283
-0.0132961 -0.162675 0.98659 0
-0.0238388 -0.164044 0.986165 0.00771173
-0.0156399 -0.14001 0.990026 0.00868564
-0.0103902 -0.137683 0.990422 0.00635733
0.00202708 -0.110404 0.993885 0.0142431
-0.000488687 -0.117453 0.993078 0.00877486
-0.020891 -0.155438 0.987625 0
-0.0241222 -0.149312 0.988496 0
-0.0270416 -0.140922 0.989651 0.00498729
-0.0159376 -0.132657 0.991034 0.00933206
-0.00636943 -0.131534 0.991291 0.000458025
0.00308519 -0.108614 0.994079 0.0121384
0.00264439 -0.107864 0.994162 0.0157932
-0.0258357 -0.153598 0.987796 0
-0.0259256 -0.152895 0.987902 0
-0.011541 -0.1338 0.990941 0.014474
-0.00741618 -0.120227 0.992719 0.00457763
0.00131943 -0.106843 0.994275 0.0159754
-0.0215272 -0.161385 0.986657 0
-0.0197669 -0.157958 0.987248 0
-0.0228804 -0.15142 0.988205 0
-0.00742783 -0.127078 0.991865 0.0145033
0.0025393 -0.108372 0.994107 0.0146368
-0.00307921 -0.108229 0.994121 0.0219429
-0.01972 -0.168954 0.985427 0
-0.02696 -0.153417 0.987794 0
-0.0253056 -0.147265 0.988773 0
0.00690945 -0.0996674 0.994997 0.00941359
0.00365269 -0.101439 0.994835 0.019631
-0.0314693 -0.145979 0.988787 0
-0.030441 -0.1477 0.988564 0
0.0100454 -0.0962831 0.995303 0.0127148
0.00974555 -0.0919974 0.995712 0.0154996
-0.0330722 -0.146296 0.988688 0
-0.0330224 -0.142416 0.989256 0
0.01427 -0.0923483 0.995624 0.0106649
0.0105007 -0.0938171 0.995534 0.0113025
-0.0362214 -0.140967 0.989352 0
0.0190794 -0.0857302 0.996136 0.0106394
0.0169077 -0.0886807 0.995917 0.0122258
-0.0316595 -0.147706 0.988524 0
-0.0353968 -0.141072 0.989366 0
0.023985 -0.0821235 0.996333 0.00651056
0.0198937 -0.082439 0.996398 0.017254
-0.0256454 -0.15591 0.987438 0
-0.0332692 -0.143474 0.989095 0
0.0264936 -0.0809943 0.996362 0.0057655
0.0226445 -0.0802577 0.996517 0.0138908
-0.0401294 -0.129234 0.990802 0
-0.0417606 -0.128261 0.990861 0
0.0322911 -0.0738299 0.996748 0.00573813
-0.0487539 -0.121952 0.991338 0
-0.0389711 -0.136753 0.989838 0
-0.0329006 -0.149435 0.988224 0
0.0311389 -0.0868582 0.995734 0.00693286
-0.0437024 -0.132491 0.99022 0
0.0325551 -0.0810009 0.996182 0.0171899
-0.0550474 -0.116341 0.991683 0.00533904
0.0349694 -0.0792023 0.996245 0.0139884
-0.0573136 -0.114644 0.991752 0.00668085
0.0359161 -0.0780813 0.9963 0.0195804
0.0374781 -0.0700781 0.996837 0.0206166
0.0296224 -0.075758 0.996686 0.0231955
0.035282 -0.083065 0.995919 0.0192822
0.041156 -0.0581368 0.99746 0.021757
0.0437332 -0.056871 0.997423 0.0197945
0.0405785 -0.0613418 0.997292 0.0183204
0.0446351 -0.0560805 0.997428 0.0191457
-0.0658499 -0.0974691 0.993058 0.00560373
0.0438979 -0.0660337 0.996851 0.0143158
0.0511297 -0.0490387 0.997487 0.0178934
-0.0632348 -0.102484 0.992723 0.00221236
-0.0571678 -0.111304 0.992141 0
0.0395987 -0.0710416 0.996687 0.00883785
0.0507343 -0.0627809 0.996737 0.0077265
-0.0742585 -0.0865841 0.993473 0.00384882
-0.0555579 -0.113232 0.992014 0
0.0450675 -0.0684675 0.996635 0.00671155
-0.0591758 -0.112853 0.991848 0
0.0344381 -0.0944233 0.994936 0
0.0371021 -0.085048 0.995686 0.0088839
-0.0546929 -0.122366 0.990977 0
0.0425251 -0.0795922 0.99592 0.00462417
0.03856 -0.088026 0.995372 0.00234751
-0.0563059 -0.105728 0.9928 0
-0.0512549 -0.119395 0.991523 0
0.0424446 -0.0763495 0.996177 0.0127365
0.046032 -0.0799103 0.995739 0.00323071
-0.0598056 -0.102472 0.992936 0
-0.0513595 -0.117662 0.991725 0.000639975
-0.0470205 -0.12088 0.991553 0
0.0440982 -0.0781349 0.995967 0.0110561
0.0440363 -0.0790277 0.995899 0.00499681
-0.0530218 -0.107236 0.992819 0.00225989
-0.0529632 -0.104429 0.993121 0.00351856
0.0444617 -0.0754669 0.996157 0.0122781
-0.0516024 -0.109155 0.992684 0.00424223
-0.0512944 -0.108799 0.992739 0.00607291
-0.0494056 -0.116392 0.991974 0.00326977
-0.0504011 -0.1113 0.992508 0.00783567
-0.0504828 -0.113643 0.992238 0.00588039
-0.0436995 -0.115431 0.992354 0.00993499
-0.0488308 -0.102556 0.993528 0.0109796
-0.0403587 -0.114755 0.992574 0.0171582
-0.0482965 -0.100415 0.993773 0.0304795
0.0406986 -0.0843856 0.995602 0.0161741
0.0441496 -0.0888831 0.995063 0.00856839
-0.0426268 -0.111332 0.992869 0.0293697
-0.0402183 -0.112727 0.992812 0.0272491
-0.0399387 -0.114825 0.992582 0.0338681
0.0408959 -0.078877 0.996045 0.0158605
-0.00529011 -0.0610812 0.998119 0.0235691
0.0121162 -0.0763553 0.997007 0.00331935
0.0195483 -0.0953273 0.995254 0
0.0267502 -0.11544 0.992954 0
0.00742026 -0.0580794 0.998284 0.0102567
0.0090146 -0.0621936 0.998023 0.011776
0.0103837 -0.0555148 0.998404 0.0147695
0.0208729 -0.0872839 0.995965 0
0.0228169 -0.103782 0.994338 0
-0.0250601 0.0957198 0.995093 0.00580349
-0.0224473 0.0929176 0.995421 0.00627476
-0.0175669 0.091162 0.995681 0
-0.0203712 0.0958495 0.995187 0
-0.0247771 0.103573 0.994313 0.00200635
-0.0230874 0.0988763 0.994832 0
-0.0215801 0.0873527 0.995944 0.000454134
-0.0214654 0.0875487 0.995929 0.00438743
-0.0231204 0.104318 0.994275 0
-0.0187489 0.0913334 0.995644 0
-0.020016 0.0995445 0.994832 0
-0.0210937 0.097133 0.995048 0
-0.0241308 0.105407 0.994136 0.00230404
-0.024274 0.101076 0.994582 0.000541394
-0.0252383 0.103443 0.994315 0.0197506
-0.0258958 0.116381 0.992867 0.0195824
-0.02327 0.103116 0.994397 0
-0.0208086 0.105289 0.994224 0
-0.0205489 0.103511 0.994416 0
-0.0202942 0.104745 0.994292 0
-0.0214592 0.108513 0.993863 0.00255109
-0.0240267 0.101651 0.99453 0
-0.0264823 0.109805 0.9936 0.0187128
-0.0234458 0.113658 0.993243 0.013547
-0.0230777 0.106931 0.993999 0.00572082
-0.0205998 0.106781 0.994069 0
-0.0210045 0.108897 0.993831 0
-0.0220884 0.102374 0.994501 0.00743748
-0.0266516 0.113351 0.993197 0.00880717
-0.01919 0.112661 0.993448 0
-0.0265223 0.111203 0.993444 0.00830232
-0.0295478 0.113977 0.993044 0.0121119
-0.0184937 0.109393 0.993827 0
-0.0319321 0.113122 0.993068 0.0114036
-0.0172848 0.110636 0.993711 0
-0.0212182 0.102092 0.994549 0
-0.026014 0.0980982 0.994837 0.00116853
-0.025904 0.102722 0.994373 0.00318715
-0.0208904 0.105622 0.994187 0
-0.0264586 0.104066 0.994218 0.0064623
-0.0274369 0.106342 0.993951 0.0040535
-0.019994 0.106447 0.994117 0
-0.0259364 0.102811 0.994363 0.0106697
-0.0212436 0.0970352 0.995054 0.00339611
-0.0278932 0.119677 0.992421 0.0110612
-0.0207648 0.109352 0.993786 0
-0.0262045 0.103375 0.994297 0.0089698
-0.02352 0.109504 0.993708 0.00795548
-0.0315382 0.128885 0.991158 0.0154819
-0.0198984 0.117925 0.992823 0
-0.0276726 0.111294 0.993402 0.0105782
-0.0295478 0.108828 0.993621 0.0124041
-0.0277089 0.113822 0.993115 0.0100392
-0.0162779 0.110034 0.993795 0
-0.0225465 0.112145 0.993436 0
-0.0273287 0.116304 0.992838 0.006346
-0.0320343 0.118036 0.992492 0.0144385
-0.0283424 0.114285 0.993044 0.0103992
-0.0291333 0.11226 0.993252 0.00903374
-0.0319394 0.117893 0.992513 0.0139718
-0.0316734 0.117938 0.992516 0.0120872
-0.0193653 0.117795 0.992849 0
-0.0226554 0.117268 0.992842 0.00223907
-0.0259808 0.114617 0.99307 0.00693646
-0.03316 0.124876 0.991618 0.0172914
-0.0200901 0.113405 0.993346 0.00212531
-0.0256427 0.124953 0.991831 0.00971683
-0.0267241 0.121441 0.992239 0.0100226
-0.0330281 0.128899 0.991108 0.0156618
-0.0180847 0.116987 0.992969 0.00169106
-0.125091 -0.0170303 0.991999 0.00554851
-0.120256 -0.0203446 0.992534 0.00979964
-0.116714 -0.020169 0.992961 0.0101556
-0.127588 -0.00905693 0.991786 0.00942397
-0.12042 -0.0135091 0.992631 0.00357581
-0.124839 -0.0148387 0.992066 0.0067553
-0.127789 -0.0106729 0.991744 0.011923
-0.115266 -0.0152317 0.993218 0.00688935
-0.1144 -0.0182181 0.993268 0.00637455
-0.126478 -0.0066452 0.991947 0.00818976
-0.12917 -0.0074711 0.991594 0.00968644
-0.131016 -0.00673587 0.991357 0.0102023
-0.119224 -0.0116739 0.992799 0.00632514
-0.120272 -0.0129468 0.992657 0.00568217
-0.122485 -0.0104381 0.992415 0.00958119
-0.120251 -0.0113117 0.992679 0.00906661
-0.139802 -0.00227952 0.990177 0.00675026
-0.145582 -0.00229357 0.989344 0.00952191
-0.134394 -0.00171646 0.990927 0.00577614
-0.126755 -0.00538317 0.991919 0.00319966
-0.119372 -0.0067367 0.992827 0.0101337
-0.117238 -0.00807268 0.993071 0.00715591
-0.115288 -0.0122732 0.993256 0.00887865
-0.136988 -0.00163219 0.990571 0.00446413
-0.133785 -0.00260133 0.991007 0.00781757
-0.130205 -0.00322219 0.991482 0.00148809
-0.124092 -0.00663991 0.992249 0
-0.122605 -0.00599661 0.992437 0.00882266
-0.120003 -0.00617458 0.992754 0.00870248
-0.115466 -0.00956233 0.993265 0.00837295
-0.14107 -0.000518089 0.99 0.00699396
-0.136393 -0.00232537 0.990652 0.00352573
-0.129837 -0.0023641 0.991533 0.00358092
-0.126814 -0.00665027 0.991904 0
-0.137328 0.00309403 0.990521 0.00710893
-0.135662 0.00130065 0.990754 0.010171
-0.136813 0.00637619 0.990576 0.0139192
-0.142587 0.00374006 0.989775 0.0329187
-0.131657 0.0056888 0.991279 0.010234
-0.133075 0.00492295 0.991094 0.0114401
-0.156554 0.00579164 0.987652 0.0367597
-0.129705 0.0106146 0.991496 0.0117386
-0.131962 0.0109148 0.991195 0.0134016
-0.161559 0.0104712 0.986808 0.0383289
-0.120173 0.00757662 0.992724 0.0140307
-0.126912 0.00542137 0.991899 0.013439
-0.163819 0.0149853 0.986377 0.0410465
-0.130216 0.00559565 0.99147 0.0130077
-0.129341 0.00640573 0.99158 0.0141105
-0.129138 0.00535066 0.991612 0.0149658
-0.132354 0.00707469 0.991177 0.0135632
-0.123719 0.00734218 0.99229 0.00942475
-0.123506 0.00538654 0.992329 0.0101388
-0.127819 0.00953489 0.991752 0.0107915
-0.119824 0.00970185 0.992748 0.00994273
-0.119466 0.0119882 0.992766 0.0106046
-0.127422 0.0156022 0.991726 0.0140964
-0.141639 0.0167468 0.989777 0.0282976
-0.120891 0.0134312 0.992575 0.0112379
-0.123663 0.0163973 0.992189 0.0155033
-0.127725 0.0175277 0.991655 0.0164878
-0.126654 0.0153136 0.991829 0.0189956
-0.125671 0.0166745 0.991932 0.0181282
-0.117622 0.0153148 0.99294 0.00988661
-0.124737 0.018809 0.992012 0.0135493
-0.127007 0.0163259 0.991768 0.0132166
-0.125709 0.0143692 0.991963 0.0163816
-0.126835 0.0155845 0.991801 0.018168
-0.131357 0.0202618 0.991128 0.0227847
-0.121018 0.0168552 0.992507 0.0062101
-0.1242 0.0166414 0.992118 0.0102488
-0.136163 0.0225034 0.990431 0.0237169
-0.137426 0.0196838 0.990316 0.0226862
-0.129442 0.0212819 0.991359 0.0118767
-0.134056 0.0208964 0.990753 0.0161293
-0.134634 0.0233144 0.990621 0.0204672
-0.13925 0.0273225 0.98988 0.0226541
-0.136752 0.0247232 0.990297 0.0230531
-0.0280855 -0.106864 0.993877 0.00495841
-0.0360328 -0.106662 0.993642 0.0104609
-0.0216339 -0.102359 0.994512 0.00848029
-0.0225318 -0.109682 0.993711 0.00805947
-0.0459278 -0.116781 0.992095 0.00693444
-0.0360003 -0.116374 0.992553 0.00391144
-0.0250597 -0.115168 0.99303 0.000603371
-0.0247316 -0.11342 0.993239 0.00591746
-0.00635395 -0.109098 0.994011 0.00271799
-0.04215 -0.123367 0.991466 0.00845401
-0.0469876 -0.127349 0.990744 0.00660018
-0.0360451 -0.117878 0.992374 0.00270209
-0.0114937 -0.110932 0.993761 0.00158135
-0.0020285 -0.104464 0.994527 0
-0.00535484 -0.109918 0.993926 0
-0.0362329 -0.123709 0.991657 0.00700465
-0.0413708 -0.124648 0.991338 0.00541362
-0.0387956 -0.130698 0.990663 0
-0.0243351 -0.121812 0.992255 0
-0.0171555 -0.115383 0.993173 0
0.00140748 -0.106703 0.99429 0
-0.000878698 -0.107706 0.994182 0
-0.00778692 -0.110065 0.993894 0
-0.0358858 -0.117152 0.992465 0.0091301
-0.0342184 -0.116178 0.992639 0.00824804
-0.0326143 -0.118337 0.992438 0.00711209
-0.0303817 -0.116788 0.992692 0
-0.013304 -0.111452 0.993681 0.000762911
-0.00805912 -0.109489 0.993955 0
-0.0161794 -0.110451 0.99375 0
-0.0368875 -0.11978 0.992115 0.00439747
-0.0414791 -0.118531 0.992084 0.00798688
-0.0305206 -0.117405 0.992615 0.000896056
-0.020336 -0.115205 0.993133 0.000997886
-0.0176585 -0.114131 0.993309 0
-0.0137628 -0.109771 0.993862 0.00209051
-0.0356032 -0.119605 0.992183 0.00668215
-0.0383719 -0.114917 0.992634 0.00592964
-0.0179497 -0.109842 0.993787 0.00116336
-0.0149754 -0.106729 0.994175 0
-0.0141563 -0.109937 0.993838 0
-0.0226007 -0.117468 0.992819 0.00601588
-0.0329684 -0.11792 0.992476 0.00452199
-0.0359299 -0.117544 0.992418 0.0069048
-0.0156493 -0.110901 0.993708 0.00152789
-0.0168554 -0.10665 0.994154 0.00504584
-0.00958182 -0.10532 0.994392 0.00340892
-0.0260242 -0.116736 0.992822 0.00714129
-0.037832 -0.120367 0.992008 0.0107859
-0.0401312 -0.122849 0.991614 0.012108
-0.0183664 -0.113115 0.993412 0.00135106
-0.0124449 -0.112423 0.993582 0
-0.00600411 -0.11015 0.993897 0
-0.0354506 -0.115394 0.992687 0.0158098
-0.0354176 -0.121566 0.991951 0.0132222
-0.0343999 -0.124274 0.991651 0.0134236
-0.0277932 -0.117353 0.992701 0.0157518
-0.0130394 -0.108886 0.993969 0.00212107
-0.00743473 -0.110891 0.993805 0
-0.00279138 -0.112211 0.993681 0
-0.0311048 -0.113687 0.99303 0.0147371
-0.0263084 -0.114729 0.993048 0.017088
-0.0180898 -0.109335 0.99384 0.0166468
-0.0210307 -0.117095 0.992898 0.00821085
-0.0134718 -0.112298 0.993583 0.00127505
-0.0138328 -0.110821 0.993744 0.00612336
-0.00606223 -0.110289 0.993881 0.000479011
-0.0318759 -0.113691 0.993005 0.00893467
-0.0255616 -0.118156 0.992666 0.0112004
-0.0207316 -0.107772 0.993959 0.0207648
-0.0146831 -0.108466 0.993992 0.0182648
-0.013671 -0.118515 0.992858 0.0084704
-0.0208734 -0.116203 0.993006 0.0112303
-0.0150051 -0.111525 0.993648 0.00508074
-0.0118691 -0.114619 0.993339 0.00405325
-0.0119648 -0.111769 0.993662 0.00107752
-0.030587 -0.116196 0.992755 0.014941
-0.0341595 -0.114914 0.992788 0.0220493
-0.0227895 -0.117043 0.992865 0.0165563
-0.0204746 -0.121116 0.992427 0.0102212
-0.0225621 -0.117199 0.992852 0.011131
-0.0191278 -0.111458 0.993585 0.0201003
-0.0149474 -0.112354 0.993556 0.00995378
-0.0335332 -0.118725 0.992361 0.0171505
-0.0222124 -0.115862 0.993017 0.0155191
-0.0237097 -0.116039 0.992962 0.0163073
-0.0242436 -0.117401 0.992789 0.0197715
-0.0339228 -0.124707 0.991614 0.0176055
-0.0207958 -0.121031 0.992431 0.00829434
-0.0216958 -0.118044 0.992771 0.0120172
-0.0211631 -0.118093 0.992777 0.0115985
-0.019446 -0.13673 0.990417 0.00158755
-0.0124019 -0.13613 0.990613 0
-0.0154327 -0.137078 0.99044 0
-0.0123368 -0.143506 0.989573 0
-0.0135155 -0.136279 0.990578 0
-0.0141449 -0.134795 0.990772 0.0035702
-0.00616796 -0.139779 0.990164 0.00304117
-0.00293541 -0.135393 0.990788 0.00153679
-0.00831734 -0.13785 0.990418 0.000272884
-0.0119769 -0.140477 0.990011 0.00318668
-0.0158507 -0.139142 0.990146 0.00737114
-0.00930159 -0.140076 0.990097 0.00456379
-0.00966764 -0.141241 0.989928 0.0036746
-0.00445291 -0.142804 0.989741 0
0.0011581 -0.132356 0.991202 0
-0.00320776 -0.130069 0.9915 0.00110731
-0.00369333 -0.127519 0.991829 0.00452116
-0.0120929 -0.135462 0.990709 0.00877632
-0.0115573 -0.143049 0.989648 0.00627879
-0.00853434 -0.141615 0.989885 0.00460574
-0.00711401 -0.142463 0.989774 0.00114415
-0.00944556 -0.144156 0.98951 0
-0.00368112 -0.136533 0.990629 0
-0.00298919 -0.130025 0.991506 0.00397617
0.00149041 -0.122626 0.992452 0.00521363
-0.00666646 -0.130607 0.991412 0.00571255
-0.0130573 -0.127379 0.991768 0.0149849
-0.019058 -0.154858 0.987753 0
-0.0128125 -0.155727 0.987717 0.0013517
-0.0199291 -0.142687 0.989567 0
-0.0239103 -0.1377 0.990185 0.0013787
-0.0213271 -0.133726 0.990789 0.00263271
-0.0235128 -0.135893 0.990444 0.00150687
-0.00743592 -0.137907 0.990417 0.0052774
-0.0130765 -0.152575 0.988205 0.00540113
-0.010008 -0.146208 0.989203 0.00483269
-0.00502143 -0.140214 0.990108 0.00380857
-0.00489381 -0.138999 0.99028 0.00346941
-0.00457925 -0.135166 0.990812 0.000770529
-0.00487759 -0.137273 0.990521 0.00342013
-0.000727815 -0.131052 0.991375 0.00750477
0.00154582 -0.129471 0.991582 0.00890242
-0.0103864 -0.12465 0.992146 0.0187962
-0.0189209 -0.159027 0.987093 4.38849e-05
-0.0189586 -0.155448 0.987662 0.00858544
-0.0246293 -0.153179 0.987891 0.0170859
-0.0189989 -0.157731 0.987299 0.0104624
-0.017893 -0.155803 0.987626 0.00119201
-0.0168717 -0.161197 0.986778 0
-0.0169131 -0.161187 0.986779 0
-0.0168613 -0.167704 0.985693 0
-0.0148141 -0.186824 0.982282 0
-0.0206549 -0.144488 0.989291 0
-0.0224016 -0.138345 0.990131 0.000972652
-0.0211536 -0.132724 0.990927 0.00484664
-0.0101294 -0.130436 0.991405 0.0103034
-0.0118468 -0.147025 0.989062 0.00732733
-0.0109341 -0.146691 0.989122 0.00496005
-0.00694093 -0.143339 0.989649 0.00489424
-0.00675272 -0.14092 0.989998 0.0051172
-0.00216691 -0.133729 0.991016 0.00554612
0.0031295 -0.131141 0.991359 0.00851563
0.00307126 -0.129483 0.991577 0.00929581
0.0043767 -0.125853 0.992039 0.00669423
-0.00503492 -0.123393 0.992345 0.0122783
-0.022816 -0.152084 0.988104 0.00156918
-0.0228426 -0.14959 0.988484 0.00451712
-0.023695 -0.148878 0.988572 0.0121061
-0.0213876 -0.15421 0.987807 0.00480695
-0.0214538 -0.148055 0.988746 0.0060196
