# .PCD v0.7 - Point Cloud Data file format
VERSION 0.7
FIELDS x y z
SIZE 4 4 4
TYPE F F F
COUNT 1 1 1
WIDTH 1435
HEIGHT 1
VIEWPOINT 0 0 0 1 0 0 0
POINTS 1435
DATA ascii
-0.076251 0.137954 -0.226384
-0.076960504 0.138063 -0.22639051
-0.076856002 0.1380555 -0.22636101
-0.076764002 0.13804901 -0.226355
-0.076692 0.138046 -0.226336
-0.076513998 0.13803899 -0.226335
-0.076249003 0.13806149 -0.2263525
-0.076957494 0.138133 -0.22639251
-0.076851994 0.1381605 -0.22636275
-0.076759502 0.138154 -0.2263625
-0.0766875 0.13815099 -0.2263495
-0.076509506 0.138144 -0.22634
-0.076245002 0.13816699 -0.226337
-0.077628002 0.138239 -0.226399
-0.077454001 0.138234 -0.226392
-0.076954007 0.13823999 -0.22639149
-0.076848499 0.13826549 -0.226355
-0.076755002 0.13825899 -0.226364
-0.076683998 0.138256 -0.22634301
-0.076505996 0.13824899 -0.226335
-0.076242998 0.138237 -0.226337
-0.0776245 0.13834399 -0.2263965
-0.076949507 0.138345 -0.22639251
-0.076846503 0.13833749 -0.22633651
-0.076752998 0.138329 -0.226362
-0.076682001 0.138327 -0.22632299
-0.076504 0.138321 -0.226318
-0.076239005 0.1383425 -0.22632399
-0.076945752 0.13845176 -0.2263895
-0.076854996 0.13843167 -0.22630566
-0.076751001 0.1384345 -0.22631851
-0.076236002 0.138448 -0.22630399
-0.077614002 0.13859101 -0.2264
-0.077441998 0.13851599 -0.226399
-0.076916002 0.138556 -0.226394
-0.076871 0.13855 -0.22632
-0.076747 0.138541 -0.226311
-0.076231495 0.13855499 -0.2263135
-0.075982995 0.13855201 -0.22638233
-0.078125998 0.13862 -0.226399
-0.077611998 0.138661 -0.226399
-0.076912001 0.13866049 -0.22639
-0.076835245 0.1386535 -0.22631826
-0.0767425 0.1386465 -0.22632051
-0.076228 0.13866 -0.226311
-0.075972997 0.13864399 -0.226356
-0.075896002 0.13864 -0.226386
-0.077433497 0.138762 -0.22638699
-0.077162504 0.138749 -0.2263795
-0.076934502 0.13876849 -0.226368
-0.076862998 0.13876 -0.226321
-0.076767996 0.1387545 -0.2263315
-0.076665998 0.138751 -0.226303
-0.075969249 0.13875049 -0.2263495
-0.075873666 0.13875668 -0.22636901
-0.077765003 0.13888399 -0.2264
-0.077604003 0.138873 -0.22639801
-0.077431001 0.13886701 -0.22635999
-0.077159002 0.138854 -0.226358
-0.076932505 0.1388375 -0.22635549
-0.076861002 0.138832 -0.22630601
-0.076755337 0.13884833 -0.22631167
-0.076662004 0.13885599 -0.2263055
-0.075965501 0.1388555 -0.226347
-0.075861 0.138851 -0.22636101
-0.078114003 0.13893551 -0.22639
-0.077762 0.138955 -0.226393
-0.077601001 0.138945 -0.226392
-0.077427998 0.13893899 -0.226349
-0.077155001 0.13896149 -0.22635899
-0.076929495 0.13894424 -0.226327
-0.075962 0.13896176 -0.22632949
-0.075857997 0.13895625 -0.22634324
-0.078110002 0.13904101 -0.22637901
-0.077758998 0.13905999 -0.226385
-0.077682003 0.139089 -0.226391
-0.077597998 0.1390495 -0.22638151
-0.077425502 0.13904449 -0.226321
-0.077152997 0.139065 -0.226319
-0.076952003 0.13905001 -0.22631501
-0.075958997 0.13906649 -0.2263115
-0.075854003 0.13906249 -0.2263345
-0.075768001 0.139061 -0.22638001
-0.078105494 0.13914749 -0.22638801
-0.077756003 0.139167 -0.226356
-0.077680998 0.13916001 -0.226365
-0.077595003 0.139156 -0.226353
-0.077151 0.139137 -0.22630499
-0.076948002 0.139157 -0.22630599
-0.075934 0.139135 -0.22631399
-0.075851999 0.1391325 -0.226326
-0.075764999 0.13913099 -0.226385
-0.078642003 0.13928001 -0.226391
-0.0784695 0.139237 -0.226395
-0.078101002 0.139254 -0.22639699
-0.077753998 0.139236 -0.22634199
-0.077678002 0.13923 -0.22636101
-0.077591501 0.1392605 -0.226339
-0.077417001 0.139292 -0.226302
-0.0771465 0.13924199 -0.2263225
-0.075820997 0.139239 -0.22631499
-0.075761497 0.1392355 -0.226373
-0.0780975 0.139359 -0.22639799
-0.0779645 0.1393535 -0.226382
-0.077749506 0.139341 -0.22634751
-0.077674001 0.13933501 -0.22636199
-0.077587001 0.139365 -0.22634199
-0.077142999 0.139347 -0.22630399
-0.075816996 0.13934401 -0.226301
-0.075759001 0.139342 -0.226348
-0.078292996 0.139441 -0.226391
-0.078093 0.13946401 -0.226394
-0.077960998 0.139458 -0.226366
-0.077745996 0.139448 -0.22634099
-0.077670999 0.13944 -0.22634199
-0.077583998 0.13943601 -0.226348
-0.076938003 0.139402 -0.226307
-0.075755 0.139447 -0.226339
-0.078458004 0.13955399 -0.226391
-0.078289002 0.13954701 -0.226381
-0.078091003 0.13953499 -0.22638901
-0.077957496 0.13956499 -0.22636101
-0.077743001 0.1395525 -0.22631
-0.077667505 0.13954601 -0.226327
-0.077581003 0.139542 -0.22632951
-0.075750999 0.139553 -0.226328
-0.078453496 0.139659 -0.2263905
-0.078284502 0.13965249 -0.22638801
-0.078088 0.13964 -0.22636899
-0.077953003 0.13967 -0.22636101
-0.077739 0.139659 -0.226308
-0.077664003 0.139653 -0.226317
-0.077578001 0.139649 -0.226309
-0.075749002 0.139623 -0.22631299
-0.075581998 0.139645 -0.22636551
-0.078449003 0.139764 -0.226392
-0.078281 0.13975701 -0.22638001
-0.078084998 0.139746 -0.226344
-0.077950001 0.13974001 -0.226365
-0.077734999 0.139764 -0.22631499
-0.077660002 0.13975799 -0.22630849
-0.075577997 0.139751 -0.226365
-0.078446999 0.139834 -0.226386
-0.078278005 0.139864 -0.226364
-0.078081504 0.139851 -0.226327
-0.077946998 0.1398465 -0.226345
-0.075574502 0.13985649 -0.2263535
-0.078529999 0.13998 -0.226399
-0.078443497 0.1399405 -0.22637349
-0.078273997 0.13996901 -0.22634999
-0.078078002 0.139956 -0.226318
-0.077945001 0.13995001 -0.226308
-0.075572997 0.139961 -0.22630601
-0.078441001 0.140047 -0.22634301
-0.078272 0.14004 -0.22634099
-0.0780745 0.140062 -0.22630501
-0.078524001 0.14015549 -0.22637901
-0.078437999 0.1401515 -0.22631949
-0.078271002 0.14011 -0.226311
-0.078520998 0.14026099 -0.226354
-0.078433998 0.140256 -0.22631
-0.078519002 0.14033 -0.22634301
-0.078429997 0.14036199 -0.22630849
-0.078747496 0.140452 -0.226394
-0.078556746 0.14043951 -0.22635451
-0.078745 0.14055701 -0.226364
-0.078594998 0.14054701 -0.226355
-0.078740999 0.140662 -0.226357
-0.078592002 0.14065149 -0.22633401
-0.078928001 0.140745 -0.22637901
-0.078882001 0.14077801 -0.22638801
-0.078737997 0.140769 -0.22634099
-0.078589 0.14075799 -0.22630399
-0.090457998 0.140889 -0.22639801
-0.090366997 0.140883 -0.226374
-0.078924999 0.14085101 -0.226373
-0.078878999 0.140848 -0.226382
-0.078736 0.140838 -0.226311
-0.090544 0.140963 -0.22638901
-0.090456001 0.14095999 -0.226375
-0.090364002 0.140953 -0.226367
-0.090268999 0.140944 -0.22638901
-0.090177 0.14094 -0.226391
-0.089387 0.14093649 -0.22638899
-0.089203 0.140962 -0.22638801
-0.089114003 0.14095999 -0.226395
-0.078920498 0.140956 -0.22637999
-0.078875497 0.140953 -0.22637799
-0.090755999 0.141041 -0.22639599
-0.090664998 0.14103851 -0.226394
-0.090543002 0.14103501 -0.22636101
-0.090453997 0.14106449 -0.22634199
-0.090361997 0.141057 -0.22633401
-0.090266004 0.14105099 -0.226365
-0.090173498 0.141046 -0.22637001
-0.090082496 0.1410425 -0.22638249
-0.089713 0.141056 -0.22639
-0.089567997 0.141048 -0.226381
-0.089479998 0.141048 -0.226377
-0.089385003 0.14104301 -0.22635999
-0.089246005 0.14103299 -0.226375
-0.089112997 0.141029 -0.226365
-0.089028999 0.14109699 -0.226377
-0.078947499 0.1410615 -0.22638699
-0.078872003 0.141058 -0.226367
-0.090754002 0.1411455 -0.226368
-0.090663254 0.14114225 -0.226354
-0.090542004 0.141104 -0.22631399
-0.090451002 0.141169 -0.226318
-0.090264 0.141155 -0.22632401
-0.090171002 0.14115 -0.226336
-0.09008 0.141147 -0.226348
-0.089730002 0.14115067 -0.226375
-0.089644 0.141156 -0.226372
-0.089564502 0.14115301 -0.226367
-0.089478001 0.1411535 -0.2263335
-0.089382999 0.141147 -0.22631401
-0.089288995 0.141141 -0.22633201
-0.089154497 0.14113601 -0.22633274
-0.089028001 0.141168 -0.226347
-0.088951997 0.14116301 -0.226375
-0.079062 0.14113601 -0.226386
-0.078945503 0.141133 -0.2263705
-0.078869 0.1411645 -0.226347
-0.090805002 0.14125399 -0.22637799
-0.090751 0.14125 -0.226337
-0.090695001 0.14124601 -0.226326
-0.090448998 0.141238 -0.22630399
-0.090170003 0.14122 -0.22631
-0.090077996 0.1412515 -0.2263165
-0.089965001 0.14124575 -0.22637776
-0.089836992 0.14125367 -0.22638766
-0.089747332 0.14124601 -0.22634435
-0.089642003 0.141261 -0.226328
-0.089561 0.141259 -0.226353
-0.089474998 0.141258 -0.22631399
-0.089151502 0.141241 -0.226312
-0.089025997 0.141238 -0.22633199
-0.088950001 0.141233 -0.22637001
-0.088857673 0.14126867 -0.22639632
-0.088790998 0.14121801 -0.2264
-0.079059005 0.14124051 -0.226367
-0.078942999 0.14123699 -0.22634649
-0.078864999 0.141269 -0.226338
-0.090819001 0.141371 -0.22636832
-0.090747997 0.14135501 -0.22631499
-0.090692997 0.141316 -0.226308
-0.089932002 0.141349 -0.226347
-0.089844003 0.14134699 -0.226356
-0.089735501 0.1413375 -0.22631299
-0.089639999 0.141331 -0.22631399
-0.089560002 0.14132801 -0.22631399
-0.089473002 0.14132801 -0.226302
-0.089102998 0.14134499 -0.226316
-0.089021504 0.141343 -0.226339
-0.088944495 0.141339 -0.226391
-0.088887997 0.141366 -0.226394
-0.079144999 0.141352 -0.22639
-0.079054996 0.14134499 -0.22635899
-0.078938998 0.141343 -0.2263335
-0.078861997 0.141339 -0.226338
-0.090901002 0.14147 -0.226391
-0.090851001 0.14146701 -0.226374
-0.090800002 0.141463 -0.22632501
-0.089930996 0.141418 -0.226311
-0.089842997 0.141416 -0.22631851
-0.089762002 0.14140899 -0.226303
-0.089058504 0.141449 -0.22632599
-0.088941 0.141444 -0.22639
-0.088860005 0.14143351 -0.226391
-0.088765331 0.14147401 -0.22637601
-0.079142004 0.14145699 -0.2263765
-0.079050496 0.141452 -0.226365
-0.078935504 0.1414485 -0.22632501
-0.078859001 0.14144599 -0.22632749
-0.090875499 0.1415375 -0.226345
-0.08904133 0.141542 -0.226327
-0.088936999 0.14154801 -0.22637999
-0.088857003 0.14153774 -0.226368
-0.088754505 0.1415665 -0.2263625
-0.079138003 0.141563 -0.226377
-0.079047002 0.14155699 -0.22635899
-0.078932002 0.14155349 -0.226317
-0.078855 0.141551 -0.226321
-0.090871498 0.14164326 -0.2263415
-0.08901 0.14165901 -0.22632299
-0.088932998 0.141653 -0.22637901
-0.088853501 0.1416425 -0.226363
-0.088776998 0.141638 -0.226348
-0.079135999 0.141633 -0.226367
-0.079043999 0.141663 -0.22634
-0.078958496 0.14166 -0.2263335
-0.0788735 0.14165801 -0.22631401
-0.090866998 0.1417495 -0.22634399
-0.089008003 0.141729 -0.226302
-0.088929996 0.14175799 -0.22636199
-0.088849247 0.1417475 -0.22636449
-0.088771999 0.14174351 -0.226365
-0.079131998 0.14173999 -0.226355
-0.079039998 0.14176901 -0.22634199
-0.078955002 0.141766 -0.22631501
-0.078869499 0.141764 -0.22631851
-0.090864003 0.14185375 -0.22632974
-0.088845998 0.141854 -0.2263425
-0.088743001 0.14184749 -0.226374
-0.079389997 0.14185899 -0.22639599
-0.079127997 0.141844 -0.22635201
-0.079037003 0.141839 -0.226335
-0.078952998 0.141835 -0.22631501
-0.078866497 0.1418335 -0.226316
-0.090885997 0.141959 -0.22630499
-0.088835329 0.14194633 -0.22632134
-0.088739999 0.14195301 -0.22635326
-0.079387002 0.141929 -0.22639
-0.079124495 0.141949 -0.2263445
-0.079033494 0.14194301 -0.22632501
-0.078949004 0.14194 -0.226311
-0.0788645 0.14190349 -0.22630501
-0.088712998 0.142055 -0.22632401
-0.088655002 0.14205401 -0.226381
-0.079121001 0.142056 -0.22633301
-0.07903 0.14205 -0.22632299
-0.088652 0.142159 -0.22636649
-0.079117499 0.142161 -0.22631851
-0.079026505 0.14215499 -0.22630799
-0.088648997 0.142263 -0.22634
-0.0793745 0.14224601 -0.22639251
-0.079112999 0.14226601 -0.226326
-0.079021998 0.14226 -0.226316
-0.088647 0.142333 -0.22633
-0.088564001 0.142331 -0.226394
-0.079369999 0.142351 -0.22639801
-0.079109997 0.142336 -0.22633199
-0.079019003 0.14233001 -0.22632299
-0.0886425 0.14243799 -0.226327
-0.088560998 0.14240099 -0.226394
-0.079105496 0.142443 -0.22634549
-0.079015002 0.142437 -0.22631
-0.088638999 0.142545 -0.22631501
-0.079101004 0.14254799 -0.22634099
-0.088637002 0.14261401 -0.22630399
-0.088551 0.142683 -0.226377
-0.079098001 0.1426525 -0.2263235
-0.078921497 0.142644 -0.226302
-0.088551 0.14275201 -0.22632501
-0.079094 0.142759 -0.226326
-0.078916997 0.14275099 -0.226307
-0.088545002 0.142891 -0.226322
-0.079045504 0.142827 -0.2263265
-0.078997001 0.142894 -0.22632501
-0.088541999 0.14296199 -0.22634199
-0.079347 0.14295051 -0.2263955
-0.079086497 0.14293501 -0.22634301
-0.078952 0.1429625 -0.22630849
-0.090843499 0.14304599 -0.226317
-0.088538997 0.143032 -0.22633301
-0.079343997 0.14305601 -0.226383
-0.079081997 0.143042 -0.226353
-0.078906 0.143031 -0.22631
-0.078844003 0.14303 -0.226301
-0.090838999 0.143152 -0.22633401
-0.088536002 0.1431365 -0.226322
-0.079339996 0.143161 -0.226375
-0.079078004 0.1431465 -0.22633749
-0.078930669 0.14315033 -0.22630866
-0.090834007 0.14325699 -0.22634549
-0.090784997 0.14325351 -0.226311
-0.088531002 0.143243 -0.226328
-0.079336002 0.143268 -0.226382
-0.079074003 0.143252 -0.22634999
-0.078984 0.143246 -0.22632
-0.078899004 0.143243 -0.226301
-0.090829 0.143364 -0.226365
-0.090779997 0.14335901 -0.226336
-0.088607997 0.1433515 -0.22631699
-0.088526502 0.14334899 -0.226355
-0.079332002 0.14333799 -0.226392
-0.079068497 0.14335901 -0.22636101
-0.078979 0.143352 -0.22633201
-0.078894496 0.14334801 -0.22630399
-0.090824999 0.143435 -0.226383
-0.090739667 0.14345099 -0.22634132
-0.088601999 0.143457 -0.226349
-0.088521004 0.143454 -0.226374
-0.079328999 0.143443 -0.22638451
-0.079063997 0.143464 -0.22637101
-0.078974001 0.14345799 -0.226345
-0.090714999 0.14356899 -0.226394
-0.090662003 0.143564 -0.22632501
-0.088653997 0.14356351 -0.22633199
-0.088597998 0.143528 -0.226381
-0.079324 0.143548 -0.226393
-0.079062 0.143534 -0.226357
-0.078973003 0.143527 -0.22632
-0.078822002 0.143594 -0.22630499
-0.078777999 0.14355651 -0.226307
-0.090630002 0.14363301 -0.22633949
-0.088802002 0.14367899 -0.22630601
-0.088752002 0.143674 -0.226317
-0.088672996 0.1436715 -0.2263615
-0.079057999 0.143641 -0.2263605
-0.078818999 0.143666 -0.22630499
-0.078772999 0.143663 -0.22631399
-0.090653002 0.14370599 -0.226399
-0.090562508 0.143737 -0.22635201
-0.088772997 0.143749 -0.22633851
-0.088694997 0.143746 -0.226365
-0.079053998 0.143746 -0.22635201
-0.078965001 0.143739 -0.22630399
-0.090521999 0.143843 -0.22638901
-0.088927001 0.143832 -0.22630499
-0.088852003 0.14382701 -0.22632299
-0.088767245 0.14385475 -0.22636774
-0.088691004 0.14381599 -0.226391
-0.079051003 0.14385 -0.22633649
-0.078960001 0.1438445 -0.226328
-0.078874499 0.143842 -0.2263155
-0.0904295 0.1439445 -0.2263625
-0.090342 0.14397299 -0.22632
-0.088921502 0.143939 -0.22633001
-0.088845499 0.14393499 -0.22635999
-0.079047002 0.143957 -0.22633301
-0.078955002 0.143952 -0.226347
-0.078870997 0.143948 -0.22631
-0.090336002 0.14404701 -0.226384
-0.090245999 0.14403699 -0.22634
-0.090057999 0.144095 -0.22632
-0.089176998 0.144052 -0.226318
-0.088916004 0.144045 -0.226349
-0.08884 0.144041 -0.226395
-0.079041496 0.14406249 -0.22636101
-0.078950495 0.14405701 -0.22635201
-0.078835249 0.144053 -0.22630575
-0.078757003 0.144085 -0.226309
-0.090241 0.14410999 -0.22639599
-0.090149 0.1441 -0.226344
-0.090052001 0.144168 -0.226386
-0.089962997 0.144164 -0.226367
-0.089853004 0.1441565 -0.22635949
-0.089736 0.144153 -0.22633401
-0.089562997 0.14414099 -0.22633651
-0.089449003 0.144136 -0.22635999
-0.089362003 0.144136 -0.226348
-0.089266002 0.14412899 -0.22634301
-0.089171 0.144124 -0.226374
-0.089080997 0.14411999 -0.226372
-0.088992998 0.144118 -0.226374
-0.079037003 0.14417 -0.226374
-0.078947 0.144164 -0.22634999
-0.078861997 0.14415801 -0.226317
-0.078776501 0.1441565 -0.2263145
-0.089259997 0.1442 -0.226395
-0.079034001 0.14424001 -0.22637001
-0.078943998 0.144233 -0.226336
-0.078859001 0.14422899 -0.22632299
-0.078765333 0.14424999 -0.22631998
-0.079030499 0.144345 -0.2263695
-0.078940496 0.144338 -0.226329
-0.078854501 0.144336 -0.22633749
-0.078776337 0.144346 -0.226326
-0.079025999 0.14444999 -0.22637901
-0.078936003 0.14444301 -0.226337
-0.078850001 0.14444099 -0.226344
-0.078763999 0.144439 -0.2263425
-0.078594998 0.14449801 -0.22630399
-0.079021499 0.144557 -0.22638899
-0.078931496 0.14455101 -0.22635299
-0.078845501 0.144548 -0.2263495
-0.078759752 0.144546 -0.22635052
-0.078927003 0.144656 -0.226364
-0.078841001 0.14465301 -0.22635899
-0.078755498 0.1446515 -0.22635549
-0.078438997 0.14463 -0.226316
-0.078351997 0.144695 -0.226301
-0.078922004 0.14476299 -0.22638249
-0.078837499 0.144759 -0.226358
-0.078751251 0.14475849 -0.22636074
-0.078583002 0.14478 -0.226311
-0.078434497 0.14473501 -0.22631499
-0.078832 0.144866 -0.22637799
-0.078747004 0.1448635 -0.22636199
-0.07858 0.144853 -0.226335
-0.078429997 0.144842 -0.22632
-0.078828998 0.144936 -0.226384
-0.078743003 0.144935 -0.2263885
-0.078575999 0.1449575 -0.22633201
-0.078424498 0.144949 -0.22635299
-0.078824505 0.145043 -0.22639351
-0.078738496 0.14504075 -0.22639425
-0.078571998 0.145062 -0.22631399
-0.078419998 0.145055 -0.22635899
-0.078336999 0.14504901 -0.226308
-0.078734502 0.145146 -0.22638901
-0.078569002 0.145134 -0.22632299
-0.078416005 0.14516 -0.22635201
-0.078333005 0.14515451 -0.22631699
-0.078075498 0.145144 -0.226312
-0.078948252 0.14525975 -0.22638525
-0.078816995 0.14525449 -0.226381
-0.078731 0.14525199 -0.22637826
-0.078564003 0.14524099 -0.22634399
-0.078413002 0.145264 -0.22633401
-0.078328997 0.14526001 -0.22632501
-0.078240998 0.145256 -0.22630499
-0.078070998 0.14524899 -0.226312
-0.075367004 0.14524899 -0.22632401
-0.078989998 0.14536799 -0.226383
-0.078856006 0.1453605 -0.22637251
-0.078728497 0.145357 -0.22635299
-0.078560002 0.145347 -0.226349
-0.07841 0.145337 -0.226338
-0.078326002 0.14533199 -0.226321
-0.078236505 0.145363 -0.22631299
-0.078069001 0.145321 -0.22630499
-0.075360999 0.145356 -0.22635999
-0.078853503 0.14543 -0.22637251
-0.078724995 0.1454275 -0.2263675
-0.078699 0.14549799 -0.22638901
-0.0785565 0.14545101 -0.226329
-0.078405499 0.14544201 -0.22634399
-0.078321502 0.145437 -0.226331
-0.078231998 0.145468 -0.226319
-0.075355999 0.145463 -0.226386
-0.078983501 0.1455445 -0.226382
-0.078849748 0.1455365 -0.22636575
-0.078743003 0.145501 -0.226399
-0.078694999 0.145569 -0.226399
-0.078552 0.145558 -0.22633199
-0.078401998 0.145549 -0.226345
-0.078317001 0.14554401 -0.226328
-0.078229003 0.14554 -0.22632
-0.078061 0.145533 -0.226303
-0.078979999 0.145649 -0.226372
-0.078843996 0.145643 -0.2263905
-0.078739002 0.145641 -0.226381
-0.078693002 0.145638 -0.22638901
-0.078547999 0.14566299 -0.22633401
-0.078355499 0.145651 -0.226331
-0.078224495 0.14564499 -0.226331
-0.078056499 0.145638 -0.22631299
-0.075515002 0.14564949 -0.2263235
-0.078974999 0.145722 -0.2264
-0.078883 0.145751 -0.2263895
-0.078734502 0.14574599 -0.2263695
-0.078689501 0.14574501 -0.226385
-0.078543998 0.145768 -0.226331
-0.078352496 0.1457555 -0.22632051
-0.078221001 0.14575 -0.22632299
-0.078051999 0.145743 -0.226316
-0.077721 0.145726 -0.22630399
-0.075677 0.14576 -0.226303
-0.075508997 0.145757 -0.226358
-0.07897 0.145862 -0.226393
-0.078879997 0.14585599 -0.226377
-0.078761503 0.145853 -0.22639
-0.078685001 0.14585 -0.22638801
-0.078541003 0.14583801 -0.226336
-0.078334332 0.14584933 -0.22632234
-0.078217499 0.14585499 -0.22630399
-0.078048997 0.145815 -0.22631
-0.0778495 0.14583799 -0.22631851
-0.075718999 0.145835 -0.226302
-0.075646505 0.14583051 -0.226322
-0.075534999 0.1458295 -0.22636101
-0.078875497 0.145962 -0.226385
-0.078726999 0.145925 -0.226394
-0.078681998 0.14592201 -0.22638901
-0.078536496 0.14594549 -0.22635499
-0.0783865 0.145935 -0.22634101
-0.078255996 0.145964 -0.22633049
-0.078043997 0.145955 -0.226307
-0.077845 0.145943 -0.22632501
-0.0757135 0.145942 -0.22633201
-0.075641498 0.14593825 -0.226344
-0.075558499 0.145937 -0.226363
-0.078870997 0.14606801 -0.22638801
-0.078785002 0.146065 -0.226391
-0.078532003 0.146053 -0.226366
-0.078382 0.146043 -0.226355
-0.0782535 0.146036 -0.22633299
-0.078038499 0.146062 -0.2263355
-0.077841997 0.1460495 -0.22630849
-0.077453502 0.146065 -0.226303
-0.075708002 0.14604799 -0.22635899
-0.075635999 0.14604449 -0.226374
-0.075553 0.146045 -0.22639599
-0.078750998 0.146135 -0.22638699
-0.078528002 0.1461575 -0.226358
-0.078377999 0.14614749 -0.22635201
-0.078249753 0.1461405 -0.2263265
-0.078033999 0.146167 -0.226336
-0.077838004 0.146154 -0.22630399
-0.07745 0.146136 -0.22631499
-0.077326998 0.146128 -0.22631
-0.075703502 0.146156 -0.226372
-0.075640328 0.14614034 -0.22639067
-0.078746498 0.14624099 -0.22638726
-0.078669995 0.146238 -0.226385
-0.078524999 0.146262 -0.226337
-0.078373998 0.146254 -0.22634999
-0.078245997 0.14624649 -0.226327
-0.078032002 0.146239 -0.226322
-0.077835001 0.14622401 -0.22630601
-0.077698998 0.146291 -0.22630399
-0.077445753 0.14624199 -0.22632
-0.077322498 0.146235 -0.226309
-0.075932004 0.146273 -0.22631399
-0.078742504 0.146347 -0.226394
-0.078666002 0.14634401 -0.22638801
-0.078521997 0.14633401 -0.226339
-0.078370005 0.146359 -0.2263405
-0.0782855 0.1463545 -0.2263405
-0.078197494 0.14635101 -0.22632301
-0.078028999 0.1463425 -0.22630501
-0.077696003 0.14636099 -0.22631
-0.077404998 0.14634401 -0.226307
-0.077317998 0.14634199 -0.226318
-0.075929001 0.14634299 -0.22633401
-0.078854002 0.146492 -0.226391
-0.078769505 0.14645401 -0.226399
-0.078516498 0.14644051 -0.226362
-0.078367002 0.14646401 -0.226331
-0.078280002 0.14646199 -0.226356
-0.078193001 0.146456 -0.22633301
-0.078024998 0.146448 -0.226303
-0.077826999 0.14643601 -0.226303
-0.077693999 0.146431 -0.22630601
-0.077402003 0.14641599 -0.226307
-0.077342004 0.14646 -0.22631831
-0.075924501 0.146449 -0.226339
-0.078851998 0.146561 -0.226376
-0.078766003 0.146559 -0.22638901
-0.078511998 0.146547 -0.22637799
-0.078364 0.14653599 -0.22634099
-0.078276999 0.146532 -0.226364
-0.078189999 0.14656049 -0.22631299
-0.078022003 0.14651901 -0.226307
-0.077825002 0.146506 -0.22630499
-0.077353001 0.14655501 -0.22631851
-0.077134997 0.146547 -0.226308
-0.075919002 0.14655501 -0.22635099
-0.078939997 0.14663699 -0.226392
-0.078850001 0.146631 -0.22637001
-0.078763001 0.14662901 -0.22638699
-0.078507498 0.146653 -0.226376
-0.078359999 0.146641 -0.226338
-0.078272998 0.146639 -0.22636551
-0.077349 0.14666075 -0.22631425
-0.075916 0.14662801 -0.226368
-0.078935996 0.146744 -0.22639801
-0.078845501 0.14673699 -0.2263705
-0.078758501 0.146736 -0.226393
-0.078695506 0.146736 -0.2263965
-0.078504004 0.146759 -0.226377
-0.078354999 0.14674801 -0.226338
-0.078270003 0.146743 -0.22634099
-0.078183003 0.14673699 -0.226301
-0.077302001 0.146763 -0.22630601
-0.075911999 0.14669999 -0.226386
-0.078932002 0.14684901 -0.226395
-0.078841001 0.146844 -0.226393
-0.078754999 0.146841 -0.22639801
-0.078501999 0.146828 -0.226363
-0.078500003 0.146898 -0.226346
-0.078350499 0.146853 -0.2263605
-0.0782675 0.14684799 -0.2263175
-0.078009002 0.146872 -0.226307
-0.077385001 0.14683799 -0.22631299
-0.077298999 0.146833 -0.22631
-0.076173 0.14684901 -0.226321
-0.078929 0.14692099 -0.22639699
-0.078837499 0.14694899 -0.22637451
-0.078640997 0.14698 -0.22639699
-0.078497 0.14696801 -0.226346
-0.078345999 0.14696001 -0.22635899
-0.078263 0.146953 -0.226322
-0.078005999 0.146942 -0.226309
-0.077381 0.14694449 -0.226316
-0.077295005 0.14693999 -0.226309
-0.076347001 0.14699499 -0.22630499
-0.076167494 0.14695549 -0.226345
-0.078832 0.147055 -0.226394
-0.078660995 0.14705101 -0.22638899
-0.078493997 0.14703999 -0.226348
-0.078344002 0.14703 -0.226353
-0.078261003 0.14702199 -0.22630399
-0.078171998 0.147019 -0.22630399
-0.076343998 0.147065 -0.226301
-0.076162003 0.147064 -0.226363
-0.078658 0.14715549 -0.22636801
-0.078491502 0.14714399 -0.226318
-0.078340501 0.1471345 -0.226335
-0.076839998 0.14716899 -0.226302
-0.076159999 0.14713299 -0.22635201
-0.079181001 0.1472505 -0.226391
-0.078915998 0.147273 -0.226386
-0.078823999 0.147267 -0.22639699
-0.078739002 0.147265 -0.226385
-0.078655005 0.1472595 -0.22634399
-0.078253001 0.14723399 -0.22630499
-0.076633498 0.14726099 -0.226308
-0.076334998 0.14727899 -0.226318
-0.076156005 0.14723951 -0.22636101
-0.079483002 0.14737099 -0.226374
-0.079177 0.147356 -0.22638001
-0.078915 0.147342 -0.22636101
-0.078823 0.147337 -0.22635899
-0.078736998 0.14733399 -0.22637001
-0.078653 0.14733049 -0.22633299
-0.077104002 0.147359 -0.22630399
-0.076628 0.147369 -0.226335
-0.076577999 0.147366 -0.226322
-0.076406002 0.147351 -0.22630499
-0.076330997 0.147352 -0.226338
-0.076150998 0.147346 -0.22637901
-0.079480998 0.147441 -0.226364
-0.079172999 0.147462 -0.226383
-0.078910999 0.14744699 -0.226346
-0.078821003 0.14744049 -0.22631949
-0.078734502 0.1474385 -0.226329
-0.078641333 0.14742367 -0.22633334
-0.076829001 0.147453 -0.22630499
-0.076624997 0.147439 -0.22634
-0.076550499 0.147434 -0.22632951
-0.076441325 0.14744933 -0.22632134
-0.076351337 0.147469 -0.22633566
-0.076145999 0.14745301 -0.226391
-0.079683997 0.147595 -0.22639599
-0.079476506 0.1475455 -0.226365
-0.079168998 0.147568 -0.22637101
-0.078907996 0.147552 -0.226336
-0.078621998 0.14754 -0.22632501
-0.076823503 0.14755949 -0.22631851
-0.076620996 0.14754599 -0.22634301
-0.076546252 0.14754 -0.226329
-0.076456003 0.147569 -0.22634301
-0.076358497 0.14756501 -0.22635651
-0.076141998 0.14756 -0.226395
-0.079935998 0.147673 -0.226383
-0.079754002 0.14767 -0.226399
-0.079681002 0.14766499 -0.226394
-0.079570003 0.147659 -0.226393
-0.079471998 0.147653 -0.226373
-0.079167999 0.147635 -0.226354
-0.078904003 0.14765701 -0.226329
-0.078812003 0.14768501 -0.22630499
-0.078726001 0.14768299 -0.226303
-0.078641251 0.14764699 -0.22631575
-0.076819003 0.14766601 -0.226322
-0.076615997 0.147653 -0.226364
-0.076564997 0.147651 -0.226357
-0.076453 0.14763901 -0.22634099
-0.076355003 0.147635 -0.2263675
-0.076139003 0.14763001 -0.22639599
-0.079933003 0.147745 -0.22637101
-0.079751998 0.14774001 -0.226399
-0.079650998 0.147733 -0.226383
-0.079567999 0.147763 -0.22635299
-0.079468995 0.14775699 -0.226357
-0.079164997 0.1477395 -0.226319
-0.078901 0.147761 -0.226308
-0.076816998 0.147735 -0.22631
-0.076611504 0.14775901 -0.22637001
-0.076537758 0.14775249 -0.22633851
-0.076448999 0.147746 -0.22634351
-0.076350495 0.14774251 -0.22637525
-0.076136 0.1477 -0.2264
-0.087728001 0.147854 -0.226385
-0.087297998 0.14783201 -0.22639801
-0.086837001 0.147884 -0.22639801
-0.080103002 0.14789701 -0.226385
-0.079928502 0.14785101 -0.226383
-0.079838 0.14784899 -0.22639
-0.079749003 0.14784449 -0.22636899
-0.07964775 0.14783774 -0.22636199
-0.079565004 0.14786801 -0.226344
-0.079466 0.147862 -0.226338
-0.079161003 0.147846 -0.22631501
-0.076813504 0.14783999 -0.226307
-0.076605998 0.147866 -0.226385
-0.076531999 0.1478595 -0.2263625
-0.076444998 0.14785101 -0.226336
-0.076347001 0.147848 -0.22636551
-0.087848 0.14793 -0.22637901
-0.087723501 0.14795899 -0.226385
-0.087506004 0.147982 -0.226393
-0.087294504 0.147939 -0.22638699
-0.086834997 0.147953 -0.226372
-0.080056503 0.147967 -0.22639349
-0.079924002 0.147957 -0.226386
-0.079834998 0.14795201 -0.22635999
-0.079746999 0.147949 -0.22633401
-0.079643503 0.1479435 -0.22636899
-0.079561003 0.14793999 -0.226356
-0.079464003 0.14793099 -0.22631
-0.079158999 0.147916 -0.226309
-0.076808996 0.147947 -0.226319
-0.076604001 0.147938 -0.226377
-0.07652133 0.14795233 -0.22635134
-0.076441005 0.1479595 -0.226345
-0.076342754 0.14795449 -0.22637625
-0.087858997 0.14802332 -0.22638567
-0.087758005 0.148067 -0.2263895
-0.087504998 0.14805 -0.226373
-0.087289996 0.14804401 -0.22638699
-0.087114997 0.14803401 -0.226381
-0.087019503 0.148064 -0.22637099
-0.086922497 0.148063 -0.226391
-0.086831003 0.14802399 -0.22639801
-0.086515002 0.148077 -0.22639699
-0.086461 0.148073 -0.226394
-0.080054 0.148037 -0.22639099
-0.079921 0.14806199 -0.22637451
-0.079832003 0.148058 -0.226344
-0.079743505 0.14805299 -0.226319
-0.079640001 0.14804825 -0.22635326
-0.079557501 0.148045 -0.226349
-0.076804504 0.148054 -0.22631849
-0.076603003 0.14800499 -0.22634999
-0.076550752 0.14805475 -0.22633426
-0.076436996 0.148065 -0.226347
-0.076338001 0.1480605 -0.22638249
-0.087755993 0.148139 -0.22638351
-0.087607995 0.14816549 -0.22637901
-0.087502003 0.14815399 -0.22634199
-0.087287001 0.14814851 -0.226368
-0.087112501 0.1481365 -0.2263425
-0.087016001 0.148169 -0.22636101
-0.086512998 0.148146 -0.226381
-0.086459003 0.14814299 -0.22638001
-0.080180496 0.148148 -0.22637749
-0.080050752 0.14814299 -0.22637674
-0.079917997 0.148167 -0.22635899
-0.079828002 0.148164 -0.226335
-0.079738997 0.14816 -0.226329
-0.079638004 0.1481525 -0.22632101
-0.079553999 0.148149 -0.226335
-0.076801002 0.148159 -0.22631
-0.076571494 0.1481455 -0.22635549
-0.076467 0.1481365 -0.2263305
-0.076373003 0.148132 -0.226364
-0.076297998 0.148131 -0.22639699
-0.087752253 0.14824274 -0.22636926
-0.087605 0.14827099 -0.226353
-0.087499 0.148259 -0.22633
-0.087283999 0.14825299 -0.22634199
-0.087108999 0.148242 -0.22633199
-0.087012999 0.148239 -0.226363
-0.086732998 0.14829899 -0.226376
-0.086508498 0.14825249 -0.226393
-0.086456001 0.148213 -0.22638801
-0.080177002 0.14825299 -0.226365
-0.080046996 0.14824849 -0.22636449
-0.079916 0.14823601 -0.22634099
-0.079825997 0.14823399 -0.22633
-0.079736002 0.148231 -0.226331
-0.079635501 0.148223 -0.2263035
-0.079552002 0.148219 -0.226318
-0.076797999 0.148229 -0.226316
-0.076565996 0.14825425 -0.22637752
-0.076461002 0.14824425 -0.22636326
-0.076369002 0.148203 -0.226382
-0.087876998 0.148352 -0.226376
-0.087749004 0.1483475 -0.2263605
-0.087603003 0.148339 -0.22634199
-0.087494999 0.14836299 -0.22631299
-0.087281495 0.14835601 -0.22632399
-0.087104499 0.148348 -0.22634199
-0.0870075 0.14834601 -0.226385
-0.086911999 0.1483435 -0.2263875
-0.086821005 0.1483385 -0.2263575
-0.086731002 0.148369 -0.226366
-0.080264002 0.148398 -0.226381
-0.080173001 0.14836 -0.226364
-0.080058664 0.14834166 -0.226353
-0.0799575 0.14834401 -0.226316
-0.079821497 0.148339 -0.22633201
-0.079732001 0.14833501 -0.226319
-0.076793499 0.14833599 -0.22631851
-0.076561496 0.14836049 -0.22638801
-0.076456003 0.14835149 -0.22638801
-0.087967001 0.148498 -0.226377
-0.087872505 0.148458 -0.226381
-0.087744996 0.14845225 -0.22635075
-0.087600999 0.14840899 -0.22634199
-0.087598003 0.14848 -0.22633401
-0.087277003 0.148462 -0.226327
-0.087052494 0.14845151 -0.2263535
-0.086909004 0.14844801 -0.226358
-0.086818002 0.148444 -0.226338
-0.086727999 0.14843901 -0.226368
-0.086502001 0.14842799 -0.22638801
-0.086472496 0.148496 -0.226383
-0.080472 0.14848199 -0.22638901
-0.080347002 0.14847501 -0.226394
-0.080261998 0.148468 -0.226356
-0.080169998 0.14846399 -0.22634999
-0.080082998 0.14846 -0.226345
-0.079998001 0.14845499 -0.226322
-0.079819001 0.148443 -0.22630399
-0.079728998 0.14844 -0.226302
-0.076788001 0.148444 -0.22634099
-0.076549664 0.148453 -0.22637899
-0.076452248 0.14845674 -0.22637099
-0.076360002 0.148449 -0.226368
-0.076284997 0.14848401 -0.226393
-0.088234 0.148582 -0.22638901
-0.088142 0.148543 -0.22638899
-0.088050999 0.14857499 -0.226394
-0.087966003 0.14856701 -0.226346
-0.087869003 0.148561 -0.226365
-0.0877425 0.1485565 -0.2263255
-0.087596998 0.14854801 -0.226303
-0.087034009 0.148544 -0.22633235
-0.086905494 0.148554 -0.22635549
-0.086813003 0.14855051 -0.22636101
-0.086723499 0.14854601 -0.22637299
-0.086469501 0.1485685 -0.2263885
-0.080470003 0.14854901 -0.22637101
-0.080344997 0.148545 -0.226374
-0.080261 0.148537 -0.22633401
-0.080167003 0.148534 -0.226338
-0.080081001 0.14853001 -0.22634099
-0.079993501 0.14856 -0.226319
-0.076784998 0.1485485 -0.22633049
-0.076564334 0.14854634 -0.22635067
-0.076450497 0.14856049 -0.22633
-0.076357 0.148554 -0.226346
-0.088317998 0.14865901 -0.22639599
-0.088230997 0.148654 -0.226377
-0.088138998 0.14864901 -0.226375
-0.08805 0.148642 -0.226362
-0.087963998 0.148637 -0.22633199
-0.087867998 0.14863101 -0.22633401
-0.087752998 0.14865066 -0.22630532
-0.087699004 0.14869399 -0.22630399
-0.086950496 0.1486585 -0.226329
-0.086809002 0.148656 -0.226363
-0.086718999 0.148651 -0.226381
-0.086649999 0.148647 -0.226395
-0.086466499 0.1486385 -0.2263875
-0.086372003 0.148637 -0.226386
-0.086129002 0.14869601 -0.226399
-0.080467001 0.14865449 -0.22635099
-0.080342501 0.14864799 -0.22634301
-0.080259003 0.148607 -0.226316
-0.080163501 0.14863899 -0.22633451
-0.080077998 0.14863449 -0.22632299
-0.076553494 0.14863899 -0.22632951
-0.076436661 0.14865302 -0.226322
-0.076353505 0.14866051 -0.22634
-0.076275997 0.14869601 -0.226393
-0.088314503 0.148763 -0.2263855
-0.088227496 0.14875901 -0.2263715
-0.088135004 0.148752 -0.2263605
-0.088049002 0.148711 -0.22633
-0.087962002 0.148707 -0.22632
-0.087864995 0.148735 -0.22631401
-0.087696001 0.148764 -0.226301
-0.086949006 0.148728 -0.22631
-0.086808003 0.14872301 -0.22632299
-0.086716503 0.14875549 -0.226355
-0.086647496 0.1487495 -0.22637099
-0.086569495 0.14875175 -0.22638451
-0.086464256 0.14874175 -0.22635925
-0.086369999 0.14873901 -0.22634751
-0.086126998 0.148766 -0.226375
-0.080674 0.148738 -0.226385
-0.080463998 0.14875799 -0.22633
-0.080339 0.148752 -0.22632501
-0.080254003 0.148746 -0.226301
-0.080159999 0.148746 -0.22632501
-0.076541997 0.14873134 -0.22631234
-0.076453999 0.14874834 -0.22632265
-0.076347999 0.14876799 -0.22635899
-0.076274 0.148766 -0.22638001
-0.088350505 0.14886999 -0.2263875
-0.088224001 0.148864 -0.226366
-0.088132001 0.148858 -0.22634199
-0.086714 0.148858 -0.22631399
-0.086645998 0.148853 -0.226328
-0.0865665 0.148855 -0.226356
-0.086461499 0.148845 -0.22632551
-0.086365998 0.148844 -0.22634099
-0.08625 0.14884201 -0.22639599
-0.086125001 0.148835 -0.226358
-0.086037003 0.14883099 -0.226392
-0.080670998 0.14884301 -0.22636101
-0.080462001 0.14883 -0.226319
-0.080336004 0.148858 -0.22631299
-0.080249503 0.14885351 -0.22631049
-0.080158003 0.14881501 -0.22631501
-0.0764395 0.1488435 -0.22633199
-0.076346003 0.148838 -0.22635099
-0.076272003 0.148836 -0.22637001
-0.088347495 0.14894101 -0.2263905
-0.088220999 0.14893299 -0.226358
-0.088128999 0.14896101 -0.2263245
-0.088039503 0.148957 -0.22632301
-0.086644001 0.14892299 -0.226303
-0.086562991 0.14896099 -0.22635375
-0.086457498 0.14895076 -0.22632399
-0.086363003 0.1489505 -0.226329
-0.086247504 0.14894626 -0.22636549
-0.086120501 0.14894199 -0.226362
-0.086034499 0.148936 -0.22636349
-0.080667496 0.148948 -0.226347
-0.080332004 0.148963 -0.226302
-0.080246001 0.148958 -0.226302
-0.076567002 0.148991 -0.226302
-0.076437503 0.148913 -0.22632051
-0.076343499 0.1489415 -0.2263175
-0.076269001 0.14894199 -0.22635451
-0.088438496 0.149051 -0.226395
-0.088343501 0.149047 -0.22639024
-0.088218004 0.149038 -0.2263435
-0.088124998 0.149067 -0.226319
-0.088036999 0.14906 -0.22630399
-0.086560994 0.14906299 -0.22631499
-0.086479999 0.149059 -0.22632299
-0.086359002 0.14905301 -0.226316
-0.086244501 0.14905 -0.22634751
-0.086116999 0.149047 -0.22635899
-0.086030997 0.14904 -0.226347
-0.085838005 0.14906299 -0.22637799
-0.080994003 0.149075 -0.22639801
-0.080664001 0.14905401 -0.226344
-0.080329999 0.149033 -0.226301
-0.076265998 0.14904501 -0.22632299
-0.088434003 0.149156 -0.22639699
-0.088379003 0.14915401 -0.226395
-0.088257 0.1491465 -0.2263535
-0.088123001 0.14913499 -0.226309
-0.086478002 0.149128 -0.226309
-0.086356997 0.14912499 -0.22630399
-0.086242497 0.1491195 -0.226327
-0.086142659 0.14916332 -0.22633433
-0.086027995 0.14914399 -0.22632751
-0.085835002 0.149168 -0.226362
-0.081449002 0.149169 -0.22639599
-0.081182003 0.14915501 -0.226392
-0.080991998 0.14914501 -0.22639
-0.08066 0.149159 -0.22633201
-0.076261505 0.149152 -0.2263315
-0.088431001 0.14922699 -0.22639801
-0.088375494 0.149258 -0.22639
-0.088253506 0.14925151 -0.226354
-0.0861535 0.149257 -0.22631851
-0.086025 0.149249 -0.22630601
-0.085832998 0.14923701 -0.22634301
-0.085441001 0.14929099 -0.22637799
-0.085157998 0.14924499 -0.2263865
-0.081446998 0.14924 -0.22638901
-0.081391998 0.149234 -0.226394
-0.081179 0.14925849 -0.22636649
-0.080989502 0.1492485 -0.22635999
-0.080656998 0.14926299 -0.226316
-0.076332003 0.149258 -0.226309
-0.076258004 0.149257 -0.226328
-0.088426001 0.149367 -0.2264
-0.088371001 0.14936499 -0.226386
-0.088249505 0.14935699 -0.22633949
-0.086135663 0.14935033 -0.22632332
-0.08602 0.14935601 -0.22632951
-0.085830003 0.14934 -0.22632551
-0.085607 0.149371 -0.226386
-0.085438997 0.14936 -0.226353
-0.085155003 0.14934801 -0.226367
-0.081442505 0.149345 -0.226386
-0.081359744 0.14933801 -0.22638625
-0.081257999 0.14933449 -0.22637999
-0.081175998 0.14936399 -0.22634301
-0.080987997 0.149351 -0.226311
-0.080655001 0.149333 -0.22630499
-0.076329 0.14933001 -0.226311
-0.076253504 0.14936349 -0.226329
-0.088422999 0.149437 -0.226393
-0.088368997 0.149435 -0.226386
-0.088246249 0.14946049 -0.22633049
-0.086103 0.14946599 -0.226301
-0.086015001 0.149462 -0.226349
-0.085826002 0.14944699 -0.226328
-0.085606001 0.14944001 -0.226362
-0.085436001 0.1494635 -0.226326
-0.085150495 0.149455 -0.22637099
-0.081439003 0.14945 -0.226377
-0.081356004 0.14944351 -0.22637549
-0.081254996 0.14943901 -0.22635201
-0.081173003 0.149434 -0.226345
-0.080982998 0.14945701 -0.226317
-0.076249003 0.149471 -0.22634301
-0.088420004 0.149542 -0.22637901
-0.088365003 0.14954001 -0.22638351
-0.088284999 0.149571 -0.226346
-0.086012997 0.14953201 -0.226327
-0.085822001 0.149552 -0.226322
-0.085602 0.149545 -0.226347
-0.085432999 0.14956699 -0.226302
-0.085146002 0.149562 -0.226374
-0.081453003 0.14956933 -0.22637568
-0.081352748 0.14954825 -0.22636451
-0.081252001 0.149544 -0.22634
-0.081169501 0.14954001 -0.22634751
-0.080978997 0.149563 -0.22631
-0.076245002 0.149543 -0.22635899
-0.088440999 0.14965001 -0.2263715
-0.088362001 0.149644 -0.226357
-0.088284001 0.149638 -0.226318
-0.085818999 0.149656 -0.226301
-0.085600004 0.149647 -0.22631299
-0.085143998 0.14963201 -0.226366
-0.084858999 0.149691 -0.22639699
-0.0814595 0.14966199 -0.226355
-0.081349 0.14965349 -0.22635651
-0.081248 0.149648 -0.22633301
-0.081165001 0.149646 -0.22634
-0.076240495 0.14965001 -0.22637001
-0.088510998 0.149795 -0.226392
-0.088445999 0.14974333 -0.22635166
-0.088361003 0.149712 -0.226321
-0.085141003 0.1497345 -0.2263445
-0.084944002 0.149766 -0.22638901
-0.084857002 0.14975999 -0.226383
-0.084770001 0.149756 -0.226399
-0.082088001 0.149766 -0.22638699
-0.081809998 0.149753 -0.22639801
-0.081580997 0.149745 -0.226384
-0.081447996 0.149754 -0.22632466
-0.081346251 0.14975724 -0.22633049
-0.0812435 0.14975551 -0.226338
-0.081164002 0.14971501 -0.22632
-0.076236002 0.149757 -0.226376
-0.088533998 0.1498675 -0.2263705
-0.088459 0.14985999 -0.226326
-0.085138999 0.149839 -0.226307
-0.084942997 0.14983299 -0.22635999
-0.084853999 0.14983 -0.22637901
-0.084766001 0.14986199 -0.22638699
-0.084668003 0.149892 -0.22639801
-0.084437504 0.14984 -0.2263875
-0.084352255 0.149838 -0.2263895
-0.082084998 0.149836 -0.226383
-0.081998996 0.14983401 -0.226391
-0.081806496 0.149858 -0.226383
-0.081578001 0.149848 -0.22635999
-0.081462659 0.14984934 -0.22632933
-0.081342503 0.14986199 -0.22632051
-0.081239998 0.14985999 -0.226322
-0.076233 0.149828 -0.226384
-0.088610999 0.149948 -0.22638001
-0.0885325 0.1499345 -0.2263425
-0.085134499 0.14994401 -0.2263075
-0.084938496 0.14994 -0.22635299
-0.084851503 0.1499345 -0.226355
-0.084763996 0.149965 -0.226338
-0.084666997 0.149959 -0.226362
-0.084461004 0.14994749 -0.22637451
-0.084348001 0.14994501 -0.226392
-0.084154002 0.14993501 -0.226393
-0.083976999 0.14999799 -0.226391
-0.082168996 0.149983 -0.226393
-0.082082003 0.149941 -0.22637101
-0.081996001 0.149904 -0.226399
-0.081803001 0.14996199 -0.226365
-0.081575997 0.14995199 -0.226335
-0.081450999 0.14994201 -0.2263155
-0.08134 0.1499325 -0.22631651
-0.081238002 0.14993 -0.226309
-0.076304004 0.149964 -0.22630399
-0.076228499 0.14993501 -0.2263865
-0.088608503 0.150052 -0.226366
-0.088529006 0.15004 -0.22633451
-0.085129999 0.150051 -0.22631
-0.084935002 0.15004499 -0.22635099
-0.084848002 0.150039 -0.22634
-0.084762998 0.150033 -0.226318
-0.084664002 0.15006399 -0.2263485
-0.084554672 0.15005267 -0.22638901
-0.084457748 0.1500525 -0.22636199
-0.084344245 0.15004975 -0.22638299
-0.083975002 0.150067 -0.226375
-0.083885998 0.150069 -0.22638001
-0.082167 0.150052 -0.22637901
-0.082079001 0.15004499 -0.22635201
-0.081990004 0.15004399 -0.226392
-0.081800997 0.150032 -0.22635099
-0.081571996 0.150058 -0.22632599
-0.081474997 0.150014 -0.226319
-0.081308998 0.150002 -0.22631399
-0.081235997 0.15000001 -0.226307
-0.076301001 0.15003601 -0.226318
-0.076223999 0.150042 -0.226391
-0.088604003 0.150159 -0.226375
-0.088524997 0.15014499 -0.22632749
-0.084934004 0.150112 -0.22631501
-0.0848445 0.150144 -0.22633
-0.084757499 0.150141 -0.226336
-0.084660001 0.150168 -0.226337
-0.084569 0.15014701 -0.226368
-0.084453501 0.15015849 -0.22636199
-0.084341496 0.1501545 -0.226367
-0.084146999 0.150144 -0.22635999
-0.083972 0.15014 -0.22638699
-0.083884001 0.15013701 -0.226368
-0.083656505 0.15016225 -0.22637723
-0.083540253 0.1501545 -0.22637326
-0.083026998 0.15016299 -0.22638801
-0.082932003 0.15016 -0.226399
-0.082164004 0.1501565 -0.226354
-0.082074001 0.1501525 -0.22636101
-0.0819875 0.15014949 -0.226365
-0.081798002 0.15013701 -0.226337
-0.081569001 0.150161 -0.22630399
-0.076258503 0.15014499 -0.22635148
-0.088601001 0.15022901 -0.226373
-0.08856333 0.15026833 -0.22634333
-0.088496499 0.15024701 -0.226316
-0.084753998 0.15024699 -0.226327
-0.084657997 0.15024 -0.226335
-0.084557503 0.1502395 -0.2263515
-0.084450997 0.15026174 -0.22632851
-0.084337994 0.15025851 -0.226346
-0.084144503 0.15024801 -0.22632951
-0.083967 0.150279 -0.226382
-0.083880499 0.15024349 -0.2263625
-0.083782002 0.15023899 -0.226377
-0.083652496 0.150268 -0.226374
-0.083536997 0.15025949 -0.226356
-0.083342001 0.15024599 -0.226394
-0.083108999 0.150241 -0.22639801
-0.083025001 0.150233 -0.226368
-0.082929499 0.150263 -0.22637549
-0.082744502 0.1502575 -0.226374
-0.082436003 0.150281 -0.226392
-0.082356244 0.15023574 -0.22639251
-0.082162 0.150259 -0.226326
-0.082069002 0.15026 -0.226373
-0.081984997 0.150253 -0.226337
-0.081794001 0.150241 -0.226328
-0.076254003 0.150251 -0.2263585
-0.088669002 0.15037701 -0.22639599
-0.088569 0.1503635 -0.226346
-0.088492997 0.150353 -0.22630499
-0.084654003 0.150345 -0.22632501
-0.084554747 0.15034325 -0.226331
-0.084475003 0.150369 -0.22631
-0.084302999 0.150363 -0.226328
-0.084140003 0.150354 -0.226347
-0.083967 0.150346 -0.22633401
-0.083878003 0.150346 -0.226331
-0.083779 0.150342 -0.226358
-0.083651006 0.150337 -0.2263535
-0.083534494 0.15036251 -0.22632526
-0.083338 0.15035051 -0.22637451
-0.083104506 0.15034699 -0.22639701
-0.083020501 0.15033901 -0.22637799
-0.082924999 0.150369 -0.226376
-0.082741998 0.15036 -0.226338
-0.082585998 0.15035599 -0.226386
-0.082433999 0.15035 -0.226368
-0.082353503 0.15034001 -0.2263685
-0.082157999 0.15033101 -0.22633301
-0.082066499 0.150363 -0.2263485
-0.081980497 0.15036 -0.22634101
-0.081790999 0.150346 -0.226308
-0.076250248 0.15035751 -0.22635549
-0.088665999 0.150447 -0.226392
-0.08855667 0.15045567 -0.22633433
-0.088491 0.15042301 -0.226301
-0.084552005 0.15044749 -0.22630751
-0.084472999 0.15043899 -0.226303
-0.084301002 0.150433 -0.226312
-0.084136002 0.15046 -0.22633651
-0.083875 0.15044999 -0.2263045
-0.0837745 0.15044901 -0.22635999
-0.083661996 0.150429 -0.22631967
-0.083528996 0.1504705 -0.226358
-0.083336003 0.150455 -0.226335
-0.083100997 0.15045001 -0.22638699
-0.083016001 0.150445 -0.226381
-0.082923003 0.15043899 -0.22637001
-0.082739003 0.15043201 -0.226344
-0.0825845 0.1504585 -0.22634649
-0.082431495 0.150453 -0.22633851
-0.082350254 0.15044451 -0.22634901
-0.082155004 0.150436 -0.22632401
-0.082064003 0.150466 -0.22631399
-0.081978001 0.150464 -0.22632
-0.076245002 0.150465 -0.226373
-0.088661999 0.150552 -0.2263855
-0.088590503 0.15054351 -0.2263335
-0.084521003 0.15058599 -0.22630499
-0.084133998 0.150563 -0.226302
-0.083959997 0.15055799 -0.22630499
-0.083871 0.150557 -0.226316
-0.083770998 0.150554 -0.22634099
-0.083682999 0.15054899 -0.226335
-0.083526999 0.15053999 -0.226337
-0.083334997 0.15052199 -0.226302
-0.083056003 0.15055174 -0.22635701
-0.08292 0.150544 -0.22635251
-0.082735002 0.150537 -0.2263445
-0.082581997 0.150561 -0.226311
-0.082428001 0.150557 -0.22632299
-0.082347006 0.150548 -0.2263315
-0.081974998 0.15053201 -0.226312
-0.076343 0.150537 -0.226307
-0.076278999 0.150535 -0.226362
-0.088660002 0.150656 -0.226357
-0.083956003 0.1506625 -0.22630501
-0.083866 0.150662 -0.2263175
-0.083769999 0.150621 -0.226322
-0.083679497 0.150653 -0.226321
-0.083053 0.15065551 -0.22633
-0.082916997 0.150646 -0.226317
-0.082731001 0.15064199 -0.226337
-0.082309999 0.150654 -0.22632301
-0.081970498 0.150639 -0.2263175
-0.076336995 0.150645 -0.226339
-0.076274499 0.1506435 -0.226381
-0.088654995 0.1507625 -0.226367
-0.088583499 0.1507525 -0.226311
-0.083036333 0.15074767 -0.22631766
-0.082915001 0.150718 -0.22630499
-0.082728498 0.15074649 -0.2263145
-0.082307003 0.150758 -0.226301
-0.081967004 0.15074401 -0.226311
-0.088578999 0.15086 -0.226328
-0.076393001 0.150894 -0.226307
-0.088574499 0.15096501 -0.226319
-0.076389 0.150967 -0.226335
-0.088542499 0.1510665 -0.226331
-0.076433003 0.15104499 -0.226364
-0.076384999 0.151039 -0.226357
-0.088539496 0.15113899 -0.22633299
-0.076454505 0.15111899 -0.22638699
-0.076380998 0.15111201 -0.226383
-0.088534243 0.1512455 -0.22635725
-0.088458002 0.151269 -0.22630601
-0.088503003 0.151346 -0.22635201
-0.088454001 0.15134101 -0.226317
-0.088467002 0.151436 -0.22632468
-0.088382997 0.151833 -0.22632
-0.088377506 0.15194049 -0.22634751
-0.088096999 0.152173 -0.226331
-0.088091999 0.15224899 -0.22638801
-0.087995999 0.15238 -0.226335
-0.087903 0.152448 -0.22636101
-0.0878115 0.15254951 -0.226354
-0.087715998 0.152574 -0.22631
-0.087805003 0.152661 -0.2264
-0.087711997 0.152647 -0.226338
-0.087706 0.1527575 -0.226376
-0.087619007 0.15275249 -0.2263265
-0.087613001 0.152861 -0.22635899
-0.087537996 0.152852 -0.22630499
-0.087609001 0.152934 -0.226381
-0.087532997 0.152925 -0.226344
-0.087424003 0.15299 -0.226327
-0.087527998 0.153 -0.226382
-0.087420002 0.153063 -0.226347
-0.087416001 0.153135 -0.22636899
-0.087412 0.153207 -0.22638901
-0.087305002 0.153264 -0.22632501
-0.087300003 0.153337 -0.226365
-0.087296002 0.153412 -0.226395
-0.087074995 0.1536465 -0.226356
-0.087068997 0.15375701 -0.226395
-0.086892501 0.15384549 -0.22631499
-0.086886004 0.15395699 -0.226367
-0.086787 0.1540595 -0.2263675
-0.086692996 0.15408599 -0.226309
-0.086686999 0.154163 -0.226367
-0.086594 0.154227 -0.22633199
-0.086545005 0.15433151 -0.2263495
-0.086496003 0.15443601 -0.22636101
-0.086493 0.15450799 -0.22636101
-0.086315997 0.154708 -0.226319
-0.0848215 0.12614849 -0.22622299
-0.085077003 0.126256 -0.226292
-0.085074998 0.12632699 -0.226275
-0.085349001 0.126481 -0.226276
-0.085265003 0.12644424 -0.22626799
-0.085074 0.12640101 -0.226237
-0.08309 0.126434 -0.226229
-0.082996003 0.126496 -0.226254
-0.085451998 0.126563 -0.2263
-0.085372999 0.126555 -0.2262695
-0.082952 0.12656701 -0.22622651
-0.085501999 0.126638 -0.226289
-0.085450999 0.126636 -0.226272
-0.085399002 0.12662999 -0.22625101
-0.082713 0.126655 -0.22624099
-0.085753001 0.126792 -0.226275
-0.085668504 0.12675351 -0.22625101
-0.085548669 0.12673633 -0.22624832
-0.085466333 0.12675834 -0.22622
-0.085396998 0.126702 -0.226225
-0.085837997 0.12686799 -0.226272
-0.085750997 0.126864 -0.226247
-0.082477003 0.12682299 -0.226239
-0.082350999 0.126812 -0.226237
-0.082268 0.126801 -0.226261
-0.082135998 0.12686899 -0.226237
-0.082052 0.12685899 -0.22628701
-0.086028002 0.126946 -0.22627699
-0.085837997 0.12694401 -0.226206
-0.082052 0.126936 -0.226218
-0.081860997 0.126922 -0.22623999
-0.086305 0.12709901 -0.22629701
-0.086028002 0.127023 -0.226209
-0.086304002 0.12717199 -0.226266
-0.086303003 0.12724701 -0.22621401
-0.086467505 0.127361 -0.2262505
-0.08117 0.127371 -0.22628701
-0.086464003 0.127469 -0.22622199
-0.081168003 0.12744001 -0.226283
-0.086677 0.127542 -0.226292
-0.086461999 0.12753899 -0.22621199
-0.081164002 0.12754799 -0.22626549
-0.086675003 0.12765101 -0.226244
-0.081162997 0.127657 -0.22621199
-0.086672001 0.127758 -0.22621299
-0.081069499 0.127753 -0.22626901
-0.081067003 0.12786201 -0.22623201
-0.086663999 0.127968 -0.22622301
-0.081064999 0.12793399 -0.226211
-0.080967501 0.12795851 -0.22628701
-0.086659998 0.12803701 -0.22624999
-0.080964997 0.128067 -0.226243
-0.086842999 0.12819 -0.226282
-0.086656004 0.128142 -0.22624201
-0.080963001 0.128139 -0.22623099
-0.086839996 0.128258 -0.226284
-0.086652003 0.12824599 -0.226237
