# .PCD v0.7 - Point Cloud Data file format
VERSION 0.7
FIELDS x y z
SIZE 4 4 4
TYPE F F F
COUNT 1 1 1
WIDTH 1354
HEIGHT 1
VIEWPOINT 0 0 0 1 0 0 0
POINTS 1354
DATA ascii
0.13486472 -0.013596511 0.32066828
0.13509813 -0.013596291 0.32067809
0.13572404 -0.013596131 0.32069179
0.13591707 -0.013596344 0.32068822
0.13638507 -0.013596457 0.32069153
0.13661909 -0.013596605 0.32069051
0.12378749 -0.013336468 0.32053697
0.12405442 -0.01333805 0.32049364
0.12436552 -0.013338494 0.32048473
0.1246776 -0.013338819 0.32047933
0.12495015 -0.013339084 0.32047519
0.12522976 -0.013337861 0.32051528
0.1255451 -0.013337394 0.32053339
0.12586321 -0.013336154 0.32057452
0.12617107 -0.013337473 0.32053962
0.12646784 -0.013338488 0.32051358
0.12676191 -0.013336524 0.32057577
0.12703526 -0.013336655 0.32057565
0.12735198 -0.013335834 0.32060432
0.12767275 -0.013337403 0.32056215
0.12797192 -0.013337461 0.32056448
0.12825032 -0.013336126 0.32060787
0.12852407 -0.013336419 0.32060289
0.12883745 -0.013336137 0.32061553
0.1291468 -0.013337424 0.32058161
0.12946114 -0.013336991 0.32059872
0.12977591 -0.013336238 0.32062531
0.1300496 -0.01333644 0.32062304
0.13032025 -0.013337587 0.32059276
0.13063502 -0.013336885 0.32061785
0.13094884 -0.013336369 0.32063746
0.131221 -0.013336969 0.32062334
0.13168907 -0.013337387 0.32061732
0.13188361 -0.013337529 0.32061574
0.13215584 -0.013337873 0.32060927
0.13243285 -0.01333684 0.32064366
0.13274577 -0.013336643 0.32065377
0.13302003 -0.013336475 0.3206625
0.13337158 -0.013336198 0.32067546
0.13364159 -0.013337406 0.32064334
0.13391803 -0.013336217 0.32068238
0.13422769 -0.013336879 0.32066697
0.13454016 -0.0133368 0.32067358
0.1348522 -0.013337024 0.32067117
0.13516554 -0.013336608 0.32068777
0.1354766 -0.013336884 0.32068387
0.13575047 -0.013336524 0.32069823
0.13600989 -0.013336894 0.32069081
0.13633366 -0.013337328 0.32068238
0.13656759 -0.013337155 0.32069069
0.12376359 -0.013080004 0.32046458
0.12403996 -0.013079633 0.32047909
0.12435342 -0.013079632 0.32048321
0.1246711 -0.013078604 0.32051784
0.12498544 -0.013078163 0.32053494
0.12525333 -0.013079551 0.3204973
0.12553483 -0.013077934 0.32054892
0.12584177 -0.013079516 0.32050598
0.12615523 -0.013079464 0.32051158
0.12647431 -0.013078082 0.3205567
0.1267487 -0.013077796 0.32056877
0.12701666 -0.013079419 0.3205241
0.12736912 -0.013079387 0.32052961
0.12764496 -0.013078894 0.32054782
0.12795982 -0.013078555 0.32056195
0.12827237 -0.013078756 0.32056004
0.12854613 -0.01307861 0.32056794
0.12881798 -0.013079267 0.32055193
0.12913509 -0.013078069 0.32059157
0.12945044 -0.013077631 0.32060871
0.12976295 -0.013077747 0.3206093
0.13007542 -0.013077728 0.32061389
0.13034785 -0.013078122 0.32060578
0.13062198 -0.013078089 0.32061031
0.13093397 -0.013078121 0.32061341
0.13124734 -0.013077833 0.32062602
0.13155949 -0.013078353 0.32061464
0.13187283 -0.013077948 0.32063073
0.13214694 -0.013077791 0.32063892
0.13241975 -0.013077785 0.32064265
0.13273276 -0.013077919 0.32064271
0.1330452 -0.0130778 0.32065034
0.13335723 -0.013077967 0.32064945
0.13366963 -0.013077746 0.32066002
0.13398114 -0.013077846 0.32066113
0.1342548 -0.013077874 0.32066384
0.13452901 -0.013077532 0.32067752
0.13484091 -0.013077261 0.32068962
0.13550386 -0.013077307 0.32069686
0.13577649 -0.013077779 0.3206864
0.13604933 -0.013077903 0.32068625
0.13698398 -0.013078089 0.32069287
0.13713996 -0.013078105 0.32069442
0.12407359 -0.012609563 0.3205272
0.12436529 -0.012654351 0.32048884
0.1246527 -0.012734343 0.32050863
0.12496943 -0.012719271 0.32050037
0.12524411 -0.012719112 0.32050857
0.12552162 -0.01271834 0.32053506
0.12579365 -0.012740515 0.32052386
0.12614411 -0.012719329 0.32051373
0.12645967 -0.012718804 0.32053334
0.12677336 -0.012718634 0.32054248
0.12704748 -0.012718585 0.32054746
0.12732409 -0.012717906 0.32057115
0.12764193 -0.012716622 0.32061327
0.12795165 -0.01271743 0.32059336
0.12826714 -0.01273385 0.32056952
0.12857488 -0.012718343 0.32057434
0.12884828 -0.012718417 0.32057562
0.12912306 -0.012718288 0.32058299
0.12943555 -0.012718344 0.32058534
0.12974948 -0.012718174 0.32059443
0.13006219 -0.012718121 0.32060006
0.1303762 -0.012681589 0.32061639
0.1306338 -0.012739601 0.320613
0.13092323 -0.012717617 0.32062605
0.1312339 -0.012718279 0.3206104
0.13154691 -0.012718394 0.320611
0.13185938 -0.012718383 0.32061535
0.1321737 -0.012717859 0.32063499
0.13244717 -0.01271781 0.32063994
0.13272116 -0.01271788 0.3206414
0.13303314 -0.012717878 0.32064545
0.1333456 -0.012717851 0.32065028
0.13365781 -0.012717763 0.32065693
0.13396934 -0.012717938 0.32065576
0.13426575 -0.012702005 0.3206732
0.13453405 -0.01273284 0.3206799
0.13482821 -0.012717744 0.32067251
0.13514085 -0.012717447 0.32068536
0.1354524 -0.012717706 0.32068169
0.13576484 -0.012717569 0.3206898
0.13603753 -0.012717697 0.3206895
0.1363095 -0.012609277 0.32069707
0.13670009 -0.012825971 0.32069814
0.13689251 -0.012609476 0.32069886
0.12375394 -0.012394319 0.32049781
0.124032 -0.012393475 0.32052672
0.12430382 -0.012394077 0.32051256
0.12586847 -0.012394487 0.32052207
0.12614912 -0.01239276 0.32057717
0.12645605 -0.012394418 0.32053223
0.12680836 -0.012394409 0.32053739
0.12704237 -0.012394507 0.32053772
0.12731697 -0.012394363 0.32054576
0.12763602 -0.012392923 0.32059288
0.12794344 -0.012394464 0.32055148
0.12825596 -0.012394605 0.32055157
0.12856847 -0.012394697 0.32055315
0.12888196 -0.012394773 0.32055527
0.12916113 -0.012393214 0.32060534
0.12935285 -0.012394566 0.32056791
0.12982281 -0.012394527 0.32057557
0.13005953 -0.012393649 0.32060492
0.13036975 -0.01239448 0.32058448
0.1306458 -0.012393636 0.32061338
0.13092124 -0.01239297 0.32063693
0.13123009 -0.012394208 0.3206045
0.13154259 -0.012394367 0.32060409
0.1318578 -0.012393414 0.32063669
0.13217255 -0.012392731 0.32066131
0.13244303 -0.012393784 0.32063386
0.13271777 -0.012393596 0.32064322
0.13303159 -0.012393047 0.32066381
0.13334267 -0.01239346 0.32065591
0.13365322 -0.012393703 0.32065299
0.13396659 -0.012393374 0.32066709
0.13435884 -0.012392599 0.32069546
0.13455142 -0.012393523 0.32067072
0.13478537 -0.01239342 0.32067704
0.13517596 -0.012393246 0.32068756
0.13544944 -0.012393266 0.32069078
0.13576141 -0.012393273 0.32069486
0.13603391 -0.012393382 0.3206954
0.13642393 -0.012393547 0.32069594
0.13650191 -0.012393489 0.32069868
0.12375266 -0.012177781 0.32050094
0.12402994 -0.012177105 0.32052499
0.12433632 -0.012178517 0.32048756
0.12496092 -0.012179052 0.32048076
0.12527956 -0.012177886 0.32051989
0.12555136 -0.012178441 0.32050744
0.12582985 -0.012177331 0.32054436
0.12614749 -0.012176252 0.32058096
0.12645626 -0.012177311 0.32055405
0.12677021 -0.012177224 0.32056114
0.12705036 -0.012175571 0.32061422
0.1273293 -0.012174277 0.32065663
0.1276367 -0.01217574 0.32061771
0.12794687 -0.012176445 0.32060128
0.12825297 -0.012178564 0.32054287
0.12860632 -0.012178215 0.32055834
0.12883975 -0.012178588 0.32055065
0.1291194 -0.012176911 0.32060441
0.12942964 -0.012177802 0.32058248
0.12974349 -0.012177412 0.32059857
0.13005558 -0.012177797 0.32059169
0.13036987 -0.012177239 0.32061279
0.13060385 -0.012177241 0.3206161
0.13099496 -0.012177706 0.32060796
0.13122803 -0.012178029 0.32060179
0.13154095 -0.012177875 0.32061088
0.13185389 -0.012177737 0.32061946
0.13216686 -0.012177734 0.32062405
0.13248068 -0.012177244 0.32064316
0.13275248 -0.012177751 0.32063207
0.1330272 -0.012177446 0.32064509
0.13334054 -0.012176989 0.32066318
0.13365209 -0.012177306 0.32065824
0.13396536 -0.012176612 0.32068336
0.13427559 -0.01217752 0.32066095
0.13454954 -0.012177422 0.32066783
0.13482386 -0.01217693 0.32068634
0.13513444 -0.012177281 0.32068044
0.1354478 -0.012176909 0.32069606
0.13568133 -0.01217708 0.32069436
0.13607034 -0.01217724 0.32069519
0.12375637 -0.011960114 0.32053939
0.1240013 -0.01181645 0.32053366
0.12434018 -0.011852611 0.32053396
0.12465317 -0.011852652 0.32053757
0.12496123 -0.011853864 0.32050636
0.12527533 -0.011853714 0.32051566
0.12552916 -0.011837794 0.32053429
0.1258315 -0.011868609 0.32053992
0.12611569 -0.011888566 0.32056233
0.12648351 -0.011916283 0.32059976
0.12677374 -0.011851127 0.3206155
0.12706159 -0.011837887 0.32055521
0.1273374 -0.011866857 0.32061508
0.12763119 -0.011852062 0.32060102
0.1279386 -0.011853602 0.32056007
0.12825134 -0.011853687 0.32056245
0.12856686 -0.011852995 0.32058775
0.12887985 -0.011853087 0.3205899
0.12915099 -0.011853966 0.320568
0.1294264 -0.011853457 0.32058731
0.12974128 -0.01185312 0.32060215
0.13005602 -0.011852379 0.32062906
0.13036487 -0.011853682 0.32059509
0.13067806 -0.011853531 0.32060441
0.13095285 -0.011853009 0.32062414
0.13122612 -0.011853119 0.32062513
0.13153844 -0.011853448 0.32062021
0.13185139 -0.011853388 0.3206268
0.13214928 -0.011868112 0.32065186
0.13246174 -0.011837363 0.32065433
0.13273057 -0.011867912 0.32066676
0.13302352 -0.011853388 0.32064492
0.13333669 -0.011853242 0.32065398
0.13364884 -0.011853015 0.32066557
0.13396104 -0.011852929 0.32067293
0.13424841 -0.011788557 0.32066688
0.13454711 -0.011852848 0.32068437
0.13482732 -0.011874544 0.32068512
0.13513073 -0.011798997 0.32069093
0.13543029 -0.011817071 0.32069275
0.13577248 -0.011868618 0.3206926
0.1237023 -0.011508608 0.32048368
0.12413234 -0.011508897 0.32048193
0.12433208 -0.011508094 0.3205089
0.12464927 -0.011507147 0.32054201
0.12496127 -0.011507294 0.32054257
0.12527196 -0.011508031 0.32052571
0.12554847 -0.011507608 0.3205426
0.12581664 -0.011508848 0.32051009
0.12685645 -0.011503447 0.32068682
0.12707932 -0.011506557 0.32059807
0.12734835 -0.011507859 0.32056373
0.1276208 -0.011508351 0.32055345
0.1279328 -0.011508498 0.32055405
0.1282472 -0.01150824 0.32056662
0.12855926 -0.011508607 0.32056072
0.12887457 -0.011508029 0.32058284
0.12910768 -0.011508515 0.32057214
0.12942018 -0.011508645 0.32057324
0.12973322 -0.011508843 0.32057232
0.13004799 -0.011508199 0.32059646
0.13036096 -0.011508244 0.32060006
0.13067475 -0.011507583 0.32062465
0.1309498 -0.011507279 0.32063803
0.13122217 -0.011507524 0.32063508
0.13153289 -0.011508413 0.32061362
0.1318454 -0.011508577 0.32061374
0.13216013 -0.011507748 0.32064334
0.1324753 -0.011506749 0.32067797
0.13274583 -0.011508067 0.32064316
0.13301915 -0.011508139 0.32064536
0.13333067 -0.011508353 0.32064396
0.13364312 -0.011508248 0.32065201
0.13395506 -0.011508191 0.32065862
0.1342698 -0.01150743 0.32068622
0.13458002 -0.011508251 0.32066679
0.13485415 -0.011507705 0.32068732
0.13512589 -0.011508057 0.32068121
0.13536081 -0.011507851 0.32069102
0.13575082 -0.011507997 0.3206929
0.13641159 -0.011508624 0.32068476
0.12377998 -0.011236725 0.32051486
0.12405712 -0.01123618 0.32053527
0.12432984 -0.011236419 0.32053229
0.12456016 -0.011237605 0.32050061
0.12503944 -0.011235331 0.3205753
0.12526596 -0.011237124 0.32052559
0.12554307 -0.011236534 0.32054731
0.12581722 -0.011236565 0.32055053
0.12613161 -0.011236249 0.32056466
0.12643948 -0.011237602 0.32052922
0.12675945 -0.011235939 0.32058334
0.12707894 -0.011234295 0.32063699
0.12734421 -0.01123647 0.32057646
0.12761949 -0.011236379 0.3205834
0.12792967 -0.011237075 0.32056746
0.12824169 -0.011237265 0.32056656
0.12856065 -0.011235536 0.32062268
0.1288718 -0.011236196 0.32060778
0.1291807 -0.011237583 0.32057136
0.12945557 -0.011237272 0.32058477
0.12973507 -0.011235677 0.32063633
0.13004476 -0.011236439 0.32061839
0.13035819 -0.011236291 0.32062751
0.13067387 -0.011235286 0.32066211
0.13098633 -0.011235308 0.32066619
0.13125651 -0.011236559 0.32063323
0.13153017 -0.011236635 0.32063514
0.13184305 -0.011236303 0.32064971
0.13215648 -0.01123619 0.32065782
0.13246897 -0.011236296 0.32065943
0.13274351 -0.011235923 0.32067463
0.1330957 -0.011235548 0.32069111
0.13332841 -0.011236347 0.32067096
0.13363986 -0.011236318 0.32067651
0.13395232 -0.011236255 0.32068312
0.13426341 -0.011236682 0.32067519
0.13445875 -0.011236228 0.32069165
0.13519979 -0.011236629 0.32069099
0.13609676 -0.011236788 0.32069987
0.12377949 -0.010965585 0.3205508
0.12405413 -0.010965544 0.32055601
0.12432657 -0.010966023 0.32054573
0.1246428 -0.010965212 0.32057434
0.125062 -0.01096772 0.32050604
0.12527162 -0.01096477 0.32059658
0.12557523 -0.01096694 0.32053661
0.12585092 -0.010966562 0.32055184
0.12613577 -0.010963841 0.32063663
0.12644275 -0.010965575 0.32058966
0.1267557 -0.010965505 0.32059628
0.12707007 -0.010965182 0.3206104
0.12738211 -0.010965466 0.3206065
0.12765205 -0.01096648 0.32058036
0.12792404 -0.010967081 0.32056639
0.12823839 -0.010966675 0.32058299
0.12855233 -0.010966555 0.32059112
0.1288653 -0.010966536 0.32059622
0.12917919 -0.010966298 0.32060781
0.12945382 -0.010966261 0.32061288
0.12972762 -0.010966197 0.32061878
0.13004097 -0.010965807 0.32063487
0.13035762 -0.010964744 0.32067099
0.13066512 -0.010966493 0.32062358
0.13097937 -0.010965783 0.32064915
0.13125472 -0.010965303 0.32066739
0.13153005 -0.010964806 0.3206861
0.13183978 -0.010965763 0.32066217
0.13215226 -0.010965813 0.3206653
0.13246526 -0.010965844 0.32066888
0.13309154 -0.01096535 0.3206926
0.13359854 -0.010965462 0.32069662
0.13387053 -0.010965537 0.32069832
0.1237747 -0.010695139 0.32055518
0.12405229 -0.010694385 0.32058141
0.12431844 -0.010696087 0.32053459
0.1246319 -0.010696061 0.32053971
0.12495191 -0.010694502 0.32059038
0.12526396 -0.010694728 0.32058793
0.12557319 -0.01069561 0.32056603
0.12584351 -0.010696773 0.32053521
0.12612163 -0.010695564 0.32057497
0.12643838 -0.010694813 0.32060161
0.12675551 -0.01069364 0.32064071
0.12706429 -0.010694742 0.32061231
0.12738007 -0.010694077 0.32063642
0.12765577 -0.010693708 0.32065117
0.12792382 -0.010695073 0.32061434
0.12823823 -0.010694861 0.32062495
0.12854984 -0.010695323 0.32061553
0.12886506 -0.010694455 0.32064569
0.12917624 -0.010695152 0.32062927
0.12945622 -0.010693493 0.32068232
0.12972374 -0.010695342 0.32063121
0.13003577 -0.010695517 0.32063031
0.13035193 -0.010694447 0.32066643
0.13066256 -0.010694975 0.32065502
0.13097689 -0.010694528 0.32067263
0.13124971 -0.010694581 0.32067481
0.13152203 -0.010695157 0.32066154
0.13183452 -0.010695213 0.32066414
0.1321466 -0.01069554 0.32065874
0.13246137 -0.010694856 0.32068336
0.13277289 -0.010695083 0.32068095
0.13304637 -0.010695039 0.32068601
0.12357298 -0.010424779 0.32055211
0.12377505 -0.010423368 0.32059658
0.12395936 -0.010426167 0.32051599
0.12435124 -0.010425918 0.32052854
0.12463272 -0.0104242 0.32058311
0.12494947 -0.010423426 0.32061028
0.12526058 -0.010423863 0.32060134
0.12557681 -0.010423021 0.32063049
0.12584846 -0.010423605 0.32061669
0.12612194 -0.010423652 0.32061893
0.12643683 -0.010423365 0.3206315
0.12675072 -0.010423061 0.32064465
0.12706417 -0.010422977 0.32065126
0.12737623 -0.010423247 0.32064736
0.12765077 -0.0104229 0.32066125
0.12792322 -0.010423406 0.32064977
0.12823299 -0.010424366 0.32062539
0.12854502 -0.010424567 0.32062352
0.12885618 -0.010425208 0.32060859
0.12913124 -0.0104249 0.32062134
0.12952617 -0.010423661 0.32066321
0.12971979 -0.010424137 0.32065165
0.13003467 -0.010423783 0.32066628
0.13034534 -0.010424474 0.32064986
0.13065869 -0.010424051 0.32066649
0.13108817 -0.010424098 0.32067072
0.13124298 -0.010424587 0.3206583
0.13151771 -0.010424362 0.32066852
0.13183065 -0.010424244 0.32067612
0.13214357 -0.010424042 0.32068622
0.13241734 -0.010423925 0.32069328
0.12357812 -0.010153205 0.3206135
0.12375866 -0.010047397 0.32053024
0.12407374 -0.010046902 0.32054883
0.12435044 -0.010046514 0.32056385
0.12462898 -0.01004535 0.32060185
0.12491155 -0.010082665 0.32057321
0.12525146 -0.010046232 0.32058352
0.12558614 -0.010083633 0.32055295
0.12587485 -0.010046919 0.32057101
0.12616837 -0.010101328 0.32057261
0.12642682 -0.010046083 0.32060272
0.12673931 -0.010046136 0.3206051
0.12705287 -0.010154927 0.32060558
0.12736273 -0.010046907 0.32059005
0.12767568 -0.010046832 0.32059616
0.12795363 -0.010045822 0.32062966
0.12820883 -0.010030827 0.32061714
0.12853715 -0.01004685 0.32060647
0.12885521 -0.010031395 0.32060841
0.12915739 -0.010062494 0.32061067
0.12947585 -0.010046967 0.32061481
0.12975322 -0.010046014 0.32064655
0.13002816 -0.0100456 0.32066226
0.13034062 -0.010045578 0.32066685
0.13065286 -0.010045613 0.32066971
0.13098134 -0.010030399 0.3206647
0.13127738 -0.010045837 0.32067093
0.13155043 -0.010046095 0.32066676
0.13182367 -0.010046147 0.32066864
0.13213691 -0.010046175 0.32067174
0.13242449 -0.01008209 0.32068422
0.13275461 -0.010067655 0.32068688
0.1330512 -0.010111107 0.32069078
0.13336702 -0.010100261 0.32069415
0.13358173 -0.010045948 0.32069662
0.13389273 -0.0099375062 0.32069466
0.1235161 -0.009723587 0.32049423
0.12375626 -0.0097225169 0.3205291
0.12403073 -0.0097224833 0.32053366
0.12445891 -0.0097232144 0.3205176
0.12466299 -0.0097212465 0.3205786
0.1249373 -0.0097212251 0.32058284
0.12524186 -0.0097232619 0.32052639
0.12555622 -0.0097228065 0.320544
0.12587576 -0.0097213741 0.32059067
0.126139 -0.0097239623 0.32051733
0.12642047 -0.0097222235 0.32057261
0.12673765 -0.0097212791 0.32060474
0.12704507 -0.0097227432 0.32056534
0.12735668 -0.0097232135 0.32055545
0.12763123 -0.0097228829 0.32056883
0.1279489 -0.009721837 0.32060397
0.1282236 -0.009721484 0.32061803
0.12853751 -0.009721214 0.32063013
0.12883429 -0.009722312 0.32060143
0.12916076 -0.0097222906 0.32060635
0.12947279 -0.009722475 0.32060498
0.13002759 -0.0097202566 0.32067794
0.13033739 -0.009721335 0.32065004
0.13056906 -0.0097219655 0.32063437
0.13100059 -0.0097216619 0.320649
0.13127348 -0.0097218864 0.32064584
0.13154791 -0.0097217644 0.32065308
0.13182046 -0.0097219609 0.32065079
0.13213338 -0.0097218091 0.3206594
0.13244727 -0.0097215213 0.32067201
0.13276067 -0.0097213183 0.32068211
0.13307311 -0.009721132 0.3206917
0.13334568 -0.009721458 0.3206856
0.13357961 -0.0097212577 0.3206946
0.13404763 -0.0097214868 0.32069391
0.12352549 -0.0095052794 0.32055628
0.12375109 -0.0095073776 0.3204971
0.12407202 -0.0095055113 0.32055676
0.12438267 -0.0095061529 0.32054186
0.12465826 -0.009505949 0.3205516
0.12493343 -0.0095054749 0.32056931
0.12525019 -0.0095047876 0.32059395
0.12555617 -0.0095064575 0.32054853
0.12586544 -0.0095074531 0.32052314
0.12618175 -0.0095068673 0.32054475
0.12645759 -0.0095064044 0.32056215
0.12673199 -0.0095061883 0.3205722
0.12701239 -0.0095048053 0.32061699
0.12735519 -0.0095070703 0.32055441
0.12766866 -0.0095070554 0.32055902
0.12798166 -0.0095071085 0.32056165
0.1282606 -0.009505826 0.3206034
0.12853329 -0.0095060263 0.32060111
0.12884535 -0.0095062815 0.32059774
0.1291579 -0.0095065534 0.32059383
0.12947546 -0.0095051741 0.32063895
0.12974842 -0.0095056836 0.32062754
0.13002156 -0.0095056426 0.3206324
0.1303364 -0.0095052402 0.32064852
0.13064562 -0.0095060347 0.32062912
0.13096043 -0.0095054638 0.32065022
0.1312578 -0.0095062619 0.32063055
0.13146701 -0.0095059276 0.32064328
0.13181947 -0.0095058493 0.32065028
0.13213199 -0.0095060542 0.3206484
0.13244441 -0.0095058717 0.320658
0.13275784 -0.0095057059 0.32066712
0.13307032 -0.0095057245 0.32067072
0.13338226 -0.0095055755 0.32067934
0.13365488 -0.0095060673 0.32066837
0.13392965 -0.0095054023 0.32069176
0.13416368 -0.0095054973 0.32069209
0.13455364 -0.0095055085 0.32069695
0.13482602 -0.0095057534 0.32069334
0.13521603 -0.0095058884 0.32069457
0.13537267 -0.0095058391 0.32069811
0.12351719 -0.0091823461 0.32051483
0.12375075 -0.009182604 0.32051039
0.1240663 -0.0091820657 0.3205308
0.1243628 -0.009166643 0.32053429
0.12463395 -0.0091970088 0.32055339
0.12490755 -0.0091674188 0.32051891
0.12525761 -0.0091667324 0.32054406
0.12555584 -0.009181831 0.32055837
0.1258693 -0.009181764 0.32056472
0.1261774 -0.0091830427 0.32053107
0.12645118 -0.0091831721 0.32053101
0.12672724 -0.009182686 0.32054928
0.12704302 -0.0091820527 0.32057241
0.12735441 -0.0091825742 0.32056123
0.12766925 -0.0091820937 0.32057989
0.12796269 -0.0091673713 0.32056269
0.1282327 -0.0091978079 0.32057953
0.12852788 -0.0091828387 0.32056966
0.12884453 -0.0091817351 0.3206068
0.12915823 -0.0091816755 0.32061291
0.12946986 -0.0091821635 0.32060277
0.12976556 -0.0091669653 0.32059976
0.13003366 -0.0091976877 0.32060799
0.13033275 -0.0091812322 0.32064232
0.13064322 -0.0091820732 0.32062173
0.13095528 -0.0091824094 0.32061607
0.13126819 -0.0091821393 0.3206284
0.13156605 -0.0091662705 0.32064539
0.13183291 -0.0091975583 0.32063675
0.13212885 -0.0091820844 0.32064196
0.13244171 -0.009145896 0.32065144
0.13273029 -0.0092174038 0.32067093
0.13306767 -0.0091817612 0.32066455
0.13337943 -0.0091818785 0.32066539
0.13365281 -0.0091818748 0.32066929
0.13392635 -0.0091817733 0.32067609
0.13423859 -0.0091818403 0.32067841
0.13453376 -0.0091662323 0.32068774
0.13497837 -0.0090736868 0.32069233
0.13515784 -0.0091666328 0.32068449
0.13544589 -0.0090744924 0.32067502
0.13564236 -0.0090738796 0.32069594
0.13607039 -0.0090741068 0.32069522
0.12351853 -0.0088545773 0.32053953
0.12373982 -0.0088573564 0.32046032
0.12409794 -0.0088561578 0.320501
0.12448986 -0.0088560358 0.32051024
0.12465156 -0.0088550709 0.32054117
0.12491808 -0.0088569084 0.32049051
0.12523714 -0.0088555403 0.32053566
0.12555158 -0.0088554015 0.3205443
0.12586039 -0.0088565759 0.32051387
0.12617058 -0.0088572623 0.32049799
0.12644903 -0.0088561242 0.32053572
0.12664005 -0.0088573657 0.32050163
0.12703387 -0.0088569019 0.32052106
0.12734735 -0.0088568646 0.32052666
0.12765981 -0.0088568935 0.32053027
0.12855928 -0.0088575399 0.32052407
0.12884118 -0.0088550979 0.32060051
0.12915605 -0.0088547571 0.32061511
0.12946443 -0.0088561168 0.3205792
0.12977651 -0.0088565005 0.32057232
0.13005324 -0.0088556707 0.32060087
0.13032717 -0.008855504 0.32060978
0.13063782 -0.0088561736 0.32059437
0.13095178 -0.0088560861 0.32060149
0.13126649 -0.0088552553 0.32063061
0.13157761 -0.0088557405 0.32062072
0.13184988 -0.0088562081 0.32061076
0.13212422 -0.008856277 0.32061267
0.13243759 -0.0088559184 0.32062775
0.13275328 -0.0088550393 0.32065842
0.13306564 -0.0088546462 0.32067448
0.13337816 -0.0088547952 0.3206746
0.13392323 -0.008855179 0.32067102
0.13423432 -0.0088555785 0.32066363
0.13454677 -0.0088555068 0.32067025
0.13481946 -0.0088557051 0.32066831
0.13524976 -0.0088557126 0.32067424
0.13544469 -0.0088554835 0.32068384
0.13571805 -0.0088551762 0.32069689
0.13602965 -0.0088555589 0.32068998
0.13626362 -0.0088555608 0.32069331
0.1235473 -0.0086214524 0.32049665
0.12362158 -0.0086224079 0.32046941
0.12408837 -0.008622977 0.3204594
0.12434905 -0.0086231306 0.32045865
0.12464885 -0.0086203031 0.3205469
0.12491719 -0.0086215371 0.32051429
0.12523067 -0.008621553 0.3205184
0.12554318 -0.0086216703 0.32051951
0.12585808 -0.0086214673 0.32053012
0.12617248 -0.0086212484 0.32054123
0.12648174 -0.0086222244 0.32051682
0.12675588 -0.0086221443 0.32052323
0.12703717 -0.0086204764 0.32057685
0.12735015 -0.0086204931 0.32058096
0.12765709 -0.0086220754 0.32053852
0.12796873 -0.0086226473 0.32052612
0.12824813 -0.0086212596 0.32057139
0.12852179 -0.0086213034 0.3205741
0.12883291 -0.0086218417 0.32056269
0.12915236 -0.0086200405 0.32062083
0.12945852 -0.0086224135 0.32055491
0.12977606 -0.0086209644 0.32060257
0.1300474 -0.0086216601 0.32058594
0.13032207 -0.0086211702 0.3206045
0.13063417 -0.0086216405 0.32059509
0.1309471 -0.0086215064 0.32060373
0.13125868 -0.0086218426 0.32059833
0.13157532 -0.0086207297 0.32063594
0.13184528 -0.0086217904 0.32060847
0.13211861 -0.008621946 0.32060784
0.13243526 -0.0086207837 0.320647
0.13274594 -0.0086214906 0.32063061
0.13305931 -0.008621186 0.3206442
0.13337269 -0.0086208656 0.32065833
0.13364555 -0.0086210668 0.32065639
0.13391903 -0.0086205322 0.32067627
0.134231 -0.0086205313 0.32068086
0.13454312 -0.0086210696 0.32066947
0.1348546 -0.0086210696 0.32067406
0.13516709 -0.0086211693 0.32067567
0.13540095 -0.008620752 0.32069147
0.13579194 -0.0086208479 0.32069439
0.13602501 -0.0086211376 0.3206892
0.13633701 -0.0086212549 0.3206903
0.13664754 -0.0086214393 0.32068938
0.12353659 -0.0082712509 0.32046527
0.12377258 -0.0082944278 0.32047585
0.12404789 -0.0082707852 0.32048684
0.1243632 -0.0082702599 0.3205072
0.12467549 -0.0082704928 0.32050508
0.12495144 -0.0082701305 0.32051998
0.12522535 -0.0082701929 0.32052231
0.12554088 -0.008269567 0.32054564
0.12585156 -0.0082702525 0.32053
0.12616505 -0.0082703345 0.32053238
0.12646432 -0.0082528768 0.32055876
0.12673379 -0.0082861818 0.32056689
0.12702855 -0.0082698045 0.3205612
0.12734503 -0.0082689589 0.32059106
0.12765267 -0.0082704369 0.3205519
0.12796406 -0.0082710059 0.32053974
0.12828213 -0.0082696639 0.32058442
0.12855192 -0.0082707452 0.32055643
0.12882665 -0.0082707452 0.32056057
0.12913987 -0.0082707256 0.32056594
0.12945354 -0.008270612 0.32057405
0.12976931 -0.0082699684 0.32059792
0.13006519 -0.008253199 0.32060394
0.13033222 -0.0082869409 0.32059893
0.13062873 -0.0082699684 0.32061094
0.13094196 -0.0082699992 0.32061484
0.13125306 -0.0082704499 0.32060617
0.13156606 -0.00827053 0.32060856
0.13188013 -0.0082700644 0.32062715
0.13215522 -0.0082695847 0.32064554
0.13242829 -0.0082698828 0.32064083
0.13274258 -0.0082693575 0.32066119
0.13305347 -0.0082698837 0.32065031
0.13336611 -0.008269635 0.32066241
0.13367788 -0.0082698762 0.32066002
0.13395111 -0.0082698343 0.32066539
0.13422455 -0.0082697617 0.32067168
0.13453653 -0.0082698176 0.32067481
0.134849 -0.0082697794 0.32068065
0.13516335 -0.0083867414 0.32068634
0.1354606 -0.0082697533 0.32069072
0.13574548 -0.0082308752 0.3206915
0.13602132 -0.0083869388 0.32069337
0.1362544 -0.008387316 0.32068571
0.12352751 -0.00792115 0.3204459
0.12372532 -0.0079205986 0.32046539
0.12403643 -0.0079210624 0.32045645
0.12435083 -0.007920837 0.32046807
0.12467037 -0.0079193991 0.32051572
0.12498619 -0.0079188542 0.32053685
0.12526 -0.0079189008 0.32053974
0.12553647 -0.0079183709 0.32055983
0.12584996 -0.0079184324 0.32056293
0.12616201 -0.0079187108 0.32055953
0.12647682 -0.0079182163 0.32057914
0.12674789 -0.0079190778 0.32055786
0.12702066 -0.0079195015 0.32054958
0.12733273 -0.0079198815 0.32054317
0.12764385 -0.00792043 0.32053179
0.12795825 -0.0079202047 0.32054338
0.12827541 -0.0079191383 0.32058001
0.12854971 -0.0079190889 0.32058573
0.128821 -0.0079196477 0.32057345
0.12913357 -0.0079199439 0.32056955
0.12945023 -0.0079189437 0.32060415
0.12976369 -0.0079189371 0.3206093
0.13007207 -0.0079203118 0.32057339
0.13034771 -0.0079197744 0.3205936
0.13062268 -0.0079192221 0.32061431
0.13093385 -0.0079198722 0.32059991
0.13124727 -0.0079197306 0.32060903
0.13156062 -0.0079193357 0.32062563
0.13187318 -0.0079196319 0.32062176
0.13214745 -0.0079195173 0.32062948
0.13242063 -0.0079196878 0.32062867
0.13273314 -0.0079197986 0.32063031
0.13304651 -0.0079195052 0.3206439
0.1333589 -0.0079192296 0.32065699
0.13367048 -0.0079196095 0.32065058
0.13394326 -0.0079195499 0.32065663
0.13421783 -0.0079193451 0.32066703
0.13452978 -0.0079192705 0.32067412
0.13484085 -0.0079195667 0.32067022
0.13515332 -0.0079196263 0.32067329
0.13546579 -0.007919604 0.32067892
0.13573968 -0.0079193814 0.3206898
0.12359694 -0.0076869912 0.3204264
0.12383289 -0.0076869046 0.32043272
0.1240298 -0.0076867091 0.32044169
0.12434377 -0.0076866895 0.32044733
0.12466522 -0.0076849693 0.32050347
0.12497446 -0.007685909 0.32048053
0.12524469 -0.0076867901 0.32045874
0.12552667 -0.0076850615 0.32051453
0.125835 -0.0076863212 0.32048211
0.1261559 -0.0076843984 0.32054424
0.12647076 -0.007684092 0.32055837
0.12677583 -0.0076861097 0.32050341
0.12704904 -0.0076863957 0.3204993
0.12733214 -0.0076839663 0.32057589
0.12763774 -0.0076861344 0.32051647
0.12795724 -0.0076845326 0.32056913
0.1282739 -0.0076835016 0.32060477
0.12858184 -0.0076851151 0.32056186
0.12885332 -0.0076857097 0.32054856
0.12912841 -0.007685564 0.32055727
0.12944645 -0.0076841125 0.3206054
0.12975577 -0.0076853223 0.32057446
0.13006873 -0.0076853018 0.3205801
0.13038121 -0.0076853489 0.3205837
0.1306562 -0.0076848436 0.3206031
0.13093323 -0.0076839123 0.32063517
0.13124393 -0.007684717 0.32061625
0.13155639 -0.0076846802 0.32062235
0.13186707 -0.0076854005 0.32060593
0.1321805 -0.0076852962 0.32061407
0.13245356 -0.0076856166 0.32060894
0.13272971 -0.007684533 0.32064548
0.13304085 -0.0076850858 0.3206341
0.13335374 -0.0076848464 0.3206462
0.13366845 -0.0076839677 0.32067731
0.13397728 -0.0076852273 0.32064489
0.13425052 -0.0076849745 0.32065675
0.13452375 -0.0076853056 0.32065129
0.13483888 -0.00768414 0.32069093
0.13514854 -0.0076848608 0.32067451
0.13546012 -0.0076852283 0.32066861
0.13569501 -0.0076849223 0.32068145
0.1360469 -0.007684669 0.32069457
0.13631895 -0.0076849489 0.32069063
0.13662995 -0.0076850974 0.3206912
0.13694195 -0.0076852115 0.32069281
0.12359289 -0.0074474523 0.32043037
0.12376499 -0.0072661573 0.3204436
0.12403145 -0.0073243948 0.32050934
0.12434796 -0.0073236818 0.32053551
0.12465529 -0.0073249727 0.32050207
0.12496731 -0.0072848662 0.32050389
0.12527966 -0.0073256013 0.32049328
0.12555289 -0.0073258858 0.32048914
0.12582859 -0.0073255748 0.32050273
0.12614322 -0.0073252404 0.3205176
0.12646157 -0.0073239808 0.32055998
0.12676874 -0.0073255403 0.32051855
0.12706824 -0.0073074088 0.32054991
0.12733771 -0.0073419185 0.32055292
0.12763339 -0.0073246579 0.32055837
0.12794964 -0.0073239207 0.32058525
0.12826517 -0.0073232837 0.32060912
0.12857237 -0.0073249866 0.32056347
0.12884752 -0.0073246933 0.32057652
0.12912217 -0.0073244711 0.3205874
0.12945634 -0.0072854422 0.32055745
0.12974541 -0.0073254877 0.3205671
0.13005978 -0.0073251203 0.32058296
0.13037133 -0.0073254593 0.3205778
0.13064615 -0.0073251934 0.32059002
0.13092113 -0.0073249359 0.320602
0.13123311 -0.0073250057 0.32060483
0.13154784 -0.0073242425 0.32063246
0.13186015 -0.0073245391 0.32062852
0.13217132 -0.0073252073 0.32061365
0.13246664 -0.0073078638 0.32062146
0.13273713 -0.007341946 0.32063738
0.13303258 -0.0073247538 0.32064071
0.13334455 -0.0073247817 0.3206448
0.13365701 -0.007324717 0.32065162
0.13396943 -0.0073245596 0.32066125
0.13425446 -0.0072841453 0.32067141
0.13455486 -0.0073245037 0.32067215
0.13482788 -0.007324703 0.32067052
0.13512425 -0.0073417341 0.32068136
0.13545589 -0.0074450206 0.32069105
0.13574819 -0.0073418389 0.32068816
0.13608223 -0.0073420973 0.32068571
0.1363516 -0.0074455496 0.32068959
0.13659582 -0.0073651746 0.32069114
0.13705289 -0.0074456455 0.3206979
0.12358952 -0.0069636991 0.32049698
0.12370272 -0.0069644274 0.32047713
0.12406197 -0.0069631352 0.320521
0.12433627 -0.0069631459 0.32052487
0.1246544 -0.0069619911 0.32056403
0.12496226 -0.0069633289 0.3205291
0.12527104 -0.0069643632 0.32050318
0.12555234 -0.006962691 0.32055712
0.12581812 -0.0069648521 0.32049713
0.12613204 -0.0069646742 0.32050723
0.12644921 -0.0069636879 0.32054135
0.1267613 -0.0069641159 0.32053345
0.12707427 -0.0069641066 0.32053858
0.12735228 -0.0069630905 0.32057297
0.12762687 -0.0069629108 0.32058254
0.12794262 -0.0069622113 0.32060814
0.12825422 -0.0069626393 0.32060027
0.12856765 -0.0069625117 0.32060885
0.12883766 -0.006963769 0.32057571
0.12911747 -0.006962108 0.3206293
0.1294249 -0.006963681 0.3205874
0.12973654 -0.0069642612 0.320575
0.13005181 -0.0069635441 0.32060111
0.13036612 -0.0069630123 0.32062173
0.13067496 -0.0069643166 0.32058781
0.1309502 -0.0069641136 0.32059804
0.1312256 -0.0069633052 0.32062626
0.13153948 -0.0069629932 0.32064039
0.13184965 -0.0069636903 0.32062447
0.13216443 -0.0069630239 0.32064909
0.13247655 -0.0069635366 0.32063866
0.13274924 -0.0069637275 0.32063723
0.13302475 -0.0069627278 0.32067111
0.13333538 -0.0069632735 0.3206597
0.13364829 -0.0069630789 0.32067031
0.13396074 -0.0069630356 0.32067642
0.13427185 -0.006963497 0.32066751
0.13454503 -0.0069636325 0.32066771
0.13481832 -0.0069635813 0.32067341
0.1352092 -0.0069633499 0.32068628
0.13544227 -0.0069636628 0.32068062
0.13575515 -0.0069633666 0.32069421
0.13618419 -0.0069635976 0.32069397
0.13626213 -0.006963477 0.32069874
0.13793528 -0.0069645951 0.32069138
0.13805228 -0.0069646165 0.32069254
0.12358309 -0.0067224172 0.32050422
0.12377253 -0.0067240009 0.32046014
0.12404438 -0.0067247003 0.32044348
0.12433083 -0.0067218412 0.32053262
0.12464575 -0.006721627 0.32054374
0.12495118 -0.0067232139 0.3205013
0.12526838 -0.0067223269 0.32053244
0.12557629 -0.0067238305 0.32049251
0.12585242 -0.006723199 0.32051542
0.12612845 -0.0067228656 0.32052949
0.12644473 -0.0067221797 0.32055461
0.12676097 -0.00672141 0.32058224
0.12707257 -0.0067218356 0.32057434
0.12738553 -0.0067218579 0.32057846
0.12765303 -0.0067236512 0.32052928
0.12792841 -0.0067232838 0.32054436
0.12824279 -0.0067230025 0.32055748
0.12855899 -0.0067221313 0.32058811
0.12886921 -0.0067229611 0.3205682
0.12918264 -0.0067228479 0.32057631
0.12941402 -0.0067242533 0.3205381
0.12976871 -0.0067233052 0.32057163
0.13004175 -0.006723505 0.32056984
0.1303598 -0.0067220274 0.32061848
0.13066903 -0.0067229918 0.32059455
0.1309834 -0.0067226263 0.32061017
0.1312564 -0.0067227357 0.32061106
0.13153358 -0.0067216954 0.32064611
0.13184465 -0.0067221206 0.32063821
0.13215673 -0.0067224456 0.32063329
0.13247018 -0.0067223995 0.32063943
0.13301754 -0.0067220917 0.32065687
0.13332906 -0.0067222817 0.32065594
0.13364103 -0.0067222691 0.32066104
0.13395388 -0.0067219366 0.32067564
0.13426596 -0.006722278 0.32067025
0.13457754 -0.0067226528 0.32066384
0.13485117 -0.0067220442 0.32068607
0.13512346 -0.0067225466 0.32067525
0.13531981 -0.0067221266 0.32069069
0.13586593 -0.0067226943 0.32068214
0.13598281 -0.0067223785 0.32069328
0.13625579 -0.006722359 0.32069799
0.1241987 -0.0064822752 0.32048571
0.12435354 -0.0064828857 0.32046995
0.12463018 -0.0064823143 0.32049099
0.12494746 -0.0064816764 0.32051462
0.12525713 -0.0064824019 0.32049772
0.12557855 -0.0064805015 0.32055888
0.12588403 -0.0064822887 0.32051045
0.12616724 -0.0064802244 0.32057586
0.12643997 -0.006480528 0.32057095
0.12675436 -0.0064802105 0.32058504
0.1270608 -0.0064818962 0.32053959
0.1273766 -0.0064812582 0.32056326
0.1276532 -0.006480631 0.320586
0.12792644 -0.006480963 0.32058018
0.12823433 -0.0064823288 0.32054424
0.12855285 -0.0064808326 0.32059342
0.12886074 -0.0064823166 0.32055396
0.12917328 -0.0064824866 0.3205536
0.1294464 -0.006482976 0.32054314
0.12972176 -0.0064826296 0.32055753
0.13003516 -0.0064823618 0.32057014
0.13034627 -0.0064828526 0.32056025
0.13066292 -0.0064817425 0.32059786
0.13097627 -0.0064813904 0.32061297
0.13124856 -0.0064818859 0.32060233
0.13152191 -0.0064820722 0.3206009
0.13183944 -0.0064805415 0.32065102
0.1321497 -0.0064815036 0.32062712
0.13246126 -0.0064818589 0.32062119
0.13277467 -0.0064816256 0.32063282
0.13304771 -0.0064818733 0.32062954
0.13332064 -0.0064817509 0.32063723
0.13363269 -0.0064819548 0.32063586
0.13394603 -0.0064815185 0.32065344
0.13425756 -0.0064817397 0.32065156
0.13457051 -0.0064816573 0.32065865
0.13488193 -0.0064815241 0.32066724
0.1351555 -0.0064818677 0.32066113
0.13542843 -0.0064817341 0.32066917
0.13574222 -0.0064810789 0.32069328
0.1359372 -0.006481078 0.3206962
0.13636427 -0.0064814696 0.32069096
0.13667624 -0.0064814547 0.32069606
0.13687123 -0.0064815045 0.32069749
0.1235604 -0.0062374976 0.32044244
0.12376253 -0.0062362836 0.32048142
0.12404547 -0.0062344759 0.32053921
0.12431522 -0.00623543 0.32051486
0.12458094 -0.0062373937 0.32046056
0.12520815 -0.0062371814 0.32047611
0.12557043 -0.0062348917 0.32054931
0.12588252 -0.0062352959 0.32054192
0.12615436 -0.0062359869 0.3205255
0.12642719 -0.0062360419 0.32052785
0.12673971 -0.0062362272 0.32052696
0.12705278 -0.0062365141 0.32052308
0.12744007 -0.0062376219 0.32049593
0.12767735 -0.0062369863 0.32051829
0.12795614 -0.006235762 0.3205587
0.12823179 -0.0062352899 0.32057676
0.12854433 -0.0062354757 0.32057583
0.1288527 -0.0062368233 0.32054043
0.12916476 -0.0062371772 0.32053453
0.12944397 -0.0062357341 0.32058144
0.12972149 -0.0062347227 0.32061553
0.1300289 -0.0062362556 0.32057461
0.13034187 -0.0062362389 0.32057971
0.13065581 -0.0062361043 0.32058832
0.13096824 -0.0062359869 0.32059643
0.13127986 -0.0062364582 0.32058701
0.13155274 -0.0062367506 0.32058239
0.1318287 -0.0062361429 0.32060444
0.1321411 -0.0062359245 0.32061556
0.13245505 -0.0062358407 0.32062268
0.1327675 -0.0062357737 0.32062927
0.13307863 -0.0062363632 0.32061636
0.13335474 -0.0062351325 0.32065693
0.13362683 -0.0062355082 0.3206498
0.13393705 -0.0062363334 0.32062986
0.13421278 -0.0062354743 0.32065943
0.13464171 -0.0062354207 0.32066736
0.13487439 -0.0062360982 0.32065067
0.13514942 -0.0062357388 0.32066539
0.13542172 -0.0062356982 0.3206706
0.13565671 -0.0062357197 0.32067344
0.13596958 -0.0062353997 0.32068753
0.13635811 -0.0062356652 0.32068539
0.13663064 -0.0062357988 0.32068542
0.13701926 -0.0062357946 0.32069132
0.13744763 -0.0062360102 0.32069123
0.1235562 -0.0058572064 0.32047629
0.12373247 -0.0058759684 0.32045776
0.12409244 -0.0059327944 0.32049081
0.12434042 -0.0058570839 0.3204914
0.12462091 -0.0058557247 0.32053587
0.12492709 -0.0058573326 0.32049263
0.12523988 -0.0058575422 0.32049102
0.12554985 -0.005858426 0.32046935
0.12586612 -0.0058576753 0.3204962
0.12614785 -0.0058558001 0.32055596
0.12641969 -0.0058564241 0.32054144
0.12673196 -0.0058566425 0.32053956
0.12704638 -0.0058564064 0.32055116
0.12735865 -0.0058565913 0.32055026
0.12767392 -0.0058559836 0.32057285
0.12796514 -0.0058392705 0.32053742
0.12823552 -0.0058751563 0.32054785
0.12853234 -0.0058567696 0.32056215
0.12884398 -0.0058573671 0.32054898
0.12915602 -0.0058576274 0.32054585
0.12947388 -0.0058563808 0.32058746
0.12974612 -0.0058566988 0.320582
0.1300202 -0.0058567706 0.32058391
0.13033152 -0.0058571151 0.32057825
0.13064562 -0.0058567529 0.3205936
0.13095808 -0.0058566928 0.32059997
0.13127127 -0.005856608 0.3206071
0.13156797 -0.00583841 0.32061574
0.1318364 -0.0058744987 0.32062012
0.13213195 -0.0058566104 0.32061958
0.13244581 -0.0058562895 0.32063371
0.13275668 -0.0058568111 0.32062277
0.13307141 -0.0058559095 0.32065415
0.13336517 -0.0058382526 0.3206467
0.13363399 -0.0058745923 0.32064366
0.13392894 -0.0058562905 0.32065541
0.13424179 -0.005855978 0.32066926
0.13455294 -0.0058565582 0.32065663
0.13486536 -0.0058563636 0.32066694
0.1351783 -0.0058562621 0.32067457
0.13545114 -0.0058563729 0.32067525
0.13572428 -0.0058563915 0.32067874
0.13603604 -0.0058565079 0.32067981
0.13632263 -0.005898634 0.32068393
0.1373561 -0.0057303431 0.32069314
0.12353873 -0.0054793395 0.32042205
0.12381835 -0.0054781362 0.32046181
0.12404952 -0.0054787789 0.32044607
0.1243621 -0.0054791654 0.32043919
0.12463967 -0.0054783211 0.32046828
0.12491946 -0.005477129 0.32050768
0.12526569 -0.0054785986 0.32046914
0.12554358 -0.0054777488 0.32049841
0.12581988 -0.0054771355 0.32052061
0.1261677 -0.0054783863 0.32048857
0.12644279 -0.0054781991 0.32049814
0.12672219 -0.0054768054 0.32054353
0.12703747 -0.0054761805 0.32056665
0.12734956 -0.0054765325 0.32056075
0.12766394 -0.0054762783 0.32057285
0.1279714 -0.0054779276 0.32052845
0.12825258 -0.0054758317 0.3205947
0.12852488 -0.0054763625 0.3205829
0.12883233 -0.0054779607 0.32053998
0.12915038 -0.0054765283 0.3205871
0.12946153 -0.0054771667 0.32057273
0.12977731 -0.0054764915 0.32059735
0.13004757 -0.0054774829 0.32057187
0.13032565 -0.005476105 0.32061675
0.13063721 -0.0054764408 0.32061136
0.13094743 -0.0054772813 0.32059094
0.13125947 -0.0054775155 0.32058856
0.1315607 -0.0054772482 0.32060087
0.13184793 -0.0054770238 0.32061169
0.13212305 -0.00547637 0.32063508
0.13243467 -0.0054768743 0.32062468
0.1327458 -0.0054774787 0.32061124
0.13305911 -0.0054768873 0.32063335
0.13337064 -0.0054771043 0.32063144
0.1336818 -0.00547776 0.32061654
0.1339588 -0.0054761185 0.32066926
0.13423046 -0.0054767677 0.32065398
0.134542 -0.0054770019 0.32065156
0.13485533 -0.0054765283 0.32067016
0.13516685 -0.0054767458 0.32066822
0.13547978 -0.0054765423 0.32067886
0.13575462 -0.0054760631 0.32069707
0.13602576 -0.0054766615 0.32068324
0.13633679 -0.005476879 0.32068133
0.13653074 -0.0054767909 0.32068676
0.12378543 -0.0052233445 0.32055175
0.12404645 -0.0052263616 0.32046607
0.12436509 -0.0052252309 0.32050419
0.12464046 -0.0052248463 0.3205196
0.12491679 -0.0052243895 0.32053715
0.12511043 -0.0052249422 0.32052356
0.12553813 -0.0052256994 0.32050732
0.12584925 -0.0052262694 0.32049492
0.12617111 -0.0052241627 0.32056206
0.12647994 -0.0052253734 0.32053065
0.12675186 -0.00522578 0.32052252
0.12702183 -0.0052269059 0.32049301
0.12734318 -0.005224782 0.32056069
0.12765291 -0.0052256892 0.32053828
0.12796865 -0.0052248789 0.32056689
0.12827936 -0.0052257357 0.32054597
0.12855554 -0.0052252505 0.32056436
0.12883011 -0.0052249953 0.32057592
0.12913983 -0.0052258521 0.320555
0.12945333 -0.0052259848 0.32055563
0.12976992 -0.0052246526 0.32059973
0.13004331 -0.0052249641 0.32059446
0.13031735 -0.0052246014 0.32060915
0.13063079 -0.0052244989 0.32061675
0.13094327 -0.0052245473 0.32061985
0.13125445 -0.0052252691 0.32060295
0.13156781 -0.0052248626 0.32061952
0.131879 -0.0052256691 0.32060012
0.13215323 -0.0052253804 0.32061267
0.13242686 -0.0052252989 0.32061905
0.13274024 -0.0052250279 0.32063168
0.13305134 -0.0052254801 0.32062274
0.13336332 -0.0052254945 0.32062683
0.13367623 -0.0052253241 0.32063645
0.13395025 -0.00522485 0.32065448
0.13422357 -0.0052249534 0.32065535
0.13453692 -0.0052245301 0.32067245
0.13473323 -0.0052239373 0.3206929
0.13508426 -0.0052241264 0.32069236
0.13547289 -0.0052247089 0.32068074
0.13578396 -0.0052250265 0.32067582
0.13605681 -0.0052251983 0.32067469
0.13632992 -0.0052250773 0.32068223
0.13664044 -0.005225277 0.3206808
0.13695194 -0.0052253758 0.32068241
0.13718641 -0.0052253613 0.32068622
0.12372345 -0.0049833222 0.32043675
0.12403831 -0.0049829492 0.32045236
0.12435975 -0.004981129 0.32051101
0.12466899 -0.0049820864 0.32048708
0.12493625 -0.0049835932 0.32044625
0.12552439 -0.0049837013 0.32045159
0.12584716 -0.0049813581 0.32052574
0.12615693 -0.0049823495 0.32050082
0.12647364 -0.0049814377 0.32053247
0.12674867 -0.0049810652 0.32054749
0.1270197 -0.0049818931 0.3205269
0.12733555 -0.0049813855 0.32054648
0.12764433 -0.0049825115 0.32051757
0.12796474 -0.0049805897 0.32057923
0.12827171 -0.0049822712 0.32053378
0.1285461 -0.004982016 0.32054535
0.12882753 -0.0049801497 0.32060474
0.12914047 -0.0049800635 0.32061183
0.12952505 -0.0049821446 0.32055569
0.12976003 -0.0049821134 0.32056001
0.13007386 -0.0049816901 0.32057711
0.13034718 -0.004981732 0.3205798
0.13062453 -0.0049807471 0.32061306
0.13093702 -0.0049808458 0.32061464
0.13124633 -0.004981955 0.32058623
0.13155924 -0.0049817339 0.32059732
0.13187358 -0.0049813273 0.32061395
0.1321476 -0.0049814256 0.32061496
0.13242008 -0.0049814787 0.32061735
0.13273263 -0.0049817632 0.32061344
0.13304463 -0.0049818279 0.32061607
0.13335618 -0.0049821627 0.32061064
0.13366996 -0.0049814526 0.32063621
0.13398153 -0.0049818209 0.32062984
0.13425599 -0.0049811667 0.3206532
0.1345311 -0.0049804905 0.32067725
0.13484219 -0.0049809259 0.32066885
0.13515291 -0.0049817655 0.3206484
0.13546526 -0.0049814098 0.32066351
0.13577825 -0.004981407 0.3206681
0.13605054 -0.0049813762 0.32067299
0.13632366 -0.0049813059 0.32067901
0.13663411 -0.0049812361 0.32068557
0.13686812 -0.0049813227 0.3206864
0.13718024 -0.0049818428 0.32067549
0.13807505 -0.0049815085 0.32069838
0.12346989 -0.0046184929 0.32051545
0.12372817 -0.0046412693 0.32051528
0.12403694 -0.0046422696 0.32049009
0.12434878 -0.0046426812 0.32048246
0.12465966 -0.0046432437 0.32047027
0.12495743 -0.0046267705 0.32048351
0.12523112 -0.0046580681 0.32051864
0.12552297 -0.0046428489 0.32049456
0.12584089 -0.0046418202 0.3205297
0.12615855 -0.0046407753 0.32056534
0.12646805 -0.0046417504 0.3205409
0.12674768 -0.004640298 0.32058811
0.1270165 -0.0046417103 0.32055008
0.12733036 -0.0046413979 0.32056397
0.12764196 -0.0046418593 0.32055479
0.1279552 -0.0046418579 0.32055941
0.12826774 -0.004642101 0.32055676
0.12856349 -0.0046584853 0.32055479
0.12883647 -0.0046247239 0.32060075
0.12913235 -0.0046410491 0.32060054
0.12944281 -0.0046419068 0.32057968
0.12975878 -0.0046409965 0.32061127
0.13006847 -0.0046041231 0.32059014
0.13037199 -0.0046196738 0.32058105
0.1306711 -0.0046646469 0.32059464
0.13092938 -0.0046417364 0.32060638
0.13124232 -0.0046416591 0.32061324
0.13155526 -0.0046415986 0.32061958
0.13186726 -0.0046416647 0.32062218
0.13218026 -0.0046417387 0.3206245
0.13245453 -0.0046416223 0.32063201
0.13272864 -0.0046415306 0.32063869
0.1330401 -0.0046415282 0.32064328
0.13335258 -0.0046415273 0.3206479
0.13366525 -0.0046413327 0.32065824
0.1339768 -0.0046416083 0.32065457
0.13425061 -0.0046413424 0.32066643
0.1345014 -0.0047093639 0.32066721
0.13482021 -0.0046248576 0.32068402
0.13517375 -0.0046033775 0.32068676
0.13546014 -0.004641572 0.32067725
0.13565466 -0.0045278952 0.32069412
0.13602641 -0.0046982877 0.32068217
0.13631988 -0.0047546905 0.32069236
0.13655388 -0.0047547771 0.32069319
0.12344566 -0.0043020318 0.32050401
0.12372015 -0.0043021436 0.32050472
0.12402984 -0.00430285 0.3204883
0.1243447 -0.0043024626 0.32050443
0.12465304 -0.0043037077 0.320472
0.12497772 -0.0043010474 0.32055569
0.12525494 -0.0043002102 0.32058457
0.12552291 -0.0043018763 0.32053909
0.12582889 -0.0043036104 0.32049215
0.12614888 -0.0043019596 0.32054579
0.1264171 -0.0043033841 0.32050747
0.12676834 -0.0043037273 0.32050246
0.12704371 -0.004303372 0.32051703
0.12732324 -0.0043018954 0.32056493
0.12763348 -0.0043028211 0.32054204
0.12795064 -0.0043017259 0.32057914
0.12826779 -0.0043007154 0.32061377
0.12857935 -0.0043009678 0.32061088
0.12885594 -0.0043002255 0.32063696
0.1291278 -0.004300971 0.32061881
0.12943575 -0.0043025706 0.32057589
0.12975056 -0.0043020481 0.32059598
0.13006258 -0.0043022162 0.32059559
0.13037595 -0.0043018791 0.3206102
0.13065083 -0.0043015918 0.32062274
0.13092156 -0.0043024216 0.32060212
0.13123457 -0.0043025892 0.3206017
0.13154937 -0.0043020165 0.32062334
0.13186277 -0.0043017804 0.3206349
0.13217433 -0.0043020663 0.32063103
0.13244571 -0.0043029129 0.3206099
0.13276079 -0.0043021771 0.3206363
0.13303514 -0.0043017156 0.32065403
0.13334663 -0.0043017822 0.32065663
0.13361996 -0.0043018428 0.32065883
0.13405047 -0.004301474 0.32067612
0.13420632 -0.0043010269 0.32069165
0.13455708 -0.0043014768 0.32068345
0.13482901 -0.0043018684 0.32067585
0.13514057 -0.0043021538 0.32067192
0.13545343 -0.0043018507 0.32068551
0.13576585 -0.0043016477 0.32069612
0.1360774 -0.0043019503 0.3206917
0.13631049 -0.0043022404 0.32068652
0.13658309 -0.0043021156 0.32069421
0.12348273 -0.0040754667 0.3205187
0.1237578 -0.0040752022 0.32053059
0.12403066 -0.0040754038 0.32052863
0.1243418 -0.0040760105 0.32051525
0.12465572 -0.0040758424 0.32052484
0.1249622 -0.004077543 0.32047892
0.12527657 -0.0040772404 0.32049251
0.12555778 -0.0040757414 0.32054111
0.12582925 -0.0040762685 0.32052946
0.12613806 -0.0040774308 0.32049957
0.12653327 -0.0040765847 0.32053047
0.12676822 -0.0040765051 0.32053632
0.12704809 -0.0040749949 0.32058522
0.12731993 -0.0040756846 0.32056874
0.12762873 -0.0040768133 0.32053983
0.12794214 -0.004076662 0.32054892
0.12825423 -0.0040770834 0.32054102
0.12856816 -0.0040768646 0.32055217
0.12884608 -0.0040755789 0.3205944
0.12911978 -0.0040757749 0.32059261
0.12943049 -0.0040766173 0.3205722
0.1297439 -0.004076432 0.3205823
0.13005917 -0.0040757083 0.32060841
0.13037121 -0.0040759607 0.32060552
0.13064343 -0.0040762299 0.32060155
0.13091862 -0.0040758476 0.32061693
0.13123117 -0.0040761512 0.32061255
0.13154225 -0.0040764883 0.32060713
0.1318571 -0.0040760506 0.32062474
0.13217139 -0.0040754778 0.32064635
0.13244443 -0.0040756683 0.32064471
0.13271704 -0.0040761563 0.32063425
0.13302851 -0.0040761563 0.32063887
0.13334277 -0.004075483 0.32066345
0.13365383 -0.0040757861 0.32065904
0.13396722 -0.0040755002 0.32067215
0.13428012 -0.0040752473 0.32068425
0.13455224 -0.0040757186 0.3206743
0.13482513 -0.0040754369 0.32068667
0.13513763 -0.0040755719 0.32068726
0.13533223 -0.0040759575 0.32067868
0.13576066 -0.0040758415 0.32068843
0.13607313 -0.0040758415 0.32069302
0.13630712 -0.0040759132 0.32069436
0.12347887 -0.0037316661 0.32053712
0.12377168 -0.0037158057 0.32051653
0.12404218 -0.0037489182 0.32052922
0.12434103 -0.003731641 0.32055068
0.12466921 -0.0037487526 0.32054344
0.1249584 -0.003715724 0.32053655
