# .PCD v0.7 - Point Cloud Data file format
VERSION 0.7
FIELDS x y z
SIZE 4 4 4
TYPE F F F
COUNT 1 1 1
WIDTH 1442
HEIGHT 1
VIEWPOINT 0 0 0 1 0 0 0
POINTS 1442
DATA ascii
-0.14303799 0.12050667 -0.23077267
-0.14076 0.12051767 -0.23063068
-0.14025334 0.12048867 -0.23062067
-0.13989167 0.120474 -0.230621
-0.138952 0.120579 -0.230607
-0.145724 0.120624 -0.23079
-0.14548968 0.12068167 -0.23077033
-0.14390999 0.1206545 -0.230775
-0.143464 0.120671 -0.230777
-0.14074999 0.120703 -0.23068601
-0.14051966 0.12071567 -0.23062301
-0.14024299 0.120707 -0.23065434
-0.13988067 0.12069499 -0.23066866
-0.139487 0.120711 -0.23061199
-0.138946 0.1206905 -0.23064199
-0.14074068 0.12088933 -0.23073633
-0.1405095 0.12090249 -0.23068401
-0.14023301 0.120895 -0.23071501
-0.13986999 0.12091533 -0.230712
-0.13947767 0.12089399 -0.23065166
-0.13893567 0.120878 -0.23069632
-0.13643099 0.12097 -0.23060399
-0.140499 0.1210585 -0.23077551
-0.1402245 0.1210445 -0.23076901
-0.13986 0.1211035 -0.230772
-0.139467 0.12111566 -0.23070002
-0.13892333 0.12110332 -0.23077135
-0.13642167 0.12112167 -0.230666
-0.139854 0.121213 -0.230799
-0.139457 0.121303 -0.2307515
-0.136411 0.1213105 -0.23073399
-0.13596635 0.12131467 -0.23064701
-0.134955 0.1212915 -0.23061499
-0.13446251 0.121351 -0.230637
-0.139451 0.121413 -0.230781
-0.13640501 0.121425 -0.23078001
-0.13595599 0.121503 -0.23071501
-0.135739 0.121581 -0.23061199
-0.13494433 0.12148234 -0.230685
-0.13445449 0.121503 -0.2306865
-0.13266 0.1214835 -0.230629
-0.13594601 0.121692 -0.23077135
-0.13573301 0.121695 -0.23065001
-0.1352455 0.1217345 -0.23064101
-0.1349325 0.121674 -0.23076999
-0.1344455 0.1216555 -0.230748
-0.133991 0.121726 -0.230608
-0.133102 0.12168934 -0.23066568
-0.13264801 0.12167799 -0.23072366
-0.13572299 0.121884 -0.230718
-0.13549301 0.1218925 -0.23062301
-0.135236 0.1218875 -0.230703
-0.13398235 0.12187833 -0.230671
-0.13353501 0.12192234 -0.23063
-0.13308935 0.12191633 -0.23074166
-0.13263901 0.121831 -0.23078801
-0.132147 0.1218995 -0.230647
-0.13120601 0.121925 -0.23060951
-0.130519 0.121992 -0.230634
-0.1285785 0.12195151 -0.230637
-0.13571166 0.12210766 -0.23077233
-0.13548233 0.12208133 -0.23068267
-0.13522601 0.12207667 -0.230765
-0.1339715 0.12206849 -0.230739
-0.133525 0.122111 -0.23068801
-0.13213499 0.12209167 -0.23073433
-0.13145299 0.122192 -0.23063201
-0.13119501 0.12211534 -0.23068202
-0.1307435 0.1221185 -0.230647
-0.13051251 0.1221085 -0.230684
-0.13026699 0.122095 -0.230661
-0.129942 0.122186 -0.23062301
-0.12856901 0.12210549 -0.23070699
-0.128139 0.122186 -0.23063
-0.126791 0.122192 -0.230619
-0.126479 0.122146 -0.230647
-0.13546933 0.12231001 -0.23076899
-0.13351449 0.1222675 -0.230773
-0.13171899 0.12231199 -0.230667
-0.131446 0.1223065 -0.230681
-0.131184 0.1223065 -0.230758
-0.13073133 0.122313 -0.230744
-0.13050249 0.1222645 -0.230755
-0.13025634 0.122285 -0.23072767
-0.12993699 0.1222965 -0.230646
-0.129003 0.122218 -0.230616
-0.12899551 0.12233549 -0.230674
-0.12855799 0.122297 -0.23077834
-0.12813249 0.1223015 -0.230674
-0.12678349 0.12231 -0.23067901
-0.126469 0.1223015 -0.230722
-0.12620801 0.122352 -0.2306395
-0.12453833 0.12230434 -0.23065035
-0.13170733 0.12250467 -0.23074599
-0.13143466 0.122499 -0.23076268
-0.13117699 0.122422 -0.2308
-0.129926 0.1224555 -0.230744
-0.129455 0.122495 -0.23063999
-0.128987 0.1224885 -0.23073599
-0.12812251 0.12246 -0.23076099
-0.127277 0.122539 -0.23061299
-0.12677233 0.122503 -0.23076266
-0.12646249 0.12245 -0.230746
-0.1261975 0.1225125 -0.230735
-0.1259585 0.122488 -0.230652
-0.124965 0.122496 -0.230626
-0.124525 0.122503 -0.23076999
-0.11650134 0.12251201 -0.23066168
-0.116213 0.122573 -0.23064999
-0.1160075 0.1225265 -0.230616
-0.12944366 0.12268666 -0.23072
-0.128979 0.1226405 -0.23078699
-0.1276885 0.1227085 -0.23064199
-0.127268 0.1226915 -0.2306685
-0.12619001 0.122629 -0.23078901
-0.125949 0.1226425 -0.230718
-0.12573001 0.122751 -0.23061499
-0.12495334 0.12268966 -0.23070668
-0.124519 0.122616 -0.23079699
-0.1164895 0.1227055 -0.23074201
-0.116207 0.1226875 -0.23069501
-0.116001 0.122641 -0.230654
-0.115995 0.122722 -0.230716
-0.115779 0.1227275 -0.2306115
-0.11531749 0.1227075 -0.23063099
-0.129434 0.122842 -0.230785
-0.1276785 0.1228665 -0.23072699
-0.12725668 0.122885 -0.23075235
-0.1257215 0.122904 -0.23067099
-0.12549651 0.1229575 -0.23062199
-0.12524934 0.122911 -0.23064335
-0.124944 0.122845 -0.230774
-0.120977 0.122934 -0.23063
-0.12076 0.122992 -0.23063999
-0.1205285 0.12294351 -0.230639
-0.12028649 0.12293001 -0.23062199
-0.11687949 0.122927 -0.23065001
-0.116483 0.122823 -0.230795
-0.116197 0.1228455 -0.23077101
-0.115988 0.12284049 -0.23076999
-0.115769 0.1228835 -0.230684
-0.115546 0.1229355 -0.230629
-0.115306 0.12290233 -0.23071299
-0.12571201 0.12303 -0.230772
-0.125486 0.1231175 -0.23071751
-0.1252365 0.1231095 -0.23075101
-0.12117734 0.12309867 -0.23067801
-0.12096667 0.12309033 -0.230707
-0.12075301 0.1231105 -0.23069599
-0.120519 0.1231 -0.23070499
-0.1202755 0.1230895 -0.230717
-0.119977 0.12314101 -0.2306715
-0.1168705 0.1230845 -0.23072
-0.115759 0.1230415 -0.230766
-0.11553749 0.1230895 -0.230682
-0.115297 0.12306 -0.230784
-0.125477 0.123238 -0.23079599
-0.121167 0.123258 -0.23077001
-0.120957 0.123247 -0.230781
-0.120745 0.123229 -0.23075999
-0.120511 0.123217 -0.230766
-0.120268 0.123208 -0.23077799
-0.11997 0.123258 -0.230719
-0.119555 0.123375 -0.230648
-0.116862 0.1232385 -0.23077801
-0.115528 0.123215 -0.23078001
-0.119545 0.123503 -0.230755
-0.121933 0.086943999 -0.23058251
-0.12169001 0.086933002 -0.230583
-0.120492 0.086947002 -0.230573
-0.121927 0.08712367 -0.23055601
-0.121685 0.087113999 -0.23054665
-0.12138399 0.087129503 -0.23058751
-0.120971 0.087148003 -0.23056699
-0.120488 0.087093502 -0.2305405
-0.122152 0.087347999 -0.230597
-0.121921 0.087305002 -0.230528
-0.121679 0.087293506 -0.23052299
-0.121379 0.087311327 -0.23054433
-0.12096766 0.087294668 -0.230515
-0.120482 0.087273337 -0.23051034
-0.12214866 0.087494999 -0.23055267
-0.121916 0.087485336 -0.23049332
-0.121674 0.087475337 -0.23048532
-0.121374 0.087492503 -0.23050401
-0.12096033 0.087509997 -0.23049466
-0.12047533 0.08749 -0.23047768
-0.123203 0.087743998 -0.23059151
-0.122141 0.087709002 -0.230534
-0.121909 0.087701328 -0.23046298
-0.121667 0.087691665 -0.23045067
-0.12136833 0.087673001 -0.23047566
-0.12095333 0.087725006 -0.23046501
-0.120468 0.087704994 -0.23045467
-0.12319734 0.087923668 -0.23056431
-0.122554 0.087922998 -0.230599
-0.122344 0.087941997 -0.230599
-0.122134 0.087924331 -0.23050767
-0.121906 0.087846003 -0.230417
-0.121662 0.087871999 -0.230415
-0.12136099 0.087888002 -0.23045166
-0.1209475 0.087905005 -0.2304455
-0.12046099 0.08792033 -0.23042469
-0.123191 0.088102996 -0.23054901
-0.12254733 0.088101663 -0.23059368
-0.122339 0.088085674 -0.23058002
-0.1221285 0.088105001 -0.2304755
-0.121655 0.08805 -0.23040099
-0.12135366 0.088103332 -0.23043466
-0.12094066 0.088083662 -0.230434
-0.12045451 0.088098004 -0.2304225
-0.12318433 0.088280998 -0.23054533
-0.12253966 0.088316999 -0.230579
-0.122331 0.088299669 -0.23056801
-0.122121 0.088281669 -0.23048633
-0.121887 0.088345997 -0.23040301
-0.12134567 0.088317335 -0.23042035
-0.120936 0.088228002 -0.230415
-0.120449 0.088242002 -0.23041201
-0.118232 0.088310003 -0.230599
-0.12317667 0.088495672 -0.23052466
-0.122533 0.088494003 -0.230572
-0.122323 0.088512331 -0.23056932
-0.122112 0.088494338 -0.230501
-0.121884 0.088416003 -0.230407
-0.121641 0.088405997 -0.230405
-0.121341 0.088460997 -0.23040301
-0.11822534 0.088488996 -0.230591
-0.12316867 0.088708669 -0.23052032
-0.12252633 0.08867266 -0.23056467
-0.12231433 0.088725992 -0.23057167
-0.122104 0.088708334 -0.230496
-0.121876 0.088629998 -0.230404
-0.118218 0.088704668 -0.23056567
-0.12316033 0.088922672 -0.230519
-0.12251899 0.088887997 -0.23054999
-0.122308 0.088904999 -0.23055801
-0.12209634 0.088923 -0.230483
-0.11820966 0.088918 -0.23056935
-0.12315249 0.089097999 -0.230536
-0.122511 0.089100331 -0.230545
-0.12230033 0.08908134 -0.23056901
-0.1220885 0.089100003 -0.23048949
-0.118203 0.089096002 -0.23055899
-0.11780851 0.089073002 -0.2305975
-0.123146 0.089275993 -0.23053801
-0.12250233 0.089314334 -0.230543
-0.12229234 0.089294672 -0.23057199
-0.12208167 0.089276336 -0.23049833
-0.11819767 0.089276999 -0.23052867
-0.123138 0.089489333 -0.23053533
-0.122494 0.089527003 -0.230551
-0.12228433 0.089509331 -0.23055667
-0.12207333 0.089491002 -0.23049366
-0.11818933 0.089489661 -0.23053099
-0.117793 0.089465 -0.230599
-0.12312934 0.089702666 -0.230537
-0.1224865 0.089703999 -0.230556
-0.12227601 0.089722671 -0.23055899
-0.12206567 0.089703999 -0.230478
-0.11818067 0.089703672 -0.23053634
-0.11778567 0.089679666 -0.23058401
-0.123121 0.089916669 -0.23053367
-0.12248 0.089883 -0.23054866
-0.122269 0.089900002 -0.23055801
-0.122058 0.089918673 -0.230469
-0.118173 0.089917995 -0.23051733
-0.1231135 0.090093002 -0.230544
-0.122472 0.090096332 -0.230542
-0.12226234 0.090077668 -0.23055632
-0.122051 0.090095997 -0.23047051
-0.121277 0.090094 -0.23040199
-0.1181655 0.090095997 -0.23053199
-0.12310699 0.090272002 -0.23053433
-0.12246334 0.090308994 -0.23054968
-0.12225401 0.090291671 -0.23054798
-0.122044 0.090273328 -0.23047368
-0.11815801 0.090271659 -0.23054533
-0.123099 0.090484671 -0.230534
-0.122455 0.090522341 -0.23055299
-0.122246 0.090505004 -0.23054735
-0.122035 0.090485997 -0.23047699
-0.120848 0.090503 -0.23040199
-0.11814967 0.09048567 -0.23054266
-0.123091 0.090698332 -0.23053133
-0.1224485 0.090700999 -0.230545
-0.12223733 0.090716995 -0.230555
-0.12202633 0.090698667 -0.23049133
-0.120837 0.090787001 -0.230405
-0.11814167 0.090699665 -0.23054034
-0.123082 0.090910994 -0.23053634
-0.12244133 0.09087833 -0.23054266
-0.1222305 0.090895995 -0.230553
-0.12201833 0.09091267 -0.23048568
-0.120833 0.090892501 -0.2304045
-0.118133 0.090912335 -0.23055232
-0.123073 0.091123998 -0.23054934
-0.12243301 0.09109167 -0.23053999
-0.122223 0.091072999 -0.230561
-0.12201 0.091125995 -0.23048699
-0.12177867 0.091116004 -0.23040934
-0.1212375 0.091124997 -0.23040599
-0.120823 0.091140002 -0.23040999
-0.118124 0.091125667 -0.23056066
-0.123066 0.091300994 -0.2305575
-0.12242401 0.091303669 -0.230563
-0.12221432 0.091285668 -0.23057
-0.122003 0.091303006 -0.23048949
-0.1217715 0.091293 -0.2304115
-0.12122967 0.091301329 -0.23042266
-0.12081701 0.091283001 -0.230425
-0.118117 0.091302998 -0.230563
-0.12305867 0.091477998 -0.23056932
-0.12241501 0.091516338 -0.23056833
-0.122206 0.091497995 -0.23058134
-0.12199567 0.091480672 -0.23050165
-0.121764 0.091471009 -0.23042333
-0.12122101 0.091513999 -0.23042834
-0.120808 0.09149567 -0.23043168
-0.11811 0.091481663 -0.23056066
-0.12305 0.09169066 -0.23057334
-0.122408 0.091693997 -0.230575
-0.12219801 0.091713004 -0.23056734
-0.12198701 0.091693334 -0.2305
-0.121755 0.091682337 -0.23044133
-0.121514 0.091674328 -0.23040466
-0.121212 0.091726005 -0.23044033
-0.120802 0.091637 -0.230444
-0.120798 0.091744006 -0.230444
-0.11810199 0.091695666 -0.23055333
-0.12304199 0.091904663 -0.23056567
-0.1224025 0.091836005 -0.2305765
-0.122398 0.091943003 -0.230581
-0.12218966 0.091926329 -0.23056768
-0.12197801 0.091905333 -0.23051767
-0.12174667 0.091896676 -0.23043366
-0.12150533 0.091886334 -0.23041235
-0.121205 0.091904998 -0.23043901
-0.12079067 0.091921665 -0.23044801
-0.12030634 0.091902673 -0.230408
-0.11809234 0.091907658 -0.23058565
-0.12303367 0.092119001 -0.230564
-0.12239233 0.092085004 -0.23058666
-0.1221815 0.092102006 -0.23059
-0.12196901 0.09211833 -0.23053767
-0.12173799 0.092109002 -0.23044701
-0.12149667 0.092099003 -0.23042433
-0.121201 0.092012003 -0.23043799
-0.1211965 0.092116997 -0.230444
-0.1207835 0.092097998 -0.23045
-0.120298 0.092114665 -0.23041034
-0.11808667 0.092124663 -0.23052533
-0.12302651 0.092296004 -0.23057351
-0.12238433 0.092298329 -0.23057699
-0.122177 0.092208996 -0.230598
-0.1219625 0.092297003 -0.2305215
-0.12172966 0.092321672 -0.23045266
-0.121488 0.092311658 -0.23043133
-0.121189 0.092294998 -0.23046131
-0.120777 0.092276335 -0.230451
-0.1202915 0.092294 -0.23040399
-0.11807901 0.092300996 -0.23053849
-0.12302033 0.092474334 -0.23055398
-0.122376 0.092511661 -0.23058234
-0.122166 0.092492998 -0.23059867
-0.12195534 0.092474662 -0.230529
-0.1217225 0.092499003 -0.230453
-0.12148 0.092525668 -0.23042466
-0.12118133 0.092507996 -0.230451
-0.12076833 0.09248966 -0.23045234
-0.120284 0.092470668 -0.230413
-0.118071 0.092478663 -0.23057067
-0.123012 0.092686333 -0.23055868
-0.12236699 0.092725672 -0.23058467
-0.12216 0.092634998 -0.230598
-0.121947 0.092687331 -0.23053332
-0.121716 0.092678331 -0.23044467
-0.12147351 0.092703 -0.230424
-0.12117234 0.092720665 -0.23045833
-0.12076033 0.092703007 -0.23044932
-0.120275 0.09268266 -0.23042698
-0.118062 0.092691667 -0.23057599
-0.123005 0.092863999 -0.23056
-0.123 0.092970997 -0.230571
-0.122361 0.092867002 -0.23059499
-0.12193933 0.092902005 -0.23051734
-0.12170734 0.092891 -0.230451
-0.121466 0.092881657 -0.23042601
-0.121166 0.092900001 -0.23045
-0.120752 0.092916004 -0.23044866
-0.120269 0.092861995 -0.2304135
-0.118054 0.092905343 -0.23058033
-0.12299433 0.093111672 -0.23057866
-0.122141 0.093133003 -0.230598
-0.12193 0.093114674 -0.230533
-0.12169901 0.09310434 -0.23045568
-0.12145733 0.093094327 -0.230435
-0.12115899 0.093077339 -0.230452
-0.12074549 0.093093999 -0.230441
-0.1202585 0.093146503 -0.23040549
-0.118045 0.093118332 -0.23058933
-0.12298667 0.093325667 -0.23057
-0.12234467 0.093293004 -0.23058967
-0.1221365 0.09324 -0.230598
-0.12192199 0.093327336 -0.23053366
-0.121691 0.093316667 -0.23045067
-0.121449 0.093306996 -0.23043768
-0.12115034 0.093289338 -0.23045599
-0.120738 0.093271337 -0.23044498
-0.120251 0.093324333 -0.23040901
-0.1229795 0.093503997 -0.2305775
-0.12233751 0.093470499 -0.230593
-0.12191451 0.093504995 -0.230543
-0.1216835 0.093494996 -0.230453
-0.12144101 0.093520008 -0.230424
-0.12114134 0.093502663 -0.23047167
-0.120729 0.09348467 -0.230461
-0.120243 0.093501002 -0.230433
-0.118031 0.093474001 -0.23059267
-0.122972 0.093681 -0.23058002
-0.122325 0.093790002 -0.2306
-0.1221205 0.093667001 -0.230599
-0.12190834 0.09368366 -0.23052998
-0.12167734 0.093673341 -0.230442
-0.1214335 0.093697995 -0.230437
-0.12113333 0.093715996 -0.23046701
-0.12072033 0.093697667 -0.23047066
-0.12023634 0.093677998 -0.23043101
-0.11802233 0.093688004 -0.23059601
-0.12296367 0.093894996 -0.23058166
-0.12211066 0.093915999 -0.23059301
-0.1219 0.093896329 -0.23052734
-0.121669 0.093885995 -0.23044167
-0.121427 0.093875341 -0.230434
-0.12112501 0.093929328 -0.23046668
-0.12071234 0.093910672 -0.230464
-0.120227 0.093890667 -0.230442
-0.118017 0.093829997 -0.230597
-0.122955 0.094107665 -0.23058666
-0.121891 0.094110668 -0.23053968
-0.12165999 0.094098665 -0.23045833
-0.12141933 0.094090007 -0.23042233
-0.121118 0.094108 -0.23046499
-0.120704 0.094123997 -0.23046768
-0.12021899 0.094103999 -0.230442
-0.118005 0.094150998 -0.23059
-0.122947 0.094321005 -0.23059334
-0.12230567 0.09428867 -0.23059733
-0.12188267 0.09432333 -0.23054634
-0.121652 0.09431199 -0.230452
-0.121411 0.094302662 -0.23042034
-0.121111 0.094285332 -0.230462
-0.120698 0.094301999 -0.23045
-0.120211 0.094318002 -0.23043966
-0.118001 0.094258003 -0.23058601
-0.117997 0.094329998 -0.230597
-0.1229395 0.094498999 -0.23059049
-0.122297 0.094502665 -0.23059767
-0.12187549 0.094501495 -0.23054799
-0.121645 0.094526328 -0.23043001
-0.1214045 0.094481006 -0.230417
-0.1214 0.094587997 -0.230418
-0.12110367 0.094498999 -0.23044699
-0.12069 0.094480671 -0.23046166
-0.1202035 0.094494998 -0.230454
-0.122933 0.094677001 -0.23059332
-0.122289 0.094715998 -0.2306
-0.12186901 0.094678998 -0.23053934
-0.1216375 0.094704002 -0.230443
-0.121398 0.094659001 -0.230408
-0.12109533 0.094712339 -0.23044832
-0.12068266 0.094693668 -0.23045135
-0.12019667 0.094673671 -0.23044167
-0.12292551 0.094854996 -0.23059499
-0.12186033 0.09489233 -0.230542
-0.12163001 0.094881333 -0.23044832
-0.121389 0.094872333 -0.23041399
-0.12108701 0.094925664 -0.230453
-0.12067399 0.094907664 -0.23045333
-0.120189 0.094886996 -0.23043966
-0.122061 0.095196001 -0.230598
-0.12185168 0.095105 -0.23054968
-0.12162133 0.095094658 -0.23045701
-0.12138099 0.095084995 -0.23040767
-0.1210795 0.095102996 -0.23045701
-0.12066567 0.095120668 -0.23045933
-0.12018033 0.095099665 -0.23043866
-0.122906 0.095353 -0.230599
-0.122264 0.095356002 -0.230598
-0.12184433 0.095319666 -0.23053767
-0.12161366 0.095307671 -0.23044533
-0.12137199 0.095297664 -0.23042034
-0.121073 0.095281668 -0.23044801
-0.1206585 0.095298 -0.23046499
-0.12017267 0.095313668 -0.23042302
-0.12225866 0.095499001 -0.23059301
-0.1218375 0.095497996 -0.23053201
-0.12160566 0.095521666 -0.23043601
-0.12136367 0.095511325 -0.230424
-0.12106401 0.095493667 -0.23046601
-0.12065133 0.095476002 -0.23046632
-0.12016467 0.095528334 -0.23041368
-0.122891 0.095743001 -0.230598
-0.122253 0.095641002 -0.23059399
-0.12204132 0.095695339 -0.23059465
-0.12183066 0.095674999 -0.23052967
-0.1215985 0.095699996 -0.230434
-0.12135568 0.095724337 -0.23041333
-0.121056 0.095707662 -0.23045634
-0.120643 0.095688663 -0.230461
-0.120158 0.095705003 -0.230407
-0.11794466 0.095683001 -0.23059468
-0.12288534 0.095886327 -0.23059767
-0.12203451 0.095872998 -0.230592
-0.12182166 0.095889002 -0.23054135
-0.12159201 0.09587767 -0.230434
-0.1213485 0.095901996 -0.230415
-0.121047 0.095920332 -0.230471
-0.12063434 0.095902331 -0.23047133
-0.12015 0.095918998 -0.2304045
-0.12181401 0.096101008 -0.23053168
-0.12158367 0.096090667 -0.23042966
-0.121342 0.09607967 -0.23042166
-0.121041 0.096099004 -0.23045999
-0.12062667 0.096115671 -0.23045801
-0.12014 0.096167997 -0.230406
-0.122866 0.096383996 -0.230597
-0.121806 0.096315332 -0.23052567
-0.121575 0.096303664 -0.23043966
-0.12133366 0.096293665 -0.23040833
-0.121034 0.096275993 -0.23046134
-0.12061801 0.09632834 -0.23047167
-0.120134 0.096309662 -0.23041801
-0.1179185 0.096359 -0.2305925
-0.12286067 0.096525997 -0.23059134
-0.122217 0.096565001 -0.230593
-0.122008 0.096548997 -0.230599
-0.1217985 0.096492 -0.230534
-0.121567 0.096516997 -0.23043866
-0.1213275 0.096470505 -0.23040399
-0.12102567 0.096489668 -0.23045933
-0.120612 0.096506998 -0.23044901
-0.12012567 0.096522331 -0.23042433
-0.1179135 0.096503004 -0.23057801
-0.122855 0.096705005 -0.23055699
-0.122212 0.096707664 -0.23058933
-0.1220035 0.096654996 -0.2306
-0.121999 0.096761003 -0.230598
-0.12179234 0.096671335 -0.23052233
-0.1215605 0.096695006 -0.23042399
-0.1213165 0.096754998 -0.23040199
-0.12101766 0.096703328 -0.23044367
-0.120605 0.096684992 -0.23045099
-0.120121 0.096666001 -0.23040999
-0.117907 0.096680336 -0.23057733
-0.122848 0.096882008 -0.23056765
-0.1222045 0.096885994 -0.2305855
-0.12199467 0.096904665 -0.23058166
-0.12178334 0.09688399 -0.23052602
-0.12155333 0.096872665 -0.230426
-0.1213105 0.096897006 -0.230409
-0.12101001 0.096916668 -0.23044567
-0.12059599 0.096897669 -0.23046267
-0.1201105 0.096914001 -0.23042449
-0.11789799 0.096894331 -0.23058867
-0.12283999 0.097095668 -0.23055899
-0.12198734 0.09711834 -0.23055834
-0.12177601 0.097098 -0.23052001
-0.12154499 0.097085334 -0.23043032
-0.121305 0.097039998 -0.230407
-0.1210025 0.097093999 -0.230455
-0.120588 0.097111337 -0.23045532
-0.12010366 0.097092003 -0.23042066
-0.1178875 0.097143002 -0.23059449
-0.12283134 0.09730833 -0.23056935
-0.12218966 0.09727633 -0.23058133
-0.121979 0.097296 -0.23058951
-0.12176766 0.097311325 -0.23051365
-0.12153634 0.097298659 -0.23043168
-0.12129533 0.097288668 -0.23040234
-0.12099499 0.097272001 -0.23045667
-0.12058067 0.097325332 -0.23042901
-0.12009601 0.097305328 -0.23041134
-0.12282401 0.097523332 -0.23054402
-0.12218166 0.097490668 -0.23057432
-0.121972 0.097473659 -0.23059165
-0.12175968 0.097525001 -0.230507
-0.12152901 0.097512662 -0.23042001
-0.121287 0.09750133 -0.230408
-0.120987 0.097485334 -0.23045266
-0.12057351 0.097502001 -0.230446
-0.12008768 0.09751866 -0.23040502
-0.1228175 0.097700998 -0.23053101
-0.122174 0.097704671 -0.23056501
-0.121964 0.097687669 -0.23058666
-0.1217525 0.097703002 -0.23051199
-0.12152067 0.097726338 -0.23041399
-0.1212795 0.097680002 -0.23041099
-0.120979 0.097699337 -0.23044901
-0.120566 0.097680666 -0.23044968
-0.1200805 0.097696006 -0.23040399
-0.117864 0.097749002 -0.23059601
-0.12280933 0.097879 -0.23056264
-0.122165 0.097917341 -0.23057334
-0.12195534 0.097901009 -0.23059301
-0.12174567 0.097880997 -0.230506
-0.1215145 0.097902998 -0.230404
-0.12097067 0.097911991 -0.23044835
-0.12055733 0.097893335 -0.23045732
-0.1178605 0.097855501 -0.23059249
-0.122803 0.098021001 -0.23057701
-0.122799 0.098127 -0.23057401
-0.1221585 0.098095 -0.230575
-0.12194899 0.098113663 -0.23055632
-0.12173834 0.098093666 -0.23048867
-0.12150732 0.098081 -0.23040767
-0.12096267 0.098125003 -0.23043799
-0.12055 0.098107331 -0.23044133
-0.11785 0.098140001 -0.23057449
-0.12279267 0.098304994 -0.230563
-0.12215134 0.098272331 -0.23056932
-0.12194034 0.098327667 -0.23055701
-0.12173 0.098307334 -0.23048966
-0.12149933 0.09829434 -0.23040366
-0.1209565 0.098302998 -0.230432
-0.120542 0.09832067 -0.23043299
-0.1200555 0.098335996 -0.23040801
-0.11784367 0.098318338 -0.230561
-0.12278467 0.098517329 -0.23055732
-0.12214401 0.098486334 -0.23055167
-0.1219335 0.098506004 -0.230562
-0.12172201 0.098520666 -0.230473
-0.12149251 0.098471999 -0.23040301
-0.120951 0.098445505 -0.230415
-0.1205355 0.098498002 -0.23043101
-0.1200495 0.098478004 -0.230415
-0.117836 0.098497003 -0.230571
-0.122778 0.098696001 -0.23054999
-0.12213633 0.098699667 -0.23053966
-0.12192633 0.098683 -0.23055799
-0.1217155 0.098699003 -0.23046899
-0.1209405 0.098729998 -0.230407
-0.12052867 0.098675668 -0.23042433
-0.11783 0.098674662 -0.23055966
-0.12277234 0.098873325 -0.23052366
-0.12212733 0.098912992 -0.23054999
-0.12191967 0.098896675 -0.23052566
-0.121709 0.098876663 -0.23046465
-0.120935 0.098871 -0.23041001
-0.12052067 0.098889671 -0.23041235
-0.11782267 0.098889001 -0.23053133
-0.12276467 0.099086337 -0.230509
-0.12212101 0.099126667 -0.23050599
-0.121912 0.09911 -0.23051099
-0.12170067 0.099090338 -0.23046066
-0.1205145 0.099067003 -0.230405
-0.11781433 0.099102668 -0.23053001
-0.12641799 0.099347003 -0.230599
-0.12275666 0.099300332 -0.230507
-0.12211449 0.099305004 -0.230498
-0.12190434 0.099323332 -0.23049898
-0.12169367 0.099302672 -0.23043032
-0.117806 0.099316001 -0.230536
-0.12641267 0.099490337 -0.23058534
-0.12274834 0.099513672 -0.23050798
-0.12210733 0.099482 -0.23051034
-0.1218975 0.099501997 -0.230488
-0.12168566 0.099515997 -0.23042767
-0.117798 0.099492997 -0.230551
-0.126404 0.09970367 -0.23059434
-0.12274 0.099727333 -0.23049732
-0.1221 0.099694997 -0.23048835
-0.12189033 0.099678665 -0.23049666
-0.1216785 0.099694505 -0.23043001
-0.11779233 0.099671334 -0.23053034
-0.126396 0.099916331 -0.230581
-0.12614501 0.099974997 -0.2306
-0.1227335 0.099904001 -0.23049501
-0.122091 0.09990833 -0.23049466
-0.12188267 0.099892341 -0.23048533
-0.121672 0.09987133 -0.230424
-0.117784 0.099885337 -0.230525
-0.1263895 0.1000945 -0.230588
-0.12614034 0.100118 -0.23059399
-0.124933 0.10009649 -0.2305955
-0.12272633 0.10008133 -0.23049633
-0.12208366 0.10012167 -0.23048
-0.12187433 0.10010501 -0.230483
-0.12166401 0.10008534 -0.23041534
-0.11777601 0.10009933 -0.23052533
-0.12638234 0.10027067 -0.230582
-0.12613401 0.100295 -0.23057449
-0.124923 0.100345 -0.230599
-0.122719 0.10029534 -0.23048033
-0.122077 0.1003 -0.230472
-0.121866 0.10031833 -0.230483
-0.121656 0.10029867 -0.23040901
-0.11776832 0.10031233 -0.23051135
-0.12637432 0.10048467 -0.23057733
-0.12612633 0.10047267 -0.230588
-0.12491801 0.10048767 -0.23059802
-0.122711 0.10050934 -0.23047267
-0.12206999 0.10047734 -0.23047501
-0.12186 0.100497 -0.230472
-0.12164801 0.100512 -0.23040898
-0.11775932 0.10052633 -0.23051767
-0.12636633 0.10069799 -0.23057233
-0.12611832 0.10068599 -0.230583
-0.12491033 0.10070167 -0.23057933
-0.12270267 0.10072199 -0.23047434
-0.122062 0.10069 -0.23046768
-0.12185299 0.10067433 -0.23047066
-0.121643 0.100653 -0.23040199
-0.1177525 0.100704 -0.230525
-0.12636 0.10091066 -0.23052765
-0.12611133 0.10089866 -0.23055534
-0.12490267 0.10091334 -0.23056567
-0.122696 0.100899 -0.230472
-0.122054 0.10090333 -0.23045933
-0.12184467 0.10088766 -0.23047
-0.121632 0.100937 -0.23040099
-0.117745 0.10088267 -0.23053034
-0.1265755 0.101101 -0.23058999
-0.12635167 0.10112367 -0.23053201
-0.126104 0.10111167 -0.23054333
-0.125798 0.101167 -0.2306
-0.125366 0.101147 -0.23059
-0.124895 0.10112733 -0.23055632
-0.12268966 0.10107633 -0.23045301
-0.12204533 0.10111666 -0.23046334
-0.12183666 0.101101 -0.23046567
-0.117737 0.10109567 -0.230527
-0.126571 0.101208 -0.230597
-0.1263455 0.101301 -0.23051301
-0.12609534 0.101325 -0.23054634
-0.125789 0.101379 -0.230599
-0.12536201 0.101254 -0.230588
-0.12488849 0.101304 -0.230552
-0.12268134 0.10128967 -0.230452
-0.12203901 0.101294 -0.230455
-0.12182833 0.10131333 -0.23046434
-0.117729 0.10130834 -0.23052399
-0.117331 0.101325 -0.23058951
-0.12656033 0.10149133 -0.23059267
-0.12633801 0.10147899 -0.230518
-0.1260885 0.101503 -0.230538
-0.1257855 0.101486 -0.230592
-0.125349 0.101575 -0.230591
-0.12488166 0.101482 -0.23054068
-0.122674 0.10150266 -0.23043866
-0.12203199 0.10147234 -0.23044901
-0.12182 0.10152667 -0.23046465
-0.11772133 0.10152233 -0.23050767
-0.117326 0.101433 -0.2306
-0.12655234 0.10170466 -0.23058267
-0.12633067 0.10169133 -0.23050833
-0.12608267 0.10167966 -0.23052299
-0.12577701 0.101699 -0.23059699
-0.12534334 0.10171633 -0.23059601
-0.12487367 0.10169434 -0.23053966
-0.12266534 0.10171533 -0.23044498
-0.12202466 0.10168433 -0.23043233
-0.12181351 0.101705 -0.230451
-0.117715 0.1017005 -0.23049301
-0.117313 0.101789 -0.230597
-0.12654467 0.101918 -0.23057099
-0.12632167 0.10190467 -0.23052233
-0.126074 0.101893 -0.23052602
-0.12577166 0.10187633 -0.230565
-0.125337 0.10189401 -0.2305925
-0.12486533 0.10190767 -0.23053633
-0.122659 0.101894 -0.230434
-0.12201667 0.10189766 -0.23043199
-0.121806 0.10188267 -0.23045732
-0.11770833 0.10187733 -0.23048432
-0.1173085 0.101895 -0.23059601
-0.1265375 0.102096 -0.23057601
-0.12631434 0.10211733 -0.23050201
-0.12606667 0.10210534 -0.23050869
-0.125763 0.10209 -0.23057432
-0.12533067 0.10207134 -0.23057133
-0.124858 0.10212166 -0.23052001
-0.122652 0.10207134 -0.230435
-0.122008 0.102111 -0.23044001
-0.121801 0.102024 -0.23044901
-0.121798 0.10213 -0.23042899
-0.11770067 0.102092 -0.23047233
-0.117302 0.10207367 -0.230588
-0.12653099 0.10227233 -0.23056966
-0.1263075 0.102295 -0.23050401
-0.12605867 0.10231867 -0.23050301
-0.125754 0.102303 -0.23059233
-0.125322 0.10228401 -0.23058234
-0.1248515 0.102298 -0.230499
-0.12264434 0.10228433 -0.23041934
-0.122002 0.102253 -0.23044001
-0.1219985 0.10236 -0.2304285
-0.12179101 0.10230833 -0.23043633
-0.117693 0.10230433 -0.23045667
-0.11729467 0.10228667 -0.23056866
-0.12652232 0.10248566 -0.230572
-0.12629999 0.10247334 -0.23051
-0.1260505 0.102497 -0.230526
-0.12574565 0.102516 -0.23058398
-0.125314 0.10249734 -0.230573
-0.124845 0.102476 -0.23050065
-0.12263634 0.10249633 -0.23040999
-0.1219925 0.102502 -0.230436
-0.121784 0.102486 -0.23043099
-0.11768533 0.10251834 -0.23044433
-0.117287 0.10250067 -0.23055232
-0.12651467 0.102699 -0.23055468
-0.12629168 0.10268567 -0.23051099
-0.12604433 0.10267434 -0.23051368
-0.1257385 0.10269301 -0.230582
-0.12530701 0.10271 -0.23054798
-0.124837 0.10268867 -0.23049301
-0.1226295 0.102674 -0.23040301
-0.12198666 0.10267866 -0.23041767
-0.117679 0.102696 -0.230432
-0.117279 0.102713 -0.230547
-0.12650667 0.10291233 -0.23055033
-0.12628433 0.10289833 -0.23049301
-0.12603633 0.10288634 -0.23050533
-0.12573232 0.10287067 -0.23057799
-0.12529801 0.10292366 -0.23056233
-0.12482833 0.10290266 -0.23049901
-0.12197834 0.10289267 -0.23041999
-0.12176933 0.10287667 -0.23041266
-0.117672 0.10287366 -0.23043101
-0.11727067 0.10292766 -0.23054266
-0.126498 0.10312567 -0.23055434
-0.126276 0.10311166 -0.23049401
-0.12602867 0.10309967 -0.23049533
-0.125725 0.10308433 -0.23055434
-0.1252915 0.103101 -0.2305585
-0.12481999 0.10311533 -0.230498
-0.12197033 0.10310533 -0.23041068
-0.12176 0.10312501 -0.23041001
-0.11766434 0.10308733 -0.23041934
-0.11726449 0.103106 -0.2305295
-0.1272175 0.10328101 -0.230599
-0.1264915 0.1033025 -0.230553
-0.12626867 0.10332367 -0.23047566
-0.12602033 0.10331234 -0.23049234
-0.125717 0.10329667 -0.23054899
-0.125285 0.10327834 -0.23054034
-0.1248125 0.103293 -0.230508
-0.1219635 0.103284 -0.230405
-0.121753 0.10330334 -0.23041034
-0.117656 0.10330067 -0.23042135
-0.11725766 0.10328367 -0.23053001
-0.116967 0.103344 -0.230588
-0.12648533 0.10348 -0.230534
-0.126261 0.103503 -0.2304855
-0.12601198 0.10352633 -0.230489
-0.12570767 0.103511 -0.23056467
-0.12527733 0.10349166 -0.23053034
-0.12480632 0.103471 -0.23049401
-0.121954 0.103532 -0.23040301
-0.1217465 0.10348099 -0.230405
-0.117649 0.103479 -0.23041999
-0.11724933 0.10349733 -0.23052599
-0.11696167 0.10348666 -0.23057
-0.12720001 0.103743 -0.23058601
-0.12647633 0.10369333 -0.23054333
-0.12625499 0.10367966 -0.23047368
-0.12600499 0.1037035 -0.23049101
-0.12570067 0.10372367 -0.23054467
-0.12526901 0.10370467 -0.23052733
-0.124802 0.103613 -0.230481
-0.124798 0.103718 -0.23046601
-0.121951 0.103604 -0.230405
-0.117242 0.10371 -0.23050767
-0.116954 0.1037 -0.230555
-0.1275045 0.103934 -0.230599
-0.127197 0.103813 -0.23059
-0.12646866 0.103906 -0.23053767
-0.12624599 0.103892 -0.23047833
-0.126002 0.103808 -0.230478
-0.1259975 0.103916 -0.23048699
-0.1256945 0.103901 -0.230534
-0.12526132 0.10391733 -0.23052233
-0.12479166 0.103896 -0.23045766
-0.11723433 0.103924 -0.23049666
-0.116947 0.103913 -0.23053901
-0.116511 0.103957 -0.230599
-0.1279965 0.104101 -0.2305935
-0.12749851 0.104077 -0.2305975
-0.12718301 0.104169 -0.230598
-0.12668 0.104073 -0.230599
-0.12646033 0.10411933 -0.23053832
-0.12623768 0.10410533 -0.23048466
-0.12598933 0.10409433 -0.23050332
-0.12568735 0.10407833 -0.23053567
-0.1252555 0.104094 -0.2304915
-0.12478366 0.10410867 -0.230444
-0.117228 0.104101 -0.23047799
-0.116938 0.104127 -0.23054667
-0.11650667 0.10409967 -0.23058401
-0.116281 0.104122 -0.23058951
-0.12799066 0.10427866 -0.23057432
-0.12717867 0.10431033 -0.23057699
-0.12691349 0.104337 -0.230599
-0.12666801 0.104357 -0.2306
-0.126454 0.104296 -0.23052001
-0.12623 0.10431867 -0.23047167
-0.12598233 0.10430667 -0.23047768
-0.12567967 0.10429067 -0.23052067
-0.12524933 0.10427166 -0.23048167
-0.12477633 0.10432134 -0.230434
-0.11722066 0.104279 -0.23048466
-0.116932 0.104304 -0.23052299
-0.11649833 0.10431267 -0.230579
-0.116274 0.10430033 -0.23058999
-0.13120401 0.10447 -0.23059401
-0.1312 0.104575 -0.230583
-0.12798233 0.104491 -0.23056966
-0.127481 0.104538 -0.23059499
-0.12716933 0.10452367 -0.23058899
-0.12666334 0.10450033 -0.23059367
-0.12644799 0.10447367 -0.23050869
-0.12622449 0.104495 -0.23044451
-0.125974 0.10451933 -0.23047967
-0.125671 0.104504 -0.23052132
-0.12524033 0.104485 -0.23049234
-0.12476949 0.104499 -0.230424
-0.11721367 0.10449233 -0.23046233
-0.11692534 0.104482 -0.230518
-0.116713 0.104478 -0.230599
-0.11649033 0.10452667 -0.23057367
-0.11626633 0.10451367 -0.23057733
-0.13119566 0.10471699 -0.23056467
-0.12797435 0.10470366 -0.230564
-0.12747499 0.1046805 -0.230598
-0.1271635 0.104702 -0.230572
-0.1268965 0.104763 -0.23059949
-0.126655 0.10471367 -0.23059034
-0.12643833 0.10468767 -0.23052599
-0.12621666 0.10467366 -0.23046167
-0.12596799 0.1046965 -0.230462
-0.12566368 0.10471734 -0.23050301
-0.12523234 0.10469833 -0.23049067
-0.12476266 0.10467666 -0.23042367
-0.11720467 0.10470634 -0.23047435
-0.11691733 0.10469667 -0.23051034
-0.11670599 0.104691 -0.23057
-0.116484 0.10470501 -0.23055601
-0.116258 0.10472766 -0.23057967
-0.1311875 0.104894 -0.23057899
-0.128387 0.104872 -0.23059399
-0.12796666 0.104917 -0.23055167
-0.12746833 0.10489266 -0.23056699
-0.127156 0.10487967 -0.23057866
-0.12689149 0.104905 -0.230599
-0.126647 0.104926 -0.23058601
-0.12643068 0.10490034 -0.23051834
-0.12620866 0.104886 -0.230455
-0.12596099 0.10487399 -0.23046267
-0.1256565 0.104895 -0.230518
-0.12522401 0.10491166 -0.23048501
-0.124755 0.10488834 -0.23041032
-0.11719667 0.10492 -0.23046668
-0.11690966 0.10490934 -0.23050232
-0.11669733 0.104905 -0.230579
-0.11647701 0.10488334 -0.23055466
-0.116251 0.104907 -0.230581
-0.116012 0.104932 -0.2306
-0.13118067 0.10507166 -0.230588
-0.129234 0.105197 -0.23059
-0.12795949 0.105095 -0.2305585
-0.12745933 0.10510633 -0.23058166
-0.12714767 0.10509234 -0.23058067
-0.12688434 0.105083 -0.23059332
-0.1266405 0.105104 -0.23057699
-0.12642266 0.10511333 -0.230507
-0.126203 0.105027 -0.230452
-0.12619901 0.105135 -0.23044801
-0.12595266 0.105087 -0.23045866
-0.12564933 0.10507333 -0.230519
-0.12521632 0.105124 -0.23047499
-0.1247485 0.105067 -0.2304025
-0.117192 0.1050965 -0.23042899
-0.1169 0.105124 -0.23052768
-0.11668833 0.10511934 -0.23059033
-0.116469 0.10509766 -0.23056
-0.11624467 0.10508433 -0.23056699
-0.116009 0.105002 -0.230598
-0.13117266 0.10528567 -0.23058033
-0.130923 0.105348 -0.230597
-0.1301285 0.105276 -0.230597
-0.12836701 0.105368 -0.23059601
-0.12795234 0.10527233 -0.23056768
-0.12745033 0.10531967 -0.23059399
-0.12713967 0.10530467 -0.23057367
-0.12687699 0.10529567 -0.23057967
-0.12663367 0.10528067 -0.23057199
-0.126415 0.10532533 -0.23050267
-0.126193 0.10531234 -0.23043369
-0.12594433 0.10530033 -0.23045968
-0.12564133 0.105285 -0.23051167
-0.12520951 0.105301 -0.2304685
-0.11718401 0.10527601 -0.23043866
-0.116894 0.1053015 -0.23050401
-0.1166815 0.105298 -0.230581
-0.11646033 0.105311 -0.230564
-0.11623666 0.10529766 -0.23055799
-0.131166 0.105497 -0.23054801
-0.130916 0.1055235 -0.23059499
-0.12965667 0.10550167 -0.23058267
-0.128362 0.10551066 -0.23058999
-0.12794466 0.10548567 -0.23055299
-0.127445 0.105463 -0.230597
-0.127131 0.10551801 -0.23058033
-0.12686799 0.10550967 -0.230591
-0.126625 0.10549467 -0.23058033
-0.1264075 0.105505 -0.230514
-0.12618434 0.10552566 -0.23044498
-0.12593633 0.10551367 -0.230451
-0.125634 0.10549834 -0.23048533
-0.12520349 0.105444 -0.23047701
-0.1252 0.10555 -0.230471
-0.11717567 0.10548867 -0.23044334
-0.116889 0.10547867 -0.23047133
-0.11667467 0.10547566 -0.23057966
-0.11645299 0.10552433 -0.23053901
-0.11623033 0.10551033 -0.23052134
-0.13115799 0.10570934 -0.23053801
-0.13090967 0.105701 -0.23058701
-0.13011099 0.105738 -0.23059
-0.129649 0.10571399 -0.23056699
-0.12793632 0.105698 -0.23054866
-0.12743668 0.10567567 -0.23059267
-0.127124 0.105696 -0.23058501
-0.12685966 0.10572233 -0.23058866
-0.126617 0.10570734 -0.23056968
-0.1264025 0.105646 -0.23050299
-0.126399 0.105752 -0.23049
-0.12617749 0.105703 -0.2304395
-0.125928 0.10572699 -0.23044999
-0.125626 0.10571166 -0.23047833
-0.12519465 0.10569266 -0.23046732
-0.11716733 0.105703 -0.23043901
-0.11687899 0.10569301 -0.23050267
-0.11666767 0.10568833 -0.23055466
-0.1164465 0.105703 -0.230534
-0.11622167 0.10572533 -0.23052567
-0.13114899 0.105923 -0.23055565
-0.13090099 0.10591433 -0.230591
-0.13010533 0.10587933 -0.23058999
-0.129641 0.105927 -0.23056567
-0.128774 0.105961 -0.230599
-0.1283465 0.105902 -0.230597
-0.12792833 0.10591134 -0.23054366
-0.12742867 0.105888 -0.23058499
-0.12711667 0.10587367 -0.23058899
-0.12685251 0.105901 -0.23059401
-0.12660867 0.10592133 -0.23057067
-0.12639333 0.10589466 -0.23048835
-0.12617067 0.10588033 -0.23044033
-0.12592149 0.105904 -0.230444
-0.12561834 0.10592366 -0.230471
-0.12518799 0.10590401 -0.23043101
-0.11715966 0.10591567 -0.23043068
-0.11686967 0.10590767 -0.23052168
-0.11665799 0.10590333 -0.23058067
-0.11643901 0.10588101 -0.23055033
-0.1162115 0.1059055 -0.2305845
-0.1311425 0.1061 -0.23053899
-0.13089333 0.106127 -0.23057534
-0.13009734 0.106092 -0.23058333
-0.1296345 0.106104 -0.23055449
-0.129195 0.106193 -0.230598
-0.128768 0.106102 -0.230598
-0.1283385 0.10611451 -0.230593
-0.12792134 0.10612333 -0.23052199
-0.12742133 0.10610133 -0.23057099
-0.12710901 0.10608733 -0.230572
-0.12660301 0.106098 -0.23054299
-0.12638533 0.106108 -0.23048167
-0.12616266 0.10609267 -0.23043466
-0.12591533 0.10608066 -0.23043466
-0.1256115 0.106102 -0.230464
-0.12517801 0.106153 -0.23043299
-0.1171525 0.106094 -0.2304375
-0.11686101 0.10612234 -0.23052834
-0.11665034 0.106117 -0.23056567
-0.11642933 0.10609567 -0.23056901
-0.116204 0.106085 -0.23059399
-0.1313615 0.106332 -0.2305975
-0.13113533 0.10627734 -0.23055033
-0.130888 0.10630301 -0.23054099
-0.13008967 0.106305 -0.23056968
-0.12962833 0.10628134 -0.23053901
-0.12919149 0.106298 -0.23058
-0.12876 0.10631566 -0.23059635
-0.128333 0.10629133 -0.23056467
-0.1279135 0.106302 -0.2305295
-0.12741368 0.106314 -0.230552
-0.12710167 0.10629966 -0.23055834
-0.12683767 0.106291 -0.23058967
-0.12659633 0.10627567 -0.23053999
-0.126377 0.10632067 -0.23048599
-0.126156 0.106271 -0.230417
-0.125907 0.106294 -0.23043168
-0.12560399 0.10627899 -0.230478
-0.125172 0.106295 -0.2304415
-0.117145 0.10627233 -0.23044133
-0.11685351 0.10630099 -0.23053601
-0.1166425 0.106296 -0.23059049
-0.11642099 0.10631033 -0.23057133
-0.1161975 0.106263 -0.23059601
-0.13135666 0.10650767 -0.23055868
-0.13112833 0.10648934 -0.23052199
-0.130881 0.10648067 -0.230545
-0.130555 0.106504 -0.2305945
-0.13008134 0.10651767 -0.23057234
-0.12962067 0.106494 -0.23053266
-0.12918466 0.106476 -0.23057634
-0.12875266 0.10652733 -0.23057567
-0.128325 0.10650333 -0.23054767
-0.12790768 0.10647833 -0.23051466
-0.12740533 0.10652699 -0.23054866
-0.12709399 0.10651233 -0.23054565
-0.12682933 0.10650467 -0.230583
-0.12658733 0.10648967 -0.23055299
-0.12637049 0.106498 -0.23047599
-0.12614501 0.106589 -0.23040199
-0.12589967 0.10650667 -0.23040901
-0.12559634 0.10649267 -0.23046334
-0.12516566 0.106473 -0.23043035
-0.11713666 0.10648633 -0.230442
-0.11684767 0.10647833 -0.23051299
-0.116635 0.10647434 -0.23059432
-0.11641267 0.106525 -0.23057167
-0.116188 0.106512 -0.23058601
-0.131349 0.10672 -0.230543
-0.13112001 0.10670233 -0.23052733
-0.13087301 0.10669401 -0.23053567
-0.13054834 0.10668132 -0.230588
-0.1300755 0.106694 -0.230551
-0.12961201 0.10670633 -0.23053034
-0.1291755 0.10668901 -0.230597
-0.128746 0.106705 -0.23057151
-0.128317 0.10671667 -0.230547
-0.12789933 0.10669167 -0.23051535
-0.12739849 0.106704 -0.230545
-0.12708634 0.10672534 -0.23053133
-0.12682201 0.10671667 -0.23056734
-0.126579 0.10670233 -0.230547
-0.12636299 0.10667566 -0.23048
-0.12614 0.106697 -0.23041651
-0.1258935 0.106683 -0.230405
-0.12558933 0.10670433 -0.23043768
-0.12516001 0.1066495 -0.23041099
-0.11712933 0.10669967 -0.230425
-0.11684033 0.106691 -0.23049466
-0.11662767 0.106689 -0.23057967
-0.116406 0.106703 -0.2305685
-0.11618 0.106726 -0.23058601
-0.1313425 0.106897 -0.230535
-0.13111167 0.10691566 -0.23052566
-0.13086568 0.106906 -0.23052399
-0.13054067 0.10689466 -0.23057599
-0.13006835 0.10687267 -0.23054999
-0.12960467 0.10691967 -0.230519
-0.12916766 0.10690267 -0.23058401
-0.12874 0.106882 -0.23054968
-0.12831101 0.106895 -0.23053351
-0.12789135 0.10690501 -0.230507
-0.12739234 0.10688167 -0.23053901
-0.1270805 0.106902 -0.230509
-0.1268155 0.106894 -0.230556
-0.12657166 0.106915 -0.23053201
-0.12635534 0.106889 -0.23047434
-0.126136 0.106803 -0.23040099
-0.12558199 0.106917 -0.23041968
-0.12514934 0.10689933 -0.23042633
-0.11712133 0.10691267 -0.23041333
-0.116831 0.10690633 -0.230516
-0.11661967 0.106901 -0.23056467
-0.116402 0.106809 -0.230556
-0.116398 0.1069165 -0.23055351
-0.1161725 0.106905 -0.23059049
-0.13133501 0.10707467 -0.23054533
-0.13110401 0.107128 -0.23050798
-0.130858 0.10711833 -0.23051201
-0.13053334 0.10710699 -0.23055767
-0.13006067 0.10708534 -0.230536
-0.12959799 0.107098 -0.23051149
-0.12916 0.10711566 -0.23056968
-0.12873201 0.10709434 -0.23054534
-0.12830433 0.10707167 -0.230527
-0.12788333 0.10711766 -0.230509
-0.12738401 0.107095 -0.23053366
-0.12707268 0.10708033 -0.23052533
-0.12680934 0.10707167 -0.23054333
-0.12656401 0.10712733 -0.230525
-0.126348 0.107101 -0.23044832
-0.125881 0.107003 -0.23040099
-0.1255755 0.107095 -0.230417
-0.12514167 0.10711267 -0.23041232
-0.117112 0.10712833 -0.23043001
-0.116823 0.10712034 -0.230515
-0.116611 0.10711633 -0.23056768
-0.11639167 0.107094 -0.23054302
-0.116166 0.10708401 -0.23058933
-0.13132733 0.107288 -0.23053266
-0.13109851 0.107304 -0.23048399
-0.13085049 0.107296 -0.23052099
-0.13052534 0.10731833 -0.23054667
-0.130053 0.10729734 -0.230527
-0.129592 0.10727367 -0.23049599
-0.12915333 0.10732766 -0.23054099
-0.12872367 0.10730833 -0.23054433
-0.12829699 0.10728367 -0.23050801
-0.1278775 0.107294 -0.2304835
-0.12737633 0.10730833 -0.23052
-0.127064 0.10729367 -0.23053165
-0.1268025 0.107249 -0.2305395
-0.126798 0.107357 -0.23054001
-0.1265575 0.10730501 -0.23050851
-0.12634067 0.107314 -0.23043466
-0.12556833 0.10727167 -0.23040999
-0.12513334 0.10732467 -0.23041333
-0.1171055 0.1073055 -0.23042801
-0.11681651 0.107298 -0.230497
-0.1166035 0.107295 -0.2305795
-0.11638234 0.10731 -0.23056267
-0.116154 0.10737 -0.23059499
-0.115921 0.107286 -0.23057668
-0.13271068 0.10750934 -0.23059733
-0.13229799 0.10756 -0.230599
-0.13202934 0.10747933 -0.23058933
-0.131319 0.10750133 -0.23052633
-0.13109134 0.10748134 -0.23048599
-0.130845 0.10747267 -0.23049499
-0.1305185 0.107497 -0.23054349
-0.13004465 0.10751101 -0.23052533
-0.129584 0.10748667 -0.23047666
-0.1291465 0.107505 -0.230542
-0.12871633 0.10752133 -0.23052299
-0.12828834 0.10749767 -0.23051167
-0.12787001 0.107472 -0.230487
-0.127368 0.10752066 -0.23051934
-0.127056 0.10750667 -0.23052366
-0.12679301 0.10749834 -0.23053832
-0.12655102 0.10748333 -0.23050702
-0.12633234 0.10752734 -0.23043101
-0.125558 0.1075205 -0.2304215
-0.125128 0.107468 -0.230413
-0.11709899 0.10748333 -0.230416
-0.11681033 0.10747533 -0.23048835
-0.11659733 0.107474 -0.23057634
-0.11637399 0.10752366 -0.23056267
-0.11614966 0.10751133 -0.230573
-0.11591234 0.10750067 -0.23058169
-0.13270234 0.10772266 -0.23059167
-0.13229233 0.10769967 -0.23059267
-0.132021 0.10769267 -0.23059134
-0.13131134 0.10771266 -0.23052299
-0.13108401 0.107694 -0.23046768
-0.13083632 0.10768599 -0.23050232
-0.13051167 0.10767434 -0.23054667
-0.13003732 0.10772366 -0.230506
-0.129575 0.10770067 -0.23049499
-0.12913966 0.10768232 -0.23053133
-0.1287095 0.107698 -0.2305235
-0.12828 0.10771099 -0.23050968
-0.12786199 0.10768533 -0.230488
-0.127361 0.107699 -0.23052001
-0.12704766 0.10772 -0.23052466
-0.12678467 0.10771099 -0.23053001
-0.12654233 0.10769666 -0.23050965
-0.12632549 0.107705 -0.2304275
-0.125553 0.1076635 -0.23041999
-0.117094 0.107626 -0.230415
-0.1168035 0.107654 -0.23048401
-0.1168 0.10776 -0.23047601
-0.11658967 0.10768601 -0.23055567
-0.116368 0.107701 -0.2305485
-0.11614233 0.107725 -0.23055466
-0.11590433 0.10771534 -0.23057835
-0.1326955 0.1079 -0.230588
-0.132284 0.10791234 -0.23059301
-0.13201232 0.107905 -0.23059233
-0.131751 0.107964 -0.2306
-0.13130267 0.10792699 -0.23053133
-0.13107499 0.10790867 -0.23048766
-0.13082834 0.10789866 -0.23049068
-0.13050367 0.107887 -0.230536
-0.1300305 0.107901 -0.23050401
-0.12956734 0.10791334 -0.23048766
-0.12913199 0.10789467 -0.23052734
-0.12870266 0.10787534 -0.23051934
-0.128272 0.10792399 -0.23050334
-0.127854 0.10789866 -0.23047566
-0.12735499 0.10787534 -0.23050499
-0.12704149 0.107898 -0.230516
-0.12677734 0.10792401 -0.23051733
-0.126534 0.10790933 -0.23050599
-0.12631933 0.10788167 -0.23041433
-0.11679367 0.10790333 -0.23048401
-0.11658134 0.10790133 -0.23055868
-0.11636167 0.10787901 -0.23053266
-0.1161355 0.107903 -0.23055801
-0.1158985 0.107892 -0.230556
-0.13268965 0.10807567 -0.23056833
-0.13227734 0.10812533 -0.23056532
-0.13200434 0.10811833 -0.23058534
-0.13174599 0.10810534 -0.23059367
-0.13129601 0.10810401 -0.23051751
-0.13106734 0.10812 -0.23047066
-0.130821 0.108111 -0.23047434
-0.13049532 0.10810033 -0.23053433
-0.13002335 0.10807834 -0.23050635
-0.12955934 0.10812534 -0.23047601
-0.12912367 0.10810866 -0.23052502
-0.12869434 0.10808934 -0.230518
-0.1282665 0.1081 -0.230474
-0.12784567 0.108112 -0.23047501
-0.12734766 0.10808801 -0.23048599
-0.12703432 0.108075 -0.23050867
-0.126771 0.108101 -0.23050401
-0.126526 0.10812267 -0.23050767
-0.12631249 0.108059 -0.230404
-0.11678666 0.10811567 -0.23045899
-0.116574 0.108114 -0.230528
-0.11635333 0.108093 -0.23052633
-0.116128 0.10808233 -0.23056066
-0.11589134 0.10807133 -0.230556
-0.13268133 0.10828967 -0.23056467
-0.13227001 0.1083035 -0.23057249
-0.131998 0.108296 -0.23057249
-0.13173766 0.10831866 -0.23059566
-0.13129033 0.10828 -0.23049466
-0.13106149 0.108297 -0.23044899
-0.13081299 0.108323 -0.23046434
-0.13048901 0.10831168 -0.230498
-0.130015 0.10829166 -0.23050301
-0.1295535 0.108302 -0.2304545
-0.129116 0.10832133 -0.23050965
-0.12868699 0.10830133 -0.23050366
-0.12826 0.10827733 -0.23047066
-0.12783867 0.10832367 -0.23044801
-0.12733932 0.10830101 -0.23048067
-0.12702733 0.10828767 -0.23048633
-0.126764 0.10827934 -0.230507
-0.12652001 0.1083 -0.2304835
-0.1167795 0.108294 -0.230462
-0.11656667 0.108327 -0.23051633
-0.11634534 0.108307 -0.23052068
-0.11612067 0.108295 -0.23054565
-0.11588367 0.108284 -0.23054266
-0.13316834 0.108524 -0.23056966
-0.13267399 0.10850132 -0.23054834
-0.13226332 0.10847933 -0.23056133
-0.13199133 0.10847234 -0.23057334
-0.131732 0.108495 -0.23057601
-0.13128267 0.10849267 -0.230483
-0.13105534 0.10847367 -0.23043734
-0.130807 0.1085 -0.230454
-0.130482 0.108523 -0.23047633
-0.13000767 0.10850333 -0.230488
-0.12954567 0.10848033 -0.23047334
-0.12911001 0.108498 -0.230489
-0.12868001 0.108513 -0.230478
-0.12825198 0.10848967 -0.23045568
-0.1278325 0.108501 -0.23043549
-0.12733133 0.10851433 -0.23047566
-0.12701966 0.10850033 -0.23047699
-0.126756 0.10849167 -0.23049434
-0.126514 0.10847601 -0.23046233
-0.126298 0.108449 -0.23040301
-0.11677266 0.108473 -0.23045899
-0.11655951 0.10850599 -0.230524
-0.11633799 0.10851999 -0.23050134
-0.11611366 0.10850833 -0.23051633
-0.11587533 0.10849934 -0.23054533
-0.1331615 0.108702 -0.23057401
-0.13266601 0.10871433 -0.23054366
-0.132255 0.10869267 -0.23055933
-0.131983 0.10868634 -0.23056801
-0.13172533 0.10867233 -0.23056601
-0.13127433 0.10870533 -0.230483
-0.13104901 0.108651 -0.23041549
-0.130803 0.108607 -0.230444
-0.130799 0.108713 -0.230444
-0.13047451 0.108701 -0.23048949
-0.13000201 0.108646 -0.23048601
-0.12999851 0.108752 -0.230487
-0.129538 0.10869367 -0.23045968
-0.129103 0.108675 -0.23048733
-0.12867199 0.10872633 -0.23046868
-0.12824367 0.10870367 -0.23045899
-0.12782566 0.10867867 -0.230434
-0.127324 0.10872633 -0.23045899
-0.12701134 0.10871401 -0.23047733
-0.12674867 0.10870433 -0.23047934
-0.126506 0.10868933 -0.23045902
-0.116765 0.108686 -0.23044933
-0.116552 0.10868499 -0.23052232
-0.1163315 0.108698 -0.23048851
-0.11610533 0.10872167 -0.23051067
-0.11586666 0.10871333 -0.23055367
-0.13315468 0.108879 -0.23057334
-0.132659 0.10892633 -0.23051201
-0.13224633 0.10890666 -0.23056567
-0.13197468 0.10889933 -0.23057102
-0.13171734 0.10888567 -0.23055667
-0.13126633 0.10891933 -0.230478
-0.13103999 0.108899 -0.23040633
-0.13079201 0.10889033 -0.23044467
-0.13046633 0.10888133 -0.23050733
-0.12999299 0.108895 -0.23047799
-0.12953 0.108906 -0.23045732
-0.12909566 0.108888 -0.23047434
-0.12866551 0.1089035 -0.2304595
-0.12823534 0.10891633 -0.23045933
-0.12781733 0.10889134 -0.23043633
-0.1273165 0.108905 -0.230471
-0.12700367 0.10892534 -0.23045699
-0.12674068 0.10891766 -0.23047
-0.126498 0.10890267 -0.23045401
-0.116757 0.1089 -0.23043267
-0.11654433 0.10889766 -0.23051798
-0.11632434 0.108876 -0.23049933
-0.116098 0.108902 -0.230524
-0.1158585 0.108894 -0.230571
-0.133595 0.10915 -0.23058501
-0.133146 0.10909233 -0.23057067
-0.13265151 0.109104 -0.230524
-0.132239 0.10911866 -0.230552
-0.13196667 0.10911133 -0.23056532
-0.13170834 0.10909966 -0.23057234
-0.1312595 0.109096 -0.230472
-0.13102899 0.109181 -0.230408
-0.13078399 0.10910267 -0.23043966
-0.13045834 0.109093 -0.23050433
-0.12998633 0.10907134 -0.23047833
-0.12952167 0.109119 -0.23045401
-0.12908867 0.10909933 -0.23044968
