# .PCD v0.7 - Point Cloud Data file format
VERSION 0.7
FIELDS x y z
SIZE 4 4 4
TYPE F F F
COUNT 1 1 1
WIDTH 1414
HEIGHT 1
VIEWPOINT 0 0 0 1 0 0 0
POINTS 1414
DATA ascii
-0.046133999 0.13536775 -0.22836199
-0.046039499 0.135363 -0.228402
-0.047971502 0.13553849 -0.228424
-0.047719002 0.13552301 -0.228403
-0.047629498 0.13552 -0.228392
-0.04749025 0.1355135 -0.22838525
-0.047324251 0.13550401 -0.2283625
-0.047177497 0.13549882 -0.2283565
-0.047017001 0.135557 -0.228324
-0.046860002 0.13555101 -0.22830901
-0.046685502 0.13554549 -0.22830701
-0.046267003 0.13552201 -0.22834876
-0.046129499 0.1355125 -0.22834125
-0.046034001 0.135507 -0.22839651
-0.047965501 0.135683 -0.228431
-0.047714502 0.13566799 -0.228378
-0.0476235 0.135666 -0.22840151
-0.047485001 0.1356585 -0.22837725
-0.047318999 0.13564849 -0.22835526
-0.047164433 0.13565771 -0.22834113
-0.047012001 0.135701 -0.228312
-0.046856001 0.13565899 -0.228302
-0.04668 0.1356895 -0.228311
-0.046261504 0.13566649 -0.22834049
-0.046122748 0.13565701 -0.2283655
-0.04599575 0.13564974 -0.22841425
-0.048131999 0.135873 -0.22844499
-0.047960497 0.13582599 -0.228423
-0.0477085 0.135812 -0.22837999
-0.047619 0.135809 -0.22838801
-0.04747925 0.13580251 -0.22837825
-0.047304802 0.13581359 -0.2283618
-0.047172002 0.135832 -0.2283465
-0.047007501 0.13584501 -0.228303
-0.046675999 0.13579801 -0.228314
-0.046314999 0.135812 -0.2283065
-0.046143834 0.13580351 -0.22836684
-0.045990251 0.13579375 -0.22841324
-0.048127502 0.13598301 -0.228442
-0.047954999 0.13597099 -0.228421
-0.047702998 0.13595551 -0.22838399
-0.047613502 0.13595299 -0.2283935
-0.04747425 0.13594601 -0.22837174
-0.047313198 0.1359866 -0.22835079
-0.047159333 0.136002 -0.22832699
-0.0470015 0.135989 -0.22830799
-0.046309501 0.13595551 -0.228305
-0.046138499 0.135948 -0.22835934
-0.045983169 0.13597466 -0.22841282
-0.048234399 0.1361386 -0.22844401
-0.048122503 0.136127 -0.22843701
-0.0479495 0.136115 -0.22841001
-0.04765325 0.136098 -0.228367
-0.047467668 0.13612567 -0.228359
-0.047300003 0.13615149 -0.22834475
-0.047165602 0.13613901 -0.22831082
-0.047048502 0.1361385 -0.2283065
-0.046304002 0.136099 -0.22830251
-0.04612625 0.13611813 -0.22833887
-0.045976751 0.13615423 -0.228402
-0.048475001 0.136323 -0.228449
-0.048228502 0.13627517 -0.2284355
-0.048116997 0.136271 -0.22843
-0.047944501 0.136259 -0.228407
-0.0476382 0.136263 -0.2283636
-0.047461502 0.1363055 -0.22834499
-0.047294248 0.1362955 -0.22834
-0.047174502 0.13629125 -0.228329
-0.046133853 0.13629314 -0.22834198
-0.04597025 0.13629949 -0.22841699
-0.049040001 0.136494 -0.22844601
-0.048470497 0.13643101 -0.2284475
-0.048223671 0.13641866 -0.22842397
-0.048113003 0.13641399 -0.22840199
-0.047939502 0.136402 -0.22838899
-0.047650002 0.13643619 -0.2283518
-0.047455505 0.13644926 -0.22834851
-0.047289748 0.13643925 -0.22832975
-0.047168754 0.13643551 -0.228337
-0.046119001 0.136452 -0.22835834
-0.045964748 0.13644376 -0.22842149
-0.049036 0.136602 -0.228439
-0.048464 0.136611 -0.22844
-0.0482185 0.13656233 -0.22841318
-0.048107497 0.136558 -0.228395
-0.0479335 0.136547 -0.228402
-0.047634754 0.13660151 -0.22834475
-0.047449745 0.13659349 -0.22835249
-0.0473205 0.136584 -0.228322
-0.047191668 0.13658017 -0.22833033
-0.046113834 0.13659583 -0.22835468
-0.045959502 0.13658725 -0.22841351
-0.049031999 0.13671 -0.228444
-0.048460998 0.136718 -0.2284195
-0.048213664 0.13670599 -0.22839768
-0.048101999 0.136702 -0.228395
-0.047926996 0.13672633 -0.228392
-0.047628999 0.13674551 -0.22835399
-0.047460333 0.13672566 -0.22834067
-0.047342669 0.136742 -0.22833167
-0.047187001 0.13672367 -0.22831434
-0.046280999 0.136711 -0.228301
-0.046108499 0.13673984 -0.22834967
-0.045954745 0.136731 -0.2283935
-0.048903 0.13692001 -0.22844499
-0.048455499 0.13686199 -0.228421
-0.048220597 0.136843 -0.22838822
-0.048113331 0.13685867 -0.228404
-0.047920503 0.136906 -0.22838199
-0.0476235 0.136889 -0.22835624
-0.047484003 0.13688301 -0.228347
-0.047352254 0.136875 -0.228322
-0.047183249 0.136867 -0.22830501
-0.046115 0.13687679 -0.2283262
-0.045969002 0.1368828 -0.2283866
-0.049019001 0.137034 -0.2284455
-0.048899002 0.13702799 -0.22843599
-0.048450999 0.13697 -0.228423
-0.048448 0.137042 -0.22841799
-0.048232 0.136995 -0.22839701
-0.048115667 0.13702701 -0.22840382
-0.0479155 0.13705 -0.2283695
-0.047618002 0.137033 -0.22835
-0.047478497 0.137027 -0.22834
-0.047347002 0.13701901 -0.22831875
-0.046125252 0.1370295 -0.22833051
-0.045977335 0.13701983 -0.228369
-0.049013503 0.137178 -0.22844401
-0.0488935 0.137172 -0.22843349
-0.048444502 0.13715 -0.228412
-0.048225496 0.13717467 -0.22838651
-0.048108999 0.137207 -0.22839725
-0.047909997 0.1371935 -0.228365
-0.047612999 0.1371765 -0.22833975
-0.047472998 0.137171 -0.22834
-0.047355998 0.137152 -0.22831933
-0.046120752 0.137173 -0.22830948
-0.045959599 0.13715541 -0.228358
-0.045827501 0.13716149 -0.22843999
-0.049573999 0.137321 -0.22845
-0.049009003 0.137321 -0.2284275
-0.048887998 0.13731501 -0.22843
-0.048439503 0.13729349 -0.2284015
-0.048218749 0.13735449 -0.22838099
-0.048103251 0.13735099 -0.22840126
-0.047904499 0.13733751 -0.2283655
-0.0476075 0.1373205 -0.2283375
-0.047467999 0.13731501 -0.22833
-0.047379501 0.13731 -0.22831
-0.045968249 0.13728851 -0.22833925
-0.045847669 0.13731767 -0.22842
-0.049217001 0.13751701 -0.22845
-0.049002498 0.137465 -0.228431
-0.048882999 0.13745899 -0.22842249
-0.048432995 0.137473 -0.22838832
-0.048213501 0.1374985 -0.22837976
-0.048097499 0.13749599 -0.22840175
-0.047899 0.137481 -0.228369
-0.047601998 0.13746449 -0.22833325
-0.047462501 0.13745899 -0.228329
-0.047344331 0.137464 -0.22830833
-0.045962997 0.13745099 -0.22831401
-0.045856498 0.13745074 -0.22839876
-0.049462002 0.13767201 -0.228448
-0.049237669 0.13763867 -0.22844465
-0.048997998 0.137609 -0.2284175
-0.0488775 0.137603 -0.228425
-0.048426002 0.13765299 -0.22839701
-0.048207503 0.1376425 -0.22838549
-0.048092499 0.137638 -0.22839175
-0.047893502 0.13762499 -0.2283695
-0.047597505 0.13760826 -0.2283165
-0.047457002 0.13760251 -0.228324
-0.0473685 0.1375975 -0.228304
-0.045959 0.137558 -0.228302
-0.045851998 0.13759375 -0.228374
-0.049555 0.137824 -0.22844
-0.0494585 0.13778 -0.22844851
-0.049245499 0.1377715 -0.22843701
-0.049144 0.137804 -0.22845
-0.048992999 0.13775299 -0.228406
-0.048872001 0.137747 -0.22841951
-0.0484205 0.137797 -0.228383
-0.048202753 0.137786 -0.22836676
-0.0480875 0.1377825 -0.22838026
-0.047888502 0.137769 -0.228357
-0.047636501 0.13775299 -0.2283195
-0.0474995 0.13774849 -0.2283165
-0.045839202 0.13775921 -0.22835059
-0.045715664 0.13777201 -0.22844166
-0.049551502 0.137933 -0.22842801
-0.049422666 0.13793734 -0.22844601
-0.049240753 0.13791549 -0.22842149
-0.049116001 0.137909 -0.22844949
-0.0489875 0.13789749 -0.2284075
-0.048865665 0.13792734 -0.22840531
-0.048414998 0.137942 -0.228383
-0.048196498 0.1379315 -0.2283715
-0.048082497 0.137927 -0.22836924
-0.047883 0.137914 -0.2283465
-0.0476305 0.137899 -0.228331
-0.047510669 0.13788168 -0.228311
-0.045826003 0.13796534 -0.22834666
-0.045709498 0.137952 -0.22843499
-0.049544498 0.13807601 -0.22844601
-0.049418334 0.13805701 -0.228444
-0.0492725 0.138061 -0.228416
-0.049140599 0.13806079 -0.22842939
-0.048982501 0.13804001 -0.22838801
-0.048859499 0.138107 -0.228392
-0.048409998 0.13808601 -0.228376
-0.048191499 0.13807499 -0.22836825
-0.048077002 0.13807026 -0.22836025
-0.0478785 0.1380575 -0.22833499
-0.047624003 0.13807768 -0.22831799
-0.047535334 0.13807432 -0.22830899
-0.045833498 0.13809749 -0.22835299
-0.045703001 0.138096 -0.22844151
-0.049539998 0.138221 -0.228434
-0.0493985 0.1382125 -0.22842576
-0.049266502 0.13820601 -0.228425
-0.049134504 0.13819866 -0.22842668
-0.048975334 0.13822134 -0.22839433
-0.048854001 0.13825101 -0.22839001
-0.048402503 0.13823099 -0.228405
-0.048186 0.13821851 -0.22836602
-0.04807125 0.13821475 -0.22836775
-0.047873497 0.138201 -0.2283275
-0.045828 0.1382415 -0.22835574
-0.045698002 0.13823999 -0.228432
-0.049986999 0.138419 -0.228449
-0.049796 0.13841 -0.22844
-0.049534999 0.138365 -0.2284155
-0.049437501 0.138357 -0.22841349
-0.049305253 0.13835451 -0.2284195
-0.049121253 0.13836899 -0.22841762
-0.048969001 0.138401 -0.228384
-0.048848502 0.138395 -0.22838899
-0.0483975 0.138375 -0.228404
-0.048214503 0.138364 -0.22836101
-0.048093334 0.13835901 -0.22835799
-0.047867499 0.138345 -0.228333
-0.045822248 0.1383855 -0.22835749
-0.049983501 0.13852549 -0.22844049
-0.049792498 0.13851699 -0.22843499
-0.0495295 0.13850801 -0.228412
-0.049432002 0.1384995 -0.228413
-0.049300753 0.13849699 -0.22840275
-0.049130432 0.13854316 -0.22840257
-0.048964001 0.13854399 -0.228366
-0.048842497 0.13854 -0.228395
-0.048393 0.13851851 -0.22838199
-0.048208497 0.13850901 -0.22836399
-0.048087835 0.138504 -0.22835582
-0.047859997 0.13852601 -0.22833633
-0.0458165 0.13853049 -0.22835875
-0.049978003 0.13867 -0.22843701
-0.049786501 0.138662 -0.2284385
-0.049524501 0.138653 -0.2284085
-0.0494265 0.13864399 -0.2284115
-0.049286403 0.13866159 -0.22838402
-0.049116667 0.13870233 -0.228392
-0.048958503 0.138689 -0.22836101
-0.048837498 0.138684 -0.228387
-0.0483885 0.138662 -0.22835299
-0.048203498 0.138653 -0.2283605
-0.048082501 0.13864802 -0.22834933
-0.047853 0.138706 -0.22833401
-0.045810752 0.13867401 -0.2283645
-0.049972497 0.138814 -0.22843349
-0.049781501 0.138806 -0.228434
-0.0495185 0.138797 -0.22840901
-0.049419999 0.13882333 -0.228402
-0.049296599 0.1388364 -0.22839499
-0.049111333 0.13884534 -0.22838683
-0.048952997 0.138832 -0.22837201
-0.048832498 0.138827 -0.228367
-0.048382998 0.138806 -0.228359
-0.048198499 0.13879651 -0.228347
-0.048069879 0.13881825 -0.22833699
-0.0478485 0.13885 -0.228312
-0.045805503 0.138818 -0.22835276
-0.045675501 0.138818 -0.22844601
-0.049967498 0.13895801 -0.22842801
-0.0497755 0.13895001 -0.2284375
-0.049511999 0.13897701 -0.22840299
-0.0494125 0.13900399 -0.228411
-0.049281497 0.1390015 -0.22838825
-0.049105164 0.13898982 -0.22839765
-0.0489485 0.13897601 -0.22834599
-0.048827499 0.138971 -0.228365
-0.048377998 0.1389495 -0.22834501
-0.048192333 0.13897599 -0.22832935
-0.048078142 0.13899185 -0.22832213
-0.047842503 0.13899401 -0.22832
-0.0458005 0.138962 -0.22834149
-0.045670003 0.138962 -0.22843951
-0.049961999 0.139102 -0.2284175
-0.049771003 0.139093 -0.22841901
-0.049505502 0.13915649 -0.228396
-0.049407497 0.139148 -0.228404
-0.049276747 0.1391445 -0.228376
-0.049126752 0.13913551 -0.22838874
-0.048995249 0.13912499 -0.2283645
-0.048822001 0.13911501 -0.228357
-0.048373498 0.139093 -0.228332
-0.0481865 0.13915449 -0.2283075
-0.048054405 0.1391426 -0.22831039
-0.047839001 0.139101 -0.22831
-0.045794751 0.13910626 -0.22835025
-0.050113998 0.139296 -0.22844601
-0.050006166 0.13925217 -0.22841917
-0.049764331 0.139273 -0.22840466
-0.049502 0.139264 -0.228377
-0.049435332 0.13930632 -0.22838032
-0.049270999 0.13928901 -0.22837624
-0.049121749 0.13927899 -0.22837274
-0.04899 0.1392685 -0.22835875
-0.0488175 0.1392585 -0.22833699
-0.048366666 0.139273 -0.22832136
-0.048180498 0.13929901 -0.228306
-0.048042331 0.13928233 -0.22830433
-0.045829497 0.13925049 -0.22830999
-0.045718331 0.13926333 -0.22840135
-0.050133001 0.13941634 -0.22843766
-0.050001163 0.13939618 -0.22841318
-0.049947999 0.139497 -0.228403
-0.049758501 0.139452 -0.228383
-0.049446251 0.13943975 -0.22837751
-0.049265999 0.13943225 -0.22836199
-0.049116999 0.13942274 -0.22835875
-0.04898525 0.13941251 -0.228342
-0.048811503 0.139402 -0.22834
-0.048359498 0.13945299 -0.22832799
-0.048175499 0.139443 -0.22830451
-0.048080496 0.13943949 -0.22830999
-0.045823 0.13939449 -0.2283155
-0.045698751 0.139395 -0.22840199
-0.050306 0.139596 -0.2284445
-0.050139502 0.139549 -0.22844325
-0.050019749 0.13954349 -0.22842225
-0.049943998 0.139605 -0.228395
-0.049753502 0.139596 -0.228378
-0.049440749 0.1395835 -0.22837649
-0.049260251 0.139576 -0.22836201
-0.04911175 0.1395655 -0.22835001
-0.048979502 0.1395565 -0.22834174
-0.048805997 0.13954601 -0.22834399
-0.048354 0.139597 -0.2283275
-0.0480485 0.13958201 -0.228305
-0.045815498 0.13960999 -0.228311
-0.045701601 0.13956141 -0.22839439
-0.050257001 0.13966499 -0.228443
-0.050169498 0.139695 -0.22844
-0.050041113 0.13972467 -0.22842591
-0.0499385 0.13974901 -0.22839099
-0.049748 0.13974001 -0.228376
-0.04943575 0.13972725 -0.22836675
-0.049254749 0.1397205 -0.22837076
-0.049105749 0.1397105 -0.22836176
-0.048974 0.13970076 -0.22833699
-0.048799336 0.139726 -0.22834165
-0.048348501 0.139741 -0.228319
-0.048042499 0.13972649 -0.228306
-0.047991 0.139688 -0.228301
-0.045809001 0.139755 -0.22833
-0.045729 0.13975701 -0.22839449
-0.050163332 0.13987499 -0.22842835
-0.050034329 0.1399045 -0.22842234
-0.049933501 0.139893 -0.228386
-0.049741998 0.139884 -0.228386
-0.049430002 0.13987151 -0.22837199
-0.049249753 0.1398645 -0.22835825
-0.049100749 0.13985449 -0.22835025
-0.0489574 0.1398652 -0.22833541
-0.048793003 0.139906 -0.228322
-0.048342999 0.13988501 -0.22832051
-0.048064001 0.13987125 -0.22830799
-0.0458025 0.1399 -0.22834601
-0.045723498 0.139901 -0.228395
-0.0501565 0.140055 -0.22842599
-0.050028998 0.140048 -0.22841817
-0.049927503 0.140037 -0.228393
-0.0497365 0.140028 -0.228386
-0.049424499 0.14001501 -0.22836751
-0.049258996 0.13999766 -0.22835934
-0.049115799 0.14000699 -0.2283498
-0.048961751 0.1400245 -0.228338
-0.048786998 0.14004999 -0.22833151
-0.048336998 0.140029 -0.228332
-0.048058249 0.14001551 -0.228314
-0.047977999 0.1400125 -0.228311
-0.045796998 0.140045 -0.2283425
-0.045672499 0.140045 -0.22842374
-0.050328001 0.140247 -0.228449
-0.050179001 0.140212 -0.22842699
-0.050023835 0.14019233 -0.22841267
-0.049921498 0.14018101 -0.22839099
-0.049730502 0.140172 -0.228396
-0.049418747 0.1401595 -0.2283725
-0.049282499 0.140156 -0.228351
-0.049114142 0.14015956 -0.22835873
-0.048965801 0.14018402 -0.2283456
-0.048780501 0.140194 -0.22835
-0.048331998 0.140172 -0.22830951
-0.048027001 0.140122 -0.228304
-0.045791999 0.1401885 -0.228331
-0.045712501 0.14018899 -0.22838899
-0.050188251 0.14034501 -0.22842275
-0.050017495 0.14033683 -0.22842549
-0.049915999 0.1403245 -0.228392
-0.049723998 0.1403165 -0.22840199
-0.049413249 0.14030249 -0.22836599
-0.049276501 0.14030001 -0.2283625
-0.049118336 0.14031217 -0.22833985
-0.049001999 0.14035299 -0.228342
-0.04883625 0.14034051 -0.22832325
-0.0457865 0.140332 -0.22833249
-0.045707501 0.14033499 -0.22837901
-0.050406501 0.14050201 -0.22844699
-0.050182752 0.14049076 -0.22842325
-0.050012503 0.14048083 -0.22841369
-0.049911 0.140468 -0.22838399
-0.049719498 0.14046 -0.22838899
-0.04940775 0.1404475 -0.22836699
-0.049271002 0.140444 -0.22836199
-0.0491524 0.140485 -0.22834539
-0.049013663 0.14050932 -0.22831799
-0.048831001 0.1404845 -0.22831875
-0.045781001 0.1404765 -0.22833401
-0.045701001 0.140479 -0.228398
-0.050402001 0.14060999 -0.228449
-0.0503125 0.14064449 -0.228448
-0.0501775 0.140634 -0.22841498
-0.050007835 0.14062367 -0.22839952
-0.049905501 0.14061201 -0.228376
-0.049714498 0.140604 -0.228377
-0.049402501 0.140591 -0.2283715
-0.049285751 0.14064175 -0.22835675
-0.049138501 0.14064975 -0.2283445
-0.04901525 0.14064249 -0.22834201
-0.048765 0.14062551 -0.2283245
-0.045775503 0.14061999 -0.22833151
-0.045694999 0.140624 -0.22840601
-0.050306998 0.140788 -0.22844851
-0.050172001 0.1407785 -0.22841349
-0.050029501 0.14077024 -0.2284005
-0.049924001 0.14076099 -0.228379
-0.049709499 0.140747 -0.228366
-0.049444333 0.14077634 -0.22836466
-0.049301751 0.14080299 -0.22835051
-0.049133502 0.14079325 -0.22832751
-0.049010001 0.14078701 -0.2283365
-0.048800666 0.14075901 -0.22830868
-0.045769498 0.140764 -0.22833401
-0.04569 0.14076701 -0.22839999
-0.050472498 0.140938 -0.228448
-0.050346002 0.1409325 -0.22843899
-0.050166499 0.14092299 -0.22841199
-0.050024252 0.1409145 -0.22840026
-0.049918503 0.14090525 -0.22837576
-0.049703669 0.140927 -0.22834033
-0.049437501 0.140955 -0.22835949
-0.049296752 0.14094651 -0.22834225
-0.049128499 0.140937 -0.228322
-0.049004249 0.14093025 -0.2283365
-0.045763999 0.14091 -0.2283345
-0.0456855 0.14091 -0.228377
-0.0503405 0.14107651 -0.22843924
-0.050160997 0.141066 -0.2284085
-0.050019249 0.14105751 -0.22838749
-0.049912997 0.14104851 -0.22836851
-0.049696498 0.14110699 -0.22834301
-0.049431503 0.141101 -0.22836199
-0.049291249 0.1410915 -0.22833574
-0.049122501 0.14108175 -0.228328
-0.04899925 0.141074 -0.2283285
-0.048748001 0.141093 -0.228301
-0.045758002 0.14105451 -0.22834501
-0.0456785 0.141057 -0.228403
-0.050461501 0.14122599 -0.228448
-0.050334498 0.14122151 -0.2284465
-0.050154999 0.1412105 -0.22841701
-0.050014 0.14120151 -0.22838199
-0.049902197 0.1412134 -0.2283624
-0.0496905 0.14125299 -0.22834849
-0.049427003 0.1412435 -0.2283425
-0.049285747 0.14123575 -0.22833675
-0.049117249 0.14122576 -0.228323
-0.048993502 0.14122 -0.22833
-0.048743501 0.141203 -0.228306
-0.045752503 0.14119799 -0.2283355
-0.045672499 0.141201 -0.22840901
-0.050329249 0.14136449 -0.22843976
-0.05015 0.14135425 -0.22840525
-0.0500075 0.14134625 -0.22839899
-0.049900249 0.1413735 -0.2283715
-0.049685501 0.141396 -0.228341
-0.0494215 0.141387 -0.22833899
-0.049280502 0.141379 -0.22833151
-0.04911175 0.14137 -0.22832201
-0.048988499 0.14136274 -0.228321
-0.04874 0.14130899 -0.22830801
-0.045706499 0.1413445 -0.2283785
-0.050323501 0.1415095 -0.22844
-0.050145 0.141498 -0.2283995
-0.050001666 0.14152582 -0.22838084
-0.0498996 0.14153259 -0.22835919
-0.049680002 0.14153901 -0.2283365
-0.049415998 0.141532 -0.2283345
-0.04927475 0.14152351 -0.22833201
-0.049106251 0.1415135 -0.22831601
-0.048981998 0.141508 -0.22833301
-0.048728999 0.141599 -0.228301
-0.045700166 0.14152466 -0.22836615
-0.050444998 0.14166 -0.2284435
-0.050318751 0.14165375 -0.22843125
-0.050181501 0.141646 -0.228415
-0.050037712 0.14169243 -0.22838557
-0.049888503 0.14169699 -0.22835526
-0.049675003 0.141683 -0.228328
-0.049411498 0.141675 -0.22831899
-0.049269751 0.14166699 -0.228323
-0.049100749 0.14165799 -0.22831699
-0.048976749 0.141652 -0.22833376
-0.045694251 0.14170425 -0.22834849
-0.045561999 0.141743 -0.228448
-0.050439499 0.141802 -0.22843501
-0.050313003 0.14179701 -0.22842301
-0.050175328 0.14182466 -0.22839634
-0.05002233 0.14185134 -0.22837883
-0.049883749 0.14184125 -0.228343
-0.049668998 0.141828 -0.22833499
-0.049406499 0.141818 -0.22831151
-0.049263753 0.14181176 -0.22833049
-0.049095504 0.14180249 -0.228312
-0.048971504 0.1417955 -0.22831699
-0.045675669 0.14185901 -0.228341
-0.045559 0.14184999 -0.22842801
-0.0504345 0.141946 -0.22842249
-0.050306499 0.1419775 -0.22842099
-0.050168 0.1420055 -0.22840101
-0.050016835 0.14199533 -0.22837935
-0.049877748 0.14198525 -0.22834849
-0.049663499 0.14197201 -0.228329
-0.049400501 0.14196301 -0.228314
-0.049259003 0.14195549 -0.22831599
-0.048964996 0.14197518 -0.22831334
-0.04568325 0.14199251 -0.228342
-0.045552999 0.141994 -0.22842851
-0.050427333 0.14212701 -0.22842734
-0.050300002 0.142157 -0.22840825
-0.0501635 0.14214951 -0.2283875
-0.050043251 0.14214076 -0.22836575
-0.049897667 0.14213149 -0.22836018
-0.0496585 0.142116 -0.22832549
-0.049395002 0.14210699 -0.22831249
-0.0492975 0.14209899 -0.228311
-0.048959501 0.14211899 -0.2283075
-0.045677502 0.1421365 -0.22834176
-0.050421 0.142307 -0.22841699
-0.050309669 0.14228968 -0.22840466
-0.050188664 0.142307 -0.22837602
-0.050038252 0.14228401 -0.22835124
-0.049893335 0.14227466 -0.22833316
-0.049653001 0.14226 -0.22832501
-0.049390003 0.142251 -0.22830799
-0.049291998 0.14224249 -0.22830799
-0.045671999 0.1422815 -0.22834802
-0.050606668 0.142425 -0.228429
-0.050416 0.14245051 -0.22841099
-0.050333999 0.1424455 -0.22839451
-0.050199252 0.14243999 -0.22837925
-0.050032999 0.14242774 -0.22834226
-0.049888331 0.14241834 -0.22832149
-0.049647503 0.1424035 -0.2283185
-0.045666002 0.14242649 -0.22835475
-0.050861001 0.142546 -0.2284475
-0.050600998 0.14260399 -0.22839999
-0.050411001 0.14259399 -0.228398
-0.050329499 0.142589 -0.228378
-0.050194249 0.142584 -0.22836851
-0.050028749 0.14257075 -0.22831975
-0.049907498 0.142566 -0.22832701
-0.045661002 0.14257026 -0.22834101
-0.050852999 0.1427615 -0.228439
-0.0505955 0.142748 -0.22840551
-0.050406002 0.142738 -0.228383
-0.050323501 0.14273301 -0.2283785
-0.050189752 0.1427265 -0.22834575
-0.050022751 0.14271501 -0.22832175
-0.049901746 0.14271 -0.22833025
-0.045655251 0.14271425 -0.22834474
-0.050849002 0.14287101 -0.228444
-0.050590001 0.142892 -0.22839999
-0.050402001 0.142846 -0.228379
-0.05034567 0.14289068 -0.22836633
-0.050185248 0.14286976 -0.22832549
-0.050017498 0.14285901 -0.22831924
-0.049896751 0.1428535 -0.228313
-0.045650251 0.142858 -0.22833
-0.045519501 0.1428615 -0.2284295
-0.050840002 0.143086 -0.228444
-0.050585002 0.1430355 -0.2283875
-0.050354499 0.14302175 -0.22835775
-0.0501795 0.14301449 -0.22833076
-0.050047003 0.143005 -0.22832349
-0.049919002 0.142998 -0.2283055
-0.045632333 0.14299101 -0.22833501
-0.045513999 0.143007 -0.228431
-0.050837003 0.143194 -0.228425
-0.050580002 0.143179 -0.228375
-0.05034925 0.14316599 -0.228358
-0.050173998 0.14315799 -0.2283325
-0.050044 0.143113 -0.228311
-0.045602001 0.143113 -0.22834601
-0.045553498 0.14315051 -0.228397
-0.0508315 0.14333799 -0.22841901
-0.050573498 0.14332351 -0.22838849
-0.050343249 0.1433105 -0.22836326
-0.050167497 0.1433035 -0.22834525
-0.049964327 0.14332466 -0.22830667
-0.049904503 0.14335901 -0.22830701
-0.045671999 0.14332633 -0.22830534
-0.0455935 0.14329299 -0.228366
-0.050996002 0.143526 -0.228438
-0.050825998 0.14348149 -0.228413
-0.0505675 0.14347 -0.22839701
-0.050338 0.14345449 -0.22835749
-0.050162248 0.1434475 -0.228338
-0.050027002 0.143544 -0.228306
-0.049897999 0.143538 -0.228302
-0.0456645 0.143508 -0.22831601
-0.045586001 0.14347567 -0.22838032
-0.051072501 0.143639 -0.2284435
-0.050991498 0.14363399 -0.22843701
-0.050821498 0.14362501 -0.228405
-0.050563 0.143613 -0.2283815
-0.050332252 0.14359951 -0.22836025
-0.050147198 0.1436124 -0.2283268
-0.050022498 0.143654 -0.22830951
-0.045658499 0.14365301 -0.228314
-0.045578502 0.143657 -0.22838649
-0.051066503 0.143784 -0.228449
-0.050985999 0.14377999 -0.228439
-0.050816 0.143769 -0.22840199
-0.050557502 0.143757 -0.228376
-0.050317597 0.1437656 -0.22835842
-0.050159205 0.143787 -0.22833058
-0.050019 0.14376201 -0.228305
-0.045653 0.143797 -0.22831699
-0.045573 0.143801 -0.228388
-0.051105253 0.14393073 -0.22842875
-0.050981499 0.143922 -0.228423
-0.050811499 0.14391249 -0.22837901
-0.050553001 0.1438995 -0.22835951
-0.050328005 0.14393941 -0.2283498
-0.050189503 0.1439555 -0.22833601
-0.050096497 0.143949 -0.228331
-0.045647502 0.14394251 -0.22831851
-0.045567498 0.14394599 -0.2283825
-0.051099498 0.14407524 -0.228431
-0.050975502 0.144068 -0.22843
-0.050805502 0.14405701 -0.228385
-0.050546497 0.144045 -0.22837299
-0.050314002 0.14410375 -0.22833401
-0.050183997 0.14410049 -0.22833601
-0.050062668 0.14410199 -0.22831134
-0.0499065 0.144081 -0.2283015
-0.045642003 0.144086 -0.22831401
-0.045562498 0.14409 -0.228369
-0.051094003 0.14421925 -0.22843024
-0.050970502 0.1442115 -0.228413
-0.050800003 0.1442005 -0.22837901
-0.05054 0.144225 -0.22836466
-0.050308499 0.144247 -0.22832975
-0.050178997 0.144244 -0.22832799
-0.050058335 0.14422135 -0.22830667
-0.049900748 0.14422551 -0.22830351
-0.045636497 0.14423001 -0.2283105
-0.045556501 0.144235 -0.228377
-0.051219001 0.14441 -0.22844701
-0.051088497 0.14436375 -0.22842899
-0.050965 0.14435551 -0.228407
-0.050794497 0.144346 -0.22838801
-0.0505335 0.14440399 -0.22835401
-0.050303251 0.14439151 -0.2283265
-0.050173499 0.14438801 -0.22832599
-0.050080501 0.14438149 -0.22830999
-0.0456305 0.14437599 -0.22831801
-0.045550503 0.144381 -0.228394
-0.051215 0.144517 -0.22844249
-0.051083252 0.144508 -0.22842523
-0.050960001 0.144499 -0.22839999
-0.050787333 0.14452668 -0.22838967
-0.0505285 0.144548 -0.22835
-0.050297748 0.14453551 -0.22832775
-0.050168999 0.144532 -0.22831
-0.050075002 0.14452499 -0.228306
-0.049842 0.14452499 -0.228305
-0.0456255 0.14452 -0.22830951
-0.045544997 0.14452499 -0.22838101
-0.051210001 0.14466099 -0.22843501
-0.05107725 0.14465275 -0.22843301
-0.050953999 0.14464299 -0.228413
-0.050780497 0.144706 -0.228379
-0.050522499 0.144694 -0.228357
-0.050306667 0.14466767 -0.22832032
-0.050191667 0.14468867 -0.22831632
-0.049828999 0.14462051 -0.2283015
-0.045619503 0.144664 -0.228312
-0.045539998 0.144669 -0.228374
-0.051302001 0.14484601 -0.228448
-0.051204503 0.144805 -0.2284275
-0.051071499 0.14479676 -0.22843149
-0.050947666 0.14482367 -0.22840302
-0.050775498 0.14485 -0.22837
-0.050517 0.14483801 -0.22835401
-0.050328501 0.144825 -0.2283105
-0.050201252 0.14482149 -0.22831926
-0.0456145 0.14480799 -0.22830349
-0.045534499 0.144812 -0.228367
-0.051683001 0.14500999 -0.228449
-0.051248252 0.144953 -0.22844425
-0.051057 0.1449614 -0.2284216
-0.0509395 0.145005 -0.22841451
-0.0507695 0.14499401 -0.22837301
-0.050512001 0.14498049 -0.228332
-0.050322503 0.144969 -0.228321
-0.050196499 0.14496374 -0.228305
-0.045608997 0.144953 -0.228302
-0.0455295 0.14495701 -0.22836
-0.051372997 0.14510401 -0.2284455
-0.051243 0.145096 -0.22843575
-0.051067401 0.14513721 -0.2284282
-0.050934002 0.14515001 -0.22841999
-0.050764501 0.14513999 -0.228374
-0.050506502 0.14512551 -0.228338
-0.050316498 0.14511549 -0.2283285
-0.050190751 0.14510876 -0.22830525
-0.045524001 0.14510199 -0.22836301
-0.051456001 0.145291 -0.22844701
-0.051367499 0.145248 -0.228441
-0.0512264 0.1452622 -0.22843561
-0.051052496 0.1453025 -0.22842099
-0.050929002 0.145294 -0.2284095
-0.0507585 0.145284 -0.228376
-0.050500497 0.145271 -0.228347
-0.050310999 0.1452605 -0.22833401
-0.050184999 0.14525375 -0.22831351
-0.045519501 0.145245 -0.22834
-0.051282998 0.14535099 -0.228448
-0.051047251 0.14544649 -0.22841875
-0.050924003 0.145437 -0.228395
-0.050754003 0.1454275 -0.22835901
-0.0504945 0.14541599 -0.22834951
-0.050306 0.145403 -0.22831851
-0.050223 0.1453985 -0.2283195
-0.045512002 0.14542601 -0.22834666
-0.051353499 0.14560799 -0.22844499
-0.051221497 0.145639 -0.22844401
-0.0510845 0.145595 -0.228422
-0.050958749 0.14558351 -0.22839674
-0.050747499 0.14557251 -0.228365
-0.0504895 0.145559 -0.22833899
-0.050300501 0.145547 -0.22831601
-0.050218001 0.145542 -0.228306
-0.045505002 0.14560801 -0.22834599
-0.045413002 0.14561149 -0.2284345
-0.051440332 0.14572267 -0.228431
-0.05121775 0.14574701 -0.2284365
-0.051078998 0.14574 -0.228423
-0.0509535 0.14572701 -0.22839174
-0.050742 0.14571801 -0.22837
-0.050485 0.14570101 -0.228324
-0.050294001 0.14572699 -0.228306
-0.045500003 0.145751 -0.22833249
-0.0454075 0.14575601 -0.22842601
-0.051648498 0.1459125 -0.22843799
-0.051372334 0.14591134 -0.22844367
-0.051212497 0.1458905 -0.22842899
-0.051073998 0.14588299 -0.228414
-0.050947998 0.145872 -0.228387
-0.0507375 0.145859 -0.228351
-0.050480001 0.14584449 -0.22830799
-0.045494501 0.145895 -0.228328
-0.045401499 0.14590201 -0.22843599
-0.0516445 0.146055 -0.228412
-0.051383503 0.14604375 -0.22841725
-0.05120825 0.1460335 -0.22840849
-0.051068999 0.146026 -0.22839701
-0.050943248 0.146016 -0.22837575
-0.050731502 0.146005 -0.22835401
-0.050473001 0.14602666 -0.22831134
-0.045488499 0.14603999 -0.22833899
-0.045396 0.14604649 -0.22843501
-0.051638 0.146201 -0.228424
-0.051379252 0.1461855 -0.22839099
-0.051202752 0.14617699 -0.22840351
-0.051064 0.14617001 -0.228387
-0.050938249 0.14615875 -0.22836325
-0.050727002 0.14614899 -0.22833899
-0.050465502 0.146207 -0.228315
-0.045482501 0.14618599 -0.228347
-0.051633 0.146345 -0.228412
-0.0513735 0.14633101 -0.22839326
-0.051247001 0.14632399 -0.22840899
-0.051103495 0.14631626 -0.228383
-0.050932497 0.1463035 -0.22836074
-0.0507215 0.146293 -0.22833399
-0.050460503 0.14635 -0.228306
-0.045477502 0.146331 -0.228339
-0.051627502 0.14648899 -0.22841699
-0.051368501 0.1464745 -0.2283795
-0.051242001 0.146468 -0.228393
-0.051098503 0.1464595 -0.22837
-0.050927751 0.146447 -0.228351
-0.050714999 0.14647199 -0.22832532
-0.050455999 0.146458 -0.228304
-0.045471497 0.146477 -0.228348
-0.051899001 0.146686 -0.228449
-0.0516215 0.14663351 -0.228415
-0.051362999 0.14661801 -0.22837426
-0.051238 0.14660901 -0.2283605
-0.051093001 0.14660451 -0.2283645
-0.050913602 0.1466122 -0.22834119
-0.050709002 0.146651 -0.2283015
-0.045465998 0.146621 -0.22833601
-0.045372501 0.14662749 -0.228449
-0.051859997 0.146795 -0.22844499
-0.051616497 0.146777 -0.228404
-0.051357999 0.14676251 -0.22837001
-0.051231999 0.14675499 -0.22837299
-0.051087752 0.14674824 -0.2283615
-0.050923802 0.1467852 -0.22832958
-0.050703499 0.146796 -0.228303
-0.0454605 0.14676601 -0.22833499
-0.045368999 0.14673699 -0.22845
-0.051611498 0.14692099 -0.22839299
-0.051351748 0.14690749 -0.22837675
-0.051225998 0.1469 -0.228378
-0.051073201 0.1469124 -0.22834699
-0.050908998 0.1469505 -0.22832499
-0.045455001 0.14691 -0.22833601
-0.045359999 0.146954 -0.22844701
-0.051847499 0.14711949 -0.22844249
-0.051606998 0.14706349 -0.22837299
-0.051346749 0.14705199 -0.2283715
-0.05122 0.14707868 -0.22835799
-0.051084798 0.14708641 -0.2283396
-0.05090325 0.14709601 -0.22832926
-0.045451 0.147018 -0.22832701
-0.045387331 0.14707135 -0.228397
-0.051964998 0.147199 -0.228448
-0.051843751 0.1472275 -0.22843549
-0.051601999 0.147173 -0.228378
-0.051599 0.147246 -0.228392
-0.0513855 0.1472 -0.22837651
-0.051254749 0.14722574 -0.22836077
-0.051069498 0.1472525 -0.228339
-0.050898246 0.14724 -0.228322
-0.045397498 0.14720251 -0.22838275
-0.051837999 0.1473735 -0.2284375
-0.051595502 0.1473535 -0.228383
-0.051380001 0.147346 -0.228378
-0.051256001 0.1473874 -0.22837719
-0.051063247 0.1473975 -0.22834925
-0.050892752 0.14738451 -0.22831875
-0.045392498 0.147347 -0.228374
-0.051954001 0.147488 -0.228449
-0.051832248 0.1475185 -0.22843949
-0.051590003 0.147498 -0.22837901
-0.051373001 0.147526 -0.22838134
-0.051241498 0.1475535 -0.22837675
-0.051057 0.147544 -0.22836
-0.050927497 0.147532 -0.228329
-0.050846502 0.14752799 -0.22832701
-0.050673999 0.14755499 -0.228301
-0.045371667 0.14748134 -0.22839433
-0.051945001 0.14770401 -0.22845
-0.051815003 0.14767466 -0.22843499
-0.051584497 0.147642 -0.228379
-0.051366501 0.147706 -0.22837099
-0.051235996 0.14769751 -0.2283735
-0.051051751 0.14768875 -0.22835624
-0.0509215 0.14767601 -0.228328
-0.050841 0.147672 -0.22832051
-0.050671 0.147627 -0.228304
-0.045335665 0.14767332 -0.228388
-0.051941998 0.14781199 -0.228441
-0.051821001 0.14780751 -0.22843799
-0.051576663 0.14782535 -0.22838666
-0.051361002 0.147852 -0.2283695
-0.051231001 0.14784151 -0.22836226
-0.051047001 0.14783099 -0.22833751
-0.050917 0.1478205 -0.22831801
-0.0508365 0.147816 -0.22830901
-0.045329001 0.147853 -0.22837099
-0.0519365 0.147956 -0.22842801
-0.051816251 0.1479505 -0.228425
-0.051570497 0.148004 -0.228375
-0.0513555 0.147995 -0.22836199
-0.051226251 0.147984 -0.22834626
-0.051085502 0.14798 -0.228356
-0.050997503 0.147972 -0.22832349
-0.050830498 0.1479595 -0.2283075
-0.045323998 0.14799699 -0.22835949
-0.052124001 0.148149 -0.228449
-0.051931001 0.148101 -0.228431
-0.051811747 0.148094 -0.228406
-0.051564999 0.148149 -0.228367
-0.0513505 0.148139 -0.22835651
-0.051220249 0.14812949 -0.22834975
-0.051080003 0.14812399 -0.22834799
-0.050991997 0.14811599 -0.22832
-0.050825499 0.148104 -0.228304
-0.045319498 0.14813951 -0.22834601
-0.052119501 0.148257 -0.228448
-0.051956668 0.14826 -0.22843234
-0.051804334 0.14827451 -0.22840948
-0.051560499 0.14829001 -0.228352
-0.051344998 0.148283 -0.228351
-0.051215749 0.14827175 -0.22833025
-0.051074997 0.148267 -0.228338
-0.050986998 0.14826 -0.2283075
-0.0453135 0.148285 -0.22834
-0.05213967 0.14841501 -0.22844301
-0.0519576 0.1484136 -0.22842661
-0.051797751 0.14845526 -0.228402
-0.051555 0.14843599 -0.22834599
-0.051339999 0.14842699 -0.228342
-0.051210247 0.1484165 -0.22833276
-0.051069498 0.14841101 -0.228332
-0.050981 0.148405 -0.22830999
-0.045308001 0.14842901 -0.228341
-0.052281499 0.148553 -0.228448
-0.052135665 0.14853533 -0.22844033
-0.0519704 0.1485876 -0.2284162
-0.051792249 0.148599 -0.22839874
-0.051549502 0.14858 -0.22834
-0.0513345 0.148571 -0.228339
-0.051204249 0.14856251 -0.22833501
-0.051064998 0.148555 -0.22831699
-0.050974999 0.148586 -0.228303
-0.045306001 0.148535 -0.228312
-0.052274 0.148734 -0.22845
-0.052121498 0.14872751 -0.22843775
-0.0519545 0.148753 -0.22840925
-0.051787 0.14874351 -0.22839449
-0.051544003 0.148725 -0.22834599
-0.051328503 0.148717 -0.2283445
-0.051198997 0.14870575 -0.22832701
-0.051059499 0.1487 -0.22832
-0.050940335 0.14872767 -0.22830634
-0.045297001 0.148755 -0.228321
-0.052570999 0.148895 -0.228449
-0.052143596 0.1488874 -0.22842582
-0.051964998 0.14888699 -0.22841768
-0.051844332 0.14890234 -0.22839434
-0.051747501 0.148886 -0.228374
-0.051538497 0.14886901 -0.228341
-0.0513235 0.1488605 -0.22833699
-0.051193248 0.14885101 -0.22833049
-0.051053502 0.148845 -0.228323
-0.050927997 0.14888719 -0.2283068
-0.050795998 0.148865 -0.228302
-0.045291997 0.148865 -0.228333
-0.052568998 0.148967 -0.22845
-0.052262001 0.1490595 -0.22843701
-0.052128751 0.1490545 -0.22844049
-0.051991001 0.14904501 -0.228413
-0.0518535 0.14903551 -0.22839126
-0.051741499 0.149032 -0.228387
-0.051532999 0.149014 -0.22834599
-0.0513185 0.149004 -0.2283175
-0.051086199 0.1490142 -0.2283338
-0.050927669 0.14904134 -0.228306
-0.045286998 0.14900851 -0.22831699
-0.052257001 0.149203 -0.228429
-0.052123003 0.14920075 -0.228439
-0.051985502 0.14919099 -0.22841349
-0.051848751 0.14918 -0.22838275
-0.051735997 0.149177 -0.2283815
-0.051527999 0.14915749 -0.22833401
-0.051314 0.149148 -0.22830701
-0.051222999 0.149142 -0.228319
-0.0510998 0.14918861 -0.228331
-0.050950497 0.14919999 -0.22830349
-0.045283001 0.14911599 -0.22830801
-0.052487999 0.149398 -0.228448
-0.052251503 0.149349 -0.228434
-0.052118249 0.14934301 -0.2284205
-0.051980503 0.14933449 -0.22840199
-0.051843498 0.14932349 -0.22837025
-0.051731497 0.14932001 -0.228358
-0.051523 0.14930099 -0.22831
-0.051304001 0.1494 -0.228301
-0.051216003 0.149323 -0.228321
-0.051101666 0.14934099 -0.22830968
-0.052545998 0.149547 -0.22844601
-0.052484497 0.149506 -0.22844699
-0.052275669 0.14950699 -0.22843099
-0.05211325 0.14948624 -0.22840625
-0.051974997 0.149478 -0.22839651
-0.051838249 0.1494675 -0.22836325
-0.051725999 0.149464 -0.2283515
-0.0525425 0.149654 -0.22843799
-0.052478999 0.149652 -0.22844499
-0.052285999 0.1496395 -0.22842349
-0.052107751 0.14963099 -0.22840799
-0.051969498 0.14962301 -0.22839099
-0.051833499 0.14961076 -0.22834575
-0.051720999 0.149608 -0.228342
-0.0511235 0.149644 -0.2283015
-0.052537501 0.149799 -0.228433
-0.052449334 0.14980666 -0.22843701
-0.052280501 0.14978375 -0.22841974
-0.052102502 0.14977551 -0.22839975
-0.051964499 0.14976799 -0.2283825
-0.051828504 0.14975449 -0.22833949
-0.051716 0.1497515 -0.22833151
-0.052754 0.149919 -0.22845
-0.052571405 0.14995481 -0.2284358
-0.052432999 0.14993726 -0.22842225
-0.052275501 0.149928 -0.2284085
-0.052097999 0.1499185 -0.2283785
-0.0519595 0.149912 -0.22838199
-0.051823247 0.1498985 -0.22832924
-0.051711001 0.149895 -0.228323
-0.052678 0.150096 -0.228449
-0.052576665 0.15009217 -0.22842799
-0.052427504 0.1500825 -0.228423
-0.052270748 0.15007125 -0.22839126
-0.052092999 0.15006301 -0.22836976
-0.051954001 0.15005651 -0.2283705
-0.051817752 0.1500435 -0.22832775
-0.051704001 0.15007567 -0.22831534
-0.052707996 0.150241 -0.22843149
-0.052571833 0.150236 -0.22841418
-0.052422501 0.15022498 -0.22840525
-0.052265748 0.15021449 -0.22838052
-0.052126497 0.15020999 -0.22837201
-0.051998496 0.15020201 -0.2283605
-0.051802397 0.15021041 -0.22833519
-0.051697001 0.15025699 -0.22832
-0.052904502 0.150396 -0.22844499
-0.052702498 0.15038499 -0.228423
-0.052567001 0.150378 -0.22839582
-0.052418001 0.15036899 -0.2283895
-0.052260496 0.150359 -0.22837475
-0.052121997 0.150353 -0.22835499
-0.051993504 0.1503465 -0.22835049
-0.051813602 0.1503838 -0.22831778
-0.051693 0.150365 -0.22830901
-0.053268 0.15055999 -0.2284385
-0.052899502 0.150539 -0.22843049
-0.052697498 0.15052851 -0.22841199
-0.052562002 0.15052266 -0.22838683
-0.052412748 0.15051225 -0.22837974
-0.052255251 0.15050301 -0.228365
-0.052116498 0.150497 -0.22834501
-0.051987674 0.1505245 -0.22832882
-0.062470999 0.150738 -0.228442
-0.062229 0.150729 -0.22844701
-0.053459503 0.15069124 -0.2284435
-0.053289 0.15071632 -0.22842699
-0.052894503 0.150683 -0.22841901
-0.052692499 0.150673 -0.22840199
-0.052556667 0.150667 -0.22838217
-0.052407749 0.150657 -0.2283705
-0.052250247 0.150647 -0.22835149
-0.052110668 0.15067767 -0.22833566
-0.051981002 0.1507045 -0.2283175
-0.062466502 0.150847 -0.228442
-0.062342335 0.15085533 -0.22844733
-0.062179998 0.15083525 -0.2284435
-0.061691999 0.150848 -0.228443
-0.0615425 0.15079901 -0.228424
-0.061272003 0.15086201 -0.22844249
-0.053439252 0.15085199 -0.22841848
-0.053297751 0.15084949 -0.22842124
-0.052890003 0.15082699 -0.2284025
-0.052688248 0.15081549 -0.22837725
-0.052552331 0.15080917 -0.22835718
-0.052403502 0.15079775 -0.22833925
-0.052260667 0.15077932 -0.22834568
-0.052151002 0.150858 -0.22832425
-0.051993001 0.15083735 -0.228315
-0.062461503 0.15098999 -0.228434
-0.062351752 0.150988 -0.22844449
-0.062174752 0.15097851 -0.22843125
-0.061725251 0.15095749 -0.22843501
-0.061561503 0.15094624 -0.22843626
-0.061411001 0.15101349 -0.2284435
-0.061267003 0.151005 -0.22842601
-0.053433999 0.15099551 -0.228411
-0.053293251 0.1509915 -0.22839901
-0.052886002 0.15096849 -0.228376
-0.052717999 0.15096 -0.228358
-0.05259734 0.150956 -0.22836299
-0.052421145 0.15095887 -0.22832929
-0.052284002 0.15097399 -0.22834134
-0.052162003 0.15099066 -0.228319
-0.052019998 0.150996 -0.22830999
-0.062559001 0.151177 -0.22844601
-0.062455997 0.151134 -0.22842601
-0.06234625 0.15113124 -0.22843376
-0.062169999 0.15112099 -0.228416
-0.061720248 0.1511015 -0.22842175
-0.061571997 0.1511144 -0.2284358
-0.061407 0.15115601 -0.22841999
-0.061261997 0.15114799 -0.22841349
-0.060990497 0.15113801 -0.22844851
-0.053721003 0.1511595 -0.228433
-0.053461 0.1511385 -0.22838101
-0.053362999 0.15113801 -0.22839899
-0.053249002 0.15113151 -0.22836401
-0.0528805 0.15111201 -0.22836351
-0.0527125 0.151103 -0.2283455
-0.052591834 0.15110134 -0.2283625
-0.052425288 0.151124 -0.22832415
-0.052276999 0.151154 -0.228331
-0.052187502 0.15114799 -0.22831601
-0.062766999 0.15129526 -0.22844
-0.062555499 0.15128401 -0.2284285
-0.0624515 0.15127751 -0.22841099
-0.062341996 0.151274 -0.22841649
-0.062165502 0.15126374 -0.22839925
-0.061707802 0.1512648 -0.22839861
-0.061582625 0.15128186 -0.22841951
-0.061402 0.151298 -0.22840351
-0.061256498 0.151292 -0.228415
-0.060984999 0.151282 -0.22844499
-0.053716 0.15130201 -0.228416
-0.053456001 0.151282 -0.22836401
-0.053358499 0.15128051 -0.22837649
-0.053243503 0.15127499 -0.228358
-0.052876003 0.1512545 -0.22834
-0.052708 0.1512475 -0.22833401
-0.052587166 0.151245 -0.22834617
-0.052445401 0.15128441 -0.22831619
-0.052297998 0.15130967 -0.22831099
-0.052182999 0.151256 -0.22830801
-0.062893003 0.151482 -0.228448
-0.062762499 0.151438 -0.2284275
-0.062551998 0.15139 -0.228415
-0.062481333 0.15143333 -0.22839899
-0.06233725 0.15141624 -0.2283985
-0.062161248 0.15140526 -0.22837399
-0.061716598 0.1514366 -0.22838199
-0.061570827 0.15144934 -0.22839218
-0.061397001 0.15144101 -0.228388
-0.061252501 0.1514335 -0.2283825
-0.060980998 0.1514235 -0.2284175
-0.060800001 0.15142401 -0.22844499
-0.053980999 0.151429 -0.228442
-0.0537115 0.151445 -0.22839901
-0.053451002 0.151425 -0.22835499
-0.05335325 0.15142399 -0.2283715
-0.053239003 0.15142 -0.228348
-0.052871503 0.151397 -0.2283245
-0.052701999 0.15142633 -0.22831701
-0.052581776 0.15142179 -0.22831355
-0.052480999 0.151416 -0.228304
-0.052319333 0.15143067 -0.22830565
-0.062889501 0.15159 -0.228432
-0.062757254 0.1515815 -0.228416
-0.062493999 0.15156575 -0.228384
-0.0623325 0.151559 -0.22838148
-0.062155999 0.15154949 -0.22836699
-0.061703753 0.1516 -0.22836225
-0.061566498 0.151592 -0.22837132
-0.061393 0.151582 -0.2283565
-0.061247997 0.151575 -0.22835699
-0.060976498 0.151566 -0.22839299
-0.060796 0.151566 -0.228423
-0.060693335 0.15157534 -0.22843401
-0.060438 0.1516135 -0.22842599
-0.060293999 0.151648 -0.22844701
-0.054493502 0.151565 -0.22844401
-0.054389 0.151592 -0.22843499
-0.053975999 0.151573 -0.22843833
-0.053705499 0.151591 -0.228407
-0.053446501 0.151567 -0.2283345
-0.053348254 0.151568 -0.22836074
-0.053233501 0.151564 -0.22834601
-0.052865997 0.15154201 -0.228322
-0.0526025 0.15156451 -0.2283055
-0.062883496 0.15173399 -0.22843149
-0.062752247 0.1517255 -0.228405
-0.062489249 0.15170775 -0.228366
-0.06232775 0.15170126 -0.22836025
-0.062150329 0.15172601 -0.2283345
-0.061699748 0.15174174 -0.22833648
-0.061562002 0.15173399 -0.22834782
-0.0613885 0.15172601 -0.228342
-0.061243501 0.15171801 -0.228339
-0.060971998 0.1517075 -0.2283715
-0.060791999 0.15170699 -0.228386
-0.060677253 0.15170525 -0.2284205
-0.060433999 0.15175399 -0.228398
-0.060255334 0.151766 -0.22844267
-0.054722 0.15171801 -0.228439
-0.054488003 0.1517085 -0.228429
-0.054385498 0.1517 -0.228422
-0.054226998 0.15173 -0.228438
-0.053970002 0.151752 -0.2284155
-0.053702001 0.15169799 -0.228398
-0.053699002 0.15177 -0.228386
-0.053441502 0.151711 -0.228328
-0.053342748 0.15171251 -0.22835299
-0.053228997 0.15170699 -0.228324
-0.052858666 0.15172333 -0.22832501
-0.063064002 0.151926 -0.228448
-0.062924251 0.151879 -0.228423
-0.062747747 0.15186675 -0.22838549
-0.062484499 0.15185025 -0.22835223
-0.062314402 0.1518634 -0.2283338
-0.062160332 0.15189201 -0.22830999
-0.061694749 0.151884 -0.22831976
-0.061568599 0.1518686 -0.22832242
-0.061384499 0.151866 -0.22830901
-0.061238997 0.15186 -0.22832
-0.060967997 0.151849 -0.228341
-0.060786501 0.151851 -0.228386
-0.060673002 0.15184775 -0.2283985
-0.060428999 0.15189749 -0.228386
-0.060235001 0.15189549 -0.2284165
-0.060043 0.151889 -0.2284465
-0.059999 0.151921 -0.228439
-0.059819497 0.151884 -0.2284455
-0.055410001 0.15192799 -0.22843701
-0.0551695 0.151884 -0.22844601
-0.054808997 0.15187049 -0.228448
-0.054674502 0.15186074 -0.22843601
-0.054533496 0.1518535 -0.22842266
-0.05438 0.15184399 -0.228416
-0.054222669 0.15187299 -0.22841699
-0.053965501 0.151895 -0.228398
-0.053695999 0.151876 -0.22836851
-0.053436 0.151857 -0.228324
-0.053338252 0.15185499 -0.22833975
-0.053223498 0.151851 -0.228323
-0.063103996 0.15203476 -0.2284285
-0.062920004 0.15202099 -0.22840399
-0.062757336 0.15199934 -0.22837234
-0.062700003 0.152042 -0.228351
-0.062498003 0.15198134 -0.22833033
-0.062332999 0.15199667 -0.22831599
-0.0616915 0.15199101 -0.22831151
-0.061553001 0.15198 -0.228302
-0.0612345 0.15200201 -0.228305
-0.060961667 0.15202801 -0.22833133
-0.060781334 0.15202667 -0.22834599
-0.060667496 0.15202451 -0.22836699
-0.060424499 0.15203899 -0.2283605
-0.060230002 0.15203725 -0.22840101
-0.060082003 0.15203449 -0.22842351
-0.059995502 0.15202901 -0.22842601
-0.059813 0.152064 -0.228438
-0.059652999 0.152053 -0.228442
-0.05948 0.152045 -0.228434
-0.055833001 0.152099 -0.22845
-0.055670001 0.15209199 -0.22845
-0.055504002 0.15208 -0.228443
-0.055407003 0.152033 -0.228414
-0.055252001 0.15207 -0.228449
-0.055117749 0.152027 -0.22843425
-0.054980502 0.15202101 -0.22844601
-0.054832667 0.15202767 -0.22844033
-0.054669499 0.15200451 -0.22842249
-0.054528166 0.15199767 -0.22840899
-0.054374333 0.152023 -0.22839434
-0.054217003 0.15205151 -0.228394
-0.053961001 0.15203699 -0.228377
-0.053691998 0.15201899 -0.22834599
-0.053431999 0.15196501 -0.228312
-0.053333502 0.151999 -0.22832251
-0.05322 0.151959 -0.22830801
-0.063230999 0.15218 -0.228423
-0.063099749 0.15217575 -0.2283995
-0.062915497 0.15216225 -0.22837549
-0.062780999 0.152154 -0.22835049
-0.062697001 0.152147 -0.2283245
-0.062526003 0.15217467 -0.22832066
-0.0609545 0.152208 -0.2283285
-0.0607755 0.15220401 -0.228324
-0.060661748 0.15220301 -0.228347
-0.060418501 0.15218499 -0.228366
-0.060225252 0.15218 -0.22838199
-0.060078003 0.15217599 -0.228403
-0.059990503 0.152172 -0.228415
-0.059809998 0.152169 -0.228416
-0.05965 0.15215799 -0.228414
-0.059476502 0.152151 -0.22841501
-0.059122 0.15224899 -0.228442
-0.055864334 0.15222032 -0.228442
-0.055702999 0.1522025 -0.22843701
-0.055562802 0.15218499 -0.22843662
-0.055434335 0.15219165 -0.22840667
-0.055248998 0.15217599 -0.2284185
-0.055112749 0.15217075 -0.2284185
-0.054975003 0.15216601 -0.22844049
-0.054842502 0.152161 -0.2284275
-0.054664496 0.15214925 -0.22841075
-0.054515712 0.15215658 -0.22839543
-0.0543685 0.152202 -0.22837099
-0.054212 0.15219399 -0.228378
-0.053956002 0.152181 -0.22836401
-0.053686999 0.15216151 -0.2283255
-0.053292997 0.152143 -0.228314
-0.063304998 0.152367 -0.22845
-0.063225999 0.15232401 -0.228413
-0.063094996 0.152318 -0.22838575
-0.062910497 0.1523055 -0.2283705
-0.062776506 0.15229601 -0.228331
-0.062689997 0.15232633 -0.22832067
-0.060949497 0.152353 -0.22832
-0.0607705 0.152348 -0.22831
-0.060657248 0.15234473 -0.22832501
-0.060414501 0.152326 -0.22834349
-0.060221247 0.15232176 -0.22835401
-0.0600725 0.152321 -0.22839451
-0.0599855 0.15231501 -0.228402
-0.059805498 0.1523115 -0.228396
-0.059644997 0.15230399 -0.228407
-0.059471503 0.15229499 -0.228407
-0.059170198 0.1523366 -0.22843
-0.059026502 0.15235899 -0.22844499
-0.056412 0.152339 -0.22844701
-0.056185 0.15233099 -0.22845
-0.05606867 0.15237235 -0.22844501
-0.055877753 0.1523525 -0.22842601
-0.055698503 0.1523445 -0.22841075
-0.055573501 0.15233549 -0.228415
-0.055446755 0.15232475 -0.228398
-0.055244498 0.152319 -0.228404
-0.055108 0.15231375 -0.22840402
-0.054971002 0.1523065 -0.22841099
-0.054838002 0.15230376 -0.2284095
-0.054650001 0.1523138 -0.22840139
-0.054522622 0.15233137 -0.22839238
-0.054362997 0.15234751 -0.22836849
-0.0542075 0.15233749 -0.22836
-0.053951003 0.1523235 -0.22834501
-0.053681999 0.15230601 -0.22831801
-0.063372999 0.15248026 -0.22843675
-0.063247658 0.152481 -0.22840567
-0.063089743 0.15246251 -0.22837625
-0.062904999 0.1524505 -0.228361
-0.062770002 0.15247667 -0.22832768
-0.0626835 0.15250701 -0.228313
-0.060766999 0.152457 -0.228306
-0.060652249 0.15248799 -0.22831351
-0.06041 0.15246999 -0.228324
-0.060216501 0.15246451 -0.22833925
-0.060068 0.1524635 -0.228376
-0.059981003 0.15245649 -0.228377
-0.0598015 0.152454 -0.22837
-0.059640497 0.152446 -0.22839099
-0.059466001 0.152472 -0.22837199
-0.059156254 0.1525005 -0.22841199
-0.059021503 0.152503 -0.228448
-0.058493 0.152511 -0.22844701
-0.057471 0.15253501 -0.228443
-0.05643275 0.152449 -0.22844149
-0.056180667 0.15247466 -0.22843367
-0.056050502 0.1525045 -0.2284345
-0.055872999 0.15249601 -0.22841275
-0.0556935 0.15248699 -0.22839576
-0.055569001 0.15247875 -0.22839302
-0.055441748 0.1524675 -0.22837725
-0.055238999 0.152463 -0.22839251
-0.055103499 0.152457 -0.22838575
-0.0549655 0.15245199 -0.2284025
-0.0548236 0.152468 -0.22839558
-0.054661799 0.1524848 -0.2283686
-0.054510664 0.15250133 -0.22837001
-0.054359 0.15248799 -0.22833499
-0.054203 0.152481 -0.228342
-0.053947002 0.152467 -0.228322
-0.053677998 0.15241399 -0.228302
-0.063483 0.152631 -0.228438
-0.063402742 0.15262449 -0.228421
-0.063256502 0.15261349 -0.22839925
-0.063085005 0.152605 -0.22836025
-0.062890798 0.15261319 -0.22834119
-0.062763497 0.152657 -0.22831401
-0.062679999 0.152614 -0.228305
-0.060614001 0.152593 -0.228304
-0.060405001 0.15261251 -0.2283155
-0.060211748 0.1526085 -0.22832499
-0.060064003 0.15260351 -0.2283425
-0.059977002 0.15259901 -0.2283545
-0.059795998 0.15259799 -0.22836399
-0.059634998 0.15262367 -0.22835733
-0.0594595 0.15265299 -0.2283645
-0.059151001 0.15264526 -0.22840324
-0.059015997 0.15264651 -0.228434
-0.058734998 0.15263399 -0.22844201
-0.058436498 0.15261701 -0.2284445
-0.057697497 0.15266 -0.22844949
-0.057466999 0.152643 -0.2284375
-0.057287 0.15267199 -0.228444
-0.056657001 0.15264601 -0.228449
-0.056441795 0.15260199 -0.2284282
-0.056312714 0.15263543 -0.22843286
-0.056175001 0.15265301 -0.22840899
-0.056046251 0.15264575 -0.22841126
-0.055868253 0.15263875 -0.22839625
-0.055689 0.15262926 -0.22837126
-0.055563997 0.152622 -0.22837999
-0.055438001 0.15260899 -0.22834675
-0.055235997 0.152602 -0.22834501
